# This PCD file was generated using the MATLAB® pcwrite function
# from Computer Vision Toolbox®.
# .PCD v.7 - Point Cloud Data file format
VERSION .7
FIELDS x y z intensity
SIZE 4 4 4 4
TYPE F F F F
COUNT 1 1 1 1
WIDTH 1282
HEIGHT 1
VIEWPOINT 0 0 0 1 0 0 0
POINTS 1282
DATA ascii
3.092582 0.322663 0.563313 35.000000
3.094538 0.313273 0.563481 35.000000
3.096465 0.303875 0.563649 35.000000
3.100327 0.294654 0.564152 35.000000
3.101216 0.285141 0.564152 35.000000
3.102077 0.275626 0.564152 35.000000
3.103890 0.266192 0.564320 35.000000
3.102727 0.256505 0.563985 35.000000
3.103499 0.246985 0.563985 35.000000
3.102277 0.237311 0.563649 35.000000
3.102990 0.227792 0.563649 35.000000
3.100724 0.218063 0.563145 35.000000
3.100395 0.208482 0.562977 35.000000
3.101020 0.198969 0.562977 35.000000
3.099648 0.189334 0.562641 35.000000
3.100214 0.179823 0.562641 35.000000
3.102720 0.170420 0.562977 35.000000
3.100275 0.160746 0.562473 35.000000
3.104692 0.151427 0.563145 35.000000
3.108096 0.142037 0.563649 35.000000
3.105563 0.132374 0.563145 35.000000
3.108909 0.122964 0.563649 35.000000
3.109272 0.113425 0.563649 35.000000
3.109605 0.103886 0.563649 35.000000
3.106953 0.094254 0.563145 35.000000
3.107228 0.084722 0.563145 35.000000
3.039474 0.073518 0.551555 35.000000
3.078290 0.353667 0.543214 36.000000
3.082302 0.344549 0.543701 36.000000
3.084326 0.335197 0.543863 36.000000
3.087302 0.325939 0.544188 36.000000
3.089269 0.316566 0.544350 36.000000
3.090226 0.307087 0.544350 36.000000
3.092136 0.297699 0.544512 36.000000
3.092052 0.288120 0.544350 36.000000
3.092921 0.278632 0.544350 36.000000
3.091796 0.268972 0.544025 36.000000
3.092606 0.259485 0.544025 36.000000
3.092404 0.249917 0.543863 36.000000
3.093156 0.240428 0.543863 36.000000
3.093879 0.230937 0.543863 36.000000
3.094573 0.221444 0.543863 36.000000
3.095238 0.211949 0.543863 36.000000
3.094889 0.202388 0.543701 36.000000
3.095495 0.192892 0.543701 36.000000
3.095088 0.183336 0.543539 36.000000
3.098591 0.174005 0.544025 36.000000
3.101081 0.164602 0.544350 36.000000
3.101572 0.155087 0.544350 36.000000
3.103019 0.145617 0.544512 36.000000
3.104437 0.136139 0.544675 36.000000
3.105825 0.126654 0.544837 36.000000
3.108172 0.117198 0.545161 36.000000
3.106544 0.107594 0.544837 36.000000
3.105873 0.098032 0.544675 36.000000
3.104187 0.088448 0.544350 36.000000
3.103457 0.078899 0.544188 36.000000
3.101712 0.069334 0.543863 36.000000
3.098950 0.059762 0.543376 36.000000
3.097146 0.050223 0.543052 36.000000
3.091365 0.040645 0.542078 36.000000
3.099369 0.031237 0.543376 36.000000
3.117211 0.021846 0.546298 36.000000
3.079497 0.361380 0.524217 37.000000
3.081573 0.352043 0.524373 37.000000
3.083620 0.342696 0.524529 37.000000
3.083675 0.333128 0.524373 37.000000
3.084682 0.323666 0.524373 37.000000
3.086643 0.314301 0.524529 37.000000
3.086610 0.304733 0.524373 37.000000
3.085564 0.295074 0.524061 37.000000
3.085471 0.285515 0.523904 37.000000
3.085349 0.275960 0.523748 37.000000
3.086181 0.266493 0.523748 37.000000
3.086000 0.256941 0.523592 37.000000
3.086774 0.247473 0.523592 37.000000
3.088503 0.238077 0.523748 37.000000
3.090204 0.228673 0.523904 37.000000
3.091876 0.219261 0.524061 37.000000
3.093520 0.209841 0.524217 37.000000
3.097106 0.200541 0.524686 37.000000
3.096721 0.190977 0.524529 37.000000
3.096306 0.181418 0.524373 37.000000
3.097835 0.171973 0.524529 37.000000
3.098347 0.162468 0.524529 37.000000
3.097845 0.152913 0.524373 37.000000
3.099286 0.143454 0.524529 37.000000
3.100698 0.133987 0.524686 37.000000
3.102082 0.124513 0.524842 37.000000
3.102449 0.114995 0.524842 37.000000
3.103775 0.105510 0.524998 37.000000
3.103096 0.095957 0.524842 37.000000
3.101402 0.086381 0.524529 37.000000
3.101652 0.076866 0.524529 37.000000
3.099898 0.067307 0.524217 37.000000
3.098115 0.057760 0.523904 37.000000
3.099265 0.048270 0.524061 37.000000
3.100386 0.038774 0.524217 37.000000
3.099503 0.029253 0.524061 37.000000
3.098591 0.019737 0.523904 37.000000
3.099624 0.010234 0.524061 37.000000
3.098653 0.000724 0.523904 37.000000
3.092715 -0.008765 0.522967 37.000000
3.113415 -0.018378 0.526248 37.000000
3.075432 0.370097 0.504462 38.000000
3.078516 0.360891 0.504763 38.000000
3.079609 0.351444 0.504763 38.000000
3.080673 0.341995 0.504763 38.000000
3.081708 0.332542 0.504763 38.000000
3.080747 0.322879 0.504462 38.000000
3.080739 0.313326 0.504312 38.000000
3.081686 0.303873 0.504312 38.000000
3.080636 0.294229 0.504012 38.000000
3.079555 0.284594 0.503711 38.000000
3.078444 0.274968 0.503411 38.000000
3.079273 0.265522 0.503411 38.000000
3.080073 0.256074 0.503411 38.000000
3.079859 0.246544 0.503260 38.000000
3.083558 0.237322 0.503711 38.000000
3.086244 0.228007 0.504012 38.000000
3.090873 0.218817 0.504613 38.000000
3.092516 0.209400 0.504763 38.000000
3.096104 0.200103 0.505213 38.000000
3.093743 0.190421 0.504763 38.000000
3.086417 0.180466 0.503561 38.000000
3.088930 0.171106 0.503861 38.000000
3.089441 0.161628 0.503861 38.000000
3.083997 0.151857 0.502960 38.000000
3.084449 0.142395 0.502960 38.000000
3.086847 0.133016 0.503260 38.000000
3.088228 0.123585 0.503411 38.000000
3.090569 0.114183 0.503711 38.000000
3.092880 0.104768 0.504012 38.000000
3.095164 0.095340 0.504312 38.000000
3.092477 0.085761 0.503861 38.000000
3.095690 0.076346 0.504312 38.000000
3.095910 0.066849 0.504312 38.000000
3.096101 0.057350 0.504312 38.000000
3.099228 0.047897 0.504763 38.000000
3.102326 0.038426 0.505213 38.000000
3.100452 0.028889 0.504913 38.000000
3.099537 0.019371 0.504763 38.000000
3.097605 0.009855 0.504462 38.000000
3.096632 0.000351 0.504312 38.000000
3.093652 -0.009140 0.503861 38.000000
3.092621 -0.018626 0.503711 38.000000
3.092549 -0.028114 0.503711 38.000000
3.093437 -0.037613 0.503861 38.000000
3.097261 -0.047163 0.504462 38.000000
3.102045 -0.056755 0.505213 38.000000
3.119648 -0.066650 0.507918 38.000000
3.132277 -0.076533 0.509870 38.000000
3.072215 0.377818 0.485445 39.000000
3.073360 0.368391 0.485445 39.000000
3.075458 0.359075 0.485589 39.000000
3.076545 0.349638 0.485589 39.000000
3.078587 0.340307 0.485733 39.000000
3.080601 0.330966 0.485878 39.000000
3.079633 0.321307 0.485589 39.000000
3.079620 0.311758 0.485445 39.000000
3.080562 0.302308 0.485445 39.000000
3.079505 0.292668 0.485156 39.000000
3.079403 0.283127 0.485011 39.000000
3.077300 0.273415 0.484578 39.000000
3.076153 0.263803 0.484290 39.000000
3.076947 0.254364 0.484290 39.000000
3.077713 0.244923 0.484290 39.000000
3.079437 0.235555 0.484434 39.000000
3.082119 0.226252 0.484723 39.000000
3.088721 0.217214 0.485589 39.000000
3.089373 0.207737 0.485589 39.000000
3.091970 0.198385 0.485878 39.000000
3.091577 0.188838 0.485733 39.000000
3.090166 0.179237 0.485445 39.000000
3.084773 0.169427 0.484578 39.000000
3.083302 0.159859 0.484290 39.000000
3.080813 0.150254 0.483857 39.000000
3.080271 0.140755 0.483712 39.000000
3.079700 0.131262 0.483568 39.000000
3.083054 0.121932 0.484001 39.000000
3.085392 0.112545 0.484290 39.000000
3.089678 0.103212 0.484867 39.000000
3.090969 0.093763 0.485011 39.000000
3.093221 0.084335 0.485300 39.000000
3.095443 0.074893 0.485589 39.000000
3.097637 0.065438 0.485878 39.000000
3.100791 0.055989 0.486311 39.000000
3.100949 0.046476 0.486311 39.000000
3.102066 0.036974 0.486455 39.000000
3.102165 0.027457 0.486455 39.000000
3.099266 0.017922 0.486022 39.000000
3.101285 0.008419 0.486311 39.000000
3.100307 -0.001095 0.486166 39.000000
3.100289 -0.010607 0.486166 39.000000
3.099252 -0.020113 0.486022 39.000000
3.100166 -0.029630 0.486166 39.000000
3.104018 -0.039189 0.486744 39.000000
3.105862 -0.048743 0.487032 39.000000
3.106687 -0.058289 0.487177 39.000000
3.109462 -0.067884 0.487610 39.000000
3.110228 -0.077447 0.487754 39.000000
3.110965 -0.087016 0.487899 39.000000
3.109694 -0.096530 0.487754 39.000000
3.112350 -0.106170 0.488187 39.000000
3.106077 -0.115500 0.487321 39.000000
3.073079 -0.123727 0.482557 39.000000
3.057698 0.379313 0.464808 40.000000
3.060814 0.370168 0.465085 40.000000
3.063902 0.361007 0.465362 40.000000
3.066963 0.351830 0.465639 40.000000
3.070981 0.342748 0.466054 40.000000
3.074972 0.333644 0.466470 40.000000
3.075981 0.324208 0.466470 40.000000
3.075976 0.314669 0.466331 40.000000
3.076927 0.305231 0.466331 40.000000
3.076863 0.295695 0.466193 40.000000
3.076770 0.286163 0.466054 40.000000
3.076647 0.276634 0.465916 40.000000
3.074521 0.266937 0.465500 40.000000
3.073352 0.257339 0.465223 40.000000
3.074127 0.247909 0.465223 40.000000
3.075860 0.238553 0.465362 40.000000
3.079540 0.229335 0.465777 40.000000
3.084181 0.220166 0.466331 40.000000
3.084842 0.210703 0.466331 40.000000
3.086462 0.201302 0.466470 40.000000
3.088054 0.191893 0.466608 40.000000
3.087639 0.182360 0.466470 40.000000
3.084229 0.172666 0.465916 40.000000
3.082766 0.163099 0.465639 40.000000
3.081274 0.153543 0.465362 40.000000
3.080741 0.144043 0.465223 40.000000
3.080179 0.134548 0.465085 40.000000
3.081567 0.125137 0.465223 40.000000
3.084905 0.115793 0.465639 40.000000
3.086236 0.106362 0.465777 40.000000
3.088527 0.096954 0.466054 40.000000
3.090790 0.087534 0.466331 40.000000
3.092034 0.078076 0.466470 40.000000
3.093250 0.068611 0.466608 40.000000
3.093445 0.059120 0.466608 40.000000
3.095593 0.049661 0.466885 40.000000
3.096721 0.040176 0.467024 40.000000
3.095839 0.030665 0.466885 40.000000
3.095919 0.021167 0.466885 40.000000
3.093988 0.011662 0.466608 40.000000
3.095990 0.002171 0.466885 40.000000
3.097963 -0.007333 0.467162 40.000000
3.097926 -0.016837 0.467162 40.000000
3.098850 -0.026350 0.467301 40.000000
3.101726 -0.035893 0.467716 40.000000
3.104572 -0.045453 0.468131 40.000000
3.106398 -0.055014 0.468408 40.000000
3.108195 -0.064586 0.468685 40.000000
3.109962 -0.074169 0.468962 40.000000
3.108730 -0.083683 0.468824 40.000000
3.108459 -0.093220 0.468824 40.000000
3.110138 -0.102822 0.469101 40.000000
3.108818 -0.112327 0.468962 40.000000
3.109448 -0.121904 0.469101 40.000000
3.109060 -0.131443 0.469101 40.000000
3.109631 -0.141026 0.469239 40.000000
3.110173 -0.150614 0.469378 40.000000
3.111674 -0.160258 0.469655 40.000000
3.085457 -0.168390 0.466054 40.000000
3.108655 -0.179233 0.469378 40.000000
3.053245 0.387900 0.445280 41.000000
3.058356 0.379018 0.445810 41.000000
3.059504 0.369634 0.445810 41.000000
3.063577 0.360593 0.446207 41.000000
3.066638 0.351418 0.446472 41.000000
3.071643 0.342446 0.447002 41.000000
3.073664 0.333128 0.447134 41.000000
3.075657 0.323800 0.447267 41.000000
3.076636 0.314363 0.447267 41.000000
3.076600 0.304824 0.447134 41.000000
3.075547 0.295195 0.446869 41.000000
3.076438 0.285758 0.446869 41.000000
3.074339 0.276053 0.446472 41.000000
3.075171 0.266619 0.446472 41.000000
3.073012 0.256936 0.446075 41.000000
3.073786 0.247507 0.446075 41.000000
3.075519 0.238152 0.446207 41.000000
3.077223 0.228789 0.446340 41.000000
3.079888 0.219488 0.446604 41.000000
3.081536 0.210105 0.446737 41.000000
3.084144 0.200779 0.447002 41.000000
3.086724 0.191438 0.447267 41.000000
3.088287 0.182025 0.447399 41.000000
3.088830 0.172550 0.447399 41.000000
3.091325 0.163177 0.447664 41.000000
3.091811 0.153692 0.447664 41.000000
3.090288 0.144114 0.447399 41.000000
3.090715 0.134632 0.447399 41.000000
3.093095 0.125229 0.447664 41.000000
3.092474 0.115702 0.447531 41.000000
3.091824 0.106180 0.447399 41.000000
3.089163 0.096602 0.447002 41.000000
3.088454 0.087096 0.446869 41.000000
3.087715 0.077595 0.446737 41.000000
3.085957 0.068079 0.446472 41.000000
3.087142 0.058629 0.446604 41.000000
3.088299 0.049174 0.446737 41.000000
3.089426 0.039711 0.446869 41.000000
3.090525 0.030242 0.447002 41.000000
3.092585 0.020774 0.447267 41.000000
3.095608 0.011296 0.447664 41.000000
3.097610 0.001800 0.447929 41.000000
3.097601 -0.007704 0.447929 41.000000
3.099545 -0.017218 0.448194 41.000000
3.101460 -0.026745 0.448458 41.000000
3.103346 -0.036283 0.448723 41.000000
3.104211 -0.045819 0.448856 41.000000
3.105047 -0.055360 0.448988 41.000000
3.106845 -0.064927 0.449253 41.000000
3.106631 -0.074459 0.449253 41.000000
3.106388 -0.083989 0.449253 41.000000
3.107106 -0.093549 0.449385 41.000000
3.107795 -0.103114 0.449518 41.000000
3.108455 -0.112684 0.449650 41.000000
3.108094 -0.122220 0.449650 41.000000
3.107705 -0.131755 0.449650 41.000000
3.109266 -0.141379 0.449915 41.000000
3.109808 -0.150966 0.450048 41.000000
3.112300 -0.160659 0.450445 41.000000
3.114761 -0.170370 0.450842 41.000000
3.114224 -0.179925 0.450842 41.000000
3.114647 -0.189539 0.450975 41.000000
3.115040 -0.199157 0.451107 41.000000
3.115403 -0.208779 0.451239 41.000000
3.102883 -0.217503 0.449650 41.000000
3.048747 0.394844 0.426344 42.000000
3.049944 0.385489 0.426344 42.000000
3.054066 0.376494 0.426723 42.000000
3.055207 0.367123 0.426723 42.000000
3.059274 0.358094 0.427103 42.000000
3.062330 0.348931 0.427356 42.000000
3.067329 0.339972 0.427862 42.000000
3.069344 0.330667 0.427989 42.000000
3.069358 0.321145 0.427862 42.000000
3.070328 0.311727 0.427862 42.000000
3.069296 0.302111 0.427609 42.000000
3.069221 0.292599 0.427482 42.000000
3.069116 0.283090 0.427356 42.000000
3.067994 0.273497 0.427103 42.000000
3.067831 0.263998 0.426976 42.000000
3.068626 0.254584 0.426976 42.000000
3.069393 0.245169 0.426976 42.000000
3.071120 0.235827 0.427103 42.000000
3.071829 0.226404 0.427103 42.000000
3.071519 0.216909 0.426976 42.000000
3.071181 0.207417 0.426850 42.000000
3.072793 0.198058 0.426976 42.000000
3.074376 0.188691 0.427103 42.000000
3.075930 0.179316 0.427229 42.000000
3.078447 0.169988 0.427482 42.000000
3.081926 0.160698 0.427862 42.000000
3.084386 0.151339 0.428115 42.000000
3.086818 0.141967 0.428368 42.000000
3.089221 0.132581 0.428621 42.000000
3.089613 0.123103 0.428621 42.000000
3.087993 0.113551 0.428368 42.000000
3.085353 0.103976 0.427989 42.000000
3.082683 0.094418 0.427609 42.000000
3.078992 0.084850 0.427103 42.000000
3.077254 0.075355 0.426850 42.000000
3.075488 0.065871 0.426597 42.000000
3.076667 0.056453 0.426723 42.000000
3.078809 0.047045 0.426976 42.000000
3.081915 0.037635 0.427356 42.000000
3.083008 0.028189 0.427482 42.000000
3.087048 0.018755 0.427989 42.000000
3.090066 0.009294 0.428368 42.000000
3.091072 -0.000187 0.428495 42.000000
3.092049 -0.009673 0.428621 42.000000
3.092997 -0.019165 0.428748 42.000000
3.091932 -0.028645 0.428621 42.000000
3.091829 -0.038131 0.428621 42.000000
3.094673 -0.047662 0.429001 42.000000
3.095504 -0.057174 0.429128 42.000000
3.098289 -0.066734 0.429507 42.000000
3.096087 -0.076191 0.429254 42.000000
3.099805 -0.085799 0.429760 42.000000
3.100518 -0.095339 0.429887 42.000000
3.102194 -0.104917 0.430140 42.000000
3.101858 -0.114434 0.430140 42.000000
3.103474 -0.124029 0.430393 42.000000
3.103079 -0.133550 0.430393 42.000000
3.105628 -0.143206 0.430773 42.000000
3.106164 -0.152782 0.430899 42.000000
3.108653 -0.162465 0.431279 42.000000
3.110121 -0.172111 0.431532 42.000000
3.110568 -0.181710 0.431658 42.000000
3.110986 -0.191313 0.431785 42.000000
3.110385 -0.200856 0.431785 42.000000
3.109754 -0.210398 0.431785 42.000000
3.110083 -0.220007 0.431911 42.000000
3.110383 -0.229621 0.432038 42.000000
3.049967 0.404143 0.406585 43.000000
3.055131 0.395295 0.407066 43.000000
3.055344 0.385795 0.406946 43.000000
3.055528 0.376298 0.406825 43.000000
3.059625 0.367278 0.407186 43.000000
3.064682 0.358352 0.407666 43.000000
3.066753 0.349061 0.407787 43.000000
3.067809 0.339650 0.407787 43.000000
3.070811 0.330450 0.408027 43.000000
3.071810 0.321027 0.408027 43.000000
3.070806 0.311401 0.407787 43.000000
3.071746 0.301978 0.407787 43.000000
3.073647 0.292647 0.407907 43.000000
3.072553 0.283033 0.407666 43.000000
3.070440 0.273340 0.407306 43.000000
3.071265 0.263919 0.407306 43.000000
3.074039 0.254660 0.407546 43.000000
3.071836 0.244990 0.407186 43.000000
3.072574 0.235564 0.407186 43.000000
3.070312 0.225917 0.406825 43.000000
3.068020 0.216286 0.406465 43.000000
3.067678 0.206805 0.406345 43.000000
3.068298 0.197392 0.406345 43.000000
3.067899 0.187917 0.406225 43.000000
3.068461 0.178504 0.406225 43.000000
3.074941 0.169419 0.406946 43.000000
3.079412 0.160192 0.407426 43.000000
3.081872 0.150842 0.407666 43.000000
3.085296 0.141524 0.408027 43.000000
3.089683 0.132229 0.408507 43.000000
3.090074 0.122749 0.408507 43.000000
3.090436 0.113268 0.408507 43.000000
3.085808 0.103618 0.407907 43.000000
3.083134 0.094059 0.407546 43.000000
3.077454 0.084434 0.406825 43.000000
3.074721 0.074918 0.406465 43.000000
3.071959 0.065420 0.406105 43.000000
3.074131 0.056032 0.406345 43.000000
3.075281 0.046616 0.406465 43.000000
3.079380 0.037230 0.406946 43.000000
3.082458 0.027811 0.407306 43.000000
3.085507 0.018373 0.407666 43.000000
3.090512 0.008923 0.408267 43.000000
3.093503 -0.000558 0.408628 43.000000
3.094480 -0.010052 0.408748 43.000000
3.094434 -0.019546 0.408748 43.000000
3.094360 -0.029039 0.408748 43.000000
3.094256 -0.038532 0.408748 43.000000
3.095116 -0.048040 0.408868 43.000000
3.094954 -0.057536 0.408868 43.000000
3.096748 -0.067073 0.409108 43.000000
3.097520 -0.076597 0.409228 43.000000
3.097271 -0.086100 0.409228 43.000000
3.098977 -0.095663 0.409468 43.000000
3.100653 -0.105236 0.409709 43.000000
3.101308 -0.114785 0.409829 43.000000
3.101933 -0.124338 0.409949 43.000000
3.102529 -0.133897 0.410069 43.000000
3.103095 -0.143460 0.410189 43.000000
3.103632 -0.153028 0.410309 43.000000
3.106122 -0.162704 0.410670 43.000000
3.105608 -0.172232 0.410670 43.000000
3.107047 -0.181875 0.410910 43.000000
3.106475 -0.191406 0.410910 43.000000
3.105873 -0.200936 0.410910 43.000000
3.105242 -0.210464 0.410910 43.000000
3.131320 -0.221874 0.414154 43.000000
3.112803 -0.230169 0.411991 43.000000
3.071092 0.418753 0.391891 44.000000
3.045774 0.405797 0.388797 44.000000
3.048975 0.396706 0.389026 44.000000
3.052149 0.387600 0.389255 44.000000
3.054309 0.378356 0.389370 44.000000
3.056442 0.369102 0.389484 44.000000
3.060520 0.360071 0.389828 44.000000
3.061610 0.350679 0.389828 44.000000
3.064646 0.341504 0.390057 44.000000
3.066667 0.332207 0.390172 44.000000
3.069648 0.323004 0.390401 44.000000
3.068648 0.313384 0.390172 44.000000
3.072561 0.304261 0.390516 44.000000
3.074469 0.294927 0.390630 44.000000
3.074370 0.285402 0.390516 44.000000
3.074241 0.275880 0.390401 44.000000
3.076063 0.266533 0.390516 44.000000
3.075876 0.257012 0.390401 44.000000
3.073680 0.247336 0.390057 44.000000
3.073434 0.237829 0.389943 44.000000
3.073158 0.228325 0.389828 44.000000
3.067899 0.218475 0.389141 44.000000
3.069546 0.209129 0.389255 44.000000
3.069181 0.199646 0.389141 44.000000
3.068788 0.190168 0.389026 44.000000
3.069357 0.180752 0.389026 44.000000
3.070889 0.171390 0.389141 44.000000
3.074376 0.162123 0.389484 44.000000
3.077836 0.152837 0.389828 44.000000
3.079283 0.143440 0.389943 44.000000
3.084671 0.134206 0.390516 44.000000
3.086061 0.124782 0.390630 44.000000
3.087421 0.115350 0.390745 44.000000
3.085775 0.105810 0.390516 44.000000
3.085092 0.096312 0.390401 44.000000
3.080408 0.086708 0.389828 44.000000
3.077680 0.077184 0.389484 44.000000
3.073930 0.067655 0.389026 44.000000
3.075116 0.058243 0.389141 44.000000
3.075280 0.048808 0.389141 44.000000
3.078396 0.039410 0.389484 44.000000
3.082476 0.030003 0.389943 44.000000
3.085533 0.020564 0.390287 44.000000
3.088562 0.011108 0.390630 44.000000
3.091562 0.001632 0.390974 44.000000
3.094533 -0.007861 0.391318 44.000000
3.095487 -0.017361 0.391432 44.000000
3.095420 -0.026858 0.391432 44.000000
3.094329 -0.036342 0.391318 44.000000
3.096190 -0.045865 0.391547 44.000000
3.095041 -0.055346 0.391432 44.000000
3.096843 -0.064883 0.391662 44.000000
3.094643 -0.074336 0.391432 44.000000
3.095394 -0.083857 0.391547 44.000000
3.096115 -0.093383 0.391662 44.000000
3.095814 -0.102882 0.391662 44.000000
3.097469 -0.112452 0.391891 44.000000
3.097110 -0.121954 0.391891 44.000000
3.099698 -0.131583 0.392235 44.000000
3.101265 -0.141183 0.392464 44.000000
3.100817 -0.150697 0.392464 44.000000
3.103316 -0.160364 0.392808 44.000000
3.103802 -0.169939 0.392922 44.000000
3.101282 -0.179345 0.392693 44.000000
3.101709 -0.188920 0.392808 44.000000
3.101115 -0.198435 0.392808 44.000000
3.101483 -0.208015 0.392922 44.000000
3.129567 -0.219556 0.396245 44.000000
4.301823 1.893865 0.546729 45.000000
4.303057 1.878670 0.546187 45.000000
4.305151 1.863880 0.545754 45.000000
4.307195 1.849095 0.545321 45.000000
4.311018 1.835093 0.545104 45.000000
4.313880 1.820699 0.544779 45.000000
4.316695 1.806305 0.544454 45.000000
4.318543 1.791530 0.544020 45.000000
4.321261 1.777138 0.543695 45.000000
4.324852 1.763122 0.543479 45.000000
4.328397 1.749100 0.543262 45.000000
4.333743 1.735813 0.543262 45.000000
4.339972 1.722875 0.543370 45.000000
4.344312 1.709189 0.543262 45.000000
4.349535 1.695852 0.543262 45.000000
4.349154 1.680351 0.542612 45.000000
4.353360 1.666645 0.542504 45.000000
4.355664 1.652223 0.542179 45.000000
4.360712 1.638853 0.542179 45.000000
4.362925 1.624426 0.541854 45.000000
4.366955 1.610689 0.541745 45.000000
4.371876 1.597284 0.541745 45.000000
4.370212 1.581496 0.540987 45.000000
4.376915 1.568752 0.541203 45.000000
4.391168 1.528402 0.541203 45.000000
4.391137 1.513303 0.540662 45.000000
4.375060 1.492764 0.538278 45.000000
4.384137 1.465891 0.538278 45.000000
4.390501 1.453058 0.538495 45.000000
4.393049 1.438963 0.538278 45.000000
3.046666 0.415593 0.369583 45.000000
3.047927 0.406244 0.369583 45.000000
3.049159 0.396891 0.369583 45.000000
3.050362 0.387534 0.369583 45.000000
3.054496 0.378541 0.369908 45.000000
3.056630 0.369287 0.370016 45.000000
3.059723 0.360140 0.370233 45.000000
3.061801 0.350864 0.370341 45.000000
3.064840 0.341689 0.370558 45.000000
3.065873 0.332284 0.370558 45.000000
3.067867 0.322981 0.370666 45.000000
3.070822 0.313769 0.370883 45.000000
3.076716 0.304836 0.371425 45.000000
3.072689 0.294921 0.370883 45.000000
3.074569 0.285585 0.370991 45.000000
3.074441 0.276062 0.370883 45.000000
3.078244 0.266885 0.371208 45.000000
3.077067 0.257275 0.370991 45.000000
3.077842 0.247833 0.370991 45.000000
3.077597 0.238313 0.370883 45.000000
3.078314 0.228870 0.370883 45.000000
3.074043 0.219072 0.370341 45.000000
3.077676 0.209842 0.370666 45.000000
3.078306 0.200399 0.370666 45.000000
3.075929 0.190770 0.370341 45.000000
3.075508 0.181274 0.370233 45.000000
3.076049 0.171837 0.370233 45.000000
3.077555 0.162452 0.370341 45.000000
3.077046 0.152960 0.370233 45.000000
3.080480 0.143657 0.370558 45.000000
3.083885 0.134335 0.370883 45.000000
3.085276 0.124914 0.370991 45.000000
3.086639 0.115485 0.371100 45.000000
3.087972 0.106048 0.371208 45.000000
3.088283 0.096574 0.371208 45.000000
3.085583 0.087015 0.370883 45.000000
3.082854 0.077474 0.370558 45.000000
3.080096 0.067950 0.370233 45.000000
3.079296 0.058481 0.370125 45.000000
3.081449 0.049065 0.370341 45.000000
3.083573 0.039637 0.370558 45.000000
3.086662 0.030205 0.370883 45.000000
3.089723 0.020755 0.371208 45.000000
3.091760 0.011283 0.371425 45.000000
3.095757 0.001799 0.371858 45.000000
3.097736 -0.007704 0.372075 45.000000
3.098691 -0.017213 0.372183 45.000000
3.099618 -0.026728 0.372291 45.000000
3.096539 -0.036203 0.371966 45.000000
3.098402 -0.045732 0.372183 45.000000
3.098247 -0.055238 0.372183 45.000000
3.099057 -0.064764 0.372291 45.000000
3.097850 -0.074247 0.372183 45.000000
3.097607 -0.083751 0.372183 45.000000
3.097336 -0.093254 0.372183 45.000000
3.098029 -0.102789 0.372291 45.000000
3.098692 -0.112329 0.372400 45.000000
3.101313 -0.121953 0.372725 45.000000
3.101918 -0.131509 0.372833 45.000000
3.104479 -0.141161 0.373158 45.000000
3.104031 -0.150685 0.373158 45.000000
3.106533 -0.160361 0.373483 45.000000
3.106026 -0.169891 0.373483 45.000000
3.105490 -0.179419 0.373483 45.000000
3.104925 -0.188946 0.373483 45.000000
3.104331 -0.198471 0.373483 45.000000
3.125529 -0.209459 0.375867 45.000000
4.298005 1.905086 0.517900 46.000000
4.302919 1.891490 0.517797 46.000000
4.305966 1.877087 0.517490 46.000000
4.310791 1.863473 0.517388 46.000000
4.314660 1.849455 0.517184 46.000000
4.314821 1.833874 0.516570 46.000000
4.315843 1.818696 0.516059 46.000000
4.315896 1.803145 0.515445 46.000000
4.316812 1.787992 0.514934 46.000000
4.321357 1.774362 0.514831 46.000000
4.323095 1.759596 0.514422 46.000000
4.326628 1.745580 0.514218 46.000000
4.330116 1.731559 0.514013 46.000000
4.334483 1.717899 0.513911 46.000000
4.339733 1.704593 0.513911 46.000000
4.344943 1.691271 0.513911 46.000000
4.350111 1.677933 0.513911 46.000000
4.348734 1.662093 0.513195 46.000000
4.353813 1.648743 0.513195 46.000000
4.359782 1.635728 0.513297 46.000000
4.359185 1.620264 0.512684 46.000000
4.362269 1.606195 0.512479 46.000000
4.364372 1.591782 0.512172 46.000000
4.364558 1.576694 0.511661 46.000000
4.366565 1.562291 0.511354 46.000000
4.368524 1.547890 0.511047 46.000000
4.373252 1.534481 0.511047 46.000000
4.378879 1.521383 0.511150 46.000000
4.377882 1.506000 0.510536 46.000000
4.378716 1.491278 0.510127 46.000000
4.378557 1.476248 0.509616 46.000000
4.379292 1.461548 0.509206 46.000000
4.380921 1.447169 0.508900 46.000000
4.393850 1.436505 0.509820 46.000000
4.406754 1.425775 0.510741 46.000000
4.410160 1.411945 0.510638 46.000000
4.414471 1.398408 0.510638 46.000000
4.411147 1.382477 0.509820 46.000000
4.420118 1.370411 0.510331 46.000000
4.422400 1.356260 0.510127 46.000000
4.440818 1.347018 0.511661 46.000000
3.006563 0.436367 0.346901 46.000000
3.040713 0.422293 0.350174 46.000000
3.041994 0.412963 0.350174 46.000000
3.044233 0.403759 0.350276 46.000000
3.040525 0.393778 0.349765 46.000000
3.041718 0.384448 0.349765 46.000000
3.044858 0.375358 0.349969 46.000000
3.045008 0.365896 0.349867 46.000000
3.043152 0.356205 0.349560 46.000000
3.046207 0.347092 0.349765 46.000000
3.055167 0.338623 0.350583 46.000000
3.052236 0.328821 0.350174 46.000000
3.057187 0.319870 0.350583 46.000000
3.061123 0.310791 0.350890 46.000000
3.065032 0.301691 0.351197 46.000000
3.065943 0.292286 0.351197 46.000000
3.066826 0.282879 0.351197 46.000000
3.070652 0.273734 0.351503 46.000000
3.071477 0.264312 0.351503 46.000000
3.070291 0.254723 0.351299 46.000000
3.072049 0.245381 0.351401 46.000000
3.073780 0.236032 0.351503 46.000000
3.074489 0.226600 0.351503 46.000000
3.074178 0.217097 0.351401 46.000000
3.072844 0.207530 0.351197 46.000000
3.073467 0.198102 0.351197 46.000000
3.072074 0.188549 0.350992 46.000000
3.069659 0.178949 0.350685 46.000000
3.067214 0.169366 0.350378 46.000000
3.069706 0.160059 0.350583 46.000000
3.067202 0.150494 0.350276 46.000000
3.067649 0.141083 0.350276 46.000000
3.068067 0.131671 0.350276 46.000000
3.075415 0.122536 0.350992 46.000000
3.073788 0.113027 0.350788 46.000000
3.078097 0.103730 0.351197 46.000000
3.078401 0.094286 0.351197 46.000000
3.080664 0.084897 0.351401 46.000000
3.078921 0.075396 0.351197 46.000000
3.079138 0.065950 0.351197 46.000000
3.079326 0.056503 0.351197 46.000000
3.081474 0.047086 0.351401 46.000000
3.081604 0.037632 0.351401 46.000000
3.082700 0.028186 0.351503 46.000000
3.084761 0.018741 0.351708 46.000000
3.084804 0.009277 0.351708 46.000000
3.085813 -0.000187 0.351810 46.000000
3.086792 -0.009657 0.351913 46.000000
3.088738 -0.019139 0.352117 46.000000
3.086675 -0.028597 0.351913 46.000000
3.085578 -0.038055 0.351810 46.000000
3.087436 -0.047551 0.352015 46.000000
3.088270 -0.057041 0.352117 46.000000
3.088081 -0.066516 0.352117 46.000000
3.090846 -0.076063 0.352424 46.000000
3.091592 -0.085572 0.352526 46.000000
3.091315 -0.095057 0.352526 46.000000
3.093991 -0.104641 0.352833 46.000000
3.094650 -0.114169 0.352935 46.000000
3.096273 -0.123742 0.353140 46.000000
3.096873 -0.133283 0.353242 46.000000
3.099430 -0.142921 0.353549 46.000000
3.097984 -0.152380 0.353447 46.000000
3.100482 -0.162039 0.353753 46.000000
3.100963 -0.171606 0.353856 46.000000
3.101415 -0.181176 0.353958 46.000000
3.100845 -0.190691 0.353958 46.000000
3.091311 -0.199627 0.353038 46.000000
4.312342 1.894563 0.489026 47.000000
4.310834 1.878142 0.488258 47.000000
4.316576 1.864908 0.488258 47.000000
4.312214 1.847342 0.487202 47.000000
4.311449 1.831378 0.486530 47.000000
4.307875 1.814276 0.485570 47.000000
4.306992 1.798365 0.484898 47.000000
4.315248 1.786285 0.485186 47.000000
4.316103 1.771147 0.484706 47.000000
4.319673 1.757147 0.484514 47.000000
4.322275 1.742769 0.484226 47.000000
4.322980 1.727652 0.483745 47.000000
4.325484 1.713281 0.483457 47.000000
4.329793 1.699638 0.483361 47.000000
4.331277 1.684902 0.482977 47.000000
4.334569 1.670890 0.482785 47.000000
4.333166 1.655096 0.482113 47.000000
4.340085 1.642499 0.482305 47.000000
4.344172 1.628826 0.482209 47.000000
4.347282 1.614797 0.482017 47.000000
4.350348 1.600765 0.481825 47.000000
4.354303 1.587069 0.481729 47.000000
4.356344 1.572688 0.481441 47.000000
4.355525 1.557304 0.480865 47.000000
4.355591 1.542271 0.480385 47.000000
4.358424 1.528242 0.480193 47.000000
4.361211 1.514210 0.480001 47.000000
4.366778 1.501147 0.480097 47.000000
4.373247 1.488384 0.480289 47.000000
4.374963 1.474006 0.480001 47.000000
4.379465 1.460577 0.480001 47.000000
4.380145 1.445885 0.479617 47.000000
4.382668 1.431822 0.479425 47.000000
4.392722 1.420208 0.480001 47.000000
4.397058 1.406725 0.480001 47.000000
4.399456 1.392627 0.479809 47.000000
4.401808 1.378527 0.479617 47.000000
4.392706 1.360889 0.478272 47.000000
4.442539 1.361416 0.482881 47.000000
4.596239 1.393148 0.497956 47.000000
4.590958 1.376180 0.496996 47.000000
3.041035 0.440457 0.331074 47.000000
3.047299 0.431825 0.331555 47.000000
3.043680 0.421789 0.331074 47.000000
3.043974 0.412315 0.330978 47.000000
3.046211 0.403105 0.331074 47.000000
3.044472 0.393374 0.330786 47.000000
3.040727 0.383407 0.330306 47.000000
3.042877 0.374199 0.330402 47.000000
3.040058 0.364386 0.330018 47.000000
3.039184 0.354826 0.329826 47.000000
3.042236 0.345726 0.330018 47.000000
3.043283 0.336391 0.330018 47.000000
3.044300 0.327052 0.330018 47.000000
3.047269 0.317918 0.330210 47.000000
3.054172 0.309172 0.330786 47.000000
3.058078 0.300093 0.331074 47.000000
3.059975 0.290804 0.331170 47.000000
3.062835 0.281598 0.331363 47.000000
3.066659 0.272465 0.331651 47.000000
3.067480 0.263056 0.331651 47.000000
3.068273 0.253643 0.331651 47.000000
3.069037 0.244229 0.331651 47.000000
3.067787 0.234660 0.331459 47.000000
3.068492 0.225247 0.331459 47.000000
3.068176 0.215761 0.331363 47.000000
3.065844 0.206146 0.331074 47.000000
3.067455 0.196803 0.331170 47.000000
3.067051 0.187330 0.331074 47.000000
3.063637 0.177688 0.330690 47.000000
3.059198 0.168013 0.330210 47.000000
3.062681 0.158783 0.330498 47.000000
3.062160 0.149337 0.330402 47.000000
3.062603 0.139941 0.330402 47.000000
3.066996 0.130716 0.330786 47.000000
3.069372 0.121385 0.330978 47.000000
3.068735 0.111931 0.330882 47.000000
3.071054 0.102583 0.331074 47.000000
3.071354 0.093161 0.331074 47.000000
3.075606 0.083848 0.331459 47.000000
3.074853 0.074387 0.331363 47.000000
3.075067 0.064953 0.331363 47.000000
3.077242 0.055555 0.331555 47.000000
3.079389 0.046145 0.331747 47.000000
3.079516 0.036697 0.331747 47.000000
3.081604 0.027268 0.331939 47.000000
3.081674 0.017813 0.331939 47.000000
3.082709 0.008362 0.332035 47.000000
3.079734 -0.001096 0.331747 47.000000
3.080712 -0.010547 0.331843 47.000000
3.081660 -0.020005 0.331939 47.000000
3.078598 -0.029432 0.331651 47.000000
3.077498 -0.038865 0.331555 47.000000
3.078360 -0.048321 0.331651 47.000000
3.081183 -0.057820 0.331939 47.000000
3.081986 -0.067294 0.332035 47.000000
3.086740 -0.076871 0.332515 47.000000
3.090470 -0.086451 0.332899 47.000000
3.091185 -0.095962 0.332995 47.000000
3.094856 -0.105580 0.333379 47.000000
3.095512 -0.115111 0.333475 47.000000
3.097133 -0.124686 0.333667 47.000000
3.095742 -0.134145 0.333571 47.000000
3.096310 -0.143688 0.333667 47.000000
3.094860 -0.153138 0.333571 47.000000
3.096364 -0.162735 0.333763 47.000000
3.098832 -0.172399 0.334051 47.000000
3.099282 -0.181963 0.334147 47.000000
3.099703 -0.191532 0.334243 47.000000
3.103074 -0.201297 0.334627 47.000000
4.290002 1.904573 0.460266 48.000000
4.295825 1.891403 0.460266 48.000000
4.300694 1.877816 0.460176 48.000000
4.303693 1.863427 0.459905 48.000000
4.304814 1.848251 0.459453 48.000000
4.307714 1.833866 0.459182 48.000000
4.309650 1.819093 0.458821 48.000000
4.307860 1.802789 0.458099 48.000000
4.316131 1.790708 0.458370 48.000000
4.318841 1.776322 0.458099 48.000000
4.321503 1.761936 0.457828 48.000000
4.327812 1.749043 0.457918 48.000000
4.324836 1.732426 0.457106 48.000000
4.327354 1.718048 0.456835 48.000000
4.326117 1.702213 0.456203 48.000000
4.326678 1.687124 0.455752 48.000000
4.329047 1.672766 0.455481 48.000000
4.330438 1.658054 0.455120 48.000000
4.332711 1.643701 0.454849 48.000000
4.337733 1.630401 0.454849 48.000000
4.339914 1.616043 0.454578 48.000000
4.342983 1.602032 0.454397 48.000000
4.349749 1.589384 0.454578 48.000000
4.350858 1.574677 0.454217 48.000000
4.350981 1.559642 0.453765 48.000000
4.351991 1.544954 0.453404 48.000000
4.354831 1.530935 0.453224 48.000000
4.356685 1.516586 0.452953 48.000000
4.360376 1.502888 0.452863 48.000000
4.363081 1.488861 0.452682 48.000000
4.366684 1.475150 0.452592 48.000000
4.369300 1.461115 0.452411 48.000000
4.370926 1.446765 0.452140 48.000000
4.377237 1.433968 0.452321 48.000000
4.379721 1.419918 0.452140 48.000000
4.382160 1.405867 0.451960 48.000000
4.382655 1.391211 0.451599 48.000000
4.385002 1.377163 0.451418 48.000000
4.396816 1.366065 0.452140 48.000000
4.389561 1.349062 0.451057 48.000000
4.429891 1.346586 0.454488 48.000000
4.984356 1.498291 0.506582 48.000000
3.069792 0.447935 0.315991 48.000000
3.051432 0.435707 0.314185 48.000000
3.050782 0.426069 0.314004 48.000000
3.049114 0.416304 0.313733 48.000000
3.050377 0.406947 0.313733 48.000000
3.048649 0.397202 0.313463 48.000000
3.046889 0.387471 0.313192 48.000000
3.048063 0.378122 0.313192 48.000000
3.046242 0.368411 0.312921 48.000000
3.046369 0.358947 0.312831 48.000000
3.043499 0.349147 0.312469 48.000000
3.043566 0.339698 0.312379 48.000000
3.044593 0.330359 0.312379 48.000000
3.046583 0.321121 0.312469 48.000000
3.049535 0.311974 0.312650 48.000000
3.053452 0.302911 0.312921 48.000000
3.057341 0.293826 0.313192 48.000000
3.061203 0.284721 0.313463 48.000000
3.063054 0.275417 0.313553 48.000000
3.064876 0.266104 0.313643 48.000000
3.065678 0.256700 0.313643 48.000000
3.064466 0.247134 0.313463 48.000000
3.065210 0.237731 0.313463 48.000000
3.064932 0.228252 0.313372 48.000000
3.064624 0.218777 0.313282 48.000000
3.062300 0.209172 0.313011 48.000000
3.063921 0.199840 0.313101 48.000000
3.064520 0.190439 0.313101 48.000000
3.064095 0.180978 0.313011 48.000000
3.063642 0.171522 0.312921 48.000000
3.064154 0.162122 0.312921 48.000000
3.064636 0.152720 0.312921 48.000000
3.065091 0.143317 0.312921 48.000000
3.068501 0.134042 0.313192 48.000000
3.071883 0.124748 0.313463 48.000000
3.071256 0.115286 0.313372 48.000000
3.070600 0.105829 0.313282 48.000000
3.072901 0.096470 0.313463 48.000000
3.076169 0.087125 0.313733 48.000000
3.074431 0.077638 0.313553 48.000000
3.077641 0.068270 0.313824 48.000000
3.078832 0.058847 0.313914 48.000000
3.080990 0.049432 0.314095 48.000000
3.080131 0.039967 0.314004 48.000000
3.082231 0.030536 0.314185 48.000000
3.082310 0.021079 0.314185 48.000000
3.082360 0.011623 0.314185 48.000000
3.080390 0.002166 0.314004 48.000000
3.080382 -0.007285 0.314004 48.000000
3.079349 -0.016730 0.313914 48.000000
3.080279 -0.026186 0.314004 48.000000
3.079188 -0.035624 0.313914 48.000000
3.081056 -0.045100 0.314095 48.000000
3.080904 -0.054553 0.314095 48.000000
3.085700 -0.064110 0.314546 48.000000
3.090467 -0.073697 0.314997 48.000000
3.091222 -0.083205 0.315088 48.000000
3.092943 -0.092749 0.315268 48.000000
3.094635 -0.102304 0.315449 48.000000
3.093311 -0.111761 0.315359 48.000000
3.092953 -0.121251 0.315359 48.000000
3.092567 -0.130739 0.315359 48.000000
3.092151 -0.140227 0.315359 48.000000
3.089717 -0.149616 0.315178 48.000000
3.090238 -0.159146 0.315268 48.000000
3.091724 -0.168735 0.315449 48.000000
3.093180 -0.178335 0.315629 48.000000
3.101565 -0.188370 0.316442 48.000000
3.105942 -0.198204 0.316893 48.000000
4.290651 1.902004 0.431429 49.000000
4.309237 1.894445 0.432608 49.000000
4.304068 1.876438 0.431598 49.000000
4.306146 1.861643 0.431261 49.000000
4.310921 1.848031 0.431177 49.000000
4.313819 1.833627 0.430924 49.000000
4.313915 1.818062 0.430419 49.000000
4.312117 1.801746 0.429745 49.000000
4.316703 1.788127 0.429661 49.000000
4.317560 1.772983 0.429240 49.000000
4.322056 1.759353 0.429156 49.000000
4.326509 1.745712 0.429072 49.000000
4.327219 1.730580 0.428651 49.000000
4.327876 1.715461 0.428230 49.000000
4.326626 1.699626 0.427640 49.000000
4.329034 1.685259 0.427388 49.000000
4.330465 1.670536 0.427051 49.000000
4.330916 1.655464 0.426630 49.000000
4.333179 1.641111 0.426377 49.000000
4.337260 1.627459 0.426293 49.000000
4.340365 1.613450 0.426125 49.000000
4.343424 1.599438 0.425956 49.000000
4.347374 1.585764 0.425872 49.000000
4.349408 1.571403 0.425619 49.000000
4.349517 1.556374 0.425198 49.000000
4.353332 1.542690 0.425114 49.000000
4.356164 1.528667 0.424946 49.000000
4.358010 1.514314 0.424693 49.000000
4.361692 1.500613 0.424609 49.000000
4.366276 1.487224 0.424609 49.000000
4.367985 1.472867 0.424356 49.000000
4.370593 1.458828 0.424188 49.000000
4.374102 1.445100 0.424104 49.000000
4.375674 1.430745 0.423851 49.000000
4.377198 1.416394 0.423599 49.000000
4.380574 1.402654 0.423514 49.000000
4.380107 1.387704 0.423093 49.000000
4.386245 1.374855 0.423262 49.000000
4.388539 1.360802 0.423093 49.000000
4.978585 1.526983 0.474876 49.000000
4.986107 1.512569 0.475129 49.000000
4.996451 1.498982 0.475634 49.000000
3.078252 0.456803 0.297804 49.000000
3.053014 0.443492 0.295531 49.000000
3.050414 0.433564 0.295194 49.000000
3.053704 0.424477 0.295363 49.000000
3.053017 0.414838 0.295194 49.000000
3.053287 0.405339 0.295110 49.000000
3.054516 0.395970 0.295110 49.000000
3.057694 0.386847 0.295278 49.000000
3.057877 0.377342 0.295194 49.000000
3.057042 0.367721 0.295026 49.000000
3.058156 0.358340 0.295026 49.000000
3.058251 0.348844 0.294942 49.000000
3.056335 0.339130 0.294689 49.000000
3.056371 0.329645 0.294605 49.000000
3.056377 0.320163 0.294521 49.000000
3.054370 0.310483 0.294268 49.000000
3.057292 0.301306 0.294436 49.000000
3.059194 0.292019 0.294521 49.000000
3.062060 0.282815 0.294689 49.000000
3.060928 0.273243 0.294521 49.000000
3.062745 0.263936 0.294605 49.000000
3.065526 0.254703 0.294773 49.000000
3.066293 0.245297 0.294773 49.000000
3.066038 0.235813 0.294689 49.000000
3.064759 0.226259 0.294521 49.000000
3.065439 0.216855 0.294521 49.000000
3.066090 0.207449 0.294521 49.000000
3.066712 0.198042 0.294521 49.000000
3.070289 0.188815 0.294773 49.000000
3.070854 0.179395 0.294773 49.000000
3.071389 0.169973 0.294773 49.000000
3.071897 0.160549 0.294773 49.000000
3.074365 0.151222 0.294942 49.000000
3.075810 0.141835 0.295026 49.000000
3.079217 0.132526 0.295278 49.000000
3.080605 0.123118 0.295363 49.000000
3.079973 0.113629 0.295278 49.000000
3.080307 0.104180 0.295278 49.000000
3.081608 0.094759 0.295363 49.000000
3.083876 0.085360 0.295531 49.000000
3.084123 0.075898 0.295531 49.000000
3.084342 0.066436 0.295531 49.000000
3.084531 0.056973 0.295531 49.000000
3.084691 0.047509 0.295531 49.000000
3.084823 0.038045 0.295531 49.000000
3.087914 0.028608 0.295784 49.000000
3.087987 0.019135 0.295784 49.000000
3.088032 0.009661 0.295784 49.000000
3.087050 0.000187 0.295699 49.000000
3.087036 -0.009284 0.295699 49.000000
3.085000 -0.018743 0.295531 49.000000
3.084928 -0.028207 0.295531 49.000000
3.085824 -0.037684 0.295615 49.000000
3.085693 -0.047151 0.295615 49.000000
3.087527 -0.056654 0.295784 49.000000
3.090327 -0.066191 0.296036 49.000000
3.092102 -0.075720 0.296205 49.000000
3.092851 -0.085234 0.296289 49.000000
3.094567 -0.094784 0.296457 49.000000
3.098245 -0.104412 0.296794 49.000000
3.097910 -0.113917 0.296794 49.000000
3.096550 -0.123381 0.296710 49.000000
3.097153 -0.132923 0.296794 49.000000
3.096730 -0.142424 0.296794 49.000000
3.096279 -0.151924 0.296794 49.000000
3.095798 -0.161423 0.296794 49.000000
3.095289 -0.170920 0.296794 49.000000
3.109671 -0.181287 0.298057 49.000000
4.292231 1.919199 0.401682 50.000000
4.299921 1.906830 0.401837 50.000000
4.303013 1.892425 0.401604 50.000000
4.307885 1.878816 0.401526 50.000000
4.309969 1.864007 0.401215 50.000000
4.312919 1.849597 0.400982 50.000000
4.310316 1.832844 0.400282 50.000000
4.302139 1.813801 0.399115 50.000000
4.305844 1.799825 0.398960 50.000000
4.315029 1.788133 0.399271 50.000000
4.312195 1.771476 0.398571 50.000000
4.312070 1.755981 0.398105 50.000000
4.310041 1.739758 0.397482 50.000000
4.311656 1.725045 0.397171 50.000000
4.312294 1.709971 0.396783 50.000000
4.315665 1.696004 0.396627 50.000000
4.317132 1.681308 0.396316 50.000000
4.321340 1.667696 0.396238 50.000000
4.322711 1.653006 0.395927 50.000000
4.326829 1.639383 0.395849 50.000000
4.329039 1.625049 0.395616 50.000000
4.331201 1.610718 0.395383 50.000000
4.333315 1.596388 0.395150 50.000000
4.341939 1.584453 0.395461 50.000000
4.340217 1.568752 0.394916 50.000000
4.345009 1.555429 0.394916 50.000000
4.348821 1.541759 0.394838 50.000000
4.349768 1.527088 0.394527 50.000000
4.351607 1.512753 0.394294 50.000000
4.355285 1.499071 0.394216 50.000000
4.358920 1.485381 0.394139 50.000000
4.364401 1.472320 0.394216 50.000000
4.367007 1.458291 0.394061 50.000000
4.369567 1.444261 0.393905 50.000000
4.372082 1.430228 0.393750 50.000000
4.370759 1.414965 0.393283 50.000000
4.373180 1.400941 0.393128 50.000000
4.379358 1.388120 0.393283 50.000000
4.386450 1.375573 0.393517 50.000000
4.393507 1.362996 0.393750 50.000000
4.400527 1.350388 0.393983 50.000000
4.984664 1.512978 0.441263 50.000000
4.987373 1.497105 0.441108 50.000000
3.081374 0.467105 0.278038 50.000000
3.032499 0.450177 0.274072 50.000000
3.038799 0.441588 0.274461 50.000000
3.038165 0.431982 0.274306 50.000000
3.039476 0.422659 0.274306 50.000000
3.040759 0.413332 0.274306 50.000000
3.042012 0.404002 0.274306 50.000000
3.041260 0.394410 0.274150 50.000000
3.048390 0.385830 0.274617 50.000000
3.042634 0.375620 0.274072 50.000000
3.045751 0.366522 0.274228 50.000000
3.050822 0.357641 0.274539 50.000000
3.051905 0.348279 0.274539 50.000000
3.049987 0.338584 0.274306 50.000000
3.052993 0.329439 0.274461 50.000000
3.053990 0.320071 0.274461 50.000000
3.052974 0.310498 0.274306 50.000000
3.056888 0.301424 0.274539 50.000000
3.056806 0.291950 0.274461 50.000000
3.061658 0.282938 0.274772 50.000000
3.059533 0.273277 0.274539 50.000000
3.060357 0.263889 0.274539 50.000000
3.061152 0.254499 0.274539 50.000000
3.060925 0.245026 0.274461 50.000000
3.060668 0.235558 0.274383 50.000000
3.060382 0.226093 0.274306 50.000000
3.064045 0.216914 0.274539 50.000000
3.064696 0.207513 0.274539 50.000000
3.064323 0.198045 0.274461 50.000000
3.065912 0.188705 0.274539 50.000000
3.069462 0.179473 0.274772 50.000000
3.069998 0.170055 0.274772 50.000000
3.071501 0.160688 0.274850 50.000000
3.073971 0.151362 0.275006 50.000000
3.074421 0.141930 0.275006 50.000000
3.074842 0.132497 0.275006 50.000000
3.075234 0.123063 0.275006 50.000000
3.076593 0.113665 0.275083 50.000000
3.076927 0.104226 0.275083 50.000000
3.076236 0.094754 0.275006 50.000000
3.077509 0.085344 0.275083 50.000000
3.076760 0.075877 0.275006 50.000000
3.076978 0.066437 0.275006 50.000000
3.078164 0.057016 0.275083 50.000000
3.077328 0.047556 0.275006 50.000000
3.078456 0.038127 0.275083 50.000000
3.079556 0.028692 0.275161 50.000000
3.078632 0.019238 0.275083 50.000000
3.079674 0.009796 0.275161 50.000000
3.080686 0.000348 0.275239 50.000000
3.080673 -0.009104 0.275239 50.000000
3.078636 -0.018543 0.275083 50.000000
3.080559 -0.028006 0.275239 50.000000
3.077468 -0.037421 0.275006 50.000000
3.076342 -0.046847 0.274928 50.000000
3.074190 -0.056249 0.274772 50.000000
3.079983 -0.065807 0.275239 50.000000
3.083754 -0.075353 0.275550 50.000000
3.083508 -0.084814 0.275550 50.000000
3.086223 -0.094364 0.275783 50.000000
3.087911 -0.103899 0.275939 50.000000
3.088574 -0.113409 0.276016 50.000000
3.090204 -0.122963 0.276172 50.000000
3.090809 -0.132485 0.276250 50.000000
3.094371 -0.142150 0.276561 50.000000
3.093921 -0.151642 0.276561 50.000000
3.094436 -0.161186 0.276639 50.000000
3.101891 -0.171117 0.277261 50.000000
3.070498 -0.178839 0.274850 50.000000
4.300686 1.920112 0.373480 51.000000
4.295613 1.902060 0.372620 51.000000
4.300515 1.888471 0.372548 51.000000
4.299888 1.872480 0.372047 51.000000
4.297372 1.855718 0.371402 51.000000
4.299378 1.840954 0.371115 51.000000
4.288482 1.820734 0.369825 51.000000
4.295886 1.808343 0.369968 51.000000
4.289448 1.790158 0.369036 51.000000
4.295842 1.777372 0.369108 51.000000
4.295738 1.761911 0.368678 51.000000
4.299276 1.747972 0.368535 51.000000
4.299068 1.732535 0.368105 51.000000
4.301585 1.718227 0.367890 51.000000
4.304054 1.703920 0.367675 51.000000
4.306476 1.689614 0.367460 51.000000
4.309780 1.675670 0.367316 51.000000
4.312109 1.661364 0.367101 51.000000
4.313458 1.646703 0.366815 51.000000
4.315692 1.632402 0.366600 51.000000
4.317878 1.618103 0.366385 51.000000
4.321887 1.604501 0.366313 51.000000
4.325853 1.590890 0.366241 51.000000
4.328839 1.576928 0.366098 51.000000
4.335533 1.564317 0.366241 51.000000
4.338434 1.550337 0.366098 51.000000
4.338469 1.535354 0.365740 51.000000
4.338452 1.520386 0.365381 51.000000
4.341212 1.506414 0.365238 51.000000
4.341097 1.491467 0.364880 51.000000
4.340931 1.476535 0.364521 51.000000
4.341660 1.461936 0.364235 51.000000
4.343286 1.447662 0.364019 51.000000
4.347707 1.434330 0.364019 51.000000
4.351139 1.420675 0.363948 51.000000
4.360222 1.408854 0.364306 51.000000
4.369274 1.396990 0.364665 51.000000
4.373539 1.383579 0.364665 51.000000
4.381571 1.371347 0.364951 51.000000
4.930719 1.526778 0.405947 51.000000
4.952545 1.516905 0.407237 51.000000
4.960039 1.502572 0.407452 51.000000
4.978957 1.491645 0.408527 51.000000
3.023866 0.456388 0.254792 51.000000
3.028212 0.447547 0.255007 51.000000
3.031545 0.438541 0.255150 51.000000
3.032876 0.429238 0.255150 51.000000
3.035167 0.420069 0.255222 51.000000
3.034465 0.410487 0.255079 51.000000
3.036699 0.401306 0.255150 51.000000
3.032969 0.391348 0.254792 51.000000
3.034156 0.382041 0.254792 51.000000
3.034324 0.372609 0.254720 51.000000
3.039414 0.363773 0.255007 51.000000
3.033581 0.353636 0.254505 51.000000
3.039607 0.344891 0.254864 51.000000
3.042633 0.335784 0.255007 51.000000
3.049599 0.327088 0.255437 51.000000
3.047612 0.317419 0.255222 51.000000
3.050556 0.308269 0.255365 51.000000
3.052480 0.299006 0.255437 51.000000
3.055369 0.289829 0.255580 51.000000
3.057237 0.280546 0.255652 51.000000
3.058084 0.271165 0.255652 51.000000
3.058901 0.261782 0.255652 51.000000
3.057702 0.252231 0.255509 51.000000
3.060450 0.243008 0.255652 51.000000
3.058197 0.233388 0.255437 51.000000
3.055915 0.223785 0.255222 51.000000
3.056587 0.214409 0.255222 51.000000
3.057230 0.205030 0.255222 51.000000
3.056850 0.195586 0.255150 51.000000
3.058431 0.186267 0.255222 51.000000
3.064963 0.177231 0.255652 51.000000
3.063500 0.167717 0.255509 51.000000
3.065992 0.158422 0.255652 51.000000
3.067460 0.149063 0.255724 51.000000
3.068899 0.139698 0.255795 51.000000
3.067321 0.130196 0.255652 51.000000
3.068702 0.120825 0.255724 51.000000
3.069058 0.111410 0.255724 51.000000
3.069386 0.101993 0.255724 51.000000
3.068687 0.092546 0.255652 51.000000
3.068957 0.083131 0.255652 51.000000
3.069197 0.073715 0.255652 51.000000
3.069409 0.064298 0.255652 51.000000
3.069592 0.054881 0.255652 51.000000
3.069746 0.045464 0.255652 51.000000
3.071866 0.036070 0.255795 51.000000
3.071962 0.026645 0.255795 51.000000
3.072029 0.017220 0.255795 51.000000
3.072067 0.007795 0.255795 51.000000
3.073074 -0.001630 0.255867 51.000000
3.073055 -0.011058 0.255867 51.000000
3.066025 -0.020442 0.255365 51.000000
3.069937 -0.029885 0.255652 51.000000
3.069831 -0.039304 0.255652 51.000000
3.068699 -0.048706 0.255580 51.000000
3.067538 -0.058102 0.255509 51.000000
