# This PCD file was generated using the MATLAB® pcwrite function
# from Computer Vision Toolbox®.
# .PCD v.7 - Point Cloud Data file format
VERSION .7
FIELDS x y z intensity
SIZE 4 4 4 4
TYPE F F F F
COUNT 1 1 1 1
WIDTH 1273
HEIGHT 1
VIEWPOINT 0 0 0 1 0 0 0
POINTS 1273
DATA ascii
2.004981 0.014116 0.511191 24.000000
2.008906 0.007978 0.512120 24.000000
2.010866 0.001816 0.512585 24.000000
2.014753 -0.004364 0.513514 24.000000
2.016675 -0.010557 0.513978 24.000000
2.014688 -0.016726 0.513514 24.000000
2.016572 -0.022931 0.513978 24.000000
2.016492 -0.029117 0.513978 24.000000
2.015421 -0.035286 0.513746 24.000000
2.012386 -0.041407 0.513049 24.000000
2.018084 -0.047722 0.514443 24.000000
2.016956 -0.053887 0.514210 24.000000
2.014836 -0.060016 0.513746 24.000000
2.017559 -0.066294 0.514443 24.000000
2.020262 -0.072590 0.515139 24.000000
2.021002 -0.078826 0.515372 24.000000
2.024638 -0.085192 0.516301 24.000000
2.028253 -0.091581 0.517230 24.000000
2.028934 -0.097851 0.517462 24.000000
2.029596 -0.104125 0.517694 24.000000
2.034123 -0.110618 0.518856 24.000000
2.047368 -0.117647 0.522107 24.000000
2.046998 -0.123928 0.522107 24.000000
2.041754 -0.129896 0.520946 24.000000
1.901288 0.247624 0.477984 25.000000
1.939725 0.246573 0.486810 25.000000
1.937572 0.240262 0.486131 25.000000
1.941201 0.234666 0.486810 25.000000
1.941912 0.228710 0.486810 25.000000
1.944540 0.222972 0.487262 25.000000
1.946183 0.217113 0.487489 25.000000
1.949745 0.211456 0.488168 25.000000
1.950385 0.205473 0.488168 25.000000
1.952944 0.199686 0.488620 25.000000
1.954517 0.193790 0.488847 25.000000
1.959950 0.188257 0.489978 25.000000
1.958579 0.182063 0.489525 25.000000
1.963009 0.176402 0.490431 25.000000
1.964511 0.170462 0.490657 25.000000
1.963084 0.164273 0.490204 25.000000
1.964549 0.158327 0.490431 25.000000
1.968910 0.152600 0.491336 25.000000
1.968398 0.146486 0.491110 25.000000
1.967866 0.140377 0.490883 25.000000
1.968288 0.134339 0.490883 25.000000
1.973551 0.128616 0.492015 25.000000
1.971992 0.122440 0.491562 25.000000
1.974303 0.116504 0.492015 25.000000
1.975623 0.110501 0.492241 25.000000
1.977899 0.104541 0.492694 25.000000
1.977237 0.098425 0.492468 25.000000
1.982395 0.092584 0.493599 25.000000
1.984616 0.086587 0.494052 25.000000
1.985845 0.080537 0.494278 25.000000
1.985110 0.074408 0.494052 25.000000
1.987276 0.068384 0.494504 25.000000
1.987476 0.062286 0.494504 25.000000
1.989605 0.056243 0.494957 25.000000
1.991716 0.050188 0.495410 25.000000
1.992834 0.044098 0.495636 25.000000
1.993934 0.038003 0.495862 25.000000
1.998911 0.031962 0.496994 25.000000
2.003870 0.025891 0.498125 25.000000
2.004914 0.019753 0.498352 25.000000
2.007887 0.013621 0.499031 25.000000
2.009867 0.007468 0.499483 25.000000
2.013777 0.001303 0.500388 25.000000
2.016694 -0.004883 0.501067 25.000000
2.018617 -0.011081 0.501520 25.000000
2.016626 -0.017257 0.501067 25.000000
2.020459 -0.023490 0.501973 25.000000
2.019404 -0.029674 0.501746 25.000000
2.019303 -0.035869 0.501746 25.000000
2.017236 -0.042023 0.501294 25.000000
2.021966 -0.048329 0.502425 25.000000
2.018888 -0.054453 0.501746 25.000000
2.015790 -0.060558 0.501067 25.000000
2.018515 -0.066839 0.501746 25.000000
2.022194 -0.073173 0.502652 25.000000
2.021960 -0.079377 0.502652 25.000000
2.026573 -0.085787 0.503783 25.000000
2.025327 -0.091959 0.503557 25.000000
2.026982 -0.098267 0.504009 25.000000
2.031534 -0.104737 0.505141 25.000000
2.042875 -0.111609 0.507857 25.000000
2.041550 -0.117820 0.507630 25.000000
2.039235 -0.123964 0.507178 25.000000
2.042733 -0.130469 0.508083 25.000000
2.045238 -0.136931 0.508762 25.000000
2.038007 -0.142727 0.507178 25.000000
2.041445 -0.149264 0.508083 25.000000
2.031266 -0.154785 0.505820 25.000000
1.930081 0.250501 0.472646 26.000000
1.932776 0.244824 0.473087 26.000000
1.934486 0.239013 0.473308 26.000000
1.936178 0.233193 0.473528 26.000000
1.938822 0.227480 0.473969 26.000000
1.942418 0.221863 0.474631 26.000000
1.943089 0.215903 0.474631 26.000000
1.948591 0.210465 0.475733 26.000000
1.950198 0.204588 0.475954 26.000000
1.952757 0.198802 0.476395 26.000000
1.954328 0.192906 0.476616 26.000000
1.954911 0.186909 0.476616 26.000000
1.957418 0.181091 0.477057 26.000000
1.956993 0.174998 0.476836 26.000000
1.960435 0.169245 0.477498 26.000000
1.959973 0.163149 0.477277 26.000000
1.960465 0.157135 0.477277 26.000000
1.961910 0.151195 0.477498 26.000000
1.961392 0.145103 0.477277 26.000000
1.960855 0.139016 0.477057 26.000000
1.964192 0.133198 0.477718 26.000000
1.965564 0.127234 0.477939 26.000000
1.963998 0.121083 0.477498 26.000000
1.966308 0.115171 0.477939 26.000000
1.968600 0.109247 0.478380 26.000000
1.972822 0.103412 0.479262 26.000000
1.972156 0.097310 0.479041 26.000000
1.971471 0.091214 0.478821 26.000000
1.976614 0.085377 0.479924 26.000000
1.976866 0.079312 0.479924 26.000000
1.979050 0.073319 0.480365 26.000000
1.979265 0.067247 0.480365 26.000000
1.982387 0.061266 0.481026 26.000000
1.983541 0.055211 0.481247 26.000000
1.982726 0.049101 0.481026 26.000000
1.988718 0.043146 0.482349 26.000000
1.991766 0.037100 0.483011 26.000000
1.990896 0.030973 0.482790 26.000000
1.995858 0.024927 0.483893 26.000000
1.995925 0.018804 0.483893 26.000000
2.000850 0.012712 0.484996 26.000000
2.002830 0.006580 0.485437 26.000000
2.003816 0.000436 0.485657 26.000000
2.004784 -0.005714 0.485878 26.000000
2.007683 -0.011881 0.486539 26.000000
2.004711 -0.018015 0.485878 26.000000
2.009523 -0.024223 0.486980 26.000000
2.010414 -0.030403 0.487201 26.000000
2.013237 -0.036623 0.487862 26.000000
2.011165 -0.042758 0.487421 26.000000
2.015900 -0.049046 0.488524 26.000000
2.015740 -0.055230 0.488524 26.000000
2.014586 -0.061385 0.488304 26.000000
2.018288 -0.067695 0.489186 26.000000
2.019045 -0.073923 0.489406 26.000000
2.019783 -0.080155 0.489627 26.000000
2.020503 -0.086393 0.489847 26.000000
2.026074 -0.092858 0.491170 26.000000
2.027728 -0.099168 0.491611 26.000000
2.031311 -0.105591 0.492494 26.000000
2.033899 -0.111982 0.493155 26.000000
2.038414 -0.118504 0.494258 26.000000
2.037068 -0.124698 0.494037 26.000000
2.038622 -0.131071 0.494478 26.000000
2.032372 -0.136933 0.493155 26.000000
2.031942 -0.143168 0.493155 26.000000
2.031493 -0.149401 0.493155 26.000000
2.031025 -0.155633 0.493155 26.000000
2.030538 -0.161863 0.493155 26.000000
2.029060 -0.168012 0.492935 26.000000
2.035338 -0.174819 0.494478 26.000000
2.037707 -0.181321 0.495140 26.000000
2.048796 -0.188643 0.497786 26.000000
1.929008 0.255515 0.460539 27.000000
1.928814 0.249470 0.460324 27.000000
1.930539 0.243674 0.460539 27.000000
1.933216 0.237990 0.460968 27.000000
1.932968 0.231941 0.460753 27.000000
1.934640 0.226123 0.460968 27.000000
1.936295 0.220298 0.461183 27.000000
1.939874 0.214681 0.461827 27.000000
1.942466 0.208938 0.462257 27.000000
1.945040 0.203182 0.462686 27.000000
1.943711 0.197015 0.462257 27.000000
1.944306 0.191051 0.462257 27.000000
1.944883 0.185085 0.462257 27.000000
1.945442 0.179118 0.462257 27.000000
1.948901 0.173410 0.462901 27.000000
1.950397 0.167514 0.463115 27.000000
1.950901 0.161529 0.463115 27.000000
1.952361 0.155622 0.463330 27.000000
1.954777 0.149781 0.463760 27.000000
1.955227 0.143784 0.463760 27.000000
1.955659 0.137784 0.463760 27.000000
1.958996 0.131982 0.464404 27.000000
1.962316 0.126161 0.465048 27.000000
1.960744 0.120020 0.464619 27.000000
1.960128 0.113947 0.464404 27.000000
1.963394 0.108095 0.465048 27.000000
1.960790 0.101918 0.464404 27.000000
1.964020 0.096046 0.465048 27.000000
1.964305 0.090020 0.465048 27.000000
1.968475 0.084163 0.465907 27.000000
1.968724 0.078123 0.465907 27.000000
1.968955 0.072083 0.465907 27.000000
1.968191 0.066008 0.465692 27.000000
1.973265 0.060121 0.466766 27.000000
1.975393 0.054122 0.467195 27.000000
1.978478 0.048134 0.467840 27.000000
1.979593 0.042085 0.468054 27.000000
1.982643 0.036067 0.468699 27.000000
1.984697 0.030015 0.469128 27.000000
1.985756 0.023938 0.469343 27.000000
1.986797 0.017855 0.469558 27.000000
1.989772 0.011779 0.470202 27.000000
1.990776 0.005677 0.470416 27.000000
1.991760 -0.000430 0.470631 27.000000
1.992727 -0.006543 0.470846 27.000000
1.993674 -0.012662 0.471061 27.000000
1.995579 -0.018796 0.471490 27.000000
1.997465 -0.024942 0.471920 27.000000
1.999332 -0.031099 0.472349 27.000000
2.004110 -0.037321 0.473423 27.000000
2.006915 -0.043531 0.474067 27.000000
2.006772 -0.049688 0.474067 27.000000
2.009539 -0.055924 0.474711 27.000000
2.004477 -0.061941 0.473638 27.000000
2.012087 -0.068351 0.475355 27.000000
2.012844 -0.074559 0.475570 27.000000
2.016509 -0.080889 0.476429 27.000000
2.017227 -0.087116 0.476644 27.000000
2.019877 -0.093438 0.477288 27.000000
2.022508 -0.099778 0.477932 27.000000
2.023167 -0.106033 0.478147 27.000000
2.024783 -0.112346 0.478576 27.000000
2.030279 -0.118897 0.479865 27.000000
2.028930 -0.125066 0.479650 27.000000
2.028537 -0.131290 0.479650 27.000000
2.029099 -0.137578 0.479865 27.000000
2.029641 -0.143871 0.480080 27.000000
2.030164 -0.150169 0.480294 27.000000
2.031642 -0.156545 0.480724 27.000000
2.034073 -0.163010 0.481368 27.000000
2.034537 -0.169330 0.481583 27.000000
2.032061 -0.175404 0.481153 27.000000
2.040269 -0.182416 0.483086 27.000000
2.037755 -0.188495 0.482656 27.000000
2.039111 -0.194931 0.483086 27.000000
2.041420 -0.201472 0.483730 27.000000
2.020386 -0.205669 0.479221 27.000000
2.021688 -0.212069 0.479650 27.000000
2.028797 -0.219105 0.481368 27.000000
1.932971 0.258303 0.450171 28.000000
1.931815 0.252120 0.449752 28.000000
1.935490 0.246561 0.450380 28.000000
1.938178 0.240862 0.450799 28.000000
1.939879 0.235032 0.451008 28.000000
1.940591 0.229079 0.451008 28.000000
1.942256 0.223235 0.451217 28.000000
1.941960 0.217167 0.451008 28.000000
1.945534 0.211524 0.451636 28.000000
1.948118 0.205758 0.452054 28.000000
1.949713 0.199880 0.452264 28.000000
1.948371 0.193705 0.451845 28.000000
1.948956 0.187726 0.451845 28.000000
1.944654 0.181295 0.450799 28.000000
1.946175 0.175416 0.451008 28.000000
1.950601 0.169781 0.451845 28.000000
1.952088 0.163877 0.452054 28.000000
1.952581 0.157887 0.452054 28.000000
1.956956 0.152197 0.452892 28.000000
1.956439 0.146120 0.452682 28.000000
1.957853 0.140186 0.452892 28.000000
1.962176 0.134444 0.453729 28.000000
1.964531 0.128550 0.454147 28.000000
1.963941 0.122462 0.453938 28.000000
1.965283 0.116494 0.454147 28.000000
1.965631 0.110464 0.454147 28.000000
1.965961 0.104433 0.454147 28.000000
1.966272 0.098401 0.454147 28.000000
1.969495 0.092504 0.454775 28.000000
1.968793 0.086419 0.454566 28.000000
1.970026 0.080417 0.454775 28.000000
1.973195 0.074482 0.455403 28.000000
1.973414 0.068428 0.455403 28.000000
1.974592 0.062404 0.455612 28.000000
1.982594 0.056564 0.457286 28.000000
1.984713 0.050530 0.457705 28.000000
1.985837 0.044462 0.457914 28.000000
1.988897 0.038424 0.458542 28.000000
1.991938 0.032368 0.459170 28.000000
1.993984 0.026281 0.459588 28.000000
1.995033 0.020173 0.459798 28.000000
1.997041 0.014065 0.460216 28.000000
1.999030 0.007945 0.460635 28.000000
1.998068 0.001811 0.460426 28.000000
1.999042 -0.004321 0.460635 28.000000
1.998041 -0.010448 0.460426 28.000000
2.000933 -0.016604 0.461053 28.000000
2.001851 -0.022755 0.461263 28.000000
2.003727 -0.028926 0.461681 28.000000
2.004606 -0.035090 0.461891 28.000000
2.006444 -0.041282 0.462309 28.000000
2.005331 -0.047414 0.462100 28.000000
2.009086 -0.053672 0.462937 28.000000
2.009889 -0.059865 0.463146 28.000000
2.012628 -0.066129 0.463774 28.000000
2.015347 -0.072411 0.464402 28.000000
2.020001 -0.078787 0.465448 28.000000
2.020727 -0.085025 0.465658 28.000000
2.022410 -0.091314 0.466076 28.000000
2.029934 -0.097899 0.467750 28.000000
2.030601 -0.104177 0.467960 28.000000
2.030272 -0.110407 0.467960 28.000000
2.030900 -0.116692 0.468169 28.000000
2.030532 -0.122922 0.468169 28.000000
2.032097 -0.129276 0.468587 28.000000
2.031691 -0.135510 0.468587 28.000000
2.034192 -0.141948 0.469215 28.000000
2.035697 -0.148332 0.469634 28.000000
2.036207 -0.154651 0.469843 28.000000
2.040597 -0.161285 0.470889 28.000000
2.043991 -0.167867 0.471727 28.000000
2.042492 -0.174054 0.471517 28.000000
2.045845 -0.180665 0.472354 28.000000
2.046254 -0.187031 0.472564 28.000000
2.049565 -0.193678 0.473401 28.000000
2.047988 -0.199869 0.473191 28.000000
2.053202 -0.206743 0.474447 28.000000
2.052558 -0.213041 0.474447 28.000000
2.053840 -0.219546 0.474866 28.000000
2.058016 -0.226383 0.475912 28.000000
2.059255 -0.232917 0.476331 28.000000
2.060473 -0.239460 0.476749 28.000000
2.029631 -0.242172 0.470262 28.000000
2.032761 -0.248875 0.471099 28.000000
1.938674 0.264250 0.439160 29.000000
1.936564 0.257914 0.438550 29.000000
1.937346 0.251972 0.438550 29.000000
1.941995 0.246519 0.439363 29.000000
1.941771 0.240440 0.439160 29.000000
1.944443 0.234716 0.439567 29.000000
1.945154 0.228749 0.439567 29.000000
1.952656 0.223559 0.440990 29.000000
1.950414 0.217243 0.440380 29.000000
1.954965 0.211679 0.441193 29.000000
1.954631 0.205578 0.440990 29.000000
1.957201 0.199778 0.441396 29.000000
1.950984 0.193099 0.439973 29.000000
1.950593 0.187019 0.439770 29.000000
1.946282 0.180583 0.438753 29.000000
1.953654 0.175222 0.440177 29.000000
1.951256 0.168974 0.439567 29.000000
1.954692 0.163231 0.440177 29.000000
1.952256 0.156999 0.439567 29.000000
1.959562 0.151536 0.440990 29.000000
1.962947 0.145740 0.441600 29.000000
1.967291 0.139994 0.442413 29.000000
1.967712 0.133958 0.442413 29.000000
1.971045 0.128110 0.443023 29.000000
1.970451 0.122002 0.442819 29.000000
1.971793 0.116014 0.443023 29.000000
1.971162 0.109910 0.442819 29.000000
1.968557 0.103708 0.442210 29.000000
1.970822 0.097764 0.442616 29.000000
1.974047 0.091854 0.443226 29.000000
1.970406 0.085628 0.442413 29.000000
1.975551 0.079779 0.443429 29.000000
1.978722 0.073826 0.444039 29.000000
1.981875 0.067855 0.444649 29.000000
1.981095 0.061744 0.444446 29.000000
1.983233 0.055721 0.444852 29.000000
1.987310 0.049733 0.445666 29.000000
1.987453 0.043636 0.445666 29.000000
1.987578 0.037538 0.445666 29.000000
1.990620 0.031486 0.446276 29.000000
1.992666 0.025404 0.446682 29.000000
1.994692 0.019309 0.447089 29.000000
1.997679 0.013208 0.447699 29.000000
2.000648 0.007089 0.448309 29.000000
2.003597 0.000952 0.448918 29.000000
2.003591 -0.005195 0.448918 29.000000
2.006503 -0.011359 0.449528 29.000000
2.008417 -0.017533 0.449935 29.000000
2.009333 -0.023706 0.450138 29.000000
2.008271 -0.029856 0.449935 29.000000
2.009149 -0.036035 0.450138 29.000000
2.010008 -0.042219 0.450342 29.000000
2.008890 -0.048362 0.450138 29.000000
2.010690 -0.054578 0.450545 29.000000
2.011492 -0.060777 0.450748 29.000000
2.014232 -0.067046 0.451358 29.000000
2.016952 -0.073332 0.451968 29.000000
2.018674 -0.079597 0.452375 29.000000
2.025268 -0.086083 0.453798 29.000000
2.028907 -0.092475 0.454611 29.000000
2.030569 -0.098794 0.455017 29.000000
2.033190 -0.105176 0.455627 29.000000
2.032858 -0.111413 0.455627 29.000000
2.034461 -0.117763 0.456034 29.000000
2.035068 -0.124064 0.456237 29.000000
2.036632 -0.130432 0.456644 29.000000
2.034268 -0.136548 0.456237 29.000000
2.037747 -0.143064 0.457050 29.000000
2.039251 -0.149458 0.457457 29.000000
2.039759 -0.155789 0.457660 29.000000
2.042200 -0.162279 0.458270 29.000000
2.046571 -0.168947 0.459287 29.000000
2.047019 -0.175309 0.459490 29.000000
2.050372 -0.181935 0.460303 29.000000
2.050780 -0.188315 0.460507 29.000000
2.053116 -0.194883 0.461116 29.000000
2.052509 -0.201181 0.461116 29.000000
2.052856 -0.207576 0.461320 29.000000
2.055131 -0.214178 0.461930 29.000000
2.056411 -0.220692 0.462336 29.000000
2.056698 -0.227107 0.462540 29.000000
2.058910 -0.233748 0.463149 29.000000
2.058183 -0.240063 0.463149 29.000000
2.060353 -0.246727 0.463759 29.000000
2.062502 -0.253405 0.464369 29.000000
2.066572 -0.260344 0.465386 29.000000
2.084213 -0.269069 0.469248 29.000000
2.044552 -0.270321 0.461116 29.000000
1.935520 0.269003 0.426310 30.000000
1.936336 0.263064 0.426310 30.000000
1.932275 0.256476 0.425324 30.000000
1.934025 0.250673 0.425521 30.000000
1.931867 0.244369 0.424929 30.000000
1.941364 0.239523 0.426705 30.000000
1.942090 0.233566 0.426705 30.000000
1.940850 0.227378 0.426310 30.000000
1.946409 0.221979 0.427297 30.000000
1.947080 0.216006 0.427297 30.000000
1.945785 0.209821 0.426902 30.000000
1.946419 0.203850 0.426902 30.000000
1.949961 0.198176 0.427494 30.000000
1.947633 0.191903 0.426902 30.000000
1.948213 0.185927 0.426902 30.000000
1.943893 0.179498 0.425916 30.000000
1.948341 0.173882 0.426705 30.000000
1.946912 0.167736 0.426310 30.000000
1.952302 0.162168 0.427297 30.000000
1.952790 0.156178 0.427297 30.000000
1.959125 0.150638 0.428481 30.000000
1.957622 0.144482 0.428086 30.000000
1.963924 0.138892 0.429270 30.000000
1.965319 0.132932 0.429467 30.000000
1.966696 0.126966 0.429665 30.000000
1.966097 0.120871 0.429467 30.000000
1.969395 0.115011 0.430059 30.000000
1.967781 0.108859 0.429665 30.000000
1.962232 0.102514 0.428481 30.000000
1.968412 0.096783 0.429665 30.000000
1.971637 0.090880 0.430257 30.000000
1.971907 0.084830 0.430257 30.000000
1.975096 0.078898 0.430849 30.000000
1.977288 0.072911 0.431243 30.000000
1.977503 0.066844 0.431243 30.000000
1.975739 0.060717 0.430849 30.000000
1.978856 0.054737 0.431441 30.000000
1.978034 0.048641 0.431243 30.000000
1.978174 0.042572 0.431243 30.000000
1.979276 0.036522 0.431441 30.000000
1.982319 0.030495 0.432032 30.000000
1.985344 0.024450 0.432624 30.000000
1.987370 0.018377 0.433019 30.000000
1.990358 0.012299 0.433611 30.000000
1.997249 0.006215 0.434992 30.000000
1.999219 0.000088 0.435387 30.000000
2.001171 -0.006051 0.435781 30.000000
2.005064 -0.012214 0.436571 30.000000
2.005998 -0.018374 0.436768 30.000000
2.005932 -0.024528 0.436768 30.000000
2.003887 -0.030652 0.436373 30.000000
2.003783 -0.036800 0.436373 30.000000
2.003661 -0.042947 0.436373 30.000000
2.001559 -0.049047 0.435979 30.000000
2.003360 -0.055241 0.436373 30.000000
2.005141 -0.061446 0.436768 30.000000
2.007882 -0.067696 0.437360 30.000000
2.009624 -0.073928 0.437755 30.000000
2.015265 -0.080326 0.438938 30.000000
2.015989 -0.086550 0.439136 30.000000
2.023548 -0.093094 0.440714 30.000000
2.025212 -0.099397 0.441109 30.000000
2.031750 -0.105966 0.442490 30.000000
2.032394 -0.112253 0.442687 30.000000
2.033998 -0.118601 0.443082 30.000000
2.032646 -0.124781 0.442885 30.000000
2.035188 -0.131205 0.443477 30.000000
2.035754 -0.137514 0.443674 30.000000
2.036301 -0.143828 0.443871 30.000000
2.034872 -0.150003 0.443674 30.000000
2.035380 -0.156320 0.443871 30.000000
2.034891 -0.162564 0.443871 30.000000
2.040245 -0.169291 0.445055 30.000000
2.042646 -0.175801 0.445647 30.000000
2.046003 -0.182415 0.446436 30.000000
2.048362 -0.188961 0.447028 30.000000
2.049725 -0.195430 0.447423 30.000000
2.051067 -0.201909 0.447818 30.000000
2.052388 -0.208398 0.448212 30.000000
2.053689 -0.214898 0.448607 30.000000
2.055945 -0.221512 0.449199 30.000000
2.058178 -0.228142 0.449791 30.000000
2.057469 -0.234455 0.449791 30.000000
2.056740 -0.240766 0.449791 30.000000
2.059885 -0.247542 0.450580 30.000000
2.061062 -0.254100 0.450975 30.000000
2.063190 -0.260791 0.451567 30.000000
2.067242 -0.267748 0.452553 30.000000
2.067383 -0.274217 0.452751 30.000000
2.062646 -0.280032 0.451961 30.000000
2.071487 -0.287706 0.453934 30.000000
2.071566 -0.294197 0.454132 30.000000
2.084236 -0.302520 0.456894 30.000000
1.912734 0.270949 0.410014 31.000000
1.923278 0.266432 0.411929 31.000000
1.925058 0.260663 0.412120 31.000000
1.929741 0.255273 0.412886 31.000000
1.927595 0.248972 0.412312 31.000000
1.934192 0.243797 0.413461 31.000000
1.935905 0.237982 0.413652 31.000000
1.935652 0.231925 0.413461 31.000000
1.935379 0.225871 0.413269 31.000000
1.939964 0.220377 0.414035 31.000000
1.938680 0.214208 0.413652 31.000000
1.941279 0.208470 0.414035 31.000000
1.942886 0.202615 0.414227 31.000000
1.942522 0.196554 0.414035 31.000000
1.942139 0.190498 0.413844 31.000000
1.941737 0.184445 0.413652 31.000000
1.942294 0.178487 0.413652 31.000000
1.945765 0.172789 0.414227 31.000000
1.948242 0.166988 0.414610 31.000000
1.951679 0.161254 0.415184 31.000000
1.954122 0.155422 0.415567 31.000000
1.955568 0.149502 0.415759 31.000000
1.955039 0.143429 0.415567 31.000000
1.958407 0.137639 0.416142 31.000000
1.957840 0.131563 0.415950 31.000000
1.957255 0.125493 0.415759 31.000000
1.957631 0.119487 0.415759 31.000000
1.957009 0.113424 0.415567 31.000000
1.959307 0.107528 0.415950 31.000000
1.958648 0.101465 0.415759 31.000000
1.961891 0.095600 0.416333 31.000000
1.965116 0.089717 0.416908 31.000000
1.966363 0.083730 0.417099 31.000000
1.968572 0.077776 0.417482 31.000000
1.970763 0.071808 0.417865 31.000000
1.970974 0.065762 0.417865 31.000000
1.971166 0.059715 0.417865 31.000000
1.972322 0.053694 0.418057 31.000000
1.971496 0.047619 0.417865 31.000000
1.971632 0.041570 0.417865 31.000000
1.973713 0.035557 0.418248 31.000000
1.973813 0.029502 0.418248 31.000000
1.975857 0.023471 0.418631 31.000000
1.980827 0.017455 0.419589 31.000000
1.984797 0.011403 0.420355 31.000000
1.991693 0.005336 0.421695 31.000000
1.994645 -0.000774 0.422270 31.000000
1.996596 -0.006899 0.422653 31.000000
2.002455 -0.013060 0.423802 31.000000
2.002405 -0.019203 0.423802 31.000000
2.001355 -0.025334 0.423610 31.000000
2.002249 -0.031489 0.423802 31.000000
2.001162 -0.037614 0.423610 31.000000
2.002018 -0.043774 0.423802 31.000000
2.000894 -0.049892 0.423610 31.000000
2.000731 -0.056031 0.423610 31.000000
1.994664 -0.061989 0.422461 31.000000
1.994464 -0.068108 0.422461 31.000000
2.001112 -0.074478 0.423802 31.000000
2.003816 -0.080734 0.424376 31.000000
2.006500 -0.087007 0.424950 31.000000
2.012107 -0.093433 0.426099 31.000000
2.013771 -0.099701 0.426482 31.000000
2.017377 -0.106083 0.427248 31.000000
2.017042 -0.112271 0.427248 31.000000
2.023547 -0.118858 0.428589 31.000000
2.023172 -0.125066 0.428589 31.000000
2.024738 -0.131398 0.428972 31.000000
2.025305 -0.137675 0.429163 31.000000
2.026831 -0.144026 0.429546 31.000000
2.026380 -0.150244 0.429546 31.000000
2.028845 -0.156685 0.430121 31.000000
2.031290 -0.163143 0.430695 31.000000
2.032736 -0.169536 0.431078 31.000000
2.036118 -0.176107 0.431844 31.000000
2.041434 -0.182875 0.432993 31.000000
2.042818 -0.189318 0.433376 31.000000
2.044182 -0.195770 0.433759 31.000000
2.048455 -0.202521 0.434717 31.000000
2.047824 -0.208804 0.434717 31.000000
2.050103 -0.215392 0.435291 31.000000
2.054312 -0.222205 0.436249 31.000000
2.055571 -0.228723 0.436632 31.000000
2.053885 -0.234917 0.436440 31.000000
2.053154 -0.241217 0.436440 31.000000
2.059226 -0.248334 0.437781 31.000000
2.065274 -0.255490 0.439121 31.000000
2.064480 -0.261825 0.439121 31.000000
2.064640 -0.268284 0.439313 31.000000
2.067699 -0.275132 0.440079 31.000000
2.065873 -0.281343 0.439887 31.000000
2.065000 -0.287679 0.439887 31.000000
2.066051 -0.294289 0.440270 31.000000
2.067081 -0.300908 0.440653 31.000000
2.064207 -0.306961 0.440270 31.000000
2.060344 -0.312852 0.439696 31.000000
2.074894 -0.321568 0.442759 31.000000
2.073898 -0.327932 0.442759 31.000000
2.066099 -0.333203 0.441419 31.000000
1.923179 0.275378 0.400645 32.000000
1.923042 0.269341 0.400459 32.000000
1.924833 0.263573 0.400645 32.000000
1.927580 0.257926 0.401016 32.000000
1.928362 0.252011 0.401016 32.000000
1.932051 0.246465 0.401574 32.000000
1.933773 0.240657 0.401760 32.000000
1.934502 0.234723 0.401760 32.000000
1.935213 0.228787 0.401760 32.000000
1.938835 0.223184 0.402317 32.000000
1.942440 0.217561 0.402875 32.000000
1.941144 0.211389 0.402503 32.000000
1.942761 0.205536 0.402689 32.000000
1.944360 0.199674 0.402875 32.000000
1.943986 0.193611 0.402689 32.000000
1.944571 0.187646 0.402689 32.000000
1.944159 0.181589 0.402503 32.000000
1.948621 0.175975 0.403246 32.000000
1.947194 0.169826 0.402875 32.000000
1.952602 0.164260 0.403804 32.000000
1.954076 0.158348 0.403990 32.000000
1.954553 0.152352 0.403990 32.000000
1.952071 0.146136 0.403432 32.000000
1.955451 0.140356 0.403990 32.000000
1.949990 0.133956 0.402875 32.000000
1.954314 0.128228 0.403618 32.000000
1.955679 0.122292 0.403804 32.000000
1.958007 0.116407 0.404176 32.000000
1.959336 0.110454 0.404361 32.000000
1.960647 0.104494 0.404547 32.000000
1.962921 0.098576 0.404919 32.000000
1.965177 0.092645 0.405291 32.000000
1.966433 0.086658 0.405476 32.000000
1.968654 0.080704 0.405848 32.000000
1.971838 0.074774 0.406406 32.000000
1.972058 0.068724 0.406406 32.000000
1.971277 0.062643 0.406220 32.000000
1.971460 0.056594 0.406220 32.000000
1.974571 0.050620 0.406777 32.000000
1.974717 0.044561 0.406777 32.000000
1.977792 0.038559 0.407335 32.000000
1.983796 0.032584 0.408450 32.000000
1.983886 0.026498 0.408450 32.000000
1.981993 0.020392 0.408078 32.000000
1.981064 0.014305 0.407892 32.000000
1.994854 0.008276 0.410494 32.000000
1.996836 0.002157 0.410866 32.000000
2.001746 -0.003982 0.411795 32.000000
2.003689 -0.010134 0.412167 32.000000
2.003649 -0.016282 0.412167 32.000000
2.004572 -0.022440 0.412352 32.000000
2.004493 -0.028590 0.412352 32.000000
2.004396 -0.034739 0.412352 32.000000
2.004280 -0.040889 0.412352 32.000000
2.006110 -0.047085 0.412724 32.000000
2.003992 -0.053186 0.412352 32.000000
2.003819 -0.059334 0.412352 32.000000
2.006574 -0.065579 0.412910 32.000000
2.006363 -0.071735 0.412910 32.000000
2.007115 -0.077929 0.413096 32.000000
2.009812 -0.084211 0.413653 32.000000
2.012489 -0.090511 0.414211 32.000000
2.013183 -0.096733 0.414397 32.000000
2.016802 -0.103111 0.415140 32.000000
2.020401 -0.109513 0.415883 32.000000
2.018093 -0.115598 0.415512 32.000000
2.021652 -0.122028 0.416255 32.000000
2.021268 -0.128229 0.416255 32.000000
2.023806 -0.134627 0.416813 32.000000
2.024364 -0.140904 0.416998 32.000000
2.025882 -0.147258 0.417370 32.000000
2.029340 -0.153772 0.418113 32.000000
2.030818 -0.160153 0.418485 32.000000
2.033254 -0.166625 0.419043 32.000000
2.036649 -0.173197 0.419786 32.000000
2.040024 -0.179792 0.420529 32.000000
2.042398 -0.186319 0.421087 32.000000
2.039860 -0.192399 0.420715 32.000000
2.047083 -0.199423 0.422202 32.000000
2.049395 -0.205999 0.422759 32.000000
2.050708 -0.212489 0.423131 32.000000
2.054931 -0.219303 0.424060 32.000000
2.060108 -0.226253 0.425175 32.000000
2.061357 -0.232794 0.425547 32.000000
2.061609 -0.239231 0.425733 32.000000
2.064768 -0.246022 0.426476 32.000000
2.066929 -0.252715 0.427034 32.000000
2.067119 -0.259178 0.427219 32.000000
2.070212 -0.266022 0.427963 32.000000
2.069386 -0.272372 0.427963 32.000000
2.068541 -0.278719 0.427963 32.000000
2.067676 -0.285064 0.427963 32.000000
2.066792 -0.291406 0.427963 32.000000
2.067833 -0.298027 0.428334 32.000000
2.067881 -0.304513 0.428520 32.000000
2.064022 -0.310416 0.427963 32.000000
2.064031 -0.316897 0.428149 32.000000
2.063050 -0.323227 0.428149 32.000000
2.086303 -0.333445 0.432795 32.000000
2.083330 -0.339527 0.432423 32.000000
2.081310 -0.345756 0.432237 32.000000
1.925554 0.280539 0.389720 33.000000
1.923484 0.274215 0.389179 33.000000
1.924316 0.268312 0.389179 33.000000
1.927080 0.262672 0.389540 33.000000
1.927877 0.256759 0.389540 33.000000
1.928655 0.250843 0.389540 33.000000
1.932343 0.245296 0.390080 33.000000
1.936015 0.239729 0.390621 33.000000
1.936742 0.233788 0.390621 33.000000
1.937450 0.227845 0.390621 33.000000
1.941072 0.222235 0.391161 33.000000
1.946632 0.216822 0.392062 33.000000
1.945332 0.210638 0.391702 33.000000
1.945969 0.204668 0.391702 33.000000
1.946588 0.198697 0.391702 33.000000
1.948168 0.192821 0.391882 33.000000
1.946792 0.186656 0.391522 33.000000
1.948335 0.180773 0.391702 33.000000
1.951819 0.175058 0.392242 33.000000
1.953327 0.169153 0.392423 33.000000
1.958738 0.163568 0.393323 33.000000
1.959231 0.157558 0.393323 33.000000
1.961666 0.151698 0.393684 33.000000
1.961141 0.145606 0.393504 33.000000
1.966485 0.139937 0.394404 33.000000
1.963961 0.133703 0.393864 33.000000
1.964362 0.127677 0.393864 33.000000
1.962780 0.121529 0.393504 33.000000
1.967072 0.115737 0.394224 33.000000
1.962507 0.109429 0.393323 33.000000
1.964798 0.103510 0.393684 33.000000
1.965106 0.097482 0.393684 33.000000
1.969327 0.091635 0.394404 33.000000
1.970581 0.085635 0.394585 33.000000
1.971817 0.079629 0.394765 33.000000
1.969104 0.073469 0.394224 33.000000
1.975218 0.067629 0.395305 33.000000
1.976400 0.061599 0.395485 33.000000
1.976579 0.055535 0.395485 33.000000
1.981657 0.049593 0.396386 33.000000
1.981800 0.043513 0.396386 33.000000
1.981924 0.037433 0.396386 33.000000
1.983997 0.031383 0.396747 33.000000
1.986051 0.025321 0.397107 33.000000
1.986119 0.019227 0.397107 33.000000
1.989119 0.013153 0.397648 33.000000
1.995052 0.007070 0.398729 33.000000
1.999983 0.000951 0.399630 33.000000
1.999976 -0.005185 0.399630 33.000000
2.003885 -0.011344 0.400350 33.000000
2.005808 -0.017509 0.400711 33.000000
2.006729 -0.023675 0.400891 33.000000
2.009597 -0.029876 0.401431 33.000000
2.007529 -0.036005 0.401071 33.000000
2.010359 -0.042227 0.401611 33.000000
2.010220 -0.048394 0.401611 33.000000
2.012029 -0.054615 0.401972 33.000000
2.011852 -0.060787 0.401972 33.000000
2.014605 -0.067058 0.402512 33.000000
2.014390 -0.073239 0.402512 33.000000
2.016122 -0.079496 0.402873 33.000000
2.019799 -0.085849 0.403593 33.000000
2.020509 -0.092090 0.403774 33.000000
2.018252 -0.098193 0.403413 33.000000
2.019906 -0.104486 0.403774 33.000000
2.021540 -0.110791 0.404134 33.000000
2.019227 -0.116878 0.403774 33.000000
2.019840 -0.123132 0.403954 33.000000
2.021416 -0.129455 0.404314 33.000000
2.023954 -0.135854 0.404855 33.000000
2.022546 -0.141994 0.404674 33.000000
2.027987 -0.148631 0.405756 33.000000
2.030464 -0.155077 0.406296 33.000000
2.032920 -0.161540 0.406837 33.000000
2.032415 -0.167776 0.406837 33.000000
2.035811 -0.174347 0.407557 33.000000
2.037226 -0.180766 0.407918 33.000000
2.040580 -0.187376 0.408638 33.000000
2.041954 -0.193822 0.408999 33.000000
2.044286 -0.200374 0.409539 33.000000
2.046598 -0.206942 0.410080 33.000000
2.048888 -0.213527 0.410620 33.000000
2.051157 -0.220127 0.411161 33.000000
2.058294 -0.227284 0.412602 33.000000
2.059541 -0.233820 0.412963 33.000000
2.063699 -0.240708 0.413863 33.000000
2.065881 -0.247390 0.414404 33.000000
2.068041 -0.254087 0.414944 33.000000
2.070180 -0.260800 0.415485 33.000000
2.071321 -0.267402 0.415845 33.000000
2.070491 -0.273755 0.415845 33.000000
2.070616 -0.280238 0.416026 33.000000
2.071695 -0.286860 0.416386 33.000000
2.069831 -0.293076 0.416206 33.000000
2.067949 -0.299284 0.416026 33.000000
2.067994 -0.305771 0.416206 33.000000
2.067046 -0.312114 0.416206 33.000000
2.065107 -0.318304 0.416026 33.000000
2.066064 -0.324944 0.416386 33.000000
2.077682 -0.333309 0.418728 33.000000
2.068885 -0.338410 0.417287 33.000000
1.919119 0.284749 0.376530 34.000000
1.922907 0.279285 0.377052 34.000000
1.921805 0.273107 0.376704 34.000000
1.922634 0.267210 0.376704 34.000000
1.923444 0.261310 0.376704 34.000000
1.924237 0.255408 0.376704 34.000000
1.925012 0.249503 0.376704 34.000000
1.927722 0.243843 0.377052 34.000000
1.931393 0.238290 0.377575 34.000000
1.932115 0.232364 0.377575 34.000000
1.933796 0.226550 0.377749 34.000000
1.936439 0.220840 0.378097 34.000000
1.941022 0.215333 0.378794 34.000000
1.941674 0.209377 0.378794 34.000000
1.942307 0.203419 0.378794 34.000000
1.944881 0.197658 0.379142 34.000000
1.945478 0.191691 0.379142 34.000000
1.946057 0.185721 0.379142 34.000000
1.947599 0.179841 0.379316 34.000000
1.949122 0.173952 0.379491 34.000000
1.951609 0.168141 0.379839 34.000000
1.955059 0.162398 0.380361 34.000000
1.958493 0.156635 0.380884 34.000000
1.959946 0.150702 0.381058 34.000000
1.960399 0.144688 0.381058 34.000000
1.963781 0.138882 0.381581 34.000000
1.963215 0.132790 0.381406 34.000000
1.965578 0.126893 0.381755 34.000000
1.965958 0.120862 0.381755 34.000000
1.966320 0.114830 0.381755 34.000000
1.966663 0.108797 0.381755 34.000000
1.966988 0.102763 0.381755 34.000000
1.965327 0.096631 0.381406 34.000000
1.970532 0.090829 0.382277 34.000000
1.969818 0.084740 0.382103 34.000000
1.973020 0.078815 0.382626 34.000000
1.972269 0.072725 0.382451 34.000000
1.976419 0.066808 0.383148 34.000000
1.972678 0.060622 0.382451 34.000000
1.974823 0.054624 0.382800 34.000000
1.975966 0.048590 0.382974 34.000000
1.979059 0.042592 0.383496 34.000000
1.977211 0.036483 0.383148 34.000000
1.979283 0.030448 0.383496 34.000000
1.981336 0.024400 0.383845 34.000000
1.982387 0.018330 0.384019 34.000000
1.984403 0.012261 0.384367 34.000000
1.986401 0.006179 0.384716 34.000000
1.989365 0.000086 0.385238 34.000000
1.994279 -0.006031 0.386109 34.000000
1.994251 -0.012150 0.386109 34.000000
1.998143 -0.018303 0.386806 34.000000
1.999062 -0.024445 0.386980 34.000000
2.000947 -0.030608 0.387328 34.000000
2.000844 -0.036747 0.387328 34.000000
2.005644 -0.042990 0.388199 34.000000
2.006487 -0.049166 0.388373 34.000000
2.007311 -0.055349 0.388547 34.000000
2.007132 -0.061507 0.388547 34.000000
2.009886 -0.067764 0.389070 34.000000
2.010653 -0.073966 0.389244 34.000000
2.014352 -0.080290 0.389940 34.000000
2.016064 -0.086554 0.390289 34.000000
2.016773 -0.092783 0.390463 34.000000
2.014512 -0.098874 0.390115 34.000000
2.017149 -0.105207 0.390637 34.000000
2.017800 -0.111450 0.390811 34.000000
2.019415 -0.117754 0.391160 34.000000
2.020027 -0.124009 0.391334 34.000000
2.022585 -0.130395 0.391856 34.000000
2.023158 -0.136666 0.392030 34.000000
2.023711 -0.142941 0.392205 34.000000
2.028173 -0.149510 0.393075 34.000000
2.029669 -0.155883 0.393424 34.000000
2.032126 -0.162343 0.393946 34.000000
2.030637 -0.168496 0.393772 34.000000
2.034035 -0.175062 0.394469 34.000000
2.032507 -0.181214 0.394295 34.000000
2.035864 -0.187810 0.394991 34.000000
2.038219 -0.194335 0.395514 34.000000
2.037613 -0.200587 0.395514 34.000000
2.039927 -0.207135 0.396036 34.000000
2.041241 -0.213598 0.396385 34.000000
2.044493 -0.220280 0.397081 34.000000
2.049680 -0.227201 0.398126 34.000000
2.053865 -0.234045 0.398997 34.000000
2.055093 -0.240574 0.399345 34.000000
2.061190 -0.247699 0.400564 34.000000
2.061397 -0.254142 0.400739 34.000000
2.063539 -0.260835 0.401261 34.000000
2.064682 -0.267417 0.401609 34.000000
2.066781 -0.274138 0.402132 34.000000
2.064954 -0.280345 0.401958 34.000000
2.066035 -0.286949 0.402306 34.000000
2.064170 -0.293148 0.402132 34.000000
2.067159 -0.300045 0.402829 34.000000
2.065254 -0.306241 0.402654 34.000000
2.066252 -0.312870 0.403003 34.000000
2.066256 -0.319358 0.403177 34.000000
2.092503 -0.329986 0.408053 34.000000
2.065230 -0.332187 0.403351 34.000000
1.915581 0.289025 0.363592 35.000000
1.916459 0.283147 0.363592 35.000000
1.918294 0.277407 0.363760 35.000000
1.917184 0.271244 0.363424 35.000000
1.918984 0.265496 0.363592 35.000000
1.920766 0.259740 0.363760 35.000000
1.921554 0.253846 0.363760 35.000000
1.921346 0.247823 0.363592 35.000000
1.923075 0.242051 0.363760 35.000000
1.925765 0.236391 0.364096 35.000000
1.926482 0.230482 0.364096 35.000000
1.929138 0.224800 0.364432 35.000000
1.929818 0.218880 0.364432 35.000000
1.931461 0.213067 0.364600 35.000000
1.934065 0.207352 0.364936 35.000000
1.935673 0.201520 0.365104 35.000000
1.936282 0.195581 0.365104 35.000000
1.939816 0.189929 0.365608 35.000000
1.940390 0.183977 0.365608 35.000000
1.941927 0.178114 0.365776 35.000000
1.944428 0.172330 0.366112 35.000000
1.946912 0.166533 0.366448 35.000000
1.948396 0.160641 0.366616 35.000000
1.950845 0.154820 0.366952 35.000000
1.952293 0.148910 0.367120 35.000000
1.952741 0.142919 0.367120 35.000000
1.955137 0.137067 0.367456 35.000000
1.959482 0.131334 0.368128 35.000000
1.959876 0.125322 0.368128 35.000000
1.957300 0.119127 0.367624 35.000000
1.960608 0.113294 0.368128 35.000000
1.959962 0.107224 0.367960 35.000000
1.963235 0.101364 0.368464 35.000000
1.962553 0.095292 0.368296 35.000000
1.965790 0.089407 0.368800 35.000000
1.967040 0.083418 0.368968 35.000000
1.968271 0.077422 0.369136 35.000000
1.969485 0.071420 0.369304 35.000000
1.968709 0.065344 0.369136 35.000000
1.966930 0.059243 0.368800 35.000000
1.974000 0.053399 0.369975 35.000000
1.971198 0.047270 0.369471 35.000000
1.978233 0.041370 0.370647 35.000000
1.973423 0.035210 0.369807 35.000000
1.978450 0.029231 0.370647 35.000000
1.975573 0.023125 0.370143 35.000000
1.979578 0.017100 0.370815 35.000000
1.981592 0.011039 0.371151 35.000000
1.983588 0.004966 0.371487 35.000000
1.984580 -0.001120 0.371655 35.000000
1.987525 -0.007217 0.372159 35.000000
1.987493 -0.013315 0.372159 35.000000
1.991386 -0.019449 0.372831 35.000000
1.994274 -0.025594 0.373335 35.000000
1.993201 -0.031697 0.373167 35.000000
1.998022 -0.037903 0.374007 35.000000
1.999868 -0.044075 0.374343 35.000000
2.001694 -0.050259 0.374679 35.000000
2.002516 -0.056427 0.374847 35.000000
2.003319 -0.062600 0.375015 35.000000
2.002132 -0.068713 0.374847 35.000000
2.002897 -0.074891 0.375015 35.000000
2.003643 -0.081075 0.375183 35.000000
2.004369 -0.087264 0.375351 35.000000
2.005077 -0.093458 0.375519 35.000000
2.002811 -0.099513 0.375183 35.000000
2.007419 -0.105913 0.376022 35.000000
2.009053 -0.112180 0.376358 35.000000
2.010668 -0.118458 0.376694 35.000000
2.014231 -0.124868 0.377366 35.000000
2.014822 -0.131111 0.377534 35.000000
2.017361 -0.137491 0.378038 35.000000
2.020863 -0.143957 0.378710 35.000000
2.021395 -0.150229 0.378878 35.000000
2.022890 -0.156581 0.379214 35.000000
2.022400 -0.162786 0.379214 35.000000
2.021891 -0.168990 0.379214 35.000000
2.024310 -0.175446 0.379718 35.000000
2.024744 -0.181743 0.379886 35.000000
2.029085 -0.188407 0.380726 35.000000
2.031441 -0.194912 0.381230 35.000000
2.032796 -0.201337 0.381566 35.000000
2.034130 -0.207772 0.381902 35.000000
2.036424 -0.214319 0.382405 35.000000
2.040658 -0.221094 0.383245 35.000000
2.043889 -0.227788 0.383917 35.000000
2.047098 -0.234504 0.384589 35.000000
2.048327 -0.241013 0.384925 35.000000
2.053451 -0.248002 0.385933 35.000000
2.054637 -0.254542 0.386269 35.000000
2.056781 -0.261215 0.386773 35.000000
2.054014 -0.267271 0.386437 35.000000
2.060025 -0.274479 0.387613 35.000000
2.061127 -0.281063 0.387949 35.000000
2.062208 -0.287656 0.388285 35.000000
2.061316 -0.293981 0.388285 35.000000
2.062355 -0.300587 0.388620 35.000000
2.062398 -0.307058 0.388788 35.000000
2.061447 -0.313384 0.388788 35.000000
2.069244 -0.321062 0.390300 35.000000
2.009824 -0.318193 0.380222 35.000000
1.916927 0.292515 0.352520 36.000000
1.917816 0.286632 0.352520 36.000000
1.914780 0.280178 0.351871 36.000000
1.916608 0.274441 0.352033 36.000000
1.915486 0.268288 0.351709 36.000000
1.918255 0.262676 0.352033 36.000000
1.918074 0.256660 0.351871 36.000000
1.918853 0.250774 0.351871 36.000000
1.920592 0.245010 0.352033 36.000000
1.923293 0.239359 0.352358 36.000000
1.924998 0.233576 0.352520 36.000000
1.927665 0.227899 0.352845 36.000000
1.929336 0.222096 0.353007 36.000000
1.932950 0.216504 0.353494 36.000000
1.934586 0.210679 0.353656 36.000000
1.937186 0.204949 0.353981 36.000000
1.936824 0.198905 0.353818 36.000000
1.938407 0.193059 0.353981 36.000000
1.937026 0.186923 0.353656 36.000000
1.936608 0.180888 0.353494 36.000000
1.939119 0.175122 0.353818 36.000000
1.940631 0.169257 0.353981 36.000000
1.936224 0.162892 0.353169 36.000000
1.939665 0.157188 0.353656 36.000000
1.943090 0.151465 0.354143 36.000000
1.943545 0.145503 0.354143 36.000000
1.945951 0.139680 0.354468 36.000000
1.950308 0.133977 0.355117 36.000000
1.952680 0.128121 0.355441 36.000000
1.953063 0.122130 0.355441 36.000000
1.955399 0.116253 0.355766 36.000000
1.956732 0.110309 0.355928 36.000000
1.958046 0.104357 0.356090 36.000000
1.961314 0.098496 0.356577 36.000000
1.963578 0.092570 0.356902 36.000000
1.963853 0.086545 0.356902 36.000000
1.964109 0.080520 0.356902 36.000000
1.966319 0.074567 0.357227 36.000000
1.967525 0.068568 0.357389 36.000000
1.965753 0.062470 0.357064 36.000000
1.968895 0.056522 0.357551 36.000000
1.970045 0.050506 0.357713 36.000000
1.969205 0.044440 0.357551 36.000000
1.971305 0.038436 0.357876 36.000000
1.973387 0.032419 0.358200 36.000000
1.975450 0.026390 0.358525 36.000000
1.975522 0.020329 0.358525 36.000000
1.979522 0.014295 0.359174 36.000000
1.980543 0.008225 0.359336 36.000000
1.981546 0.002149 0.359499 36.000000
1.983516 -0.003935 0.359823 36.000000
1.984482 -0.010026 0.359986 36.000000
1.983455 -0.016106 0.359823 36.000000
1.986356 -0.022226 0.360310 36.000000
1.988252 -0.028349 0.360635 36.000000
1.992102 -0.034519 0.361284 36.000000
1.992973 -0.040652 0.361446 36.000000
1.996785 -0.046861 0.362095 36.000000
1.994659 -0.052933 0.361771 36.000000
1.994487 -0.059052 0.361771 36.000000
1.994297 -0.065171 0.361771 36.000000
1.997046 -0.071397 0.362258 36.000000
1.997803 -0.077562 0.362420 36.000000
1.998542 -0.083733 0.362582 36.000000
1.998275 -0.089864 0.362582 36.000000
1.999961 -0.096090 0.362907 36.000000
2.000643 -0.102276 0.363069 36.000000
2.006231 -0.108737 0.364043 36.000000
2.010813 -0.115177 0.364854 36.000000
2.014390 -0.121585 0.365503 36.000000
2.018931 -0.128080 0.366315 36.000000
2.017545 -0.134207 0.366153 36.000000
2.020076 -0.140604 0.366639 36.000000
2.019635 -0.146800 0.366639 36.000000
2.021143 -0.153146 0.366964 36.000000
2.021647 -0.159424 0.367126 36.000000
2.022132 -0.165707 0.367289 36.000000
2.020631 -0.171826 0.367126 36.000000
2.022060 -0.178199 0.367451 36.000000
2.024452 -0.184672 0.367938 36.000000
2.026823 -0.191162 0.368425 36.000000
2.028191 -0.197571 0.368749 36.000000
2.029539 -0.203991 0.369074 36.000000
2.032829 -0.210626 0.369723 36.000000
2.037079 -0.217388 0.370535 36.000000
2.042287 -0.224286 0.371508 36.000000
2.042570 -0.230662 0.371671 36.000000
2.046753 -0.237499 0.372482 36.000000
2.048954 -0.244129 0.372969 36.000000
2.053092 -0.251015 0.373780 36.000000
2.056229 -0.257806 0.374430 36.000000
2.056406 -0.264240 0.374592 36.000000
2.058521 -0.270935 0.375079 36.000000
2.059636 -0.277514 0.375403 36.000000
2.058775 -0.283832 0.375403 36.000000
2.059848 -0.290423 0.375728 36.000000
2.064807 -0.297589 0.376702 36.000000
2.061932 -0.303634 0.376377 36.000000
2.059039 -0.309664 0.376052 36.000000
2.083436 -0.319887 0.380272 36.000000
2.029807 -0.318000 0.371508 36.000000
1.913286 0.296423 0.339984 37.000000
1.914186 0.290552 0.339984 37.000000
1.914092 0.284533 0.339828 37.000000
1.914956 0.278659 0.339828 37.000000
1.915802 0.272783 0.339828 37.000000
1.914673 0.266632 0.339515 37.000000
1.916461 0.260889 0.339671 37.000000
1.916273 0.254878 0.339515 37.000000
1.919005 0.249252 0.339828 37.000000
1.920740 0.243488 0.339984 37.000000
1.923439 0.237836 0.340296 37.000000
1.923179 0.231816 0.340140 37.000000
1.925843 0.226144 0.340453 37.000000
1.928491 0.220459 0.340765 37.000000
1.932103 0.214868 0.341234 37.000000
1.932753 0.208939 0.341234 37.000000
1.933385 0.203009 0.341234 37.000000
1.932033 0.196876 0.340921 37.000000
1.935577 0.191239 0.341390 37.000000
1.933205 0.185018 0.340921 37.000000
1.933764 0.179086 0.340921 37.000000
1.936271 0.173328 0.341234 37.000000
1.936794 0.167387 0.341234 37.000000
1.934346 0.161199 0.340765 37.000000
1.935816 0.155342 0.340921 37.000000
1.939237 0.149630 0.341390 37.000000
1.941657 0.143825 0.341703 37.000000
1.941104 0.137798 0.341546 37.000000
1.945460 0.132109 0.342171 37.000000
1.948813 0.126331 0.342640 37.000000
1.947220 0.120230 0.342328 37.000000
1.951523 0.114486 0.342953 37.000000
1.953838 0.108608 0.343265 37.000000
1.956135 0.102716 0.343578 37.000000
1.958414 0.096811 0.343890 37.000000
1.959688 0.090848 0.344047 37.000000
1.960944 0.084878 0.344203 37.000000
1.963169 0.078941 0.344515 37.000000
1.965376 0.072990 0.344828 37.000000
1.966578 0.066994 0.344984 37.000000
1.964800 0.060899 0.344672 37.000000
1.969914 0.055008 0.345453 37.000000
1.970074 0.048964 0.345453 37.000000
1.970215 0.042920 0.345453 37.000000
1.972312 0.036911 0.345766 37.000000
1.973404 0.030876 0.345922 37.000000
1.975464 0.024846 0.346234 37.000000
1.975531 0.018785 0.346234 37.000000
1.976568 0.012730 0.346391 37.000000
1.979560 0.006675 0.346859 37.000000
1.981547 0.000602 0.347172 37.000000
1.981539 -0.005477 0.347172 37.000000
1.981513 -0.011556 0.347172 37.000000
1.986407 -0.017680 0.347953 37.000000
1.985356 -0.023762 0.347797 37.000000
1.987249 -0.029883 0.348109 37.000000
1.993073 -0.036088 0.349047 37.000000
1.992953 -0.042203 0.349047 37.000000
1.996764 -0.048414 0.349672 37.000000
1.997593 -0.054566 0.349828 37.000000
2.000378 -0.060785 0.350297 37.000000
2.002156 -0.066989 0.350610 37.000000
2.003916 -0.073203 0.350922 37.000000
2.003682 -0.079351 0.350922 37.000000
2.003429 -0.085498 0.350922 37.000000
2.003157 -0.091644 0.350922 37.000000
2.003853 -0.097837 0.351078 37.000000
2.005516 -0.104087 0.351391 37.000000
2.009132 -0.110457 0.352016 37.000000
2.012728 -0.116850 0.352641 37.000000
2.014332 -0.123146 0.352954 37.000000
2.015916 -0.129452 0.353266 37.000000
2.016495 -0.135703 0.353422 37.000000
2.020995 -0.142236 0.354204 37.000000
2.021534 -0.148508 0.354360 37.000000
2.021069 -0.154710 0.354360 37.000000
2.021570 -0.160988 0.354516 37.000000
2.022051 -0.167271 0.354672 37.000000
2.022512 -0.173558 0.354829 37.000000
2.023938 -0.179938 0.355141 37.000000
2.025343 -0.186328 0.355454 37.000000
2.026728 -0.192728 0.355766 37.000000
2.029077 -0.199235 0.356235 37.000000
2.030421 -0.205659 0.356548 37.000000
2.036657 -0.212606 0.357641 37.000000
2.038941 -0.219171 0.358110 37.000000
2.041204 -0.225751 0.358579 37.000000
2.043446 -0.232348 0.359048 37.000000
2.043705 -0.238731 0.359204 37.000000
2.048847 -0.245706 0.360142 37.000000
2.050044 -0.252233 0.360454 37.000000
2.052200 -0.258892 0.360923 37.000000
2.054335 -0.265568 0.361392 37.000000
2.055469 -0.272129 0.361704 37.000000
2.057561 -0.278832 0.362173 37.000000
2.057674 -0.285279 0.362329 37.000000
2.059723 -0.292007 0.362798 37.000000
2.059795 -0.298467 0.362954 37.000000
2.060823 -0.305074 0.363267 37.000000
2.063784 -0.311986 0.363892 37.000000
2.047199 -0.315904 0.361392 37.000000
2.045244 -0.322029 0.361235 37.000000
1.913270 0.301903 0.328097 38.000000
1.914188 0.296032 0.328097 38.000000
1.915087 0.290158 0.328097 38.000000
1.915968 0.284281 0.328097 38.000000
1.916831 0.278402 0.328097 38.000000
1.914740 0.272102 0.327647 38.000000
1.913607 0.265953 0.327346 38.000000
1.916373 0.260348 0.327647 38.000000
1.914223 0.254076 0.327196 38.000000
1.914994 0.248202 0.327196 38.000000
1.918689 0.242699 0.327647 38.000000
1.919424 0.236811 0.327647 38.000000
1.917197 0.230567 0.327196 38.000000
1.921823 0.225145 0.327797 38.000000
1.924469 0.219472 0.328097 38.000000
1.925133 0.213567 0.328097 38.000000
1.925780 0.207660 0.328097 38.000000
1.927391 0.201854 0.328248 38.000000
1.924067 0.195539 0.327647 38.000000
1.924658 0.189635 0.327647 38.000000
1.925230 0.183729 0.327647 38.000000
1.926769 0.177913 0.327797 38.000000
1.926322 0.171913 0.327647 38.000000
1.929795 0.166257 0.328097 38.000000
1.930296 0.160336 0.328097 38.000000
1.931764 0.154492 0.328248 38.000000
1.934200 0.148717 0.328548 38.000000
1.937606 0.143001 0.328999 38.000000
1.940007 0.137196 0.329299 38.000000
1.941406 0.131310 0.329450 38.000000
1.944759 0.125545 0.329900 38.000000
1.945135 0.119578 0.329900 38.000000
1.947467 0.113726 0.330201 38.000000
1.948794 0.107805 0.330351 38.000000
1.952077 0.101981 0.330802 38.000000
1.946456 0.095699 0.329900 38.000000
1.955629 0.090139 0.331252 38.000000
1.955896 0.084138 0.331252 38.000000
1.959109 0.078256 0.331703 38.000000
1.959339 0.072246 0.331703 38.000000
1.962516 0.066335 0.332154 38.000000
1.962710 0.060314 0.332154 38.000000
1.962886 0.054292 0.332154 38.000000
1.963044 0.048270 0.332154 38.000000
1.965159 0.042290 0.332454 38.000000
1.966268 0.036279 0.332604 38.000000
1.967359 0.030262 0.332754 38.000000
1.969419 0.024251 0.333055 38.000000
1.970473 0.018218 0.333205 38.000000
1.969531 0.012166 0.333055 38.000000
1.972525 0.006133 0.333506 38.000000
1.975501 0.000082 0.333956 38.000000
1.975492 -0.005978 0.333956 38.000000
1.975464 -0.012039 0.333956 38.000000
1.975418 -0.018100 0.333956 38.000000
1.977330 -0.024184 0.334257 38.000000
1.977247 -0.030250 0.334257 38.000000
1.981099 -0.036388 0.334858 38.000000
