# This PCD file was generated using the MATLAB® pcwrite function
# from Computer Vision Toolbox®.
# .PCD v.7 - Point Cloud Data file format
VERSION .7
FIELDS x y z intensity
SIZE 4 4 4 4
TYPE F F F F
COUNT 1 1 1 1
WIDTH 1255
HEIGHT 1
VIEWPOINT 0 0 0 1 0 0 0
POINTS 1255
DATA ascii
2.678429 -0.319487 0.543368 32.000000
2.680362 -0.328062 0.543926 32.000000
2.681293 -0.336530 0.544297 32.000000
2.678299 -0.344503 0.543926 32.000000
2.675281 -0.352460 0.543554 32.000000
2.675161 -0.360798 0.543740 32.000000
2.672095 -0.368734 0.543368 32.000000
2.668032 -0.376517 0.542811 32.000000
2.666865 -0.384701 0.542811 32.000000
2.662756 -0.392450 0.542253 32.000000
2.661539 -0.400617 0.542253 32.000000
2.660298 -0.408781 0.542253 32.000000
2.659031 -0.416940 0.542253 32.000000
2.655799 -0.424785 0.541882 32.000000
2.650604 -0.432297 0.541138 32.000000
2.651204 -0.440750 0.541510 32.000000
2.647902 -0.448552 0.541138 32.000000
2.643609 -0.456171 0.540581 32.000000
2.636391 -0.463257 0.539466 32.000000
2.611746 -0.467181 0.535006 32.000000
2.708577 -0.156911 0.530257 33.000000
2.704155 -0.164979 0.529536 33.000000
2.702655 -0.173212 0.529356 33.000000
2.701129 -0.181437 0.529176 33.000000
2.702522 -0.189861 0.529536 33.000000
2.701927 -0.198151 0.529536 33.000000
2.702287 -0.206515 0.529716 33.000000
2.703602 -0.214960 0.530077 33.000000
2.701950 -0.223173 0.529897 33.000000
2.699292 -0.231293 0.529536 33.000000
2.698570 -0.239573 0.529536 33.000000
2.701740 -0.248212 0.530257 33.000000
2.696070 -0.256034 0.529356 33.000000
2.695271 -0.264304 0.529356 33.000000
2.692491 -0.272373 0.528996 33.000000
2.691643 -0.280633 0.528996 33.000000
2.682945 -0.288048 0.527554 33.000000
2.684004 -0.296494 0.527915 33.000000
2.683082 -0.304727 0.527915 33.000000
2.680180 -0.312729 0.527554 33.000000
2.676278 -0.320599 0.527014 33.000000
2.677234 -0.329048 0.527374 33.000000
2.678164 -0.337507 0.527735 33.000000
2.675165 -0.345469 0.527374 33.000000
2.677018 -0.354062 0.527915 33.000000
2.674944 -0.362141 0.527735 33.000000
2.673821 -0.370346 0.527735 33.000000
2.670724 -0.378272 0.527374 33.000000
2.670525 -0.386605 0.527554 33.000000
2.668353 -0.394652 0.527374 33.000000
2.666157 -0.402689 0.527194 33.000000
2.665881 -0.411017 0.527374 33.000000
2.664608 -0.419194 0.527374 33.000000
2.659424 -0.426743 0.526653 33.000000
2.653249 -0.434105 0.525753 33.000000
2.652875 -0.442405 0.525933 33.000000
2.647626 -0.449882 0.525212 33.000000
2.643326 -0.457499 0.524672 33.000000
2.640941 -0.465436 0.524491 33.000000
2.640469 -0.473710 0.524672 33.000000
2.637068 -0.481455 0.524311 33.000000
2.637513 -0.489902 0.524672 33.000000
2.640830 -0.498906 0.525572 33.000000
2.639287 -0.507005 0.525572 33.000000
2.643511 -0.516232 0.526653 33.000000
2.582098 -0.512459 0.515483 33.000000
2.710976 -0.149601 0.513597 34.000000
2.702640 -0.157461 0.512203 34.000000
2.699195 -0.165571 0.511681 34.000000
2.697692 -0.173788 0.511507 34.000000
2.697146 -0.182064 0.511507 34.000000
2.696575 -0.190337 0.511507 34.000000
2.695978 -0.198610 0.511507 34.000000
2.695356 -0.206880 0.511507 34.000000
2.694709 -0.215148 0.511507 34.000000
2.695018 -0.223496 0.511681 34.000000
2.693338 -0.231678 0.511507 34.000000
2.689672 -0.239679 0.510984 34.000000
2.689905 -0.248020 0.511158 34.000000
2.686190 -0.255991 0.510636 34.000000
2.684412 -0.264135 0.510462 34.000000
2.681630 -0.272170 0.510113 34.000000
2.679803 -0.280294 0.509939 34.000000
2.677951 -0.288409 0.509765 34.000000
2.677054 -0.296623 0.509765 34.000000
2.677109 -0.304946 0.509939 34.000000
2.673227 -0.312815 0.509417 34.000000
2.672255 -0.321015 0.509417 34.000000
2.670280 -0.329092 0.509243 34.000000
2.670235 -0.337406 0.509417 34.000000
2.668211 -0.345470 0.509243 34.000000
2.668114 -0.353784 0.509417 34.000000
2.667017 -0.361968 0.509417 34.000000
2.665893 -0.370148 0.509417 34.000000
2.664745 -0.378325 0.509417 34.000000
2.665521 -0.386781 0.509765 34.000000
2.662374 -0.394669 0.509417 34.000000
2.661150 -0.402835 0.509417 34.000000
2.659902 -0.410997 0.509417 34.000000
2.658628 -0.419156 0.509417 34.000000
2.654413 -0.426842 0.508894 34.000000
2.650176 -0.434506 0.508372 34.000000
2.647859 -0.442472 0.508198 34.000000
2.640665 -0.449603 0.507153 34.000000
2.637332 -0.457366 0.506804 34.000000
2.635917 -0.465455 0.506804 34.000000
2.633507 -0.473366 0.506630 34.000000
2.633011 -0.481620 0.506804 34.000000
2.631521 -0.489696 0.506804 34.000000
2.633877 -0.498499 0.507501 34.000000
2.632335 -0.506577 0.507501 34.000000
2.632701 -0.515028 0.507849 34.000000
2.631109 -0.523103 0.507849 34.000000
2.629491 -0.531173 0.507849 34.000000
2.624955 -0.538644 0.507327 34.000000
2.621362 -0.546293 0.506979 34.000000
2.618711 -0.554129 0.506804 34.000000
2.605445 -0.559681 0.504714 34.000000
2.718194 -0.143002 0.497299 35.000000
2.712821 -0.151069 0.496459 35.000000
2.712344 -0.159391 0.496459 35.000000
2.706923 -0.167409 0.495619 35.000000
2.705413 -0.175650 0.495451 35.000000
2.702894 -0.183816 0.495115 35.000000
2.700351 -0.191969 0.494780 35.000000
2.697783 -0.200107 0.494444 35.000000
2.694207 -0.208157 0.493940 35.000000
2.694539 -0.216500 0.494108 35.000000
2.688950 -0.224358 0.493268 35.000000
2.686285 -0.232437 0.492932 35.000000
2.680649 -0.240240 0.492092 35.000000
2.676955 -0.248191 0.491588 35.000000
2.673237 -0.256122 0.491084 35.000000
2.669495 -0.264032 0.490580 35.000000
2.668673 -0.272221 0.490580 35.000000
2.666844 -0.280304 0.490412 35.000000
2.666952 -0.288590 0.490580 35.000000
2.668993 -0.297097 0.491084 35.000000
2.668069 -0.305284 0.491084 35.000000
2.667120 -0.313468 0.491084 35.000000
2.667125 -0.321767 0.491252 35.000000
2.665147 -0.329827 0.491084 35.000000
2.663144 -0.337879 0.490916 35.000000
2.660140 -0.345794 0.490580 35.000000
2.657112 -0.353695 0.490244 35.000000
2.654061 -0.361579 0.489908 35.000000
2.650986 -0.369449 0.489572 35.000000
2.648864 -0.377442 0.489404 35.000000
2.647694 -0.385567 0.489404 35.000000
2.647474 -0.393832 0.489572 35.000000
2.646253 -0.401953 0.489572 35.000000
2.645007 -0.410070 0.489572 35.000000
2.644710 -0.418336 0.489740 35.000000
2.642441 -0.426291 0.489572 35.000000
2.638203 -0.433918 0.489068 35.000000
2.636859 -0.442009 0.489068 35.000000
2.637434 -0.450428 0.489404 35.000000
2.634097 -0.458180 0.489068 35.000000
2.627825 -0.465402 0.488229 35.000000
2.629296 -0.473985 0.488733 35.000000
2.625890 -0.481695 0.488397 35.000000
2.624400 -0.489749 0.488397 35.000000
2.623853 -0.497981 0.488565 35.000000
2.622313 -0.506029 0.488565 35.000000
2.622683 -0.514450 0.488900 35.000000
2.622060 -0.522686 0.489068 35.000000
2.620444 -0.530728 0.489068 35.000000
2.618803 -0.538765 0.489068 35.000000
2.618103 -0.546998 0.489236 35.000000
2.617377 -0.555232 0.489404 35.000000
2.612770 -0.562638 0.488900 35.000000
2.609105 -0.570231 0.488565 35.000000
2.607343 -0.578233 0.488565 35.000000
2.602671 -0.585582 0.488061 35.000000
2.597979 -0.592907 0.487557 35.000000
2.601911 -0.602206 0.488565 35.000000
2.637484 -0.618953 0.495115 35.000000
2.589535 -0.616110 0.487053 35.000000
2.708179 -0.138855 0.479595 36.000000
2.707740 -0.147163 0.479595 36.000000
2.707276 -0.155470 0.479595 36.000000
2.703831 -0.163595 0.479108 36.000000
2.701347 -0.171763 0.478784 36.000000
2.702777 -0.180182 0.479108 36.000000
2.699258 -0.188266 0.478621 36.000000
2.693748 -0.196186 0.477810 36.000000
2.691165 -0.204299 0.477485 36.000000
2.693477 -0.212789 0.477972 36.000000
2.687894 -0.220646 0.477161 36.000000
2.682289 -0.228470 0.476349 36.000000
2.680593 -0.236611 0.476187 36.000000
2.673958 -0.244293 0.475213 36.000000
2.670249 -0.252215 0.474726 36.000000
2.668481 -0.260310 0.474564 36.000000
2.665706 -0.268297 0.474240 36.000000
2.662908 -0.276270 0.473915 36.000000
2.663028 -0.284543 0.474077 36.000000
2.663124 -0.292820 0.474240 36.000000
2.662213 -0.300989 0.474240 36.000000
2.662257 -0.309270 0.474402 36.000000
2.663255 -0.317671 0.474726 36.000000
2.659330 -0.325479 0.474240 36.000000
2.658319 -0.333636 0.474240 36.000000
2.656304 -0.341664 0.474077 36.000000
2.653287 -0.349553 0.473753 36.000000
2.649269 -0.357295 0.473266 36.000000
2.646205 -0.365150 0.472941 36.000000
2.644095 -0.373129 0.472779 36.000000
2.642938 -0.381239 0.472779 36.000000
2.641756 -0.389345 0.472779 36.000000
2.640549 -0.397448 0.472779 36.000000
2.639318 -0.405548 0.472779 36.000000
2.640985 -0.414103 0.473266 36.000000
2.641651 -0.422516 0.473590 36.000000
2.639368 -0.430459 0.473428 36.000000
2.640955 -0.439041 0.473915 36.000000
2.640569 -0.447307 0.474077 36.000000
2.635295 -0.454733 0.473428 36.000000
2.631944 -0.462473 0.473104 36.000000
2.630512 -0.470546 0.473104 36.000000
2.622262 -0.477374 0.471967 36.000000
2.623695 -0.485957 0.472454 36.000000
2.624131 -0.494370 0.472779 36.000000
2.622602 -0.502419 0.472779 36.000000
2.621048 -0.510462 0.472779 36.000000
2.622373 -0.519077 0.473266 36.000000
2.621736 -0.527315 0.473428 36.000000
2.621073 -0.535554 0.473590 36.000000
2.620383 -0.543794 0.473753 36.000000
2.618702 -0.551830 0.473753 36.000000
2.615067 -0.559448 0.473428 36.000000
2.612375 -0.567259 0.473266 36.000000
2.609658 -0.575058 0.473104 36.000000
2.604030 -0.582199 0.472454 36.000000
2.598383 -0.589310 0.471805 36.000000
2.596563 -0.597279 0.471805 36.000000
2.597601 -0.605916 0.472292 36.000000
2.592849 -0.613200 0.471805 36.000000
2.589996 -0.620922 0.471643 36.000000
2.591914 -0.629798 0.472292 36.000000
2.586138 -0.636802 0.471643 36.000000
2.573642 -0.642101 0.469858 36.000000
2.571660 -0.649994 0.469858 36.000000
2.699357 -0.131929 0.461243 37.000000
2.700913 -0.140313 0.461556 37.000000
2.698497 -0.148490 0.461243 37.000000
2.697043 -0.156710 0.461087 37.000000
2.696549 -0.164984 0.461087 37.000000
2.697016 -0.173320 0.461243 37.000000
2.697457 -0.181660 0.461399 37.000000
2.695902 -0.189865 0.461243 37.000000
2.695307 -0.198135 0.461243 37.000000
2.694686 -0.206403 0.461243 37.000000
2.693056 -0.214591 0.461087 37.000000
2.690416 -0.222689 0.460774 37.000000
2.686768 -0.230688 0.460306 37.000000
2.685064 -0.238842 0.460149 37.000000
2.682351 -0.246897 0.459837 37.000000
2.677648 -0.254751 0.459212 37.000000
2.671939 -0.262481 0.458430 37.000000
2.673086 -0.270876 0.458743 37.000000
2.667331 -0.278562 0.457962 37.000000
2.668428 -0.286956 0.458274 37.000000
2.666553 -0.295032 0.458118 37.000000
2.663673 -0.302988 0.457805 37.000000
2.662731 -0.311159 0.457805 37.000000
2.661764 -0.319326 0.457805 37.000000
2.658811 -0.327249 0.457493 37.000000
2.657794 -0.335405 0.457493 37.000000
2.655773 -0.343431 0.457337 37.000000
2.652749 -0.351317 0.457024 37.000000
2.649701 -0.359188 0.456712 37.000000
2.647608 -0.367180 0.456555 37.000000
2.644514 -0.375023 0.456243 37.000000
2.642373 -0.382993 0.456087 37.000000
2.642163 -0.391243 0.456243 37.000000
2.639973 -0.399199 0.456087 37.000000
2.640688 -0.407598 0.456399 37.000000
2.641377 -0.416006 0.456712 37.000000
2.642039 -0.424421 0.457024 37.000000
2.638775 -0.432205 0.456712 37.000000
2.639385 -0.440624 0.457024 37.000000
2.638020 -0.448720 0.457024 37.000000
2.636631 -0.456811 0.457024 37.000000
2.630354 -0.464039 0.456243 37.000000
2.630862 -0.472456 0.456555 37.000000
2.628429 -0.480347 0.456399 37.000000
2.625001 -0.488048 0.456087 37.000000
2.622520 -0.495915 0.455930 37.000000
2.620987 -0.503959 0.455930 37.000000
2.619428 -0.511997 0.455930 37.000000
2.619783 -0.520416 0.456243 37.000000
2.617206 -0.528256 0.456087 37.000000
2.616540 -0.536481 0.456243 37.000000
2.615849 -0.544708 0.456399 37.000000
2.615132 -0.552935 0.456555 37.000000
2.613423 -0.560955 0.456555 37.000000
2.609760 -0.568550 0.456243 37.000000
2.608968 -0.576767 0.456399 37.000000
2.604295 -0.584120 0.455930 37.000000
2.601527 -0.591888 0.455774 37.000000
2.599699 -0.599866 0.455774 37.000000
2.596885 -0.607614 0.455618 37.000000
2.592125 -0.614894 0.455149 37.000000
2.588306 -0.622381 0.454836 37.000000
2.587344 -0.630553 0.454993 37.000000
2.586356 -0.638725 0.455149 37.000000
2.584384 -0.646657 0.455149 37.000000
2.583346 -0.654825 0.455305 37.000000
2.583238 -0.663240 0.455618 37.000000
2.578323 -0.670416 0.455149 37.000000
2.577209 -0.678574 0.455305 37.000000
2.575115 -0.686478 0.455305 37.000000
2.533901 -0.683818 0.448898 37.000000
2.558469 -0.698880 0.453274 37.000000
2.678571 -0.123101 0.441217 38.000000
2.678180 -0.131318 0.441217 38.000000
2.683689 -0.139842 0.442119 38.000000
2.680286 -0.147912 0.441668 38.000000
2.680806 -0.156192 0.441818 38.000000
2.681301 -0.164476 0.441968 38.000000
2.681771 -0.172765 0.442119 38.000000
2.683201 -0.181124 0.442419 38.000000
2.683619 -0.189425 0.442569 38.000000
2.681053 -0.197512 0.442269 38.000000
2.681420 -0.205812 0.442419 38.000000
2.681762 -0.214116 0.442569 38.000000
2.679122 -0.222180 0.442269 38.000000
2.676457 -0.230229 0.441968 38.000000
2.676723 -0.238527 0.442119 38.000000
2.673025 -0.246466 0.441668 38.000000
2.671273 -0.254572 0.441518 38.000000
2.669495 -0.262669 0.441368 38.000000
2.668677 -0.270858 0.441368 38.000000
2.667833 -0.279044 0.441368 38.000000
2.665981 -0.287122 0.441217 38.000000
2.662140 -0.294973 0.440767 38.000000
2.658276 -0.302804 0.440316 38.000000
2.656352 -0.310843 0.440166 38.000000
2.653423 -0.318756 0.439865 38.000000
2.652432 -0.326895 0.439865 38.000000
2.651417 -0.335031 0.439865 38.000000
2.649396 -0.343037 0.439715 38.000000
2.648331 -0.351163 0.439715 38.000000
2.648221 -0.359420 0.439865 38.000000
2.646127 -0.367407 0.439715 38.000000
2.644987 -0.375523 0.439715 38.000000
2.640887 -0.383211 0.439264 38.000000
2.640677 -0.391456 0.439415 38.000000
2.638486 -0.399408 0.439264 38.000000
2.638226 -0.407651 0.439415 38.000000
2.636962 -0.415743 0.439415 38.000000
2.635674 -0.423831 0.439415 38.000000
2.632411 -0.431596 0.439114 38.000000
2.630099 -0.439507 0.438964 38.000000
2.627764 -0.447408 0.438814 38.000000
2.626379 -0.455468 0.438814 38.000000
2.623021 -0.463180 0.438513 38.000000
2.621588 -0.471225 0.438513 38.000000
2.618185 -0.478910 0.438213 38.000000
2.618647 -0.487302 0.438513 38.000000
2.617140 -0.495334 0.438513 38.000000
2.618521 -0.503921 0.438964 38.000000
2.617933 -0.512142 0.439114 38.000000
2.617319 -0.520364 0.439264 38.000000
2.613772 -0.528000 0.438964 38.000000
2.612140 -0.536016 0.438964 38.000000
2.609515 -0.543826 0.438814 38.000000
2.607834 -0.551829 0.438814 38.000000
2.605162 -0.559620 0.438663 38.000000
2.603433 -0.567610 0.438663 38.000000
2.601680 -0.575594 0.438663 38.000000
2.597972 -0.583141 0.438363 38.000000
2.594243 -0.590670 0.438063 38.000000
2.591455 -0.598404 0.437912 38.000000
2.590569 -0.606577 0.438063 38.000000
2.586772 -0.614065 0.437762 38.000000
2.582954 -0.621536 0.437462 38.000000
2.581035 -0.629457 0.437462 38.000000
2.579092 -0.637373 0.437462 38.000000
2.575206 -0.644803 0.437161 38.000000
2.575132 -0.653186 0.437462 38.000000
2.573116 -0.661083 0.437462 38.000000
2.572989 -0.669472 0.437762 38.000000
2.569968 -0.677111 0.437612 38.000000
2.569789 -0.685502 0.437912 38.000000
2.569582 -0.693898 0.438213 38.000000
2.569349 -0.702299 0.438513 38.000000
2.564323 -0.709388 0.438063 38.000000
2.571656 -0.719916 0.439565 38.000000
2.565630 -0.726725 0.438964 38.000000
2.564339 -0.734865 0.439114 38.000000
2.682183 -0.116380 0.425537 39.000000
2.684778 -0.124745 0.425970 39.000000
2.683395 -0.132933 0.425825 39.000000
2.683963 -0.141216 0.425970 39.000000
2.682529 -0.149395 0.425825 39.000000
2.682058 -0.157624 0.425825 39.000000
2.678598 -0.165670 0.425392 39.000000
2.681040 -0.174078 0.425825 39.000000
2.679506 -0.182236 0.425681 39.000000
2.679921 -0.190525 0.425825 39.000000
2.679324 -0.198746 0.425825 39.000000
2.678702 -0.206965 0.425825 39.000000
2.675095 -0.214946 0.425392 39.000000
2.675409 -0.223234 0.425537 39.000000
2.671754 -0.231186 0.425104 39.000000
2.670047 -0.239294 0.424959 39.000000
2.666344 -0.247212 0.424526 39.000000
2.668528 -0.255673 0.424959 39.000000
2.667731 -0.263859 0.424959 39.000000
2.668878 -0.272242 0.425248 39.000000
2.667046 -0.280326 0.425104 39.000000
2.665190 -0.288401 0.424959 39.000000
2.663309 -0.296467 0.424815 39.000000
2.660421 -0.304412 0.424526 39.000000
2.658491 -0.312458 0.424382 39.000000
2.655555 -0.320376 0.424093 39.000000
2.651614 -0.328159 0.423660 39.000000
2.649613 -0.336168 0.423516 39.000000
2.646606 -0.344041 0.423227 39.000000
2.646519 -0.352289 0.423371 39.000000
2.644445 -0.360274 0.423227 39.000000
2.642348 -0.368249 0.423083 39.000000
2.641205 -0.376354 0.423083 39.000000
2.636121 -0.383886 0.422505 39.000000
2.633952 -0.391827 0.422361 39.000000
2.630781 -0.399610 0.422072 39.000000
2.630521 -0.407830 0.422216 39.000000
2.627302 -0.415590 0.421928 39.000000
2.626015 -0.423649 0.421928 39.000000
2.623726 -0.431543 0.421783 39.000000
2.623366 -0.439754 0.421928 39.000000
2.619078 -0.447301 0.421495 39.000000
2.619643 -0.455673 0.421783 39.000000
2.617258 -0.463535 0.421639 39.000000
2.615824 -0.471563 0.421639 39.000000
2.613392 -0.479408 0.421495 39.000000
2.614827 -0.487967 0.421928 39.000000
2.612345 -0.495802 0.421783 39.000000
2.611784 -0.504002 0.421928 39.000000
2.610225 -0.512012 0.421928 39.000000
2.608642 -0.520018 0.421928 39.000000
2.605094 -0.527627 0.421639 39.000000
2.603463 -0.535616 0.421639 39.000000
2.602777 -0.543803 0.421783 39.000000
2.602064 -0.551991 0.421928 39.000000
2.599391 -0.559763 0.421783 39.000000
2.596694 -0.567525 0.421639 39.000000
2.595907 -0.575702 0.421783 39.000000
2.593163 -0.583447 0.421639 39.000000
2.590396 -0.591180 0.421495 39.000000
2.588571 -0.599125 0.421495 39.000000
2.587684 -0.607289 0.421639 39.000000
2.584846 -0.614996 0.421495 39.000000
2.580060 -0.622229 0.421062 39.000000
2.580062 -0.630611 0.421350 39.000000
2.579076 -0.638761 0.421495 39.000000
2.575184 -0.646189 0.421206 39.000000
2.572231 -0.653844 0.421062 39.000000
2.570212 -0.661732 0.421062 39.000000
2.571043 -0.670362 0.421495 39.000000
2.568017 -0.677994 0.421350 39.000000
2.566881 -0.686125 0.421495 39.000000
2.568585 -0.695029 0.422072 39.000000
2.568350 -0.703428 0.422361 39.000000
2.566180 -0.711304 0.422361 39.000000
2.563986 -0.719174 0.422361 39.000000
2.616986 -0.742682 0.430734 39.000000
2.689526 -0.113550 0.410385 40.000000
2.689165 -0.121801 0.410385 40.000000
2.691746 -0.130195 0.410800 40.000000
2.688367 -0.138299 0.410385 40.000000
2.684964 -0.146383 0.409969 40.000000
2.681536 -0.154447 0.409554 40.000000
2.681049 -0.162673 0.409554 40.000000
2.682514 -0.171025 0.409831 40.000000
2.680001 -0.179121 0.409554 40.000000
2.679439 -0.187342 0.409554 40.000000
2.677864 -0.195489 0.409415 40.000000
2.678239 -0.203779 0.409554 40.000000
2.675626 -0.211838 0.409277 40.000000
2.676938 -0.220209 0.409554 40.000000
2.673290 -0.228167 0.409138 40.000000
2.673563 -0.236455 0.409277 40.000000
2.669867 -0.244384 0.408861 40.000000
2.670090 -0.252668 0.409000 40.000000
2.669302 -0.260858 0.409000 40.000000
2.670460 -0.269246 0.409277 40.000000
2.668637 -0.277335 0.409138 40.000000
2.665804 -0.285309 0.408861 40.000000
2.663932 -0.293377 0.408723 40.000000
2.659083 -0.301101 0.408169 40.000000
2.656179 -0.309028 0.407892 40.000000
2.652269 -0.316822 0.407476 40.000000
2.648335 -0.324595 0.407061 40.000000
2.644379 -0.332347 0.406646 40.000000
2.643347 -0.340458 0.406646 40.000000
2.641309 -0.348436 0.406507 40.000000
2.639246 -0.356405 0.406369 40.000000
2.637159 -0.364364 0.406230 40.000000
2.636029 -0.372453 0.406230 40.000000
2.631933 -0.380113 0.405815 40.000000
2.628795 -0.387896 0.405538 40.000000
2.626614 -0.395811 0.405399 40.000000
2.625387 -0.403867 0.405399 40.000000
2.624135 -0.411920 0.405399 40.000000
2.620904 -0.419655 0.405122 40.000000
2.621559 -0.428014 0.405399 40.000000
2.620233 -0.436054 0.405399 40.000000
2.618883 -0.444091 0.405399 40.000000
2.617508 -0.452124 0.405399 40.000000
2.620010 -0.460840 0.405953 40.000000
2.617609 -0.468701 0.405815 40.000000
2.615185 -0.476551 0.405676 40.000000
2.616631 -0.485115 0.406092 40.000000
2.616104 -0.493325 0.406230 40.000000
2.614578 -0.501348 0.406230 40.000000
2.613028 -0.509367 0.406230 40.000000
2.610481 -0.517189 0.406092 40.000000
2.606941 -0.524803 0.405815 40.000000
2.605318 -0.532799 0.405815 40.000000
2.603671 -0.540789 0.405815 40.000000
2.603938 -0.549184 0.406092 40.000000
2.601273 -0.556963 0.405953 40.000000
2.598584 -0.564730 0.405815 40.000000
2.596839 -0.572700 0.405815 40.000000
2.595070 -0.580664 0.405815 40.000000
2.593276 -0.588623 0.405815 40.000000
2.589528 -0.596131 0.405538 40.000000
2.587687 -0.604073 0.405538 40.000000
2.583894 -0.611552 0.405261 40.000000
2.581043 -0.619245 0.405122 40.000000
2.580093 -0.627395 0.405261 40.000000
2.578156 -0.635307 0.405261 40.000000
2.574273 -0.642733 0.404984 40.000000
2.572289 -0.650628 0.404984 40.000000
2.570281 -0.658517 0.404984 40.000000
2.569207 -0.666648 0.405122 40.000000
2.568108 -0.674780 0.405261 40.000000
2.566983 -0.682910 0.405399 40.000000
2.564875 -0.690782 0.405399 40.000000
2.563699 -0.698909 0.405538 40.000000
2.563452 -0.707299 0.405815 40.000000
2.549825 -0.711959 0.404153 40.000000
2.581934 -0.729487 0.409138 40.000000
2.695088 -0.105929 0.394427 41.000000
2.694751 -0.114197 0.394427 41.000000
2.693398 -0.122419 0.394295 41.000000
2.693009 -0.130681 0.394295 41.000000
2.690616 -0.138840 0.394030 41.000000
2.687208 -0.146931 0.393633 41.000000
2.684766 -0.155060 0.393368 41.000000
2.683288 -0.163236 0.393235 41.000000
2.682775 -0.171468 0.393235 41.000000
2.681247 -0.179631 0.393103 41.000000
2.680683 -0.187856 0.393103 41.000000
2.678117 -0.195934 0.392838 41.000000
2.677503 -0.204150 0.392838 41.000000
2.679829 -0.212599 0.393235 41.000000
2.679164 -0.220820 0.393235 41.000000
2.675511 -0.228784 0.392838 41.000000
2.675784 -0.237079 0.392970 41.000000
2.672083 -0.245015 0.392573 41.000000
2.673292 -0.253399 0.392838 41.000000
2.671516 -0.261503 0.392706 41.000000
2.673659 -0.269997 0.393103 41.000000
2.668875 -0.277788 0.392573 41.000000
2.668010 -0.285974 0.392573 41.000000
2.666135 -0.294049 0.392441 41.000000
2.663251 -0.302004 0.392176 41.000000
2.660342 -0.309944 0.391911 41.000000
2.654458 -0.317515 0.391249 41.000000
2.649536 -0.325173 0.390719 41.000000
2.645576 -0.332929 0.390322 41.000000
2.642576 -0.340790 0.390057 41.000000
2.639553 -0.348636 0.389792 41.000000
2.638471 -0.356732 0.389792 41.000000
2.636382 -0.364689 0.389660 41.000000
2.635251 -0.372776 0.389660 41.000000
2.633114 -0.380717 0.389527 41.000000
2.629972 -0.388503 0.389262 41.000000
2.628768 -0.396570 0.389262 41.000000
2.626559 -0.404482 0.389130 41.000000
2.623348 -0.412231 0.388865 41.000000
2.623049 -0.420434 0.388998 41.000000
2.622725 -0.428639 0.389130 41.000000
2.624331 -0.437173 0.389527 41.000000
2.622978 -0.445222 0.389527 41.000000
2.623553 -0.453605 0.389792 41.000000
2.624101 -0.461996 0.390057 41.000000
2.622671 -0.470044 0.390057 41.000000
2.622192 -0.478267 0.390189 41.000000
2.619738 -0.486128 0.390057 41.000000
2.618234 -0.494163 0.390057 41.000000
2.615732 -0.502006 0.389925 41.000000
2.614180 -0.510029 0.389925 41.000000
2.610658 -0.517661 0.389660 41.000000
2.607115 -0.525276 0.389395 41.000000
2.606462 -0.533471 0.389527 41.000000
2.603842 -0.541263 0.389395 41.000000
2.603139 -0.549454 0.389527 41.000000
2.602411 -0.557645 0.389660 41.000000
2.600688 -0.565627 0.389660 41.000000
2.598940 -0.573603 0.389660 41.000000
2.599102 -0.582007 0.389925 41.000000
2.596338 -0.589759 0.389792 41.000000
2.593551 -0.597499 0.389660 41.000000
2.590740 -0.605227 0.389527 41.000000
2.588871 -0.613173 0.389527 41.000000
2.583123 -0.620186 0.388998 41.000000
2.583134 -0.628577 0.389262 41.000000
2.582156 -0.636737 0.389395 41.000000
2.579228 -0.644415 0.389262 41.000000
2.578200 -0.652568 0.389395 41.000000
2.575226 -0.660229 0.389262 41.000000
2.574147 -0.668376 0.389395 41.000000
2.571126 -0.676018 0.389262 41.000000
2.569040 -0.683903 0.389262 41.000000
2.566930 -0.691781 0.389262 41.000000
2.563839 -0.699392 0.389130 41.000000
2.556905 -0.705935 0.388468 41.000000
2.589092 -0.723383 0.393235 41.000000
2.685515 -0.099127 0.376991 42.000000
2.685199 -0.107365 0.376991 42.000000
2.684857 -0.115603 0.376991 42.000000
2.684489 -0.123839 0.376991 42.000000
2.684097 -0.132075 0.376991 42.000000
2.683679 -0.140309 0.376991 42.000000
2.680264 -0.148377 0.376611 42.000000
2.676826 -0.156426 0.376232 42.000000
2.675343 -0.164577 0.376105 42.000000
2.672846 -0.172657 0.375852 42.000000
2.671314 -0.180789 0.375725 42.000000
2.670747 -0.188984 0.375725 42.000000
2.668176 -0.197031 0.375472 42.000000
2.668548 -0.205292 0.375599 42.000000
2.669883 -0.213636 0.375852 42.000000
2.669215 -0.221826 0.375852 42.000000
2.667534 -0.229929 0.375725 42.000000
2.664840 -0.237935 0.375472 42.000000
2.664097 -0.246110 0.375472 42.000000
2.660367 -0.254000 0.375093 42.000000
2.659575 -0.262160 0.375093 42.000000
2.658758 -0.270319 0.375093 42.000000
2.657917 -0.278474 0.375093 42.000000
2.656063 -0.286521 0.374966 42.000000
2.654186 -0.294559 0.374840 42.000000
2.654255 -0.302813 0.374966 42.000000
2.651343 -0.310724 0.374713 42.000000
2.647423 -0.318502 0.374333 42.000000
2.643480 -0.326258 0.373954 42.000000
2.640498 -0.334118 0.373701 42.000000
2.638477 -0.342090 0.373574 42.000000
2.634465 -0.349792 0.373195 42.000000
2.633379 -0.357873 0.373195 42.000000
2.632269 -0.365950 0.373195 42.000000
2.630152 -0.373885 0.373068 42.000000
2.627029 -0.381667 0.372815 42.000000
2.627808 -0.390016 0.373068 42.000000
2.624638 -0.397779 0.372815 42.000000
2.623405 -0.405830 0.372815 42.000000
2.622148 -0.413876 0.372815 42.000000
2.622824 -0.422234 0.373068 42.000000
2.622495 -0.430439 0.373195 42.000000
2.621162 -0.438483 0.373195 42.000000
2.622739 -0.447022 0.373574 42.000000
2.623310 -0.455405 0.373827 42.000000
2.621900 -0.463451 0.373827 42.000000
2.619489 -0.471317 0.373701 42.000000
2.618031 -0.479352 0.373701 42.000000
2.613623 -0.486837 0.373321 42.000000
2.609193 -0.494300 0.372941 42.000000
2.608638 -0.502490 0.373068 42.000000
2.605137 -0.510110 0.372815 42.000000
2.601614 -0.517713 0.372562 42.000000
2.598069 -0.525299 0.372309 42.000000
2.595473 -0.533068 0.372182 42.000000
2.593826 -0.541028 0.372182 42.000000
2.593124 -0.549189 0.372309 42.000000
2.592397 -0.557350 0.372435 42.000000
2.590675 -0.565301 0.372435 42.000000
2.589897 -0.573461 0.372562 42.000000
2.590061 -0.581838 0.372815 42.000000
2.588264 -0.589782 0.372815 42.000000
2.587409 -0.597943 0.372941 42.000000
2.586528 -0.606104 0.373068 42.000000
2.584656 -0.614037 0.373068 42.000000
2.582760 -0.621963 0.373068 42.000000
2.581804 -0.630119 0.373195 42.000000
2.579858 -0.638037 0.373195 42.000000
2.575964 -0.645467 0.372941 42.000000
2.573972 -0.653367 0.372941 42.000000
2.570994 -0.661014 0.372815 42.000000
2.568954 -0.668899 0.372815 42.000000
2.564972 -0.676271 0.372562 42.000000
2.562885 -0.684137 0.372562 42.000000
2.559816 -0.691738 0.372435 42.000000
2.555768 -0.699065 0.372182 42.000000
2.558392 -0.708226 0.372815 42.000000
2.679961 -0.091116 0.358771 43.000000
2.683637 -0.099483 0.359251 43.000000
2.681335 -0.107637 0.359011 43.000000
2.681984 -0.115905 0.359131 43.000000
2.681616 -0.124133 0.359131 43.000000
2.680231 -0.132311 0.359011 43.000000
2.679812 -0.140533 0.359011 43.000000
2.676395 -0.148590 0.358651 43.000000
2.673944 -0.156685 0.358410 43.000000
2.672460 -0.164828 0.358290 43.000000
2.669960 -0.172898 0.358050 43.000000
2.668427 -0.181022 0.357930 43.000000
2.666869 -0.189138 0.357810 43.000000
2.664296 -0.197173 0.357569 43.000000
2.661699 -0.205195 0.357329 43.000000
2.662046 -0.213438 0.357449 43.000000
2.659400 -0.221441 0.357209 43.000000
2.658708 -0.229599 0.357209 43.000000
2.656013 -0.237578 0.356969 43.000000
2.652306 -0.245452 0.356608 43.000000
2.651541 -0.253588 0.356608 43.000000
2.649762 -0.261625 0.356488 43.000000
2.648947 -0.269753 0.356488 43.000000
2.648107 -0.277879 0.356488 43.000000
2.647242 -0.286002 0.356488 43.000000
2.646352 -0.294122 0.356488 43.000000
2.645437 -0.302239 0.356488 43.000000
2.644498 -0.310354 0.356488 43.000000
2.644519 -0.318584 0.356608 43.000000
2.642544 -0.326575 0.356488 43.000000
2.640544 -0.334556 0.356368 43.000000
2.638521 -0.342528 0.356248 43.000000
2.634505 -0.350230 0.355887 43.000000
2.632435 -0.358178 0.355767 43.000000
2.631323 -0.366252 0.355767 43.000000
2.627239 -0.373905 0.355407 43.000000
2.623132 -0.381536 0.355046 43.000000
2.622931 -0.389727 0.355167 43.000000
2.623686 -0.398069 0.355407 43.000000
2.620490 -0.405814 0.355167 43.000000
2.619233 -0.413852 0.355167 43.000000
2.620891 -0.422358 0.355527 43.000000
2.619583 -0.430397 0.355527 43.000000
2.619230 -0.438595 0.355647 43.000000
2.618850 -0.446795 0.355767 43.000000
2.616489 -0.454658 0.355647 43.000000
2.615082 -0.462683 0.355647 43.000000
2.611696 -0.470353 0.355407 43.000000
2.609264 -0.478185 0.355287 43.000000
2.603881 -0.485461 0.354806 43.000000
2.601403 -0.493263 0.354686 43.000000
2.598903 -0.501054 0.354566 43.000000
2.597354 -0.509025 0.354566 43.000000
2.593832 -0.516605 0.354326 43.000000
2.592235 -0.524560 0.354326 43.000000
2.589641 -0.532311 0.354206 43.000000
2.586052 -0.539848 0.353965 43.000000
2.587297 -0.548396 0.354326 43.000000
2.585603 -0.556331 0.354326 43.000000
2.583884 -0.564261 0.354326 43.000000
2.583110 -0.572400 0.354446 43.000000
2.583279 -0.580757 0.354686 43.000000
2.581485 -0.588679 0.354686 43.000000
2.582569 -0.597266 0.355046 43.000000
2.581691 -0.605413 0.355167 43.000000
2.580787 -0.613560 0.355287 43.000000
2.579858 -0.621707 0.355407 43.000000
2.578903 -0.629854 0.355527 43.000000
2.578886 -0.638239 0.355767 43.000000
2.575953 -0.645907 0.355647 43.000000
2.573959 -0.653807 0.355647 43.000000
2.570018 -0.661207 0.355407 43.000000
2.567977 -0.669088 0.355407 43.000000
2.564953 -0.676711 0.355287 43.000000
2.561905 -0.684321 0.355167 43.000000
2.558835 -0.691919 0.355046 43.000000
2.510733 -0.687206 0.349280 43.000000
2.689737 -0.089234 0.344794 44.000000
2.689451 -0.097486 0.344794 44.000000
2.688146 -0.105697 0.344680 44.000000
2.683840 -0.113774 0.344221 44.000000
2.682486 -0.121962 0.344107 44.000000
2.684083 -0.130288 0.344336 44.000000
2.677718 -0.138212 0.343648 44.000000
2.676290 -0.146372 0.343534 44.000000
2.672853 -0.154409 0.343190 44.000000
2.671375 -0.162548 0.343075 44.000000
2.667890 -0.170551 0.342732 44.000000
2.667354 -0.178735 0.342732 44.000000
2.666793 -0.186918 0.342732 44.000000
2.663235 -0.194880 0.342388 44.000000
2.662624 -0.203049 0.342388 44.000000
2.661989 -0.211217 0.342388 44.000000
2.662318 -0.219465 0.342502 44.000000
2.660643 -0.227547 0.342388 44.000000
2.656964 -0.235444 0.342044 44.000000
2.656229 -0.243595 0.342044 44.000000
2.652502 -0.251460 0.341700 44.000000
2.650730 -0.259499 0.341586 44.000000
2.647944 -0.267430 0.341356 44.000000
2.644147 -0.275243 0.341013 44.000000
2.641315 -0.283141 0.340783 44.000000
2.641421 -0.291352 0.340898 44.000000
2.638541 -0.299230 0.340669 44.000000
2.637610 -0.307323 0.340669 44.000000
2.639614 -0.315769 0.341013 44.000000
2.637647 -0.323745 0.340898 44.000000
2.635656 -0.331711 0.340783 44.000000
2.633641 -0.339668 0.340669 44.000000
2.633571 -0.347877 0.340783 44.000000
2.631507 -0.355821 0.340669 44.000000
2.627451 -0.363483 0.340325 44.000000
2.626323 -0.371542 0.340325 44.000000
2.622222 -0.379170 0.339981 44.000000
2.621046 -0.387213 0.339981 44.000000
2.619846 -0.395253 0.339981 44.000000
2.617639 -0.403137 0.339867 44.000000
2.614427 -0.410856 0.339638 44.000000
2.614136 -0.419033 0.339752 44.000000
2.612838 -0.427051 0.339752 44.000000
2.610535 -0.434902 0.339638 44.000000
2.609189 -0.442909 0.339638 44.000000
2.609775 -0.451251 0.339867 44.000000
2.608378 -0.459255 0.339867 44.000000
2.603046 -0.466553 0.339408 44.000000
2.600626 -0.474358 0.339294 44.000000
2.599158 -0.482334 0.339294 44.000000
2.595714 -0.489937 0.339065 44.000000
2.594198 -0.497898 0.339065 44.000000
2.593634 -0.506045 0.339179 44.000000
2.593043 -0.514194 0.339294 44.000000
2.591454 -0.522147 0.339294 44.000000
2.590812 -0.530294 0.339408 44.000000
2.591118 -0.538645 0.339638 44.000000
2.590425 -0.546798 0.339752 44.000000
2.587765 -0.554534 0.339638 44.000000
2.587022 -0.562682 0.339752 44.000000
2.585283 -0.570616 0.339752 44.000000
2.584490 -0.578763 0.339867 44.000000
2.582702 -0.586689 0.339867 44.000000
2.579922 -0.594387 0.339752 44.000000
2.578086 -0.602299 0.339752 44.000000
2.578159 -0.610664 0.339981 44.000000
2.576274 -0.618571 0.339981 44.000000
2.574364 -0.626472 0.339981 44.000000
2.573394 -0.634605 0.340096 44.000000
2.573363 -0.642980 0.340325 44.000000
2.571378 -0.650872 0.340325 44.000000
2.569369 -0.658758 0.340325 44.000000
2.567336 -0.666637 0.340325 44.000000
2.563357 -0.674005 0.340096 44.000000
2.560318 -0.681610 0.339981 44.000000
2.555337 -0.688685 0.339638 44.000000
2.481341 -0.676881 0.331043 44.000000
2.697885 -0.081178 0.328628 45.000000
2.695636 -0.089388 0.328411 45.000000
2.694355 -0.097622 0.328303 45.000000
2.694043 -0.105888 0.328303 45.000000
2.691719 -0.114068 0.328086 45.000000
2.691357 -0.122326 0.328086 45.000000
2.686004 -0.130340 0.327544 45.000000
2.683606 -0.138477 0.327328 45.000000
2.681183 -0.146601 0.327111 45.000000
2.677744 -0.154654 0.326786 45.000000
2.676264 -0.162808 0.326678 45.000000
2.672776 -0.170827 0.326353 45.000000
2.670255 -0.178893 0.326136 45.000000
2.668702 -0.187015 0.326028 45.000000
2.666133 -0.195056 0.325811 45.000000
2.663540 -0.203083 0.325594 45.000000
2.665877 -0.211490 0.325919 45.000000
2.664225 -0.219586 0.325811 45.000000
2.663539 -0.227759 0.325811 45.000000
2.663818 -0.236017 0.325919 45.000000
2.661101 -0.244007 0.325703 45.000000
2.658361 -0.251982 0.325486 45.000000
2.654607 -0.259846 0.325161 45.000000
2.651819 -0.267788 0.324944 45.000000
2.648019 -0.275614 0.324619 45.000000
2.644196 -0.283418 0.324294 45.000000
2.644302 -0.291638 0.324402 45.000000
2.642407 -0.299637 0.324294 45.000000
2.642462 -0.307858 0.324402 45.000000
2.642493 -0.316082 0.324511 45.000000
2.640524 -0.324066 0.324402 45.000000
2.636558 -0.331793 0.324077 45.000000
2.636514 -0.340007 0.324186 45.000000
2.634473 -0.347964 0.324077 45.000000
2.630437 -0.355645 0.323752 45.000000
2.628349 -0.363577 0.323644 45.000000
2.625253 -0.371360 0.323427 45.000000
2.622133 -0.379128 0.323211 45.000000
2.619974 -0.387025 0.323102 45.000000
2.620741 -0.395358 0.323319 45.000000
2.617550 -0.403094 0.323102 45.000000
2.615319 -0.410968 0.322994 45.000000
2.614046 -0.418990 0.322994 45.000000
2.613729 -0.427168 0.323102 45.000000
2.609465 -0.434694 0.322777 45.000000
2.612039 -0.443364 0.323211 45.000000
2.609687 -0.451206 0.323102 45.000000
2.609270 -0.459383 0.323211 45.000000
2.606870 -0.467210 0.323102 45.000000
2.604446 -0.475027 0.322994 45.000000
2.602976 -0.483015 0.322994 45.000000
2.600506 -0.490814 0.322886 45.000000
2.598987 -0.498790 0.322886 45.000000
2.599396 -0.507142 0.323102 45.000000
2.597828 -0.515115 0.323102 45.000000
2.599159 -0.523672 0.323427 45.000000
2.598514 -0.531843 0.323536 45.000000
2.598817 -0.540218 0.323752 45.000000
2.599092 -0.548599 0.323969 45.000000
2.595453 -0.556153 0.323752 45.000000
2.593735 -0.564114 0.323752 45.000000
2.591021 -0.571854 0.323644 45.000000
2.588284 -0.579583 0.323536 45.000000
2.585525 -0.587301 0.323427 45.000000
2.579836 -0.594337 0.322994 45.000000
2.578969 -0.602475 0.323102 45.000000
2.577108 -0.610385 0.323102 45.000000
2.575223 -0.618288 0.323102 45.000000
2.576212 -0.626892 0.323427 45.000000
2.575242 -0.635031 0.323536 45.000000
2.575210 -0.643410 0.323752 45.000000
2.572260 -0.651064 0.323644 45.000000
2.572177 -0.659447 0.323861 45.000000
2.569179 -0.667085 0.323752 45.000000
2.568082 -0.675217 0.323861 45.000000
2.562156 -0.682069 0.323427 45.000000
2.499582 -0.673621 0.316601 45.000000
2.687874 -0.074449 0.311004 46.000000
2.690616 -0.082786 0.311311 46.000000
2.690349 -0.091040 0.311311 46.000000
2.687075 -0.099184 0.311004 46.000000
2.687752 -0.107467 0.311106 46.000000
2.685422 -0.115627 0.310902 46.000000
2.683067 -0.123774 0.310697 46.000000
2.681681 -0.131956 0.310595 46.000000
2.679277 -0.140079 0.310390 46.000000
2.673868 -0.148024 0.309879 46.000000
2.671416 -0.156111 0.309674 46.000000
2.670924 -0.164306 0.309674 46.000000
2.667429 -0.172308 0.309368 46.000000
2.664903 -0.180356 0.309163 46.000000
2.664337 -0.188531 0.309163 46.000000
2.661762 -0.196558 0.308958 46.000000
2.661147 -0.204723 0.308958 46.000000
2.663481 -0.213124 0.309265 46.000000
2.662814 -0.221295 0.309265 46.000000
2.660141 -0.229293 0.309061 46.000000
2.659425 -0.237453 0.309061 46.000000
2.658684 -0.245611 0.309061 46.000000
2.655937 -0.253577 0.308856 46.000000
2.653167 -0.261530 0.308652 46.000000
2.650373 -0.269467 0.308447 46.000000
2.646565 -0.277287 0.308140 46.000000
2.643724 -0.285192 0.307936 46.000000
2.642837 -0.293301 0.307936 46.000000
2.641925 -0.301408 0.307936 46.000000
2.639011 -0.309281 0.307731 46.000000
2.639038 -0.317494 0.307833 46.000000
2.636077 -0.325346 0.307629 46.000000
2.632105 -0.333057 0.307322 46.000000
2.630085 -0.341003 0.307220 46.000000
2.628040 -0.348940 0.307118 46.000000
2.625971 -0.356867 0.307015 46.000000
2.623879 -0.364785 0.306913 46.000000
2.620778 -0.372553 0.306708 46.000000
2.620607 -0.380735 0.306811 46.000000
2.619426 -0.388773 0.306811 46.000000
2.619205 -0.396957 0.306913 46.000000
2.617975 -0.404990 0.306913 46.000000
2.616720 -0.413020 0.306913 46.000000
2.613476 -0.420730 0.306708 46.000000
2.612173 -0.428746 0.306708 46.000000
2.610845 -0.436758 0.306708 46.000000
2.609493 -0.444766 0.306708 46.000000
2.608116 -0.452770 0.306708 46.000000
2.606715 -0.460769 0.306708 46.000000
2.603331 -0.468413 0.306504 46.000000
2.600903 -0.476218 0.306402 46.000000
2.600408 -0.484378 0.306504 46.000000
2.598910 -0.492353 0.306504 46.000000
2.598364 -0.500512 0.306606 46.000000
2.597792 -0.508673 0.306708 46.000000
2.597195 -0.516834 0.306811 46.000000
2.594622 -0.524603 0.306708 46.000000
2.592026 -0.532360 0.306606 46.000000
2.597197 -0.541731 0.307322 46.000000
2.594550 -0.549491 0.307220 46.000000
2.590907 -0.557030 0.307015 46.000000
2.588214 -0.564764 0.306913 46.000000
2.586469 -0.572702 0.306913 46.000000
2.582758 -0.580199 0.306708 46.000000
2.579996 -0.587899 0.306606 46.000000
2.576242 -0.595364 0.306402 46.000000
2.574403 -0.603265 0.306402 46.000000
2.572541 -0.611160 0.306402 46.000000
2.569686 -0.618817 0.306299 46.000000
2.570675 -0.627405 0.306606 46.000000
2.569704 -0.635527 0.306708 46.000000
2.568707 -0.643650 0.306811 46.000000
2.566720 -0.651527 0.306811 46.000000
2.565672 -0.659647 0.306913 46.000000
2.563637 -0.667515 0.306913 46.000000
2.565424 -0.676391 0.307322 46.000000
2.565259 -0.684771 0.307527 46.000000
2.688708 -0.067109 0.294107 47.000000
2.687495 -0.075330 0.294011 47.000000
2.689241 -0.083636 0.294203 47.000000
2.688972 -0.091886 0.294203 47.000000
2.689672 -0.100172 0.294299 47.000000
2.688357 -0.108383 0.294203 47.000000
2.688012 -0.116631 0.294203 47.000000
2.684659 -0.124739 0.293915 47.000000
2.683269 -0.132926 0.293819 47.000000
2.679867 -0.141002 0.293531 47.000000
2.677434 -0.149114 0.293339 47.000000
2.673982 -0.157153 0.293051 47.000000
2.670507 -0.165173 0.292763 47.000000
2.667008 -0.173173 0.292475 47.000000
2.666464 -0.181355 0.292475 47.000000
2.665895 -0.189534 0.292475 47.000000
2.664309 -0.197639 0.292379 47.000000
2.662697 -0.205736 0.292283 47.000000
2.664038 -0.214062 0.292475 47.000000
2.662377 -0.222152 0.292379 47.000000
2.659699 -0.230149 0.292187 47.000000
2.656998 -0.238130 0.291995 47.000000
2.655263 -0.246189 0.291899 47.000000
2.652514 -0.254146 0.291706 47.000000
2.649740 -0.262087 0.291514 47.000000
2.647934 -0.270114 0.291418 47.000000
2.647093 -0.278237 0.291418 47.000000
2.643257 -0.286037 0.291130 47.000000
2.642367 -0.294145 0.291130 47.000000
2.642442 -0.302363 0.291226 47.000000
2.639524 -0.310237 0.291034 47.000000
2.638560 -0.318333 0.291034 47.000000
2.634607 -0.326061 0.290746 47.000000
2.633595 -0.334143 0.290746 47.000000
2.629596 -0.341837 0.290458 47.000000
2.629521 -0.350034 0.290554 47.000000
2.629421 -0.358234 0.290650 47.000000
2.626338 -0.366025 0.290458 47.000000
2.623232 -0.373801 0.290266 47.000000
2.624043 -0.382133 0.290458 47.000000
2.621873 -0.390036 0.290362 47.000000
2.619680 -0.397928 0.290266 47.000000
2.620414 -0.406268 0.290458 47.000000
2.617189 -0.413995 0.290266 47.000000
2.612959 -0.421548 0.289978 47.000000
2.611653 -0.429563 0.289978 47.000000
2.612286 -0.437901 0.290170 47.000000
2.609949 -0.445747 0.290074 47.000000
2.607589 -0.453581 0.289978 47.000000
2.606185 -0.461579 0.289978 47.000000
2.604757 -0.469573 0.289978 47.000000
2.602325 -0.477383 0.289882 47.000000
2.601826 -0.485546 0.289978 47.000000
2.602281 -0.493897 0.290170 47.000000
2.600753 -0.501878 0.290170 47.000000
2.599201 -0.509855 0.290170 47.000000
2.598601 -0.518021 0.290266 47.000000
2.596024 -0.525794 0.290170 47.000000
2.593423 -0.533555 0.290074 47.000000
2.592749 -0.541713 0.290170 47.000000
2.591074 -0.549664 0.290170 47.000000
2.586457 -0.556984 0.289882 47.000000
2.581818 -0.564280 0.289594 47.000000
2.580075 -0.572198 0.289594 47.000000
2.578307 -0.580111 0.289594 47.000000
2.574574 -0.587576 0.289402 47.000000
2.574699 -0.595920 0.289594 47.000000
2.572859 -0.603817 0.289594 47.000000
2.570994 -0.611707 0.289594 47.000000
2.569105 -0.619592 0.289594 47.000000
2.568159 -0.627707 0.289690 47.000000
2.567188 -0.635822 0.289786 47.000000
2.566190 -0.643937 0.289882 47.000000
2.561308 -0.651072 0.289594 47.000000
2.562191 -0.659671 0.289882 47.000000
2.565935 -0.669032 0.290458 47.000000
2.598521 -0.686033 0.293915 47.000000
2.700367 -0.055959 0.279606 48.000000
2.680270 -0.063761 0.277800 48.000000
2.682053 -0.072038 0.277981 48.000000
2.684805 -0.080357 0.278251 48.000000
2.685542 -0.088627 0.278342 48.000000
2.686252 -0.096902 0.278432 48.000000
2.686938 -0.105182 0.278522 48.000000
2.686602 -0.113425 0.278522 48.000000
2.686242 -0.121667 0.278522 48.000000
2.681877 -0.129713 0.278161 48.000000
2.677488 -0.137734 0.277800 48.000000
2.677053 -0.145948 0.277800 48.000000
2.674604 -0.154045 0.277619 48.000000
2.671136 -0.162068 0.277349 48.000000
2.669633 -0.170198 0.277258 48.000000
2.668104 -0.178321 0.277168 48.000000
2.667545 -0.186506 0.277168 48.000000
2.667953 -0.194762 0.277258 48.000000
2.666350 -0.202870 0.277168 48.000000
2.667701 -0.211207 0.277349 48.000000
2.665055 -0.219226 0.277168 48.000000
2.663378 -0.227316 0.277078 48.000000
2.659692 -0.235222 0.276807 48.000000
2.656974 -0.243198 0.276626 48.000000
2.653241 -0.251066 0.276355 48.000000
2.649485 -0.258913 0.276085 48.000000
2.647687 -0.266940 0.275994 48.000000
2.643884 -0.274751 0.275723 48.000000
2.641049 -0.282649 0.275543 48.000000
2.638189 -0.290531 0.275362 48.000000
2.640254 -0.298961 0.275633 48.000000
2.639324 -0.307060 0.275633 48.000000
2.637381 -0.315037 0.275543 48.000000
2.635414 -0.323005 0.275453 48.000000
2.634410 -0.331089 0.275453 48.000000
2.631407 -0.338915 0.275272 48.000000
2.633317 -0.347378 0.275543 48.000000
2.633225 -0.355589 0.275633 48.000000
2.632122 -0.363666 0.275633 48.000000
2.627050 -0.371181 0.275272 48.000000
2.627870 -0.379524 0.275453 48.000000
2.624723 -0.387293 0.275272 48.000000
2.621553 -0.395046 0.275091 48.000000
2.620328 -0.403087 0.275091 48.000000
2.618096 -0.410969 0.275001 48.000000
2.614856 -0.418684 0.274821 48.000000
2.612576 -0.426543 0.274730 48.000000
2.610273 -0.434392 0.274640 48.000000
2.610892 -0.442732 0.274821 48.000000
2.608540 -0.450570 0.274730 48.000000
2.608126 -0.458744 0.274821 48.000000
2.606706 -0.466744 0.274821 48.000000
2.602323 -0.474202 0.274550 48.000000
2.598897 -0.481819 0.274369 48.000000
2.599364 -0.490160 0.274550 48.000000
2.597848 -0.498133 0.274550 48.000000
2.598263 -0.506483 0.274730 48.000000
2.596697 -0.514452 0.274730 48.000000
2.595106 -0.522416 0.274730 48.000000
2.593491 -0.530375 0.274730 48.000000
2.591852 -0.538329 0.274730 48.000000
2.588239 -0.545866 0.274550 48.000000
2.585578 -0.553595 0.274459 48.000000
2.581922 -0.561101 0.274279 48.000000
2.579216 -0.568805 0.274189 48.000000
2.577458 -0.576715 0.274189 48.000000
2.576648 -0.584841 0.274279 48.000000
2.574842 -0.592743 0.274279 48.000000
2.573981 -0.600867 0.274369 48.000000
2.573094 -0.608991 0.274459 48.000000
2.570246 -0.616649 0.274369 48.000000
2.568341 -0.624532 0.274369 48.000000
2.565447 -0.632170 0.274279 48.000000
2.563495 -0.640037 0.274279 48.000000
2.560554 -0.647654 0.274189 48.000000
2.560484 -0.656002 0.274369 48.000000
2.572918 -0.667613 0.275723 48.000000
2.585304 -0.679306 0.277078 48.000000
0.720770 -0.512491 0.114926 48.000000
2.679885 -0.057348 0.261346 49.000000
2.680693 -0.065594 0.261430 49.000000
2.682471 -0.073873 0.261599 49.000000
2.683228 -0.082133 0.261683 49.000000
2.686947 -0.090499 0.262020 49.000000
2.688648 -0.098816 0.262188 49.000000
2.688332 -0.107064 0.262188 49.000000
2.687991 -0.115311 0.262188 49.000000
2.687625 -0.123557 0.262188 49.000000
2.684247 -0.131655 0.261935 49.000000
2.684826 -0.139942 0.262020 49.000000
2.680404 -0.147958 0.261683 49.000000
2.676953 -0.156006 0.261430 49.000000
2.673478 -0.164035 0.261178 49.000000
2.671968 -0.172172 0.261093 49.000000
2.670433 -0.180301 0.261009 49.000000
2.669868 -0.188493 0.261009 49.000000
2.671264 -0.196830 0.261178 49.000000
2.670648 -0.205024 0.261178 49.000000
2.670006 -0.213217 0.261178 49.000000
2.669339 -0.221407 0.261178 49.000000
2.667655 -0.229510 0.261093 49.000000
2.664953 -0.237516 0.260925 49.000000
2.661235 -0.245416 0.260672 49.000000
2.657494 -0.253295 0.260420 49.000000
2.653729 -0.261154 0.260167 49.000000
2.649942 -0.268992 0.259915 49.000000
2.646131 -0.276809 0.259662 49.000000
2.642297 -0.284606 0.259409 49.000000
2.641412 -0.292711 0.259409 49.000000
2.640501 -0.300813 0.259409 49.000000
2.638576 -0.308797 0.259325 49.000000
2.638606 -0.317009 0.259409 49.000000
2.637621 -0.325103 0.259409 49.000000
2.636611 -0.333193 0.259409 49.000000
2.635576 -0.341281 0.259409 49.000000
2.634517 -0.349365 0.259409 49.000000
2.632445 -0.357312 0.259325 49.000000
2.629363 -0.365112 0.259157 49.000000
2.625271 -0.372756 0.258904 49.000000
2.623128 -0.380666 0.258820 49.000000
2.618006 -0.388126 0.258483 49.000000
2.615817 -0.396007 0.258399 49.000000
2.614590 -0.404031 0.258399 49.000000
2.615307 -0.412361 0.258567 49.000000
2.615013 -0.420541 0.258652 49.000000
2.613711 -0.428562 0.258652 49.000000
2.614349 -0.436907 0.258820 49.000000
2.613979 -0.445093 0.258904 49.000000
2.613583 -0.453281 0.258988 49.000000
2.612180 -0.461297 0.258988 49.000000
2.609771 -0.469133 0.258904 49.000000
2.605379 -0.476599 0.258652 49.000000
2.600966 -0.484042 0.258399 49.000000
2.598490 -0.491834 0.258315 49.000000
2.596969 -0.499804 0.258315 49.000000
2.596401 -0.507961 0.258399 49.000000
2.594831 -0.515924 0.258399 49.000000
2.593235 -0.523882 0.258399 49.000000
2.592592 -0.532036 0.258483 49.000000
2.591923 -0.540191 0.258567 49.000000
2.590254 -0.548140 0.258567 49.000000
2.588560 -0.556085 0.258567 49.000000
2.586841 -0.564024 0.258567 49.000000
2.583153 -0.571526 0.258399 49.000000
2.581388 -0.579449 0.258399 49.000000
2.579598 -0.587366 0.258399 49.000000
2.577783 -0.595277 0.258399 49.000000
2.575945 -0.603183 0.258399 49.000000
2.574082 -0.611083 0.258399 49.000000
2.573164 -0.619210 0.258483 49.000000
2.570284 -0.626866 0.258399 49.000000
2.568349 -0.634748 0.258399 49.000000
2.566390 -0.642625 0.258399 49.000000
2.563440 -0.650250 0.258315 49.000000
2.573979 -0.661337 0.259409 49.000000
2.565188 -0.667473 0.258820 49.000000
2.673473 -0.048968 0.243511 50.000000
2.676301 -0.057234 0.243745 50.000000
2.678106 -0.065493 0.243900 50.000000
2.676896 -0.073681 0.243823 50.000000
2.677654 -0.081924 0.243900 50.000000
2.678386 -0.090172 0.243978 50.000000
2.680089 -0.098461 0.244134 50.000000
2.680771 -0.106723 0.244211 50.000000
2.680431 -0.114947 0.244211 50.000000
2.681062 -0.123215 0.244289 50.000000
2.679675 -0.131392 0.244211 50.000000
2.678264 -0.139560 0.244134 50.000000
2.675832 -0.147667 0.243978 50.000000
2.671385 -0.155644 0.243667 50.000000
