# This PCD file was generated using the MATLAB® pcwrite function
# from Computer Vision Toolbox®.
# .PCD v.7 - Point Cloud Data file format
VERSION .7
FIELDS x y z intensity
SIZE 4 4 4 4
TYPE F F F F
COUNT 1 1 1 1
WIDTH 1288
HEIGHT 1
VIEWPOINT 0 0 0 1 0 0 0
POINTS 1288
DATA ascii
1.272613 3.729741 -0.624174 7.000000
2.878456 8.431279 1.093899 13.000000
1.408519 4.123342 -0.535006 4.000000
2.881792 8.436248 1.411978 24.000000
1.564560 4.577529 -0.423228 3.000000
2.889908 8.450350 1.735980 57.000000
1.761384 5.147518 -0.285126 1.000000
2.901134 8.473530 2.067750 42.000000
2.017049 5.891323 -0.108694 2.000000
2.908766 8.490972 2.404947 54.000000
1.000151 2.906298 -0.823562 5.000000
2.349053 6.826015 0.126006 2.000000
1.076024 3.124999 -0.763034 13.000000
2.826738 8.204804 0.454800 1.000000
1.179190 3.420738 -0.703322 7.000000
2.931847 8.500241 0.786668 58.000000
1.286263 3.729235 -0.624799 7.000000
2.932302 8.496747 1.103649 13.000000
1.419594 4.111142 -0.534032 5.000000
2.934448 8.493352 1.423241 24.000000
1.580530 4.572039 -0.423228 3.000000
2.947419 8.526074 1.753535 65.000000
1.777139 5.137873 -0.284917 1.000000
2.952165 8.530159 2.083947 42.000000
2.032368 5.869129 -0.108414 2.000000
2.964316 8.555607 2.426170 59.000000
1.005340 2.890193 -0.819939 4.000000
2.368921 6.806442 0.125797 2.000000
1.088847 3.126745 -0.764384 11.000000
2.855363 8.194886 0.454800 1.000000
1.186651 3.405685 -0.701032 7.000000
2.981006 8.550675 0.792246 58.000000
1.292766 3.706071 -0.621671 7.000000
2.986798 8.557680 1.112911 13.000000
1.432626 4.102414 -0.533544 5.000000
2.982320 8.535273 1.432001 24.000000
1.589110 4.547965 -0.421485 3.000000
2.996598 8.571332 1.764983 55.000000
1.800338 5.146720 -0.285754 1.000000
3.008963 8.597053 2.102843 40.000000
2.050198 5.854451 -0.108275 2.000000
3.016524 8.609017 2.444287 57.000000
1.014782 2.884844 -0.819421 3.000000
2.404614 6.832086 0.126425 2.000000
1.101050 3.126601 -0.765283 7.000000
2.883954 8.184869 0.454800 1.000000
1.195923 3.394115 -0.699506 7.000000
3.032031 8.600348 0.797824 48.000000
1.307010 3.705261 -0.622296 7.000000
3.045724 8.629566 1.123635 13.000000
1.446936 4.097389 -0.533544 6.000000
3.041712 8.608624 1.446080 21.000000
1.602321 4.534875 -0.420788 3.000000
3.053986 8.638561 1.781011 60.000000
1.814295 5.129107 -0.285126 1.000000
3.066259 8.663654 2.121738 42.000000
2.070622 5.847258 -0.108275 2.000000
3.069132 8.662171 2.462405 51.000000
1.022903 2.875823 -0.817868 3.000000
2.423086 6.808578 0.126146 2.000000
1.104766 3.102545 -0.760335 2.000000
2.912505 8.174753 0.454800 1.000000
1.209080 3.393619 -0.700269 7.000000
3.092141 8.674163 0.805668 63.000000
1.317280 3.693234 -0.621045 7.000000
3.094508 8.671231 1.130460 13.000000
1.463902 4.099790 -0.534519 7.000000
3.098329 8.672360 1.458595 21.000000
1.612780 4.514244 -0.419393 3.000000
3.108570 8.696250 1.795131 57.000000
1.826808 5.107698 -0.284289 1.000000
3.124062 8.729959 2.140634 33.000000
2.091019 5.839995 -0.108275 2.000000
3.129974 8.736881 2.486734 54.000000
1.036859 2.883142 -0.820974 6.000000
2.433298 6.762445 0.125448 2.000000
1.116249 3.100503 -0.760784 4.000000
2.923426 8.115680 0.452078 1.000000
1.224912 3.400460 -0.702559 7.000000
3.150101 8.740165 0.812814 58.000000
1.327483 3.681181 -0.619793 7.000000
3.153730 8.740668 1.140941 13.000000
1.466072 4.061046 -0.530132 4.000000
3.158104 8.743242 1.472361 25.000000
1.631232 4.516083 -0.420091 3.000000
3.164933 8.757353 1.810014 52.000000
1.833761 5.071238 -0.282614 1.000000
3.182355 8.795968 2.159530 42.000000
2.107310 5.821378 -0.108065 2.000000
3.188744 8.804005 2.508992 51.000000
1.048895 2.884953 -0.822527 9.000000
2.450051 6.735119 0.125099 2.000000
1.126399 3.094756 -0.760335 6.000000
2.935329 8.060387 0.449566 1.000000
1.227367 3.370338 -0.697216 7.000000
3.209919 8.809613 0.820310 69.000000
1.347091 3.695083 -0.622922 7.000000
3.213475 8.809797 1.151422 14.000000
1.485001 4.068957 -0.531838 7.000000
3.215709 8.806386 1.484876 22.000000
1.644254 4.502875 -0.419393 3.000000
3.229845 8.840298 1.829477 57.000000
1.858308 5.083565 -0.283661 1.000000
3.236470 8.848860 2.175277 42.000000
2.115249 5.780183 -0.107437 2.000000
3.250008 8.876269 2.532803 51.000000
1.052962 2.864954 -0.817868 13.000000
2.473548 6.726525 0.125099 2.000000
1.139213 3.096293 -0.761684 6.000000
2.977249 8.087576 0.451659 1.000000
1.236412 3.358663 -0.695690 8.000000
3.264755 8.863790 0.826411 58.000000
1.353150 3.671823 -0.619793 7.000000
3.276478 8.886066 1.162877 14.000000
1.495761 4.054437 -0.530619 5.000000
3.269685 8.858115 1.495514 22.000000
1.654442 4.482156 -0.417999 3.000000
3.290605 8.910006 1.846268 47.000000
1.871889 5.065806 -0.283033 1.000000
3.293696 8.908793 2.192823 33.000000
2.128471 5.754011 -0.107088 2.000000
3.305115 8.930093 2.551438 45.000000
1.058248 2.848585 -0.814245 13.000000
2.497008 6.717852 0.125099 2.000000
1.150694 3.094123 -0.762134 7.000000
3.008250 8.084622 0.452078 1.000000
1.252237 3.365367 -0.697979 7.000000
3.324865 8.930762 0.833732 56.000000
1.361133 3.654119 -0.617603 8.000000
3.335208 8.948979 1.172627 13.000000
1.505741 4.038032 -0.529157 7.000000
3.336494 8.942887 1.511783 22.000000
1.664507 4.461419 -0.416604 3.000000
3.347092 8.966516 1.860388 57.000000
1.883967 5.044274 -0.282196 1.000000
3.360243 8.992166 2.216218 38.000000
2.152746 5.757784 -0.107297 2.000000
3.364011 8.992688 2.572661 54.000000
1.072258 2.855725 -0.817351 9.000000
2.520445 6.709094 0.125099 2.000000
1.157375 3.079143 -0.759435 6.000000
3.019578 8.029206 0.449566 1.000000
1.261212 3.353625 -0.696453 7.000000
3.391104 9.012339 0.842447 66.000000
1.371097 3.641951 -0.616352 8.000000
3.396513 9.017163 1.183108 14.000000
1.521228 4.036466 -0.529644 5.000000
3.398359 9.012513 1.525549 23.000000
1.684289 4.466767 -0.417650 3.000000
3.407475 9.031929 1.876416 49.000000
1.890279 5.007769 -0.280521 1.000000
3.423285 9.064241 2.236913 31.000000
2.157280 5.709082 -0.106529 2.000000
3.427493 9.065820 2.596990 46.000000
1.082221 2.851965 -0.817351 11.000000
2.536752 6.681559 0.124750 2.000000
1.164654 3.065976 -0.757185 6.000000
3.047588 8.018616 0.449566 1.000000
1.274306 3.352872 -0.697216 7.000000
3.450163 9.073076 0.849246 59.000000
1.385906 3.642682 -0.617290 8.000000
3.458338 9.085026 1.193588 14.000000
1.531070 4.020000 -0.528182 5.000000
3.465664 9.094738 1.541505 23.000000
1.694192 4.445967 -0.416256 3.000000
3.470458 9.102529 1.893589 47.000000
1.914868 5.019801 -0.281567 1.000000
3.484782 9.130526 2.256259 33.000000
2.177197 5.701516 -0.106529 2.000000
3.492905 9.142227 2.622355 48.000000
1.095627 2.857188 -0.819939 13.000000
2.548598 6.642792 0.124191 2.000000
1.175350 3.061892 -0.757185 6.000000
3.505206 9.126616 0.512369 1.000000
1.285298 3.346571 -0.696835 10.000000
3.514685 9.146529 0.857264 59.000000
1.397905 3.635978 -0.616978 8.000000
3.523528 9.159977 1.205044 15.000000
1.545093 4.014632 -0.528182 6.000000
3.522947 9.148948 1.552769 19.000000
1.711134 4.443744 -0.416604 3.000000
3.536797 9.180126 1.912288 47.000000
1.935251 5.020541 -0.281986 1.000000
3.546783 9.196488 2.275605 33.000000
2.192768 5.682687 -0.106320 2.000000
3.559582 9.220089 2.648237 44.000000
1.102104 2.844340 -0.817351 11.000000
2.590565 6.682332 0.125099 2.000000
1.187439 3.061404 -0.758085 6.000000
3.586008 9.245289 0.519696 1.000000
1.287737 3.318271 -0.691873 7.000000
3.561738 9.173207 0.860924 14.000000
1.407727 3.623711 -0.615726 8.000000
3.592874 9.243835 1.217719 15.000000
1.557659 4.005514 -0.527694 6.000000
3.584771 9.218221 1.566535 20.000000
1.725189 4.434031 -0.416256 3.000000
3.606565 9.264689 1.932514 45.000000
1.945517 4.995144 -0.280939 1.000000
3.612829 9.271208 2.297200 36.000000
2.211599 5.675385 -0.106320 2.000000
3.621017 9.287429 2.671013 42.000000
1.109209 2.833280 -0.815280 9.000000
2.598129 6.636463 0.124401 2.000000
1.197585 3.057449 -0.758085 4.000000
3.113963 7.945899 0.447263 1.000000
1.302180 3.321066 -0.693400 3.000000
3.622112 9.233055 0.867723 5.000000
1.415408 3.607990 -0.613849 8.000000
3.654693 9.311328 1.228199 14.000000
1.568030 3.992935 -0.526719 4.000000
3.653043 9.297580 1.582178 20.000000
1.727537 4.394605 -0.413118 3.000000
3.669587 9.334901 1.949686 47.000000
1.962070 4.988665 -0.280939 1.000000
3.680658 9.353474 2.320595 31.000000
2.221139 5.641581 -0.105831 2.000000
3.687398 9.361010 2.695859 42.000000
1.117889 2.827789 -0.814762 7.000000
2.621277 6.627354 0.124401 2.000000
1.203948 3.042379 -0.755386 4.000000
3.121095 7.882984 0.444332 1.000000
1.311741 3.313079 -0.692637 3.000000
3.690864 9.317316 0.876787 3.000000
1.425811 3.597517 -0.612910 7.000000
3.722300 9.387089 1.239899 14.000000
1.580494 3.983748 -0.526232 7.000000
3.723375 9.380244 1.598448 20.000000
1.746512 4.399963 -0.414164 3.000000
3.733312 9.400494 1.966096 38.000000
1.975045 4.970650 -0.280311 1.000000
3.745683 9.422057 2.340841 31.000000
2.230473 5.607780 -0.105343 2.000000
3.755049 9.436034 2.721224 44.000000
1.129186 2.827458 -0.815798 7.000000
2.634009 6.592165 0.123912 2.000000
1.218178 3.047205 -0.757635 3.000000
3.148592 7.872042 0.444332 1.000000
1.326214 3.315771 -0.694163 3.000000
3.766301 9.411661 0.886897 1.000000
1.440562 3.598020 -0.613849 8.000000
3.785306 9.449591 1.249892 16.000000
1.592914 3.974520 -0.525744 6.000000
3.794323 9.462531 1.614717 16.000000
1.764825 4.401237 -0.414861 3.000000
3.805575 9.485799 1.986703 42.000000
1.993873 4.967432 -0.280521 1.000000
3.814133 9.497536 2.362886 29.000000
2.261962 5.629648 -0.105901 2.000000
3.826157 9.517868 2.748658 40.000000
1.137604 2.819916 -0.814762 7.000000
2.652512 6.571805 0.123703 2.000000
1.228077 3.041127 -0.757185 4.000000
3.849422 9.527646 0.538537 1.000000
1.334103 3.302020 -0.692255 3.000000
3.834223 9.485275 0.895089 3.000000
1.453112 3.592970 -0.613849 8.000000
3.855501 9.528327 1.262079 15.000000
1.603799 3.961576 -0.524769 4.000000
3.858475 9.526127 1.627857 20.000000
1.780177 4.395050 -0.414861 3.000000
3.874059 9.559793 2.005021 36.000000
2.008200 4.953038 -0.280102 1.000000
3.880957 9.567232 2.383581 29.000000
2.272577 5.599483 -0.105482 2.000000
3.884798 9.567101 2.766776 8.000000
1.147438 2.815929 -0.814762 7.000000
2.673928 6.558802 0.123633 2.000000
1.234270 3.025995 -0.754486 4.000000
3.958114 9.699074 0.549004 1.000000
1.341910 3.288255 -0.690347 3.000000
3.902709 9.558527 0.903282 1.000000
1.466393 3.589704 -0.614162 7.000000
3.933040 9.623229 1.276460 15.000000
1.616115 3.952279 -0.524282 5.000000
3.929106 9.604014 1.643501 17.000000
1.789474 4.374057 -0.413467 3.000000
3.951277 9.653414 2.027536 38.000000
2.019421 4.931212 -0.279265 1.000000
3.952751 9.647395 2.406976 6.000000
2.289074 5.584116 -0.105343 2.000000
2.259269 5.508668 1.595361 59.000000
1.151379 2.797614 -0.810621 7.000000
2.696808 6.549428 0.123633 2.000000
1.248536 3.030678 -0.756735 6.000000
3.991948 9.685198 0.549004 1.000000
1.359366 3.298072 -0.693400 3.000000
3.977070 9.644309 0.912695 3.000000
1.478914 3.584564 -0.614162 7.000000
4.007511 9.708526 1.289621 16.000000
1.628386 3.942944 -0.523794 6.000000
4.010882 9.707084 1.663524 21.000000
1.797122 4.349370 -0.411724 3.000000
4.011203 9.703062 2.040893 10.000000
2.041203 4.935205 -0.279893 1.000000
2.303916 5.567646 1.391097 59.000000
2.308551 5.576091 -0.105343 2.000000
2.284400 5.515026 1.599502 89.000000
1.159656 2.790010 -0.809586 7.000000
2.702756 6.499355 0.122865 2.000000
1.252371 3.010108 -0.752686 6.000000
3.219820 7.735118 0.439099 1.000000
1.365590 3.280619 -0.690729 3.000000
4.039811 9.700262 0.919319 3.000000
1.480781 3.553851 -0.609782 7.000000
4.080334 9.787922 1.302052 18.000000
1.647486 3.950061 -0.525501 7.000000
4.079738 9.776883 1.677916 4.000000
1.815363 4.350424 -0.412421 3.000000
2.331124 5.583676 1.176147 53.000000
2.039940 4.883821 -0.277381 1.000000
2.329349 5.573954 1.394697 99.000000
2.328002 5.567998 -0.105343 2.000000
2.301397 5.501674 1.597949 96.000000
1.173873 2.796633 -0.812692 7.000000
2.714589 6.464069 0.122376 2.000000
1.263626 3.007514 -0.753136 18.000000
3.235963 7.698056 0.437633 1.000000
1.377793 3.277642 -0.691110 3.000000
4.065926 9.667735 0.917576 3.000000
1.499308 3.563226 -0.612285 7.000000
4.132957 9.817529 1.307902 2.000000
1.652790 3.924162 -0.522820 6.000000
2.377177 5.641290 0.969581 71.000000
1.832086 4.347733 -0.412770 3.000000
2.358226 5.593596 1.179963 96.000000
2.064739 4.895072 -0.278427 1.000000
2.332882 5.528084 1.385249 80.000000
2.344312 5.552470 -0.105203 2.000000
2.311568 5.472251 1.591737 92.000000
1.183629 2.792518 -0.812692 7.000000
2.740257 6.461918 0.122516 2.000000
1.274876 3.004880 -0.753586 16.000000
3.234723 7.620527 0.433865 1.000000
1.382323 3.256547 -0.687676 3.000000
2.437669 5.740009 0.545595 4.000000
1.508644 3.550700 -0.611033 7.000000
2.417538 5.687080 0.758759 61.000000
1.661817 3.907408 -0.521357 6.000000
2.391436 5.620236 0.967391 83.000000
1.847249 4.341312 -0.412770 3.000000
2.373124 5.574492 1.177673 86.000000
2.073988 4.869459 -0.277381 1.000000
2.352925 5.521702 1.385699 85.000000
2.358975 5.533216 -0.104994 2.000000
2.338236 5.481918 1.596914 96.000000
1.188807 2.777714 -0.809586 7.000000
2.773818 6.478049 0.123005 2.000000
1.283823 2.996828 -0.752686 13.000000
2.471918 5.770198 0.328984 3.000000
1.398322 3.262530 -0.689965 3.000000
2.447484 5.707659 0.543329 56.000000
1.522588 3.549042 -0.611659 7.000000
2.438939 5.682255 0.759246 80.000000
1.674765 3.901876 -0.521357 5.000000
2.410062 5.612274 0.967391 95.000000
1.854528 4.316531 -0.411026 3.000000
2.392567 5.566174 1.177673 89.000000
2.102019 4.887877 -0.278846 1.000000
2.368145 5.506707 1.383899 85.000000
2.372568 5.514341 -0.104784 2.000000
2.344946 5.447516 1.589149 98.000000
1.194948 2.766662 -0.807515 7.000000
2.525591 5.844696 0.111137 2.000000
1.292981 2.990765 -0.752236 10.000000
2.492626 5.765635 0.329193 86.000000
1.406015 3.250668 -0.688439 5.000000
2.469562 5.706826 0.544026 90.000000
1.532780 3.540348 -0.611033 7.000000
2.452245 5.661386 0.757540 77.000000
1.681381 3.881729 -0.519407 5.000000
2.421590 5.587939 0.964575 97.000000
1.865663 4.303045 -0.410329 3.000000
2.404760 5.543801 1.174620 89.000000
2.103903 4.847902 -0.276962 3.000000
2.385615 5.497036 1.383449 80.000000
2.389250 5.502775 -0.104714 2.000000
2.359146 5.430852 1.586561 94.000000
1.210292 2.776851 -0.811657 7.000000
2.522580 5.784964 0.110160 76.000000
1.298995 2.977531 -0.749987 7.000000
2.511137 5.753239 0.328984 82.000000
1.416002 3.244187 -0.688057 7.000000
2.482096 5.683998 0.542632 81.000000
1.538184 3.520765 -0.608530 7.000000
2.465441 5.640489 0.755834 78.000000
1.698103 3.883111 -0.520382 5.000000
2.440290 5.577641 0.964262 95.000000
1.880671 4.296507 -0.410329 3.000000
2.418409 5.525004 1.172330 89.000000
2.119968 4.840898 -0.276962 1.000000
2.404790 5.488675 1.383449 80.000000
2.410048 5.498064 -0.104784 2.000000
2.381969 5.431430 1.589149 100.000000
1.217347 2.765325 -0.809586 7.000000
2.543563 5.777953 0.110194 100.000000
1.309380 2.972978 -0.749987 7.000000
2.526371 5.733473 0.328356 88.000000
1.427884 3.238975 -0.688057 12.000000
2.502911 5.674863 0.542632 82.000000
1.554267 3.522333 -0.609782 7.000000
2.481107 5.622769 0.754615 77.000000
1.705235 3.862631 -0.518432 4.000000
2.458945 5.567283 0.963949 99.000000
1.892435 4.282628 -0.409632 3.000000
2.435469 5.508921 1.170804 89.000000
2.124769 4.803871 -0.275287 1.000000
2.420159 5.469132 1.380750 84.000000
2.429224 5.489618 -0.104784 2.000000
2.395441 5.410717 1.585526 94.000000
1.226994 2.761058 -0.809586 7.000000
2.560663 5.759455 0.110020 100.000000
1.322643 2.973501 -0.751337 7.000000
2.540874 5.709576 0.327518 91.000000
1.437584 3.230384 -0.687294 12.000000
2.521086 5.662450 0.542283 81.000000
1.565748 3.515081 -0.609469 8.000000
2.500084 5.610011 0.754128 77.000000
1.716147 3.849103 -0.517457 5.000000
2.474507 5.547408 0.962072 97.000000
1.907374 4.275995 -0.409632 3.000000
2.454683 5.500386 1.170804 89.000000
2.149669 4.814662 -0.276334 1.000000
2.433673 5.448195 1.377600 85.000000
2.447698 5.477026 -0.104714 2.000000
2.416832 5.405427 1.586561 96.000000
1.235042 2.753233 -0.808551 9.000000
2.582387 5.754131 0.110090 100.000000
1.333813 2.970644 -0.751786 4.000000
2.562423 5.704316 0.327728 90.000000
1.446438 3.219975 -0.686149 13.000000
2.535934 5.642713 0.541237 81.000000
1.577200 3.507793 -0.609156 7.000000
2.522094 5.606681 0.754859 78.000000
1.734459 3.853951 -0.518920 5.000000
2.488989 5.527930 0.960195 97.000000
1.922287 4.269311 -0.409632 3.000000
2.472257 5.488204 1.170041 89.000000
2.168103 4.810771 -0.276543 1.000000
2.450271 5.434338 1.376251 80.000000
2.460225 5.453866 -0.104435 2.000000
2.427741 5.379349 1.581384 91.000000
1.238270 2.734827 -0.804410 9.000000
2.594208 5.726866 0.109741 95.000000
1.344176 2.965969 -0.751786 6.000000
2.580669 5.691700 0.327518 91.000000
1.457668 3.214906 -0.686149 12.000000
2.553971 5.630197 0.540889 77.000000
1.584537 3.491472 -0.607279 7.000000
2.540007 5.594228 0.754371 80.000000
1.741335 3.833414 -0.516970 5.000000
2.506637 5.515611 0.959569 99.000000
1.933882 4.255320 -0.408935 3.000000
2.488145 5.472393 1.168514 89.000000
2.174960 4.781356 -0.275287 1.000000
2.469227 5.425752 1.376251 80.000000
2.479244 5.445246 -0.104435 2.000000
2.444901 5.367327 1.580349 96.000000
1.247809 2.730487 -0.804410 7.000000
2.609192 5.706865 0.109531 95.000000
1.350467 2.952399 -0.749537 6.000000
2.597198 5.675392 0.327100 88.000000
1.467248 3.206227 -0.685386 10.000000
2.571949 5.617624 0.540540 78.000000
1.595069 3.482329 -0.606653 7.000000
2.552078 5.569086 0.752178 75.000000
1.764634 3.848965 -0.519895 5.000000
2.528344 5.512214 0.960508 100.000000
1.945400 4.241299 -0.408237 3.000000
2.499045 5.445830 1.164698 86.000000
2.184971 4.759214 -0.274450 1.000000
2.489777 5.420641 1.377150 89.000000
2.489887 5.418388 -0.104086 2.000000
2.462008 5.355249 1.579314 92.000000
1.260569 2.733132 -0.806480 9.000000
2.629096 5.697723 0.109531 95.000000
1.357498 2.940589 -0.747737 6.000000
2.615320 5.662664 0.326890 90.000000
1.479255 3.202868 -0.685768 7.000000
2.588198 5.601378 0.539843 81.000000
1.607216 3.476739 -0.606653 7.000000
2.566504 5.549333 0.750715 77.000000
1.769720 3.824768 -0.517457 4.000000
2.543422 5.494391 0.958943 97.000000
1.965216 4.245331 -0.409283 3.000000
2.519691 5.440636 1.165461 86.000000
2.191492 4.729813 -0.273194 1.000000
2.501309 5.396004 1.373101 89.000000
2.510470 5.413291 -0.104156 2.000000
2.481496 5.348376 1.579831 100.000000
1.270917 2.730466 -0.806998 9.000000
2.647282 5.684884 0.109461 95.000000
1.370221 2.941133 -0.749087 6.000000
2.630007 5.642639 0.326262 91.000000
1.483790 3.183450 -0.682715 7.000000
2.607736 5.592309 0.539843 82.000000
1.617669 3.467528 -0.606027 7.000000
2.584178 5.536742 0.750228 75.000000
1.778022 3.807775 -0.515995 5.000000
2.556735 5.472951 0.956753 95.000000
1.974965 4.227613 -0.408237 3.000000
2.538666 5.431808 1.165461 89.000000
2.214757 4.736608 -0.274031 1.000000
2.513525 5.373118 1.369502 87.000000
2.517483 5.379139 -0.103667 2.000000
2.494417 5.327434 1.576208 94.000000
1.275514 2.715522 -0.803892 9.000000
2.667109 5.675609 0.109461 99.000000
1.379651 2.934568 -0.748637 6.000000
2.644588 5.622580 0.325634 86.000000
1.489881 3.167591 -0.680425 7.000000
2.623847 5.575962 0.539145 81.000000
1.631447 3.465435 -0.606653 7.000000
2.602645 5.525892 0.749984 80.000000
1.794686 3.808728 -0.516970 4.000000
2.572450 5.456848 0.955502 100.000000
1.991406 4.224300 -0.408586 3.000000
2.554263 5.415810 1.163935 89.000000
2.234686 4.736074 -0.274450 1.000000
2.532262 5.364314 1.369502 89.000000
2.525998 5.348620 -0.103248 2.000000
2.509699 5.311707 1.574137 96.000000
1.283328 2.707563 -0.802857 9.000000
2.674910 5.640968 0.108973 95.000000
1.389052 2.927974 -0.748187 6.000000
2.664195 5.613316 0.325634 88.000000
1.506819 3.174788 -0.683096 6.000000
2.636459 5.552370 0.537751 75.000000
1.645230 3.463287 -0.607279 7.000000
2.621062 5.514983 0.749740 77.000000
1.807119 3.800647 -0.516726 3.000000
2.589787 5.444266 0.954876 95.000000
2.004429 4.213724 -0.408237 3.000000
2.568086 5.396227 1.161645 89.000000
2.240902 4.706604 -0.273194 1.000000
2.552649 5.358960 1.370402 87.000000
2.544652 5.339771 -0.103248 2.000000
2.523235 5.292451 1.571032 94.000000
1.295273 2.708294 -0.804410 9.000000
2.693723 5.629792 0.108938 87.000000
1.396739 2.917834 -0.746837 6.000000
2.685499 5.607584 0.325844 88.000000
1.517893 3.169508 -0.683096 6.000000
2.652382 5.535945 0.537054 74.000000
1.650478 3.443273 -0.604776 7.000000
2.633432 5.491479 0.747790 77.000000
1.819517 3.792526 -0.516482 4.000000
2.606210 5.429851 0.953938 97.000000
2.013952 4.195924 -0.407192 3.000000
2.577560 5.367761 1.157447 79.000000
2.248671 4.680750 -0.272147 3.000000
2.567961 5.342991 1.368602 87.000000
2.563274 5.330856 -0.103248 2.000000
2.543371 5.287093 1.572067 92.000000
1.302199 2.698537 -0.802857 9.000000
2.710746 5.614954 0.108833 95.000000
1.406916 2.912940 -0.746837 7.000000
2.698107 5.583788 0.325006 86.000000
1.534073 3.174796 -0.685386 5.000000
2.675155 5.533830 0.537751 75.000000
1.659048 3.430377 -0.603524 7.000000
2.649992 5.476892 0.747059 80.000000
1.820633 3.761138 -0.513070 4.000000
2.630315 5.431387 0.955815 97.000000
2.021640 4.174523 -0.405797 4.000000
2.596283 5.358730 1.157447 84.000000
2.261510 4.665684 -0.271728 1.000000
2.579796 5.319967 1.365003 87.000000
2.578377 5.314679 -0.103109 2.000000
2.560122 5.274707 1.571032 89.000000
1.314994 2.700923 -0.804927 9.000000
2.730331 5.605457 0.108833 71.000000
1.412807 2.899253 -0.744588 7.000000
2.711358 5.564038 0.324378 84.000000
1.531380 3.141187 -0.679280 5.000000
2.688343 5.511922 0.536531 78.000000
1.672744 3.428116 -0.604150 7.000000
2.669093 5.467609 0.747059 78.000000
1.834838 3.758647 -0.513557 5.000000
2.641376 5.408435 0.953312 99.000000
2.037950 4.171021 -0.406146 3.000000
2.619282 5.358455 1.159356 84.000000
2.277782 4.657762 -0.271728 1.000000
2.590573 5.297379 1.361404 89.000000
2.592473 5.298914 -0.102969 2.000000
2.575051 5.260983 1.569479 99.000000
1.320537 2.689611 -0.802857 9.000000
2.748024 5.594576 0.108798 92.000000
1.422413 2.894552 -0.744588 7.000000
2.726269 5.547847 0.323960 84.000000
1.544386 3.141377 -0.680425 3.000000
2.704849 5.499401 0.536182 74.000000
1.687590 3.429640 -0.605401 7.000000
2.683704 5.451603 0.746084 80.000000
1.849047 3.756103 -0.514045 3.000000
2.650570 5.381925 0.950183 99.000000
2.046484 4.153517 -0.405100 4.000000
2.635303 5.346217 1.158592 84.000000
2.305583 4.675260 -0.273194 1.000000
2.613298 5.299244 1.364103 87.000000
2.610912 5.292083 -0.103004 4.000000
2.589919 5.247218 1.567926 92.000000
1.326021 2.678292 -0.800786 10.000000
2.760347 5.572890 0.108554 95.000000
1.432005 2.889819 -0.744588 7.000000
2.745620 5.538296 0.323960 88.000000
1.556215 3.137725 -0.680807 5.000000
2.715103 5.474337 0.534613 74.000000
1.698077 3.422255 -0.605089 8.000000
2.703532 5.446231 0.746572 82.000000
1.862146 3.749626 -0.514045 4.000000
2.671976 5.377947 0.951122 100.000000
2.056537 4.137427 -0.404228 4.000000
2.649576 5.328196 1.156684 81.000000
2.305875 4.634996 -0.271310 1.000000
2.630911 5.288346 1.363653 84.000000
2.616005 5.256083 -0.102481 2.000000
2.602191 5.226040 1.564302 89.000000
1.337555 2.676870 -0.801821 9.000000
2.778073 5.557369 0.108449 100.000000
1.439972 2.879322 -0.743238 9.000000
2.769474 5.535341 0.324378 84.000000
1.558918 3.114444 -0.676990 6.000000
2.736934 5.467912 0.534962 81.000000
1.700880 3.396578 -0.601647 8.000000
2.714582 5.418538 0.744134 82.000000
1.872319 3.735677 -0.513070 4.000000
2.691670 5.368117 0.951122 100.000000
2.072580 4.131643 -0.404403 3.000000
2.663805 5.307920 1.154395 89.000000
2.312095 4.605094 -0.270054 1.000000
2.652901 5.283892 1.365003 92.000000
2.647817 5.271477 -0.102969 2.000000
2.618727 5.211288 1.562749 92.000000
1.347357 2.671950 -0.801821 9.000000
2.793018 5.536438 0.108240 87.000000
1.447881 2.868806 -0.741889 7.000000
2.777142 5.500192 0.322913 90.000000
1.577404 3.122729 -0.680043 8.000000
2.756955 5.457844 0.534962 81.000000
1.715099 3.393848 -0.602273 7.000000
2.734425 5.408551 0.744134 84.000000
1.884206 3.725247 -0.512583 5.000000
2.709542 5.354691 0.950496 100.000000
2.082311 4.113353 -0.403357 4.000000
2.681467 5.294619 1.153631 86.000000
2.330762 4.600152 -0.270263 1.000000
2.658156 5.246320 1.357805 91.000000
2.659888 5.247467 -0.102690 4.000000
2.637808 5.201656 1.562749 91.000000
1.358895 2.670436 -0.802857 9.000000
2.815105 5.529728 0.108310 87.000000
1.460154 2.866953 -0.742788 7.000000
2.793657 5.482857 0.322494 90.000000
1.587054 3.113429 -0.679280 10.000000
2.776939 5.447703 0.534962 81.000000
1.727526 3.387540 -0.602273 7.000000
2.750623 5.391419 0.743159 80.000000
1.899653 3.721852 -0.513070 4.000000
2.721962 5.330651 0.947993 100.000000
2.108251 4.126984 -0.405449 3.000000
2.700856 5.284755 1.153631 86.000000
2.349424 4.595136 -0.270472 1.000000
2.672043 5.226132 1.355105 87.000000
2.678194 5.235902 -0.102655 4.000000
2.660377 5.198832 1.564820 89.000000
1.361523 2.656079 -0.799751 9.000000
2.830589 5.519572 0.108275 83.000000
1.473103 2.871277 -0.745038 9.000000
2.809909 5.474546 0.322494 88.000000
1.593949 3.105491 -0.678517 8.000000
2.785811 5.425261 0.533567 82.000000
1.737570 3.382398 -0.602273 8.000000
2.768419 5.386766 0.743647 84.000000
1.914318 3.723261 -0.514045 4.000000
2.735057 5.317280 0.947054 97.000000
2.111565 4.105135 -0.403880 4.000000
2.715600 5.277194 1.153631 86.000000
2.358592 4.581454 -0.270054 1.000000
2.684862 5.212983 1.353755 85.000000
2.694630 5.229712 -0.102690 2.000000
2.666939 5.173745 1.559644 91.000000
1.372562 2.654742 -0.800786 10.000000
2.843408 5.497223 0.108030 78.000000
1.478638 2.857464 -0.742788 7.000000
2.827167 5.461156 0.322285 91.000000
1.602975 3.096421 -0.677754 8.000000
2.797404 5.401349 0.532173 82.000000
1.743913 3.365789 -0.600396 8.000000
2.783552 5.370020 0.742672 84.000000
1.919993 3.702458 -0.512095 5.000000
2.752691 5.305948 0.946742 100.000000
2.115788 4.078286 -0.401962 3.000000
2.732197 5.264196 1.152868 86.000000
2.380093 4.583827 -0.270682 1.000000
2.713821 5.224331 1.359154 89.000000
2.700882 5.197206 -0.102236 4.000000
2.682310 5.159261 1.558091 92.000000
1.383607 2.653360 -0.801821 9.000000
2.860727 5.483720 0.107961 92.000000
1.488604 2.852285 -0.742788 7.000000
2.848063 5.454794 0.322494 90.000000
1.615592 3.094287 -0.678517 8.000000
2.816237 5.391553 0.532173 85.000000
1.754738 3.357930 -0.600083 8.000000
2.794924 5.346196 0.740722 82.000000
1.936582 3.702770 -0.513070 6.000000
2.771197 5.296307 0.946742 100.000000
2.133494 4.075799 -0.402485 4.000000
2.743273 5.240712 1.149815 95.000000
2.390517 4.564877 -0.270054 1.000000
2.727521 5.206195 1.356905 87.000000
2.727364 5.203686 -0.102550 4.000000
2.697608 5.144735 1.556538 91.000000
1.393322 2.648271 -0.801821 10.000000
2.875197 5.464852 0.107786 95.000000
1.492196 2.835001 -0.739639 9.000000
2.858710 5.428915 0.321552 91.000000
1.628752 3.091820 -0.679280 8.000000
2.835983 5.381193 0.532173 83.000000
1.769796 3.356719 -0.601021 7.000000
2.810790 5.331141 0.739991 87.000000
1.942088 3.681941 -0.511120 4.000000
2.790591 5.288347 0.947054 100.000000
2.148638 4.070089 -0.402660 3.000000
2.756043 5.218470 1.147144 86.000000
2.409101 4.559615 -0.270263 1.000000
2.744761 5.192719 1.356005 92.000000
2.741772 5.187064 -0.102411 2.000000
2.717357 5.138702 1.557573 91.000000
1.400747 2.639979 -0.800786 9.000000
2.897081 5.457810 0.107856 83.000000
1.500751 2.826069 -0.738739 9.000000
2.874834 5.413611 0.321238 90.000000
1.634007 3.075713 -0.676990 8.000000
2.856616 5.374781 0.532522 81.000000
1.780576 3.348776 -0.600708 8.000000
2.830310 5.320803 0.739991 85.000000
1.957434 3.678303 -0.511608 5.000000
2.803462 5.268113 0.945177 100.000000
2.166578 4.069598 -0.403357 4.000000
2.778859 5.217482 1.149052 89.000000
2.419364 4.540604 -0.269635 1.000000
2.750039 5.159029 1.349706 85.000000
2.767388 5.191577 -0.102690 2.000000
2.738007 5.134298 1.559126 92.000000
1.402663 2.621446 -0.796645 10.000000
2.915165 5.448173 0.107856 85.000000
1.515632 2.831386 -0.741439 9.000000
2.893713 5.403543 0.321238 91.000000
1.643807 3.068259 -0.676609 8.000000
2.865949 5.347215 0.530778 83.000000
1.791671 3.342853 -0.600708 8.000000
2.844188 5.304389 0.739016 87.000000
1.965868 3.664794 -0.510633 5.000000
2.817165 5.249591 0.943613 100.000000
2.165691 4.033925 -0.400568 4.000000
2.795215 5.206509 1.148670 92.000000
2.430629 4.525517 -0.269216 1.000000
2.780966 5.175631 1.356455 96.000000
2.777918 5.167796 -0.102411 2.000000
2.746761 5.107697 1.553950 96.000000
1.415016 2.623582 -0.798716 10.000000
2.929419 5.429163 0.107681 78.000000
1.526431 2.827793 -0.741889 7.000000
2.910657 5.389895 0.321029 91.000000
1.652107 3.059337 -0.675846 7.000000
2.881773 5.334176 0.530430 77.000000
1.799571 3.329628 -0.599457 8.000000
2.864574 5.297923 0.739503 84.000000
1.976761 3.654417 -0.510145 5.000000
2.832651 5.234514 0.942674 100.000000
2.173366 4.016208 -0.399522 4.000000
2.809633 5.189814 1.147144 92.000000
2.446413 4.517004 -0.269216 1.000000
2.786017 5.141906 1.350156 84.000000
2.788315 5.144004 -0.102131 2.000000
2.761812 5.092981 1.552397 91.000000
1.420474 2.611837 -0.796645 10.000000
2.942617 5.408366 0.107472 78.000000
1.531635 2.813889 -0.739639 6.000000
2.925635 5.372685 0.320610 91.000000
1.665593 3.058723 -0.676990 8.000000
2.902281 5.327583 0.530778 81.000000
1.803621 3.309450 -0.596954 8.000000
2.880200 5.282661 0.738772 87.000000
1.995208 3.657952 -0.511608 5.000000
2.852799 5.228061 0.943300 100.000000
2.193099 4.019090 -0.400568 3.000000
2.823970 5.173081 1.145617 92.000000
2.464079 4.511943 -0.269426 1.000000
2.811425 5.145830 1.353755 96.000000
2.806256 5.134239 -0.102131 2.000000
2.780499 5.085006 1.552914 100.000000
1.431440 2.610251 -0.797680 10.000000
2.960515 5.396309 0.107437 83.000000
1.542385 2.810235 -0.740089 7.000000
2.941512 5.359453 0.320401 91.000000
1.676259 3.052891 -0.676990 8.000000
2.918940 5.313929 0.530430 85.000000
1.818968 3.310058 -0.598205 8.000000
2.890971 5.258660 0.736822 87.000000
2.002224 3.640529 -0.510145 4.000000
2.868215 5.215112 0.942674 99.000000
2.203274 4.004427 -0.399871 4.000000
2.834435 5.149434 1.142564 79.000000
2.470178 4.485819 -0.268379 1.000000
2.815267 5.110381 1.347007 81.000000
2.832916 5.142419 -0.102481 2.000000
2.799210 5.079142 1.553950 100.000000
1.438673 2.601857 -0.796645 10.000000
2.980330 5.389961 0.107507 95.000000
1.550752 2.803400 -0.739639 9.000000
2.954401 5.338666 0.319773 90.000000
1.685004 3.043586 -0.676227 8.000000
2.935539 5.300222 0.530081 82.000000
1.833761 3.310921 -0.599457 8.000000
2.905509 5.243834 0.736091 82.000000
2.004663 3.616507 -0.507708 5.000000
2.877779 5.189520 0.939858 100.000000
2.220137 4.001939 -0.400393 4.000000
2.857212 5.150306 1.144854 92.000000
2.483103 4.474110 -0.268169 1.000000
2.834089 5.104425 1.347907 86.000000
2.837255 5.108026 -0.101992 2.000000
2.814109 5.064273 1.552397 91.000000
1.449174 2.600447 -0.797680 10.000000
2.998152 5.377779 0.107472 92.000000
1.558630 2.794565 -0.738739 10.000000
2.973017 5.328321 0.319773 91.000000
1.691261 3.031124 -0.674701 8.000000
2.951159 5.286977 0.529733 82.000000
1.840492 3.295876 -0.597893 8.000000
2.923794 5.233660 0.736091 82.000000
2.025021 3.623350 -0.509658 6.000000
2.891057 5.170822 0.938294 94.000000
2.229231 3.985470 -0.399522 4.000000
2.876132 5.142014 1.145236 92.000000
2.500655 4.468902 -0.268379 1.000000
2.842369 5.077497 1.343408 73.000000
2.845298 5.080643 -0.101643 2.000000
2.830824 5.052734 1.551879 26.000000
1.449230 2.578277 -0.792504 9.000000
3.010048 5.355077 0.107228 85.000000
1.572197 2.795901 -0.740539 9.000000
2.993556 5.321394 0.319982 91.000000
1.701397 3.023193 -0.674319 7.000000
2.960744 5.258764 0.527989 81.000000
1.849651 3.283945 -0.596954 8.000000
2.943992 5.226882 0.736578 84.000000
2.036683 3.614530 -0.509414 7.000000
2.914911 5.171023 0.940171 100.000000
2.235297 3.963782 -0.398127 4.000000
2.879524 5.104080 1.139130 64.000000
2.517019 4.459705 -0.268379 1.000000
2.885870 5.111166 1.355105 17.000000
2.864978 5.074164 -0.101713 2.000000
2.897851 5.130289 1.578796 19.000000
1.463935 2.583288 -0.795610 9.000000
3.025709 5.337051 0.107088 73.000000
1.573781 2.774865 -0.736490 9.000000
3.011129 5.309174 0.319877 91.000000
1.710972 3.015528 -0.673937 8.000000
2.983015 5.255328 0.528687 81.000000
1.857202 3.270597 -0.595703 8.000000
2.959212 5.209151 0.735603 82.000000
2.048935 3.605314 -0.509170 5.000000
2.927086 5.150512 0.938294 49.000000
2.250106 3.957686 -0.398302 4.000000
2.929354 5.150312 1.151723 19.000000
2.530594 4.447421 -0.268169 1.000000
2.961538 5.202676 1.382099 19.000000
2.880696 5.060657 -0.101643 2.000000
2.971190 5.217507 1.608819 21.000000
1.471027 2.574807 -0.794574 10.000000
3.044382 5.328725 0.107123 76.000000
1.582008 2.767938 -0.736040 9.000000
3.023694 5.288228 0.319249 91.000000
1.723435 3.012947 -0.674701 8.000000
3.001343 5.244883 0.528687 66.000000
1.870001 3.267849 -0.596328 8.000000
2.985345 5.214815 0.737797 17.000000
2.052987 3.584720 -0.507220 5.000000
2.999059 5.234532 0.955502 19.000000
2.251028 3.927336 -0.396036 4.000000
3.005970 5.244472 1.175002 17.000000
2.545327 4.439005 -0.268169 1.000000
3.018532 5.262130 1.400545 19.000000
2.896354 5.047100 -0.101573 2.000000
3.040358 5.295903 1.636254 20.000000
1.487269 2.583308 -0.798716 10.000000
3.063963 5.319798 0.107158 85.000000
1.588739 2.757335 -0.734690 9.000000
3.049118 5.289753 0.319982 35.000000
1.729496 3.000411 -0.673174 8.000000
3.064502 5.314297 0.536705 16.000000
1.883368 3.264725 -0.596954 8.000000
3.064056 5.309241 0.752665 14.000000
2.065488 3.577531 -0.507220 5.000000
3.054853 5.289035 0.967391 19.000000
2.285655 3.955683 -0.399696 4.000000
3.080244 5.330841 1.196754 15.000000
2.564807 4.437010 -0.268588 1.000000
3.097367 5.356153 1.428439 16.000000
2.909948 5.030036 -0.101433 2.000000
3.116888 5.385578 1.667312 20.000000
1.485086 2.557792 -0.792504 9.000000
3.083517 5.310800 0.107193 19.000000
1.602270 2.758512 -0.736490 7.000000
3.122756 5.374055 0.325739 15.000000
1.738507 2.990657 -0.672411 8.000000
3.134038 5.389146 0.545421 20.000000
1.889364 3.247554 -0.595077 8.000000
3.136476 5.391167 0.765827 14.000000
2.077963 3.570300 -0.507220 5.000000
3.135916 5.385886 0.987102 16.000000
2.293433 3.937350 -0.398650 4.000000
3.152148 5.409419 1.216980 18.000000
2.568980 4.406874 -0.267332 1.000000
3.168026 5.432302 1.451834 18.000000
2.931519 5.026757 -0.101573 2.000000
3.184342 5.458097 1.693194 22.000000
1.490103 2.545923 -0.790433 9.000000
3.148431 5.377117 0.108763 2.000000
1.613354 2.754303 -0.736940 6.000000
3.197013 5.457909 0.331496 14.000000
1.748937 2.984570 -0.672411 8.000000
3.201197 5.460675 0.553788 15.000000
1.898687 3.237533 -0.594451 8.000000
3.210458 5.472093 0.778989 14.000000
2.091036 3.562660 -0.507220 4.000000
3.204695 5.460086 1.002745 20.000000
2.301108 3.919013 -0.397604 4.000000
3.226696 5.493179 1.238350 18.000000
2.592444 4.411654 -0.268169 1.000000
3.242273 5.515289 1.477029 18.000000
2.934859 4.992360 -0.101084 2.000000
3.257239 5.538535 1.721664 22.000000
1.508797 2.557345 -0.795610 9.000000
3.235340 5.483763 0.111137 2.000000
1.616537 2.738868 -0.734240 9.000000
3.270883 5.539587 0.337148 14.000000
1.761342 2.981827 -0.673174 8.000000
3.282068 5.554101 0.564421 18.000000
1.907404 3.227817 -0.593825 8.000000
3.281115 5.550276 0.791663 13.000000
2.102839 3.555705 -0.507220 6.000000
3.290119 5.561075 1.023394 17.000000
2.312745 3.907527 -0.397256 4.000000
3.295892 5.568615 1.257813 18.000000
2.586709 4.368661 -0.266076 1.000000
3.323113 5.610138 1.505373 20.000000
2.946150 4.971763 -0.100875 2.000000
3.330737 5.618529 1.750134 25.000000
1.515294 2.549007 -0.794574 9.000000
3.291258 5.534310 0.112394 2.000000
1.630074 2.739907 -0.736040 9.000000
3.350466 5.629397 0.343324 15.000000
1.769210 2.972597 -0.672411 8.000000
3.359586 5.642478 0.574531 16.000000
1.919671 3.222835 -0.594138 8.000000
3.353308 5.627466 0.804338 11.000000
2.115237 3.548344 -0.507220 5.000000
3.370218 5.651350 1.042166 17.000000
2.314466 3.881012 -0.395338 4.000000
3.375663 5.658236 1.280710 18.000000
2.610130 4.373326 -0.266913 1.000000
3.390629 5.678816 1.526968 19.000000
2.963488 4.961448 -0.100875 2.000000
3.401856 5.693103 1.777052 8.000000
1.526169 2.547016 -0.795610 9.000000
3.410286 5.689157 0.115779 15.000000
1.633614 2.724173 -0.733340 9.000000
3.426609 5.711865 0.349081 13.000000
1.777557 2.963036 -0.671648 8.000000
3.442830 5.736634 0.585338 17.000000
1.934976 3.222890 -0.595390 8.000000
3.444480 5.734846 0.821399 11.000000
2.117386 3.523924 -0.504783 6.000000
3.440808 5.724205 1.057810 17.000000
2.333130 3.881448 -0.396210 4.000000
3.463178 5.759145 1.306278 19.000000
2.621260 4.357343 -0.266495 1.000000
2.974599 4.940795 -0.100665 2.000000
1.529059 2.531751 -0.792504 9.000000
3.443566 5.699469 0.116233 2.000000
1.648154 2.726793 -0.735590 9.000000
3.509587 5.806445 0.355571 13.000000
1.782810 2.948413 -0.669740 7.000000
3.516455 5.813230 0.594402 19.000000
1.945192 3.214425 -0.595077 8.000000
3.518964 5.812789 0.834318 10.000000
2.131730 3.519907 -0.505270 5.000000
9.205586 15.200244 2.814569 29.000000
2.340472 3.863056 -0.395164 4.000000
2.636454 4.348167 -0.266495 1.000000
2.976449 4.906967 -0.100177 2.000000
1.531859 2.516497 -0.789398 10.000000
3.460369 5.684601 0.116163 2.000000
1.656173 2.719648 -0.735140 10.000000
3.597375 5.905028 0.362374 14.000000
1.795134 2.945525 -0.670503 8.000000
3.605180 5.913194 0.605907 14.000000
1.946586 3.192778 -0.592261 7.000000
3.618845 5.933279 0.853329 1.000000
2.141324 3.509429 -0.504783 4.000000
9.257565 15.166330 2.814256 97.000000
2.346672 3.842959 -0.393944 3.000000
2.650859 4.339399 -0.266495 1.000000
2.991472 4.893135 -0.100107 2.000000
1.548275 2.524579 -0.793539 9.000000
3.492742 5.692941 0.116582 2.000000
1.657501 2.700563 -0.731541 9.000000
3.660815 5.964560 0.366770 3.000000
1.801810 2.934537 -0.669358 8.000000
5.097203 8.298358 0.852035 1.000000
1.954617 3.180914 -0.591322 8.000000
6.683394 10.872211 1.566996 2.000000
2.159801 3.512078 -0.506245 5.000000
9.305742 15.132180 2.813631 97.000000
2.364624 3.843641 -0.394816 4.000000
2.665992 4.330119 -0.266495 1.000000
3.007683 4.883187 -0.100107 2.000000
1.553016 2.512585 -0.791469 9.000000
3.496881 5.657514 0.116093 2.000000
1.663372 2.690080 -0.730191 7.000000
4.144968 6.700808 0.412931 1.000000
1.814109 2.931568 -0.670121 8.000000
5.121938 8.273742 0.851337 1.000000
1.969311 3.181134 -0.592574 8.000000
6.719413 10.849986 1.566996 2.000000
2.165162 3.494772 -0.504783 7.000000
9.357456 15.097933 2.813318 97.000000
2.379076 3.837057 -0.394990 4.000000
2.667702 4.300888 -0.265239 1.000000
3.031037 4.882853 -0.100316 2.000000
1.565862 2.513708 -0.793539 9.000000
3.511246 5.634477 0.115884 2.000000
1.676315 2.688925 -0.731541 9.000000
4.169499 6.685572 0.412931 1.000000
1.818097 2.915223 -0.667832 7.000000
5.150790 8.255812 0.851337 1.000000
1.977822 3.168866 -0.591635 7.000000
6.759133 10.825287 1.566996 2.000000
2.169543 3.473345 -0.502833 5.000000
9.404366 15.050124 2.810815 97.000000
2.393512 3.830419 -0.395164 4.000000
2.670739 4.270761 -0.263983 1.000000
3.029817 4.841200 -0.099688 2.000000
1.562302 2.488592 -0.787328 11.000000
3.537275 5.632346 0.116093 2.000000
1.692946 2.694610 -0.734690 7.000000
4.192812 6.670976 0.412931 1.000000
1.832442 2.915507 -0.669358 8.000000
5.175336 8.231032 0.850640 3.000000
1.990973 3.165289 -0.592261 7.000000
2.181654 3.465750 -0.502833 5.000000
9.447360 15.002170 2.807999 97.000000
2.404742 3.818670 -0.394816 4.000000
2.702670 4.288447 -0.265657 1.000000
3.040298 4.820446 -0.099479 2.000000
1.577177 2.492919 -0.790433 11.000000
3.548358 5.606447 0.115814 2.000000
1.700258 2.685390 -0.733790 9.000000
4.216074 6.656298 0.412931 1.000000
1.838406 2.902458 -0.667832 7.000000
5.182707 8.179259 0.847154 1.000000
1.993550 3.144972 -0.589758 8.000000
6.806907 10.734244 1.560659 2.000000
2.193738 3.458114 -0.502833 5.000000
9.498614 14.967428 2.807686 87.000000
2.412720 3.801840 -0.393944 4.000000
2.711197 4.268871 -0.265029 1.000000
3.057107 4.809803 -0.099479 2.000000
1.583791 2.484141 -0.789398 11.000000
3.570058 5.597398 0.115884 2.000000
1.702283 2.667939 -0.730641 9.000000
4.239279 6.641544 0.412931 1.000000
1.853806 2.904299 -0.669740 10.000000
5.225168 8.182947 0.849420 3.000000
2.004516 3.137993 -0.589758 8.000000
6.818674 10.670278 1.554809 2.000000
2.218627 3.470505 -0.505758 4.000000
9.547614 14.929188 2.806748 97.000000
2.415243 3.776610 -0.392201 3.000000
2.723930 4.256017 -0.264820 1.000000
3.082503 4.812575 -0.099758 2.000000
1.592453 2.478597 -0.789398 11.000000
3.580924 5.571445 0.115605 2.000000
1.704209 2.650507 -0.727492 7.000000
4.262438 6.626704 0.412931 1.000000
1.863933 2.897810 -0.669740 10.000000
5.239683 8.142878 0.847154 1.000000
2.018665 3.135961 -0.590697 8.000000
6.832237 10.609692 1.549447 2.000000
2.217827 3.442714 -0.502833 4.000000
9.592175 14.884150 2.804558 86.000000
2.438124 3.783229 -0.393770 4.000000
2.736606 4.243124 -0.264611 1.000000
3.092778 4.791705 -0.099549 2.000000
7.804886 12.087626 3.855369 64.000000
1.605294 2.479511 -0.791469 11.000000
3.596001 5.552198 0.115465 2.000000
1.717690 2.651083 -0.729291 7.000000
4.285542 6.611786 0.412931 1.000000
1.869765 2.884696 -0.668213 10.000000
5.259402 8.111166 0.845759 1.000000
2.026375 3.123923 -0.589758 8.000000
6.838972 10.539154 1.542622 2.000000
2.227668 3.431622 -0.502346 5.000000
9.637621 14.840631 2.802680 86.000000
2.455656 3.781378 -0.394467 4.000000
7.964952 12.260275 2.841909 34.000000
2.751397 4.233548 -0.264611 1.000000
7.896512 12.145632 3.344572 76.000000
3.094221 4.757411 -0.099060 2.000000
7.841756 12.052218 3.852780 92.000000
1.609718 2.467420 -0.789398 11.000000
3.635034 5.569755 0.116093 2.000000
1.730129 2.649967 -0.730641 9.000000
4.308598 6.596786 0.412931 1.000000
1.874456 2.869933 -0.666305 9.000000
5.283326 8.086084 0.845062 1.000000
2.040509 3.121791 -0.590697 8.000000
8.179381 12.508936 1.835109 3.000000
2.239634 3.423824 -0.502346 4.000000
8.058245 12.314291 2.330874 53.000000
2.461204 3.761114 -0.393247 4.000000
8.002326 12.224182 2.840001 76.000000
2.759594 4.213892 -0.263983 1.000000
7.939925 12.119627 3.345022 70.000000
3.130540 4.776686 -0.099688 2.000000
7.871070 12.005383 3.846569 83.000000
1.614077 2.455328 -0.787328 12.000000
3.630280 5.520275 0.115326 2.000000
1.745794 2.653680 -0.733340 9.000000
4.331600 6.581704 0.412931 1.000000
1.886622 2.866652 -0.667068 7.000000
8.251040 12.532395 1.312740 4.000000
2.043787 3.103102 -0.588507 7.000000
8.201156 12.447153 1.830234 3.000000
2.249386 3.412671 -0.501858 4.000000
8.099003 12.282791 2.330248 59.000000
2.465543 3.739194 -0.391852 3.000000
8.037384 12.184702 2.837330 70.000000
2.772086 4.200901 -0.263773 1.000000
7.976811 12.083707 3.342773 70.000000
3.144992 4.762391 -0.099618 2.000000
7.907602 11.969776 3.843981 87.000000
1.622637 2.449679 -0.787328 11.000000
3.649529 5.507568 0.115326 2.000000
1.744279 2.631327 -0.728841 9.000000
8.368014 12.618752 0.793518 3.000000
1.902042 2.868230 -0.668976 10.000000
8.283725 12.486913 1.310997 4.000000
2.050238 3.089365 -0.587255 7.000000
8.235767 12.405221 1.828284 3.000000
2.265679 3.411413 -0.502833 5.000000
8.141831 12.254443 2.330248 59.000000
2.485196 3.740521 -0.392898 3.000000
8.078778 12.154938 2.836948 73.000000
2.786734 4.191198 -0.263773 1.000000
8.020025 12.057409 3.343223 70.000000
3.148303 4.731407 -0.099199 2.000000
7.949339 11.942098 3.843981 87.000000
1.631178 2.444000 -0.787328 11.000000
3.677613 5.508101 0.115605 2.000000
1.746960 2.615499 -0.726142 9.000000
8.392036 12.559575 0.791634 3.000000
1.910951 2.859941 -0.668595 10.000000
8.321723 12.449639 1.310125 6.000000
2.063205 3.085474 -0.587881 7.000000
8.261358 12.349998 1.824384 3.000000
2.275364 3.400184 -0.502346 6.000000
8.186753 12.229234 2.330874 53.000000
2.493804 3.725201 -0.392201 4.000000
8.113514 12.115243 2.834277 78.000000
2.792455 4.168169 -0.262936 1.000000
8.053383 12.016393 3.339623 70.000000
3.162573 4.717066 -0.099130 2.000000
7.993133 11.917484 3.845016 92.000000
1.646167 2.447911 -0.790433 12.000000
3.699052 5.498548 0.115675 2.000000
1.760431 2.615851 -0.727942 9.000000
8.440332 12.541617 0.792262 3.000000
1.916536 2.846740 -0.667068 9.000000
8.369585 12.427125 1.310822 6.000000
2.078378 3.084805 -0.589132 7.000000
8.302197 12.317797 1.823897 3.000000
2.281671 3.383991 -0.501127 7.000000
8.219534 12.190550 2.328684 59.000000
2.505679 3.714821 -0.392027 4.000000
8.153550 12.083597 2.833514 78.000000
2.811456 4.165019 -0.263355 1.000000
8.090919 11.981746 3.337824 70.000000
3.175958 4.703238 -0.099060 2.000000
8.028275 11.884514 3.842945 87.000000
1.643866 2.426156 -0.785257 13.000000
3.721751 5.492874 0.115814 2.000000
1.769096 2.610000 -0.727942 9.000000
8.477332 12.502162 0.791634 3.000000
1.926462 2.840032 -0.667068 7.000000
8.400610 12.379696 1.308905 6.000000
2.093034 3.084434 -0.590384 7.000000
8.343001 12.290195 1.823897 3.000000
2.289534 3.371480 -0.500396 5.000000
8.254271 12.150345 2.326494 59.000000
2.516390 3.702757 -0.391678 4.000000
8.191372 12.053244 2.832751 81.000000
2.829744 4.162281 -0.263773 1.000000
8.126228 11.948401 3.336024 73.000000
3.187856 4.685511 -0.098920 2.000000
8.059931 11.842043 3.838287 92.000000
1.649725 2.417500 -0.784222 11.000000
3.736393 5.473241 0.115675 2.000000
1.782591 2.610246 -0.729741 10.000000
8.509658 12.456001 0.790587 3.000000
1.933655 2.830385 -0.666305 7.000000
8.437118 12.345193 1.308208 4.000000
2.094867 3.064065 -0.587881 7.000000
8.388095 12.264273 1.824384 3.000000
2.305773 3.370020 -0.501371 6.000000
8.291045 12.113312 2.324929 59.000000
2.520776 3.682883 -0.390458 4.000000
8.227853 12.016475 2.830842 84.000000
2.851028 4.162263 -0.264401 1.000000
8.166777 11.918361 3.335574 78.000000
3.195149 4.661159 -0.098641 2.000000
8.099036 11.810648 3.837251 90.000000
1.658152 2.411727 -0.784222 11.000000
3.730544 5.423919 0.114907 2.000000
1.785065 2.594374 -0.727042 9.000000
8.557606 12.432806 0.791006 3.000000
1.942408 2.822002 -0.665923 9.000000
8.479026 12.314027 1.308033 4.000000
2.096586 3.043719 -0.585378 7.000000
8.424100 12.225109 1.822922 3.000000
2.319776 3.365220 -0.501858 6.000000
8.333282 12.084295 2.324929 59.000000
2.534749 3.675702 -0.390632 4.000000
8.267522 11.984447 2.830079 91.000000
2.836044 4.109547 -0.261680 1.000000
8.211654 11.894589 3.336924 73.000000
3.209128 4.646686 -0.098571 2.000000
8.135818 11.775949 3.835181 92.000000
1.670961 2.412277 -0.786292 11.000000
3.754012 5.417438 0.115046 2.000000
1.794109 2.588128 -0.727042 9.000000
8.596404 12.396293 0.790587 3.000000
1.955604 2.820044 -0.667068 7.000000
8.526504 12.290901 1.308731 4.000000
2.116207 3.049366 -0.587881 7.000000
8.459921 12.185851 1.821459 3.000000
2.320186 3.340797 -0.499421 6.000000
8.376537 12.056756 2.325242 59.000000
2.555521 3.678286 -0.391852 3.000000
8.307056 11.952296 2.829316 91.000000
2.854934 4.106181 -0.262098 1.000000
8.244225 11.853052 3.333325 73.000000
3.236746 4.651872 -0.098920 2.000000
8.177982 11.749062 3.835698 94.000000
1.686006 2.415934 -0.789398 10.000000
3.772895 5.404304 0.115046 2.000000
1.800902 2.578654 -0.726142 9.000000
8.644201 12.372756 0.791006 3.000000
1.958690 2.803544 -0.664779 7.000000
8.557933 12.244738 1.306987 4.000000
2.116652 3.027389 -0.585065 7.000000
8.516063 12.175762 1.824384 3.000000
2.334107 3.335932 -0.499908 5.000000
8.408381 12.012877 2.322426 59.000000
2.564919 3.664445 -0.391329 4.000000
8.347604 11.921617 2.828934 89.000000
2.876122 4.106008 -0.262727 1.000000
8.278838 11.814629 3.330625 73.000000
3.248374 4.633995 -0.098781 2.000000
8.217833 11.718863 3.835181 90.000000
1.689984 2.403713 -0.787328 10.000000
3.800942 5.404185 0.115326 2.000000
1.814378 2.578726 -0.727942 10.000000
8.682736 12.335977 0.790587 3.000000
1.967334 2.795085 -0.664397 6.000000
8.600626 12.214787 1.306987 4.000000
2.139721 3.037746 -0.588507 7.000000
8.529924 12.105397 1.818291 6.000000
2.345738 3.327763 -0.499908 5.000000
8.444573 11.975379 2.320862 59.000000
2.578843 3.657097 -0.391504 4.000000
