# This PCD file was generated using the MATLAB® pcwrite function
# from Computer Vision Toolbox®.
# .PCD v.7 - Point Cloud Data file format
VERSION .7
FIELDS x y z intensity
SIZE 4 4 4 4
TYPE F F F F
COUNT 1 1 1 1
WIDTH 1284
HEIGHT 1
VIEWPOINT 0 0 0 1 0 0 0
POINTS 1284
DATA ascii
5.891088 3.847680 1.367719 21.000000
4.274601 2.790833 -0.267541 1.000000
5.876610 3.835302 1.620097 18.000000
4.796631 3.129269 -0.099967 2.000000
5.857753 3.820081 1.873850 22.000000
2.471284 1.607325 -0.789916 11.000000
5.582797 3.629667 0.116233 2.000000
2.666656 1.733071 -0.734240 9.000000
5.903853 3.835476 0.368969 18.000000
2.890967 1.878135 -0.670121 8.000000
5.871748 3.813157 0.612531 17.000000
3.133156 2.033919 -0.591635 7.000000
5.866554 3.806877 0.858692 10.000000
3.460711 2.244836 -0.506489 3.000000
5.852423 3.794805 1.104740 15.000000
3.796465 2.461689 -0.395861 3.000000
5.820461 3.772638 1.348256 20.000000
4.277613 2.771550 -0.267123 1.000000
5.831080 3.776627 1.603901 18.000000
4.854524 3.142940 -0.100945 2.000000
5.793205 3.749227 1.849003 22.000000
2.486338 1.605408 -0.793022 10.000000
5.680487 3.666440 0.118013 2.000000
2.665838 1.719992 -0.732441 9.000000
5.837654 3.764997 0.364049 16.000000
2.907079 1.874922 -0.672411 8.000000
5.822402 3.753721 0.606081 16.000000
3.143205 2.025658 -0.592261 7.000000
5.805719 3.740098 0.847967 10.000000
3.449777 2.221526 -0.503808 3.000000
5.785248 3.724053 1.089723 15.000000
3.804608 2.449085 -0.395861 3.000000
5.768552 3.711882 1.333373 20.000000
4.290140 2.759511 -0.267332 1.000000
5.753417 3.699305 1.579156 20.000000
4.844734 3.113848 -0.100526 2.000000
5.742218 3.689271 1.828815 20.000000
2.495180 1.598804 -0.794057 10.000000
5.673044 3.633648 0.117594 2.000000
2.678391 1.714880 -0.734240 9.000000
5.770015 3.692916 0.359025 17.000000
2.903685 1.858412 -0.670121 8.000000
5.763302 3.687205 0.598586 17.000000
3.163569 2.023188 -0.594764 7.000000
5.753512 3.678109 0.838461 10.000000
3.460855 2.211609 -0.504295 3.000000
5.734952 3.663428 1.077834 15.000000
3.829924 2.446516 -0.397604 3.000000
5.715287 3.649459 1.318109 19.000000
4.286277 2.735923 -0.266495 1.000000
5.695653 3.634127 1.559811 17.000000
4.852202 3.094766 -0.100456 2.000000
5.691532 3.628702 1.808628 21.000000
2.494225 1.585938 -0.791986 11.000000
5.628314 3.577351 0.116408 5.000000
2.684361 1.705519 -0.734240 9.000000
5.708687 3.625639 0.354419 14.000000
2.913469 1.850371 -0.670884 8.000000
5.692036 3.613670 0.589870 16.000000
3.170613 2.012132 -0.594764 7.000000
5.695913 3.613342 0.828224 11.000000
3.480289 2.206956 -0.506002 3.000000
5.665953 3.591564 1.062503 17.000000
3.838441 2.433131 -0.397604 3.000000
5.668290 3.591659 1.304370 19.000000
4.312675 2.731631 -0.267541 1.000000
5.650679 3.577736 1.544064 19.000000
4.886631 3.092783 -0.100945 2.000000
5.627434 3.560267 1.784299 21.000000
2.493210 1.573099 -0.789916 11.000000
5.617087 3.542749 0.115919 2.000000
2.700188 1.702375 -0.736940 9.000000
5.663858 3.569486 0.350860 16.000000
2.929875 1.846470 -0.673174 10.000000
5.642241 3.554487 0.583421 17.000000
3.180960 2.003159 -0.595390 7.000000
5.648012 3.555368 0.819450 11.000000
3.498053 2.201136 -0.507464 3.000000
5.614915 3.531799 1.050614 17.000000
3.823300 2.404867 -0.395164 3.000000
5.599354 3.520644 1.285671 19.000000
4.335711 2.725061 -0.268379 1.000000
5.590528 3.512375 1.524268 19.000000
4.904171 3.079959 -0.101084 2.000000
5.566202 3.494379 1.761005 21.000000
2.511785 1.572588 -0.794057 10.000000
5.612469 3.512510 0.115570 2.000000
2.706115 1.692939 -0.736940 9.000000
5.611933 3.509453 0.346883 17.000000
2.936302 1.836233 -0.673174 10.000000
5.590416 3.494637 0.576797 16.000000
3.181232 1.987855 -0.594138 7.000000
5.582940 3.487257 0.808238 11.000000
3.505715 2.188913 -0.507464 3.000000
5.573586 3.478707 1.040602 17.000000
3.845611 2.399276 -0.396559 3.000000
5.549978 3.462630 1.271551 18.000000
4.321472 2.695115 -0.266913 1.000000
5.553144 3.461910 1.510771 18.000000
4.914892 3.062823 -0.101084 2.000000
5.516055 3.436115 1.741335 20.000000
2.524097 1.567448 -0.796127 10.000000
5.573731 3.461250 0.114523 2.000000
2.702073 1.677316 -0.734240 9.000000
5.559661 3.449825 0.342905 15.000000
2.946351 1.827526 -0.673937 8.000000
5.540533 3.435278 0.570347 15.000000
3.203608 1.985548 -0.596954 6.000000
5.529275 3.426962 0.798732 13.000000
3.506585 2.172479 -0.506489 3.000000
5.521876 3.419709 1.028713 17.000000
3.881068 2.402616 -0.399348 3.000000
5.494186 3.399904 1.255905 20.000000
4.338114 2.683461 -0.267332 1.000000
5.479606 3.388241 1.487376 20.000000
4.939159 3.054062 -0.101364 2.000000
5.475431 3.384335 1.724770 18.000000
2.529553 1.558628 -0.796127 11.000000
5.518275 3.398849 0.113127 2.000000
2.713181 1.670466 -0.735590 7.000000
5.488922 3.378131 0.337776 21.000000
2.946023 1.813116 -0.672411 8.000000
5.491401 3.378332 0.564072 16.000000
3.202106 1.969179 -0.595390 7.000000
5.484300 3.371329 0.790445 13.000000
3.514524 2.159613 -0.506489 3.000000
5.460314 3.353955 1.014947 17.000000
3.875849 2.380710 -0.397953 3.000000
5.445788 3.343727 1.242167 16.000000
4.374691 2.685017 -0.269007 1.000000
5.434926 3.334442 1.472080 18.000000
4.950319 3.035940 -0.101364 2.000000
5.431800 3.329916 1.707170 20.000000
2.528385 1.545757 -0.794057 10.000000
5.461854 3.337854 0.111730 2.000000
2.737288 1.672160 -0.740539 9.000000
5.437611 3.320436 0.333903 19.000000
2.948983 1.800774 -0.671648 8.000000
5.433436 3.316581 0.556925 16.000000
3.224136 1.967250 -0.598205 6.000000
5.431635 3.312884 0.781183 13.000000
3.535601 2.155598 -0.508439 3.000000
5.404515 3.293755 1.002432 17.000000
3.880733 2.365093 -0.397604 3.000000
5.405453 3.293033 1.230337 18.000000
4.370390 2.661418 -0.268169 1.000000
5.388270 3.279987 1.456333 18.000000
4.971137 3.024877 -0.101573 2.000000
5.370769 3.266761 1.684394 20.000000
2.527158 1.532915 -0.791986 10.000000
5.411913 3.281448 0.110474 2.000000
2.743109 1.662594 -0.740539 9.000000
5.407600 3.277539 0.331391 16.000000
2.960288 1.793522 -0.672793 7.000000
5.388739 3.263539 0.551173 13.000000
3.222535 1.950868 -0.596641 7.000000
5.390519 3.262042 0.773627 14.000000
3.535936 2.139752 -0.507464 3.000000
5.361320 3.243098 0.992420 19.000000
3.912835 2.365965 -0.400045 3.000000
5.344667 3.230474 1.213927 17.000000
4.393328 2.654412 -0.269007 3.000000
5.332400 3.221792 1.438337 16.000000
5.008529 3.024915 -0.102131 2.000000
5.328649 3.216984 1.667830 16.000000
2.545468 1.532498 -0.796127 11.000000
5.330245 3.207801 0.108589 7.000000
2.741928 1.649471 -0.738739 9.000000
5.353404 3.220467 0.327414 18.000000
2.976314 1.789766 -0.675082 8.000000
5.341473 3.210750 0.545246 16.000000
3.225600 1.938136 -0.596015 7.000000
5.340042 3.207356 0.764852 15.000000
3.556624 2.136194 -0.509414 3.000000
5.326320 3.197846 0.983973 19.000000
3.917243 2.350927 -0.399696 3.000000
5.286323 3.171327 1.198281 17.000000
4.395256 2.635719 -0.268588 3.000000
5.299602 3.178032 1.426640 16.000000
5.032253 3.016516 -0.102411 2.000000
5.277975 3.162555 1.648677 18.000000
2.550537 1.524048 -0.796127 10.000000
5.301366 3.166524 0.107786 21.000000
2.740690 1.636373 -0.736940 9.000000
5.313161 3.171053 0.324274 16.000000
2.977486 1.776348 -0.673937 8.000000
5.295626 3.159335 0.539494 15.000000
3.240493 1.932487 -0.597580 6.000000
5.284150 3.149988 0.755346 15.000000
3.574292 2.129862 -0.510876 3.000000
5.272960 3.140820 0.972084 21.000000
3.942544 2.347432 -0.401439 3.000000
5.261934 3.131768 1.190267 17.000000
4.397564 2.616275 -0.268169 1.000000
5.243673 3.119657 1.408643 20.000000
5.056501 3.007110 -0.102690 2.000000
5.237501 3.113513 1.632631 18.000000
2.569401 1.522568 -0.800269 10.000000
5.269924 3.121595 0.106913 28.000000
2.756730 1.632274 -0.739639 9.000000
5.255998 3.110866 0.320087 16.000000
2.985666 1.766423 -0.674319 7.000000
5.255727 3.109470 0.534265 15.000000
3.254355 1.924620 -0.598831 6.000000
5.242687 3.099282 0.747790 14.000000
3.551312 2.098568 -0.506489 3.000000
5.226608 3.087315 0.961446 19.000000
3.944258 2.328913 -0.400742 3.000000
5.210821 3.075537 1.176147 17.000000
4.417444 2.606230 -0.268797 1.000000
5.187935 3.060809 1.390647 19.000000
5.039930 2.972302 -0.102131 2.000000
5.202281 3.066825 1.618137 18.000000
2.561640 1.505311 -0.796127 9.000000
5.234777 3.074909 0.105971 28.000000
2.761013 1.621174 -0.739189 7.000000
5.211711 3.060140 0.316737 16.000000
2.985041 1.752015 -0.672793 7.000000
5.205225 3.053886 0.527989 19.000000
3.249459 1.905685 -0.596641 7.000000
5.195785 3.045913 0.739503 15.000000
3.577453 2.097202 -0.509170 3.000000
5.179407 3.035094 0.950809 21.000000
3.945487 2.311104 -0.400045 3.000000
5.172392 3.028562 1.165080 16.000000
4.440305 2.598864 -0.269635 1.000000
5.156543 3.018070 1.379400 17.000000
5.043370 2.950654 -0.101992 2.000000
5.136243 3.003786 1.594325 19.000000
2.566618 1.496807 -0.796127 10.000000
5.175839 3.017253 0.104575 27.000000
2.776477 1.617895 -0.741889 7.000000
5.166610 3.010661 0.313388 18.000000
3.002710 1.749023 -0.675464 8.000000
5.155059 3.001524 0.521889 16.000000
3.264297 1.899866 -0.598205 6.000000
5.156098 2.999716 0.732435 15.000000
3.589536 2.088321 -0.509901 3.000000
5.133091 2.985132 0.940484 21.000000
3.960020 2.302011 -0.400742 3.000000
5.129786 2.980814 1.153250 17.000000
4.448899 2.584126 -0.269635 1.000000
5.115970 2.971592 1.365903 21.000000
5.058316 2.936924 -0.102097 4.000000
5.089368 2.953766 1.576726 19.000000
2.578255 1.492159 -0.798198 9.000000
5.130429 2.968028 0.103458 27.000000
2.768330 1.600875 -0.738289 7.000000
5.132129 2.966621 0.310666 18.000000
3.018692 1.744951 -0.677754 8.000000
5.108057 2.951517 0.516136 16.000000
3.265447 1.886068 -0.597267 6.000000
5.111004 2.950841 0.724635 15.000000
3.603681 2.079749 -0.510876 3.000000
5.083592 2.932649 0.929534 20.000000
3.960728 2.284885 -0.400045 3.000000
5.076714 2.927500 1.139130 19.000000
4.467824 2.575344 -0.270263 1.000000
5.073966 2.923557 1.351956 19.000000
5.058139 2.913262 -0.101887 4.000000
5.059468 2.912848 1.564302 19.000000
2.590149 1.486998 -0.800269 9.000000
5.083523 2.917255 0.102306 24.000000
2.763760 1.585383 -0.735590 7.000000
5.076612 2.910937 0.306689 20.000000
3.019655 1.731474 -0.676609 7.000000
5.083757 2.913852 0.512650 17.000000
3.273726 1.875639 -0.597580 6.000000
5.062705 2.899441 0.716348 15.000000
3.607474 2.065183 -0.510389 3.000000
5.052650 2.891338 0.922025 20.000000
4.006724 2.292815 -0.403880 3.000000
5.037481 2.881494 1.128063 16.000000
4.483723 2.563697 -0.270682 1.000000
5.023233 2.871014 1.335759 17.000000
5.066541 2.894597 -0.101852 2.000000
5.020955 2.867387 1.549291 17.000000
2.595325 1.477947 -0.800269 9.000000
5.045014 2.871794 0.101329 29.000000
2.786214 1.585364 -0.740089 9.000000
5.031188 2.861599 0.303339 20.000000
3.022267 1.718981 -0.675846 7.000000
5.035008 2.862608 0.506723 17.000000
3.297427 1.873961 -0.600708 6.000000
5.022740 2.853314 0.709280 17.000000
3.614660 2.052579 -0.510389 3.000000
4.999148 2.837605 0.910449 22.000000
4.000841 2.270948 -0.402485 3.000000
5.003113 2.838701 1.118141 18.000000
4.492645 2.548031 -0.270682 1.000000
4.977280 2.821748 1.320913 17.000000
4.982668 2.823653 -0.099967 2.000000
4.978825 2.820327 1.533244 19.000000
2.600467 1.468879 -0.800269 10.000000
5.016699 2.832537 0.100561 31.000000
2.795126 1.577544 -0.740989 7.000000
4.988961 2.814577 0.300199 20.000000
3.023120 1.705526 -0.674701 8.000000
4.989435 2.813699 0.501146 16.000000
3.303948 1.862438 -0.600708 6.000000
4.985976 2.809452 0.702699 15.000000
3.621803 2.039950 -0.510389 3.000000
4.964270 2.794939 0.902314 20.000000
4.015689 2.260877 -0.403182 3.000000
4.970219 2.797146 1.108600 18.000000
4.511955 2.538210 -0.271310 1.000000
4.942937 2.779521 1.309215 19.000000
4.933226 2.772927 -0.098781 2.000000
4.929691 2.769811 1.515127 17.000000
2.598838 1.456015 -0.798198 10.000000
4.958513 2.776901 0.099199 34.000000
2.810817 1.573491 -0.743688 7.000000
4.960410 2.775690 0.297896 20.000000
3.041048 1.701675 -0.677372 7.000000
4.947060 2.767086 0.495916 19.000000
3.303531 1.847040 -0.599457 6.000000
4.962828 2.773631 0.698068 17.000000
3.651431 2.039880 -0.513557 3.000000
4.923979 2.749664 0.893241 20.000000
3.999592 2.232549 -0.400742 3.000000
4.930239 2.752031 1.097533 21.000000
4.492883 2.506873 -0.269635 3.000000
4.911763 2.739467 1.298417 19.000000
4.876504 2.718689 -0.097454 2.000000
4.888705 2.724373 1.499598 21.000000
2.607534 1.448357 -0.799233 9.000000
4.913982 2.729475 0.098117 25.000000
2.812885 1.561777 -0.742788 7.000000
4.922919 2.732188 0.295070 22.000000
3.047264 1.690518 -0.677372 7.000000
4.908381 2.721882 0.491035 22.000000
3.310280 1.834918 -0.599457 6.000000
4.904768 2.718756 0.688562 19.000000
3.642901 2.018464 -0.511364 3.000000
4.893802 2.710448 0.886045 21.000000
4.031765 2.232084 -0.403182 3.000000
4.876734 2.698771 1.083414 16.000000
4.564957 2.525194 -0.273403 1.000000
4.874019 2.695044 1.285820 17.000000
4.885965 2.701649 -0.097454 2.000000
4.850844 2.681124 1.485104 21.000000
2.615958 1.441110 -0.800269 9.000000
4.881914 2.688295 0.097280 25.000000
2.808347 1.545819 -0.740089 7.000000
4.880403 2.685243 0.291930 21.000000
3.056587 1.681763 -0.678135 8.000000
4.888175 2.688408 0.488072 20.000000
3.328781 1.830015 -0.601647 5.000000
4.865987 2.673994 0.681737 17.000000
3.658975 2.009876 -0.512583 3.000000
4.858683 2.667775 0.877910 21.000000
4.018572 2.206492 -0.401091 3.000000
4.844820 2.659060 1.074255 19.000000
4.545727 2.493872 -0.271728 1.000000
4.833844 2.650844 1.272773 19.000000
4.825693 2.645275 -0.096058 2.000000
4.816589 2.639192 1.471645 17.000000
2.627755 1.435674 -0.802339 9.000000
4.852657 2.650152 0.096512 25.000000
2.823989 1.541608 -0.742788 7.000000
4.833644 2.637576 0.288581 21.000000
3.069333 1.674844 -0.679662 7.000000
4.838058 2.638892 0.482146 17.000000
3.328212 1.814601 -0.600396 6.000000
4.824744 2.629442 0.674669 16.000000
3.672940 2.000890 -0.513557 3.000000
4.815921 2.622457 0.868524 21.000000
4.064746 2.213413 -0.404926 3.000000
4.804066 2.614912 1.063188 22.000000
4.575457 2.489444 -0.272984 1.000000
4.795134 2.607883 1.260176 19.000000
4.790976 2.604536 -0.095185 6.000000
4.785034 2.600226 1.459222 17.000000
2.622558 1.420972 -0.799233 9.000000
4.817920 2.609388 0.095639 25.000000
2.829353 1.531741 -0.742788 7.000000
4.802419 2.598828 0.286173 22.000000
3.057893 1.654778 -0.675846 7.000000
4.803430 2.598288 0.477788 23.000000
3.341477 1.806730 -0.601647 6.000000
4.804203 2.596542 0.670525 17.000000
3.667678 1.981452 -0.511851 3.000000
4.767688 2.574654 0.858200 21.000000
4.047904 2.185956 -0.402485 3.000000
4.773428 2.576681 1.054411 19.000000
4.605212 2.484838 -0.274240 1.000000
4.759614 2.567076 1.248478 19.000000
4.766593 2.569769 -0.094522 20.000000
4.746463 2.557845 1.444728 21.000000
2.620695 1.408151 -0.797163 9.000000
4.768863 2.561331 0.094487 24.000000
2.838117 1.523699 -0.743688 7.000000
4.765706 2.557492 0.283452 22.000000
3.074030 1.649663 -0.678135 7.000000
4.759799 2.553252 0.472558 23.000000
3.339058 1.790388 -0.600083 6.000000
4.760749 2.551623 0.663213 19.000000
3.685071 1.974261 -0.513314 3.000000
4.745301 2.541211 0.852568 23.000000
4.073074 2.181219 -0.404228 3.000000
4.733929 2.534058 1.043725 22.000000
4.624424 2.474400 -0.274868 1.000000
4.722149 2.525632 1.236331 19.000000
4.752610 2.540858 -0.094068 22.000000
4.700841 2.512124 1.428164 19.000000
2.639234 1.406262 -0.801304 9.000000
4.733650 2.521169 0.093615 24.000000
2.843418 1.513782 -0.743688 7.000000
4.738901 2.522902 0.281358 22.000000
3.083236 1.640768 -0.678898 7.000000
4.726465 2.514167 0.468375 24.000000
3.348776 1.780576 -0.600708 6.000000
4.724051 2.510768 0.656876 19.000000
3.684927 1.957662 -0.512339 3.000000
4.713578 2.504146 0.845372 23.000000
4.108818 2.181938 -0.407017 3.000000
4.690722 2.489905 1.032277 22.000000
4.615389 2.448884 -0.273822 1.000000
4.696505 2.490871 1.227333 19.000000
4.722145 2.504469 -0.093301 24.000000
4.676716 2.479330 1.418329 22.000000
2.644127 1.397040 -0.801304 10.000000
4.706624 2.486773 0.092917 24.000000
2.841530 1.500705 -0.741889 7.000000
4.705288 2.483967 0.278846 22.000000
3.088945 1.629994 -0.678898 7.000000
4.691156 2.474413 0.464017 19.000000
3.368640 1.776834 -0.603211 6.000000
4.672649 2.463609 0.648589 17.000000
3.686130 1.942654 -0.511608 3.000000
4.669860 2.460056 0.835986 23.000000
4.102306 2.160157 -0.405623 3.000000
4.659000 2.453296 1.023499 25.000000
4.602276 2.422401 -0.272566 3.000000
4.654725 2.448970 1.214286 21.000000
4.684841 2.463771 -0.092393 24.000000
4.639172 2.438720 1.404352 21.000000
2.659011 1.393646 -0.804410 9.000000
4.665679 2.444344 0.091939 26.000000
2.864014 1.499818 -0.746388 7.000000
4.656880 2.438701 0.275497 24.000000
3.097812 1.621564 -0.679662 7.000000
4.669326 2.443139 0.461054 24.000000
3.376572 1.765981 -0.603524 6.000000
4.656591 2.434409 0.645176 21.000000
3.708724 1.938049 -0.513801 3.000000
4.634224 2.421683 0.828164 22.000000
4.112978 2.148387 -0.405971 3.000000
4.639691 2.422479 1.017394 25.000000
4.591228 2.396156 -0.271414 3.000000
4.618322 2.409273 1.202588 21.000000
4.650434 2.426025 -0.091555 24.000000
4.621540 2.409923 1.396588 24.000000
2.657003 1.380793 -0.802339 9.000000
4.636495 2.409497 0.091206 26.000000
2.865514 1.488515 -0.745488 7.000000
4.628141 2.403101 0.273298 24.000000
3.106938 1.612549 -0.680425 7.000000
4.640686 2.407559 0.457393 27.000000
3.378903 1.752954 -0.602898 6.000000
4.629394 2.400675 0.640302 24.000000
3.711605 1.923914 -0.513314 3.000000
4.600554 2.383683 0.820655 24.000000
4.131068 2.139513 -0.407017 3.000000
4.598885 2.381800 1.006708 25.000000
4.615111 2.389182 -0.272356 1.000000
4.586480 2.373345 1.192241 19.000000
4.616247 2.387727 -0.090718 26.000000
4.585306 2.370709 1.383129 24.000000
2.658133 1.370203 -0.801304 9.000000
4.603993 2.372231 0.090403 26.000000
2.874156 1.480289 -0.746388 7.000000
4.602762 2.369563 0.271310 26.000000
3.115759 1.604035 -0.681188 8.000000
4.586637 2.360250 0.451292 23.000000
3.397298 1.747472 -0.605089 6.000000
4.598906 2.364533 0.634939 24.000000
3.725360 1.914576 -0.514289 3.000000
4.571949 2.348653 0.814085 24.000000
4.113698 2.112338 -0.404577 3.000000
4.568750 2.346002 0.998313 25.000000
4.580777 2.351170 -0.269844 1.000000
4.560060 2.339529 1.183243 22.000000
4.587187 2.352435 -0.089985 31.000000
4.531663 2.322965 1.364494 22.000000
2.670019 1.363966 -0.803374 9.000000
4.569508 2.334311 0.089566 28.000000
2.872364 1.466703 -0.744588 7.000000
4.568311 2.331689 0.268797 22.000000
3.128613 1.596172 -0.682715 8.000000
4.552659 2.321700 0.447109 24.000000
3.391360 1.728730 -0.602898 6.000000
4.552307 2.320517 0.627383 22.000000
3.724946 1.897955 -0.513314 3.000000
4.544913 2.314753 0.807828 28.000000
4.142353 2.108813 -0.406669 3.000000
4.528324 2.304311 0.987627 27.000000
4.546638 2.312634 -0.267332 1.000000
4.523439 2.299837 1.171545 26.000000
4.566850 2.321909 -0.089426 31.000000
4.501857 2.287876 1.353106 22.000000
2.685104 1.359875 -0.806480 9.000000
4.536998 2.296775 0.088763 31.000000
2.881199 1.457923 -0.745488 7.000000
4.534052 2.293296 0.266285 27.000000
3.134166 1.585242 -0.682715 7.000000
4.535843 2.293208 0.444669 26.000000
3.402663 1.719553 -0.603837 6.000000
4.512940 2.279652 0.620803 21.000000
3.728333 1.882501 -0.512826 3.000000
4.514571 2.278495 0.800945 24.000000
4.213722 2.126657 -0.412944 1.000000
4.497777 2.269037 0.979232 27.000000
4.511884 2.275166 -0.264820 1.000000
4.480974 2.258596 1.158498 21.000000
4.527112 2.280863 -0.088484 35.000000
4.487781 2.260065 1.346377 24.000000
2.689835 1.350494 -0.806480 9.000000
4.493157 2.254911 0.087751 30.000000
2.893237 1.451354 -0.747287 7.000000
4.500967 2.256864 0.263878 29.000000
3.132660 1.570771 -0.681188 7.000000
4.504635 2.257720 0.440834 28.000000
3.421007 1.713861 -0.606027 5.000000
4.490696 2.248773 0.616659 25.000000
3.754408 1.879248 -0.515507 3.000000
4.481863 2.242396 0.793749 24.000000
4.213991 2.108372 -0.412247 1.000000
4.470552 2.235759 0.971599 30.000000
4.498361 2.248685 -0.263564 1.000000
4.460938 2.229007 1.151299 21.000000
4.484955 2.240027 -0.087506 33.000000
4.457618 2.225402 1.334989 24.000000
2.687614 1.337655 -0.804410 9.000000
4.484887 2.231198 0.087437 26.000000
2.908755 1.446451 -0.749987 7.000000
4.469470 2.221580 0.261575 24.000000
3.152189 1.566817 -0.684241 7.000000
4.467881 2.219820 0.436476 27.000000
3.426969 1.701908 -0.606027 6.000000
4.466514 2.217195 0.612272 27.000000
3.762723 1.867014 -0.515751 3.000000
4.440113 2.202161 0.784988 30.000000
4.225262 2.094680 -0.412595 1.000000
4.446669 2.204443 0.964730 28.000000
4.459652 2.209913 -0.260842 1.000000
4.428527 2.193527 1.140952 27.000000
4.455113 2.205724 -0.086773 37.000000
4.420341 2.187551 1.321530 25.000000
2.692500 1.327793 -0.804410 9.000000
4.444225 2.191648 0.086494 30.000000
2.913786 1.436289 -0.749987 7.000000
4.439573 2.187431 0.259377 26.000000
3.164955 1.558723 -0.685768 7.000000
4.425935 2.178792 0.431595 26.000000
3.429639 1.687593 -0.605401 6.000000
4.435040 2.182312 0.606909 25.000000
3.774562 1.856496 -0.516482 3.000000
4.421183 2.173575 0.780295 28.000000
4.207513 2.067619 -0.410155 1.000000
4.410665 2.166492 0.955190 33.000000
4.424695 2.172426 -0.258330 1.000000
4.401549 2.160110 1.131954 27.000000
4.423291 2.170781 -0.086005 41.000000
4.389794 2.153389 1.310142 25.000000
2.707531 1.323479 -0.807515 9.000000
4.418090 2.158666 0.085831 35.000000
2.915529 1.423889 -0.749087 7.000000
4.411289 2.154390 0.257284 26.000000
3.163319 1.544223 -0.684241 7.000000
4.401283 2.147601 0.428458 26.000000
3.437284 1.676476 -0.605714 6.000000
4.391263 2.140814 0.599841 22.000000
3.777771 1.840911 -0.515995 2.000000
4.400331 2.144284 0.775289 30.000000
4.225452 2.058153 -0.411201 1.000000
4.374071 2.129599 0.945649 28.000000
4.371191 2.127253 -0.254771 4.000000
4.375767 2.128536 1.123406 30.000000
4.403869 2.142205 -0.085482 45.000000
4.360800 2.120311 1.299272 25.000000
2.715612 1.315704 -0.808551 10.000000
4.378434 2.121335 0.084923 33.000000
2.920235 1.414212 -0.749087 7.000000
4.381030 2.120705 0.255085 29.000000
3.173992 1.535736 -0.685386 7.000000
4.385437 2.120946 0.426192 28.000000
3.451717 1.669368 -0.607279 5.000000
4.362594 2.108962 0.594966 27.000000
3.774918 1.824055 -0.514776 3.000000
4.359763 2.105714 0.766842 28.000000
4.243375 2.048589 -0.412247 1.000000
4.343980 2.097159 0.937635 28.000000
4.351239 2.099727 -0.253201 22.000000
4.344187 2.095387 1.113508 27.000000
4.375293 2.109452 -0.084784 39.000000
4.333366 2.088306 1.288919 30.000000
2.723443 1.308364 -0.809586 9.000000
4.356970 2.092187 0.084365 31.000000
2.925153 1.404011 -0.749087 7.000000
4.352026 2.088879 0.252992 30.000000
3.180838 1.526051 -0.685768 7.000000
4.354718 2.088301 0.422531 30.000000
3.461085 1.659017 -0.607904 7.000000
4.335915 2.077423 0.590335 27.000000
3.799166 1.819440 -0.517214 3.000000
4.323963 2.070768 0.759333 31.000000
4.235769 2.027623 -0.410852 1.000000
4.326481 2.070118 0.932293 27.000000
4.349534 2.080215 -0.252678 21.000000
4.314553 2.062561 1.104060 24.000000
4.338966 2.074231 -0.083946 39.000000
4.314122 2.061430 1.281154 30.000000
2.714039 1.292206 -0.805445 9.000000
4.334996 2.063974 0.083806 29.000000
2.936832 1.397653 -0.750887 7.000000
4.323219 2.056516 0.250899 30.000000
3.171962 1.508193 -0.682715 7.000000
4.315194 2.050852 0.417999 31.000000
3.475488 1.651771 -0.609469 6.000000
4.305125 2.045146 0.585217 31.000000
3.817732 1.812791 -0.518920 3.000000
4.299042 2.040417 0.753701 33.000000
4.235620 2.009410 -0.410155 3.000000
4.299620 2.039772 0.925042 30.000000
4.322120 2.049520 -0.250689 21.000000
4.282627 2.029880 1.094162 27.000000
4.310037 2.041950 -0.083248 36.000000
4.275897 2.024860 1.267696 25.000000
2.721803 1.284849 -0.806480 9.000000
4.302388 2.030056 0.083039 33.000000
2.938168 1.385730 -0.749987 7.000000
4.297853 2.026084 0.249015 30.000000
3.191151 1.504365 -0.685768 7.000000
4.278716 2.016148 0.413815 30.000000
3.472298 1.635420 -0.607904 6.000000
4.285298 2.017424 0.581561 27.000000
3.845590 1.809597 -0.521845 3.000000
4.284688 2.015308 0.749947 37.000000
4.224579 1.986135 -0.408412 3.000000
4.267627 2.006374 0.916646 33.000000
4.293095 2.017432 -0.248596 19.000000
4.261466 2.001661 1.086964 28.000000
4.289986 2.014144 -0.082724 38.000000
4.242715 1.991046 1.255790 28.000000
2.726494 1.274863 -0.806480 9.000000
4.269596 1.996392 0.082271 35.000000
2.942987 1.375466 -0.749987 7.000000
4.275947 1.997543 0.247340 27.000000
3.207317 1.497642 -0.688057 7.000000
4.258995 1.987813 0.411201 30.000000
3.478268 1.622683 -0.607904 6.000000
4.247340 1.981471 0.575467 28.000000
3.853682 1.797002 -0.522088 3.000000
4.248725 1.980312 0.742438 35.000000
4.231486 1.971378 -0.408412 4.000000
4.228678 1.969171 0.906724 34.000000
4.267867 1.986514 -0.246712 24.000000
4.236969 1.971233 1.078865 28.000000
4.266168 1.984818 -0.082131 36.000000
4.226867 1.965635 1.249061 30.000000
2.741445 1.270212 -0.809586 9.000000
4.240594 1.963921 0.081573 38.000000
2.948009 1.364669 -0.749987 7.000000
4.244832 1.964985 0.245142 30.000000
3.216088 1.488087 -0.688820 7.000000
4.240592 1.961225 0.408760 34.000000
3.485705 1.611360 -0.608217 6.000000
4.231147 1.955067 0.572298 30.000000
3.842221 1.774542 -0.519651 3.000000
4.226919 1.952216 0.737432 31.000000
4.234724 1.954923 -0.408063 1.000000
4.208786 1.942061 0.901000 33.000000
4.240317 1.955710 -0.244723 25.000000
4.203121 1.937665 1.068517 31.000000
4.244015 1.956518 -0.081573 36.000000
4.202120 1.936317 1.239743 31.000000
2.752885 1.263858 -0.811657 9.000000
4.221641 1.938169 0.081084 36.000000
2.956060 1.356512 -0.750887 7.000000
4.213541 1.932670 0.242944 33.000000
3.217694 1.475214 -0.688057 7.000000
4.214808 1.931471 0.405623 34.000000
3.496416 1.602262 -0.609156 6.000000
4.203317 1.925317 0.567667 31.000000
3.867938 1.770881 -0.522332 3.000000
4.194191 1.919366 0.730549 37.000000
4.219779 1.930185 -0.405971 1.000000
4.179497 1.911760 0.893368 31.000000
4.217716 1.928351 -0.243048 27.000000
4.165214 1.903466 1.057270 27.000000
4.199888 1.918429 -0.080595 36.000000
4.171949 1.904787 1.228873 33.000000
2.746511 1.249920 -0.808551 9.000000
4.193795 1.907689 0.080421 35.000000
2.964325 1.347799 -0.751786 7.000000
4.187533 1.903075 0.241059 31.000000
3.215420 1.461286 -0.686531 7.000000
4.183096 1.900178 0.401962 35.000000
3.514578 1.595764 -0.611346 6.000000
4.177474 1.895865 0.563280 31.000000
3.899406 1.768848 -0.525744 1.000000
4.161285 1.886769 0.723666 36.000000
4.171719 1.891500 -0.400742 1.000000
4.162899 1.886622 0.888407 33.000000
4.198951 1.902078 -0.241583 25.000000
4.145202 1.876861 1.050521 31.000000
4.177411 1.890563 -0.080037 40.000000
4.146891 1.875879 1.219555 33.000000
2.754379 1.241916 -0.809586 9.000000
4.162144 1.875783 0.079688 35.000000
2.969012 1.337442 -0.751786 7.000000
4.168653 1.876969 0.239594 31.000000
3.227660 1.453279 -0.688057 7.000000
4.155183 1.870029 0.398650 34.000000
3.512921 1.580244 -0.610094 6.000000
4.155098 1.868250 0.559380 28.000000
3.880207 1.743835 -0.522332 1.000000
4.144421 1.861708 0.719599 36.000000
4.120139 1.850800 -0.395164 3.000000
4.135430 1.856800 0.881156 36.000000
4.174588 1.873508 -0.239803 22.000000
4.132171 1.853605 1.045573 33.000000
4.154791 1.862879 -0.079478 42.000000
4.104052 1.839272 1.205062 27.000000
2.765753 1.235444 -0.811657 10.000000
4.133974 1.845752 0.079025 39.000000
2.970103 1.325483 -0.750887 7.000000
4.142348 1.847760 0.237710 33.000000
3.243472 1.446802 -0.690347 7.000000
4.127111 1.840097 0.395338 35.000000
3.522024 1.569581 -0.610720 6.000000
4.119888 1.835155 0.553774 30.000000
3.893525 1.733508 -0.523307 1.000000
4.120213 1.833577 0.714280 38.000000
4.097767 1.822732 -0.392375 1.000000
4.102422 1.824802 0.872760 37.000000
4.135477 1.838639 -0.237187 25.000000
4.095876 1.820178 1.034775 34.000000
4.128371 1.833756 -0.078850 42.000000
4.089260 1.815527 1.198850 30.000000
2.770262 1.225300 -0.811657 9.000000
4.118445 1.821607 0.078606 35.000000
2.978276 1.316682 -0.751786 7.000000
4.117716 1.819564 0.235931 34.000000
3.263120 1.441250 -0.693400 7.000000
4.110133 1.814499 0.393072 33.000000
3.524139 1.555066 -0.610094 6.000000
4.095395 1.807138 0.549631 31.000000
3.903184 1.721511 -0.523794 1.000000
4.099476 1.807230 0.709587 40.000000
4.074934 1.795561 -0.389586 1.000000
4.080335 1.797093 0.866655 36.000000
4.112940 1.810594 -0.235512 28.000000
4.070413 1.791025 1.026677 33.000000
4.110953 1.808863 -0.078396 40.000000
4.070814 1.790356 1.191603 33.000000
2.774523 1.215621 -0.811657 9.000000
4.095787 1.793662 0.078047 37.000000
2.990223 1.308884 -0.753586 7.000000
4.089592 1.789250 0.233942 36.000000
3.246547 1.420407 -0.688820 7.000000
4.087234 1.787367 0.390283 33.000000
3.536786 1.545920 -0.611346 6.000000
4.078343 1.781785 0.546462 33.000000
3.905830 1.705602 -0.523307 1.000000
4.059000 1.771648 0.701452 35.000000
4.055921 1.769461 -0.387146 1.000000
4.050594 1.767137 0.859022 37.000000
4.091775 1.784251 -0.233942 28.000000
4.035552 1.758898 1.016329 31.000000
4.069890 1.773019 -0.077489 40.000000
4.045468 1.761538 1.182285 31.000000
2.782504 1.206982 -0.812692 9.000000
4.065331 1.763442 0.077349 37.000000
3.001925 1.301538 -0.755386 9.000000
4.064659 1.761462 0.232162 33.000000
3.258937 1.411621 -0.690347 7.000000
4.057190 1.756544 0.386797 34.000000
3.542429 1.532946 -0.611346 6.000000
4.059032 1.756500 0.543050 34.000000
3.919046 1.695113 -0.524282 1.000000
4.037963 1.745709 0.696759 38.000000
4.009034 1.732372 -0.382091 4.000000
4.039020 1.744496 0.855206 36.000000
4.074449 1.758952 -0.232581 31.000000
4.022290 1.735602 1.011380 36.000000
4.052185 1.748502 -0.077035 40.000000
4.016114 1.732106 1.171933 33.000000
2.779183 1.195181 -0.810621 9.000000
4.039925 1.736525 0.076756 35.000000
3.009806 1.293115 -0.756285 7.000000
4.038976 1.735282 0.230383 36.000000
3.281396 1.409121 -0.694163 7.000000
4.026071 1.728073 0.383311 35.000000
3.550857 1.523368 -0.611972 6.000000
4.030170 1.728167 0.538419 35.000000
3.924647 1.682107 -0.524282 1.000000
4.016192 1.721343 0.692066 40.000000
3.997973 1.712709 -0.380522 16.000000
3.999363 1.712476 0.845666 39.000000
4.056084 1.735928 -0.231220 34.000000
4.000846 1.711461 1.004631 36.000000
4.041111 1.728685 -0.076721 40.000000
3.986010 1.704289 1.161580 31.000000
2.794002 1.190015 -0.813727 9.000000
4.014385 1.709798 0.076162 39.000000
3.010492 1.281600 -0.755386 7.000000
4.015604 1.708661 0.228708 33.000000
3.275455 1.393049 -0.691873 7.000000
4.000907 1.700757 0.380348 33.000000
3.570434 1.517766 -0.614475 6.000000
3.995684 1.697715 0.533057 28.000000
3.939338 1.672963 -0.525501 3.000000
4.002175 1.698822 0.688625 43.000000
3.996591 1.695631 -0.379825 19.000000
3.976101 1.686938 0.839560 37.000000
4.017689 1.703753 -0.228708 31.000000
3.983176 1.688297 0.998783 37.000000
4.013978 1.700528 -0.076092 40.000000
3.970587 1.681327 1.155368 28.000000
2.805053 1.183747 -0.815798 9.000000
3.998219 1.686448 0.075743 39.000000
3.005968 1.267299 -0.753136 9.000000
3.986573 1.679897 0.226719 31.000000
3.298148 1.389802 -0.695690 7.000000
3.988163 1.679747 0.378605 33.000000
3.582992 1.508360 -0.615726 6.000000
3.975970 1.672978 0.529644 28.000000
3.943325 1.658432 -0.525257 6.000000
3.978944 1.672595 0.683619 42.000000
3.993301 1.677810 -0.378953 30.000000
3.960247 1.663922 0.834980 37.000000
3.984940 1.673479 -0.226510 28.000000
3.945920 1.656282 0.987985 37.000000
3.999606 1.677996 -0.075709 42.000000
3.949708 1.656251 1.147604 31.000000
2.812937 1.174948 -0.816833 9.000000
3.974558 1.660150 0.075185 40.000000
3.022962 1.262054 -0.756285 7.000000
3.968452 1.655971 0.225359 33.000000
3.288724 1.371659 -0.692637 7.000000
3.974064 1.656685 0.376687 35.000000
3.584850 1.493697 -0.615100 6.000000
3.959797 1.649926 0.526719 28.000000
3.945424 1.643131 -0.524769 5.000000
3.948285 1.643512 0.677361 39.000000
3.971541 1.652379 -0.376339 31.000000
3.937314 1.637335 0.828874 39.000000
3.961539 1.646596 -0.224835 30.000000
3.921371 1.629098 0.980337 36.000000
3.953732 1.642542 -0.074731 39.000000
3.935840 1.634305 1.141910 33.000000
2.802741 1.159214 -0.812692 9.000000
3.956592 1.635641 0.074731 36.000000
3.032970 1.253198 -0.757635 9.000000
3.948365 1.631431 0.223893 33.000000
3.289863 1.358672 -0.691873 7.000000
3.937464 1.625319 0.372678 37.000000
3.588216 1.480422 -0.614788 7.000000
3.941960 1.625564 0.523551 30.000000
3.938574 1.623363 -0.523063 2.000000
3.919297 1.615418 0.671417 37.000000
3.931229 1.619534 -0.371981 28.000000
3.924852 1.616105 0.825058 37.000000
3.954333 1.627437 -0.224103 31.000000
3.905406 1.606504 0.974938 36.000000
3.933550 1.618081 -0.074243 42.000000
3.904000 1.605129 1.131039 33.000000
2.813921 1.152353 -0.814762 9.000000
3.921283 1.605838 0.073963 34.000000
3.044323 1.246087 -0.759435 9.000000
3.933702 1.609319 0.222742 34.000000
3.305489 1.351639 -0.694163 7.000000
3.915450 1.600259 0.370063 41.000000
3.604076 1.472999 -0.616665 2.000000
3.930791 1.605726 0.521357 35.000000
3.877774 1.583281 -0.514289 2.000000
3.895648 1.589786 0.666411 37.000000
3.903653 1.592256 -0.368843 30.000000
3.892015 1.587509 0.817044 36.000000
3.933816 1.603758 -0.222637 33.000000
3.896275 1.587662 0.971339 36.000000
3.909543 1.592271 -0.073684 39.000000
3.879162 1.579108 1.122239 37.000000
2.821307 1.144468 -0.815798 10.000000
3.893508 1.578615 0.073335 36.000000
3.041430 1.232524 -0.757635 9.000000
3.907825 1.582834 0.220962 37.000000
3.320870 1.345093 -0.696453 7.000000
3.902267 1.579788 0.368320 44.000000
3.640326 1.473005 -0.621983 1.000000
3.886683 1.571903 0.514776 31.000000
3.875916 1.566759 -0.513314 2.000000
3.884691 1.569517 0.663595 40.000000
3.894406 1.572654 -0.367449 28.000000
3.872046 1.563624 0.811702 40.000000
3.907904 1.577310 -0.220858 38.000000
3.874685 1.563115 0.964590 39.000000
3.892821 1.569644 -0.073265 42.000000
3.857773 1.554727 1.114475 34.000000
2.836240 1.138435 -0.818903 9.000000
3.878582 1.556820 0.072951 36.000000
3.042097 1.220449 -0.756735 9.000000
3.876251 1.554316 0.218869 37.000000
3.325779 1.332910 -0.696453 8.000000
3.882138 1.555104 0.365880 41.000000
3.631029 1.453779 -0.619481 1.000000
3.871875 1.550209 0.512095 33.000000
3.859246 1.544368 -0.510389 2.000000
3.873638 1.549346 0.660779 47.000000
3.883222 1.552393 -0.365880 31.000000
3.855874 1.540678 0.807122 45.000000
3.882127 1.550384 -0.219078 33.000000
3.844190 1.534455 0.955592 39.000000
3.881562 1.549373 -0.072951 45.000000
3.848822 1.535523 1.110334 34.000000
2.847377 1.131384 -0.820974 9.000000
3.865676 1.535214 0.072602 39.000000
3.050172 1.210729 -0.757635 9.000000
3.846383 1.526775 0.216880 34.000000
3.330410 1.321295 -0.696453 7.000000
3.861613 1.531260 0.363439 41.000000
3.647100 1.445462 -0.621358 1.000000
3.848001 1.524310 0.508195 33.000000
3.827966 1.515599 -0.505514 2.000000
3.833107 1.517635 0.652958 40.000000
3.868239 1.530763 -0.363962 34.000000
3.835669 1.517102 0.801779 45.000000
3.857798 1.525074 -0.217404 33.000000
3.813276 1.506704 0.946594 40.000000
3.851611 1.521851 -0.072288 53.000000
3.832596 1.513567 1.104122 34.000000
2.833332 1.114366 -0.815798 9.000000
3.844692 1.512140 0.072113 43.000000
3.059610 1.202748 -0.758985 7.000000
3.833099 1.506036 0.215834 35.000000
3.342312 1.312531 -0.697979 8.000000
3.829842 1.503211 0.359953 41.000000
3.648196 1.431915 -0.620732 1.000000
3.836404 1.505016 0.506002 31.000000
3.823730 1.499274 -0.504295 2.000000
3.803437 1.490549 0.647013 40.000000
3.830890 1.500539 -0.359953 34.000000
3.815087 1.494349 0.796437 46.000000
3.840516 1.503536 -0.216148 33.000000
3.800104 1.486948 0.942095 39.000000
3.819653 1.493831 -0.071590 48.000000
3.796473 1.484002 1.092216 39.000000
2.844212 1.107768 -0.817868 9.000000
3.812677 1.484203 0.071415 43.000000
3.071055 1.194886 -0.760784 7.000000
3.817857 1.484683 0.214682 42.000000
3.350307 1.302862 -0.698743 7.000000
3.810663 1.481122 0.357687 46.000000
3.660537 1.422036 -0.621983 1.000000
3.813877 1.480837 0.502346 35.000000
3.795628 1.472991 -0.499908 2.000000
3.792041 1.470837 0.644197 40.000000
3.811696 1.478461 -0.357687 31.000000
3.785500 1.467538 0.789186 45.000000
3.825255 1.482183 -0.214996 35.000000
3.787098 1.466640 0.937596 40.000000
3.800601 1.471104 -0.071136 50.000000
3.765595 1.456799 1.081864 41.000000
2.851666 1.099225 -0.818903 9.000000
3.784247 1.457944 0.070787 45.000000
3.078845 1.185559 -0.761684 7.000000
3.813695 1.467763 0.214159 48.000000
3.362162 1.293983 -0.700269 7.000000
3.786057 1.456365 0.354898 48.000000
3.663635 1.408540 -0.621671 2.000000
3.791227 1.456835 0.498689 40.000000
3.769245 1.447633 -0.495765 2.000000
3.782399 1.451928 0.641694 37.000000
3.792654 1.455864 -0.355421 28.000000
3.766771 1.445174 0.784225 48.000000
3.802432 1.458095 -0.213426 34.000000
3.766719 1.443646 0.931297 40.000000
3.790774 1.452107 -0.070857 52.000000
3.759833 1.439502 1.078758 39.000000
2.851876 1.087886 -0.817868 9.000000
3.763155 1.434751 0.070298 46.000000
3.075680 1.172029 -0.759885 7.000000
3.779600 1.439512 0.211961 45.000000
3.359320 1.279443 -0.698743 7.000000
3.776222 1.437469 0.353504 50.000000
3.655605 1.390826 -0.619481 2.000000
3.764746 1.431598 0.494546 42.000000
3.750152 1.425298 -0.492596 3.000000
3.759744 1.428194 0.637001 40.000000
3.779087 1.435542 -0.353678 33.000000
3.744261 1.421565 0.778501 45.000000
3.777622 1.433475 -0.211751 38.000000
3.742581 1.419433 0.924099 40.000000
3.771511 1.429652 -0.070403 53.000000
3.743156 1.418155 1.072546 45.000000
2.862886 1.080652 -0.819939 9.000000
3.755043 1.416666 0.070054 48.000000
3.087046 1.164035 -0.761684 7.000000
3.754699 1.415040 0.210286 46.000000
3.360092 1.266323 -0.697979 7.000000
3.762572 1.417257 0.351761 50.000000
3.677077 1.384320 -0.622296 2.000000
3.741853 1.407961 0.490890 38.000000
3.736524 1.405212 -0.490159 10.000000
3.738820 1.405330 0.632621 40.000000
3.763561 1.414630 -0.351761 38.000000
3.730823 1.401581 0.774685 45.000000
3.758295 1.411154 -0.210391 35.000000
3.718322 1.395404 0.916901 45.000000
3.748394 1.405943 -0.069879 58.000000
3.726377 1.396943 1.066335 44.000000
2.863021 1.069301 -0.818903 9.000000
3.744977 1.397956 0.069775 44.000000
3.087439 1.151891 -0.760784 7.000000
3.740902 1.394947 0.209239 41.000000
3.368170 1.255959 -0.698743 7.000000
3.737624 1.392982 0.348972 48.000000
3.691142 1.374923 -0.623861 8.000000
3.735582 1.390736 0.489427 38.000000
3.743266 1.392853 -0.490402 32.000000
3.715931 1.381942 0.627928 50.000000
3.740464 1.391065 -0.349146 44.000000
3.715449 1.381026 0.770487 48.000000
3.746348 1.391767 -0.209449 38.000000
3.706728 1.376310 0.912851 48.000000
3.732656 1.385198 -0.069495 51.000000
3.698627 1.371835 1.057017 39.000000
2.873985 1.061979 -0.820974 10.000000
3.714193 1.371713 0.069112 49.000000
3.102410 1.145155 -0.763484 9.000000
3.719515 1.372201 0.207774 42.000000
3.385427 1.248950 -0.701414 8.000000
3.710685 1.368210 0.346008 52.000000
3.679237 1.355883 -0.621045 7.000000
3.716198 1.368768 0.486259 43.000000
3.729476 1.372921 -0.487965 39.000000
3.698485 1.360778 0.624174 46.000000
3.713510 1.366306 -0.346183 42.000000
3.692608 1.357884 0.764763 51.000000
3.726813 1.369723 -0.208088 33.000000
3.678584 1.351269 0.904753 43.000000
3.713065 1.363200 -0.069042 55.000000
3.670748 1.346937 1.047700 39.000000
2.877674 1.051941 -0.820974 9.000000
3.696420 1.350504 0.068693 49.000000
3.111880 1.136324 -0.764834 9.000000
3.701531 1.351640 0.206518 41.000000
3.382389 1.234433 -0.699887 6.000000
3.689234 1.345690 0.343568 44.000000
3.663532 1.335590 -0.617603 5.000000
3.679920 1.340837 0.480896 35.000000
3.709998 1.351063 -0.484796 30.000000
3.682560 1.341071 0.620732 42.000000
3.710767 1.350610 -0.345485 42.000000
3.667805 1.334248 0.758657 46.000000
3.690276 1.341693 -0.205785 32.000000
3.677784 1.336423 0.903403 45.000000
3.696892 1.343366 -0.068658 57.000000
3.655220 1.327503 1.042005 42.000000
2.888595 1.044516 -0.823045 9.000000
3.680192 1.330758 0.068309 50.000000
3.110133 1.124011 -0.763484 7.000000
3.679929 1.329212 0.205052 42.000000
3.405144 1.229285 -0.703704 3.000000
3.677042 1.326717 0.341999 46.000000
3.647502 1.316059 -0.614162 2.000000
3.656335 1.318526 0.477240 40.000000
3.675241 1.324617 -0.479678 26.000000
3.663059 1.319504 0.616665 40.000000
3.692963 1.329551 -0.343394 45.000000
3.659279 1.317423 0.755985 48.000000
3.674033 1.322009 -0.204634 36.000000
3.643686 1.310371 0.893955 45.000000
3.680858 1.323016 -0.068274 54.000000
3.643470 1.308857 1.037347 44.000000
2.892043 1.034932 -0.823045 9.000000
3.665986 1.311170 0.067960 50.000000
3.130553 1.119052 -0.767533 9.000000
3.654453 1.305606 0.203378 42.000000
3.388864 1.210721 -0.699506 2.000000
3.662657 1.307817 0.340256 48.000000
3.631609 1.296016 -0.610720 2.000000
3.653437 1.303087 0.476265 40.000000
3.657405 1.303781 -0.476753 26.000000
3.636009 1.295440 0.611346 45.000000
3.676707 1.309940 -0.341476 43.000000
3.634264 1.294104 0.749879 48.000000
3.671099 1.306497 -0.204215 36.000000
3.624369 1.289155 0.888107 37.000000
3.655307 1.299441 -0.067715 54.000000
3.633453 1.290956 1.033206 41.000000
2.895638 1.024831 -0.823045 10.000000
3.647917 1.290364 0.067541 53.000000
3.138115 1.109415 -0.768433 9.000000
3.645806 1.288185 0.202645 46.000000
3.394921 1.199539 -0.699887 2.000000
3.642777 1.286400 0.337990 52.000000
3.608169 1.273468 -0.606027 2.000000
3.637371 1.283061 0.473584 43.000000
3.645083 1.285068 -0.474559 31.000000
3.614425 1.273549 0.606966 45.000000
3.639916 1.282531 -0.337641 37.000000
3.620242 1.274888 0.746063 44.000000
3.651145 1.285056 -0.202854 40.000000
3.606787 1.268735 0.882708 41.000000
3.625864 1.274734 -0.067087 55.000000
3.614243 1.269942 1.026476 42.000000
2.902845 1.015993 -0.824080 9.000000
3.624087 1.267717 0.067017 55.000000
3.149326 1.101029 -0.770232 9.000000
3.631426 1.268862 0.201598 46.000000
3.413915 1.192861 -0.702940 2.000000
3.613388 1.261852 0.334852 50.000000
3.608862 1.259567 -0.605401 3.000000
3.626833 1.265127 0.471634 43.000000
3.628928 1.265147 -0.471878 35.000000
3.605790 1.256377 0.604776 46.000000
3.614267 1.259331 -0.334852 40.000000
3.596859 1.252559 0.740339 46.000000
3.640518 1.267051 -0.202017 40.000000
3.590948 1.249094 0.877759 37.000000
3.609514 1.254848 -0.066703 57.000000
3.583982 1.245270 1.016641 46.000000
2.899071 1.003326 -0.822009 9.000000
3.598252 1.244601 0.066459 49.000000
3.134732 1.083662 -0.765733 9.000000
3.616956 1.249655 0.200551 47.000000
3.425481 1.183501 -0.704467 2.000000
3.602704 1.244029 0.333458 50.000000
3.596431 1.241161 -0.602586 3.000000
3.593695 1.239513 0.466760 46.000000
3.625815 1.249885 -0.470903 37.000000
3.589610 1.236704 0.601334 51.000000
3.601688 1.240865 -0.333284 42.000000
3.567796 1.228490 0.733470 46.000000
3.607147 1.241338 -0.199923 42.000000
3.578701 1.230850 0.873710 41.000000
3.600635 1.237689 -0.066459 55.000000
3.573691 1.227732 1.012500 46.000000
2.920833 0.999457 -0.827186 9.000000
3.589330 1.227503 0.066214 50.000000
3.142184 1.073972 -0.766633 9.000000
3.583494 1.224112 0.198458 43.000000
3.438879 1.174712 -0.706375 2.000000
3.593826 1.226939 0.332238 52.000000
3.576438 1.220306 -0.598518 5.000000
3.567937 1.216712 0.462860 46.000000
3.603851 1.228255 -0.467491 38.000000
3.580816 1.219707 0.599144 55.000000
3.594682 1.224430 -0.332238 42.000000
3.562769 1.212868 0.731562 48.000000
3.588769 1.221018 -0.198667 42.000000
3.558991 1.210194 0.867861 50.000000
3.591680 1.220612 -0.066214 60.000000
3.559662 1.209036 1.007324 40.000000
2.920645 0.988016 -0.826150 10.000000
3.578439 1.209841 0.065935 53.000000
3.149606 1.064246 -0.767533 9.000000
3.565038 1.203926 0.197202 43.000000
3.429939 1.158303 -0.703704 2.000000
3.573546 1.206103 0.329972 55.000000
3.560086 1.200870 -0.595077 3.000000
3.564639 1.201713 0.461885 43.000000
3.583661 1.207427 -0.464322 40.000000
3.558842 1.198375 0.594764 55.000000
3.583828 1.206789 -0.330843 41.000000
3.548375 1.194161 0.727746 50.000000
3.577865 1.203389 -0.197830 42.000000
3.535486 1.188450 0.861113 48.000000
3.565589 1.197876 -0.065656 66.000000
3.540053 1.188608 1.000594 42.000000
2.923905 0.978325 -0.826150 10.000000
3.565362 1.192263 0.065621 55.000000
3.167904 1.058738 -0.771132 9.000000
3.557645 1.188300 0.196574 43.000000
3.439348 1.148787 -0.704848 2.000000
3.556737 1.187309 0.328054 48.000000
3.524698 1.175930 -0.588507 5.000000
3.549773 1.183605 0.459447 46.000000
3.557513 1.185496 -0.460422 35.000000
3.532810 1.176581 0.589758 55.000000
3.557772 1.184203 -0.328054 47.000000
3.539276 1.178047 0.725074 52.000000
3.560989 1.184583 -0.196679 45.000000
3.513518 1.168111 0.854814 48.000000
3.544872 1.177848 -0.065202 64.000000
3.510974 1.165904 0.991277 42.000000
2.927471 0.967602 -0.826150 9.000000
3.548617 1.172906 0.065237 59.000000
3.175281 1.048895 -0.772032 9.000000
3.542805 1.169614 0.195527 46.000000
3.452857 1.139250 -0.706757 3.000000
3.523221 1.161785 0.324568 44.000000
3.512100 1.157438 -0.585691 6.000000
3.531259 1.163752 0.456523 42.000000
3.554087 1.170588 -0.459447 35.000000
3.518132 1.158065 0.586629 52.000000
3.533494 1.162438 -0.325440 50.000000
3.515594 1.155869 0.719350 50.000000
3.540640 1.163419 -0.195318 40.000000
3.506668 1.151577 0.852115 46.000000
3.537563 1.161723 -0.064993 61.000000
3.502174 1.149425 0.987654 46.000000
2.941849 0.960976 -0.829256 10.000000
3.514872 1.147481 0.064539 57.000000
3.182809 1.038459 -0.772932 9.000000
3.535474 1.153524 0.194899 47.000000
3.462413 1.129016 -0.707901 8.000000
3.508312 1.143307 0.322825 52.000000
3.486066 1.135383 -0.580685 15.000000
3.505298 1.140970 0.452623 43.000000
3.539476 1.151413 -0.457010 37.000000
3.503368 1.139667 0.583501 55.000000
3.520478 1.144552 -0.323871 47.000000
3.495335 1.135703 0.714389 52.000000
3.521884 1.143652 -0.194062 40.000000
3.488423 1.132111 0.846716 48.000000
3.520674 1.142578 -0.064609 66.000000
3.482276 1.129444 0.980924 48.000000
2.952539 0.953075 -0.831327 10.000000
3.507241 1.132132 0.064330 59.000000
3.186236 1.027898 -0.772932 9.000000
3.507164 1.130756 0.193120 48.000000
3.458857 1.114515 -0.706375 7.000000
3.502799 1.127999 0.321953 53.000000
3.508615 1.129872 -0.583813 36.000000
3.488276 1.122651 0.449942 47.000000
3.505480 1.127512 -0.452135 36.000000
3.490400 1.121989 0.580685 57.000000
3.511173 1.127991 -0.322651 50.000000
3.471044 1.115099 0.708665 53.000000
3.502837 1.124639 -0.192806 42.000000
3.466180 1.112202 0.840417 48.000000
3.496078 1.121123 -0.064085 57.000000
3.467800 1.111387 0.975748 50.000000
2.959364 0.944454 -0.832362 9.000000
3.486404 1.111984 0.063876 57.000000
3.174951 1.012035 -0.769333 6.000000
3.495865 1.113657 0.192282 52.000000
3.473758 1.106615 -0.708665 10.000000
3.487536 1.110332 0.320210 52.000000
3.508773 1.116419 -0.583188 51.000000
3.475148 1.105054 0.447748 51.000000
3.490476 1.109256 -0.449698 31.000000
3.462290 1.099633 0.575366 60.000000
3.492108 1.109103 -0.320559 43.000000
3.459945 1.098225 0.705612 45.000000
3.499127 1.109988 -0.192387 42.000000
3.458896 1.096562 0.837718 48.000000
3.479001 1.102269 -0.063701 52.000000
3.451399 1.092860 0.970054 48.000000
2.947903 0.929470 -0.828221 10.000000
3.478821 1.096202 0.063666 55.000000
3.198910 1.007385 -0.774282 3.000000
3.476870 1.094252 0.191026 48.000000
3.451382 1.086230 -0.703322 2.000000
3.466682 1.090382 0.317944 57.000000
3.493804 1.098241 -0.580059 51.000000
3.460046 1.086966 0.445311 53.000000
3.484857 1.094092 -0.448479 38.000000
3.439719 1.079262 0.570986 53.000000
3.463641 1.086768 -0.317596 48.000000
3.456264 1.083790 0.704085 48.000000
3.480110 1.090601 -0.191131 47.000000
3.445965 1.079240 0.833669 45.000000
3.454202 1.081158 -0.063178 49.000000
3.427537 1.072155 0.962289 43.000000
2.954819 0.920324 -0.829256 10.000000
3.448258 1.073354 0.063038 57.000000
3.219155 1.001422 -0.778331 3.000000
3.459688 1.075587 0.189875 47.000000
3.443904 1.070680 -0.701032 3.000000
3.443830 1.069998 0.315504 56.000000
3.463659 1.075494 -0.574427 46.000000
3.450548 1.070764 0.443604 50.000000
3.469695 1.076042 -0.446042 42.000000
3.430259 1.063154 0.568796 57.000000
3.450286 1.069361 -0.316027 50.000000
3.424394 1.060683 0.696835 42.000000
3.466724 1.073131 -0.190189 46.000000
3.418063 1.057413 0.826020 52.000000
3.448402 1.066139 -0.063003 55.000000
