# This PCD file was generated using the MATLAB® pcwrite function
# from Computer Vision Toolbox®.
# .PCD v.7 - Point Cloud Data file format
VERSION .7
FIELDS x y z intensity
SIZE 4 4 4 4
TYPE F F F F
COUNT 1 1 1 1
WIDTH 1279
HEIGHT 1
VIEWPOINT 0 0 0 1 0 0 0
POINTS 1279
DATA ascii
4.334086 2.084923 1.110358 25.000000
4.353707 2.094362 -0.084330 35.000000
4.326483 2.080336 1.286331 30.000000
2.707389 1.297164 -0.804410 9.000000
4.340761 2.079745 0.084016 29.000000
2.933408 1.404824 -0.750887 7.000000
4.345204 2.080009 0.252469 30.000000
3.178892 1.521024 -0.685004 7.000000
4.331739 2.071705 0.420091 30.000000
3.448275 1.649178 -0.605401 5.000000
4.334144 2.071926 0.589848 27.000000
3.811499 1.821260 -0.518676 3.000000
4.315434 2.061131 0.757456 31.000000
4.257668 2.032629 -0.412770 1.000000
4.310569 2.057884 0.928477 27.000000
4.345939 2.073839 -0.252364 21.000000
4.304038 2.052922 1.100910 27.000000
4.326694 2.062802 -0.083667 35.000000
4.283144 2.041121 1.271319 25.000000
2.725635 1.294811 -0.808551 10.000000
4.310061 2.046566 0.083283 28.000000
2.938293 1.394577 -0.750887 7.000000
4.327175 2.052845 0.251003 28.000000
3.191013 1.513841 -0.686531 7.000000
4.304381 2.041108 0.416779 28.000000
3.452226 1.636286 -0.605089 6.000000
4.296501 2.035537 0.583754 26.000000
3.828598 1.813041 -0.520138 3.000000
4.301176 2.035914 0.753701 31.000000
4.235571 2.004861 -0.409981 6.000000
4.275134 2.022674 0.919318 31.000000
4.311625 2.039016 -0.249957 19.000000
4.282989 2.024561 1.093712 30.000000
4.303132 2.033165 -0.083073 36.000000
4.269281 2.016256 1.265108 25.000000
2.737130 1.288580 -0.810621 9.000000
4.293655 2.020441 0.082829 35.000000
2.939617 1.382652 -0.749987 7.000000
4.280090 2.012233 0.247863 27.000000
3.208715 1.508539 -0.689202 7.000000
4.275415 2.009124 0.413293 30.000000
3.466857 1.628424 -0.606653 5.000000
4.264049 2.001966 0.578392 27.000000
3.820527 1.792920 -0.518189 3.000000
4.276066 2.005787 0.748070 37.000000
4.233526 1.985832 -0.409109 4.000000
4.250173 1.992736 0.912449 31.000000
4.280737 2.006156 -0.247758 21.000000
4.252971 1.992238 1.084264 27.000000
4.277605 2.002867 -0.082445 38.000000
4.248297 1.988240 1.256825 25.000000
2.741611 1.279018 -0.810621 9.000000
4.266247 1.989385 0.082166 36.000000
2.944425 1.372383 -0.749987 7.000000
4.250880 1.980413 0.245770 28.000000
3.196166 1.489039 -0.685386 7.000000
4.249891 1.979050 0.410155 30.000000
3.486847 1.622982 -0.609156 6.000000
4.233214 1.969486 0.573273 27.000000
3.839361 1.785432 -0.519895 3.000000
4.234676 1.968366 0.739622 33.000000
4.227785 1.965163 -0.407889 3.000000
4.232175 1.966308 0.907106 33.000000
4.255108 1.976057 -0.245874 24.000000
4.215710 1.956867 1.073017 27.000000
4.250105 1.971933 -0.081782 35.000000
4.225418 1.959581 1.248025 30.000000
2.739045 1.266197 -0.808551 9.000000
4.238675 1.958545 0.081503 36.000000
2.949198 1.362096 -0.749987 7.000000
4.237821 1.956353 0.244618 30.000000
3.204909 1.479518 -0.686149 7.000000
4.218782 1.946673 0.406494 31.000000
3.488903 1.609145 -0.608530 6.000000
4.222036 1.946385 0.570836 28.000000
3.867205 1.781990 -0.522820 3.000000
4.205637 1.937045 0.733365 30.000000
4.216522 1.942059 -0.406146 1.000000
4.212264 1.939207 0.901382 34.000000
4.234763 1.948672 -0.244304 25.000000
4.188877 1.926668 1.064468 25.000000
4.216991 1.938708 -0.081014 35.000000
4.190104 1.925461 1.235602 33.000000
2.732910 1.251801 -0.805445 9.000000
4.200031 1.922925 0.080630 35.000000
2.968111 1.358281 -0.753586 7.000000
4.210114 1.925764 0.242630 31.000000
3.220766 1.473223 -0.688439 7.000000
4.183876 1.912880 0.402485 33.000000
3.490906 1.595313 -0.607904 5.000000
4.199914 1.918440 0.566936 30.000000
3.857150 1.761059 -0.520626 2.000000
4.180026 1.907590 0.727733 35.000000
4.208775 1.920710 -0.404751 1.000000
4.168993 1.901679 0.890696 33.000000
4.216098 1.922277 -0.242839 25.000000
4.160111 1.895871 1.055470 25.000000
4.196435 1.911543 -0.080490 38.000000
4.156360 1.892412 1.223696 31.000000
2.751337 1.248640 -0.809586 9.000000
4.173938 1.893382 0.080002 36.000000
2.965734 1.344694 -0.751786 7.000000
4.184066 1.896215 0.240745 33.000000
3.225889 1.461970 -0.688439 7.000000
4.163306 1.885931 0.399871 35.000000
3.503650 1.586380 -0.609156 6.000000
4.172224 1.888216 0.562305 31.000000
3.888595 1.759037 -0.524038 1.000000
4.159658 1.880783 0.723040 35.000000
4.139205 1.871534 -0.397430 3.000000
4.134459 1.868517 0.881919 33.000000
4.180919 1.888636 -0.240431 22.000000
4.147165 1.872519 1.050521 30.000000
4.172098 1.882898 -0.079897 40.000000
4.134766 1.865181 1.215414 30.000000
2.755678 1.239031 -0.809586 9.000000
4.156810 1.868145 0.079548 35.000000
2.963300 1.331139 -0.749987 7.000000
4.150575 1.863600 0.238443 31.000000
3.245301 1.457133 -0.691492 7.000000
4.146233 1.860783 0.397604 30.000000
3.501958 1.570905 -0.607904 6.000000
4.135317 1.854148 0.556455 31.000000
3.876597 1.737335 -0.521601 1.000000
4.144566 1.856560 0.719286 38.000000
4.112983 1.842412 -0.394293 1.000000
4.119454 1.844445 0.877340 36.000000
4.156495 1.860161 -0.238652 24.000000
4.118099 1.842116 1.041523 31.000000
4.156739 1.858527 -0.079478 38.000000
4.116559 1.839702 1.208167 31.000000
2.759986 1.229403 -0.809586 10.000000
4.139558 1.843049 0.079094 35.000000
2.971489 1.322372 -0.750887 7.000000
4.118732 1.832057 0.236245 33.000000
3.239604 1.441011 -0.689202 7.000000
4.116292 1.830109 0.394118 33.000000
3.514640 1.561881 -0.609156 5.000000
4.109108 1.825200 0.552068 31.000000
3.908038 1.735069 -0.525013 1.000000
4.102271 1.820446 0.710838 36.000000
4.130317 1.832892 -0.395338 1.000000
4.109715 1.822893 0.873905 39.000000
4.130097 1.831069 -0.236768 25.000000
4.072837 1.804833 1.028476 34.000000
4.117491 1.823763 -0.078606 40.000000
4.092926 1.812026 1.199368 30.000000
2.764261 1.219761 -0.809586 9.000000
4.113031 1.814066 0.078466 35.000000
2.986786 1.316707 -0.753586 7.000000
4.099515 1.806393 0.234779 33.000000
3.237428 1.426526 -0.687676 7.000000
4.093480 1.802883 0.391329 34.000000
3.532727 1.555173 -0.611346 7.000000
4.082749 1.796453 0.547681 31.000000
3.914070 1.721419 -0.525013 1.000000
4.072433 1.790217 0.704581 35.000000
4.056436 1.783185 -0.387669 1.000000
4.074713 1.790371 0.865128 34.000000
4.110861 1.805401 -0.235302 28.000000
4.059484 1.781989 1.023527 31.000000
4.087208 1.793309 -0.077908 40.000000
4.063842 1.782209 1.189015 30.000000
2.764961 1.208557 -0.808551 9.000000
4.073528 1.779682 0.077593 35.000000
2.994936 1.307832 -0.754486 7.000000
4.083829 1.782485 0.233523 34.000000
3.249585 1.418359 -0.689202 7.000000
4.063225 1.772648 0.387843 37.000000
3.538134 1.542832 -0.611346 6.000000
4.068977 1.773467 0.545000 33.000000
3.923695 1.709331 -0.525501 1.000000
4.051490 1.764160 0.699888 35.000000
4.048022 1.762650 -0.386274 1.000000
4.052135 1.763602 0.859022 37.000000
4.089666 1.779088 -0.233732 27.000000
4.044234 1.758482 1.018128 30.000000
4.062265 1.765482 -0.077314 38.000000
4.034600 1.752621 1.178662 33.000000
2.783346 1.205038 -0.812692 9.000000
4.044847 1.750361 0.076930 35.000000
2.999482 1.297372 -0.754486 7.000000
4.053361 1.752367 0.231430 34.000000
3.265329 1.411681 -0.691492 7.000000
4.043784 1.747388 0.385403 34.000000
3.543497 1.530474 -0.611346 6.000000
4.042338 1.745090 0.540612 34.000000
3.933283 1.697196 -0.525988 1.000000
4.032229 1.739056 0.695508 38.000000
4.012072 1.730362 -0.382265 10.000000
4.016800 1.731570 0.850245 34.000000
4.061001 1.749784 -0.231744 30.000000
4.021711 1.732023 1.010930 31.000000
4.044526 1.741012 -0.076860 40.000000
4.015849 1.727837 1.171415 33.000000
2.783984 1.193793 -0.811657 9.000000
4.034389 1.729143 0.076616 35.000000
3.003993 1.286893 -0.754486 7.000000
4.031914 1.726413 0.229860 31.000000
3.273847 1.401819 -0.692255 7.000000
4.020551 1.720720 0.382614 34.000000
3.552451 1.519648 -0.611972 6.000000
4.008250 1.713798 0.535250 31.000000
3.931882 1.680336 -0.525013 1.000000
4.021925 1.717987 0.692692 40.000000
4.018087 1.716348 -0.382265 19.000000
3.992126 1.704432 0.843757 36.000000
4.034019 1.721488 -0.229860 33.000000
3.995467 1.704212 1.002832 34.000000
4.032184 1.719040 -0.076511 37.000000
3.984534 1.697906 1.160545 33.000000
2.798803 1.188599 -0.814762 9.000000
4.010950 1.702547 0.076058 40.000000
3.010261 1.277161 -0.754936 9.000000
3.997462 1.695175 0.227557 31.000000
3.275105 1.388850 -0.691492 7.000000
4.004520 1.697344 0.380522 34.000000
3.568647 1.511863 -0.613849 6.000000
3.988616 1.688961 0.531838 31.000000
3.935896 1.665827 -0.524769 7.000000
3.989693 1.687775 0.686122 42.000000
4.005704 1.694548 -0.380522 22.000000
3.974544 1.680548 0.838796 39.000000
4.003210 1.691846 -0.227766 31.000000
3.960103 1.672813 0.992484 37.000000
4.001315 1.689399 -0.075813 39.000000
3.970859 1.675723 1.154851 33.000000
2.802935 1.178822 -0.814762 9.000000
4.002120 1.682337 0.075778 39.000000
3.021887 1.269664 -0.756735 9.000000
3.979415 1.671159 0.226196 31.000000
3.276312 1.375890 -0.690729 7.000000
3.979190 1.670247 0.377559 33.000000
3.584832 1.503981 -0.615726 6.000000
3.965197 1.662746 0.527938 31.000000
3.936194 1.649776 -0.524038 4.000000
3.957299 1.657810 0.679551 40.000000
3.973004 1.664389 -0.376861 26.000000
3.960465 1.658324 0.834599 37.000000
3.977770 1.664754 -0.225987 28.000000
3.942547 1.649204 0.986635 36.000000
3.977669 1.663080 -0.075255 42.000000
3.942817 1.647698 1.145015 31.000000
2.803263 1.168033 -0.813727 9.000000
3.965218 1.651375 0.074976 40.000000
3.013487 1.254393 -0.753586 9.000000
3.960963 1.647978 0.224835 33.000000
3.289920 1.368788 -0.692637 7.000000
3.953432 1.644038 0.374595 33.000000
3.597096 1.495117 -0.616978 6.000000
3.943191 1.638163 0.524282 28.000000
3.954476 1.642044 -0.525744 3.000000
3.937232 1.634076 0.675171 37.000000
3.954580 1.641276 -0.374595 28.000000
3.935115 1.632392 0.828111 42.000000
3.964818 1.643905 -0.224940 28.000000
3.926391 1.627167 0.981236 36.000000
3.949907 1.636105 -0.074626 42.000000
3.917915 1.622054 1.136216 33.000000
2.807323 1.158242 -0.813727 9.000000
3.932137 1.621513 0.074243 36.000000
3.030459 1.249066 -0.756735 9.000000
3.953765 1.628817 0.224103 34.000000
3.307385 1.362531 -0.695308 7.000000
3.937039 1.621123 0.372504 41.000000
3.578546 1.472779 -0.612910 7.000000
3.925019 1.614572 0.521113 31.000000
3.928973 1.615397 -0.521601 2.000000
3.917332 1.609812 0.670791 37.000000
3.930799 1.615345 -0.371806 27.000000
3.902652 1.602983 0.820097 37.000000
3.939123 1.617160 -0.223161 33.000000
3.912215 1.605315 0.976288 36.000000
3.933393 1.613203 -0.074208 42.000000
3.894953 1.596644 1.127934 31.000000
2.811349 1.148435 -0.813727 9.000000
3.910003 1.596440 0.073719 37.000000
3.034801 1.238480 -0.756735 9.000000
3.911344 1.595393 0.221381 34.000000
3.315757 1.352460 -0.696071 7.000000
3.916845 1.596840 0.370063 41.000000
3.607446 1.469970 -0.616978 1.000000
3.904893 1.590378 0.517701 36.000000
3.884946 1.581463 -0.515020 2.000000
3.899141 1.586450 0.666724 35.000000
3.910576 1.591103 -0.369366 34.000000
3.884582 1.579735 0.815136 36.000000
3.907739 1.588357 -0.221067 34.000000
3.879881 1.576247 0.966840 36.000000
3.909356 1.587424 -0.073649 37.000000
3.877233 1.573592 1.121204 34.000000
2.833249 1.145859 -0.818903 9.000000
3.887743 1.571540 0.073195 36.000000
3.046333 1.230799 -0.758535 9.000000
3.883553 1.568271 0.219497 39.000000
3.316816 1.339409 -0.695308 7.000000
3.889138 1.569735 0.366926 42.000000
3.630875 1.464758 -0.620106 1.000000
3.877281 1.563378 0.513314 31.000000
3.851777 1.552311 -0.509901 2.000000
3.871674 1.559544 0.661092 40.000000
3.895777 1.569253 -0.367449 31.000000
3.870039 1.558100 0.810938 40.000000
3.900290 1.569489 -0.220334 38.000000
3.849200 1.548149 0.957842 39.000000
3.885187 1.561834 -0.073091 42.000000
3.859398 1.550686 1.114475 37.000000
2.822885 1.130217 -0.814762 9.000000
3.876496 1.551272 0.072881 36.000000
3.059658 1.223776 -0.760784 7.000000
3.866749 1.545808 0.218241 35.000000
3.325117 1.329280 -0.696071 7.000000
3.864992 1.544321 0.364137 41.000000
3.635965 1.452076 -0.620106 1.000000
3.864278 1.542474 0.510876 32.000000
3.844266 1.533706 -0.508195 2.000000
3.847736 1.534314 0.656086 45.000000
3.866068 1.541624 -0.364137 35.000000
3.853570 1.535861 0.806359 40.000000
3.874202 1.543298 -0.218555 33.000000
3.836475 1.527496 0.953343 39.000000
3.860887 1.536435 -0.072532 43.000000
3.832476 1.524352 1.105157 35.000000
2.833996 1.123203 -0.816833 9.000000
3.850281 1.525213 0.072288 40.000000
3.062099 1.212371 -0.760335 9.000000
3.846122 1.522011 0.216776 34.000000
3.337039 1.320554 -0.697598 7.000000
3.837009 1.517632 0.360999 41.000000
3.652034 1.443731 -0.621983 1.000000
3.851177 1.521680 0.508439 31.000000
3.842210 1.517364 -0.507220 2.000000
3.823670 1.509268 0.651080 40.000000
3.845481 1.517878 -0.361696 35.000000
3.827861 1.510151 0.799871 42.000000
3.849836 1.518046 -0.216880 31.000000
3.818215 1.504805 0.947494 40.000000
3.847621 1.515619 -0.072183 48.000000
3.816203 1.502475 1.098946 35.000000
2.845093 1.116126 -0.818903 9.000000
3.822072 1.498624 0.071660 45.000000
3.060869 1.199540 -0.758985 7.000000
3.825376 1.498379 0.215310 34.000000
3.337972 1.307466 -0.696835 7.000000
3.818165 1.494786 0.358733 38.000000
3.660731 1.432413 -0.622609 1.000000
3.812095 1.490875 0.502589 31.000000
3.804960 1.487319 -0.501614 2.000000
3.810516 1.488722 0.647952 40.000000
3.828487 1.495744 -0.359605 31.000000
3.802019 1.484640 0.793384 46.000000
3.829064 1.494431 -0.215415 33.000000
3.792581 1.479427 0.939845 39.000000
3.815626 1.487652 -0.071485 47.000000
3.796225 1.479324 1.091699 39.000000
2.848972 1.106187 -0.818903 9.000000
3.806772 1.477316 0.071276 45.000000
3.061403 1.187442 -0.758085 7.000000
3.808236 1.476353 0.214054 45.000000
3.353500 1.300063 -0.699124 7.000000
3.806639 1.474970 0.357164 44.000000
3.680445 1.425336 -0.625112 1.000000
3.795062 1.468960 0.499664 37.000000
3.799021 1.469730 -0.500152 2.000000
3.797264 1.468291 0.644823 39.000000
3.809526 1.473032 -0.357339 33.000000
3.781541 1.461451 0.788041 46.000000
3.804448 1.469540 -0.213740 33.000000
3.772269 1.456356 0.933547 40.000000
3.811468 1.470723 -0.071311 50.000000
3.776131 1.456331 1.084452 41.000000
2.860029 1.099008 -0.820974 9.000000
3.783905 1.453263 0.070752 49.000000
3.080085 1.182334 -0.761684 7.000000
3.781666 1.450889 0.212275 45.000000
3.354351 1.286944 -0.698361 7.000000
3.793162 1.454540 0.355421 44.000000
3.655885 1.401168 -0.620106 1.000000
3.779774 1.447894 0.496983 35.000000
3.761489 1.440136 -0.494546 2.000000
3.767313 1.441612 0.638878 39.000000
3.790454 1.450468 -0.355072 27.000000
3.766449 1.440526 0.783843 48.000000
3.783436 1.446268 -0.212275 34.000000
3.753665 1.434137 0.927698 40.000000
3.777348 1.442428 -0.070578 47.000000
3.757728 1.434186 1.077723 38.000000
2.853014 1.084899 -0.817868 9.000000
3.777740 1.435783 0.070543 48.000000
3.084193 1.171576 -0.761684 7.000000
3.769902 1.431300 0.211333 48.000000
3.355151 1.273834 -0.697598 7.000000
3.766549 1.429273 0.352458 46.000000
3.662600 1.389099 -0.620419 2.000000
3.766243 1.427655 0.494546 35.000000
3.742361 1.417853 -0.491377 3.000000
3.740917 1.416562 0.633560 40.000000
3.761955 1.424528 -0.351935 30.000000
3.747584 1.418339 0.778882 45.000000
3.771648 1.426692 -0.211333 37.000000
3.734952 1.412067 0.921849 39.000000
3.752429 1.417927 -0.070019 55.000000
3.728374 1.408092 1.067887 41.000000
2.860399 1.076293 -0.818903 9.000000
3.739679 1.406398 0.069740 41.000000
3.091912 1.162174 -0.762584 7.000000
3.756179 1.411107 0.210286 48.000000
3.374281 1.267637 -0.700651 7.000000
3.737941 1.403511 0.349320 48.000000
3.671126 1.377693 -0.621045 5.000000
3.750759 1.406831 0.491865 38.000000
3.736135 1.400601 -0.489915 15.000000
3.732890 1.398642 0.631370 40.000000
3.744517 1.402998 -0.349843 37.000000
3.723095 1.394231 0.772776 46.000000
3.767253 1.410018 -0.210809 38.000000
3.727082 1.394241 0.918700 40.000000
3.744245 1.399917 -0.069775 54.000000
3.711550 1.386954 1.061676 39.000000
2.856897 1.063607 -0.816833 10.000000
3.722075 1.384968 0.069321 41.000000
3.088644 1.148656 -0.760784 7.000000
3.738616 1.389637 0.209030 40.000000
3.376844 1.255167 -0.700269 8.000000
3.724140 1.383517 0.347577 46.000000
3.672210 1.363494 -0.620419 7.000000
3.714703 1.378536 0.486502 38.000000
3.752167 1.391694 -0.491377 40.000000
3.708115 1.374617 0.626364 48.000000
3.732578 1.383685 -0.348274 40.000000
3.700324 1.370996 0.767052 48.000000
3.732820 1.382293 -0.208611 35.000000
3.700858 1.369723 0.911052 42.000000
3.732229 1.380595 -0.069461 49.000000
3.681942 1.361261 1.051841 38.000000
2.878721 1.060304 -0.822009 9.000000
3.711874 1.366441 0.069042 48.000000
3.099950 1.140560 -0.762584 7.000000
3.703841 1.362749 0.206832 41.000000
3.395947 1.248792 -0.703322 8.000000
3.706506 1.362260 0.345485 48.000000
3.676946 1.350668 -0.620419 7.000000
3.687814 1.353929 0.482359 42.000000
3.710413 1.361491 -0.485284 34.000000
3.697817 1.356869 0.623861 45.000000
3.728032 1.367218 -0.347403 42.000000
3.686655 1.351314 0.763236 52.000000
3.703865 1.356889 -0.206727 31.000000
3.676337 1.346076 0.903853 45.000000
3.708621 1.357897 -0.068937 54.000000
3.677365 1.345725 1.049253 37.000000
2.886034 1.051572 -0.823045 9.000000
3.693839 1.345909 0.068623 49.000000
3.120195 1.136276 -0.766633 9.000000
3.682300 1.340249 0.205366 42.000000
3.392905 1.234247 -0.701796 3.000000
3.686896 1.340464 0.343219 42.000000
3.668410 1.333743 -0.618229 3.000000
3.679224 1.336946 0.480653 40.000000
3.686920 1.339016 -0.481628 27.000000
3.669107 1.331822 0.618229 42.000000
3.717799 1.348760 -0.346008 45.000000
3.670815 1.331715 0.759038 46.000000
3.685813 1.336428 -0.205471 35.000000
3.656962 1.325247 0.898005 38.000000
3.681375 1.333365 -0.068344 51.000000
3.658426 1.324331 1.042523 38.000000
2.882236 1.039375 -0.820974 9.000000
3.677821 1.325547 0.068239 50.000000
3.114975 1.122074 -0.764384 9.000000
3.673801 1.322652 0.204634 43.000000
3.395132 1.222324 -0.701414 2.000000
3.665075 1.318786 0.340779 42.000000
3.667467 1.318923 -0.617290 2.000000
3.665186 1.317383 0.478215 37.000000
3.671021 1.318755 -0.478947 25.000000
3.649565 1.310328 0.614162 40.000000
3.682872 1.322286 -0.342348 43.000000
3.658809 1.312928 0.755604 50.000000
3.675415 1.318161 -0.204634 35.000000
3.652394 1.309185 0.895755 46.000000
3.655886 1.309719 -0.067785 51.000000
3.633925 1.301134 1.034241 38.000000
2.885847 1.029307 -0.820974 10.000000
3.656056 1.303300 0.067750 50.000000
3.131723 1.115773 -0.767533 9.000000
3.667107 1.305799 0.204006 43.000000
3.408625 1.213758 -0.703322 2.000000
3.637747 1.294627 0.337816 46.000000
3.623658 1.288902 -0.609156 3.000000
3.647318 1.296601 0.475290 40.000000
3.655027 1.298621 -0.476265 28.000000
3.631778 1.289649 0.610407 40.000000
3.655547 1.298089 -0.339384 41.000000
3.633767 1.289641 0.749498 44.000000
3.664936 1.299981 -0.203796 37.000000
3.620207 1.283406 0.886757 37.000000
3.643472 1.290938 -0.067471 55.000000
3.607488 1.277478 1.025441 41.000000
2.896710 1.021797 -0.823045 9.000000
3.632293 1.280559 0.067227 53.000000
3.131923 1.103538 -0.766633 9.000000
3.645269 1.283702 0.202540 43.000000
3.409138 1.200547 -0.702559 2.000000
3.634725 1.279277 0.337118 48.000000
3.598320 1.265757 -0.604150 2.000000
3.623731 1.273985 0.471634 43.000000
3.646427 1.281251 -0.474559 32.000000
3.615757 1.269763 0.606966 45.000000
3.629979 1.274758 -0.336595 41.000000
3.606755 1.265895 0.743010 46.000000
3.641180 1.277266 -0.202226 38.000000
3.611792 1.266247 0.883608 38.000000
3.623422 1.269614 -0.067017 51.000000
3.606454 1.262964 1.023888 45.000000
2.903907 1.012953 -0.824080 9.000000
3.610306 1.258655 0.066738 45.000000
3.132075 1.091319 -0.765733 9.000000
3.623322 1.261775 0.201075 46.000000
3.411454 1.187994 -0.702177 1.000000
3.622234 1.260687 0.335550 52.000000
3.595254 1.250592 -0.602898 2.000000
3.601905 1.252203 0.468222 46.000000
3.620875 1.258089 -0.470659 35.000000
3.608971 1.253245 0.605089 45.000000
3.621232 1.257503 -0.335375 37.000000
3.583331 1.243643 0.737286 44.000000
3.628634 1.258656 -0.201284 45.000000
3.579365 1.240865 0.874610 38.000000
3.608937 1.250413 -0.066668 51.000000
3.588935 1.242781 1.017676 42.000000
2.918383 1.006589 -0.827186 9.000000
3.593882 1.238877 0.066354 49.000000
3.135865 1.080378 -0.765733 9.000000
3.593712 1.237414 0.199191 46.000000
3.430431 1.181191 -0.705230 2.000000
3.600237 1.238959 0.333109 52.000000
3.577181 1.230327 -0.599144 2.000000
3.587482 1.233168 0.465785 43.000000
3.610225 1.240283 -0.468710 37.000000
3.585298 1.231020 0.600396 52.000000
3.604870 1.237740 -0.333458 41.000000
3.572795 1.226028 0.734233 44.000000
3.612224 1.238854 -0.200133 47.000000
3.563396 1.221415 0.869661 41.000000
3.586795 1.228734 -0.066180 57.000000
3.571319 1.222736 1.011465 42.000000
2.914564 0.993904 -0.825115 9.000000
3.586828 1.222453 0.066145 49.000000
3.158065 1.075708 -0.770232 9.000000
3.580992 1.219072 0.198249 41.000000
3.425239 1.166049 -0.703322 2.000000
3.580019 1.218041 0.330843 55.000000
3.572103 1.214652 -0.597580 3.000000
3.576728 1.215530 0.463835 42.000000
3.595737 1.221288 -0.466272 38.000000
3.563386 1.209607 0.596015 55.000000
3.590302 1.218744 -0.331715 42.000000
3.564038 1.209135 0.731562 46.000000
3.591937 1.217901 -0.198772 43.000000
3.549182 1.202713 0.865162 46.000000
3.568334 1.208509 -0.065761 57.000000
3.546288 1.200353 1.003183 45.000000
2.921677 0.984957 -0.826150 9.000000
3.560753 1.199709 0.065586 55.000000
3.163647 1.065300 -0.770682 9.000000
3.567980 1.201452 0.197307 43.000000
3.419986 1.150953 -0.701414 2.000000
3.554034 1.195374 0.328054 50.000000
3.538873 1.189588 -0.591322 3.000000
3.554605 1.194186 0.460422 46.000000
3.577396 1.201146 -0.463347 38.000000
3.544906 1.190238 0.592261 55.000000
3.558645 1.194161 -0.328403 46.000000
3.544039 1.188572 0.726601 48.000000
3.584805 1.201546 -0.198144 41.000000
3.538576 1.185366 0.861563 49.000000
3.562841 1.193494 -0.065586 64.000000
3.530097 1.181841 0.997489 40.000000
2.925098 0.974752 -0.826150 9.000000
3.549535 1.182837 0.065307 55.000000
3.172709 1.056651 -0.772032 9.000000
3.555097 1.183313 0.196365 42.000000
3.444474 1.145824 -0.705612 2.000000
3.535498 1.175418 0.325962 50.000000
3.503434 1.164758 -0.584752 5.000000
3.528404 1.172376 0.456523 43.000000
3.556868 1.181145 -0.460179 35.000000
3.535915 1.173501 0.590071 57.000000
3.551446 1.177968 -0.327357 43.000000
3.520010 1.167541 0.720876 52.000000
3.550853 1.177083 -0.196051 43.000000
3.523989 1.167495 0.857064 49.000000
3.548002 1.174764 -0.065237 61.000000
3.515861 1.163441 0.992312 40.000000
2.939323 0.968675 -0.829256 10.000000
3.534648 1.164185 0.064958 57.000000
3.163421 1.041304 -0.768883 9.000000
3.530545 1.162151 0.194794 43.000000
3.450120 1.135010 -0.705993 3.000000
3.528019 1.159955 0.324917 50.000000
3.501848 1.150673 -0.583813 8.000000
3.506072 1.151381 0.453110 40.000000
3.530792 1.158818 -0.456279 38.000000
3.522895 1.156226 0.587255 55.000000
3.536401 1.159975 -0.325614 43.000000
3.512871 1.151576 0.718587 52.000000
3.532164 1.157220 -0.194794 43.000000
3.494707 1.144273 0.848965 48.000000
3.536675 1.158015 -0.064958 61.000000
3.499503 1.145166 0.986618 45.000000
2.942687 0.958408 -0.829256 10.000000
3.523279 1.147502 0.064679 57.000000
3.179828 1.035030 -0.772032 9.000000
3.517486 1.144260 0.193852 48.000000
3.457795 1.124173 -0.706757 8.000000
3.513098 1.141475 0.323173 48.000000
3.501888 1.137832 -0.583188 27.000000
3.496654 1.135459 0.451404 42.000000
3.523286 1.143425 -0.454816 35.000000
3.496846 1.134170 0.582249 52.000000
3.525266 1.142710 -0.324219 50.000000
3.496126 1.133264 0.714389 50.000000
3.516982 1.139344 -0.193748 46.000000
3.474380 1.124874 0.843117 45.000000
3.510254 1.135811 -0.064399 61.000000
3.490612 1.128783 0.982995 46.000000
2.934815 0.945092 -0.826150 9.000000
3.513938 1.130909 0.064434 59.000000
3.183421 1.023924 -0.772032 9.000000
3.506248 1.127084 0.193015 48.000000
3.450289 1.109096 -0.704467 8.000000
3.494101 1.122507 0.321082 55.000000
3.519003 1.129829 -0.585378 38.000000
3.491145 1.120213 0.450185 47.000000
3.512134 1.126271 -0.452866 32.000000
3.474447 1.113517 0.577869 55.000000
3.496977 1.120065 -0.321256 48.000000
3.481364 1.115064 0.710573 50.000000
3.501915 1.120973 -0.192701 45.000000
3.463437 1.107989 0.839517 45.000000
3.479913 1.112591 -0.063771 56.000000
3.465088 1.107185 0.974713 46.000000
2.949306 0.937843 -0.829256 10.000000
3.477845 1.105911 0.063701 55.000000
3.196262 1.015756 -0.774282 4.000000
3.483511 1.106373 0.191550 50.000000
3.459945 1.098225 -0.705612 7.000000
3.471604 1.101257 0.318641 55.000000
3.498642 1.109162 -0.581311 51.000000
3.476112 1.102020 0.447748 48.000000
3.497119 1.108010 -0.450429 31.000000
3.457598 1.094822 0.574427 51.000000
3.479971 1.101238 -0.319339 46.000000
3.462965 1.095194 0.705993 50.000000
3.490766 1.103314 -0.191864 48.000000
3.454467 1.091178 0.836368 46.000000
3.472335 1.096822 -0.063562 56.000000
3.435771 1.084615 0.965395 48.000000
2.959934 0.929857 -0.831327 11.000000
3.451349 1.083572 0.063143 57.000000
3.190667 1.001118 -0.772032 3.000000
3.479729 1.091815 0.191131 48.000000
3.456264 1.083790 -0.704085 2.000000
3.460217 1.084367 0.317247 55.000000
3.474216 1.088088 -0.576617 47.000000
3.449816 1.079785 0.443848 48.000000
3.482212 1.089257 -0.447992 40.000000
3.450086 1.079208 0.572550 46.000000
3.464777 1.083140 -0.317596 46.000000
3.427414 1.070803 0.697979 38.000000
3.473624 1.084575 -0.190712 50.000000
3.450814 1.076792 0.834568 46.000000
3.455144 1.078143 -0.063178 52.000000
3.428471 1.069164 0.962289 48.000000
2.959471 0.918375 -0.830292 10.000000
3.447284 1.069751 0.063003 55.000000
3.192107 0.989955 -0.771582 3.000000
3.445364 1.067836 0.189038 48.000000
3.435647 1.064169 -0.699124 2.000000
3.446852 1.066980 0.315678 56.000000
3.453273 1.068968 -0.572550 45.000000
3.430621 1.061298 0.440923 50.000000
3.461150 1.070081 -0.444823 43.000000
3.433072 1.060745 0.569109 50.000000
3.449500 1.065160 -0.315852 50.000000
3.417816 1.055376 0.695308 43.000000
3.448575 1.064215 -0.189142 46.000000
3.420846 1.055006 0.826470 52.000000
3.445509 1.061952 -0.062933 50.000000
3.417412 1.052639 0.958148 48.000000
2.980969 0.914221 -0.835468 10.000000
3.424230 1.049507 0.062515 55.000000
3.212314 0.983942 -0.775631 3.000000
3.435702 1.051713 0.188305 43.000000
3.420384 1.047024 -0.695308 3.000000
3.433224 1.050297 0.314109 52.000000
3.451317 1.055174 -0.571612 42.000000
3.432405 1.048739 0.440680 52.000000
3.436386 1.049297 -0.441167 37.000000
3.421639 1.044142 0.566606 55.000000
3.441762 1.049628 -0.314807 51.000000
3.410211 1.040006 0.693018 43.000000
3.436985 1.047513 -0.188305 46.000000
3.398409 1.035108 0.820172 50.000000
3.433891 1.045259 -0.062654 56.000000
3.395191 1.032833 0.950901 42.000000
2.980603 0.902167 -0.834433 10.000000
3.424045 1.036388 0.062445 55.000000
3.219459 0.973852 -0.776531 2.000000
3.410675 1.031044 0.186735 42.000000
3.401647 1.027665 -0.690729 2.000000
3.412255 1.030221 0.311843 56.000000
3.438140 1.037382 -0.568796 45.000000
3.413240 1.029869 0.437755 51.000000
3.430525 1.034429 -0.439948 41.000000
3.389327 1.021363 0.560661 57.000000
3.422512 1.030712 -0.312715 51.000000
3.402721 1.024102 0.690729 46.000000
3.429325 1.031458 -0.187677 45.000000
3.390983 1.019280 0.817472 50.000000
3.406878 1.024058 -0.062096 59.000000
3.383974 1.016528 0.946760 46.000000
2.976329 0.889547 -0.832362 10.000000
3.402912 1.016392 0.061991 59.000000
3.232344 0.964832 -0.778781 2.000000
3.397029 1.013990 0.185793 40.000000
3.390162 1.011297 -0.687676 2.000000
3.387190 1.009765 0.309229 55.000000
3.405771 1.014657 -0.562851 37.000000
3.403673 1.013387 0.436049 46.000000
3.416991 1.017353 -0.437755 37.000000
3.379618 1.005581 0.558471 59.000000
3.406992 1.013079 -0.310972 55.000000
3.389337 1.007187 0.687294 51.000000
3.409929 1.012657 -0.186421 43.000000
3.371927 1.001372 0.812073 47.000000
3.398929 1.008745 -0.061886 59.000000
3.367128 0.998669 0.941066 45.000000
2.986674 0.881859 -0.834433 9.000000
3.385166 0.998878 0.061607 61.000000
3.218703 0.949146 -0.774731 2.000000
3.392710 1.000458 0.185374 43.000000
3.376548 0.995054 -0.684241 2.000000
3.382875 0.996277 0.308531 53.000000
3.392062 0.998337 -0.560035 40.000000
3.374640 0.992571 0.431905 50.000000
3.405111 1.001534 -0.435805 37.000000
3.365877 0.989356 0.555655 57.000000
3.396951 0.997844 -0.309752 53.000000
3.349332 0.983223 0.678517 48.000000
3.390270 0.994598 -0.185165 43.000000
3.364010 0.986894 0.809374 51.000000
3.386904 0.992967 -0.061607 59.000000
3.348175 0.980979 0.934854 43.000000
2.989582 0.871951 -0.834433 10.000000
3.375021 0.983729 0.061363 60.000000
3.233058 0.941740 -0.777431 2.000000
3.373169 0.981913 0.184118 46.000000
3.349669 0.975072 -0.678135 2.000000
3.367030 0.979487 0.306788 55.000000
3.385869 0.984328 -0.558471 41.000000
3.358850 0.975838 0.429468 51.000000
3.374272 0.979678 -0.431418 36.000000
3.359825 0.974847 0.554091 55.000000
3.381107 0.981023 -0.308008 52.000000
3.341260 0.968831 0.676227 48.000000
3.374367 0.977790 -0.184118 45.000000
3.339356 0.967013 0.802625 48.000000
3.374982 0.976693 -0.061328 56.000000
3.346011 0.967675 0.933302 47.000000
3.007459 0.865785 -0.838574 9.000000
3.359217 0.966414 0.061014 52.000000
3.232580 0.929371 -0.776531 3.000000
3.351622 0.962962 0.182757 50.000000
3.336070 0.958494 -0.674701 7.000000
3.370428 0.967729 0.306788 53.000000
3.374095 0.968144 -0.555968 42.000000
3.345062 0.959182 0.427274 50.000000
3.358588 0.962426 -0.428980 37.000000
3.334721 0.954957 0.549398 50.000000
3.378764 0.967569 -0.307485 55.000000
3.329522 0.952839 0.673174 55.000000
3.360477 0.961064 -0.183176 51.000000
3.322101 0.949461 0.797676 51.000000
3.351452 0.957217 -0.060839 56.000000
3.328935 0.950156 0.927607 50.000000
3.006746 0.854226 -0.837538 10.000000
3.351028 0.951406 0.060804 52.000000
3.245179 0.920740 -0.778781 2.000000
3.345355 0.948533 0.182234 47.000000
3.320508 0.941488 -0.670884 10.000000
3.333530 0.944552 0.303128 52.000000
3.366050 0.953130 -0.554091 47.000000
3.338840 0.944798 0.426055 51.000000
3.342825 0.945295 -0.426543 40.000000
3.313322 0.936326 0.545331 55.000000
3.345693 0.945474 -0.304174 53.000000
3.321492 0.938011 0.670884 52.000000
3.352278 0.946073 -0.182548 50.000000
3.310390 0.933626 0.794077 47.000000
3.333601 0.939546 -0.060455 55.000000
3.302479 0.930151 0.919325 51.000000
2.998549 0.840596 -0.834433 10.000000
3.325445 0.931610 0.060281 55.000000
3.261508 0.913085 -0.781930 3.000000
3.339029 0.934159 0.181710 48.000000
3.299196 0.923015 -0.665923 6.000000
3.313781 0.926472 0.301036 53.000000
3.346526 0.934997 -0.550336 47.000000
3.322998 0.927798 0.423618 52.000000
3.332720 0.929886 -0.424837 41.000000
3.308959 0.922633 0.544079 55.000000
3.329781 0.928439 -0.302430 52.000000
3.303943 0.920613 0.666687 50.000000
3.344016 0.931150 -0.181920 50.000000
3.304242 0.919454 0.791828 53.000000
3.317595 0.922546 -0.060106 52.000000
3.281508 0.911894 0.912596 52.000000
3.001465 0.830125 -0.834433 11.000000
3.305547 0.913605 0.059862 48.000000
3.272190 0.903770 -0.783729 9.000000
3.321092 0.916651 0.180559 47.000000
3.321323 0.916715 -0.669740 17.000000
3.309312 0.912780 0.300339 53.000000
3.321204 0.915437 -0.545643 51.000000
3.303251 0.909866 0.420693 52.000000
3.326376 0.915613 -0.423618 40.000000
3.293113 0.905837 0.540950 59.000000
3.311870 0.910997 -0.300513 50.000000
3.278741 0.901268 0.660962 48.000000
3.310653 0.909421 -0.179931 46.000000
3.290519 0.903271 0.787779 51.000000
3.311153 0.908314 -0.059932 49.000000
3.273492 0.897370 0.909490 52.000000
3.019254 0.823709 -0.838574 9.000000
3.293283 0.897852 0.059583 50.000000
3.264043 0.889270 -0.781030 6.000000
3.299218 0.898233 0.179198 52.000000
3.320714 0.904085 -0.668976 28.000000
3.297098 0.897038 0.298944 53.000000
3.305317 0.898656 -0.542515 53.000000
3.283419 0.892085 0.417768 52.000000
3.308479 0.898274 -0.420937 41.000000
3.277191 0.889165 0.537822 60.000000
3.297724 0.894736 -0.298944 47.000000
3.266708 0.885709 0.657909 55.000000
3.298385 0.893680 -0.179094 46.000000
3.271079 0.885668 0.782380 55.000000
3.287279 0.889439 -0.059443 50.000000
3.261686 0.881903 0.905349 48.000000
3.037035 0.817181 -0.842715 5.000000
3.279016 0.881678 0.059268 46.000000
3.255836 0.874836 -0.778331 6.000000
3.269388 0.878477 0.177419 46.000000
3.293512 0.884341 -0.662870 40.000000
3.288663 0.882426 0.297898 55.000000
3.293170 0.883019 -0.540012 51.000000
3.275008 0.877535 0.416306 51.000000
3.288584 0.880559 -0.418012 41.000000
3.261040 0.873184 0.534693 59.000000
3.285429 0.879100 -0.297550 48.000000
3.265987 0.873285 0.657146 55.000000
3.287978 0.878552 -0.178361 50.000000
3.251557 0.868213 0.776981 56.000000
3.276686 0.874922 -0.059199 55.000000
3.257127 0.869089 0.903279 48.000000
3.041736 0.807071 -0.843232 4.000000
3.270325 0.867723 0.059059 48.000000
3.256835 0.863534 -0.777881 2.000000
3.256990 0.862967 0.176582 46.000000
3.279497 0.868319 -0.659436 37.000000
3.260906 0.862786 0.295109 53.000000
3.280803 0.868051 -0.537509 53.000000
3.262547 0.862611 0.414356 53.000000
3.274212 0.865086 -0.415818 40.000000
3.233509 0.853726 0.529687 59.000000
3.271140 0.863051 -0.295981 51.000000
3.253678 0.858444 0.654093 57.000000
3.277354 0.864080 -0.177628 46.000000
3.241228 0.853949 0.773832 60.000000
3.262316 0.858896 -0.058884 56.000000
3.233984 0.850835 0.896032 48.000000
3.050003 0.798447 -0.844785 3.000000
3.244315 0.848710 0.058535 50.000000
3.240976 0.847231 -0.773382 2.000000
3.258050 0.851088 0.176477 48.000000
3.263364 0.852476 -0.655620 36.000000
3.234832 0.844420 0.292495 56.000000
3.255142 0.849113 -0.532816 47.000000
3.254013 0.848214 0.412893 52.000000
3.271449 0.852149 -0.415087 41.000000
3.230735 0.840940 0.528749 57.000000
3.256631 0.847681 -0.294412 52.000000
3.230054 0.840163 0.648751 57.000000
3.268752 0.849620 -0.177000 43.000000
3.232872 0.839690 0.771132 60.000000
3.251745 0.843988 -0.058640 60.000000
3.220104 0.835175 0.891373 50.000000
3.030325 0.782002 -0.838574 3.000000
3.233704 0.833886 0.058291 53.000000
3.198623 0.824244 -0.762584 2.000000
3.239725 0.834231 0.175325 46.000000
3.245406 0.835694 -0.651422 33.000000
3.233901 0.832129 0.292146 56.000000
3.240868 0.833321 -0.530000 45.000000
3.230037 0.829933 0.409481 52.000000
3.253254 0.835293 -0.412406 37.000000
3.225996 0.827696 0.527497 61.000000
3.246060 0.832844 -0.293192 51.000000
3.212048 0.823519 0.644553 60.000000
3.244611 0.831264 -0.175535 43.000000
3.228231 0.826469 0.769333 60.000000
3.231424 0.826683 -0.058221 57.000000
3.211770 0.821058 0.888267 56.000000
3.051758 0.776184 -0.843750 3.000000
3.223028 0.819144 0.058047 52.000000
3.180704 0.807796 -0.757635 2.000000
3.225194 0.818498 0.174383 48.000000
3.246400 0.823879 -0.651040 41.000000
3.219405 0.816429 0.290577 53.000000
3.234183 0.819576 -0.528436 50.000000
3.221367 0.815732 0.408019 51.000000
3.233057 0.818090 -0.409481 37.000000
3.213545 0.812556 0.524994 56.000000
3.237358 0.818577 -0.292146 51.000000
3.207290 0.810377 0.643026 61.000000
3.228128 0.815044 -0.174488 45.000000
3.212202 0.810427 0.764834 63.000000
3.220717 0.811976 -0.057977 55.000000
3.203377 0.807011 0.885161 57.000000
3.060071 0.766934 -0.845303 3.000000
3.214229 0.804973 0.057837 55.000000
3.179724 0.795743 -0.756735 2.000000
3.208656 0.802389 0.173337 52.000000
3.228306 0.807302 -0.646843 38.000000
3.210637 0.802287 0.289531 53.000000
3.225524 0.805411 -0.526558 50.000000
3.204935 0.799675 0.405581 55.000000
3.212780 0.801035 -0.406556 37.000000
3.197194 0.796558 0.521865 56.000000
3.220863 0.802455 -0.290403 51.000000
3.194858 0.795384 0.639973 61.000000
3.215448 0.799913 -0.173651 48.000000
3.173405 0.788867 0.754936 60.000000
3.196361 0.793982 -0.057488 53.000000
3.193050 0.792566 0.881538 58.000000
3.066480 0.757173 -0.846338 4.000000
3.195663 0.788481 0.057453 55.000000
3.173022 0.782306 -0.754486 2.000000
3.192044 0.786405 0.172290 52.000000
3.213948 0.791801 -0.643408 41.000000
3.192137 0.785838 0.287614 56.000000
3.222562 0.792730 -0.525620 51.000000
3.194213 0.785165 0.403875 56.000000
3.200133 0.786028 -0.404606 38.000000
3.171178 0.778330 0.517172 48.000000
3.198490 0.785033 -0.288137 48.000000
3.189988 0.782356 0.638447 61.000000
3.206582 0.785832 -0.173023 46.000000
3.185603 0.780102 0.757185 66.000000
3.181632 0.778541 -0.057174 51.000000
3.165771 0.774074 0.873255 61.000000
3.065350 0.745552 -0.845303 3.000000
3.182851 0.773543 0.057174 53.000000
3.173840 0.770764 -0.754036 3.000000
3.190888 0.774316 0.172081 55.000000
3.205245 0.777800 -0.641118 43.000000
3.179371 0.770934 0.286219 57.000000
3.209951 0.777754 -0.523117 51.000000
3.181499 0.770274 0.401925 58.000000
3.193210 0.772520 -0.403388 41.000000
3.166196 0.765398 0.515921 41.000000
3.176035 0.767776 -0.285871 50.000000
3.162165 0.763841 0.632341 55.000000
3.203481 0.773229 -0.172709 50.000000
3.154208 0.760752 0.749087 51.000000
3.174610 0.765088 -0.057000 53.000000
3.155307 0.759854 0.869632 62.000000
3.067934 0.734847 -0.845303 4.000000
3.158305 0.755912 0.056685 53.000000
3.159452 0.755603 -0.749987 2.000000
3.181916 0.760387 0.171453 57.000000
3.192665 0.762956 -0.638065 48.000000
3.168477 0.756591 0.284999 60.000000
3.187667 0.760585 -0.519050 55.000000
3.160997 0.753639 0.399000 60.000000
3.180439 0.757688 -0.401438 41.000000
3.161162 0.752512 0.514669 52.000000
3.169004 0.754379 -0.284999 48.000000
3.145713 0.748254 0.628525 55.000000
3.175070 0.754652 -0.171034 51.000000
3.160636 0.750638 0.749987 61.000000
3.171425 0.752616 -0.056895 56.000000
3.135384 0.743485 0.863420 63.000000
3.070480 0.724134 -0.845303 4.000000
3.149246 0.742130 0.056476 52.000000
3.150690 0.741890 -0.747287 4.000000
3.161221 0.743787 0.170197 61.000000
3.178109 0.747760 -0.634631 48.000000
3.163341 0.743703 0.284302 58.000000
3.180687 0.747196 -0.517485 57.000000
3.148148 0.738972 0.397050 60.000000
3.163738 0.742049 -0.399000 43.000000
3.144536 0.736966 0.511541 53.000000
3.158039 0.740131 -0.283779 50.000000
3.129190 0.732792 0.624709 50.000000
3.152404 0.737649 -0.169673 48.000000
3.134773 0.732947 0.743238 54.000000
3.148718 0.735626 -0.056441 56.000000
3.134197 0.731659 0.862385 62.000000
3.088044 0.716906 -0.849444 5.000000
3.145974 0.729776 0.056371 52.000000
3.117190 0.722527 -0.738739 5.000000
3.140322 0.727889 0.168940 58.000000
3.153923 0.730460 -0.629288 49.000000
3.146507 0.728164 0.282559 61.000000
3.167879 0.732529 -0.514982 55.000000
3.139104 0.725296 0.395588 58.000000
3.145033 0.726088 -0.396319 46.000000
3.127716 0.722090 0.508412 53.000000
3.152838 0.727312 -0.283082 50.000000
3.127903 0.720983 0.623945 50.000000
3.145228 0.724399 -0.169150 53.000000
3.118321 0.717630 0.738739 51.000000
3.131652 0.720698 -0.056092 56.000000
3.121545 0.717797 0.858244 62.000000
3.088644 0.705692 -0.848927 11.000000
3.138629 0.717113 0.056197 53.000000
3.121469 0.712619 -0.739189 4.000000
3.131160 0.714257 0.168312 58.000000
3.146883 0.717265 -0.627380 52.000000
3.133488 0.713637 0.281164 58.000000
3.158735 0.719387 -0.513105 57.000000
3.131814 0.712681 0.394369 61.000000
3.139681 0.713895 -0.395344 46.000000
3.114807 0.707667 0.505909 55.000000
3.128156 0.710126 -0.280641 51.000000
3.120704 0.708434 0.622037 51.000000
3.139822 0.712198 -0.168731 51.000000
3.109281 0.704700 0.736040 54.000000
3.112695 0.704903 -0.055708 57.000000
3.101421 0.701781 0.852032 63.000000
3.092852 0.695869 -0.849444 7.000000
3.111848 0.699574 0.055673 56.000000
3.122036 0.701291 -0.738739 10.000000
3.114147 0.698948 0.167266 60.000000
3.137750 0.704245 -0.625090 52.000000
3.104731 0.696267 0.278375 61.000000
3.126531 0.700581 -0.507473 57.000000
3.122660 0.699141 0.392907 62.000000
3.134404 0.701198 -0.394369 48.000000
3.101836 0.693342 0.503406 55.000000
3.111050 0.695402 -0.278898 51.000000
3.100165 0.692401 0.617458 56.000000
3.126694 0.697754 -0.167894 58.000000
3.104114 0.692145 0.734240 51.000000
3.109282 0.692728 -0.055603 62.000000
3.083109 0.686333 0.846338 60.000000
3.093376 0.684652 -0.848927 10.000000
3.102556 0.686116 0.055464 58.000000
3.101631 0.685345 -0.733340 33.000000
3.112667 0.687213 0.167056 60.000000
3.119102 0.688633 -0.620893 49.000000
3.107143 0.685424 0.278375 58.000000
3.113524 0.686262 -0.504970 55.000000
3.096001 0.681833 0.389251 58.000000
3.125201 0.687692 -0.392907 47.000000
3.086873 0.678693 0.500590 56.000000
3.103729 0.682399 -0.278027 52.000000
3.083388 0.677363 0.613642 56.000000
3.105701 0.681697 -0.166638 56.000000
3.098897 0.679635 0.732441 57.000000
3.101914 0.679731 -0.055429 65.000000
3.079824 0.674327 0.844785 63.000000
3.080646 0.670562 -0.844785 5.000000
3.089300 0.671883 0.055185 58.000000
3.088770 0.671203 -0.729741 42.000000
3.087605 0.670950 0.165591 60.000000
3.115731 0.676491 -0.619748 52.000000
3.101728 0.672885 0.277678 60.000000
3.098526 0.671624 -0.502155 53.000000
3.088662 0.668921 0.388032 62.000000
3.096423 0.670601 -0.389007 47.000000
3.083315 0.667201 0.499652 55.000000
3.098302 0.669878 -0.277330 53.000000
3.070382 0.663279 0.610589 56.000000
3.092443 0.667480 -0.165800 51.000000
3.063036 0.661132 0.723443 54.000000
3.094377 0.667333 -0.055254 63.000000
3.070713 0.661668 0.841680 62.000000
3.077186 0.659130 -0.843232 4.000000
3.081734 0.659543 0.055010 61.000000
3.087168 0.660141 -0.728841 43.000000
3.070282 0.656530 0.164544 60.000000
3.094918 0.661233 -0.615168 52.000000
3.088354 0.659269 0.276284 61.000000
3.098804 0.660933 -0.501842 57.000000
3.077273 0.655779 0.386326 57.000000
3.079214 0.656193 -0.386570 47.000000
3.066190 0.652859 0.496523 57.000000
3.092712 0.657941 -0.276632 52.000000
3.061042 0.650645 0.608299 56.000000
3.079010 0.653904 -0.164963 55.000000
3.055680 0.648949 0.721193 55.000000
3.071143 0.651672 -0.054801 65.000000
3.059661 0.648677 0.838056 60.000000
3.054780 0.643742 -0.836503 3.000000
3.076077 0.647671 0.054870 62.000000
3.075991 0.647092 -0.725692 46.000000
3.072555 0.645808 0.164544 61.000000
3.075960 0.646524 -0.610970 49.000000
3.067126 0.644109 0.274192 61.000000
3.089379 0.648220 -0.499965 57.000000
3.069716 0.643533 0.385107 61.000000
3.073714 0.643813 -0.385595 46.000000
3.051048 0.638510 0.493707 56.000000
3.073538 0.642655 -0.274715 57.000000
3.059340 0.639686 0.607536 59.000000
3.065521 0.640422 -0.164126 55.000000
3.054112 0.637482 0.720293 55.000000
3.055782 0.637272 -0.054486 63.000000
3.039212 0.633265 0.831844 61.000000
3.047660 0.630585 -0.833915 3.000000
3.058737 0.632877 0.054521 62.000000
3.070597 0.634772 -0.723893 49.000000
3.065010 0.633061 0.164021 61.000000
3.066772 0.632865 -0.608681 49.000000
3.053855 0.629644 0.272797 58.000000
3.074322 0.633306 -0.497149 60.000000
3.058334 0.630013 0.383401 56.000000
3.060388 0.629878 -0.383645 50.000000
3.049389 0.627059 0.493082 61.000000
3.064052 0.629518 -0.273669 57.000000
3.040509 0.624127 0.603338 58.000000
3.063935 0.628378 -0.163916 55.000000
3.037337 0.622373 0.715794 55.000000
3.048192 0.624597 -0.054312 67.000000
3.028156 0.619939 0.828221 62.000000
3.030911 0.616095 -0.828739 5.000000
3.043399 0.618081 0.054207 65.000000
3.057625 0.620414 -0.720293 55.000000
3.055565 0.619441 0.163393 62.000000
3.067038 0.621767 -0.608299 52.000000
3.040412 0.615817 0.271403 58.000000
3.062961 0.619827 -0.494959 62.000000
3.037274 0.614076 0.380476 58.000000
3.043218 0.614727 -0.381207 48.000000
3.038113 0.613143 0.490891 62.000000
3.054513 0.616453 -0.272623 57.000000
3.021499 0.609240 0.599140 59.000000
3.042614 0.612947 -0.162660 55.000000
3.028028 0.609459 0.713095 55.000000
3.042619 0.611841 -0.054172 67.000000
3.022831 0.607315 0.826150 63.000000
3.021676 0.603243 -0.825633 3.000000
3.035732 0.605497 0.054033 68.000000
3.031104 0.604025 -0.713545 54.000000
3.045956 0.606432 0.162765 65.000000
3.055712 0.608374 -0.605628 50.000000
3.036681 0.604033 0.270880 62.000000
3.049605 0.606052 -0.492456 62.000000
3.019928 0.599606 0.378039 60.000000
3.027821 0.600623 -0.379014 45.000000
3.026670 0.599847 0.488701 56.000000
3.042965 0.603077 -0.271403 58.000000
3.010126 0.596022 0.596469 58.000000
3.025142 0.598446 -0.161613 58.000000
3.005285 0.593972 0.707246 55.000000
3.042774 0.600832 -0.054137 68.000000
3.017352 0.595263 0.824080 63.000000
3.014285 0.590833 -0.823045 4.000000
3.024090 0.592207 0.053788 66.000000
3.023632 0.591569 -0.711295 58.000000
3.024533 0.591198 0.161509 63.000000
3.038549 0.593937 -0.601812 54.000000
3.027038 0.591139 0.269834 63.000000
3.043947 0.593889 -0.491204 62.000000
3.020054 0.588681 0.377795 61.000000
3.016260 0.587395 -0.377308 47.000000
3.009355 0.585505 0.485573 58.000000
3.031362 0.589787 -0.270183 62.000000
3.019897 0.587009 0.597995 58.000000
3.023292 0.587121 -0.161404 60.000000
2.995862 0.581252 0.704547 54.000000
3.017369 0.584878 -0.053649 68.000000
3.004238 0.581789 0.819939 63.000000
2.991667 0.575564 -0.816315 4.000000
3.026139 0.581648 0.053788 66.000000
3.016110 0.579173 -0.709046 61.000000
3.018732 0.579132 0.161090 65.000000
3.021322 0.579629 -0.597995 54.000000
3.009516 0.576819 0.268091 65.000000
3.034361 0.581031 -0.489327 65.000000
3.014292 0.576644 0.376820 61.000000
3.014392 0.576118 -0.376820 48.000000
2.990038 0.570921 0.482131 55.000000
3.004047 0.573596 -0.267568 61.000000
3.004571 0.573154 0.594561 59.000000
3.021399 0.575816 -0.161195 62.000000
2.988301 0.568968 0.702297 50.000000
2.993854 0.569485 -0.053195 66.000000
2.983476 0.566970 0.813727 65.000000
2.970878 0.560816 -0.810104 4.000000
2.996710 0.565151 0.053230 66.000000
3.012368 0.567559 -0.707696 56.000000
3.006995 0.566004 0.160357 66.000000
3.017539 0.567989 -0.596851 57.000000
2.988014 0.561891 0.265999 65.000000
3.016957 0.566789 -0.486198 63.000000
3.004580 0.563921 0.375358 61.000000
3.004678 0.563396 -0.375358 50.000000
2.970654 0.556480 0.478690 58.000000
2.990364 0.560172 -0.266174 56.000000
2.983397 0.558328 0.589981 59.000000
3.011611 0.563064 -0.160567 62.000000
2.982606 0.557102 0.700498 54.000000
2.987961 0.557563 -0.053055 67.000000
2.970244 0.553721 0.809586 65.000000
2.972818 0.550443 -0.810104 6.000000
2.979001 0.551050 0.052881 66.000000
2.989419 0.552438 -0.701847 55.000000
3.001096 0.554054 0.159939 66.000000
3.009850 0.555670 -0.594942 56.000000
2.989957 0.551458 0.265999 71.000000
2.999490 0.552675 -0.483070 65.000000
2.979198 0.548397 0.371945 65.000000
3.002722 0.552187 -0.374870 50.000000
2.968693 0.545392 0.478064 58.000000
2.984463 0.548289 -0.265476 58.000000
2.958293 0.542948 0.584639 59.000000
2.995878 0.549307 -0.159625 65.000000
2.974948 0.544931 0.698248 49.000000
2.985955 0.546409 -0.052986 66.000000
2.960756 0.541265 0.806480 62.000000
2.957614 0.536956 -0.805445 6.000000
2.969101 0.538506 0.052671 65.000000
2.966401 0.537483 -0.695999 50.000000
2.979334 0.539827 0.158683 65.000000
3.004044 0.543761 -0.593416 56.000000
2.974219 0.537826 0.264431 71.000000
2.985849 0.539393 -0.480567 65.000000
2.965466 0.535175 0.369995 65.000000
2.981188 0.537475 -0.371945 55.000000
2.962709 0.534143 0.476812 61.000000
2.980476 0.536811 -0.264953 62.000000
2.964035 0.533314 0.585402 61.000000
2.978119 0.535312 -0.158578 65.000000
2.953815 0.530411 0.692849 55.000000
2.973973 0.534031 -0.052741 63.000000
2.951126 0.529397 0.803374 63.000000
2.968980 0.528322 -0.808033 5.000000
2.959058 0.526556 0.052462 65.000000
2.960493 0.526278 -0.694199 51.000000
2.965468 0.526629 0.157845 66.000000
2.984660 0.529499 -0.589218 57.000000
2.972154 0.526746 0.264082 73.000000
2.975951 0.527419 -0.478690 63.000000
2.959405 0.523954 0.369020 63.000000
2.963406 0.524128 -0.369508 55.000000
2.952884 0.521737 0.474935 63.000000
2.970559 0.524325 -0.263908 63.000000
2.946454 0.520070 0.581586 59.000000
2.973978 0.524392 -0.158264 67.000000
2.930609 0.516219 0.687001 58.000000
2.954155 0.519835 -0.052357 67.000000
2.949151 0.518422 0.802339 63.000000
2.938364 0.512826 -0.799233 10.000000
2.958908 0.515881 0.052427 67.000000
2.952713 0.514269 -0.691949 49.000000
2.951547 0.513535 0.157008 67.000000
2.963189 0.515560 -0.584639 57.000000
2.950329 0.512794 0.261990 71.000000
2.966097 0.515000 -0.476812 65.000000
2.949481 0.511585 0.367558 65.000000
2.955438 0.512088 -0.368289 56.000000
2.939116 0.508730 0.472432 63.000000
2.946760 0.510053 -0.261642 67.000000
2.936644 0.507774 0.579296 59.000000
