# This PCD file was generated using the MATLAB® pcwrite function
# from Computer Vision Toolbox®.
# .PCD v.7 - Point Cloud Data file format
VERSION .7
FIELDS x y z intensity
SIZE 4 4 4 4
TYPE F F F F
COUNT 1 1 1 1
WIDTH 1281
HEIGHT 1
VIEWPOINT 0 0 0 1 0 0 0
POINTS 1281
DATA ascii
4.825770 2.633279 0.870714 21.000000
4.050571 2.210276 -0.403705 3.000000
4.810399 2.623806 1.065096 18.000000
4.583804 2.499172 -0.273612 1.000000
4.809968 2.621390 1.264675 19.000000
4.808017 2.619241 -0.095569 4.000000
4.789549 2.608096 1.461292 19.000000
2.624713 1.425102 -0.800269 9.000000
4.819155 2.615501 0.095709 25.000000
2.831441 1.536069 -0.743688 7.000000
4.812440 2.609680 0.286906 21.000000
3.068529 1.663995 -0.678517 7.000000
4.808167 2.606279 0.478485 20.000000
3.341635 1.810588 -0.601960 6.000000
4.793209 2.596004 0.669306 17.000000
3.669438 1.986542 -0.512339 3.000000
4.798447 2.596678 0.864144 23.000000
4.072278 2.203712 -0.405100 3.000000
4.778086 2.584579 1.055937 22.000000
4.599528 2.486955 -0.274031 1.000000
4.765943 2.575864 1.250728 19.000000
4.785462 2.585331 -0.094941 18.000000
4.759528 2.570248 1.449387 19.000000
2.636474 1.419597 -0.802339 9.000000
4.784235 2.574969 0.094836 25.000000
2.836786 1.526175 -0.743688 7.000000
4.768749 2.564487 0.283766 22.000000
3.081235 1.656994 -0.680043 7.000000
4.778627 2.568725 0.474650 23.000000
3.360116 1.805456 -0.604150 6.000000
4.760270 2.556715 0.663457 17.000000
3.685095 1.978416 -0.513557 3.000000
4.755266 2.551889 0.854758 23.000000
4.093991 2.197020 -0.406494 3.000000
4.747287 2.546541 1.047160 21.000000
4.608181 2.470886 -0.274031 1.000000
4.723378 2.531593 1.237231 19.000000
4.764493 2.552556 -0.094348 20.000000
4.719083 2.527171 1.434375 19.000000
2.634598 1.406745 -0.800269 9.000000
4.747327 2.533771 0.093929 24.000000
2.842096 1.516264 -0.743688 7.000000
4.738900 2.527151 0.281463 21.000000
3.076606 1.640686 -0.677754 7.000000
4.736578 2.524848 0.469595 24.000000
3.364654 1.792788 -0.603837 5.000000
4.732371 2.520488 0.658338 19.000000
3.677961 1.958077 -0.511608 3.000000
4.708341 2.505580 0.844746 23.000000
4.080529 2.171485 -0.404403 3.000000
4.712814 2.506905 1.037619 19.000000
4.652047 2.473537 -0.276125 1.000000
4.696049 2.495885 1.227783 19.000000
4.723926 2.509644 -0.093370 26.000000
4.683515 2.487124 1.420917 21.000000
2.636078 1.395731 -0.799233 9.000000
4.713724 2.494735 0.093091 26.000000
2.850817 1.508156 -0.744588 7.000000
4.701787 2.486317 0.278741 21.000000
3.089257 1.633607 -0.679280 7.000000
4.692518 2.480368 0.464366 19.000000
3.365652 1.778262 -0.602898 6.000000
4.697258 2.480776 0.652245 21.000000
3.681262 1.943374 -0.511120 3.000000
4.683865 2.471612 0.838802 23.000000
4.081036 2.153508 -0.403705 3.000000
4.676388 2.466623 1.027697 22.000000
4.607651 2.429340 -0.272984 1.000000
4.665082 2.458579 1.217435 19.000000
4.691966 2.471701 -0.092568 24.000000
4.644306 2.445559 1.406423 19.000000
2.644354 1.388318 -0.800269 9.000000
4.679906 2.455966 0.092253 26.000000
2.852613 1.496384 -0.743688 7.000000
4.673291 2.450414 0.276543 22.000000
3.101895 1.626461 -0.680807 7.000000
4.662324 2.443626 0.460531 20.000000
3.368340 1.764669 -0.602273 6.000000
4.654890 2.437659 0.645176 19.000000
3.714404 1.944322 -0.514776 3.000000
4.652209 2.434183 0.831606 22.000000
4.116774 2.154027 -0.406494 3.000000
4.631039 2.422080 1.015867 25.000000
4.617872 2.414167 -0.273089 3.000000
4.642548 2.426033 1.209337 24.000000
4.658025 2.433089 -0.091730 26.000000
4.621990 2.413237 1.397105 22.000000
2.659466 1.384430 -0.803374 9.000000
4.638781 2.413770 0.091276 24.000000
2.850903 1.482821 -0.741889 7.000000
4.635744 2.410131 0.273822 28.000000
3.118005 1.621056 -0.683096 7.000000
4.640770 2.411719 0.457568 26.000000
3.363961 1.747438 -0.600396 6.000000
4.619328 2.398525 0.639083 21.000000
3.712359 1.926771 -0.513557 3.000000
4.616840 2.395188 0.823784 24.000000
4.127805 2.141479 -0.406843 3.000000
4.599380 2.385111 1.007090 24.000000
4.596128 2.382407 -0.271310 1.000000
4.592158 2.379332 1.194040 21.000000
4.630977 2.398421 -0.091032 26.000000
4.585780 2.373998 1.383647 24.000000
2.660849 1.373367 -0.802339 10.000000
4.609859 2.378308 0.090543 24.000000
2.862989 1.476434 -0.743688 7.000000
4.597557 2.370945 0.271100 27.000000
3.118409 1.607465 -0.681951 8.000000
4.608426 2.374514 0.453559 26.000000
3.394626 1.748348 -0.604776 6.000000
4.592373 2.364215 0.634208 24.000000
3.726122 1.917435 -0.514532 3.000000
4.580845 2.357269 0.815962 24.000000
4.138799 2.128879 -0.407192 3.000000
4.565773 2.347498 0.997931 24.000000
4.558229 2.342613 -0.268588 1.000000
4.560567 2.342806 1.183692 22.000000
4.594438 2.360206 -0.090159 31.000000
4.564413 2.343775 1.374847 22.000000
2.669066 1.365830 -0.803374 9.000000
4.585679 2.346610 0.089915 30.000000
2.878279 1.472256 -0.746388 7.000000
4.566681 2.334880 0.268797 21.000000
3.111765 1.590315 -0.679280 7.000000
4.563458 2.331221 0.448329 24.000000
3.405683 1.739776 -0.605714 6.000000
4.564828 2.330919 0.629333 19.000000
3.721852 1.899652 -0.513070 3.000000
4.545057 2.318820 0.808141 28.000000
4.139103 2.110801 -0.406494 3.000000
4.543800 2.317183 0.991444 27.000000
4.551737 2.320227 -0.267751 1.000000
4.523166 2.304668 1.171995 22.000000
4.556318 2.320561 -0.089252 31.000000
4.515753 2.298906 1.357765 22.000000
2.666690 1.353475 -0.801304 9.000000
4.545691 2.306161 0.088972 31.000000
2.883401 1.462201 -0.746388 7.000000
4.551645 2.307185 0.267437 22.000000
3.127527 1.585313 -0.681570 7.000000
4.532064 2.296263 0.444494 26.000000
3.406448 1.725201 -0.604776 6.000000
4.530431 2.293451 0.623484 18.000000
3.746173 1.895611 -0.515507 3.000000
4.516106 2.284219 0.801570 24.000000
4.171340 2.108925 -0.408935 1.000000
4.516820 2.283591 0.983811 28.000000
4.549114 2.298918 -0.267123 1.000000
4.498134 2.272172 1.163447 24.000000
4.530475 2.287516 -0.088588 35.000000
4.485808 2.263978 1.346377 22.000000
2.678536 1.347164 -0.803374 9.000000
4.509051 2.267819 0.088100 30.000000
2.888488 1.452126 -0.746388 7.000000
4.518626 2.270655 0.265029 27.000000
3.150861 1.582653 -0.685386 7.000000
4.495935 2.257288 0.440136 27.000000
3.410983 1.711817 -0.604463 6.000000
4.497603 2.257143 0.617878 25.000000
3.745668 1.878965 -0.514532 3.000000
4.486969 2.249846 0.795000 24.000000
4.217863 2.113990 -0.412770 1.000000
4.463724 2.236243 0.970455 27.000000
4.503933 2.255402 -0.263983 1.000000
4.471580 2.238224 1.154449 21.000000
4.488363 2.246625 -0.087611 37.000000
4.460856 2.231886 1.336542 24.000000
2.690138 1.341254 -0.805445 9.000000
4.476168 2.230763 0.087297 24.000000
2.893790 1.441530 -0.746388 7.000000
4.487584 2.234494 0.262727 26.000000
3.142307 1.564643 -0.682333 7.000000
4.471680 2.225604 0.436999 27.000000
3.424011 1.703421 -0.605714 6.000000
4.463187 2.219431 0.612028 25.000000
3.754309 1.866104 -0.514776 3.000000
4.456265 2.214050 0.788117 28.000000
4.246628 2.109893 -0.414861 1.000000
4.439853 2.204929 0.963585 27.000000
4.450954 2.209471 -0.260424 1.000000
4.435723 2.200948 1.143201 26.000000
4.467904 2.215944 -0.087053 37.000000
4.432661 2.197498 1.325671 25.000000
2.694803 1.331856 -0.805445 9.000000
4.453450 2.200067 0.086704 28.000000
2.895310 1.429694 -0.745488 7.000000
4.438045 2.190530 0.259377 26.000000
3.158312 1.558879 -0.684623 7.000000
4.441899 2.191468 0.433338 26.000000
3.438796 1.695826 -0.607279 6.000000
4.433515 2.185407 0.606909 27.000000
3.760799 1.852991 -0.514776 2.000000
4.426753 2.180151 0.781547 28.000000
4.239668 2.088013 -0.413467 1.000000
4.417578 2.174678 0.957098 30.000000
4.429965 2.179815 -0.258749 1.000000
4.401412 2.164809 1.132404 30.000000
4.434338 2.180042 -0.086250 37.000000
4.405627 2.164975 1.315318 27.000000
2.692497 1.319041 -0.803374 9.000000
4.434164 2.171315 0.086180 33.000000
2.907284 1.423007 -0.747287 7.000000
4.414788 2.160875 0.257598 24.000000
3.160207 1.546118 -0.683859 7.000000
4.402987 2.153191 0.428806 26.000000
3.446468 1.684682 -0.607592 6.000000
4.403662 2.151617 0.601791 27.000000
3.774380 1.843335 -0.515751 3.000000
4.393133 2.145523 0.774351 30.000000
4.207540 2.053976 -0.409632 1.000000
4.393383 2.143746 0.950229 30.000000
4.381899 2.137196 -0.255504 3.000000
4.370404 2.130645 1.122506 28.000000
4.396605 2.143419 -0.085377 45.000000
4.374577 2.131734 1.303930 25.000000
2.693609 1.307946 -0.802339 9.000000
4.394571 2.133888 0.085272 35.000000
2.918999 1.416761 -0.749087 7.000000
4.389959 2.129757 0.255713 29.000000
3.169118 1.536790 -0.684623 7.000000
4.367447 2.116953 0.424623 28.000000
3.434260 1.664626 -0.604463 5.000000
4.373257 2.118827 0.596672 24.000000
3.792978 1.836864 -0.517457 3.000000
4.372147 2.116405 0.769345 30.000000
4.229032 2.046217 -0.411026 1.000000
4.354519 2.106934 0.940307 30.000000
4.372780 2.114825 -0.254562 19.000000
4.352882 2.104267 1.116207 28.000000
4.382453 2.117619 -0.084958 39.000000
4.341981 2.097126 1.292025 28.000000
2.711856 1.305712 -0.806480 9.000000
4.353341 2.095124 0.084330 33.000000
2.923928 1.406563 -0.749087 7.000000
4.364967 2.098840 0.253829 30.000000
3.181274 1.529676 -0.686149 7.000000
4.347507 2.089513 0.422008 30.000000
3.447172 1.656049 -0.605714 6.000000
4.346627 2.087220 0.592041 28.000000
3.806525 1.827050 -0.518432 3.000000
4.334982 2.079767 0.761523 28.000000
4.250165 2.039075 -0.412421 1.000000
4.312281 2.067950 0.929621 28.000000
4.345915 2.083147 -0.252573 21.000000
4.321538 2.070534 1.106309 25.000000
4.355552 2.085896 -0.084295 35.000000
4.310940 2.063607 1.280637 28.000000
2.716397 1.296238 -0.806480 9.000000
4.326334 2.063557 0.083667 33.000000
2.918265 1.391316 -0.746388 7.000000
4.334404 2.065548 0.251631 32.000000
3.193683 1.521941 -0.687676 7.000000
4.325994 2.060615 0.419219 30.000000
3.465417 1.649951 -0.607904 7.000000
4.307281 2.049857 0.585704 30.000000
3.812879 1.813752 -0.518432 3.000000
4.317241 2.052746 0.757143 31.000000
4.235666 2.013959 -0.410329 3.000000
4.291102 2.039402 0.923516 30.000000
4.324295 2.054253 -0.250899 19.000000
4.290012 2.037046 1.096411 27.000000
4.324869 2.052675 -0.083562 38.000000
4.283208 2.031986 1.270284 28.000000
2.727891 1.290051 -0.808551 9.000000
4.304585 2.034770 0.083108 31.000000
2.933675 1.386117 -0.749087 7.000000
4.292826 2.027376 0.248805 28.000000
3.191876 1.507430 -0.686149 7.000000
4.289918 2.025090 0.415036 31.000000
3.471155 1.637844 -0.607904 6.000000
4.285684 2.021260 0.581804 26.000000
3.812005 1.797047 -0.517457 3.000000
4.283280 2.018298 0.749947 35.000000
4.239065 1.997464 -0.409981 4.000000
4.271554 2.011862 0.917791 33.000000
4.297106 2.022983 -0.248910 19.000000
4.260067 2.004636 1.086964 30.000000
4.294008 2.019691 -0.082829 38.000000
4.265800 2.005515 1.263037 30.000000
2.728879 1.278882 -0.807515 9.000000
4.284499 2.007007 0.082585 33.000000
2.934966 1.374215 -0.748187 7.000000
4.263698 1.995448 0.246712 27.000000
3.200674 1.497944 -0.686912 7.000000
4.257259 1.991529 0.411201 30.000000
3.480430 1.627391 -0.608530 6.000000
4.265738 1.993681 0.578148 28.000000
3.834442 1.791290 -0.519651 3.000000
4.247342 1.983277 0.742438 33.000000
4.235180 1.977598 -0.408935 4.000000
4.251865 1.984485 0.912067 34.000000
4.273372 1.993615 -0.247130 21.000000
4.229949 1.972459 1.077516 28.000000
4.259344 1.985261 -0.082026 36.000000
4.223742 1.967770 1.248543 28.000000
2.733327 1.269347 -0.807515 9.000000
4.257017 1.976041 0.081922 35.000000
2.950351 1.368883 -0.750887 7.000000
4.252519 1.972149 0.245665 28.000000
3.213008 1.490065 -0.688439 7.000000
4.231648 1.961572 0.408063 31.000000
3.495051 1.619385 -0.610094 6.000000
4.236646 1.962093 0.573273 27.000000
3.846075 1.780395 -0.520382 3.000000
4.218383 1.951850 0.736181 33.000000
4.234824 1.959457 -0.408237 1.000000
4.212437 1.948203 0.902145 34.000000
4.253112 1.966114 -0.245560 25.000000
4.204966 1.942969 1.069417 28.000000
4.237202 1.956965 -0.081468 36.000000
4.195507 1.936819 1.238190 33.000000
2.741250 1.261416 -0.808551 9.000000
4.218470 1.940279 0.081049 36.000000
2.955112 1.358575 -0.750887 7.000000
4.232154 1.944784 0.244095 30.000000
3.214622 1.477202 -0.687676 7.000000
4.211311 1.934316 0.405449 34.000000
3.480935 1.598108 -0.606653 6.000000
4.201972 1.928251 0.567667 30.000000
3.866701 1.773581 -0.522332 3.000000
4.200033 1.925586 0.731801 33.000000
4.205416 1.928054 -0.404751 1.000000
4.176377 1.913859 0.892986 33.000000
4.223632 1.934622 -0.243467 27.000000
4.185145 1.916110 1.062669 27.000000
4.213095 1.928017 -0.080874 35.000000
4.174133 1.909306 1.229908 33.000000
2.745637 1.251839 -0.808551 9.000000
4.192463 1.910615 0.080421 35.000000
2.952743 1.345021 -0.749087 7.000000
4.197109 1.910965 0.241687 30.000000
3.237626 1.474108 -0.691492 7.000000
4.194463 1.908874 0.403182 35.000000
3.502675 1.593310 -0.609469 6.000000
4.174343 1.897961 0.563036 31.000000
3.863833 1.755965 -0.521113 1.000000
4.179751 1.898658 0.727107 35.000000
4.175840 1.896882 -0.401265 1.000000
4.156217 1.887095 0.887262 31.000000
4.197622 1.905009 -0.241583 28.000000
4.145667 1.880557 1.050971 30.000000
4.199765 1.904216 -0.080490 38.000000
4.156138 1.883559 1.222661 33.000000
2.753512 1.243837 -0.809586 9.000000
4.173591 1.884451 0.079932 36.000000
2.964525 1.337911 -0.750887 7.000000
4.163702 1.878234 0.239385 31.000000
3.232015 1.457953 -0.689202 7.000000
4.164774 1.877846 0.399696 31.000000
3.511817 1.582696 -0.610094 7.000000
4.155603 1.871963 0.559624 31.000000
3.859077 1.737580 -0.519651 1.000000
4.146723 1.866222 0.720224 36.000000
4.140648 1.863488 -0.397256 6.000000
4.135922 1.860493 0.881538 34.000000
4.169635 1.874786 -0.239594 19.000000
4.123765 1.853294 1.043773 31.000000
4.162609 1.869878 -0.079653 42.000000
4.130966 1.854795 1.213344 30.000000
2.750783 1.231061 -0.807515 9.000000
4.158239 1.860071 0.079513 39.000000
2.979851 1.332327 -0.753586 7.000000
4.137088 1.849741 0.237501 31.000000
3.229914 1.443458 -0.687676 7.000000
4.133101 1.846230 0.396036 31.000000
3.519125 1.571232 -0.610407 6.000000
4.125857 1.841267 0.554749 31.000000
3.883249 1.732184 -0.522088 1.000000
4.115004 1.835562 0.713654 40.000000
4.123472 1.838475 -0.394990 1.000000
4.119080 1.835657 0.876577 37.000000
4.145139 1.846403 -0.237815 27.000000
4.096385 1.823827 1.035225 34.000000
4.134078 1.840609 -0.078990 40.000000
4.092968 1.821452 1.200403 28.000000
2.755064 1.221451 -0.807515 9.000000
4.113198 1.823577 0.078536 37.000000
2.984253 1.322439 -0.753586 7.000000
4.116126 1.823159 0.235931 33.000000
3.249295 1.438532 -0.690729 7.000000
4.103082 1.815666 0.392549 31.000000
3.535154 1.564351 -0.612285 6.000000
4.101077 1.813925 0.550606 30.000000
3.899865 1.724112 -0.523551 1.000000
4.088863 1.806815 0.708022 36.000000
4.060607 1.793484 -0.388366 1.000000
4.085634 1.804538 0.868181 37.000000
4.132968 1.824580 -0.236768 24.000000
4.070318 1.796073 1.027126 34.000000
4.116691 1.815679 -0.078536 40.000000
4.063948 1.791568 1.190050 31.000000
2.766173 1.215418 -0.809586 9.000000
4.093905 1.797954 0.078047 35.000000
2.981713 1.308881 -0.751786 7.000000
4.102033 1.800667 0.234779 34.000000
3.257643 1.429328 -0.691492 7.000000
4.081711 1.790045 0.389935 34.000000
3.533356 1.548830 -0.611033 6.000000
4.071020 1.783665 0.545731 33.000000
3.913134 1.713673 -0.524526 1.000000
4.071310 1.782943 0.703955 38.000000
4.040979 1.768822 -0.385926 1.000000
4.055936 1.774526 0.860549 37.000000
4.097224 1.791735 -0.234360 28.000000
4.051564 1.770928 1.020828 34.000000
4.089708 1.787601 -0.077908 40.000000
4.048623 1.768801 1.183838 33.000000
2.777484 1.208839 -0.811657 9.000000
4.066841 1.770003 0.077419 37.000000
2.989611 1.300542 -0.752686 7.000000
4.075325 1.772001 0.232895 34.000000
3.273415 1.422644 -0.693782 7.000000
4.062350 1.764676 0.387494 37.000000
3.551155 1.542614 -0.613223 6.000000
4.047779 1.757504 0.541831 33.000000
3.926078 1.703851 -0.525501 2.000000
4.048512 1.756146 0.698949 36.000000
4.025194 1.745194 -0.383834 3.000000
4.025774 1.745445 0.852916 36.000000
4.070157 1.763845 -0.232476 28.000000
4.028802 1.745091 1.013629 33.000000
4.064727 1.759807 -0.077314 40.000000
4.028178 1.743148 1.176074 33.000000
2.781897 1.198650 -0.811657 10.000000
4.044222 1.741718 0.076860 39.000000
2.994583 1.289052 -0.752686 7.000000
4.037764 1.738101 0.230383 36.000000
3.271394 1.407532 -0.692255 7.000000
4.043166 1.738754 0.385054 34.000000
3.555238 1.528186 -0.612910 6.000000
4.027139 1.730196 0.538175 35.000000
3.919823 1.683279 -0.523794 1.000000
4.024065 1.728044 0.693630 40.000000
4.020578 1.725715 -0.382788 16.000000
4.010795 1.720687 0.848337 37.000000
4.053036 1.737972 -0.231116 33.000000
3.992486 1.711183 1.002832 36.000000
4.036227 1.729930 -0.076651 39.000000
4.007904 1.716963 1.168309 33.000000
2.789617 1.190449 -0.812692 9.000000
4.027904 1.718879 0.076442 37.000000
3.002426 1.280644 -0.753586 7.000000
4.018085 1.713029 0.228917 31.000000
3.265451 1.391487 -0.689965 7.000000
4.012549 1.709016 0.381568 33.000000
3.565738 1.518711 -0.613849 5.000000
4.010937 1.707500 0.535250 32.000000
3.958262 1.684262 -0.528182 2.000000
3.999170 1.700845 0.688312 43.000000
4.006408 1.703095 -0.380871 19.000000
3.994798 1.698160 0.843757 36.000000
4.031203 1.712807 -0.229546 33.000000
3.976614 1.688794 0.997433 37.000000
4.010950 1.702547 -0.076058 40.000000
3.976525 1.687118 1.157439 33.000000
2.786433 1.178182 -0.810621 9.000000
4.000725 1.690796 0.075813 39.000000
3.019444 1.275463 -0.756735 9.000000
4.000120 1.688894 0.227557 30.000000
3.284517 1.386759 -0.693018 7.000000
3.975976 1.677883 0.377559 33.000000
3.583758 1.511628 -0.616039 6.000000
3.985776 1.680380 0.531107 33.000000
3.954972 1.666580 -0.526963 7.000000
3.975955 1.674605 0.683306 43.000000
3.975311 1.674334 -0.377384 23.000000
3.971750 1.672018 0.837652 40.000000
4.002180 1.684006 -0.227557 28.000000
3.960929 1.665836 0.992034 37.000000
3.991060 1.677688 -0.075569 40.000000
3.943208 1.656763 1.146051 30.000000
2.794092 1.169941 -0.811657 9.000000
3.971554 1.662153 0.075150 39.000000
3.011293 1.259652 -0.753586 9.000000
3.982035 1.664906 0.226196 31.000000
3.296582 1.378315 -0.694545 8.000000
3.961588 1.655542 0.375641 34.000000
3.581722 1.496065 -0.614788 6.000000
3.960476 1.653457 0.526963 28.000000
3.940613 1.644354 -0.524282 5.000000
3.959898 1.651592 0.679551 43.000000
3.962742 1.652778 -0.375641 28.000000
3.932260 1.639257 0.828111 39.000000
3.965631 1.652357 -0.225149 26.000000
3.937936 1.640013 0.984836 37.000000
3.972892 1.653755 -0.075115 42.000000
3.929348 1.634825 1.140357 33.000000
2.808866 1.164621 -0.814762 9.000000
3.955164 1.639091 0.074731 37.000000
3.017473 1.249878 -0.754036 9.000000
3.952476 1.637169 0.224207 34.000000
3.308629 1.369804 -0.696071 7.000000
3.947091 1.633325 0.373724 37.000000
3.585097 1.482797 -0.614475 7.000000
3.933202 1.625972 0.522576 30.000000
3.946329 1.630590 -0.524282 2.000000
3.937968 1.627135 0.674858 37.000000
3.942706 1.628287 -0.373201 30.000000
3.910737 1.614286 0.822387 37.000000
3.947372 1.628602 -0.223789 30.000000
3.907606 1.611397 0.975838 36.000000
3.954321 1.630661 -0.074661 40.000000
3.911528 1.612216 1.133627 33.000000
2.816488 1.156275 -0.815798 10.000000
3.929129 1.613057 0.074138 34.000000
3.025206 1.241345 -0.754936 9.000000
3.921209 1.608206 0.222114 34.000000
3.306124 1.355267 -0.694545 7.000000
3.928800 1.609718 0.371458 42.000000
3.613757 1.480637 -0.618542 3.000000
3.911017 1.601634 0.518920 32.000000
3.898437 1.595688 -0.517214 2.000000
3.905231 1.597671 0.668288 35.000000
3.926235 1.605466 -0.371109 30.000000
3.894262 1.592392 0.817807 37.000000
3.932414 1.607192 -0.222637 34.000000
3.889477 1.588849 0.969989 36.000000
3.917408 1.599464 -0.073859 39.000000
3.902822 1.592714 1.129486 35.000000
2.813149 1.144017 -0.813727 9.000000
3.903244 1.586530 0.073544 37.000000
3.043964 1.236646 -0.758535 9.000000
3.908293 1.586993 0.221067 34.000000
3.306963 1.342818 -0.693782 7.000000
3.897195 1.581694 0.367972 41.000000
3.637208 1.475440 -0.621671 1.000000
3.900028 1.581259 0.516726 33.000000
3.885585 1.574613 -0.514776 2.000000
3.877826 1.570683 0.662656 40.000000
3.891186 1.575302 -0.367274 30.000000
3.883419 1.572158 0.814373 37.000000
3.915783 1.584465 -0.221381 35.000000
3.873319 1.566498 0.964590 39.000000
3.891451 1.573038 -0.073265 40.000000
3.865370 1.561711 1.117063 35.000000
2.813739 1.132257 -0.812692 9.000000
3.875365 1.559459 0.072916 36.000000
3.051878 1.227467 -0.759435 9.000000
3.884160 1.561421 0.219392 34.000000
3.322792 1.335081 -0.696071 7.000000
3.864140 1.551808 0.364311 38.000000
3.613261 1.450323 -0.616665 1.000000
3.879733 1.557282 0.513314 33.000000
3.859738 1.548476 -0.510633 2.000000
3.866785 1.550520 0.659841 47.000000
3.870771 1.551332 -0.364834 30.000000
3.843593 1.539663 0.804832 40.000000
3.899314 1.561195 -0.220125 34.000000
3.855515 1.542876 0.958741 39.000000
3.878353 1.552015 -0.072916 45.000000
3.843892 1.537448 1.109298 34.000000
2.824853 1.125288 -0.814762 10.000000
3.858761 1.536369 0.072497 39.000000
3.047303 1.212671 -0.757185 7.000000
3.860163 1.535365 0.217718 35.000000
3.334730 1.326375 -0.697598 8.000000
3.849167 1.530213 0.362394 42.000000
3.629315 1.442081 -0.618542 1.000000
3.852205 1.529864 0.508926 33.000000
3.843248 1.525530 -0.507708 2.000000
3.843063 1.524683 0.654835 40.000000
3.863197 1.532670 -0.363614 31.000000
3.827044 1.517552 0.800253 45.000000
3.860178 1.529911 -0.217613 33.000000
3.837323 1.520080 0.952893 40.000000
3.854267 1.526012 -0.072358 50.000000
3.827946 1.514818 1.103087 34.000000
2.850329 1.123926 -0.820974 9.000000
3.843635 1.514823 0.072113 40.000000
3.058771 1.204882 -0.758985 7.000000
3.832046 1.508713 0.215834 34.000000
3.333858 1.312572 -0.696453 8.000000
3.832237 1.508014 0.360302 41.000000
3.641680 1.432294 -0.619793 1.000000
3.822419 1.502612 0.504295 31.000000
3.809749 1.496861 -0.502589 2.000000
3.826298 1.502593 0.651080 40.000000
3.844416 1.509708 -0.361348 35.000000
3.814043 1.497010 0.796437 46.000000
3.839465 1.506217 -0.216148 31.000000
3.804507 1.491737 0.943445 39.000000
3.833504 1.502333 -0.071869 50.000000
3.806228 1.490879 1.095322 37.000000
2.850636 1.112564 -0.819939 9.000000
3.820956 1.490496 0.071590 46.000000
3.066589 1.195614 -0.759885 7.000000
3.812838 1.486565 0.214473 37.000000
3.343908 1.303064 -0.697598 7.000000
3.818912 1.487395 0.358559 41.000000
3.657702 1.423874 -0.621671 1.000000
3.809141 1.482061 0.501858 32.000000
3.796450 1.476358 -0.500152 2.000000
3.790756 1.474144 0.644197 40.000000
3.825520 1.486896 -0.359082 31.000000
3.793625 1.473737 0.791094 45.000000
3.822358 1.484130 -0.214891 34.000000
3.776989 1.465758 0.935346 39.000000
3.812365 1.479486 -0.071380 52.000000
3.787736 1.469168 1.088593 38.000000
2.843690 1.098429 -0.816833 10.000000
3.801627 1.468451 0.071136 48.000000
3.063265 1.182631 -0.758085 7.000000
3.799370 1.466055 0.213426 42.000000
3.352100 1.292796 -0.698361 7.000000
3.799912 1.464743 0.356293 46.000000
3.680835 1.418843 -0.624799 1.000000
3.793660 1.461570 0.499177 35.000000
3.777242 1.454488 -0.496983 2.000000
3.770068 1.450972 0.639817 39.000000
3.799075 1.461372 -0.356118 30.000000
3.778335 1.453395 0.786896 48.000000
3.808615 1.464279 -0.213845 34.000000
3.758182 1.444137 0.929498 40.000000
3.780172 1.451830 -0.070682 50.000000
3.765789 1.445552 1.080828 41.000000
2.847317 1.088992 -0.816833 9.000000
3.774976 1.443034 0.070543 52.000000
3.092860 1.181668 -0.764384 7.000000
3.782075 1.444233 0.212170 45.000000
3.352700 1.280271 -0.697598 7.000000
3.767520 1.437924 0.352806 48.000000
3.658082 1.395424 -0.620106 2.000000
3.782045 1.441953 0.496983 40.000000
3.752616 1.429985 -0.493083 3.000000
3.756650 1.430771 0.636688 40.000000
3.775971 1.438130 -0.353504 27.000000
3.754029 1.429021 0.780790 48.000000
3.789436 1.441744 -0.212484 35.000000
3.748628 1.425469 0.925899 40.000000
3.770263 1.432941 -0.070403 52.000000
3.734693 1.418678 1.070476 41.000000
2.858328 1.081784 -0.818903 9.000000
3.746324 1.417112 0.069914 46.000000
3.086029 1.166730 -0.761684 7.000000
3.770278 1.424671 0.211228 48.000000
3.373677 1.274808 -0.701032 8.000000
3.753878 1.417724 0.351063 48.000000
3.685108 1.391016 -0.623861 2.000000
3.751766 1.415430 0.492352 42.000000
3.752013 1.414775 -0.492352 9.000000
3.739441 1.409289 0.632934 42.000000
3.749274 1.412995 -0.350540 34.000000
3.727760 1.404144 0.774303 45.000000
3.766408 1.417951 -0.210914 39.000000
3.729870 1.403452 0.920050 40.000000
3.752781 1.411325 -0.069984 52.000000
3.721539 1.398835 1.065299 41.000000
2.862087 1.071799 -0.818903 9.000000
3.736265 1.398420 0.069635 42.000000
3.086433 1.154585 -0.760784 7.000000
3.735942 1.396812 0.209030 42.000000
3.376268 1.262335 -0.700651 7.000000
3.743873 1.399033 0.349669 48.000000
3.673286 1.371925 -0.621045 8.000000
3.725068 1.390524 0.488209 40.000000
3.738330 1.394731 -0.489915 25.000000
3.733232 1.392087 0.631057 45.000000
3.741115 1.395027 -0.349320 41.000000
3.710563 1.382897 0.769724 46.000000
3.743260 1.394337 -0.209344 37.000000
3.696394 1.376147 0.910602 42.000000
3.744565 1.393337 -0.069740 49.000000
3.708293 1.379101 1.060123 45.000000
2.880302 1.067172 -0.823045 9.000000
3.724247 1.379118 0.069321 45.000000
3.097755 1.146509 -0.762584 9.000000
3.714569 1.374063 0.207564 41.000000
3.384336 1.251905 -0.701414 7.000000
3.718834 1.374900 0.346880 50.000000
3.689170 1.363201 -0.622922 6.000000
3.705691 1.368573 0.485040 42.000000
3.735727 1.378923 -0.488940 42.000000
3.704710 1.366739 0.625425 39.000000
3.740355 1.379889 -0.348797 42.000000
3.693263 1.361786 0.765144 51.000000
3.718120 1.370212 -0.207669 33.000000
3.677403 1.354479 0.904753 45.000000
3.711874 1.366441 -0.069042 49.000000
3.694954 1.359478 1.054946 41.000000
2.873127 1.053122 -0.819939 9.000000
3.712139 1.359920 0.069007 48.000000
3.110887 1.139039 -0.764834 9.000000
3.694961 1.352164 0.206204 40.000000
3.384998 1.238734 -0.700651 7.000000
3.693672 1.350961 0.344091 48.000000
3.690195 1.348960 -0.622296 5.000000
3.686207 1.346773 0.481871 40.000000
3.701359 1.351577 -0.483821 30.000000
3.677912 1.342287 0.620106 46.000000
3.715202 1.355896 -0.346008 42.000000
3.683239 1.343503 0.762091 46.000000
3.704115 1.350385 -0.206622 33.000000
3.661968 1.334296 0.899804 46.000000
3.684679 1.341843 -0.068448 55.000000
3.663370 1.333358 1.044594 39.000000
2.876786 1.043085 -0.819939 10.000000
3.686782 1.336053 0.068448 49.000000
3.109348 1.126181 -0.763484 7.000000
3.694024 1.337218 0.205890 41.000000
3.391148 1.227578 -0.701032 3.000000
3.670262 1.327893 0.341476 41.000000
3.657729 1.322635 -0.616039 3.000000
3.675951 1.328499 0.479922 38.000000
3.691118 1.333254 -0.481871 28.000000
3.660279 1.321390 0.616352 40.000000
3.689929 1.332094 -0.343219 45.000000
3.658360 1.319976 0.755985 46.000000
3.695655 1.332705 -0.205890 35.000000
3.651937 1.316218 0.896205 41.000000
3.678052 1.324905 -0.068239 55.000000
3.638919 1.310093 1.036312 44.000000
2.894957 1.038255 -0.824080 9.000000
3.665070 1.313729 0.067960 49.000000
3.126101 1.119924 -0.766633 9.000000
3.677985 1.316910 0.204738 43.000000
3.393564 1.215072 -0.700651 3.000000
3.654240 1.307688 0.339559 46.000000
3.634423 1.299881 -0.611346 2.000000
3.646919 1.303632 0.475534 38.000000
3.667709 1.310342 -0.478215 24.000000
3.649986 1.303292 0.613849 40.000000
3.668286 1.309827 -0.340779 42.000000
3.635209 1.297301 0.750261 50.000000
3.662661 1.306377 -0.203796 36.000000
3.630811 1.294301 0.889906 39.000000
3.660050 1.304006 -0.067820 54.000000
3.625271 1.290902 1.031135 41.000000
2.894922 1.026851 -0.823045 9.000000
3.637592 1.289569 0.067366 50.000000
3.113460 1.103147 -0.762584 7.000000
3.644906 1.290728 0.202645 46.000000
3.410739 1.207805 -0.703322 2.000000
3.643756 1.289607 0.338164 48.000000
3.611004 1.277306 -0.606653 2.000000
3.634603 1.284939 0.473341 42.000000
3.647928 1.288935 -0.475047 31.000000
3.630298 1.281993 0.609782 45.000000
3.655928 1.291044 -0.339210 43.000000
3.615649 1.276108 0.745300 46.000000
3.646480 1.286274 -0.202645 40.000000
3.607738 1.271902 0.883158 41.000000
3.638176 1.281917 -0.067331 55.000000
3.611534 1.271821 1.025959 41.000000
2.894842 1.015463 -0.822009 9.000000
3.630749 1.272893 0.067157 53.000000
3.133844 1.098071 -0.766633 9.000000
3.624883 1.269418 0.201284 48.000000
3.411228 1.194597 -0.702559 2.000000
3.633192 1.271614 0.336770 50.000000
3.609847 1.262736 -0.605714 2.000000
3.616579 1.264385 0.470416 43.000000
3.624296 1.266371 -0.471391 34.000000
3.608642 1.260195 0.605401 45.000000
3.630316 1.267763 -0.336421 40.000000
3.603397 1.257659 0.741865 50.000000
3.635861 1.268276 -0.201807 40.000000
3.591915 1.252244 0.878209 37.000000
3.616190 1.260001 -0.066843 54.000000
3.595883 1.252219 1.020265 42.000000
2.891069 1.002819 -0.819939 9.000000
3.618166 1.254316 0.066843 48.000000
3.130292 1.084574 -0.764834 9.000000
3.616082 1.252181 0.200551 46.000000
3.415377 1.182681 -0.702559 2.000000
3.605601 1.247846 0.333806 52.000000
3.595564 1.243671 -0.602586 2.000000
3.613466 1.249157 0.469441 46.000000
3.617437 1.249822 -0.469928 35.000000
3.583144 1.237275 0.600396 48.000000
3.608354 1.245980 -0.333981 37.000000
3.587352 1.238027 0.737668 46.000000
3.621385 1.249064 -0.200761 42.000000
3.575998 1.232713 0.873260 41.000000
3.597879 1.239553 -0.066424 54.000000
3.574660 1.230854 1.013018 45.000000
2.909171 0.997734 -0.824080 10.000000
3.590363 1.230658 0.066249 53.000000
3.148808 1.078692 -0.768433 9.000000
3.597756 1.231787 0.199295 47.000000
3.412055 1.168208 -0.701032 3.000000
3.574117 1.222999 0.330495 52.000000
3.577454 1.223441 -0.598831 2.000000
3.591507 1.227547 0.466028 46.000000
3.610506 1.233339 -0.468466 38.000000
3.572486 1.219653 0.597893 51.000000
3.588169 1.225008 -0.331715 41.000000
3.560065 1.214719 0.731180 44.000000
3.616271 1.233194 -0.200237 45.000000
3.563679 1.214564 0.869211 44.000000
3.585148 1.221182 -0.066110 60.000000
3.553331 1.209655 1.005771 42.000000
2.908977 0.986333 -0.823045 9.000000
3.573805 1.211057 0.065865 55.000000
3.156245 1.068945 -0.769333 9.000000
3.585007 1.213459 0.198353 48.000000
3.434709 1.162585 -0.704848 2.000000
3.565153 1.206045 0.329274 52.000000
3.548020 1.199557 -0.593200 2.000000
3.563799 1.204201 0.461885 47.000000
3.595982 1.214376 -0.466028 37.000000
3.569235 1.204648 0.596641 57.000000
3.571658 1.205466 -0.329797 46.000000
3.543820 1.195383 0.726982 52.000000
3.582701 1.207802 -0.198144 41.000000
3.543890 1.194027 0.863362 48.000000
3.572333 1.202918 -0.065796 64.000000
3.546546 1.193546 1.002665 45.000000
2.927056 0.981083 -0.827186 9.000000
3.560945 1.192859 0.065551 53.000000
3.156261 1.056684 -0.768433 9.000000
3.553026 1.189517 0.196365 43.000000
3.440608 1.151211 -0.705230 2.000000
3.552336 1.187907 0.327706 50.000000
3.537196 1.182158 -0.590697 5.000000
3.543504 1.183577 0.458716 43.000000
3.558567 1.188608 -0.460666 37.000000
3.545104 1.183425 0.591948 55.000000
3.562614 1.188580 -0.328577 48.000000
3.533072 1.178036 0.723929 52.000000
3.564158 1.187711 -0.196888 42.000000
3.514551 1.171180 0.855264 52.000000
3.566816 1.187907 -0.065621 66.000000
3.524823 1.173236 0.995418 42.000000
2.941295 0.975019 -0.830292 9.000000
3.551594 1.176641 0.065307 57.000000
3.165298 1.048049 -0.769782 7.000000
3.530407 1.168938 0.194899 47.000000
3.448134 1.141029 -0.705993 2.000000
3.533556 1.168612 0.325614 50.000000
3.514839 1.161742 -0.586316 7.000000
3.526675 1.164971 0.456035 40.000000
3.532330 1.166839 -0.456766 37.000000
3.528375 1.164850 0.588507 57.000000
3.557076 1.173637 -0.327706 50.000000
3.510855 1.157707 0.718587 49.000000
3.545314 1.168384 -0.195632 41.000000
3.501758 1.154029 0.851215 53.000000
3.530850 1.162934 -0.064888 64.000000
3.519519 1.158521 0.992830 40.000000
2.929827 0.960445 -0.826150 10.000000
3.536473 1.158632 0.064958 60.000000
3.179868 1.041185 -0.772482 9.000000
3.526873 1.154122 0.194480 46.000000
3.457496 1.131419 -0.707138 7.000000
3.510900 1.148219 0.323173 48.000000
3.507406 1.146398 -0.584439 15.000000
3.511650 1.147105 0.453598 38.000000
3.525059 1.150806 -0.455304 38.000000
3.502372 1.142724 0.583501 57.000000
3.525161 1.149476 -0.324394 48.000000
3.494143 1.139362 0.714389 50.000000
3.530179 1.150433 -0.194585 43.000000
3.481677 1.133953 0.845366 52.000000
3.515873 1.144412 -0.064539 64.000000
3.486799 1.134277 0.982477 47.000000
2.937003 0.950891 -0.827186 9.000000
3.508154 1.135808 0.064364 57.000000
3.183484 1.030078 -0.772482 7.000000
3.519478 1.138117 0.193852 46.000000
3.476565 1.123570 -0.710191 8.000000
3.492334 1.127993 0.321082 50.000000
3.511585 1.133535 -0.584439 33.000000
3.498630 1.129353 0.451404 42.000000
3.519608 1.135446 -0.454085 33.000000
3.487539 1.124429 0.580372 57.000000
3.498809 1.127388 -0.321605 48.000000
3.474002 1.118726 0.709428 48.000000
3.515360 1.131367 -0.193538 45.000000
3.478389 1.118798 0.843566 48.000000
3.500810 1.126010 -0.064190 61.000000
3.461312 1.112639 0.974195 46.000000
2.943984 0.941811 -0.828221 10.000000
3.489436 1.115636 0.063946 59.000000
3.179812 1.016032 -0.770682 7.000000
3.502697 1.118528 0.192701 50.000000
3.476725 1.110234 -0.709428 11.000000
3.486759 1.112768 0.320210 52.000000
3.500464 1.116469 -0.581936 48.000000
3.480050 1.109287 0.448479 50.000000
3.512398 1.118924 -0.452623 33.000000
3.474697 1.106244 0.577556 60.000000
3.491333 1.111541 -0.320559 47.000000
3.457307 1.100043 0.705230 50.000000
3.500254 1.113037 -0.192492 45.000000
3.465558 1.101337 0.839517 42.000000
3.485855 1.107117 -0.063841 56.000000
3.448794 1.094686 0.969536 50.000000
2.950938 0.932693 -0.829256 10.000000
3.470428 1.096220 0.063527 53.000000
3.183339 1.004926 -0.770682 4.000000
3.476105 1.096679 0.191026 48.000000
3.461857 1.092183 -0.705612 3.000000
3.475421 1.095796 0.318816 56.000000
3.489268 1.099494 -0.579433 50.000000
3.461180 1.089978 0.445554 51.000000
3.482199 1.095929 -0.448235 37.000000
3.461577 1.088777 0.574740 57.000000
3.472384 1.092176 -0.318467 48.000000
3.446142 1.083259 0.702177 48.000000
3.473631 1.091234 -0.190817 48.000000
3.445211 1.081645 0.833669 48.000000
3.476342 1.090753 -0.063597 55.000000
3.436004 1.077437 0.964877 46.000000
2.961552 0.924690 -0.831327 9.000000
3.449417 1.076356 0.063073 55.000000
3.201711 0.998449 -0.774282 3.000000
3.453029 1.076822 0.189561 50.000000
3.439408 1.071914 -0.700269 3.000000
3.456398 1.076549 0.316724 59.000000
3.479882 1.083197 -0.577243 51.000000
3.446009 1.071992 0.443117 51.000000
3.464964 1.077888 -0.445554 43.000000
3.440647 1.069667 0.570673 48.000000
3.466662 1.077092 -0.317596 50.000000
3.438653 1.067729 0.699887 48.000000
3.458344 1.073184 -0.189770 48.000000
3.419000 1.060974 0.826470 49.000000
3.445560 1.068558 -0.062968 52.000000
3.426642 1.062033 0.961254 45.000000
2.953526 0.911445 -0.828221 11.000000
3.451056 1.064323 0.063038 59.000000
3.201280 0.986677 -0.773382 3.000000
3.443220 1.061246 0.188828 47.000000
3.427933 1.055880 -0.697216 3.000000
3.437098 1.058048 0.314632 56.000000
3.462686 1.065261 -0.573802 47.000000
3.430570 1.054726 0.440680 51.000000
3.459032 1.063476 -0.444336 40.000000
3.423404 1.051870 0.567231 52.000000
3.443550 1.057401 -0.315155 51.000000
3.423406 1.050562 0.696071 40.000000
3.448517 1.057611 -0.189038 51.000000
3.407594 1.045060 0.822871 50.000000
3.426142 1.050093 -0.062549 55.000000
3.404284 1.042744 0.954007 43.000000
2.956532 0.901648 -0.828221 10.000000
3.423961 1.043544 0.062480 53.000000
3.219448 0.980599 -0.776981 3.000000
3.427797 1.043404 0.187781 46.000000
3.405302 1.035909 -0.691873 3.000000
3.410090 1.037365 0.311843 56.000000
3.432180 1.043431 -0.568170 47.000000
3.418854 1.038726 0.438730 51.000000
3.441828 1.045052 -0.441655 42.000000
3.410043 1.034751 0.564416 55.000000
3.422434 1.037857 -0.312889 52.000000
3.398869 1.030065 0.690347 47.000000
3.434984 1.040355 -0.188095 46.000000
3.394436 1.028075 0.818822 48.000000
3.424045 1.036388 -0.062445 59.000000
3.391262 1.025821 0.949348 47.000000
2.970917 0.894144 -0.831327 9.000000
3.410529 1.025805 0.062165 57.000000
3.195026 0.960379 -0.770232 2.000000
3.420121 1.027386 0.187153 46.000000
3.410956 1.023986 -0.692255 2.000000
3.400511 1.020851 0.310623 52.000000
3.409492 1.022898 -0.563790 42.000000
3.397919 1.018778 0.435561 47.000000
3.424719 1.026162 -0.438973 40.000000
3.385427 1.013746 0.559723 56.000000
3.414762 1.021879 -0.311843 53.000000
3.387574 1.013099 0.687294 47.000000
3.408156 1.018609 -0.186421 46.000000
3.381377 1.010605 0.814773 50.000000
3.412492 1.019254 -0.062165 56.000000
3.365381 1.004543 0.941066 42.000000
2.977878 0.884350 -0.832362 10.000000
3.400846 1.009314 0.061921 59.000000
3.196656 0.948108 -0.769782 2.000000
3.393224 1.005764 0.185479 43.000000
3.380628 1.002030 -0.685386 2.000000
3.392768 1.004984 0.309577 52.000000
3.401854 1.007031 -0.561913 41.000000
3.380692 1.000123 0.432880 43.000000
3.405613 1.006850 -0.436049 35.000000
3.381542 0.999093 0.558471 57.000000
3.406844 1.006569 -0.310797 53.000000
3.379793 0.997933 0.685004 51.000000
3.392535 1.001052 -0.185374 43.000000
3.362629 0.991588 0.809374 51.000000
3.404696 1.003349 -0.061956 59.000000
3.363480 0.990565 0.939513 45.000000
2.995777 0.878297 -0.836503 10.000000
3.377483 0.989566 0.061432 60.000000
3.226130 0.944610 -0.776081 2.000000
3.377546 0.988303 0.184432 46.000000
3.372800 0.986914 -0.683096 2.000000
3.371395 0.985866 0.307311 56.000000
3.397764 0.992933 -0.560661 41.000000
3.359390 0.981081 0.429711 47.000000
3.378617 0.986058 -0.432149 37.000000
3.350874 0.977327 0.552839 57.000000
3.398860 0.991322 -0.309752 53.000000
3.358753 0.978987 0.680043 55.000000
3.376833 0.983619 -0.184327 46.000000
3.347358 0.974400 0.804875 50.000000
3.377456 0.982520 -0.061398 59.000000
3.352077 0.974504 0.935372 45.000000
2.995113 0.866762 -0.835468 9.000000
3.367470 0.973881 0.061188 61.000000
3.242512 0.937129 -0.779230 2.000000
3.367374 0.973216 0.183699 48.000000
3.338501 0.964242 -0.675464 3.000000
3.363331 0.970776 0.306265 57.000000
3.386026 0.976686 -0.558158 41.000000
3.355165 0.967150 0.428736 47.000000
3.370424 0.971549 -0.430686 36.000000
3.337013 0.961287 0.550024 53.000000
3.373581 0.971183 -0.307137 55.000000
3.341396 0.961287 0.675846 51.000000
3.372568 0.969617 -0.183909 48.000000
3.333715 0.958447 0.800826 48.000000
3.349944 0.962480 -0.060839 59.000000
3.334865 0.957518 0.929678 47.000000
2.990541 0.854701 -0.833397 10.000000
3.351452 0.957217 0.060839 56.000000
3.256846 0.929580 -0.781930 2.000000
3.359060 0.958754 0.183071 48.000000
3.328465 0.949395 -0.672793 7.000000
3.343539 0.953064 0.304174 55.000000
3.368348 0.959498 -0.554717 45.000000
3.352626 0.954389 0.428005 51.000000
3.354535 0.954932 -0.428249 38.000000
3.328783 0.946974 0.548146 53.000000
3.353786 0.953452 -0.305045 55.000000
3.314349 0.941617 0.669740 50.000000
3.362316 0.954610 -0.183176 50.000000
3.321878 0.943130 0.797227 53.000000
3.349271 0.950273 -0.060769 56.000000
3.298991 0.935388 0.918808 51.000000
3.000796 0.846879 -0.835468 9.000000
3.325739 0.937955 0.060316 55.000000
3.248656 0.915605 -0.779230 2.000000
3.343161 0.941609 0.182024 50.000000
3.322146 0.935690 -0.670884 7.000000
3.327502 0.936572 0.302430 53.000000
3.346791 0.941372 -0.550649 50.000000
3.325196 0.934670 0.424105 53.000000
3.350204 0.941069 -0.427274 38.000000
3.320657 0.932144 0.546269 53.000000
3.335828 0.936403 -0.303128 53.000000
3.294770 0.924257 0.665160 51.000000
3.338539 0.935907 -0.181710 51.000000
3.317644 0.929425 0.795427 48.000000
3.327533 0.931569 -0.060316 52.000000
3.294795 0.921783 0.916737 51.000000
3.011178 0.838471 -0.837538 11.000000
3.309727 0.920980 0.059966 52.000000
3.253710 0.904781 -0.779680 7.000000
3.327184 0.924587 0.180978 48.000000
3.321609 0.923037 -0.670121 12.000000
3.323072 0.922819 0.301733 53.000000
3.338635 0.926514 -0.548772 50.000000
3.305483 0.916692 0.421180 51.000000
3.324773 0.921417 -0.423618 41.000000
3.302950 0.914748 0.542828 57.000000
3.327555 0.921563 -0.302082 53.000000
3.286623 0.909609 0.662870 45.000000
3.322536 0.918924 -0.180664 50.000000
3.285180 0.907975 0.786879 51.000000
3.313417 0.915157 -0.060001 50.000000
3.283095 0.906164 0.912596 51.000000
3.025263 0.831026 -0.840644 12.000000
3.299424 0.905715 0.059722 50.000000
3.253090 0.892386 -0.778781 7.000000
3.297645 0.903991 0.179198 47.000000
3.307770 0.906767 -0.666687 23.000000
3.303214 0.904896 0.299641 55.000000
3.322797 0.909637 -0.545643 50.000000
3.293345 0.900959 0.419231 55.000000
3.303077 0.903000 -0.420449 38.000000
3.288973 0.898527 0.540012 59.000000
3.315377 0.905740 -0.300687 52.000000
3.280308 0.895546 0.660962 52.000000
3.308382 0.902589 -0.179722 45.000000
3.273288 0.892401 0.783280 55.000000
3.297297 0.898330 -0.059652 50.000000
3.276918 0.892162 0.910008 52.000000
3.015094 0.816923 -0.837021 6.000000
3.285193 0.889490 0.059408 48.000000
3.263709 0.883062 -0.780580 7.000000
3.291141 0.889867 0.178675 52.000000
3.297649 0.891627 -0.664015 33.000000
3.287118 0.888164 0.297898 53.000000
3.308788 0.893400 -0.542828 53.000000
3.284971 0.886354 0.417768 55.000000
3.300459 0.889915 -0.419718 41.000000
3.261571 0.878819 0.535006 60.000000
3.285814 0.885351 -0.297724 50.000000
3.277727 0.882558 0.659818 50.000000
3.301869 0.888441 -0.179198 51.000000
3.261328 0.876922 0.779680 56.000000
3.279170 0.881106 -0.059268 55.000000
3.252026 0.873202 0.902243 51.000000
3.021659 0.807392 -0.838056 4.000000
3.268958 0.872859 0.059059 48.000000
3.259241 0.869653 -0.778781 4.000000
3.278636 0.874828 0.177838 48.000000
3.287462 0.876569 -0.661344 41.000000
3.267096 0.870529 0.295807 53.000000
3.281345 0.873711 -0.537822 53.000000
3.272698 0.870797 0.415818 53.000000
3.286278 0.873798 -0.417524 38.000000
3.258740 0.866476 0.534067 61.000000
3.273480 0.869782 -0.296330 51.000000
3.250428 0.863050 0.653712 56.000000
3.291436 0.873325 -0.178466 48.000000
3.251184 0.862036 0.776531 57.000000
3.266611 0.866126 -0.058989 55.000000
3.241831 0.858950 0.898620 52.000000
3.039404 0.800776 -0.842197 4.000000
3.254431 0.857428 0.058745 50.000000
3.235723 0.851895 -0.772482 2.000000
3.260422 0.857791 0.176686 47.000000
3.284806 0.863591 -0.660199 33.000000
3.252772 0.854563 0.294238 56.000000
3.263208 0.857304 -0.534380 50.000000
3.250607 0.853389 0.412650 50.000000
3.273798 0.858865 -0.415574 40.000000
3.248369 0.851588 0.531877 60.000000
3.264932 0.855321 -0.295284 50.000000
3.230482 0.846296 0.649132 56.000000
3.267264 0.855323 -0.177000 45.000000
3.246484 0.849277 0.774731 60.000000
3.258007 0.851683 -0.058780 60.000000
3.227988 0.843235 0.893961 51.000000
3.036434 0.789235 -0.840644 4.000000
3.249663 0.844051 0.058605 50.000000
3.206611 0.832273 -0.764834 2.000000
3.244064 0.841390 0.175639 47.000000
3.255345 0.844315 -0.653712 36.000000
3.245945 0.841271 0.293366 52.000000
3.254707 0.842938 -0.532503 50.000000
3.240114 0.838555 0.410943 51.000000
3.247948 0.839976 -0.411918 41.000000
3.236022 0.836291 0.529374 59.000000
3.254247 0.841001 -0.294063 52.000000
3.218209 0.831088 0.646079 61.000000
3.239288 0.835927 -0.175325 45.000000
3.228671 0.832588 0.769782 61.000000
3.247404 0.836814 -0.058535 59.000000
3.214074 0.827626 0.889302 58.000000
3.052270 0.781986 -0.844268 4.000000
3.235154 0.828241 0.058291 53.000000
3.201945 0.819142 -0.763034 2.000000
3.223761 0.824124 0.174383 47.000000
3.237349 0.827597 -0.649514 40.000000
3.233418 0.825993 0.291972 55.000000
3.242317 0.827662 -0.530000 47.000000
3.227633 0.823313 0.408994 51.000000
3.237394 0.825203 -0.410212 36.000000
3.210208 0.817675 0.524681 56.000000
3.243648 0.826193 -0.292843 50.000000
3.217286 0.818880 0.645316 61.000000
3.234443 0.822648 -0.174907 42.000000
3.205116 0.814592 0.763484 61.000000
3.230924 0.820550 -0.058186 59.000000
3.213198 0.815453 0.888267 58.000000
3.045616 0.768963 -0.841680 4.000000
3.222514 0.813029 0.058012 55.000000
3.195337 0.805577 -0.760784 2.000000
3.213061 0.809451 0.173651 50.000000
3.228796 0.813415 -0.647224 40.000000
3.209232 0.807891 0.289531 52.000000
3.237524 0.814411 -0.528749 47.000000
3.215086 0.808171 0.407044 52.000000
3.221002 0.809061 -0.407775 33.000000
3.188135 0.800212 0.520614 48.000000
3.213660 0.806619 -0.289880 48.000000
3.208699 0.804780 0.643026 61.000000
3.225671 0.808438 -0.174279 45.000000
3.192817 0.799610 0.759885 61.000000
3.208550 0.802957 -0.057733 55.000000
3.189787 0.797670 0.881020 60.000000
3.050156 0.758793 -0.842197 4.000000
3.203985 0.796469 0.057628 57.000000
3.182999 0.790662 -0.757185 2.000000
3.208113 0.796305 0.173232 48.000000
3.220183 0.799301 -0.644934 40.000000
3.198496 0.793325 0.288311 56.000000
3.219256 0.797879 -0.525307 51.000000
3.208253 0.794556 0.405825 56.000000
3.210319 0.794473 -0.406069 37.000000
3.185156 0.787658 0.519675 47.000000
3.202917 0.792050 -0.288660 50.000000
3.184806 0.786980 0.637684 61.000000
3.209084 0.792385 -0.173232 46.000000
3.182345 0.785195 0.756735 57.000000
3.191918 0.786964 -0.057384 52.000000
3.175671 0.782371 0.876361 62.000000
3.060422 0.749447 -0.844268 4.000000
3.181632 0.778541 0.057174 55.000000
3.172625 0.775750 -0.754036 3.000000
3.199232 0.782256 0.172604 50.000000
3.213555 0.785164 -0.643026 41.000000
3.187833 0.778290 0.287091 58.000000
3.202968 0.781392 -0.522178 53.000000
3.184143 0.776211 0.402413 56.000000
3.193922 0.778004 -0.403631 38.000000
3.180209 0.774664 0.518424 47.000000
3.198056 0.778418 -0.287963 51.000000
3.159054 0.768343 0.631959 51.000000
3.196440 0.776845 -0.172395 48.000000
3.173840 0.770764 0.754036 60.000000
3.186873 0.773929 -0.057244 52.000000
3.161486 0.767181 0.871703 60.000000
3.061142 0.738306 -0.843750 4.000000
3.172533 0.765172 0.056965 52.000000
3.141079 0.757007 -0.745938 2.000000
3.180584 0.765941 0.171453 53.000000
3.206733 0.771644 -0.641118 45.000000
3.175033 0.763431 0.285697 60.000000
3.203620 0.770305 -0.521865 55.000000
3.163537 0.760083 0.399488 58.000000
3.179112 0.763237 -0.401438 42.000000
3.169447 0.760333 0.516234 50.000000
3.183316 0.763073 -0.286394 48.000000
3.152038 0.755575 0.630051 54.000000
3.175691 0.760657 -0.171139 48.000000
3.155530 0.755248 0.749087 55.000000
3.189554 0.762803 -0.057244 56.000000
3.145355 0.751650 0.866526 61.000000
3.084248 0.733065 -0.849444 4.000000
3.173239 0.753632 0.056930 55.000000
3.151286 0.747837 -0.747737 2.000000
3.157844 0.749393 0.170092 60.000000
3.190171 0.756477 -0.637302 46.000000
3.169793 0.751060 0.284999 60.000000
3.190912 0.755476 -0.519363 55.000000
3.158444 0.747207 0.398513 58.000000
3.162438 0.747569 -0.399000 43.000000
3.143116 0.743002 0.511541 52.000000
3.162560 0.747015 -0.284302 47.000000
3.147014 0.742763 0.628525 54.000000
3.164719 0.746359 -0.170406 51.000000
3.135386 0.738864 0.743688 50.000000
3.157032 0.743964 -0.056616 51.000000
3.140309 0.739445 0.864456 61.000000
3.084907 0.721855 -0.848927 5.000000
3.154302 0.738094 0.056546 52.000000
3.151851 0.736940 -0.747287 4.000000
3.152661 0.736547 0.169673 60.000000
3.162202 0.738196 -0.631196 47.000000
3.152992 0.735466 0.283256 60.000000
3.174162 0.740404 -0.516234 53.000000
3.149305 0.734025 0.397050 58.000000
3.157166 0.735278 -0.398025 43.000000
3.128374 0.727997 0.508725 55.000000
3.151564 0.732812 -0.283082 50.000000
3.134162 0.728765 0.625472 50.000000
3.159395 0.734053 -0.169987 51.000000
3.124531 0.725376 0.740539 54.000000
3.140130 0.728420 -0.056267 55.000000
3.129697 0.725426 0.860832 65.000000
3.081636 0.710319 -0.847374 7.000000
3.131527 0.721243 0.056092 52.000000
3.129716 0.720252 -0.741439 5.000000
3.135748 0.721063 0.168626 58.000000
3.156980 0.725945 -0.629670 50.000000
3.132112 0.719651 0.281164 61.000000
3.155550 0.724457 -0.512792 55.000000
3.142174 0.720809 0.395832 62.000000
3.151974 0.722478 -0.397050 45.000000
3.123194 0.715307 0.507473 53.000000
3.126787 0.716130 -0.280641 50.000000
3.113721 0.712566 0.620893 50.000000
3.154150 0.721238 -0.169569 50.000000
3.123245 0.713598 0.739639 51.000000
3.125107 0.713450 -0.055952 53.000000
3.105841 0.708481 0.853585 65.000000
3.089749 0.700840 -0.848927 11.000000
3.112573 0.705446 0.055708 53.000000
3.101801 0.702436 -0.734240 6.000000
3.134350 0.709232 0.168417 61.000000
3.142261 0.711022 -0.626235 52.000000
3.115172 0.704321 0.279421 61.000000
3.136864 0.708650 -0.509351 58.000000
3.111753 0.702405 0.391688 60.000000
3.144794 0.709288 -0.395832 47.000000
3.114110 0.701796 0.505596 55.000000
