# This PCD file was generated using the MATLAB® pcwrite function
# from Computer Vision Toolbox®.
# .PCD v.7 - Point Cloud Data file format
VERSION .7
FIELDS x y z intensity
SIZE 4 4 4 4
TYPE F F F F
COUNT 1 1 1 1
WIDTH 1290
HEIGHT 1
VIEWPOINT 0 0 0 1 0 0 0
POINTS 1290
DATA ascii
3.727381 4.183525 -0.097803 2.000000
30.823368 34.583237 12.412962 100.000000
1.941006 2.172423 -0.780598 10.000000
4.320292 4.833687 0.113161 2.000000
2.092525 2.340363 -0.724792 9.000000
5.100967 5.703119 0.400998 1.000000
2.266890 2.534489 -0.660962 9.000000
6.250646 6.986053 0.820136 1.000000
2.456995 2.745106 -0.583501 8.000000
8.093273 9.039128 1.489731 2.000000
2.695194 3.009120 -0.496008 6.000000
11.660744 13.014383 2.767639 18.000000
2.956912 3.300166 -0.387669 3.000000
3.289291 3.668548 -0.258226 1.000000
26.400917 29.434647 9.128513 12.000000
3.741963 4.170487 -0.097803 2.000000
30.937452 34.468231 12.410374 100.000000
1.945992 2.162762 -0.779563 11.000000
4.361221 4.845329 0.113790 2.000000
2.103291 2.335940 -0.725692 10.000000
5.155597 5.723865 0.403720 1.000000
2.277037 2.528020 -0.661344 9.000000
6.245647 6.931631 0.816301 1.000000
2.462595 2.732110 -0.582562 8.000000
8.124774 9.010823 1.489731 2.000000
2.710998 3.005592 -0.496983 4.000000
11.704782 12.972130 2.767326 18.000000
2.976423 3.298698 -0.388715 3.000000
3.326167 3.683729 -0.260110 1.000000
3.764543 4.166301 -0.098013 2.000000
31.052378 34.354324 12.408303 100.000000
1.958719 2.161682 -0.781634 11.000000
4.345877 4.794516 0.112952 2.000000
2.100958 2.317036 -0.722093 10.000000
5.159445 5.688080 0.402464 1.000000
2.287167 2.521510 -0.661726 7.000000
6.275163 6.915689 0.816998 1.000000
2.465477 2.716186 -0.580998 8.000000
8.156180 8.982406 1.489731 2.000000
2.721474 2.996109 -0.496983 4.000000
11.739355 12.919506 2.764823 18.000000
2.987917 3.288291 -0.388715 3.000000
3.347068 3.680961 -0.260738 1.000000
3.768296 4.141304 -0.097733 2.000000
31.181221 34.255714 12.411926 81.000000
1.961045 2.149123 -0.779563 11.000000
4.365282 4.782272 0.113022 2.000000
2.103778 2.303932 -0.720293 10.000000
5.160411 5.649389 0.400998 1.000000
2.294631 2.512060 -0.661344 9.000000
6.307327 6.902568 0.818044 1.000000
2.478942 2.711936 -0.581936 7.000000
8.187488 8.953878 1.489731 2.000000
2.718517 2.971945 -0.494546 5.000000
11.799052 12.894477 2.768265 18.000000
2.999378 3.277840 -0.388715 3.000000
3.346408 3.654526 -0.259691 1.000000
3.798941 4.145816 -0.098152 2.000000
31.301905 34.148094 12.412445 49.000000
1.976376 2.150801 -0.782669 11.000000
4.357591 4.740504 0.112394 2.000000
2.117084 2.302311 -0.722093 9.000000
5.180096 5.631345 0.400998 1.000000
2.294081 2.493922 -0.658673 7.000000
6.325988 6.874643 0.817347 1.000000
2.493746 2.709080 -0.583188 7.000000
8.218691 8.925246 1.489731 2.000000
2.720805 2.953676 -0.493083 6.000000
11.852026 12.861925 2.770142 18.000000
3.014853 3.271745 -0.389238 4.000000
11.825435 12.828573 3.391439 4.000000
3.364561 3.648695 -0.260110 1.000000
3.788979 4.106078 -0.097524 2.000000
31.431404 34.049965 12.416586 32.000000
1.978624 2.138217 -0.780598 11.000000
4.420297 4.775160 0.113580 2.000000
2.130404 2.300627 -0.723893 9.000000
5.235013 5.651323 0.403720 1.000000
2.306775 2.490220 -0.659818 9.000000
6.360782 6.864209 0.818741 1.000000
2.512586 2.710500 -0.585378 8.000000
8.249794 8.896504 1.489731 2.000000
2.744600 2.958714 -0.495521 4.000000
11.886099 12.808894 2.767639 18.000000
3.022188 3.256820 -0.388715 3.000000
3.366405 3.625219 -0.259272 1.000000
3.797843 4.086968 -0.097384 2.000000
31.538240 33.927299 12.411926 16.000000
1.978173 2.122818 -0.777492 11.000000
4.390579 4.709967 0.112394 2.000000
2.135764 2.290326 -0.722993 9.000000
5.283692 5.666066 0.406022 1.000000
2.323488 2.490767 -0.662107 9.000000
6.365672 6.821571 0.816301 1.000000
2.504510 2.682940 -0.581311 7.000000
8.280796 8.867655 1.489731 2.000000
2.749490 2.943313 -0.494546 5.000000
11.923119 12.763630 2.766387 18.000000
3.022657 3.234605 -0.387320 3.000000
3.384495 3.619282 -0.259691 1.000000
3.814108 4.077271 -0.097454 2.000000
1.996147 2.127169 -0.781634 11.000000
4.406173 4.695382 0.112394 2.000000
2.143347 2.283231 -0.722993 10.000000
5.237811 5.577704 0.400998 1.000000
2.329481 2.479778 -0.661344 9.000000
6.392173 6.802215 0.816649 1.000000
2.518803 2.680378 -0.582562 7.000000
8.310159 8.840144 1.489731 2.000000
2.775554 2.951534 -0.497471 5.000000
11.987899 12.743518 2.771080 18.000000
3.036659 3.226937 -0.387669 4.000000
3.396478 3.608039 -0.259691 1.000000
3.833801 4.069756 -0.097594 2.000000
2.000537 2.117728 -0.780598 11.000000
4.433525 4.691599 0.112673 2.000000
2.148625 2.272904 -0.722093 9.000000
5.286069 5.589860 0.403196 1.000000
2.333645 2.467760 -0.660199 7.000000
6.417435 6.783874 0.816998 1.000000
2.525428 2.668701 -0.581936 7.000000
8.340969 8.811080 1.489731 2.000000
2.769461 2.924530 -0.494546 5.000000
12.032307 12.701597 2.771080 18.000000
3.058305 3.228421 -0.389063 3.000000
3.398060 3.584564 -0.258854 1.000000
3.861748 4.070856 -0.097943 2.000000
31.731663 33.438194 12.351881 16.000000
2.007917 2.110733 -0.780598 12.000000
4.463659 4.690582 0.113022 2.000000
2.159234 2.268212 -0.722993 9.000000
5.344113 5.611873 0.406127 1.000000
2.346306 2.463865 -0.661344 9.000000
6.446571 6.767203 0.817695 1.000000
2.532003 2.657008 -0.581311 8.000000
8.371673 8.781913 1.489731 2.000000
2.785132 2.920592 -0.495521 5.000000
12.068392 12.650939 2.769203 18.000000
3.064055 3.211958 -0.388366 3.000000
3.416067 3.578461 -0.259272 1.000000
3.862122 4.042890 -0.097594 2.000000
31.848185 33.327236 12.351881 16.000000
2.012599 2.100921 -0.779563 12.000000
4.477239 4.672083 0.112952 2.000000
2.167138 2.260662 -0.722993 9.000000
5.297314 5.523992 0.401103 1.000000
2.352174 2.452826 -0.660581 9.000000
6.463260 6.737469 0.816824 1.000000
2.557676 2.665257 -0.585065 7.000000
8.402274 8.752638 1.489731 2.000000
2.787061 2.902261 -0.494058 5.000000
12.111114 12.607307 2.768890 18.000000
3.072489 3.198369 -0.388017 4.000000
3.447917 3.586672 -0.260738 1.000000
3.884526 4.038033 -0.097803 2.000000
2.017239 2.091102 -0.778528 11.000000
4.479631 4.642040 0.112603 2.000000
2.175017 2.253083 -0.722993 9.000000
5.352638 5.542820 0.403824 1.000000
2.363450 2.447424 -0.661344 9.000000
6.492270 6.720602 0.817521 1.000000
2.551864 2.640687 -0.581623 7.000000
8.432778 8.723253 1.489731 2.000000
2.808212 2.903932 -0.496008 3.000000
12.170153 12.580574 2.772332 18.000000
3.075322 3.179033 -0.386971 3.000000
3.440968 3.554523 -0.259272 1.000000
3.901381 4.027321 -0.097873 2.000000
2.027217 2.086819 -0.779563 13.000000
4.509745 4.640715 0.112952 2.000000
2.185585 2.248271 -0.723893 10.000000
5.371953 5.524103 0.403824 1.000000
2.369241 2.436345 -0.660581 10.000000
6.510135 6.692185 0.816824 1.000000
2.552801 2.623269 -0.579746 7.000000
8.463175 8.693767 1.489731 2.000000
2.818332 2.894111 -0.496008 4.000000
12.204348 12.528109 2.770142 18.000000
3.089181 3.171132 -0.387320 3.000000
3.453353 3.542493 -0.259272 1.000000
3.907037 4.005090 -0.097664 2.000000
2.038543 2.083873 -0.781116 13.000000
4.511931 4.610651 0.112603 2.000000
2.177060 2.223919 -0.718494 10.000000
5.354871 5.468215 0.401103 1.000000
2.388720 2.439281 -0.663634 10.000000
6.533458 6.669418 0.816824 1.000000
2.573001 2.625631 -0.582249 7.000000
8.493472 8.664169 1.489731 2.000000
2.814519 2.870082 -0.493571 4.000000
12.263214 12.500953 2.773583 18.000000
3.105811 3.166021 -0.388017 3.000000
3.476891 3.541818 -0.260110 1.000000
3.920994 3.991427 -0.097664 2.000000
2.059362 2.090506 -0.786292 13.000000
4.530805 4.597723 0.112673 2.000000
2.193018 2.224632 -0.721193 10.000000
5.373928 5.449488 0.401103 1.000000
2.382057 2.415550 -0.659436 7.000000
6.545503 6.635225 0.815429 1.000000
2.584926 2.619445 -0.582875 8.000000
8.523666 8.634466 1.489731 2.000000
2.830099 2.865890 -0.494546 4.000000
12.298449 12.449634 2.771706 18.000000
3.122445 3.160829 -0.388715 3.000000
3.489232 3.529661 -0.260110 1.000000
3.929278 3.972028 -0.097524 2.000000
2.050319 2.066848 -0.780081 13.000000
4.577816 4.613105 0.113441 2.000000
2.209008 2.225262 -0.723893 9.000000
5.392913 5.430700 0.401103 1.000000
2.391856 2.408615 -0.659818 9.000000
6.568626 6.612335 0.815429 1.000000
2.596840 2.613207 -0.583501 7.000000
8.553749 8.604666 1.489731 2.000000
2.842886 2.858808 -0.495033 4.000000
12.325116 12.389819 2.767952 18.000000
3.125030 3.141435 -0.387669 3.000000
3.501533 3.517459 -0.260110 1.000000
3.954407 3.969624 -0.097803 2.000000
2.056157 2.058311 -0.779563 11.000000
4.574100 4.577296 0.112952 2.000000
2.211251 2.212024 -0.722093 9.000000
5.411839 5.411840 0.401103 1.000000
2.403027 2.403027 -0.660581 10.000000
6.580393 6.578098 0.814035 1.000000
2.600356 2.598542 -0.582249 7.000000
8.583735 8.574754 1.489731 2.000000
2.858466 2.854479 -0.496008 5.000000
12.403237 12.381614 2.775774 19.000000
3.133155 3.127693 -0.387320 3.000000
3.519447 3.510856 -0.260528 1.000000
3.973906 3.961443 -0.097943 2.000000
2.066069 2.053846 -0.780598 11.000000
4.578701 4.550026 0.112673 2.000000
2.218960 2.204291 -0.722093 10.000000
5.518561 5.480173 0.407592 1.000000
2.412793 2.396009 -0.660962 10.000000
6.631593 6.583164 0.817521 1.000000
2.606607 2.586666 -0.581623 7.000000
8.613612 8.544740 1.489731 2.000000
2.871231 2.847280 -0.496496 4.000000
12.435163 12.327114 2.773271 18.000000
3.161034 3.133568 -0.389412 3.000000
3.534516 3.501363 -0.260738 1.000000
3.982024 3.941920 -0.097803 2.000000
2.078725 2.052050 -0.782669 12.000000
4.603097 4.542442 0.112882 2.000000
2.218317 2.188321 -0.719393 10.000000
5.486464 5.410389 0.403824 1.000000
2.425336 2.391707 -0.662107 9.000000
6.631832 6.537594 0.814732 1.000000
2.615620 2.577552 -0.581623 7.000000
8.643389 8.514619 1.489731 2.000000
2.872667 2.828882 -0.495033 4.000000
12.483745 12.289178 2.774522 19.000000
3.163433 3.114129 -0.388366 3.000000
3.532479 3.474996 -0.259691 1.000000
3.990057 3.922388 -0.097664 2.000000
2.080358 2.039371 -0.780598 13.000000
4.607499 4.515151 0.112603 2.000000
2.231509 2.186020 -0.721193 10.000000
5.468216 5.354870 0.401103 1.000000
2.435073 2.384599 -0.662489 10.000000
6.685933 6.545068 0.818567 1.000000
2.630248 2.573933 -0.582875 7.000000
8.673059 8.484393 1.489731 2.000000
2.882523 2.818838 -0.495033 4.000000
12.509618 12.228953 2.770767 18.000000
3.174285 3.103067 -0.388366 3.000000
3.533157 3.451480 -0.258854 1.000000
4.009449 3.914023 -0.097803 2.000000
2.084695 2.029402 -0.779563 12.000000
4.646163 4.521352 0.113161 2.000000
2.250301 2.189088 -0.724792 10.000000
5.485940 5.336712 0.401103 1.000000
2.433529 2.366504 -0.659818 9.000000
6.683026 6.496691 0.815429 1.000000
2.644884 2.570242 -0.584126 7.000000
8.702621 8.454069 1.489731 2.000000
2.889008 2.806496 -0.494546 5.000000
12.557184 12.194285 2.772332 18.000000
3.179379 3.086417 -0.387669 3.000000
3.550919 3.444688 -0.259272 1.000000
4.022405 3.900706 -0.097803 2.000000
2.092802 2.023821 -0.780081 13.000000
4.629499 4.475345 0.112394 2.000000
2.251943 2.176197 -0.722993 10.000000
5.555312 5.368454 0.404871 1.000000
2.447011 2.363878 -0.661344 9.000000
6.713134 6.482795 0.816475 1.000000
2.642022 2.550482 -0.581623 7.000000
8.730607 8.425165 1.489731 2.000000
2.912583 2.810686 -0.496983 4.000000
12.607509 12.162173 2.774522 19.000000
3.178122 3.064794 -0.386274 3.000000
3.573828 3.443980 -0.260110 1.000000
4.035319 3.887345 -0.097803 2.000000
2.095322 2.012855 -0.778528 13.000000
4.667393 4.482128 0.112952 2.000000
2.253523 2.163319 -0.721193 10.000000
5.550962 5.326901 0.403196 1.000000
2.457670 2.358468 -0.662107 9.000000
6.737470 6.463258 0.816824 1.000000
2.641911 2.533504 -0.579746 7.000000
8.758499 8.396165 1.489731 2.000000
2.913777 2.792260 -0.495521 4.000000
12.604231 12.074373 2.764510 9.000000
3.206069 3.070216 -0.388366 3.000000
12.575774 12.042892 3.384570 3.000000
3.585229 3.432110 -0.260110 1.000000
12.447547 11.911783 3.977585 10.000000
4.048863 3.873236 -0.097803 2.000000
12.338212 11.798896 4.574368 23.000000
2.111074 2.013161 -0.781634 13.000000
4.697481 4.479609 0.113301 2.000000
2.266704 2.160818 -0.722993 10.000000
5.592658 5.329537 0.404871 1.000000
2.463454 2.346737 -0.661344 9.000000
6.772655 6.449514 0.818218 1.000000
2.662627 2.534698 -0.582249 7.000000
12.810685 12.195182 2.171712 4.000000
2.923506 2.782073 -0.495521 4.000000
12.583332 11.970393 2.750744 9.000000
3.213880 3.056260 -0.388017 3.000000
12.560064 11.939910 3.368542 81.000000
3.603575 3.424451 -0.260528 1.000000
12.458634 11.835202 3.967237 59.000000
4.073958 3.870096 -0.098083 2.000000
12.370915 11.747777 4.571262 77.000000
2.119491 2.007107 -0.782151 13.000000
4.748722 4.495355 0.114139 2.000000
2.268946 2.147138 -0.721193 10.000000
5.610702 5.307631 0.404766 1.000000
2.468779 2.335424 -0.660581 9.000000
6.798023 6.428570 0.818567 1.000000
2.674327 2.528104 -0.582875 7.000000
12.840866 12.134514 2.169275 4.000000
2.930798 2.768612 -0.495033 5.000000
3.233218 3.053232 -0.389063 3.000000
12.615945 11.909468 3.372359 85.000000
3.603886 3.400884 -0.259691 1.000000
12.501280 11.792986 3.967687 73.000000
4.064837 3.833189 -0.097524 2.000000
12.408271 11.697054 4.569192 74.000000
2.125076 1.998375 -0.781634 13.000000
4.741073 4.456838 0.113580 2.000000
2.282108 2.144542 -0.722993 10.000000
13.137691 12.341443 0.944664 4.000000
2.474053 2.324106 -0.659818 9.000000
6.814611 6.399347 0.817869 1.000000
2.691778 2.526864 -0.584752 7.000000
12.897624 12.103198 2.171712 4.000000
2.928861 2.747500 -0.493083 4.000000
3.229324 3.028298 -0.387320 3.000000
12.666038 11.873410 3.374648 85.000000
3.615735 3.388284 -0.259691 1.000000
12.556594 11.762596 3.972186 72.000000
4.089870 3.829910 -0.097803 2.000000
12.451843 11.656311 4.570227 69.000000
2.119332 1.979078 -0.776975 13.000000
4.744907 4.429344 0.113301 2.000000
2.295279 2.141882 -0.724792 10.000000
13.180695 12.295506 0.944664 4.000000
2.487894 2.320812 -0.661344 9.000000
6.825252 6.364648 0.816475 1.000000
2.683242 2.501290 -0.580998 7.000000
12.939785 12.058113 2.171712 4.000000
2.961675 2.758908 -0.496983 4.000000
12.710057 11.835751 2.750744 9.000000
3.236958 3.014292 -0.386971 3.000000
12.703087 11.825121 3.373503 81.000000
3.633389 3.381083 -0.260110 1.000000
12.600433 11.721345 3.973085 65.000000
4.094426 3.807443 -0.097594 2.000000
12.492458 11.612771 4.570227 74.000000
2.140393 1.984803 -0.782151 13.000000
4.733939 4.388287 0.112673 2.000000
2.299883 2.131207 -0.723893 10.000000
13.223536 12.249419 0.944664 4.000000
2.495980 2.312113 -0.661344 9.000000
6.870812 6.362449 0.819264 1.000000
2.700655 2.499959 -0.582875 7.000000
12.981801 12.012867 2.171712 4.000000
2.965458 2.743162 -0.496008 4.000000
3.259164 3.013796 -0.388366 4.000000
12.742848 11.779371 3.373122 89.000000
3.651036 3.373803 -0.260528 1.000000
12.651289 11.686547 3.976235 68.000000
4.119445 3.803979 -0.097873 2.000000
12.544272 11.579580 4.574368 77.000000
2.150150 1.979937 -0.783186 13.000000
4.781598 4.401529 0.113441 2.000000
2.304441 2.120526 -0.722993 10.000000
13.227992 12.168032 0.941943 4.000000
2.515594 2.314019 -0.664397 9.000000
6.890049 6.335728 0.818915 1.000000
2.709366 2.490516 -0.582875 7.000000
13.023652 11.967482 2.171712 4.000000
2.963319 2.722051 -0.494058 5.000000
12.792382 11.746723 2.750744 9.000000
3.269665 3.002400 -0.388366 4.000000
12.794010 11.744114 3.375793 93.000000
3.645131 3.344834 -0.259272 1.000000
12.696319 11.646265 3.977585 72.000000
4.132698 3.789577 -0.097873 2.000000
12.591734 11.542251 4.576956 80.000000
2.161325 1.976330 -0.784739 13.000000
4.785126 4.374017 0.113161 2.000000
2.311828 2.112470 -0.722993 10.000000
5.687731 5.195433 0.403720 1.000000
2.509162 2.291983 -0.660581 9.000000
6.912124 6.311637 0.818915 1.000000
2.718042 2.481044 -0.582875 7.000000
13.065350 11.921945 2.171712 4.000000
2.978670 2.717041 -0.495033 5.000000
12.614355 11.502352 2.703814 8.000000
3.283069 2.993654 -0.388715 3.000000
12.837832 11.702025 3.376556 93.000000
3.674501 3.348232 -0.260528 1.000000
12.735451 11.600566 3.977134 68.000000
4.142944 3.772434 -0.097803 2.000000
12.633379 11.499524 4.577474 69.000000
2.153908 1.955787 -0.779563 13.000000
4.788518 4.346536 0.112882 2.000000
2.322074 2.107007 -0.723893 10.000000
5.667367 5.140660 0.400998 1.000000
2.517146 2.283211 -0.660581 9.000000
6.916400 6.271412 0.816824 1.000000
2.735467 2.479502 -0.584752 7.000000
8.990943 8.146769 1.489731 2.000000
2.985193 2.703962 -0.494546 6.000000
3.293498 2.982176 -0.388715 4.000000
3.674318 3.324665 -0.259691 1.000000
4.153122 3.755267 -0.097733 2.000000
2.160723 1.948256 -0.779563 13.000000
4.827429 4.351215 0.113441 2.000000
2.332310 2.101497 -0.724792 10.000000
2.530937 2.279665 -0.662107 9.000000
6.947135 6.255228 0.817869 1.000000
2.744105 2.469939 -0.584752 7.000000
3.003469 2.701490 -0.496008 4.000000
3.294998 2.962670 -0.387669 3.000000
12.211053 10.975601 3.191472 3.000000
3.697787 3.322497 -0.260528 1.000000
4.172156 3.746092 -0.097873 2.000000
12.027582 10.795524 4.330560 5.000000
2.170388 1.943280 -0.780598 13.000000
4.848547 4.339673 0.113580 2.000000
2.330918 2.085546 -0.722093 10.000000
5.740928 5.136590 0.403720 1.000000
2.534488 2.266891 -0.660962 9.000000
6.962985 6.225629 0.817172 1.000000
2.737983 2.447180 -0.581623 7.000000
3.006490 2.686225 -0.495033 5.000000
11.824585 10.561268 2.511086 7.000000
3.317209 2.961765 -0.389063 3.000000
11.890435 10.612623 3.097975 6.000000
3.715322 3.314888 -0.260947 1.000000
11.807278 10.534701 3.653205 6.000000
4.190524 3.737561 -0.098013 2.000000
11.737434 10.465030 4.213574 5.000000
2.182595 1.941207 -0.782669 11.000000
4.856933 4.318257 0.113441 2.000000
2.331995 2.072626 -0.720293 10.000000
5.719116 5.083025 0.400998 1.000000
2.555201 2.270209 -0.664397 9.000000
7.007425 6.223675 0.819961 1.000000
2.751992 2.443332 -0.582875 7.000000
9.074355 8.053757 1.489731 2.000000
3.012413 2.673604 -0.494546 5.000000
11.652670 10.338462 2.467285 7.000000
3.313598 2.938849 -0.387494 4.000000
11.587689 10.273573 3.010203 5.000000
3.726294 3.302551 -0.260947 1.000000
11.503798 10.195620 3.548828 5.000000
4.211877 3.731599 -0.098222 2.000000
11.426435 10.119925 4.089859 5.000000
2.194810 1.939076 -0.784739 12.000000
4.865232 4.296831 0.113301 2.000000
2.350542 2.075200 -0.723893 10.000000
5.736824 5.063032 0.400998 1.000000
2.553883 2.253929 -0.662107 9.000000
7.039979 6.210947 0.821356 1.000000
2.771931 2.444647 -0.585378 8.000000
3.033640 2.673574 -0.496496 4.000000
11.309245 9.963429 2.387190 6.000000
3.339770 2.942333 -0.389412 3.000000
11.275457 9.930168 2.920523 5.000000
3.746220 3.298093 -0.261575 1.000000
11.204317 9.860574 3.445800 5.000000
4.218873 3.711590 -0.098083 2.000000
11.141090 9.798032 3.975461 4.000000
2.201566 1.931402 -0.784739 12.000000
4.940340 4.332560 0.114697 2.000000
2.360702 2.069552 -0.724792 10.000000
5.799524 5.082469 0.404138 1.000000
2.551399 2.235943 -0.659436 7.000000
7.073607 6.196836 0.822750 1.000000
2.780447 2.434956 -0.585378 7.000000
9.128961 7.991807 1.489731 2.000000
3.048931 2.668196 -0.497471 4.000000
11.043633 9.661160 2.323991 6.000000
3.359018 2.938527 -0.390458 3.000000
11.032212 9.647780 2.848778 7.000000
3.763725 3.290253 -0.261994 1.000000
10.946662 9.566216 3.356270 5.000000
4.219752 3.686318 -0.097803 2.000000
10.876930 9.498584 3.869345 7.000000
2.190815 1.908478 -0.778528 13.000000
4.895108 4.262763 0.113301 2.000000
2.370852 2.063858 -0.725692 10.000000
5.772030 5.022859 0.400998 1.000000
2.565113 2.232178 -0.660962 7.000000
7.074146 6.153805 0.820310 1.000000
2.785949 2.422643 -0.584752 7.000000
9.156804 7.959889 1.489731 2.000000
3.064217 2.662748 -0.498446 4.000000
10.782012 9.366056 2.262043 6.000000
3.351205 2.911106 -0.388366 3.000000
10.760458 9.344038 2.770165 7.000000
3.748037 3.253531 -0.260110 1.000000
10.691504 9.277617 3.268089 7.000000
4.244680 3.682048 -0.098083 2.000000
10.629791 9.217555 3.769958 6.000000
2.206230 1.908403 -0.781634 13.000000
4.922061 4.256112 0.113580 2.000000
2.378042 2.055569 -0.725692 10.000000
5.883224 5.083643 0.407488 1.000000
2.578831 2.228346 -0.662489 7.000000
7.092569 6.126466 0.819961 1.000000
2.776448 2.397410 -0.580998 7.000000
9.184532 7.927879 1.489731 2.000000
3.076500 2.654628 -0.498933 4.000000
10.545398 9.096118 2.205726 6.000000
3.367382 2.904594 -0.389063 4.000000
10.516455 9.067961 2.699184 7.000000
3.777526 3.256075 -0.261366 1.000000
10.456615 9.009994 3.186656 7.000000
4.269627 3.677650 -0.098362 2.000000
10.392530 8.948464 3.674713 6.000000
2.218740 1.905724 -0.783704 12.000000
4.961163 4.259746 0.114139 2.000000
2.379287 2.042180 -0.723893 10.000000
5.879714 5.044867 0.406022 1.000000
2.591452 2.222713 -0.663634 9.000000
7.132061 6.117235 0.822053 1.000000
2.796795 2.397992 -0.583501 7.000000
3.064644 2.625790 -0.495521 3.000000
10.352035 8.866509 2.158796 6.000000
3.378004 2.892234 -0.389063 3.000000
10.275180 8.794459 2.628967 6.000000
3.777293 3.231822 -0.260528 1.000000
10.206657 8.732735 3.101175 9.000000
4.276361 3.657524 -0.098222 2.000000
10.181430 8.704988 3.589303 8.000000
2.234530 1.905100 -0.786810 12.000000
4.958478 4.225970 0.113720 2.000000
2.383790 2.030917 -0.722993 10.000000
5.898164 5.023284 0.406022 1.000000
2.593601 2.208109 -0.662107 9.000000
7.160501 6.096222 0.822750 1.000000
2.802558 2.385163 -0.582875 7.000000
3.083320 2.622257 -0.496983 4.000000
10.113570 8.598191 2.102479 5.000000
3.388582 2.879834 -0.389063 3.000000
10.061965 8.548279 2.566381 6.000000
3.789115 3.217953 -0.260528 1.000000
10.008372 8.499733 3.031440 6.000000
4.274492 3.628885 -0.097873 2.000000
9.956976 8.450112 3.499233 8.000000
2.231175 1.888162 -0.783186 13.000000
4.973933 4.207769 0.113720 2.000000
2.397170 2.027200 -0.724792 10.000000
5.900413 4.989767 0.404976 1.000000
2.598294 2.196508 -0.661344 9.000000
7.176708 6.064794 0.822053 1.000000
2.826371 2.387623 -0.586004 7.000000
3.095943 2.613500 -0.497471 4.000000
9.902003 8.358967 2.052420 5.000000
3.392524 2.862847 -0.388366 3.000000
9.854645 8.313090 2.506085 6.000000
3.815591 3.217584 -0.261575 1.000000
9.786160 8.249474 2.954957 8.000000
4.302424 3.626830 -0.098222 2.000000
9.747095 8.213634 3.415376 10.000000
2.234794 1.877876 -0.782151 13.000000
5.006232 4.206687 0.114139 2.000000
2.412831 2.026760 -0.727492 10.000000
5.917793 4.969141 0.404976 1.000000
2.607450 2.188687 -0.661726 7.000000
7.203941 6.044827 0.822750 1.000000
2.828220 2.373159 -0.584752 7.000000
3.098510 2.598117 -0.496496 3.000000
9.697985 8.128929 2.004239 5.000000
3.402496 2.850988 -0.388366 3.000000
9.660948 8.095014 2.449988 10.000000
3.826241 3.204913 -0.261575 1.000000
9.602789 8.040579 2.891521 10.000000
4.315059 3.611788 -0.098222 2.000000
9.538646 7.981209 3.332554 9.000000
2.245459 1.874169 -0.783704 12.000000
4.999390 4.171250 0.113650 2.000000
2.407919 2.008341 -0.723893 10.000000
5.949576 4.962284 0.406022 1.000000
2.619217 2.183800 -0.662870 9.000000
7.223948 6.020902 0.822750 1.000000
2.827380 2.355686 -0.582875 7.000000
9.333526 7.773647 1.491437 4.000000
3.113209 2.592910 -0.497471 3.000000
9.497176 7.907134 1.957308 5.000000
3.418056 2.844788 -0.389063 3.000000
9.450692 7.862847 2.389692 9.000000
3.831263 3.186428 -0.261156 1.000000
9.418144 7.832987 2.828085 12.000000
4.323934 3.594904 -0.098152 2.000000
9.360033 7.779131 3.261120 11.000000
2.254636 1.869178 -0.784739 12.000000
5.034750 4.172514 0.114139 2.000000
2.411565 1.997858 -0.722993 10.000000
5.947544 4.927235 0.404766 1.000000
2.626445 2.175102 -0.662870 9.000000
7.250012 6.001997 0.823447 1.000000
2.842786 2.352593 -0.584439 7.000000
3.127909 2.587632 -0.498446 4.000000
9.340671 7.724531 1.919764 5.000000
3.439756 2.843593 -0.390458 3.000000
9.276948 7.666383 2.339318 8.000000
3.841808 3.173706 -0.261156 1.000000
9.232228 7.626716 2.764648 9.000000
4.329665 3.575452 -0.098013 2.000000
9.174225 7.573413 3.187616 10.000000
2.266787 1.866603 -0.786810 12.000000
5.023856 4.135462 0.113580 2.000000
2.418176 1.989850 -0.722993 9.000000
5.967791 4.908983 0.404976 1.000000
2.635159 2.167628 -0.663252 7.000000
7.285267 5.990574 0.825191 1.000000
2.859727 2.350680 -0.586316 7.000000
3.118516 2.561577 -0.495521 3.000000
9.141631 7.506353 1.873459 5.000000
3.449662 2.831568 -0.390458 3.000000
9.105046 7.473646 2.289708 10.000000
3.852312 3.160948 -0.261156 1.000000
9.062920 7.433781 2.706161 11.000000
4.329749 3.550172 -0.097733 2.000000
9.009363 7.384586 3.121358 10.000000
2.267630 1.853392 -0.784739 11.000000
5.075421 4.148270 0.114418 2.000000
2.431144 1.986328 -0.724792 9.000000
6.000358 4.900757 0.406022 1.000000
2.637004 2.152988 -0.661726 7.000000
7.294825 5.953755 0.823796 1.000000
2.868324 2.340184 -0.586316 7.000000
3.133591 2.555695 -0.496496 3.000000
8.971807 7.314621 1.833412 4.000000
3.453347 2.814475 -0.389760 3.000000
8.928418 7.274060 2.238571 12.000000
3.863871 3.146808 -0.261156 1.000000
8.887600 7.235646 2.645874 9.000000
4.357622 3.547663 -0.098083 2.000000
8.856779 7.207983 3.059759 12.000000
2.265086 1.838160 -0.781634 12.000000
5.090590 4.129642 0.114418 2.000000
2.450516 1.987224 -0.728392 10.000000
6.018283 4.878727 0.406022 1.000000
2.653654 2.151187 -0.664015 9.000000
7.327945 5.938292 0.825191 1.000000
2.864196 2.320209 -0.583813 7.000000
8.747147 7.083297 1.381998 2.000000
3.152194 2.551687 -0.497958 3.000000
8.823498 7.140034 1.797745 4.000000
3.444564 2.787364 -0.387669 3.000000
8.776698 7.099621 2.194304 11.000000
3.893468 3.148372 -0.262413 1.000000
8.735485 7.061248 2.593236 11.000000
4.370597 3.531667 -0.098083 2.000000
8.686272 7.016448 2.991948 14.000000
2.280513 1.837517 -0.784739 12.000000
5.076944 4.089267 0.113790 2.000000
2.442260 1.966436 -0.723893 9.000000
6.019715 4.845171 0.404976 1.000000
2.661145 2.141913 -0.664015 7.000000
7.348630 5.912675 0.825191 1.000000
2.879974 2.316386 -0.585378 7.000000
8.660426 6.963169 1.364449 6.000000
3.167272 2.545642 -0.498933 5.000000
8.654340 6.953296 1.758324 4.000000
3.463592 2.782810 -0.388715 3.000000
8.605494 6.911587 2.145457 11.000000
3.876401 3.112254 -0.260528 1.000000
8.574667 6.881899 2.538348 12.000000
4.401612 3.531408 -0.098501 2.000000
8.525343 6.837420 2.928279 13.000000
2.289931 1.831958 -0.785775 12.000000
5.138040 4.108987 0.114837 2.000000
2.452153 1.960333 -0.724792 9.000000
6.052195 4.836596 0.406022 1.000000
2.674741 2.137512 -0.665542 7.000000
7.378567 5.894447 0.826236 1.000000
2.892673 2.310018 -0.586316 7.000000
8.504721 6.789232 1.336176 6.000000
3.155968 2.518474 -0.495765 3.000000
8.530312 6.804787 1.728288 4.000000
3.482630 2.778158 -0.389760 3.000000
8.469934 6.754204 2.105768 12.000000
3.912231 3.118622 -0.262203 1.000000
8.437088 6.723196 2.490658 12.000000
4.413913 3.516021 -0.098501 2.000000
8.401057 6.689685 2.877550 13.000000
2.296312 1.823954 -0.785775 11.000000
5.139820 4.081082 0.114558 2.000000
2.465087 1.956607 -0.726592 9.000000
6.147271 4.877509 0.411256 1.000000
2.669883 2.118400 -0.662489 7.000000
7.402215 5.871137 0.826585 1.000000
2.903815 2.302360 -0.586942 7.000000
8.343241 6.612770 1.307171 6.000000
3.175630 2.516073 -0.497471 4.000000
8.372838 6.631472 1.691682 8.000000
3.486059 2.761036 -0.389063 3.000000
8.321066 6.588104 2.063027 12.000000
3.916826 3.099992 -0.261784 1.000000
8.271002 6.543770 2.434870 12.000000
4.429297 3.503072 -0.098571 2.000000
8.259169 6.529730 2.821128 16.000000
2.299631 1.813534 -0.784739 11.000000
5.160317 4.068067 0.114697 2.000000
2.471900 1.947992 -0.726592 9.000000
6.107777 4.811529 0.407488 1.000000
2.680345 2.111498 -0.663252 7.000000
7.422666 5.845260 0.826585 1.000000
2.910280 2.290990 -0.586629 6.000000
8.218071 6.466986 1.284016 7.000000
3.190635 2.509881 -0.498446 3.000000
8.212707 6.458118 1.654764 8.000000
3.508206 2.758702 -0.390458 3.000000
8.200469 6.446185 2.027536 14.000000
3.946469 3.101108 -0.263041 1.000000
8.154339 6.405313 2.393929 14.000000
4.444643 3.490061 -0.098641 2.000000
8.114755 6.369648 2.764188 16.000000
2.308990 1.807877 -0.785775 11.000000
5.168186 4.045100 0.114558 2.000000
2.484825 1.944154 -0.728392 9.000000
6.181172 4.834474 0.411256 1.000000
2.690793 2.104547 -0.664015 7.000000
7.430466 5.809498 0.825191 1.000000
2.919816 2.282033 -0.586942 7.000000
8.098248 6.327043 1.261835 5.000000
3.208763 2.506060 -0.499908 3.000000
8.098176 6.322442 1.627231 8.000000
3.511530 2.741537 -0.389760 3.000000
8.058866 6.289482 1.987085 14.000000
3.957269 3.087314 -0.263041 1.000000
8.021440 6.255775 2.348489 12.000000
4.431567 3.454852 -0.098083 2.000000
7.981518 6.220156 2.711389 17.000000
2.315285 1.799808 -0.785775 11.000000
5.182275 4.027033 0.114558 2.000000
2.491597 1.935468 -0.728392 9.000000
6.197169 4.813951 0.411256 1.000000
2.704325 2.099959 -0.665542 7.000000
7.475883 5.803071 0.827980 1.000000
2.927765 2.271827 -0.586942 7.000000
7.960292 6.174637 1.236974 5.000000
3.211217 2.489978 -0.498933 3.000000
7.975482 6.184190 1.598448 8.000000
3.530528 2.736586 -0.390806 3.000000
7.922474 6.138661 1.948160 15.000000
3.964865 3.071034 -0.262831 1.000000
7.906092 6.121552 2.308448 15.000000
4.477783 3.467071 -0.098850 2.000000
7.849329 6.075410 2.659625 17.000000
2.327672 1.796436 -0.787845 10.000000
5.236760 4.041594 0.115465 2.000000
2.482573 1.915291 -0.723893 9.000000
6.213934 4.792291 0.411256 1.000000
2.708529 2.088109 -0.664779 7.000000
7.496095 5.776938 0.827980 1.000000
2.930589 2.258487 -0.586004 6.000000
7.839193 6.039175 1.215037 5.000000
3.232038 2.489006 -0.500883 4.000000
7.846754 6.040630 1.568412 8.000000
3.543217 2.726676 -0.391155 3.000000
7.799645 6.002203 1.913051 18.000000
3.956030 3.043257 -0.261575 1.000000
7.771871 5.976506 2.263458 15.000000
4.480346 3.444108 -0.098641 2.000000
7.743346 5.950276 2.616661 19.000000
2.333617 1.788706 -0.787845 11.000000
5.234962 4.011127 0.115116 2.000000
2.498525 1.913724 -0.726592 9.000000
6.230626 4.770569 0.411256 1.000000
2.718556 2.081502 -0.665542 7.000000
7.527868 5.761738 0.829374 1.000000
2.949437 2.256647 -0.588194 7.000000
7.726202 5.909265 1.194320 5.000000
3.235976 2.474091 -0.500152 3.000000
7.710843 5.893253 1.537125 7.000000
3.549074 2.712491 -0.390806 3.000000
7.689507 5.874821 1.880995 19.000000
3.985677 3.043975 -0.262831 1.000000
7.659477 5.847644 2.224766 15.000000
4.470086 3.411462 -0.098152 2.000000
7.636589 5.825953 2.573697 20.000000
2.333696 1.775870 -0.785775 11.000000
5.229834 3.978300 0.114697 2.000000
2.523804 1.919146 -0.731991 9.000000
6.247240 4.748793 0.411256 1.000000
2.716427 2.064872 -0.663252 7.000000
7.541587 5.730605 0.828677 7.000000
2.963588 2.251117 -0.589445 7.000000
7.618721 5.785023 1.174577 4.000000
3.249336 2.466381 -0.500883 4.000000
7.596032 5.763616 1.510219 7.000000
3.561695 2.702495 -0.391155 3.000000
7.575447 5.745908 1.848176 19.000000
3.996278 3.030045 -0.262831 3.000000
7.535408 5.711401 2.182925 15.000000
4.504282 3.412744 -0.098641 2.000000
7.510578 5.688456 2.524521 18.000000
2.336799 1.765384 -0.784739 11.000000
5.250073 3.964840 0.114837 2.000000
2.524266 1.905628 -0.730191 9.000000
6.262952 4.728051 0.411256 1.000000
2.733021 2.062472 -0.665542 7.000000
7.507467 5.663447 0.822750 1.000000
2.960387 2.232434 -0.587255 6.000000
7.523154 5.671162 1.156784 6.000000
3.259511 2.456218 -0.501127 3.000000
7.485741 5.640910 1.484563 7.000000
3.567923 2.687649 -0.390806 3.000000
7.459010 5.616686 1.814975 20.000000
4.013214 3.020880 -0.263250 1.000000
7.435395 5.594844 2.148283 16.000000
4.534746 3.412219 -0.099060 2.000000
7.405893 5.570615 2.483110 18.000000
2.349128 1.761853 -0.786810 11.000000
5.291986 3.969006 0.115465 2.000000
2.533690 1.899585 -0.731091 9.000000
6.279418 4.706159 0.411256 1.000000
2.737062 2.050566 -0.664779 7.000000
7.399611 5.541663 0.808805 1.000000
2.966193 2.221420 -0.586942 7.000000
7.414790 5.551011 1.137285 6.000000
3.256513 2.437070 -0.499421 3.000000
7.386754 5.526000 1.461098 7.000000
3.586857 2.682337 -0.391852 3.000000
7.342381 5.490807 1.782156 20.000000
4.013610 3.000381 -0.262622 1.000000
7.322783 5.472166 2.110491 16.000000
4.527406 3.382007 -0.098641 2.000000
7.306107 5.455726 2.443252 21.000000
2.358057 1.756361 -0.787845 11.000000
5.292976 3.940956 0.115186 2.000000
2.524673 1.879093 -0.726592 9.000000
6.295809 4.684209 0.411256 1.000000
2.750147 2.046165 -0.666305 7.000000
7.251681 5.393436 0.790677 1.000000
2.983441 2.218123 -0.588819 7.000000
7.301882 5.426810 1.117054 4.000000
3.271373 2.430424 -0.500396 5.000000
7.287060 5.411848 1.437633 7.000000
3.595733 2.670427 -0.391852 3.000000
7.260619 5.390245 1.757733 20.000000
4.036890 2.995876 -0.263459 1.000000
7.235415 5.367617 2.079897 16.000000
4.539185 3.366182 -0.098641 2.000000
7.200948 5.338157 2.401841 21.000000
2.361067 1.745822 -0.786810 11.000000
5.322783 3.934341 0.115535 2.000000
2.540620 1.877219 -0.729291 9.000000
6.312121 4.662206 0.411256 1.000000
2.757272 2.036554 -0.666305 7.000000
7.148648 5.278147 0.777429 1.000000
2.984808 2.203004 -0.587568 7.000000
7.196184 5.309364 1.098043 4.000000
3.276642 2.416632 -0.499908 4.000000
7.188250 5.299631 1.414481 7.000000
3.605033 2.657858 -0.391852 3.000000
7.165599 5.281007 1.730256 21.000000
4.053755 2.986504 -0.263878 1.000000
7.128578 5.249879 2.043905 17.000000
4.589556 3.378770 -0.099479 2.000000
7.110623 5.232834 2.365606 21.000000
2.370261 1.739856 -0.787845 10.000000
5.310687 3.896811 0.114976 2.000000
2.542444 1.864880 -0.727942 7.000000
6.328358 4.640142 0.411256 1.000000
2.761199 2.024594 -0.665542 7.000000
7.070611 5.182492 0.766971 16.000000
3.008413 2.204247 -0.590697 7.000000
7.120187 5.215005 1.083662 6.000000
3.281854 2.402835 -0.499421 4.000000
7.085554 5.185845 1.390703 6.000000
3.611071 2.642907 -0.391504 3.000000
7.063571 5.167858 1.701253 21.000000
4.073829 2.979408 -0.264506 1.000000
7.022578 5.134109 2.008363 17.000000
4.591636 3.355649 -0.099269 2.000000
7.011853 5.122509 2.326783 22.000000
2.379441 1.733848 -0.788880 11.000000
5.350120 3.897085 0.115535 2.000000
2.563117 1.866317 -0.731991 9.000000
6.344513 4.618028 0.411256 1.000000
2.765073 2.012635 -0.664779 7.000000
7.003273 5.095650 0.757732 16.000000
3.000115 2.182112 -0.587568 7.000000
7.013109 5.099070 1.064651 5.000000
3.303068 2.400701 -0.501371 4.000000
6.982157 5.072835 1.366925 6.000000
3.626723 2.634969 -0.392201 3.000000
6.964015 5.057802 1.673013 24.000000
4.090668 2.969864 -0.264925 1.000000
6.931632 5.030583 1.977320 17.000000
4.593607 3.332558 -0.099060 2.000000
6.906143 5.008406 2.285890 22.000000
2.385178 1.725948 -0.788880 10.000000
5.359772 3.876979 0.115465 2.000000
2.559817 1.850955 -0.729291 9.000000
6.359794 4.596962 0.411256 1.000000
2.778097 2.008054 -0.666305 9.000000
6.915161 4.996553 0.746402 14.000000
3.013740 2.176777 -0.588819 7.000000
6.910884 4.989792 1.046614 5.000000
3.317449 2.394382 -0.502346 3.000000
6.886806 4.968746 1.345024 6.000000
3.619284 2.611269 -0.390458 4.000000
6.872471 4.956586 1.647063 22.000000
4.077813 2.939931 -0.263459 1.000000
6.856584 4.941485 1.951226 17.000000
4.614368 3.324319 -0.099269 2.000000
6.822384 4.913225 2.252761 22.000000
2.391189 1.717611 -0.788880 10.000000
5.373274 3.858245 0.115465 2.000000
2.572594 1.846556 -0.731091 9.000000
6.375803 4.574732 0.411256 1.000000
2.794661 2.005210 -0.668595 8.000000
6.830564 4.899225 0.735420 20.000000
3.029346 2.172001 -0.590384 7.000000
6.831453 4.896252 1.031990 8.000000
3.322560 2.380474 -0.501858 3.000000
6.806139 4.874519 1.325939 6.000000
3.657532 2.619504 -0.393595 3.000000
6.777990 4.852565 1.620350 22.000000
4.094547 2.930327 -0.263878 1.000000
6.759673 4.835888 1.918833 18.000000
4.651970 3.326802 -0.099828 2.000000
6.737340 4.816352 2.219115 22.000000
2.400316 1.711497 -0.789916 11.000000
5.386708 3.839467 0.115465 2.000000
2.579024 1.837564 -0.731091 9.000000
2.792048 1.988610 -0.666305 7.000000
6.742125 4.800241 0.724090 22.000000
3.032081 2.157976 -0.589445 7.000000
6.744983 4.798725 1.016390 6.000000
3.321143 2.361960 -0.500396 4.000000
6.707195 4.768320 1.303412 6.000000
3.663406 2.604411 -0.393247 3.000000
6.698871 4.760637 1.597453 25.000000
4.094981 2.909077 -0.263250 1.000000
6.678003 4.742305 1.890939 18.000000
4.637466 3.292021 -0.099269 2.000000
6.662733 4.727963 2.189091 23.000000
2.399967 1.698644 -0.787845 11.000000
5.419668 3.834498 0.115884 2.000000
2.579058 1.824050 -0.729291 9.000000
6.407583 4.530112 0.411256 1.000000
2.792560 1.974319 -0.664779 7.000000
6.664472 4.709981 0.713980 18.000000
3.058956 2.161058 -0.593200 7.000000
6.648184 4.694997 0.999329 6.000000
3.345585 2.361800 -0.502833 4.000000
6.639872 4.685655 1.287143 9.000000
3.669219 2.589311 -0.392898 3.000000
6.615980 4.667065 1.573793 23.000000
4.114905 2.901670 -0.263878 1.000000
6.598950 4.651598 1.863944 18.000000
4.652198 3.278118 -0.099339 2.000000
6.571800 4.629027 2.153892 26.000000
2.402721 1.688035 -0.786810 11.000000
5.433019 3.815558 0.115884 2.000000
2.591790 1.819514 -0.731091 9.000000
6.423358 4.507717 0.411256 1.000000
2.809077 1.971325 -0.667068 7.000000
6.573220 4.611174 0.702475 24.000000
3.053543 2.141293 -0.590697 7.000000
6.596262 4.623903 0.989092 6.000000
3.353808 2.350108 -0.502833 3.000000
6.544550 4.584248 1.265555 9.000000
3.678236 2.576486 -0.392898 3.000000
6.532523 4.574124 1.550132 23.000000
4.147915 2.903324 -0.265343 1.000000
6.512957 4.557036 1.835151 18.000000
4.683275 3.275613 -0.099758 2.000000
6.492921 4.539643 2.122834 23.000000
2.421275 1.688478 -0.790951 10.000000
5.459427 3.805719 0.116163 2.000000
2.591731 1.805999 -0.729291 9.000000
6.401359 4.459013 0.408849 2.000000
2.817552 1.962630 -0.667450 6.000000
6.494442 4.522168 0.692365 22.000000
3.051271 2.123849 -0.588819 7.000000
6.491781 4.516952 0.971055 7.000000
3.368511 2.342920 -0.503808 3.000000
6.482664 4.507246 1.250537 8.000000
3.687207 2.563630 -0.392898 3.000000
6.448497 4.481826 1.526472 24.000000
4.158025 2.888826 -0.265343 1.000000
6.448796 4.478692 1.812656 18.000000
4.701251 3.263808 -0.099898 2.000000
6.419851 4.455269 2.093846 23.000000
2.427155 1.680015 -0.790951 10.000000
5.498991 3.804843 0.116722 2.000000
2.594813 1.794725 -0.728392 9.000000
6.431672 4.446862 0.409791 1.000000
2.826001 1.953899 -0.667832 7.000000
6.433155 4.446228 0.684173 36.000000
3.065167 2.117677 -0.590071 7.000000
6.420939 4.434474 0.958137 7.000000
3.373400 2.328892 -0.503320 4.000000
6.407312 4.421760 1.233017 8.000000
3.712531 2.562061 -0.394641 3.000000
6.370374 4.394628 1.504338 23.000000
4.158218 2.867492 -0.264715 1.000000
6.355286 4.380946 1.782062 18.000000
4.719203 3.251915 -0.100037 2.000000
6.343089 4.369273 2.063823 23.000000
2.448927 1.682473 -0.796127 10.000000
5.502347 3.778833 0.116512 2.000000
2.613915 1.794479 -0.731991 9.000000
2.832804 1.944023 -0.667832 7.000000
6.363201 4.365138 0.675108 30.000000
3.082315 2.113667 -0.591948 7.000000
6.351239 4.353669 0.945462 7.000000
3.361859 2.303638 -0.500396 3.000000
6.318407 4.327922 1.212993 8.000000
3.718165 2.546833 -0.394293 3.000000
6.309541 4.320231 1.486402 24.000000
4.178091 2.859730 -0.265343 1.000000
6.280475 4.297110 1.756868 21.000000
4.733827 3.237678 -0.100107 2.000000
6.281752 4.294770 2.038976 23.000000
2.435632 1.660853 -0.789916 10.000000
5.498981 3.748339 0.116163 2.000000
2.629824 1.791930 -0.734690 9.000000
2.842818 1.936332 -0.668595 8.000000
6.289468 4.282347 0.665696 20.000000
3.092939 2.105119 -0.592574 7.000000
6.297464 4.284575 0.935225 8.000000
3.386294 2.303052 -0.502833 4.000000
6.243625 4.244761 1.195785 11.000000
3.736917 2.540563 -0.395338 3.000000
6.238523 4.239696 1.466176 24.000000
4.201265 2.854105 -0.266181 1.000000
6.219665 4.223707 1.735722 20.000000
4.758335 3.230121 -0.100386 2.000000
6.194399 4.203392 2.005848 25.000000
2.438215 1.650175 -0.788880 10.000000
5.528594 3.740327 0.116512 2.000000
2.632835 1.780555 -0.733790 9.000000
2.857693 1.931894 -0.670503 10.000000
6.210282 4.196780 0.655760 16.000000
3.087174 2.085464 -0.590071 7.000000
6.213675 4.195910 0.920601 9.000000
3.400894 2.295661 -0.503808 4.000000
6.186356 4.174323 1.182019 13.000000
3.729247 2.516358 -0.393595 3.000000
6.170277 4.161902 1.446714 23.000000
4.227762 2.850590 -0.267227 1.000000
6.160036 4.151871 1.715027 20.000000
4.769582 3.213490 -0.100386 2.000000
6.130519 4.128866 1.980483 22.000000
2.443960 1.641655 -0.788880 9.000000
5.511735 3.700940 0.115884 2.000000
2.632563 1.767009 -0.731991 9.000000
6.187240 4.152951 0.390531 1.000000
2.849745 1.912064 -0.667068 7.000000
6.148779 4.124024 0.647741 20.000000
3.097717 2.076874 -0.590697 7.000000
6.140883 4.115625 0.907683 9.000000
3.412185 2.285984 -0.504295 3.000000
6.134521 4.109806 1.169504 11.000000
3.761185 2.518845 -0.396036 3.000000
6.098298 4.082459 1.426488 21.000000
4.207808 2.815819 -0.265343 1.000000
6.096744 4.078333 1.693431 20.000000
4.780211 3.197657 -0.100386 2.000000
6.059063 4.051601 1.953049 22.000000
2.462535 1.641686 -0.793022 10.000000
5.563909 3.709264 0.116722 2.000000
2.638409 1.758268 -0.731991 9.000000
6.052099 4.031672 0.381110 1.000000
2.869475 1.910810 -0.670121 8.000000
6.088504 4.052853 0.639897 18.000000
3.104588 2.066589 -0.590697 7.000000
6.070213 4.039153 0.895252 9.000000
3.418094 2.273558 -0.504052 3.000000
6.053422 4.024929 1.151358 13.000000
3.769954 2.505701 -0.396036 3.000000
6.039862 4.014396 1.409697 22.000000
4.230431 2.810693 -0.266181 1.000000
6.029068 4.004185 1.670936 19.000000
4.791343 3.180953 -0.100386 2.000000
6.008785 3.987696 1.932343 23.000000
2.464744 1.631378 -0.791986 11.000000
5.576822 3.689821 0.116722 2.000000
2.651030 1.753350 -0.733790 9.000000
6.011156 3.974172 0.377656 10.000000
2.872521 1.899117 -0.669358 8.000000
6.023785 3.981014 0.631705 19.000000
3.128263 2.066630 -0.593825 7.000000
6.006422 3.966524 0.883797 9.000000
3.414413 2.253956 -0.502346 4.000000
5.984995 3.949379 1.135714 13.000000
3.775352 2.490332 -0.395687 3.000000
5.975175 3.941398 1.391379 20.000000
4.256892 2.806903 -0.267227 1.000000
5.953516 3.924134 1.646192 19.000000
4.812438 3.170808 -0.100596 2.000000
5.948454 3.917816 1.908532 21.000000
2.473936 1.624455 -0.793022 11.000000
5.633129 3.698868 0.117629 2.000000
2.660393 1.746223 -0.734690 9.000000
5.973222 3.919203 0.374411 13.000000
2.882745 1.890731 -0.670121 8.000000
5.950027 3.901010 0.622466 17.000000
3.142426 2.059481 -0.595077 7.000000
5.947177 3.897657 0.873072 10.000000
3.448827 2.259430 -0.506245 3.000000
5.909508 3.870022 1.118819 13.000000
3.794024 2.483686 -0.396733 3.000000
5.930439 3.880772 1.377641 21.000000
4.260464 2.786909 -0.266809 1.000000
5.909145 3.863888 1.629995 18.000000
4.833519 3.160555 -0.100805 2.000000
5.873155 3.838896 1.880062 21.000000
2.469881 1.609480 -0.789916 11.000000
5.646647 3.678197 0.117629 2.000000
2.666775 1.736461 -0.734690 9.000000
5.918245 3.853644 0.370120 16.000000
2.892619 1.882798 -0.670884 8.000000
5.893467 3.834581 0.615145 17.000000
3.139660 2.042038 -0.593200 7.000000
5.891524 3.830387 0.862835 10.000000
3.442105 2.237039 -0.504052 3.000000
5.868322 3.813849 1.108495 15.000000
3.799328 2.468257 -0.396384 3.000000
5.841866 3.793751 1.353981 21.000000
4.276867 2.776371 -0.267227 1.000000
5.840858 3.790203 1.607500 18.000000
4.868004 3.158906 -0.101294 2.000000
5.823311 3.777368 1.859874 20.000000
2.481972 1.605047 -0.791986 10.000000
5.658813 3.659453 0.117629 2.000000
2.669246 1.725492 -0.733790 9.000000
5.867917 3.791769 0.366142 19.000000
2.895875 1.870559 -0.670121 8.000000
5.829823 3.764270 0.607127 16.000000
3.153052 2.035901 -0.594451 7.000000
5.822468 3.758081 0.850892 10.000000
3.459513 2.232069 -0.505514 3.000000
5.815197 3.750513 1.095980 15.000000
3.794525 2.446342 -0.394990 3.000000
5.791712 3.733935 1.339479 20.000000
4.275978 2.755680 -0.266599 1.000000
5.797696 3.734929 1.592204 20.000000
4.855465 3.126736 -0.100805 2.000000
5.756865 3.705782 1.834509 20.000000
2.497035 1.603069 -0.795092 10.000000
5.671554 3.639677 0.117629 2.000000
2.668693 1.711954 -0.731991 9.000000
5.790327 3.713046 0.360490 14.000000
2.908672 1.865185 -0.671648 8.000000
5.783565 3.707286 0.601026 14.000000
3.170120 2.031276 -0.596328 7.000000
5.773701 3.698120 0.841874 10.000000
3.463939 2.217839 -0.505027 3.000000
5.756712 3.684401 1.082527 18.000000
3.816042 2.442337 -0.396384 3.000000
5.730290 3.666085 1.322306 20.000000
4.272110 2.732130 -0.265762 1.000000
5.715469 3.653788 1.566109 17.000000
4.906790 3.135612 -0.101643 2.000000
5.716040 3.651347 1.817427 22.000000
2.502616 1.594342 -0.795092 10.000000
5.630249 3.585486 0.116512 7.000000
2.687803 1.711001 -0.735590 9.000000
5.732482 3.647775 0.356094 14.000000
2.915166 1.855020 -0.671648 8.000000
5.724182 3.641094 0.593531 16.000000
3.173857 2.018078 -0.595703 7.000000
5.714537 3.632154 0.831393 10.000000
3.468309 2.203604 -0.504539 3.000000
5.701169 3.620865 1.069699 18.000000
3.841362 2.439684 -0.398127 3.000000
5.681728 3.607126 1.308187 17.000000
4.305230 2.732183 -0.267227 1.000000
5.667302 3.595192 1.549463 19.000000
4.887308 3.099188 -0.101015 2.000000
5.653695 3.583794 1.793616 19.000000
2.498368 1.579403 -0.791986 10.000000
5.649492 3.570082 0.116652 5.000000
2.697054 1.703690 -0.736490 9.000000
5.681006 3.587223 0.352116 14.000000
2.918303 1.842737 -0.670884 8.000000
5.664411 3.575361 0.586035 14.000000
3.175869 2.003825 -0.594764 7.000000
5.656661 3.567708 0.821156 11.000000
3.486055 2.197837 -0.506002 3.000000
5.635228 3.551442 1.054994 17.000000
3.836370 2.417763 -0.396733 3.000000
5.629500 3.546460 1.293303 19.000000
4.311360 2.715010 -0.267018 1.000000
5.605602 3.528672 1.529217 19.000000
4.894712 3.079978 -0.100945 2.000000
5.597488 3.520837 1.771875 19.000000
2.507139 1.572725 -0.793022 11.000000
5.607708 3.516344 0.115535 2.000000
2.712891 1.700476 -0.739189 9.000000
5.619025 3.520709 0.347511 19.000000
2.921390 1.830454 -0.670121 8.000000
5.602561 3.509032 0.578366 15.000000
3.191216 1.997969 -0.596328 7.000000
5.615233 3.514240 0.813356 11.000000
3.486975 2.181443 -0.505027 3.000000
5.585620 3.492998 1.043418 17.000000
3.841407 2.402245 -0.396384 3.000000
5.570262 3.482038 1.276894 18.000000
4.342831 2.713702 -0.268379 1.000000
5.563342 3.475016 1.514371 18.000000
4.915610 3.069229 -0.101154 2.000000
5.539276 3.457292 1.749617 21.000000
2.509333 1.561923 -0.791986 11.000000
5.616551 3.494636 0.115465 2.000000
2.712192 1.686878 -0.737390 9.000000
5.580395 3.469438 0.344371 15.000000
2.949436 1.833721 -0.675082 10.000000
5.558932 3.454749 0.572613 15.000000
3.186425 1.979520 -0.594138 7.000000
5.543146 3.442257 0.801169 13.000000
3.497941 2.171352 -0.505514 3.000000
5.535675 3.434941 1.031842 17.000000
3.870085 2.401426 -0.398476 3.000000
5.517317 3.422213 1.262011 18.000000
4.335302 2.688002 -0.267332 1.000000
5.512496 3.416562 1.497274 18.000000
4.929695 3.054157 -0.101224 2.000000
5.492183 3.401320 1.730982 20.000000
2.531207 1.563306 -0.797163 10.000000
5.564058 3.435090 0.114139 2.000000
2.706455 1.670236 -0.734240 7.000000
5.517678 3.403800 0.339765 19.000000
2.950806 1.820323 -0.673937 8.000000
5.511603 3.398721 0.566512 15.000000
3.200043 1.972530 -0.595390 7.000000
5.494287 3.385400 0.792395 13.000000
3.495358 2.152882 -0.504052 3.000000
5.483713 3.376241 1.019953 20.000000
3.898804 2.400436 -0.400568 3.000000
5.462348 3.361776 1.246746 18.000000
4.351463 2.677038 -0.267751 1.000000
5.441391 3.346256 1.474779 18.000000
4.964173 3.051594 -0.101713 2.000000
5.448061 3.347739 1.713382 20.000000
2.536649 1.554460 -0.797163 10.000000
5.460058 3.344621 0.111765 2.000000
2.717255 1.663832 -0.735590 9.000000
5.457980 3.340726 0.335369 17.000000
2.945421 1.802836 -0.671266 8.000000
5.465647 3.344111 0.560586 16.000000
3.210279 1.963410 -0.596015 7.000000
5.431551 3.320640 0.781670 11.000000
3.513015 2.146878 -0.505514 3.000000
5.436463 3.321037 1.009002 20.000000
3.913960 2.390967 -0.401265 3.000000
5.417081 3.307899 1.233771 18.000000
4.364192 2.663912 -0.267960 1.000000
5.403132 3.296793 1.461282 16.000000
4.950895 3.019669 -0.101224 2.000000
5.400334 3.292496 1.694747 20.000000
2.532155 1.539575 -0.794057 10.000000
5.427271 3.298537 0.110858 2.000000
2.721381 1.653324 -0.735140 7.000000
5.414980 3.288479 0.332019 15.000000
2.950018 1.791525 -0.670884 8.000000
5.407459 3.282620 0.553439 16.000000
3.223868 1.956290 -0.597267 6.000000
5.404071 3.277983 0.776064 14.000000
