# .PCD v0.7 - Point Cloud Data file format
VERSION 0.7
FIELDS x y z intensity
SIZE 4 4 4 4
TYPE F F F F
COUNT 1 1 1 1
WIDTH 1407
HEIGHT 1
VIEWPOINT 0 0 0 1 0 0 0
POINTS 1407
DATA ascii
6.3159704 7.4873295 -1.2027329 0
6.2776093 7.4926825 -1.200205 0
6.2205243 7.4753194 -1.1940762 0
6.2262616 7.533443 -1.2000192 0
6.1812553 7.530261 -1.1962044 0
6.1636591 7.5603709 -1.1976979 0
6.1489043 7.5941205 -1.1997716 0
6.1245623 7.6161294 -1.1999979 0
6.0876703 7.6224442 -1.1977701 0
6.0645714 7.6459541 -1.1982626 0
6.0519357 7.6827908 -1.2008488 0
6.0452471 7.727459 -1.2046558 0
6.0039864 7.7279673 -1.2015901 0
5.9537172 7.716527 -1.1967007 0
5.9323578 7.7423782 -1.1976185 0
5.9272075 7.7896152 -1.2018446 0
5.8996654 7.8076029 -1.2015611 0
5.8654227 7.8166356 -1.199918 0
5.8106165 7.7979217 -1.1940479 0
5.8136363 7.8568187 -1.200075 0
5.7830601 7.8705487 -1.1992037 0
5.7803488 7.92239 -1.2041429 0
5.7626824 7.9540496 -1.2060114 0
5.7381291 7.9763112 -1.206463 0
5.697268 7.9757862 -1.2034875 0
5.6353354 7.945272 -1.1960254 0
5.6067181 7.9613576 -1.1956103 0
5.6164083 8.0321884 -1.2034128 0
5.5838966 8.0429802 -1.2022179 0
5.5235772 8.0133162 -1.1950089 0
5.5262508 8.0750008 -1.2014381 0
5.5135469 8.1146793 -1.2045844 0
5.4872742 8.1345501 -1.2047963 0
5.4386487 8.1210651 -1.2000915 0
5.4076142 8.1335764 -1.1992543 0
5.3451653 8.0984087 -1.1914198 0
5.3300834 8.1347523 -1.1941308 0
5.3098516 8.1634502 -1.1957234 0
5.2921205 8.1961823 -1.1979121 0
5.2897096 8.2530403 -1.2036233 0
5.2602816 8.268014 -1.2032281 0
5.2291489 8.2802486 -1.2024504 0
5.1928816 8.2842131 -1.200491 0
5.1569238 8.2884731 -1.198596 0
5.1325469 8.3112898 -1.1994002 0
5.1016989 8.3236332 -1.1987064 0
5.0649452 8.3261967 -1.1966232 0
5.0316677 8.3342991 -1.1953564 0
5.0312462 8.3971033 -1.2019379 0
5.0013137 8.4109812 -1.2015175 0
4.9678121 8.418766 -1.2002434 0
4.9459105 8.4462242 -1.2017871 0
4.9113655 8.4520922 -1.2002722 0
4.8779273 8.4597139 -1.1990254 0
4.8582125 8.4911861 -1.2011706 0
4.8169837 8.4849997 -1.198004 0
4.7724414 8.472579 -1.1939844 0
4.7695327 8.5342045 -1.2004086 0
4.7312474 8.5327539 -1.1979666 0
4.7106991 8.5632696 -1.2000266 0
4.6933751 8.5999289 -1.202952 0
4.6747298 8.6344852 -1.2055866 0
4.6157036 8.5941591 -1.1977884 0
4.6095643 8.6521959 -1.2037164 0
4.5626159 8.6337051 -1.1990089 0
4.5329847 8.6476984 -1.1988348 0
4.5357423 8.7239676 -1.207293 0
4.4756994 8.6794605 -1.1990504 0
4.4251218 8.6524734 -1.1932658 0
4.4499207 8.7733984 -1.2078782 0
4.3985887 8.7447481 -1.2018967 0
4.3622189 8.7453613 -1.199964 0
4.3468204 8.7881355 -1.2038267 0
4.3134136 8.7946739 -1.2027345 0
4.2670712 8.7744761 -1.1980089 0
4.2549748 8.8247099 -1.2029129 0
4.2196836 8.8270454 -1.201296 0
4.18434 8.8290644 -1.1996547 0
4.1568632 8.8476181 -1.2002752 0
4.1163435 8.8382473 -1.1971251 0
4.0688181 8.8132935 -1.1918906 0
4.0792298 8.9142628 -1.203689 0
4.0508966 8.9313669 -1.2041578 0
3.9959977 8.8894377 -1.1966918 0
3.9620929 8.8936329 -1.1954614 0
3.9564519 8.9616814 -1.2028185 0
3.90433 8.9244881 -1.1960628 0
3.8816228 8.9542227 -1.1982969 0
3.85109 8.9660473 -1.1981447 0
3.8407805 9.0253744 -1.204345 0
3.7970273 9.0062494 -1.2000874 0
3.7699244 9.0263863 -1.2010797 0
3.7346864 9.0270033 -1.1994889 0
3.6793594 8.9783716 -1.1913809 0
3.6636677 9.0262127 -1.1960924 0
3.6499164 9.0795727 -1.2015349 0
3.6176643 9.0872641 -1.2009408 0
3.5848365 9.0934076 -1.2001575 0
3.5586541 9.1164579 -1.2016183 0
3.5261941 9.1234894 -1.2009799 0
3.4790087 9.0919409 -1.1952848 0
3.4646173 9.1460867 -1.2008694 0
3.4347007 9.1596994 -1.2011379 0
3.3866677 9.1245451 -1.1950324 0
3.3803186 9.2018976 -1.2036719 0
3.3310027 9.1624441 -1.1970435 0
3.3069 9.1920071 -1.1994505 0
3.2934682 9.2519388 -1.2058232 0
3.2480838 9.2221966 -1.2005209 0
3.230293 9.2707691 -1.2054272 0
3.1944354 9.2677479 -1.2036349 0
3.1459303 9.2273283 -1.197009 0
3.1185086 9.2483034 -1.1983669 0
3.0853026 9.2521677 -1.1975204 0
3.0487812 9.2458315 -1.1953706 0
3.0291069 9.2907906 -1.1998634 0
3.0001934 9.3078871 -1.2007654 0
2.976367 9.3411121 -1.2037575 0
2.9519985 9.3731604 -1.2066052 0
2.8929563 9.2943363 -1.1952028 0
2.8786213 9.3587437 -1.2022374 0
2.8421328 9.3515816 -1.2000865 0
2.8197591 9.3910189 -1.2039275 0
2.7714152 9.3436394 -1.1966555 0
2.7635312 9.4329538 -1.2069006 0
2.7117498 9.3725605 -1.1980035 0
2.678777 9.3762331 -1.1973183 0
2.6542859 9.4098387 -1.2004665 0
2.6084378 9.3673897 -1.1939286 0
2.5828731 9.3973923 -1.196642 0
2.557055 9.4270287 -1.1993175 0
2.5383859 9.483942 -1.2054684 0
2.4986508 9.4623947 -1.2016581 0
2.4600925 9.4445419 -1.1983366 0
2.4303377 9.4602289 -1.1992865 0
2.3815494 9.4009962 -1.1907585 0
2.3777189 9.5198441 -1.2047955 0
2.3377976 9.4953108 -1.2006919 0
2.3077974 9.5107155 -1.2016548 0
2.2835689 9.5504856 -1.2057055 0
2.2419057 9.51721 -1.2005489 0
2.2145042 9.5441561 -1.2030046 0
2.1745548 9.5167913 -1.1986296 0
2.14452 9.5324087 -1.1996843 0
2.1035111 9.4987392 -1.1945527 0
2.082 9.5532217 -1.2005197 0
2.0230646 9.4347286 -1.18477 0
2.0059631 9.5104055 -1.1934218 0
1.992625 9.6065559 -1.2046423 0
1.9652592 9.6369867 -1.2076252 0
1.9277982 9.6178837 -1.2044145 0
1.8832152 9.5617142 -1.1965832 0
1.8571957 9.5992432 -1.2004938 0
1.8288022 9.6254244 -1.2029943 0
1.7890043 9.5912094 -1.1979618 0
1.75841 9.6057482 -1.1990346 0
1.7216293 9.586174 -1.195864 0
1.6995902 9.6492987 -1.203021 0
1.6562029 9.591094 -1.1950654 0
1.6260811 9.608675 -1.19657 0
1.6054701 9.6841288 -1.2052892 0
1.5679344 9.6583033 -1.2014139 0
1.5395703 9.6888504 -1.2045648 0
1.5031439 9.6686602 -1.2014214 0
1.4644129 9.6321726 -1.1962705 0
1.434989 9.6564026 -1.1986755 0
1.4010924 9.6507416 -1.1973829 0
1.3716965 9.6763296 -1.1999804 0
1.3372175 9.6662121 -1.1981629 0
1.3100315 9.7094078 -1.202966 0
1.2727535 9.6778793 -1.1985242 0
1.2404165 9.6830149 -1.1986386 0
1.2020832 9.6401167 -1.1928227 0
1.1735246 9.6751719 -1.1966666 0
1.1445913 9.7088461 -1.2003502 0
1.1127014 9.7184668 -1.2010716 0
1.0778968 9.7022133 -1.1986095 0
1.0478635 9.7290058 -1.2014787 0
1.0167425 9.7468863 -1.2032591 0
0.97769845 9.6872358 -1.1954838 0
0.95131695 9.7530336 -1.2032034 0
0.91105682 9.6759329 -1.1933081 0
0.88691753 9.7704496 -1.2045912 0
0.8514601 9.7425432 -1.200792 0
0.81793487 9.7351608 -1.1995373 0
0.78543562 9.7396526 -1.1997595 0
0.75033206 9.7106028 -1.1958644 0
0.72005969 9.7440481 -1.1996791 0
0.69087714 9.7959127 -1.2057728 0
0.65682745 9.7802773 -1.2035702 0
0.62069446 9.7300987 -1.1971325 0
0.58616906 9.7007027 -1.1932672 0
0.55349898 9.7001219 -1.1929609 0
0.52437538 9.7652807 -1.2007513 0
0.49106187 9.7556715 -1.1993606 0
0.46021399 9.7969398 -1.2042377 0
0.42471209 9.7376242 -1.1967647 0
0.3944203 9.7975912 -1.2039655 0
0.35946897 9.7419567 -1.196974 0
0.32815319 9.7833309 -1.2019157 0
0.29466015 9.7615328 -1.1991097 0
0.26076293 9.7189713 -1.1937672 0
0.22974734 9.7867441 -1.2019904 0
0.19628137 9.7550764 -1.1980134 0
0.16346 9.7489195 -1.1971833 0
0.13065687 9.7407713 -1.1961221 0
0.098221406 9.7634439 -1.1988591 0
0.065631866 9.7854862 -1.2015319 0
0.032617476 9.724493 -1.1940225 0
1.2945703e-05 9.7571239 -1.1980225 0
-0.032694545 9.755188 -1.1977915 0
-0.065722488 9.8028765 -1.2036672 0
-0.098443128 9.7880659 -1.2018824 0
-0.13020529 9.7090263 -1.1922239 0
-0.16422445 9.7960625 -1.2029725 0
-0.19741406 9.812665 -1.2050858 0
-0.22878723 9.7469473 -1.1971025 0
-0.26297301 9.8023148 -1.204004 0
-0.29410538 9.7440119 -1.1969572 0
-0.32879004 9.8030939 -1.2043436 0
-0.36086753 9.7805634 -1.2017175 0
-0.39245918 9.7495203 -1.1980582 0
-0.42471302 9.7382383 -1.19684 0
-0.45770478 9.7440767 -1.1977395 0
-0.49107575 9.756464 -1.1994578 0
-0.52271843 9.7349072 -1.1970164 0
-0.5567559 9.7576542 -1.2000363 0
-0.58975875 9.76054 -1.2006276 0
-0.62123054 9.7389088 -1.1982162 0
-0.65137076 9.6994104 -1.1936185 0
-0.68486679 9.7110596 -1.195328 0
-0.72282726 9.7818527 -1.2043333 0
-0.75711066 9.7986679 -1.2067094 0
-0.78513592 9.7362585 -1.1993412 0
-0.81541002 9.7054186 -1.1958722 0
-0.85228032 9.7522268 -1.2019851 0
-0.88663745 9.7676516 -1.2042459 0
-0.91615397 9.7303448 -1.2000183 0
-0.945692 9.6956329 -1.1961217 0
-0.97707272 9.6812935 -1.1947502 0
-1.0080886 9.664176 -1.193048 0
-1.0484219 9.7344332 -1.2021486 0
-1.0831438 9.7496777 -1.2044729 0
-1.1134708 9.7254152 -1.20193 0
-1.1480824 9.7386808 -1.2040384 0
-1.1784213 9.7157583 -1.2016861 0
-1.2126932 9.7254143 -1.2033765 0
-1.2429621 9.7030916 -1.2011232 0
-1.2751118 9.6960096 -1.2007692 0
-1.3018692 9.6491051 -1.1954943 0
-1.3466434 9.7345381 -1.2066318 0
-1.367788 9.648942 -1.1965835 0
-1.3972912 9.6247387 -1.1941563 0
-1.4328394 9.6421127 -1.1969013 0
-1.4681337 9.6568184 -1.1993309 0
-1.5066329 9.6912718 -1.2042305 0
-1.5454371 9.7259369 -1.2091751 0
-1.5637839 9.6328983 -1.1982532 0
-1.6084211 9.7020884 -1.2075239 0
-1.6247106 9.6007309 -1.1955801 0
-1.6720417 9.6829691 -1.2065127 0
-1.6957768 9.6277971 -1.2003399 0
-1.7282188 9.6230116 -1.2004589 0
-1.7653594 9.643856 -1.2037908 0
-1.7936735 9.6163836 -1.2011055 0
-1.8295381 9.6294365 -1.2034951 0
-1.8712329 9.6719341 -1.2095839 0
-1.8903681 9.5981665 -1.2011443 0
-1.9195958 9.5770941 -1.1993059 0
-1.9503307 9.5639124 -1.1984674 0
-1.9945395 9.6159143 -1.2058151 0
-2.0150206 9.5534744 -1.1988256 0
-2.0517173 9.5684757 -1.2015647 0
-2.0865853 9.5743837 -1.2031783 0
-2.1168172 9.5589457 -1.2021234 0
-2.1505647 9.5593958 -1.2030799 0
-2.1800253 9.5408487 -1.201659 0
-2.2111096 9.5296412 -1.2011743 0
-2.2377613 9.4997292 -1.198343 0
-2.2733366 9.507803 -1.2003162 0
-2.3057814 9.5025167 -1.2006181 0
-2.3325524 9.4741154 -1.198011 0
-2.3778701 9.5205564 -1.2048849 0
-2.3956435 9.4567375 -1.197818 0
-2.4261034 9.4438505 -1.1972094 0
-2.4764299 9.5073662 -1.2063071 0
-2.4879065 9.4218073 -1.1965029 0
-2.5136552 9.3916426 -1.1937357 0
-2.5599906 9.4379511 -1.2007061 0
-2.5915983 9.4292355 -1.200696 0
-2.6235063 9.4216003 -1.2008371 0
-2.6411133 9.3632355 -1.19452 0
-2.6944849 9.4313087 -1.2043504 0
-2.7060604 9.3529892 -1.195501 0
-2.7503109 9.3879204 -1.2011379 0
-2.7734923 9.3507338 -1.1975631 0
-2.8174977 9.3835783 -1.2029725 0
-2.839911 9.3443594 -1.1991587 0
-2.8680584 9.3244905 -1.1978362 0
-2.8975234 9.3090963 -1.1970999 0
-2.9287302 9.299366 -1.1971047 0
-2.9746797 9.3359022 -1.2030851 0
-2.9940059 9.2887754 -1.1982988 0
-3.0201755 9.2634792 -1.1963352 0
-3.0703459 9.3113127 -1.2038354 0
-3.0931516 9.2757883 -1.2005765 0
-3.130209 9.2830839 -1.2028725 0
-3.1483359 9.2344646 -1.1979337 0
-3.1852465 9.241169 -1.200182 0
-3.2316861 9.2748461 -1.2059562 0
-3.2573214 9.2485037 -1.2039442 0
-3.2900455 9.2424011 -1.204579 0
-3.3249476 9.2422495 -1.2060055 0
-3.3476732 9.208375 -1.2030431 0
-3.3834527 9.2105045 -1.2047966 0
-3.4072483 9.180069 -1.2023031 0
-3.4284282 9.1430464 -1.1989529 0
-3.4441876 9.0922279 -1.1937966 0
-3.4950676 9.1339808 -1.2008106 0
-3.5181081 9.1026402 -1.1982343 0
-3.5477145 9.0885048 -1.1979326 0
-3.5907772 9.1085472 -1.2021545 0
-3.6000631 9.0431213 -1.1951058 0
-3.6530528 9.0874443 -1.2025753 0
-3.6788278 9.063632 -1.2010497 0
-3.70597 9.043376 -1.2000052 0
-3.7307472 9.0175505 -1.1982313 0
-3.7720175 9.0314655 -1.2017542 0
-3.7997193 9.012701 -1.2009457 0
-3.8317399 9.0041971 -1.2015177 0
-3.850919 8.9657154 -1.1980989 0
-3.8872647 8.9673023 -1.2000459 0
-3.9184833 8.9569044 -1.2004058 0
-3.9570966 8.9632063 -1.2030218 0
-3.9741271 8.9207087 -1.1990995 0
-4.0129128 8.9271307 -1.2017645 0
-4.0567231 8.9442759 -1.2058969 0
-4.0622487 8.8772163 -1.1986852 0
-4.088304 8.8555632 -1.1976055 0
-4.1128411 8.8307886 -1.1961133 0
-4.1400895 8.8119774 -1.1954387 0
-4.1905937 8.8423214 -1.2014545 0
-4.2192326 8.8261614 -1.2011743 0
-4.2419953 8.7978506 -1.1992502 0
-4.2806754 8.8025103 -1.2018349 0
-4.2854648 8.7377472 -1.1949477 0
-4.3294506 8.7530775 -1.1990227 0
-4.3526583 8.7262526 -1.1973405 0
-4.3948388 8.7373505 -1.2008783 0
-4.4001923 8.6754131 -1.1943865 0
-4.4466853 8.6946936 -1.1990868 0
-4.4859028 8.6993046 -1.2017901 0
-4.5108252 8.6760988 -1.2006669 0
-4.5141597 8.6118412 -1.1938623 0
-4.5684175 8.6447392 -1.2005396 0
-4.5951333 8.625164 -1.199954 0
-4.6128836 8.5889626 -1.1970625 0
-4.6560593 8.6000538 -1.2007773 0
-4.6694336 8.5561142 -1.1968215 0
-4.71632 8.5735416 -1.2014644 0
-4.7583866 8.5817528 -1.2048441 0
-4.7632356 8.5229902 -1.1988294 0
-4.805861 8.5319624 -1.2023511 0
-4.8087659 8.4705763 -1.1959659 0
-4.8406544 8.4605503 -1.1968349 0
-4.900054 8.4981413 -1.2044699 0
-4.8808684 8.3996601 -1.1928246 0
-4.9424071 8.4402924 -1.2009412 0
-4.9724078 8.4266052 -1.2013592 0
-4.9761157 8.3686552 -1.1954691 0
-5.0212622 8.3804903 -1.199558 0
-5.0466719 8.3592014 -1.1989261 0
-5.1180348 8.4135208 -1.2091713 0
-5.0900126 8.3046169 -1.1959658 0
-5.1472268 8.3351107 -1.2028359 0
-5.1617785 8.2963247 -1.1997294 0
-5.172183 8.2512417 -1.1957109 0
-5.2245951 8.2730856 -1.2014083 0
-5.227767 8.2169561 -1.1957958 0
-5.2813187 8.2399969 -1.2017189 0
-5.3098307 8.2236586 -1.2019259 0
-5.3625932 8.2445831 -1.2076051 0
-5.3778968 8.2077723 -1.2048476 0
-5.3939028 8.1722965 -1.202288 0
-5.4185328 8.1500454 -1.2016805 0
-5.4467044 8.1331415 -1.2018739 0
-5.4776039 8.1202612 -1.2026777 0
-5.4737854 8.0562057 -1.195902 0
-5.5476146 8.1062641 -1.2060872 0
-5.5464935 8.046607 -1.1999714 0
-5.5855465 8.0454025 -1.2025778 0
-5.6094089 8.0222235 -1.2019176 0
-5.6574726 8.0334721 -1.2064381 0
-5.6394844 7.9511662 -1.1969105 0
-5.6805148 7.9523773 -1.199953 0
-5.7020292 7.9261746 -1.1988772 0
-5.7163877 7.8901944 -1.1963273 0
-5.7454405 7.8745894 -1.1968753 0
-5.8021197 7.8965325 -1.2031604 0
-5.8238025 7.8706012 -1.2021778 0
-5.8592315 7.8632069 -1.2040423 0
-5.8815708 7.8381991 -1.2032257 0
-5.8637977 7.7601781 -1.1942602 0
-5.8926091 7.7441888 -1.1948334 0
-5.9253325 7.7332525 -1.1962044 0
-5.9631343 7.728775 -1.1985978 0
-5.995254 7.7167702 -1.1998466 0
-6.014811 7.6885958 -1.1985948 0
-6.0454831 7.6746411 -1.1995724 0
-6.1122756 7.7061391 -1.2076921 0
-6.0832138 7.6169052 -1.1968973 0
-6.1291504 7.6218762 -1.2009008 0
-6.1272874 7.5674639 -1.1955577 0
-6.1968341 7.6011047 -1.2041483 0
-6.2123995 7.568243 -1.2022353 0
-6.2374449 7.5470147 -1.2021785 0
-6.2696085 7.5343456 -1.2035021 0
-6.2616634 7.4736905 -1.1971601 0
-6.3230462 7.4957581 -1.2040842 0
-6.3730574 7.5038514 -1.2088099 0
-6.3447108 7.4199104 -1.1987078 0
-6.3840556 7.4154425 -1.2014371 0
-6.3561954 7.3332109 -1.1915603 0
-6.4181743 7.3547478 -1.1985496 0
-6.449667 7.3410068 -1.1998276 0
-6.4676161 7.3118477 -1.1985992 0
-6.5031991 7.3025913 -1.2006494 0
-6.549706 7.3053503 -1.2047068 0
-6.5368757 7.2420402 -1.197874 0
-6.5266685 7.1821709 -1.1915841 0
-6.6078629 7.2227159 -1.2019799 0
-6.6480365 7.217886 -1.2048787 0
-6.6567287 7.1788716 -1.2020849 0
-6.6881051 7.1643796 -1.2034065 0
-6.659132 7.085568 -1.1939119 0
-6.7265 7.1093345 -1.20171 0
-6.7386661 7.0745301 -1.1996392 0
-6.7806206 7.0709519 -1.2028807 0
-6.802433 7.0462542 -1.2025524 0
-6.8279023 7.0253448 -1.2028842 0
-6.7956214 6.9453855 -1.1930879 0
-6.8839121 6.9885936 -1.2044684 0
-6.863349 6.9211483 -1.1968036 0
-6.866333 6.8778806 -1.193296 0
-6.947813 6.9129858 -1.2034215 0
-6.9576235 6.8764796 -1.2011205 0
-6.961184 6.8340125 -1.1977729 0
-6.9965239 6.8227911 -1.1999108 0
-7.0063787 6.7867203 -1.1976917 0
-7.0349054 6.7687831 -1.198682 0
-7.0747252 6.7615628 -1.2015972 0
-7.0818019 6.7230392 -1.198964 0
-7.1310272 6.7244577 -1.2034742 0
-7.1509871 6.6981263 -1.2030458 0
-7.1579475 6.6597319 -1.2004535 0
-7.236321 6.6875267 -1.2098303 0
-7.1789837 6.5900478 -1.1965433 0
-7.2230268 6.58599 -1.200197 0
-7.2982116 6.6098671 -1.2090006 0
-7.2718525 6.541748 -1.2009938 0
-7.24687 6.4754453 -1.1932755 0
-7.3259239 6.5020418 -1.2026961 0
-7.3420115 6.4724426 -1.2017677 0
-7.3533354 6.4387403 -1.200081 0
-7.3844132 6.422339 -1.2016319 0
-7.4053431 6.3970594 -1.2015408 0
-7.4107628 6.3584781 -1.1989543 0
-7.4316897 6.3332968 -1.1988978 0
-7.4305878 6.2894731 -1.1953114 0
-7.4976273 6.3031917 -1.2026894 0
-7.5023961 6.2643886 -1.2000784 0
-7.5205379 6.2368612 -1.1996287 0
-7.5626206 6.2290845 -1.2030033 0
-7.5665307 6.1898422 -1.2003173 0
-7.635253 6.2034459 -1.2079127 0
-7.608788 6.139708 -1.2004625 0
-7.6467676 6.1281366 -1.2032062 0
-7.6140494 6.0601044 -1.1948543 0
-7.6634274 6.0575457 -1.1994091 0
-7.6991854 6.0439787 -1.2018272 0
-7.671031 5.9804168 -1.1942956 0
-7.7409153 5.9932795 -1.2020407 0
-7.756968 5.9642177 -1.2014214 0
-7.76653 5.9302421 -1.1998161 0
-7.768168 5.8903675 -1.1970114 0
-7.8338861 5.8989372 -1.2040837 0
-7.8041482 5.8356452 -1.1964989 0
-7.8311906 5.8150306 -1.197649 0
-7.8788753 5.8095584 -1.2019559 0
-7.8350964 5.736825 -1.1923362 0
-7.9106669 5.7515149 -1.2008951 0
-7.9117632 5.7118611 -1.1981475 0
-7.9880428 5.7262878 -1.206785 0
-8.0104389 5.7017808 -1.2072735 0
-8.003994 5.6568565 -1.2034369 0
-7.9514298 5.5798249 -1.1927141 0
-7.9995718 5.5736732 -1.1971256 0
-8.0055285 5.5380449 -1.1952314 0
-8.0246153 5.51156 -1.1953155 0
-8.0882053 5.5154166 -1.2020264 0
-8.1056623 5.487597 -1.2018796 0
-8.1036968 5.4467325 -1.1988735 0
-8.1248636 5.4215002 -1.199309 0
-8.1538401 5.401413 -1.2009064 0
-8.1899881 5.3859367 -1.2035639 0
-8.2000856 5.3532805 -1.2024034 0
-8.1888075 5.3068457 -1.1981338 0
-8.2386065 5.2999797 -1.2028133 0
-8.2537994 5.2707119 -1.2024448 0
-8.2629881 5.2376614 -1.2012182 0
-8.2894611 5.2155643 -1.2025179 0
-8.29356 5.1794095 -1.2005864 0
-8.3219442 5.158433 -1.202185 0
-8.337719 5.1295953 -1.2019726 0
-8.3251133 5.0834413 -1.1976914 0
-8.3762369 5.0761819 -1.2025912 0
-8.354372 5.0247107 -1.1970264 0
-8.4191561 5.0253134 -1.2038879 0
-8.4084396 4.9807568 -1.1999608 0
-8.46595 4.9765549 -1.2057801 0
-8.4992027 4.9578338 -1.2081419 0
-8.5093575 4.9255934 -1.207231 0
-8.4919062 4.8775535 -1.2024283 0
-8.501193 4.8450541 -1.2014364 0
-8.5204868 4.818275 -1.2018732 0
-8.4662819 4.7502303 -1.1919739 0
-8.5305681 4.748765 -1.1987765 0
-8.5381622 4.7155638 -1.1976151 0
-8.5575066 4.6888738 -1.1981167 0
-8.5657902 4.6561389 -1.1970841 0
-8.6252451 4.6510611 -1.2032068 0
-8.636342 4.6197367 -1.2025875 0
-8.6290512 4.5786934 -1.1994277 0
-8.5930157 4.5227151 -1.1923045 0
-8.6429996 4.5120821 -1.197134 0
-8.6562872 4.4821506 -1.1968863 0
-8.6753216 4.4551849 -1.197446 0
-8.7295799 4.446125 -1.2028708 0
-8.6930466 4.3908734 -1.1958015 0
-8.7401028 4.377923 -1.2002485 0
-8.7923622 4.3672862 -1.2054076 0
-8.7649422 4.3170891 -1.1996572 0
-8.7698164 4.2830133 -1.1983521 0
-8.8210735 4.2714763 -1.2033925 0
-8.8282576 4.2384739 -1.202427 0
-8.8230877 4.1996498 -1.1997983 0
-8.8232079 4.1634793 -1.1979097 0
-8.8225336 4.1270514 -1.1959329 0
-8.8465033 4.1021695 -1.1973108 0
-8.8828754 4.0829048 -1.2003741 0
-8.8770294 4.0442219 -1.197745 0
-8.9151335 4.0255418 -1.2010584 0
-8.8733606 3.970917 -1.1936303 0
-8.8804502 3.9384055 -1.192801 0
-8.9615297 3.9384611 -1.2019111 0
-8.9654579 3.9043746 -1.2006754 0
-8.8999853 3.840414 -1.190176 0
-8.9599552 3.8307085 -1.1964715 0
-9.0133753 3.8178542 -1.2018887 0
-8.9869232 3.7711625 -1.1966687 0
-9.0248928 3.7515583 -1.200043 0
-9.043149 3.7236373 -1.2008036 0
-9.0748167 3.7011411 -1.2033542 0
-9.0330305 3.6488228 -1.1961842 0
-9.1099186 3.6444016 -1.2047411 0
-9.0986013 3.6045332 -1.2016395 0
-9.0722466 3.5589476 -1.1965762 0
-9.0729036 3.5241499 -1.1950977 0
-9.1056929 3.501796 -1.1978636 0
-9.1037569 3.466059 -1.1960734 0
-9.1815577 3.4604783 -1.2047639 0
-9.1425142 3.4107995 -1.1981333 0
-9.1510344 3.3790698 -1.1977586 0
-9.18993 3.3584616 -1.2013688 0
-9.1663275 3.3150413 -1.1968237 0
-9.1779594 3.2844934 -1.196898 0
-9.2056942 3.2596424 -1.1990829 0
-9.1753731 3.2143266 -1.1937228 0
-9.2012482 3.1887953 -1.1956916 0
-9.2413015 3.1680105 -1.1995094 0
-9.2232571 3.1273062 -1.1957995 0
-9.2775869 3.1110847 -1.2014842 0
-9.2770662 3.0763471 -1.2000744 0
-9.2584457 3.0357552 -1.1963422 0
-9.2788534 3.0080292 -1.1976693 0
-9.3496408 2.9963727 -1.2055027 0
-9.3386555 2.9583623 -1.2028006 0
-9.3589506 2.9303002 -1.2041425 0
-9.3020897 2.8782871 -1.1955782 0
-9.3813467 2.8683813 -1.2045221 0
-9.4002085 2.83972 -1.2057146 0
-9.406002 2.8070903 -1.2052438 0
-9.3276892 2.7496934 -1.1940211 0
-9.3550854 2.7237113 -1.1963522 0
-9.3827057 2.6976609 -1.1987211 0
-9.3694839 2.6598809 -1.1958858 0
-9.419384 2.6399527 -1.2011184 0
-9.4002476 2.6006281 -1.1975595 0
-9.4285374 2.5744543 -1.2000571 0
-9.4802389 2.5544474 -1.2055409 0
-9.4060268 2.5006547 -1.1950308 0
-9.5124483 2.4948301 -1.2074821 0
-9.4429054 2.4427829 -1.1976082 0
-9.539238 2.4336088 -1.208784 0
-9.4674129 2.3815055 -1.1986641 0
-9.4817915 2.3513484 -1.1994797 0
-9.479249 2.317009 -1.1981685 0
-9.4664173 2.2802646 -1.1955736 0
-9.5263948 2.2609456 -1.2021843 0
-9.5171547 2.2250726 -1.20007 0
-9.5249529 2.1932411 -1.2001194 0
-9.5160761 2.1576254 -1.1980827 0
-9.5041161 2.1214354 -1.1956748 0
-9.5475636 2.0975521 -1.2002491 0
-9.551466 2.0648642 -1.1998626 0
-9.5435972 2.0296936 -1.1980125 0
-9.5859671 2.0051348 -1.2024806 0
-9.5428944 1.9627528 -1.1962452 0
-9.5510635 1.9310783 -1.1964509 0
-9.590579 1.9056205 -1.2005939 0
-9.5744057 1.8690603 -1.197778 0
-9.6563721 1.8514733 -1.2072488 0
-9.585412 1.8045695 -1.1976142 0
-9.5851002 1.7712555 -1.1968265 0
-9.5858688 1.7381808 -1.196188 0
-9.6608343 1.7183383 -1.2048171 0
-9.6029625 1.6748489 -1.1968927 0
-9.6754246 1.6540797 -1.2052262 0
-9.6403761 1.6148398 -1.2001792 0
-9.6548223 1.5839989 -1.2013097 0
-9.6453371 1.5492514 -1.1994765 0
-9.6522379 1.5171806 -1.1996953 0
-9.6665297 1.4862334 -1.2008455 0
-9.657959 1.4517858 -1.1991694 0
-9.6734686 1.4209676 -1.2004969 0
-9.6154833 1.3795314 -1.1927201 0
-9.686182 1.3565458 -1.2009187 0
-9.6540604 1.3190594 -1.1963811 0
-9.7082653 1.2933229 -1.2025543 0
-9.6812057 1.2566973 -1.1986738 0
-9.6624851 1.2213391 -1.1958423 0
-9.7178812 1.1952522 -1.2021954 0
-9.6357908 1.1523731 -1.1915554 0
-9.7548828 1.1334547 -1.2058054 0
-9.7246132 1.0969052 -1.2016025 0
-9.735692 1.06511 -1.2025234 0
-9.7246122 1.0309147 -1.2007211 0
-9.6909609 0.99450159 -1.1961477 0
-9.7704916 0.96957076 -1.205556 0
-9.7313309 0.93274689 -1.2003316 0
-9.7710438 0.90350229 -1.2048496 0
-9.7691994 0.87030745 -1.2042555 0
-9.7947855 0.8394959 -1.2070558 0
-9.763731 0.8038671 -1.2028899 0
-9.7424812 0.76924032 -1.1999475 0
-9.6927662 0.73262286 -1.1935151 0
-9.7075624 0.70101577 -1.1950408 0
-9.73629 0.67028385 -1.1982939 0
-9.7656431 0.63941449 -1.201636 0
-9.7237139 0.60393459 -1.1962208 0
-9.7017231 0.56992185 -1.1932737 0
-9.7755909 0.54137862 -1.2021291 0
-9.7547436 0.50742388 -1.1993495 0
-9.7446976 0.47414628 -1.1979121 0
-9.7259274 0.44055176 -1.1954165 0
-9.7840261 0.41031694 -1.2023816 0
-9.7306967 0.37540227 -1.1956663 0
-9.7587585 0.34372094 -1.198966 0
-9.7323103 0.31012201 -1.1955822 0
-9.7366409 0.27758506 -1.1959932 0
-9.7596054 0.24549398 -1.1987062 0
-9.7055683 0.21157576 -1.1919754 0
-9.7965441 0.18069962 -1.2030672 0
-9.7858095 0.14768232 -1.2016814 0
-9.7703753 0.11468519 -1.1997321 0
-9.8003178 0.082174622 -1.2033682 0
-9.7530985 0.049076837 -1.1975434 0
-9.820282 0.016488882 -1.205779 0
-9.773592 2.5935104e-05 -1.2000444 0
-13.736156 -0.023063885 -1.2017579 0
-13.681521 -0.068844356 -1.1969914 0
-13.717911 -0.11502323 -1.2002021 0
-13.75398 -0.16144495 -1.2033983 0
-13.683752 -0.20650804 -1.1973077 0
-13.755642 -0.25372615 -1.2036656 0
-13.669858 -0.29799497 -1.1962399 0
-13.719298 -0.34509644 -1.2006609 0
-13.735469 -0.3915889 -1.2021843 0
-13.786147 -0.4392983 -1.2067419 0
-13.718115 -0.48317659 -1.200922 0
-13.661589 -0.52705288 -1.1961215 0
-13.715221 -0.57518119 -1.2009794 0
-13.70961 -0.62099916 -1.2006636 0
-13.683631 -0.66580242 -1.1985772 0
-13.693242 -0.71229738 -1.1996214 0
-13.711752 -0.75936586 -1.2014593 0
-13.709508 -0.80535674 -1.2014925 0
-13.67101 -0.84909904 -1.1983614 0
-13.686938 -0.89616489 -1.2000142 0
-13.751766 -0.94672471 -1.2059696 0
-13.699585 -0.98929316 -1.2016777 0
-13.70076 -1.035565 -1.2020785 0
-13.693573 -1.081208 -1.2017592 0
-13.650353 -1.1238604 -1.1982902 0
-13.654545 -1.1703099 -1.1989959 0
-13.668967 -1.2177256 -1.2006141 0
-13.695866 -1.2664201 -1.2033429 0
-13.692557 -1.3124299 -1.2034321 0
-13.596291 -1.3492224 -1.1953621 0
-13.655354 -1.4013338 -1.2009611 0
-13.60706 -1.4424964 -1.1971325 0
-13.624692 -1.4905766 -1.1991166 0
-13.609944 -1.5351582 -1.198265 0
-13.672934 -1.588707 -1.204273 0
-13.625119 -1.6294687 -1.200536 0
-13.650369 -1.678929 -1.2032501 0
-13.624273 -1.7221094 -1.2014519 0
-13.60239 -1.7656982 -1.2000376 0
-13.605373 -1.8124908 -1.2008301 0
-13.535128 -1.8493397 -1.1951706 0
-13.547159 -1.8972741 -1.1967881 0
-13.555514 -1.9448068 -1.1980954 0
-13.593894 -1.9968517 -1.2020726 0
-13.553234 -2.0373242 -1.1990745 0
-13.542293 -2.0821338 -1.1987174 0
-13.58295 -2.1350267 -1.2029431 0
-13.537287 -2.1743834 -1.1995379 0
-13.512471 -2.2168963 -1.1979909 0
-13.534577 -2.2671494 -1.200618 0
-13.552644 -2.3169165 -1.2029029 0
-13.506699 -2.3556981 -1.1995193 0
-13.486476 -2.3987916 -1.1984308 0
-13.515059 -2.4506507 -1.2016943 0
-13.539405 -2.5019815 -1.2045979 0
-13.481297 -2.5380166 -1.2001784 0
-13.452619 -2.57935 -1.1983885 0
-13.436914 -2.6230769 -1.1977662 0
-13.45573 -2.673615 -1.2002358 0
-13.412851 -2.7118726 -1.1972154 0
-13.435349 -2.7633407 -1.2000437 0
-13.407389 -2.804477 -1.1983795 0
-13.424447 -2.8550572 -1.2007531 0
-13.421509 -2.9015012 -1.2013535 0
-13.434362 -2.9514625 -1.2033832 0
-13.379173 -2.9863956 -1.1993297 0
-13.363051 -3.0298686 -1.1987884 0
-13.403791 -3.0863926 -1.2033647 0
-13.363455 -3.1243222 -1.2006772 0
-13.40586 -3.1816778 -1.2054389 0
-13.34097 -3.2135644 -1.2005662 0
-13.287827 -3.2479382 -1.196757 0
-13.324944 -3.304395 -1.2010909 0
-13.278879 -3.340271 -1.1979415 0
-13.229923 -3.3751602 -1.1945392 0
-13.298786 -3.4402595 -1.2017915 0
-13.252692 -3.4757843 -1.1986725 0
-13.286574 -3.5323243 -1.2028015 0
-13.252847 -3.5709751 -1.2008253 0
-13.151811 -3.5910912 -1.1927549 0
-13.197498 -3.6511579 -1.1980019 0
-13.250549 -3.713706 -1.203941 0
-13.159638 -3.7358594 -1.1968123 0
-13.186069 -3.7911816 -1.2003652 0
-13.203508 -3.8441706 -1.2031193 0
-13.107203 -3.8638496 -1.1955177 0
-13.104152 -3.9107516 -1.1964285 0
-13.068702 -3.9479394 -1.1943938 0
-13.155729 -4.0224123 -1.2035732 0
-13.116501 -4.0585566 -1.2012225 0
-13.067623 -4.0914907 -1.1979959 0
-13.024988 -4.1261435 -1.1953489 0
-12.997128 -4.165319 -1.1940669 0
-13.027138 -4.2231522 -1.1981181 0
-13.029889 -4.2723751 -1.1996819 0
-13.020601 -4.3177323 -1.2001529 0
-13.019104 -4.3657408 -1.2013574 0
-12.98597 -4.40312 -1.1996553 0
-12.956777 -4.4417129 -1.1983274 0
-12.960247 -4.4915185 -1.2000345 0
-12.971796 -4.5442934 -1.2025077 0
-12.904439 -4.5693302 -1.1976771 0
-12.910931 -4.6204023 -1.1997107 0
-12.889745 -4.6616311 -1.1991878 0
-12.877287 -4.7060075 -1.19949 0
-12.848784 -4.7444844 -1.19831 0
-12.859027 -4.7973194 -1.2007585 0
-12.830686 -4.8358145 -1.1996193 0
-12.860023 -4.8961763 -1.2038903 0
-12.824716 -4.9320283 -1.2021263 0
-12.767899 -4.9593816 -1.1983525 0
-12.788968 -5.0169783 -1.201902 0
-12.736298 -5.0456553 -1.1985352 0
-12.72026 -5.0887098 -1.1986247 0
-12.717119 -5.136982 -1.199945 0
-12.684716 -5.173429 -1.1985176 0
-12.666238 -5.2154927 -1.1984172 0
-12.66714 -5.2656045 -1.2001661 0
-12.690887 -5.3254485 -1.2041011 0
-12.642878 -5.355226 -1.2012427 0
-12.58617 -5.3810477 -1.1975622 0
-12.604188 -5.438807 -1.201005 0
-12.619503 -5.4956775 -1.2042133 0
-12.49778 -5.4925909 -1.1943485 0
-12.540632 -5.561666 -1.2002189 0
-12.48579 -5.5875154 -1.1967565 0
-12.520658 -5.6535811 -1.2019086 0
-12.486222 -5.688508 -1.2004271 0
-12.438375 -5.7171469 -1.1976632 0
-12.427901 -5.7628822 -1.1985084 0
-12.401505 -5.8012414 -1.1978319 0
-12.470948 -5.884769 -1.2064382 0
-12.43084 -5.916882 -1.2044705 0
-12.319587 -5.9146724 -1.1956055 0
-12.346385 -5.9785571 -1.2001449 0
-12.307171 -6.010591 -1.1982852 0
-12.288155 -6.0524139 -1.1984028 0
-12.282067 -6.1006703 -1.1997973 0
-12.225886 -6.1239548 -1.1963081 0
-12.261281 -6.1931949 -1.2017965 0
-12.206018 -6.2167344 -1.1984162 0
-12.201864 -6.2662296 -1.2000643 0
-12.171951 -6.3025308 -1.199194 0
-12.15409 -6.3450484 -1.1995234 0
-12.144742 -6.3920755 -1.2007092 0
-12.12064 -6.4313779 -1.2004515 0
-12.125692 -6.4862537 -1.203099 0
-12.067772 -6.5074029 -1.1995102 0
-12.100593 -6.5775647 -1.204958 0
-12.075095 -6.6162491 -1.2046211 0
-12.004302 -6.6298876 -1.1997695 0
-11.96646 -6.6614447 -1.198213 0
-11.986857 -6.7255416 -1.2025064 0
-11.912186 -6.7362571 -1.1972746 0
-11.899221 -6.7816806 -1.1982502 0
-11.916701 -6.844676 -1.2023145 0
-11.86249 -6.8665347 -1.1991611 0
-11.859528 -6.9180093 -1.2011995 0
-11.836665 -6.9579678 -1.2012401 0
-11.781005 -6.9785028 -1.1979592 0
-11.753281 -7.01542 -1.1975251 0
-11.782942 -7.0868134 -1.2029614 0
-11.748866 -7.1200686 -1.201913 0
-11.69244 -7.1395826 -1.1985826 0
-11.724732 -7.2133794 -1.2043654 0
-11.644798 -7.2181339 -1.1986337 0
-11.620489 -7.2571096 -1.1986293 0
-11.611694 -7.3058472 -1.2002422 0
-11.579676 -7.3400102 -1.1994696 0
-11.548107 -7.3743911 -1.1987538 0
-11.533226 -7.4194427 -1.1997846 0
-11.535962 -7.476006 -1.2026701 0
-11.490331 -7.5012584 -1.2005281 0
-11.429436 -7.5162768 -1.196792 0
-11.429313 -7.5712104 -1.1994305 0
-11.408672 -7.6126966 -1.1999363 0
-11.380502 -7.649169 -1.199664 0
-11.357736 -7.6892767 -1.1999751 0
-11.313371 -7.7146845 -1.1980139 0
-11.282729 -7.7493358 -1.1975137 0
-11.303747 -7.8196788 -1.2025205 0
-11.251511 -7.8394499 -1.1997528 0
-11.25942 -7.9011693 -1.2034143 0
-11.238299 -7.9427161 -1.2039964 0
-11.160269 -7.94381 -1.1984835 0
-11.189116 -8.0209999 -1.2044624 0
-11.06196 -7.9861317 -1.1936504 0
-11.137314 -8.0974751 -1.2047043 0
-11.054052 -8.0937309 -1.1986266 0
-11.055037 -8.1515293 -1.2016902 0
-10.985937 -8.1575794 -1.1971453 0
-10.968521 -8.2018423 -1.1982374 0
-10.948503 -8.2442522 -1.1990635 0
-10.907316 -8.270689 -1.197583 0
-10.850895 -8.2853518 -1.1944315 0
-10.87157 -8.3589888 -1.1997857 0
-10.874371 -8.4193068 -1.2032033 0
-10.82773 -8.4414129 -1.2011675 0
-10.794151 -8.4735737 -1.2005874 0
-10.778843 -8.5201216 -1.2020553 0
-10.747818 -8.5543051 -1.2017872 0
-10.65743 -8.5408878 -1.1948755 0
-10.660033 -8.6018286 -1.1983942 0
-10.650382 -8.653161 -1.200564 0
-10.620838 -8.6884346 -1.2005107 0
-10.618233 -8.7458935 -1.203524 0
-10.552668 -8.7514381 -1.1994115 0
-10.538389 -8.7993975 -1.2011352 0
-10.475363 -8.8065481 -1.1973103 0
-10.490205 -8.8792257 -1.2024027 0
-10.454021 -8.9089327 -1.2016723 0
-10.412801 -8.9342442 -1.2003706 0
-10.435462 -9.0146084 -1.2064602 0
-10.352731 -9.003931 -1.200379 0
-10.291072 -9.0110855 -1.1967262 0
-10.284625 -9.0665407 -1.1995047 0
-10.277549 -9.1217232 -1.2022398 0
-10.268281 -9.1752291 -1.2047473 0
-10.179608 -9.1575603 -1.1979393 0
-10.187592 -9.2267294 -1.2025125 0
-10.137593 -9.2435055 -1.2002623 0
-10.094666 -9.2665396 -1.1988516 0
-10.073319 -9.30937 -1.2000165 0
-10.067159 -9.3664522 -1.203017 0
-9.9945192 -9.3615818 -1.1980808 0
-9.9551039 -9.3875217 -1.1971221 0
-9.9644032 -9.4596081 -1.2020476 0
-9.9115744 -9.4728394 -1.1994994 0
-9.8802061 -9.5064487 -1.1995537 0
-9.869935 -9.5605011 -1.2021917 0
-9.787344 -9.5443115 -1.196023 0
-9.7802172 -9.6015463 -1.1990792 0
-9.7573586 -9.6435623 -1.2002342 0
-9.7344389 -9.6856432 -1.2014027 0
-9.6852951 -9.7015839 -1.1993452 0
-9.6550875 -9.7363968 -1.1996403 0
-9.6205578 -9.7668552 -1.1994119 0
-9.5942078 -9.8056488 -1.2002189 0
-9.5388184 -9.8146524 -1.1973995 0
-9.5311127 -9.8727388 -1.2005807 0
-9.5346937 -9.9429483 -1.2052243 0
-9.4711046 -9.9431572 -1.2013937 0
-9.4643965 -10.003057 -1.2047904 0
-9.4134617 -10.016279 -1.2025747 0
-9.3693209 -10.036531 -1.2012279 0
-9.3435287 -10.07642 -1.2022457 0
-9.2995396 -10.096668 -1.2009348 0
-9.2352638 -10.094593 -1.1969982 0
-9.240736 -10.168824 -1.2021198 0
-9.2093306 -10.202785 -1.2024776 0
-9.1684313 -10.2262 -1.2016075 0
-9.1246719 -10.246303 -1.200368 0
-9.0853157 -10.271241 -1.1997143 0
-9.0714474 -10.325115 -1.2024475 0
-9.004611 -10.318611 -1.1981674 0
-9.014575 -10.400211 -1.2041262 0
-8.9373407 -10.381228 -1.1984522 0
-8.8995829 -10.407742 -1.1980617 0
-8.8768797 -10.451936 -1.1997162 0
-8.8291626 -10.466675 -1.1980033 0
-8.8153439 -10.521668 -1.2009082 0
-8.7830601 -10.554823 -1.2013243 0
-8.7357903 -10.569895 -1.1996994 0
-8.705409 -10.605347 -1.2004037 0
-8.6623096 -10.625284 -1.1993662 0
-8.6133022 -10.637798 -1.1975123 0
-8.5658216 -10.651987 -1.1958698 0
-8.5416336 -10.695139 -1.1974925 0
-8.5369253 -10.763051 -1.2018847 0
-8.4679766 -10.749957 -1.1972454 0
-8.4435024 -10.793136 -1.1988946 0
-8.4382353 -10.861244 -1.2033107 0
-8.3946524 -10.880247 -1.202291 0
-8.3567533 -10.906541 -1.2020936 0
-8.3188143 -10.932757 -1.2019023 0
-8.2820511 -10.960507 -1.2018934 0
-8.2321281 -10.970718 -1.1999798 0
-8.1580153 -10.948221 -1.1945205 0
-8.1573124 -11.024233 -1.199823 0
-8.1170464 -11.047087 -1.1993417 0
-8.1259384 -11.137254 -1.2061661 0
-8.0446835 -11.103887 -1.1996245 0
-7.9949841 -11.113524 -1.1977631 0
-7.9711876 -11.159181 -1.1997966 0
-7.9124599 -11.155858 -1.1965802 0
-7.9058733 -11.226147 -1.2012695 0
-7.8602252 -11.241199 -1.2000536 0
-7.8137426 -11.254889 -1.1987114 0
-7.7681623 -11.269706 -1.1975088 0
-7.7516441 -11.326828 -1.2008101 0
-7.7104096 -11.348022 -1.2003096 0
-7.6555152 -11.348901 -1.1976808 0
-7.6318245 -11.396011 -1.1999453 0
-7.5556407 -11.364481 -1.1939512 0
-7.5676861 -11.465794 -1.2019228 0
-7.5054803 -11.454901 -1.1981361 0
-7.4778676 -11.496659 -1.1998748 0
-7.4329648 -11.511887 -1.1988564 0
-7.4190741 -11.575356 -1.2028687 0
-7.3496432 -11.552101 -1.1978848 0
-7.3016958 -11.562151 -1.1963817 0
-7.2672911 -11.593591 -1.1971067 0
-7.2436738 -11.642473 -1.1996398 0
-7.2202244 -11.691999 -1.2022418 0
-7.1780496 -11.711355 -1.2017506 0
-7.1294088 -11.720012 -1.2001793 0
-7.071126 -11.712465 -1.1969719 0
-7.0612259 -11.785192 -1.201978 0
-7.0062752 -11.782905 -1.1993421 0
-6.9815559 -11.831454 -1.2018945 0
-6.9244609 -11.825104 -1.1988841 0
-6.8716164 -11.825608 -1.1965928 0
-6.8462338 -11.873391 -1.1990983 0
-6.8151898 -11.911666 -1.2006494 0
-6.7439256 -11.879334 -1.1951046 0
-6.719491 -11.929276 -1.1978557 0
-6.7109151 -12.008028 -1.2034973 0
-6.6770682 -12.042096 -1.2046613 0
-6.612443 -12.0204 -1.2002662 0
-6.6004167 -12.094383 -1.2054371 0
-6.5582981 -12.113617 -1.2051557 0
-6.4926901 -12.08907 -1.2005411 0
-6.4596758 -12.12495 -1.2019467 0
-6.4258943 -12.159611 -1.2032402 0
-6.3768148 -12.165302 -1.2016809 0
-6.3278651 -12.170984 -1.2001398 0
-6.2705545 -12.160197 -1.1969961 0
-6.2462773 -12.213471 -1.2001721 0
-6.1918073 -12.207758 -1.1975638 0
-6.16257 -12.251764 -1.1998471 0
-6.1423025 -12.314148 -1.2039329 0
-6.0854211 -12.303215 -1.2008624 0
-6.0344796 -12.303859 -1.1989437 0
-5.9876251 -12.312573 -1.1978298 0
-5.9639521 -12.369169 -1.2013837 0
-5.909781 -12.362599 -1.1988144 0
-5.8960829 -12.44097 -1.2044904 0
-5.8384323 -12.426816 -1.201218 0
-5.7922182 -12.436624 -1.2002821 0
-5.720746 -12.391551 -1.1940742 0
-5.7361345 -12.535151 -1.2060518 0
-5.6652989 -12.49087 -1.1999569 0
-5.6057224 -12.470496 -1.1961875 0
-5.5958934 -12.561082 -1.2030702 0
-5.5663891 -12.608409 -1.2058086 0
-5.5037675 -12.580562 -1.2013739 0
-5.4850602 -12.653164 -1.206544 0
-5.4089379 -12.593098 -1.1990805 0
-5.3511395 -12.574631 -1.1956071 0
-5.3285599 -12.639017 -1.2000235 0
-5.2851725 -12.654463 -1.1998007 0
-5.2535353 -12.698266 -1.2022771 0
-5.1997328 -12.688482 -1.1996934 0
-5.156466 -12.704132 -1.1995316 0
-5.1211314 -12.739481 -1.2012414 0
-5.0565467 -12.701712 -1.1960746 0
-5.0358696 -12.774242 -1.2013079 0
-4.9922419 -12.789083 -1.2011226 0
-4.9423394 -12.78765 -1.1994251 0
-4.8865685 -12.770518 -1.1962748 0
-4.8682971 -12.851701 -1.2023437 0
-4.8174119 -12.847233 -1.2004079 0
-4.7779322 -12.873071 -1.2013185 0
-4.7415938 -12.907664 -1.2030565 0
-4.6760092 -12.862202 -1.1973511 0
-4.6439075 -12.90852 -1.2002066 0
-4.6094589 -12.948899 -1.2025174 0
-4.5777998 -12.997734 -1.2056204 0
-4.5225449 -12.979574 -1.2025226 0
-4.4765825 -12.987647 -1.2018733 0
-4.4342704 -13.006272 -1.2022144 0
-4.3703675 -12.960952 -1.196664 0
-4.340765 -13.017148 -1.200502 0
-4.2929292 -13.018991 -1.1993377 0
-4.2517424 -13.040941 -1.2000399 0
-4.2044859 -13.044237 -1.1990393 0
-4.1714816 -13.092012 -1.2021384 0
-4.1180587 -13.075747 -1.1993703 0
-4.0625844 -13.052177 -1.1959523 0
-4.0382133 -13.12884 -1.2017295 0
-3.9913111 -13.132892 -1.2008687 0
-3.9586179 -13.18404 -1.2043252 0
-3.9081833 -13.176305 -1.202415 0
-3.8507571 -13.144187 -1.1982991 0
-3.8173404 -13.19392 -1.2016594 0
-3.767072 -13.185607 -1.1997452 0
-3.7291389 -13.220487 -1.2017745 0
-3.6894169 -13.249525 -1.203283 0
-3.6434715 -13.256357 -1.2027873 0
-3.5933375 -13.247604 -1.2008932 0
-3.5529964 -13.27488 -1.2022791 0
-3.504379 -13.271233 -1.2008778 0
-3.4388421 -13.202203 -1.1935816 0
-3.412185 -13.282272 -1.1997794 0
-3.3715599 -13.30914 -1.2011784 0
-3.326642 -13.319265 -1.2010789 0
-3.2907755 -13.366124 -1.2043027 0
-3.2335477 -13.325999 -1.1997038 0
-3.2003727 -13.384957 -1.2040389 0
-3.1444299 -13.348714 -1.1998235 0
-3.0964248 -13.345253 -1.1985725 0
-3.0419228 -13.31293 -1.1947469 0
-3.0084319 -13.37267 -1.1991961 0
-2.9727809 -13.424235 -1.2029197 0
-2.9320862 -13.454 -1.2046992 0
-2.876915 -13.416903 -1.200507 0
-2.8307707 -13.421051 -1.2000221 0
-2.7864559 -13.433839 -1.2003235 0
-2.735707 -13.415193 -1.1978312 0
-2.6865425 -13.403482 -1.1959745 0
-2.6461306 -13.435478 -1.1980311 0
-2.5969577 -13.423024 -1.1961374 0
-2.5605676 -13.477075 -1.2001822 0
-2.516242 -13.490275 -1.2005996 0
-2.4708409 -13.497781 -1.2005236 0
-2.4343557 -13.554901 -1.2048713 0
-2.3808842 -13.517505 -1.2008308 0
-2.3387778 -13.544108 -1.2024908 0
-2.2933533 -13.551871 -1.2024906 0
-2.2425678 -13.527298 -1.1996362 0
-2.1931527 -13.509806 -1.1974261 0
-2.156745 -13.573097 -1.2023882 0
-2.1050892 -13.540785 -1.1988938 0
-2.0538828 -13.50965 -1.1955208 0
-2.006937 -13.505431 -1.1945453 0
-1.9622581 -13.51631 -1.1949188 0
-1.9218268 -13.557362 -1.1979716 0
-1.8796164 -13.587263 -1.2000501 0
-1.8338777 -13.592209 -1.1999372 0
-1.7981286 -13.673055 -1.2065353 0
-1.7446139 -13.619199 -1.2012601 0
-1.7043473 -13.668324 -1.2050823 0
-1.6489695 -13.5953 -1.1981498 0
-1.607296 -13.633988 -1.2010778 0
-1.5613397 -13.637248 -1.2008971 0
-1.5171704 -13.656471 -1.2021351 0
-1.4721346 -13.668541 -1.2027563 0
-1.4155964 -13.570804 -1.1937317 0
-1.3795069 -13.6688 -1.2019382 0
-1.3313974 -13.650046 -1.1998898 0
-1.2876931 -13.67641 -1.201821 0
-1.239852 -13.658844 -1.1999053 0
-1.1966462 -13.692637 -1.2025148 0
-1.1465931 -13.647325 -1.198191 0
-1.1007448 -13.650041 -1.1980987 0
-1.0561167 -13.66846 -1.1993978 0
-1.0097121 -13.664198 -1.1987201 0
-0.96809167 -13.727042 -1.2039417 0
-0.92465287 -13.768791 -1.2073246 0
-0.87387705 -13.699598 -1.2009938 0
-0.826563 -13.679663 -1.1989964 0
-0.78035134 -13.676369 -1.1984715 0
-0.73489583 -13.686417 -1.1991295 0
-0.68955731 -13.699801 -1.2000929 0
-0.64366472 -13.702976 -1.2001752 0
-0.59720153 -13.693224 -1.1991389 0
-0.55199385 -13.7127 -1.2006756 0
-0.50462806 -13.676892 -1.1973854 0
-0.46024239 -13.722433 -1.2012306 0
-0.41350427 -13.69982 -1.1991229 0
-0.36802998 -13.71831 -1.2006267 0
-0.32173085 -13.706594 -1.1995001 0
-0.27649128 -13.743278 -1.2026225 0
-0.22933012 -13.679646 -1.1969804 0
-0.18311696 -13.654493 -1.194719 0
-0.1383719 -13.758129 -1.2037394 0
-0.092418164 -13.784686 -1.2060291 0
-0.045981955 -13.7198 -1.2003319 0
1.8224679e-05 -13.735868 -1.2017308 0
0.045688335 -13.621407 -1.1917236 0
0.092033185 -13.721832 -1.2005301 0
0.13801418 -13.718942 -1.2003108 0
0.18362367 -13.689569 -1.197788 0
0.22921255 -13.670469 -1.1961774 0
0.27607781 -13.720916 -1.2006657 0
0.32282367 -13.751596 -1.2034385 0
0.3688311 -13.746812 -1.2031212 0
0.41498271 -13.747592 -1.2033045 0
0.46125421 -13.751512 -1.2037762 0
0.5059402 -13.711469 -1.2004126 0
0.55327088 -13.743517 -1.203374 0
0.59587014 -13.661864 -1.1963929 0
0.64310157 -13.690213 -1.1990575 0
0.68768513 -13.661884 -1.1967715 0
0.73628634 -13.711633 -1.201339 0
0.77815473 -13.637236 -1.1950425 0
0.82771671 -13.698153 -1.2006172 0
0.87127876 -13.658296 -1.1973732 0
0.9172796 -13.658455 -1.19765 0
0.96887809 -13.737675 -1.2048744 0
1.0101291 -13.669348 -1.1991721 0
1.0563861 -13.671474 -1.1996627 0
1.0995623 -13.634924 -1.1967721 0
1.1442537 -13.619048 -1.1957086 0
1.1954751 -13.678818 -1.2013015 0
1.2401396 -13.66161 -1.2001486 0
1.2879232 -13.678465 -1.2020019 0
1.3285787 -13.620774 -1.197317 0
1.3761165 -13.634845 -1.1989527 0
1.426368 -13.673716 -1.2027844 0
1.4649181 -13.601198 -1.1968309 0
1.5116469 -13.606423 -1.1977299 0
1.56394 -13.659639 -1.2028692 0
1.6135666 -13.686867 -1.2057365 0
1.6515895 -13.616598 -1.2000272 0
1.6962355 -13.602976 -1.1993213 0
1.7464561 -13.633292 -1.2025036 0
1.7920434 -13.626504 -1.202428 0
1.8370978 -13.615804 -1.2020205 0
1.8838562 -13.617645 -1.202734 0
1.9245424 -13.57626 -1.1996419 0
1.9681973 -13.556968 -1.1985136 0
2.0235934 -13.61727 -1.2044376 0
2.0598702 -13.54879 -1.1989849 0
2.1011453 -13.515179 -1.1966271 0
2.1524503 -13.545836 -1.1999738 0
2.1953487 -13.523106 -1.1986055 0
2.2377305 -13.497898 -1.1970296 0
2.2883646 -13.522174 -1.199856 0
2.3416719 -13.560655 -1.2039604 0
2.3790512 -13.506887 -1.1998882 0
2.4308057 -13.534927 -1.2030964 0
2.4779072 -13.536179 -1.2039393 0
2.5264618 -13.544868 -1.2054588 0
2.5583463 -13.465189 -1.1991243 0
2.5930769 -13.402775 -1.1943336 0
2.6520274 -13.465231 -1.2006847 0
2.7061458 -13.5011 -1.2046854 0
2.7426729 -13.449169 -1.2008655 0
2.7887077 -13.444515 -1.2012781 0
2.8280678 -13.40806 -1.1988612 0
2.872463 -13.395967 -1.1986344 0
2.9323876 -13.455211 -1.2048082 0
2.9619503 -13.375159 -1.1985228 0
3.0189428 -13.419225 -1.2033716 0
3.0571425 -13.379376 -1.2007107 0
3.1093361 -13.400737 -1.2035565 0
3.1433039 -13.343775 -1.1993803 0
3.1915147 -13.347754 -1.200693 0
3.2394173 -13.350034 -1.2018684 0
3.2736351 -13.296353 -1.1980171 0
3.3155997 -13.274904 -1.1970793 0
3.359952 -13.263171 -1.1970304 0
3.4115448 -13.279634 -1.1995419 0
3.4526203 -13.254956 -1.1983516 0
3.4988935 -13.250316 -1.1989859 0
3.5491505 -13.26037 -1.2009658 0
3.590575 -13.237281 -1.1999582 0
3.6219842 -13.178041 -1.1956823 0
3.6749837 -13.197556 -1.1985642 0
3.7163928 -13.175166 -1.1976556 0
3.7797978 -13.230017 -1.203787 0
3.8145962 -13.184304 -1.2007846 0
3.8519893 -13.148263 -1.1986716 0
3.9004138 -13.149982 -1.2000138 0
3.9447763 -13.137814 -1.2001035 0
3.9876759 -13.120807 -1.1997646 0
4.0247135 -13.084828 -1.1977018 0
4.0780272 -13.101668 -1.2004882 0
4.1291299 -13.110779 -1.2025846 0
4.1812286 -13.122483 -1.2049373 0
4.208313 -13.055991 -1.2001208 0
4.2674932 -13.089134 -1.2044758 0
4.2845993 -12.993614 -1.1970011 0
4.3329544 -12.993611 -1.1983324 0
4.3996201 -13.04759 -1.2046642 0
4.4226894 -12.972191 -1.1990651 0
4.4807663 -12.999673 -1.2029873 0
4.5140643 -12.955125 -1.2002586 0
4.555203 -12.933465 -1.1996602 0
4.5929976 -12.902548 -1.1982141 0
4.6523256 -12.931811 -1.2023735 0
4.6816545 -12.877623 -1.1987878 0
4.7267637 -12.867188 -1.199285 0
4.7787461 -12.875159 -1.2015146 0
4.8101544 -12.827776 -1.1985911 0
4.8651814 -12.843373 -1.2015659 0
4.9073873 -12.824824 -1.2013631 0
4.9290628 -12.753199 -1.1961949 0
4.980299 -12.758388 -1.1982411 0
5.0215607 -12.737846 -1.1978865 0
5.0662165 -12.725903 -1.1983539 0
5.1225572 -12.742929 -1.2015678 0
5.1514468 -12.691669 -1.1983562 0
5.2067213 -12.70544 -1.201298 0
5.2401633 -12.66585 -1.1992092 0
5.2806807 -12.643614 -1.1987735 0
5.3253498 -12.63131 -1.199293 0
5.380085 -12.642556 -1.2020668 0
5.4109907 -12.597785 -1.1995281 0
5.4563451 -12.58683 -1.2002202 0
5.4807935 -12.527957 -1.1963519 0
5.5402336 -12.549074 -1.2001356 0
5.5946927 -12.558297 -1.2028048 0
5.6357188 -12.537138 -1.2025812 0
5.6597171 -12.478476 -1.1987677 0
5.6945753 -12.444245 -1.1973069 0
5.7478285 -12.450127 -1.1997201 0
5.7729001 -12.39506 -1.1962721 0
5.8433838 -12.437269 -1.20223 0
5.8739963 -12.394282 -1.1999717 0
5.9069657 -12.356627 -1.1982367 0
5.941061 -12.32161 -1.196766 0
5.9915366 -12.320533 -1.1986058 0
6.0460176 -12.327302 -1.2012297 0
6.0964932 -12.325518 -1.2030408 0
6.1196489 -12.268651 -1.1994863 0
6.1491647 -12.225034 -1.1972309 0
6.2070198 -12.237671 -1.2004998 0
6.2263155 -12.17436 -1.1963303 0
6.2928872 -12.203426 -1.2012531 0
6.3253217 -12.166014 -1.1996512 0
6.3628082 -12.138503 -1.1990353 0
6.4003477 -12.111192 -1.1984506 0
6.4543419 -12.114861 -1.2009484 0
6.4939947 -12.091421 -1.2007763 0
6.5265775 -12.05495 -1.1993208 0
6.5633941 -12.026468 -1.1986698 0
6.6162148 -12.027182 -1.2009451 0
6.654326 -12.001005 -1.2005525 0
6.6902981 -11.971063 -1.1997943 0
6.7012382 -11.896798 -1.1945963 0
6.7700844 -11.92534 -1.1997347 0
6.8207889 -11.921378 -1.2016301 0
6.8682332 -11.911471 -1.2029459 0
6.9027691 -11.879148 -1.2020121 0
6.8959918 -11.776415 -1.1939497 0
6.9620562 -11.798337 -1.1985322 0
7.041913 -11.842768 -1.2054374 0
7.0485454 -11.763957 -1.1998142 0
7.0804448 -11.72783 -1.198544 0
7.1414108 -11.739672 -1.2021945 0
7.1450424 -11.657434 -1.1962193 0
7.218895 -11.689776 -1.2020152 0
7.2298946 -11.620258 -1.1973526 0
7.2725034 -11.601837 -1.1979603 0
7.3142891 -11.582025 -1.19844 0
7.3569922 -11.563585 -1.1990776 0
7.391602 -11.532426 -1.1984097 0
7.4527588 -11.542476 -1.2020439 0
7.4878488 -11.511938 -1.2014714 0
7.5092702 -11.460618 -1.1987363 0
7.5461183 -11.433051 -1.1984925 0
7.5690179 -11.384537 -1.1960604 0
7.6472945 -11.419045 -1.202373 0
7.6739035 -11.376096 -1.2005529 0
7.7212439 -11.363904 -1.2019916 0
7.780376 -11.368747 -1.2052562 0
7.7647347 -11.264669 -1.1969758 0
7.8612103 -11.323196 -1.2059888 0
7.8567023 -11.236097 -1.1995111 0
7.8792706 -11.188308 -1.1972227 0
7.9485655 -11.2067 -1.2020359 0
7.9462581 -11.124218 -1.1960398 0
8.0257816 -11.156273 -1.2023726 0
8.0432987 -11.101913 -1.1994137 0
8.1116352 -11.117588 -1.2040386 0
8.1197481 -11.050702 -1.1997365 0
8.1785145 -11.052825 -1.2029372 0
8.2060614 -11.012639 -1.2015513 0
8.2408419 -10.98227 -1.2012457 0
8.2606544 -10.932131 -1.1987841 0
8.3243389 -10.939958 -1.2026962 0
8.3444166 -10.89038 -1.2003149 0
8.3724117 -10.851362 -1.1991016 0
8.4057064 -10.819316 -1.1986679 0
8.4976549 -10.862299 -1.2065797 0
8.4907274 -10.778779 -1.2004579 0
8.4820671 -10.69383 -1.1941575 0
8.5409317 -10.694202 -1.1973901 0
8.6149006 -10.71296 -1.2027177 0
8.6247358 -10.651862 -1.199098 0
8.6781549 -10.644662 -1.2015562 0
8.6875534 -10.583537 -1.1979376 0
8.7314005 -10.564528 -1.1990929 0
8.7946005 -10.568634 -1.202899 0
8.7938318 -10.495936 -1.1979738 0
8.8607426 -10.504055 -1.2022845 0
8.8738728 -10.448339 -1.1993061 0
8.9014854 -10.40991 -1.1983141 0
8.9460039 -10.391234 -1.1996102 0
9.0312805 -10.419429 -1.206354 0
9.007452 -10.321811 -1.1985416 0
9.0397663 -10.289001 -1.1982446 0
9.0948648 -10.281982 -1.2009716 0
9.0873146 -10.204299 -1.1954501 0
9.2082481 -10.270555 -1.2068223 0
9.1913633 -10.182825 -1.2001281 0
9.2264643 -10.153065 -1.2002597 0
9.2927256 -10.157348 -1.2044425 0
9.2803011 -10.075727 -1.1984469 0
9.3228626 -10.054079 -1.1995832 0
9.3255081 -9.9895449 -1.1956073 0
9.4247494 -10.028236 -1.2040133 0
9.4390106 -9.9761734 -1.2015554 0
9.4738522 -9.9459887 -1.2017388 0
9.4727659 -9.8783159 -1.1973931 0
9.5362215 -9.8779783 -1.201221 0
9.549921 -9.8260231 -1.19879 0
9.5723 -9.783206 -1.197475 0
9.6095457 -9.7556229 -1.1980357 0
9.6641035 -9.7454367 -1.2007571 0
9.7120657 -9.7283478 -1.202657 0
9.7025843 -9.6538973 -1.197468 0
9.7471867 -9.6334572 -1.1989796 0
9.8008337 -9.6217346 -1.2016038 0
9.8043442 -9.5608387 -1.1980973 0
9.8149643 -9.5072031 -1.1954931 0
9.8749199 -9.5013123 -1.1989089 0
9.9093714 -9.4706831 -1.1992297 0
9.9690914 -9.4640083 -1.2026101 0
9.9934711 -9.4236517 -1.2017329 0
9.9836941 -9.3513927 -1.1967802 0
10.058197 -9.3580647 -1.201943 0
10.103624 -9.337327 -1.2036239 0
10.109768 -9.2803526 -1.2006422 0
10.125035 -9.2320061 -1.1987725 0
10.163383 -9.2047558 -1.1996522 0
10.209366 -9.1842813 -1.2014382 0
10.238756 -9.148798 -1.2012805 0
10.254497 -9.1012144 -1.1995403 0
10.292876 -9.0737667 -1.2004642 0
10.333126 -9.0478611 -1.2016138 0
10.334464 -8.9879961 -1.1982583 0
10.361131 -8.9503498 -1.1978641 0
10.386852 -8.911932 -1.1973765 0
10.438749 -8.8958693 -1.1999141 0
10.442609 -8.838891 -1.1969445 0
