# .PCD v0.7 - Point Cloud Data file format
VERSION 0.7
FIELDS x y z intensity
SIZE 4 4 4 4
TYPE F F F F
COUNT 1 1 1 1
WIDTH 1398
HEIGHT 1
VIEWPOINT 0 0 0 1 0 0 0
POINTS 1398
DATA ascii
-1.8344624 4.8427534 -1.1955636 0
-1.877822 4.907485 -1.2130919 0
-1.8770677 4.8566647 -1.2020785 0
-1.8950825 4.8548064 -1.2031844 0
-1.9044775 4.8309941 -1.1988586 0
-1.9128765 4.8050199 -1.1939977 0
-1.9389375 4.8233595 -1.2001637 0
-1.9575917 4.8229742 -1.2016941 0
-1.9777303 4.8260932 -1.2041167 0
-1.9872102 4.8032651 -1.2000767 0
-1.9966098 4.7805486 -1.1960669 0
-2.0208452 4.7933207 -1.2009509 0
-2.0531664 4.8247313 -1.2105386 0
-2.0575323 4.79035 -1.2036363 0
-2.0539267 4.7380834 -1.1922272 0
-2.0955009 4.7899146 -1.2070305 0
-2.0947359 4.7447791 -1.1974198 0
-2.1282885 4.7773614 -1.2074364 0
-2.1304486 4.7393985 -1.1996403 0
-2.1545842 4.7504344 -1.2042553 0
-2.1916735 4.7894554 -1.2160033 0
-2.189729 4.7431116 -1.2060944 0
-2.1735556 4.6668983 -1.188561 0
-2.1860812 4.6529665 -1.1868728 0
-2.2416987 4.7300744 -1.2084517 0
-2.2457874 4.6979356 -1.202158 0
-2.2635765 4.6946321 -1.2032478 0
-2.2975163 4.7244673 -1.2128621 0
-2.2914922 4.6721835 -1.2014056 0
-2.3035841 4.6572771 -1.1995518 0
-2.3083668 4.6278367 -1.1939557 0
-2.337086 4.6463451 -1.2007457 0
-2.3449719 4.623343 -1.1968265 0
-2.3717899 4.6376085 -1.202571 0
-2.3772147 4.6100225 -1.1974779 0
-2.3886852 4.5943856 -1.1954896 0
-2.4254568 4.62714 -1.2061218 0
-2.4422364 4.6214027 -1.206754 0
-2.430963 4.5629697 -1.1936175 0
-2.4542706 4.5697312 -1.1975318 0
-2.479804 4.5803642 -1.2024906 0
-2.4886224 4.5600686 -1.1993461 0
-2.4786286 4.5057645 -1.1872425 0
-2.5465357 4.5926785 -1.2123868 0
-2.5510621 4.5646868 -1.2072486 0
-2.5629311 4.550034 -1.2056392 0
-2.5568511 4.503859 -1.1956688 0
-2.5736499 4.4982543 -1.1964649 0
-2.5712605 4.4593248 -1.1883967 0
-2.5939796 4.4640718 -1.1919729 0
-2.646409 4.5193496 -1.2090952 0
-2.646435 4.4848418 -1.2022303 0
-2.6627746 4.4781599 -1.2028255 0
-2.6657073 4.4490676 -1.1974053 0
-2.7008667 4.473659 -1.2064542 0
-2.7408154 4.5056176 -1.2175441 0
-2.6945109 4.3962326 -1.1904198 0
-2.7129874 4.3932495 -1.1920685 0
-2.7218952 4.3747954 -1.1895307 0
-2.7533379 4.3924303 -1.1968291 0
-2.7718103 4.3891296 -1.1984552 0
-2.8003855 4.4016204 -1.2044227 0
-2.788552 4.3507428 -1.1930526 0
-2.7944808 4.3279829 -1.1893741 0
-2.8095422 4.3194599 -1.1896139 0
-2.8469055 4.3449607 -1.199259 0
-2.8802524 4.3638678 -1.2071363 0
-2.8509281 4.2880969 -1.1888139 0
-2.904444 4.3369808 -1.2050593 0
-2.8933122 4.2891841 -1.1944673 0
-2.9209046 4.2989278 -1.1999013 0
-2.9409742 4.297399 -1.2022201 0
-2.9432914 4.2699966 -1.1973082 0
-2.9470701 4.2449498 -1.193049 0
-3.0136664 4.3099561 -1.2141521 0
-2.9630606 4.2074733 -1.1880738 0
-3.0025868 4.2333775 -1.1982244 0
-3.0394294 4.2550173 -1.207227 0
-3.0104971 4.1847777 -1.1901557 0
-3.0383449 4.1937556 -1.1955996 0
-3.0754941 4.2152128 -1.2046497 0
-3.0713878 4.180078 -1.1975449 0
-3.091728 4.1783285 -1.2000067 0
-3.1101608 4.1738987 -1.2017227 0
-3.1244948 4.1639237 -1.2018601 0
-3.1067197 4.1114483 -1.1897136 0
-3.1466835 4.1354365 -1.1997012 0
-3.170403 4.1377468 -1.2034484 0
-3.1779172 4.1188755 -1.201052 0
-3.1636422 4.0720706 -1.1904901 0
-3.1715496 4.0541191 -1.188344 0
-3.249769 4.1255283 -1.2124624 0
-3.1968863 4.0305204 -1.1876838 0
-3.1954923 4.0011353 -1.1821754 0
-3.2539461 4.0464292 -1.1987745 0
-3.2705355 4.0392523 -1.1998901 0
-3.2645562 4.0043406 -1.1927642 0
-3.2962489 4.0156484 -1.1994176 0
-3.3406663 4.0420489 -1.2106417 0
-3.3460782 4.0210657 -1.2077104 0
-3.3323038 3.9773149 -1.197919 0
-3.3348844 3.953393 -1.194075 0
-3.4037352 4.0076718 -1.2139094 0
-3.3434935 3.9100952 -1.1877425 0
-3.3545675 3.8965201 -1.1870288 0
-3.3740914 3.8927255 -1.1893123 0
-3.4186542 3.917522 -1.2003834 0
-3.4474626 3.9238994 -1.2058725 0
-3.436094 3.8846147 -1.1973335 0
-3.4642198 3.8900518 -1.2025826 0
-3.4256494 3.8208692 -1.1847394 0
-3.449868 3.822022 -1.1886766 0
-3.5419214 3.8976524 -1.2158847 0
-3.5036411 3.8296504 -1.1983292 0
-3.572757 3.8790028 -1.2175133 0
-3.5533473 3.8320661 -1.2065138 0
-3.517246 3.7677169 -1.1899599 0
-3.5347989 3.7611597 -1.1916254 0
-3.553947 3.7562177 -1.1938281 0
-3.5754712 3.7536771 -1.196824 0
-3.6083913 3.7628949 -1.2036136 0
-3.6148403 3.7444081 -1.2015704 0
-3.6304901 3.7354729 -1.2026024 0
-3.6367731 3.7169216 -1.2005489 0
-3.6332746 3.6885247 -1.1953046 0
-3.6484411 3.6791661 -1.1962293 0
-3.6865299 3.6927299 -1.2046514 0
-3.6892679 3.6707749 -1.2015176 0
-3.7044156 3.6612122 -1.2024462 0
-3.7222424 3.654242 -1.204249 0
-3.7213113 3.6289062 -1.2000047 0
-3.7179322 3.6013706 -1.1950146 0
-3.7708955 3.6282465 -1.2081212 0
-3.7444749 3.5787261 -1.1958057 0
-3.7521191 3.5620375 -1.1944262 0
-3.8183873 3.6006851 -1.2116717 0
-3.8132579 3.5717702 -1.206237 0
-3.8090675 3.5439444 -1.201146 0
-3.850096 3.558109 -1.2103152 0
-3.8335278 3.5190401 -1.2013911 0
-3.8180976 3.4813597 -1.1928906 0
-3.850467 3.487303 -1.199344 0
-3.8458538 3.4597247 -1.1942873 0
-3.8800902 3.4670572 -1.2013024 0
-3.8737893 3.4381385 -1.195776 0
-3.9040377 3.4416537 -1.2015443 0
-3.8914673 3.4074533 -1.1941527 0
-3.8897245 3.3829539 -1.1901306 0
-3.9514918 3.4134717 -1.205521 0
-3.9463573 3.3859975 -1.2004843 0
-3.9621749 3.3765712 -1.2018453 0
-3.9556017 3.3481405 -1.1964397 0
-3.987139 3.3519537 -1.2025726 0
-3.9547949 3.3021946 -1.1894711 0
-4.0193048 3.3332517 -1.2055055 0
-4.0033779 3.297452 -1.1974058 0
-4.0091276 3.2796886 -1.1958299 0
-4.0493088 3.2899587 -1.2045181 0
-4.0793061 3.2916868 -1.2101514 0
-4.0628381 3.2559674 -1.2020208 0
-4.0849266 3.2512374 -1.2053241 0
-4.1024556 3.2427802 -1.2072812 0
-4.067224 3.1928332 -1.1937562 0
-4.1320586 3.2213964 -1.2096087 0
-4.089922 3.1665564 -1.194159 0
-4.1143503 3.1634631 -1.1981881 0
-4.1179619 3.1443272 -1.1961628 0
-4.1453104 3.1432638 -1.2010388 0
-4.1817727 3.148886 -1.2085376 0
-4.1840515 3.1286743 -1.2061577 0
-4.1114125 3.0529189 -1.1822603 0
-4.1539974 3.0629869 -1.1915461 0
-4.1480947 3.0372179 -1.1869253 0
-4.1689739 3.0310864 -1.1899849 0
-4.2195072 3.0462539 -1.2014869 0
-4.2485428 3.0455995 -1.2068403 0
-4.2068558 2.9944136 -1.1921401 0
-4.2342901 2.9926026 -1.1970644 0
-4.2902641 3.010644 -1.2100282 0
-4.2469406 2.9590406 -1.1950042 0
-4.2475424 2.9383547 -1.1923949 0
-4.2930532 2.9486051 -1.2023888 0
-4.2697892 2.9116056 -1.1931322 0
-4.2943134 2.907284 -1.1972547 0
-4.3293819 2.9099047 -1.2043048 0
-4.3192139 2.8820939 -1.1987816 0
-4.3404078 2.8752508 -1.2019815 0
-4.3418145 2.8552835 -1.1997132 0
-4.3318729 2.8279862 -1.1943396 0
-4.3896856 2.8447838 -1.2076426 0
-4.3778467 2.8163137 -1.201781 0
-4.4144282 2.8189659 -1.2092218 0
-4.4195127 2.8013971 -1.208035 0
-4.3708057 2.7500241 -1.1921943 0
-4.4313865 2.7674446 -1.2061808 0
-4.3830752 2.7168891 -1.1905448 0
-4.4488435 2.7370515 -1.2059096 0
-4.4450493 2.7142148 -1.2024076 0
-4.4292793 2.6842396 -1.1957005 0
-4.431251 2.6651618 -1.1938138 0
-4.4718304 2.6691923 -1.2023284 0
-4.442359 2.6314406 -1.1920258 0
-4.4658165 2.6251488 -1.1959516 0
-4.5424886 2.6497664 -1.2140985 0
-4.4946713 2.6017148 -1.1989799 0
-4.479713 2.5730431 -1.1926817 0
-4.4898462 2.558882 -1.1930887 0
-4.49861 2.5439322 -1.1931442 0
-4.5729141 2.5657539 -1.2105631 0
-4.4998479 2.5049586 -1.1889907 0
-4.5550904 2.5157428 -1.2013518 0
-4.6060209 2.5237551 -1.2125458 0
-4.5677247 2.4828954 -1.2002659 0
-4.5961618 2.478426 -1.2055479 0
-4.6108265 2.4664152 -1.2072186 0
-4.6215348 2.4522498 -1.2078629 0
-4.565207 2.4027803 -1.191029 0
-4.5918465 2.3971756 -1.1958755 0
-4.5955949 2.379559 -1.1947671 0
-4.6072102 2.3660185 -1.1957177 0
-4.6455612 2.3660641 -1.2036055 0
-4.6793776 2.3635619 -1.2103069 0
-4.6529665 2.3306742 -1.2014478 0
-4.6258311 2.2977133 -1.1924452 0
-4.649826 2.2902279 -1.1966445 0
-4.6803784 2.2858088 -1.2025281 0
-4.6922293 2.2721436 -1.2036089 0
-4.69695 2.2550204 -1.2028736 0
-4.6719317 2.2237651 -1.1945504 0
-4.7544699 2.2435308 -1.2137241 0
-4.6885934 2.1932549 -1.1950232 0
-4.7609777 2.2076902 -1.2115791 0
-4.7110891 2.1653943 -1.197029 0
-4.7044396 2.1432619 -1.1935068 0
-4.7108755 2.1271501 -1.1933236 0
-4.7969632 2.1466887 -1.2133007 0
-4.7165189 2.0917368 -1.1911732 0
-4.7483153 2.0868151 -1.1974298 0
-4.7179337 2.0546167 -1.1880242 0
-4.8362184 2.0868666 -1.2160407 0
-4.8412728 2.0698211 -1.2155598 0
-4.7949958 2.0310478 -1.202224 0
-4.7948356 2.0120461 -1.2004857 0
-4.754385 1.9763507 -1.1886922 0
-4.8378425 1.9920462 -1.2078816 0
-4.8347759 1.9718511 -1.2054586 0
-4.844914 1.9570656 -1.2063435 0
-4.8214741 1.9288193 -1.1988902 0
-4.8022566 1.9024785 -1.1925188 0
-4.8336816 1.8962027 -1.1987369 0
-4.8598604 1.8876952 -1.2036527 0
-4.8685641 1.8723141 -1.2042469 0
-4.8303313 1.8390445 -1.1932582 0
-4.8389096 1.8237582 -1.1938601 0
-4.8388515 1.8052312 -1.1923456 0
-4.8979416 1.8085917 -1.2054051 0
-4.8581047 1.7753954 -1.1941293 0
-4.8281584 1.7461239 -1.1853228 0
-4.9343958 1.7658597 -1.209944 0
-4.8526359 1.7182688 -1.1884766 0
-4.9496627 1.7339711 -1.2108091 0
-4.9022408 1.6989263 -1.1978085 0
-4.9014988 1.6802828 -1.1962439 0
-4.8742208 1.6526897 -1.1882275 0
-4.933989 1.6545314 -1.2014385 0
-4.9608293 1.6450495 -1.2066244 0
-4.9383259 1.6192296 -1.1998237 0
-4.944159 1.6028031 -1.1999285 0
-4.9129782 1.5745112 -1.1910732 0
-4.9389806 1.5646037 -1.1960986 0
-4.9402499 1.5467989 -1.1951431 0
-4.9871378 1.5431386 -1.2052279 0
-4.9542727 1.5147872 -1.1960514 0
-5.0106883 1.5136846 -1.208439 0
-4.9682894 1.4827167 -1.1970079 0
-5.0107384 1.4771068 -1.2060351 0
-5.0189061 1.4612428 -1.2068151 0
-4.9711595 1.4292787 -1.1941751 0
-4.9739547 1.4120445 -1.1937027 0
-4.987587 1.3978615 -1.1958429 0
-5.0239425 1.3899002 -1.2034355 0
-4.9856601 1.3613304 -1.1931653 0
-5.0345964 1.3565704 -1.2037815 0
-5.0484848 1.3421733 -1.2060194 0
-5.0081 1.3134745 -1.1953132 0
-5.0713992 1.3119189 -1.2093645 0
-5.0548587 1.2895736 -1.2043824 0
-5.0234547 1.2636383 -1.1958838 0
-5.0384259 1.2494575 -1.1984438 0
-5.0588622 1.2365357 -1.2023119 0
-5.062799 1.2195239 -1.2022691 0
-4.9972596 1.186024 -1.1857543 0
-5.0353575 1.1772463 -1.1938509 0
-5.0556808 1.1641345 -1.1977372 0
-5.0588994 1.1470284 -1.1975819 0
-5.076827 1.1332101 -1.2009197 0
-5.0998564 1.1204131 -1.205472 0
-5.1269441 1.1083579 -1.2109896 0
-5.0844665 1.0813438 -1.2000933 0
-5.1685605 1.0811284 -1.2190796 0
-5.0545564 1.0396055 -1.1913612 0
-5.1012721 1.0313989 -1.2015504 0
-5.1098986 1.0153221 -1.2027737 0
-5.1096401 0.99747449 -1.2019188 0
-5.1495709 0.98735774 -1.2105261 0
-5.1124344 0.96247739 -1.201031 0
-5.1246152 0.94699091 -1.2031399 0
-5.1384645 0.93174446 -1.2056512 0
-5.0972443 0.90662873 -1.1952596 0
-5.1543093 0.89896101 -1.2079272 0
-5.1177173 0.87490863 -1.1986576 0
-5.1254659 0.85855633 -1.1997916 0
-5.1678228 0.84784847 -1.2090344 0
-5.1239901 0.82302451 -1.1981272 0
-5.1466737 0.80897641 -1.2027903 0
-5.1616707 0.79360926 -1.2056664 0
-5.1085606 0.7679196 -1.1926529 0
-5.126452 0.75304133 -1.1962336 0
-5.1448503 0.73813057 -1.1999426 0
-5.1011825 0.71441853 -1.1891925 0
-5.1442957 0.70287848 -1.198687 0
-5.1850166 0.69074142 -1.2076291 0
-5.191906 0.67395061 -1.2087005 0
-5.166954 0.65310347 -1.2023751 0
-5.1597219 0.63462073 -1.2001903 0
-5.1699462 0.61828935 -1.2020795 0
-5.188395 0.60285813 -1.2058923 0
-5.192358 0.58568132 -1.2063502 0
-5.1330328 0.56156713 -1.1921231 0
-5.196877 0.55092549 -1.2065147 0
-5.1678472 0.53033257 -1.1993556 0
-5.1599083 0.51204145 -1.197108 0
-5.1737132 0.49589977 -1.1999182 0
-5.1695933 0.47801849 -1.1985843 0
-5.1780705 0.46129817 -1.2001845 0
-5.1915011 0.44495553 -1.2029449 0
-5.1562314 0.42452264 -1.1944358 0
-5.204783 0.41095579 -1.2053567 0
-5.2198296 0.39453816 -1.2085282 0
-5.1942782 0.37509632 -1.2023145 0
-5.2107735 0.35872978 -1.2058474 0
-5.1845212 0.3394613 -1.1995021 0
-5.1713476 0.32118961 -1.1961985 0
-5.1637383 0.30334067 -1.1941963 0
-5.1959095 0.28775287 -1.2014065 0
-5.2178507 0.27142301 -1.2062626 0
-5.1902437 0.25254092 -1.1996779 0
-5.1603241 0.23374529 -1.1925744 0
-5.2218113 0.21898934 -1.2066079 0
-5.2182322 0.2013151 -1.2056181 0
-5.156764 0.18163048 -1.1912693 0
-5.2335038 0.16676663 -1.2088609 0
-5.1982493 0.14819856 -1.2005961 0
-5.1803823 0.13030779 -1.196362 0
-5.1559711 0.11239718 -1.1906307 0
-5.16184 0.095211387 -1.1919055 0
-5.2090669 0.078612521 -1.2027429 0
-5.2510915 0.061637595 -1.2123916 0
-5.2041187 0.043635983 -1.2015059 0
-5.2232604 0.026283039 -1.205898 0
-5.200058 0.0087312302 -1.2005278 0
-5.1925077 1.3778786e-05 -1.198783 0
-6.1654515 -0.010352187 -1.1984422 0
-6.1866827 -0.031130906 -1.2025827 0
-6.13872 -0.051472519 -1.1932864 0
-6.2167325 -0.072972342 -1.2084918 0
-6.1814108 -0.093286626 -1.2016796 0
-6.1955404 -0.11427824 -1.2044941 0
-6.1411676 -0.13387389 -1.1940039 0
-6.1437345 -0.15454005 -1.194597 0
-6.1553369 -0.17548449 -1.1969607 0
-6.1909046 -0.1972744 -1.2039989 0
-6.1754937 -0.21751195 -1.2011368 0
-6.1607075 -0.23767503 -1.1984092 0
-6.163743 -0.25849155 -1.1991615 0
-6.2029576 -0.28097308 -1.2069672 0
-6.1177444 -0.29767019 -1.190574 0
-6.1504464 -0.31993493 -1.1971402 0
-6.1626692 -0.34129265 -1.1997353 0
-6.1787744 -0.36296836 -1.2031008 0
-6.1426706 -0.38151795 -1.1963131 0
-6.2155166 -0.40696666 -1.2107592 0
-6.1644998 -0.42438799 -1.2010918 0
-6.1606193 -0.44487903 -1.2006196 0
-6.1540766 -0.46515274 -1.1996416 0
-6.1582747 -0.48624092 -1.200771 0
-6.1577373 -0.50697857 -1.2009909 0
-6.204236 -0.53175545 -1.2104009 0
-6.1918712 -0.55161446 -1.2083427 0
-6.1989937 -0.5732044 -1.2101008 0
-6.1106176 -0.58570194 -1.1932256 0
-6.0651727 -0.60187495 -1.184739 0
-6.0801892 -0.62395853 -1.1880742 0
-6.1427736 -0.65120077 -1.2007231 0
-6.1522908 -0.67307657 -1.2030178 0
-6.1258998 -0.69098186 -1.1983036 0
-6.1575952 -0.71547294 -1.2049661 0
-6.0912175 -0.72846693 -1.1924481 0
-6.1234317 -0.75315237 -1.1992421 0
-6.1511908 -0.77751112 -1.2051823 0
-6.0896783 -0.7904886 -1.193643 0
-6.0684295 -0.80842853 -1.1900024 0
-6.1233411 -0.83664805 -1.2013139 0
-6.0724106 -0.85043859 -1.1918747 0
-6.0487142 -0.86780775 -1.187788 0
-6.0992403 -0.89593744 -1.1982931 0
-6.0525436 -0.90981925 -1.1897113 0
-6.1022663 -0.93822634 -1.2000967 0
-6.0922222 -0.95760185 -1.1987461 0
-6.050838 -0.97189653 -1.1912376 0
-6.1227288 -1.0045131 -1.2060471 0
-6.0883603 -1.0198488 -1.199944 0
-6.0818157 -1.0397277 -1.1993344 0
-6.0891514 -1.0620065 -1.2014765 0
-6.065671 -1.0788794 -1.1975504 0
-6.0630422 -1.0993958 -1.1977524 0
-6.0853987 -1.1245365 -1.202907 0
-6.0636768 -1.1415603 -1.1993631 0
-6.0699992 -1.1638368 -1.2013787 0
-6.0495434 -1.180957 -1.198107 0
-6.0481181 -1.2017436 -1.1986159 0
-6.0779023 -1.2288585 -1.2053283 0
-6.0398479 -1.2422572 -1.1986009 0
-6.0632772 -1.2682799 -1.2040876 0
-6.0429177 -1.2851833 -1.2008933 0
-6.0218067 -1.3018119 -1.1975586 0
-5.9914074 -1.3162823 -1.1923841 0
-6.0367556 -1.3474779 -1.2023015 0
-6.0173535 -1.3643433 -1.1993417 0
-6.020196 -1.3862263 -1.2008278 0
-6.0185103 -1.4071035 -1.2014259 0
-5.9629102 -1.4152064 -1.1912673 0
-6.0100822 -1.4477048 -1.2016543 0
-6.0158544 -1.4704529 -1.2037873 0
-5.9558311 -1.4769607 -1.1927607 0
-6.005034 -1.5105522 -1.203622 0
-5.9975281 -1.5300633 -1.2031391 0
-5.9606729 -1.5419649 -1.196776 0
-5.9528246 -1.5612476 -1.1962446 0
-5.9970212 -1.594348 -1.2061934 0
-5.9924688 -1.6146687 -1.20636 0
-5.9516001 -1.6250795 -1.1992227 0
-5.9743819 -1.6528443 -1.204923 0
-5.945004 -1.6661949 -1.2001179 0
-5.9839792 -1.6987779 -1.2091289 0
-5.9403043 -1.7079217 -1.2014543 0
-5.9505482 -1.7324882 -1.2046942 0
-5.8780746 -1.7327874 -1.1911913 0
-5.9579439 -1.7780653 -1.2085781 0
-5.8867493 -1.7783349 -1.195339 0
-5.9280176 -1.8125132 -1.204946 0
-5.8782048 -1.818856 -1.1960537 0
-5.9005895 -1.8474826 -1.201862 0
-5.8875885 -1.86511 -1.2004808 0
-5.8732114 -1.8822466 -1.1988294 0
-5.8787022 -1.9057643 -1.2012477 0
-5.8533406 -1.9192539 -1.1973735 0
-5.8436065 -1.9377851 -1.1967046 0
-5.8262477 -1.9537355 -1.1944845 0
-5.8447776 -1.981774 -1.199639 0
-5.8548808 -2.0071118 -1.2030871 0
-5.862268 -2.0316346 -1.2059979 0
-5.8358436 -2.0444188 -1.2019652 0
-5.8476863 -2.070606 -1.2058275 0
-5.8194456 -2.0825903 -1.2014372 0
-5.7838116 -2.0917401 -1.1955217 0
-5.736104 -2.0962605 -1.1871066 0
-5.8519497 -2.1608646 -1.2125738 0
-5.7720327 -2.1533735 -1.1975037 0
-5.7386293 -2.1628575 -1.1920713 0
-5.697999 -2.16939 -1.1851355 0
-5.7628217 -2.2162206 -1.2001568 0
-5.7911119 -2.2494173 -1.2076124 0
-5.7481194 -2.2549272 -1.2002171 0
-5.7583227 -2.2812369 -1.2039378 0
-5.7135649 -2.2856979 -1.1961755 0
-5.7285104 -2.3139875 -1.2009219 0
-5.7271256 -2.3357937 -1.2022667 0
-5.7071824 -2.3500085 -1.1997274 0
-5.7074227 -2.372519 -1.2014434 0
-5.6567287 -2.3737204 -1.1924406 0
-5.6502194 -2.3933003 -1.1927533 0
-5.6737781 -2.4257474 -1.1994367 0
-5.6462984 -2.4364226 -1.1953477 0
-5.6524329 -2.4615827 -1.1983869 0
-5.6557527 -2.4856203 -1.2008508 0
-5.6203694 -2.4925871 -1.1951059 0
-5.6134725 -2.5120847 -1.1954236 0
-5.6047478 -2.5307691 -1.1953658 0
-5.5655456 -2.535567 -1.1888114 0
-5.5997868 -2.5738733 -1.1979619 0
-5.6265006 -2.6090376 -1.2055415 0
-5.6083355 -2.6234968 -1.2035272 0
-5.562048 -2.6246092 -1.1954758 0
-5.5236611 -2.6291749 -1.1891131 0
-5.5307717 -2.6553409 -1.1925538 0
-5.5845799 -2.7042515 -1.2061043 0
-5.5511422 -2.7110734 -1.2008392 0
-5.5027361 -2.7103207 -1.1923268 0
-5.5502367 -2.7568781 -1.2046152 0
-5.4747391 -2.7423005 -1.1902182 0
-5.5080547 -2.7821283 -1.1994823 0
-5.4821024 -2.7921288 -1.1958627 0
-5.5117698 -2.8305523 -1.2043977 0
-5.5092816 -2.852658 -1.2059371 0
-5.5000267 -2.8712914 -1.2060118 0
-5.442028 -2.8642731 -1.1953933 0
-5.4573593 -2.8957498 -1.2008868 0
-5.4182315 -2.8983107 -1.1944084 0
-5.4225059 -2.924022 -1.1975051 0
-5.4463263 -2.96048 -1.2049509 0
-5.4221878 -2.9709532 -1.2018075 0
-5.443449 -3.006377 -1.2087474 0
-5.371779 -2.9903421 -1.1950524 0
-5.3834262 -3.0205131 -1.1998897 0
-5.36586 -3.0343561 -1.1982353 0
-5.314889 -3.0290954 -1.1891143 0
-5.4030519 -3.1033874 -1.2111603 0
-5.3382392 -3.0900095 -1.1989474 0
-5.3304744 -3.1094215 -1.1995382 0
-5.3174648 -3.1257749 -1.1989623 0
-5.3417964 -3.1642241 -1.2068338 0
-5.298296 -3.1625016 -1.1993948 0
-5.255435 -3.1608648 -1.1920847 0
-5.2918715 -3.2069893 -1.2027818 0
-5.3274755 -3.2530379 -1.2133464 0
-5.2593403 -3.2356918 -1.2002925 0
-5.2525411 -3.2558355 -1.2012253 0
-5.2042775 -3.2501225 -1.1926731 0
-5.2514386 -3.3041008 -1.2060131 0
-5.2504892 -3.3281281 -1.2083509 0
-5.1843877 -3.3106468 -1.1956861 0
-5.1914597 -3.3397195 -1.1998929 0
-5.1454477 -3.3345635 -1.1918355 0
-5.1883345 -3.3871119 -1.204393 0
-5.1714568 -3.4008765 -1.2031153 0
-5.1594658 -3.4178257 -1.2029849 0
-5.1138062 -3.4123037 -1.1949997 0
-5.095315 -3.4247108 -1.1933552 0
-5.1005616 -3.4531202 -1.1972889 0
-5.1106143 -3.4849718 -1.2023847 0
-5.0808768 -3.4897072 -1.1981342 0
-5.0320339 -3.4810483 -1.189362 0
-5.0571308 -3.5235379 -1.1980795 0
-5.0071416 -3.5137045 -1.1890209 0
-5.0137625 -3.543498 -1.1934077 0
-5.0380316 -3.5860395 -1.2020395 0
-5.0269127 -3.6035798 -1.2022626 0
-5.0076342 -3.6152387 -1.200544 0
-4.9734783 -3.616008 -1.1952554 0
-4.9466772 -3.6219366 -1.1917261 0
-4.9710674 -3.6654603 -1.200556 0
-4.9475865 -3.6738179 -1.1978533 0
-4.9774208 -3.7219257 -1.2080909 0
-4.9553494 -3.7313912 -1.2057637 0
-4.8992858 -3.7149808 -1.195146 0
-4.9213467 -3.7577627 -1.2035943 0
-4.8818517 -3.7535834 -1.1970063 0
-4.8763113 -3.7754056 -1.1987449 0
-4.838697 -3.7722991 -1.1926006 0
-4.8454285 -3.8037357 -1.1973964 0
-4.8067241 -3.7994685 -1.1909732 0
-4.8441534 -3.855514 -1.2034432 0
-4.820785 -3.8633881 -1.2008491 0
-4.8339252 -3.9006069 -1.2073733 0
-4.7504568 -3.8596239 -1.1897508 0
-4.7722435 -3.90396 -1.1984787 0
-4.7600217 -3.920675 -1.1987039 0
-4.7306294 -3.9231608 -1.1946079 0
-4.7088571 -3.9318252 -1.192432 0
-4.7586932 -4.0005927 -1.2084421 0
-4.7366786 -4.0092673 -1.2062583 0
-4.6826448 -3.990557 -1.1958987 0
-4.6855989 -4.0202713 -1.2000886 0
-4.6659679 -4.0306673 -1.1985154 0
-4.6476512 -4.0421348 -1.1972848 0
-4.6767254 -4.0950422 -1.2083049 0
-4.6357865 -4.0867362 -1.201261 0
-4.6100764 -4.0916219 -1.1981471 0
-4.6106963 -4.1198907 -1.2018914 0
-4.6074967 -4.1448975 -1.2046732 0
-4.5893049 -4.156456 -1.2035537 0
-4.5723057 -4.1690502 -1.2027546 0
-4.5539255 -4.1803393 -1.2015998 0
-4.5500479 -4.2049775 -1.20429 0
-4.5032907 -4.1898475 -1.1956259 0
-4.5181322 -4.2320061 -1.2033268 0
-4.4586854 -4.2044768 -1.1912419 0
-4.4945717 -4.2668777 -1.2046453 0
-4.4747038 -4.2766314 -1.2031565 0
-4.4324551 -4.26478 -1.1956347 0
-4.44665 -4.3072419 -1.2033525 0
-4.402698 -4.2933736 -1.1953471 0
-4.346056 -4.2666597 -1.1838459 0
-4.4509449 -4.3990355 -1.2164279 0
-4.3562808 -4.3344445 -1.1945215 0
-4.3694506 -4.3767991 -1.20215 0
-4.3607106 -4.3974338 -1.203795 0
-4.3670335 -4.4334416 -1.209637 0
-4.2854633 -4.3799081 -1.1911037 0
-4.3070378 -4.4315844 -1.201223 0
-4.2811713 -4.4346223 -1.1981491 0
-4.2819519 -4.4652958 -1.2025508 0
-4.2917795 -4.5056872 -1.2095466 0
-4.2996645 -4.5443773 -1.2160561 0
-4.1931758 -4.4616976 -1.1901624 0
-4.229135 -4.5303016 -1.2046734 0
-4.2165709 -4.5473118 -1.2054305 0
-4.1609325 -4.5175948 -1.1938481 0
-4.1483517 -4.5343504 -1.1945938 0
-4.1515822 -4.5685439 -1.1999283 0
-4.0908976 -4.5322027 -1.186774 0
-4.1166062 -4.5915422 -1.1986914 0
-4.080853 -4.5824833 -1.1927477 0
-4.0794487 -4.611948 -1.1968501 0
-4.0744734 -4.6375628 -1.1999454 0
-4.0727286 -4.6670427 -1.2040333 0
-4.0694299 -4.6949449 -1.2077049 0
-4.0239444 -4.6740394 -1.1988499 0
-4.0566516 -4.7441077 -1.2133265 0
-3.9936473 -4.7022543 -1.199191 0
-4.00214 -4.7444019 -1.2065109 0
-3.9982603 -4.7721758 -1.210158 0
-3.9229217 -4.714273 -1.1921326 0
-3.9346428 -4.7607327 -1.2005384 0
-3.9105828 -4.7640595 -1.1980642 0
-3.9296808 -4.8201895 -1.2088596 0
-3.8488183 -4.7534561 -1.1888804 0
-3.8597343 -4.7997546 -1.1972166 0
-3.8402734 -4.8084779 -1.1961743 0
-3.8449838 -4.8476186 -1.2026973 0
-3.8348043 -4.8682208 -1.204612 0
-3.8090467 -4.8690171 -1.2016422 0
-3.8098857 -4.9038811 -1.207087 0
-3.7807872 -4.9002509 -1.2030665 0
-3.7616267 -4.9093633 -1.2022004 0
-3.7243047 -4.894558 -1.1955105 0
-3.7138536 -4.9149318 -1.1974387 0
-3.7328312 -4.9746361 -1.2089286 0
-3.6704524 -4.9258213 -1.1940683 0
-3.6631801 -4.9506192 -1.1970956 0
-3.6552448 -4.9746923 -1.1999464 0
-3.6191607 -4.9603515 -1.1935536 0
-3.5973506 -4.9653378 -1.1918445 0
-3.6038663 -5.0095978 -1.1995614 0
-3.61217 -5.0568194 -1.2079619 0
-3.5490232 -5.0038037 -1.1924484 0
-3.5549898 -5.0479984 -1.2001331 0
-3.5535619 -5.0820808 -1.2053967 0
-3.5314682 -5.0867147 -1.2036806 0
-3.5270648 -5.1169095 -1.2080206 0
-3.4881356 -5.09692 -1.2005335 0
-3.4436495 -5.0682931 -1.1910645 0
-3.4320266 -5.0878 -1.1929377 0
-3.4196067 -5.1062331 -1.1945648 0
-3.4217591 -5.146687 -1.2013381 0
-3.3971753 -5.1470571 -1.1987591 0
-3.3799424 -5.1584845 -1.1987743 0
-3.3735263 -5.186543 -1.2026596 0
-3.3546731 -5.1955872 -1.2021419 0
-3.3490946 -5.2253098 -1.2064142 0
-3.3174171 -5.2142859 -1.2012942 0
-3.3128345 -5.2458353 -1.205997 0
-3.3083596 -5.277863 -1.210803 0
-3.2599554 -5.2395988 -1.1995107 0
-3.2341096 -5.2371235 -1.1964549 0
-3.2013371 -5.2231455 -1.1908027 0
-3.1800132 -5.227613 -1.1893837 0
-3.1854255 -5.2762718 -1.1980178 0
-3.1411519 -5.2425847 -1.1879709 0
-3.1473808 -5.2931538 -1.1970319 0
-3.1477513 -5.3344092 -1.2039682 0
-3.1147218 -5.3191013 -1.1981494 0
-3.1164804 -5.3632617 -1.2057364 0
-3.0753024 -5.3334823 -1.1967168 0
-3.0429509 -5.3185039 -1.1910601 0
-3.063138 -5.3956766 -1.2060359 0
-3.0497267 -5.4142542 -1.207896 0
-2.9771466 -5.3270917 -1.1862168 0
-3.0174458 -5.4419651 -1.2095368 0
-2.9800346 -5.417243 -1.2018145 0
-2.9693291 -5.4408994 -1.2048472 0
-2.9345059 -5.4202294 -1.1980846 0
-2.9303281 -5.4561267 -1.2038409 0
-2.8817329 -5.4090748 -1.1913207 0
-2.8726611 -5.4358883 -1.1950983 0
-2.8657253 -5.4670577 -1.1998318 0
-2.8365555 -5.4558167 -1.1952709 0
-2.8338847 -5.4956217 -1.201903 0
-2.8100176 -5.4944839 -1.199587 0
-2.7906823 -5.5021048 -1.1992013 0
-2.7901628 -5.5471044 -1.2069634 0
-2.7481468 -5.5095115 -1.1967721 0
-2.7475033 -5.5547714 -1.2045957 0
-2.71714 -5.5400481 -1.1994205 0
-2.6963103 -5.5445218 -1.1984251 0
-2.6530812 -5.5024605 -1.1874044 0
-2.6553388 -5.5546713 -1.1967432 0
-2.6512258 -5.5941925 -1.2033361 0
-2.6103377 -5.5559754 -1.1932262 0
-2.6239047 -5.6338549 -1.2080557 0
-2.5933897 -5.6174703 -1.2026712 0
-2.553302 -5.579721 -1.1927496 0
-2.550921 -5.624279 -1.2004396 0
-2.5335929 -5.6362338 -1.2011713 0
-2.5133226 -5.6416464 -1.2005223 0
-2.4965632 -5.6549568 -1.2015667 0
-2.4731658 -5.6531844 -1.1994214 0
-2.442642 -5.6347876 -1.193774 0
-2.4294076 -5.6561503 -1.1965674 0
-2.4106488 -5.6647782 -1.196676 0
-2.4033339 -5.7005606 -1.2025261 0
-2.3665974 -5.6664224 -1.193644 0
-2.3600104 -5.7043567 -1.1999614 0
-2.3401845 -5.7105603 -1.1996092 0
-2.3159623 -5.7059021 -1.1969928 0
-2.2980711 -5.7167511 -1.1976455 0
-2.2897286 -5.7516475 -1.2033411 0
-2.2887585 -5.8057809 -1.2130545 0
-2.2332451 -5.7211084 -1.1937919 0
-2.2091382 -5.7158532 -1.191143 0
-2.212168 -5.7812614 -1.2032213 0
-2.1965194 -5.7985387 -1.2052776 0
-2.1735575 -5.7965155 -1.2033354 0
-2.1404011 -5.7668328 -1.1956769 0
-2.1138201 -5.7542844 -1.191599 0
-2.109823 -5.8034468 -1.200308 0
-2.1022925 -5.8436751 -1.2071636 0
-2.0665281 -5.805294 -1.1977971 0
-2.042393 -5.7989607 -1.1950706 0
-2.0431795 -5.8638663 -1.207028 0
-2.0078764 -5.8253341 -1.1977041 0
-1.9850875 -5.8225112 -1.1957484 0
-1.9644482 -5.8258529 -1.1950755 0
-1.9633943 -5.8878551 -1.206437 0
-1.9175744 -5.8153496 -1.1902564 0
-1.9281445 -5.9140034 -1.2091184 0
-1.8953936 -5.8803773 -1.2009375 0
-1.8577532 -5.8304768 -1.1894677 0
-1.855714 -5.892302 -1.2008045 0
-1.8388997 -5.9079747 -1.2027352 0
-1.8164417 -5.9055257 -1.2009901 0
-1.7939173 -5.9026523 -1.1991757 0
-1.7801182 -5.9286218 -1.2032323 0
-1.7659302 -5.953773 -1.2071284 0
-1.7417039 -5.9451375 -1.2041868 0
-1.7125659 -5.9191623 -1.1977557 0
-1.6799135 -5.8800788 -1.1887007 0
-1.6740407 -5.9347839 -1.1986183 0
-1.6539413 -5.9396744 -1.1984794 0
-1.6310989 -5.9345679 -1.1963388 0
-1.6166211 -5.9600182 -1.2003698 0
-1.5915101 -5.9462781 -1.1965212 0
-1.5681827 -5.9387746 -1.1939466 0
-1.5540967 -5.9663978 -1.1984458 0
-1.5246345 -5.934793 -1.1910639 0
-1.50651 -5.946907 -1.1924746 0
-1.4957018 -5.9885159 -1.1998057 0
-1.4863441 -6.037075 -1.2085294 0
-1.4531007 -5.9884748 -1.1978184 0
-1.4447607 -6.0424399 -1.2076368 0
-1.4220873 -6.0370359 -1.205597 0
-1.3935261 -6.0059452 -1.1984484 0
-1.3727981 -6.0080309 -1.1979394 0
-1.3449802 -5.9785218 -1.1911498 0
-1.3349782 -6.0283833 -1.2001855 0
-1.3138986 -6.0288782 -1.1994003 0
-1.2961915 -6.0449734 -1.2017311 0
-1.2879909 -6.1065316 -1.2131034 0
-1.2546442 -6.04879 -1.2007902 0
-1.2397113 -6.0792208 -1.2059993 0
-1.2156439 -6.0649934 -1.2023615 0
-1.1895783 -6.0399718 -1.1966037 0
-1.1695838 -6.0452862 -1.1968729 0
-1.1544321 -6.0761404 -1.2022085 0
-1.1328861 -6.0737181 -1.200971 0
-1.1181028 -6.1080036 -1.2070023 0
-1.0950619 -6.0974884 -1.204192 0
-1.0749012 -6.1027675 -1.2045161 0
-1.0531019 -6.0986242 -1.2029947 0
-1.0306208 -6.0901389 -1.2006325 0
-1.0052949 -6.0639968 -1.1948075 0
-0.99099207 -6.1045046 -1.2021275 0
-0.96500957 -6.0731187 -1.195303 0
-0.94356483 -6.0693903 -1.1939398 0
-0.92410558 -6.0784101 -1.1950979 0
-0.90281421 -6.0753751 -1.1938994 0
-0.88411283 -6.0898938 -1.1961632 0
-0.8727296 -6.1565957 -1.2086831 0
-0.85152262 -6.1554379 -1.2078885 0
-0.82234049 -6.0949669 -1.1954745 0
-0.80260354 -6.103035 -1.1965225 0
-0.78060538 -6.0937376 -1.1941798 0
-0.76539505 -6.1382251 -1.2023883 0
-0.74097472 -6.1091323 -1.1961961 0
-0.72171861 -6.1220231 -1.1982396 0
-0.70163035 -6.1282673 -1.1989945 0
-0.68004262 -6.1212521 -1.1971692 0
-0.65993196 -6.1273651 -1.1979253 0
-0.64192992 -6.1539469 -1.2026945 0
-0.61828166 -6.1262245 -1.1968648 0
-0.60054392 -6.1570292 -1.2024829 0
-0.57608312 -6.1184993 -1.194574 0
-0.55645001 -6.1301379 -1.1964754 0
-0.54079646 -6.1880693 -1.2074217 0
-0.5138467 -6.1160607 -1.1930285 0
-0.49569711 -6.147006 -1.1987338 0
-0.47524685 -6.1507339 -1.1991433 0
-0.4536792 -6.139535 -1.1966567 0
-0.43207216 -6.1265616 -1.193839 0
-0.41306832 -6.1509047 -1.198306 0
-0.3943457 -6.1820803 -1.2041152 0
-0.36976939 -6.1197038 -1.1917176 0
-0.3513557 -6.1578293 -1.1989058 0
-0.33113909 -6.167007 -1.2004697 0
-0.31125072 -6.183784 -1.2035257 0
-0.28824022 -6.1363454 -1.1940981 0
-0.26863068 -6.1594291 -1.198408 0
-0.2479528 -6.1596746 -1.1982872 0
-0.22836383 -6.1893263 -1.2039 0
-0.20689094 -6.168591 -1.199725 0
-0.18522419 -6.1366668 -1.1933886 0
-0.16475368 -6.1411896 -1.194154 0
-0.14463772 -6.1619534 -1.1980904 0
-0.1221457 -6.0713749 -1.1803927 0
-0.10373329 -6.1877384 -1.2029417 0
-0.081975624 -6.1126814 -1.18829 0
-0.062058557 -6.1703978 -1.1994627 0
-0.041227799 -6.1493564 -1.1953388 0
-0.020763647 -6.1953235 -1.2042538 0
8.2052684e-06 -6.184278 -1.2021 0
0.020727862 -6.1797528 -1.2012272 0
0.041531228 -6.1921635 -1.2036599 0
0.062108748 -6.173759 -1.200116 0
0.083232515 -6.2051759 -1.2062707 0
0.10311488 -6.1498761 -1.1955811 0
0.12405549 -6.1654902 -1.1986905 0
0.14506865 -6.1796131 -1.2015241 0
0.16589676 -6.1831861 -1.2023203 0
0.18694273 -6.193059 -1.2043551 0
0.20846689 -6.2150865 -1.208768 0
0.2269696 -6.1510959 -1.1964638 0
0.24921207 -6.1905489 -1.2042936 0
0.26895976 -6.1665978 -1.199803 0
0.28887591 -6.1495299 -1.1966639 0
0.30993092 -6.1572371 -1.1983591 0
0.33091378 -6.1625056 -1.1995937 0
0.35326111 -6.1909342 -1.2053514 0
0.37099081 -6.139648 -1.1956016 0
0.39464664 -6.1865396 -1.2049839 0
0.41233215 -6.1396985 -1.196123 0
0.43318379 -6.1420913 -1.1968654 0
0.45337898 -6.1352506 -1.1958219 0
0.47323465 -6.1244802 -1.1940252 0
0.4958829 -6.1491065 -1.1991436 0
0.51568145 -6.1377034 -1.1972505 0
0.53848094 -6.1613851 -1.2022153 0
0.55571675 -6.1218796 -1.1948638 0
0.57813084 -6.1400733 -1.1987864 0
0.59895962 -6.1406174 -1.1992779 0
0.62198472 -6.1627522 -1.2040014 0
0.63521218 -6.0893898 -1.1900783 0
0.66143543 -6.1411715 -1.2006249 0
0.67940992 -6.1154089 -1.1960268 0
0.70549583 -6.1618848 -1.2055721 0
0.72687215 -6.1655979 -1.2067686 0
0.74661142 -6.1554689 -1.2052693 0
0.7669912 -6.1508927 -1.2048701 0
0.78613025 -6.1367378 -1.2026069 0
0.80151474 -6.0946307 -1.1948751 0
0.82469559 -6.1122999 -1.1988746 0
0.84600997 -6.115469 -1.2000458 0
0.859626 -6.0640416 -1.190513 0
0.89139742 -6.1399565 -1.2059969 0
0.90487778 -6.0891504 -1.1966069 0
0.92599177 -6.0907087 -1.1975164 0
0.95377207 -6.1349401 -1.2068349 0
0.96902019 -6.0982542 -1.2002506 0
0.98049194 -6.0397224 -1.1893708 0
1.0108358 -6.0973191 -1.2013737 0
1.0353062 -6.1177278 -1.206072 0
1.0530366 -6.0981493 -1.2029016 0
1.0578865 -6.006073 -1.1854318 0
1.0859829 -6.0468426 -1.1941905 0
1.1113483 -6.0710139 -1.1996933 0
1.129241 -6.0540867 -1.1970898 0
1.1404943 -6.0026946 -1.1876773 0
1.1710682 -6.0528722 -1.1983755 0
1.1919191 -6.0517721 -1.1989421 0
1.2145015 -6.0592103 -1.2012157 0
1.2269992 -6.0168023 -1.1936173 0
1.2452796 -6.003562 -1.1918123 0
1.2702367 -6.0222783 -1.1963665 0
1.2894922 -6.0136533 -1.1955053 0
1.3135903 -6.0273867 -1.1991043 0
1.3311182 -6.0108767 -1.1967009 0
1.3639281 -6.0626712 -1.2079163 0
1.3678807 -5.9864364 -1.1936345 0
1.3882432 -5.9831042 -1.1938914 0
1.4169226 -6.015039 -1.201205 0
1.4250265 -5.9598355 -1.1911284 0
1.4526248 -5.9864445 -1.197413 0
1.4793905 -6.0087628 -1.2028626 0
1.5023234 -6.0149593 -1.2051046 0
1.5197591 -5.9991403 -1.2029493 0
1.5387965 -5.9898539 -1.2021149 0
1.5620785 -5.9969759 -1.2045887 0
1.5716081 -5.9516826 -1.1965425 0
1.6055033 -5.998497 -1.2070296 0
1.6126628 -5.9453626 -1.197419 0
1.6285232 -5.9251351 -1.1944381 0
1.6530004 -5.9362345 -1.1977862 0
1.6869276 -5.9804091 -1.207834 0
1.7104609 -5.9869413 -1.2103046 0
1.7205958 -5.946857 -1.2033608 0
1.7475272 -5.9649563 -1.2082021 0
1.7670877 -5.9576173 -1.2079087 0
1.7646548 -5.8770647 -1.1927696 0
1.8096234 -5.9542747 -1.2096642 0
1.8265382 -5.9382954 -1.2076552 0
1.8423407 -5.9189744 -1.2049755 0
1.8493719 -5.8721099 -1.1966904 0
1.8821025 -5.9068422 -1.2050478 0
1.9001513 -5.8950844 -1.2039421 0
1.9130754 -5.8677306 -1.199659 0
1.9131153 -5.801775 -1.187479 0
1.9490899 -5.8449073 -1.1976379 0
1.989987 -5.9015403 -1.2106025 0
1.9907614 -5.8391027 -1.199157 0
2.0114896 -5.8357663 -1.19985 0
2.0509372 -5.8860803 -1.2116017 0
2.0314906 -5.7679567 -1.1886823 0
2.0687015 -5.8113508 -1.1990478 0
2.0932786 -5.8185706 -1.2019788 0
2.1081727 -5.7988586 -1.1993601 0
2.1179638 -5.7655172 -1.1939263 0
2.1603851 -5.8206282 -1.2068319 0
2.1699922 -5.7869606 -1.2013531 0
2.2054613 -5.8220978 -1.2101758 0
2.2047107 -5.7617273 -1.1991569 0
2.2193007 -5.7421021 -1.1966144 0
2.2461689 -5.7541714 -1.2006922 0
2.2782197 -5.7790031 -1.2074608 0
2.290251 -5.7529154 -1.2036077 0
2.2963779 -5.7124953 -1.1967552 0
2.3128097 -5.6980915 -1.1953555 0
2.3322532 -5.6911635 -1.1955358 0
2.3578539 -5.6991014 -1.1988572 0
2.375921 -5.6887031 -1.1983389 0
2.4018512 -5.6970015 -1.2017766 0
2.4217694 -5.6908684 -1.202189 0
2.4259844 -5.648139 -1.1948739 0
2.4545991 -5.6623297 -1.1996104 0
2.4955702 -5.7043557 -1.2102797 0
2.5001831 -5.663116 -1.2033017 0
2.5019174 -5.6160049 -1.1950673 0
2.5442331 -5.6598635 -1.2062087 0
2.568455 -5.6628981 -1.2086838 0
2.6004429 -5.6826978 -1.214764 0
2.588165 -5.6061139 -1.2002413 0
2.6037362 -5.5905118 -1.1987633 0
2.6192009 -5.5748019 -1.1972709 0
2.6368678 -5.5638585 -1.1968126 0
2.6338468 -5.509675 -1.1870503 0
2.7028005 -5.6055393 -1.2096498 0
2.7093906 -5.5713816 -1.2042323 0
2.7183361 -5.54245 -1.1999421 0
2.7387979 -5.5371346 -1.2007725 0
2.741518 -5.4961858 -1.1938791 0
2.7720058 -5.5109701 -1.1991026 0
2.8088853 -5.5379577 -1.2070171 0
2.8302257 -5.5339613 -1.2082075 0
2.8410439 -5.5094695 -1.2049333 0
2.8535559 -5.4884796 -1.2024283 0
2.8542931 -5.4452133 -1.1950394 0
2.8763707 -5.442873 -1.1966355 0
2.9059646 -5.4545236 -1.2013323 0
2.9114754 -5.4209895 -1.1960899 0
2.9595492 -5.4664516 -1.2083032 0
2.9414566 -5.3897929 -1.1935318 0
2.9816158 -5.420083 -1.2024463 0
2.9920011 -5.3960419 -1.1993315 0
3.0069151 -5.3803239 -1.1980721 0
3.0396397 -5.3963132 -1.2038952 0
3.0415993 -5.3577037 -1.1975499 0
3.0541344 -5.3380175 -1.1954318 0
3.0687387 -5.3220663 -1.1941571 0
3.0838592 -5.3070903 -1.1931101 0
3.1224904 -5.3323355 -1.2011324 0
3.1464596 -5.3321881 -1.2034688 0
3.1615613 -5.3169694 -1.2024196 0
3.1835368 -5.313293 -1.2039953 0
3.1544588 -5.2249479 -1.1863662 0
3.1970446 -5.2555799 -1.1957486 0
3.2382467 -5.2833343 -1.2045268 0
3.2322404 -5.2340655 -1.1957582 0
3.2649062 -5.2475252 -1.2013272 0
3.275018 -5.2246418 -1.1985955 0
3.2947855 -5.2172246 -1.1994214 0
3.3410461 -5.2513947 -1.2098455 0
3.3125675 -5.1682897 -1.1932514 0
3.3381197 -5.16992 -1.1962051 0
3.3769891 -5.1918368 -1.2038891 0
3.3884282 -5.1714053 -1.2017791 0
3.3846343 -5.1280265 -1.1943288 0
3.4174635 -5.1401963 -1.1998252 0
3.4216466 -5.1092501 -1.1952728 0
3.4507895 -5.1155858 -1.1994549 0
3.4603021 -5.0927725 -1.1968194 0
3.4706089 -5.071281 -1.1944966 0
3.5157018 -5.1003957 -1.2041241 0
3.4901879 -5.0272264 -1.189606 0
3.5358205 -5.0566792 -1.199374 0
3.558821 -5.0534101 -1.201422 0
3.6058221 -5.0838566 -1.2115279 0
3.5938864 -5.0311956 -1.2018431 0
3.5929132 -4.9943447 -1.1959112 0
3.6399939 -5.024169 -1.2059683 0
3.6275868 -4.9718723 -1.196328 0
3.6766267 -5.0037642 -1.2069613 0
3.7123554 -5.0170498 -1.2131613 0
3.6922469 -4.9550428 -1.2011542 0
3.6875296 -4.9142365 -1.1942527 0
3.7062156 -4.9047971 -1.1949719 0
3.7197714 -4.8885732 -1.1940511 0
3.776114 -4.9282436 -1.2068263 0
3.7517166 -4.862546 -1.1938119 0
3.7643356 -4.8452249 -1.1926513 0
3.8028214 -4.861033 -1.1996741 0
3.8447068 -4.880765 -1.2077185 0
3.8415809 -4.8433018 -1.2016288 0
3.8774281 -4.8549738 -1.2077432 0
3.8586192 -4.7983418 -1.1968668 0
3.8760407 -4.7870512 -1.1972854 0
3.9186277 -4.8066058 -1.2054555 0
3.9275832 -4.7847443 -1.2032686 0
3.9324083 -4.7580037 -1.1998528 0
3.9440732 -4.739666 -1.1985564 0
3.9568088 -4.7226758 -1.1976081 0
3.9856312 -4.7248058 -1.2015302 0
4.0077648 -4.7188516 -1.2034264 0
3.9503663 -4.6197863 -1.1815335 0
4.0114226 -4.6594696 -1.1951158 0
3.9897196 -4.6029577 -1.1840452 0
4.0508361 -4.6419301 -1.1975573 0
4.0974774 -4.6637211 -1.2067167 0
4.0702214 -4.6014919 -1.1941394 0
4.0938864 -4.5970941 -1.1965535 0
4.0624413 -4.5311041 -1.1829159 0
4.1869473 -4.6385884 -1.2146345 0
4.1687603 -4.5874228 -1.2048898 0
4.1968284 -4.5873137 -1.2085501 0
4.2227101 -4.5846434 -1.2115698 0
4.2208042 -4.5518532 -1.2066375 0
4.18959 -4.4879165 -1.1934055 0
4.2051506 -4.4744153 -1.1935579 0
4.2616277 -4.5041518 -1.2052948 0
4.2565236 -4.4686503 -1.1996071 0
4.2887926 -4.4724054 -1.2044686 0
4.2913394 -4.4451313 -1.2009914 0
4.3227224 -4.4476986 -1.2055942 0
4.320682 -4.4158792 -1.2008891 0
4.3483734 -4.4144745 -1.2044652 0
4.3177886 -4.3541274 -1.191943 0
4.3700466 -4.3773727 -1.2023107 0
4.3769531 -4.3549895 -1.2001868 0
4.3842573 -4.3331022 -1.1981993 0
4.4114408 -4.3308272 -1.2016534 0
4.4101367 -4.3006043 -1.1973636 0
4.480969 -4.3404622 -1.2126368 0
4.4591765 -4.2904682 -1.2028397 0
4.4470119 -4.2501426 -1.1957077 0
4.4948502 -4.2671189 -1.2047168 0
4.486105 -4.2303109 -1.1985648 0
4.4724936 -4.1892352 -1.1911688 0
4.5202065 -4.2055635 -1.200114 0
4.5573568 -4.2117095 -1.2062216 0
4.6000752 -4.2226806 -1.213774 0
4.5653353 -4.1626725 -1.2009182 0
4.563849 -4.133379 -1.196875 0
4.5681977 -4.1095223 -1.1943953 0
4.565124 -4.0791478 -1.1900091 0
4.6641793 -4.1396179 -1.2122054 0
4.6353364 -4.0863175 -1.2011417 0
4.6263556 -4.0509157 -1.1952883 0
4.6721234 -4.0633965 -1.2035863 0
4.683579 -4.0458589 -1.2030362 0
4.715096 -4.0455585 -1.2076409 0
4.734416 -4.0346546 -1.2091177 0
4.7043591 -3.98189 -1.1980251 0
4.7043967 -3.9549248 -1.194651 0
4.7563286 -3.9714417 -1.2044506 0
4.7341208 -3.9260352 -1.1954869 0
4.7643423 -3.9242125 -1.1997893 0
4.77669 -3.9075763 -1.1995928 0
4.8456645 -3.9369562 -1.2135929 0
4.8348842 -3.9013591 -1.2076101 0
4.8241663 -3.8660767 -1.2016888 0
4.8689537 -3.8752317 -1.2096019 0
4.8396773 -3.8254955 -1.1991355 0
4.8579674 -3.8135581 -1.2004925 0
4.8451138 -3.777281 -1.1941797 0
4.8935471 -3.7887294 -1.2029794 0
4.909132 -3.774538 -1.2036929 0
4.9075747 -3.7472262 -1.2002237 0
4.8992081 -3.7149012 -1.1951246 0
4.9431553 -3.7221885 -1.2027942 0
4.9090881 -3.6708088 -1.1915033 0
4.9566159 -3.6805022 -1.2000371 0
4.9487772 -3.6490045 -1.1951704 0
4.9816251 -3.647505 -1.2001432 0
5.0191312 -3.6491799 -1.2062246 0
5.0372338 -3.6365876 -1.207638 0
4.9807715 -3.570483 -1.1912249 0
5.0139318 -3.5688653 -1.1962872 0
5.0477724 -3.5675147 -1.2015007 0
5.0093493 -3.515234 -1.189543 0
5.0991888 -3.5528216 -1.2080412 0
5.0894542 -3.5207503 -1.2029316 0
5.0469146 -3.4663613 -1.1901234 0
5.0491877 -3.4430647 -1.1879306 0
5.1166844 -3.4640157 -1.2010713 0
5.1264744 -3.4456341 -1.2006508 0
5.146606 -3.4341705 -1.2026623 0
5.1477222 -3.410027 -1.2002447 0
5.1302013 -3.3737268 -1.1935154 0
5.1736875 -3.3775303 -1.2009909 0
5.1647515 -3.347054 -1.1963048 0
5.1995301 -3.3448915 -1.2017561 0
5.214222 -3.3296788 -1.2025648 0
5.2544999 -3.3306508 -1.2092719 0
5.23136 -3.2914481 -1.2013999 0
5.2647734 -3.2878833 -1.206535 0
5.2833366 -3.274905 -1.2082661 0
5.2613854 -3.2369306 -1.2007573 0
5.2850809 -3.2271321 -1.203689 0
5.2754946 -3.1970453 -1.1990575 0
5.2822318 -3.1769624 -1.198161 0
5.2938719 -3.1598423 -1.1983916 0
5.2860837 -3.1312037 -1.1942452 0
5.3683 -3.1556382 -1.2104226 0
5.3397279 -3.1148005 -1.2016188 0
5.3389773 -3.0904179 -1.1991115 0
5.3745723 -3.0870104 -1.2047745 0
5.3356824 -3.0409274 -1.1937647 0
5.356925 -3.0292845 -1.1962382 0
5.3434615 -2.9980712 -1.1909803 0
5.4010763 -3.0066323 -1.2015682 0
5.4135342 -2.9898362 -1.2021028 0
5.412169 -2.9654448 -1.1995851 0
5.3804693 -2.9246635 -1.1903789 0
5.4437714 -2.9354708 -1.2021997 0
5.4787216 -2.9306493 -1.2077413 0
5.4336653 -2.8831589 -1.1956713 0
5.4475255 -2.8671479 -1.1965991 0
5.4581647 -2.8494191 -1.196831 0
5.4678421 -2.8311827 -1.1968647 0
5.4861979 -2.8174016 -1.1988082 0
5.4928961 -2.7976077 -1.1982155 0
5.4887166 -2.7723422 -1.1952693 0
5.5027485 -2.7563121 -1.1963059 0
5.5424275 -2.7529809 -1.2029188 0
5.5231194 -2.7203419 -1.1967418 0
5.5396242 -2.70543 -1.1983459 0
5.5325193 -2.6790237 -1.1948591 0
5.5524302 -2.6657209 -1.1972224 0
5.578866 -2.6554334 -1.2009959 0
5.5555291 -2.621515 -1.1940732 0
5.5921264 -2.6158962 -1.2000474 0
5.5997963 -2.5966365 -1.1998183 0
5.6071935 -2.5772598 -1.199545 0
5.6097722 -2.5556977 -1.1982567 0
5.6079965 -2.5322182 -1.1960573 0
5.1007886 -2.2826374 -1.086243 0
5.1452012 -2.2818375 -1.0940655 0
5.1234641 -2.2516713 -1.0878321 0
5.1202269 -2.2297955 -1.0855513 0
5.1570263 -2.2252815 -1.0917652 0
5.1368423 -2.1961718 -1.0859272 0
5.1028047 -2.1614125 -1.0771936 0
5.1491475 -2.1607091 -1.0854411 0
5.1416702 -2.1373253 -1.0823482 0
5.1542301 -2.1223071 -1.0834881 0
5.1263947 -2.0907712 -1.0761571 0
5.1829777 -2.0936079 -1.0865556 0
5.2136703 -2.0857005 -1.0915178 0
5.262989 -2.0849876 -1.1003734 0
5.3247929 -2.0888443 -1.1118246 0
5.3874464 -2.0926068 -1.1234355 0
5.3798394 -2.0689199 -1.1203964 0
5.4976525 -2.0930958 -1.143464 0
5.7765479 -2.1771314 -1.1999468 0
5.769876 -2.1525514 -1.197055 0
5.8228092 -2.1500869 -1.2065345 0
5.8135395 -2.1245418 -1.203131 0
5.7921824 -2.0947499 -1.1972507 0
5.8023458 -2.0764534 -1.1979058 0
5.8172607 -2.0598152 -1.1995524 0
5.8250704 -2.0406275 -1.1997453 0
5.7987585 -2.0096073 -1.1929315 0
5.8416071 -2.0025442 -1.2003585 0
5.8585119 -1.9864134 -1.2024568 0
5.7820148 -1.9388857 -1.1854149 0
5.797471 -1.9224693 -1.1872556 0
5.838181 -1.9142661 -1.1942713 0
5.8614979 -1.9001698 -1.1977311 0
5.9012799 -1.8912247 -1.2045577 0
5.8708396 -1.859787 -1.1970648 0
5.8764992 -1.8399229 -1.1969543 0
5.9068437 -1.8277003 -1.20188 0
5.9281111 -1.8125246 -1.204964 0
5.9200101 -1.7883656 -1.2020918 0
5.9150443 -1.7652454 -1.1998749 0
5.9374361 -1.7502694 -1.20322 0
5.9380722 -1.7288388 -1.2021675 0
5.9585304 -1.7131448 -1.2051396 0
5.9300694 -1.6834567 -1.1982349 0
5.8978486 -1.6529619 -1.1905979 0
5.9394002 -1.6431495 -1.1978669 0
5.9525928 -1.6253335 -1.1994219 0
5.9754004 -1.6100527 -1.2029231 0
5.9550467 -1.5831718 -1.1977502 0
5.9739518 -1.5667717 -1.2004894 0
5.979928 -1.5469291 -1.2006413 0
5.9189076 -1.5099891 -1.1873665 0
5.9772859 -1.5035554 -1.1980596 0
5.9871278 -1.484705 -1.1990277 0
5.9948368 -1.4652988 -1.199581 0
5.9916778 -1.4432547 -1.1979737 0
5.9590607 -1.4142761 -1.1904975 0
6.0275989 -1.4092116 -1.2032394 0
6.0402303 -1.3908226 -1.2048233 0
6.0565701 -1.3732182 -1.2071574 0
6.0526004 -1.3509978 -1.2054565 0
5.99828 -1.3177756 -1.1937512 0
6.0850158 -1.3154597 -1.2101284 0
6.0817084 -1.2934164 -1.2086015 0
6.0835977 -1.2725135 -1.2081223 0
6.0445738 -1.2432125 -1.1995381 0
6.0974345 -1.2327908 -1.2092012 0
6.0401344 -1.2001406 -1.197033 0
6.0159349 -1.1743796 -1.1914502 0
6.0551853 -1.1609799 -1.1984462 0
6.0902333 -1.1465431 -1.2046152 0
6.0814528 -1.1237907 -1.2021265 0
6.0468512 -1.0964433 -1.1945534 0
6.0988402 -1.0847623 -1.2040985 0
6.1116381 -1.0659117 -1.2059128 0
6.0793204 -1.0392846 -1.1988418 0
6.1077638 -1.0230824 -1.2037675 0
6.1615558 -1.0108664 -1.2136946 0
6.0936089 -0.97874987 -1.1996573 0
6.0154157 -0.94551265 -1.1836326 0
6.1307607 -0.94259065 -1.2057 0
6.0798559 -0.91390836 -1.1950796 0
6.0890226 -0.89441997 -1.1962851 0
6.171895 -0.88546377 -1.2119766 0
6.1294141 -0.85840535 -1.2030628 0
6.0911193 -0.83222902 -1.1949919 0
6.1110001 -0.81408328 -1.1983501 0
6.0932412 -0.79093462 -1.1943409 0
6.1264076 -0.77436197 -1.2003262 0
6.1251163 -0.75334305 -1.1995716 0
6.0888653 -0.7281692 -1.1919872 0
6.1365261 -0.7130084 -1.2008427 0
6.1704698 -0.69599265 -1.2070217 0
6.1140652 -0.66887814 -1.1955428 0
6.136673 -0.65053761 -1.1995304 0
6.1290159 -0.6289528 -1.1976146 0
6.1195755 -0.60725725 -1.1953654 0
6.1389322 -0.58839941 -1.1987543 0
6.2120881 -0.57439858 -1.2126567 0
6.1832623 -0.55083102 -1.2066623 0
6.2100472 -0.53223693 -1.2115344 0
6.1885986 -0.50950289 -1.2070098 0
6.1785426 -0.48782477 -1.2047228 0
6.1272817 -0.46311113 -1.1944182 0
6.1998534 -0.44769573 -1.2082655 0
6.1617599 -0.42418292 -1.2005577 0
6.1782966 -0.40451321 -1.2035086 0
6.131608 -0.38081452 -1.1941584 0
6.1660051 -0.36220184 -1.2006143 0
6.2177052 -0.34432402 -1.2104493 0
6.1924114 -0.32210141 -1.2053083 0
6.1939197 -0.30136016 -1.2053984 0
6.1454749 -0.27835298 -1.1957822 0
6.1692305 -0.25870529 -1.200229 0
6.1982565 -0.23910718 -1.2057134 0
6.1461954 -0.21646367 -1.1954383 0
6.1746292 -0.19673939 -1.2008337 0
6.1503687 -0.17532651 -1.1959944 0
6.2408023 -0.15696512 -1.2134709 0
6.1888719 -0.13489738 -1.2032787 0
2.1591642 -0.03982057 -0.41976973 0
2.170718 -0.032753583 -0.42199224 0
2.1347415 -0.025052046 -0.41497967 0
2.1376815 -0.017918561 -0.41553718 0
2.1921732 -0.011025028 -0.42612007 0
2.1379101 -0.0035840145 -0.41556758 0
2.1764374 0.0036486019 -0.42305651 0
2.1431494 0.010778475 -0.41659069 0
2.1142352 0.017722027 -0.41097951 0
2.1606829 0.025356477 -0.42002249 0
2.1283584 0.032114424 -0.41375744 0
2.129508 0.039273638 -0.41400421 0
2.1309576 0.046447981 -0.41431397 0
2.1087554 0.053038217 -0.4100295 0
2.1589832 0.061545417 -0.41983366 0
2.1321104 0.067934453 -0.41464996 0
2.1659219 0.076281898 -0.42127296 0
6.1946869 0.23896946 -1.2050189 0
6.1863375 0.25942266 -1.2035573 0
6.164216 0.27920184 -1.1994288 0
6.1125188 0.29739967 -1.189557 0
6.1528263 0.32004237 -1.1976032 0
6.1534286 0.34076452 -1.1979362 0
6.1734266 0.36263779 -1.2020594 0
6.1553216 0.38228726 -1.1987768 0
6.2032619 0.40614775 -1.2083719 0
6.1650434 0.424409 -1.2011975 0
6.1248417 0.44227907 -1.1936468 0
6.2146525 0.46971479 -1.2114497 0
6.1391959 0.48471814 -1.1970507 0
6.1010695 0.50229675 -1.1899384 0
6.1297607 0.52535594 -1.1958711 0
6.1762543 0.55020672 -1.2052947 0
6.1804295 0.57147127 -1.2064766 0
6.0984187 0.58451635 -1.1908432 0
6.1462607 0.60990524 -1.200578 0
6.149148 0.63101876 -1.2015485 0
6.1077929 0.64747608 -1.1938851 0
6.118865 0.66940325 -1.1964813 0
6.147964 0.69345415 -1.2026193 0
6.171751 0.71710122 -1.2077359 0
6.0926032 0.72861624 -1.192719 0
6.1279669 0.75369364 -1.2001299 0
6.1481452 0.77710956 -1.2045852 0
6.0754099 0.78862 -1.1908457 0
6.0871062 0.81090021 -1.1936646 0
6.1294537 0.83746666 -1.2025126 0
6.0987916 0.8541168 -1.1970522 0
6.1064487 0.87607437 -1.1991249 0
6.1467071 0.9028933 -1.2076182 0
6.1299424 0.9214372 -1.2049247 0
6.0494957 0.93009633 -1.189718 0
6.0841374 0.95631444 -1.1971546 0
6.068768 0.97475994 -1.1947669 0
6.1191444 1.0039084 -1.2053404 0
6.0885406 1.0198624 -1.1999789 0
6.0953536 1.0420254 -1.2020035 0
6.1153812 1.0665646 -1.2066514 0
6.091115 1.0833883 -1.2025733 0
6.0630746 1.099385 -1.1977582 0
6.0458841 1.117218 -1.1950955 0
6.0747929 1.1436363 -1.2015612 0
6.0301442 1.1561786 -1.1934899 0
6.0627704 1.1835225 -1.2007259 0
6.0658998 1.2052602 -1.2021394 0
6.0023184 1.2135601 -1.1903385 0
6.0428596 1.2428598 -1.1991979 0
6.070137 1.2696979 -1.2054492 0
6.0522885 1.2871594 -1.2027549 0
6.0202069 1.3014493 -1.1972399 0
6.0008192 1.3183334 -1.1942565 0
6.079843 1.3570786 -1.2108822 0
6.0196352 1.364844 -1.1997957 0
6.0108647 1.3840609 -1.1989658 0
6.0002885 1.4028265 -1.1977876 0
5.9842176 1.4202466 -1.1955234 0
6.0634241 1.4605368 -1.2123188 0
5.9684925 1.4588594 -1.1943094 0
6.0221062 1.4933791 -1.2060328 0
5.9609895 1.499456 -1.1947931 0
5.9846115 1.526751 -1.2005471 0
6.0454865 1.5638882 -1.213804 0
6.0044627 1.5747737 -1.2066206 0
5.9897437 1.5923963 -1.204729 0
5.9993682 1.6165107 -1.2077481 0
5.9279823 1.6186137 -1.1944629 0
5.9523277 1.6467259 -1.2004741 0
5.9559188 1.6692369 -1.2023205 0
5.927547 1.6827406 -1.1977253 0
5.9451332 1.7092929 -1.2024299 0
5.929111 1.7262298 -1.2003533 0
5.9583044 1.7564211 -1.207449 0
5.9215975 1.7672011 -1.2012043 0
5.8750439 1.7747818 -1.1929612 0
5.9134789 1.8080508 -1.2019898 0
5.9041286 1.8268602 -1.2013274 0
5.903348 1.8483291 -1.2024229 0
5.9029665 1.8699644 -1.2036154 0
5.9251566 1.8988767 -1.2094313 0
5.8255515 1.8885168 -1.1903859 0
5.8749666 1.9263277 -1.2017963 0
5.8503284 1.9399971 -1.1980802 0
5.8318806 1.9556072 -1.1956383 0
5.8294106 1.9765462 -1.1964837 0
4.7241721 1.6194794 -0.97074312 0
