# .PCD v0.7 - Point Cloud Data file format
VERSION 0.7
FIELDS x y z intensity
SIZE 4 4 4 4
TYPE F F F F
COUNT 1 1 1 1
WIDTH 1403
HEIGHT 1
VIEWPOINT 0 0 0 1 0 0 0
POINTS 1403
DATA ascii
-3.8849528 2.1286635 -1.1869879 0
-3.9139423 2.1275163 -1.1936591 0
-3.9640522 2.1375682 -1.2067488 0
-3.9303114 2.1023953 -1.1943247 0
-3.9402673 2.09076 -1.1952133 0
-3.9831548 2.0964322 -1.2060835 0
-3.9772596 2.0763302 -1.2021838 0
-3.9856489 2.0637343 -1.2026213 0
-4.0081983 2.0583978 -1.2073361 0
-3.9679449 2.0209422 -1.1931634 0
-3.9777987 2.0091932 -1.1940941 0
-3.9569428 1.9820353 -1.1858318 0
-3.9839327 1.9788737 -1.1919252 0
-4.004652 1.9724535 -1.1961389 0
-4.0491729 1.9775398 -1.2074493 0
-3.9900517 1.9321245 -1.1878812 0
-4.059968 1.9492034 -1.2067437 0
-4.0022569 1.9050106 -1.187685 0
-4.0532832 1.9126561 -1.2009176 0
-4.0479612 1.8935767 -1.197453 0
-4.0401044 1.8734174 -1.193264 0
-4.0572891 1.8648833 -1.1964861 0
-4.0655904 1.852213 -1.197096 0
-4.0884852 1.8461157 -1.202008 0
-4.0648913 1.8190792 -1.1932716 0
-4.117497 1.8260756 -1.2069103 0
-4.0327659 1.7723416 -1.1803256 0
-4.0741005 1.7742332 -1.1906757 0
-4.1267333 1.7807182 -1.2043064 0
-4.0929427 1.7498827 -1.1927264 0
-4.0874248 1.7313372 -1.18942 0
-4.1457171 1.7396581 -1.2046788 0
-4.1531672 1.7264303 -1.2051548 0
-4.1107011 1.692636 -1.1911786 0
-4.0826402 1.6650945 -1.1814229 0
-4.116549 1.6628481 -1.1896152 0
-4.1737547 1.6697007 -1.2045224 0
-4.159265 1.6477487 -1.1987395 0
-4.2096577 1.6514047 -1.2116606 0
-4.171567 1.6203444 -1.1991266 0
-4.1411538 1.5925725 -1.1888425 0
-4.1684556 1.5870495 -1.1951462 0
-4.2538424 1.6032497 -1.2180794 0
-4.2020264 1.5676509 -1.2017303 0
-4.2407851 1.5659332 -1.2113066 0
-4.172574 1.5248681 -1.1903561 0
-4.2072554 1.5215719 -1.1987879 0
-4.245225 1.519228 -1.2081486 0
-4.2774544 1.5146029 -1.2158687 0
-4.2496557 1.4887439 -1.2065413 0
-4.1966434 1.4543936 -1.1900991 0
-4.2387185 1.4530751 -1.2006426 0
-4.2694921 1.4476459 -1.2079779 0
-4.2720251 1.4325528 -1.2073287 0
-4.2428513 1.4069624 -1.1977439 0
-4.2486792 1.393101 -1.1980639 0
-4.2626038 1.3818557 -1.200677 0
-4.2864156 1.3737104 -1.2060803 0
-4.2295418 1.3398628 -1.1888069 0
-4.243032 1.3284991 -1.1913399 0
-4.2669563 1.3202974 -1.1968075 0
-4.280333 1.3087275 -1.199322 0
-4.2776999 1.2922553 -1.1973635 0
-4.3325038 1.2929754 -1.2114834 0
-4.2888813 1.2643118 -1.1980933 0
-4.3191943 1.2575234 -1.2053766 0
-4.3472881 1.2499069 -1.2120404 0
-4.3529696 1.2357545 -1.2124625 0
-4.3023949 1.205824 -1.1972429 0
-4.3319259 1.1984502 -1.2043356 0
-4.2734861 1.1668719 -1.1869942 0
-4.355124 1.1734868 -1.2085701 0
-4.3404045 1.1539254 -1.2034049 0
-4.3567367 1.1426415 -1.2068641 0
-4.3009214 1.1126043 -1.1903627 0
-4.37078 1.1150544 -1.2086558 0
-4.3938518 1.105263 -1.2140043 0
-4.381299 1.0864993 -1.2095227 0
-4.3441505 1.0618391 -1.1982778 0
-4.4112573 1.0625808 -1.2157987 0
-4.3461642 1.0314963 -1.1968985 0
-4.356874 1.0186197 -1.1989005 0
-4.3827443 1.0091825 -1.2050815 0
-4.3771195 0.99244523 -1.2026131 0
-4.3497548 0.9709186 -1.1941936 0
-4.3124809 0.94743061 -1.1830816 0
-4.3759546 0.94600672 -1.199618 0
-4.3607106 0.92741829 -1.1945798 0
-4.4214082 0.92484355 -1.2103512 0
-4.336956 0.8920117 -1.1864072 0
-4.3528056 0.88007039 -1.1899291 0
-4.3696375 0.86823446 -1.193728 0
-4.4249821 0.86381954 -1.2080494 0
-4.4322119 0.84981418 -1.2092384 0
-4.3852367 0.82557368 -1.1956604 0
-4.4042192 0.81386703 -1.2000853 0
-4.4074211 0.79918623 -1.2002208 0
-4.4140038 0.7851032 -1.2012899 0
-4.3826332 0.7643733 -1.1920481 0
-4.4517803 0.76106215 -1.2101549 0
-4.4032888 0.7375859 -1.1962941 0
-4.3889632 0.72006637 -1.1917394 0
-4.4461446 0.71414775 -1.206609 0
-4.4252372 0.69557792 -1.2002954 0
-4.4317679 0.68138641 -1.2014405 0
-4.4508286 0.66904914 -1.2059928 0
-4.4587836 0.65496534 -1.2075465 0
-4.4574995 0.63951653 -1.2066113 0
-4.4999962 0.63022268 -1.217536 0
-4.4696717 0.61070287 -1.2087705 0
-4.4592867 0.5940606 -1.2054166 0
-4.3809209 0.56867826 -1.1837108 0
-4.45788 0.56347644 -1.2039878 0
-4.4226837 0.54396856 -1.1939826 0
-4.4745913 0.53512973 -1.2075049 0
-4.4102135 0.51243848 -1.1896617 0
-4.4544811 0.50245118 -1.2011417 0
-4.4753809 0.48961827 -1.2063279 0
-4.4732623 0.47421446 -1.2053216 0
-4.4511399 0.45678297 -1.1989412 0
-4.4486313 0.44145814 -1.19786 0
-4.4678898 0.42824671 -1.2026523 0
-4.4198394 0.40869075 -1.1893427 0
-4.4589443 0.39723346 -1.1995004 0
-4.4954634 0.38529918 -1.2089701 0
-4.5021896 0.37067407 -1.2104379 0
-4.4809127 0.35380092 -1.2043918 0
-4.4899325 0.33936927 -1.2065036 0
-4.4265432 0.31965557 -1.1891754 0
-4.4822388 0.30857465 -1.2038531 0
-4.4901261 0.29399514 -1.2057 0
-4.5159721 0.28048459 -1.2123809 0
-4.4582214 0.26189554 -1.1966344 0
-4.4269009 0.24516469 -1.1880003 0
-4.4986863 0.23401342 -1.2070472 0
-4.4132261 0.21473369 -1.1839175 0
-4.4965024 0.20367642 -1.2060677 0
-4.4527822 0.18673825 -1.1941663 0
-4.4430146 0.17140785 -1.191386 0
-4.4737449 0.15757331 -1.1994778 0
-4.5125632 0.14379372 -1.2097495 0
-4.4628253 0.12723212 -1.1962944 0
-4.4314332 0.11146866 -1.1877726 0
-4.4489512 0.096984558 -1.1923743 0
-4.4848533 0.082724206 -1.2019154 0
-4.4382634 0.06697996 -1.1893626 0
-4.4695148 0.052463405 -1.1976836 0
-4.4422369 0.037247688 -1.1903338 0
-4.4658637 0.022471881 -1.1966379 0
-4.477952 0.0075187678 -1.1998636 0
-4.5030208 1.194917e-05 -1.2065789 0
-5.2100482 -0.0087480042 -1.2028342 0
-5.1935873 -0.026133727 -1.1990474 0
-5.2141023 -0.043719694 -1.2038108 0
-5.1880722 -0.060897868 -1.1978415 0
-5.2128592 -0.078669749 -1.2036185 0
-5.1886854 -0.095706552 -1.1981043 0
-5.223105 -0.11386066 -1.2061335 0
-5.1876211 -0.13048987 -1.1980337 0
-5.2065668 -0.1484357 -1.2025172 0
-5.206234 -0.16589768 -1.202562 0
-5.1830206 -0.18255527 -1.1973348 0
-5.2348561 -0.20195644 -1.2094589 0
-5.1916633 -0.21772502 -1.1996416 0
-5.2107053 -0.23602739 -1.2042177 0
-5.1864877 -0.25235817 -1.1988097 0
-5.1787806 -0.26939067 -1.1972303 0
-5.1826668 -0.28701949 -1.1983445 0
-5.2036061 -0.30568269 -1.2034165 0
-5.1788483 -0.32165545 -1.1979334 0
-5.1779442 -0.33903068 -1.1979805 0
-5.152462 -0.35471541 -1.1923532 0
-5.2219954 -0.37709787 -1.2087301 0
-5.1580968 -0.38987216 -1.1942354 0
-5.2203007 -0.41218102 -1.2089504 0
-5.1767788 -0.42621434 -1.1991956 0
-5.1646118 -0.44265088 -1.1967142 0
-5.187552 -0.46214283 -1.202382 0
-5.2085395 -0.48161972 -1.2076141 0
-5.2082992 -0.49921483 -1.2079396 0
-5.1929688 -0.51532215 -1.2047781 0
-5.1407003 -0.52754676 -1.1930553 0
-5.1530061 -0.54627472 -1.1963296 0
-5.2028646 -0.56920689 -1.2083411 0
-5.171577 -0.58333731 -1.2015222 0
-5.1472816 -0.59808105 -1.1963367 0
-5.1689568 -0.61817098 -1.2018495 0
-5.1717138 -0.6360957 -1.2029797 0
-5.1645718 -0.65280235 -1.2018207 0
-5.1541429 -0.66904867 -1.1999091 0
-5.14254 -0.68508273 -1.1977359 0
-5.151032 -0.70379895 -1.2002567 0
-5.226985 -0.73203713 -1.2185197 0
-5.0529842 -0.72495061 -1.1785165 0
-5.1320739 -0.75386715 -1.1975454 0
-5.1314282 -0.77135706 -1.1979916 0
-5.1436672 -0.79084122 -1.2014612 0
-5.1729298 -0.8131035 -1.2089263 0
-5.1215405 -0.82263106 -1.1975545 0
-5.1034551 -0.83728808 -1.1939752 0
-5.1136642 -0.85657942 -1.1970289 0
-5.1232128 -0.87584811 -1.1999447 0
-5.1194701 -0.89288473 -1.1997626 0
-5.1220403 -0.91103905 -1.201074 0
-5.1151495 -0.92751682 -1.2001806 0
-5.1486382 -0.95143014 -1.2087798 0
-5.0750284 -0.95543534 -1.1922435 0
-5.0912776 -0.97618079 -1.1968229 0
-5.1144319 -0.99840993 -1.203046 0
-5.0885148 -1.0110732 -1.1977403 0
-5.0746317 -1.0260127 -1.1952754 0
-5.123394 -1.0537637 -1.2075863 0
-5.038177 -1.0538555 -1.1883267 0
-5.0648017 -1.0771617 -1.1954517 0
-5.0897236 -1.1003115 -1.2021981 0
-5.0917988 -1.1186428 -1.2035674 0
-5.1031623 -1.1390884 -1.2071494 0
-5.047215 -1.1443791 -1.194816 0
-5.0422206 -1.1610352 -1.1945485 0
-5.0677962 -1.1848304 -1.201542 0
-5.0908356 -1.2082326 -1.207958 0
-5.065793 -1.220245 -1.2029799 0
-5.083703 -1.2426076 -1.2082157 0
-5.0818291 -1.2602208 -1.2087677 0
-5.0575476 -1.2722142 -1.2039999 0
-5.0672355 -1.2927309 -1.2073312 0
-5.0263028 -1.300253 -1.1986105 0
-5.021419 -1.3169678 -1.1984922 0
-5.0200772 -1.334621 -1.1992331 0
-5.0349293 -1.35666 -1.203861 0
-5.0375776 -1.3755064 -1.2055901 0
-5.0050049 -1.3846611 -1.1988991 0
-4.9825416 -1.3964473 -1.1946331 0
-5.0258126 -1.4267663 -1.2061481 0
-5.0198255 -1.4432709 -1.2058657 0
-4.9460349 -1.4400265 -1.189293 0
-4.9833617 -1.4690366 -1.199446 0
-4.9584532 -1.4797813 -1.1946381 0
-4.9408827 -1.492597 -1.1916039 0
-4.9988937 -1.5284302 -1.2068237 0
-4.9393501 -1.528352 -1.1936791 0
-5.0003996 -1.565632 -1.2096946 0
-4.9529581 -1.5690316 -1.1994835 0
-4.9200177 -1.5767671 -1.1927797 0
-4.9423509 -1.602217 -1.1994897 0
-4.8864026 -1.6022043 -1.1872083 0
-4.9764261 -1.6502215 -1.210418 0
-4.9764962 -1.6687855 -1.2117893 0
-4.8943539 -1.6595161 -1.1931355 0
-4.9067636 -1.6820877 -1.1975288 0
-4.9405422 -1.7122 -1.207167 0
-4.9359622 -1.7291715 -1.2074577 0
-4.891623 -1.7320739 -1.1980252 0
-4.8624129 -1.7400994 -1.1922933 0
-4.8765917 -1.7636402 -1.1972133 0
-4.907198 -1.7933365 -1.2061965 0
-4.9173894 -1.815773 -1.2101912 0
-4.8793817 -1.820352 -1.2023327 0
-4.8685236 -1.8349196 -1.2011664 0
-4.8845611 -1.859691 -1.2066547 0
-4.8282471 -1.8568093 -1.1942744 0
-4.8618736 -1.8884772 -1.2041514 0
-4.8637519 -1.9079989 -1.2061942 0
-4.8379259 -1.9166093 -1.2013764 0
-4.8012819 -1.9207414 -1.1938692 0
-4.7857642 -1.9331725 -1.1916157 0
-4.8139081 -1.9633403 -1.2002556 0
-4.790256 -1.9724518 -1.1960005 0
-4.8265376 -2.0063438 -1.2067319 0
-4.8134751 -2.0198679 -1.2051524 0
-4.7794828 -2.0244768 -1.1983345 0
-4.799221 -2.0518425 -1.2050014 0
-4.7498255 -2.0495875 -1.1943178 0
-4.7638268 -2.0746028 -1.1995806 0
-4.7734985 -2.0978827 -1.2037804 0
-4.7388868 -2.1016567 -1.1968223 0
-4.712285 -2.1087942 -1.1918828 0
-4.7555242 -2.1473107 -1.2046337 0
-4.7498875 -2.1639671 -1.2050369 0
-4.7080483 -2.1639967 -1.1962564 0
-4.729672 -2.1931734 -1.2036123 0
-4.6834993 -2.190872 -1.1937249 0
-4.7013907 -2.2184839 -1.2001741 0
-4.6904216 -2.2325661 -1.199278 0
-4.6992521 -2.2561257 -1.2034632 0
-4.6482592 -2.2508519 -1.1923301 0
-4.6841598 -2.2876556 -1.2034997 0
-4.6489916 -2.2898169 -1.1964298 0
-4.6280761 -2.2988286 -1.1930239 0
-4.6253767 -2.3168542 -1.1943238 0
-4.6705604 -2.3591084 -1.2080264 0
-4.6495152 -2.3680778 -1.2046298 0
-4.6515937 -2.3888116 -1.2072366 0
-4.629786 -2.3972631 -1.2036562 0
-4.5729089 -2.3872893 -1.1909435 0
-4.6274004 -2.4355142 -1.2072548 0
-4.5773773 -2.4288192 -1.196322 0
-4.5652027 -2.4420099 -1.1952732 0
-4.5555434 -2.4565229 -1.1948941 0
-4.5616589 -2.479598 -1.1986719 0
-4.5686316 -2.5032685 -1.2027029 0
-4.5540557 -2.5151713 -1.2010789 0
-4.5194478 -2.5158694 -1.1941694 0
-4.5510144 -2.5534666 -1.2047658 0
-4.5175114 -2.554621 -1.1981573 0
-4.4881959 -2.5579412 -1.1926501 0
-4.5134673 -2.5924308 -1.2016684 0
-4.5341425 -2.6245625 -1.209509 0
-4.519381 -2.6362872 -1.2079223 0
-4.4703317 -2.6278031 -1.1971608 0
-4.4444757 -2.6326945 -1.1925938 0
-4.4900179 -2.6800485 -1.2072185 0
-4.5017147 -2.7075422 -1.2127973 0
-4.4101148 -2.6726253 -1.190527 0
-4.4754915 -2.7328036 -1.2106425 0
-4.4229565 -2.7211251 -1.1988926 0
-4.4208555 -2.7403076 -1.2008067 0
-4.3965583 -2.7456942 -1.196701 0
-4.3697963 -2.7493889 -1.191919 0
-4.3872948 -2.7809749 -1.1992284 0
-4.3851118 -2.800245 -1.2011914 0
-4.3502712 -2.7985742 -1.1942112 0
-4.3999734 -2.8514507 -1.2104728 0
-4.3280725 -2.8255055 -1.1932918 0
-4.2965426 -2.8255119 -1.187204 0
-4.3061271 -2.8525422 -1.1924883 0
-4.3175716 -2.8809984 -1.1983259 0
-4.3351197 -2.9137611 -1.2059009 0
-4.3292294 -2.9309223 -1.2069892 0
-4.3113222 -2.9399273 -1.204738 0
-4.2804999 -2.9399831 -1.1988729 0
-4.2784934 -2.9597657 -1.2010835 0
-4.2240777 -2.9431109 -1.1885711 0
-4.2149544 -2.9577961 -1.1887877 0
-4.2522006 -3.0052612 -1.2021279 0
-4.2426844 -3.0199163 -1.2022933 0
-4.2140164 -3.020849 -1.1970328 0
-4.2279286 -3.0523338 -1.203885 0
-4.2274537 -3.0736046 -1.2066772 0
-4.1865168 -3.0653503 -1.1979192 0
-4.1989064 -3.096101 -1.204428 0
-4.1602044 -3.0891492 -1.1962907 0
-4.1911244 -3.1339633 -1.2081968 0
-4.1835179 -3.1502001 -1.209042 0
-4.2129889 -3.1945822 -1.2206476 0
-4.1399221 -3.1610954 -1.2025418 0
-4.088757 -3.1437845 -1.1907346 0
-4.0964279 -3.1715937 -1.1960588 0
-4.105288 -3.2005258 -1.201772 0
-4.1078916 -3.2247579 -1.2056925 0
-4.0899715 -3.2329125 -1.2036076 0
-4.0672498 -3.2371681 -1.2001082 0
-4.0857682 -3.274344 -1.208805 0
-4.0529137 -3.2703903 -1.202322 0
-4.0307765 -3.2749019 -1.1990055 0
-4.0131326 -3.2829649 -1.1970245 0
-4.0379658 -3.3259411 -1.2077512 0
-4.0222197 -3.335669 -1.2063798 0
-3.9909093 -3.3323498 -1.2003332 0
-4.0334864 -3.3909175 -1.2165515 0
-3.9748285 -3.3644145 -1.2022551 0
-3.9548965 -3.3703685 -1.1996375 0
-3.9461594 -3.3858278 -1.2004241 0
-3.9257405 -3.3912263 -1.1976647 0
-3.9366467 -3.423763 -1.2044873 0
-3.8825498 -3.3996449 -1.1914163 0
-3.9588301 -3.4899566 -1.2184078 0
-3.8587966 -3.4248316 -1.1911479 0
-3.8738456 -3.461477 -1.1993691 0
-3.8859704 -3.4958134 -1.206745 0
-3.8570261 -3.4932435 -1.201387 0
-3.8024323 -3.4670758 -1.1879964 0
-3.8695819 -3.5521364 -1.21269 0
-3.8432021 -3.551738 -1.2081481 0
-3.7928908 -3.5288935 -1.1960449 0
-3.8067343 -3.5656598 -1.2041734 0
-3.8062062 -3.5891986 -1.2078063 0
-3.8137321 -3.6205292 -1.2140396 0
-3.7724676 -3.6054797 -1.2047452 0
-3.7193081 -3.5786107 -1.1915935 0
-3.7279515 -3.6110756 -1.198235 0
-3.7495334 -3.6564276 -1.2091055 0
-3.690165 -3.6227508 -1.1938711 0
-3.6792009 -3.636292 -1.1942617 0
-3.6987514 -3.6802108 -1.2046062 0
-3.6729763 -3.6791537 -1.2002225 0
-3.6579912 -3.6887965 -1.1993605 0
-3.681406 -3.7373881 -1.2111393 0
-3.6321542 -3.7122009 -1.1990241 0
-3.6196859 -3.7243564 -1.1990235 0
-3.6431925 -3.7737765 -1.2109946 0
-3.6033716 -3.7576599 -1.2019392 0
-3.5846994 -3.7633653 -1.199913 0
-3.571691 -3.7749717 -1.1997886 0
-3.5635343 -3.7917352 -1.2013123 0
-3.5166714 -3.7671013 -1.1897655 0
-3.5298574 -3.8067336 -1.1985379 0
-3.5059121 -3.8064282 -1.1947341 0
-3.5151191 -3.8421962 -1.2022549 0
-3.4741001 -3.8230193 -1.1926028 0
-3.4696884 -3.8439806 -1.1955059 0
-3.4939747 -3.8970773 -1.2083693 0
-3.4400885 -3.8629541 -1.1942055 0
-3.4856567 -3.9406469 -1.214604 0
-3.4575956 -3.9354329 -1.209417 0
-3.3971255 -3.8928518 -1.1928241 0
-3.3429315 -3.856776 -1.178329 0
-3.4166784 -3.9686654 -1.209007 0
-3.3848531 -3.9584637 -1.2024351 0
-3.379796 -3.979485 -1.2053716 0
-3.3765125 -4.0027418 -1.2089802 0
-3.3215852 -3.9645216 -1.1940658 0
-3.3508077 -4.0267496 -1.2094175 0
-3.3114634 -4.0067148 -1.2000588 0
-3.3073478 -4.0291696 -1.2034563 0
-3.2842157 -4.0284553 -1.1999471 0
-3.2693744 -4.0378184 -1.1994642 0
-3.2498569 -4.0413442 -1.1972681 0
-3.2389045 -4.0554929 -1.1982358 0
-3.2211273 -4.0610824 -1.1966896 0
-3.1913056 -4.0513101 -1.1906502 0
-3.1975274 -4.087326 -1.1980777 0
-3.1850214 -4.0995889 -1.1985352 0
-3.1549478 -4.0891047 -1.1923709 0
-3.1780949 -4.1477857 -1.2063681 0
-3.1634839 -4.1575155 -1.2061064 0
-3.1711271 -4.1966853 -1.2143784 0
-3.0931809 -4.1221924 -1.1898149 0
-3.0962067 -4.1551719 -1.196331 0
-3.0950589 -4.1828299 -1.2012995 0
-3.0600224 -4.1646099 -1.1931136 0
-3.0463104 -4.1752143 -1.1932187 0
-3.0515926 -4.2120409 -1.2008126 0
-3.0387034 -4.2239866 -1.2013068 0
-3.0483685 -4.2675319 -1.2107775 0
-2.9697523 -4.1870842 -1.1851214 0
-3.015852 -4.2824359 -1.2092412 0
-2.9761033 -4.2562356 -1.1990186 0
-2.9597604 -4.2632289 -1.1981863 0
-2.9546683 -4.2865019 -1.2019364 0
-2.9125082 -4.2558041 -1.1905837 0
-2.9102166 -4.2831974 -1.1955106 0
-2.9216914 -4.331255 -1.2061833 0
-2.8873074 -4.3113918 -1.1979493 0
-2.8619399 -4.3046598 -1.1934057 0
-2.8700776 -4.3484516 -1.2028719 0
-2.841583 -4.3368378 -1.197017 0
-2.8568764 -4.3922324 -1.209656 0
-2.8545811 -4.4210644 -1.2149538 0
-2.8061657 -4.3782239 -1.2005885 0
-2.7979546 -4.3977995 -1.2033772 0
-2.7747982 -4.3938608 -1.1997471 0
-2.7581983 -4.4001842 -1.1989418 0
-2.7408092 -4.4051957 -1.1977966 0
-2.7259321 -4.4142113 -1.1977563 0
-2.7037377 -4.4112868 -1.1944962 0
-2.7041388 -4.4453249 -1.2012513 0
-2.6761143 -4.4326596 -1.1953975 0
-2.6613858 -4.441855 -1.195464 0
-2.6309068 -4.4245658 -1.1884302 0
-2.6632082 -4.513267 -1.2098501 0
-2.6042292 -4.4473181 -1.1898241 0
-2.589206 -4.4558568 -1.1897793 0
-2.5888312 -4.4897976 -1.1965176 0
-2.5648856 -4.4829359 -1.1923906 0
-2.5539181 -4.4986925 -1.1942972 0
-2.5433764 -4.5153184 -1.1964405 0
-2.5259142 -4.5196891 -1.1953478 0
-2.5211117 -4.5468264 -1.2002826 0
-2.5162454 -4.5741458 -1.2052605 0
-2.4968395 -4.5751257 -1.2033062 0
-2.4630508 -4.5494204 -1.1943667 0
-2.4684508 -4.5961342 -1.204451 0
-2.4573941 -4.6125817 -1.2065953 0
-2.4222395 -4.5835629 -1.1968731 0
-2.4332917 -4.642087 -1.2100179 0
-2.3785179 -4.5748296 -1.1904011 0
-2.3708835 -4.5977445 -1.1942886 0
-2.3688502 -4.6318607 -1.2010806 0
-2.3478777 -4.6290722 -1.1983094 0
-2.3251023 -4.6225204 -1.1945888 0
-2.3391843 -4.68962 -1.2098955 0
-2.3012011 -4.6524587 -1.1983109 0
-2.292017 -4.673254 -1.2016809 0
-2.2741866 -4.6764932 -1.2005463 0
-2.2485871 -4.6635442 -1.19528 0
-2.2700729 -4.7487383 -1.2151577 0
-2.239717 -4.7258925 -1.2073834 0
-2.2082798 -4.7002149 -1.1989249 0
-2.1926816 -4.7079644 -1.1990197 0
-2.1864843 -4.7360835 -1.2043072 0
-2.1684299 -4.7386613 -1.2031072 0
-2.1355307 -4.708425 -1.1936059 0
-2.124692 -4.7265921 -1.1963987 0
-2.1082313 -4.7323394 -1.1960576 0
-2.0865057 -4.7261367 -1.192715 0
-2.0742531 -4.7413464 -1.1947917 0
-2.0795066 -4.797092 -1.2070754 0
-2.092839 -4.872551 -1.2242904 0
-2.0429084 -4.8006263 -1.2044905 0
-2.0027256 -4.7503424 -1.1901828 0
-1.9954737 -4.7778287 -1.1953863 0
-1.986959 -4.8026576 -1.1999249 0
-1.9569827 -4.775465 -1.1914849 0
-1.9719242 -4.8582854 -1.2104924 0
-1.961967 -4.8806481 -1.2144184 0
-1.9265277 -4.8393106 -1.2025187 0
-1.8885125 -4.7904968 -1.1888088 0
-1.9012647 -4.8706436 -1.2071093 0
-1.8979925 -4.9108047 -1.2154788 0
-1.8520541 -4.8401432 -1.1964455 0
-1.8313051 -4.8344183 -1.1935059 0
-1.8296425 -4.8793516 -1.2030776 0
-1.8017482 -4.8544083 -1.1954312 0
-1.7908083 -4.8749752 -1.1990107 0
-1.7812262 -4.8995819 -1.2035872 0
-1.7671572 -4.9121099 -1.2052023 0
-1.7511861 -4.919435 -1.2055522 0
-1.725861 -4.9002323 -1.1994216 0
-1.7215528 -4.9408069 -1.2079334 0
-1.6866139 -4.8932743 -1.1949234 0
-1.6490935 -4.8369985 -1.1798242 0
-1.6668729 -4.9433508 -1.2043953 0
-1.6449236 -4.9328208 -1.2004793 0
-1.6524153 -5.0112123 -1.218202 0
-1.6041307 -4.9201884 -1.1947604 0
-1.6076924 -4.9877963 -1.2098618 0
-1.5940024 -5.0027065 -1.2121753 0
-1.5615898 -4.9583926 -1.2001624 0
-1.5449948 -4.9637237 -1.2001922 0
-1.540886 -5.0096531 -1.2100416 0
-1.51223 -4.9757972 -1.2006326 0
-1.4801565 -4.9296103 -1.1882837 0
-1.4815433 -4.9949718 -1.2028351 0
-1.448289 -4.9435945 -1.1892868 0
-1.4457179 -4.9968524 -1.2009264 0
-1.4514687 -5.0804701 -1.2198462 0
-1.3998052 -4.9625683 -1.1904039 0
-1.3877807 -4.9838319 -1.1943817 0
-1.3849195 -5.0388722 -1.2064526 0
-1.3722601 -5.0591292 -1.2101942 0
-1.3397536 -5.0056539 -1.1963211 0
-1.3390305 -5.0709653 -1.2108505 0
-1.316504 -5.0542459 -1.2057974 0
-1.2951918 -5.0416636 -1.2017529 0
-1.2735569 -5.0273314 -1.197312 0
-1.2509761 -5.0086794 -1.1918643 0
-1.2340976 -5.012527 -1.1917886 0
-1.213038 -4.9991355 -1.1876308 0
-1.2108096 -5.0639834 -1.2020653 0
-1.1874015 -5.0407495 -1.1955985 0
-1.17983 -5.084938 -1.2051344 0
-1.1508919 -5.0368614 -1.192819 0
-1.1309768 -5.0272636 -1.1896412 0
-1.119312 -5.0544953 -1.1951907 0
-1.1122302 -5.1035142 -1.205893 0
-1.0858489 -5.0640116 -1.1956922 0
-1.0694523 -5.0704122 -1.1963501 0
-1.0539056 -5.0810051 -1.198009 0
-1.0420395 -5.1098895 -1.2039889 0
-1.022411 -5.1009307 -1.2010636 0
-1.007707 -5.1165376 -1.2039361 0
-0.99076259 -5.1210041 -1.2041986 0
-0.97506917 -5.1320968 -1.2060316 0
-0.95780146 -5.1350408 -1.2059618 0
-0.94333893 -5.1532989 -1.2095002 0
-0.92528582 -5.1521463 -1.2084949 0
-0.90117723 -5.116447 -1.1994056 0
-0.88481337 -5.1240473 -1.2004851 0
-0.86947709 -5.1379094 -1.203043 0
-0.85260391 -5.1429558 -1.2035486 0
-0.8258884 -5.0874667 -1.1899084 0
-0.82191175 -5.1725574 -1.2091589 0
-0.78807008 -5.0691853 -1.1843699 0
-0.77565527 -5.1019616 -1.1914135 0
-0.76091796 -5.120502 -1.1951406 0
-0.74816501 -5.1534657 -1.2022421 0
-0.72747034 -5.1318765 -1.1966299 0
-0.71388644 -5.1605015 -1.2027396 0
-0.69643307 -5.1617751 -1.2024854 0
-0.67530316 -5.1350374 -1.1957225 0
-0.66579843 -5.197506 -1.2097421 0
-0.64246345 -5.1523528 -1.1987244 0
-0.62672019 -5.1671352 -1.2016679 0
-0.61235642 -5.1943512 -1.2075131 0
-0.58860016 -5.1410251 -1.194651 0
-0.57290238 -5.1568532 -1.197876 0
-0.55792707 -5.1802659 -1.2028732 0
-0.54103363 -5.1866913 -1.2039372 0
-0.52167392 -5.1689892 -1.1994154 0
-0.50803095 -5.2085471 -1.2081925 0
-0.4855608 -5.1570745 -1.1958683 0
-0.47126648 -5.1917129 -1.2035275 0
-0.44813117 -5.1277461 -1.1883439 0
-0.43349233 -5.1596427 -1.1953923 0
-0.41649106 -5.1647935 -1.1962553 0
-0.40177816 -5.1998882 -1.2040651 0
-0.38449982 -5.2033467 -1.2045606 0
-0.36545375 -5.1819463 -1.1993163 0
-0.35303512 -5.2569642 -1.2163976 0
-0.32782692 -5.1392779 -1.1889055 0
-0.31537575 -5.2194862 -1.2072091 0
-0.2984513 -5.2306314 -1.2095486 0
-0.27719864 -5.1624408 -1.1935585 0
-0.26156276 -5.1966066 -1.201248 0
-0.24211246 -5.1543312 -1.1912814 0
-0.22664087 -5.1966448 -1.2008786 0
-0.20880149 -5.1870728 -1.1984981 0
-0.19178069 -5.1978164 -1.2008252 0
-0.17284806 -5.1535802 -1.1904649 0
-0.15707597 -5.2040877 -1.2020036 0
-0.13924292 -5.1902766 -1.1986991 0
-0.12106894 -5.1578608 -1.1911122 0
-0.10528737 -5.2334146 -1.2084717 0
-0.086888023 -5.1829104 -1.1967354 0
-0.069861747 -5.2093854 -1.2027876 0
-0.052237965 -5.1939497 -1.1991765 0
-0.035206016 -5.251174 -1.2123544 0
-0.017322589 -5.1686025 -1.1932708 0
6.8646868e-06 -5.1738873 -1.1944841 0
0.017584065 -5.2424693 -1.2103244 0
0.034920778 -5.2065682 -1.2020562 0
0.052110683 -5.1799269 -1.1959391 0
0.069512472 -5.1823153 -1.1965375 0
0.087236688 -5.2028842 -1.2013475 0
0.1044837 -5.1927824 -1.1990892 0
0.12272514 -5.227828 -1.2072699 0
0.14040378 -5.2330303 -1.2085731 0
0.15568361 -5.1575031 -1.1912439 0
0.17449269 -5.2022033 -1.2016969 0
0.19142112 -5.1876974 -1.1984875 0
0.20801622 -5.1672239 -1.193912 0
0.22634938 -5.1896453 -1.1992612 0
0.24283613 -5.169445 -1.1947746 0
0.26190957 -5.2032223 -1.2027775 0
0.27981824 -5.210969 -1.2047783 0
0.29355574 -5.1445918 -1.1896528 0
0.31598407 -5.2293234 -1.2094846 0
0.33410457 -5.237473 -1.2116218 0
0.34586149 -5.1499386 -1.1916335 0
0.36535802 -5.1803932 -1.198957 0
0.38204208 -5.1698999 -1.1968181 0
0.39652514 -5.1317258 -1.1882819 0
0.41574955 -5.1554275 -1.1940863 0
0.43463993 -5.1731377 -1.1985191 0
0.45259061 -5.1786146 -1.2001328 0
0.477092 -5.2557344 -1.218369 0
0.49085554 -5.2131605 -1.2088745 0
0.50891387 -5.2174559 -1.2102593 0
0.52598953 -5.2116122 -1.209306 0
0.54234153 -5.1990957 -1.2068169 0
0.553406 -5.1381607 -1.1930965 0
0.57489812 -5.1746922 -1.2020202 0
0.59727824 -5.2166996 -1.2122363 0
0.60259956 -5.1114717 -1.1882467 0
0.62226444 -5.1302848 -1.1930984 0
0.64477915 -5.1708121 -1.2030195 0
0.66730261 -5.2091384 -1.2124499 0
0.67719543 -5.1493206 -1.1990489 0
0.69585246 -5.1573687 -1.2014594 0
0.70673698 -5.1087198 -1.1906716 0
0.73033416 -5.1519809 -1.2013181 0
0.74198174 -5.1107793 -1.1922843 0
0.75877601 -5.1059947 -1.1917549 0
0.77545744 -5.1005692 -1.1910888 0
0.79506564 -5.1140943 -1.194863 0
0.81422281 -5.1240807 -1.1978273 0
0.83111495 -5.1195765 -1.197419 0
0.85220689 -5.1404767 -1.202969 0
0.87300539 -5.1586757 -1.207906 0
0.88929474 -5.1499181 -1.2065468 0
0.89715964 -5.0935578 -1.1940405 0
0.91828185 -5.1130695 -1.1993294 0
0.9409427 -5.140132 -1.2064104 0
0.95914537 -5.14217 -1.2076368 0
0.96245795 -5.0656466 -1.1904165 0
0.983437 -5.0830674 -1.1952785 0
1.0006231 -5.0804987 -1.1954566 0
1.0205621 -5.0916367 -1.1988758 0
1.0453428 -5.126019 -1.2077899 0
1.0662025 -5.1402221 -1.2119719 0
1.0747399 -5.0954146 -1.20225 0
1.0851988 -5.0609136 -1.1949614 0
1.0961345 -5.0295944 -1.1884276 0
1.119395 -5.0548067 -1.1952649 0
1.1391184 -5.0633907 -1.198191 0
1.1608875 -5.0805449 -1.2031648 0
1.1703554 -5.0440435 -1.195443 0
1.1945964 -5.0712328 -1.2028295 0
1.2038091 -5.0346465 -1.1951023 0
1.2261988 -5.0533152 -1.2005029 0
1.2420183 -5.044641 -1.1994249 0
1.2469506 -4.9925051 -1.1880163 0
1.2791995 -5.0495486 -1.2026042 0
1.2979293 -5.0522642 -1.2042805 0
1.2933937 -4.9654679 -1.1846184 0
1.3263795 -5.0230017 -1.1993984 0
1.3482494 -5.0373425 -1.2038954 0
1.3499523 -4.9768348 -1.1905094 0
1.3887727 -5.0528393 -1.2097976 0
1.4126186 -5.0729785 -1.2157466 0
1.4024962 -4.9720583 -1.1926812 0
1.4437456 -5.0533867 -1.2133443 0
1.4668715 -5.0699153 -1.2184869 0
1.4436253 -4.9276271 -1.1854465 0
1.4881064 -5.0170503 -1.2081527 0
1.4917611 -4.9682102 -1.1975893 0
1.5028784 -4.9449797 -1.1931975 0
1.5278294 -4.9671569 -1.199778 0
1.5538499 -4.9921265 -1.2070608 0
1.551687 -4.9269037 -1.1925416 0
1.5691181 -4.9245634 -1.1932418 0
1.5917312 -4.9382329 -1.1978405 0
1.6050162 -4.9228606 -1.1954103 0
1.6267942 -4.9334683 -1.1993039 0
1.6454737 -4.9344268 -1.2008712 0
1.6686291 -4.9485154 -1.2056547 0
1.6802552 -4.9283566 -1.2021091 0
1.7110006 -4.9639826 -1.2121913 0
1.7140563 -4.91925 -1.2026643 0
1.7239755 -4.8948374 -1.1981024 0
1.7527661 -4.9238319 -1.2066309 0
1.7493833 -4.8626637 -1.1930717 0
1.7663212 -4.8585429 -1.193507 0
1.7992115 -4.8978105 -1.2046282 0
1.8097172 -4.8758392 -1.2007099 0
1.8341665 -4.8913765 -1.2060437 0
1.8466877 -4.8749876 -1.2035227 0
1.8584867 -4.8569155 -1.2005926 0
1.8775755 -4.8579402 -1.2023953 0
1.8897413 -4.8410854 -1.199785 0
1.8941947 -4.804873 -1.1923777 0
1.935003 -4.8605623 -1.2078007 0
1.9340733 -4.8112226 -1.1971449 0
1.9479399 -4.7991581 -1.1957614 0
1.9788487 -4.8287864 -1.2047899 0
1.9790883 -4.7835979 -1.1951642 0
2.0031371 -4.7961411 -1.1999694 0
1.9967229 -4.7360692 -1.186608 0
2.0443649 -4.8040133 -1.2053417 0
2.0626791 -4.8022976 -1.2066396 0
2.0879166 -4.8164573 -1.2119496 0
2.1159379 -4.8365951 -1.2187951 0
2.0980275 -4.7522006 -1.1992941 0
2.096236 -4.70538 -1.1892452 0
2.1358745 -4.7514353 -1.2026885 0
2.1398203 -4.7178497 -1.1959965 0
2.1673071 -4.7361746 -1.2024772 0
2.1648204 -4.6891251 -1.1923679 0
2.2062197 -4.736999 -1.2064157 0
2.2150662 -4.7146268 -1.2026026 0
2.2060642 -4.6548524 -1.1892353 0
2.2389963 -4.6836972 -1.198516 0
2.2488627 -4.664084 -1.1954198 0
2.264756 -4.6570692 -1.1955614 0
2.2919827 -4.6731524 -1.2016562 0
2.2948337 -4.6395545 -1.1949887 0
2.2998078 -4.6106467 -1.1895224 0
2.3343196 -4.6408148 -1.1993181 0
2.3650002 -4.6628003 -1.2070422 0
2.3619406 -4.61832 -1.1975709 0
2.3661213 -4.58848 -1.1918837 0
2.4212894 -4.6570663 -1.2118013 0
2.4039292 -4.5860415 -1.1954107 0
2.4317725 -4.601572 -1.2015774 0
2.4533854 -4.6050277 -1.2046208 0
2.4860489 -4.6288714 -1.2130318 0
2.4609911 -4.5455871 -1.193362 0
2.4727187 -4.5308986 -1.1916758 0
2.5334709 -4.6054296 -1.2135055 0
2.51158 -4.5296078 -1.1957389 0
2.5282567 -4.5238519 -1.1964506 0
2.5279889 -4.4879727 -1.1891963 0
2.5707653 -4.5283403 -1.2021699 0
2.5935166 -4.5329494 -1.2056953 0
2.5838721 -4.4811697 -1.1942201 0
2.6097016 -4.4911008 -1.1991918 0
2.63552 -4.5007267 -1.2041148 0
2.6552753 -4.4997964 -1.2062409 0
2.6788013 -4.5050859 -1.2100596 0
2.6964729 -4.5003881 -1.2112194 0
2.6781125 -4.4359431 -1.1962848 0
2.6991985 -4.4371772 -1.1990515 0
2.7257144 -4.4471164 -1.2042001 0
2.7586207 -4.4671187 -1.2121142 0
2.7478409 -4.416471 -1.2008644 0
2.7740142 -4.4253893 -1.2058116 0
2.7625668 -4.3744669 -1.1944536 0
2.8068745 -4.4117937 -1.2072085 0
2.8040671 -4.3749242 -1.1996856 0
2.8200698 -4.367589 -1.2002603 0
2.8279095 -4.3476729 -1.197386 0
2.8547232 -4.3568668 -1.2025474 0
2.8457973 -4.3116403 -1.1926911 0
2.8783925 -4.3293815 -1.2002616 0
2.8982871 -4.3277626 -1.2025 0
2.8991106 -4.2977552 -1.1968564 0
2.904459 -4.2746987 -1.1931409 0
2.9291415 -4.2800846 -1.1973785 0
2.9354646 -4.2586179 -1.1941198 0
2.9417171 -4.2372155 -1.1908773 0
2.9641736 -4.2391505 -1.1942078 0
2.9807026 -4.2325006 -1.195143 0
2.9990253 -4.2283325 -1.1967987 0
3.0351229 -4.2489648 -1.2055119 0
3.0197957 -4.19768 -1.1938274 0
3.0265737 -4.1774845 -1.1909631 0
3.1036294 -4.2537503 -1.2156657 0
3.0523274 -4.1541142 -1.1901089 0
3.0851467 -4.1694107 -1.197448 0
3.124655 -4.193327 -1.2073187 0
3.1397276 -4.1842008 -1.2077153 0
3.1461165 -4.1635628 -1.2047962 0
3.1588345 -4.1513824 -1.2043296 0
3.1589022 -4.1227145 -1.1990787 0
3.1565354 -4.0911403 -1.1929668 0
3.1948097 -4.1121655 -1.2022145 0
3.176867 -4.060894 -1.1903324 0
3.1891043 -4.0484934 -1.1898249 0
3.2289383 -4.0709081 -1.1995875 0
3.2163987 -4.0272908 -1.1899058 0
3.2303009 -4.0170035 -1.1900597 0
3.2741346 -4.0436754 -1.2012067 0
3.2981462 -4.0455203 -1.2050329 0
3.3115926 -4.0343189 -1.2049969 0
3.3336077 -4.0334868 -1.2080799 0
3.3675234 -4.0468154 -1.2154469 0
3.3617768 -4.0124712 -1.2085103 0
3.3497219 -3.9709609 -1.1993837 0
3.3649414 -3.9619734 -1.2000701 0
3.3729413 -3.9445121 -1.1981999 0
3.3998499 -3.9490972 -1.2030485 0
3.4184227 -3.9438498 -1.2049347 0
3.4126344 -3.9106028 -1.1982661 0
3.4074008 -3.8782806 -1.191856 0
3.4272172 -3.8745584 -1.1942368 0
3.4481111 -3.871942 -1.1969869 0
3.4560895 -3.8548005 -1.1952633 0
3.4723086 -3.846863 -1.1964052 0
3.4853947 -3.835428 -1.1964766 0
3.4925277 -3.8174827 -1.1945246 0
3.504179 -3.8045263 -1.1941401 0
3.5120399 -3.7874985 -1.1924847 0
3.5419097 -3.7941167 -1.1983007 0
3.56618 -3.7945302 -1.2022009 0
3.5681038 -3.7711601 -1.1985801 0
3.586885 -3.76564 -1.2006413 0
3.6165159 -3.7713473 -1.2063203 0
3.5706728 -3.6986377 -1.1868858 0
3.615449 -3.7199771 -1.1976167 0
3.6332908 -3.7133427 -1.199396 0
3.6865821 -3.7426231 -1.212839 0
3.6687226 -3.6995986 -1.2028759 0
3.6643109 -3.670454 -1.1973877 0
3.65871 -3.6403508 -1.1915624 0
3.6957245 -3.6526034 -1.199622 0
3.7088525 -3.6410775 -1.199914 0
3.7545595 -3.6613095 -1.210723 0
3.7120328 -3.5956371 -1.1931154 0
3.7337008 -3.5924399 -1.1962017 0
3.7744021 -3.6073096 -1.2053599 0
3.7660334 -3.5752277 -1.1988525 0
3.8191929 -3.6014256 -1.2119242 0
3.8019843 -3.5611916 -1.2026678 0
3.7886531 -3.5249321 -1.1947057 0
3.8049972 -3.5164115 -1.196135 0
3.8154511 -3.5024278 -1.1957231 0
3.8283815 -3.4907179 -1.1961007 0
3.869895 -3.50488 -1.2053926 0
3.8946667 -3.503618 -1.2094427 0
3.8533165 -3.443115 -1.1930103 0
3.8798189 -3.4434714 -1.1976343 0
3.9289811 -3.4636245 -1.2092184 0
3.8967333 -3.412046 -1.1957659 0
3.9348211 -3.4221568 -1.203926 0
3.9584637 -3.4194758 -1.2076451 0
3.9372032 -3.3781254 -1.1976969 0
3.9726977 -3.3855207 -1.2050345 0
3.9734302 -3.3632131 -1.2018296 0
4.0353222 -3.3924425 -1.2171025 0
3.9562356 -3.30338 -1.1899019 0
4.0180631 -3.3322041 -1.2051305 0
4.0100641 -3.3029418 -1.1994032 0
4.030015 -3.2967579 -1.2020575 0
4.0665307 -3.3039334 -1.2096384 0
4.0560336 -3.2728901 -1.2032449 0
4.0375118 -3.2356534 -1.1945254 0
4.0875702 -3.2533236 -1.2061014 0
4.0653553 -3.2134371 -1.1963609 0
4.1032972 -3.2211337 -1.2043415 0
4.1172175 -3.2098088 -1.2052618 0
4.1173143 -3.1877472 -1.2021546 0
4.1635122 -3.2012455 -1.2125026 0
4.0670147 -3.1054087 -1.1813616 0
4.1583924 -3.1531663 -1.2048268 0
4.173399 -3.1425629 -1.2061151 0
4.1447978 -3.0993049 -1.1948395 0
4.1755576 -3.1005323 -1.2007033 0
4.1631436 -3.0697138 -1.1941673 0
4.2177548 -3.0882053 -1.2068553 0
4.1800222 -3.0391023 -1.1931362 0
4.2236938 -3.0492597 -1.2026769 0
4.261517 -3.054883 -1.2105235 0
4.2264838 -3.008368 -1.1977 0
4.2307673 -2.9900959 -1.1960661 0
4.247726 -2.9807763 -1.1980284 0
4.2811871 -2.9828851 -1.2046384 0
4.2458611 -2.9371746 -1.1919205 0
4.239368 -2.9117157 -1.1873506 0
4.3500576 -2.9663246 -1.2155598 0
4.2952986 -2.9079344 -1.1975272 0
4.321764 -2.9047678 -1.2021836 0
4.3536367 -2.9050469 -1.2083335 0
4.3325839 -2.8700514 -1.1998128 0
4.3100891 -2.8344038 -1.190945 0
4.3701878 -2.852983 -1.2049013 0
4.3568978 -2.8235188 -1.1986202 0
4.438519 -2.8553283 -1.2184345 0
4.3966813 -2.8076167 -1.2043585 0
4.3691607 -2.769464 -1.1942697 0
4.4335566 -2.789489 -1.2093084 0
4.4013047 -2.748642 -1.1979909 0
4.3926101 -2.7227831 -1.1931328 0
4.3885198 -2.6999228 -1.1895562 0
4.4446731 -2.7139692 -1.2023039 0
4.427815 -2.683336 -1.1953033 0
4.4559965 -2.6800289 -1.2004786 0
4.4935312 -2.6821294 -1.2081612 0
4.4375267 -2.628562 -1.1907271 0
4.4592776 -2.6212893 -1.1941987 0
4.4772182 -2.6116765 -1.1966515 0
4.5095482 -2.6103106 -1.2029465 0
4.4528155 -2.5575781 -1.1855186 0
4.5270081 -2.5800455 -1.2029619 0
4.4963069 -2.542614 -1.1925315 0
4.5342078 -2.5440209 -1.2003148 0
4.5244837 -2.5186572 -1.1954983 0
4.5306797 -2.5022454 -1.1949121 0
4.5362787 -2.4855258 -1.1941842 0
4.5012584 -2.4467504 -1.1827986 0
4.5608325 -2.4593594 -1.1962796 0
4.5682535 -2.4436264 -1.1960703 0
4.5865798 -2.4336867 -1.1987255 0
4.5831494 -2.4122086 -1.1957084 0
4.6198711 -2.4117901 -1.2031723 0
4.5645223 -2.3634546 -1.1866872 0
4.5998826 -2.3622401 -1.1938144 0
4.6141105 -2.3500299 -1.1954553 0
4.6981115 -2.373009 -1.2151507 0
4.6228247 -2.3155606 -1.1936632 0
4.6859417 -2.3275557 -1.2079389 0
4.7087784 -2.3192487 -1.2118144 0
4.6359982 -2.2641189 -1.191124 0
4.7047153 -2.2781744 -1.2068101 0
4.6470256 -2.2310364 -1.1900867 0
4.697114 -2.2357364 -1.2009877 0
4.6979957 -2.2168665 -1.1993059 0
4.6718783 -2.1854208 -1.1907614 0
4.7209105 -2.1890955 -1.2013812 0
4.7129927 -2.1662543 -1.1975112 0
4.724061 -2.1521859 -1.1984833 0
4.7194381 -2.1310012 -1.1954911 0
4.7519526 -2.1265309 -1.2019147 0
4.7963748 -2.1271372 -1.2113397 0
4.7666159 -2.0948427 -1.2020433 0
4.7492723 -2.0682495 -1.1959143 0
4.7543502 -2.0515249 -1.1954541 0
4.7989907 -2.051729 -1.2049422 0
4.799614 -2.0329888 -1.2033805 0
4.8033657 -2.0156105 -1.2026199 0
4.7925558 -1.9922029 -1.1982343 0
4.8082085 -1.9798291 -1.2004814 0
4.794776 -1.9555224 -1.195484 0
4.8086529 -1.9424033 -1.1973135 0
4.7888026 -1.9157344 -1.1907649 0
4.8367071 -1.9161116 -1.2010725 0
4.8459144 -1.9009867 -1.2017694 0
4.8729501 -1.8927648 -1.2068936 0
4.8580961 -1.8682736 -1.2016563 0
4.8665576 -1.8528218 -1.202206 0
4.8503904 -1.8280706 -1.1966914 0
4.8537498 -1.8107747 -1.1960155 0
4.8705316 -1.7984558 -1.1986582 0
4.9148293 -1.7961106 -1.2080712 0
4.866487 -1.759971 -1.1947314 0
4.861794 -1.7398635 -1.1921406 0
4.9094191 -1.7383604 -1.2023824 0
4.8750954 -1.707834 -1.1925671 0
4.8860488 -1.6933004 -1.1938511 0
4.8602924 -1.6661425 -1.1861861 0
4.9666743 -1.684023 -1.2107645 0
4.923089 -1.6508617 -1.1987833 0
4.9384365 -1.6376092 -1.2011768 0
4.9124689 -1.6107368 -1.1935403 0
4.9662719 -1.6099572 -1.2052941 0
4.9317217 -1.5805036 -1.1956161 0
4.933857 -1.5629661 -1.1948566 0
4.9574666 -1.5521752 -1.1993072 0
4.9413042 -1.5289422 -1.1941503 0
4.9801836 -1.5226949 -1.2023057 0
4.9389343 -1.491994 -1.191133 0
4.9552436 -1.4788091 -1.1938639 0
4.988122 -1.4704254 -1.2005907 0
4.9774284 -1.4491524 -1.1968406 0
5.0138664 -1.4415432 -1.2044334 0
4.9942098 -1.4177803 -1.1985629 0
4.9916015 -1.3989723 -1.1968044 0
5.0046649 -1.3845526 -1.1988168 0
5.0238085 -1.3717324 -1.202294 0
5.0321546 -1.355898 -1.2031966 0
5.0628953 -1.3459901 -1.2094611 0
5.0587225 -1.326737 -1.2073947 0
4.997952 -1.2929047 -1.191849 0
5.076498 -1.2950797 -1.2095374 0
5.0398464 -1.2677473 -1.1997851 0
5.0911503 -1.2625179 -1.210984 0
5.0704637 -1.2393571 -1.2050683 0
5.0563259 -1.2179503 -1.200731 0
5.066721 -1.2024953 -1.2022355 0
5.0900908 -1.1900285 -1.206827 0
4.9910173 -1.149231 -1.1824172 0
5.090785 -1.1542438 -1.2051295 0
5.0166512 -1.1197641 -1.1866845 0
5.1002536 -1.1204861 -1.2055651 0
5.1001439 -1.10255 -1.2046586 0
5.1043854 -1.0855659 -1.204794 0
5.096487 -1.0660384 -1.2020794 0
5.0911088 -1.0471094 -1.199976 0
5.0809264 -1.0272713 -1.1967574 0
5.0603738 -1.0054678 -1.1911159 0
5.0494375 -0.98570824 -1.187757 0
5.0703716 -0.97215843 -1.1919079 0
5.1312857 -0.9660123 -1.205459 0
5.1342754 -0.94876188 -1.2054071 0
5.1026192 -0.92523074 -1.19724 0
5.1760821 -0.92063713 -1.2137457 0
5.1149912 -0.89208961 -1.1987123 0
5.1293325 -0.87688029 -1.2013776 0
5.0810547 -0.85110325 -1.1893951 0
5.1459579 -0.84424722 -1.2039185 0
5.0972023 -0.81870794 -1.1918629 0
5.0840254 -0.7991153 -1.1881487 0
5.16223 -0.79368126 -1.2057967 0
5.1500769 -0.77414632 -1.2023448 0
5.1825385 -0.76126605 -1.2093208 0
5.118629 -0.73435473 -1.1938264 0
5.1738176 -0.72457707 -1.2061248 0
5.1625867 -0.70536369 -1.2029486 0
5.1408157 -0.68483919 -1.1973339 0
5.2098951 -0.67627168 -1.212888 0
5.160192 -0.65223485 -1.2008011 0
5.1217208 -0.629933 -1.1913506 0
5.1728077 -0.61861765 -1.2027445 0
5.1776056 -0.60159057 -1.2033843 0
5.1366258 -0.57938117 -1.1934016 0
5.2225456 -0.57134598 -1.2129116 0
5.1708813 -0.54815578 -1.2004791 0
5.1452575 -0.52800059 -1.1941127 0
5.2107329 -0.51707101 -1.208899 0
5.1617422 -0.49473852 -1.1971415 0
5.1209688 -0.4735086 -1.1873102 0
5.1783991 -0.46131358 -1.2002603 0
5.2122211 -0.44671744 -1.2077457 0
5.1659842 -0.4253118 -1.1966947 0
5.2152371 -0.41176727 -1.2077775 0
5.159255 -0.38994592 -1.1945034 0
5.1382318 -0.37103531 -1.1893412 0
5.2483315 -0.36130145 -1.2145387 0
5.1593261 -0.33779788 -1.1936728 0
5.2326474 -0.32498294 -1.2103776 0
5.1277008 -0.30121002 -1.1858618 0
5.2528501 -0.2908923 -1.2145722 0
5.1621771 -0.26851326 -1.1933918 0
5.209383 -0.25345832 -1.2041017 0
5.1638303 -0.23389038 -1.1933845 0
5.1910934 -0.21768732 -1.1995099 0
5.1838188 -0.19997369 -1.1976671 0
5.1646338 -0.18189393 -1.1930871 0
5.1795626 -0.16503403 -1.1964012 0
5.2135768 -0.14862169 -1.2041361 0
5.2124176 -0.13109978 -1.2037601 0
5.1568222 -0.11240204 -1.1908273 0
5.1734257 -0.095411353 -1.1945808 0
5.2222958 -0.078798302 -1.2057973 0
5.2735281 -0.061886963 -1.2175719 0
5.2528124 -0.044030335 -1.2127481 0
5.2150536 -0.026227906 -1.2040035 0
5.2572222 -0.008813262 -1.2137252 0
5.2044764 0.0087248376 -1.2015479 0
5.1910672 0.026107272 -1.1984656 0
5.1709523 0.043344162 -1.1938485 0
5.2137861 0.061185863 -1.2037784 0
5.1860375 0.078251205 -1.1974256 0
5.1699009 0.095346346 -1.1937667 0
5.1823511 0.11295849 -1.1967224 0
5.2086964 0.13100617 -1.2029006 0
5.2166867 0.14871034 -1.2048544 0
5.1952219 0.16553299 -1.2000184 0
5.165976 0.1819412 -1.1933972 0
5.1788502 0.19978201 -1.1965191 0
5.1538162 0.21612413 -1.1908962 0
5.1685333 0.2341034 -1.1944715 0
5.1619625 0.25115111 -1.1931409 0
5.1832662 0.26961023 -1.1982672 0
5.1452594 0.28493413 -1.189695 0
5.1635628 0.30331662 -1.1941556 0
5.1778979 0.32158265 -1.1977134 0
5.1854405 0.3395077 -1.1997147 0
5.1395946 0.35381585 -1.1893754 0
5.2301006 0.37766922 -1.210606 0
5.1772189 0.39130366 -1.1986624 0
5.1347795 0.40541479 -1.1891447 0
5.2107682 0.42899883 -1.2070689 0
5.1930161 0.44507146 -1.2032956 0
5.2159753 0.464661 -1.2089697 0
5.1388297 0.47516012 -1.1914513 0
5.1408262 0.49273381 -1.1922905 0
5.2129669 0.51729268 -1.2094173 0
5.2286634 0.53655964 -1.2134695 0
5.1440368 0.54531008 -1.194247 0
5.2072892 0.56967694 -1.2093683 0
5.1687946 0.5830096 -1.2008754 0
5.1601291 0.59955996 -1.1993225 0
5.1672773 0.61795622 -1.2014586 0
5.1984167 0.63936597 -1.2091906 0
5.1676259 0.65317446 -1.2025311 0
5.1598115 0.66977054 -1.2012284 0
5.1272593 0.68303317 -1.1941764 0
5.1384926 0.70207173 -1.1973343 0
5.1004314 0.7142995 -1.1890169 0
5.1086316 0.73292047 -1.1914948 0
5.1711469 0.75959271 -1.2066625 0
5.1334238 0.7716431 -1.198457 0
5.149282 0.79169053 -1.2027723 0
5.1246262 0.80549699 -1.1976372 0
5.126646 0.82343721 -1.1987478 0
5.1098151 0.83831757 -1.1954627 0
5.136189 0.86033851 -1.202301 0
5.1653433 0.88303643 -1.2098118 0
5.1261144 0.89402956 -1.2013191 0
5.1149697 0.90976745 -1.1994154 0
5.1266618 0.92959028 -1.2028813 0
5.1125474 0.94474685 -1.2003061 0
5.1548362 0.97044593 -1.2109915 0
5.0409651 0.96652025 -1.1849952 0
5.0781021 0.99130386 -1.1944997 0
5.1008329 1.0135068 -1.2006391 0
5.1156983 1.0343015 -1.2049476 0
5.1184521 1.0527332 -1.2064209 0
5.0731988 1.0611671 -1.1965865 0
5.0886793 1.0822257 -1.2010869 0
5.0706296 1.0961696 -1.1976874 0
5.0813251 1.1163278 -1.2010909 0
5.0503154 1.1272782 -1.1946478 0
5.0231867 1.1389171 -1.1891271 0
5.0828114 1.1703675 -1.204164 0
5.1263075 1.1984959 -1.2154138 0
5.0730262 1.2039917 -1.2037314 0
5.0716982 1.2216532 -1.2043816 0
5.0954771 1.2454711 -1.2110132 0
5.0225115 1.2454967 -1.1946576 0
5.024827 1.2639693 -1.1962097 0
4.999054 1.2753228 -1.1910855 0
4.9960198 1.292405 -1.1913882 0
5.0533595 1.3253306 -1.2061148 0
5.0624809 1.3458799 -1.209362 0
4.9692421 1.3389465 -1.1881542 0
5.0145941 1.3692164 -1.2000889 0
4.9898796 1.3804623 -1.1952752 0
5.0246196 1.4082261 -1.204721 0
5.0099182 1.4222397 -1.2023327 0
5.0053596 1.4390974 -1.2023898 0
4.9842334 1.4511335 -1.1984769 0
5.0028925 1.4747796 -1.2041459 0
4.9938941 1.4903436 -1.2031759 0
4.979557 1.5042657 -1.2009301 0
4.9945679 1.5270931 -1.2057784 0
4.9934068 1.5450639 -1.2067418 0
4.9432039 1.5477096 -1.1958569 0
4.9499779 1.568073 -1.1987607 0
4.9546618 1.5878555 -1.2011777 0
4.961628 1.6084517 -1.2041671 0
4.9527898 1.6239575 -1.2033367 0
4.9608903 1.6450551 -1.2066381 0
4.9517918 1.6604866 -1.2057725 0
4.9095531 1.6646551 -1.1968396 0
4.7547221 1.6299523 -1.160421 0
4.6850939 1.6236577 -1.1447499 0
4.6618199 1.6331198 -1.1403947 0
4.5928197 1.6262569 -1.1248431 0
4.5904331 1.642753 -1.1256012 0
4.4642172 1.6144898 -1.0959735 0
4.4949198 1.6426558 -1.1048568 0
4.4764581 1.6529433 -1.1016752 0
4.474865 1.6694252 -1.1026543 0
4.4514008 1.6776948 -1.0982523 0
4.4295139 1.6864284 -1.0942414 0
4.5055556 1.7326975 -1.1144551 0
4.4350195 1.7226626 -1.0984304 0
4.4060078 1.7284172 -1.092674 0
4.4768167 1.7735374 -1.1117029 0
4.4392309 1.7758902 -1.1038419 0
4.4568181 1.8002836 -1.1097096 0
4.4456668 1.8131402 -1.1084405 0
4.4512854 1.8328624 -1.1113673 0
4.7828336 1.9881616 -1.1958036 0
4.8296623 2.0266454 -1.209204 0
4.7788315 2.0241859 -1.1981697 0
4.7785139 2.0429742 -1.1998008 0
4.7510033 2.0500805 -1.1946125 0
4.7618861 2.0737426 -1.1990904 0
4.7726231 2.0974829 -1.2035583 0
4.7882686 2.1235418 -1.2092924 0
4.7968588 2.1466267 -1.2132727 0
4.7361779 2.1385598 -1.1997316 0
4.7539692 2.1658113 -1.2060709 0
4.7166953 2.1679559 -1.198452 0
4.7325664 2.1945002 -1.2043474 0
4.7034597 2.2001941 -1.1988108 0
4.7066884 2.2209685 -1.201525 0
4.6989942 2.2366312 -1.2014683 0
4.6520166 2.2334325 -1.1913649 0
4.689199 2.2706609 -1.2028301 0
4.7305799 2.3103106 -1.2154248 0
4.6269555 2.2789478 -1.1907572 0
4.6273131 2.2984343 -1.1928257 0
4.6186199 2.3134544 -1.1925776 0
4.6200037 2.3335567 -1.1949483 0
4.6279273 2.3570673 -1.1990352 0
4.6389451 2.3823006 -1.2039524 0
4.6186819 2.3914976 -1.2007676 0
4.6073332 2.4052448 -1.1999071 0
4.6048112 2.4236095 -1.2013597 0
4.6044431 2.4431651 -1.2033941 0
4.5704494 2.4448011 -1.1966453 0
4.5487809 2.4528606 -1.1931185 0
4.5585532 2.4778941 -1.197854 0
4.5423379 2.4888456 -1.1957792 0
4.5627584 2.5199621 -1.2033724 0
4.5745573 2.5465317 -1.2087291 0
4.5627913 2.5600584 -1.2078815 0
4.5261464 2.5594881 -1.2004458 0
4.5436444 2.5895269 -1.2073827 0
4.4800143 2.5732002 -1.19276 0
4.5122404 2.6118689 -1.2036647 0
4.5078697 2.6295564 -1.2048439 0
4.4303617 2.6042917 -1.186455 0
4.4202275 2.618315 -1.1860852 0
4.4232521 2.6401808 -1.1892655 0
4.4499054 2.6763656 -1.1988376 0
4.4781041 2.7138121 -1.208879 0
4.4231482 2.7008259 -1.1964813 0
4.4535923 2.7399569 -1.2071948 0
4.4197574 2.7396107 -1.2005066 0
4.3982453 2.7467313 -1.1971581 0
4.3852038 2.7590668 -1.1961197 0
4.3837838 2.7787333 -1.1982667 0
4.4139009 2.8186128 -1.2090755 0
4.3578844 2.8034556 -1.1962992 0
4.351438 2.8199806 -1.1971183 0
4.3797913 2.8592522 -1.207549 0
4.3193355 2.8404846 -1.1934999 0
4.3149467 2.8583679 -1.1949286 0
4.2816525 2.8570139 -1.1883546 0
4.2863488 2.8809643 -1.1923321 0
4.3107972 2.9184268 -1.201848 0
4.2533193 2.9003584 -1.1885278 0
4.2851524 2.943162 -1.2001739 0
4.2928305 2.969667 -1.2051061 0
4.1898355 2.9192364 -1.1789339 0
4.2602439 2.9895606 -1.2015591 0
4.2431197 2.9988263 -1.1995584 0
4.2378511 3.016459 -1.2009213 0
4.2252345 3.0288737 -1.2002171 0
4.1776671 3.016031 -1.189571 0
4.1951351 3.0500901 -1.19745 0
4.2216468 3.0910554 -1.207969 0
4.2116909 3.1055105 -1.2080927 0
4.1613617 3.0899913 -1.1966212 0
4.16224 3.1123474 -1.1998676 0
4.165545 3.1366489 -1.2038454 0
4.1460881 3.1438363 -1.2012618 0
4.154892 3.1725082 -1.2068877 0
4.1424727 3.1850686 -1.2063755 0
4.0669017 3.1487162 -1.1874353 0
4.0974708 3.1944139 -1.1994811 0
4.0949798 3.2146041 -1.2019002 0
4.0830922 3.227457 -1.2015805 0
4.0709829 3.2401216 -1.2012072 0
4.062592 3.2557528 -1.2019455 0
4.0644164 3.2796543 -1.2057317 0
4.0383801 3.2810616 -1.2012646 0
4.0255423 3.2930992 -1.2007235 0
3.9694097 3.2694559 -1.1872435 0
3.9783325 3.2992554 -1.1932142 0
3.9971025 3.337503 -1.2021933 0
3.967181 3.3351572 -1.1965504 0
3.995702 3.3820643 -1.208566 0
3.9512174 3.3672152 -1.1985189 0
3.9475195 3.3869767 -1.2008351 0
3.9307513 3.3955367 -1.1991906 0
3.9233234 3.4121571 -1.200408 0
3.9381602 3.4483202 -1.2084783 0
3.8952332 3.4338737 -1.1988318 0
3.8378367 3.4062107 -1.1846751 0
3.8768067 3.4641044 -1.2002829 0
3.8372877 3.4520001 -1.1916243 0
3.8460298 3.4832656 -1.1979591 0
3.8583138 3.5180101 -1.2054526 0
3.8261542 3.5122528 -1.1990774 0
3.8036191 3.5151381 -1.1957018 0
3.8316958 3.5649786 -1.2082787 0
3.7758486 3.5367112 -1.1944004 0
3.7898934 3.5737967 -1.2026268 0
3.757489 3.5671163 -1.1961325 0
3.7340462 3.5687399 -1.1924721 0
3.7517512 3.6098075 -1.2019848 0
3.7254941 3.6086762 -1.1974421 0
3.7631545 3.6696908 -1.2134947 0
3.7214518 3.6534467 -1.2039902 0
3.6718254 3.628983 -1.1918645 0
3.6888146 3.6703043 -1.2013668 0
3.673497 3.6796556 -1.2003894 0
3.6396494 3.6702807 -1.1933435 0
3.6507533 3.7062495 -1.2010517 0
3.6301665 3.7101498 -1.1983646 0
3.6065516 3.7108226 -1.1946695 0
3.6128137 3.7422888 -1.2008934 0
3.599426 3.7535255 -1.2006198 0
3.5878303 3.7666323 -1.2009577 0
3.5754557 3.7789304 -1.2010498 0
3.5649128 3.7931819 -1.2017738 0
3.5547163 3.8078353 -1.2026335 0
3.5341241 3.8113148 -1.1999832 0
3.5395095 3.842885 -1.2061799 0
3.5377786 3.8669438 -1.2100015 0
3.5073707 3.859611 -1.2040205 0
3.4739184 3.8486464 -1.1969599 0
3.476099 3.8771186 -1.2021835 0
3.4478667 3.8716679 -1.1969022 0
3.4744425 3.927948 -1.2106928 0
3.4444499 3.9204495 -1.2048151 0
3.3922346 3.8872263 -1.1911032 0
3.3988323 3.9212482 -1.1980295 0
3.4027772 3.9524975 -1.2040843 0
3.3560731 3.9247856 -1.1922077 0
3.3410525 3.9338462 -1.1915504 0
3.3282878 3.9455516 -1.1917093 0
3.3118498 3.9528806 -1.1905622 0
3.3312514 4.0032268 -1.2023551 0
3.3203208 4.0174103 -1.2032648 0
3.3073745 4.0291805 -1.203462 0
3.2691438 4.0099459 -1.1944364 0
3.2654753 4.0329804 -1.1980298 0
3.2412386 4.0306053 -1.1940892 0
3.2895627 4.1189008 -1.2169728 0
3.2514625 4.0993056 -1.2079555 0
3.2146046 4.0808649 -1.1993388 0
3.2012646 4.0920811 -1.1994739 0
3.1893897 4.1051893 -1.2001749 0
3.1662095 4.1036787 -1.196623 0
3.1643562 4.1298323 -1.201149 0
3.1547353 4.1459951 -1.2027668 0
3.1422269 4.1584158 -1.2033068 0
3.1082835 4.1422963 -1.1956201 0
3.1054051 4.1674933 -1.1998808 0
3.0962732 4.1844478 -1.2017666 0
3.0944095 4.2113867 -1.2065169 0
3.0673931 4.2040858 -1.2014722 0
3.0636928 4.2287188 -1.2055696 0
3.0094068 4.183239 -1.1897204 0
2.9982877 4.1973977 -1.1908815 0
3.0070667 4.2396703 -1.2000077 0
3.0158827 4.2824554 -1.2092489 0
2.9632018 4.2377605 -1.1938162 0
2.9410341 4.2362318 -1.1906009 0
2.9512246 4.2814817 -1.2005308 0
2.9421992 4.2991643 -1.2027162 0
2.9123044 4.2862458 -1.1963637 0
2.9014394 4.3012075 -1.1978178 0
2.9269619 4.3705802 -1.2143972 0
2.8844283 4.3384595 -1.2027785 0
2.8764975 4.3581533 -1.2055577 0
2.8505092 4.3504357 -1.2007723 0
2.8257265 4.344317 -1.1964617 0
2.8426516 4.4025626 -1.2098714 0
2.7981093 4.3656282 -1.1971366 0
2.783505 4.375062 -1.1971575 0
2.8030541 4.4385777 -1.2119591 0
2.7429197 4.3757844 -1.1922954 0
2.7272718 4.3834114 -1.1918753 0
2.7289066 4.4190016 -1.1990579 0
2.6933827 4.3943658 -1.1899163 0
2.7282152 4.4848771 -1.2119414 0
2.6893167 4.4545012 -1.2012895 0
2.6902387 4.4899836 -1.2084191 0
2.6851039 4.5156851 -1.2129067 0
2.6401603 4.4741812 -1.1993744 0
2.6331565 4.4966908 -1.203035 0
2.6174173 4.5043788 -1.2027373 0
2.5999718 4.5090909 -1.2016611 0
2.5846822 4.517509 -1.2015883 0
2.5589783 4.5075784 -1.196658 0
