# .PCD v0.7 - Point Cloud Data file format
VERSION 0.7
FIELDS x y z intensity
SIZE 4 4 4 4
TYPE F F F F
COUNT 1 1 1 1
WIDTH 1395
HEIGHT 1
VIEWPOINT 0 0 0 1 0 0 0
POINTS 1395
DATA ascii
-0.55734974 7.5424843 -1.1978675 0
-0.57951415 7.5001807 -1.1914508 0
-0.61101609 7.5770454 -1.20398 0
-0.63513821 7.5597329 -1.2015607 0
-0.66138172 7.5678673 -1.2031993 0
-0.68232852 7.51688 -1.1954499 0
-0.71291822 7.5718055 -1.2045584 0
-0.73947328 7.5813909 -1.2064708 0
-0.76477408 7.5777392 -1.2062911 0
-0.78508985 7.5263686 -1.1985257 0
-0.81157333 7.5353317 -1.2003796 0
-0.83405977 7.5076032 -1.1964011 0
-0.8648963 7.5542846 -1.2042956 0
-0.88810837 7.5334349 -1.2014397 0
-0.91088885 7.5100279 -1.1981871 0
-0.94086021 7.5453997 -1.204327 0
-0.96066523 7.4993615 -1.1974862 0
-0.98450679 7.4862361 -1.1959107 0
-1.0115771 7.4975386 -1.1982512 0
-1.0406924 7.5228977 -1.2028551 0
-1.0670536 7.5274377 -1.2041463 0
-1.0898343 7.5069323 -1.2014438 0
-1.1168667 7.5158148 -1.203458 0
-1.1403799 7.5009794 -1.2016879 0
-1.1659663 7.4999661 -1.2021451 0
-1.1931953 7.5091658 -1.2042543 0
-1.2197404 7.5135927 -1.2056133 0
-1.2358582 7.4547682 -1.1968325 0
-1.2635862 7.4667764 -1.1994339 0
-1.2939119 7.4931803 -1.2043654 0
-1.3196691 7.4924407 -1.2049509 0
-1.3345869 7.4312034 -1.1958154 0
-1.3678563 7.4723644 -1.2031702 0
-1.3889402 7.4464955 -1.199748 0
-1.423933 7.4946089 -1.2082623 0
-1.434823 7.4162412 -1.1963968 0
-1.4651885 7.4393568 -1.2009116 0
-1.4852513 7.4100966 -1.1969855 0
-1.5056227 7.3831806 -1.1934463 0
-1.5407428 7.4281058 -1.2015364 0
-1.5656945 7.4231606 -1.201579 0
-1.5810617 7.373507 -1.1943929 0
-1.6019034 7.3504004 -1.1915133 0
-1.6460239 7.4329772 -1.2057869 0
-1.6642318 7.3976154 -1.200949 0
-1.6865104 7.3809881 -1.1991609 0
-1.7138501 7.386507 -1.2009844 0
-1.7333306 7.3583241 -1.1973403 0
-1.7497602 7.3180432 -1.1917337 0
-1.7866055 7.3629045 -1.200008 0
-1.8149898 7.3719339 -1.2024647 0
-1.8329878 7.3389473 -1.1980798 0
-1.8539629 7.3184681 -1.1957446 0
-1.8735589 7.293016 -1.1926057 0
-1.9122655 7.3414593 -1.2015692 0
-1.9317633 7.3156695 -1.1984016 0
-1.9770128 7.3866124 -1.211102 0
-1.9862856 7.322865 -1.2017351 0
-2.0095325 7.3114552 -1.2009617 0
-2.0295136 7.2884393 -1.1982921 0
-2.0736377 7.351429 -1.2097845 0
-2.0831118 7.2913642 -1.2010425 0
-2.1093276 7.2904944 -1.2020576 0
-2.1358016 7.2903519 -1.203208 0
-2.1658342 7.3020358 -1.2063279 0
-2.1892176 7.2911134 -1.2057294 0
-2.1961818 7.2262516 -1.1962142 0
-2.219207 7.2149763 -1.1955727 0
-2.2576077 7.25319 -1.2031525 0
-2.2734084 7.218574 -1.1986681 0
-2.2936165 7.1984153 -1.1965909 0
-2.3228953 7.2066832 -1.1992532 0
-2.3412056 7.180944 -1.1962695 0
-2.379482 7.2161584 -1.2034581 0
-2.3948221 7.1816273 -1.1990316 0
-2.4304848 7.2079515 -1.2047805 0
-2.4360526 7.1452484 -1.1956583 0
-2.4675508 7.1589603 -1.1993306 0
-2.5061221 7.1924987 -1.2063501 0
-2.5134571 7.1364517 -1.1983564 0
-2.532562 7.1144772 -1.1960856 0
-2.5621998 7.1220641 -1.1987985 0
-2.5846899 7.1096525 -1.1981614 0
-2.6098793 7.1046667 -1.1987891 0
-2.6337976 7.09618 -1.1988404 0
-2.6674128 7.1135449 -1.2032782 0
-2.6702542 7.04914 -1.1938916 0
-2.7105584 7.0837517 -1.2012861 0
-2.7114706 7.0155725 -1.191259 0
-2.7606275 7.0721521 -1.2024313 0
-2.7708137 7.0285864 -1.196597 0
-2.7993598 7.0318074 -1.1987364 0
-2.819032 7.0127087 -1.1970851 0
-2.8641062 7.0563798 -1.2061723 0
-2.8706522 7.0050178 -1.1990314 0
-2.9026074 7.0158625 -1.2025467 0
-2.9194317 6.9900913 -1.1998004 0
-2.9440384 6.9830785 -1.2002842 0
-2.9775674 6.9969788 -1.2043827 0
-2.9923556 6.9668064 -1.2009094 0
-3.012485 6.9493251 -1.1996303 0
-3.0467045 6.9641843 -1.203952 0
-3.0557513 6.9215717 -1.1983497 0
-3.0816553 6.9173803 -1.1994061 0
-3.0972943 6.8902445 -1.1964949 0
-3.1314802 6.9042978 -1.2007518 0
-3.1468251 6.8767443 -1.197788 0
-3.1642475 6.8539901 -1.1956658 0
-3.2182651 6.9100213 -1.207316 0
-3.2219152 6.857688 -1.200053 0
-3.2584472 6.8754544 -1.205067 0
-3.2679639 6.8362145 -1.2001032 0
-3.287632 6.8185115 -1.1989236 0
-3.3141332 6.8149734 -1.2002486 0
-3.3247983 6.7790189 -1.1958729 0
-3.3562489 6.7855043 -1.1989954 0
-3.3737876 6.763803 -1.1971527 0
-3.3826747 6.7250738 -1.1922987 0
-3.436847 6.7760825 -1.2033782 0
-3.4266684 6.7002339 -1.1919417 0
-3.4800501 6.7487001 -1.2026327 0
-3.4724436 6.6788812 -1.1922587 0
-3.5113058 6.698657 -1.1978838 0
-3.5266981 6.6735115 -1.195495 0
-3.555094 6.6729879 -1.1975298 0
-3.5761201 6.6585598 -1.1970855 0
-3.6026287 6.6542969 -1.1984839 0
-3.63062 6.6526265 -1.2003688 0
-3.632726 6.603735 -1.193738 0
-3.6982422 6.6697822 -1.2079118 0
-3.738723 6.6898017 -1.2138008 0
-3.7290425 6.6202607 -1.2034448 0
-3.7247555 6.5611072 -1.1949553 0
-3.7667751 6.583612 -1.2013475 0
-3.7703032 6.5388193 -1.1954739 0
-3.8104997 6.5576243 -1.201241 0
-3.8475149 6.5705132 -1.2059582 0
-3.8437359 6.513876 -1.1979216 0
-3.8735359 6.5143752 -1.2003951 0
-3.8947608 6.5003586 -1.2002119 0
-3.9341207 6.5163951 -1.2056015 0
-3.9371877 6.4723301 -1.1998845 0
-3.9509828 6.4462309 -1.1974951 0
-3.9949903 6.4692483 -1.2042525 0
-4.0010939 6.4308019 -1.1995862 0
-4.0402722 6.4454908 -1.2048464 0
-4.0330091 6.3862238 -1.1962886 0
-4.0735965 6.4028416 -1.2019532 0
-4.1265278 6.4382739 -1.211195 0
-4.0984221 6.3474765 -1.1966921 0
-4.1467185 6.375268 -1.2045461 0
-4.1601443 6.3492322 -1.2022556 0
-4.1285028 6.2550907 -1.1870439 0
-4.185555 6.295517 -1.197372 0
-4.1935725 6.2619367 -1.1936527 0
-4.2360826 6.2797709 -1.1997529 0
-4.2594552 6.2689791 -1.2004129 0
-4.2776899 6.2506299 -1.1996388 0
-4.2660522 6.1889997 -1.1905491 0
-4.3404751 6.2520056 -1.2054619 0
-4.3203092 6.1786342 -1.1941012 0
-4.3733344 6.2100277 -1.2029955 0
-4.3467617 6.1285439 -1.1900271 0
-4.4249945 6.1947246 -1.2057521 0
-4.4029183 6.1203299 -1.1941384 0
-4.4562998 6.1509252 -1.2030163 0
-4.457787 6.1097565 -1.1978809 0
-4.4806128 6.0979958 -1.1985137 0
-4.4758129 6.0488558 -1.1917983 0
-4.498363 6.0368943 -1.1924065 0
-4.5748725 6.0967999 -1.207262 0
-4.5652013 6.0416093 -1.1993576 0
-4.5881271 6.0298114 -1.2000625 0
-4.6459131 6.0634604 -1.2098527 0
-4.6161451 5.9829521 -1.1968702 0
-4.6522012 5.9880643 -1.2010065 0
-4.6720505 5.9721756 -1.2009548 0
-4.6857481 5.9484801 -1.1993424 0
-4.7396231 5.9755478 -1.207997 0
-4.719193 5.9089899 -1.1977338 0
-4.7463126 5.9022546 -1.1995875 0
-4.7798638 5.9033375 -1.203058 0
-4.7822013 5.8659005 -1.1986895 0
-4.8155818 5.8665724 -1.2021194 0
-4.8657651 5.8873467 -1.2097124 0
-4.8505182 5.828989 -1.2010561 0
-4.9009914 5.8496428 -1.2086909 0
-4.8915467 5.7987633 -1.2015599 0
-4.938746 5.8150454 -1.2083579 0
-4.9680223 5.8099232 -1.2107481 0
-4.9614882 5.7630496 -1.2044398 0
-4.9684052 5.7321024 -1.2014468 0
-4.9830742 5.7102304 -1.2003574 0
-5.0389977 5.7353835 -1.2091897 0
-5.0084691 5.6622353 -1.1973015 0
-5.0325494 5.651165 -1.1985217 0
-5.0502486 5.6328998 -1.1982324 0
-5.0843401 5.6328125 -1.2018334 0
-5.0981579 5.6101885 -1.2006465 0
-5.1194029 5.595757 -1.2012247 0
-5.1047583 5.5423226 -1.1934215 0
-5.1511254 5.555171 -1.1999003 0
-5.1707568 5.5389776 -1.2001406 0
-5.1823282 5.5141931 -1.1985284 0
-5.2013807 5.4974141 -1.1986651 0
-5.2438245 5.5051837 -1.2041861 0
-5.2112012 5.4343338 -1.1925037 0
-5.2759881 5.4650965 -1.2031293 0
-5.311347 5.4649353 -1.2070074 0
-5.3485146 5.4663873 -1.2112819 0
-5.3138576 5.3946638 -1.1993301 0
-5.3121414 5.3568773 -1.1948824 0
-5.3606324 5.369648 -1.2017332 0
-5.4054956 5.3783998 -1.2077413 0
-5.3940907 5.3311815 -1.2011926 0
-5.4436302 5.3441825 -1.2082275 0
-5.4091778 5.2748609 -1.1966486 0
-5.4295335 5.2593112 -1.197244 0
-5.4437003 5.237771 -1.1964889 0
-5.5332041 5.2882776 -1.2122573 0
-5.4882612 5.210227 -1.1985768 0
-5.517272 5.2027092 -1.2010962 0
-5.5240264 5.1741986 -1.1987832 0
-5.5123153 5.1286407 -1.1925035 0
-5.5679407 5.1456742 -1.200798 0
-5.5917568 5.1330314 -1.2022159 0
-5.6011887 5.1071901 -1.2005554 0
-5.6377053 5.1059747 -1.2047063 0
-5.6340103 5.0683475 -1.2002786 0
-5.6044979 5.0079026 -1.1904075 0
-5.6643157 5.0272999 -1.199526 0
-5.6709676 4.9993134 -1.1973784 0
-5.7135301 5.0028911 -1.2028166 0
-5.7119007 4.9677291 -1.1989604 0
-5.7611918 4.9767694 -1.2057976 0
-5.7386842 4.9238248 -1.1976249 0
-5.7498031 4.8999906 -1.1965101 0
-5.7953591 4.9053664 -1.2025608 0
-5.7666435 4.8479681 -1.1932225 0
-5.8262515 4.8648329 -1.2021748 0
-5.8271918 4.8325515 -1.1990188 0
-5.8492799 4.8178616 -1.2002332 0
-5.8390422 4.7766604 -1.1948396 0
-5.8917313 4.7868795 -1.2023302 0
-5.9303722 4.7853556 -1.2069348 0
-5.9175572 4.7423434 -1.2010839 0
-5.9443135 4.7311435 -1.2032882 0
-5.9559345 4.7078605 -1.2024387 0
-5.9900336 4.7022681 -1.2061331 0
-5.9466476 4.6360693 -1.1942605 0
-6.0019732 4.6469316 -1.2022358 0
-5.9934025 4.6082382 -1.1974174 0
-6.0099778 4.5890021 -1.1976483 0
-6.0043054 4.5528841 -1.1934693 0
-6.0442157 4.5513105 -1.1983622 0
-6.0722361 4.5405869 -1.2008926 0
-6.088891 4.5212903 -1.2011817 0
-6.1012306 4.4987965 -1.2006335 0
-6.0993872 4.4659462 -1.1973175 0
-6.1387691 4.4632425 -1.202104 0
-6.1097269 4.4108896 -1.1935141 0
-6.1298828 4.3942523 -1.1945667 0
-6.1815376 4.3999801 -1.2017514 0
-6.1825976 4.3695774 -1.1991025 0
-6.2612386 4.3937526 -1.2114909 0
-6.2465243 4.3522439 -1.2058135 0
-6.2354164 4.3135214 -1.2008706 0
-6.238183 4.2845817 -1.1986301 0
-6.2593417 4.2682986 -1.1999391 0
-6.2629561 4.2400703 -1.1979001 0
-6.3246584 4.2509885 -1.2069688 0
-6.2593374 4.1766853 -1.1918241 0
-6.2962093 4.1708479 -1.1961753 0
-6.3654418 4.1860704 -1.2066551 0
-6.3540626 4.1481366 -1.2018548 0
-6.3062792 4.086853 -1.1902183 0
-6.354876 4.0881572 -1.1967965 0
-6.356668 4.0592418 -1.1945642 0
-6.3855944 4.0476375 -1.1974431 0
-6.3655262 4.0050626 -1.1911551 0
-6.4189358 4.0086884 -1.1986276 0
-6.4287686 3.9849308 -1.197962 0
-6.480176 3.9867837 -1.2050439 0
-6.4695663 3.9504161 -1.2006011 0
-6.4735794 3.9231298 -1.1988981 0
-6.5382237 3.932394 -1.2084216 0
-6.4979353 3.8785548 -1.198565 0
-6.5393863 3.8736188 -1.2038084 0
-6.5360308 3.8420866 -1.2008127 0
-6.5569119 3.8248386 -1.2022861 0
-6.6049199 3.8232205 -1.2087318 0
-6.5858932 3.782784 -1.202922 0
-6.5473132 3.7314866 -1.1935834 0
-6.6387792 3.7541831 -1.2079563 0
-6.6167054 3.7124767 -1.2016683 0
-6.6465783 3.6999927 -1.2048339 0
-6.6609063 3.6787694 -1.2051884 0
-6.668406 3.6537876 -1.2043221 0
-6.6492834 3.6143761 -1.1986732 0
-6.6540432 3.588114 -1.1973557 0
-6.7205505 3.594945 -1.2071477 0
-6.7205539 3.5660183 -1.204994 0
-6.7312202 3.5428066 -1.2047698 0
-6.7138739 3.504981 -1.199555 0
-6.731842 3.4856894 -1.2006706 0
-6.7467656 3.4647808 -1.2012537 0
-6.7627831 3.4444015 -1.2020426 0
-6.8205967 3.4450955 -1.2102586 0
-6.7791944 3.3957028 -1.2008852 0
-6.7828741 3.3691459 -1.1995293 0
-6.7635803 3.3313372 -1.1941352 0
-6.8366857 3.3389087 -1.2050591 0
-6.8316798 3.3081415 -1.2022148 0
-6.8194995 3.2740629 -1.1981329 0
-6.8378673 3.2547162 -1.1994359 0
-6.900425 3.2561603 -1.2084875 0
-6.8512774 3.2049267 -1.1979915 0
-6.932013 3.2144103 -1.2102174 0
-6.902009 3.1724236 -1.2031153 0
-6.9229441 3.1539743 -1.2049146 0
-6.8911924 3.1116509 -1.1975658 0
-6.8584418 3.0692208 -1.1900793 0
-6.9458876 3.0804434 -1.203454 0
-6.9570227 3.0575094 -1.2036004 0
-6.9084206 3.0085537 -1.1934402 0
-6.970695 3.0079103 -1.2024492 0
-7.0349698 3.0077069 -1.2117903 0
-6.9616852 2.9488065 -1.1974571 0
-6.9760189 2.9273312 -1.1982275 0
-7.0535731 2.9321005 -1.2098533 0
-7.016108 2.8889763 -1.201759 0
-7.0509634 2.8757174 -1.2060708 0
-7.0322194 2.8406107 -1.2012289 0
-7.0078773 2.8034847 -1.1954584 0
-6.9916434 2.7698333 -1.1910982 0
-7.0767136 2.7761207 -1.2039983 0
-7.0185399 2.7261822 -1.1925392 0
-7.0346775 2.7053411 -1.1937332 0
-7.0934038 2.7006605 -1.2021554 0
-7.1122174 2.6805553 -1.2038139 0
-7.1320138 2.6607418 -1.2056478 0
-7.1010151 2.6220887 -1.1989146 0
-7.116478 2.6007185 -1.2000464 0
-7.1778111 2.595886 -1.2089145 0
-7.1586552 2.5618498 -1.2042347 0
-7.1899185 2.5458767 -1.2080512 0
-7.1628447 2.5092952 -1.2020819 0
-7.1842475 2.4897811 -1.2042661 0
-7.1722412 2.4587162 -1.2008649 0
-7.159483 2.4275477 -1.1973592 0
-7.1654553 2.4028165 -1.1970041 0
-7.1997371 2.3874886 -1.2013869 0
-7.1974745 2.3599825 -1.1996822 0
-7.2119517 2.3379786 -1.2007819 0
-7.2217493 2.3144259 -1.2011145 0
-7.234848 2.291904 -1.2020082 0
-7.246985 2.2690408 -1.202754 0
-7.2124553 2.2317047 -1.1957747 0
-7.2242527 2.2088418 -1.196496 0
-7.269208 2.1959634 -1.2027154 0
-7.2873516 2.1748085 -1.2045041 0
-7.3111486 2.1552408 -1.2072363 0
-7.3290725 2.1338425 -1.2090079 0
-7.2012544 2.0704627 -1.186771 0
-7.3186755 2.0776818 -1.2049673 0
-7.2971778 2.045166 -1.2002921 0
-7.2631044 2.0093763 -1.1935726 0
-7.3084335 1.9955618 -1.1999155 0
-7.3544378 1.9816509 -1.2063709 0
-7.3254523 1.9475203 -1.2005385 0
-7.3396616 1.9249734 -1.2018027 0
-7.3179684 1.8930833 -1.1972047 0
-7.3560114 1.8766335 -1.2023923 0
-7.3043332 1.8373878 -1.1929314 0
-7.3869452 1.8318565 -1.2054136 0
-7.3922982 1.8068966 -1.2052919 0
-7.3556952 1.7718352 -1.1983484 0
-7.3881488 1.7534652 -1.2026711 0
-7.3955984 1.7290612 -1.2029333 0
-7.410099 1.7062691 -1.2043546 0
-7.3660316 1.6701355 -1.1962755 0
-7.4083872 1.6536429 -1.2022471 0
-7.3941107 1.6244493 -1.1990396 0
-7.4493546 1.6104234 -1.2071157 0
-7.4102345 1.5759788 -1.1999136 0
-7.4111319 1.550216 -1.1992105 0
-7.3720737 1.5162653 -1.1920612 0
-7.4700203 1.5103234 -1.2070735 0
-7.4080124 1.4719508 -1.1962495 0
-7.4541669 1.4551594 -1.2029078 0
-7.4687719 1.4320319 -1.2044832 0
-7.3937526 1.391963 -1.1916255 0
-7.4850888 1.383189 -1.2055917 0
-7.4803743 1.3563969 -1.2040931 0
-7.4709949 1.3288393 -1.2018594 0
-7.4607854 1.3012326 -1.1995083 0
-7.4887581 1.2802541 -1.2033088 0
-7.4437585 1.2468888 -1.1953996 0
-7.4888682 1.2286462 -1.2019756 0
-7.4664502 1.1992747 -1.1977253 0
-7.4181199 1.1660122 -1.1893387 0
-7.4869537 1.1511227 -1.1997492 0
-7.4424658 1.1187525 -1.1920124 0
-7.4807901 1.0988778 -1.1975538 0
-7.4943089 1.075207 -1.1991341 0
-7.4883347 1.0487382 -1.1976088 0
-7.5339994 1.02939 -1.2043532 0
-7.5621338 1.007418 -1.2083039 0
-7.4801164 0.9709785 -1.194672 0
-7.5670938 0.95648134 -1.2080444 0
-7.5279398 0.92589998 -1.2012913 0
-7.4960718 0.89647764 -1.1957196 0
-7.5720811 0.87982714 -1.2073667 0
-7.5226045 0.8485257 -1.1990173 0
-7.523304 0.82306898 -1.1986822 0
-7.5440407 0.79975039 -1.2015522 0
-7.6065993 0.78060114 -1.2110924 0
-7.5804896 0.75224686 -1.206527 0
-7.499023 0.7187804 -1.1931702 0
-7.5407033 0.69726872 -1.1994233 0
-7.5168238 0.66965038 -1.1952611 0
-7.5541425 0.64745384 -1.2008433 0
-7.5704842 0.6232928 -1.2031021 0
-7.5557537 0.59658217 -1.2004366 0
-7.580945 0.57300192 -1.2041268 0
-7.5440154 0.54477876 -1.1979643 0
-7.5491009 0.51970929 -1.1984884 0
-7.5470715 0.49415144 -1.1978964 0
-7.5528374 0.46910265 -1.1985552 0
-7.5583439 0.44401035 -1.1991861 0
-7.603159 0.42106792 -1.2060655 0
-7.538147 0.3921206 -1.1955377 0
-7.558219 0.36775914 -1.1985186 0
-7.5708547 0.34293422 -1.2003334 0
-7.5725899 0.31757498 -1.2004329 0
-7.5567946 0.29153493 -1.1977673 0
-7.564867 0.26644817 -1.1988983 0
-7.5256286 0.23980564 -1.1925457 0
-7.6237259 0.21734726 -1.2079684 0
-7.586329 0.19082719 -1.2019347 0
-7.6183763 0.16607618 -1.2069172 0
-7.5292435 0.13887872 -1.1927161 0
-7.6063643 0.11479128 -1.2048651 0
-7.5860381 0.089045323 -1.2015914 0
-7.5682659 0.063459106 -1.198736 0
-7.6229434 0.038358059 -1.2073691 0
-7.5487552 0.012674843 -1.1956053 0
-7.5292892 1.9979645e-05 -1.1925204 0
-9.7677832 -0.016400732 -1.1993328 0
-9.7629728 -0.049126521 -1.1987557 0
-9.7720089 -0.081937253 -1.1998922 0
-9.7927437 -0.11494775 -1.2024788 0
-9.7733297 -0.14749399 -1.2001488 0
-9.790904 -0.18059559 -1.2023746 0
-9.787015 -0.21335125 -1.2019781 0
-9.7908554 -0.24628004 -1.2025443 0
-9.7869158 -0.27901834 -1.2021686 0
-9.7264519 -0.3099353 -1.1948625 0
-9.7934704 -0.34494358 -1.2032309 0
-9.7576485 -0.37644207 -1.1989781 0
-9.7435713 -0.40862036 -1.1974099 0
-9.7333984 -0.44089016 -1.1963347 0
-9.7548838 -0.47464192 -1.1991643 0
-9.7693615 -0.50818431 -1.2011467 0
-9.7164173 -0.53810161 -1.1948524 0
-9.7721405 -0.57405847 -1.2019347 0
-9.7652979 -0.60651731 -1.2013364 0
-9.6813431 -0.63389486 -1.191263 0
-9.7357388 -0.67024595 -1.1982261 0
-9.7219086 -0.7020517 -1.1968068 0
-9.7831268 -0.73945266 -1.2046415 0
-9.7117243 -0.76681191 -1.1961594 0
-9.7483187 -0.80259818 -1.2009912 0
-9.7232819 -0.83336747 -1.1982442 0
-9.7491236 -0.86851901 -1.2017808 0
-9.7080278 -0.8976754 -1.1970792 0
-9.7539883 -0.93491858 -1.2031263 0
-9.7115984 -0.96372658 -1.1982894 0
-9.7221766 -0.99770504 -1.2000006 0
-9.6932096 -1.0275856 -1.1968439 0
-9.7429762 -1.0659069 -1.2034231 0
-9.7140207 -1.0957104 -1.2002937 0
-9.7196884 -1.1293653 -1.2014551 0
-9.7194166 -1.1623741 -1.2018965 0
-9.7419624 -1.1982141 -1.2051744 0
-9.6982527 -1.22586 -1.2002689 0
-9.6537542 -1.253134 -1.1952749 0
-9.6920042 -1.2911566 -1.2005401 0
-9.7367449 -1.3303568 -1.2066278 0
-9.731101 -1.3628367 -1.2064879 0
-9.7150698 -1.393819 -1.2050729 0
-9.659853 -1.4189675 -1.1988071 0
-9.6467667 -1.4501033 -1.1977797 0
-9.6970158 -1.4909207 -1.2046328 0
-9.6912203 -1.5233079 -1.2045405 0
-9.6237736 -1.5457878 -1.1967949 0
-9.6432819 -1.5821056 -1.1998738 0
-9.6376333 -1.6143802 -1.1998377 0
-9.5818987 -1.6380907 -1.1935761 0
-9.5891342 -1.6724371 -1.1951691 0
-9.6347876 -1.7137054 -1.2015687 0
-9.5718718 -1.7356427 -1.1944414 0
-9.5767584 -1.769714 -1.1957849 0
-9.5759783 -1.8027933 -1.1964355 0
-9.5684118 -1.8346082 -1.1962519 0
-9.5942993 -1.8729439 -1.2002667 0
-9.6171856 -1.910907 -1.2039245 0
-9.6038494 -1.941751 -1.2030634 0
-9.5571079 -1.9656764 -1.198027 0
-9.5463409 -1.9968461 -1.1975098 0
-9.5893059 -2.0394149 -1.2037504 0
-9.5012245 -2.0540028 -1.1935513 0
-9.5855808 -2.1059043 -1.2050284 0
-9.5194597 -2.12486 -1.197605 0
-9.5453043 -2.1642525 -1.2017626 0
-9.5825577 -2.2065051 -1.2073773 0
-9.486414 -2.2178855 -1.1961938 0
-9.5373564 -2.2635472 -1.2035676 0
-9.5014105 -2.2886937 -1.199993 0
-9.4616222 -2.3127005 -1.1959405 0
-9.5182095 -2.3603795 -1.2040867 0
-9.4366293 -2.3737619 -1.1947665 0
-9.4579554 -2.4128723 -1.1984842 0
-9.465519 -2.4486327 -1.2004762 0
-9.4929914 -2.4897273 -1.2050123 0
-9.4760485 -2.5192707 -1.2039272 0
-9.4296026 -2.5408034 -1.1991018 0
-9.4272585 -2.5741053 -1.1998944 0
-9.4213724 -2.6064725 -1.2002509 0
-9.4297104 -2.6428468 -1.2024351 0
-9.4290018 -2.6767776 -1.2034825 0
-9.3962927 -2.7015674 -1.200457 0
-9.3456564 -2.7209661 -1.1951466 0
-9.3868675 -2.7671385 -1.2015965 0
-9.3691397 -2.7960889 -1.2005204 0
-9.3364782 -2.8204675 -1.1975403 0
-9.3766747 -2.8669529 -1.2039223 0
-9.3312588 -2.8873127 -1.1993272 0
-9.315238 -2.9166136 -1.1985183 0
-9.3548403 -2.9634895 -1.2048852 0
-9.3237047 -2.9880607 -1.2021586 0
-9.2847223 -3.009932 -1.1984268 0
-9.269002 -3.0392163 -1.1977062 0
-9.2895432 -3.0804844 -1.2016883 0
-9.2447004 -3.1000569 -1.1972253 0
-9.3120289 -3.1574059 -1.2073088 0
-9.2742395 -3.179302 -1.2037847 0
-9.2362528 -3.2009265 -1.2002404 0
-9.1899729 -3.2194409 -1.1956223 0
-9.2054663 -3.2595615 -1.199053 0
-9.1833458 -3.2864208 -1.1976004 0
-9.246151 -3.3439097 -1.2072461 0
-9.2136583 -3.3671336 -1.2044709 0
-9.1869488 -3.3923314 -1.2024593 0
-9.1689901 -3.4206769 -1.2016031 0
-9.1164646 -3.435945 -1.1962227 0
-9.201128 -3.5031309 -1.2088662 0
-9.1088381 -3.5030055 -1.1982772 0
-9.097908 -3.5338624 -1.1983913 0
-9.1142111 -3.5754097 -1.2021111 0
-9.0995684 -3.6049161 -1.2017672 0
-9.0807705 -3.6327407 -1.2008865 0
-9.0570269 -3.6585159 -1.1993619 0
-9.031415 -3.6834395 -1.1975989 0
-8.9895248 -3.7015572 -1.1936831 0
-9.0279274 -3.7528198 -1.2004465 0
-9.0710869 -3.8064797 -1.2078757 0
-8.9468632 -3.7896812 -1.1930196 0
-8.9909277 -3.8439503 -1.2006073 0
-8.9558735 -3.8645303 -1.1976497 0
-8.9283047 -3.8881946 -1.1956997 0
-8.954565 -3.9354002 -1.200977 0
-8.9481773 -3.968442 -1.2018979 0
-8.9402637 -4.0008564 -1.2026299 0
-8.8971472 -4.0174198 -1.1986352 0
-8.9077024 -4.0581961 -1.2018836 0
-8.8384476 -4.0624838 -1.1943704 0
-8.8893566 -4.1220407 -1.2031107 0
-8.8427401 -4.1365037 -1.1986718 0
-8.8002968 -4.152668 -1.1947991 0
-8.8151197 -4.195857 -1.1987149 0
-8.8366604 -4.2425084 -1.2035716 0
-8.7693348 -4.2464228 -1.1963341 0
-8.7681637 -4.2822061 -1.1981263 0
-8.7926121 -4.330718 -1.2034445 0
-8.7454453 -4.3439817 -1.1989753 0
-8.7543755 -4.3850727 -1.2022086 0
-8.7065468 -4.3976922 -1.1976585 0
-8.7031593 -4.4326687 -1.1992303 0
-8.6844254 -4.4598603 -1.1987026 0
-8.7055578 -4.5076618 -1.2036988 0
-8.6496725 -4.5155654 -1.1980582 0
-8.6631165 -4.5596108 -1.202031 0
-8.6541634 -4.5920177 -1.2029183 0
-8.6683197 -4.6368423 -1.2070402 0
-8.632596 -4.6550255 -1.2042323 0
-8.6226616 -4.6870527 -1.205032 0
-8.568903 -4.695118 -1.1997123 0
-8.5428381 -4.7181463 -1.1982709 0
-8.5837421 -4.7783656 -1.2062489 0
-8.5571547 -4.8012171 -1.2047681 0
-8.5148077 -4.815064 -1.2010722 0
-8.4838648 -4.8351784 -1.1989875 0
-8.4581461 -4.8581624 -1.197648 0
-8.4694796 -4.9025102 -1.2015735 0
-8.4419975 -4.9244642 -1.2000103 0
-8.4386969 -4.9605341 -1.2018985 0
-8.4011259 -4.9764247 -1.1989172 0
-8.3862457 -5.0056696 -1.1991819 0
-8.4064064 -5.0560069 -1.2044821 0
-8.3738489 -5.0747347 -1.2022483 0
-8.4064178 -5.1330872 -1.2093884 0
-8.3336906 -5.1271167 -1.2013917 0
-8.290246 -5.1387849 -1.197606 0
-8.3158293 -5.1933174 -1.2038102 0
-8.2547522 -5.1937261 -1.1974828 0
-8.2498198 -5.2293143 -1.199304 0
-8.2373028 -5.2601776 -1.2000414 0
-8.2017365 -5.2762613 -1.1974305 0
-8.1891022 -5.3070374 -1.198177 0
-8.1623974 -5.3286762 -1.196877 0
-8.1911964 -5.3867316 -1.2037414 0
-8.1149044 -5.3756204 -1.1951718 0
-8.1131096 -5.4136577 -1.1975741 0
-8.1522522 -5.4793682 -1.206057 0
-8.1127138 -5.4923706 -1.2029251 0
-8.0594263 -5.4957919 -1.1977494 0
-8.0507975 -5.5295429 -1.1992155 0
-8.0331497 -5.5571527 -1.1993554 0
-7.9696136 -5.5527997 -1.1926423 0
-7.9978619 -5.6124082 -1.1996789 0
-7.9372473 -5.6096835 -1.1934012 0
-8.0215616 -5.7096977 -1.2089498 0
-7.9294271 -5.684269 -1.1979296 0
-7.8934746 -5.698658 -1.1953779 0
-7.8380651 -5.698729 -1.1898736 0
-7.8761597 -5.766892 -1.1985852 0
-7.8548985 -5.7918787 -1.1982981 0
-7.8830371 -5.853529 -1.205578 0
-7.827713 -5.8532658 -1.2001117 0
-7.8566203 -5.9160557 -1.2075779 0
-7.8154912 -5.9262514 -1.2043035 0
-7.7943316 -5.9514709 -1.2041111 0
-7.7605524 -5.9669738 -1.2019765 0
-7.7157211 -5.973773 -1.1981283 0
-7.6891513 -5.9945431 -1.1971167 0
-7.6549802 -6.0092769 -1.1949269 0
-7.6530972 -6.0493803 -1.1977923 0
-7.6758194 -6.1092677 -1.2045476 0
-7.6338329 -6.1177707 -1.2011709 0
-7.6251688 -6.152926 -1.2030469 0
-7.553288 -6.1368518 -1.1949457 0
-7.5837908 -6.2039618 -1.2030553 0
-7.5456872 -6.2151375 -1.2003096 0
-7.4747281 -6.1988707 -1.1923214 0
-7.5465007 -6.3012156 -1.2071334 0
-7.500237 -6.3053851 -1.203108 0
-7.4643316 -6.3180351 -1.2007396 0
-7.3939724 -6.3011541 -1.1928133 0
-7.4259357 -6.3714962 -1.2014091 0
-7.4048657 -6.396647 -1.2014633 0
-7.3368516 -6.3809743 -1.1938925 0
-7.3722548 -6.4553065 -1.2031686 0
-7.3399911 -6.4706621 -1.2014371 0
-7.3163671 -6.4935598 -1.2011272 0
-7.2768583 -6.5022411 -1.1982132 0
-7.2729301 -6.5427175 -1.2011718 0
-7.2457142 -6.5623212 -1.200304 0
-7.2101293 -6.5742297 -1.1980538 0
-7.1968069 -6.6064091 -1.1995139 0
-7.1388588 -6.5974555 -1.1935357 0
-7.1450429 -6.6477251 -1.1982893 0
-7.1189055 -6.668076 -1.1976485 0
-7.1169257 -6.7111602 -1.2010943 0
-7.080472 -6.7217765 -1.1987388 0
-7.0824561 -6.7689514 -1.2029103 0
-7.0535464 -6.7867184 -1.2018582 0
-6.9933977 -6.7741461 -1.1954726 0
-6.9948478 -6.8211565 -1.1996232 0
-6.9897985 -6.8621049 -1.2026964 0
-6.9191551 -6.83846 -1.1944796 0
-6.9066014 -6.8719811 -1.1962832 0
-6.8988433 -6.9104457 -1.1989459 0
-6.9200559 -6.9783325 -1.2066919 0
-6.8476963 -6.9518275 -1.1981318 0
-6.8517056 -7.0027061 -1.2029345 0
-6.7895155 -6.9858479 -1.1961215 0
-6.7988334 -7.0425253 -1.2019161 0
-6.7206869 -7.0084519 -1.1922485 0
-6.7503533 -7.0867996 -1.2017198 0
-6.683713 -7.0641122 -1.1940659 0
-6.7016616 -7.1308212 -1.201537 0
-6.669126 -7.1440496 -1.1999916 0
-6.6317687 -7.1519542 -1.1975777 0
-6.6085014 -7.174962 -1.1977135 0
-6.6130657 -7.2284031 -1.2029264 0
-6.5685506 -7.2282591 -1.1992307 0
-6.5324359 -7.2371216 -1.1970605 0
-6.5222058 -7.2746778 -1.1996486 0
-6.5185642 -7.3198452 -1.2034862 0
-6.5022879 -7.3510456 -1.2050247 0
-6.4223833 -7.3099523 -1.194752 0
-6.4480252 -7.3889546 -1.204124 0
-6.3733168 -7.3529639 -1.1947699 0
-6.3874125 -7.4193416 -1.2020688 0
-6.3767676 -7.4573998 -1.2047642 0
-6.3324747 -7.456068 -1.2011123 0
-6.341238 -7.517324 -1.2075484 0
-6.2772994 -7.492353 -1.2001495 0
-6.2751269 -7.540977 -1.2045614 0
-6.2256255 -7.5327139 -1.1999005 0
-6.2121892 -7.567987 -1.2021947 0
-6.1988611 -7.603591 -1.204542 0
-6.1357241 -7.5778837 -1.1972039 0
-6.116127 -7.6056809 -1.198349 0
-6.0754852 -7.6072288 -1.1953766 0
-6.0465374 -7.6232591 -1.1947033 0
-6.0440702 -7.6728477 -1.1992922 0
-6.0175996 -7.6921597 -1.1991503 0
-5.9788032 -7.6955957 -1.1965543 0
-5.9474683 -7.7084703 -1.1954489 0
-5.9709134 -7.7927403 -1.2054063 0
-5.9102712 -7.7674003 -1.1984146 0
-5.9046826 -7.8142858 -1.2025871 0
-5.8342409 -7.7751236 -1.1935432 0
-5.8490162 -7.8494983 -1.2019432 0
-5.8387356 -7.8907828 -1.2052604 0
-5.7902761 -7.8804131 -1.2007045 0
-5.788579 -7.9337139 -1.2058618 0
-5.7018423 -7.8701177 -1.1932832 0
-5.6825075 -7.8990388 -1.1947727 0
-5.6558104 -7.9177928 -1.1947345 0
-5.6839628 -8.0138769 -1.2063504 0
-5.6633883 -8.041872 -1.2076995 0
-5.6110935 -8.0246334 -1.2022785 0
-5.5661845 -8.0175133 -1.1984091 0
-5.5333023 -8.0274706 -1.1971176 0
-5.5077558 -8.0480213 -1.1974217 0
-5.5011606 -8.0964956 -1.2018828 0
-5.4790697 -8.1224346 -1.2029996 0
-5.4504948 -8.1388016 -1.2027103 0
-5.4306073 -8.1682072 -1.2043582 0
-5.3794346 -8.1503763 -1.1990632 0
-5.3719101 -8.1986351 -1.2035064 0
-5.3377957 -8.206459 -1.202021 0
-5.2857337 -8.1863394 -1.1964715 0
-5.2528911 -8.1956425 -1.1952504 0
-5.2377715 -8.2326813 -1.1980841 0
-5.2201614 -8.2660656 -1.2003888 0
-5.1968327 -8.2905645 -1.2014095 0
-5.1620884 -8.2968225 -1.1998014 0
-5.1276698 -8.303441 -1.1982657 0
-5.1005211 -8.3217611 -1.1984348 0
-5.1079392 -8.396925 -1.206786 0
-5.0636668 -8.387351 -1.2029635 0
-5.0222168 -8.3820839 -1.1997862 0
-5.0051756 -8.4175262 -1.2024505 0
-4.9521337 -8.3922472 -1.1964607 0
-4.9467745 -8.447751 -1.2020024 0
-4.901525 -8.4352083 -1.1978728 0
-4.8848433 -8.4717607 -1.2007309 0
-4.8264828 -8.4357805 -1.193331 0
-4.8307414 -8.5092859 -1.2014313 0
-4.8321242 -8.5785885 -1.2089218 0
-4.7528038 -8.5043249 -1.1962041 0
-4.732316 -8.5347347 -1.1982429 0
-4.691031 -8.5275698 -1.1950221 0
-4.657371 -8.5340118 -1.1937298 0
-4.6449685 -8.5795689 -1.1979171 0
-4.6370826 -8.6340199 -1.2033423 0
-4.5700817 -8.5781412 -1.1934121 0
-4.5762758 -8.6596098 -1.2026048 0
-4.5450025 -8.670681 -1.2020193 0
-4.525352 -8.7040405 -1.2045337 0
-4.4992146 -8.7251196 -1.2053564 0
-4.4452319 -8.6918516 -1.1986948 0
-4.4225392 -8.719471 -1.2004522 0
-4.3814936 -8.7108183 -1.1972317 0
-4.3602514 -8.7414751 -1.1994292 0
-4.3407903 -8.7760038 -1.2021631 0
-4.2825556 -8.7318153 -1.1941365 0
-4.2623768 -8.7648811 -1.1966974 0
-4.2477522 -8.8097906 -1.2008777 0
-4.2127457 -8.8125925 -1.1993276 0
-4.1644602 -8.787178 -1.1939619 0
-4.1429648 -8.8180971 -1.1962689 0
-4.1293125 -8.8661547 -1.2009035 0
-4.0774479 -8.8320475 -1.1944253 0
-4.0666218 -8.8867722 -1.1999756 0
-4.0275364 -8.8799257 -1.1972209 0
-4.0065689 -8.9130173 -1.1998645 0
-3.9769413 -8.9270258 -1.1999487 0
-3.9269145 -8.8948402 -1.1938459 0
-3.9011321 -8.917243 -1.1950904 0
-3.9031568 -9.0039635 -1.204952 0
-3.8506198 -8.9650192 -1.1980058 0
-3.8167119 -8.9688826 -1.1968054 0
-3.7749972 -8.9540615 -1.193132 0
-3.7818892 -9.0551014 -1.2048993 0
-3.7105961 -8.9688435 -1.1917593 0
-3.6963513 -9.0199032 -1.1968906 0
-3.6711171 -9.0446348 -1.1985323 0
-3.6466005 -9.071393 -1.2004511 0
-3.643826 -9.1530504 -1.2096336 0
-3.582253 -9.0869246 -1.1993006 0
-3.5512931 -9.0976725 -1.1991409 0
-3.5179908 -9.1023369 -1.1981943 0
-3.5013878 -9.1504984 -1.2029821 0
-3.463666 -9.1436491 -1.2005481 0
-3.4214678 -9.1244831 -1.1965188 0
-3.4051344 -9.1743736 -1.2015572 0
-3.3722053 -9.1798868 -1.2007916 0
-3.3307676 -9.1618738 -1.1969678 0
-3.3111975 -9.2040291 -1.2010181 0
-3.2777588 -9.2078857 -1.2000805 0
-3.2614083 -9.260107 -1.2054548 0
-3.218549 -9.2371426 -1.2010539 0
-3.1938188 -9.2660389 -1.2034119 0
-3.1430726 -9.2190266 -1.195931 0
-3.105094 -9.208601 -1.1932212 0
-3.090909 -9.269063 -1.1997061 0
-3.0793328 -9.3385668 -1.207359 0
-3.0173814 -9.2549105 -1.1952286 0
-2.994076 -9.2889919 -1.1983269 0
-2.9610903 -9.293252 -1.1975889 0
-2.9507015 -9.3691292 -1.2060853 0
-2.8948963 -9.3006563 -1.1960145 0
-2.8865771 -9.3846979 -1.2055706 0
-2.847357 -9.3688593 -1.2023028 0
-2.8089037 -9.3549566 -1.1993033 0
-2.783891 -9.3857927 -1.2020531 0
-2.7581725 -9.4147549 -1.2045712 0
-2.7260211 -9.4219799 -1.2043195 0
-2.6882277 -9.4094076 -1.2015536 0
-2.6517568 -9.4009686 -1.1993339 0
-2.6135492 -9.3858423 -1.1962795 0
-2.5791132 -9.383811 -1.1949117 0
-2.5545866 -9.4180279 -1.1981715 0
-2.5237508 -9.4293623 -1.1985302 0
-2.4950373 -9.4488115 -1.1999323 0
-2.4666388 -9.4697771 -1.2015377 0
-2.4243479 -9.4370174 -1.1963431 0
-2.3942654 -9.4512968 -1.1971289 0
-2.3630526 -9.4612293 -1.1973767 0
-2.3374705 -9.4940901 -1.2005368 0
-2.3013203 -9.4841318 -1.1982951 0
-2.2827101 -9.5470057 -1.2052654 0
-2.2378254 -9.5000019 -1.1983774 0
-2.206151 -9.5082693 -1.1984805 0
-2.1715956 -9.5039558 -1.1970123 0
-2.143662 -9.5287132 -1.1992185 0
-2.1260679 -9.6007195 -1.2073768 0
-2.0750065 -9.5212536 -1.1965016 0
-2.0587678 -9.6013565 -1.2056937 0
-2.0237141 -9.5946903 -1.2039977 0
-1.9922903 -9.6050711 -1.2044554 0
-1.9426217 -9.5261097 -1.1937302 0
-1.9206915 -9.5825605 -1.1999905 0
-1.8976511 -9.6351442 -1.2057719 0
-1.8561683 -9.5940695 -1.199846 0
-1.8225943 -9.5928888 -1.1989275 0
-1.7798535 -9.5422907 -1.1918511 0
-1.7554048 -9.5894756 -1.1970028 0
-1.7196261 -9.5751667 -1.1944902 0
-1.6887778 -9.5880604 -1.1953857 0
-1.6642029 -9.6375751 -1.2008564 0
-1.6380078 -9.679307 -1.2053652 0
-1.596537 -9.6304035 -1.198602 0
-1.5699794 -9.6710625 -1.2030005 0
-1.5405858 -9.6954069 -1.2053794 0
-1.4931084 -9.6042767 -1.1934205 0
-1.4601744 -9.6044645 -1.1928289 0
-1.4358697 -9.6625051 -1.1994326 0
-1.4097748 -9.7107277 -1.204825 0
-1.3716158 -9.6759453 -1.1999323 0
-1.3375145 -9.6685486 -1.1984521 0
-1.3075528 -9.6912308 -1.2007135 0
-1.2712359 -9.6665382 -1.1971194 0
-1.2419218 -9.6949692 -1.2001179 0
-1.2036685 -9.653039 -1.1944211 0
-1.1766105 -9.7008295 -1.1998396 0
-1.1445104 -9.7083807 -1.2002922 0
-1.1096891 -9.6923847 -1.1978478 0
-1.0822581 -9.7417049 -1.203488 0
-1.0498958 -9.7481184 -1.2038386 0
-1.0124912 -9.7063828 -1.1982585 0
-0.98553061 -9.7650986 -1.2050924 0
-0.94834054 -9.7227859 -1.1994715 0
-0.91833293 -9.7534876 -1.2028724 0
-0.88684011 -9.7698841 -1.2045212 0
-0.84894121 -9.7140188 -1.1972759 0
-0.81664574 -9.7201262 -1.1976844 0
-0.78391057 -9.7210636 -1.1974694 0
-0.75266224 -9.7410965 -1.1996194 0
-0.71972007 -9.7398033 -1.1991563 0
-0.68902785 -9.7700615 -1.2025905 0
-0.65495694 -9.7528114 -1.2001902 0
-0.62520349 -9.8011923 -1.2058792 0
-0.58717358 -9.7177544 -1.1953646 0
-0.55576211 -9.7402382 -1.1978943 0
-0.52343458 -9.7482443 -1.1986563 0
-0.49156481 -9.76618 -1.2006524 0
-0.45975518 -9.7877274 -1.2031051 0
-0.42670107 -9.7838221 -1.2024424 0
-0.39212817 -9.7412968 -1.1970477 0
-0.35848933 -9.7161074 -1.1937979 0
-0.32833478 -9.7895193 -1.2026759 0
-0.29457206 -9.7594738 -1.1988566 0
-0.26268643 -9.7916317 -1.202692 0
-0.22806671 -9.7162523 -1.1933326 0
-0.19596064 -9.7404213 -1.1962136 0
-0.16415706 -9.7920446 -1.202479 0
-0.13089138 -9.7601852 -1.198506 0
-0.098410778 -9.7848492 -1.2014873 0
-0.065451622 -9.762475 -1.1987063 0
-0.03265474 -9.7433109 -1.1963332 0
1.2902867e-05 -9.7248392 -1.1940583 0
0.032860715 -9.7970114 -1.2029268 0
0.065360747 -9.7450638 -1.1965685 0
0.097611323 -9.7028008 -1.1914126 0
0.13117896 -9.7796946 -1.2009017 0
0.16315755 -9.7308826 -1.1949682 0
0.19726978 -9.8041992 -1.2040462 0
0.22872593 -9.7432337 -1.1966465 0
0.26202017 -9.76583 -1.1995229 0
0.29517421 -9.7785635 -1.2012017 0
0.32940966 -9.8207903 -1.2065178 0
0.36078024 -9.7774935 -1.2013404 0
0.39203313 -9.7382927 -1.1966788 0
0.42498994 -9.7439938 -1.1975477 0
0.4593266 -9.7780495 -1.2019156 0
0.4922516 -9.7793074 -1.2022665 0
0.52484781 -9.7740793 -1.2018332 0
0.55752397 -9.7706604 -1.2016358 0
0.59063846 -9.7746677 -1.2023656 0
0.62388104 -9.7800522 -1.2032784 0
0.65214533 -9.7105589 -1.1949906 0
0.68881929 -9.7667341 -1.2021811 0
0.72289723 -9.7824469 -1.2044067 0
0.75453919 -9.7650499 -1.2025696 0
0.7840296 -9.7222176 -1.1976117 0
0.81860691 -9.7431593 -1.2005228 0
0.8495928 -9.7211781 -1.1981585 0
0.89002043 -9.8046322 -1.2088054 0
0.91007978 -9.665556 -1.1920284 0
0.95174038 -9.7573748 -1.2037389 0
0.98309112 -9.7406683 -1.2020777 0
1.0147806 -9.7280798 -1.2009374 0
1.0488793 -9.7384377 -1.2026434 0
1.0800557 -9.7216454 -1.2010102 0
1.1092608 -9.6884155 -1.1973578 0
1.1497194 -9.7523432 -1.2057279 0
1.1713926 -9.6575947 -1.1944926 0
1.202458 -9.6431227 -1.1931945 0
1.2422909 -9.6976461 -1.2004497 0
1.2711259 -9.6655035 -1.1969916 0
1.3036982 -9.662467 -1.1971502 0
1.345529 -9.7262926 -1.2056102 0
1.368109 -9.6510229 -1.1968421 0
1.3985991 -9.6335688 -1.1952523 0
1.4335082 -9.6464376 -1.1974386 0
1.4756578 -9.7061357 -1.2054564 0
1.503898 -9.6735106 -1.202024 0
1.5350715 -9.6605377 -1.2010448 0
1.5665522 -9.6497889 -1.2003547 0
1.5988719 -9.6443291 -1.2003357 0
1.6274421 -9.6167173 -1.1975714 0
1.6586916 -9.6055069 -1.1968613 0
1.6956917 -9.6271648 -1.2002616 0
1.7190979 -9.5720787 -1.1941056 0
1.7616816 -9.62362 -1.2012655 0
1.8017889 -9.65975 -1.2065227 0
1.8196151 -9.5770693 -1.196951 0
1.8570009 -9.598237 -1.2003678 0
1.892861 -9.6106892 -1.2027121 0
1.9092015 -9.5251045 -1.1927961 0
1.948254 -9.5535994 -1.1971757 0
1.991572 -9.6014795 -1.2040056 0
2.0097404 -9.5283146 -1.1956692 0
2.0471203 -9.5469141 -1.1988577 0
2.0891974 -9.5862465 -1.2046697 0
2.1135597 -9.544116 -1.2002591 0
2.1529384 -9.569828 -1.2043936 0
2.171293 -9.5025158 -1.1968316 0
2.2043996 -9.5006075 -1.1975155 0
2.2407155 -9.5121584 -1.1999116 0
2.2850819 -9.5568132 -1.2065043 0
2.2978268 -9.4696255 -1.1964631 0
2.3462067 -9.5294647 -1.2050108 0
2.3758562 -9.5123854 -1.2038516 0
2.3981004 -9.4663305 -1.1990339 0
2.4284675 -9.4529495 -1.1983635 0
2.4662807 -9.4682989 -1.201351 0
2.4852438 -9.411623 -1.1952103 0
2.5272465 -9.4423227 -1.2001784 0
2.5620725 -9.4455261 -1.2016708 0
2.5980649 -9.4526653 -1.2036804 0
2.6202109 -9.4096689 -1.1993172 0
2.6724663 -9.4742908 -1.208689 0
2.6868267 -9.4044085 -1.2009162 0
2.7274439 -9.4268036 -1.204937 0
2.7300847 -9.3187885 -1.1922936 0
2.7897155 -9.4053383 -1.2045573 0
2.7994328 -9.3233242 -1.195249 0
2.839222 -9.3420029 -1.1988573 0
2.8786712 -9.3589058 -1.2022582 0
2.9180293 -9.3748903 -1.2055616 0
2.9389815 -9.3318291 -1.2012846 0
2.9694383 -9.3193665 -1.2009553 0
2.9960926 -9.2951641 -1.1991241 0
3.0022461 -9.2084036 -1.1892235 0
3.0567179 -9.2699013 -1.1984824 0
3.0853636 -9.2523518 -1.1975441 0
3.11484 -9.2374239 -1.1969571 0
3.164886 -9.2829275 -1.2042215 0
3.1866529 -9.2451696 -1.2007025 0
3.1949465 -9.1693268 -1.1922371 0
3.2564504 -9.2459517 -1.2036133 0
3.2723703 -9.1926708 -1.1980988 0
3.3164723 -9.2186136 -1.2029225 0
3.3534389 -9.2241583 -1.2051063 0
3.3566883 -9.1375704 -1.1952575 0
3.3759358 -9.0956306 -1.1912454 0
3.4337816 -9.1572485 -1.2008165 0
3.445605 -9.0958977 -1.1942796 0
3.4911435 -9.1236534 -1.1994541 0
3.5213513 -9.11096 -1.1993307 0
3.5461657 -9.084466 -1.1974015 0
3.5823104 -9.0869999 -1.1993119 0
3.6090553 -9.0656385 -1.1980829 0
3.6467357 -9.07166 -1.2004877 0
3.6924582 -9.0971441 -1.2054918 0
3.6883118 -9.0002174 -1.1942797 0
3.7376869 -9.034256 -1.2004526 0
3.7426105 -8.960989 -1.1923776 0
3.7893708 -8.9880877 -1.1976674 0
3.8347449 -9.0111923 -1.2024524 0
3.8374109 -8.9342003 -1.1938889 0
3.9037426 -9.005249 -1.2051255 0
3.9123459 -8.942811 -1.1985184 0
3.9394522 -8.9231758 -1.1976503 0
3.9735672 -8.9193888 -1.1989235 0
3.9885223 -8.8728075 -1.194453 0
4.0528283 -8.935626 -1.2047321 0
4.0490618 -8.8483372 -1.194787 0
4.1121511 -8.907155 -1.2045842 0
4.1039391 -8.811615 -1.1935177 0
4.1496401 -8.8322439 -1.1981896 0
4.1864538 -8.8335247 -1.2002608 0
4.2286997 -8.8459053 -1.2038628 0
4.2481565 -8.8105698 -1.2009854 0
4.2856574 -8.8126955 -1.2032272 0
4.3021407 -8.7716894 -1.1995912 0
4.3185992 -8.7310801 -1.1960109 0
4.3613138 -8.7435474 -1.199715 0
4.389771 -8.7272167 -1.1994872 0
4.4259248 -8.7260885 -1.2013649 0
4.456779 -8.7143726 -1.2018024 0
4.4860544 -8.699542 -1.2018245 0
4.5246277 -8.7025909 -1.2043347 0
4.536171 -8.6537771 -1.1996776 0
4.5603123 -8.6293459 -1.1984036 0
4.5990219 -8.6324072 -1.2009634 0
4.6234274 -8.6085396 -1.1997927 0
4.6480279 -8.585165 -1.1987002 0
4.7014074 -8.6146479 -1.2050108 0
4.7264261 -8.5918589 -1.2040331 0
4.7354155 -8.5402708 -1.1990219 0
4.7565651 -8.5110025 -1.197145 0
4.7599907 -8.4504747 -1.1908695 0
4.8329644 -8.5131493 -1.2019784 0
4.8459816 -8.4698095 -1.1981466 0
4.8550887 -8.4201059 -1.1934116 0
4.914947 -8.4582558 -1.2011474 0
4.9595404 -8.4694996 -1.205099 0
4.9551778 -8.397356 -1.1971909 0
4.987205 -8.3872538 -1.198128 0
5.0656109 -8.4544573 -1.2101474 0
5.0694685 -8.3969116 -1.2043365 0
5.1011376 -8.3856936 -1.205174 0
5.1042266 -8.3277569 -1.1993003 0
5.136591 -8.3178387 -1.2003453 0
5.1762247 -8.3194942 -1.2030818 0
5.1715136 -8.2501249 -1.195551 0
5.2024646 -8.2379942 -1.1963142 0
5.2501569 -8.2521 -1.2009122 0
5.2603884 -8.2072926 -1.1969514 0
5.2994175 -8.2074842 -1.1995639 0
5.2980642 -8.1453285 -1.193069 0
5.3417511 -8.1525583 -1.1967447 0
5.383379 -8.1563053 -1.1999375 0
5.4064817 -8.1318731 -1.1990031 0
5.4471722 -8.1337929 -1.2019724 0
5.4664397 -8.1036644 -1.2002218 0
5.4994431 -8.0939217 -1.2015029 0
5.5410872 -8.0966797 -1.2046635 0
5.5389171 -8.0355701 -1.1983277 0
5.5689249 -8.0214148 -1.1989945 0
5.6052966 -8.0162973 -1.2010318 0
5.6304088 -7.9949975 -1.2006623 0
5.6424093 -7.9552455 -1.1975268 0
5.683857 -7.9570117 -1.2006546 0
5.7091246 -7.9359927 -1.2003646 0
5.7293034 -7.9079776 -1.199026 0
5.7383275 -7.8647966 -1.1953892 0
5.8007512 -7.8946257 -1.2028723 0
5.8079467 -7.8491292 -1.1989005 0
5.817647 -7.8073568 -1.1954926 0
5.8820424 -7.8387837 -1.2033179 0
5.8794484 -7.7808475 -1.1974436 0
5.9259825 -7.7880058 -1.2015961 0
5.9277468 -7.7363605 -1.1966876 0
5.9444685 -7.7045398 -1.1948417 0
5.9932799 -7.7141867 -1.1994474 0
6.0110602 -7.6837587 -1.1978432 0
6.0351357 -7.6614633 -1.1975152 0
6.0441556 -7.6202145 -1.1942288 0
6.0770626 -7.6091619 -1.195683 0
6.1020617 -7.5881491 -1.1955893 0
6.1390529 -7.5819535 -1.1978495 0
6.1633358 -7.5599742 -1.1976351 0
6.1809578 -7.5298982 -1.1961467 0
6.2574596 -7.5711908 -1.2060323 0
6.2546549 -7.516335 -1.2006278 0
6.2764354 -7.4912815 -1.1999806 0
6.3216586 -7.4940724 -1.2038161 0
6.3369083 -7.4612479 -1.2019495 0
6.3651843 -7.4438138 -1.2025721 0
6.3686514 -7.3975101 -1.1985345 0
6.3950214 -7.377965 -1.198835 0
6.4216471 -7.3586879 -1.1991946 0
6.4577627 -7.3501821 -1.2013301 0
6.4799109 -7.3257084 -1.2008742 0
6.5173736 -7.318469 -1.2032627 0
6.5027566 -7.2529459 -1.1960678 0
6.5362568 -7.2413158 -1.1977571 0
6.611887 -7.2759094 -1.2071391 0
6.5916462 -7.2049522 -1.1990266 0
6.6290016 -7.1971807 -1.2014253 0
6.6726422 -7.1959953 -1.2049552 0
6.661397 -7.1357317 -1.1985974 0
6.6682887 -7.095274 -1.1955503 0
6.7039027 -7.0854135 -1.1976695 0
6.718473 -7.0532928 -1.196041 0
6.7569852 -7.046267 -1.1986846 0
6.7842202 -7.0273519 -1.1993295 0
6.7939067 -6.9903293 -1.1968918 0
6.8249578 -6.9753318 -1.1982353 0
6.8406692 -6.9446564 -1.1968989 0
6.8864307 -6.944387 -1.2008251 0
6.9537263 -6.965384 -1.2084808 0
6.9448328 -6.9099836 -1.2029021 0
6.9234486 -6.8426666 -1.1952176 0
6.976975 -6.8494787 -1.2004868 0
6.9756842 -6.8024325 -1.1963336 0
7.0048909 -6.785243 -1.1974342 0
7.0246878 -6.7589159 -1.1969378 0
7.0670376 -6.75418 -1.2002885 0
7.0742168 -6.7158027 -1.1976768 0
7.0910568 -6.6867309 -1.1967255 0
7.1236 -6.6724381 -1.1984353 0
7.1212564 -6.6255593 -1.1942971 0
7.1832585 -6.638453 -1.2009559 0
7.1939044 -6.6037097 -1.1990273 0
7.2056303 -6.5700932 -1.1973034 0
7.2494736 -6.565691 -1.2009239 0
7.2624512 -6.5332556 -1.1994382 0
7.2810283 -6.5059328 -1.1988971 0
7.2973127 -6.4766135 -1.1979961 0
7.3332524 -6.4646869 -1.2003312 0
7.3759265 -6.4584866 -1.203765 0
7.3545537 -6.3963351 -1.1967702 0
7.3729963 -6.3690825 -1.1962897 0
7.4023395 -6.3512163 -1.1975888 0
7.4460344 -6.3454871 -1.2012093 0
7.4568248 -6.3116474 -1.1995294 0
7.4851999 -6.2927098 -1.2006931 0
7.4863048 -6.2509189 -1.1975018 0
7.5424314 -6.2549839 -1.2031183 0
7.5532112 -6.2213011 -1.2015039 0
7.5409141 -6.1688528 -1.1962509 0
7.5920892 -6.1683431 -1.2010815 0
7.6165738 -6.145957 -1.2016883 0
7.6102362 -6.0988269 -1.1974554 0
7.6082244 -6.0554352 -1.1939377 0
7.675209 -6.0668254 -1.2012506 0
7.6751809 -6.0251017 -1.1980777 0
7.7011323 -6.0038509 -1.1989796 0
7.7657762 -6.0124946 -1.2058986 0
7.7692485 -5.9736276 -1.203321 0
7.7331467 -5.9047194 -1.1946564 0
7.7858138 -5.9037151 -1.1997281 0
7.8149161 -5.8846197 -1.2011656 0
7.8423481 -5.8641768 -1.2023531 0
7.8497801 -5.8288016 -1.2004895 0
7.8340888 -5.7765026 -1.1951212 0
7.8747807 -5.7658501 -1.198373 0
7.9219551 -5.7596903 -1.2026064 0
7.8987532 -5.7024369 -1.196175 0
7.9244561 -5.6806731 -1.1971763 0
7.9586968 -5.6649194 -1.1994731 0
7.9664664 -5.6303024 -1.1977922 0
8.015317 -5.6246257 -1.2022949 0
8.0124187 -5.5825925 -1.1990458 0
8.005743 -5.5381618 -1.1952612 0
8.0234156 -5.510705 -1.1951346 0
8.1211119 -5.5378242 -1.2069145 0
8.1304932 -5.5043764 -1.2055593 0
8.1027193 -5.446044 -1.1987268 0
8.1452065 -5.4350438 -1.2023098 0
8.1034012 -5.3679695 -1.1934756 0
8.1312685 -5.347291 -1.1949327 0
8.1988544 -5.3524451 -1.2022207 0
8.2248659 -5.330183 -1.2034076 0
8.2377748 -5.2994142 -1.2026899 0
8.2373257 -5.2601614 -1.2000427 0
8.2674341 -5.2404485 -1.2018626 0
8.2762775 -5.2072387 -1.2006034 0
8.3178864 -5.194571 -1.2041061 0
8.2824402 -5.1339154 -1.1964762 0
8.3539925 -5.1395764 -1.2043165 0
8.2706652 -5.0501642 -1.1898564 0
8.3551359 -5.0633636 -1.1995597 0
8.3789263 -5.0394487 -1.2005428 0
8.3915281 -5.0087919 -1.1999353 0
8.423563 -4.9896851 -1.2021172 0
8.4639072 -4.9753232 -1.2054873 0
8.469615 -4.9405441 -1.2039342 0
8.4664373 -4.9007196 -1.2011402 0
8.4574213 -4.8577161 -1.1975435 0
8.4452591 -4.8131466 -1.1935297 0
8.5340223 -4.8259001 -1.2037808 0
8.4902725 -4.7636614 -1.1953499 0
8.496665 -4.7298622 -1.1940104 0
8.5741425 -4.7354064 -1.2026603 0
8.5699921 -4.6956849 -1.199863 0
8.6058578 -4.6778889 -1.2026818 0
8.5893841 -4.6316943 -1.1982026 0
8.6504974 -4.6272793 -1.2045568 0
8.6627274 -4.5965328 -1.204107 0
8.672327 -4.5644293 -1.2033074 0
8.680089 -4.531415 -1.2022696 0
8.6808548 -4.4948421 -1.2002815 0
8.7597961 -4.4985371 -1.2091043 0
8.7425823 -4.4527183 -1.2046609 0
8.6942453 -4.3914499 -1.1959648 0
8.7455959 -4.3806458 -1.2010013 0
8.7881947 -4.3651872 -1.2048347 0
8.743763 -4.3066287 -1.1967568 0
8.7524691 -4.2745128 -1.1959802 0
8.7641535 -4.243885 -1.1956258 0
8.8110266 -4.2301726 -1.2000787 0
8.7962141 -4.1868296 -1.1961424 0
8.8392401 -4.1710157 -1.2000848 0
8.8242912 -4.1278448 -1.1961695 0
8.8837843 -4.1194282 -1.202355 0
8.8470182 -4.0663948 -1.1955271 0
8.826129 -4.0210047 -1.1908758 0
8.931716 -4.0330009 -1.2032909 0
5.148396 -2.303942 -0.69255322 0
5.1051822 -2.2640893 -0.68571514 0
5.1475968 -2.2622771 -0.69038951 0
5.1060691 -2.22363 -0.68381608 0
5.1280646 -2.2127843 -0.68576431 0
5.1199083 -2.1889317 -0.68368828 0
5.1309943 -2.173353 -0.68419182 0
5.1199312 -2.1484494 -0.68175226 0
5.1353588 -2.1347017 -0.68284965 0
5.1975794 -2.1401567 -0.6901651 0
5.0714278 -2.0683532 -0.67248935 0
5.1544223 -2.0820732 -0.68256515 0
5.2120266 -2.085043 -0.6892637 0
5.2310338 -2.0723283 -0.69085461 0
5.332674 -2.0919359 -0.7033478 0
5.3458133 -2.0764356 -0.70415854 0
5.4358602 -2.0904639 -0.71509242 0
5.4827609 -2.0874262 -0.72033751 0
9.1399221 -3.4447584 -1.1992995 0
9.1185293 -3.4018238 -1.194989 0
9.1413889 -3.3754804 -1.1964949 0
9.1634855 -3.3487701 -1.1979108 0
9.1593933 -3.312506 -1.1959171 0
9.1670856 -3.2805746 -1.1954787 0
9.2229128 -3.2657118 -1.2013246 0
9.2684107 -3.2468917 -1.2058259 0
9.2117863 -3.19242 -1.1970599 0
9.2444096 -3.1690485 -1.1999117 0
9.2907972 -3.1501796 -1.2045552 0
9.2590599 -3.1048448 -1.1990839 0
9.2647018 -3.0722196 -1.1984738 0
9.2474842 -3.0321336 -1.1949247 0
9.2698059 -3.0050693 -1.1965005 0
9.2999201 -2.9804108 -1.199091 0
9.2828932 -2.9406705 -1.1956176 0
9.3164787 -2.916975 -1.1986769 0
9.2906723 -2.8747272 -1.1941097 0
9.3083124 -2.8460238 -1.1951439 0
9.3330736 -2.819412 -1.1971027 0
9.3747997 -2.7977512 -1.2012447 0
9.38731 -2.7672417 -1.2016522 0
9.4613581 -2.7546248 -1.2099417 0
9.390398 -2.6998456 -1.1997029 0
9.419713 -2.6741135 -1.202296 0
9.4162397 -2.6390448 -1.2007165 0
9.4029455 -2.6013477 -1.1979024 0
9.4396162 -2.5774527 -1.2014664 0
9.4223375 -2.5388191 -1.1981771 0
9.4661522 -2.5166128 -1.2026689 0
9.4770222 -2.4855123 -1.2029845 0
1.8620661 -0.48169214 -0.23615868 0
1.9140512 -0.48829898 -0.24254274 0
1.9620883 -0.49355319 -0.24841879 0
1.9099861 -0.47364378 -0.24161974 0
1.8468688 -0.45142421 -0.2334424 0
1.8673893 -0.44981033 -0.23584422 0
1.9033093 -0.4517163 -0.24018815 0
1.880375 -0.43961886 -0.23710661 0
1.9144709 -0.44082582 -0.24121822 0
1.8939189 -0.42941198 -0.23844597 0
1.8611753 -0.41543195 -0.23414685 0
1.9783993 -0.43463895 -0.24870959 0
1.9475992 -0.42103231 -0.2446588 0
1.9157685 -0.40743259 -0.24048725 0
1.9506242 -0.40801445 -0.2446896 0
1.9252821 -0.39598075 -0.24134274 0
1.9519163 -0.39464211 -0.24451421 0
1.9218004 -0.3818509 -0.24057989 0
1.9392277 -0.37855953 -0.24260128 0
1.9572147 -0.37526298 -0.24469271 0
1.965021 -0.36993349 -0.24551222 0
1.9250789 -0.355735 -0.24037142 0
1.9268875 -0.34939224 -0.24044962 0
1.9480008 -0.34647864 -0.24293797 0
1.9089202 -0.33292881 -0.23792362 0
1.9456358 -0.33261436 -0.24235941 0
1.9661106 -0.32933381 -0.24477094 0
1.9339906 -0.31729102 -0.24063838 0
1.9752932 -0.31726977 -0.24564375 0
1.9854758 -0.31208026 -0.24677852 0
2.0120544 -0.30934882 -0.24995171 0
1.9921825 -0.29945976 -0.24735695 0
1.9768324 -0.29037803 -0.24532877 0
1.9896524 -0.28544962 -0.2467996 0
1.9629588 -0.27490628 -0.24337278 0
1.9749305 -0.26983458 -0.24474353 0
1.9536966 -0.26026374 -0.24200261 0
1.9937637 -0.25880095 -0.24685681 0
1.9792445 -0.25017136 -0.2449539 0
2.0620716 -0.25361922 -0.25509802 0
2.0638621 -0.24681787 -0.2552157 0
2.0321834 -0.23612118 -0.25119904 0
2.0134902 -0.22710983 -0.24879283 0
2.0350113 -0.22263005 -0.25135839 0
1.9559151 -0.20734303 -0.24150145 0
2.0084558 -0.2061055 -0.24790207 0
2.0008216 -0.19854537 -0.24687622 0
1.9858354 -0.19033676 -0.24494699 0
2.0477748 -0.18934679 -0.2525073 0
2.0154233 -0.17954238 -0.24844247 0
2.0443642 -0.17521381 -0.2519362 0
1.9869102 -0.16358091 -0.24478693 0
2.0458117 -0.16152637 -0.25197545 0
2.0020499 -0.15131859 -0.24652161 0
2.008276 -0.14501901 -0.24722698 0
2.0161235 -0.13879237 -0.24813436 0
2.0780194 -0.13605471 -0.25569463 0
2.0341837 -0.12633663 -0.25024724 0
2.0668027 -0.12140758 -0.25420853 0
2.0227494 -0.11201581 -0.24874258 0
2.0729797 -0.10782709 -0.2548736 0
2.0551531 -0.099991813 -0.2526392 0
2.0889215 -0.094615549 -0.25674987 0
2.0796473 -0.087209538 -0.25557262 0
2.0640454 -0.079623684 -0.25362101 0
2.1118886 -0.074378893 -0.25946769 0
2.0595305 -0.065621875 -0.25300649 0
2.0855963 -0.059453398 -0.25618267 0
2.1295874 -0.053562175 -0.26156276 0
2.099669 -0.045765992 -0.25786778 0
2.0896504 -0.038538557 -0.25662005 0
2.1237717 -0.032045215 -0.26079568 0
9.7957954 -0.11495758 -1.2028534 0
9.7464237 -0.081696868 -1.1967506 0
9.7051792 -0.048809957 -1.1916595 0
9.7939339 -0.016418653 -1.2025439 0
9.786293 0.016405843 -1.2016056 0
9.7143736 0.048856195 -1.1927884 0
9.7871695 0.082038403 -1.2017537 0
9.7474613 0.11439036 -1.1969184 0
9.8045788 0.14793956 -1.2039862 0
9.7986488 0.18071243 -1.2033256 0
9.7670679 0.21289048 -1.1995281 0
9.8130293 0.24681173 -1.2052677 0
9.8162689 0.27982908 -1.2057741 0
9.7649012 0.31113458 -1.1995858 0
