# .PCD v0.7 - Point Cloud Data file format
VERSION 0.7
FIELDS x y z intensity
SIZE 4 4 4 4
TYPE F F F F
COUNT 1 1 1 1
WIDTH 1397
HEIGHT 1
VIEWPOINT 0 0 0 1 0 0 0
POINTS 1397
DATA ascii
0.4069939 7.5793219 -1.2021743 0
0.38143224 7.5777168 -1.2017101 0
0.35612983 7.5812178 -1.2020692 0
0.32856649 7.533237 -1.19428 0
0.30266872 7.5184379 -1.1917663 0
0.27951846 7.5752206 -1.2006118 0
0.25358027 7.5600657 -1.1980684 0
0.22860727 7.5733261 -1.2000415 0
0.20316674 7.5722866 -1.1997622 0
0.17605533 7.4995794 -1.1881422 0
0.1517266 7.5407286 -1.194574 0
0.12662761 7.5521989 -1.1963171 0
0.1017028 7.5821786 -1.2010053 0
0.07610146 7.5646682 -1.1981845 0
0.050762054 7.5684481 -1.1987495 0
0.02557702 7.6254692 -1.2077607 0
1.0073451e-05 7.5923195 -1.2025034 0
-0.025291644 7.5463581 -1.1952306 0
-0.050715629 7.5645194 -1.1981273 0
-0.076346986 7.5910769 -1.2023674 0
-0.10195538 7.6025133 -1.2042263 0
-0.12678327 7.5626798 -1.1979773 0
-0.152615 7.5858822 -1.201727 0
-0.17800523 7.583499 -1.2014372 0
-0.20477729 7.6330695 -1.2093925 0
-0.22773862 7.5452132 -1.1955868 0
-0.25394642 7.5715818 -1.1998932 0
-0.27933639 7.5708313 -1.199916 0
-0.30465037 7.5681624 -1.1996481 0
-0.3298519 7.5631695 -1.1990253 0
-0.35649312 7.5893807 -1.2033634 0
-0.38078094 7.5651774 -1.1997215 0
-0.40330848 7.5110617 -1.1913472 0
-0.43331572 7.5942535 -1.2047662 0
-0.45351601 7.5057149 -1.1909548 0
-0.4818632 7.5540748 -1.1988778 0
-0.5077284 7.5604658 -1.2001555 0
-0.53311223 7.5592575 -1.2002407 0
-0.5599227 7.5773034 -1.2033973 0
-0.5833202 7.5494394 -1.1992759 0
-0.60767031 7.5355558 -1.1973873 0
-0.63744831 7.5872288 -1.2059309 0
-0.66082442 7.561491 -1.2021855 0
-0.68414354 7.5368752 -1.1986299 0
-0.7096768 7.5373788 -1.1990817 0
-0.73601037 7.5458879 -1.200821 0
-0.76419228 7.5719748 -1.2053734 0
-0.78378397 7.5138497 -1.1965321 0
-0.81501395 7.5672774 -1.2054685 0
-0.83373278 7.5046597 -1.1959321 0
-0.85857242 7.4990501 -1.1954902 0
-0.88758057 7.5289574 -1.2007257 0
-0.91669887 7.5579295 -1.2058296 0
-0.94029588 7.5408745 -1.2036047 0
-0.96070194 7.4996481 -1.1975319 0
-0.98372519 7.4802928 -1.1949613 0
-1.0099082 7.4851689 -1.1962744 0
-1.0412533 7.5269523 -1.2035034 0
-1.0659828 7.5198836 -1.2029378 0
-1.0835423 7.4635925 -1.1945075 0
-1.1195869 7.5341201 -1.2063891 0
-1.1404951 7.5017371 -1.2018094 0
-1.1633525 7.4831538 -1.1994504 0
-1.1859391 7.4635 -1.1969308 0
-1.2178379 7.5018735 -1.2037328 0
-1.2408814 7.4850683 -1.2016971 0
-1.2657019 7.4792786 -1.2014421 0
-1.2928197 7.4868555 -1.2033488 0
-1.3120102 7.4489574 -1.1979578 0
-1.3384724 7.4528384 -1.199297 0
-1.3627011 7.4442024 -1.1986358 0
-1.3945861 7.4767647 -1.2046249 0
-1.4144765 7.4448361 -1.200238 0
-1.4478377 7.483511 -1.2072489 0
-1.4617596 7.4219465 -1.1981012 0
-1.4897732 7.4326568 -1.2006297 0
-1.5101314 7.4052901 -1.1970202 0
-1.5255445 7.3548336 -1.1896843 0
-1.5587789 7.3903732 -1.1962717 0
-1.591754 7.4233713 -1.2024702 0
-1.6138004 7.4049907 -1.2003624 0
-1.6354648 7.3852944 -1.1980519 0
-1.6579707 7.3697844 -1.1964308 0
-1.6851825 7.375176 -1.1982167 0
-1.710703 7.3729429 -1.198779 0
-1.7410009 7.3908854 -1.2026386 0
-1.7732005 7.4160781 -1.2076986 0
-1.7864211 7.3621445 -1.1998842 0
-1.8067803 7.3385892 -1.1970257 0
-1.8232297 7.2998772 -1.1917017 0
-1.8605169 7.3443394 -1.1999717 0
-1.8801899 7.3188281 -1.1968267 0
-1.913399 7.3458104 -1.2022814 0
-1.9349385 7.3276944 -1.2003714 0
-1.9696746 7.3591952 -1.2066067 0
-1.9876382 7.3278518 -1.2025535 0
-2.0060203 7.298677 -1.1988628 0
-2.0280318 7.2831178 -1.1974173 0
-2.0630751 7.3139825 -1.2036221 0
-2.0799668 7.2803559 -1.1992294 0
-2.0993011 7.2558398 -1.1963437 0
-2.1342812 7.285162 -1.2023515 0
-2.150665 7.2508931 -1.197879 0
-2.1994932 7.3253355 -1.2113887 0
-2.2033436 7.2498174 -1.2001152 0
-2.2213204 7.221848 -1.1967114 0
-2.2525809 7.23704 -1.2004735 0
-2.2883613 7.2660527 -1.2065521 0
-2.2975543 7.2107735 -1.1986452 0
-2.3227394 7.2061992 -1.1991726 0
-2.3394504 7.1755605 -1.1953727 0
-2.380728 7.2199368 -1.2040882 0
-2.4108644 7.2297349 -1.2070637 0
-2.4134448 7.1574163 -1.1963338 0
-2.4575646 7.2083459 -1.2062168 0
-2.4720588 7.1720386 -1.2015215 0
-2.5004306 7.1761637 -1.2036103 0
-2.5245764 7.1680231 -1.2036579 0
-2.5395262 7.1340413 -1.1993747 0
-2.5688822 7.1406388 -1.201925 0
-2.5875936 7.1176395 -1.1995074 0
-2.6203206 7.1330905 -1.203585 0
-2.648859 7.1367588 -1.2056959 0
-2.6392536 7.0384488 -1.1905755 0
-2.6956954 7.1163015 -1.2052666 0
-2.7081778 7.0775299 -1.200231 0
-2.7404859 7.0906453 -1.2040066 0
-2.7579257 7.0652308 -1.2012546 0
-2.762825 7.0083222 -1.1931471 0
-2.7996249 7.0324731 -1.1988499 0
-2.8152394 7.0032744 -1.1954747 0
-2.8669796 7.0634594 -1.2073824 0
-2.8813181 7.031045 -1.2034863 0
-2.9256675 7.0716004 -1.2121004 0
-2.9299285 7.0152245 -1.2041143 0
-2.9131529 6.9098201 -1.1876922 0
-2.9667413 6.9715385 -1.2000036 0
-2.9885197 6.9578757 -1.1993699 0
-3.0060551 6.9344921 -1.1970698 0
-3.0531142 6.9788356 -1.2064848 0
-3.0678189 6.9489059 -1.2030821 0
-3.0890179 6.9339075 -1.2022718 0
-3.1071167 6.9120951 -1.2002894 0
-3.1352978 6.912715 -1.2022156 0
-3.1380944 6.8576651 -1.1944648 0
-3.1660798 6.8579588 -1.1963582 0
-3.1896467 6.8485746 -1.1965801 0
-3.2201755 6.8539853 -1.1994051 0
-3.2467313 6.8507333 -1.2007341 0
-3.2902145 6.88276 -1.2082742 0
-3.2924752 6.8285565 -1.2006899 0
-3.3261495 6.8396831 -1.2046005 0
-3.3386297 6.80722 -1.2008479 0
-3.3568234 6.7866659 -1.1992006 0
-3.385478 6.78724 -1.201301 0
-3.4066737 6.7727857 -1.2007575 0
-3.4260247 6.754745 -1.1995889 0
-3.4315915 6.7098598 -1.1936542 0
-3.4852107 6.758708 -1.204416 0
-3.4896879 6.7120485 -1.1981796 0
-3.5343578 6.7426343 -1.2057481 0
-3.5450623 6.7082615 -1.2017201 0
-3.5751042 6.7105474 -1.2042701 0
-3.6012366 6.7053251 -1.2054931 0
-3.6045945 6.657928 -1.1991379 0
-3.6253304 6.6429343 -1.19862 0
-3.6460056 6.6278753 -1.1981018 0
-3.6877773 6.6509085 -1.2044938 0
-3.7050767 6.6295977 -1.2028773 0
-3.7108119 6.5878949 -1.1975614 0
-3.7356536 6.5803041 -1.1984516 0
-3.7488999 6.5523696 -1.1956465 0
-3.7879057 6.5693469 -1.2010552 0
-3.8006341 6.5406461 -1.198131 0
-3.8343005 6.5479465 -1.2018164 0
-3.8418329 6.5106506 -1.1973286 0
-3.8713782 6.5107465 -1.1997265 0
-3.8769288 6.4705968 -1.1947167 0
-3.9256396 6.502347 -1.2030025 0
-3.927937 6.4571228 -1.1970652 0
-3.9486175 6.4423718 -1.1967783 0
-3.9621813 6.4161191 -1.1943625 0
-3.9998558 6.428812 -1.1992149 0
-4.007391 6.3930349 -1.1950408 0
-4.052 6.4162955 -1.2019217 0
-4.067533 6.393311 -1.2001641 0
-4.0733252 6.3552661 -1.1955792 0
-4.1161113 6.3748727 -1.2018572 0
-4.1039939 6.3095822 -1.1921355 0
-4.1690879 6.3628817 -1.2048402 0
-4.1907473 6.3493972 -1.2049406 0
-4.1819978 6.2901664 -1.1963544 0
-4.2299452 6.3162489 -1.2040057 0
-4.2276149 6.2672181 -1.1973548 0
-4.2567039 6.2649293 -1.1996374 0
-4.2582717 6.2222552 -1.1941931 0
-4.294261 6.2299242 -1.1984215 0
-4.3011875 6.195416 -1.1945508 0
-4.3423843 6.2102046 -1.2002027 0
-4.3742347 6.2113056 -1.2032431 0
-4.3882766 6.1870761 -1.2013928 0
-4.3863978 6.1406913 -1.195235 0
-4.4423223 6.1751037 -1.2048253 0
-4.4413719 6.1303201 -1.1989863 0
-4.4778452 6.137248 -1.2032708 0
-4.4958854 6.1187816 -1.2025989 0
-4.5109701 6.0963688 -1.2011597 0
-4.506217 6.0474343 -1.1944884 0
-4.5785937 6.1017585 -1.2082438 0
-4.5782499 6.0588784 -1.2027857 0
-4.6104364 6.0591307 -1.2058977 0
-4.6218796 6.032094 -1.2035941 0
-4.6587486 6.0381703 -1.2079165 0
-4.6500559 5.9853029 -1.2004527 0
-4.6762786 5.9775801 -1.2020416 0
-4.6864285 5.9493437 -1.1995165 0
-4.7033558 5.9298234 -1.1987536 0
-4.7000766 5.8850541 -1.1928821 0
-4.7335143 5.8863397 -1.1963528 0
-4.8018765 5.9305243 -1.2085985 0
-4.8102274 5.9002776 -1.2057143 0
-4.8084278 5.8578577 -1.2003336 0
-4.8412814 5.8577228 -1.2036253 0
-4.8399925 5.81634 -1.1984497 0
-4.8393698 5.776093 -1.1934935 0
-4.8678436 5.7706647 -1.1957375 0
-4.9301558 5.8049307 -1.2062562 0
-4.909708 5.7417269 -1.1965364 0
-4.9085579 5.7015686 -1.1915907 0
-4.9702997 5.7342877 -1.2019048 0
-5.0014229 5.7312565 -1.2047774 0
-5.0083046 5.700449 -1.2018244 0
-5.0382457 5.6958985 -1.2044197 0
-5.0572419 5.6788926 -1.2044024 0
-5.0679293 5.6526203 -1.2024274 0
-5.128469 5.6817017 -1.2122645 0
-5.1079755 5.6209922 -1.2029587 0
-5.1495147 5.6286702 -1.2082901 0
-5.1464291 5.5875654 -1.2031636 0
-5.1250067 5.5270038 -1.1938163 0
-5.15029 5.5170536 -1.1953902 0
-5.1421452 5.4714365 -1.1892352 0
-5.2074666 5.5038466 -1.2000678 0
-5.2343063 5.4951906 -1.2020003 0
-5.2824998 5.5086851 -1.2088193 0
-5.2475362 5.4356251 -1.1966412 0
-5.2810616 5.433774 -1.200125 0
-5.2956562 5.4123635 -1.199311 0
-5.3254757 5.4064589 -1.2019523 0
-5.3150864 5.3598471 -1.1955448 0
-5.3312602 5.3402267 -1.1951487 0
-5.3825712 5.3555903 -1.2026193 0
-5.4077644 5.3446956 -1.2042376 0
-5.395752 5.2971792 -1.1976008 0
-5.4373646 5.3023477 -1.2028842 0
-5.4509578 5.2800641 -1.2019683 0
-5.4701343 5.2632051 -1.2022989 0
-5.4493947 5.2081776 -1.1938956 0
-5.4756756 5.1982789 -1.1958282 0
-5.516067 5.2015729 -1.2008339 0
-5.5529661 5.2013054 -1.2050635 0
-5.5310111 5.1460352 -1.1965479 0
-5.5592856 5.1376758 -1.1989315 0
-5.5722761 5.1151485 -1.1980276 0
-5.6035166 5.109313 -1.2010545 0
-5.6215897 5.0913792 -1.2012626 0
-5.6000938 5.0378366 -1.1930531 0
-5.6368699 5.0368285 -1.1972834 0
-5.6543579 5.0184617 -1.1974173 0
-5.6926169 5.0183983 -1.2019494 0
-5.6963391 4.9878383 -1.1991975 0
-5.7120981 4.9679008 -1.1990019 0
-5.7154098 4.9372211 -1.1962156 0
-5.760973 4.9429483 -1.2022763 0
-5.7606454 4.9092302 -1.1987662 0
-5.7786541 4.8912268 -1.1990944 0
-5.8207803 4.8934808 -1.2044245 0
-5.8000245 4.8429341 -1.1967632 0
-5.8240948 4.8299832 -1.1983815 0
-5.8531294 4.8210325 -1.2010231 0
-5.8808346 4.8108492 -1.2033916 0
-5.8670497 4.7668266 -1.1972935 0
-5.8768616 4.7421761 -1.1960444 0
-5.9199653 4.7442737 -1.2015728 0
-5.9303842 4.720057 -1.2004687 0
-5.9482617 4.7017956 -1.2008897 0
-5.9853086 4.6985588 -1.2051817 0
-5.9926424 4.6719275 -1.2034976 0
-6.0118995 4.6546168 -1.2042241 0
-6.0009298 4.6140261 -1.1989213 0
-6.0232196 4.5991135 -1.200287 0
-6.0237861 4.5676556 -1.1973413 0
-6.0196924 4.5328441 -1.1935 0
-6.0685854 4.5378571 -1.2001706 0
-6.095118 4.5259142 -1.2024101 0
-6.1423473 4.5291142 -1.2087247 0
-6.1224031 4.4827986 -1.2018356 0
-6.1274056 4.4549804 -1.1998787 0
-6.1197529 4.4181275 -1.1954727 0
-6.1789794 4.4294472 -1.2041345 0
-6.2126884 4.422153 -1.2078074 0
-6.1820836 4.3692141 -1.1990027 0
-6.1722713 4.3313212 -1.1942765 0
-6.2067342 4.3245196 -1.1981324 0
-6.2564812 4.3280931 -1.2049274 0
-6.2535653 4.2951469 -1.2015858 0
-6.2369914 4.253058 -1.1956545 0
-6.2449212 4.2278605 -1.1944505 0
-6.2759938 4.2182798 -1.1976818 0
-6.2997627 4.2036605 -1.1995214 0
-6.3343625 4.1961222 -1.2034239 0
-6.316576 4.153935 -1.197392 0
-6.3325653 4.1341028 -1.1977887 0
-6.3591447 4.1211133 -1.2001959 0
-6.3782182 4.1031733 -1.2011925 0
-6.437367 4.1107745 -1.2097293 0
-6.4115009 4.0640588 -1.2023011 0
-6.434144 4.0482354 -1.2039952 0
-6.4281964 4.014472 -1.2003567 0
-6.4426956 3.9935637 -1.2005572 0
-6.4718056 3.9816337 -1.2034873 0
-6.4224572 3.9216506 -1.1918588 0
-6.4312186 3.8974586 -1.1910529 0
-6.5014338 3.9102669 -1.2016219 0
-6.5093594 3.8853738 -1.2006723 0
-6.5067902 3.8543108 -1.197808 0
-6.5087729 3.8260634 -1.1958047 0
-6.5034556 3.7936559 -1.1924843 0
-6.5586476 3.7964361 -1.2002637 0
-6.5572305 3.7663207 -1.1976867 0
-6.5714178 3.7452242 -1.1979777 0
-6.5692086 3.7148414 -1.1952977 0
-6.6214771 3.7151542 -1.2025349 0
-6.5899758 3.6684833 -1.1945734 0
-6.5996752 3.6449521 -1.1941097 0
-6.6214123 3.6280386 -1.195835 0
-6.6415567 3.6101758 -1.1972803 0
-6.6590462 3.590812 -1.198256 0
-6.7159491 3.5924835 -1.2063211 0
-6.7014737 3.5558939 -1.2015728 0
-6.7025399 3.5277112 -1.1996366 0
-6.7146864 3.5054052 -1.1997002 0
-6.7434893 3.4917202 -1.2027479 0
-6.7359896 3.4592466 -1.199335 0
-6.749074 3.4374189 -1.1996058 0
-6.7553325 3.4121306 -1.1986781 0
-6.7827091 3.3974636 -1.2015078 0
-6.7731538 3.3643179 -1.1978103 0
-6.841301 3.3696179 -1.2078571 0
-6.7415757 3.2924585 -1.1882945 0
-6.8092399 3.2972753 -1.1982659 0
-6.8902807 3.3080451 -1.2105685 0
-6.8789372 3.2742648 -1.2066401 0
-6.8249516 3.220546 -1.1952697 0
-6.8724785 3.2148442 -1.2016987 0
-6.8514872 3.1770701 -1.1961589 0
-6.8508134 3.1488924 -1.1941913 0
-6.8986211 3.1428931 -1.2006812 0
-6.879838 3.1065238 -1.1955925 0
-6.9179177 3.0958369 -1.2003996 0
-6.9132462 3.0659671 -1.1977985 0
-6.911654 3.0375707 -1.1957514 0
-6.9497895 3.0265694 -1.2005867 0
-6.9154487 2.984071 -1.1929191 0
-6.9533653 2.9728179 -1.1977338 0
-6.9868512 2.9594662 -1.2017858 0
-6.9910579 2.9336419 -1.2008107 0
-6.9596524 2.8930585 -1.1937437 0
-7.0022492 2.8832695 -1.199385 0
-7.021697 2.8637815 -1.2010648 0
-7.0088978 2.8311901 -1.1972451 0
-7.0451255 2.8183858 -1.2018125 0
-7.0957518 2.8110774 -1.2088342 0
-7.0302892 2.7579091 -1.1961 0
-7.0379229 2.733711 -1.1958325 0
-7.0835276 2.7241273 -1.2020227 0
-7.0682812 2.6910954 -1.1978977 0
-7.1115317 2.6802969 -1.2036978 0
-7.1275458 2.6590748 -1.2048925 0
-7.1371198 2.6354208 -1.2050105 0
-7.0821681 2.5881798 -1.1942608 0
-7.1232414 2.5761507 -1.1997237 0
-7.172554 2.5668237 -1.2065729 0
-7.1276226 2.5238185 -1.1975843 0
-7.1251473 2.4960892 -1.1957555 0
-7.1059055 2.462631 -1.1911339 0
-7.1014881 2.4344611 -1.1890185 0
-7.1843491 2.4359791 -1.2015179 0
-7.2088599 2.4173715 -1.2042549 0
-7.2080827 2.3902562 -1.2027795 0
-7.1846647 2.3557823 -1.1975471 0
-7.2300544 2.3438473 -1.203796 0
-7.2403188 2.3203771 -1.2042029 0
-7.1825738 2.2753441 -1.1933234 0
-7.2220459 2.2612324 -1.198615 0
-7.2670498 2.2485974 -1.204826 0
-7.1856513 2.1970394 -1.1901028 0
-7.2140746 2.1793082 -1.1935934 0
-7.2965446 2.177552 -1.2060236 0
-7.2843428 2.1473386 -1.20281 0
-7.3078184 2.1276543 -1.2055017 0
-7.2506013 2.0846505 -1.1949034 0
-7.2927699 2.0703275 -1.2007022 0
-7.3157635 2.050375 -1.2033492 0
-7.2606993 2.0087109 -1.1931773 0
-7.315516 1.9974957 -1.2010783 0
-7.3635011 1.984093 -1.2078576 0
-7.336771 1.9505295 -1.2023935 0
-7.3311691 1.9227461 -1.2004122 0
-7.3173718 1.8929291 -1.1971071 0
-7.3352356 1.8713334 -1.1989963 0
-7.3761234 1.8554465 -1.2046561 0
-7.3739219 1.828627 -1.2032884 0
-7.37288 1.8021501 -1.2021257 0
-7.3685508 1.7749318 -1.2004428 0
-7.338686 1.741726 -1.1946193 0
-7.405859 1.7314601 -1.2046022 0
-7.3693919 1.6968958 -1.1977385 0
-7.3288655 1.6617087 -1.1902395 0
-7.3643427 1.6438116 -1.1950994 0
-7.3727202 1.6197499 -1.1955709 0
-7.3901043 1.5976145 -1.1975147 0
-7.4136295 1.5767008 -1.2004633 0
-7.4490166 1.5581404 -1.2053407 0
-7.4016542 1.5223492 -1.1968442 0
-7.402307 1.4966328 -1.1961317 0
-7.4464235 1.4795829 -1.2024521 0
-7.3975692 1.4441109 -1.1937745 0
-7.457798 1.4299277 -1.2027135 0
-7.4727998 1.4068446 -1.2043653 0
-7.5321507 1.3918856 -1.2131717 0
-7.4766808 1.3557272 -1.2034985 0
-7.4537225 1.325767 -1.1990807 0
-7.4737959 1.3035017 -1.2016001 0
-7.47681 1.2782115 -1.201389 0
-7.5217152 1.2599472 -1.2079189 0
-7.4428329 1.2210934 -1.1945869 0
-7.478869 1.2012694 -1.1997175 0
-7.4901366 1.177332 -1.2008851 0
-7.5000372 1.1531342 -1.2018458 0
-7.4754252 1.1237069 -1.1972914 0
-7.5065866 1.1026671 -1.2016834 0
-7.5315094 1.080544 -1.2050864 0
-7.4567103 1.0443093 -1.1925511 0
-7.5248132 1.0281348 -1.2028848 0
-7.5028882 0.99952531 -1.1988374 0
-7.5332131 0.97787088 -1.2031523 0
-7.5017161 0.94821763 -1.1976073 0
-7.477838 0.91973776 -1.1932963 0
-7.546751 0.90253854 -1.2038035 0
-7.5058231 0.87212837 -1.1968019 0
-7.5453467 0.85109097 -1.2026422 0
-7.4765244 0.81795114 -1.1912289 0
-7.5329618 0.79857588 -1.1997876 0
-7.5210929 0.77182639 -1.1974784 0
-7.5357141 0.74780357 -1.1994004 0
-7.4310174 0.71226209 -1.1823498 0
-7.4840484 0.69202995 -1.1904118 0
-7.5234075 0.67023689 -1.196308 0
-7.5507207 0.64716059 -1.2002994 0
-7.5065951 0.61803269 -1.1929488 0
-7.5743814 0.59805292 -1.203396 0
-7.5342846 0.56947511 -1.1967155 0
-7.5778184 0.54721975 -1.2033321 0
-7.6068439 0.52368456 -1.2076557 0
-7.6352797 0.49992698 -1.2118971 0
-7.5840244 0.47103962 -1.2035042 0
-7.5083008 0.44107056 -1.1912464 0
-7.5939822 0.4205597 -1.2046099 0
-7.5467014 0.39256558 -1.1968944 0
-7.5767713 0.36866182 -1.2014606 0
-7.5705051 0.3429184 -1.2002779 0
-7.5965137 0.31857827 -1.2042253 0
-7.6194239 0.29395109 -1.2076941 0
-7.5755382 0.26682404 -1.2005895 0
-7.5145054 0.2394512 -1.190783 0
-7.57689 0.216012 -1.2005472 0
-7.5523734 0.18997306 -1.196555 0
-7.5812621 0.16526711 -1.2010374 0
-7.5391264 0.139061 -1.1942817 0
-7.5638037 0.11414898 -1.1981235 0
-7.5616736 0.088759333 -1.1977321 0
-7.5602875 0.063392207 -1.1974722 0
-7.6228442 0.03835756 -1.2073534 0
-7.5552526 0.012685752 -1.1966343 0
-7.5495553 2.0033423e-05 -1.1957303 0
-9.7519398 -0.01637413 -1.1973875 0
-9.7582989 -0.049102999 -1.1981817 0
-9.7500162 -0.081752844 -1.1971917 0
-9.8162622 -0.11522381 -1.2053666 0
-9.7688818 -0.14742687 -1.1996027 0
-9.7560568 -0.17995283 -1.1980951 0
-9.7256632 -0.21201381 -1.1944432 0
-9.695859 -0.24389049 -1.1908766 0
-9.7591324 -0.27822623 -1.1987559 0
-9.7641373 -0.31113616 -1.199492 0
-9.7464895 -0.34328884 -1.1974587 0
-9.8052559 -0.37827873 -1.2048279 0
-9.7387695 -0.40841898 -1.1968198 0
-9.7719965 -0.44263852 -1.2010788 0
-9.7099972 -0.47245789 -1.1936464 0
-9.7788982 -0.5086804 -1.2023194 0
-9.8159513 -0.54361385 -1.2070923 0
-9.7779875 -0.57440197 -1.2026539 0
-9.7260475 -0.60407948 -1.1965078 0
-9.7397556 -0.63771945 -1.1984506 0
-9.7297506 -0.6698336 -1.197489 0
-9.7589779 -0.7047286 -1.2013702 0
-9.7532291 -0.73719293 -1.2009602 0
-9.6942148 -0.76542938 -1.1940027 0
-9.7206125 -0.80031705 -1.1975777 0
-9.7851486 -0.8386699 -1.2058682 0
-9.7317543 -0.86697167 -1.1996398 0
-9.7310581 -0.89980495 -1.199919 0
-9.7684565 -0.93630528 -1.2049109 0
-9.6836309 -0.96095121 -1.1948386 0
-9.7571526 -1.0012944 -1.2043177 0
-9.6944399 -1.0277162 -1.1969957 0
-9.6325617 -1.0538272 -1.189785 0
-9.6818914 -1.0920863 -1.1963236 0
-9.6412897 -1.1202558 -1.1917641 0
-9.6868601 -1.1584805 -1.1978705 0
-9.7096977 -1.1942456 -1.2011831 0
-9.7228203 -1.2289654 -1.2033094 0
-9.6878042 -1.2575539 -1.1994909 0
-9.6523094 -1.2858686 -1.1956232 0
-9.6598177 -1.319846 -1.1970946 0
-9.7100878 -1.3598938 -1.2038826 0
-9.6352205 -1.3823631 -1.1951684 0
-9.6634407 -1.4194944 -1.1992524 0
-9.6490927 -1.450453 -1.1980686 0
-9.7085934 -1.4927008 -1.206071 0
-9.6375389 -1.51487 -1.1978683 0
-9.6407833 -1.54852 -1.1989102 0
-9.6894312 -1.589677 -1.205616 0
-9.65485 -1.6172642 -1.2019811 0
-9.6186352 -1.6443712 -1.1981522 0
-9.6189985 -1.6776457 -1.1988914 0
-9.5888329 -1.7055315 -1.1958375 0
-9.5711432 -1.7355106 -1.1943505 0
-9.5867929 -1.7715682 -1.1970378 0
-9.6186485 -1.8108265 -1.2017667 0
-9.5800943 -1.8368481 -1.1977124 0
-9.5957317 -1.8732234 -1.2004459 0
-9.5386763 -1.8953075 -1.1940964 0
-9.5699072 -1.9348882 -1.1988114 0
-9.5684891 -1.9680172 -1.1994537 0
-9.5888548 -2.005739 -1.2028428 0
-9.5437021 -2.029716 -1.1980257 0
-9.526412 -2.059448 -1.1967154 0
-9.5807018 -2.1048324 -1.2044151 0
-9.5499964 -2.1316764 -1.2014468 0
-9.5063667 -2.1554239 -1.1968602 0
-9.48806 -2.184746 -1.195471 0
-9.4504986 -2.2094886 -1.1916651 0
-9.5218191 -2.2598596 -1.2016069 0
-9.4839191 -2.2844806 -1.1977839 0
-9.4566936 -2.311496 -1.1953176 0
-9.4829025 -2.3516238 -1.1996201 0
-9.4917879 -2.3876369 -1.2017502 0
-9.4808464 -2.4187124 -1.2013849 0
-9.449297 -2.4444361 -1.1984187 0
-9.4259224 -2.4721372 -1.1964988 0
-9.4753857 -2.5190942 -1.2038429 0
-9.4495134 -2.5461683 -1.2016337 0
-9.4156618 -2.5709388 -1.1984184 0
-9.4222126 -2.6067047 -1.2003578 0
-9.4334316 -2.6438899 -1.2029096 0
-9.3923168 -2.666363 -1.1988001 0
-9.4099312 -2.7054887 -1.2021993 0
-9.4009991 -2.7370789 -1.2022239 0
-9.4298458 -2.7798078 -1.2070979 0
-9.3249607 -2.7829046 -1.1948595 0
-9.3521881 -2.8252134 -1.1995553 0
-9.3654079 -2.863508 -1.2024757 0
-9.3019276 -2.878237 -1.1955575 0
-9.3066254 -2.9139171 -1.1974101 0
-9.3241959 -2.9537818 -1.2009383 0
-9.3033743 -2.9815452 -1.1995373 0
-9.3543625 -3.0325081 -1.2074157 0
-9.246748 -3.0319195 -1.1948307 0
-9.2633152 -3.0717871 -1.1982956 0
-9.2554483 -3.1036611 -1.1986172 0
-9.2219915 -3.1268773 -1.1956354 0
-9.2398615 -3.1675169 -1.1993225 0
-9.1999674 -3.1883516 -1.1955252 0
-9.1910725 -3.2198262 -1.1957654 0
-9.18186 -3.2512028 -1.1959783 0
-9.2521315 -3.3110368 -1.2065706 0
-9.1746998 -3.3180692 -1.1979169 0
-9.1745119 -3.3528273 -1.1993535 0
-9.1573629 -3.3814065 -1.1985868 0
-9.1715622 -3.4216366 -1.2019402 0
-9.1253824 -3.4393063 -1.1973928 0
-9.086463 -3.4594748 -1.1938013 0
-9.0899439 -3.4957392 -1.1957916 0
-9.078681 -3.5263941 -1.1958587 0
-9.0920267 -3.5667071 -1.1991851 0
-9.0859451 -3.5995193 -1.199968 0
-9.0523071 -3.6213539 -1.1971222 0
-9.0528059 -3.656811 -1.1988029 0
-9.0788002 -3.7027657 -1.2038823 0
-9.0176735 -3.7131476 -1.197421 0
-8.98808 -3.7362559 -1.1951481 0
-9.0136261 -3.7823679 -1.2002245 0
-8.9913502 -3.8085248 -1.1989517 0
-9.0076904 -3.8511169 -1.2028457 0
-8.9759264 -3.8731835 -1.2003314 0
-8.9384632 -3.8926184 -1.1970601 0
-8.9604464 -3.9379849 -1.2017657 0
-8.8973837 -3.9459157 -1.1950755 0
-8.9501295 -4.0052719 -1.2039571 0
-8.907939 -4.0222931 -1.2000891 0
-8.9122686 -4.0602765 -1.2024997 0
-8.9100523 -4.095396 -1.2040465 0
-8.8834562 -4.1193047 -1.2023121 0
-8.8689146 -4.1487479 -1.20222 0
-8.8459558 -4.1742134 -1.2009981 0
-8.8044338 -4.1907706 -1.1972617 0
-8.8122339 -4.2307811 -1.2002445 0
-8.7696419 -4.2465711 -1.196376 0
-8.7941294 -4.2948875 -1.2016745 0
-8.7563934 -4.3128786 -1.1984872 0
-8.7827425 -4.3625083 -1.2040888 0
-8.7548256 -4.3852983 -1.2022705 0
-8.7153845 -4.4021559 -1.1988742 0
-8.6811056 -4.4214363 -1.1961914 0
-8.6595364 -4.4470787 -1.1952672 0
-8.6926317 -4.5009689 -1.2019114 0
-8.6665297 -4.5243654 -1.2003931 0
-8.6328459 -4.5436783 -1.1978309 0
-8.659543 -4.5948725 -1.2036661 0
-8.6001339 -4.600368 -1.1975455 0
-8.6012688 -4.6381326 -1.1998622 0
-8.5644321 -4.6554008 -1.1968943 0
-8.569541 -4.6954675 -1.1998016 0
-8.5544748 -4.7245736 -1.1999032 0
-8.5182066 -4.7418838 -1.1970394 0
-8.5309916 -4.7865372 -1.2010845 0
-8.4860668 -4.7988114 -1.1970181 0
-8.4859295 -4.8363547 -1.1992792 0
-8.4631243 -4.861022 -1.1983529 0
-8.4576674 -4.8956728 -1.1998978 0
-8.4007149 -4.9003825 -1.194142 0
-8.4126072 -4.9451976 -1.1981826 0
-8.3954191 -4.9730439 -1.1981027 0
-8.393116 -5.0097704 -1.2001643 0
-8.3906574 -5.0465345 -1.2022254 0
-8.3419704 -5.0554156 -1.1976714 0
-8.3453112 -5.0957747 -1.2005973 0
-8.3366661 -5.1289477 -1.2018207 0
-8.3114996 -5.1519589 -1.2006762 0
-8.310873 -5.1902218 -1.2030927 0
-8.3202381 -5.2349281 -1.2069825 0
-8.2374725 -5.2214875 -1.1975091 0
-8.2280235 -5.254252 -1.1986896 0
-8.1714115 -5.2567525 -1.1930031 0
-8.2460632 -5.3439512 -1.2065111 0
-8.1796169 -5.3399177 -1.199402 0
-8.1649075 -5.3694429 -1.1998781 0
-8.1435108 -5.3945708 -1.199385 0
-8.144928 -5.4348893 -1.2022709 0
-8.1103497 -5.4512038 -1.1998577 0
-8.1118345 -5.4917755 -1.2027948 0
-8.09799 -5.5220885 -1.2034805 0
-8.0281219 -5.5139685 -1.1958379 0
-8.0427532 -5.5637965 -1.2007892 0
-7.9760828 -5.5573072 -1.1936104 0
-7.993722 -5.6095033 -1.1990579 0
-7.9572358 -5.6238103 -1.1964066 0
-7.959322 -5.6653957 -1.1995696 0
-7.9898076 -5.7275529 -1.2070515 0
-7.9163256 -5.7151551 -1.1988385 0
-7.9044547 -5.7469983 -1.199952 0
-7.8693614 -5.7619138 -1.1975505 0
-7.8633795 -5.7981324 -1.1995919 0
-7.8641515 -5.8395057 -1.2026898 0
-7.8306651 -5.855473 -1.2005643 0
-7.8116679 -5.8822064 -1.2006687 0
-7.7840495 -5.90241 -1.1994586 0
-7.7599311 -5.9252033 -1.1987966 0
-7.7503352 -5.9591179 -1.2003942 0
-7.7308626 -5.985496 -1.2004796 0
-7.7423797 -6.0360408 -1.2054039 0
-7.7101669 -6.0525994 -1.2035414 0
-7.6382394 -6.0376358 -1.1954669 0
-7.6120338 -6.0585003 -1.1945379 0
-7.6508904 -6.1314406 -1.2038548 0
-7.5987325 -6.1315937 -1.1988759 0
-7.5736618 -6.1534047 -1.1981689 0
-7.5845437 -6.2045774 -1.2031747 0
-7.565362 -6.2313428 -1.2034394 0
-7.53688 -6.2504144 -1.2022355 0
-7.4980826 -6.260787 -1.1993884 0
-7.4982572 -6.303721 -1.2027904 0
-7.4289503 -6.2880874 -1.1950481 0
-7.4067731 -6.3120627 -1.1948782 0
-7.3812613 -6.3331656 -1.1941814 0
-7.3745952 -6.3704977 -1.1965518 0
-7.3864288 -6.4240918 -1.2019598 0
-7.3645658 -6.4485741 -1.2019138 0
-7.3181982 -6.4514503 -1.1978699 0
-7.3354158 -6.5104661 -1.2042544 0
-7.2775736 -6.5028801 -1.198331 0
-7.2425866 -6.5154204 -1.1961603 0
-7.237721 -6.5550818 -1.1989799 0
-7.2329326 -6.5950222 -1.2018429 0
-7.2168603 -6.6248169 -1.2028563 0
-7.150547 -6.6082573 -1.1954899 0
-7.145402 -6.6480594 -1.1983495 0
-7.1563258 -6.7031264 -1.2039438 0
-7.1212378 -6.7152262 -1.2018219 0
-7.0795856 -6.7209349 -1.1985887 0
-7.1018815 -6.7875175 -1.2062095 0
-7.0306954 -6.7647324 -1.1979645 0
-7.0237212 -6.8035188 -1.2006562 0
-7.0171394 -6.8428946 -1.2034464 0
-6.9781356 -6.8506546 -1.2006896 0
-6.9465146 -6.8655 -1.1992028 0
-6.8879752 -6.8534484 -1.1930571 0
-6.9348192 -6.9464822 -1.2051982 0
-6.8346491 -6.8922062 -1.1917989 0
-6.8674278 -6.971859 -1.2015841 0
-6.821413 -6.971746 -1.1976161 0
-6.8185549 -7.015727 -1.2012374 0
-6.8466129 -7.0920177 -1.2103627 0
-6.7909665 -7.0817409 -1.2047161 0
-6.7306647 -7.0661297 -1.1982148 0
-6.7438893 -7.1277137 -1.2048166 0
-6.6965461 -7.1253781 -1.2006199 0
-6.6851749 -7.1612411 -1.2028792 0
-6.6705647 -7.1937928 -1.2045835 0
-6.6140127 -7.1809459 -1.1987123 0
-6.5951099 -7.2087765 -1.1996602 0
-6.5793295 -7.2401209 -1.2011986 0
-6.5731778 -7.2822585 -1.2045263 0
-6.5199327 -7.2721424 -1.1992306 0
-6.4859133 -7.2831807 -1.197458 0
-6.4833541 -7.3296404 -1.2015159 0
-6.4356904 -7.3250985 -1.1972275 0
-6.427969 -7.3659716 -1.2003787 0
-6.387269 -7.3690605 -1.1973854 0
-6.3706698 -7.3998938 -1.198918 0
-6.3419223 -7.4166498 -1.1981809 0
-6.3501167 -7.47684 -1.2044586 0
-6.3232918 -7.4960489 -1.2041309 0
-6.2887607 -7.5060329 -1.2023408 0
-6.2485728 -7.5090661 -1.1994641 0
-6.2368174 -7.5462556 -1.2020576 0
-6.200892 -7.554224 -1.2000084 0
-6.1626697 -7.5591984 -1.1975095 0
-6.1697674 -7.6199284 -1.2038463 0
-6.1369953 -7.6316314 -1.2024378 0
-6.1141758 -7.655674 -1.2029892 0
-6.102438 -7.6937361 -1.2057483 0
-6.0407586 -7.668643 -1.198635 0
-6.0320988 -7.7106938 -1.2020397 0
-5.9835529 -7.7017093 -1.1975049 0
-5.945632 -7.70609 -1.1950797 0
-5.9409013 -7.7535715 -1.1993475 0
-5.8973556 -7.7504263 -1.1957958 0
-5.8837137 -7.7865353 -1.1983165 0
-5.84622 -7.7910881 -1.1959938 0
-5.8402901 -7.8377872 -1.2001499 0
-5.8199296 -7.8653674 -1.2013783 0
-5.8088312 -7.9056664 -1.2045522 0
-5.7493043 -7.8798852 -1.1976802 0
-5.6932297 -7.8582296 -1.1914808 0
-5.6947637 -7.9160748 -1.1973495 0
-5.6773648 -7.9479675 -1.1992877 0
-5.6444373 -7.9581499 -1.1979617 0
-5.638577 -8.0066404 -1.2024086 0
-5.6041284 -8.0146723 -1.2007861 0
-5.5788727 -8.0357895 -1.2011409 0
-5.5549388 -8.0588598 -1.2017986 0
-5.536489 -8.0900068 -1.2036685 0
-5.5174208 -8.1204271 -1.2054354 0
-5.4670639 -8.1046362 -1.2003636 0
-5.4496164 -8.1374893 -1.2025166 0
-5.4296384 -8.16675 -1.2041434 0
-5.3598881 -8.1207609 -1.1947062 0
-5.3846188 -8.2180319 -1.2063537 0
-5.3284483 -8.1920891 -1.1999161 0
-5.2883196 -8.1903439 -1.1970567 0
-5.2842474 -8.244566 -1.2023853 0
-5.2796707 -8.2985373 -1.2076682 0
-5.2017169 -8.2368584 -1.1961473 0
-5.2114339 -8.313858 -1.204785 0
-5.1862841 -8.3357115 -1.2054251 0
-5.1341786 -8.3139811 -1.1997867 0
-5.0975881 -8.3169765 -1.1977457 0
-5.09236 -8.371314 -1.2031054 0
-5.0603199 -8.3818083 -1.2021685 0
-5.0301867 -8.3953848 -1.2016901 0
-4.9918051 -8.3950415 -1.1992384 0
-4.9599967 -8.4055729 -1.1983606 0
-4.9360952 -8.4295139 -1.1994076 0
-4.9217782 -8.4700632 -1.2028224 0
-4.8924232 -8.4849072 -1.2025942 0
-4.8650513 -8.503191 -1.202867 0
-4.8198576 -8.4901142 -1.1987244 0
-4.7915835 -8.5066156 -1.1987792 0
-4.7653608 -8.5267935 -1.1993644 0
-4.7457557 -8.5589733 -1.2016459 0
-4.6936979 -8.5324183 -1.1957015 0
-4.6874733 -8.5891695 -1.2014452 0
-4.6439009 -8.5775967 -1.1976417 0
-4.6181231 -8.5987177 -1.1984221 0
-4.6156754 -8.663722 -1.2053183 0
-4.5603676 -8.6295071 -1.1984242 0
-4.5181303 -8.6194162 -1.1949124 0
-4.505022 -8.664938 -1.1991224 0
-4.4867573 -8.7009611 -1.2020191 0
-4.4293776 -8.6608515 -1.1944196 0
-4.4158635 -8.7063103 -1.1986402 0
-4.3772664 -8.7024155 -1.1960768 0
-4.3598943 -8.7407589 -1.1993309 0
-4.3240528 -8.7421637 -1.1975276 0
-4.3145928 -8.7971373 -1.2030697 0
-4.270555 -8.7816982 -1.1989934 0
-4.2354641 -8.7843046 -1.1974038 0
-4.2010021 -8.7880259 -1.1959842 0
-4.1613841 -8.7806873 -1.1930801 0
-4.144815 -8.8220348 -1.1968031 0
-4.1385946 -8.8860855 -1.203603 0
-4.1042504 -8.8901043 -1.2022767 0
-4.0573697 -8.8665533 -1.1972454 0
-4.0204458 -8.8642921 -1.1951132 0
-3.9964106 -8.890419 -1.1968224 0
-3.9848571 -8.9447947 -1.202337 0
-3.9418647 -8.9287043 -1.198391 0
-3.9102967 -8.9381914 -1.1978979 0
-3.8665776 -8.9195814 -1.1936597 0
-3.8625455 -8.9927845 -1.2017162 0
-3.8168471 -8.9692001 -1.1968478 0
-3.8052075 -9.0257187 -1.2026803 0
-3.7675843 -9.0208511 -1.2003417 0
-3.7277691 -9.0103521 -1.1972749 0
-3.707222 -9.0464306 -1.2004105 0
-3.6793525 -9.0649252 -1.201221 0
-3.6355038 -9.0437889 -1.1967982 0
-3.6204557 -9.094346 -1.2018754 0
-3.613205 -9.1654387 -1.209663 0
-3.5461273 -9.0844383 -1.1973966 0
-3.5382092 -9.1546488 -1.2050804 0
-3.5068619 -9.1648045 -1.2048628 0
-3.476691 -9.1780329 -1.2050626 0
-3.418148 -9.1156301 -1.1953578 0
-3.4008083 -9.1627188 -1.2000307 0
-3.3811004 -9.2041016 -1.203959 0
-3.3435426 -9.1970139 -1.2015587 0
-3.3278968 -9.2504473 -1.2070752 0
-3.2723219 -9.1926126 -1.19809 0
-3.2584605 -9.2517376 -1.2043653 0
-3.2141886 -9.2246284 -1.1994267 0
-3.1866455 -9.2452269 -1.200709 0
-3.1513176 -9.2432108 -1.1990682 0
-3.1437242 -9.3231649 -1.2080661 0
-3.0855727 -9.2530594 -1.1976348 0
-3.073854 -9.3219519 -1.2052108 0
-3.0261707 -9.281868 -1.1987101 0
-2.9987044 -9.3033514 -1.2001793 0
-2.9624901 -9.2976456 -1.198155 0
-2.9506605 -9.3689995 -1.2060685 0
-2.9028039 -9.3260612 -1.1992816 0
-2.8720603 -9.3375015 -1.1995076 0
-2.849303 -9.3752632 -1.2031245 0
-2.8111243 -9.3623514 -1.2002513 0
-2.7853904 -9.3908482 -1.2027005 0
-2.7379701 -9.3457956 -1.1957482 0
-2.7296784 -9.4346209 -1.2059351 0
-2.6856589 -9.4004164 -1.2004055 0
-2.6610892 -9.4340534 -1.2035547 0
-2.6296716 -9.4437418 -1.2036591 0
-2.5777514 -9.3788557 -1.1942807 0
-2.5526776 -9.4109898 -1.1972761 0
-2.5389128 -9.4860106 -1.2057306 0
-2.5031843 -9.4796648 -1.2038505 0
-2.4600313 -9.4444094 -1.1983191 0
-2.4336078 -9.4730625 -1.2009126 0
-2.4094164 -9.5111046 -1.2047044 0
-2.3771639 -9.5177288 -1.204527 0
-2.3537881 -9.5603676 -1.2089177 0
-2.3078012 -9.5108414 -1.2016698 0
-2.270421 -9.4956093 -1.1987768 0
-2.2436779 -9.5248461 -1.2015114 0
-2.2072372 -9.5129519 -1.1990707 0
-2.1857102 -9.5657282 -1.2047925 0
-2.1368921 -9.49862 -1.1954312 0
-2.1001737 -9.4837885 -1.1926717 0
-2.0826764 -9.556448 -1.2009244 0
-2.0414896 -9.5207777 -1.1955749 0
-2.0126109 -9.5420494 -1.1973921 0
-1.9829714 -9.5601435 -1.1988215 0
-1.9526749 -9.575407 -1.1999079 0
-1.921559 -9.5868883 -1.2005324 0
-1.8918346 -9.6056118 -1.2020762 0
-1.8561699 -9.5940781 -1.1998471 0
-1.8341677 -9.6538038 -1.2065407 0
-1.8020856 -9.6614838 -1.2067386 0
-1.7533288 -9.5781345 -1.1955872 0
-1.7339814 -9.6550989 -1.2044617 0
-1.6947659 -9.6220589 -1.1996243 0
-1.6656047 -9.6456928 -1.2018679 0
-1.6378839 -9.6785746 -1.2052741 0
-1.592543 -9.6063118 -1.1956035 0
-1.5626678 -9.6260233 -1.1973979 0
-1.5312235 -9.636487 -1.1980542 0
-1.5053949 -9.6833086 -1.203241 0
-1.4676796 -9.6538305 -1.1989599 0
-1.4424876 -9.7070398 -1.2049608 0
-1.4002357 -9.6450205 -1.1966727 0
-1.3695865 -9.6616297 -1.1981568 0
-1.3378097 -9.670682 -1.1987165 0
-1.3119479 -9.7238064 -1.2047495 0
-1.2763423 -9.7053671 -1.201928 0
-1.2429467 -9.7029715 -1.2011085 0
-1.210508 -9.7078896 -1.2012081 0
-1.1733377 -9.6738462 -1.1965022 0
-1.1486173 -9.7432175 -1.2045993 0
-1.1097021 -9.6924982 -1.1978619 0
-1.0817616 -9.7372351 -1.2029358 0
-1.047447 -9.7253819 -1.2010309 0
-1.0123044 -9.7045908 -1.1980374 0
-0.97864068 -9.6968298 -1.1966674 0
-0.94903094 -9.7298641 -1.2003448 0
-0.91841441 -9.7543526 -1.2029791 0
-0.88512307 -9.7509689 -1.2021891 0
-0.85120392 -9.7399101 -1.200467 0
-0.81383204 -9.6866369 -1.193558 0
-0.78315496 -9.7116938 -1.1963152 0
-0.74999869 -9.7066231 -1.1953741 0
-0.72261667 -9.7790031 -1.2039826 0
-0.68906075 -9.7705269 -1.2026478 0
-0.65640843 -9.7744255 -1.20285 0
-0.6219039 -9.7494659 -1.1995151 0
-0.59018302 -9.7675619 -1.2014912 0
-0.55959147 -9.8073511 -1.2061481 0
-0.52188534 -9.7193909 -1.1951085 0
-0.49149236 -9.76474 -1.2004753 0
-0.46128076 -9.8202047 -1.2070973 0
-0.42613035 -9.7707367 -1.2008342 0
-0.39351088 -9.7756472 -1.2012688 0
-0.36116204 -9.7885456 -1.2026982 0
-0.32806128 -9.7813654 -1.2016742 0
-0.29459551 -9.760251 -1.1989521 0
-0.26308906 -9.8066397 -1.2045354 0
-0.22962826 -9.7827787 -1.2015032 0
-0.1957486 -9.7298813 -1.1949192 0
-0.16389905 -9.7766533 -1.2005889 0
-0.13088618 -9.759798 -1.1984586 0
-0.098744422 -9.8180227 -1.2055608 0
-0.065547422 -9.7767639 -1.2004609 0
-0.032707982 -9.7591972 -1.1982837 0
1.2945364e-05 -9.7568693 -1.197991 0
0.032954637 -9.8250132 -1.206365 0
0.065381266 -9.7481222 -1.1969441 0
0.09805207 -9.7466116 -1.1967922 0
0.1310485 -9.769969 -1.1997074 0
0.16352104 -9.7525606 -1.1976304 0
0.19589886 -9.7360659 -1.1956788 0
0.22908941 -9.7587175 -1.1985482 0
0.26247326 -9.7827168 -1.2015971 0
0.29366186 -9.7284613 -1.1950471 0
0.32761523 -9.767293 -1.1999453 0
0.36213487 -9.8142061 -1.2058512 0
0.39285287 -9.7586555 -1.199181 0
0.42686233 -9.7869234 -1.2028238 0
0.45941067 -9.7798386 -1.2021356 0
0.49045223 -9.7435608 -1.1978717 0
0.52475017 -9.7722607 -1.2016096 0
0.5539614 -9.7082262 -1.1939574 0
0.59014964 -9.7665787 -1.2013706 0
0.62232518 -9.755662 -1.2002776 0
0.65186107 -9.7063255 -1.1944698 0
0.68842471 -9.7611399 -1.2014925 0
0.72025532 -9.7466955 -1.2000052 0
0.75197744 -9.7318964 -1.1984867 0
0.78817862 -9.7736664 -1.2039493 0
0.81990612 -9.7586222 -1.2024281 0
0.85459095 -9.778367 -1.2052072 0
0.88368082 -9.7347937 -1.2001951 0
0.91919184 -9.762332 -1.2039635 0
0.95661336 -9.807333 -1.2099022 0
0.98511195 -9.7606907 -1.2045487 0
1.0186851 -9.7655096 -1.2055581 0
1.041443 -9.6693945 -1.1941171 0
1.0832243 -9.7501659 -1.2045336 0
1.1070194 -9.6688395 -1.1949384 0
1.1396087 -9.6665821 -1.1951249 0
1.185516 -9.7740355 -1.2088945 0
1.2135621 -9.732172 -1.2042131 0
1.2435573 -9.7075338 -1.2016736 0
1.2722366 -9.6739483 -1.1980375 0
1.3118771 -9.7230864 -1.2046608 0
1.3332417 -9.6374722 -1.1946006 0
1.3711076 -9.6721754 -1.1994652 0
1.401703 -9.6549473 -1.1979048 0
1.4340613 -9.6501598 -1.1979007 0
1.4656438 -9.6402683 -1.197276 0
1.5042059 -9.6754913 -1.2022702 0
1.5378727 -9.6781664 -1.2032365 0
1.5713665 -9.6794443 -1.2040436 0
1.5941976 -9.6161337 -1.1968265 0
1.6319796 -9.6435299 -1.2009104 0
1.6525621 -9.5700102 -1.1924384 0
1.687685 -9.581708 -1.1945941 0
1.7330379 -9.6496992 -1.2037886 0
1.7634352 -9.6331997 -1.2024612 0
1.7990086 -9.644845 -1.2046609 0
1.8121624 -9.5378447 -1.1920487 0
1.8563213 -9.5947237 -1.1999285 0
1.8919302 -9.6059628 -1.2021207 0
1.9215914 -9.5869179 -1.2005368 0
1.9478707 -9.5517197 -1.1969402 0
1.9809525 -9.5502825 -1.1975856 0
2.0100369 -9.5297213 -1.1958456 0
2.0542059 -9.579958 -1.2030072 0
2.0749438 -9.5208435 -1.1964508 0
2.1193838 -9.5704155 -1.2035664 0
2.1425908 -9.5238333 -1.1986051 0
2.1834054 -9.5555248 -1.2035081 0
2.2119832 -9.5332909 -1.2016351 0
2.2678232 -9.6272335 -1.2144278 0
2.2691541 -9.4901991 -1.1980946 0
2.3065038 -9.5053835 -1.200981 0
2.3371649 -9.4927406 -1.200367 0
2.3663239 -9.4742203 -1.1990216 0
2.3953879 -9.4556227 -1.1976776 0
2.4344113 -9.4760857 -1.2012967 0
2.4627233 -9.4546413 -1.1996181 0
2.4903436 -9.4309359 -1.1976629 0
2.5407765 -9.4928732 -1.2066038 0
2.5545998 -9.4179773 -1.1981659 0
2.5925274 -9.432519 -1.2011149 0
2.6189861 -9.4052706 -1.1987567 0
2.6454241 -9.3784227 -1.1964586 0
2.6803772 -9.381835 -1.1980336 0
2.7115178 -9.3717585 -1.1979011 0
2.7460856 -9.3734055 -1.1992817 0
2.7713258 -9.343339 -1.1966169 0
2.8062136 -9.3459063 -1.1981441 0
2.8401442 -9.3450375 -1.1992466 0
2.8882389 -9.3900118 -1.2062541 0
2.9100692 -9.3493166 -1.202273 0
2.9317691 -9.3089285 -1.1983367 0
2.9656844 -9.3075848 -1.199437 0
3.0045869 -9.3215179 -1.2025238 0
3.0449102 -9.339262 -1.2061232 0
3.0617824 -9.2852592 -1.2004681 0
3.0852036 -9.2518721 -1.1974821 0
3.1244473 -9.2659159 -1.2006489 0
3.1492531 -9.2370749 -1.1982733 0
3.1810358 -9.2288723 -1.1985861 0
3.2101095 -9.2128429 -1.1978954 0
3.2305226 -9.1723366 -1.1940302 0
3.2957747 -9.2584181 -1.2066677 0
3.3111172 -9.2037287 -1.2009801 0
3.3466752 -9.205554 -1.2026757 0
3.3754694 -9.1886969 -1.2019452 0
3.4014542 -9.1643839 -1.20025 0
3.437911 -9.1682606 -1.2022606 0
3.4690602 -9.157815 -1.2024093 0
3.4869761 -9.1127634 -1.1980224 0
3.5408666 -9.1614523 -1.2059773 0
3.5784726 -9.1672287 -1.2083102 0
3.590682 -9.1082354 -1.2021146 0
3.6078472 -9.062604 -1.1976818 0
3.6514175 -9.0833063 -1.202029 0
3.6689498 -9.0392275 -1.197817 0
3.7146223 -9.0644197 -1.202799 0
3.7408099 -9.0418053 -1.2014556 0
3.772162 -9.031744 -1.2017925 0
3.7890985 -8.987443 -1.1975814 0
3.8240643 -8.9860935 -1.1991034 0
3.8567121 -8.9791374 -1.1998938 0
3.8939219 -8.9825945 -1.2020937 0
3.9031272 -8.9217386 -1.1956943 0
3.9239299 -8.8880167 -1.1929314 0
3.9786868 -8.9308805 -1.2004682 0
4.0112615 -8.9233932 -1.2012628 0
4.0584178 -8.9479494 -1.2063936 0
4.0643349 -8.8817129 -1.1992939 0
4.080945 -8.8395615 -1.195443 0
4.1373072 -8.8832588 -1.2032218 0
4.1374273 -8.8062496 -1.1946632 0
4.2051506 -8.8729753 -1.2056211 0
4.2316442 -8.8520651 -1.2047011 0
4.2563848 -8.8276348 -1.2033116 0
4.2621717 -8.7644005 -1.1966332 0
4.3161731 -8.8002996 -1.2035038 0
4.3403134 -8.7749805 -1.2020247 0
4.3609715 -8.7428608 -1.1996208 0
4.3945861 -8.7367897 -1.2008029 0
4.4257107 -8.725667 -1.2013068 0
4.44978 -8.7006874 -1.1999149 0
4.4805608 -8.6888876 -1.2003528 0
4.521945 -8.6974306 -1.2036207 0
4.5364099 -8.654233 -1.1997408 0
4.5665636 -8.6411753 -1.2000464 0
4.5865965 -8.6090851 -1.1977187 0
4.6353641 -8.630765 -1.2028903 0
4.6583257 -8.6041851 -1.2013559 0
4.7249565 -8.6577978 -1.2110467 0
4.7003846 -8.5445204 -1.1973991 0
4.7321253 -8.534337 -1.1981889 0
4.7508798 -8.5008297 -1.1957141 0
4.798099 -8.5181303 -1.2004036 0
4.8196626 -8.4897184 -1.1986703 0
4.8249636 -8.433074 -1.19295 0
4.8922472 -8.4845486 -1.2025453 0
4.8992987 -8.4313259 -1.1973232 0
4.913228 -8.3904114 -1.1938456 0
4.9783406 -8.4366093 -1.2027872 0
5.0165024 -8.4365244 -1.2051663 0
5.0489216 -8.4266033 -1.2061604 0
5.0478673 -8.3611317 -1.1992048 0
5.0822148 -8.3545866 -1.2007033 0
5.1252637 -8.3620806 -1.2042433 0
5.1350212 -8.3152971 -1.1999785 0
5.150001 -8.2773466 -1.1969869 0
5.2065463 -8.3060122 -1.20365 0
5.2454576 -8.3060732 -1.2062006 0
5.257163 -8.2631121 -1.2025148 0
5.2703605 -8.2228508 -1.1992204 0
5.290143 -8.19312 -1.1974645 0
5.3045382 -8.1552811 -1.1945269 0
5.315134 -8.1119366 -1.1907816 0
5.3576274 -8.1172895 -1.1941975 0
5.3979983 -8.119113 -1.1971217 0
5.4247704 -8.1003428 -1.1970292 0
5.4588079 -8.092351 -1.1985462 0
5.4679227 -8.0475302 -1.1946164 0
5.5214219 -8.0679445 -1.2003881 0
5.543838 -8.0427094 -1.1993923 0
5.6182799 -8.0925055 -1.2096207 0
5.5944142 -8.0007343 -1.1987002 0
5.630271 -7.9948015 -1.2006328 0
5.6538029 -7.9713097 -1.199945 0
5.6916342 -7.9678988 -1.2022973 0
5.7082982 -7.9348445 -1.2001909 0
5.7450981 -7.9297786 -1.2023314 0
5.7489505 -7.8793569 -1.1976022 0
5.8040023 -7.8990507 -1.2035465 0
5.8153477 -7.8591313 -1.2004282 0
5.8458037 -7.8451438 -1.2012787 0
5.850739 -7.7970672 -1.1969141 0
5.8535619 -7.7465897 -1.1921715 0
5.8934536 -7.7452559 -1.1950004 0
5.9163103 -7.7214346 -1.1943789 0
5.9616137 -7.7267613 -1.198288 0
5.9730906 -7.6882 -1.1954068 0
6.0165434 -7.6907678 -1.1989359 0
6.0260301 -7.6499038 -1.1957084 0
6.0716262 -7.6548486 -1.1996565 0
6.1025743 -7.6411057 -1.2007025 0
6.1446524 -7.6411119 -1.2039342 0
6.136456 -7.5787463 -1.1973428 0
6.1541295 -7.5486822 -1.1958462 0
6.1659241 -7.5115838 -1.1932374 0
6.1994419 -7.5009928 -1.1948502 0
6.2206559 -7.4754777 -1.1941015 0
6.2535605 -7.4639792 -1.1956072 0
6.3475718 -7.5247917 -1.2087506 0
6.3204579 -7.4418788 -1.1988293 0
6.3447356 -7.4198999 -1.1987088 0
6.3928599 -7.4256291 -1.2030903 0
6.3909302 -7.3732448 -1.198068 0
6.4190011 -7.3556561 -1.1987004 0
6.4655099 -7.3589993 -1.2027712 0
6.4567099 -7.2994795 -1.1965746 0
6.5227203 -7.3244729 -1.2042499 0
6.5016189 -7.251677 -1.1958585 0
6.5717721 -7.2806621 -1.2042651 0
6.5629716 -7.2220812 -1.1982086 0
6.6242776 -7.2406197 -1.2049623 0
6.6151943 -7.1821904 -1.198923 0
6.6684704 -7.1914959 -1.2042018 0
6.6624942 -7.1369071 -1.1987948 0
6.6626849 -7.0893111 -1.1945456 0
6.7137456 -7.0958171 -1.1994281 0
6.7338004 -7.0693841 -1.1987696 0
6.7653203 -7.0549588 -1.2001631 0
6.7735834 -7.0163336 -1.1974491 0
6.8520994 -7.0502038 -1.2071437 0
6.8177366 -6.9679513 -1.1969674 0
6.8744755 -6.9789762 -1.202814 0
6.8878727 -6.9458413 -1.2010766 0
6.9302521 -6.9418707 -1.2044013 0
6.9219379 -6.8872042 -1.1989365 0
6.9307771 -6.8499098 -1.1964828 0
6.9429932 -6.8161182 -1.1946398 0
7.0154915 -6.8412514 -1.2031606 0
7.0441494 -6.8232708 -1.2041452 0
7.0161157 -6.7506676 -1.1954772 0
7.0785213 -6.7651553 -1.2022389 0
7.0620718 -6.7042727 -1.1956205 0
7.1291728 -6.7226734 -1.2031581 0
7.1117096 -6.6613007 -1.196435 0
7.1283588 -6.6321669 -1.1954882 0
7.1905708 -6.6452107 -1.2021784 0
7.1568398 -6.5696859 -1.1928496 0
7.2225657 -6.5855346 -1.2001173 0
7.251843 -6.5678368 -1.2013164 0
7.2611885 -6.5321202 -1.1992297 0
7.2612553 -6.4882646 -1.1956413 0
7.317102 -6.4941773 -1.201245 0
7.3312154 -6.4628911 -1.1999978 0
7.329977 -6.4182525 -1.1962661 0
7.4043698 -6.439661 -1.2048765 0
7.4418383 -6.4285512 -1.2074594 0
7.3683043 -6.3220143 -1.1920825 0
7.4214196 -6.3245106 -1.1972383 0
7.4837461 -6.334434 -1.20386 0
7.5108047 -6.3142352 -1.2048004 0
7.5344205 -6.2910948 -1.2051984 0
7.5091124 -6.2273521 -1.1978035 0
7.5157208 -6.1904211 -1.1955402 0
7.6073327 -6.2231865 -1.2067872 0
7.6018405 -6.1762657 -1.2026241 0
7.607584 -6.1387029 -1.2002699 0
7.6401544 -6.1228037 -1.2021631 0
7.5815907 -6.0342374 -1.1897581 0
7.626616 -6.0284157 -1.1936452 0
7.6834784 -6.0316153 -1.1993729 0
7.7316804 -6.0276666 -1.2037357 0
7.6950526 -5.9577384 -1.1949165 0
7.7694836 -5.9738078 -1.2033575 0
7.8111348 -5.9642682 -1.2067045 0
7.7736573 -5.8944974 -1.1978549 0
7.8123226 -5.8826671 -1.2007669 0
7.8120975 -5.841557 -1.1977152 0
7.8541403 -5.8320394 -1.2011564 0
7.8683467 -5.8017631 -1.2003474 0
7.9025397 -5.7861748 -1.2025973 0
7.8884897 -5.7353587 -1.1975261 0
7.9295735 -5.7246876 -1.2008424 0
7.9366441 -5.6894102 -1.1990176 0
7.950048 -5.6587629 -1.1981696 0
7.9746089 -5.6360574 -1.1990166 0
7.983705 -5.6024423 -1.1975532 0
8.0372896 -5.5999207 -1.2027676 0
8.0386467 -5.5609236 -1.2001739 0
8.061389 -5.5367856 -1.2007909 0
8.0756483 -5.5068226 -1.200158 0
8.1124935 -5.4921904 -1.2028904 0
8.1206045 -5.4580655 -1.2013729 0
8.1123114 -5.4130936 -1.1974541 0
8.1634521 -5.4077492 -1.2023199 0
8.131362 -5.3473516 -1.1949463 0
8.2410765 -5.3800092 -1.2084118 0
8.17311 -5.2966428 -1.1958351 0
8.2098122 -5.2814255 -1.1986074 0
8.2619448 -5.2758822 -1.2036293 0
8.2309322 -5.2173114 -1.1965561 0
8.2569962 -5.195107 -1.1978062 0
8.2818661 -5.1720762 -1.1988916 0
8.3264475 -5.1611934 -1.2028335 0
8.3105774 -5.1128669 -1.1980579 0
8.3416672 -5.0935187 -1.200071 0
8.3104897 -5.0363073 -1.1931497 0
8.3865528 -5.0440354 -1.2016355 0
8.3816509 -5.0028968 -1.198523 0
8.3847866 -4.9667158 -1.1965835 0
8.4344511 -4.9580083 -1.201292 0
8.4423962 -4.9246664 -1.200065 0
8.472127 -4.9040127 -1.2019473 0
8.5108547 -4.8884072 -1.2051096 0
8.4750233 -4.8301096 -1.1977361 0
8.5584793 -4.8397298 -1.2072304 0
8.5149117 -4.7774854 -1.1988188 0
8.5783472 -4.7753329 -1.205489 0
8.5347519 -4.7136512 -1.1971351 0
8.5637922 -4.6922879 -1.198995 0
8.6405849 -4.6967654 -1.207535 0
8.6270771 -4.65202 -1.2034608 0
8.5992231 -4.5998516 -1.1974169 0
8.6796074 -4.6054893 -1.2064532 0
8.6182108 -4.5359464 -1.1957985 0
8.6638441 -4.5229344 -1.2000194 0
8.6478767 -4.4777665 -1.1957216 0
8.6738605 -4.4544053 -1.1972427 0
8.6851292 -4.4234562 -1.1967442 0
8.7323303 -4.4106865 -1.2012037 0
8.706049 -4.360837 -1.1955706 0
8.7325201 -4.3375325 -1.1972017 0
8.8066244 -4.3375907 -1.2053608 0
8.7559338 -4.2762046 -1.1964537 0
8.7785892 -4.250875 -1.197595 0
8.8101988 -4.2297754 -1.1999658 0
8.7823792 -4.1802444 -1.1942612 0
8.8404102 -4.1715679 -1.2002437 0
8.8677378 -4.1481686 -1.2020589 0
8.87817 -4.1168246 -1.2015952 0
8.868103 -4.0760865 -1.1983764 0
8.9049873 -4.0569305 -1.2015158 0
8.9164429 -4.0261045 -1.2012333 0
5.1265569 -2.2941687 -0.68961543 0
5.155611 -2.2864542 -0.69248861 0
5.1886401 -2.2803149 -0.69589418 0
5.1501489 -2.2428262 -0.68971932 0
5.1673732 -2.2297461 -0.69102097 0
5.1511893 -2.2023056 -0.68786544 0
5.104908 -2.1623034 -0.68071336 0
5.1037984 -2.1416795 -0.67960405 0
5.1346035 -2.1343877 -0.68274921 0
5.1394424 -2.1162183 -0.68244535 0
5.1488476 -2.0999284 -0.68275547 0
5.123332 -2.0695145 -0.67844808 0
5.2215443 -2.0888505 -0.69052237 0
5.2429743 -2.0770586 -0.69243151 0
5.2411385 -2.0560277 -0.69127476 0
5.3333225 -2.071584 -0.70251328 0
5.4102674 -2.0806217 -0.71172565 0
5.4896922 -2.090065 -0.72124815 0
9.1306362 -3.4412584 -1.1980809 0
9.1729259 -3.4221177 -1.2021178 0
9.1360817 -3.3735206 -1.1958003 0
9.1757603 -3.353256 -1.1995155 0
9.1527681 -3.3101101 -1.1950521 0
9.1480675 -3.2737684 -1.1929985 0
9.2588434 -3.2784343 -1.2060046 0
9.2095385 -3.2262678 -1.1981667 0
9.2458115 -3.2042117 -1.2014813 0
9.2430973 -3.1685989 -1.1997414 0
9.2489967 -3.1360064 -1.1991355 0
9.2733812 -3.109647 -1.2009386 0
9.228879 -3.0603404 -1.1938398 0
9.3205757 -3.0560997 -1.2043694 0
9.3115702 -3.0186083 -1.2018912 0
9.3172951 -2.9859793 -1.2013311 0
9.3013258 -2.9465096 -1.1979917 0
9.3265638 -2.9201326 -1.1999745 0
9.3711424 -2.8996263 -1.2044524 0
9.3094425 -2.8463693 -1.195289 0
9.3155851 -2.8141289 -1.1948595 0
9.3044939 -2.7767696 -1.1922361 0
9.3790693 -2.7648122 -1.2005972 0
9.3234034 -2.7144601 -1.1922997 0
9.4150133 -2.7069228 -1.2028477 0
9.3523417 -2.6549876 -1.1936969 0
9.4251289 -2.6415358 -1.2018499 0
9.4523458 -2.6150146 -1.2041959 0
9.4544659 -2.5815072 -1.2033565 0
9.4336863 -2.5418768 -1.1996201 0
9.4867554 -2.5220902 -1.2052865 0
1.9860934 -0.5208872 -0.25210866 0
2.0177011 -0.52195287 -0.25589725 0
2.0563221 -0.52459413 -0.26057088 0
2.0192628 -0.50793511 -0.25565761 0
1.9968098 -0.49517459 -0.25260323 0
2.0106726 -0.49146226 -0.25414702 0
2.0589626 -0.49595582 -0.26003921 0
2.1013849 -0.49872601 -0.26518431 0
2.0745764 -0.4850218 -0.2615945 0
2.0548534 -0.47315028 -0.25890607 0
2.0491755 -0.46461362 -0.25799289 0
2.070497 -0.46215454 -0.26048076 0
2.0379617 -0.44772434 -0.25619733 0
2.0487952 -0.44290888 -0.2573711 0
2.0824339 -0.44287789 -0.26140884 0
2.1036389 -0.44002068 -0.26388401 0
2.1180046 -0.43561879 -0.26550138 0
2.0510669 -0.41468853 -0.25693467 0
2.0700381 -0.41130489 -0.25913697 0
2.1207323 -0.4139913 -0.26530787 0
2.036926 -0.39054626 -0.25465828 0
2.1285119 -0.40071219 -0.26593897 0
2.0752537 -0.38348582 -0.25912273 0
2.1082895 -0.38228488 -0.26308614 0
2.134198 -0.37959635 -0.26615888 0
2.1237202 -0.37039137 -0.26469582 0
2.099072 -0.35884491 -0.26147228 0
2.109313 -0.35332096 -0.26259893 0
2.0621066 -0.33830974 -0.25657931 0
2.1331966 -0.34263206 -0.26528031 0
2.1192338 -0.33310455 -0.26340353 0
2.1218176 -0.32622468 -0.2635873 0
2.0823965 -0.3130205 -0.25855827 0
2.1752625 -0.31952554 -0.26995432 0
2.0975657 -0.3009316 -0.2601853 0
2.1644294 -0.3031216 -0.26835161 0
2.1029327 -0.28732347 -0.2606062 0
2.1509101 -0.28653574 -0.26643124 0
2.1798043 -0.28295001 -0.26989132 0
2.1529672 -0.27212945 -0.26645404 0
2.1152058 -0.26015434 -0.26167122 0
2.154844 -0.25769845 -0.26646647 0
2.1199064 -0.2463138 -0.26204249 0
2.1657138 -0.24427976 -0.26760203 0
2.2146759 -0.24228534 -0.27355003 0
2.1372051 -0.22656125 -0.26388574 0
2.1298871 -0.21856666 -0.26289025 0
2.1538603 -0.21373168 -0.26575926 0
2.1644998 -0.20746124 -0.26698473 0
2.2193661 -0.20521291 -0.2736659 0
2.1371119 -0.19038291 -0.26344311 0
