# .PCD v0.7 - Point Cloud Data file format
VERSION 0.7
FIELDS x y z intensity
SIZE 4 4 4 4
TYPE F F F F
COUNT 1 1 1 1
WIDTH 1411
HEIGHT 1
VIEWPOINT 0 0 0 1 0 0 0
POINTS 1411
DATA ascii
5.2578821 -2.0829644 -0.89573324 0
5.2629242 -2.064574 -0.89540792 0
5.3580675 -2.0811954 -0.91040283 0
5.3997049 -2.0765598 -0.91628945 0
5.4671707 -2.0814905 -0.92654836 0
7.1046314 -2.6776748 -1.2025286 0
7.0939374 -2.6465151 -1.1992099 0
7.0749211 -2.612432 -1.1945078 0
7.1275835 -2.6047554 -1.201918 0
7.1385469 -2.5816643 -1.2023003 0
7.0898824 -2.5372171 -1.1926646 0
7.1417532 -2.5288005 -1.1999574 0
7.1216846 -2.4948549 -1.1951733 0
7.1614928 -2.481874 -1.2004507 0
7.2298908 -2.4784575 -1.2105162 0
7.1688638 -2.4307072 -1.198927 0
7.2247472 -2.4226778 -1.2069079 0
7.2143059 -2.3922985 -1.2038169 0
7.2536993 -2.3783967 -1.2090528 0
7.2274222 -2.3429728 -1.2033569 0
7.211092 -2.3109894 -1.1993409 0
7.201736 -2.2813935 -1.1965059 0
7.2069836 -2.2564952 -1.1961141 0
7.2032847 -2.2288463 -1.1942533 0
7.2689614 -2.2224905 -1.2038999 0
7.2694254 -2.1960082 -1.2027504 0
7.2859402 -2.1743662 -1.2042699 0
7.2384839 -2.1337991 -1.1952368 0
7.2567077 -2.1127527 -1.1970695 0
7.3062544 -2.1006308 -1.2040743 0
7.3189425 -2.0777366 -1.2050104 0
7.2640634 -2.0358644 -1.1948444 0
7.3617001 -2.0366321 -1.2097743 0
7.3323259 -2.0020647 -1.2038374 0
7.3277555 -1.9744405 -1.2019932 0
1.8184688 -0.48344687 -0.29802123 0
1.81511 -0.47604382 -0.2972075 0
1.8877908 -0.48834679 -0.30883852 0
1.8728489 -0.47778773 -0.30613023 0
1.8362768 -0.4619059 -0.29989743 0
1.8941177 -0.46970871 -0.30908498 0
1.9007323 -0.46458989 -0.30990842 0
1.9125193 -0.46068108 -0.31157666 0
1.8953732 -0.44983283 -0.30853587 0
1.8806015 -0.43967181 -0.30588961 0
1.9288201 -0.44412985 -0.31348863 0
1.9426271 -0.4404557 -0.3154909 0
1.917436 -0.4279899 -0.31116495 0
1.9314744 -0.42432994 -0.31321049 0
1.9421681 -0.41985825 -0.31471455 0
1.9615482 -0.41716871 -0.31762651 0
1.946036 -0.40705469 -0.3148919 0
1.933051 -0.3975786 -0.31257334 0
1.951669 -0.39459211 -0.31536815 0
1.9583981 -0.38912266 -0.3162429 0
1.9268988 -0.37615278 -0.31095099 0
1.9633855 -0.3764461 -0.31663352 0
1.9444617 -0.36606303 -0.313382 0
1.9666491 -0.36341676 -0.31675971 0
2.0421627 -0.37029445 -0.32872051 0
1.9793732 -0.35205865 -0.31842172 0
2.0157964 -0.35156876 -0.32408971 0
2.0129557 -0.34412298 -0.32344565 0
2.0158567 -0.33766657 -0.32372805 0
2.0222344 -0.3317683 -0.32457179 0
2.001652 -0.32150349 -0.32109344 0
2.0511518 -0.32240334 -0.32885867 0
2.0343854 -0.3127822 -0.3260006 0
2.0717206 -0.31141573 -0.3318142 0
2.0545232 -0.30179009 -0.32889587 0
2.0645003 -0.29618785 -0.33033225 0
2.0858679 -0.29211929 -0.33359256 0
2.0860937 -0.28502277 -0.33347395 0
2.0524836 -0.27342373 -0.3279528 0
2.0665448 -0.26824835 -0.33005401 0
2.1025829 -0.26576102 -0.33566558 0
2.0701854 -0.25461718 -0.33035535 0
2.1351945 -0.25534856 -0.3405908 0
2.1195395 -0.24627116 -0.33796 0
2.1371131 -0.24105377 -0.34063134 0
2.124769 -0.23244953 -0.33853772 0
2.1492679 -0.22784001 -0.34231746 0
2.1361721 -0.21921161 -0.34011269 0
2.1173167 -0.2101054 -0.33699659 0
2.123724 -0.20355301 -0.33790585 0
2.1760516 -0.20120786 -0.34612238 0
2.1536887 -0.19185965 -0.34246114 0
2.1368272 -0.18313843 -0.33968037 0
2.1668682 -0.17839672 -0.34435883 0
2.1441004 -0.16928674 -0.34064847 0
2.2410803 -0.16938494 -0.35596412 0
2.1498621 -0.15524304 -0.34139079 0
2.2277982 -0.1533643 -0.35368317 0
2.1841719 -0.14300485 -0.346679 0
2.1963224 -0.13640654 -0.34853303 0
2.2063816 -0.12960666 -0.35005838 0
2.2436438 -0.1242485 -0.35590222 0
2.2347238 -0.11624029 -0.35442343 0
2.2369809 -0.10883849 -0.35472155 0
2.3178124 -0.10498293 -0.36748126 0
2.2791975 -0.095577627 -0.36130613 0
2.2203114 -0.085651889 -0.35192382 0
2.2568724 -0.079485089 -0.35767454 0
2.279814 -0.072640672 -0.36126977 0
2.2403858 -0.063865937 -0.35498586 0
2.3062215 -0.058004774 -0.36538455 0
2.348356 -0.051186562 -0.37203082 0
2.3301907 -0.04297474 -0.36912814 0
2.3234363 -0.035057917 -0.36803746 0
2.3458807 -0.027529849 -0.37157604 0
2.3207057 -0.019452712 -0.36757603 0
2.3703444 -0.011921099 -0.37542987 0
2.3452103 -0.0039315349 -0.37144479 0
2.3824759 0.0039940071 -0.37734705 0
2.392895 0.012034511 -0.37900156 0
2.3158607 0.0194121 -0.36680865 0
2.391129 0.028060855 -0.37874314 0
2.39644 0.036159463 -0.37960145 0
2.4339597 0.044888515 -0.38556632 0
2.3860204 0.052007526 -0.3779977 0
2.4320185 0.061168753 -0.38531515 0
2.4181845 0.068934381 -0.38315782 0
7.5141129 0.23941875 -1.1907208 0
7.5931053 0.26742259 -1.2033736 0
7.57408 0.29218164 -1.2005069 0
7.5474334 0.31649992 -1.1964447 0
7.6008134 0.34427103 -1.205083 0
7.5843101 0.36900845 -1.2026558 0
7.5406504 0.39223075 -1.1959344 0
7.5857377 0.42008293 -1.2033019 0
7.5812783 0.44533741 -1.2028246 0
7.6006565 0.4720524 -1.2061434 0
7.5332255 0.4932248 -1.1956985 0
7.525516 0.51806557 -1.1947439 0
7.5537109 0.54545873 -1.1995037 0
7.539556 0.56985343 -1.1975526 0
7.561626 0.59702563 -1.2013692 0
7.5920463 0.62504774 -1.2065285 0
7.5616231 0.64807481 -1.2020322 0
7.533339 0.67110151 -1.1978869 0
7.5159073 0.69495577 -1.1954789 0
7.5574656 0.7243619 -1.2024688 0
7.5151563 0.74574333 -1.196128 0
7.5528798 0.7750681 -1.202539 0
7.5206838 0.79725409 -1.1978317 0
7.6034584 0.83181763 -1.2114528 0
7.4922981 0.84508711 -1.1941864 0
7.5210428 0.87387657 -1.1992283 0
7.5287709 0.90036798 -1.2009351 0
7.5688095 0.93090636 -1.2078129 0
7.5100689 0.94925314 -1.1989403 0
7.5285664 0.97724736 -1.2024096 0
7.5330081 1.0035175 -1.2036498 0
7.5155745 1.0268521 -1.2014074 0
7.5070333 1.0513366 -1.2005988 0
7.4716091 1.0719299 -1.1955016 0
7.4594212 1.0957186 -1.1941324 0
7.5217905 1.1306562 -1.2047168 0
7.4725957 1.1488948 -1.1974479 0
7.4377055 1.1690705 -1.1924783 0
7.5293722 1.2093608 -1.2078184 0
7.449718 1.2222027 -1.1956913 0
7.4516225 1.2481858 -1.1966621 0
7.4189873 1.268306 -1.1920973 0
7.4755645 1.3037897 -1.2018839 0
7.4666977 1.3280545 -1.2011675 0
7.4557953 1.3519197 -1.2001361 0
7.4749908 1.3813024 -1.2039646 0
7.4147797 1.3959013 -1.1950138 0
7.3930302 1.4174891 -1.1922678 0
7.4061747 1.4457704 -1.1951625 0
7.4363217 1.4775552 -1.2008202 0
7.3503013 1.4860978 -1.1877276 0
7.4328141 1.5287377 -1.2018822 0
7.4207339 1.5522039 -1.2007636 0
7.4412169 1.5825473 -1.2049297 0
7.4480462 1.6101198 -1.206903 0
7.3777065 1.6208248 -1.1963788 0
7.3794055 1.6471533 -1.1975431 0
7.3828464 1.6739274 -1.1990056 0
7.3651567 1.6959 -1.1970494 0
7.3787255 1.7250957 -1.200188 0
7.3956227 1.7552184 -1.203887 0
7.4164429 1.7864472 -1.2082443 0
7.362823 1.7996713 -1.2004852 0
7.3802609 1.830178 -1.2043221 0
7.3382831 1.8459071 -1.1984752 0
7.3465018 1.8741868 -1.2008371 0
7.3412971 1.8990974 -1.2010204 0
7.3422875 1.9256413 -1.2022319 0
7.3227854 1.9467905 -1.2001007 0
7.3173418 1.9716345 -1.2002852 0
7.2707658 1.985256 -1.1937302 0
7.317946 2.0245275 -1.2025841 0
7.2642088 2.0359051 -1.1948683 0
7.3027105 2.0731287 -1.2023379 0
7.2867999 2.0950375 -1.2008681 0
7.2289362 2.1046672 -1.1924883 0
7.2468286 2.1362591 -1.1966146 0
7.2959394 2.1773503 -1.2059226 0
7.2692389 2.1959517 -1.2027196 0
7.1993532 2.2012079 -1.1923712 0
7.2866869 2.2546525 -1.2080808 0
7.2754431 2.27793 -1.207476 0
7.2370639 2.2925849 -1.2023754 0
7.2057185 2.3092673 -1.1984472 0
7.2304468 2.3439531 -1.2038603 0
7.1725645 2.3517935 -1.1955291 0
7.198503 2.3870583 -1.2011799 0
7.1652741 2.4027345 -1.1969726 0
7.1330752 2.4185724 -1.1929417 0
4.7725167 1.6360524 -0.7990728 0
4.6777859 1.621125 -0.7841174 0
4.6781373 1.638836 -0.78509295 0
4.5896697 1.6251415 -0.77115631 0
4.4958701 1.6089123 -0.75629824 0
4.5102668 1.6311437 -0.75963575 0
4.4476252 1.6253722 -0.74999899 0
4.4939752 1.6594114 -0.75874895 0
4.4624977 1.6648114 -0.75437254 0
4.4119687 1.6628333 -0.74676907 0
4.4492998 1.6939614 -0.75404483 0
4.4697323 1.7189209 -0.75848001 0
4.4575958 1.7314317 -0.75740141 0
4.443171 1.742996 -0.75593919 0
4.4867105 1.7774569 -0.76435637 0
4.4463229 1.7787273 -0.75848764 0
4.4565845 1.8001891 -0.76126355 0
4.4707689 1.823378 -0.76472646 0
4.4843645 1.846483 -0.76810658 0
6.9889193 2.9052026 -1.1987623 0
6.9593439 2.9203122 -1.1953621 0
6.9688044 2.9518001 -1.1986803 0
6.9709258 2.9803038 -1.2007571 0
6.9901052 3.0162637 -1.205796 0
6.9396491 3.0221317 -1.1988336 0
6.9165497 3.0397003 -1.196597 0
6.9504652 3.0824513 -1.2042457 0
6.896821 3.0863738 -1.1967374 0
6.9010596 3.1160843 -1.1992792 0
6.8761091 3.1326151 -1.1967617 0
6.8639693 3.1549172 -1.1964831 0
6.8218055 3.1632845 -1.1909755 0
6.8521619 3.2053185 -1.1981447 0
6.8585892 3.2363966 -1.2011592 0
6.8185101 3.2454801 -1.196039 0
6.8762274 3.301276 -1.2080981 0
6.7826633 3.2843838 -1.1935877 0
6.8278003 3.3345466 -1.2034912 0
6.7622318 3.330651 -1.1938956 0
6.7655478 3.3605175 -1.1964636 0
6.7666888 3.3894165 -1.1986684 0
6.7536736 3.4112701 -1.1983821 0
6.7444425 3.4350376 -1.198781 0
6.735218 3.458828 -1.199196 0
6.7652049 3.5029416 -1.2066194 0
6.717339 3.5067673 -1.2001725 0
6.7367435 3.5456905 -1.2057567 0
6.7156291 3.5633821 -1.2041092 0
6.6448302 3.5544181 -1.1935451 0
6.6710429 3.5972581 -1.200413 0
6.7094002 3.6470308 -1.2095088 0
6.6582665 3.6482091 -1.2024891 0
6.6530414 3.6744027 -1.2037637 0
6.6584969 3.706604 -1.2069925 0
6.5788755 3.6912286 -1.1947962 0
6.5868359 3.7247863 -1.1985031 0
6.5812302 3.7507935 -1.1997647 0
6.578795 3.7786837 -1.2016236 0
6.5506339 3.791774 -1.1987953 0
6.5325131 3.8105829 -1.1978105 0
6.5065928 3.8247588 -1.1954024 0
6.5515809 3.8808188 -1.2060513 0
6.5302978 3.8978484 -1.2045326 0
6.546494 3.9373446 -1.2099482 0
6.4972129 3.9374287 -1.2032731 0
6.450561 3.9387875 -1.1970721 0
6.440783 3.9625242 -1.1977164 0
6.4252439 3.9827223 -1.1973032 0
6.4602027 4.0344362 -1.2063314 0
6.4015536 4.0277066 -1.1978947 0
6.3955965 4.0539536 -1.1993166 0
6.381063 4.0747957 -1.1991465 0
6.3705401 4.0982099 -1.1997445 0
6.3889365 4.1403961 -1.2058165 0
6.3764334 4.1627173 -1.2060843 0
6.3670483 4.1871028 -1.2069576 0
6.2955379 4.1703792 -1.1960458 0
6.3073268 4.2086835 -1.2009594 0
6.3080621 4.2398095 -1.2037995 0
6.2748113 4.2480721 -1.2001654 0
6.2497158 4.2617106 -1.1980917 0
6.2398982 4.2857356 -1.1989576 0
6.226819 4.3075495 -1.1992128 0
6.2178745 4.3322573 -1.2002808 0
6.1821132 4.338203 -1.1961786 0
6.1888967 4.3740048 -1.200322 0
6.2095418 4.4198885 -1.2071934 0
6.1626587 4.4177227 -1.2009516 0
6.151741 4.4411964 -1.2017192 0
6.171463 4.4869876 -1.2085038 0
6.0751233 4.4481554 -1.1925521 0
6.084723 4.4865994 -1.1973828 0
6.115726 4.5411916 -1.2064731 0
6.0645967 4.5348492 -1.1993793 0
6.0416479 4.5493517 -1.1978507 0
6.0372176 4.5778151 -1.2000087 0
6.0579901 4.6256375 -1.2072135 0
6.0363288 4.6412182 -1.2059911 0
5.9614253 4.6155124 -1.1941112 0
5.9949727 4.6737185 -1.2039632 0
6.0027165 4.7121987 -1.2086844 0
5.9499393 4.7030959 -1.2012258 0
5.9498134 4.7354951 -1.204399 0
5.9041433 4.7315679 -1.1983588 0
5.8657002 4.7331443 -1.1937703 0
5.8589134 4.76019 -1.1956306 0
5.8560247 4.7905273 -1.1983122 0
5.8513036 4.8195024 -1.2006458 0
5.797667 4.8080401 -1.1929411 0
5.8233285 4.8623662 -1.201569 0
5.7940259 4.8709617 -1.1988858 0
5.789947 4.9007592 -1.2014351 0
5.7476969 4.898169 -1.196069 0
5.7601709 4.9422336 -1.2021062 0
5.7418489 4.9600334 -1.2017465 0
5.7527986 5.0032716 -1.2075424 0
5.6644683 4.9599051 -1.1924853 0
5.6529751 4.9834251 -1.1935766 0
5.6473112 5.0121813 -1.1959223 0
5.6985912 5.0919528 -1.2103903 0
5.6193461 5.0551286 -1.1971518 0
5.6408072 5.108757 -1.2053663 0
5.5590911 5.0687785 -1.1915294 0
5.5770502 5.1195035 -1.1990511 0
5.5236983 5.1047602 -1.1912537 0
5.5621982 5.175024 -1.2032918 0
5.5095291 5.1605921 -1.1956341 0
5.5176926 5.2030783 -1.2011846 0
5.4797831 5.2021503 -1.1967223 0
5.4903946 5.247335 -1.2028753 0
5.4684343 5.2615418 -1.2019222 0
5.4537821 5.2827716 -1.202588 0
5.4486804 5.3133545 -1.2053845 0
5.4320884 5.3328233 -1.2056626 0
5.3618641 5.2993026 -1.194013 0
5.3241444 5.2974281 -1.189562 0
5.3238583 5.3327837 -1.1934861 0
5.3134542 5.3581724 -1.1951745 0
5.2724299 5.3525777 -1.1899767 0
5.303865 5.4207249 -1.2011669 0
5.2597952 5.4118638 -1.1952889 0
5.1997604 5.3861079 -1.1857432 0
5.2594128 5.48458 -1.2035328 0
5.2130876 5.4728851 -1.1971242 0
5.2267747 5.5242243 -1.2045139 0
5.1652327 5.4959736 -1.1945714 0
5.1768379 5.5454626 -1.2015486 0
5.1428242 5.5461893 -1.1979632 0
5.1408634 5.5814924 -1.2018589 0
5.0991044 5.5735402 -1.1964583 0
5.0732341 5.5827317 -1.1947734 0
5.0732279 5.620472 -1.1992031 0
5.0179172 5.596808 -1.1905578 0
5.0665641 5.6893301 -1.2066189 0
5.0275602 5.6837883 -1.2018617 0
5.0305018 5.7256832 -1.2071474 0
4.9829173 5.7100201 -1.2003161 0
4.9814372 5.7471066 -1.2045944 0
4.9820209 5.7868686 -1.2094206 0
4.9027596 5.7335701 -1.1948394 0
4.903573 5.7736001 -1.1997484 0
4.8893309 5.7961054 -1.2010118 0
4.8477659 5.7860837 -1.1955605 0
4.8148246 5.7860641 -1.1922141 0
4.8048606 5.8136239 -1.1945666 0
4.8126798 5.8630052 -1.2013911 0
4.7689242 5.8495831 -1.1953576 0
4.7875929 5.9128513 -1.2049994 0
4.7283735 5.8799143 -1.1950495 0
4.7620993 5.9626808 -1.2086194 0
4.6973758 5.9222517 -1.1972253 0
4.6429935 5.8941717 -1.188395 0
4.656827 5.9526825 -1.1970375 0
4.6424928 5.9755359 -1.1984962 0
4.6461372 6.0217915 -1.2046424 0
4.5817785 5.9797244 -1.1931472 0
4.5835147 6.0237164 -1.1988519 0
4.5836415 6.06598 -1.2041979 0
4.5469389 6.0595398 -1.1998863 0
4.5412421 6.0944047 -1.2037684 0
4.4814782 6.0564785 -1.1933025 0
4.4817896 6.0995636 -1.1988242 0
4.4326291 6.0752416 -1.1911162 0
4.448379 6.1399579 -1.2008736 0
4.3952074 6.1095767 -1.1920427 0
4.4296517 6.20121 -1.2070167 0
4.3833513 6.1800966 -1.2000397 0
4.3460698 6.171278 -1.1954912 0
4.3503079 6.2215018 -1.2023882 0
4.2979984 6.1907878 -1.1936606 0
4.2950382 6.2310157 -1.1986337 0
4.2756462 6.2476077 -1.199061 0
4.2511768 6.2567592 -1.1980752 0
4.2254162 6.2639222 -1.1967273 0
4.2308841 6.3176146 -1.2042682 0
4.1827326 6.2912354 -1.1965598 0
4.1658649 6.3116612 -1.1977814 0
4.1536379 6.3392653 -1.2003703 0
4.1148682 6.3262634 -1.1952893 0
4.1012349 6.3517962 -1.1975087 0
4.0902333 6.381609 -1.200537 0
4.0912709 6.4305844 -1.2071631 0
4.0293741 6.3804307 -1.1952053 0
4.016046 6.4068055 -1.1976169 0
4.0118661 6.4480772 -1.2028106 0
3.9691322 6.4273372 -1.1964527 0
3.9565284 6.4552402 -1.1991708 0
3.9326375 6.4648113 -1.1984925 0
3.8888888 6.4414353 -1.191735 0
3.8611989 6.4443049 -1.1898642 0
3.8745804 6.5160923 -1.2007135 0
3.850317 6.5249891 -1.1999673 0
3.8428814 6.5625606 -1.2045006 0
3.7728508 6.4927936 -1.1893669 0
3.8093979 6.6065803 -1.2078643 0
3.7677884 6.5853424 -1.201665 0
3.7641084 6.6303859 -1.2075746 0
3.7062585 6.5797706 -1.1960863 0
3.6839218 6.5917034 -1.1960034 0
3.6806383 6.6379919 -1.2021563 0
3.6542497 6.6428204 -1.2008051 0
3.6387877 6.667551 -1.2030634 0
3.5964551 6.6428518 -1.1964242 0
3.5771422 6.6604204 -1.1974218 0
3.5479438 6.6595244 -1.1951153 0
3.5363204 6.6916766 -1.1987507 0
3.544091 6.7611589 -1.2090625 0
3.4926922 6.7177835 -1.1992049 0
3.4766393 6.7420421 -1.2014478 0
3.4626386 6.7705226 -1.2044475 0
3.4586039 6.818933 -1.2109898 0
3.3967957 6.7531028 -1.1972696 0
3.3599923 6.7361007 -1.1922512 0
3.3394659 6.7515283 -1.1929933 0
3.3413103 6.8126397 -1.2018055 0
3.310035 6.8065004 -1.1987579 0
3.2839854 6.8109021 -1.1975873 0
3.2616048 6.822865 -1.1977612 0
3.2241573 6.8030548 -1.192379 0
3.2206497 6.8549476 -1.1995749 0
3.2044029 6.8802104 -1.2021089 0
3.2030964 6.9380908 -1.2103386 0
3.1742842 6.9367023 -1.2082329 0
3.1402061 6.9234877 -1.2040906 0
3.0910652 6.876338 -1.1940814 0
3.0944986 6.9461608 -1.2043978 0
3.0506527 6.9099736 -1.1963431 0
3.0296226 6.9250889 -1.1971946 0
3.0097754 6.9430237 -1.1985439 0
3.0024636 6.9902887 -1.2049584 0
2.9680765 6.9746251 -1.2005363 0
2.937731 6.9680657 -1.1977051 0
2.9134893 6.975811 -1.1973506 0
2.906069 7.0241766 -1.2039731 0
2.8337567 6.9149323 -1.1836129 0
2.8589642 7.0436573 -1.203999 0
2.8162146 7.0056467 -1.1958809 0
2.8054121 7.0469556 -1.2013201 0
2.7714701 7.0301971 -1.1968725 0
2.7535131 7.0538716 -1.1993245 0
2.7363873 7.0799847 -1.2021977 0
2.704201 7.067081 -1.1984602 0
2.6821225 7.0804138 -1.1991895 0
2.6621099 7.0993452 -1.2008774 0
2.6326997 7.093164 -1.198332 0
2.6118808 7.1100569 -1.1996998 0
2.5917909 7.1291265 -1.2014444 0
2.5647807 7.129179 -1.1999973 0
2.5496855 7.1625204 -1.2041637 0
2.5140147 7.1379743 -1.1986132 0
2.4908767 7.1486831 -1.1990023 0
2.4550905 7.1227489 -1.1932652 0
2.450671 7.1880636 -1.202824 0
2.4066062 7.137073 -1.1929345 0
2.402982 7.2060332 -1.2031075 0
2.3550572 7.1420221 -1.1910952 0
2.3600535 7.2386894 -1.2058903 0
2.3293741 7.2267175 -1.2025881 0
2.287008 7.1776085 -1.1931332 0
2.2777293 7.2322264 -1.2009362 0
2.2380545 7.1903028 -1.1927218 0
2.2418268 7.2884483 -1.2077485 0
2.206871 7.261354 -1.2020259 0
2.1821647 7.2675538 -1.2018343 0
2.1523182 7.2563963 -1.1987891 0
2.1238558 7.249505 -1.1964675 0
2.102798 7.2678537 -1.1983255 0
2.0753889 7.2642593 -1.1965787 0
2.0529134 7.277884 -1.1976825 0
2.0394757 7.3241396 -1.2041625 0
2.0097995 7.3123507 -1.2011098 0
1.9923476 7.3451366 -1.2053909 0
1.9519628 7.292942 -1.1957448 0
1.9218377 7.2780023 -1.192232 0
1.9151738 7.3525443 -1.2033843 0
1.8896838 7.3557029 -1.2028576 0
1.8561984 7.3272109 -1.197174 0
1.837756 7.3579555 -1.2011837 0
1.802507 7.3211489 -1.1941817 0
1.7712547 7.2995567 -1.1896844 0
1.7672246 7.3909979 -1.2036151 0
1.752515 7.4396768 -1.2105787 0
1.716262 7.3968124 -1.2026607 0
1.6932528 7.4104052 -1.203941 0
1.6659632 7.40522 -1.2021843 0
1.6423001 7.4160681 -1.2030447 0
1.6295125 7.4769907 -1.2120345 0
1.5900723 7.4154329 -1.201185 0
1.5707145 7.4468632 -1.2054163 0
1.5438691 7.443079 -1.2039591 0
1.5154521 7.4312806 -1.2012221 0
1.4876744 7.4220834 -1.1989224 0
1.4634745 7.4305501 -1.1994907 0
1.4425186 7.4559116 -1.2027972 0
1.4197482 7.4724746 -1.2046945 0
1.3832486 7.4158721 -1.1948147 0
1.3511568 7.3810277 -1.1884642 0
1.3336697 7.425983 -1.194976 0
1.3182838 7.4844594 -1.2036679 0
1.2932823 7.4894156 -1.2037609 0
1.2627037 7.4614415 -1.1985774 0
1.2497193 7.5382547 -1.2102365 0
1.2188009 7.507679 -1.2046649 0
1.1903973 7.4914279 -1.2014101 0
1.1627097 7.478888 -1.1987672 0
1.1387389 7.4900522 -1.1999378 0
1.1150894 7.5037174 -1.2015214 0
1.0904765 7.5112157 -1.2021298 0
1.0638876 7.5049596 -1.2005509 0
1.0411505 7.5260615 -1.2033614 0
1.0059917 7.4559913 -1.1916116 0
0.99232203 7.5455089 -1.2053797 0
0.95633841 7.4654269 -1.192068 0
0.93686658 7.5132103 -1.1991895 0
0.91105705 7.5112476 -1.1983821 0
0.88549393 7.511086 -1.1978759 0
0.86404675 7.5466871 -1.2030848 0
0.83947843 7.5561948 -1.2041451 0
0.81036657 7.5239396 -1.1985652 0
0.78455758 7.5210729 -1.1976827 0
0.76078939 7.5380573 -1.1999744 0
0.73998213 7.5864 -1.2072684 0
0.70925939 7.532732 -1.1983427 0
0.6890074 7.5902343 -1.2071161 0
0.65887582 7.5389633 -1.1986041 0
0.63541549 7.5627928 -1.2020472 0
0.60923594 7.5547204 -1.2004329 0
0.58770168 7.6058826 -1.2082425 0
0.55971867 7.5742683 -1.2029155 0
0.53162277 7.5378528 -1.1968423 0
0.50496256 7.5189815 -1.1935705 0
0.48592722 7.6174674 -1.2089387 0
0.45553419 7.5387836 -1.196202 0
0.43106931 7.5545306 -1.1984646 0
0.40797722 7.5976343 -1.2050788 0
0.38048947 7.5589876 -1.1987399 0
0.35648572 7.5887942 -1.2032706 0
0.33063492 7.5806613 -1.2017984 0
0.30527526 7.5831857 -1.2020297 0
0.27937937 7.5714512 -1.2000144 0
0.25469232 7.5932193 -1.2033223 0
0.22857815 7.5723615 -1.1998887 0
0.20431307 7.6150117 -1.2065316 0
0.17881888 7.617301 -1.2067925 0
0.15270884 7.5895457 -1.2023075 0
0.12758236 7.6091409 -1.2053372 0
0.10132017 7.5536528 -1.1964868 0
0.076243699 7.5788069 -1.200424 0
0.05115648 7.6272559 -1.208064 0
0.025290893 7.540164 -1.1942496 0
1.0046309e-05 7.5718632 -1.1992635 0
-0.025219452 7.5248179 -1.191819 0
-0.050973568 7.6029925 -1.2042209 0
-0.076226071 7.5790539 -1.2004631 0
-0.10185166 7.594779 -1.2030011 0
-0.12708691 7.5807924 -1.2008464 0
-0.15243882 7.5771255 -1.2003398 0
-0.17693216 7.5377827 -1.1941946 0
-0.20257895 7.5511265 -1.1964095 0
-0.22741956 7.5346422 -1.1939118 0
-0.25474694 7.5954499 -1.2036757 0
-0.27842873 7.5462313 -1.1960171 0
-0.30333146 7.535398 -1.1944546 0
-0.32969972 7.5596795 -1.198472 0
-0.35708013 7.6018782 -1.2053449 0
-0.38024673 7.554564 -1.1980383 0
-0.40438813 7.5311689 -1.1945364 0
-0.43178359 7.5674014 -1.2005063 0
-0.45491961 7.5289445 -1.1946406 0
-0.48835418 7.6558323 -1.2150273 0
-0.51083273 7.6066914 -1.2074933 0
-0.52898729 7.5007682 -1.1909539 0
-0.55815279 7.5533514 -1.1995933 0
-0.58209586 7.5335937 -1.1967586 0
-0.6096189 7.5597196 -1.2012269 0
-0.63344908 7.539628 -1.1983652 0
-0.6541146 7.4847136 -1.1899788 0
-0.68405592 7.5359106 -1.1984764 0
-0.71002746 7.5411034 -1.1996741 0
-0.73119521 7.496521 -1.192965 0
-0.75772005 7.5078444 -1.1951646 0
-0.78828466 7.5569959 -1.2034029 0
-0.80992746 7.52005 -1.1979452 0
-0.83774197 7.5407476 -1.201683 0
-0.86151367 7.5247402 -1.1995857 0
-0.89114398 7.5591841 -1.2055463 0
-0.91324472 7.5294514 -1.201286 0
-0.93329948 7.4847651 -1.1946491 0
-0.96285272 7.516438 -1.200213 0
-0.9871611 7.5064197 -1.1991349 0
-1.0154649 7.5263534 -1.2028565 0
-1.0358621 7.4879804 -1.1972721 0
-1.063982 7.5057693 -1.20068 0
-1.0849383 7.473208 -1.1960465 0
-1.107674 7.4539533 -1.1935525 0
-1.1410103 7.505126 -1.2023523 0
-1.1620883 7.4750218 -1.1981469 0
-1.1904281 7.4917512 -1.2014614 0
-1.1985314 7.3829451 -1.1846498 0
-1.2488611 7.5332026 -1.2094249 0
-1.2669334 7.4865565 -1.2026112 0
-1.3062861 7.5648403 -1.2158831 0
-1.3072 7.4216471 -1.1935657 0
-1.3433836 7.480185 -1.2036974 0
-1.3624659 7.4429173 -1.1984289 0
-1.3944801 7.4761968 -1.2045335 0
-1.4249866 7.500154 -1.2091563 0
-1.4343549 7.4138217 -1.1960065 0
-1.4654868 7.4408712 -1.2011561 0
-1.492769 7.4476032 -1.2030441 0
-1.5043126 7.3767562 -1.1924078 0
-1.5401306 7.4251547 -1.2010591 0
-1.5637565 7.4139724 -1.2000917 0
-1.589602 7.4133358 -1.2008445 0
-1.6232296 7.4482565 -1.207376 0
-1.6360437 7.3879094 -1.198476 0
-1.6742111 7.4419746 -1.2081504 0
-1.6810118 7.3569236 -1.1952512 0
-1.720686 7.4159689 -1.2057745 0
-1.7402532 7.3877115 -1.2021221 0
-1.7528304 7.3308835 -1.1938248 0
-1.7774932 7.3253517 -1.1938877 0
-1.8181252 7.3846688 -1.2045419 0
-1.8335737 7.3412933 -1.1984628 0
-1.8589011 7.3379612 -1.1989295 0
-1.8937024 7.3714266 -1.205428 0
-1.9013289 7.2994719 -1.1946973 0
-1.9288706 7.3047147 -1.196607 0
-1.9638222 7.3373294 -1.2030216 0
-1.9746077 7.2798119 -1.1946698 0
-2.0002 7.2775002 -1.1953844 0
-2.0308011 7.2930632 -1.1990523 0
-2.0442033 7.2470789 -1.1926123 0
-2.0810335 7.2840896 -1.1998444 0
-2.0983484 7.2525468 -1.1958007 0
-2.1296937 7.2695041 -1.1997672 0
-2.1539974 7.2621279 -1.199735 0
-2.1641586 7.2076545 -1.1919279 0
-2.2150345 7.2882843 -1.2064829 0
-2.2286351 7.2456288 -1.200652 0
-2.24669 7.2181139 -1.1973342 0
-2.2906406 7.2732902 -1.2077539 0
-2.2934196 7.1977973 -1.1964881 0
-2.3338163 7.2405648 -1.2048914 0
-2.3461463 7.1960988 -1.1987941 0
-2.3822372 7.2245135 -1.2048515 0
-2.3990664 7.194355 -1.2011566 0
-2.4130335 7.1561971 -1.1961299 0
-2.448252 7.1810312 -1.2016461 0
-2.4803715 7.196156 -1.2055619 0
-2.503525 7.1850443 -1.2050998 0
-2.5123162 7.1332121 -1.1978124 0
-2.5557599 7.1796451 -1.2070415 0
-2.5478315 7.0821252 -1.192076 0
-2.6089101 7.1762748 -1.209389 0
-2.6170785 7.1242652 -1.202096 0
-2.6493714 7.1381392 -1.205929 0
-2.6628582 7.1013985 -1.2012236 0
-2.6906223 7.1029091 -1.2029983 0
-2.7175848 7.1021142 -1.2044001 0
-2.7289073 7.0606871 -1.1989197 0
-2.776679 7.1132727 -1.2094228 0
-2.776216 7.0422902 -1.19893 0
-2.7996993 7.0326595 -1.1988817 0
-2.8218064 7.0196104 -1.1982634 0
-2.8637011 7.0553818 -1.2060018 0
-2.8641686 6.9891968 -1.1963233 0
-2.884999 6.9733014 -1.1952515 0
-2.9093242 6.9658909 -1.1956465 0
-2.9219382 6.9306583 -1.1912739 0
-2.9768085 6.9951959 -1.2040758 0
-3.0035684 6.9929128 -1.2054094 0
-3.0205255 6.9678726 -1.2028321 0
-3.0177696 6.8980446 -1.1925179 0
-3.0532792 6.9159722 -1.1973802 0
-3.0841253 6.922925 -1.2003676 0
-3.1073558 6.9126272 -1.2003818 0
-3.1389017 6.9206605 -1.2035974 0
-3.1314969 6.8432479 -1.1919535 0
-3.1602542 6.8453403 -1.1941569 0
-3.2077017 6.8873405 -1.2033532 0
-3.2356288 6.8868766 -1.2051609 0
-3.2647901 6.8888378 -1.2074127 0
-3.2571399 6.8135715 -1.1961281 0
-3.2875896 6.8184233 -1.1989082 0
-3.2954936 6.7766442 -1.193498 0
-3.3246431 6.7787023 -1.1958171 0
-3.3521597 6.7772369 -1.1975346 0
-3.3811095 6.7784815 -1.1997508 0
-3.4246836 6.8085914 -1.2071055 0
-3.4551985 6.812264 -1.2098038 0
-3.4422505 6.7307014 -1.1973618 0
-3.4608634 6.7114925 -1.1960021 0
-3.4940124 6.7203665 -1.1996644 0
-3.5132687 6.7024021 -1.1985536 0
-3.5165181 6.6542478 -1.1920441 0
-3.5643475 6.6903572 -1.2006469 0
-3.5679331 6.6433158 -1.1943449 0
-3.6158924 6.6787958 -1.2028964 0
-3.5980775 6.5929971 -1.1896095 0
-3.6549182 6.6440768 -1.2010305 0
-3.6692543 6.6175027 -1.1984439 0
-3.688586 6.6000905 -1.1975235 0
-3.6877117 6.5468845 -1.1901065 0
-3.7394667 6.5870204 -1.1996748 0
-3.7724173 6.5934734 -1.2031469 0
-3.7976665 6.5862751 -1.2041501 0
-3.8118234 6.5599022 -1.2016582 0
-3.8237684 6.5299606 -1.1985153 0
-3.8616118 6.5441694 -1.2034928 0
-3.8874795 6.5378251 -1.2047162 0
-3.8907988 6.4937463 -1.1989909 0
-3.9292274 6.5082898 -1.2041019 0
-3.9277809 6.4568663 -1.1970177 0
-3.9759696 6.4869981 -1.2050683 0
-3.9821579 6.4484682 -1.2003843 0
-4.0194201 6.4602571 -1.2050806 0
-4.0224571 6.4170704 -1.1995337 0
-4.0534563 6.4186015 -1.2023537 0
-4.0620403 6.3846774 -1.1985433 0
-4.0780234 6.362596 -1.1969582 0
-4.0957966 6.3434105 -1.1959256 0
-4.1286035 6.3474178 -1.1992841 0
-4.1560721 6.3430176 -1.2010788 0
-4.175858 6.3268385 -1.2006596 0
-4.201858 6.3200378 -1.2020358 0
-4.2078934 6.2833204 -1.197729 0
-4.2127371 6.2451625 -1.193141 0
-4.2723913 6.2880177 -1.2040585 0
-4.2767162 6.249207 -1.1993657 0
-4.3023314 6.241632 -1.2006737 0
-4.3397546 6.250968 -1.2052618 0
-4.3317432 6.1949863 -1.1972616 0
-4.3670425 6.2010932 -1.2012647 0
-4.3886108 6.1875472 -1.2014842 0
-4.3881693 6.1431713 -1.1957177 0
-4.4044008 6.1223907 -1.1945405 0
-4.4507141 6.1432152 -1.2015084 0
-4.4541965 6.1048355 -1.196916 0
-4.4872122 6.1069779 -1.2002791 0
-4.49826 6.0791917 -1.1977754 0
-4.5180731 6.0633459 -1.1976312 0
-4.5684247 6.0882068 -1.2055604 0
-4.5729194 6.0518241 -1.2013853 0
-4.5836196 6.0238876 -1.1988835 0
-4.6230249 6.0335884 -1.2038924 0
-4.6479716 6.0242019 -1.2051221 0
-4.6729321 6.0147481 -1.2063584 0
-4.6680055 5.9670043 -1.1999149 0
-4.6828647 5.9448195 -1.1986042 0
-4.726769 5.959342 -1.2047209 0
-4.7364402 5.9305854 -1.2021111 0
-4.7551675 5.9132657 -1.2018254 0
-4.752934 5.8700781 -1.1962799 0
-4.810164 5.9001999 -1.2056985 0
-4.8060946 5.8550148 -1.1997511 0
-4.8413181 5.8577671 -1.2036344 0
-4.8527107 5.8316236 -1.201599 0
-4.9233284 5.8763032 -1.2141995 0
-4.8890033 5.7957487 -1.2009351 0
-4.9127474 5.7844334 -1.2019969 0
-4.9239383 5.7583685 -1.2000043 0
-4.9164057 5.7106838 -1.1934956 0
-4.9823647 5.7482071 -1.2048223 0
-4.9573936 5.6808023 -1.1941713 0
-4.9974322 5.6880736 -1.1992154 0
-5.0137138 5.6681647 -1.1985554 0
-5.0493884 5.670074 -1.2025322 0
-5.0965509 5.6845441 -1.2092183 0
-5.0592775 5.6050463 -1.1959091 0
-5.0909481 5.6022544 -1.1989486 0
-5.0838284 5.5568719 -1.1928774 0
-5.1405911 5.5812268 -1.2017987 0
-5.1652174 5.5703683 -1.2031829 0
-5.1727276 5.5410891 -1.200598 0
-5.2128401 5.546659 -1.205585 0
-5.2068114 5.5031538 -1.1999167 0
-5.2525511 5.5143452 -1.20619 0
-5.2077799 5.4307656 -1.1917207 0
-5.2541571 5.4424834 -1.198151 0
-5.2734971 5.4259911 -1.198406 0
-5.2640562 5.3800673 -1.1921546 0
-5.3248324 5.4058056 -1.2018071 0
-5.349844 5.394897 -1.2033629 0
-5.3374934 5.3464699 -1.196546 0
-5.3336501 5.3069143 -1.1916889 0
-5.389946 5.327085 -1.2002696 0
-5.4142327 5.3153219 -1.2017026 0
-5.4477654 5.31249 -1.2051851 0
-5.4202943 5.2503614 -1.1952068 0
-5.4483504 5.2422452 -1.1975108 0
-5.4792576 5.2367187 -1.2004381 0
-5.4971662 5.2186804 -1.2005215 0
-5.5023432 5.1886315 -1.1978462 0
-5.5555925 5.2037659 -1.2056335 0
-5.5440383 5.1581554 -1.1993662 0
-5.5583973 5.1368546 -1.1987399 0
-5.6012783 5.1417713 -1.204263 0
-5.612042 5.1170864 -1.2028817 0
-5.6118722 5.0825782 -1.1991861 0
-5.6643543 5.095645 -1.2067432 0
-5.6587143 5.0563478 -1.2019233 0
-5.6790123 5.0403438 -1.2026383 0
-5.6797071 5.0070176 -1.1992236 0
-5.7014084 4.9922771 -1.2002648 0
-5.7126083 4.9683447 -1.1991091 0
-5.7482657 4.9656034 -1.2030922 0
-5.7698283 4.9505463 -1.2041245 0
-5.7539015 4.9034834 -1.1973629 0
-5.8036079 4.9123487 -1.2042724 0
-5.7913222 4.8687153 -1.198329 0
-5.7933183 4.8373342 -1.1953794 0
-5.9023857 4.8949108 -1.214491 0
-5.8300915 4.8020568 -1.1962959 0
-5.8518081 4.7871037 -1.1974517 0
-5.8886819 4.7844019 -1.201708 0
-5.8950558 4.7568574 -1.1997473 0
-5.9473791 4.766243 -1.2071369 0
-5.9191322 4.7111015 -1.1981909 0
-5.9245477 4.6830506 -1.196102 0
-5.9834409 4.6970925 -1.2048056 0
-5.950881 4.6393695 -1.1951107 0
-5.9585209 4.6132894 -1.193532 0
-6.014564 4.6245089 -1.2016453 0
-6.081501 4.6436148 -1.2119012 0
-6.0321012 4.5739608 -1.1989942 0
-6.0532947 4.5581465 -1.2001622 0
-6.0644946 4.5347981 -1.1993616 0
-6.0580807 4.4984121 -1.1951035 0
-6.1101809 4.5053959 -1.2023948 0
-6.1112785 4.4746528 -1.1996517 0
-6.162868 4.4807634 -1.206823 0
-6.1211505 4.4191365 -1.1957457 0
-6.1730585 4.4252028 -1.2029806 0
-6.1520967 4.3790245 -1.1960278 0
-6.1906652 4.3752789 -1.2006673 0
-6.1835556 4.3392396 -1.1964599 0
-6.194572 4.3160462 -1.1957848 0
-6.2685542 4.3364453 -1.2072526 0
-6.2302752 4.2791505 -1.1971107 0
-6.2539673 4.2646337 -1.1989088 0
-6.2579122 4.2366557 -1.1969353 0
-6.2643733 4.2104692 -1.1954643 0
-6.2985811 4.2028718 -1.1992964 0
-6.2784462 4.159081 -1.1928006 0
-6.3112454 4.1504297 -1.1963816 0
-6.3735638 4.1608682 -1.2055435 0
-6.3678207 4.1267357 -1.2018334 0
-6.3891153 4.1101832 -1.2032447 0
-6.4006863 4.0873508 -1.2028363 0
-6.3927684 4.0521846 -1.1987883 0
-6.428515 4.0446935 -1.2029418 0
-6.4277697 4.0142055 -1.2002771 0
-6.4437704 3.9942298 -1.2007575 0
-6.4615421 3.9753194 -1.2015787 0
-6.4853992 3.9600837 -1.2035393 0
-6.4935055 3.9352057 -1.2025884 0
-6.532661 3.9290483 -1.2073934 0
-6.5223346 3.8931186 -1.2030656 0
-6.5416822 3.874979 -1.2042311 0
-6.5067816 3.824893 -1.195439 0
-6.5556211 3.8240857 -1.2020495 0
-6.5843749 3.8113279 -1.2049719 0
-6.5466614 3.7602501 -1.1957562 0
-6.5246792 3.7185867 -1.1894572 0
-6.5865297 3.7246361 -1.1984493 0
-6.6062546 3.7066131 -1.1997703 0
-6.6129923 3.6812961 -1.1987456 0
-6.6188021 3.6555157 -1.1975703 0
-6.638382 3.6373367 -1.1988997 0
-6.6439996 3.6115038 -1.1977206 0
-6.6629963 3.592942 -1.1989669 0
-6.6561584 3.5605004 -1.1955816 0
-6.6640038 3.5360119 -1.1948545 0
-6.7308722 3.5426233 -1.2047076 0
-6.7404037 3.518831 -1.2042952 0
-6.7571554 3.4987965 -1.2051854 0
-6.7187548 3.4503958 -1.1962663 0
-6.7476754 3.4367068 -1.1993573 0
-6.7749949 3.4220619 -1.202167 0
-6.7654572 3.3888218 -1.1984518 0
-6.7562146 3.3559039 -1.1948147 0
-6.7707524 3.3348699 -1.1954015 0
-6.8620009 3.3512721 -1.2095212 0
-6.8801355 3.3316054 -1.2107419 0
-6.8655772 3.2961853 -1.2062284 0
-6.8046775 3.2389183 -1.1936141 0
-6.8995705 3.2557569 -1.2083378 0
-6.8529768 3.2057216 -1.1982887 0
-6.8745284 3.1877544 -1.2001815 0
-6.8638144 3.1548681 -1.1964575 0
-6.8391829 3.1158142 -1.1903362 0
-6.9111199 3.1206489 -1.2010288 0
-6.9027677 3.089057 -1.1977707 0
-6.9249353 3.071151 -1.1998239 0
-6.9441981 3.0518732 -1.2013817 0
-6.9373784 3.0211644 -1.1984426 0
-6.9252896 2.9883175 -1.1946168 0
-6.9637718 2.977267 -1.1995263 0
-7.0186591 2.9729393 -1.2072569 0
-6.9448981 2.9142721 -1.1928822 0
-6.9874887 2.9046297 -1.1985182 0
-7.075644 2.9134908 -1.2119565 0
-7.0388994 2.8707972 -1.2040073 0
-7.0485082 2.8471904 -1.2040112 0
-7.0224586 2.8093178 -1.1979458 0
-7.0433483 2.7903171 -1.1999066 0
-7.0919828 2.7821107 -1.2065961 0
-7.0183024 2.72609 -1.1924988 0
-7.1035666 2.7318339 -1.2054232 0
-7.0543885 2.685806 -1.1955432 0
-7.0753908 2.6666756 -1.1975806 0
-7.1709914 2.6752832 -1.2122369 0
-7.1193419 2.6288559 -1.202009 0
-7.1261339 2.6042471 -1.2016747 0
-7.120368 2.5751114 -1.1992397 0
-7.1481509 2.5580909 -1.2024678 0
-7.1527028 2.5326991 -1.2017982 0
-7.1539345 2.5061738 -1.2005866 0
-7.1375594 2.4736009 -1.1964399 0
-7.1785936 2.4608939 -1.2019285 0
-7.1801124 2.4345424 -1.2008094 0
-7.1372972 2.3933742 -1.1923001 0
-7.2225986 2.3950696 -1.2052016 0
-7.1931005 2.3585484 -1.1989532 0
-7.1792812 2.3273876 -1.1953424 0
-7.2632108 2.3277137 -1.2080104 0
-7.2293906 2.2901752 -1.2011015 0
-7.2468448 2.268997 -1.2027308 0
-7.1816368 2.2221687 -1.1906651 0
-7.3162956 2.2369843 -1.2117404 0
-7.2628527 2.1940436 -1.201664 0
-7.2556262 2.1653404 -1.1992604 0
-7.2956557 2.1506736 -1.2046781 0
-7.2738457 2.1177633 -1.1998975 0
-7.3178186 2.1039765 -1.2059809 0
-7.22471 2.0510061 -1.1894965 0
-7.3234806 2.0525379 -1.2046186 0
-7.2875252 2.0161324 -1.1975858 0
-7.2743068 1.9862435 -1.1943125 0
-7.2637563 1.9572167 -1.1914961 0
-7.3173227 1.945359 -1.1992062 0
-7.3462768 1.9267083 -1.2028859 0
-7.3293028 1.8960154 -1.1990589 0
-7.3253303 1.8688062 -1.1973772 0
-7.3204918 1.8414525 -1.1955705 0
-7.3356519 1.8191365 -1.1970435 0
-7.3559861 1.7980208 -1.1993712 0
-7.3840456 1.7786642 -1.2029672 0
-7.3958578 1.7552948 -1.203926 0
-7.4241142 1.7357281 -1.2075715 0
-7.3802776 1.6994023 -1.1995077 0
-7.409565 1.6800061 -1.2033455 0
-7.3660569 1.6441942 -1.1953776 0
-7.405046 1.6268518 -1.2008129 0
-7.4413385 1.6086905 -1.2058167 0
-7.4570785 1.5859414 -1.2074989 0
-7.4458928 1.557487 -1.2048353 0
-7.4142451 1.5249391 -1.1988802 0
-7.3956318 1.4952831 -1.1950531 0
-7.4475741 1.4798115 -1.2026379 0
-7.4869404 1.4615574 -1.2081966 0
-7.3939152 1.4176791 -1.1924111 0
-7.4636388 1.40512 -1.2028888 0
-7.4191127 1.3709971 -1.1949651 0
-7.4803057 1.3563844 -1.204082 0
-7.4892206 1.332081 -1.2047913 0
-7.5163522 1.3109241 -1.2084421 0
-7.4370542 1.271415 -1.1950009 0
-7.4914775 1.2548821 -1.2030629 0
-7.438437 1.2203722 -1.1938813 0
-7.4720488 1.200174 -1.1986234 0
-7.5024991 1.1792753 -1.2028672 0
-7.4798574 1.1500316 -1.1986121 0
-7.5189319 1.1302469 -1.2042595 0
-7.5091147 1.1030384 -1.2020881 0
-7.5093164 1.07736 -1.2015353 0
-7.5101724 1.0517966 -1.2011013 0
-7.5086269 1.0259233 -1.2002972 0
-7.5650206 1.0078026 -1.2087651 0
-7.5099339 0.97484899 -1.1994343 0
-7.5205336 0.95059615 -1.2006114 0
-7.5632915 0.93024814 -1.2069328 0
-7.5065088 0.89772582 -1.1973844 0
-7.5141249 0.87309301 -1.1981256 0
-7.567512 0.85359114 -1.2061751 0
-7.5502014 0.8260116 -1.2029678 0
-7.5308466 0.79835165 -1.1994507 0
-7.5330205 0.77305037 -1.1993774 0
-7.5149851 0.74574655 -1.1961011 0
-7.5218458 0.72096801 -1.1968015 0
-7.5257115 0.69588244 -1.1970387 0
-7.5664921 0.67407519 -1.203159 0
-7.5330105 0.64564264 -1.1974841 0
-7.5435677 0.6210767 -1.1988245 0
-7.5612416 0.5970155 -1.2013085 0
-7.5402083 0.5699228 -1.1976564 0
-7.5582881 0.54580939 -1.2002307 0
-7.5749474 0.52148867 -1.2025918 0
-7.575078 0.49598524 -1.2023417 0
-7.6021934 0.47216809 -1.2063874 0
-7.6152205 0.44735152 -1.20821 0
-7.6168995 0.4218289 -1.2082452 0
-7.6153612 0.39613712 -1.2077836 0
-7.5821853 0.36892527 -1.2023191 0
-7.5420146 0.34162787 -1.1957608 0
-7.544723 0.31640631 -1.1960154 0
-7.564332 0.29182571 -1.198962 0
-7.5599966 0.26627663 -1.1981266 0
-7.6012244 0.24221452 -1.2045249 0
-7.5630393 0.21561712 -1.1983526 0
-7.6416597 0.19221897 -1.210701 0
-7.6230631 0.16617835 -1.2076596 0
-7.5837426 0.13988397 -1.2013493 0
-7.5856924 0.11447931 -1.2015907 0
-7.5887609 0.089077286 -1.2020227 0
-7.5825005 0.063578464 -1.2009904 0
-7.5844145 0.038164187 -1.2012666 0
-7.6220441 0.0127979 -1.207213 0
-7.5701532 2.008808e-05 -1.1989926 0
-9.7655439 -0.016396971 -1.1990579 0
-9.7856102 -0.049240433 -1.2015353 0
-9.7962532 -0.082140543 -1.2028692 0
-9.7932653 -0.11495388 -1.2025428 0
-9.7211847 -0.14670704 -1.1937456 0
-9.7729216 -0.18026389 -1.2001661 0
-9.8236942 -0.21415083 -1.2064828 0
-9.7079992 -0.24419588 -1.1923677 0
-9.7719498 -0.27859166 -1.2003303 0
-9.7797775 -0.31163454 -1.2014134 0
-9.8160992 -0.34574062 -1.2060111 0
-9.7884769 -0.3776314 -1.2027661 0
-9.7403927 -0.40848708 -1.1970193 0
-9.7536287 -0.44180652 -1.1988212 0
-9.7544088 -0.47461882 -1.199106 0
-9.762598 -0.50783247 -1.2003152 0
-9.7473736 -0.53981596 -1.1986591 0
-9.7599764 -0.57334387 -1.2004385 0
-9.7490425 -0.60550773 -1.1993368 0
-9.7109585 -0.63583398 -1.1949071 0
-9.7366009 -0.67030525 -1.1983322 0
-9.770565 -0.70556533 -1.2027967 0
-9.7621841 -0.73786974 -1.2020627 0
-9.7312994 -0.76835746 -1.1985703 0
-9.675808 -0.79662824 -1.1920578 0
-9.8020592 -0.8401193 -1.2079521 0
-9.7452421 -0.86817318 -1.2013023 0
-9.8081026 -0.90692902 -1.2094193 0
-9.7453918 -0.93409455 -1.2020659 0
-9.705142 -0.96308583 -1.1974927 0
-9.7411737 -0.99965459 -1.2023455 0
-9.6637411 -1.0244616 -1.1932052 0
-9.7569857 -1.0674396 -1.2051535 0
-9.6844616 -1.0923762 -1.1966412 0
-9.7618332 -1.1342623 -1.2066647 0
-9.770546 -1.1684887 -1.2082191 0
-9.7008333 -1.1931553 -1.2000864 0
-9.6893187 -1.2247307 -1.1991632 0
-9.6886778 -1.2576672 -1.1995989 0
-9.6818867 -1.2898088 -1.1992868 0
-9.6955442 -1.3247275 -1.2015221 0
-9.6669512 -1.3538526 -1.1985344 0
-9.6651621 -1.3866588 -1.1988822 0
-9.6495485 -1.4174539 -1.1975284 0
-9.6839123 -1.455687 -1.2023919 0
-9.6537924 -1.4842751 -1.1992632 0
-9.6607647 -1.5185207 -1.2007551 0
-9.6680679 -1.5529025 -1.2023033 0
-9.6338911 -1.580565 -1.1987053 0
-9.6618872 -1.618443 -1.2028571 0
-9.6226044 -1.6450497 -1.1986467 0
-9.6204929 -1.6779064 -1.1990777 0
-9.6126041 -1.7097597 -1.1988022 0
-9.657732 -1.7512115 -1.2051556 0
-9.6070271 -1.7753073 -1.1995642 0
-9.6260109 -1.8122126 -1.2026865 0
-9.6111279 -1.8427982 -1.2015922 0
-9.5839539 -1.8709242 -1.1989725 0
-9.5839777 -1.9043088 -1.1997676 0
-9.5637856 -1.9336506 -1.1980447 0
-9.5322351 -1.9605606 -1.1949091 0
-9.5747967 -2.0027983 -1.2010792 0
-9.5249577 -2.0257297 -1.1956728 0
-9.6004791 -2.07546 -1.2060198 0
-9.5524006 -2.0986149 -1.2008573 0
-9.5354919 -2.1284387 -1.199622 0
-9.5239792 -2.1594174 -1.1990777 0
-9.5317059 -2.1947958 -1.2009702 0
-9.5005083 -2.2211807 -1.197971 0
-9.4596939 -2.2451153 -1.193767 0
-9.4907732 -2.2861316 -1.1986496 0
-9.5380363 -2.3313785 -1.2055992 0
-9.4930592 -2.3541427 -1.2009051 0
-9.4695244 -2.3820364 -1.1989313 0
-9.5303011 -2.431329 -1.2076516 0
-9.4345112 -2.4406111 -1.1965436 0
-9.4435654 -2.4767644 -1.1987383 0
-9.4280643 -2.5065136 -1.1978307 0
-9.4325027 -2.541585 -1.1994705 0
-9.4485474 -2.5799181 -1.2026041 0
-9.3895636 -2.5976722 -1.1961983 0
-9.4344158 -2.6441655 -1.2030351 0
-9.4395475 -2.6797714 -1.2048285 0
-9.3558035 -2.6899261 -1.1952841 0
-9.3659573 -2.7268765 -1.1977426 0
-9.455636 -2.7874105 -1.2103994 0
-9.3534937 -2.7914197 -1.1985157 0
-9.4000282 -2.8396657 -1.2056916 0
-9.2856855 -2.8391325 -1.1922396 0
-9.3445339 -2.8914204 -1.2010335 0
-9.3584452 -2.9301419 -1.2040774 0
-9.3467875 -2.9609382 -1.203848 0
-9.3515835 -2.9969952 -1.2057531 0
-9.3059778 -3.0168223 -1.2011703 0
-9.2844048 -3.0442669 -1.1996965 0
-9.2535286 -3.0685418 -1.1970296 0
-9.2683163 -3.1079762 -1.2002838 0
-9.2875118 -3.1490932 -1.2041303 0
-9.2392616 -3.1673112 -1.1992446 0
-9.2424202 -3.203064 -1.2010418 0
-9.160985 -3.2092857 -1.1918509 0
-9.2251472 -3.2665305 -1.2016166 0
-9.2183876 -3.2989614 -1.2021703 0
-9.1972952 -3.326241 -1.2008672 0
-9.1518278 -3.3445375 -1.196388 0
-9.2203217 -3.4046543 -1.2068274 0
-9.1490421 -3.4132349 -1.1989889 0
-9.1785488 -3.4593444 -1.2043691 0
-9.1248302 -3.474082 -1.1988419 0
-9.0450344 -3.4784684 -1.1898838 0
-9.1176367 -3.5415254 -1.20099 0
-9.0921564 -3.5667577 -1.1992022 0
-9.0809994 -3.5975599 -1.1993148 0
-9.0631084 -3.6256752 -1.1985507 0
-9.06248 -3.6607189 -1.2000841 0
-9.0813332 -3.7037985 -1.2042183 0
-9.0241404 -3.7158103 -1.1982796 0
-8.9776335 -3.7319133 -1.193759 0
-9.0432787 -3.7948108 -1.2041728 0
-9.0263186 -3.8233366 -1.2036146 0
-8.974411 -3.8368888 -1.1984017 0
-8.9742031 -3.8724396 -1.2001009 0
-8.9985046 -3.918766 -1.205101 0
-8.9937391 -3.9526165 -1.2062309 0
-8.9548693 -3.9714098 -1.2027968 0
-8.9029417 -3.9841547 -1.1976094 0
-8.8692675 -4.0048313 -1.1948792 0
-8.8538132 -4.0336452 -1.1946125 0
-8.9049063 -4.0930309 -1.2033511 0
-8.8369703 -4.0977492 -1.1960207 0
-8.8233271 -4.1274228 -1.1960404 0
-8.8597317 -4.1807146 -1.2028685 0
-8.8639288 -4.2190895 -1.2053522 0
-8.7858114 -4.2180958 -1.1966459 0
-8.8061295 -4.2642398 -1.2013537 0
-8.7487993 -4.2727489 -1.1954802 0
-8.7612886 -4.31529 -1.1991572 0
-8.7656536 -4.3540196 -1.201746 0
-8.7688351 -4.3923154 -1.2041943 0
-8.7689028 -4.4291887 -1.2062362 0
-8.7125225 -4.4374371 -1.2005204 0
-8.711237 -4.473629 -1.2024033 0
-8.724246 -4.5173388 -1.2062827 0
-8.6811485 -4.5319977 -1.202418 0
-8.6512003 -4.553339 -1.2003777 0
-8.6530762 -4.5914407 -1.2027671 0
-8.6229315 -4.6125627 -1.20072 0
-8.5447016 -4.6076293 -1.1919712 0
-8.5390882 -4.6416245 -1.1933525 0
-8.5848064 -4.7038317 -1.2019387 0
-8.5637436 -4.7296925 -1.2012033 0
-8.5161467 -4.740737 -1.1967499 0
-8.4979887 -4.7680202 -1.196438 0
-8.5147734 -4.8150444 -1.2010673 0
-8.491416 -4.8394818 -1.2000546 0
-8.47542 -4.8680844 -1.200094 0
-8.4351816 -4.8826571 -1.1967076 0
-8.4532337 -4.9310184 -1.2016075 0
-8.460721 -4.9734802 -1.2050353 0
-8.3965454 -4.973711 -1.1982634 0
-8.398119 -5.0127563 -1.2008797 0
-8.3738689 -5.036437 -1.19982 0
-8.3262596 -5.0458941 -1.1954157 0
-8.3208857 -5.0808601 -1.1970832 0
-8.2827902 -5.0958018 -1.194054 0
-8.3246861 -5.1601324 -1.202581 0
-8.3073883 -5.188046 -1.2025883 0
-8.2692003 -5.202816 -1.1995786 0
-8.2591801 -5.2352471 -1.2006646 0
-8.220396 -5.2493811 -1.1975784 0
-8.2341919 -5.2971401 -1.2021688 0
-8.2077799 -5.3191414 -1.2009097 0
-8.1652393 -5.3305316 -1.1972938 0
-8.1589155 -5.3655028 -1.1989976 0
-8.1149254 -5.3756342 -1.1951749 0
-8.1329031 -5.4268651 -1.2004958 0
-8.0941439 -5.4403119 -1.1974603 0
-8.1063871 -5.4880877 -1.201987 0
-8.1359644 -5.5479832 -1.209124 0
-8.0664282 -5.5402784 -1.2015438 0
-8.0542593 -5.5717559 -1.202507 0
-7.9513254 -5.5400577 -1.1899055 0
-7.9933114 -5.6092148 -1.1989963 0
-7.9624581 -5.627501 -1.1971918 0
-7.9721689 -5.6745405 -1.2015058 0
-7.9065514 -5.66787 -1.1944736 0
-7.9308581 -5.725647 -1.2010392 0
-7.9192333 -5.7577434 -1.2021955 0
-7.8619704 -5.7565026 -1.1964259 0
-7.8825474 -5.8122663 -1.2025161 0
-7.8010931 -5.7926817 -1.193046 0
-7.8315787 -5.8561563 -1.2007043 0
-7.8022847 -5.8751411 -1.1992265 0
-7.834578 -5.9407244 -1.2072448 0
-7.7723746 -5.9347053 -1.200719 0
-7.7753391 -5.978343 -1.2042668 0
-7.7349811 -5.9886851 -1.2011192 0
-7.7308006 -6.0270133 -1.2036011 0
-7.6709762 -6.0218339 -1.1974238 0
-7.6424727 -6.0409818 -1.1961294 0
-7.6633897 -6.0993748 -1.2025971 0
-7.6184587 -6.1054497 -1.1987518 0
-7.5857253 -6.121098 -1.1968238 0
-7.562418 -6.1442695 -1.19639 0
-7.5927353 -6.2112789 -1.2044742 0
-7.5135765 -6.1886888 -1.1952016 0
-7.507484 -6.2260356 -1.1975465 0
-7.4717307 -6.2387834 -1.1951731 0
-7.4626637 -6.2737975 -1.1970809 0
-7.4694118 -6.3223352 -1.2015569 0
-7.4140468 -6.3182611 -1.1960516 0
-7.4352574 -6.3794947 -1.2029172 0
-7.411242 -6.4021549 -1.202498 0
-7.3883739 -6.4257836 -1.2022763 0
-7.3452997 -6.431704 -1.1987696 0
-7.3137217 -6.447504 -1.1971372 0
-7.2998319 -6.4788837 -1.1984125 0
-7.2447267 -6.4735303 -1.1929225 0
-7.2641997 -6.5348639 -1.1997299 0
-7.2220998 -6.5409341 -1.1963922 0
-7.2098131 -6.5739422 -1.1980014 0
-7.1576343 -6.5704503 -1.1929849 0
-7.1638198 -6.6205239 -1.1977088 0
-7.154273 -6.6563129 -1.1998372 0
-7.0717921 -6.6239467 -1.1897224 0
-7.1054363 -6.700326 -1.1991552 0
-7.1257463 -6.7647572 -1.2064039 0
-7.0883346 -6.77457 -1.2039087 0
-7.0026498 -6.7377472 -1.1931858 0
-6.9964347 -6.7770877 -1.1959918 0
-7.0007071 -6.8268704 -1.2006282 0
-6.9840064 -6.8564181 -1.2016997 0
-6.9720497 -6.8907375 -1.203611 0
-6.9449892 -6.9101763 -1.2029324 0
-6.8857975 -6.897378 -1.1966788 0
-6.8581071 -6.9158621 -1.1958895 0
-6.8534341 -6.9576521 -1.1991357 0
-6.8338842 -6.9844918 -1.1998056 0
-6.8470893 -7.0450869 -1.2062644 0
-6.799149 -7.0428529 -1.2019719 0
-6.7908015 -7.0815687 -1.2046869 0
-6.7187262 -7.0535965 -1.1960894 0
-6.759377 -7.1440825 -1.2075835 0
-6.7097096 -7.1393847 -1.20298 0
-6.6512499 -7.1249003 -1.1967751 0
-6.6656313 -7.1884723 -1.2036927 0
-6.6264796 -7.1944814 -1.2009717 0
-6.6032605 -7.2176852 -1.2011427 0
-6.5985284 -7.2612481 -1.2047037 0
-6.5485597 -7.2549844 -1.2000151 0
-6.5307722 -7.2842321 -1.2012243 0
-6.466074 -7.2609024 -1.1937952 0
-6.4802241 -7.3261023 -1.200936 0
-6.4836025 -7.379632 -1.2061405 0
-6.3847752 -7.3164744 -1.1923125 0
-6.3692136 -7.3482299 -1.1940007 0
-6.3725924 -7.4021273 -1.1992799 0
-6.3201761 -7.3912187 -1.1940725 0
-6.3129478 -7.4330759 -1.1974086 0
-6.3024426 -7.471333 -1.2001606 0
-6.2857828 -7.5024786 -1.2017715 0
-6.2165437 -7.4705763 -1.1933159 0
-6.2464204 -7.5578747 -1.2039084 0
-6.1754341 -7.52321 -1.1950817 0
-6.2200403 -7.62957 -1.2086576 0
-6.1316953 -7.5729079 -1.1964178 0
-6.0937181 -7.5778141 -1.1939584 0
-6.1284194 -7.6735086 -1.2057917 0
-6.0624452 -7.6433153 -1.1978464 0
-6.061738 -7.6952763 -1.2027978 0
-6.0156851 -7.6897125 -1.1987689 0
-5.9759212 -7.6918859 -1.1959774 0
-5.9301934 -7.6860805 -1.1919767 0
-5.9442229 -7.7579064 -1.200018 0
-5.9139223 -7.7721987 -1.199155 0
-5.89188 -7.7973428 -1.1999798 0
-5.869689 -7.8223639 -1.2007949 0
-5.8325348 -7.8273802 -1.1985563 0
-5.8214622 -7.8674388 -1.2016947 0
-5.7933178 -7.884553 -1.2013352 0
-5.7691507 -7.9070864 -1.2018145 0
-5.7202873 -7.895577 -1.1971434 0
-5.7174835 -7.9476571 -1.2021266 0
-5.6650982 -7.9307952 -1.1966964 0
-5.6533203 -7.970674 -1.199847 0
-5.6468983 -8.0184565 -1.2041831 0
-5.5720458 -7.9687896 -1.1939119 0
-5.580061 -8.0375013 -1.2013967 0
-5.5091658 -7.9924536 -1.1918956 0
-5.5222006 -8.069129 -1.2005621 0
-5.5192604 -8.1231346 -1.2058374 0
-5.4732256 -8.1137705 -1.2017164 0
-5.4299483 -8.1081209 -1.1981765 0
-5.4219565 -8.1551952 -1.2024398 0
-5.3649845 -8.1284838 -1.1958423 0
-5.3604622 -8.1811638 -1.2009416 0
-5.343267 -8.2148714 -1.2032531 0
-5.2810788 -8.1791296 -1.1954176 0
-5.2809463 -8.2394152 -1.2016342 0
-5.2537656 -8.2578211 -1.2017426 0
-5.2318993 -8.2846518 -1.2030878 0
-5.1910992 -8.2814188 -1.200084 0
-5.1637926 -8.2995615 -1.2001976 0
-5.1354322 -8.3160114 -1.2000797 0
-5.1275907 -8.3659267 -1.2047952 0
-5.0732579 -8.3399124 -1.1985924 0
-5.0451932 -8.3567524 -1.1985748 0
-5.0351191 -8.4036179 -1.2028685 0
-4.9930816 -8.3971882 -1.1995451 0
-4.9829249 -8.4444284 -1.2039001 0
-4.9325051 -8.4233828 -1.1985352 0
-4.9059939 -8.4428997 -1.198965 0
-4.8851647 -8.4723177 -1.2008098 0
-4.8585982 -8.4919128 -1.2012715 0
-4.8037739 -8.4617834 -1.1947243 0
-4.798862 -8.519537 -1.2006001 0
-4.7555966 -8.5093231 -1.1969069 0
-4.7275629 -8.5261631 -1.1970394 0
-4.6879148 -8.5219049 -1.1942282 0
-4.6545672 -8.5288734 -1.193011 0
-4.6715636 -8.6286917 -1.2047758 0
-4.629312 -8.6195517 -1.2013258 0
-4.5995808 -8.6335115 -1.2011154 0
-4.5876431 -8.6811199 -1.205592 0
-4.5319128 -8.64571 -1.1985575 0
-4.5147991 -8.6837425 -1.2017248 0
-4.4829655 -8.6936083 -1.2010032 0
-4.4715214 -8.7432556 -1.2057841 0
-4.4383149 -8.7505751 -1.2047343 0
-4.3637156 -8.6754742 -1.1923739 0
-4.3542461 -8.7294359 -1.1977772 0
-4.3245373 -8.743144 -1.1976619 0
-4.3073225 -8.7823133 -1.2010424 0
-4.2811942 -8.8035765 -1.2019806 0
-4.2542396 -8.8232441 -1.2027117 0
-4.2100844 -8.807025 -1.1985699 0
-4.1859331 -8.8324871 -1.2001183 0
-4.1531553 -8.8397865 -1.1992114 0
-4.1383362 -8.8855305 -1.2035279 0
-4.0837874 -8.8457794 -1.1962824 0
-4.0598531 -8.8719807 -1.1979783 0
-4.0530686 -8.9362183 -1.2048105 0
-4.0024066 -8.903758 -1.1986181 0
-3.9744458 -8.9214249 -1.1991957 0
-3.959125 -8.9678011 -1.2036384 0
-3.9181719 -8.956193 -1.2003105 0
-3.8922789 -8.9788694 -1.2015939 0
-3.8610561 -8.9893169 -1.2012528 0
-3.8291798 -8.9981804 -1.2007149 0
-3.7867589 -8.9819593 -1.1968495 0
-3.7927201 -9.0810347 -1.2083499 0
-3.7661803 -9.1031952 -1.2096118 0
-3.7128801 -9.0602379 -1.2022427 0
-3.6663337 -9.0328503 -1.1969706 0
-3.6363425 -9.0458755 -1.1970743 0
-3.6125042 -9.0743723 -1.1992358 0
-3.5754976 -9.0697889 -1.197039 0
-3.5496643 -9.0935001 -1.198591 0
-3.5239997 -9.1178837 -1.2002409 0
-3.4829071 -9.1022015 -1.1966326 0
