# .PCD v0.7 - Point Cloud Data file format
VERSION 0.7
FIELDS x y z intensity
SIZE 4 4 4 4
TYPE F F F F
COUNT 1 1 1 1
WIDTH 1398
HEIGHT 1
VIEWPOINT 0 0 0 1 0 0 0
POINTS 1398
DATA ascii
-2.963227 3.3274755 -1.1938857 0
-2.993979 3.3393965 -1.2017579 0
-3.0002697 3.3239233 -1.1998028 0
-3.0246177 3.3283935 -1.20507 0
-3.0109768 3.2911444 -1.1952322 0
-2.9966447 3.2535081 -1.1852061 0
-3.0456412 3.2845364 -1.2002224 0
-3.050952 3.2682171 -1.1979903 0
-3.0649135 3.2611837 -1.1991723 0
-3.0630665 3.2373989 -1.194196 0
-3.0797348 3.233233 -1.1964614 0
-3.108839 3.2419527 -1.2035387 0
-3.1323373 3.2446105 -1.2084173 0
-3.0991292 3.1887467 -1.1914748 0
-3.1307802 3.1997774 -1.1995119 0
-3.1343603 3.1820238 -1.1967893 0
-3.1562793 3.1828597 -1.2010771 0
-3.1489298 3.1542258 -1.1942493 0
-3.1864805 3.1705077 -1.2044522 0
-3.1680107 3.1310635 -1.193496 0
-3.1985867 3.1401529 -1.2010418 0
-3.2113523 3.1316104 -1.2018859 0
-3.2652383 3.1628692 -1.2180777 0
-3.2461288 3.1233313 -1.2070357 0
-3.2249224 3.0821714 -1.1953011 0
-3.2305384 3.06688 -1.1935647 0
-3.2774251 3.0905654 -1.2070522 0
-3.2819569 3.0741158 -1.2049186 0
-3.2748899 3.0469472 -1.1985667 0
-3.3111053 3.0599947 -1.2080593 0
-3.2833581 3.0140042 -1.194242 0
-3.2848549 2.9951463 -1.1911272 0
-3.3528442 3.0366144 -1.2120823 0
-3.3304245 2.9960451 -1.2003392 0
-3.3729031 3.0138597 -1.2120004 0
-3.3647707 2.9863646 -1.2054734 0
-3.3741827 2.9745533 -1.2052655 0
-3.3620179 2.9438558 -1.1973878 0
-3.3840361 2.9431489 -1.2017084 0
-3.3813188 2.9209311 -1.1972591 0
-3.4361753 2.9482586 -1.2131758 0
-3.4110231 2.9068789 -1.2008477 0
-3.4260054 2.8998742 -1.2026925 0
-3.4423275 2.8939352 -1.2050095 0
-3.4283609 2.8626304 -1.1967539 0
-3.4475315 2.8590741 -1.2000928 0
-3.4371438 2.8310635 -1.1931659 0
-3.4898736 2.8549104 -1.208141 0
-3.4452889 2.7992082 -1.1894506 0
-3.4387441 2.7748024 -1.1839725 0
-3.5194254 2.8204753 -1.2084887 0
-3.5280533 2.8080158 -1.2082117 0
-3.5143335 2.7779002 -1.2003169 0
-3.52174 2.7646198 -1.1996739 0
-3.5111439 2.7373247 -1.1929313 0
-3.5714915 2.7651701 -1.210278 0
-3.5767355 2.7500989 -1.2089236 0
-3.544564 2.7065012 -1.194976 0
-3.5539856 2.6948802 -1.1950994 0
-3.595263 2.7072425 -1.2059206 0
-3.5775414 2.6751492 -1.1969613 0
-3.5787868 2.657419 -1.1943902 0
-3.6494765 2.6909738 -1.2149644 0
-3.5773664 2.6193328 -1.1880274 0
-3.6006382 2.6178734 -1.1928343 0
-3.6634817 2.6448338 -1.2107087 0
-3.6087265 2.5869424 -1.1897402 0
-3.6579509 2.6037066 -1.2030839 0
-3.644474 2.5757477 -1.1958042 0
-3.6815588 2.583492 -1.2051234 0
-3.704344 2.5809884 -1.2097424 0
-3.6752839 2.542479 -1.1974616 0
-3.679687 2.5273256 -1.1961286 0
-3.6842966 2.5123534 -1.1948822 0
-3.7163866 2.5160229 -1.2025468 0
-3.7057292 2.4907293 -1.1963894 0
-3.72051 2.4825952 -1.1984673 0
-3.7459221 2.4814408 -1.2039664 0
-3.7186949 2.4455049 -1.1925733 0
-3.7465723 2.445883 -1.1988769 0
-3.7425644 2.4254098 -1.1949855 0
-3.7914848 2.4391012 -1.2079877 0
-3.7732952 2.4095511 -1.1996115 0
-3.7493098 2.3765755 -1.1894461 0
-3.8238711 2.4059036 -1.2105345 0
-3.7806551 2.3610563 -1.1943406 0
-3.8137951 2.3640156 -1.2022991 0
-3.8120399 2.3452723 -1.1992601 0
-3.8192911 2.3321176 -1.1990746 0
-3.8044343 2.3055699 -1.1919768 0
-3.873455 2.3296773 -1.2111478 0
-3.8724151 2.3114073 -1.2083926 0
-3.8196349 2.2625687 -1.1895486 0
-3.8388934 2.2566235 -1.1931833 0
-3.888134 2.2680624 -1.2061175 0
-3.8312571 2.2177014 -1.1861609 0
-3.8893497 2.233952 -1.2018207 0
-3.8666875 2.2037272 -1.1925282 0
-3.8607695 2.183238 -1.1884388 0
-3.8870692 2.1809425 -1.1942768 0
-3.9393353 2.1929345 -1.2080694 0
-3.9268982 2.168797 -1.2020186 0
-3.9366202 2.1569734 -1.202774 0
-3.9508357 2.1475706 -1.2049106 0
-3.9856083 2.1491921 -1.2133111 0
-3.9415309 2.1083968 -1.1977341 0
-4.0125003 2.1290877 -1.2171239 0
-3.9697177 2.08936 -1.2020149 0
-3.9896338 2.0827901 -1.205924 0
-3.9990361 2.0706661 -1.2066607 0
-3.9952073 2.0517263 -1.203423 0
-3.995769 2.0351138 -1.2015302 0
-4.0210934 2.0310614 -1.2070907 0
-4.0270538 2.017154 -1.206843 0
-3.9911544 1.9824609 -1.1940858 0
-4.0530138 1.9962735 -1.2105838 0
-4.0367332 1.9714644 -1.2037399 0
-4.0319371 1.9524069 -1.200351 0
-4.0434418 1.941269 -1.2018316 0
-4.064302 1.934543 -1.2060971 0
-4.0231457 1.8984346 -1.1919882 0
-4.0816474 1.9093345 -1.2074178 0
-4.0186019 1.8634466 -1.1869131 0
-4.0328846 1.8536659 -1.1892892 0
-4.1126475 1.8736516 -1.2109518 0
-4.09762 1.8502405 -1.2046937 0
-4.0973558 1.8336073 -1.2028017 0
-4.0617609 1.8013572 -1.190573 0
-4.1685886 1.8320338 -1.2200788 0
-4.0784955 1.7761472 -1.1919602 0
-4.142581 1.7875565 -1.2089312 0
-4.1328754 1.7669554 -1.2043631 0
-4.1152711 1.7431322 -1.1975231 0
-4.1551251 1.7436059 -1.2074126 0
-4.1263671 1.7152898 -1.197378 0
-4.1650572 1.7150179 -1.2069297 0
-4.1251154 1.682418 -1.1937143 0
-4.158659 1.6798581 -1.2017844 0
-4.153039 1.6614134 -1.1985438 0
-4.1646657 1.6498883 -1.200296 0
-4.206758 1.6502672 -1.2108259 0
-4.1623406 1.6167606 -1.1964744 0
-4.1918731 1.6120776 -1.2034031 0
-4.1970158 1.5979232 -1.2033347 0
-4.1753168 1.5736537 -1.1955938 0
-4.2112617 1.5710963 -1.2043715 0
-4.211237 1.5550222 -1.2028664 0
-4.2024813 1.5357977 -1.1988881 0
-4.2028198 1.5199677 -1.1975241 0
-4.1960974 1.5016468 -1.1941673 0
-4.2087626 1.4902799 -1.1963431 0
-4.1937723 1.4691668 -1.1906751 0
-4.2240844 1.4639035 -1.1978809 0
-4.2608118 1.4606489 -1.2069006 0
-4.2539053 1.4423608 -1.2035677 0
-4.2871785 1.4376341 -1.2116113 0
-4.2346897 1.4042559 -1.1954399 0
-4.2826056 1.4042252 -1.2076306 0
-4.243504 1.375664 -1.1952971 0
-4.2713399 1.3688788 -1.2018383 0
-4.2528377 1.3472426 -1.1953546 0
-4.3223038 1.3533192 -1.2135974 0
-4.283812 1.3255131 -1.2015353 0
-4.2879472 1.3110557 -1.2014555 0
-4.2978983 1.298357 -1.2030172 0
-4.2718043 1.2748605 -1.1945102 0
-4.3252573 1.275035 -1.2082548 0
-4.2759376 1.2449293 -1.1933048 0
-4.2739072 1.2288089 -1.1915816 0
-4.3552599 1.2364045 -1.2131004 0
-4.2991199 1.2049062 -1.1963315 0
-4.294961 1.1882236 -1.1940588 0
-4.3067694 1.1759598 -1.1962388 0
-4.3603826 1.1749036 -1.2100292 0
-4.3337045 1.1521442 -1.2015473 0
-4.2967296 1.1269034 -1.1902415 0
-4.3198133 1.1174914 -1.1955913 0
-4.3205481 1.1022394 -1.1947651 0
-4.3708797 1.0994846 -1.2076572 0
-4.3201923 1.0713458 -1.1926533 0
-4.3564539 1.0648463 -1.2016715 0
-4.3547015 1.0489578 -1.2002113 0
-4.360465 1.0348904 -1.2008367 0
-4.3902969 1.0264337 -1.2080976 0
-4.3668995 1.0055339 -1.2007247 0
-4.3357639 0.98306853 -1.1912508 0
-4.3711839 0.97570181 -1.2000768 0
-4.3970771 0.96601593 -1.2062896 0
-4.3868742 0.94836742 -1.2026114 0
-4.3908696 0.93383241 -1.2028416 0
-4.3932128 0.91894573 -1.2026328 0
-4.4014792 0.90528262 -1.2040581 0
-4.4158535 0.8928178 -1.2071645 0
-4.3952055 0.87331468 -1.2007128 0
-4.4283223 0.86447155 -1.2089612 0
-4.4248352 0.84839988 -1.2072259 0
-4.3847284 0.82547796 -1.1955217 0
-4.3718491 0.80788523 -1.1912649 0
-4.4084392 0.79937088 -1.2004981 0
-4.4033828 0.78321403 -1.1983993 0
-4.3825421 0.76435739 -1.1920233 0
-4.3697615 0.74704045 -1.1878592 0
-4.4103913 0.73877567 -1.1982237 0
-4.3896084 0.72017229 -1.1919147 0
-4.3961987 0.70612538 -1.1930546 0
-4.3864341 0.6894787 -1.1897706 0
-4.4231668 0.68006396 -1.1991087 0
-4.3908396 0.66003162 -1.1897383 0
-4.4414439 0.65241826 -1.2028505 0
-4.4448543 0.63770229 -1.2031883 0
-4.4256248 0.61980695 -1.1974137 0
-4.4288034 0.60511893 -1.1977181 0
-4.4479351 0.59254837 -1.2023481 0
-4.4529014 0.57802194 -1.2031598 0
-4.4647679 0.56434709 -1.2058481 0
-4.4387732 0.54594749 -1.1983262 0
-4.4202185 0.52862716 -1.1928319 0
-4.4537654 0.51749891 -1.2014098 0
-4.4072747 0.49712646 -1.1884127 0
-4.4684997 0.48886544 -1.204473 0
-4.518229 0.47898144 -1.2174379 0
-4.4829841 0.46005088 -1.2075187 0
-4.4694414 0.44352323 -1.2034636 0
-4.4167461 0.42334458 -1.1888857 0
-4.4832149 0.41455093 -1.2063966 0
-4.4358692 0.39517772 -1.193293 0
-4.4908924 0.38490742 -1.2077408 0
-4.4531517 0.36663669 -1.1972538 0
-4.4298091 0.3497659 -1.1906561 0
-4.4927869 0.33958504 -1.2072706 0
-4.4527869 0.32155073 -1.1962256 0
-4.5106306 0.31052926 -1.2114787 0
-4.5129004 0.29548633 -1.2118155 0
-4.4186954 0.27444279 -1.1862655 0
-4.4761586 0.26294923 -1.2014489 0
-4.4404259 0.24591368 -1.1916298 0
-4.4900966 0.23356658 -1.2047424 0
-4.4415092 0.21610986 -1.191505 0
-4.480845 0.20296718 -1.2018681 0
-4.4127183 0.18505807 -1.1834217 0
-4.4599557 0.17206141 -1.1959287 0
-4.4785213 0.15774155 -1.2007585 0
-4.4462271 0.14167991 -1.1919658 0
-4.4619231 0.12720641 -1.1960527 0
-4.4700747 0.11244065 -1.1981299 0
-4.4778485 0.097614504 -1.2001191 0
-4.4467216 0.082020849 -1.1916963 0
-4.4503741 0.067162722 -1.192608 0
-4.4907131 0.052712232 -1.2033639 0
-4.5069218 0.03779006 -1.2076665 0
-4.4807882 0.022546979 -1.200637 0
-4.4810119 0.0075239055 -1.2006834 0
-4.4894824 1.1913246e-05 -1.2029513 0
-5.1579108 -0.0086604627 -1.1907974 0
-5.1917858 -0.026124662 -1.1986315 0
-5.2352338 -0.04389688 -1.2086896 0
-5.2080421 -0.061132282 -1.2024523 0
-5.12848 -0.077396341 -1.1841359 0
-5.1655121 -0.09527912 -1.1927534 0
-5.1869435 -0.11307236 -1.1977829 0
-5.1719012 -0.13009445 -1.1944033 0
-5.1756926 -0.14755549 -1.1953864 0
-5.1670146 -0.16464794 -1.1935029 0
-5.2328191 -0.18430927 -1.2088388 0
-5.180088 -0.19984353 -1.1968054 0
-5.2023554 -0.21817341 -1.2021122 0
-5.1967072 -0.23539333 -1.2009827 0
-5.2104492 -0.25352407 -1.2043483 0
-5.1988244 -0.27043334 -1.2018641 0
-5.2104306 -0.28855708 -1.2047641 0
-5.1917696 -0.30498734 -1.2006789 0
-5.1894279 -0.32231253 -1.2003806 0
-5.1968269 -0.34026703 -1.2023493 0
-5.2061734 -0.3584131 -1.2047828 0
-5.2133474 -0.37647337 -1.2067285 0
-5.1671858 -0.39055914 -1.1963398 0
-5.2050858 -0.41097969 -1.2054269 0
-5.1996469 -0.42809713 -1.2044929 0
-5.1604347 -0.44229287 -1.1957463 0
-5.1640334 -0.46004763 -1.1969309 0
-5.1903472 -0.47993752 -1.2033961 0
-5.1466951 -0.49331009 -1.193652 0
-5.155612 -0.5116151 -1.1961112 0
-5.1526532 -0.52877337 -1.1958293 0
-5.1374879 -0.54462963 -1.1927269 0
-5.1947341 -0.56831735 -1.2064528 0
-5.188251 -0.58521807 -1.2053961 0
-5.2210569 -0.60665321 -1.2134837 0
-5.1643653 -0.6176219 -1.2007819 0
-5.1013308 -0.6274389 -1.1866081 0
-5.1388073 -0.64954573 -1.1958252 0
-5.1452408 -0.66789311 -1.1978368 0
-5.1123405 -0.68105954 -1.1907022 0
-5.1690941 -0.70626676 -1.2044653 0
-5.1829906 -0.72587574 -1.2082636 0
-5.115531 -0.73392415 -1.1931044 0
-5.1390438 -0.75489104 -1.1991719 0
-5.1632166 -0.7761355 -1.205413 0
-5.1432247 -0.79077315 -1.2013578 0
-5.1110888 -0.80338305 -1.194474 0
-5.1611791 -0.82899791 -1.206823 0
-5.1087313 -0.83815372 -1.1952096 0
-5.0817342 -0.85123092 -1.1895546 0
-5.1210866 -0.87548459 -1.1994468 0
-5.0965815 -0.88889271 -1.1943985 0
-5.1435432 -0.91486377 -1.2061163 0
-5.1050806 -0.92569107 -1.1978182 0
-5.0923109 -0.94102126 -1.1955556 0
-5.0617628 -0.9529379 -1.189127 0
-5.119596 -0.98161036 -1.2034798 0
-5.0955882 -0.99473137 -1.1986135 0
-5.1209273 -1.0175135 -1.2053696 0
-5.0651002 -1.0240855 -1.1930305 0
-5.0288615 -1.0343206 -1.1853049 0
-5.0982556 -1.0664225 -1.2024972 0
-5.0853529 -1.0815324 -1.2003025 0
-5.0771151 -1.0975857 -1.1992199 0
-5.0874505 -1.1176875 -1.2025394 0
-5.0923057 -1.1366651 -1.2045811 0
-5.1010633 -1.1565884 -1.2075633 0
-5.0821414 -1.1702274 -1.2040061 0
-5.0698037 -1.1852998 -1.2020179 0
-5.0437026 -1.1970465 -1.1967744 0
-5.1150866 -1.2321187 -1.2146858 0
-5.0534935 -1.2352234 -1.201036 0
-5.0937619 -1.2631799 -1.211606 0
-5.0398459 -1.2677613 -1.1997858 0
-5.0474315 -1.2876787 -1.2026126 0
-5.0755844 -1.3130016 -1.2103626 0
-5.0180378 -1.316081 -1.1976851 0
-5.0062699 -1.3309501 -1.1959348 0
-5.0127535 -1.3506848 -1.1985587 0
-5.0334148 -1.3743697 -1.2045939 0
-4.9984651 -1.3828517 -1.1973326 0
-5.0003018 -1.401425 -1.1988914 0
-4.9909854 -1.4168793 -1.1977899 0
-4.9781494 -1.4312886 -1.1958544 0
-4.9693766 -1.4468224 -1.1949055 0
-4.9259534 -1.4521133 -1.1856283 0
-5.0095077 -1.4950178 -1.2069386 0
-4.9565735 -1.4973371 -1.1953881 0
-4.969943 -1.5195783 -1.1998345 0
-4.9909849 -1.544329 -1.2061576 0
-4.9234285 -1.5415322 -1.1910738 0
-4.9572978 -1.5704062 -1.2005345 0
-4.9280167 -1.5793306 -1.1947188 0
-4.951232 -1.605096 -1.201645 0
-4.9743114 -1.6310288 -1.2085667 0
-4.9243221 -1.6329434 -1.1977447 0
-4.9093876 -1.6462817 -1.195448 0
-4.9456654 -1.6769142 -1.2056441 0
-4.9261036 -1.6887177 -1.2022489 0
-4.9245791 -1.706668 -1.2032666 0
-4.8994126 -1.7163674 -1.1985167 0
-4.9313669 -1.7461467 -1.207759 0
-4.9057174 -1.7555968 -1.2029119 0
-4.8535652 -1.7553126 -1.1915603 0
-4.8805661 -1.783604 -1.1996505 0
-4.8691382 -1.7979561 -1.1983165 0
-4.8771381 -1.819515 -1.20178 0
-4.8423524 -1.8250557 -1.1947093 0
-4.8537297 -1.8479527 -1.1990383 0
-4.8454962 -1.8634428 -1.198541 0
-4.8666153 -1.8903191 -1.2053258 0
-4.8642688 -1.9082017 -1.2063224 0
-4.8270607 -1.9123049 -1.1986783 0
-4.8733182 -1.9495593 -1.2117815 0
-4.810822 -1.9432944 -1.1978549 0
-4.8200445 -1.965843 -1.2017856 0
-4.7836084 -1.9697146 -1.1943408 0
-4.8042569 -1.997082 -1.2011613 0
-4.7651057 -1.9995707 -1.1930422 0
-4.8163834 -2.040107 -1.2075864 0
-4.8170819 -2.0594785 -1.2094859 0
-4.7501335 -2.0497203 -1.1943952 0
-4.7832646 -2.0830679 -1.2044752 0
-4.8100462 -2.1139448 -1.212997 0
-4.7402725 -2.1022713 -1.1971722 0
-4.7028542 -2.104574 -1.1894976 0
-4.7530165 -2.1461782 -1.2039984 0
-4.7075062 -2.1446588 -1.1942848 0
-4.6969581 -2.1588993 -1.1934385 0
-4.6992569 -2.1790698 -1.1958723 0
-4.6709809 -2.1850162 -1.1905341 0
-4.7066078 -2.2209456 -1.2015059 0
-4.690074 -2.2324007 -1.1991892 0
-4.6724372 -2.2432518 -1.196596 0
-4.6518388 -2.2525852 -1.1932483 0
-4.6507092 -2.2713189 -1.1949053 0
-4.7029276 -2.3163824 -1.2103103 0
-4.6478729 -2.3086617 -1.1981272 0
-4.6890197 -2.3487329 -1.2107571 0
-4.6564918 -2.3520021 -1.2043874 0
-4.6102419 -2.3480752 -1.1944547 0
-4.6253352 -2.3753266 -1.2004218 0
-4.600399 -2.3820467 -1.1960162 0
-4.5902166 -2.3963246 -1.195451 0
-4.6005988 -2.4214082 -1.2002624 0
-4.5635891 -2.4215031 -1.1927184 0
-4.6061912 -2.4639356 -1.206005 0
-4.5265203 -2.4408724 -1.1872813 0
-4.5869675 -2.493355 -1.2053223 0
-4.5664263 -2.5020602 -1.2021223 0
-4.5409422 -2.5079291 -1.1976204 0
-4.4983597 -2.5041304 -1.1885974 0
-4.5642257 -2.560879 -1.208263 0
-4.5159235 -2.5537229 -1.1977361 0
-4.5317612 -2.5827703 -1.2042267 0
-4.5007863 -2.5851471 -1.1982923 0
-4.4824247 -2.5946262 -1.195713 0
-4.4881744 -2.6180835 -1.1995816 0
-4.4688325 -2.6269219 -1.1967593 0
-4.4797626 -2.6535966 -1.2020622 0
-4.4717965 -2.669172 -1.2023194 0
-4.4158034 -2.6558709 -1.1896521 0
-4.4090505 -2.6719804 -1.1902397 0
-4.4429979 -2.7129626 -1.2018528 0
-4.4499159 -2.7377114 -1.2062004 0
-4.4104323 -2.7338469 -1.1979758 0
-4.4567714 -2.7832978 -1.2130904 0
-4.3560543 -2.7407427 -1.1881707 0
-4.4359374 -2.8118081 -1.2125245 0
-4.3943563 -2.8061485 -1.2037237 0
-4.4096632 -2.8367817 -1.2105153 0
-4.3718305 -2.8332124 -1.2027304 0
-4.36303 -2.8483267 -1.2029299 0
-4.3182211 -2.8397679 -1.193194 0
-4.3304124 -2.8686297 -1.1992136 0
-4.3502989 -2.9028361 -1.2074091 0
-4.2832904 -2.8789253 -1.1914835 0
-4.2855072 -2.9013221 -1.1947994 0
-4.2813287 -2.9194746 -1.1963568 0
-4.287775 -2.9449799 -1.2009106 0
-4.2592235 -2.9464352 -1.1956739 0
-4.2542963 -2.9641657 -1.1970741 0
-4.2801147 -3.0035217 -1.2071656 0
-4.1875663 -2.9595804 -1.1838553 0
-4.2497363 -3.0249357 -1.2042916 0
-4.2023311 -3.0124724 -1.1937134 0
-4.1703119 -3.0107377 -1.1874788 0
-4.1926599 -3.0483077 -1.1967459 0
-4.2265377 -3.0946534 -1.2093707 0
-4.1761003 -3.0792844 -1.1978861 0
-4.1632352 -3.0913994 -1.1971622 0
-4.1555037 -3.1073275 -1.1979281 0
-4.136446 -3.1147547 -1.195438 0
-4.1146922 -3.1200471 -1.1921678 0
-4.1339364 -3.1565249 -1.200803 0
-4.1150522 -3.1640027 -1.1983924 0
-4.1130462 -3.1844602 -1.2009108 0
-4.0859752 -3.1854692 -1.1961184 0
-4.0970125 -3.2162175 -1.2024994 0
-4.0858827 -3.2296803 -1.2024043 0
-4.0188975 -3.198684 -1.1858411 0
-4.0578446 -3.2519655 -1.2005434 0
-4.0715594 -3.2854357 -1.2078533 0
-4.0248766 -3.2701085 -1.1972505 0
-4.06917 -3.3288071 -1.2137393 0
-3.9929676 -3.2888775 -1.1942922 0
-4.0371089 -3.3480172 -1.2108456 0
-3.9945958 -3.3354278 -1.2014419 0
-3.9782841 -3.3445096 -1.1999018 0
-3.9486473 -3.3422542 -1.1943362 0
-3.9035156 -3.3265817 -1.1840522 0
-3.9509692 -3.3899548 -1.2018872 0
-3.9009118 -3.3697782 -1.1900899 0
-3.936157 -3.423337 -1.2043375 0
-3.8869379 -3.4034872 -1.1927629 0
-3.8613293 -3.4040039 -1.1884 0
-3.8968046 -3.4585652 -1.2028804 0
-3.8761117 -3.4635019 -1.2000706 0
-3.8613772 -3.4736896 -1.1991079 0
-3.8700407 -3.5050306 -1.2054409 0
-3.8546095 -3.5146513 -1.204298 0
-3.8528979 -3.5368214 -1.2074615 0
-3.8115895 -3.5225227 -1.1982104 0
-3.7981122 -3.5337515 -1.1976914 0
-3.7726903 -3.5337718 -1.1934044 0
-3.7746439 -3.5594358 -1.1977907 0
-3.7093964 -3.5214789 -1.1808259 0
-3.7572453 -3.5909309 -1.1998838 0
-3.7030578 -3.5629754 -1.1863873 0
-3.708524 -3.5922573 -1.1919906 0
-3.6837864 -3.5923133 -1.1879041 0
-3.7073138 -3.6395862 -1.1994193 0
-3.7206092 -3.677217 -1.2077026 0
-3.6747108 -3.6562908 -1.1967766 0
-3.6791093 -3.6852968 -1.2022265 0
-3.6627858 -3.6936314 -1.2009325 0
-3.6475358 -3.7030027 -1.1999965 0
-3.676065 -3.7570794 -1.2135196 0
-3.6648262 -3.770802 -1.2139763 0
-3.6037724 -3.7329433 -1.1978914 0
-3.607729 -3.7622039 -1.2033926 0
-3.560282 -3.737731 -1.1917397 0
-3.5732896 -3.7766612 -1.2003256 0
-3.5660555 -3.7944179 -1.2021623 0
-3.5504 -3.803232 -1.2011766 0
-3.5524449 -3.8310928 -1.2062074 0
-3.5088315 -3.809598 -1.195729 0
-3.5270829 -3.8552735 -1.2063468 0
-3.4793656 -3.8288138 -1.1944103 0
-3.5053735 -3.8835151 -1.2078015 0
-3.4773121 -3.8784921 -1.2026064 0
-3.4822183 -3.9102628 -1.2088307 0
-3.4278083 -3.8752475 -1.1944463 0
-3.4286768 -3.9025176 -1.1993016 0
-3.4177721 -3.9165111 -1.2000737 0
-3.4292271 -3.956336 -1.2087468 0
-3.4009466 -3.9503922 -1.2034403 0
-3.3910348 -3.965693 -1.2046311 0
-3.3253851 -3.9154201 -1.1859666 0
-3.3532541 -3.9751694 -1.2006522 0
-3.3233342 -3.9666092 -1.1946945 0
-3.3104234 -3.9782188 -1.1948415 0
-3.3139246 -4.0096931 -1.2009507 0
-3.2822063 -3.9985411 -1.1943079 0
-3.3038733 -4.052567 -1.2071292 0
-3.2643628 -4.0316286 -1.1976255 0
-3.2562609 -4.0493078 -1.1996273 0
-3.213058 -4.0231299 -1.1886739 0
-3.2625401 -4.1132946 -1.2120751 0
-3.189888 -4.0495105 -1.1901213 0
-3.1956916 -4.0849795 -1.1973898 0
-3.188587 -4.1041784 -1.199877 0
-3.1868594 -4.130465 -1.2044314 0
-3.15342 -4.115582 -1.1970018 0
-3.1592045 -4.1518917 -1.2044749 0
-3.1418722 -4.157969 -1.2031751 0
-3.1440954 -4.1900444 -1.2093996 0
-3.1097937 -4.1734061 -1.2015809 0
-3.0931253 -4.1802168 -1.200549 0
-3.0656252 -4.172235 -1.1952981 0
-3.0878513 -4.2321496 -1.2094901 0
-3.0488462 -4.2082505 -1.1997318 0
-3.0432796 -4.2303476 -1.2031159 0
-3.0305789 -4.2426271 -1.2037116 0
-3.0117791 -4.2463379 -1.2018926 0
-2.9901025 -4.2458725 -1.1989167 0
-2.9890354 -4.2747302 -1.2042286 0
-2.9431512 -4.239305 -1.1914625 0
-2.9738934 -4.314393 -1.2097569 0
-2.9366505 -4.2910814 -1.2004527 0
-2.9177482 -4.294282 -1.1986047 0
-2.9109156 -4.31528 -1.2017347 0
-2.8730543 -4.2901092 -1.1920357 0
-2.869314 -4.3157511 -1.1964808 0
-2.8692138 -4.3471432 -1.20251 0
-2.8593698 -4.3639841 -1.2045097 0
-2.830209 -4.3512335 -1.1983646 0
-2.8125443 -4.3559589 -1.1970623 0
-2.8152981 -4.3924723 -1.2044955 0
-2.7986472 -4.3988881 -1.203675 0
-2.7955275 -4.4266858 -1.20871 0
-2.7780883 -4.4319153 -1.2075877 0
-2.7176096 -4.3679075 -1.1876578 0
-2.7180376 -4.4014273 -1.1942874 0
-2.708312 -4.4187498 -1.1965171 0
-2.7253814 -4.4802456 -1.2106879 0
-2.6987531 -4.4701581 -1.20551 0
-2.7021956 -4.5099669 -1.2137954 0
-2.6489239 -4.4548664 -1.1965688 0
-2.6180367 -4.4367166 -1.1893295 0
-2.6523678 -4.5295258 -1.2118177 0
-2.6229041 -4.5138488 -1.205264 0
-2.6186392 -4.5414934 -1.2102945 0
-2.571815 -4.4950471 -1.195612 0
-2.5418928 -4.47751 -1.1886739 0
-2.5388589 -4.507298 -1.1943153 0
-2.5487373 -4.5605268 -1.2061484 0
-2.5133891 -4.5328989 -1.196606 0
-2.5196695 -4.5803699 -1.2069006 0
-2.5188234 -4.6154075 -1.2139008 0
-2.4862018 -4.5921812 -1.2055929 0
-2.4883883 -4.6332564 -1.2141792 0
-2.4598591 -4.6172085 -1.2078056 0
-2.4363217 -4.6102104 -1.2038314 0
-2.4249084 -4.6260939 -1.2058491 0
-2.3893974 -4.5957556 -1.1958461 0
-2.4102738 -4.6741323 -1.2141308 0
-2.3593926 -4.6133676 -1.1962852 0
-2.3212929 -4.5766573 -1.184741 0
-2.3374298 -4.6470289 -1.2009224 0
-2.284791 -4.5805712 -1.1817615 0
-2.2926054 -4.6350808 -1.1938348 0
-2.293458 -4.6761918 -1.2024363 0
-2.2753663 -4.6789193 -1.2011691 0
-2.2588415 -4.6848116 -1.2007308 0
-2.2240357 -4.6524334 -1.1905143 0
-2.2372639 -4.7207165 -1.206061 0
-2.200547 -4.6837564 -1.1947267 0
-2.2132308 -4.7520862 -1.2102566 0
-2.1772346 -4.7160482 -1.1992126 0
-2.1826413 -4.7697177 -1.2109921 0
-2.144613 -4.7284498 -1.1986823 0
-2.1418359 -4.7647305 -1.2060523 0
-2.1208682 -4.7607055 -1.2032268 0
-2.0914235 -4.7372766 -1.1955264 0
-2.0852582 -4.7665019 -1.2011307 0
-2.0896838 -4.8205686 -1.2129828 0
-2.0610926 -4.7986388 -1.205719 0
-2.0144808 -4.7338243 -1.1877297 0
-2.0091035 -4.7654705 -1.1939731 0
-2.0054641 -4.8017488 -1.2013711 0
-1.9924569 -4.8159471 -1.2032452 0
-1.9848109 -4.8433719 -1.2084278 0
-1.9493548 -4.8026805 -1.1966379 0
-1.9362994 -4.8167968 -1.1985307 0
-1.9308925 -4.8502746 -1.205243 0
-1.9046136 -4.8313398 -1.1989444 0
-1.8830445 -4.8239675 -1.1955414 0
-1.8776389 -4.8581429 -1.2024442 0
-1.8542875 -4.8459797 -1.1978883 0
-1.8448497 -4.8701744 -1.2023332 0
-1.8312817 -4.8837223 -1.2041553 0
-1.8067609 -4.8679137 -1.1987572 0
-1.7854655 -4.8604307 -1.1954334 0
-1.775628 -4.8841829 -1.1998043 0
-1.7678406 -4.9140096 -1.2056684 0
-1.7408328 -4.8903503 -1.1984248 0
-1.7214388 -4.8876762 -1.1963483 0
-1.7249923 -4.9506783 -1.2103468 0
-1.6930612 -4.9119792 -1.1994911 0
-1.6796756 -4.9266996 -1.2017038 0
-1.6725925 -4.9603133 -1.208528 0
-1.6464272 -4.9373298 -1.2015766 0
-1.6328886 -4.9519944 -1.2038064 0
-1.6091529 -4.9355927 -1.198501 0
-1.5883757 -4.9278674 -1.1953251 0
-1.585873 -4.9771934 -1.2059932 0
-1.5673002 -4.9765244 -1.2045511 0
-1.5493026 -4.9775639 -1.2035387 0
-1.5411977 -5.0106659 -1.2102863 0
-1.5150813 -4.9851789 -1.2028964 0
-1.4968514 -4.9852114 -1.2016865 0
-1.4898509 -5.0229807 -1.2095798 0
-1.4494957 -4.9477134 -1.1902777 0
-1.4655378 -5.0653558 -1.2173903 0
-1.4241501 -4.984849 -1.1968871 0
-1.4045461 -4.9793758 -1.1944357 0
-1.3974802 -5.0186653 -1.2027296 0
-1.3898398 -5.0567741 -1.2107388 0
-1.3685672 -5.0455146 -1.2069376 0
-1.3361375 -4.9921432 -1.1930922 0
-1.3289357 -5.0327358 -1.201722 0
-1.3073467 -5.0190897 -1.1974101 0
-1.2991719 -5.057157 -1.205446 0
-1.2761126 -5.0374193 -1.1997147 0
-1.251361 -5.0102205 -1.1922309 0
-1.2550392 -5.0975857 -1.2120122 0
-1.2132078 -4.9998355 -1.1877972 0
-1.2009959 -5.0229402 -1.1923227 0
-1.201455 -5.1004086 -1.2097489 0
-1.1840204 -5.1029987 -1.2094147 0
-1.1530824 -5.0464478 -1.1950892 0
-1.1499275 -5.1115007 -1.2095749 0
-1.1201576 -5.0583138 -1.1960936 0
-1.1161126 -5.1213293 -1.2101026 0
-1.0866469 -5.0677328 -1.1965708 0
-1.0657095 -5.0526667 -1.1921631 0
-1.0592879 -5.1069546 -1.2041273 0
-1.0402602 -5.1011643 -1.201933 0
-1.0164993 -5.0714369 -1.194119 0
-1.0017203 -5.0861406 -1.1967835 0
-0.98622775 -5.0975642 -1.1986868 0
-0.97562587 -5.1350269 -1.2067201 0
-0.94988418 -5.0925941 -1.1959933 0
-0.9440856 -5.1573777 -1.2104576 0
-0.91367549 -5.0874982 -1.1933309 0
-0.90284586 -5.1259203 -1.2016264 0
-0.88216203 -5.1086931 -1.196888 0
-0.87650234 -5.1794229 -1.2127634 0
-0.84986895 -5.1264586 -1.199688 0
-0.83106226 -5.119338 -1.1973627 0
-0.81459808 -5.1265302 -1.1983994 0
-0.79669201 -5.1246452 -1.1973275 0
-0.7879498 -5.1828299 -1.2102979 0
-0.7595886 -5.1115561 -1.1930525 0
-0.7434929 -5.121284 -1.1947345 0
-0.73265278 -5.1684356 -1.2051547 0
-0.71353358 -5.1579509 -1.2021451 0
-0.694812 -5.1497602 -1.1996865 0
-0.68145406 -5.1818089 -1.2066135 0
-0.66384923 -5.1822896 -1.2062004 0
-0.64042938 -5.1360397 -1.1949291 0
-0.63064498 -5.1994944 -1.2091933 0
-0.60787022 -5.1562972 -1.1986667 0
-0.59106058 -5.1625147 -1.1996447 0
-0.57481122 -5.1740351 -1.2018671 0
-0.55195576 -5.1248231 -1.1899993 0
-0.53313762 -5.1109948 -1.1863666 0
-0.51723588 -5.1250148 -1.1892116 0
-0.50463182 -5.1736975 -1.2001086 0
-0.48830906 -5.1862631 -1.2026368 0
-0.46719018 -5.1468062 -1.1931173 0
-0.45189133 -5.1707716 -1.1983149 0
-0.43603367 -5.1898913 -1.2024003 0
-0.42080352 -5.2182713 -1.2086416 0
-0.40035224 -5.1814337 -1.1997919 0
-0.37964311 -5.1376219 -1.1893456 0
-0.36427543 -5.1652384 -1.1954494 0
-0.34891322 -5.1955857 -1.2021953 0
-0.32974982 -5.1694236 -1.1958792 0
-0.3136262 -5.1905308 -1.2005121 0
-0.29579544 -5.1840849 -1.1987852 0
-0.2784228 -5.1852393 -1.1988294 0
-0.26211771 -5.2076321 -1.2037967 0
-0.2436929 -5.1879778 -1.1990578 0
-0.22540535 -5.1683159 -1.1943321 0
-0.21121091 -5.2469277 -1.212328 0
-0.19337225 -5.2409525 -1.2107906 0
-0.17509374 -5.2205362 -1.2059315 0
-0.15640111 -5.1817288 -1.1968393 0
-0.1402553 -5.2280135 -1.2074145 0
-0.12243791 -5.2161822 -1.2045804 0
-0.10379798 -5.1593833 -1.1913767 0
-0.087506957 -5.21983 -1.2052603 0
-0.069872469 -5.2101846 -1.2029723 0
-0.05211623 -5.1818457 -1.196382 0
-0.03464096 -5.1668925 -1.1928961 0
-0.017445089 -5.2051535 -1.2017093 0
6.8891495e-06 -5.1923242 -1.1987407 0
0.017410563 -5.190742 -1.1983821 0
0.03484118 -5.1947007 -1.1993163 0
0.052342027 -5.2029233 -1.2012484 0
0.069964379 -5.2160058 -1.2043164 0
0.087964155 -5.2462716 -1.2113656 0
0.10458634 -5.1978836 -1.2002671 0
0.12278168 -5.2302361 -1.207826 0
0.1393794 -5.19485 -1.1997553 0
0.1559383 -5.1659403 -1.1931927 0
0.17384413 -5.182868 -1.1972305 0
0.19348554 -5.2436452 -1.2114129 0
0.20846856 -5.1784601 -1.1965082 0
0.22666456 -5.1968713 -1.2009311 0
0.24367984 -5.1874061 -1.1989259 0
0.25895587 -5.1445422 -1.189213 0
0.27913505 -5.198246 -1.2018368 0
0.29530188 -5.1751933 -1.1967292 0
0.31390736 -5.1949549 -1.2015356 0
0.32921419 -5.1608105 -1.193887 0
0.3485457 -5.1899071 -1.2008816 0
0.3681263 -5.2196445 -1.2080413 0
0.3837612 -5.1931634 -1.2022035 0
0.40096983 -5.1892471 -1.2016014 0
0.419038 -5.1962051 -1.2035311 0
0.43927327 -5.2282839 -1.2112955 0
0.45122364 -5.1629734 -1.196508 0
0.46808317 -5.1564918 -1.1953629 0
0.48728386 -5.1752272 -1.2000781 0
0.50430971 -5.1702533 -1.1993099 0
0.52279967 -5.180006 -1.2019721 0
0.54347676 -5.2099786 -1.209343 0
0.56047434 -5.2037868 -1.2083352 0
0.57481748 -5.1739664 -1.2018515 0
0.59262586 -5.176065 -1.2027938 0
0.60947269 -5.1697721 -1.2017996 0
0.62856168 -5.1822028 -1.2051724 0
0.64127648 -5.1427226 -1.1964843 0
0.65625554 -5.1229024 -1.1923782 0
0.67631936 -5.1426587 -1.1974976 0
0.69497305 -5.1508508 -1.199941 0
0.71093541 -5.1390686 -1.1977447 0
0.72594559 -5.1210227 -1.1940994 0
0.75190061 -5.1791005 -1.2082229 0
0.76102823 -5.121151 -1.1952925 0
0.78363699 -5.1543698 -1.2036524 0
0.80328512 -5.1669641 -1.2072155 0
0.81894892 -5.1538229 -1.20478 0
0.84432989 -5.2009792 -1.2164583 0
0.85612971 -5.1641388 -1.2085063 0
0.86797333 -5.1289406 -1.2009435 0
0.88204932 -5.1079597 -1.1967165 0
0.89984769 -5.108819 -1.197618 0
0.92613053 -5.1567712 -1.2095802 0
0.94037944 -5.1370544 -1.2056882 0
0.95762116 -5.1339984 -1.2057177 0
0.96875644 -5.0987973 -1.1982068 0
0.98727006 -5.1028795 -1.1999372 0
1.0060275 -5.1079378 -1.2019131 0
1.0187981 -5.0828362 -1.1968037 0
1.0315884 -5.0585718 -1.1918981 0
1.0636351 -5.1278443 -1.2090535 0
1.0789362 -5.1153097 -1.2069442 0
1.0871433 -5.0699821 -1.1971025 0
1.117515 -5.1276984 -1.2116082 0
1.1303983 -5.1044936 -1.207014 0
1.1426135 -5.0789261 -1.2018673 0
1.1604146 -5.0784755 -1.2026746 0
1.1819634 -5.0940719 -1.2072999 0
1.1881579 -5.0439005 -1.1963466 0
1.2057524 -5.0427732 -1.1970314 0
1.2189648 -5.0235028 -1.1934205 0
1.2462528 -5.0618401 -1.2035141 0
1.25146 -5.01056 -1.1923125 0
1.2900628 -5.0924306 -1.212817 0
1.2743 -4.9602861 -1.1823561 0
1.3076763 -5.0203004 -1.1976999 0
1.3332556 -5.0490413 -1.2056164 0
1.3399018 -5.0061541 -1.1964415 0
1.3545846 -4.9939122 -1.1945945 0
1.3822178 -5.0289903 -1.2040874 0
1.3906182 -4.9939709 -1.1968124 0
1.4054178 -4.9824157 -1.1951656 0
1.4351931 -5.0234509 -1.2061566 0
1.454968 -5.0287733 -1.208599 0
1.4625103 -4.9920883 -1.2009541 0
1.4903929 -5.0247593 -1.2100091 0
1.5025126 -5.0040178 -1.2062207 0
1.5186808 -4.9969749 -1.2057437 0
1.5260918 -4.9615078 -1.1984135 0
1.5427706 -4.9565315 -1.1984543 0
1.5571116 -4.9441276 -1.1967107 0
1.5780944 -4.9527345 -1.2000679 0
1.5888435 -4.9292741 -1.1956673 0
1.611408 -4.9424648 -1.2001708 0
1.6330023 -4.9522953 -1.2038805 0
1.6345739 -4.9017406 -1.1929165 0
1.6583223 -4.9179497 -1.1982077 0
1.6705756 -4.8999658 -1.195184 0
1.7022779 -4.9386764 -1.2060115 0
1.7241006 -4.9480767 -1.2097119 0
1.7208029 -4.8858294 -1.1958975 0
1.7450718 -4.9022174 -1.201334 0
1.7660214 -4.9089117 -1.2044189 0
1.7716831 -4.8732915 -1.19713 0
1.7815502 -4.8497329 -1.1928034 0
1.8148087 -4.8895574 -1.2040881 0
1.8263837 -4.8706212 -1.2009262 0
1.8280901 -4.8258924 -1.1914023 0
1.8717073 -4.8914657 -1.2091333 0
1.8753134 -4.8520875 -1.2009467 0
1.8918362 -4.8464518 -1.201115 0
1.9106991 -4.8467388 -1.2027671 0
1.9199276 -4.8226943 -1.198391 0
1.9280843 -4.7963238 -1.1934378 0
1.9685271 -4.8498793 -1.2083991 0
1.9725504 -4.813417 -1.2009553 0
1.9773328 -4.7793546 -1.1941041 0
1.9985291 -4.7851081 -1.197209 0
2.0074291 -4.7614636 -1.1929704 0
2.0444949 -4.8043184 -1.2054183 0
2.0519948 -4.7774224 -1.2003895 0
2.0810418 -4.8005981 -1.2079591 0
2.0771129 -4.747849 -1.1964316 0
2.1026151 -4.7625923 -1.2019166 0
2.1043801 -4.7236609 -1.1938655 0
2.1153018 -4.7056694 -1.1911042 0
2.1587949 -4.7596846 -1.2066019 0
2.1522861 -4.7033496 -1.1941433 0
2.1743979 -4.7098708 -1.1976432 0
2.195653 -4.7143111 -1.2006376 0
2.1913979 -4.6642504 -1.1897527 0
2.2362525 -4.7185502 -1.2055091 0
2.2384827 -4.6826229 -1.198241 0
2.2383533 -4.6422877 -1.1898334 0
2.2790601 -4.6864829 -1.2031125 0
2.3063693 -4.7024856 -1.2091991 0
2.2936151 -4.6370907 -1.1943542 0
2.2959638 -4.6029401 -1.1875342 0
2.3497028 -4.6713977 -1.2072216 0
2.349185 -4.6316195 -1.1989704 0
2.3830726 -4.6596394 -1.2082855 0
2.3974321 -4.649199 -1.2076558 0
2.41976 -4.6541247 -1.2110358 0
2.3944976 -4.5680485 -1.1907206 0
2.41432 -4.5685477 -1.1929539 0
2.4249122 -4.5515833 -1.1906404 0
2.4681292 -4.5955057 -1.204288 0
2.4632981 -4.5498481 -1.1944807 0
2.4700072 -4.5259299 -1.1903689 0
2.5244863 -4.5890975 -1.2092021 0
2.5049665 -4.5176802 -1.1925902 0
2.5422668 -4.5489206 -1.2030807 0
2.5495334 -4.5262208 -1.199331 0
2.5745494 -4.5350065 -1.2039396 0
2.5601177 -4.474575 -1.1901685 0
2.5881805 -4.4886417 -1.1962113 0
2.6265852 -4.5201564 -1.2069502 0
2.615932 -4.4672761 -1.1951655 0
2.6407521 -4.4751844 -1.1996433 0
2.6677115 -4.4864354 -1.2050502 0
2.6367149 -4.4006524 -1.184377 0
2.693886 -4.4620695 -1.2033306 0
2.7196436 -4.4707866 -1.2081337 0
2.7150645 -4.4297404 -1.1994951 0
2.7160325 -4.3981543 -1.1934012 0
2.7526035 -4.4241261 -1.2029459 0
2.7990611 -4.4653468 -1.216699 0
2.8000336 -4.433795 -1.2106531 0
2.8103106 -4.4171944 -1.2086864 0
2.7850468 -4.3452487 -1.1915481 0
2.8409989 -4.400003 -1.209168 0
2.8628602 -4.4014068 -1.2121848 0
2.8135188 -4.2939811 -1.1851902 0
2.8794069 -4.3625617 -1.2067771 0
2.884347 -4.3383374 -1.2027445 0
2.9015253 -4.3325977 -1.2038436 0
2.9216068 -4.3311043 -1.2061436 0
2.9356794 -4.3206482 -1.205966 0
2.925633 -4.2749577 -1.1959442 0
2.9359374 -4.259304 -1.1943121 0
2.9313366 -4.2222633 -1.1866752 0
2.9938631 -4.2816105 -1.2061691 0
2.9927533 -4.2496123 -1.1999749 0
3.0386255 -4.2841649 -1.2126017 0
3.0196645 -4.227324 -1.1993722 0
3.0470824 -4.23561 -1.2046149 0
3.0385704 -4.1940432 -1.1956838 0
3.0468593 -4.1759429 -1.1934294 0
3.0539124 -4.156271 -1.1907269 0
3.089185 -4.1748681 -1.1990154 0
3.0853295 -4.1405516 -1.192124 0
3.1189189 -4.1564693 -1.199711 0
3.1107984 -4.1168227 -1.1912713 0
3.1457539 -4.134192 -1.1993425 0
3.2025542 -4.1796846 -1.2156484 0
3.1875458 -4.1313319 -1.2046868 0
3.2040241 -4.1240258 -1.2056819 0
3.2329581 -4.1325936 -1.211349 0
3.2100658 -4.0751033 -1.1976454 0
3.2263246 -4.0676131 -1.1986165 0
3.2269166 -4.0404606 -1.1937969 0
3.268013 -4.0639 -1.2039529 0
3.2793832 -4.0501575 -1.2031323 0
3.2640207 -4.0036621 -1.1925646 0
3.2752852 -3.9900877 -1.1917856 0
3.3212442 -4.0185275 -1.2035995 0
3.3568056 -4.0339355 -1.2115785 0
3.3205793 -3.9632998 -1.1937004 0
3.3643363 -3.9882858 -1.2046165 0
3.3555684 -3.9509375 -1.1967273 0
3.3455639 -3.9124954 -1.1884743 0
3.3918579 -3.9398141 -1.2002205 0
3.4226215 -3.9486938 -1.2064147 0
3.404408 -3.901176 -1.1953776 0
3.4307425 -3.9048479 -1.2000206 0
3.4846761 -3.9395173 -1.2142587 0
3.4701462 -3.8966858 -1.2046363 0
3.4580803 -3.8570209 -1.1959517 0
3.501585 -3.8792973 -1.2064925 0
3.5050876 -3.8570986 -1.2032368 0
3.4883602 -3.8129272 -1.1930993 0
3.5201375 -3.8218527 -1.1995784 0
3.5140958 -3.7897155 -1.1931828 0
3.5616431 -3.8152554 -1.2049769 0
3.57289 -3.8016698 -1.2044629 0
3.5799363 -3.7836661 -1.2025549 0
3.5653877 -3.7430713 -1.1934454 0
3.6006482 -3.7548001 -1.2010275 0
3.591157 -3.719856 -1.1936947 0
3.6221755 -3.7268982 -1.199845 0
3.6415329 -3.7217665 -1.2021168 0
3.6317675 -3.6869752 -1.1948056 0
3.6392059 -3.6698337 -1.1931981 0
3.6737623 -3.6799214 -1.2004762 0
3.6962662 -3.6777186 -1.2037936 0
3.7178881 -3.6745083 -1.2068163 0
3.7284043 -3.6602721 -1.2062395 0
3.7311616 -3.6384926 -1.2031779 0
3.7428639 -3.6255014 -1.203025 0
3.7537823 -3.6117616 -1.2026354 0
3.7805579 -3.6131926 -1.2073257 0
3.8155577 -3.6222429 -1.2146177 0
3.7643316 -3.5496924 -1.1945153 0
3.8056424 -3.5646179 -1.203825 0
3.8397157 -3.5724401 -1.2108076 0
3.8298159 -3.5393481 -1.2039371 0
3.8314612 -3.5171244 -1.2007405 0
3.8441169 -3.5050654 -1.201017 0
3.8366742 -3.4747927 -1.195045 0
3.8550613 -3.4679892 -1.1971437 0
3.8658602 -3.4543233 -1.1968938 0
3.8818388 -3.4452641 -1.1982578 0
3.8932028 -3.4320836 -1.1982069 0
3.8910725 -3.4070895 -1.1940289 0
3.9225299 -3.4114668 -1.2001653 0
3.9405324 -3.4039862 -1.2021747 0
3.9421461 -3.3823664 -1.1992005 0
3.9733117 -3.3860438 -1.2052207 0
3.9922307 -3.3791261 -1.207516 0
3.9653158 -3.3335891 -1.1959878 0
3.9814472 -3.3244312 -1.1974846 0
3.9834805 -3.3035245 -1.1947582 0
4.0245099 -3.3148398 -1.2037238 0
4.0141492 -3.2837789 -1.1973251 0
4.0522547 -3.2923346 -1.2053918 0
4.0647464 -3.2799206 -1.2058297 0
4.071909 -3.2632191 -1.2047019 0
4.0535526 -3.2262487 -1.196064 0
4.0481477 -3.1998353 -1.1912969 0
4.1343422 -3.2455044 -1.2134534 0
4.0881753 -3.1871672 -1.1967601 0
4.1190691 -3.1891055 -1.2026669 0
4.0928893 -3.1469445 -1.1919355 0
4.137527 -3.1592491 -1.2018436 0
4.1150279 -3.1202843 -1.1922626 0
4.1854196 -3.1516144 -1.2095891 0
4.1659346 -3.1151099 -1.2009326 0
4.1444826 -3.0774579 -1.1917676 0
4.1877384 -3.0878491 -1.2012222 0
4.1875525 -3.0660915 -1.1982133 0
4.1601691 -3.0246682 -1.1874695 0
4.227181 -3.0517769 -1.2036698 0
4.1983709 -3.0096164 -1.1925862 0
4.2581544 -3.0309107 -1.2066748 0
4.2445054 -2.9998055 -1.1999501 0
4.2599702 -2.9893684 -1.2014818 0
4.2223358 -2.9418807 -1.1880788 0
4.2348518 -2.929559 -1.18883 0
4.2898068 -2.9463587 -1.2014774 0
4.2915654 -2.9264386 -1.1992152 0
4.2953515 -2.9079702 -1.1975418 0
4.2867002 -2.8812006 -1.1924299 0
4.3373437 -2.8941748 -1.2038114 0
4.3219256 -2.8629911 -1.1968613 0
4.3407745 -2.854583 -1.1994238 0
4.3956776 -2.8696234 -1.211929 0
4.4054542 -2.854986 -1.2119786 0
4.3665075 -2.8090026 -1.1986662 0
4.3573384 -2.7824934 -1.1935816 0
4.3635654 -2.7659175 -1.1927403 0
4.3928318 -2.7638659 -1.1982002 0
4.4255443 -2.7637796 -1.2045887 0
4.414649 -2.7364442 -1.1991191 0
4.4282832 -2.7243862 -1.2003345 0
4.44171 -2.7121599 -1.2015024 0
4.5127559 -2.7348118 -1.2182333 0
4.4466643 -2.6744161 -1.1979644 0
4.4319682 -2.6453831 -1.1916089 0
4.4577837 -2.6405613 -1.1961628 0
4.4872909 -2.6377561 -1.2017006 0
4.5440044 -2.6506345 -1.2145017 0
4.5195484 -2.6160991 -1.2056142 0
4.5547791 -2.6161432 -1.2126654 0
4.5011792 -2.565325 -1.1960983 0
4.500855 -2.545186 -1.1937379 0
4.4762907 -2.5115252 -1.1849828 0
4.5376272 -2.5259736 -1.1989713 0
4.5239415 -2.4985237 -1.1931349 0
4.5555687 -2.4960952 -1.1992623 0
4.6044559 -2.5028458 -1.209916 0
4.5544801 -2.4559338 -1.1946133 0
4.5159321 -2.4156389 -1.1823714 0
4.5747604 -2.4274151 -1.1956363 0
4.6145053 -2.4287119 -1.2038889 0
4.6106677 -2.4069855 -1.2007754 0
4.6096673 -2.3868303 -1.1984241 0
4.6218152 -2.3735034 -1.1995065 0
4.6419744 -2.3642218 -1.2026746 0
4.6387239 -2.3430123 -1.1997904 0
4.6729317 -2.3406591 -1.2066015 0
4.6035962 -2.2866538 -1.1867119 0
4.6938338 -2.3118877 -1.2079684 0
4.6891556 -2.2900798 -1.2047817 0
4.6588454 -2.2559628 -1.195044 0
4.7062635 -2.2594767 -1.2052573 0
4.6701417 -2.222898 -1.1940911 0
4.670846 -2.2040553 -1.1923751 0
4.7146597 -2.2054331 -1.2016654 0
4.7346444 -2.1954639 -1.2048762 0
4.7245808 -2.1715803 -1.2004555 0
4.75773 -2.1675248 -1.2070251 0
4.7073278 -2.1255331 -1.1924235 0
4.7061644 -2.1060402 -1.1903334 0
4.7263522 -2.0960829 -1.1936553 0
4.7893758 -2.1048453 -1.2077829 0
4.7555752 -2.0709944 -1.1975013 0
4.7912421 -2.0674438 -1.2047304 0
4.7344275 -2.0241258 -1.1887316 0
4.772491 -2.0215001 -1.1965801 0
4.78585 -2.0082605 -1.1982346 0
4.8200998 -2.0036528 -1.205121 0
4.7781758 -1.9674628 -1.1929832 0
4.8135285 -1.9631704 -1.2001595 0
4.7920737 -1.9357064 -1.1931854 0
4.7644472 -1.9059912 -1.1847088 0
4.8024497 -1.9025402 -1.1925654 0
4.8576078 -1.9055737 -1.2046692 0
4.8079462 -1.8675158 -1.1907939 0
4.8076057 -1.8488567 -1.1891676 0
4.8211155 -1.8355211 -1.1909803 0
4.878428 -1.8386377 -1.2036088 0
4.8576179 -1.8122177 -1.1969687 0
4.8972917 -1.808337 -1.2052439 0
4.8720388 -1.7804729 -1.1975532 0
4.8607254 -1.7578874 -1.1933169 0
4.9764228 -1.780885 -1.2202481 0
4.8873463 -1.7305448 -1.1969765 0
4.9123139 -1.7208724 -1.2016717 0
4.9177375 -1.7042822 -1.2015938 0
4.8830824 -1.673955 -1.1917481 0
4.9124637 -1.6656421 -1.1975492 0
4.9747009 -1.6681688 -1.2113509 0
4.9282336 -1.6342258 -1.1986951 0
4.9421086 -1.6204554 -1.2007418 0
4.9662108 -1.6099374 -1.2052794 0
4.9996614 -1.6022768 -1.212087 0
4.9699006 -1.5743842 -1.2035855 0
4.939362 -1.5465065 -1.1949273 0
4.9824214 -1.5416648 -1.204087 0
4.9565806 -1.5154784 -1.1966076 0
4.967803 -1.5007149 -1.1980953 0
4.9581552 -1.479678 -1.1945654 0
5.064508 -1.4929428 -1.218976 0
4.9571733 -1.4432551 -1.1919702 0
5.0097671 -1.4403646 -1.2034487 0
5.0460601 -1.4324998 -1.2110064 0
4.9848099 -1.3970689 -1.1951761 0
5.0177598 -1.3881755 -1.2019536 0
4.999712 -1.365153 -1.1965272 0
5.0059023 -1.3488245 -1.1969197 0
5.0489902 -1.3422934 -1.2061393 0
4.9933391 -1.3095891 -1.1917894 0
5.0450082 -1.3050776 -1.2030704 0
5.0263605 -1.282289 -1.1975915 0
4.9709268 -1.2504109 -1.1833782 0
5.0425372 -1.2504628 -1.1994209 0
5.0174685 -1.2264037 -1.1924733 0
5.0327811 -1.212279 -1.1951399 0
5.0197425 -1.1913458 -1.1910883 0
5.0538282 -1.1815506 -1.1982294 0
5.1102877 -1.1766942 -1.2106735 0
5.0733495 -1.1502906 -1.201002 0
5.0327988 -1.1233684 -1.1905042 0
5.096601 -1.1196836 -1.2047018 0
5.0326972 -1.0879693 -1.1887276 0
5.1065207 -1.08602 -1.2052979 0
5.0866222 -1.063975 -1.1997527 0
5.0602069 -1.0407536 -1.1926924 0
2.0622499 -0.41694954 -0.48574072 0
2.1158912 -0.42041567 -0.49804059 0
2.0756509 -0.40519091 -0.48824626 0
2.0966771 -0.40200254 -0.49287233 0
2.0369458 -0.38347399 -0.47852618 0
2.0625329 -0.38113514 -0.48423427 0
2.0656517 -0.37455359 -0.48466891 0
2.0826721 -0.37043175 -0.4883683 0
2.1090202 -0.36782762 -0.49425474 0
2.0354111 -0.34796181 -0.47672817 0
2.0312383 -0.34024304 -0.47548097 0
2.0578671 -0.33761421 -0.48144662 0
2.0636556 -0.33146247 -0.48253819 0
2.0449703 -0.3214317 -0.47791436 0
2.0763433 -0.31923309 -0.48499343 0
2.0038965 -0.30122057 -0.46783277 0
2.1266115 -0.31237918 -0.49623469 0
2.0366271 -0.29218891 -0.47500595 0
1.9886189 -0.27849987 -0.46358857 0
2.0267501 -0.27691466 -0.47225863 0
2.068002 -0.27549103 -0.48165289 0
2.0178549 -0.26192814 -0.46976614 0
2.0349901 -0.25721744 -0.47355184 0
2.0646036 -0.25393063 -0.48024219 0
2.0316577 -0.24296653 -0.4723866 0
2.0385349 -0.23685916 -0.47379833 0
2.0991824 -0.2367754 -0.48770681 0
2.0074039 -0.2196098 -0.46621007 0
2.050118 -0.21732931 -0.47595832 0
2.0019624 -0.20543917 -0.46461594 0
2.0658994 -0.20500316 -0.47929224 0
2.0378425 -0.19532149 -0.47262838 0
2.0990934 -0.19409195 -0.48668039 0
2.0282438 -0.18068449 -0.47011063 0
2.0836411 -0.17858008 -0.48280922 0
2.0372736 -0.16772728 -0.47193226 0
2.0637283 -0.16294098 -0.47793123 0
2.1329596 -0.16121298 -0.49383628 0
2.0488136 -0.14794625 -0.47423676 0
1.9942425 -0.13728605 -0.46149614 0
2.0568717 -0.13467009 -0.47588223 0
2.0361218 -0.12645701 -0.47098079 0
2.0689468 -0.12153351 -0.47847664 0
2.0480196 -0.11341523 -0.47354633 0
2.0760942 -0.1079891 -0.47995135 0
2.033427 -0.09893474 -0.47000819 0
2.0973856 -0.094998926 -0.48471531 0
2.0444345 -0.0857329 -0.47240901 0
2.0525494 -0.079180211 -0.4742201 0
2.0285099 -0.071442358 -0.46860802 0
2.0030019 -0.063820727 -0.46266338 0
5.2039576 -0.14834748 -1.2019144 0
5.2206306 -0.13130634 -1.2056569 0
5.1670671 -0.11262534 -1.1931928 0
5.1952763 -0.095814332 -1.1996261 0
5.2104301 -0.078619257 -1.2030576 0
5.171349 -0.060687847 -1.1939803 0
5.2255177 -0.043801542 -1.2064463 0
5.2046161 -0.026175413 -1.2015936 0
5.181201 -0.0086858189 -1.1961743 0
5.1729565 0.008671998 -1.194271 0
5.195498 0.026129555 -1.1994885 0
5.1686797 0.043325115 -1.1933239 0
5.1697178 0.060668707 -1.1936038 0
5.1863723 0.078256257 -1.1975029 0
5.2047634 0.095989302 -1.2018168 0
5.2047334 0.11344635 -1.2018909 0
5.1487322 0.12949799 -1.1890526 0
5.184319 0.14778766 -1.1973788 0
5.1827121 0.16513439 -1.1971287 0
5.171968 0.18215224 -1.1947814 0
5.1570525 0.19894114 -1.1914831 0
5.1580029 0.21629968 -1.1918635 0
5.2269788 0.23675062 -1.2079785 0
5.2092419 0.25345144 -1.204069 0
5.2344699 0.2722736 -1.2101045 0
5.211513 0.28860313 -1.2050142 0
5.1750517 0.3039915 -1.1968125 0
5.2092853 0.32353199 -1.2049736 0
5.1774106 0.33898193 -1.1978568 0
5.1804771 0.35663027 -1.1988362 0
5.221282 0.37703243 -1.2085648 0
5.1557784 0.38968313 -1.1936984 0
5.1705627 0.40824005 -1.1974316 0
5.1787181 0.42636016 -1.1996446 0
5.1518345 0.44154197 -1.1937532 0
5.1887627 0.46223679 -1.2026623 0
5.1963186 0.48047581 -1.2047803 0
5.1459455 0.49322447 -1.1934779 0
5.1503491 0.51107901 -1.1948899 0
5.1442809 0.5279004 -1.193886 0
5.1337838 0.54422319 -1.1918666 0
5.1284041 0.5610469 -1.1910477 0
5.1878004 0.58515334 -1.205291 0
5.1235332 0.59530789 -1.1908168 0
5.1173863 0.61198974 -1.1898583 0
5.1204019 0.62977076 -1.1910437 0
5.1583571 0.65200287 -1.2003741 0
5.1861534 0.67318988 -1.2073609 0
5.205349 0.69343603 -1.2123642 0
5.1412339 0.70244628 -1.1979731 0
5.1387973 0.71967256 -1.1979609 0
5.1403818 0.73747557 -1.1988999 0
5.169054 0.75928533 -1.2061743 0
5.1154547 0.768942 -1.1942619 0
5.1746411 0.79558939 -1.2086955 0
5.1176591 0.80440187 -1.196009 0
5.0917573 0.81783336 -1.1905898 0
5.1788416 0.8496421 -1.2116117 0
5.0942459 0.85331285 -1.1924829 0
5.1151977 0.87446392 -1.1980669 0
5.0963736 0.88884252 -1.1943493 0
5.1272225 0.91194677 -1.2022886 0
5.0781798 0.92079926 -1.1915058 0
5.100533 0.94252664 -1.1974853 0
5.0922785 0.95866883 -1.1962953 0
5.1055017 0.978894 -1.200166 0
5.1135292 0.99821967 -1.2028331 0
5.1024637 1.0138308 -1.201023 0
5.091949 1.0294998 -1.1993537 0
5.0789371 1.044606 -1.1971071 0
5.1283669 1.0727067 -1.2095988 0
5.035727 1.0709642 -1.1885885 0
5.0756936 1.0972643 -1.1988834 0
5.0993466 1.1202868 -1.2053508 0
5.0825038 1.134463 -1.2022618 0
5.096468 1.1555324 -1.2064748 0
5.0819821 1.1701765 -1.2039676 0
5.0585046 1.1826439 -1.1993382 0
5.04842 1.1981518 -1.1978929 0
5.0670786 1.2205404 -1.2032845 0
5.1170831 1.2507522 -1.2161481 0
5.0336566 1.2482605 -1.1973087 0
5.0299697 1.2652628 -1.1974339 0
5.0361934 1.2847974 -1.1999342 0
5.0152941 1.2973909 -1.1959845 0
5.0775523 1.3316755 -1.211889 0
5.038033 1.3393804 -1.2035217 0
5.0504947 1.3608397 -1.2075819 0
5.0276017 1.3727683 -1.2032019 0
5.0073514 1.385296 -1.1994604 0
4.9668579 1.3920375 -1.1908718 0
5.0208983 1.4253567 -1.2049677 0
5.0259261 1.4450105 -1.2073305 0
5.0260205 1.4632998 -1.2085248 0
4.9896207 1.4708672 -1.2009515 0
5.0013766 1.4925767 -1.2049787 0
4.9268355 1.4883392 -1.1882151 0
5.002533 1.5295284 -1.2077013 0
4.9563723 1.5336046 -1.1977918 0
4.9402461 1.5467833 -1.1951412 0
5.0267506 1.5923933 -1.2173531 0
4.9160824 1.5754915 -1.1918247 0
5.0110207 1.6244638 -1.2161546 0
4.9099979 1.6099266 -1.19294 0
4.8791504 1.6179497 -1.1867566 0
4.9081149 1.6458404 -1.1951371 0
4.9837847 1.6898245 -1.2149357 0
4.7257004 1.6200033 -1.1533381 0
4.7419724 1.6433693 -1.1586475 0
4.6595783 1.6323345 -1.1398463 0
4.5971122 1.6277767 -1.1258943 0
4.5211978 1.6179761 -1.1086242 0
4.5183249 1.6340579 -1.109257 0
4.4663043 1.6321985 -1.0978233 0
4.434145 1.6373191 -1.0912616 0
4.4249296 1.6507959 -1.0903497 0
4.4859872 1.6907301 -1.1067855 0
4.4495988 1.6940751 -1.0992029 0
4.4178014 1.6989499 -1.0927489 0
4.4534993 1.7298405 -1.1030073 0
4.3977413 1.7251744 -1.0906241 0
4.4478326 1.762055 -1.1045054 0
4.4292197 1.7718852 -1.1013525 0
4.4377179 1.7925682 -1.1049539 0
4.4156165 1.8008844 -1.100948 0
4.4569497 1.8351947 -1.1127815 0
4.8301969 2.0078499 -1.2076454 0
4.7528219 1.9944012 -1.1899654 0
4.8175201 2.0405734 -1.20787 0
4.7924423 2.0489292 -1.2032981 0
4.7435775 2.0468764 -1.1927453 0
4.7332239 2.0612605 -1.1918731 0
4.7259216 2.0769584 -1.1917812 0
4.7276096 2.0966406 -1.1939728 0
4.703105 2.1046712 -1.1895596 0
4.7281709 2.1349444 -1.1977032 0
4.7184763 2.1496415 -1.1970664 0
4.6968102 2.1588161 -1.1933994 0
4.6996579 2.1792405 -1.1959728 0
4.7036123 2.2002654 -1.1988497 0
4.6882448 2.2122653 -1.1968167 0
4.743844 2.2579789 -1.2129359 0
4.668622 2.2414048 -1.1956173 0
4.7043219 2.2779839 -1.2067091 0
4.6622987 2.2769637 -1.1978813 0
4.6475754 2.289104 -1.1960638 0
4.6599617 2.314651 -1.2012417 0
4.6568809 2.3326192 -1.202457 0
4.6188898 2.332994 -1.1946603 0
4.6440458 2.3652768 -1.2032112 0
4.6184545 2.3717778 -1.1986344 0
4.6458898 2.4055855 -1.2078412 0
4.6054554 2.4042647 -1.1994181 0
4.5672975 2.4038653 -1.1915728 0
4.5579805 2.4185116 -1.1912509 0
4.5968213 2.4589076 -1.20355 0
4.5842557 2.4719901 -1.2024233 0
4.5274763 2.4610019 -1.1896881 0
4.5574327 2.4971166 -1.1997529 0
4.5278826 2.5007005 -1.1941743 0
4.4757986 2.4915552 -1.1826344 0
4.5025907 2.5262814 -1.191945 0
4.5467482 2.5711381 -1.2059098 0
4.5036402 2.5667274 -1.1967522 0
4.4848638 2.5759859 -1.1940513 0
4.4528904 2.5775144 -1.1878327 0
4.4787865 2.6125913 -1.1970706 0
4.4481797 2.6147654 -1.1912266 0
4.4359789 2.6276455 -1.1903119 0
4.4686871 2.6673002 -1.2014815 0
4.531745 2.7255874 -1.2208858 0
4.4816556 2.7159646 -1.2098378 0
4.4306846 2.7054276 -1.1985199 0
4.4232564 2.7212934 -1.198972 0
4.446691 2.7563057 -1.2078224 0
4.4150767 2.7572424 -1.2017394 0
4.4214396 2.7818654 -1.2060033 0
4.3875985 2.7811511 -1.1993095 0
4.3715096 2.7915428 -1.1974634 0
4.3502331 2.7985332 -1.1941987 0
4.3628693 2.8273885 -1.200263 0
4.3531971 2.8418908 -1.2002168 0
4.3358469 2.8513424 -1.1980622 0
4.3288608 2.8675852 -1.1987818 0
4.3133922 2.8781929 -1.1971638 0
4.3389711 2.9163332 -1.2069701 0
4.3066602 2.9156263 -1.2006948 0
4.2805605 2.9189341 -1.1961399 0
4.2504754 2.9193444 -1.1904615 0
4.2683682 2.9527447 -1.198239 0
4.2484407 2.9600694 -1.1954242 0
4.2734313 2.9988148 -1.2052784 0
4.2332339 2.9918394 -1.1967636 0
4.2037301 2.9921722 -1.1912521 0
4.2331657 3.0345592 -1.2024701 0
4.2240376 3.0495076 -1.2027748 0
4.2092171 3.0603285 -1.2014695 0
4.2114916 3.0836196 -1.2050631 0
4.2332454 3.1214037 -1.2142755 0
4.2068186 3.123745 -1.2096925 0
4.1784592 3.1244755 -1.2045432 0
4.1592002 3.1318715 -1.2020117 0
4.1464591 3.1441178 -1.2013693 0
4.1360798 3.158144 -1.2014233 0
4.0835147 3.1397369 -1.1892056 0
4.0945754 3.1701419 -1.1955154 0
4.0515637 3.1586244 -1.1860423 0
4.0789289 3.2020042 -1.1971892 0
4.0776138 3.2231266 -1.1999683 0
4.0924058 3.2571723 -1.2075284 0
4.090981 3.2785037 -1.2103446 0
4.0501447 3.2681382 -1.2014979 0
4.0205026 3.266537 -1.1959468 0
4.0543342 3.3166523 -1.2093114 0
3.9941025 3.2897944 -1.1946291 0
4.0092454 3.3248913 -1.2024857 0
4.0082216 3.3467872 -1.2055376 0
