# .PCD v0.7 - Point Cloud Data file format
VERSION 0.7
FIELDS x y z intensity
SIZE 4 4 4 4
TYPE F F F F
COUNT 1 1 1 1
WIDTH 1394
HEIGHT 1
VIEWPOINT 0 0 0 1 0 0 0
POINTS 1394
DATA ascii
0.075595297 4.5085802 -1.2082384 0
0.059606113 4.4437733 -1.1908107 0
0.044882938 4.461472 -1.1955065 0
0.030268665 4.5129542 -1.2092677 0
0.014978254 4.4655795 -1.1965532 0
6.0051129e-06 4.5260296 -1.2127441 0
-0.015111892 4.5089893 -1.208185 0
-0.030334903 4.5246201 -1.2123938 0
-0.044853743 4.4597464 -1.195044 0
-0.060117673 4.4827981 -1.2012683 0
-0.076095402 4.5391254 -1.2164241 0
-0.090994723 4.5229845 -1.2121733 0
-0.10507457 4.4764576 -1.1997917 0
-0.11900198 4.4357963 -1.1889938 0
-0.13559623 4.4924417 -1.2042924 0
-0.14975463 4.465034 -1.1970731 0
-0.16492321 4.4699001 -1.1985192 0
-0.18111427 4.4992633 -1.2065485 0
-0.19674763 4.5112233 -1.2099258 0
-0.20993082 4.4692168 -1.1988416 0
-0.22632098 4.4964395 -1.2063407 0
-0.24133223 4.4944787 -1.2060249 0
-0.25479135 4.4654508 -1.1984582 0
-0.26928425 4.4566693 -1.196337 0
-0.28212166 4.4227657 -1.1874832 0
-0.30295685 4.51126 -1.2115093 0
-0.31282395 4.4356833 -1.1914879 0
-0.32571271 4.407794 -1.1842833 0
-0.34609294 4.4791994 -1.2037734 0
-0.35861158 4.4470458 -1.1954485 0
-0.37154147 4.4222727 -1.1891173 0
-0.39120477 4.4763651 -1.2040082 0
-0.39845127 4.3895431 -1.1810085 0
-0.41825044 4.4421802 -1.1955409 0
-0.4323746 4.4328861 -1.1934232 0
-0.44985175 4.4573417 -1.2004063 0
-0.46660212 4.4731436 -1.2050766 0
-0.47936508 4.45083 -1.1994915 0
-0.49288788 4.4366202 -1.1961006 0
-0.51221859 4.4738832 -1.2066028 0
-0.52793878 4.4782734 -1.2082574 0
-0.53174472 4.3840885 -1.1833203 0
-0.55702454 4.4671602 -1.2062397 0
-0.57696968 4.5040708 -1.216722 0
-0.58918887 4.4802198 -1.2108058 0
-0.59654534 4.4214339 -1.1954523 0
-0.61366397 4.4360189 -1.1999453 0
-0.62660414 4.4203248 -1.1962616 0
-0.64700556 4.456665 -1.2066766 0
-0.66140473 4.45084 -1.2056931 0
-0.66947371 4.4035401 -1.1934813 0
-0.68936616 4.4342818 -1.2024329 0
-0.69853026 4.3960776 -1.1927016 0
-0.71171468 4.3841577 -1.1901082 0
-0.73460019 4.4311509 -1.2035266 0
-0.75342965 4.4521623 -1.2099128 0
-0.75997615 4.4011021 -1.1967225 0
-0.77908725 4.4232793 -1.2034563 0
-0.78816497 4.3886347 -1.1947427 0
-0.81429023 4.448328 -1.2117296 0
-0.81883299 4.3899922 -1.1965801 0
-0.84037298 4.4231482 -1.2063787 0
-0.84874195 4.3869348 -1.1972712 0
-0.85697323 4.3512006 -1.1882962 0
-0.88420373 4.4113984 -1.2055387 0
-0.89804238 4.4037652 -1.2042689 0
-0.9003647 4.3407664 -1.1878598 0
-0.93147415 4.4162397 -1.2093611 0
-0.93873543 4.3779268 -1.1997244 0
-0.957973 4.395699 -1.2054682 0
-0.96841455 4.373085 -1.2001504 0
-0.98167187 4.3635936 -1.198442 0
-0.99302697 4.3459682 -1.1945089 0
-1.0129637 4.3657627 -1.2008764 0
-1.0287083 4.3670659 -1.2021768 0
-1.035743 4.3318005 -1.1934181 0
-1.0605896 4.3708696 -1.2051545 0
-1.067791 4.3370404 -1.1968075 0
-1.0756923 4.3068748 -1.1894718 0
-1.1062979 4.3670807 -1.2071171 0
-1.1252577 4.3801789 -1.2117736 0
-1.1283191 4.3317771 -1.1994232 0
-1.1406842 4.3198199 -1.1971645 0
-1.1492373 4.2938366 -1.1910249 0
-1.1849272 4.3684864 -1.2128265 0
-1.1931777 4.3412414 -1.2063663 0
-1.2080922 4.3385305 -1.2067318 0
-1.2186178 4.3202252 -1.20277 0
-1.2203298 4.271431 -1.1903179 0
-1.2402762 4.2867818 -1.1957477 0
-1.2569907 4.290616 -1.1979861 0
-1.2722394 4.2893114 -1.198806 0
-1.2928549 4.3058081 -1.2046214 0
-1.3018904 4.2837019 -1.1996514 0
-1.3132939 4.2697167 -1.196961 0
-1.3415877 4.3102221 -1.2095705 0
-1.3327969 4.2319245 -1.1888454 0
-1.3648336 4.2834706 -1.2046046 0
-1.3795555 4.2800117 -1.2049259 0
-1.3916793 4.2685575 -1.2030081 0
-1.4003174 4.2466855 -1.1981604 0
-1.4085516 4.2239847 -1.1930814 0
-1.4345382 4.2543292 -1.2030039 0
-1.4561909 4.2711911 -1.2091458 0
-1.4684139 4.2602234 -1.2074279 0
-1.4820672 4.2534904 -1.2069212 0
-1.4841249 4.2138715 -1.1970847 0
-1.489482 4.1842556 -1.1900833 0
-1.5055836 4.1850224 -1.1917304 0
-1.5445975 4.2486925 -1.2113291 0
-1.5366656 4.1831427 -1.1941026 0
-1.5771953 4.2494006 -1.214519 0
-1.5719284 4.1920705 -1.1996332 0
-1.5862917 4.1876135 -1.199873 0
-1.601117 4.1843462 -1.2004683 0
-1.6137328 4.1753206 -1.1994243 0
-1.631458 4.1794558 -1.2021767 0
-1.6271738 4.1275716 -1.1888155 0
-1.6483176 4.1404648 -1.194114 0
-1.6797556 4.1786108 -1.2067327 0
-1.6933701 4.1720037 -1.2064576 0
-1.7137414 4.1819029 -1.2109749 0
-1.6965832 4.1007934 -1.1891282 0
-1.7362936 4.1572647 -1.2071848 0
-1.7362432 4.1182623 -1.1975429 0
-1.7530965 4.1195974 -1.1996336 0
-1.7709768 4.1231904 -1.2024024 0
-1.788785 4.1264429 -1.205093 0
-1.7905467 4.0928478 -1.1970283 0
-1.8004242 4.078135 -1.194484 0
-1.8248655 4.0962691 -1.2015809 0
-1.8351558 4.08249 -1.199337 0
-1.8397942 4.0563846 -1.1934733 0
-1.856416 4.0568185 -1.1954256 0
-1.8949182 4.1045303 -1.2113502 0
-1.9014293 4.0826087 -1.2067554 0
-1.8965241 4.0366583 -1.1950459 0
-1.9104584 4.0311437 -1.195303 0
-1.9487848 4.0766397 -1.2107239 0
-1.9594402 4.0638571 -1.2088718 0
-1.9565252 4.0232744 -1.1987445 0
-1.9643775 4.0052209 -1.1953211 0
-1.9678856 3.9785776 -1.189332 0
-2.0043008 4.0182424 -1.2031912 0
-2.0368848 4.0495172 -1.214594 0
-2.0338418 4.0099196 -1.2047559 0
-2.0516427 4.0116181 -1.2073261 0
-2.0432403 3.9623616 -1.1945571 0
-2.0731614 3.9875085 -1.204227 0
-2.0952797 3.9972479 -1.2092831 0
-2.1076367 3.9882452 -1.2086905 0
-2.1328745 4.0034513 -1.2154593 0
-2.128654 3.9634492 -1.2054746 0
-2.1308963 3.9359086 -1.1992644 0
-2.1461108 3.9324615 -1.2003999 0
-2.1511252 3.9104135 -1.1958646 0
-2.150799 3.8789675 -1.1884465 0
-2.178154 3.8974319 -1.1963345 0
-2.2064743 3.917208 -1.2046688 0
-2.2055233 3.8849998 -1.1970311 0
-2.1975513 3.840905 -1.1857084 0
-2.2282298 3.8644085 -1.1952636 0
-2.2588742 3.887377 -1.2047036 0
-2.2541995 3.8495624 -1.1953202 0
-2.3014028 3.900125 -1.2134095 0
-2.2876201 3.8472383 -1.1993349 0
-2.2969105 3.8335454 -1.1974603 0
-2.3004701 3.8104506 -1.1926489 0
-2.3380148 3.8434548 -1.2054257 0
-2.3079915 3.7656066 -1.1834306 0
-2.3671598 3.8332369 -1.2071724 0
-2.3639622 3.799504 -1.1990385 0
-2.3856611 3.8058717 -1.2035655 0
-2.3939579 3.7908046 -1.2013322 0
-2.4105754 3.7889199 -1.2032895 0
-2.4288998 3.7896073 -1.2060874 0
-2.4045894 3.7241344 -1.187809 0
-2.454541 3.7736723 -1.2062272 0
-2.4460998 3.7332492 -1.1959209 0
-2.4749269 3.7497594 -1.2038614 0
-2.4998386 3.760021 -1.2098399 0
-2.5089908 3.7464812 -1.2081833 0
-2.4897845 3.6909754 -1.1929688 0
-2.5319858 3.7265248 -1.2071959 0
-2.5121765 3.6708331 -1.1918766 0
-2.5559585 3.7080715 -1.2067431 0
-2.5374868 3.6549873 -1.1922296 0
-2.5710657 3.6769764 -1.2022074 0
-2.5745611 3.6558137 -1.1981038 0
-2.5879071 3.6487164 -1.1986147 0
-2.6220789 3.6707518 -1.2087346 0
-2.6138623 3.6334307 -1.1993244 0
-2.6452737 3.6512084 -1.2081132 0
-2.6551178 3.6390529 -1.2070298 0
-2.6726737 3.6374388 -1.2094599 0
-2.6643279 3.6007168 -1.2002133 0
-2.6850002 3.6033247 -1.2040764 0
-2.6821208 3.5743845 -1.1974041 0
-2.6751881 3.5403571 -1.1890032 0
-2.6977146 3.545392 -1.1937251 0
-2.7539546 3.5942333 -1.213272 0
-2.7306497 3.5391753 -1.1977702 0
-2.7599142 3.5524137 -1.2053756 0
-2.766902 3.5368676 -1.2032416 0
-2.7789035 3.5277719 -1.2033101 0
-2.7682881 3.490159 -1.1936398 0
-2.8006356 3.5067282 -1.2025111 0
-2.7709112 3.4457533 -1.1847811 0
-2.8176017 3.4798594 -1.1997495 0
-2.8112543 3.4483151 -1.192117 0
-2.8300781 3.447737 -1.1951907 0
-2.8185787 3.4103477 -1.1854987 0
-2.8875647 3.4700587 -1.209614 0
-2.8715332 3.427356 -1.1980778 0
-2.8698649 3.4021282 -1.192616 0
-2.8870623 3.3993242 -1.1950195 0
-2.9183087 3.4128568 -1.2032099 0
-2.9369826 3.4114716 -1.2061864 0
-2.9308083 3.3813047 -1.198988 0
-2.9521248 3.3829143 -1.2030617 0
-2.9216621 3.325434 -1.186097 0
-2.9953845 3.3863785 -1.2114097 0
-2.9853272 3.3522923 -1.2027899 0
-2.9739106 3.317013 -1.1937026 0
-3.0095441 3.3341982 -1.2035116 0
-2.998759 3.2999377 -1.1947675 0
-3.049016 3.3327231 -1.2103322 0
-3.0108664 3.2689488 -1.1908308 0
-3.08441 3.3263459 -1.2155004 0
-3.0375452 3.2538557 -1.192726 0
-3.0465662 3.2416618 -1.1919938 0
-3.0984614 3.2748084 -1.2079953 0
-3.0834103 3.2370913 -1.1978892 0
-3.0617659 3.1928639 -1.185315 0
-3.1445682 3.2572796 -1.2131358 0
-3.1303003 3.2208192 -1.2034587 0
-3.128803 3.1977568 -1.1987543 0
-3.172847 3.2210953 -1.2114846 0
-3.171006 3.1977103 -1.206681 0
-3.1428998 3.1481855 -1.1919622 0
-3.1789966 3.1630611 -1.2016233 0
-3.1826277 3.14551 -1.1990027 0
-3.2314949 3.1724598 -1.2133986 0
-3.2073317 3.1276894 -1.2003812 0
-3.2102706 3.1096246 -1.1975722 0
-3.2333126 3.1109998 -1.20227 0
-3.2408128 3.0973585 -1.2011907 0
-3.2054551 3.0430672 -1.1842972 0
-3.2683904 3.0820458 -1.2037249 0
-3.2810242 3.0732422 -1.2045761 0
-3.3113568 3.0808759 -1.2119131 0
-3.3074453 3.0566123 -1.206724 0
-3.2624607 2.9948211 -1.1866411 0
-3.3031359 3.0118151 -1.1977561 0
-3.3300593 3.0159786 -1.2038454 0
-3.3357391 3.0008261 -1.2022547 0
-3.3694384 3.0107639 -1.2107553 0
-3.3250074 2.9510732 -1.1912277 0
-3.3486347 2.9520311 -1.1961397 0
-3.3646967 2.9462013 -1.1983418 0
-3.3671236 2.9284399 -1.1957027 0
-3.3932984 2.9312797 -1.2015008 0
-3.4151413 2.9302113 -1.2057495 0
-3.3732083 2.8746531 -1.187535 0
-3.4230676 2.8973875 -1.2016612 0
-3.4395552 2.8916047 -1.204039 0
-3.4281654 2.8624671 -1.1966856 0
-3.4483383 2.8597434 -1.2003738 0
-3.4806986 2.8669381 -1.2082855 0
-3.456284 2.8274322 -1.1965127 0
-3.5011723 2.8446121 -1.2087438 0
-3.4681973 2.7985692 -1.1941134 0
-3.5069625 2.8104875 -1.2042092 0
-3.498101 2.7841763 -1.1979543 0
-3.4941638 2.7619569 -1.1934279 0
-3.490911 2.7404187 -1.189172 0
-3.5320175 2.753598 -1.2000232 0
-3.5542452 2.7518172 -1.2044337 0
-3.50685 2.6963651 -1.1853026 0
-3.57939 2.7330933 -1.2067168 0
-3.5848672 2.7182968 -1.2054839 0
-3.5557153 2.6774628 -1.1926556 0
-3.5733392 2.6720071 -1.1955553 0
-3.5667627 2.6484907 -1.1903772 0
-3.6216104 2.6704264 -1.2056873 0
-3.6224146 2.652317 -1.2029878 0
-3.5577323 2.5866783 -1.1786203 0
-3.6362786 2.6251948 -1.2017188 0
-3.6163874 2.5924342 -1.1922659 0
-3.6693976 2.6118543 -1.2068486 0
-3.6585438 2.5856915 -1.2004207 0
-3.6845627 2.5855999 -1.2061068 0
-3.7190371 2.5912259 -1.2145408 0
-3.6842234 2.5486631 -1.2003742 0
-3.6827617 2.5294375 -1.1971281 0
-3.7226043 2.5384758 -1.207306 0
-3.6935925 2.5005913 -1.1951711 0
-3.6793587 2.4730051 -1.1878757 0
-3.6903849 2.4624937 -1.1887633 0
-3.7687099 2.4965365 -1.2112906 0
-3.7487879 2.4652948 -1.202224 0
-3.7727489 2.4629722 -1.2072532 0
-3.7804534 2.449964 -1.2070832 0
-3.7629657 2.4207544 -1.1989013 0
-3.8102498 2.4331496 -1.2113602 0
-3.7834134 2.3981926 -1.2002654 0
-3.7793589 2.3778973 -1.196443 0
-3.8332453 2.3938994 -1.2109542 0
-3.8040912 2.3580005 -1.19924 0
-3.8160889 2.3477633 -1.200534 0
-3.7977178 2.3189445 -1.1923018 0
-3.8220427 2.316241 -1.1974938 0
-3.8613627 2.3224044 -1.2073667 0
-3.8360882 2.2897241 -1.1970568 0
-3.8455811 2.2779379 -1.197629 0
-3.8399849 2.2572651 -1.1935225 0
-3.8702338 2.2576206 -1.2005649 0
-3.8497319 2.2283955 -1.1918807 0
-3.8990672 2.2395334 -1.2048234 0
-3.9224663 2.235517 -1.209731 0
-3.9068642 2.2093043 -1.2026278 0
-3.9322932 2.2063167 -1.2081716 0
-3.8817937 2.1609025 -1.1904233 0
-3.9208314 2.1654463 -1.2001616 0
-3.9492178 2.1638758 -1.2066231 0
-3.9355338 2.1392529 -1.2002439 0
-3.9605367 2.1356726 -1.2056786 0
-3.9523745 2.114197 -1.2010292 0
-3.9572816 2.099788 -1.2003742 0
-3.9080589 2.0569072 -1.1833448 0
-3.9410975 2.0574517 -1.1912533 0
-3.967082 2.0541205 -1.197019 0
-4.019104 2.0639985 -1.2106211 0
-3.9948342 2.0346377 -1.2012491 0
-4.0065708 2.023726 -1.2027311 0
-4.0175128 2.0123749 -1.2039837 0
-4.012444 1.9930356 -1.2004553 0
-4.0007443 1.9705287 -1.1949717 0
-3.9814007 1.9444412 -1.18724 0
-4.0793481 1.9753648 -1.2144657 0
-4.0185657 1.9293259 -1.1944376 0
-4.0912857 1.9473869 -1.2141047 0
-4.0623679 1.9169428 -1.2036091 0
-4.0585923 1.8985498 -1.2005978 0
-4.096796 1.8997055 -1.210008 0
-4.0925193 1.8810763 -1.2068753 0
-4.0987215 1.8673072 -1.2068514 0
-4.0857005 1.8448583 -1.2011893 0
-4.0428338 1.8092082 -1.1867964 0
-4.1100535 1.8227745 -1.2047285 0
-4.0741978 1.7905504 -1.1924521 0
-4.1039243 1.7872213 -1.199392 0
-4.0953379 1.7671708 -1.1951442 0
-4.1047978 1.7549511 -1.1961811 0
-4.1731296 1.7676399 -1.2143598 0
-4.1065154 1.723208 -1.1932874 0
-4.1185212 1.7120284 -1.1951014 0
-4.1165166 1.6950307 -1.1928638 0
-4.1273012 1.6833092 -1.1943467 0
-4.1900249 1.6925281 -1.2108486 0
-4.1208458 1.6485347 -1.1892531 0
-4.1693583 1.6517473 -1.2016485 0
-4.1472416 1.6269196 -1.1936954 0
-4.1862259 1.6260383 -1.2033403 0
-4.1764855 1.60616 -1.1989857 0
-4.1800165 1.591451 -1.1984607 0
-4.2127857 1.5877756 -1.2063229 0
-4.20925 1.5703458 -1.2037961 0
-4.2006111 1.5510987 -1.1998315 0
-4.2205715 1.5424087 -1.2040489 0
-4.2223601 1.5270345 -1.2030917 0
-4.1835718 1.4971644 -1.1906028 0
-4.2501163 1.5049229 -1.2080979 0
-4.22859 1.4813641 -1.2005605 0
-4.2487307 1.472445 -1.2048702 0
-4.2746463 1.4653915 -1.2108194 0
-4.2401786 1.4377065 -1.199684 0
-4.2432752 1.4229119 -1.1992036 0
-4.2299242 1.4026756 -1.1940947 0
-4.1964211 1.3759661 -1.1833279 0
-4.2824655 1.3882946 -1.2062718 0
-4.2540941 1.3633521 -1.196986 0
-4.26508 1.3511208 -1.1987957 0
-4.2479939 1.3300527 -1.192733 0
-4.2739806 1.3224709 -1.1987778 0
-4.2800827 1.3086511 -1.1992519 0
-4.3114491 1.3024507 -1.2068102 0
-4.3135352 1.2873144 -1.2061793 0
-4.2940164 1.2658256 -1.1995277 0
-4.2564731 1.2392622 -1.1878726 0
-4.2870817 1.2325968 -1.1952547 0
-4.2774405 1.2143127 -1.191425 0
-4.3098812 1.2079221 -1.199326 0
-4.2931733 1.1877291 -1.1935618 0
-4.3286591 1.1819367 -1.2023188 0
-4.2678676 1.1499755 -1.184356 0
-4.3408709 1.1540494 -1.2035341 0
-4.3447533 1.1394987 -1.2035446 0
-4.3582492 1.1274344 -1.2062293 0
-4.361352 1.1126492 -1.2060487 0
-4.3605881 1.0968957 -1.2048137 0
-4.3176742 1.0707213 -1.1919582 0
-4.3619347 1.066186 -1.2031833 0
-4.3778529 1.0545344 -1.2065921 0
-4.3491683 1.0322093 -1.1977257 0
-4.3237939 1.0108857 -1.1897978 0
-4.4008331 1.0133475 -1.2100552 0
-4.3738241 0.99169809 -1.2017077 0
-4.3455529 0.96998066 -1.19304 0
-4.3911352 0.96471047 -1.2046595 0
-4.3532233 0.94109261 -1.1933864 0
-4.3563981 0.9265011 -1.1933985 0
-4.4156079 0.92363024 -1.2087634 0
-4.4103551 0.90710819 -1.2064861 0
-4.367919 0.88312614 -1.1940607 0
-4.4280944 0.87984955 -1.2096976 0
-4.3882146 0.85664201 -1.1980116 0
-4.3539276 0.8348043 -1.1878803 0
-4.3973098 0.82784659 -1.1989521 0
-4.3671389 0.80701482 -1.1899815 0
-4.4174933 0.80101264 -1.2029637 0
-4.3795481 0.77897459 -1.1919125 0
-4.4352612 0.77355212 -1.2063625 0
-4.4276519 0.75693721 -1.2035959 0
-4.3995852 0.73696554 -1.1952879 0
-4.4273839 0.72636986 -1.2021719 0
-4.5031877 0.72331011 -1.2220895 0
-4.3927498 0.69047141 -1.1914836 0
-4.4245787 0.68028098 -1.1994914 0
-4.451755 0.66918844 -1.2062439 0
-4.4687209 0.65642506 -1.2102377 0
-4.4427419 0.63739926 -1.2026165 0
-4.4389915 0.62167895 -1.2010303 0
-4.408752 0.60237926 -1.1922954 0
-4.4492469 0.59272307 -1.2027025 0
-4.4071612 0.57208449 -1.1908009 0
-4.4511404 0.56262457 -1.2021676 0
-4.3646073 0.53682548 -1.1783038 0
-4.4599729 0.53338146 -1.20356 0
-4.4898214 0.52168834 -1.211136 0
-4.502141 0.50782704 -1.2139931 0
-4.4733539 0.48939651 -1.2057816 0
-4.4513054 0.47188681 -1.1994053 0
-4.476038 0.45933807 -1.2056477 0
-4.4197993 0.43859702 -1.1900966 0
-4.4606085 0.42754877 -1.2006924 0
-4.4883494 0.41502571 -1.2077783 0
-4.4663382 0.39789212 -1.2014894 0
-4.4048948 0.37753671 -1.1846135 0
-4.4843626 0.36920637 -1.2056451 0
-4.4837794 0.35402727 -1.2051624 0
-4.4777012 0.3384448 -1.2032169 0
-4.3968306 0.31750992 -1.1811932 0
-4.4666891 0.30750415 -1.1996768 0
-4.5193672 0.29590973 -1.2135519 0
-4.4299617 0.27514252 -1.1892902 0
-4.4220452 0.25977036 -1.1869242 0
-4.5017204 0.24930824 -1.2080789 0
-4.4451995 0.23123114 -1.1926962 0
-4.4644804 0.21722755 -1.1976672 0
-4.4924135 0.2034912 -1.204971 0
-4.486237 0.18814126 -1.2031384 0
-4.4904833 0.17323916 -1.2041147 0
-4.5112352 0.15889379 -1.2095295 0
-4.4966588 0.14328693 -1.2054858 0
-4.4797063 0.12771338 -1.2008195 0
-4.471478 0.11247595 -1.198506 0
-4.5301504 0.098754644 -1.2141366 0
-4.4884887 0.082791261 -1.2028897 0
-4.5247087 0.068284541 -1.2125282 0
-4.46134 0.052367453 -1.195493 0
-4.5026155 0.037753955 -1.2065128 0
-4.4967074 0.022627082 -1.2049024 0
-4.4872665 0.0075344071 -1.2023592 0
-4.4963617 1.19315e-05 -1.2047946 0
-5.2408028 -0.0087996423 -1.2099345 0
-5.1743345 -0.026036849 -1.1946026 0
-5.1520643 -0.043199513 -1.1894877 0
-5.1851783 -0.060863901 -1.1971734 0
-5.2172456 -0.07873594 -1.2046313 0
-5.178946 -0.095526904 -1.1958554 0
-5.2111201 -0.11359939 -1.2033658 0
-5.18788 -0.1304964 -1.1980935 0
-5.1875329 -0.14789304 -1.1981211 0
-5.2469811 -0.16719609 -1.211974 0
-5.2178674 -0.18378264 -1.2053847 0
-5.2138329 -0.2011454 -1.2046018 0
-5.187161 -0.21753621 -1.1986012 0
-5.1957378 -0.23534942 -1.2007587 0
-5.1369576 -0.24994819 -1.1873614 0
-5.162251 -0.26853085 -1.1934091 0
-5.17944 -0.2868408 -1.1975985 0
-5.1936302 -0.30509666 -1.2011093 0
-5.1708918 -0.3211613 -1.196093 0
-5.175211 -0.33885169 -1.1973481 0
-5.1737757 -0.35618272 -1.1972857 0
-5.1956301 -0.37519392 -1.2026274 0
-5.1414032 -0.38861036 -1.1903704 0
-5.2265382 -0.4126735 -1.210395 0
-5.1509833 -0.42409056 -1.1932201 0
-5.1884875 -0.44469723 -1.2022465 0
-5.1397014 -0.45787996 -1.1912911 0
-5.1671171 -0.47778952 -1.1980102 0
-5.1617351 -0.49475169 -1.1971402 0
-5.2409139 -0.52007997 -1.2159014 0
-5.1569548 -0.5292148 -1.1968277 0
-5.1398635 -0.54488146 -1.1932784 0
-5.1622982 -0.56476879 -1.1989198 0
-5.1655602 -0.58265865 -1.2001243 0
-5.15904 -0.59944725 -1.1990696 0
-5.0938306 -0.60918641 -1.1843816 0
-5.1916208 -0.63854414 -1.2076101 0
-5.1787534 -0.6545949 -1.2051208 0
-5.1203723 -0.66466498 -1.1920472 0
-5.1584015 -0.68719578 -1.2014302 0
-5.161562 -0.70523763 -1.2027102 0
-5.1402121 -0.71988457 -1.1982911 0
-5.181458 -0.74338269 -1.2084807 0
-5.1491995 -0.75638282 -1.2015417 0
-5.1092272 -0.7680198 -1.1928085 0
-5.1675215 -0.79450881 -1.207033 0
-5.0858464 -0.79941529 -1.1885748 0
-5.151319 -0.8274141 -1.2045174 0
-5.1279111 -0.84130043 -1.1996969 0
-5.1206284 -0.85774601 -1.1986591 0
-5.1584907 -0.88187909 -1.2082075 0
-5.0705667 -0.88435549 -1.1883019 0
-5.1011887 -0.90733027 -1.1961844 0
-5.1176639 -0.92797267 -1.2007706 0
-5.0974307 -0.94196743 -1.1967576 0
-5.11058 -0.96212834 -1.2005953 0
-5.1111526 -0.9799915 -1.2014949 0
-5.1210141 -0.99969482 -1.2045943 0
-5.1182675 -1.0169851 -1.2047435 0
-5.1251287 -1.0362223 -1.2071695 0
-5.0629058 -1.0413228 -1.1933292 0
-5.1119199 -1.0692806 -1.2057201 0
-5.1093888 -1.0866442 -1.2059757 0
-5.0838857 -1.0990493 -1.2008191 0
-5.1002579 -1.1205013 -1.2055669 0
-5.1038408 -1.1392399 -1.2073098 0
-5.0719385 -1.1499848 -1.2006687 0
-5.0402231 -1.1605752 -1.1940752 0
-5.0881457 -1.1895881 -1.2063667 0
-5.0416045 -1.1965485 -1.1962765 0
-5.0626578 -1.2194898 -1.2022355 0
-5.023252 -1.2278315 -1.1938486 0
-5.0716739 -1.2577024 -1.2063521 0
-5.0209589 -1.2630104 -1.1952896 0
-5.0375929 -1.2851688 -1.2002686 0
-5.006639 -1.2951661 -1.1939213 0
-5.0362401 -1.320855 -1.2020296 0
-5.007843 -1.3313684 -1.1963105 0
-4.9936042 -1.345525 -1.1939801 0
-5.0312791 -1.3737867 -1.2040828 0
-5.0422711 -1.3949709 -1.2078259 0
-5.0362988 -1.4115138 -1.2075222 0
-4.9912939 -1.4169668 -1.1978639 0
-4.9930024 -1.4355589 -1.1994224 0
-4.975955 -1.4487377 -1.1964874 0
-4.9715195 -1.4655455 -1.1965955 0
-4.9493651 -1.4770691 -1.1924486 0
-5.0171733 -1.5156437 -1.210003 0
-4.9979477 -1.5281409 -1.2065953 0
-4.9355259 -1.5271686 -1.1927549 0
-4.9628239 -1.5538669 -1.2006042 0
-4.907958 -1.5547761 -1.1885856 0
-4.934196 -1.581311 -1.1962171 0
-4.9029312 -1.5894377 -1.1899226 0
-4.9466739 -1.6219667 -1.201852 0
-4.9371033 -1.6371816 -1.2008535 0
-4.9288368 -1.6528037 -1.200184 0
-4.9483442 -1.6778225 -1.206297 0
-4.9377894 -1.6927236 -1.2051009 0
-4.9362569 -1.7107151 -1.2061199 0
-4.9238939 -1.7249438 -1.2045056 0
-4.9002028 -1.7351118 -1.2001264 0
-4.9304461 -1.7644464 -1.2089756 0
-4.9058828 -1.7742335 -1.2044044 0
-4.8935881 -1.7883629 -1.2028513 0
-4.898747 -1.8088892 -1.2056032 0
-4.8653979 -1.815135 -1.198887 0
-4.8710899 -1.835887 -1.2017996 0
-4.8601575 -1.8504 -1.2006261 0
-4.8456769 -1.8635124 -1.1985857 0
-4.8624024 -1.8886826 -1.2042824 0
-4.8329248 -1.8959059 -1.1985493 0
-4.818357 -1.9088569 -1.1965169 0
-4.8574085 -1.9431947 -1.2078254 0
-4.7960134 -1.9373126 -1.1941676 0
-4.80586 -1.9600579 -1.198249 0
-4.8351536 -1.9909391 -1.2072103 0
-4.8284335 -2.0071318 -1.2072059 0
-4.7986808 -2.0136597 -1.2014483 0
-4.7914705 -2.0295546 -1.2013401 0
-4.79915 -2.0518119 -1.2049835 0
-4.7613997 -2.0545816 -1.1972281 0
-4.7972941 -2.0891774 -1.2080079 0
-4.7742023 -2.098192 -1.2039579 0
-4.7481108 -2.1057477 -1.1991519 0
-4.7322326 -2.1177211 -1.1969283 0
-4.7551041 -2.147121 -1.2045271 0
-4.7415695 -2.1601777 -1.2029266 0
-4.6852098 -2.1534994 -1.1904534 0
-4.7016506 -2.1801796 -1.1964813 0
-4.6627264 -2.181155 -1.1884303 0
-4.7022443 -2.2188866 -1.200392 0
-4.6614332 -2.2187681 -1.1918662 0
-4.6665182 -2.2404099 -1.1950802 0
-4.6407671 -2.2472239 -1.1904082 0
-4.7046108 -2.2976434 -1.2087542 0
-4.6815424 -2.3058496 -1.2048068 0
-4.6691298 -2.3192205 -1.2036067 0
-4.6469827 -2.3276768 -1.1999028 0
-4.6660419 -2.3568261 -1.2068576 0
-4.6379724 -2.3621988 -1.2016393 0
-4.586627 -2.3554482 -1.1903758 0
-4.6005816 -2.3821411 -1.1960635 0
-4.6263332 -2.4151793 -1.204857 0
-4.6614876 -2.4534554 -1.2161479 0
-4.5879035 -2.4344046 -1.1990731 0
-4.57407 -2.4467535 -1.197595 0
-4.6346416 -2.4991758 -1.215641 0
-4.5805144 -2.4898474 -1.2036266 0
-4.5268617 -2.4803815 -1.1917068 0
-4.5271635 -2.5003192 -1.1939864 0
-4.5524368 -2.5342336 -1.2028861 0
-4.5043511 -2.5272849 -1.1924127 0
-4.5043926 -2.5472023 -1.1946779 0
-4.5207415 -2.5764899 -1.2012985 0
-4.4925804 -2.5804338 -1.1961075 0
-4.4843545 -2.5957432 -1.1962278 0
-4.4526148 -2.5973406 -1.1900774 0
-4.5399075 -2.6687019 -1.2157933 0
-4.4904771 -2.6599433 -1.2049372 0
-4.4270425 -2.6424592 -1.1902865 0
-4.4208226 -2.6588898 -1.1910044 0
-4.3838863 -2.6567304 -1.1834465 0
-4.4390111 -2.7105279 -1.2007742 0
-4.4653878 -2.7472301 -1.2103941 0
-4.4018569 -2.7285311 -1.1956464 0
-4.3842778 -2.7380247 -1.1933583 0
-4.4257026 -2.784564 -1.2071682 0
-4.3977976 -2.7876322 -1.2020992 0
-4.3648982 -2.7873371 -1.1956543 0
-4.3791161 -2.8171306 -1.2021296 0
-4.3406339 -2.8129952 -1.1941481 0
-4.3259993 -2.8241518 -1.1927202 0
-4.30302 -2.8297713 -1.1889937 0
-4.3476171 -2.8800266 -1.2039781 0
-4.3063359 -2.8735008 -1.1952074 0
-4.3551979 -2.9272563 -1.211486 0
-4.3110218 -2.9185956 -1.2019129 0
-4.2795486 -2.9182608 -1.1958594 0
-4.2907753 -2.9470403 -1.2017508 0
-4.2743583 -2.9569051 -1.1999227 0
-4.2754564 -2.978909 -1.2030281 0
-4.2513275 -2.9833205 -1.1990465 0
-4.2207818 -2.9830554 -1.1932454 0
-4.245769 -3.0221121 -1.2031674 0
-4.2185812 -3.0241213 -1.1983294 0
-4.2010627 -3.0329382 -1.1962351 0
-4.2061677 -3.0581286 -1.2006015 0
-4.1603379 -3.0461824 -1.1904285 0
-4.1851816 -3.0859807 -1.2004911 0
-4.1448407 -3.0777409 -1.1918727 0
-4.1415672 -3.0969062 -1.1939106 0
-4.1253705 -3.1064148 -1.1922373 0
-4.153862 -3.1497483 -1.2035166 0
-4.1107488 -3.1388195 -1.1940676 0
-4.1227789 -3.1699438 -1.2006426 0
-4.1229606 -3.1921358 -1.2038056 0
-4.0978889 -3.1947575 -1.1996061 0
-4.0858912 -3.2074873 -1.1992353 0
-4.0755949 -3.2215486 -1.1993767 0
-4.0777864 -3.2455542 -1.2032171 0
-4.0827498 -3.2719247 -1.2079118 0
-4.0504732 -3.2684209 -1.201598 0
-4.076509 -3.3120582 -1.2126091 0
-4.051949 -3.3147192 -1.2086025 0
-4.0231795 -3.3137622 -1.2033286 0
-4.0179901 -3.3321617 -1.2051113 0
-4.0130873 -3.350868 -1.2070036 0
-3.9639668 -3.332473 -1.1955836 0
-3.9704375 -3.360698 -1.200927 0
-3.960238 -3.3749206 -1.2012578 0
-3.9398613 -3.380424 -1.1985081 0
-3.9270034 -3.3923173 -1.1980499 0
-3.932734 -3.4203598 -1.2032901 0
-3.8989887 -3.4140391 -1.1964607 0
-3.9223526 -3.4577994 -1.2071811 0
-3.9051948 -3.4660118 -1.2054702 0
-3.8715665 -3.4594407 -1.1986635 0
-3.8729579 -3.4841073 -1.2027042 0
-3.8587067 -3.4947655 -1.2019105 0
-3.818068 -3.4813325 -1.1928815 0
-3.7814844 -3.471266 -1.1850811 0
-3.7959616 -3.50808 -1.1932975 0
-3.8209302 -3.5549812 -1.2048868 0
-3.7892587 -3.5492909 -1.1986455 0
-3.7802303 -3.5647035 -1.1995634 0
-3.7388146 -3.549407 -1.1901909 0
-3.7609463 -3.5944684 -1.2010658 0
-3.7081888 -3.5679121 -1.1880312 0
-3.7378809 -3.6206939 -1.2014265 0
-3.6700001 -3.5788691 -1.1834584 0
-3.7126758 -3.6448503 -1.201154 0
-3.7185438 -3.6751759 -1.2070323 0
-3.679249 -3.6608062 -1.1982547 0
-3.6938384 -3.7000506 -1.2070396 0
-3.6460705 -3.6767755 -1.195452 0
-3.613322 -3.6682687 -1.1887405 0
-3.6302681 -3.710273 -1.1984015 0
-3.6057799 -3.7100482 -1.1944171 0
-3.6183562 -3.7480497 -1.202739 0
-3.6040225 -3.7583389 -1.2021563 0
-3.5969906 -3.7762692 -1.2040273 0
-3.5773888 -3.7809937 -1.2017026 0
-3.5239987 -3.7496679 -1.1879843 0
-3.5744758 -3.8290222 -1.209322 0
-3.5214727 -3.7976911 -1.195691 0
-3.5223057 -3.8242271 -1.2003207 0
-3.5445757 -3.8743939 -1.2123297 0
-3.4849112 -3.8349164 -1.196314 0
-3.5084703 -3.886946 -1.2088685 0
-3.4842966 -3.8862824 -1.2050221 0
-3.4312637 -3.8530447 -1.1911421 0
-3.4378412 -3.88659 -1.1979424 0
-3.3957999 -3.865097 -1.1878017 0
-3.4366724 -3.9381695 -1.2067101 0
-3.3951244 -3.9169915 -1.1967262 0
-3.3785646 -3.9243944 -1.1955203 0
-3.384002 -3.9574683 -1.2021327 0
-3.3434672 -3.9367104 -1.1924154 0
-3.3422296 -3.9621005 -1.1967049 0
-3.3143954 -3.9559402 -1.1914811 0
-3.3282273 -3.999614 -1.2012675 0
-3.3349669 -4.0351534 -1.2085764 0
-3.3352346 -4.0631428 -1.2136035 0
-3.266252 -4.0064206 -1.1933837 0
-3.2912655 -4.0648546 -1.2074956 0
-3.229044 -4.0154624 -1.1896005 0
-3.2279475 -4.0417733 -1.1941822 0
-3.2195179 -4.0590534 -1.1960918 0
-3.1858864 -4.0444303 -1.1886283 0
-3.2207088 -4.1169586 -1.2067635 0
-3.1875963 -4.1029034 -1.1995041 0
-3.1959238 -4.1422138 -1.2078573 0
-3.1538332 -4.1161213 -1.1971587 0
-3.1402357 -4.1269627 -1.1972429 0
-3.1554837 -4.1759825 -1.2083876 0
-3.1168885 -4.1537871 -1.1989343 0
-3.1129737 -4.1776738 -1.2028096 0
-3.1151597 -4.2099953 -1.2091013 0
-3.1156578 -4.2403283 -1.2148061 0
-3.0684545 -4.2055645 -1.2018924 0
-3.045197 -4.2032132 -1.1982958 0
-3.0440216 -4.231379 -1.2034092 0
-3.0026758 -4.2035646 -1.1926289 0
-2.9909384 -4.2169542 -1.193576 0
-3.0280252 -4.2997217 -1.2141222 0
-2.9923618 -4.2794876 -1.2055688 0
-2.9794486 -4.2915874 -1.2061566 0
-2.9523973 -4.2832074 -1.2010125 0
-2.9206202 -4.2676573 -1.1938998 0
-2.9412215 -4.3288293 -1.2082474 0
-2.9274278 -4.3397584 -1.2085514 0
-2.8982277 -4.3276982 -1.2024801 0
-2.8709123 -4.3181553 -1.1971471 0
-2.8909922 -4.3801394 -1.2116374 0
-2.8378413 -4.3311272 -1.1954408 0
-2.8254678 -4.3439445 -1.1963571 0
-2.8423271 -4.4020853 -1.2097383 0
-2.796221 -4.3627081 -1.1963338 0
-2.8059757 -4.4104071 -1.206827 0
-2.7603824 -4.3710341 -1.1935141 0
-2.74683 -4.3820486 -1.1940002 0
-2.7293341 -4.3867521 -1.1927817 0
-2.7143683 -4.3954859 -1.1926752 0
-2.7373831 -4.4661808 -1.2093606 0
-2.6950192 -4.4303331 -1.1972002 0
-2.6888909 -4.4538226 -1.2011046 0
-2.6920931 -4.4931054 -1.2092575 0
-2.6621904 -4.4771776 -1.2025616 0
-2.6306543 -4.4580994 -1.1950614 0
-2.6464689 -4.5194516 -1.2091225 0
-2.5933743 -4.4630299 -1.1916946 0
-2.5814493 -4.4769955 -1.1931058 0
-2.5924165 -4.531055 -1.2051895 0
-2.5875044 -4.5578547 -1.2100034 0
-2.5434794 -4.5155015 -1.196489 0
-2.5499156 -4.5626354 -1.206706 0
-2.5389185 -4.5789409 -1.2087604 0
-2.5044558 -4.5527139 -1.1996135 0
-2.4838228 -4.5512743 -1.1970329 0
-2.4665561 -4.5558949 -1.1960664 0
-2.4635549 -4.587018 -1.202062 0
-2.4348643 -4.5702929 -1.195533 0
-2.4362917 -4.6101537 -1.2038165 0
-2.3991187 -4.5768933 -1.1930245 0
-2.398792 -4.6138248 -1.2005478 0
-2.3935449 -4.6416912 -1.2057039 0
-2.3926063 -4.6783113 -1.2131256 0
-2.3359337 -4.6055231 -1.1922134 0
-2.3382032 -4.6485662 -1.2013197 0
-2.3164558 -4.6440535 -1.1981397 0
-2.3225412 -4.6956034 -1.2094233 0
-2.2779119 -4.6444945 -1.1942856 0
-2.2921631 -4.713459 -1.2100362 0
-2.2590001 -4.6851406 -1.2008151 0
-2.2486696 -4.7039652 -1.2037008 0
-2.2395947 -4.7256346 -1.2073175 0
-2.2137001 -4.7117519 -1.2018677 0
-2.1915882 -4.7056165 -1.1984216 0
-2.1807847 -4.7237377 -1.2011679 0
-2.1409724 -4.6786585 -1.187873 0
-2.1498892 -4.7400827 -1.2016312 0
-2.1275709 -4.7329969 -1.1980199 0
-2.1220875 -4.7634425 -1.2039185 0
-2.0856433 -4.724184 -1.1922222 0
-2.0792513 -4.7527714 -1.1976706 0
-2.0835967 -4.8065271 -1.2094495 0
-2.060065 -4.7962461 -1.2051178 0
-2.0456967 -4.807178 -1.2061344 0
-2.0326641 -4.8213544 -1.2079747 0
-2.0119185 -4.8172026 -1.2052375 0
-1.9896491 -4.8091602 -1.2015495 0
-1.9750199 -4.8194799 -1.2024666 0
-1.9634588 -4.837429 -1.2052957 0
-1.9290369 -4.7987304 -1.1940353 0
-1.9230801 -4.8306503 -1.2003666 0
-1.8902467 -4.7948961 -1.1899005 0
-1.8784703 -4.8122497 -1.1926373 0
-1.861356 -4.8160129 -1.1920166 0
-1.8523792 -4.8409929 -1.1966555 0
-1.8431059 -4.865571 -1.2011968 0
-1.8243375 -4.8652039 -1.1995893 0
-1.8060254 -4.865932 -1.198269 0
-1.7905325 -4.8742242 -1.198826 0
-1.7665666 -4.8592582 -1.1936815 0
-1.7549578 -4.8781996 -1.1968824 0
-1.7305843 -4.8615599 -1.1913695 0
-1.7323623 -4.9186912 -1.2039398 0
-1.7230787 -4.9451866 -1.2090042 0
-1.7097113 -4.9602852 -1.2112873 0
-1.6876549 -4.9501038 -1.2074125 0
-1.6556745 -4.91014 -1.196304 0
-1.6439971 -4.9300418 -1.1998031 0
-1.6096617 -4.8815556 -1.1866831 0
-1.6019849 -4.9136066 -1.1931621 0
-1.5886179 -4.9286189 -1.1955074 0
-1.5784193 -4.9537997 -1.2003249 0
-1.5624368 -4.961082 -1.2008134 0
-1.5450475 -4.9638929 -1.2002331 0
-1.5347407 -4.9896731 -1.2052157 0
-1.5166883 -4.9904666 -1.2041723 0
-1.5003841 -4.9969769 -1.2045225 0
-1.4743627 -4.9707632 -1.1970054 0
-1.4730641 -5.0281615 -1.2096313 0
-1.4371836 -4.9673553 -1.193837 0
-1.4289653 -5.0017033 -1.2009339 0
-1.4066547 -4.9868512 -1.1962287 0
-1.3990023 -5.0241313 -1.2040396 0
-1.3804485 -5.0226045 -1.2025577 0
-1.3502423 -4.9779553 -1.1907767 0
-1.3489931 -5.0401745 -1.2045714 0
-1.3415265 -5.0804176 -1.2131075 0
-1.3131453 -5.0413513 -1.2027211 0
-1.2902277 -5.0223408 -1.197147 0
-1.2662522 -4.9984961 -1.1904446 0
-1.2670356 -5.0729785 -1.2071648 0
-1.2508217 -5.0804553 -1.2079393 0
-1.2347661 -5.0886807 -1.2089039 0
-1.2027041 -5.0300837 -1.1940185 0
-1.1888477 -5.0468884 -1.1970545 0
-1.1881223 -5.120677 -1.2136046 0
-1.1507288 -5.0361481 -1.19265 0
-1.1404335 -5.0692997 -1.1995887 0
-1.1215415 -5.0645628 -1.1975712 0
-1.1161929 -5.1216979 -1.2101896 0
-1.0832599 -5.0519371 -1.1928412 0
-1.06978 -5.0719662 -1.1967167 0
-1.0602926 -5.1117983 -1.2052695 0
-1.0311296 -5.0563903 -1.1913834 0
-1.0139401 -5.0586686 -1.1911125 0
-1.0198112 -5.1779947 -1.2183971 0
-0.97984165 -5.0645561 -1.190925 0
-0.96792138 -5.0944757 -1.1971906 0
-0.9487049 -5.0862718 -1.1945086 0
-0.93632025 -5.1149569 -1.2005012 0
-0.92155135 -5.1313524 -1.2036173 0
-0.90077281 -5.114151 -1.1988673 0
-0.8832916 -5.1152349 -1.1984204 0
-0.87134898 -5.1489706 -1.205633 0
-0.8513546 -5.1354203 -1.2017851 0
-0.82229614 -5.0653386 -1.1847328 0
-0.82101345 -5.166904 -1.2078373 0
-0.79949355 -5.1426659 -1.201538 0
-0.78733599 -5.1787925 -1.2093551 0
-0.76112318 -5.1218829 -1.1954628 0
-0.74771458 -5.1503634 -1.2015184 0
-0.73527688 -5.1869473 -1.2094711 0
-0.71074951 -5.1378255 -1.1974546 0
-0.69918722 -5.182188 -1.2072409 0
-0.67569399 -5.1380086 -1.1964145 0
-0.66016644 -5.1535401 -1.1995088 0
-0.64153099 -5.1448746 -1.1969845 0
-0.63293451 -5.2183709 -1.2135832 0
-0.60570073 -5.1378942 -1.1943887 0
-0.59361678 -5.1848416 -1.2048329 0
-0.57526958 -5.1781607 -1.2028254 0
-0.55908698 -5.1910357 -1.205374 0
-0.53661019 -5.1442852 -1.1940939 0
-0.51795864 -5.1321764 -1.1908735 0
-0.50557864 -5.1834049 -1.2023604 0
-0.48882756 -5.1917696 -1.2039138 0
-0.47149068 -5.1941824 -1.2041 0
-0.45641813 -5.2225695 -1.2103189 0
-0.43299726 -5.1537504 -1.1940271 0
-0.41727704 -5.17454 -1.1985129 0
-0.39645857 -5.131041 -1.1881232 0
-0.37953609 -5.1361732 -1.1890103 0
-0.3683666 -5.2232494 -1.2088754 0
-0.34751874 -5.1748209 -1.1973906 0
-0.33213684 -5.2068443 -1.204536 0
-0.31450984 -5.2051549 -1.2038945 0
-0.29911175 -5.2422066 -1.2122254 0
-0.27544919 -5.1298594 -1.1860256 0
-0.26359415 -5.2369657 -1.2105775 0
-0.24390751 -5.1925464 -1.2001138 0
-0.22573534 -5.1758823 -1.1960807 0
-0.20846123 -5.1786199 -1.196545 0
-0.19261451 -5.2204156 -1.2060461 0
-0.17551392 -5.2330642 -1.2088256 0
-0.15743662 -5.2160363 -1.2047634 0
-0.13917831 -5.1878691 -1.198143 0
-0.12144857 -5.1740341 -1.194847 0
-0.10538742 -5.2383881 -1.2096201 0
-0.087596297 -5.2251592 -1.2064908 0
-0.06962797 -5.1919532 -1.1987628 0
-0.052939992 -5.2637515 -1.2152923 0
-0.035026196 -5.2243528 -1.2061622 0
-0.017183824 -5.1271992 -1.183712 0
6.8791987e-06 -5.1848245 -1.1970092 0
0.017447399 -5.2017241 -1.2009176 0
0.034546245 -5.1507268 -1.1891639 0
0.052489806 -5.2176132 -1.20464 0
0.06952437 -5.1832023 -1.1967423 0
0.087339856 -5.2090378 -1.2027683 0
0.103861 -5.1618352 -1.1919429 0
0.12274009 -5.2284646 -1.2074169 0
0.14078908 -5.2473907 -1.2118896 0
0.15548633 -5.1509676 -1.1897345 0
0.17444593 -5.2008095 -1.2013749 0
0.19071652 -5.168602 -1.1940761 0
0.20730551 -5.149569 -1.1898328 0
0.22553053 -5.1708708 -1.1949227 0
0.24395207 -5.1932011 -1.2002652 0
0.26127353 -5.1905861 -1.1998565 0
0.27549705 -5.130497 -1.1861732 0
0.29742733 -5.2124419 -1.2053427 0
0.31364661 -5.19064 -1.2005376 0
0.33076799 -5.1851683 -1.1995218 0
0.35008818 -5.2128744 -1.2061961 0
0.3667728 -5.2004533 -1.2035997 0
0.38560015 -5.2180486 -1.2079643 0
0.39956954 -5.1711249 -1.1974051 0
0.41904324 -5.19627 -1.2035462 0
0.44035515 -5.2411609 -1.2142788 0
0.45096928 -5.1600628 -1.1958334 0
0.47126558 -5.1915498 -1.20349 0
0.48745716 -5.1770678 -1.2005049 0
0.50657684 -5.1934962 -1.2047015 0
0.52537543 -5.2055268 -1.2078941 0
0.54340887 -5.2093277 -1.2091919 0
0.55805326 -5.1813083 -1.2031157 0
0.57163912 -5.1453576 -1.195206 0
0.59067559 -5.1590314 -1.1988356 0
0.60213315 -5.1075153 -1.1873269 0
0.63136286 -5.2052975 -1.2105434 0
0.64017326 -5.1338749 -1.1944258 0
0.66031635 -5.1546016 -1.1997563 0
0.68525624 -5.2106137 -1.2133213 0
0.69545633 -5.1544323 -1.2007754 0
0.71252126 -5.1505318 -1.2004166 0
0.72801608 -5.1356282 -1.1975052 0
0.7460441 -5.138761 -1.1988121 0
0.7643671 -5.1436191 -1.2005366 0
0.78216398 -5.1446815 -1.2013899 0
0.79565775 -5.1179028 -1.1957527 0
0.81813276 -5.1486869 -1.2035793 0
0.83851504 -5.1651607 -1.2080806 0
0.84226012 -5.0804782 -1.1889281 0
0.86467105 -5.109427 -1.1963744 0
0.8730678 -5.0559478 -1.184531 0
0.90063506 -5.1132894 -1.198666 0
0.92121124 -5.1293802 -1.2031553 0
0.938721 -5.127995 -1.2035619 0
0.96012175 -5.1474047 -1.2088661 0
0.97037697 -5.107326 -1.200211 0
0.98634112 -5.0980778 -1.1988082 0
1.0084088 -5.120029 -1.2047583 0
1.0160553 -5.0691519 -1.1935816 0
1.0427436 -5.1132731 -1.2047868 0
1.0525261 -5.0742869 -1.1964256 0
1.0759592 -5.1011949 -1.2036139 0
1.0998005 -5.1290097 -1.21104 0
1.095908 -5.0285554 -1.188182 0
1.1165625 -5.042016 -1.1922405 0
1.1370156 -5.0540438 -1.1959792 0
1.1766067 -5.1493387 -1.2194564 0
1.1836536 -5.101356 -1.2090262 0
1.1835667 -5.0244098 -1.1917237 0
1.1978816 -5.0098557 -1.1892176 0
1.2236654 -5.0428743 -1.1980225 0
1.2403328 -5.0377951 -1.1977971 0
1.2414509 -4.9704862 -1.1827766 0
1.2724998 -5.0231023 -1.1963056 0
1.278477 -4.9765453 -1.1862317 0
1.3049552 -5.0098538 -1.1952076 0
1.3298489 -5.03614 -1.2025357 0
1.3519741 -5.0512586 -1.2072214 0
1.3603535 -5.0151801 -1.1996821 0
1.376068 -5.0066152 -1.1987301 0
1.3962107 -5.0140548 -1.2016255 0
1.4086394 -4.9938364 -1.1979053 0
1.4180968 -4.9636111 -1.1917887 0
1.4333264 -4.9539738 -1.190622 0
1.4522389 -4.9570284 -1.1925197 0
1.4808686 -4.9926491 -1.2022766 0
1.488629 -4.9577789 -1.1950748 0
1.5063705 -4.95647 -1.1959699 0
1.5212811 -4.9458675 -1.1946357 0
1.5494773 -4.9780784 -1.2036641 0
1.5556108 -4.939362 -1.1955571 0
1.5695411 -4.9258909 -1.1935635 0
1.599183 -4.9613514 -1.2034482 0
1.6235336 -4.9796562 -1.2092018 0
1.6299988 -4.9431868 -1.2016664 0
1.6492069 -4.9456215 -1.2035956 0
1.6831424 -4.9915566 -1.2161412 0
1.6742119 -4.9106312 -1.1977855 0
1.6955593 -4.9191842 -1.2012516 0
1.7158884 -4.9245081 -1.2039498 0
1.7225243 -4.890717 -1.1970937 0
1.7428467 -4.8959665 -1.1998023 0
1.7456979 -4.8524194 -1.1905583 0
1.7552891 -4.8281975 -1.1860526 0
1.7966888 -4.8909431 -1.2029392 0
1.8018357 -4.8546042 -1.1954807 0
1.8199786 -4.8535399 -1.1967146 0
1.8106636 -4.7798891 -1.180045 0
1.847072 -4.8270845 -1.1932187 0
1.8664739 -4.8292165 -1.1952859 0
1.8976398 -4.8613195 -1.2047998 0
1.9034172 -4.8282676 -1.1981832 0
1.9383632 -4.8690028 -1.2098981 0
1.9453921 -4.8393788 -1.2041509 0
1.9502513 -4.804853 -1.1971804 0
1.9778498 -4.8263488 -1.2041817 0
1.9638151 -4.7466817 -1.1859407 0
1.9980308 -4.783915 -1.1969105 0
2.0408058 -4.8406305 -1.2128055 0
2.0395989 -4.7928138 -1.2025317 0
2.0412719 -4.7524576 -1.1941167 0
2.0692198 -4.7733274 -1.201097 0
2.0558264 -4.6991925 -1.1841705 0
2.0798364 -4.7109962 -1.1888955 0
2.1146734 -4.7467661 -1.1997052 0
2.1331925 -4.7454691 -1.2011782 0
2.1439569 -4.7269697 -1.1983085 0
2.1741817 -4.7511973 -1.2062914 0
2.1976824 -4.7603064 -1.2104682 0
2.1977692 -4.7188554 -1.2017947 0
2.20503 -4.6932659 -1.1971538 0
2.198065 -4.6379738 -1.1849232 0
2.2558076 -4.7188644 -1.207515 0
2.2497656 -4.665957 -1.1958998 0
2.2727356 -4.6734781 -1.1997739 0
2.3018498 -4.6932712 -1.2068295 0
2.3210292 -4.6925149 -1.2086295 0
2.3084519 -4.6279759 -1.1939933 0
2.3484676 -4.668942 -1.206587 0
2.3489835 -4.6312222 -1.1988676 0
2.3739121 -4.6417274 -1.2036408 0
2.3714111 -4.5987382 -1.1945482 0
2.4075637 -4.6306663 -1.2049317 0
2.4015632 -4.5815277 -1.1942341 0
2.4113717 -4.5629687 -1.1914972 0
2.4311523 -4.5632963 -1.1937045 0
2.4415445 -4.5460072 -1.1913165 0
2.4505682 -4.5263352 -1.1883079 0
2.5041885 -4.5885625 -1.2068419 0
2.5294721 -4.5981607 -1.2115902 0
2.5062971 -4.5200801 -1.1932238 0
2.5793388 -4.6152544 -1.2206243 0
2.542511 -4.5137539 -1.1960278 0
2.5830033 -4.5498977 -1.2078929 0
2.5663867 -4.4855323 -1.1930829 0
2.5982699 -4.5061398 -1.2008746 0
2.6181922 -4.5057125 -1.2030934 0
2.6162705 -4.4678545 -1.1953202 0
2.6226251 -4.4444652 -1.1914085 0
2.6539791 -4.4633412 -1.1988471 0
2.6509309 -4.4243789 -1.1907625 0
2.6699574 -4.4224348 -1.192642 0
2.6969426 -4.4334688 -1.1980493 0
2.7182503 -4.4349384 -1.2009026 0
2.7578735 -4.4659085 -1.2117858 0
2.7508905 -4.4213724 -1.2021972 0
2.7687848 -4.417047 -1.2035384 0
2.7854738 -4.4107399 -1.2043579 0
2.7864265 -4.3796539 -1.198414 0
2.7603471 -4.3067117 -1.1809806 0
2.8090646 -4.3505449 -1.1955763 0
2.8429835 -4.3708482 -1.2037686 0
2.8361573 -4.3285317 -1.1947266 0
2.8752518 -4.356266 -1.2050356 0
2.8727062 -4.3208284 -1.1978904 0
2.9042439 -4.3366575 -1.2049716 0
2.9091945 -4.3127041 -1.2010194 0
2.9201875 -4.2978477 -1.199602 0
2.9295366 -4.2806621 -1.19754 0
2.9387336 -4.2633605 -1.1954495 0
2.9875019 -4.3031631 -1.2094121 0
3.0004869 -4.2910833 -1.2088376 0
3.0250192 -4.2954288 -1.2129122 0
3.0144925 -4.2501397 -1.2029711 0
3.0415308 -4.257935 -1.2080572 0
3.0453639 -4.2332215 -1.2039355 0
3.0703967 -4.2379718 -1.2082076 0
3.0816574 -4.2236366 -1.2070595 0
3.097857 -4.2160788 -1.2078611 0
3.0686696 -4.1471429 -1.1910527 0
3.1209722 -4.1883845 -1.2058958 0
3.1014068 -4.133132 -1.1929748 0
3.1282074 -4.1398621 -1.197938 0
3.153018 -4.1437383 -1.2021121 0
3.1655078 -4.1313353 -1.2015861 0
3.1752915 -4.1154494 -1.2000554 0
3.2225959 -4.1479301 -1.2126706 0
3.2050991 -4.0969825 -1.2009107 0
3.2191775 -4.0866704 -1.2010449 0
3.2093973 -4.0462718 -1.1923279 0
3.2393475 -4.0560255 -1.1983956 0
3.2427616 -4.0324988 -1.1946502 0
3.2816491 -4.0529556 -1.2039635 0
3.2944474 -4.0409832 -1.2036815 0
3.296128 -4.0154796 -1.1993698 0
3.2912712 -3.9822617 -1.1927373 0
3.3370562 -4.0102019 -1.2044502 0
3.3049471 -3.9446418 -1.1880809 0
3.3290884 -3.946501 -1.191996 0
3.3544719 -3.9496465 -1.1963363 0
3.3610237 -3.9305749 -1.1939663 0
3.3946977 -3.9431124 -1.2012253 0
3.4104915 -3.9346993 -1.202139 0
3.3751495 -3.8676481 -1.1851041 0
3.4325075 -3.906857 -1.2006379 0
3.4473312 -3.8972979 -1.2012455 0
3.4534712 -3.8779612 -1.1988478 0
3.4328427 -3.8288717 -1.1872236 0
3.4646039 -3.8383269 -1.1937505 0
3.5132728 -3.8661056 -1.2060466 0
3.5124867 -3.8392987 -1.201351 0
3.5428042 -3.8464622 -1.2073027 0
3.5088227 -3.7840288 -1.1913923 0
3.5315831 -3.7830548 -1.1948071 0
3.5243711 -3.7500443 -1.1881067 0
3.5727682 -3.7760901 -1.200147 0
3.5795531 -3.7579427 -1.198187 0
3.5892453 -3.742909 -1.1972239 0
3.5906358 -3.719316 -1.1935214 0
3.6209528 -3.7256403 -1.19944 0
3.6233904 -3.7032244 -1.1961278 0
3.6237206 -3.6788061 -1.1921583 0
3.6626368 -3.6934617 -1.2008804 0
3.7066607 -3.7128749 -1.2112263 0
3.6893547 -3.6708417 -1.2015427 0
3.6952639 -3.6521482 -1.1994725 0
3.6610844 -3.5941825 -1.1844597 0
3.7375641 -3.6447363 -1.2052426 0
3.7777562 -3.6592996 -1.2142401 0
3.7454295 -3.603725 -1.1999594 0
3.7594962 -3.5930634 -1.2005997 0
3.7509906 -3.5609472 -1.1940639 0
3.7668347 -3.552053 -1.1953098 0
3.8044283 -3.5634809 -1.203441 0
3.787256 -3.5236323 -1.1942651 0
3.8500793 -3.5580745 -1.210307 0
3.8366492 -3.5218868 -1.2023664 0
3.8274217 -3.4898427 -1.1958009 0
3.8814476 -3.5153427 -1.2089909 0
3.8603759 -3.47277 -1.1987941 0
3.862442 -3.4512689 -1.1958356 0
3.9001458 -3.4615123 -1.2039089 0
3.9079862 -3.445116 -1.2027568 0
3.988591 -3.4924781 -1.2239536 0
3.9229834 -3.4118614 -1.200304 0
3.9277713 -3.3929625 -1.1982815 0
3.9375155 -3.3783932 -1.1977918 0
3.976912 -3.389112 -1.2063128 0
3.9688332 -3.3593221 -1.2004391 0
3.9796052 -3.345602 -1.2002976 0
4.0068655 -3.3456547 -1.2051295 0
3.9806795 -3.3012018 -1.1939181 0
4.0452352 -3.3319106 -1.2099227 0
4.0155029 -3.2848864 -1.197729 0
3.9933438 -3.2444713 -1.187868 0
4.0605311 -3.2765191 -1.2045791 0
4.0562277 -3.2506523 -1.2000625 0
4.0627828 -3.2335954 -1.1987876 0
4.0736995 -3.2200325 -1.1988163 0
4.1081634 -3.2249537 -1.2057698 0
4.123157 -3.2144392 -1.2070005 0
4.1459818 -3.2099423 -1.2105248 0
4.1489949 -3.1900833 -1.2082748 0
4.134335 -3.1568117 -1.2009164 0
4.1325865 -3.1335986 -1.19735 0
4.1326256 -3.1118608 -1.1943315 0
4.1672764 -3.1161134 -1.2013196 0
4.1725173 -3.0982749 -1.199829 0
4.1911635 -3.0903742 -1.2022045 0
4.2505403 -3.1122108 -1.2162365 0
4.2002463 -3.0538063 -1.198909 0
4.2180829 -3.0452087 -1.2010791 0
4.2222571 -3.0267394 -1.1993713 0
4.242805 -3.0199852 -1.2023251 0
4.2167583 -2.980195 -1.1921058 0
4.2945933 -3.013665 -1.211247 0
4.2393928 -2.9537652 -1.1928782 0
4.2729278 -2.9558988 -1.1995189 0
4.3125534 -2.9619815 -1.2078482 0
4.2857561 -2.9224772 -1.1975918 0
4.2945089 -2.9073997 -1.197307 0
4.3333158 -2.9125321 -1.205397 0
4.3753929 -2.919564 -1.2143718 0
4.3478827 -2.8801858 -1.2040495 0
4.3480415 -2.8593621 -1.2014319 0
4.3373232 -2.8315279 -1.1958401 0
4.3863859 -2.8426287 -1.2067327 0
4.3453379 -2.7953842 -1.1928549 0
4.3674107 -2.7889252 -1.1963406 0
4.4068165 -2.7933331 -1.2045625 0
4.4045477 -2.7712376 -1.201396 0
4.3355846 -2.7075994 -1.1801026 0
4.454814 -2.7613406 -1.2100288 0
4.3849888 -2.6977506 -1.1885991 0
4.4506912 -2.717644 -1.2039318 0
4.4393411 -2.6903212 -1.1984148 0
4.4894094 -2.700125 -1.2094803 0
4.4395971 -2.6499367 -1.1936601 0
4.4057655 -2.6097486 -1.1822047 0
4.5103612 -2.6513176 -1.2078788 0
4.4566016 -2.5996501 -1.1911411 0
4.5362687 -2.6257775 -1.2100743 0
4.5060167 -2.5881352 -1.1996828 0
4.5101967 -2.5704644 -1.1984946 0
4.5302091 -2.5617857 -1.2015233 0
4.5674238 -2.5626574 -1.2091079 0
4.4983878 -2.5041301 -1.188603 0
4.5304718 -2.5021305 -1.1948572 0
4.5338025 -2.4841688 -1.1935322 0
4.5722637 -2.4853468 -1.2014568 0
4.5929608 -2.4766841 -1.2047065 0
4.607666 -2.4647088 -1.2063894 0
4.5943131 -2.4377899 -1.2007465 0
4.6252098 -2.4343457 -1.2066816 0
4.6301026 -2.4171317 -1.205837 0
4.6273828 -2.396003 -1.2030296 0
4.6350164 -2.3802831 -1.2029328 0
4.6339655 -2.3601427 -1.2005996 0
4.6290851 -2.3381438 -1.1972973 0
4.6783686 -2.3433824 -1.2080053 0
4.6700468 -2.3196604 -1.2038416 0
4.6760478 -2.3031278 -1.2033912 0
4.6284523 -2.2604337 -1.1891853 0
4.6325159 -2.2432132 -1.1882902 0
4.7287583 -2.2702761 -1.2110181 0
4.7082663 -2.2410448 -1.2038392 0
4.6989207 -2.217303 -1.199542 0
4.7145967 -2.2054038 -1.2016494 0
4.6852455 -2.1725574 -1.1923051 0
4.7290864 -2.1736515 -1.2016004 0
4.7224174 -2.151437 -1.1980662 0
4.7683992 -2.1531091 -1.2078936 0
4.7525325 -2.1267903 -1.2020613 0
4.7651324 -2.1132812 -1.2034492 0
4.7718234 -2.0971315 -1.2033566 0
4.7590537 -2.0725093 -1.1983773 0
4.7896471 -2.0667555 -1.2043293 0
4.8350902 -2.0671628 -1.2140062 0
4.7882967 -2.0281951 -1.2005429 0
4.769413 -2.0013633 -1.1941192 0
4.7961173 -1.9936835 -1.1991249 0
4.7961836 -1.9748778 -1.1974792 0
4.7869458 -1.9523289 -1.1935318 0
4.8618007 -1.9638717 -1.2105469 0
4.8373871 -1.9351703 -1.2028458 0
4.7924438 -1.8985763 -1.1900808 0
4.8158398 -1.8891888 -1.194311 0
4.8202615 -1.8722993 -1.1938441 0
4.8746529 -1.8746408 -1.2057518 0
4.8615623 -1.8509201 -1.2009721 0
4.8679104 -1.8346738 -1.2010139 0
4.8410497 -1.8060367 -1.1928861 0
4.8404322 -1.7873416 -1.1912507 0
4.846231 -1.7710415 -1.1912097 0
4.9007692 -1.7723693 -1.2031478 0
4.9093828 -1.7568938 -1.2038095 0
4.8654885 -1.7228053 -1.1916233 0
4.9118538 -1.7207112 -1.2015591 0
4.8850293 -1.6929469 -1.1936018 0
4.9311624 -1.6904372 -1.2034824 0
4.9367537 -1.6738778 -1.2034705 0
4.9028907 -1.6440886 -1.1938651 0
4.9600601 -1.6447798 -1.2064363 0
4.9389396 -1.6194162 -1.1999717 0
4.9375 -1.6006299 -1.1983113 0
4.9307451 -1.5801905 -1.1953794 0
4.9844661 -1.5789982 -1.2071129 0
4.9308128 -1.5438298 -1.1928592 0
4.9410682 -1.5288693 -1.1940933 0
4.9243999 -1.5056391 -1.1888386 0
4.9568067 -1.497393 -1.1954433 0
4.9717221 -1.4837267 -1.197834 0
4.9847212 -1.4694229 -1.1997721 0
5.0251961 -1.4630595 -1.2083266 0
4.9913645 -1.4350737 -1.199028 0
4.998137 -1.4188951 -1.1995053 0
4.9772277 -1.3949438 -1.1933582 0
5.0111561 -1.3863485 -1.2003717 0
5.0513134 -1.3792425 -1.2088765 0
5.0103021 -1.3500099 -1.1979717 0
5.0494804 -1.3424237 -1.2062564 0
5.0337954 -1.3201995 -1.2014452 0
5.0456595 -1.3052461 -1.2032257 0
5.0063295 -1.2771788 -1.1928189 0
5.0347738 -1.2664714 -1.1985776 0
5.1017537 -1.2651474 -1.2135062 0
5.1012354 -1.2468785 -1.2123817 0
5.0764089 -1.2227879 -1.2055001 0
5.0838332 -1.2065566 -1.2062958 0
5.1120901 -1.1951718 -1.2120429 0
5.0973873 -1.1737237 -1.2076172 0
5.0907207 -1.1542293 -1.2051142 0
5.0717468 -1.132062 -1.1997173 0
5.1071582 -1.122003 -1.2071972 0
5.0567932 -1.0931784 -1.1944191 0
5.1432233 -1.0938257 -1.213961 0
5.1290536 -1.0728503 -1.2097605 0
5.0971975 -1.0483618 -1.2014111 0
5.0568957 -1.0224127 -1.1910973 0
5.0871053 -1.0107791 -1.1974078 0
5.1486635 -1.0050782 -1.2110975 0
5.1210485 -0.98187482 -1.2038206 0
2.183883 -0.41113633 -0.51304519 0
2.2487025 -0.41553736 -0.52794248 0
2.2033505 -0.3995218 -0.51697755 0
2.2574773 -0.40152326 -0.52935857 0
2.2059424 -0.3847315 -0.51696873 0
2.1727419 -0.37143907 -0.50889337 0
2.2065823 -0.36961409 -0.51652622 0
2.188391 -0.35902798 -0.51198322 0
2.1674829 -0.34813911 -0.50681579 0
2.2248743 -0.3497093 -0.51995832 0
2.2012022 -0.3384299 -0.51415807 0
2.19873 -0.33050746 -0.5133189 0
2.2000303 -0.32316372 -0.51336664 0
2.1370652 -0.30659851 -0.49843132 0
2.1807415 -0.30540606 -0.50837636 0
2.1397457 -0.29235324 -0.49858809 0
2.1720605 -0.28935331 -0.50588888 0
2.1847878 -0.2835969 -0.5086289 0
2.1596131 -0.27296948 -0.50255221 0
2.1562536 -0.26520291 -0.50156069 0
2.147876 -0.25686514 -0.49940887 0
2.1585045 -0.25079855 -0.5016818 0
2.115278 -0.23859091 -0.49144638 0
2.2159455 -0.24242423 -0.51464289 0
2.1353724 -0.22636698 -0.49575114 0
2.1524363 -0.22088061 -0.49953794 0
2.1824024 -0.21656398 -0.50632113 0
2.1437979 -0.20547703 -0.49720219 0
2.14555 -0.19838753 -0.49745148 0
2.1174057 -0.18862741 -0.49077675 0
2.165025 -0.18555515 -0.50166702 0
2.178411 -0.17934702 -0.50462657 0
2.1139536 -0.16690649 -0.48956272 0
2.0890777 -0.15789631 -0.48367649 0
2.1126499 -0.15255591 -0.48901287 0
2.1142092 -0.14554469 -0.48925811 0
2.1455257 -0.14047456 -0.49639341 0
2.1696694 -0.13475122 -0.501872 0
