# .PCD v0.7 - Point Cloud Data file format
VERSION 0.7
FIELDS x y z intensity
SIZE 4 4 4 4
TYPE F F F F
COUNT 1 1 1 1
WIDTH 1414
HEIGHT 1
VIEWPOINT 0 0 0 1 0 0 0
POINTS 1414
DATA ascii
5.3732276 -3.0147719 -1.1976148 0
5.4271145 -3.021127 -1.2073609 0
5.440063 -3.0044878 -1.2079937 0
5.3978591 -2.9576042 -1.1964134 0
5.4056535 -2.9383528 -1.1959507 0
5.4371176 -2.9318826 -1.2007302 0
5.4400172 -2.9099457 -1.1992092 0
5.4600377 -2.8971524 -1.2014745 0
5.4434948 -2.8650262 -1.1957138 0
5.493463 -2.8678463 -1.2045709 0
5.5068707 -2.8513913 -1.2054077 0
5.4933801 -2.82109 -1.2003776 0
5.4699845 -2.7859385 -1.1932176 0
5.5095387 -2.7828593 -1.1998038 0
5.4997597 -2.7548151 -1.1956562 0
5.5277972 -2.7457139 -1.1997434 0
5.5173416 -2.7174962 -1.1954899 0
5.5864801 -2.7283134 -1.2084819 0
5.5305777 -2.6780834 -1.1944398 0
5.5794744 -2.678705 -1.2030536 0
5.5690217 -2.6507475 -1.1988766 0
5.6055098 -2.6450996 -1.2048157 0
5.5941911 -2.6168621 -1.2004904 0
5.5543137 -2.575546 -1.1900731 0
5.5876369 -2.5682707 -1.1953613 0
5.6490364 -2.5735857 -1.2066437 0
5.6421828 -2.5476546 -1.2033484 0
5.156146 -2.30741 -1.0980318 0
5.0949497 -2.2595515 -1.0833802 0
5.1548772 -2.2654767 -1.0945019 0
5.1433883 -2.239882 -1.0904617 0
5.1174717 -2.2082133 -1.0833913 0
5.103436 -2.1818893 -1.0788651 0
5.155755 -2.1838408 -1.0883714 0
5.0534883 -2.120568 -1.065276 0
5.1961188 -2.1599588 -1.09381 0
5.0972428 -2.0988419 -1.0715086 0
5.1481714 -2.0996528 -1.0807285 0
5.1842656 -2.0941279 -1.0868256 0
5.1872225 -2.0751202 -1.0859808 0
5.2501307 -2.0798938 -1.097685 0
5.3154936 -2.0851963 -1.109883 0
5.3271461 -2.0691848 -1.1108612 0
5.3726788 -2.0661662 -1.1189051 0
5.4802294 -2.0864623 -1.1398401 0
5.797225 -2.1849246 -1.2042421 0
5.7744784 -2.1542685 -1.1980098 0
5.77809 -2.133574 -1.1972684 0
5.7786078 -2.1117761 -1.1959018 0
5.8498726 -2.1156137 -1.2091755 0
5.8033133 -2.0767996 -1.1981055 0
5.826242 -2.0629954 -1.2014045 0
5.827909 -2.0416219 -1.2003299 0
5.8813796 -2.0382404 -1.2099285 0
5.8643999 -2.0103576 -1.205042 0
5.8702803 -1.9904037 -1.2048723 0
5.8922524 -1.9758518 -1.2080156 0
5.8354855 -1.935075 -1.1950405 0
5.8343229 -1.9130011 -1.1934822 0
5.8609753 -1.9000005 -1.1976243 0
5.8964844 -1.8896879 -1.2035788 0
5.8346491 -1.8483224 -1.1896855 0
5.8854084 -1.8427123 -1.1987689 0
5.8968086 -1.8245952 -1.199838 0
5.9053092 -1.805553 -1.2003293 0
5.9185658 -1.7879293 -1.2017986 0
5.9125385 -1.7644976 -1.1993667 0
5.9273658 -1.7473007 -1.2011791 0
5.9607539 -1.7354424 -1.2067593 0
5.9769888 -1.7184517 -1.2088729 0
5.9315691 -1.6838825 -1.1985379 0
5.979557 -1.6758618 -1.2070923 0
5.9293418 -1.6403668 -1.1958383 0
5.9644938 -1.6285832 -1.2018199 0
5.9663177 -1.6076053 -1.2010946 0
5.9609122 -1.5847313 -1.19893 0
5.9690599 -1.5654888 -1.1995064 0
6.0144157 -1.5558506 -1.2075657 0
6.0107918 -1.53343 -1.205799 0
5.9714227 -1.5020804 -1.1968843 0
5.9539218 -1.4764706 -1.1923777 0
5.9768019 -1.4608905 -1.1959721 0
6.0356498 -1.4538466 -1.2067655 0
6.0149665 -1.4275444 -1.2016664 0
6.07371 -1.419992 -1.2124442 0
6.0245166 -1.3872043 -1.2016889 0
6.0311437 -1.3674532 -1.2020895 0
5.9811497 -1.3350493 -1.1912261 0
6.0117826 -1.320742 -1.1964384 0
6.0509605 -1.3080977 -1.2033558 0
6.0481844 -1.2862867 -1.2019393 0
6.0488672 -1.2652489 -1.2012253 0
6.0530477 -1.2449553 -1.2012197 0
6.0277662 -1.2187052 -1.1953851 0
6.0607882 -1.2042445 -1.2011263 0
6.0711641 -1.185161 -1.2023883 0
6.0826573 -1.1662471 -1.2038833 0
6.0796185 -1.1445447 -1.2025156 0
6.053329 -1.1185937 -1.1965672 0
6.0748177 -1.1015143 -1.2000781 0
6.0999622 -1.0849619 -1.2043201 0
6.056262 -1.0562537 -1.1949863 0
6.0377479 -1.0321776 -1.1906437 0
6.1017609 -1.0220768 -1.2025845 0
6.0910721 -0.99930292 -1.1998109 0
6.1083412 -0.98111618 -1.2025577 0
6.0953746 -0.95808077 -1.1993659 0
6.0532637 -0.93067569 -1.1904591 0
6.0592875 -0.91081655 -1.1910365 0
6.1318626 -0.90071279 -1.2047018 0
6.0786428 -0.87208515 -1.1936647 0
6.090642 -0.85297549 -1.1954527 0
6.1488175 -0.84011233 -1.2063115 0
6.1058254 -0.81339389 -1.1973354 0
6.1008825 -0.7919265 -1.1958387 0
6.1163201 -0.77308697 -1.1983498 0
6.1436043 -0.7556169 -1.2031924 0
6.1077895 -0.73043233 -1.1956918 0
6.1028452 -0.70909494 -1.1942518 0
6.0942097 -0.68739098 -1.1921042 0
6.1572614 -0.67360383 -1.2039894 0
6.1361442 -0.65048152 -1.1994269 0
6.09337 -0.62529486 -1.1906494 0
6.1282563 -0.60811859 -1.1970611 0
6.1357975 -0.588099 -1.1981422 0
6.114954 -0.56541711 -1.1936952 0
6.1319413 -0.54625911 -1.196647 0
6.1327481 -0.52561194 -1.1964538 0
6.1727991 -0.50820214 -1.2039284 0
6.1750851 -0.48755178 -1.2040486 0
6.1875277 -0.46766466 -1.2061622 0
6.1813149 -0.44635704 -1.2046525 0
6.1368737 -0.42246976 -1.1957089 0
6.1672611 -0.40379068 -1.201359 0
6.1478033 -0.38182035 -1.1973126 0
6.1233106 -0.35969386 -1.1923009 0
6.1677098 -0.34155542 -1.2007165 0
6.1782374 -0.32136416 -1.2025495 0
6.1186705 -0.29769894 -1.1907541 0
6.2108617 -0.28131461 -1.2085052 0
6.15028 -0.25791061 -1.1965423 0
6.1460223 -0.23709215 -1.1955525 0
6.195292 -0.21819283 -1.2049875 0
6.1046443 -0.19450948 -1.187223 0
6.2066007 -0.1769295 -1.2069292 0
6.1870689 -0.15561365 -1.2030228 0
6.1242752 -0.13348939 -1.1907195 0
6.1663151 -0.1137228 -1.1988122 0
6.1893978 -0.093390733 -1.2032322 0
6.1064539 -0.071661681 -1.1870543 0
6.153924 -0.051583666 -1.1962419 0
6.1154227 -0.030756105 -1.1887311 0
6.2070045 -0.010405486 -1.2065194 0
6.1287284 0.010274264 -1.191304 0
6.1288505 0.030823635 -1.191341 0
6.1984468 0.05195687 -1.2048966 0
6.2445383 0.073282152 -1.213897 0
6.1867456 0.093350716 -1.2027166 0
6.1809735 0.11399314 -1.2016619 0
6.1495275 0.1340398 -1.1956292 0
6.1566434 0.15484841 -1.197107 0
6.2092357 0.17700461 -1.2074416 0
6.1731081 0.19669092 -1.2005378 0
6.1378922 0.21617125 -1.1938232 0
6.143465 0.23699351 -1.195055 0
6.2152047 0.2606332 -1.2091733 0
6.1790638 0.27987435 -1.202318 0
6.2004604 0.30167839 -1.2066714 0
6.1744657 0.32116795 -1.2018152 0
6.1463552 0.34037283 -1.1965592 0
6.2096448 0.36476529 -1.2091116 0
6.1498666 0.38194847 -1.1977144 0
6.1633716 0.40353599 -1.2006013 0
6.1804562 0.42546999 -1.2042004 0
6.1606169 0.44486246 -1.2006189 0
6.1696267 0.46631163 -1.2026727 0
6.1733069 0.48741138 -1.2037019 0
6.1414866 0.50562423 -1.1978213 0
6.1883106 0.53037393 -1.2072936 0
6.1232586 0.54548562 -1.1949526 0
6.1177778 0.56567818 -1.1942464 0
6.1489859 0.5893631 -1.2007176 0
6.1395683 0.60924113 -1.1992707 0
6.0923834 0.62519366 -1.1904566 0
6.0847998 0.64503866 -1.1893908 0
6.13381 0.67103827 -1.1994038 0
6.1209512 0.69040722 -1.1973352 0
6.1025457 0.70906013 -1.1941931 0
6.1631107 0.73704827 -1.2065219 0
6.1021376 0.75051677 -1.1950713 0
6.0901875 0.76978385 -1.1932298 0
6.1620445 0.79986566 -1.2078271 0
6.1431456 0.81836551 -1.2046537 0
6.1228399 0.83656299 -1.2012151 0
6.145463 0.86065292 -1.2062128 0
6.0929246 0.87413412 -1.1964692 0
6.120986 0.89911509 -1.2025648 0
6.1091676 0.9183144 -1.2008412 0
6.1312232 0.94266176 -1.2057909 0
6.0570445 0.95205599 -1.1918237 0
6.0963073 0.97918326 -1.2001885 0
6.0869989 0.99863464 -1.1990085 0
6.0663085 1.0161384 -1.1955973 0
6.1010137 1.0429932 -1.2031198 0
6.0427117 1.0538905 -1.1923126 0
6.0543494 1.076849 -1.1953146 0
6.0851307 1.1033843 -1.2021154 0
6.0525937 1.1184578 -1.1964219 0
6.1287575 1.1537957 -1.2122351 0
6.0664701 1.1631435 -1.2006795 0
6.0536823 1.1817484 -1.1989261 0
6.0565176 1.203396 -1.20028 0
6.0578527 1.2247881 -1.2013516 0
6.0475211 1.2438186 -1.200123 0
6.0323482 1.2617935 -1.1979448 0
6.0223899 1.2808008 -1.1968132 0
6.0081534 1.2988436 -1.1948428 0
6.0335679 1.325528 -1.2007741 0
6.0238824 1.3445877 -1.199737 0
5.997128 1.3597407 -1.1953096 0
6.0419436 1.3912171 -1.2051649 0
6.0182467 1.407025 -1.2013724 0
5.9833326 1.4200366 -1.1953466 0
5.9976201 1.4446861 -1.1991619 0
5.973124 1.4599916 -1.1952362 0
5.9862332 1.4844831 -1.1988485 0
6.0275369 1.5161958 -1.2081317 0
5.9981298 1.5301998 -1.203259 0
5.9918475 1.5500125 -1.2030344 0
5.9260411 1.5542063 -1.1908615 0
6.0106292 1.5979487 -1.2089297 0
5.9980612 1.6161585 -1.207485 0
5.9821038 1.6333915 -1.2053682 0
5.893146 1.6303531 -1.1885383 0
5.9335132 1.6629573 -1.1977974 0
5.9573503 1.6912012 -1.2037473 0
5.9204798 1.7022048 -1.1974437 0
5.9720092 1.7387193 -1.209038 0
5.8938398 1.7374177 -1.1943852 0
5.9257483 1.7684398 -1.2020463 0
5.8758006 1.7750105 -1.1931149 0
5.8719282 1.7953465 -1.193544 0
5.9024606 1.826344 -1.2009881 0
5.9065051 1.8493176 -1.2030659 0
5.8228731 1.844592 -1.1872844 0
5.8696995 1.881104 -1.1981115 0
5.9069433 1.9149023 -1.2070174 0
5.9140048 1.9391279 -1.2097821 0
5.8453531 1.9383471 -1.1970612 0
5.8865013 1.9739231 -1.2068365 0
5.8628283 1.9878769 -1.2033428 0
4.7485676 1.6278423 -0.97575599 0
4.7009854 1.6291651 -0.96709561 0
4.6632724 1.6336286 -0.96045864 0
4.580442 1.621874 -0.94451332 0
4.5581565 1.6312022 -0.9410404 0
4.4890914 1.6234856 -0.92790037 0
4.4196229 1.6151388 -0.91465533 0
4.4660068 1.649084 -0.9253937 0
4.4290767 1.6523432 -0.91888434 0
4.4090505 1.6617334 -0.91588026 0
4.4538116 1.6956791 -0.92635411 0
4.4737916 1.7204821 -0.9317044 0
4.4302239 1.7207998 -0.92382741 0
4.4678397 1.7526731 -0.93289155 0
4.4802027 1.7748787 -0.93671024 0
4.4067516 1.762897 -0.92258388 0
4.4553051 1.7996722 -0.93400687 0
4.4344459 1.8085637 -0.93089992 0
4.3998146 1.8116689 -0.92489994 0
5.7554398 2.3924613 -1.2115499 0
5.7135305 2.3975382 -1.2044131 0
5.7180037 2.4219942 -1.2070611 0
5.6899385 2.4326389 -1.2028517 0
5.6602955 2.4424446 -1.1983095 0
5.6504898 2.4607184 -1.1979735 0
5.6462941 2.4814458 -1.1988412 0
5.6022472 2.4845321 -1.1912509 0
5.6628881 2.5341804 -1.2059454 0
5.6308517 2.5425382 -1.2009318 0
5.5623388 2.5340881 -1.1881249 0
5.6002216 2.5740552 -1.1980535 0
5.601923 2.5976226 -1.200274 0
5.5622582 2.6019247 -1.1936377 0
5.5783234 2.6322711 -1.1989725 0
5.5054059 2.6204679 -1.1851817 0
5.5528135 2.665905 -1.197305 0
5.5717983 2.6980438 -1.2033422 0
5.5438538 2.7074957 -1.1992608 0
5.5359015 2.7266376 -1.1995115 0
5.5089779 2.736366 -1.1956588 0
5.5111065 2.7604985 -1.198123 0
5.5299482 2.7931683 -1.2042484 0
5.5053587 2.8039551 -1.2009341 0
5.4979882 2.8234565 -1.2013845 0
5.4849877 2.8400605 -1.2006178 0
5.4993768 2.8709335 -1.2058676 0
5.4746242 2.8814106 -1.2025516 0
5.4730172 2.9040394 -1.2043307 0
5.4625602 2.9220042 -1.2041786 0
5.4373212 2.9319923 -1.2007751 0
5.3989706 2.93472 -1.1944722 0
5.4297748 2.9750917 -1.2034874 0
5.4249763 2.9961557 -1.2046437 0
5.3643179 2.9861701 -1.1933907 0
5.39814 3.0287497 -1.2031674 0
5.3717098 3.0376453 -1.1995398 0
5.3577538 3.0535064 -1.1987027 0
5.3404193 3.067394 -1.1971186 0
5.3388124 3.0903223 -1.1990744 0
5.3518167 3.1218522 -1.2043391 0
5.3334041 3.1351254 -1.2025543 0
5.3284311 3.1562881 -1.2038125 0
5.2578101 3.1383173 -1.1902281 0
5.2910943 3.1822929 -1.2001714 0
5.2539158 3.1839681 -1.194153 0
5.2962756 3.2339678 -1.2062385 0
5.3194366 3.272645 -1.2140056 0
5.2102284 3.2295885 -1.1915467 0
5.1903062 3.2413783 -1.1894693 0
5.2420187 3.2981546 -1.2038478 0
5.2256866 3.312387 -1.2026407 0
5.1778531 3.3064544 -1.194177 0
5.1922636 3.3402169 -1.2000766 0
5.1740069 3.3530521 -1.1984487 0
5.1622267 3.3700485 -1.1983305 0
5.1445665 3.3831732 -1.1968573 0
5.1304431 3.3985803 -1.1962159 0
5.1170807 3.414469 -1.1957628 0
5.1213503 3.4421902 -1.1994507 0
5.1411204 3.4805589 -1.2068073 0
5.1087608 3.4836879 -1.2019464 0
5.0531478 3.4706423 -1.1915933 0
5.0745358 3.5104301 -1.1994056 0
5.0662851 3.529896 -1.200246 0
5.059926 3.5507252 -1.2015531 0
5.022892 3.5499303 -1.1955786 0
5.0597763 3.6014972 -1.2072253 0
5.0485258 3.6190529 -1.2074294 0
5.0359902 3.63569 -1.2073399 0
4.9906774 3.6284924 -1.1993864 0
4.9594078 3.6312377 -1.1947907 0
4.9755979 3.668781 -1.2016479 0
4.9515772 3.6767607 -1.1988171 0
4.9187288 3.6780176 -1.1938431 0
4.9378543 3.7181966 -1.2015042 0
4.9212317 3.7316012 -1.2004972 0
4.9101467 3.7491903 -1.2008528 0
4.8792524 3.7515643 -1.1963665 0
4.9235506 3.8119593 -1.2103553 0
4.9144139 3.8313079 -1.2112602 0
4.8412752 3.8004546 -1.1963675 0
4.8214765 3.8111088 -1.1946259 0
4.8155313 3.8327127 -1.1963301 0
4.8296447 3.8704669 -1.2030535 0
4.7930093 3.8675694 -1.1971509 0
4.780333 3.8838763 -1.1972307 0
4.7512436 3.88676 -1.1932023 0
4.7962866 3.9505239 -1.2078338 0
4.8028841 3.9830608 -1.2128514 0
4.7136002 3.9357648 -1.1936306 0
4.731863 3.9780152 -1.2016259 0
4.7032857 3.9809813 -1.1977518 0
4.6943784 4.0005345 -1.1988925 0
4.7082152 4.0396543 -1.2058785 0
4.6603479 4.0257907 -1.1970689 0
4.6598473 4.0527201 -1.200424 0
4.6134667 4.0396299 -1.1919582 0
4.6501698 4.0993938 -1.2049854 0
4.6548357 4.1313252 -1.2097769 0
4.5902848 4.1016297 -1.1965678 0
4.5829525 4.1227956 -1.198253 0
4.5767174 4.1450334 -1.2002497 0
4.5178947 4.1194158 -1.1884388 0
4.5539818 4.1803689 -1.2016118 0
4.5017576 4.1603274 -1.1915058 0
4.5420599 4.2258954 -1.205916 0
4.5118957 4.2261419 -1.2016629 0
4.470984 4.2160525 -1.1945249 0
4.5118613 4.2832685 -1.2092762 0
4.4551969 4.2579651 -1.1979084 0
4.4300275 4.2624216 -1.1949768 0
4.4596062 4.3197694 -1.2068555 0
4.4470801 4.3366303 -1.2073939 0
4.4415569 4.3603926 -1.2098567 0
4.3873901 4.3361988 -1.1990554 0
4.3775234 4.3555574 -1.2003433 0
4.3737025 4.3810349 -1.2033166 0
4.3617296 4.3984385 -1.2040731 0
4.3127003 4.3782592 -1.194584 0
4.2784371 4.372704 -1.1891477 0
4.2966647 4.4208879 -1.1983268 0
4.2969999 4.4509945 -1.2025757 0
4.2898283 4.4734855 -1.2047594 0
4.2520213 4.4639239 -1.1983383 0
4.2535596 4.4956245 -1.2030131 0
4.2054625 4.4747472 -1.1936464 0
4.2244272 4.5252337 -1.2033288 0
4.1964688 4.5256085 -1.1996803 0
4.166069 4.5231476 -1.1953185 0
4.1621795 4.5494409 -1.1985723 0
4.1440105 4.5601878 -1.1977364 0
4.1560655 4.6043758 -1.2056757 0
4.1349487 4.6119766 -1.204029 0
4.1019654 4.6061664 -1.1989149 0
4.0979714 4.6328635 -1.2022808 0
4.1153631 4.6840782 -1.2119839 0
4.053123 4.6445508 -1.1982335 0
4.0329742 4.6528606 -1.1968821 0
4.0287189 4.6795602 -1.2002687 0
3.990896 4.6671839 -1.1936556 0
3.9686387 4.6727834 -1.1916778 0
3.994947 4.7358494 -1.2043387 0
3.9856584 4.7571092 -1.2063401 0
3.9605143 4.7594237 -1.2035527 0
3.9185519 4.7412381 -1.1956249 0
3.9047999 4.756989 -1.1962887 0
3.9096618 4.795608 -1.2026974 0
3.8713717 4.7812848 -1.1958432 0
3.8629746 4.8037577 -1.1982177 0
3.8635616 4.8376112 -1.2034241 0
3.8197312 4.8157549 -1.1947944 0
3.8116279 4.8387723 -1.1973276 0
3.8504286 4.9218879 -1.2146928 0
3.7728622 4.8561997 -1.1953528 0
3.7794311 4.8984661 -1.2026308 0
3.7466519 4.8897924 -1.1974103 0
3.7202969 4.8892641 -1.1942198 0
3.7126663 4.9133339 -1.1970518 0
3.6973817 4.9273658 -1.1974435 0
3.6830146 4.9426527 -1.1981508 0
3.6676655 4.9566541 -1.1985571 0
3.6579311 4.9783201 -1.2008239 0
3.6522169 5.00563 -1.2044507 0
3.6292663 5.0093622 -1.2024142 0
3.6187255 5.0302253 -1.2045028 0
3.5902631 5.026123 -1.2006315 0
3.5542963 5.0112104 -1.1942157 0
3.515794 4.9923129 -1.1868964 0
3.5352211 5.0558224 -1.1991707 0
3.4888005 5.025228 -1.189133 0
3.522578 5.1103711 -1.2064792 0
3.5018008 5.116859 -1.2052321 0
3.4624364 5.0959139 -1.1975577 0
3.4367282 5.0947409 -1.1945673 0
3.4382379 5.1340246 -1.2010685 0
3.4312665 5.1609573 -1.2046711 0
3.3888526 5.1344175 -1.1958174 0
3.3556807 5.1214266 -1.1901646 0
3.3810418 5.1980677 -1.2053339 0
3.3585727 5.2015967 -1.2035344 0
3.3410478 5.2127247 -1.2035105 0
3.3183286 5.2156878 -1.2016191 0
3.2814498 5.1961079 -1.1945667 0
3.261899 5.2037129 -1.1937943 0
3.2402802 5.2079449 -1.192266 0
3.2681575 5.2922268 -1.2090455 0
3.2223051 5.2573247 -1.198597 0
3.2162285 5.2871156 -1.2029237 0
3.1914854 5.2862778 -1.2002918 0
3.189775 5.3237047 -1.2063546 0
3.1552274 5.3063173 -1.2000108 0
3.1382954 5.3183522 -1.2003461 0
3.1248422 5.3363519 -1.2020371 0
3.1046832 5.342927 -1.2011666 0
3.0885088 5.3563533 -1.2018503 0
3.0322418 5.2997541 -1.1868628 0
3.0275655 5.332983 -1.1920245 0
3.0273905 5.374567 -1.1990438 0
3.0042417 5.3755407 -1.1970069 0
2.9917326 5.3955579 -1.199224 0
3.0004475 5.4543161 -1.2100409 0
2.9492302 5.4040365 -1.196686 0
2.9269795 5.4062934 -1.1950059 0
2.9179089 5.4329686 -1.1987329 0
2.8964651 5.4366922 -1.1974051 0
2.9058228 5.4986038 -1.2088882 0
2.8662245 5.4679747 -1.2000347 0
2.8440681 5.4702311 -1.1984304 0
2.84496 5.5170636 -1.2065941 0
2.8071465 5.4888344 -1.1983551 0
2.7672925 5.4559541 -1.1891441 0
2.784698 5.5362034 -1.2045931 0
2.7365413 5.4862084 -1.1917118 0
2.7204802 5.5001006 -1.1927415 0
2.7097771 5.5249991 -1.1961639 0
2.6787369 5.5083475 -1.1906078 0
2.691828 5.5827832 -1.2047391 0
2.6589718 5.562233 -1.198374 0
2.6613972 5.6156163 -1.2079459 0
2.6311522 5.6002393 -1.202734 0
2.5982955 5.5788298 -1.1962583 0
2.5892935 5.6085582 -1.2007647 0
2.5809886 5.6401844 -1.2056762 0
2.578799 5.6857042 -1.2135516 0
2.529278 5.6265945 -1.1991185 0
2.5192857 5.6549911 -1.2033634 0
2.5181317 5.7037706 -1.2119401 0
2.4681354 5.641645 -1.1969745 0
2.4541166 5.6612163 -1.1993744 0
2.440371 5.6816335 -1.2019598 0
2.4429314 5.7405968 -1.212694 0
2.3819339 5.6497593 -1.191811 0
2.3752863 5.6871834 -1.1980188 0
2.3755825 5.7419524 -1.2078714 0
2.3467133 5.7264495 -1.2029482 0
2.3167171 5.7077184 -1.1973751 0
2.2998533 5.7211404 -1.1985663 0
2.2989504 5.7747669 -1.2081795 0
2.2595 5.7315178 -1.1975392 0
2.24754 5.7576842 -1.2014252 0
2.2257423 5.7587686 -1.2000875 0
2.2112422 5.7787967 -1.2027094 0
2.1900465 5.7814054 -1.2017174 0
2.1659272 5.7761197 -1.1991026 0
2.150816 5.7948461 -1.2014863 0
2.1498151 5.8522224 -1.2118813 0
2.0939238 5.759665 -1.1912539 0
2.0995865 5.8361039 -1.2056007 0
2.0649011 5.8006744 -1.1968449 0
2.0631623 5.8578811 -1.2072142 0
2.0357296 5.8424354 -1.2026178 0
2.0097158 5.8306208 -1.1987921 0
1.9968681 5.8570147 -1.2028354 0
1.9634542 5.822854 -1.1944613 0
1.9404639 5.8190398 -1.1923375 0
1.9386621 5.8792486 -1.203336 0
1.9088866 5.8548827 -1.1970321 0
1.9057517 5.9124589 -1.2074904 0
1.8635191 5.8485193 -1.1931494 0
1.8397424 5.8415346 -1.1904594 0
1.8346101 5.8941379 -1.1999192 0
1.8200202 5.9171042 -1.2033457 0
1.7977383 5.9151688 -1.2017195 0
1.7723266 5.9026151 -1.1979551 0
1.7606959 5.9360676 -1.2035396 0
1.7399758 5.9391809 -1.2029812 0
1.7175926 5.9364767 -1.2012603 0
1.7009317 5.9535871 -1.2035619 0
1.6808683 5.9589286 -1.2034956 0
1.6513839 5.930429 -1.1966147 0
1.640275 5.9678922 -1.2030574 0
1.610836 5.9386277 -1.1960626 0
1.5979518 5.9702826 -1.2013522 0
1.5886666 6.016283 -1.2095299 0
1.5470421 5.93925 -1.1929934 0
1.5435823 6.0084829 -1.2058537 0
1.5171828 5.9889708 -1.2009101 0
1.4940281 5.9817472 -1.1984504 0
1.4712224 5.9755874 -1.1962214 0
1.4604809 6.0188203 -1.2038888 0
1.4323685 5.9905419 -1.1972653 0
1.4247493 6.0482645 -1.2078401 0
1.3895545 5.9887562 -1.1950192 0
1.3758568 6.0213432 -1.2005945 0
1.3622307 6.0551262 -1.206413 0
1.3248154 5.9824152 -1.1910346 0
1.3168906 6.0425305 -1.202117 0
1.2948747 6.0387545 -1.2004954 0
1.276009 6.0496449 -1.2018031 0
1.2559972 6.0552325 -1.2020698 0
1.2366214 6.0639863 -1.2029778 0
1.2140219 6.0568175 -1.2007413 0
1.1912467 6.0483584 -1.1982658 0
1.1663913 6.0286989 -1.1935894 0
1.1473827 6.0389504 -1.1948508 0
1.1366806 6.0939722 -1.2049764 0
1.108359 6.0546842 -1.1964663 0
1.0855222 6.0442772 -1.193684 0
1.0674833 6.0605578 -1.1961856 0
1.0403712 6.0248036 -1.1884336 0
1.0298682 6.0855937 -1.199737 0
1.0076277 6.0779686 -1.1975609 0
0.99761373 6.1451907 -1.2101401 0
0.96478605 6.0716076 -1.1950061 0
0.94675481 6.0898032 -1.1979557 0
0.93270946 6.1348939 -1.2062038 0
0.91012818 6.1244817 -1.20355 0
0.88025063 6.0631771 -1.1909161 0
0.86431682 6.0971317 -1.1970094 0
0.84503287 6.1084056 -1.1986598 0
0.82476038 6.1127801 -1.1989689 0
0.80300146 6.1059361 -1.1970916 0
0.77491188 6.0491648 -1.1854453 0
0.76396847 6.1266522 -1.2001216 0
0.74522012 6.1439986 -1.2030234 0
0.72258025 6.1291919 -1.199643 0
0.70730066 6.1776485 -1.2086563 0
0.68125731 6.1320376 -1.199279 0
0.65436292 6.0755062 -1.1877869 0
0.63982171 6.1335788 -1.1987143 0
0.61809367 6.1241984 -1.1964693 0
0.59976465 6.1488705 -1.2008898 0
0.57588553 6.1162267 -1.1941307 0
0.55924982 6.1608005 -1.2024603 0
0.53270745 6.0953245 -1.1893255 0
0.51794618 6.1646585 -1.2025083 0
0.49580777 6.1481748 -1.198962 0
0.47712243 6.1747947 -1.2038344 0
0.45516783 6.1594577 -1.2005401 0
0.43449807 6.160727 -1.2004968 0
0.41481271 6.1766343 -1.2033187 0
0.39601946 6.2080603 -1.2091756 0
0.3777993 6.2523236 -1.2175435 0
0.35319445 6.1897664 -1.205124 0
0.32917026 6.1300364 -1.1932732 0
0.31013247 6.1612415 -1.1991385 0
0.29016331 6.1769361 -1.2019969 0
0.26751474 6.1334672 -1.193357 0
0.2494417 6.1962528 -1.2054033 0
0.22664551 6.1423125 -1.1947553 0
0.20610014 6.144526 -1.1950448 0
0.18574926 6.1535215 -1.1966664 0
0.16516387 6.1558709 -1.197009 0
0.14488614 6.1718388 -1.2000127 0
0.12485329 6.2051396 -1.2063993 0
0.10403892 6.2049866 -1.2062949 0
0.082614422 6.1590958 -1.1973128 0
0.062531948 6.215826 -1.2082936 0
0.041348971 6.1649899 -1.1983777 0
0.020996938 6.2599745 -1.2168208 0
8.1227818e-06 6.122108 -1.1900154 0
-0.020825582 6.2138033 -1.2078459 0
-0.041472364 6.1858349 -1.2024297 0
-0.062175933 6.1820683 -1.2017313 0
-0.082814164 6.175209 -1.2004452 0
-0.10293446 6.1400871 -1.1936779 0
-0.1246326 6.1949897 -1.2044258 0
-0.14379662 6.1261206 -1.1911235 0
-0.16649732 6.2061844 -1.2067922 0
-0.18502684 6.1301284 -1.1921171 0
-0.20718317 6.1773038 -1.2014196 0
-0.22705735 6.1539173 -1.1970124 0
-0.24918625 6.1903162 -1.2042482 0
-0.26994011 6.1894526 -1.2042495 0
-0.28828833 6.1373692 -1.1942973 0
-0.31024271 6.1637568 -1.1996279 0
-0.33208141 6.184556 -1.2038858 0
-0.35064027 6.1452909 -1.1964645 0
-0.37230107 6.1616035 -1.1998769 0
-0.39550543 6.2002611 -1.2076564 0
-0.41248 6.1421437 -1.1965991 0
-0.4338834 6.1522441 -1.1988435 0
-0.45602533 6.1712847 -1.2028451 0
-0.47692341 6.1724319 -1.2033736 0
-0.49753895 6.1698465 -1.2031879 0
-0.51407075 6.1187272 -1.1935486 0
-0.53799987 6.1560693 -1.2011778 0
-0.55758756 6.1426697 -1.1989213 0
-0.5786469 6.1457281 -1.1998901 0
-0.59375501 6.0874262 -1.1888893 0
-0.62442452 6.1870899 -1.208756 0
-0.63619351 6.0989537 -1.1919471 0
-0.66595107 6.1832519 -1.2088515 0
-0.68174851 6.1366067 -1.2001722 0
-0.7003417 6.1170115 -1.1967924 0
-0.72926646 6.186048 -1.210771 0
-0.74322313 6.1276698 -1.1998258 0
-0.75862479 6.08393 -1.1917527 0
-0.78732562 6.1461987 -1.2044605 0
-0.803684 6.1112509 -1.1981332 0
-0.83179289 6.1650257 -1.2092159 0
-0.84719902 6.1241837 -1.2017555 0
-0.87361634 6.1628513 -1.2099112 0
-0.88865674 6.1211929 -1.2023109 0
-0.90408856 6.0839505 -1.1955845 0
-0.93132818 6.1259179 -1.2044386 0
-0.95284444 6.1290803 -1.2056817 0
-0.97224098 6.118628 -1.2042601 0
-0.98207951 6.049603 -1.191316 0
-0.99862498 6.0237637 -1.1868802 0
-1.0303558 6.088573 -1.2003238 0
-1.0474666 6.06599 -1.1965573 0
-1.0714025 6.0829039 -1.2005956 0
-1.0823798 6.0268722 -1.190246 0
-1.1115004 6.0719357 -1.1998749 0
-1.1333382 6.0761423 -1.2014502 0
-1.1495576 6.0504842 -1.1971322 0
-1.1806446 6.1024566 -1.2081918 0
-1.1946949 6.0659509 -1.2017505 0
-1.2119662 6.0466447 -1.1987239 0
-1.2409055 6.0850768 -1.2071609 0
-1.2637684 6.0927792 -1.2095228 0
-1.272581 6.0334711 -1.1985894 0
-1.2981291 6.0540099 -1.2035275 0
-1.3306098 6.1055589 -1.2146553 0
-1.332153 6.015625 -1.1976455 0
-1.3676423 6.0792565 -1.21122 0
-1.382568 6.0507889 -1.2064649 0
-1.3919181 5.9990149 -1.1970655 0
-1.4167719 6.0144706 -1.2010908 0
-1.4256901 5.9626808 -1.1916963 0
-1.4572009 6.005372 -1.2011982 0
-1.4687574 5.9656434 -1.1942298 0
-1.4877785 5.9567924 -1.19345 0
-1.5128334 5.971868 -1.1974798 0
-1.5333052 5.9685445 -1.1978375 0
-1.5617917 5.9959397 -1.2043797 0
-1.5821022 5.991488 -1.2045442 0
-1.5944387 5.9572206 -1.198723 0
-1.6232811 5.9845715 -1.205315 0
-1.6271909 5.9203491 -1.1934725 0
-1.6509432 5.9289079 -1.1963069 0
-1.6810327 5.9595718 -1.2036246 0
-1.6857023 5.900341 -1.1927968 0
-1.7246463 5.960916 -1.2062048 0
-1.7374851 5.930737 -1.20127 0
-1.7551113 5.9172974 -1.199733 0
-1.7721164 5.9019718 -1.1978236 0
-1.8039523 5.9356718 -1.2058839 0
-1.8107638 5.8870664 -1.1972359 0
-1.8383641 5.9062538 -1.2023848 0
-1.8388654 5.8388042 -1.1899019 0
-1.8687668 5.8650427 -1.1965194 0
-1.896266 5.8830838 -1.2014902 0
-1.9134718 5.8689995 -1.1999172 0
-1.9418558 5.8889866 -1.205328 0
-1.9406413 5.819623 -1.1924561 0
-1.9826838 5.8799329 -1.2061691 0
-2.0044897 5.8794203 -1.2074357 0
-2.0194273 5.8588457 -1.2045941 0
-2.0433562 5.8643732 -1.2071325 0
-2.0439873 5.8034873 -1.1960036 0
-2.0494716 5.7573791 -1.1879107 0
-2.0824003 5.7883806 -1.1957412 0
-2.0975111 5.7695799 -1.1933033 0
-2.1296306 5.7973242 -1.2005117 0
-2.140732 5.7677245 -1.1958618 0
-2.1815627 5.8178639 -1.2077672 0
-2.1951742 5.7949882 -1.2045395 0
-2.2074285 5.7688756 -1.2006434 0
-2.2189665 5.7412825 -1.1964424 0
-2.2578666 5.7841835 -1.2069534 0
-2.2688868 5.7553735 -1.2025224 0
-2.2823999 5.7332382 -1.1994896 0
-2.2993391 5.7199054 -1.1983063 0
-2.3409421 5.7674456 -1.2099034 0
-2.3514199 5.7379775 -1.2053686 0
-2.3496187 5.6792388 -1.1946777 0
-2.3898661 5.7221351 -1.2053801 0
-2.416353 5.731441 -1.2090402 0
-2.4016452 5.643621 -1.1922066 0
-2.445013 5.6924829 -1.2042537 0
-2.4742439 5.7076879 -1.2092184 0
-2.4606569 5.6245918 -1.193355 0
-2.4836855 5.6257877 -1.1953689 0
-2.5096359 5.6333709 -1.1987612 0
-2.5374744 5.6448684 -1.2030115 0
-2.5525703 5.6279154 -1.2012157 0
-2.5690536 5.6141424 -1.2001078 0
-2.6128592 5.6596427 -1.2117001 0
-2.6026423 5.5882015 -1.1982664 0
-2.6269426 5.5913181 -1.2008165 0
-2.6271653 5.5434241 -1.1924156 0
-2.651217 5.5460486 -1.1948855 0
-2.6810811 5.5605316 -1.1999358 0
-2.7108269 5.5743728 -1.2048773 0
-2.7312779 5.5688744 -1.2056614 0
-2.7346141 5.5287127 -1.1989447 0
-2.7711844 5.5556974 -1.2068046 0
-2.7740755 5.5151215 -1.2000043 0
-2.7855835 5.4920521 -1.1970103 0
-2.7785237 5.4329033 -1.1861423 0
-2.8281014 5.4844065 -1.1994503 0
-2.8328273 5.4486461 -1.1937 0
-2.8509698 5.4389076 -1.1936539 0
-2.8887875 5.4664035 -1.2018071 0
-2.8984935 5.4405346 -1.1982496 0
-2.9393384 5.4729037 -1.2075425 0
-2.9437675 5.4373364 -1.2018658 0
-2.9423692 5.391499 -1.193908 0
-2.9879506 5.431633 -1.205007 0
-3.0149775 5.4375138 -1.2085474 0
-3.0065343 5.3796759 -1.197926 0
-3.0407436 5.3983064 -1.2043381 0
-3.062196 5.3940172 -1.2056649 0
-3.0695956 5.3650737 -1.2014892 0
-3.1010578 5.37815 -1.2067392 0
-3.108598 5.3496966 -1.2026868 0
-3.1453464 5.3713999 -1.2099299 0
-3.1262693 5.2980042 -1.1957517 0
-3.1378491 5.2771235 -1.1934067 0
-3.1748776 5.2988729 -1.2007259 0
-3.1916084 5.2865133 -1.2003431 0
-3.2204239 5.294044 -1.2044981 0
-3.2070415 5.2324529 -1.1929245 0
-3.2580554 5.2758999 -1.2053136 0
-3.2470098 5.2187915 -1.1947472 0
-3.2791204 5.2312174 -1.2001021 0
-3.3015952 5.2280383 -1.2019055 0
-3.3123841 5.2063746 -1.1994716 0
-3.3435988 5.2167354 -1.2044345 0
-3.3452468 5.1809878 -1.198764 0
-3.3735652 5.1866031 -1.2026736 0
-3.4004655 5.1898069 -1.2060534 0
-3.4092057 5.1652842 -1.2030041 0
-3.4079416 5.1259036 -1.1964868 0
-3.4131222 5.0965505 -1.1922996 0
-3.4534514 5.1195612 -1.2003849 0
-3.4806936 5.1228137 -1.203877 0
-3.5260189 5.1522756 -1.213572 0
-3.4993026 5.0766335 -1.1985121 0
-3.521915 5.0729547 -1.2004246 0
-3.5297523 5.0480299 -1.1973202 0
-3.5533645 5.0456905 -1.1995845 0
-3.5818975 5.0501537 -1.203494 0
-3.5930867 5.0301042 -1.2015802 0
-3.5945232 4.9966106 -1.1964514 0
-3.6087289 4.9810429 -1.1956143 0
-3.6311255 4.9767504 -1.1974995 0
-3.6488786 4.9660277 -1.1978564 0
-3.6932051 4.9911971 -1.2069075 0
-3.663182 4.9160643 -1.1917032 0
-3.7123482 4.9473391 -1.2022948 0
-3.7066848 4.9054451 -1.1951274 0
-3.7364881 4.9105697 -1.1994214 0
-3.7545154 4.9000821 -1.1999277 0
-3.7721636 4.8890738 -1.2003224 0
-3.7900827 4.8783913 -1.2008128 0
-3.8140731 4.8754425 -1.2032279 0
-3.8045571 4.8298221 -1.1951104 0
-3.8267972 4.8246894 -1.1970086 0
-3.8383923 4.8061228 -1.1955882 0
-3.8631432 4.8039937 -1.198274 0
-3.8485732 4.7531538 -1.1888049 0
-3.8878586 4.7688904 -1.1959941 0
-3.9270952 4.7841759 -1.203123 0
-3.9190102 4.741818 -1.1957686 0
-3.9186072 4.7090883 -1.1908215 0
-3.9818356 4.7525721 -1.2051867 0
-3.9815288 4.7199683 -1.2002974 0
-3.9824176 4.6890321 -1.195819 0
-4.0094261 4.688879 -1.1992016 0
-4.0103507 4.6582494 -1.1948 0
-4.0242839 4.6428595 -1.1943067 0
-4.0711727 4.6652594 -1.2035732 0
-4.0511637 4.6110315 -1.1930807 0
-4.0892696 4.6230507 -1.1997315 0
-4.1004825 4.6045256 -1.198485 0
-4.1590362 4.6388674 -1.2110463 0
-4.1525359 4.6004901 -1.2046554 0
-4.1602602 4.578094 -1.2024366 0
-4.1496134 4.5357294 -1.1949571 0
-4.1936855 4.5531559 -1.2032456 0
-4.1954684 4.5245543 -1.1993978 0
-4.2200069 4.5205231 -1.2020732 0
-4.1805344 4.4482465 -1.1865745 0
-4.2150526 4.4549494 -1.1921256 0
-4.2880902 4.5018139 -1.2085068 0
-4.2969627 4.4809494 -1.2067664 0
-4.2643843 4.4172339 -1.1934509 0
-4.2406087 4.3632345 -1.1826962 0
-4.3144937 4.4095778 -1.1991724 0
-4.3561411 4.4223833 -1.20662 0
-4.3206573 4.3570433 -1.1927381 0
-4.3588233 4.3661537 -1.199226 0
-4.3462696 4.3244834 -1.1917765 0
-4.397316 4.3460317 -1.2017714 0
-4.4460888 4.3648648 -1.2110944 0
-4.4357848 4.3256388 -1.2043303 0
-4.407362 4.269186 -1.1927204 0
-4.4324651 4.2647896 -1.1956375 0
-4.4693289 4.2714944 -1.2017114 0
-4.4952497 4.2675209 -1.204827 0
-4.4956484 4.2393327 -1.2011175 0
-4.473815 4.1904955 -1.1915237 0
-4.5355363 4.2198486 -1.2041872 0
-4.5292778 4.1857824 -1.1987927 0
-4.5561829 4.1824112 -1.2021954 0
-4.5852585 4.1808605 -1.2061619 0
-4.5524712 4.1230965 -1.1938939 0
-4.5922933 4.1312203 -1.200698 0
-4.6207933 4.1289124 -1.2045233 0
-4.6344147 4.1132226 -1.2044724 0
-4.6333847 4.084619 -1.2006388 0
-4.6080694 4.0349255 -1.1905665 0
-4.6600871 4.0529504 -1.2004884 0
-4.6610446 4.0264139 -1.1972506 0
-4.6982369 4.0311151 -1.2033256 0
-4.6927238 3.999146 -1.1984726 0
-4.7378874 4.0102906 -1.2065662 0
-4.7499843 3.9932711 -1.2062304 0
-4.7489872 3.9653332 -1.2025943 0
-4.7307181 3.9232345 -1.1946303 0
-4.8122334 3.9636803 -1.2118523 0
-4.7656116 3.8985348 -1.1968132 0
-4.8144464 3.9116137 -1.2057769 0
-4.7878675 3.8634417 -1.1958693 0
-4.8345094 3.8743865 -1.2042677 0
-4.8243098 3.8397202 -1.1985135 0
-4.8571081 3.8392947 -1.203457 0
-4.8814831 3.8320391 -1.2063061 0
-4.8855433 3.8088212 -1.204147 0
-4.8664656 3.7677829 -1.1963246 0
-4.896471 3.7648239 -1.200591 0
-4.9396248 3.7717195 -1.2080646 0
-4.9723363 3.7703726 -1.2129662 0
-4.9516072 3.7285733 -1.2048532 0
-4.9477544 3.6997423 -1.2008905 0
-4.9812093 3.6987841 -1.2059937 0
-4.9929919 3.6816268 -1.205851 0
-4.9819779 3.6477838 -1.2002306 0
-5.029366 3.6566417 -1.2086866 0
-5.0229659 3.6263072 -1.2042197 0
-5.0345273 3.6090381 -1.2040837 0
-5.0261426 3.5775771 -1.1992029 0
-5.0401788 3.5621676 -1.1996955 0
-5.0050116 3.5122097 -1.1885151 0
-5.0347257 3.5079272 -1.1927716 0
-5.0798936 3.5141566 -1.2006742 0
-5.1046486 3.5060344 -1.2037399 0
-5.1224117 3.4930162 -1.2051603 0
-5.1097083 3.4593129 -1.1994359 0
-5.1407933 3.4552784 -1.2040066 0
-5.1325622 3.4248192 -1.1993827 0
-5.150703 3.4120212 -1.2009418 0
-5.1473751 3.38504 -1.1975129 0
-5.1531053 3.3641131 -1.1962152 0
-5.1840682 3.3595922 -1.2007812 0
-5.2227588 3.3598545 -1.207127 0
-5.2302551 3.3399367 -1.2062646 0
-5.1761422 3.2810018 -1.1912407 0
-5.2189245 3.2836435 -1.1985462 0
-5.241293 3.2732391 -1.201156 0
-5.2585859 3.2595823 -1.2026076 0
-5.2103763 3.2055676 -1.1891178 0
-5.276938 3.2221789 -1.2018362 0
-5.2793026 3.1993723 -1.1999251 0
-5.3011651 3.1883693 -1.2024577 0
-5.2946315 3.1603143 -1.1985654 0
-5.2935109 3.1356223 -1.1959251 0
-5.3297062 3.1329706 -1.2017225 0
-5.2975659 3.0902252 -1.1921328 0
-5.3582997 3.1016214 -1.2034531 0
-5.3484488 3.0720246 -1.1989204 0
-5.3895798 3.0716636 -1.205825 0
-5.366456 3.0346932 -1.1983684 0
-5.4064889 3.033453 -1.2050301 0
-5.3686981 2.988627 -1.1943669 0
-5.3474174 2.9533391 -1.187423 0
-5.4346466 2.9777799 -1.204569 0
-5.426188 2.9495335 -1.2004955 0
-5.421886 2.9236877 -1.1973681 0
-5.4465814 2.9134758 -1.200658 0
-5.4306645 2.8815851 -1.1950127 0
-5.4656954 2.8767295 -1.200592 0
-5.4456935 2.8429267 -1.1940979 0
-5.4682918 2.831434 -1.1969649 0
-5.5366449 2.843327 -1.2098333 0
-5.5151443 2.8089576 -1.2030703 0
-5.5337443 2.795104 -1.2050767 0
-5.5164566 2.7631967 -1.1992877 0
-5.5122128 2.7379911 -1.1963625 0
-5.5557737 2.7364438 -1.2038189 0
-5.518074 2.6949236 -1.1936857 0
-5.5331731 2.6793585 -1.195002 0
-5.5836525 2.6807289 -1.203956 0
-5.5806098 2.6562815 -1.2013729 0
-5.6009154 2.6429501 -1.2038298 0
-5.6382508 2.6374907 -1.209947 0
-5.6270614 2.6092975 -1.2056615 0
-5.6140075 2.5804095 -1.2010041 0
-5.6212535 2.5609465 -1.2007107 0
-5.6185975 2.5370228 -1.1983196 0
-5.6233554 2.5165071 -1.1975281 0
-5.6536331 2.5073392 -1.202179 0
-5.6543441 2.4850013 -1.2005517 0
-5.5992227 2.43841 -1.1871057 0
-5.637517 2.4326332 -1.1934885 0
-5.660975 2.4202738 -1.1967301 0
-5.6661019 2.4000278 -1.1961061 0
-5.6806045 2.3837395 -1.1974736 0
-5.7027683 2.3705842 -1.2004637 0
-5.749639 2.3674905 -1.2086524 0
-5.7558336 2.347502 -1.2082932 0
-5.7172999 2.3094592 -1.1985718 0
-5.6760373 2.2706854 -1.1883188 0
-5.7033329 2.2594519 -1.1924406 0
-5.7493839 2.2554231 -1.2004811 0
-5.7978282 2.2520261 -1.209013 0
-5.822906 2.2393274 -1.21267 0
-5.7645683 2.1947351 -1.1989814 0
-5.7953711 2.1842432 -1.2038581 0
-5.7959056 2.1622796 -1.2024565 0
-5.8266835 2.151535 -1.2073385 0
-5.8108892 2.1235907 -1.2025836 0
-5.8152728 2.1031182 -1.2020247 0
-5.8066621 2.0780156 -1.1987981 0
-5.7845116 2.0482366 -1.1928005 0
-5.7882385 2.0277419 -1.1921604 0
-5.8179088 2.0162613 -1.1968724 0
-5.8288455 1.9981866 -1.1977372 0
-5.840425 1.980298 -1.1987455 0
-5.8638859 1.9663569 -1.202201 0
-5.8141065 1.9280027 -1.1906633 0
-5.8703885 1.9248438 -1.2008609 0
-5.8485875 1.8960017 -1.195094 0
-5.8831973 1.8854469 -1.2008678 0
-5.8774176 1.8618881 -1.1984071 0
-5.9110312 1.8507519 -1.2039888 0
-5.9071274 1.8278053 -1.2019386 0
-5.9129024 1.8078916 -1.2018735 0
-5.8852615 1.7778854 -1.1950369 0
-5.9384317 1.7722422 -1.20462 0
-5.9140086 1.7433803 -1.1984733 0
-5.8913946 1.7152658 -1.1927184 0
-5.8653793 1.6863797 -1.1863003 0
-5.9810967 1.6979597 -1.2085464 0
-5.928617 1.6616021 -1.1968099 0
-5.9690218 1.6513613 -1.2038419 0
-5.9066219 1.6127982 -1.1901598 0
-5.9535675 1.6041868 -1.1985286 0
-5.9343462 1.5776855 -1.1935875 0
-5.967442 1.5650812 -1.199182 0
-5.9716463 1.5448036 -1.1989794 0
-5.9685817 1.5226786 -1.1973323 0
-5.9571257 1.4985009 -1.1940194 0
-6.0341773 1.4963894 -1.2084509 0
-5.9794669 1.4615588 -1.1965061 0
-5.9971714 1.4445949 -1.199073 0
-6.0451474 1.4347242 -1.2076967 0
-6.0220051 1.4079206 -1.2021234 0
-5.9898124 1.3792301 -1.1947672 0
-6.0136523 1.3635042 -1.1986039 0
-6.0706005 1.3550324 -1.2090422 0
-5.984611 1.3147892 -1.1910316 0
-6.0158238 1.3005185 -1.1963689 0
-6.0013776 1.2763487 -1.1926382 0
-6.046237 1.2647154 -1.2007035 0
-6.0868025 1.2519147 -1.207919 0
-6.0637455 1.2259963 -1.2025208 0
-6.1035194 1.2127517 -1.2095954 0
-6.0127487 1.1737741 -1.1908199 0
-6.0729518 1.164403 -1.2019631 0
-6.0524058 1.1394384 -1.1971338 0
-6.0643501 1.120647 -1.1987463 0
-6.0902896 1.1043365 -1.2031351 0
-6.0623989 1.0782974 -1.1969044 0
-6.0720072 1.0590163 -1.1980937 0
-6.1092758 1.0444223 -1.2047495 0
-6.0965972 1.0212286 -1.2015674 0
-6.1283808 1.0054405 -1.2071604 0
-6.0381093 0.96985203 -1.1887316 0
-6.1153827 0.96124226 -1.2033032 0
-6.1317863 0.942765 -1.2059022 0
-6.1766319 0.92847222 -1.2141026 0
-6.1037292 0.89659685 -1.199175 0
-6.1130891 0.87704366 -1.2004294 0
-6.1299114 0.8584916 -1.2031608 0
-6.1663146 0.84251964 -1.2097447 0
-6.1447601 0.81859726 -1.2049708 0
-6.0725822 0.78826934 -1.1902919 0
-6.1168947 0.77317607 -1.1984628 0
-6.1208668 0.75283682 -1.1987396 0
-6.0996418 0.72947443 -1.1940972 0
-6.160831 0.71584892 -1.2055992 0
-6.1813812 0.69724 -1.2091564 0
-6.1115236 0.66861653 -1.1950462 0
-6.1658998 0.65365243 -1.2052436 0
-6.1774735 0.63394207 -1.2070837 0
-6.1299286 0.60830098 -1.1973881 0
-6.1449237 0.58899015 -1.1999246 0
-6.1675768 0.57029939 -1.203968 0
-6.1354022 0.54658383 -1.1973227 0
-6.1646972 0.52836663 -1.2026871 0
-6.120533 0.50391549 -1.1937348 0
-6.1546588 0.48595545 -1.2000661 0
-6.244843 0.47201329 -1.2173351 0
-6.1685643 0.44545278 -1.202168 0
-6.1825533 0.42563087 -1.2046093 0
-6.1629062 0.40352198 -1.2005109 0
-6.1548762 0.38227603 -1.1986903 0
-6.2103038 0.36482054 -1.2092401 0
-6.1406302 0.34007213 -1.1954448 0
-6.1705122 0.32097873 -1.2010459 0
-6.1872897 0.30105403 -1.2041084 0
-6.1393757 0.27809304 -1.1945956 0
-6.1424665 0.25759929 -1.1950222 0
-6.1347122 0.23667216 -1.1933526 0
-6.1248546 0.21572836 -1.1912876 0
-6.1340623 0.19546311 -1.1929443 0
-6.1613207 0.17565508 -1.1981243 0
-6.2054605 0.1560927 -1.206599 0
-6.1851578 0.13483284 -1.2025567 0
-6.1966848 0.11429934 -1.2047166 0
-6.19069 0.09342666 -1.2034835 0
-6.1456723 0.072138235 -1.1946782 0
-6.1442451 0.051518843 -1.1943604 0
-6.1951685 0.031173605 -1.2042321 0
-6.1700878 0.010359972 -1.1993434 0
-6.1218724 1.6244938e-05 -1.1899697 0
-7.5772882 -0.012722751 -1.2001244 0
-7.5838847 -0.03816152 -1.2011827 0
-7.5471325 -0.063281909 -1.1953886 0
-7.5873995 -0.089061305 -1.201807 0
-7.6013923 -0.11471625 -1.2040775 0
-7.5537481 -0.1393307 -1.1965978 0
-7.6138124 -0.16597669 -1.206194 0
-7.5610776 -0.19019201 -1.197934 0
-7.5853248 -0.21625246 -1.2018837 0
-7.546411 -0.24046788 -1.1958389 0
-7.6168633 -0.26827955 -1.2071389 0
-7.5621905 -0.2917431 -1.1986226 0
-7.6231675 -0.31969607 -1.2084506 0
-7.6103668 -0.34472397 -1.2065978 0
-7.5502191 -0.36736989 -1.1972501 0
-7.5670252 -0.39362279 -1.2001177 0
-7.5174608 -0.4163219 -1.1924715 0
-7.5540648 -0.44375896 -1.1985072 0
-7.5854249 -0.47112662 -1.2037265 0
-7.5301232 -0.49304175 -1.1952063 0
-7.5750732 -0.52149731 -1.2026117 0
-7.5501533 -0.54522198 -1.198939 0
-7.514214 -0.56795806 -1.1935276 0
-7.6017241 -0.60021186 -1.2077402 0
-7.5518398 -0.62175775 -1.2001392 0
-7.5232244 -0.64480394 -1.1959285 0
-7.5684805 -0.67425233 -1.2034751 0
-7.5473719 -0.69788533 -1.200484 0
-7.556911 -0.72432899 -1.2023808 0
-7.5240607 -0.74664712 -1.1975456 0
-7.5113006 -0.77082145 -1.1959193 0
-7.5150208 -0.79667395 -1.1969302 0
-7.5399466 -0.82488966 -1.2013339 0
-7.5120602 -0.84733629 -1.1973367 0
-7.5009265 -0.87155944 -1.1960211 0
-7.5252776 -0.89997041 -1.2003783 0
-7.5414548 -0.9275623 -1.2034481 0
-7.5263181 -0.95132726 -1.2015347 0
-7.5135531 -0.97531885 -1.2000123 0
-7.5151458 -1.0011584 -1.200796 0
-7.4758425 -1.0214438 -1.1950564 0
-7.5380077 -1.0556949 -1.2055531 0
-7.5129967 -1.0778881 -1.2021242 0
-7.4913383 -1.1004273 -1.1992424 0
-7.4885678 -1.1256826 -1.1993963 0
-7.483984 -1.150666 -1.1992733 0
-7.4367099 -1.1689342 -1.1923192 0
-7.5125232 -1.2066749 -1.2051162 0
-7.4907336 -1.2289522 -1.202275 0
-7.5141306 -1.2586766 -1.2067008 0
-7.4662862 -1.2764124 -1.199698 0
-7.5153408 -1.3107476 -1.2082795 0
-7.4943266 -1.3329892 -1.2056128 0
-7.4391952 -1.34893 -1.1974646 0
-7.4433103 -1.3754685 -1.1988626 0
-7.4862447 -1.4093759 -1.2065321 0
-7.400321 -1.4189073 -1.1934441 0
-7.4303908 -1.450518 -1.199071 0
-7.4503493 -1.4803629 -1.203086 0
-7.5003204 -1.5164497 -1.2119696 0
-7.4336367 -1.5289273 -1.2020159 0
-7.4348278 -1.5551724 -1.2030448 0
-7.4460258 -1.5835907 -1.2057092 0
-7.4030385 -1.6004107 -1.1996105 0
-7.4370308 -1.6338786 -1.2059996 0
-7.3543935 -1.6415908 -1.1934849 0
-7.3504734 -1.666608 -1.1937488 0
-7.3535962 -1.6932585 -1.1951712 0
-7.3450704 -1.717248 -1.1947145 0
-7.3819427 -1.7519923 -1.2016609 0
-7.4074383 -1.784299 -1.206778 0
-7.3022604 -1.7848886 -1.1906114 0
-7.3584185 -1.8247824 -1.2007586 0
-7.2875829 -1.8331742 -1.1901958 0
-7.3698316 -1.8801594 -1.2046514 0
-7.3625689 -1.9046211 -1.2045013 0
-7.3178201 -1.919245 -1.1982265 0
-7.2239223 -1.9205279 -1.1838992 0
-7.324595 -1.9736097 -1.2014757 0
-7.2892833 -1.9903328 -1.1967714 0
-7.3138633 -2.0234189 -1.201914 0
-7.262712 -2.0355065 -1.194623 0
-7.2605295 -2.0611749 -1.195394 0
-7.2855253 -2.0946918 -1.2006589 0
-7.274672 -2.1180038 -1.2000339 0
-7.2881327 -2.1484561 -1.2034359 0
-7.2580047 -2.1660504 -1.1996535 0
-7.2246809 -2.1825123 -1.1953483 0
-7.2366667 -2.2126374 -1.1985521 0
-7.2457504 -2.242007 -1.2012948 0
-7.2123742 -2.2582042 -1.1970098 0
-7.2137861 -2.2852318 -1.198509 0
-7.2086444 -2.3102262 -1.1989349 0
-7.2330966 -2.3448334 -1.2043025 0
-7.2549462 -2.3788271 -1.2092617 0
-7.2197809 -2.3941355 -1.2047316 0
-7.1761079 -2.4063888 -1.1987835 0
-7.1399484 -2.4209242 -1.1940923 0
-7.1882882 -2.4642172 -1.2035517 0
-7.1741133 -2.486269 -1.2025673 0
-7.1589327 -2.5079248 -1.2014253 0
-7.1626382 -2.536217 -1.2034676 0
-7.1317 -2.5522037 -1.1997004 0
-7.0927997 -2.5651412 -1.1945965 0
-7.0737944 -2.5851195 -1.1928487 0
-7.1255527 -2.6311495 -1.2030575 0
-7.1377535 -2.6628833 -1.2066182 0
-7.111414 -2.6802526 -1.2036779 0
-7.1122146 -2.7078221 -1.2053432 0
-7.0229888 -2.700846 -1.1917497 0
-7.063942 -2.7438173 -1.2002535 0
-7.0642743 -2.7712409 -1.201882 0
-7.0780048 -2.8040466 -1.2058108 0
-6.9950509 -2.7983537 -1.1932704 0
-6.9720302 -2.8162978 -1.1909474 0
-7.0335703 -2.868624 -1.2030958 0
-7.0418839 -2.8995898 -1.206174 0
-7.0105553 -2.9142182 -1.2024747 0
-6.981297 -2.9295459 -1.1991341 0
-6.9980888 -2.9642262 -1.2037188 0
-6.9561281 -2.973999 -1.1982096 0
-7.0070519 -3.0235984 -1.2087208 0
-6.9698677 -3.0353134 -1.2040553 0
-6.9439759 -3.0517757 -1.2013433 0
-6.9386454 -3.0772314 -1.2021992 0
-6.9007692 -3.0881629 -1.1974241 0
-6.9170413 -3.1233225 -1.2020578 0
-6.8909221 -3.1393857 -1.1993413 0
-6.88341 -3.1638751 -1.1998734 0
-6.8855886 -3.1928833 -1.2021124 0
-6.8332701 -3.1965032 -1.1948428 0
-6.7986116 -3.2081168 -1.1906567 0
-6.8622952 -3.2663434 -1.2037209 0
-6.79772 -3.2636065 -1.1943064 0
-6.8606811 -3.3221848 -1.2073184 0
-6.8263063 -3.3338394 -1.2032295 0
-6.8104634 -3.3544292 -1.2024126 0
-6.8153954 -3.3852997 -1.2052805 0
-6.7972746 -3.4047594 -1.204088 0
-6.7431259 -3.4059651 -1.1965122 0
-6.7532539 -3.439548 -1.2003489 0
-6.7894583 -3.4867055 -1.208855 0
-6.7046518 -3.4716103 -1.195821 0
-6.7023826 -3.4989817 -1.1975019 0
-6.7261257 -3.5401249 -1.203858 0
-6.6573644 -3.5324888 -1.1936641 0
-6.6640582 -3.5647261 -1.1970005 0
-6.665616 -3.5943546 -1.1994382 0
-6.6293216 -3.6035252 -1.1950747 0
-6.6727052 -3.6561434 -1.2050985 0
-6.6318936 -3.6627462 -1.1999391 0
-6.6220384 -3.6863317 -1.2003855 0
-6.6355171 -3.7230315 -1.2050847 0
-6.5966854 -3.7303793 -1.2002972 0
-6.5237684 -3.7180676 -1.1892911 0
-6.5833344 -3.7813141 -1.2024546 0
-6.5768151 -3.8069522 -1.2035885 0
-6.5890369 -3.8435781 -1.2081766 0
-6.5049472 -3.8238146 -1.195102 0
-6.5551248 -3.8829417 -1.2067057 0
-6.4887052 -3.8730457 -1.1968626 0
-6.4649224 -3.8883071 -1.1948737 0
-6.4389744 -3.9021585 -1.1924893 0
-6.4638762 -3.9469416 -1.1995451 0
-6.4669991 -3.9786766 -1.2025934 0
-6.4318247 -3.986825 -1.1985315 0
-6.4084368 -4.0021319 -1.1966671 0
-6.3861456 -4.0180359 -1.1950135 0
-6.3896642 -4.0502172 -1.1982062 0
-6.3592677 -4.0609016 -1.1950527 0
-6.3550882 -4.0882936 -1.1968365 0
-6.3491583 -4.1146412 -1.1983111 0
-6.3508053 -4.1460104 -1.2012388 0
-6.3276906 -4.1612444 -1.1994989 0
-6.3428278 -4.2017298 -1.2050321 0
-6.3118978 -4.2117577 -1.2018321 0
-6.3153815 -4.2447534 -1.2051984 0
-6.2513914 -4.2322412 -1.1956881 0
-6.2747302 -4.2787924 -1.2028892 0
-6.2291164 -4.2783546 -1.1968881 0
-6.2668533 -4.3352685 -1.206925 0
-6.2394772 -4.3473334 -1.2044531 0
-6.192605 -4.3455901 -1.1982108 0
-6.2101545 -4.3890533 -1.2044472 0
-6.1935201 -4.4085093 -1.2040808 0
-6.1224308 -4.3889098 -1.1931145 0
-6.1867094 -4.4664669 -1.2085524 0
-6.101614 -4.4362283 -1.1948282 0
-6.1177149 -4.4793653 -1.2009152 0
-6.1479778 -4.5332661 -1.2098328 0
-6.079134 -4.5140457 -1.1992569 0
-6.0792809 -4.5458546 -1.2022858 0
-6.0689316 -4.5699215 -1.2032626 0
-6.0365958 -4.5773687 -1.1998875 0
-6.0458775 -4.6164141 -1.2048022 0
-5.9930873 -4.607996 -1.1973544 0
-6.0060205 -4.6500649 -1.2030464 0
-5.941731 -4.632236 -1.1932732 0
-5.9514008 -4.6719408 -1.1983542 0
-5.9290457 -4.6866064 -1.1970102 0
-5.9079785 -4.7022243 -1.1959331 0
-5.9007878 -4.7289047 -1.1976804 0
-5.9198112 -4.7768331 -1.2047855 0
-5.878509 -4.7761369 -1.199632 0
-5.8806953 -4.8107352 -1.2033629 0
-5.8175454 -4.7917233 -1.1937215 0
-5.8482809 -4.8500409 -1.2033582 0
-5.7918067 -4.8360724 -1.1950675 0
-5.7977734 -4.8741384 -1.1996639 0
-5.7923613 -4.9028292 -1.2019386 0
-5.7451901 -4.8960595 -1.1955501 0
-5.7243237 -4.9115033 -1.194628 0
-5.738513 -4.9571786 -1.201051 0
-5.7142615 -4.9697824 -1.199456 0
-5.6930499 -4.9849577 -1.198505 0
-5.6909819 -5.0169568 -1.2016042 0
-5.6599112 -5.0233908 -1.1985934 0
-5.6223326 -5.023839 -1.1941956 0
-5.6119285 -5.0484829 -1.1955744 0
-5.6076908 -5.0787907 -1.1982925 0
-5.6242599 -5.1282268 -1.2055005 0
-5.5805192 -5.1227155 -1.1997999 0
-5.5579338 -5.136426 -1.1986399 0
-5.5605602 -5.1735272 -1.2029403 0
-5.5145111 -5.1652856 -1.1967182 0
-5.5469298 -5.2306762 -1.2075527 0
-5.4602089 -5.1835957 -1.1924505 0
-5.4631329 -5.2213078 -1.1969055 0
-5.4412646 -5.2354279 -1.1959535 0
-5.4596891 -5.2885213 -1.2038935 0
-5.4328051 -5.2979012 -1.2018754 0
-5.4163237 -5.3173752 -1.2021668 0
-5.4036598 -5.3406391 -1.2033236 0
-5.3838115 -5.3568239 -1.2028964 0
-5.369297 -5.3783269 -1.2036756 0
-5.3576899 -5.4028087 -1.2051277 0
-5.3147869 -5.3956075 -1.1995399 0
-5.3090658 -5.4260688 -1.2023479 0
-5.2974648 -5.4506516 -1.2038527 0
-5.2875948 -5.4771194 -1.2057761 0
-5.2316375 -5.4556446 -1.1971802 0
-5.2313395 -5.4920759 -1.201319 0
-5.2373009 -5.5353789 -1.2069432 0
-5.1615462 -5.4920802 -1.1937221 0
-5.1466794 -5.5131855 -1.1945522 0
-5.1255946 -5.527638 -1.1939533 0
-5.155416 -5.5973225 -1.2052646 0
-5.1405802 -5.6189046 -1.2061937 0
-5.0554547 -5.5631962 -1.1905897 0
-5.0582819 -5.6039433 -1.1956737 0
-5.0641418 -5.6483955 -1.2015287 0
-5.0480781 -5.6686025 -1.2022201 0
-5.0650902 -5.7262473 -1.2108371 0
-4.9600205 -5.6454921 -1.1902379 0
-4.9770169 -5.703289 -1.1988984 0
-4.9734087 -5.7378745 -1.2026566 0
-4.9590268 -5.7601905 -1.2038423 0
-4.9192877 -5.7529297 -1.198871 0
-4.917398 -5.7899094 -1.2031347 0
-4.881784 -5.78719 -1.1991618 0
-4.846386 -5.7844677 -1.1952239 0
-4.8595839 -5.8398838 -1.203301 0
-4.8470254 -5.8646731 -1.2050534 0
-4.7748475 -5.8169479 -1.1919508 0
-4.7647018 -5.8444357 -1.1943032 0
-4.7849336 -5.9095988 -1.204334 0
-4.7688665 -5.9303017 -1.2052878 0
-4.686379 -5.8679028 -1.1894056 0
-4.7169113 -5.9469137 -1.2022085 0
-4.6920662 -5.9565005 -1.2009594 0
-4.6595597 -5.9562082 -1.1977439 0
-4.6574602 -5.9948335 -1.2023642 0
-4.611033 -5.976326 -1.1955447 0
-4.5950546 -5.9970841 -1.1966087 0
-4.6015201 -6.0474124 -1.2035655 0
-4.5751328 -6.0547533 -1.2019669 0
-4.5330777 -6.0411015 -1.1962328 0
-4.5376592 -6.0896301 -1.2028229 0
-4.4776006 -6.0512714 -1.1922742 0
-4.4838076 -6.1023445 -1.1993684 0
-4.4636431 -6.1177826 -1.1994545 0
-4.4423547 -6.1316772 -1.1992517 0
-4.4439936 -6.1774268 -1.2052786 0
-4.399343 -6.158814 -1.1987624 0
-4.3808932 -6.1766658 -1.1993713 0
-4.3572059 -6.1871252 -1.1985589 0
-4.3510513 -6.2226 -1.2025982 0
-4.3483257 -6.2633142 -1.2076423 0
-4.3132291 -6.257442 -1.203715 0
-4.2730761 -6.2438879 -1.1983449 0
-4.2666979 -6.2796383 -1.202454 0
-4.2431459 -6.2902422 -1.2017535 0
-4.2147102 -6.2934995 -1.1996694 0
-4.1748176 -6.279366 -1.1943003 0
-4.155869 -6.2965536 -1.1949123 0
-4.1557126 -6.3424692 -1.2009749 0
-4.1278129 -6.3462019 -1.1990544 0
-4.1033835 -6.3551607 -1.1981409 0
-4.0931826 -6.3862481 -1.2014077 0
-4.0725541 -6.4012032 -1.2016456 0
-4.0520043 -6.4163022 -1.2019229 0
-4.0228724 -6.4177332 -1.1996576 0
-4.0004272 -6.4297299 -1.1993862 0
-3.990797 -6.4624577 -1.2029884 0
-3.9523039 -6.4483867 -1.1978956 0
-3.9056346 -6.4204597 -1.1902685 0
-3.9051087 -6.4683399 -1.1967108 0
-3.8999705 -6.5090537 -1.2018173 0
-3.8719409 -6.511693 -1.1999009 0
-3.8421395 -6.5111704 -1.1974241 0
-3.8248446 -6.5317984 -1.1988525 0
-3.8173954 -6.5694914 -1.2034149 0
-3.7799411 -6.5555339 -1.1985297 0
-3.7719495 -6.5926557 -1.2029977 0
-3.7547655 -6.6139693 -1.2045829 0
-3.6811509 -6.5352373 -1.1879892 0
-3.6873264 -6.5978365 -1.1971145 0
-3.6854582 -6.6467261 -1.2037363 0
-3.6739247 -6.678628 -1.2072762 0
-3.6393092 -6.6685486 -1.2032417 0
-3.6152685 -6.6776438 -1.2026888 0
-3.5762625 -6.6588249 -1.1971332 0
-3.5689101 -6.6989212 -1.2021837 0
