# .PCD v0.7 - Point Cloud Data file format
VERSION 0.7
FIELDS x y z intensity
SIZE 4 4 4 4
TYPE F F F F
COUNT 1 1 1 1
WIDTH 1403
HEIGHT 1
VIEWPOINT 0 0 0 1 0 0 0
POINTS 1403
DATA ascii
3.5094552 6.6950836 -1.1972466 0
3.4932995 6.7189517 -1.1994134 0
3.4640245 6.7175794 -1.1970885 0
3.4385216 6.7233667 -1.1960586 0
3.4175825 6.7380562 -1.1966267 0
3.3982522 6.7559986 -1.197783 0
3.3959608 6.8082104 -1.2050142 0
3.364104 6.8013401 -1.2017951 0
3.3693609 6.869833 -1.2118948 0
3.3166163 6.8200336 -1.2011414 0
3.2940483 6.8317723 -1.201257 0
3.2492335 6.7969861 -1.193218 0
3.2090397 6.7711558 -1.186788 0
3.2177224 6.8487167 -1.1984845 0
3.2035859 6.8784556 -1.2018023 0
3.2014208 6.9344611 -1.2097054 0
3.1581421 6.9014273 -1.2020887 0
3.1466169 6.9376225 -1.2065488 0
3.1113205 6.9213982 -1.2019062 0
3.0709393 6.8932776 -1.1952283 0
3.0827091 6.9825835 -1.2089143 0
3.0323248 6.9312649 -1.1982623 0
3.0268526 6.9824176 -1.2053443 0
3.0001526 6.9849091 -1.2040311 0
2.9594002 6.9542365 -1.1970268 0
2.9483454 6.9932427 -1.2020327 0
2.9195724 6.9903755 -1.1998506 0
2.8888831 6.9826369 -1.1968529 0
2.875267 7.0162258 -1.2009511 0
2.8503017 7.022316 -1.200351 0
2.8252218 7.0280528 -1.1997057 0
2.8207223 7.0854139 -1.2078762 0
2.7699711 7.0263944 -1.196225 0
2.7526946 7.051774 -1.1989678 0
2.7226787 7.0445161 -1.196175 0
2.7030008 7.0639443 -1.1979283 0
2.6919625 7.10639 -1.2035891 0
2.6590655 7.0912266 -1.1995041 0
2.6350064 7.0993786 -1.1993819 0
2.6153507 7.119503 -1.2012936 0
2.5887396 7.1207337 -1.20003 0
2.5588062 7.1125722 -1.197202 0
2.5322981 7.1136761 -1.1959519 0
2.5176146 7.1481957 -1.2003295 0
2.4830601 7.1262503 -1.1952398 0
2.4808173 7.1973882 -1.2057693 0
2.434428 7.1404209 -1.1948516 0
2.4214406 7.1810665 -1.2002878 0
2.3958097 7.184525 -1.1995165 0
2.3768167 7.2080107 -1.2021004 0
2.3478141 7.201149 -1.1996365 0
2.3191547 7.195013 -1.1973121 0
2.2973483 7.2100611 -1.1985278 0
2.2832713 7.249824 -1.2038583 0
2.2547164 7.2438331 -1.2016014 0
2.2344949 7.2646117 -1.2037985 0
2.1880226 7.1993365 -1.1917597 0
2.1766768 7.2492762 -1.1988118 0
2.1526606 7.2575507 -1.1989799 0
2.1274004 7.2616043 -1.1984644 0
2.1009908 7.2616072 -1.1972955 0
2.0910935 7.3192286 -1.2056334 0
2.0411496 7.2361794 -1.1908194 0
2.0370915 7.315578 -1.2027549 0
2.0068331 7.301558 -1.1993369 0
1.9863786 7.3231306 -1.2017796 0
1.9604452 7.3246341 -1.200941 0
1.9417886 7.3535566 -1.2046088 0
1.9178555 7.3628397 -1.2050693 0
1.8890431 7.353209 -1.2024497 0
1.8456818 7.285697 -1.1903911 0
1.8290249 7.3229976 -1.1954769 0
1.801056 7.3152552 -1.1932204 0
1.8020998 7.4266734 -1.2104019 0
1.763165 7.3740196 -1.2008501 0
1.7391995 7.3831506 -1.2013807 0
1.7194275 7.4104552 -1.2048789 0
1.6834463 7.3674879 -1.1969683 0
1.6546988 7.3551502 -1.1940558 0
1.6316128 7.3678079 -1.1952158 0
1.6149518 7.4101791 -1.2012042 0
1.5923392 7.4260049 -1.2028974 0
1.5657474 7.4233141 -1.2016045 0
1.5383681 7.4165583 -1.1996692 0
1.5077255 7.3933921 -1.1950976 0
1.4853935 7.4107041 -1.1970842 0
1.4751662 7.4899125 -1.2090733 0
1.440938 7.447742 -1.2014792 0
1.4174029 7.4601302 -1.2027043 0
1.3799622 7.3982534 -1.1919761 0
1.3611695 7.4357238 -1.1972711 0
1.3390677 7.4560394 -1.1998127 0
1.3166074 7.4749413 -1.2021371 0
1.2878814 7.4581389 -1.1987338 0
1.2636397 7.4669728 -1.1994659 0
1.2337668 7.44203 -1.194788 0
1.2168124 7.49543 -1.2026994 0
1.1871184 7.4707942 -1.198101 0
1.1636537 7.4849601 -1.1997404 0
1.1355799 7.469274 -1.1966091 0
1.1137217 7.494514 -1.2000477 0
1.0909718 7.5146275 -1.2026758 0
1.0580536 7.4638052 -1.1939676 0
1.0415353 7.5288434 -1.2038062 0
1.0104383 7.4889479 -1.1968788 0
0.98590839 7.4967403 -1.1975892 0
0.96368283 7.5227594 -1.2012228 0
0.93752688 7.5185056 -1.2000347 0
0.90959388 7.4991841 -1.1964574 0
0.88753295 7.5283813 -1.2006342 0
0.86492807 7.5543852 -1.204312 0
0.83476692 7.5137863 -1.1973869 0
0.81296426 7.5480585 -1.2024072 0
0.78898162 7.5634828 -1.2044363 0
0.76202655 7.5503154 -1.2019258 0
0.73580015 7.5435257 -1.2004455 0
0.7172327 7.6174126 -1.211814 0
0.68500143 7.546104 -1.2000978 0
0.65740025 7.5220795 -1.1959199 0
0.63847888 7.5992537 -1.2078425 0
0.60793126 7.5385418 -1.1978621 0
0.5836879 7.5539374 -1.1999906 0
0.56157649 7.5994091 -1.2069082 0
0.53295666 7.556766 -1.1998453 0
0.51058429 7.6026907 -1.2068585 0
0.4846921 7.5981054 -1.2058659 0
0.45403305 7.5139408 -1.1922601 0
0.43315133 7.5910182 -1.2042531 0
0.40752062 7.5891309 -1.2037302 0
0.38190886 7.5871859 -1.2032118 0
0.3566761 7.5928469 -1.2039131 0
0.32999948 7.566092 -1.1994886 0
0.30083475 7.4728808 -1.1845449 0
0.27927828 7.5687113 -1.1995801 0
0.25612584 7.6359572 -1.2100952 0
0.22923169 7.5940123 -1.2033194 0
0.20345958 7.5832009 -1.2014915 0
0.17830954 7.5956039 -1.2033551 0
0.15216397 7.5624657 -1.1980175 0
0.12622131 7.527967 -1.1924787 0
0.10126913 7.5498471 -1.1958841 0
0.076039292 7.5584884 -1.1972057 0
0.051174004 7.6298685 -1.2084779 0
0.025403703 7.5737967 -1.1995765 0
1.0037437e-05 7.5651765 -1.1982044 0
-0.025306363 7.5507503 -1.1959262 0
-0.050997976 7.6066332 -1.2047976 0
-0.075945862 7.5511932 -1.1960502 0
-0.10160787 7.5766001 -1.2001216 0
-0.12692127 7.5709119 -1.1992813 0
-0.15242127 7.5762529 -1.2002016 0
-0.1785285 7.6057916 -1.204969 0
-0.20336869 7.580564 -1.2010735 0
-0.22889405 7.5834942 -1.2016526 0
-0.25449312 7.5878816 -1.2024764 0
-0.27836344 7.5444613 -1.1957365 0
-0.30605024 7.6029387 -1.2051606 0
-0.32849786 7.5321221 -1.1941031 0
-0.3554807 7.5678282 -1.199946 0
-0.38083643 7.5662804 -1.1998963 0
-0.40946534 7.6257248 -1.2095343 0
-0.42912391 7.5207877 -1.1931114 0
-0.4562639 7.5511928 -1.1981709 0
-0.48189533 7.5545783 -1.1989577 0
-0.50766802 7.5595665 -1.2000128 0
-0.53441161 7.5776825 -1.2031661 0
-0.56002086 7.5786319 -1.2036083 0
-0.58320528 7.5479522 -1.1990397 0
-0.60995471 7.5638838 -1.2018886 0
-0.63648051 7.5757098 -1.2041 0
-0.65940243 7.5452194 -1.1995986 0
-0.68242043 7.5178928 -1.195611 0
-0.70932823 7.5336771 -1.1984928 0
-0.73632324 7.5490952 -1.2013315 0
-0.75751263 7.5057898 -1.1948375 0
-0.7854653 7.5299683 -1.1990989 0
-0.81144601 7.5341496 -1.2001914 0
-0.83616018 7.5265098 -1.1994141 0
-0.86185348 7.5277076 -1.2000587 0
-0.88421834 7.5004368 -1.1961772 0
-0.90840799 7.489574 -1.1949238 0
-0.94102579 7.5467281 -1.2045391 0
-0.95952016 7.4904222 -1.1960588 0
-0.98995644 7.5276756 -1.2025305 0
-1.017671 7.5427041 -1.2054696 0
-1.0379982 7.5034223 -1.1997411 0
-1.0577348 7.461699 -1.1936302 0
-1.0866294 7.4848561 -1.1979107 0
-1.1129073 7.4891701 -1.1991916 0
-1.1373583 7.4811049 -1.198504 0
-1.1700643 7.5263262 -1.2063704 0
-1.1834159 7.4476209 -1.1943842 0
-1.2182834 7.5046177 -1.2041732 0
-1.2485974 7.5316114 -1.2091694 0
-1.2640675 7.4696212 -1.1998909 0
-1.2832038 7.4311686 -1.1943983 0
-1.3232414 7.5127225 -1.2082126 0
-1.3392681 7.4572692 -1.2000099 0
-1.3684076 7.4753757 -1.2036551 0
-1.3946793 7.4772649 -1.2047055 0
-1.3895142 7.3134518 -1.1790566 0
-1.4335495 7.4096589 -1.195335 0
-1.4663912 7.4454632 -1.2018974 0
-1.5020552 7.4939327 -1.2105279 0
-1.517989 7.4438219 -1.2032486 0
-1.5426706 7.4374003 -1.2030399 0
-1.5671115 7.4298792 -1.2026664 0
-1.594577 7.4365373 -1.2046028 0
-1.6008977 7.3457856 -1.1907653 0
-1.6422597 7.4159789 -1.2030295 0
-1.663672 7.3951273 -1.2005451 0
-1.6794552 7.350111 -1.1941445 0
-1.7209831 7.4172492 -1.2059828 0
-1.7481272 7.4211388 -1.2075614 0
-1.7635919 7.3758922 -1.2011542 0
-1.7960441 7.4018025 -1.2063477 0
-1.8063315 7.3367667 -1.1967283 0
-1.8397819 7.3661494 -1.2025206 0
-1.8634727 7.3560071 -1.2018781 0
-1.8957425 7.3793683 -1.2067267 0
-1.9247328 7.3893228 -1.209403 0
-1.9362103 7.3325105 -1.2011604 0
-1.9559059 7.3077521 -1.1981721 0
-1.9877858 7.3283958 -1.2026428 0
-1.9982307 7.2703352 -1.1942074 0
-2.0175176 7.2453585 -1.1912092 0
-2.0531354 7.2787447 -1.1978233 0
-2.0828481 7.2904415 -1.2008905 0
-2.1142085 7.3073645 -1.2048391 0
-2.1339135 7.2839074 -1.2021444 0
-2.1565189 7.2706289 -1.2011395 0
-2.184979 7.2769966 -1.2033949 0
-2.2061396 7.2590165 -1.201638 0
-2.2305377 7.2518144 -1.201677 0
-2.2483351 7.2233992 -1.1982108 0
-2.2712059 7.2115808 -1.1975069 0
-2.3033745 7.2290401 -1.2016816 0
-2.3175921 7.1902308 -1.1965153 0
-2.342068 7.183589 -1.1967101 0
-2.3661625 7.1757646 -1.1967216 0
-2.3963246 7.1861334 -1.1997839 0
-2.4259422 7.1944795 -1.2025286 0
-2.434413 7.140439 -1.1948535 0
-2.4513011 7.1118164 -1.1914326 0
-2.4943724 7.1587768 -1.2006941 0
-2.5142968 7.1388359 -1.1987567 0
-2.5484786 7.1591902 -1.2036027 0
-2.5671058 7.1357007 -1.2010939 0
-2.581007 7.0995226 -1.1964542 0
-2.6029463 7.085794 -1.1956046 0
-2.6013243 7.0086875 -1.1840593 0
-2.6600904 7.0940175 -1.199975 0
-2.6679327 7.0430117 -1.1928536 0
-2.6970508 7.0484509 -1.1952997 0
-2.7383325 7.0850735 -1.2030605 0
-2.7625597 7.0771017 -1.2032728 0
-2.7806938 7.0536489 -1.2008637 0
-2.811307 7.0618176 -1.2038524 0
-2.8258617 7.0296988 -1.1999854 0
-2.8540156 7.0315194 -1.2019229 0
-2.8712397 7.0064511 -1.1992767 0
-2.8935819 6.9940467 -1.1988074 0
-2.9213629 6.9947152 -1.2005941 0
-2.944917 6.9851623 -1.2006423 0
-2.9724612 6.9849796 -1.2023174 0
-2.9992936 6.9829597 -1.2036937 0
-3.0068464 6.9363174 -1.1973848 0
-3.0292182 6.9242139 -1.197042 0
-3.0729277 6.9604783 -1.2050856 0
-3.1046357 6.9689646 -1.2083503 0
-3.1119881 6.9229321 -1.2021711 0
-3.137449 6.9174581 -1.2030405 0
-3.1518035 6.8876233 -1.199683 0
-3.1694643 6.8652897 -1.1976371 0
-3.1805203 6.8289785 -1.1931562 0
-3.2289698 6.8727036 -1.2026806 0
-3.2350934 6.8261766 -1.1964301 0
-3.2821131 6.8658128 -1.2052991 0
-3.2771935 6.7968621 -1.195117 0
-3.3041532 6.7944512 -1.1966343 0
-3.3483598 6.8270588 -1.2043475 0
-3.352365 6.7776518 -1.1976079 0
-3.3892319 6.7947655 -1.202633 0
-3.4030125 6.7655072 -1.1994672 0
-3.4076085 6.7184358 -1.1931406 0
-3.4386663 6.7236934 -1.1961151 0
-3.4603777 6.7105508 -1.1958343 0
-3.485461 6.7039189 -1.1967282 0
-3.5166042 6.708765 -1.1996914 0
-3.5659854 6.7478542 -1.2088127 0
-3.5594285 6.6811237 -1.1989899 0
-3.5642023 6.6363697 -1.1930962 0
-3.6021299 6.6533761 -1.1983181 0
-3.6099234 6.6147032 -1.193526 0
-3.6319699 6.6023607 -1.1934896 0
-3.6762979 6.6302056 -1.2007444 0
-3.7078452 6.634551 -1.203776 0
-3.7360029 6.632617 -1.2056911 0
-3.7385235 6.5853591 -1.1993723 0
-3.7539868 6.5612602 -1.1972688 0
-3.7600071 6.5209627 -1.1922092 0
-3.8254426 6.5833402 -1.2059517 0
-3.8218858 6.5267458 -1.1979252 0
-3.8562589 6.5350981 -1.2018245 0
-3.8646111 6.4993658 -1.1976295 0
-3.8868139 6.4870954 -1.197763 0
-3.9319923 6.5128694 -1.2049491 0
-3.9303634 6.4611115 -1.1978048 0
-3.9590948 6.459466 -1.1999538 0
-3.9817607 6.447825 -1.2002646 0
-4.0024858 6.4330387 -1.2000034 0
-4.0246401 6.4205527 -1.2001847 0
-4.0383 6.3946023 -1.197858 0
-4.0752029 6.4053664 -1.2024271 0
-4.1128187 6.4168844 -1.2071712 0
-4.1019835 6.352993 -1.1977322 0
-4.153214 6.3852544 -1.2064329 0
-4.1526856 6.3378491 -1.2001002 0
-4.175426 6.3261843 -1.2005354 0
-4.1849308 6.2945781 -1.1971935 0
-4.2375627 6.3276234 -1.206174 0
-4.2327805 6.2748756 -1.1988177 0
-4.2377095 6.2369742 -1.1942844 0
-4.3041496 6.2892928 -1.2070591 0
-4.3022246 6.241477 -1.2006439 0
-4.311235 6.2098885 -1.1973412 0
-4.3459539 6.2153101 -1.2011894 0
-4.3665438 6.2003846 -1.2011275 0
-4.3976874 6.2003446 -1.2039692 0
-4.4108891 6.1749783 -1.2019087 0
-4.4600081 6.1996884 -1.209622 0
-4.4242306 6.1066604 -1.1943588 0
-4.4561038 6.1074495 -1.1974286 0
-4.4807997 6.0982504 -1.1985637 0
-4.4893379 6.0671339 -1.1953996 0
-4.5099049 6.0523834 -1.1954659 0
-4.5362859 6.0453763 -1.1970793 0
-4.5540881 6.0269022 -1.196438 0
-4.5380688 5.9640236 -1.1869693 0
-4.6249261 6.0360694 -1.2043874 0
-4.6240826 5.9932399 -1.1989282 0
-4.6351562 5.966125 -1.1966063 0
-4.6573324 5.953361 -1.1971714 0
-4.6703067 5.9288769 -1.19539 0
-4.6911793 5.9144716 -1.1956501 0
-4.7103691 5.8979411 -1.1954943 0
-4.7342339 5.8872342 -1.1965348 0
-4.783987 5.9084296 -1.2040957 0
-4.7780242 5.8607769 -1.1976424 0
-4.8276348 5.8812561 -1.2051282 0
-4.8519506 5.8706322 -1.206278 0
-4.8643146 5.8455687 -1.2044723 0
-4.8646922 5.8063169 -1.1997386 0
-4.8656259 5.7680354 -1.1951927 0
-4.9222713 5.7956471 -1.2043271 0
-4.9424338 5.7799983 -1.204512 0
-4.9531302 5.7533417 -1.2024109 0
-4.9539351 5.7154078 -1.1979475 0
-5.0006251 5.7303424 -1.2045853 0
-5.0060897 5.697928 -1.2012929 0
-5.0191269 5.6742845 -1.1998494 0
-5.0430403 5.6629453 -1.2010202 0
-5.0754161 5.6609707 -1.2042037 0
-5.045094 5.5893326 -1.1925564 0
-5.0739202 5.5835166 -1.1949385 0
-5.1321969 5.6097412 -1.2042267 0
-5.1366897 5.5769911 -1.2008866 0
-5.1661997 5.5714283 -1.2034118 0
-5.1606908 5.5281954 -1.1978042 0
-5.1862307 5.5183454 -1.1994309 0
-5.2277045 5.5252361 -1.2047316 0
-5.2133856 5.4732275 -1.1971961 0
-5.2501087 5.4749069 -1.2014071 0
-5.2108798 5.397655 -1.1882821 0
-5.3176665 5.4714375 -1.2084435 0
-5.2829547 5.3993821 -1.1964345 0
-5.2987075 5.3792834 -1.1959107 0
-5.3663926 5.4115849 -1.2070853 0
-5.3415284 5.3505116 -1.1974505 0
-5.3945699 5.3675289 -1.2053001 0
-5.3796706 5.3169298 -1.1979815 0
-5.4007611 5.3020968 -1.1987126 0
-5.4163613 5.2818661 -1.1982378 0
-5.4629216 5.2916522 -1.2046063 0
-5.5171046 5.3083987 -1.2126226 0
-5.4572563 5.2156911 -1.1956179 0
-5.4945846 5.2162299 -1.1999578 0
-5.5207272 5.2059674 -1.2018483 0
-5.5548625 5.2030816 -1.205475 0
-5.5248032 5.1402593 -1.1952049 0
-5.6023583 5.1774817 -1.2082207 0
-5.5717859 5.1146984 -1.1979222 0
-5.6053576 5.110992 -1.2014492 0
-5.5989108 5.0708394 -1.1964164 0
-5.6252394 5.0604572 -1.1984102 0
-5.6309133 5.0315061 -1.1960182 0
-5.6370683 5.0031166 -1.1937559 0
-5.679409 5.0067549 -1.1991607 0
-5.6730604 4.9674549 -1.194297 0
-5.7300477 4.9835114 -1.2027696 0
-5.7311769 4.9508414 -1.1995156 0
-5.74121 4.925992 -1.1981521 0
-5.7406483 4.892189 -1.194605 0
-5.8098025 4.917592 -1.2055578 0
-5.7732196 4.8534966 -1.1945833 0
-5.7813015 4.8273005 -1.1928999 0
-5.845695 4.8478966 -1.2028261 0
-5.8344727 4.805665 -1.1971948 0
-5.8718228 4.8034768 -1.2015474 0
-5.8848133 4.7812591 -1.2009186 0
-5.8931298 4.7553034 -1.1993552 0
-5.9173298 4.7421613 -1.2010379 0
-5.9467278 4.7330651 -1.203777 0
-5.9488158 4.7022333 -1.2010015 0
-5.9277592 4.6533818 -1.1935937 0
-5.9751048 4.6582546 -1.1999755 0
-5.9815998 4.6311579 -1.1981549 0
-5.9807682 4.5985241 -1.1948932 0
-6.0200791 4.5967155 -1.1996613 0
-5.9969501 4.5473065 -1.1920072 0
-6.0396428 4.5478673 -1.1974556 0
-6.0643849 4.5347161 -1.1993399 0
-6.094604 4.5255327 -1.2023087 0
-6.1290221 4.519289 -1.2061026 0
-6.1654968 4.5143514 -1.210295 0
-6.1495438 4.471076 -1.2042139 0
-6.1617045 4.4484143 -1.2036678 0
-6.1989141 4.4437375 -1.2080193 0
-6.1829395 4.4009781 -1.2020239 0
-6.1932054 4.3770747 -1.2011598 0
-6.206759 4.3555222 -1.2009495 0
-6.2073917 4.3249784 -1.1982595 0
-6.2624125 4.3321967 -1.2060698 0
-6.2316785 4.2801142 -1.1973803 0
-6.3004065 4.2963009 -1.2078115 0
-6.3144131 4.2749071 -1.2077421 0
-6.3094969 4.240798 -1.2040755 0
-6.3247876 4.2203588 -1.2042863 0
-6.3153157 4.1835051 -1.1998053 0
-6.3452463 4.1727896 -1.2028269 0
-6.3211207 4.1266313 -1.195624 0
-6.3629956 4.1236086 -1.2009226 0
-6.3946581 4.113749 -1.2042886 0
-6.3958549 4.0842657 -1.2019283 0
-6.3668184 4.0357356 -1.1939222 0
-6.4478421 4.0568538 -1.2065585 0
-6.4230714 4.0112715 -1.1993998 0
-6.4538355 4.0004687 -1.2026331 0
-6.4563494 3.9721246 -1.200613 0
-6.432466 3.927762 -1.1937162 0
-6.4386535 3.9019639 -1.1924298 0
-6.48068 3.8977847 -1.1977861 0
-6.5044813 3.8824623 -1.1997725 0
-6.5038929 3.8525944 -1.1972746 0
-6.5274048 3.8370161 -1.1992279 0
-6.527966 3.8079536 -1.1969786 0
-6.5529256 3.7931237 -1.1992165 0
-6.5625806 3.7693939 -1.1986638 0
-6.5754838 3.7475417 -1.1987189 0
-6.6284189 3.7483244 -1.2060713 0
-6.6083393 3.707783 -1.2001489 0
-6.6177673 3.683954 -1.1996112 0
-6.5786662 3.6333489 -1.1903083 0
-6.6325822 3.6341588 -1.1978523 0
-6.6317635 3.6048527 -1.1955149 0
-6.6802154 3.602227 -1.2020653 0
-6.6335731 3.548419 -1.1915247 0
-6.694284 3.552079 -1.2002838 0
-6.7125568 3.5329833 -1.2014294 0
-6.6939225 3.4945655 -1.1959904 0
-6.7501101 3.4951484 -1.2039288 0
-6.7195954 3.4508276 -1.1964159 0
-6.7545247 3.4401951 -1.2005746 0
-6.7574863 3.4132185 -1.1990603 0
-6.7281542 3.370137 -1.1918439 0
-6.8218579 3.38851 -1.2064234 0
-6.7663512 3.3327022 -1.1946244 0
-6.8265047 3.3339365 -1.2032645 0
-6.8021164 3.2938259 -1.1970124 0
-6.8081498 3.2686141 -1.1961389 0
-6.8405499 3.2559931 -1.1999066 0
-6.898036 3.2550328 -1.2080691 0
-6.864779 3.2112427 -1.2003524 0
-6.8662591 3.1839199 -1.1987379 0
-6.8882856 3.166116 -1.2007233 0
-6.889719 3.1388376 -1.1991318 0
-6.913156 3.1215684 -1.2013828 0
-6.9344935 3.1032548 -1.2032759 0
-6.925364 3.0713413 -1.1998981 0
-6.9799066 3.0675666 -1.2075595 0
-6.9259634 3.0161934 -1.1964707 0
-6.9852805 3.0142038 -1.2049652 0
-6.9612083 2.976171 -1.1990846 0
-6.9336185 2.936918 -1.1926293 0
-6.9659739 2.923116 -1.1965022 0
-6.9649429 2.8952577 -1.1946511 0
-7.0026541 2.8834364 -1.1994544 0
-6.9981437 2.8541751 -1.197036 0
-6.9592586 2.8111386 -1.1887659 0
-7.0583572 2.8236792 -1.2040697 0
-7.0257859 2.7833595 -1.1969148 0
-7.0605268 2.7697709 -1.2012444 0
-7.0772491 2.7489862 -1.2025145 0
-7.0881815 2.7259171 -1.2028124 0
-7.1011271 2.7036009 -1.2034643 0
-7.0991879 2.6756446 -1.2016084 0
-7.135386 2.6619999 -1.2062179 0
-7.0945306 2.6196942 -1.1978198 0
-7.1155815 2.6003907 -1.1998953 0
-7.1889348 2.5999088 -1.210788 0
-7.1767292 2.5683181 -1.2072752 0
-7.1613231 2.5357513 -1.2032466 0
-7.1138792 2.4921417 -1.1938645 0
-7.1262407 2.4696784 -1.1945426 0
-7.181911 2.4620311 -1.2024839 0
-7.1371355 2.4199703 -1.1936218 0
-7.2096977 2.4176524 -1.2043948 0
-7.1455846 2.3695312 -1.1923507 0
-7.2008538 2.3610907 -1.2002455 0
-7.2076464 2.3365831 -1.2000651 0
-7.2106867 2.3108807 -1.1992745 0
-7.2605314 2.3000402 -1.2062753 0
-7.2703528 2.2763574 -1.2066323 0
-7.2099123 2.2309179 -1.195353 0
-7.219903 2.2075119 -1.1957756 0
-7.270812 2.1964481 -1.2029809 0
-7.233819 2.1588323 -1.1956558 0
-7.2844477 2.1473696 -1.2028275 0
-7.2856636 2.1212039 -1.2018471 0
-7.2756257 2.0918455 -1.1990274 0
-7.2749157 2.065259 -1.1977626 0
-7.2976999 2.0453124 -1.2003781 0
-7.2807903 2.0142691 -1.1964791 0
-7.3058352 1.9948523 -1.1994889 0
-7.2829313 1.9623834 -1.1946415 0
-7.3263106 1.9477485 -1.2006792 0
-7.3362556 1.9240801 -1.2012451 0
-7.3653054 1.9053289 -1.2049489 0
-7.3069196 1.8641095 -1.1943679 0
-7.3466377 1.8480295 -1.1998405 0
-7.3052897 1.8116071 -1.192089 0
-7.3620534 1.7995038 -1.2003604 0
-7.3512197 1.7707571 -1.1976193 0
-7.3664827 1.7483231 -1.1991441 0
-7.4081006 1.7319841 -1.2049668 0
-7.3672166 1.6963949 -1.197385 0
-7.3748436 1.6721336 -1.1977067 0
-7.3573341 1.6422472 -1.193962 0
-7.3768449 1.620656 -1.1962397 0
-7.3580894 1.5906935 -1.1923268 0
-7.4203444 1.5781288 -1.2015506 0
-7.430232 1.5542111 -1.2023011 0
-7.4068174 1.5234113 -1.1976792 0
-7.3850861 1.4931509 -1.193349 0
-7.4672966 1.4837303 -1.2058227 0
-7.3843198 1.4415244 -1.1916364 0
-7.4545431 1.4293036 -1.2021885 0
-7.4143853 1.3958474 -1.1949508 0
-7.4989333 1.3857472 -1.2078215 0
-7.4769001 1.3557669 -1.2035339 0
-7.3821273 1.3130326 -1.1875632 0
-7.4690285 1.3026704 -1.2008337 0
-7.5163031 1.2849631 -1.2077347 0
-7.4669633 1.2507757 -1.1991261 0
-7.4474101 1.2218443 -1.1953214 0
-7.500073 1.2046752 -1.2031189 0
-7.4880695 1.1770072 -1.2005537 0
-7.5454459 1.1601158 -1.2091223 0
-7.4819803 1.1246923 -1.1983413 0
-7.4912515 1.1004145 -1.1992284 0
-7.4955034 1.0753783 -1.1993252 0
-7.52284 1.0535707 -1.2031273 0
-7.5342383 1.0294226 -1.2043915 0
-7.5215659 1.0020136 -1.2018218 0
-7.4488378 0.96691823 -1.1896764 0
-7.5398722 0.95304054 -1.2036986 0
-7.5221348 0.92518598 -1.2003649 0
-7.5306015 0.90060711 -1.2012274 0
-7.5912814 0.88205808 -1.2104282 0
-7.4991794 0.84588343 -1.1952837 0
-7.5482268 0.82579559 -1.2026532 0
-7.5160532 0.79678339 -1.1970946 0
-7.5026832 0.7699371 -1.1945472 0
-7.5282969 0.74706751 -1.1982198 0
-7.6279736 0.73114032 -1.2136875 0
-7.5131321 0.69471925 -1.1950378 0
-7.5291715 0.67075038 -1.1972246 0
-7.552331 0.64729857 -1.2005553 0
-7.5821662 0.62425458 -1.2049586 0
-7.4765048 0.59032488 -1.1878457 0
-7.526567 0.56889176 -1.1954896 0
-7.5373316 0.54429609 -1.1969029 0
-7.534616 0.5187121 -1.1961888 0
-7.5529256 0.49453476 -1.1988256 0
-7.5878992 0.47128031 -1.2041192 0
-7.548811 0.44345033 -1.1976737 0
-7.5956907 0.42065433 -1.2048808 0
-7.5384984 0.39213887 -1.1955934 0
-7.6029887 0.36993748 -1.2056179 0
-7.5500264 0.34199077 -1.197031 0
-7.5168705 0.31523824 -1.1916 0
-7.5683813 0.29198191 -1.1996037 0
-7.5486436 0.26587677 -1.1963273 0
-7.5765734 0.24142902 -1.2006186 0
-7.613584 0.21705812 -1.2063614 0
-7.5762558 0.19057381 -1.2003388 0
-7.5538855 0.16467032 -1.1967003 0
-7.5532551 0.13932161 -1.1965197 0
-7.5695724 0.11423603 -1.1990372 0
-7.5028901 0.088069327 -1.1884211 0
-7.5602756 0.06339211 -1.1974703 0
-7.577733 0.038130563 -1.2002083 0
-7.5220361 0.012629979 -1.1913733 0
-7.5388045 2.0004894e-05 -1.1940275 0
-9.8027849 -0.016459502 -1.2036306 0
-9.713933 -0.048879758 -1.1927344 0
-9.8125887 -0.082277514 -1.2048749 0
-9.8012447 -0.11504754 -1.2035226 0
-9.772047 -0.14747463 -1.1999913 0
-9.7993536 -0.18075144 -1.2034122 0
-9.8194933 -0.21405926 -1.2059668 0
-9.7822704 -0.24606408 -1.2014899 0
-9.7719984 -0.27859306 -1.2003362 0
-9.7401552 -0.31037197 -1.1965458 0
-9.788784 -0.34477851 -1.2026551 0
-9.7780132 -0.37722769 -1.2014803 0
-9.7687712 -0.40967721 -1.2005068 0
-9.7562866 -0.44192693 -1.1991479 0
-9.7988987 -0.47678357 -1.2045751 0
-9.7908125 -0.50930011 -1.2037842 0
-9.7274752 -0.53871393 -1.1962122 0
-9.7227755 -0.57115859 -1.195863 0
-9.761405 -0.60627556 -1.2008575 0
-9.7612658 -0.63912785 -1.2010972 0
-9.8283119 -0.67661899 -1.2096195 0
-9.748558 -0.70397615 -1.2000875 0
-9.7298594 -0.73542649 -1.1980824 0
-9.6740799 -0.76383954 -1.1915227 0
-9.7652903 -0.80399543 -1.203082 0
-9.7206469 -0.83314157 -1.1979194 0
-9.7336206 -0.86713785 -1.1998698 0
-9.7502451 -0.90157908 -1.2022849 0
-9.6988821 -0.92963666 -1.1963291 0
-9.7355967 -0.96610802 -1.2012506 0
-9.7379065 -0.99931926 -1.2019421 0
-9.7071342 -1.0290618 -1.1985631 0
-9.7534447 -1.0670521 -1.2047162 0
-9.6619759 -1.0898399 -1.1938628 0
-9.7204657 -1.1294556 -1.2015511 0
-9.7450581 -1.1654406 -1.2050672 0
-9.7044611 -1.1936015 -1.2005352 0
-9.7437143 -1.2316064 -1.2058953 0
-9.6943722 -1.2584064 -1.200304 0
-9.6753674 -1.2889403 -1.1984793 0
-9.6467485 -1.3180604 -1.195475 0
-9.6829166 -1.3560885 -1.2005138 0
-9.6362629 -1.3825127 -1.1952976 0
-9.6635256 -1.419507 -1.199263 0
-9.6743174 -1.4542447 -1.2012005 0
-9.6453772 -1.4829812 -1.1982179 0
-9.6557312 -1.5177296 -1.2001295 0
-9.6504917 -1.5500793 -1.2001175 0
-9.6464882 -1.5826317 -1.2002728 0
-9.6445065 -1.6155317 -1.2006935 0
-9.6862478 -1.65593 -1.2065744 0
-9.6513128 -1.6832815 -1.2029189 0
-9.618412 -1.7107928 -1.1995264 0
-9.622879 -1.7448916 -1.2008064 0
-9.6320744 -1.779936 -1.2026918 0
-9.6366711 -1.8142196 -1.2040185 0
-9.5721025 -1.8353157 -1.1967133 0
-9.5722532 -1.8686402 -1.1975087 0
-9.5653896 -1.9006153 -1.1974405 0
-9.5310078 -1.9270234 -1.1939385 0
-9.5745783 -1.9692695 -1.2002169 0
-9.5518217 -1.9979925 -1.1981974 0
-9.5651674 -2.034281 -1.2007202 0
-9.5526695 -2.0651243 -1.2000138 0
-9.4891214 -2.0847127 -1.1929023 0
-9.5318069 -2.1276162 -1.1991583 0
-9.5015402 -2.1543295 -1.1962526 0
-9.5008612 -2.1876936 -1.197084 0
-9.515234 -2.2246237 -1.1998279 0
-9.4793129 -2.2497714 -1.1962428 0
-9.5206757 -2.2933345 -1.2024262 0
-9.5239124 -2.3279262 -1.2038139 0
-9.4762115 -2.3499646 -1.1987737 0
-9.485074 -2.3859482 -1.2009002 0
-9.4624043 -2.4140074 -1.1990479 0
-9.4537935 -2.4455993 -1.1989892 0
-9.4231167 -2.4714012 -1.1961426 0
-9.4344358 -2.5082076 -1.1986402 0
-9.414526 -2.5367408 -1.1971846 0
-9.4014244 -2.5670514 -1.1966063 0
-9.4703655 -2.6200266 -1.2064923 0
-9.3917942 -2.63222 -1.1976001 0
-9.3999243 -2.6685228 -1.1997712 0
-9.3835754 -2.697911 -1.1988322 0
-9.3803148 -2.7310567 -1.1995788 0
-9.3291311 -2.7501183 -1.1942056 0
-9.3511171 -2.7907104 -1.1982111 0
-9.3870707 -2.8357511 -1.2040296 0
-9.3529758 -2.8597066 -1.2008793 0
-9.31882 -2.8834641 -1.1977286 0
-9.3520899 -2.9281523 -1.2032598 0
-9.3185301 -2.9519868 -1.2002084 0
-9.3294888 -2.9899142 -1.2029043 0
-9.3284264 -3.0240998 -1.2040679 0
-9.3016787 -3.0499308 -1.2019286 0
-9.2527008 -3.0682673 -1.1969224 0
-9.2395678 -3.0983357 -1.1965607 0
-9.3191423 -3.1598179 -1.2082311 0
-9.2685394 -3.1773479 -1.2030448 0
-9.2143927 -3.1933508 -1.1973996 0
-9.2451286 -3.2387633 -1.2027981 0
-9.2506428 -3.2755582 -1.2049376 0
-9.1946411 -3.290463 -1.1990733 0
-9.1799517 -3.3199685 -1.1986026 0
-9.1881657 -3.3578172 -1.2011383 0
-9.1347532 -3.3730578 -1.1956276 0
-9.1818848 -3.4254878 -1.2032931 0
-9.1547995 -3.4503932 -1.2012527 0
-9.1994886 -3.5025067 -1.2086508 0
-9.1081686 -3.502748 -1.1981891 0
-9.0732241 -3.5242746 -1.19514 0
-9.0503616 -3.5503621 -1.1936897 0
-9.0807257 -3.5974517 -1.1992787 0
-9.0554962 -3.6226299 -1.1975441 0
-9.0931807 -3.67312 -1.2041495 0
-9.0405579 -3.6871688 -1.1988114 0
-9.0407972 -3.7226689 -1.2004914 0
-8.9880924 -3.7362607 -1.1951497 0
-9.003684 -3.7781956 -1.1989006 0
-8.9927378 -3.8091128 -1.1991369 0
-9.0059624 -3.850378 -1.2026149 0
-8.9720364 -3.8715048 -1.1998112 0
-8.9273825 -3.8877933 -1.1955763 0
-8.9267445 -3.9231732 -1.1972456 0
-8.9116545 -3.9522448 -1.1969923 0
-8.9148445 -3.9894817 -1.1992108 0
-8.9166021 -4.0262046 -1.2012562 0
-8.8310719 -4.0232849 -1.1915442 0
-8.8474522 -4.0666232 -1.1955873 0
-8.8575497 -4.1072917 -1.1988058 0
-8.852953 -4.1412811 -1.2000563 0
-8.8101072 -4.1572976 -1.1961311 0
-8.814765 -4.1956882 -1.1986666 0
-8.8117619 -4.2305546 -1.2001804 0
-8.8028917 -4.2626719 -1.200912 0
-8.7406149 -4.2687516 -1.1943619 0
-8.7796774 -4.324347 -1.2016741 0
-8.7088737 -4.3258166 -1.1939616 0
-8.7368765 -4.376307 -1.1998055 0
-8.7343187 -4.4117198 -1.2014788 0
-8.7525482 -4.4578228 -1.2060356 0
-8.7068434 -4.4713726 -1.2017969 0
-8.645833 -4.4767375 -1.1954408 0
-8.6233664 -4.5018325 -1.1944146 0
-8.6871643 -4.5722675 -1.2053678 0
-8.6644983 -4.5975018 -1.2043549 0
-8.6059408 -4.6034746 -1.1983541 0
-8.6020212 -4.6385384 -1.1999671 0
-8.538928 -4.6415372 -1.1933299 0
-8.6003561 -4.7123518 -1.204116 0
-8.5613966 -4.7283964 -1.2008742 0
-8.5726404 -4.7721858 -1.2046888 0
-8.4766293 -4.7560358 -1.1934308 0
-8.4857769 -4.7986469 -1.1969771 0
-8.4557467 -4.8191528 -1.1950136 0
-8.4494019 -4.8531399 -1.1964098 0
-8.4658537 -4.9004111 -1.2010591 0
-8.4055262 -4.9031892 -1.194826 0
-8.4154816 -4.946888 -1.1985921 0
-8.4135971 -4.9838119 -1.2006968 0
-8.4009113 -5.0144229 -1.2012789 0
-8.3666124 -5.032073 -1.1987803 0
-8.3327084 -5.0498028 -1.1963416 0
-8.3076153 -5.0727568 -1.1951741 0
-8.346652 -5.1350913 -1.2032604 0
-8.3261547 -5.1610427 -1.2027932 0
-8.3137913 -5.1920447 -1.2035153 0
-8.2635078 -5.199235 -1.1987529 0
-8.2314177 -5.2176495 -1.1966287 0
-8.2792168 -5.2869434 -1.2061477 0
-8.2247896 -5.2910919 -1.2007961 0
-8.1897945 -5.3074856 -1.1982783 0
-8.2106237 -5.3601599 -1.2039486 0
-8.183219 -5.3814855 -1.2025691 0
-8.1453247 -5.3957725 -1.1996522 0
-8.1680555 -5.4503212 -1.2056847 0
-8.1210957 -5.458427 -1.2014476 0
-8.0732403 -5.4656472 -1.1970721 0
-8.1065302 -5.5279121 -1.2047496 0
-8.0005751 -5.495048 -1.1917346 0
-8.0273399 -5.553134 -1.198488 0
-7.9850273 -5.5635395 -1.194949 0
-7.9978876 -5.6124263 -1.1996827 0
-7.9929552 -5.6490555 -1.2017772 0
-7.9502001 -5.6589031 -1.1981947 0
-7.9192743 -5.6769905 -1.1963958 0
-7.9207258 -5.7183318 -1.1995049 0
-7.9036474 -5.7464113 -1.1998295 0
-7.8820286 -5.7711887 -1.1994783 0
-7.9071875 -5.8304348 -1.206275 0
-7.8472767 -5.8269753 -1.2001091 0
-7.7931571 -5.8274264 -1.1948137 0
-7.8405347 -5.9039431 -1.2051055 0
-7.7779951 -5.897819 -1.1985258 0
-7.7761602 -5.9375954 -1.2013038 0
-7.7614346 -5.9676523 -1.2021133 0
-7.7028074 -5.9637752 -1.1961231 0
-7.7283716 -6.0251198 -1.203223 0
-7.6739631 -6.0241785 -1.19789 0
-7.6347475 -6.0348759 -1.1949203 0
-7.6323557 -6.0746746 -1.197727 0
-7.6716514 -6.1480789 -1.2071216 0
-7.6342797 -6.1602778 -1.2044845 0
-7.6177564 -6.1892304 -1.2051448 0
-7.5505624 -6.1767793 -1.1977841 0
-7.5413618 -6.2115741 -1.1996216 0
-7.5397072 -6.2527585 -1.2026864 0
-7.5187168 -6.2780166 -1.2026891 0
-7.4755754 -6.2846527 -1.199152 0
-7.4814935 -6.3325615 -1.2035004 0
-7.4196849 -6.3230662 -1.1969613 0
-7.4340611 -6.378468 -1.2027237 0
-7.4418821 -6.4286237 -1.2074693 0
-7.4017777 -6.4374413 -1.2044576 0
-7.3279014 -6.4164696 -1.19593 0
-7.3558517 -6.4846439 -1.2040331 0
-7.2704139 -6.452774 -1.1935829 0
-7.2376337 -6.4671922 -1.1917545 0
-7.2591567 -6.5303268 -1.198897 0
-7.2223306 -6.5411429 -1.1964303 0
-7.2113595 -6.5753517 -1.1982583 0
-7.180974 -6.5918751 -1.196875 0
-7.1606994 -6.61764 -1.1971872 0
-7.1292992 -6.6330771 -1.1956489 0
-7.1397481 -6.6875987 -1.2011549 0
-7.0820756 -6.678297 -1.1952127 0
-7.1133442 -6.7529836 -1.2043041 0
-7.046319 -6.7344146 -1.1967727 0
-7.0422072 -6.7758083 -1.199926 0
-7.0041571 -6.7845683 -1.1973119 0
-7.0145741 -6.8403931 -1.2030064 0
-6.9488149 -6.8218699 -1.1956446 0
-6.919765 -6.8390627 -1.1945848 0
-6.9634566 -6.9285512 -1.2061311 0
-6.8922663 -6.9038577 -1.1978029 0
-6.8526258 -6.9103341 -1.1949337 0
-6.8679829 -6.9724221 -1.2016813 0
-6.8101072 -6.9601908 -1.1956313 0
-6.7843657 -6.9805493 -1.1952143 0
-6.7918139 -7.0352545 -1.2006751 0
-6.7952609 -7.0862193 -1.205478 0
-6.7450986 -7.0812826 -1.2007842 0
-6.7521572 -7.1364522 -1.2062937 0
-6.7192173 -7.1495013 -1.2046846 0
-6.6784439 -7.1540303 -1.201668 0
-6.6562028 -7.1783042 -1.20199 0
-6.6322217 -7.200716 -1.2020125 0
-6.6120467 -7.2272892 -1.202741 0
-6.5823774 -7.2434745 -1.2017549 0
-6.5490174 -7.2554913 -1.200099 0
-6.5295343 -7.2828517 -1.2009965 0
-6.5011158 -7.300252 -1.2002648 0
-6.499896 -7.3483419 -1.2045816 0
-6.4296203 -7.3181896 -1.1960983 0
-6.4162822 -7.3525796 -1.1981963 0
-6.3859568 -7.3675466 -1.1971394 0
-6.3645248 -7.392756 -1.1977615 0
-6.3275852 -7.3998828 -1.1954722 0
-6.3273005 -7.449976 -1.2001309 0
-6.2960324 -7.4637341 -1.1989399 0
-6.2887707 -7.5060444 -1.2023427 0
-6.2332225 -7.4906197 -1.1965175 0
-6.2310314 -7.5392551 -1.2009424 0
-6.2141719 -7.5704021 -1.2025783 0
-6.125701 -7.5138521 -1.190326 0
-6.1358333 -7.5780187 -1.1972252 0
-6.1286316 -7.6212311 -1.2007991 0
-6.1037936 -7.6426744 -1.2009466 0
-6.1004133 -7.691184 -1.2053484 0
-6.0285678 -7.6531672 -1.196216 0
-6.0448895 -7.7270436 -1.2045885 0
-5.9976959 -7.7199135 -1.2003354 0
-5.9648633 -7.7310157 -1.1989453 0
-5.9386301 -7.7506075 -1.198889 0
-5.8944945 -7.7466664 -1.1952156 0
-5.870317 -7.768806 -1.1955881 0
-5.8460321 -7.7908373 -1.1959554 0
-5.8307462 -7.8249793 -1.1981887 0
-5.7978101 -7.8354735 -1.1968124 0
-5.7773099 -7.8627672 -1.1980158 0
-5.7640262 -7.900063 -1.200747 0
-5.6874104 -7.8501973 -1.1902629 0
-5.672617 -7.8852897 -1.1926932 0
-5.6985335 -7.977602 -1.2037593 0
-5.6429386 -7.9560361 -1.1976435 0
-5.6368403 -8.0041752 -1.2020383 0
-5.5845137 -7.9866199 -1.1965833 0
-5.576263 -8.0320311 -1.200579 0
-5.5541549 -8.0577221 -1.2016289 0
-5.517374 -8.0620756 -1.1995127 0
-5.4834719 -8.0704613 -1.1980182 0
-5.4506583 -8.0803156 -1.1967615 0
-5.3988686 -8.0617123 -1.1913184 0
-5.409595 -8.1366024 -1.1996983 0
-5.422905 -8.216238 -1.2087526 0
-5.3762193 -8.2052116 -1.2044718 0
-5.3228965 -8.1835527 -1.1986659 0
-5.3208289 -8.2406921 -1.2044154 0
-5.2859044 -8.2471514 -1.2027624 0
-5.2515583 -8.2543516 -1.2012378 0
-5.2004642 -8.2348747 -1.1958593 0
-5.1956897 -8.2887421 -1.2011452 0
-5.2023783 -8.3615789 -1.2091659 0
-5.1323619 -8.311039 -1.1993622 0
-5.0833702 -8.2937794 -1.1944051 0
-5.0952549 -8.3760729 -1.2037894 0
-5.0543547 -8.3719273 -1.2007513 0
-5.0480256 -8.4251585 -1.2059517 0
-5.0142722 -8.4328251 -1.204636 0
-4.9592581 -8.4043217 -1.1981821 0
-4.9645953 -8.4781837 -1.2063327 0
-4.9316134 -8.486989 -1.2052261 0
-4.8838153 -8.4699774 -1.2004782 0
-4.8491564 -8.4754105 -1.1989371 0
-4.8405571 -8.526577 -1.2038726 0
-4.8154593 -8.5490026 -1.2047524 0
-4.7588224 -8.5150938 -1.1977187 0
-4.7348485 -8.5393019 -1.1988841 0
-4.7055964 -8.5540476 -1.1987325 0
-4.6707573 -8.5585394 -1.1971607 0
-4.6560593 -8.6000538 -1.2007773 0
-4.64784 -8.6540489 -1.2061337 0
-4.5815721 -8.5997095 -1.1964127 0
-4.602582 -8.7093887 -1.2095178 0
-4.5391531 -8.6595221 -1.2004724 0
-4.4896908 -8.6354494 -1.1950415 0
-4.4751329 -8.6784191 -1.1989049 0
-4.4308596 -8.6637487 -1.1948192 0
-4.4182477 -8.71101 -1.1992873 0
-4.4168596 -8.7811298 -1.2068955 0
-4.3426528 -8.706193 -1.1945881 0
-4.3371844 -8.768714 -1.2011646 0
-4.3064761 -8.7805872 -1.2008064 0
-4.2804675 -8.802083 -1.2017766 0
-4.2521114 -8.8188305 -1.2021101 0
-4.2053742 -8.7971716 -1.1972289 0
-4.185863 -8.8323383 -1.2000982 0
-4.1579032 -8.8498926 -1.2005824 0
-4.118268 -8.8424416 -1.1976917 0
-4.0860901 -8.8507681 -1.196957 0
-4.0511217 -8.8529005 -1.1954019 0
-4.0185947 -8.8602114 -1.1945629 0
-3.9825985 -8.8596935 -1.1926861 0
-3.971211 -8.9141636 -1.1982197 0
-3.9562607 -8.9613123 -1.2027676 0
-3.9316113 -8.9869127 -1.2044275 0
-3.8777072 -8.9452553 -1.1970954 0
-3.8521943 -8.9686842 -1.1984956 0
-3.808763 -8.9502039 -1.1943128 0
-3.7987731 -9.010457 -1.2006466 0
-3.7714405 -9.0300846 -1.2015704 0
-3.7468047 -9.0563631 -1.2033887 0
-3.7087438 -9.0501442 -1.2009033 0
-3.6804845 -9.0677137 -1.2015905 0
-3.6437502 -9.0643024 -1.1995128 0
-3.615828 -9.0827217 -1.2003392 0
-3.5919595 -9.1115465 -1.2025503 0
-3.5631166 -9.1279621 -1.2031333 0
-3.5101011 -9.0819225 -1.1955072 0
-3.4967268 -9.1383171 -1.2013806 0
-3.4715557 -9.1644764 -1.2032827 0
-3.4453697 -9.1882267 -1.2048775 0
-3.4105678 -9.1890135 -1.2034744 0
-3.3599215 -9.1464472 -1.1964175 0
-3.3355398 -9.1750002 -1.1986828 0
-3.3174765 -9.2214823 -1.2032956 0
-3.2749693 -9.2000484 -1.1990592 0
-3.2387643 -9.1958141 -1.1970853 0
-3.2184832 -9.2369547 -1.2010293 0
-3.1769915 -9.2172184 -1.1970714 0
-3.1359451 -9.1981211 -1.1932189 0
-3.1276891 -9.2756109 -1.2019042 0
-3.0850327 -9.25144 -1.1974252 0
-3.0667181 -9.3003111 -1.202413 0
-3.0307591 -9.2959423 -1.2005277 0
-2.9883633 -9.2712688 -1.1960404 0
-2.9478922 -9.2518301 -1.1922511 0
-2.9275432 -9.2955961 -1.1966194 0
-2.9118266 -9.3550491 -1.2030092 0
-2.874351 -9.3449488 -1.2004644 0
-2.8458748 -9.3639822 -1.2016768 0
-2.8278005 -9.4178915 -1.2073715 0
-2.7797234 -9.3717422 -1.2002536 0
-2.7442582 -9.367259 -1.1984944 0
-2.7238011 -9.4143066 -1.2033386 0
-2.6798134 -9.3799553 -1.1977926 0
-2.6604059 -9.4316311 -1.2032456 0
-2.6220789 -9.4164743 -1.2001837 0
-2.5833611 -9.3992662 -1.1968797 0
-2.5582633 -9.4315825 -1.199896 0
-2.5189171 -9.4113026 -1.1962347 0
-2.4916086 -9.4358273 -1.1982834 0
-2.4816198 -9.5272903 -1.2088351 0
-2.4209368 -9.4237394 -1.1946598 0
-2.4131553 -9.5258636 -1.2065738 0
-2.364502 -9.4670324 -1.1981111 0
-2.3478556 -9.5362711 -1.2058706 0
-2.3125384 -9.530364 -1.2041365 0
-2.2765045 -9.5210524 -1.2019889 0
-2.2401173 -9.5097313 -1.1996046 0
-2.2114751 -9.5312166 -1.2013729 0
-2.1754918 -9.5210075 -1.19916 0
-2.129915 -9.4676065 -1.1915281 0
-2.109277 -9.5248966 -1.1978414 0
-2.0832398 -9.5590315 -1.2012491 0
-2.0441003 -9.5329533 -1.1971039 0
-2.0141909 -9.5495405 -1.1983321 0
-1.9797144 -9.5444412 -1.1968524 0
-1.9556779 -9.5901337 -1.2017533 0
-1.9134374 -9.5463686 -1.1954583 0
-1.8936095 -9.614624 -1.2032039 0
-1.8531954 -9.5787039 -1.1979244 0
-1.8161253 -9.5588408 -1.1946721 0
-1.7925792 -9.6105165 -1.2003727 0
-1.764372 -9.6384621 -1.2031175 0
-1.7154353 -9.5518312 -1.1915792 0
-1.7054312 -9.6826105 -1.2071737 0
-1.6670549 -9.6540909 -1.2029144 0
-1.6339204 -9.6551542 -1.2023574 0
-1.5945009 -9.6181211 -1.1970733 0
-1.5651495 -9.6413107 -1.1992996 0
-1.5321649 -9.6424112 -1.1987908 0
-1.5049883 -9.6806936 -1.202916 0
-1.4732347 -9.6903696 -1.2034979 0
-1.4314493 -9.6327591 -1.1957401 0
-1.401984 -9.6570635 -1.1981668 0
-1.3738815 -9.6919279 -1.2019143 0
-1.3421381 -9.7019701 -1.2025949 0
-1.311185 -9.7181511 -1.2040489 0
-1.2778116 -9.7165403 -1.2033117 0
-1.2389512 -9.6717796 -1.1972474 0
-1.2082292 -9.6896143 -1.1989468 0
-1.1737126 -9.6769371 -1.1968845 0
-1.1450317 -9.7128019 -1.2008389 0
-1.1143363 -9.7329741 -1.2028642 0
-1.0784242 -9.7071943 -1.1992246 0
-1.0431603 -9.6855803 -1.1961155 0
-1.0137631 -9.7185745 -1.1997637 0
-0.98185122 -9.7286415 -1.2005932 0
-0.94932061 -9.7328348 -1.2007111 0
-0.91700381 -9.7393703 -1.2011315 0
-0.88094604 -9.7049522 -1.1965158 0
-0.85256433 -9.755477 -1.2023857 0
-0.81598091 -9.7122135 -1.1967095 0
-0.78589624 -9.7456865 -1.2005025 0
-0.75503844 -9.7718487 -1.2034066 0
-0.72109884 -9.7584629 -1.2014536 0
-0.68455541 -9.7066441 -1.1947845 0
-0.65461338 -9.7476959 -1.1995606 0
-0.62296861 -9.7661562 -1.2015686 0
-0.5886426 -9.7420673 -1.1983552 0
-0.55361235 -9.7025614 -1.1932607 0
-0.52422178 -9.7629051 -1.200459 0
-0.49015099 -9.7380905 -1.197199 0
-0.45995769 -9.7920389 -1.203635 0
-0.42694184 -9.7893429 -1.2031209 0
-0.39128968 -9.7204676 -1.1944882 0
-0.35995349 -9.7557907 -1.1986737 0
-0.32634118 -9.7300797 -1.1953735 0
-0.2951422 -9.7783632 -1.201177 0
-0.26135853 -9.7421331 -1.1966121 0
-0.2273383 -9.6852188 -1.1895212 0
-0.19655894 -9.7701607 -1.1998658 0
-0.16422728 -9.7962322 -1.2029933 0
-0.13110456 -9.776082 -1.200458 0
-0.098833449 -9.8268747 -1.2066478 0
-0.065604076 -9.7852144 -1.2014985 0
-0.032666337 -9.7467718 -1.196758 0
1.302694e-05 -9.8183527 -1.2055403 0
0.032739036 -9.7607346 -1.1984725 0
0.065604381 -9.7813883 -1.2010287 0
0.098071568 -9.7485495 -1.1970302 0
0.13074444 -9.7472992 -1.1969237 0
0.16411316 -9.7878752 -1.2019671 0
0.1966524 -9.7735167 -1.200278 0
0.22931747 -9.7684326 -1.1997414 0
0.26328447 -9.812952 -1.2053108 0
0.29713285 -9.8434496 -1.2091724 0
0.32866529 -9.7985983 -1.2037914 0
0.36026669 -9.7635756 -1.1996304 0
0.39355069 -9.7759905 -1.2013111 0
0.42372483 -9.7149878 -1.1939828 0
0.45680013 -9.7242661 -1.1953046 0
0.49099138 -9.7542715 -1.1991885 0
0.52309841 -9.7415009 -1.1978273 0
0.556418 -9.7512789 -1.1992522 0
0.5903551 -9.7699785 -1.2017888 0
0.61919618 -9.7066116 -1.1942427 0
0.65695828 -9.7822247 -1.20381 0
0.68519509 -9.7153473 -1.195856 0
0.71898115 -9.7294531 -1.1978822 0
0.75302088 -9.7454004 -1.2001498 0
0.7882852 -9.7749882 -1.2041122 0
0.81923395 -9.7506227 -1.2014424 0
0.84801614 -9.7031374 -1.195935 0
0.88477391 -9.7468348 -1.2016797 0
0.91730821 -9.7423267 -1.2014962 0
0.95156795 -9.7556067 -1.2035208 0
0.97933084 -9.7034111 -1.1974798 0
1.0148425 -9.7286739 -1.2010107 0
1.0543352 -9.7890949 -1.2088993 0
1.0803323 -9.7241354 -1.2013178 0
1.1122788 -9.714776 -1.2006155 0
1.1401838 -9.6714592 -1.1957278 0
1.1831135 -9.7542286 -1.2064446 0
1.2104424 -9.7071533 -1.2011174 0
1.2459435 -9.72616 -1.2039794 0
1.2807511 -9.7386923 -1.2060554 0
1.3060454 -9.6798649 -1.1993057 0
1.3408128 -9.6922016 -1.2013844 0
1.3734366 -9.6886053 -1.2015027 0
1.4004842 -9.646553 -1.1968633 0
1.4479563 -9.7436628 -1.2095073 0
1.4668857 -9.6484365 -1.1982905 0
1.506983 -9.6933546 -1.2044898 0
1.5316787 -9.6391869 -1.1983904 0
1.5709164 -9.676672 -1.2036988 0
1.6052549 -9.6828308 -1.2051276 0
1.6316735 -9.6417208 -1.2006851 0
1.6656909 -9.646039 -1.2019116 0
1.6928619 -9.6110992 -1.1982585 0
1.7206845 -9.5809135 -1.1952078 0
1.7525429 -9.5736971 -1.1950339 0
1.7870798 -9.5808916 -1.196673 0
1.8247761 -9.6042328 -1.2003459 0
1.8537332 -9.5813465 -1.1982555 0
1.8992544 -9.6431503 -1.2067744 0
1.933055 -9.6441107 -1.2076988 0
1.9506011 -9.5651093 -1.1986181 0
1.9840591 -9.5652599 -1.1994637 0
2.0141275 -9.5491142 -1.1982793 0
2.0440907 -9.5327854 -1.1970835 0
2.0872672 -9.5773897 -1.2035568 0
2.1060486 -9.5101986 -1.1959937 0
2.146678 -9.5420017 -1.2008916 0
2.1807094 -9.543726 -1.2020221 0
2.214853 -9.54566 -1.2031941 0
2.2493446 -9.548789 -1.2045324 0
2.2670062 -9.4812164 -1.1969606 0
2.3034492 -9.492795 -1.1993905 0
2.3369875 -9.4920197 -1.2002758 0
2.3704104 -9.4905825 -1.2010922 0
2.40657 -9.4997625 -1.2032685 0
2.4136345 -9.3952112 -1.1910441 0
2.4681561 -9.4754992 -1.2022645 0
2.4979074 -9.4595795 -1.2013006 0
2.5188015 -9.4107704 -1.1961678 0
2.5692782 -9.4720917 -1.2050505 0
2.5963576 -9.4464531 -1.2028894 0
2.6152542 -9.3918686 -1.1970485 0
2.6548288 -9.4117641 -1.200712 0
2.6754527 -9.3645973 -1.1958324 0
2.7123544 -9.37465 -1.1982707 0
2.7388723 -9.3487835 -1.1961315 0
2.7687411 -9.3346243 -1.1955009 0
2.810957 -9.3617039 -1.2001693 0
2.8313062 -9.315958 -1.1955149 0
2.8895345 -9.3942242 -1.2067952 0
2.9073281 -9.3405094 -1.2011405 0
2.9447544 -9.3501596 -1.2036443 0
2.9448857 -9.2423096 -1.1910253 0
2.9925292 -9.2841091 -1.197698 0
3.0410635 -9.3274641 -1.2045995 0
3.0554428 -9.2660341 -1.1979824 0
3.1108127 -9.3286676 -1.2074218 0
3.1361759 -9.3006983 -1.205156 0
3.1573284 -9.2607603 -1.2013459 0
3.1889889 -9.2519464 -1.2015828 0
3.2221987 -9.2475386 -1.2024065 0
3.2544191 -9.2401848 -1.2028625 0
3.281178 -9.2174129 -1.2013235 0
3.3118036 -9.205637 -1.2012291 0
3.3372593 -9.1796541 -1.1992919 0
3.365381 -9.1612349 -1.1983529 0
3.3919027 -9.1386499 -1.1968796 0
3.4158642 -9.1094666 -1.1945506 0
3.4667358 -9.15168 -1.2016037 0
3.5022714 -9.1527348 -1.2032772 0
3.5111816 -9.0846472 -1.1958669 0
3.5417459 -9.073144 -1.1959091 0
3.5859571 -9.0962496 -1.2005327 0
3.6208727 -9.0953236 -1.2020059 0
3.6571565 -9.0975828 -1.2039182 0
3.7053328 -9.1288633 -1.209695 0
3.7007067 -9.0304642 -1.1982932 0
3.7352614 -9.0283937 -1.1996735 0
3.7738364 -9.0357533 -1.2023259 0
3.7732432 -8.9498348 -1.1925701 0
3.8378208 -9.0184202 -1.2034169 0
3.8595541 -8.985754 -1.200778 0
3.8850737 -8.962183 -1.1993622 0
3.9327905 -8.989543 -1.2047815 0
3.9318013 -8.9058456 -1.1953243 0
3.9760244 -8.9249039 -1.1996648 0
3.9912462 -8.8788681 -1.1952688 0
4.0316029 -8.8888283 -1.1984227 0
4.0535464 -8.8581362 -1.1961102 0
4.0901423 -8.8594837 -1.1981372 0
4.1160378 -8.8375921 -1.1970363 0
4.1465602 -8.8256884 -1.1973003 0
4.1746182 -8.8085508 -1.1968675 0
4.2217364 -8.8313389 -1.2018803 0
4.2531786 -8.8209848 -1.2024052 0
4.2861209 -8.8136482 -1.2033572 0
4.2947669 -8.7566538 -1.1975349 0
4.3364172 -8.7671032 -1.2009455 0
4.355907 -8.732707 -1.1982278 0
4.4146867 -8.7767525 -1.2062954 0
4.4292722 -8.7326889 -1.2022735 0
4.4551215 -8.711132 -1.2013553 0
4.5010462 -8.7286139 -1.2058408 0
4.4967923 -8.6490526 -1.1969256 0
4.5469661 -8.6743717 -1.2025325 0
4.548079 -8.6061983 -1.1951889 0
4.5996561 -8.6335983 -1.201129 0
4.6265602 -8.6143732 -1.2006058 0
4.6526432 -8.5936899 -1.1998904 0
4.6832628 -8.5813999 -1.2003602 0
4.711679 -8.5650511 -1.2002763 0
4.7195945 -8.5117388 -1.195016 0
4.7637773 -8.5239077 -1.1989602 0
4.7815146 -8.4886875 -1.1962545 0
4.8117075 -8.4757061 -1.1966919 0
4.8372941 -8.4546251 -1.1959987 0
4.8706603 -8.4471121 -1.1972392 0
4.9096699 -8.449173 -1.1998577 0
4.9543252 -8.4605942 -1.2038317 0
4.9966292 -8.4676018 -1.2072057 0
4.995471 -8.4011545 -1.2001138 0
5.0116119 -8.3643341 -1.1972474 0
5.0489411 -8.3629103 -1.1994599 0
5.0602493 -8.3184776 -1.1955138 0
5.1218948 -8.3565845 -1.2034518 0
5.1287875 -8.3052025 -1.1985217 0
5.1811919 -8.3274784 -1.2042365 0
5.2143502 -8.3184614 -1.205454 0
5.1976852 -8.2304268 -1.1952153 0
5.2639174 -8.2737284 -1.2040598 0
5.3075809 -8.2809229 -1.2076898 0
5.2829385 -8.181962 -1.1958337 0
5.3338413 -8.2003326 -1.2011257 0
5.3567662 -8.1754751 -1.2001086 0
5.3697639 -8.1356773 -1.1969028 0
5.4043078 -8.128603 -1.198521 0
5.4491744 -8.1367826 -1.2024142 0
5.4538527 -8.0850048 -1.1974581 0
5.4983244 -8.0922756 -1.2012585 0
5.4961782 -8.0310583 -1.1949 0
5.5482626 -8.0491285 -1.2003496 0
5.5354166 -7.9731503 -1.1917801 0
5.6024585 -8.0122385 -1.2004237 0
5.6161418 -7.9747386 -1.1976199 0
5.6660442 -7.9885688 -1.202543 0
5.6880221 -7.9628429 -1.2015345 0
5.7293401 -7.9640942 -1.2046151 0
5.7096248 -7.8808155 -1.1949075 0
5.7514062 -7.8827219 -1.1981137 0
5.7764783 -7.8615909 -1.1978389 0
5.8487129 -7.904223 -1.2073157 0
5.8397751 -7.8370528 -1.2000399 0
5.8580942 -7.8068686 -1.1984187 0
5.870389 -7.7688584 -1.1955985 0
5.8863606 -7.7359343 -1.1935622 0
5.9496059 -7.7648892 -1.2011006 0
5.9909654 -7.7648034 -1.2041876 0
5.9746947 -7.6902652 -1.1957279 0
6.0547824 -7.7396479 -1.2065558 0
6.0540643 -7.685493 -1.2012712 0
6.0770226 -7.6616521 -1.2007227 0
6.0940895 -7.6304817 -1.1990331 0
6.1651673 -7.6666231 -1.2079537 0
6.149313 -7.594625 -1.1998514 0
6.1870704 -7.5890875 -1.2022471 0
6.2058477 -7.5602202 -1.2009635 0
6.2605572 -7.5749388 -1.2066293 0
6.2366781 -7.4947314 -1.1971769 0
6.3047566 -7.5250845 -1.2053953 0
6.296145 -7.4638276 -1.1989576 0
6.3412967 -7.4664149 -1.2027819 0
6.3727307 -7.4526391 -1.2039979 0
6.3863535 -7.4180717 -1.2018659 0
6.4214654 -7.4084735 -1.2037923 0
6.3779259 -7.3085871 -1.1910299 0
6.4547009 -7.3466969 -1.2007605 0
6.4576778 -7.3005738 -1.196754 0
6.5011964 -7.300303 -1.200276 0
6.5148988 -7.266489 -1.1983011 0
6.5554905 -7.2626243 -1.2012815 0
6.5486693 -7.2063432 -1.1955974 0
6.5937271 -7.2072268 -1.1994051 0
6.599741 -7.1654124 -1.1961223 0
6.6911602 -7.2159653 -1.2082992 0
6.6928811 -7.1694579 -1.2042624 0
6.726481 -7.1571918 -1.2059835 0
6.7141132 -7.0962052 -1.1994936 0
6.7221828 -7.0571876 -1.1967014 0
6.7559381 -7.0451751 -1.1984987 0
6.7829413 -7.0260267 -1.1991034 0
6.7718539 -6.967639 -1.1930068 0
6.8364916 -6.9871192 -1.2002602 0
6.8275676 -6.9313555 -1.1946067 0
6.865871 -6.9236541 -1.19724 0
6.9227514 -6.9343572 -1.2030977 0
6.936378 -6.9015718 -1.2014377 0
6.958426 -6.8772359 -1.2012559 0
6.9829717 -6.8553658 -1.2015187 0
7.0033326 -6.8293948 -1.2010754 0
7.0180755 -6.7980142 -1.1996881 0
7.0385189 -6.7722235 -1.1992946 0
7.0494814 -6.737401 -1.1973068 0
7.1300163 -6.768775 -1.2071238 0
7.0940957 -6.6895962 -1.1972383 0
7.1536942 -6.7006264 -1.2034982 0
7.134335 -6.6377273 -1.1964905 0
7.1740184 -6.6299133 -1.199411 0
7.1733847 -6.5848732 -1.1956072 0
7.2409024 -6.6022539 -1.2031642 0
7.225359 -6.5438509 -1.1969291 0
7.2713675 -6.5412769 -1.2009109 0
7.2615738 -6.4885488 -1.1956936 0
7.3103881 -6.4882183 -1.2001427 0
7.3429747 -6.4732575 -1.2019225 0
7.3443866 -6.4308696 -1.1986177 0
7.3734136 -6.4127383 -1.1998392 0
7.3558626 -6.3542819 -1.1935097 0
7.453866 -6.3954263 -1.2059251 0
7.4119353 -6.3164282 -1.1957084 0
7.4788837 -6.3303185 -1.2030779 0
7.5083432 -6.3121662 -1.2044055 0
7.5156779 -6.275445 -1.2022003 0
7.5546837 -6.2651448 -1.2050728 0
7.5733562 -6.2378936 -1.2047083 0
7.5615788 -6.1857576 -1.1995291 0
7.6179862 -6.1893835 -1.2051784 0
7.6106806 -6.1412015 -1.2007585 0
7.5994267 -6.0901647 -1.1957546 0
7.6675973 -6.1026902 -1.2032548 0
7.6870213 -6.0761623 -1.2030993 0
7.6789355 -6.028049 -1.1986637 0
7.7230048 -6.0209031 -1.2023849 0
7.7678547 -6.0141039 -1.2062215 0
7.7457047 -5.9555249 -1.1996745 0
7.753324 -5.920126 -1.1977736 0
7.8034472 -5.9170861 -1.2024453 0
7.7961049 -5.8704548 -1.1982741 0
7.8414216 -5.8634839 -1.202211 0
7.8570938 -5.8342323 -1.2016081 0
7.8285279 -5.7724023 -1.1942729 0
7.8733191 -5.7647796 -1.1981505 0
7.8691254 -5.7212796 -1.1945864 0
7.9418788 -5.7335711 -1.2027059 0
7.949935 -5.6989379 -1.2010255 0
7.9557037 -5.6627889 -1.1990219 0
8.0171947 -5.6661549 -1.2054195 0
8.0351725 -5.6385589 -1.2052733 0
8.0064316 -5.5784211 -1.1981499 0
8.0654097 -5.5794377 -1.2041696 0
8.025444 -5.5120978 -1.1954367 0
8.0996189 -5.5231676 -1.2037203 0
8.0939093 -5.479609 -1.2001348 0
8.1016102 -5.4452987 -1.1985627 0
8.112154 -5.4129887 -1.197431 0
8.1204414 -5.3792577 -1.1959853 0
8.1368513 -5.3509617 -1.195753 0
8.1739073 -5.3361592 -1.1985627 0
8.2147741 -5.3236432 -1.2019311 0
8.258872 -5.3129859 -1.20577 0
8.2487097 -5.2674308 -1.2017012 0
8.2330637 -5.2186627 -1.196866 0
8.3195028 -5.2344351 -1.2068739 0
8.3138866 -5.1920733 -1.2035271 0
8.3028431 -5.1465626 -1.1994237 0
8.3165283 -5.1165276 -1.1989157 0
8.3173409 -5.0786648 -1.1965714 0
8.3782139 -5.0773492 -1.202873 0
8.3896885 -5.0459213 -1.2020847 0
8.4375067 -5.0362358 -1.2065099 0
8.3929672 -4.9715614 -1.1977508 0
8.3927641 -4.9335036 -1.1953546 0
8.4423695 -4.9246507 -1.2000612 0
8.4636431 -4.8991017 -1.2007436 0
8.503912 -4.8844194 -1.2041265 0
8.4736185 -4.829309 -1.1975377 0
8.4743166 -4.7921367 -1.1953588 0
8.4719353 -4.7533731 -1.1927682 0
8.5399857 -4.7539778 -1.2000982 0
8.567667 -4.7318301 -1.2017519 0
8.5523329 -4.6860089 -1.1973906 0
8.6037197 -4.6767268 -1.202383 0
