# .PCD v0.7 - Point Cloud Data file format
VERSION 0.7
FIELDS x y z intensity
SIZE 4 4 4 4
TYPE F F F F
COUNT 1 1 1 1
WIDTH 1411
HEIGHT 1
VIEWPOINT 0 0 0 1 0 0 0
POINTS 1411
DATA ascii
7.588028 -0.36918938 -1.2032454 0
7.5746832 -0.34308749 -1.2009401 0
7.5872269 -0.31816864 -1.2027531 0
7.5020075 -0.28940135 -1.1890832 0
7.5828791 -0.26706246 -1.2017529 0
7.561883 -0.24094081 -1.1982906 0
7.5722809 -0.21586049 -1.1998168 0
7.5547676 -0.19001323 -1.1969342 0
7.6019521 -0.16569796 -1.2043151 0
7.6369281 -0.14084472 -1.2097745 0
7.5609293 -0.11408553 -1.1976681 0
7.587399 -0.089041159 -1.2018069 0
7.5576706 -0.063350208 -1.1970577 0
7.5994349 -0.038219601 -1.2036457 0
7.5730586 -0.012695554 -1.1994545 0
7.5411196 0.01264201 -1.1943959 0
7.5776205 0.038109891 -1.2001905 0
7.5152111 0.062994301 -1.1903325 0
7.605648 0.089255325 -1.2046975 0
7.5830374 0.11441912 -1.2011701 0
7.6243076 0.14061196 -1.2077752 0
7.5411439 0.16437253 -1.1946818 0
7.6009908 0.19117582 -1.2042576 0
7.5734515 0.21589386 -1.2000024 0
7.6299887 0.24311084 -1.209083 0
7.5594568 0.26623753 -1.1980408 0
7.5451922 0.29106727 -1.1959281 0
7.568552 0.31738552 -1.1997926 0
7.5744433 0.34307662 -1.2009021 0
7.5713444 0.36837763 -1.2005999 0
7.5950227 0.39505893 -1.2045578 0
7.5064712 0.41569331 -1.1907281 0
7.5615754 0.44418004 -1.1996986 0
7.5604901 0.46955779 -1.1997695 0
7.5975385 0.4974356 -1.2059065 0
7.514442 0.51730323 -1.1929858 0
7.5571923 0.54571009 -1.2000564 0
7.6176677 0.57575721 -1.2099595 0
7.5626259 0.59710461 -1.2015282 0
7.5731435 0.62349153 -1.2035245 0
7.4956646 0.64242172 -1.1915472 0
7.5069408 0.66874987 -1.1936893 0
7.5064068 0.69407731 -1.1939678 0
7.5640025 0.72498846 -1.2035089 0
7.5678601 0.75097328 -1.2045164 0
7.5428362 0.77403748 -1.2009399 0
7.5913754 0.80474794 -1.2090908 0
7.5269318 0.82344562 -1.1992599 0
7.4943166 0.84531474 -1.1945082 0
7.5315742 0.8751002 -1.2009075 0
7.5485678 0.90273547 -1.204093 0
7.4819188 0.92021948 -1.1939471 0
7.4938231 0.9471997 -1.1963468 0
7.4786959 0.97077388 -1.1944447 0
7.5316796 1.0033406 -1.2034374 0
7.4910374 1.0234997 -1.1974851 0
7.5278997 1.0542589 -1.203936 0
7.5447364 1.0824213 -1.2072023 0
7.4701848 1.0972997 -1.1958555 0
7.5295053 1.1318159 -1.2059525 0
7.520505 1.1562607 -1.2051251 0
7.446908 1.170517 -1.1939538 0
7.5275164 1.2090627 -1.2075207 0
7.4614873 1.2241335 -1.1975803 0
7.4391232 1.2460921 -1.1946547 0
7.5131097 1.2843966 -1.207221 0
7.4254851 1.2950556 -1.1938324 0
7.4955306 1.3331828 -1.2058058 0
7.4591627 1.3525302 -1.2006781 0
7.420742 1.3712778 -1.195227 0
7.4700065 1.4062983 -1.2039144 0
7.4256063 1.4237349 -1.1975212 0
7.4167409 1.4478331 -1.1968677 0
7.4501071 1.4802942 -1.2030462 0
7.4182401 1.4998337 -1.1987057 0
7.4016256 1.522323 -1.196839 0
7.4082055 1.5495833 -1.1987363 0
7.4195991 1.5779499 -1.2014292 0
7.4089665 1.6016716 -1.2005703 0
7.3861151 1.6226721 -1.1977423 0
7.3534493 1.6413596 -1.1933309 0
7.3694663 1.6708938 -1.1968325 0
7.3946109 1.7026821 -1.2018366 0
7.3964972 1.7292507 -1.2030787 0
7.4017401 1.7566701 -1.2048827 0
7.389864 1.780045 -1.2039143 0
7.3612461 1.7992858 -1.2002281 0
7.3384061 1.8197988 -1.1974921 0
7.2922077 1.8343171 -1.1909504 0
7.3570752 1.8768842 -1.2025654 0
7.2732649 1.8814985 -1.1898904 0
7.3551998 1.9290278 -1.2043462 0
7.3417234 1.9518253 -1.2032043 0
7.3407211 1.977934 -1.2041202 0
7.3300371 2.0014398 -1.2034615 0
7.3265567 2.0269096 -1.2039992 0
7.2691369 2.0372863 -1.1956789 0
7.294693 2.0708525 -1.2010179 0
7.2990327 2.0985544 -1.2028841 0
7.2738104 2.117732 -1.1998909 0
7.2250996 2.1298537 -1.1930267 0
7.2533131 2.1646292 -1.1988771 0
7.2212958 2.1814687 -1.1947873 0
7.215672 2.2061973 -1.195074 0
7.2428284 2.2410817 -1.2008094 0
7.2663708 2.2750895 -1.2059704 0
7.2078032 2.2833157 -1.1975141 0
7.2238116 2.3150659 -1.2014565 0
7.1772404 2.326705 -1.1950016 0
7.2680187 2.3830919 -1.2114396 0
7.1869211 2.3832176 -1.1992474 0
7.1770802 2.4066937 -1.1989449 0
7.1294079 2.4173291 -1.1923285 0
4.7781181 1.6379726 -0.80001062 0
4.7171702 1.6347741 -0.79071927 0
4.6736689 1.6372708 -0.78434306 0
4.5689468 1.6178037 -0.76767439 0
4.5540547 1.6297344 -0.76608604 0
4.5769124 1.6552461 -0.77086043 0
4.5004945 1.6446931 -0.75891429 0
4.4347048 1.6375258 -0.74874192 0
4.5000191 1.6788094 -0.76071543 0
4.4658895 1.6831554 -0.75589561 0
4.5148439 1.7189157 -0.76515287 0
4.4662967 1.7175997 -0.75789702 0
4.3870087 1.7040139 -0.74540776 0
4.4650578 1.7515818 -0.75966293 0
4.4724612 1.7718118 -0.76192886 0
4.4419026 1.7769589 -0.75773364 0
4.4359221 1.7918428 -0.75773406 0
4.4326391 1.8078269 -0.75820434 0
4.4616756 1.8371408 -0.76422036 0
7.0132151 2.915302 -1.2029296 0
6.986423 2.9316752 -1.2000133 0
7.0033808 2.9664459 -1.2046276 0
6.9770126 2.9829059 -1.2018056 0
6.9866881 3.0147891 -1.2052066 0
6.9503698 3.0268002 -1.2006855 0
6.9836068 3.0691707 -1.2081982 0
6.9619932 3.0875638 -1.206243 0
6.9166722 3.0952575 -1.2001821 0
6.9175801 3.1235437 -1.2021501 0
6.9362969 3.1600354 -1.2072371 0
6.9003911 3.171658 -1.202832 0
6.850471 3.1765769 -1.1959801 0
6.8404703 3.1998491 -1.1961004 0
6.845603 3.2302685 -1.1988848 0
6.8271089 3.249573 -1.1975473 0
6.8099375 3.2694499 -1.1964514 0
6.8371692 3.3107772 -1.2031792 0
6.8056831 3.3237453 -1.1995928 0
6.7980242 3.34828 -1.2002149 0
6.7449112 3.3502672 -1.1928141 0
6.7493215 3.3807173 -1.1955919 0
6.7391973 3.4039581 -1.1958134 0
6.7091241 3.4170496 -1.1925035 0
6.7235165 3.4528186 -1.1971124 0
6.7663021 3.5035098 -1.2068151 0
6.7478671 3.5227044 -1.2056268 0
6.7078428 3.5304797 -1.2005841 0
6.6928601 3.5513008 -1.2000268 0
6.6486888 3.5564821 -1.1942382 0
6.680665 3.6024468 -1.2021445 0
6.6271782 3.6023374 -1.1946865 0
6.6230731 3.6289258 -1.1961331 0
6.6372051 3.6656566 -1.2008984 0
6.625308 3.6881289 -1.2009764 0
6.6263561 3.7178686 -1.2034192 0
6.6123309 3.7392035 -1.2031422 0
6.5903358 3.7559829 -1.2014246 0
6.5772409 3.777791 -1.2013397 0
6.5431972 3.7874691 -1.1974343 0
6.5786424 3.8374913 -1.2062689 0
6.5432816 3.8463256 -1.202143 0
6.5116177 3.8571467 -1.1986947 0
6.4971418 3.8780577 -1.1984168 0
6.4730172 3.8931525 -1.196368 0
6.4186502 3.8898182 -1.1887233 0
6.4751644 3.9538107 -1.201638 0
6.493753 3.9951129 -1.2075666 0
6.434639 3.9885461 -1.199054 0
6.416255 4.0069909 -1.198125 0
6.4036431 4.0290213 -1.1982857 0
6.3891249 4.0498514 -1.1981031 0
6.3632298 4.0634079 -1.1957953 0
6.3859558 4.1081271 -1.2026477 0
6.3129129 4.0911283 -1.1914682 0
6.312098 4.120717 -1.1939152 0
6.3511996 4.1766806 -1.2039533 0
6.2921143 4.1681113 -1.1953952 0
6.2980137 4.2024689 -1.1991862 0
6.2988791 4.2336373 -1.2020471 0
6.2932806 4.2605762 -1.2036979 0
6.2838693 4.2849998 -1.204639 0
6.234149 4.2817864 -1.1978528 0
6.2958093 4.3552752 -1.2124995 0
6.2298841 4.3406248 -1.202599 0
6.1970382 4.3486762 -1.1990664 0
6.17204 4.3620911 -1.1970526 0
6.1663842 4.3891692 -1.1988031 0
6.1563125 4.4131732 -1.1997149 0
6.1637864 4.4498925 -1.2040721 0
6.151691 4.4726119 -1.2046319 0
6.0973434 4.4644246 -1.196914 0
6.1178274 4.5110092 -1.2038972 0
6.0866947 4.5196342 -1.2007459 0
6.0970621 4.5591259 -1.2058001 0
6.0613637 4.5641975 -1.2017597 0
6.0238113 4.5676494 -1.1973439 0
6.0854115 4.6465755 -1.212678 0
6.0521879 4.6534119 -1.2091596 0
5.9809308 4.6306143 -1.1980183 0
5.9410205 4.6316571 -1.193128 0
5.9737067 4.6894255 -1.2028431 0
5.9374685 4.6932383 -1.1987081 0
5.9562888 4.7406492 -1.2057098 0
5.9193225 4.7437325 -1.2014397 0
5.8743658 4.7401366 -1.195534 0
5.895689 4.7900691 -1.2031354 0
5.8453298 4.7817779 -1.1961235 0
5.8466201 4.8156447 -1.1996849 0
5.8604965 4.8601451 -1.205869 0
5.8212409 4.8606229 -1.2011383 0
5.8601446 4.9265471 -1.212567 0
5.8034983 4.9122295 -1.204247 0
5.7684345 4.9158416 -1.2003844 0
5.769887 4.9505701 -1.204134 0
5.7230201 4.9437685 -1.1978056 0
5.7348757 4.9876838 -1.2037802 0
5.6679978 4.9629951 -1.1932284 0
5.6798649 5.0071301 -1.1992542 0
5.6568608 5.0206566 -1.1979445 0
5.6644855 5.0614772 -1.2031461 0
5.6356902 5.0698318 -1.2006338 0
5.6140995 5.084568 -1.1996591 0
5.573813 5.0822024 -1.194685 0
5.5850744 5.1268697 -1.2007763 0
5.5563235 5.1349106 -1.1982898 0
5.5190749 5.1349025 -1.1939628 0
5.5179005 5.1684332 -1.1974509 0
5.4957747 5.1824102 -1.1964133 0
5.5039706 5.2251129 -1.2020047 0
5.4775457 5.235055 -1.2000601 0
5.4643488 5.2576103 -1.2010241 0
5.4331341 5.2627707 -1.1980349 0
5.4294906 5.294641 -1.2011392 0
5.4453874 5.3458791 -1.2086143 0
5.3559108 5.2934189 -1.1926873 0
5.3838191 5.3568034 -1.2028949 0
5.3367825 5.3457298 -1.1963835 0
5.3439474 5.3889227 -1.2020334 0
5.3523102 5.4336724 -1.2080055 0
5.2981172 5.4148502 -1.1998651 0
5.3024526 5.4557548 -1.2049829 0
5.2694621 5.4583077 -1.2016379 0
5.2563338 5.481369 -1.2028282 0
5.2397475 5.500874 -1.2032465 0
5.2122016 5.5088215 -1.2011555 0
5.2011399 5.5341797 -1.2028756 0
5.1678448 5.5358291 -1.1994612 0
5.1601653 5.5648904 -1.2020026 0
5.1146049 5.5529838 -1.1957201 0
5.0794792 5.5520887 -1.1918535 0
5.1232576 5.6377788 -1.2065542 0
5.0941567 5.6436582 -1.2041503 0
5.0844274 5.6709914 -1.2063382 0
5.0032024 5.6181803 -1.1915292 0
5.0250125 5.6809082 -1.2012527 0
4.9662495 5.6525517 -1.1917291 0
4.9510751 5.6735315 -1.1926457 0
4.9638853 5.7268567 -1.20035 0
4.930191 5.7266655 -1.1968385 0
4.9199009 5.7536163 -1.1990168 0
4.8909173 5.7586989 -1.1966519 0
4.8720169 5.7755809 -1.1967589 0
4.8701363 5.8127837 -1.2010775 0
4.8561025 5.8356686 -1.202435 0
4.8263936 5.8396778 -1.1999202 0
4.8293076 5.8832626 -1.205542 0
4.8017406 5.8898358 -1.2035832 0
4.8121448 5.9431739 -1.2111789 0
4.7543492 5.9122162 -1.2016147 0
4.7496347 5.9470739 -1.2054559 0
4.7000666 5.9256439 -1.1979111 0
4.6658578 5.9231968 -1.1942472 0
4.6865034 5.9906178 -1.2046659 0
4.6758399 6.0184574 -1.2071049 0
4.6441264 6.0191855 -1.2041211 0
4.6188917 6.0281606 -1.2028118 0
4.5738606 6.0110288 -1.1963269 0
4.5848012 6.0675149 -1.2045026 0
4.5556765 6.0711842 -1.2021921 0
4.5205255 6.0666032 -1.198277 0
4.5016952 6.0838003 -1.1986858 0
4.4699187 6.0834079 -1.1956489 0
4.4553614 6.1063981 -1.1972247 0
4.4287453 6.1128578 -1.1955732 0
4.4311461 6.159534 -1.2017899 0
4.4012952 6.1615129 -1.1992899 0
4.3942943 6.1955256 -1.2030358 0
4.3719935 6.2080884 -1.2026221 0
4.3711257 6.2512736 -1.2081419 0
4.3198528 6.2222662 -1.19973 0
4.3275189 6.2781372 -1.2076982 0
4.2862797 6.2631454 -1.2020431 0
4.2415204 6.2425475 -1.1953537 0
4.2395935 6.2849393 -1.2007425 0
4.2309155 6.3176613 -1.2042772 0
4.1817012 6.2896838 -1.1962647 0
4.1638379 6.3085909 -1.1971987 0
4.1513801 6.3358197 -1.1997179 0
4.1282296 6.3468056 -1.1991705 0
4.1284657 6.3939695 -1.2054596 0
4.0963264 6.3911152 -1.2023253 0
4.0367913 6.3449545 -1.1910884 0
4.0525675 6.4171562 -1.202085 0
4.0391374 6.4436426 -1.2045028 0
4.0021262 6.4324226 -1.1998905 0
3.9872591 6.4566903 -1.2019168 0
3.9518716 6.4476423 -1.1977594 0
3.9774244 6.5384359 -1.2121416 0
3.953598 6.5486178 -1.2115649 0
3.8690696 6.4574413 -1.1922896 0
3.8762832 6.5189562 -1.2012411 0
3.8744311 6.5658545 -1.2074826 0
3.8572073 6.5870252 -1.2089908 0
3.8117409 6.55972 -1.2016268 0
3.7954264 6.5823498 -1.2034342 0
3.7683046 6.5862446 -1.2018297 0
3.7421646 6.591732 -1.2005348 0
3.7264366 6.615593 -1.2025982 0
3.6942012 6.6100965 -1.1993407 0
3.6786087 6.6343317 -1.2014934 0
3.6517901 6.6383491 -1.1999968 0
3.6121683 6.6187749 -1.1942625 0
3.6067786 6.6619201 -1.1998587 0
3.5725639 6.651896 -1.1958891 0
3.574178 6.708766 -1.2039522 0
3.5584521 6.7335558 -1.2062531 0
3.5286589 6.731719 -1.2037978 0
3.5065362 6.744411 -1.2039583 0
3.4864309 6.7610307 -1.2048316 0
3.4480078 6.7419147 -1.1993582 0
3.4476852 6.7974062 -1.2071668 0
3.4028063 6.7650523 -1.1993881 0
3.3574114 6.7309265 -1.1913354 0
3.3560188 6.7849936 -1.1989067 0
3.3440726 6.8182716 -1.202799 0
3.316998 6.8208184 -1.2012795 0
3.283762 6.8104391 -1.1975058 0
3.2682474 6.836761 -1.2002006 0
3.2515943 6.8609471 -1.2025259 0
3.2305512 6.8760223 -1.2032628 0
3.1989172 6.8684311 -1.2000508 0
3.1585119 6.8415179 -1.1934916 0
3.1454887 6.873776 -1.1972724 0
3.139931 6.9228816 -1.2039851 0
3.0983028 6.8924389 -1.1968774 0
3.0967712 6.951262 -1.2052823 0
3.0536125 6.9166775 -1.1975037 0
3.0222158 6.9081583 -1.1942677 0
3.0066919 6.9359107 -1.1973161 0
2.9860804 6.9521461 -1.1983836 0
2.9693224 6.9775529 -1.2010403 0
2.9308817 6.9518204 -1.1949128 0
2.9235132 6.9998112 -1.2014701 0
2.8894947 6.9841146 -1.1971062 0
2.8697453 7.0027518 -1.1986448 0
2.8525813 7.0279322 -1.201311 0
2.8488393 7.0868044 -1.2097348 0
2.8155706 7.072473 -1.2056701 0
2.7848487 7.0641332 -1.20265 0
2.7528009 7.0520473 -1.1990142 0
2.7295747 7.0623579 -1.1992046 0
2.7011747 7.0591717 -1.197119 0
2.6811912 7.0779557 -1.1987731 0
2.6448607 7.0533457 -1.1930964 0
2.6488979 7.1368055 -1.2057049 0
2.6168497 7.1235833 -1.2019821 0
2.5739434 7.0800343 -1.193171 0
2.5760729 7.1605668 -1.2052805 0
2.5483689 7.1588221 -1.2035419 0
2.5180955 7.1495605 -1.2005588 0
2.4752421 7.1038132 -1.1914766 0
2.4605019 7.1384482 -1.1958952 0
2.4345293 7.140718 -1.1949013 0
2.4367588 7.2264943 -1.2078809 0
2.4119351 7.232882 -1.2075901 0
2.3590415 7.1541047 -1.1931103 0
2.3435864 7.1881824 -1.1974764 0
2.3353424 7.2452335 -1.2056694 0
2.2882531 7.1815162 -1.1937828 0
2.2652457 7.1925893 -1.1943543 0
2.2455027 7.2142324 -1.1966913 0
2.2388167 7.2786617 -1.2061268 0
2.1990657 7.2356715 -1.1977745 0
2.185298 7.2779894 -1.20356 0
2.1624417 7.2905269 -1.2044276 0
2.1211302 7.2402015 -1.194932 0
2.0949371 7.2406845 -1.1938459 0
2.083776 7.2936158 -1.2014145 0
2.0597165 7.3020015 -1.2016515 0
2.0347497 7.307168 -1.2013723 0
2.0096741 7.3118944 -1.2010348 0
1.9769955 7.2885385 -1.1961029 0
1.960883 7.3262701 -1.2012092 0
1.9286425 7.3037724 -1.1964536 0
1.900961 7.2979798 -1.1944538 0
1.8875991 7.3475881 -1.2015306 0
1.8598131 7.3414793 -1.1995052 0
1.8379128 7.358583 -1.2012861 0
1.8144987 7.3698545 -1.2021263 0
1.7802707 7.3367128 -1.1957401 0
1.7582421 7.3534312 -1.1974972 0
1.7374396 7.3756795 -1.200165 0
1.713552 7.3851328 -1.2007617 0
1.6900216 7.3962646 -1.2016435 0
1.6652566 7.4020791 -1.2016743 0
1.6404148 7.4075551 -1.2016637 0
1.6039159 7.3595409 -1.1929957 0
1.5922855 7.4257545 -1.2028569 0
1.5671693 7.4300551 -1.2026956 0
1.5402349 7.4255586 -1.201125 0
1.5068829 7.3892598 -1.1944296 0
1.4851664 7.4095712 -1.1969012 0
1.4608318 7.4171319 -1.1973245 0
1.4342132 7.4129834 -1.1958719 0
1.4129442 7.4366632 -1.1989211 0
1.3879687 7.4411778 -1.1988919 0
1.3672069 7.4687052 -1.2025816 0
1.3364239 7.4413185 -1.1974437 0
1.3153815 7.4679823 -1.201018 0
1.2844398 7.4382086 -1.1955304 0
1.2624801 7.4601202 -1.1983652 0
1.2431142 7.498414 -1.2038403 0
1.214311 7.480022 -1.200227 0
1.1835238 7.4481721 -1.194473 0
1.1590677 7.455462 -1.1950122 0
1.1300659 7.4330053 -1.1907988 0
1.1197302 7.5349464 -1.2065219 0
1.0899751 7.5077624 -1.2015772 0
1.0668101 7.5255761 -1.2038488 0
1.0424047 7.5351276 -1.204811 0
1.0078464 7.4697375 -1.1938086 0
0.9902755 7.5299468 -1.2028939 0
0.96417111 7.5265718 -1.2018315 0
0.93976939 7.536489 -1.2029052 0
0.91235548 7.5219526 -1.2000899 0
0.88775468 7.5302625 -1.2009342 0
0.8589955 7.5025692 -1.1960516 0
0.8345117 7.5114889 -1.1970208 0
0.81442457 7.5616164 -1.2045671 0
0.78526682 7.5278721 -1.1987654 0
0.76341379 7.5640597 -1.2041137 0
0.73664302 7.5521669 -1.2018206 0
0.71181756 7.5599008 -1.2026647 0
0.68398607 7.5349183 -1.198319 0
0.66160887 7.5702348 -1.203576 0
0.63152659 7.5165067 -1.1946905 0
0.61068779 7.5727234 -1.2032934 0
0.58527416 7.5744662 -1.2032518 0
0.55403531 7.4973598 -1.1907011 0
0.53652799 7.6074038 -1.2078854 0
0.50812095 7.566011 -1.201036 0
0.48186672 7.5538144 -1.1988367 0
0.45591021 7.5450063 -1.1971895 0
0.43206045 7.5719004 -1.2012202 0
0.40535501 7.5488009 -1.1973333 0
0.37969881 7.5432801 -1.196249 0
0.35473749 7.551578 -1.1973696 0
0.32776386 7.5148344 -1.1913626 0
0.30507913 7.5783138 -1.2012573 0
0.27997175 7.5875049 -1.2025588 0
0.25410149 7.5756049 -1.2005309 0
0.22806101 7.5552297 -1.1971741 0
0.203353 7.5792289 -1.2008622 0
0.17815812 7.5891542 -1.2023332 0
0.15264173 7.5862103 -1.2017791 0
0.12627721 7.5313005 -1.1930066 0
0.10187741 7.5951962 -1.2030673 0
0.076284155 7.5828285 -1.201061 0
0.050787635 7.5722623 -1.1993537 0
0.025321262 7.5492182 -1.1956836 0
1.0087386e-05 7.6028223 -1.2041669 0
-0.025440084 7.5906487 -1.2022456 0
-0.050924513 7.5956755 -1.2030621 0
-0.075795539 7.5362468 -1.1936828 0
-0.10171985 7.5849504 -1.2014444 0
-0.12728903 7.5928483 -1.2027563 0
-0.15299867 7.6049533 -1.2047482 0
-0.17732428 7.5544887 -1.1968412 0
-0.20357333 7.588192 -1.2022822 0
-0.22944839 7.6018596 -1.2045628 0
-0.25366837 7.5632911 -1.1985794 0
-0.27898538 7.5613179 -1.1984082 0
-0.3042312 7.5577493 -1.1979976 0
-0.3295106 7.5553436 -1.1977847 0
-0.35650563 7.5896473 -1.2034057 0
-0.37830138 7.5159149 -1.1919091 0
-0.40827796 7.6036115 -1.2060268 0
-0.43303806 7.5893869 -1.2039942 0
-0.458413 7.5867605 -1.2038145 0
-0.4840039 7.5876341 -1.2042038 0
-0.50807548 7.5656338 -1.2009759 0
-0.53269303 7.5533142 -1.199297 0
-0.55829507 7.5552773 -1.1998992 0
-0.5858717 7.5824614 -1.2045217 0
-0.61117774 7.5790505 -1.2042985 0
-0.63315463 7.5361233 -1.1978081 0
-0.65859193 7.5359449 -1.1981241 0
-0.68357503 7.5306125 -1.1976339 0
-0.71056801 7.5468445 -1.2005874 0
-0.73812479 7.5675654 -1.2042708 0
-0.76015776 7.5319986 -1.1990097 0
-0.78429639 7.5187621 -1.1973144 0
-0.81088471 7.5289383 -1.1993611 0
-0.83718985 7.5357776 -1.200891 0
-0.86492121 7.554502 -1.2043303 0
-0.88427669 7.5009317 -1.1962562 0
-0.90492201 7.4608326 -1.1903383 0
-0.93991542 7.5378227 -1.2031176 0
-0.96011299 7.4950504 -1.1967978 0
-0.99020588 7.5295725 -1.2028335 0
-1.0165122 7.5341148 -1.2040969 0
-1.0358449 7.4878564 -1.1972523 0
-1.0701118 7.5490112 -1.2075974 0
-1.0976622 7.5608516 -1.2100734 0
-1.1104929 7.4729228 -1.1965899 0
-1.1385728 7.4890928 -1.1997837 0
-1.1667877 7.50525 -1.2029921 0
-1.1863285 7.4659505 -1.1973237 0
-1.2123029 7.4677777 -1.1982619 0
-1.2333956 7.4399137 -1.1944478 0
-1.265394 7.477459 -1.2011498 0
-1.2890673 7.4651246 -1.199856 0
-1.3153948 7.468173 -1.2010481 0
-1.3351718 7.4344602 -1.1963396 0
-1.3627365 7.4443955 -1.1986668 0
-1.389765 7.4509177 -1.2004606 0
-1.4092758 7.4174628 -1.195825 0
-1.4473071 7.4807682 -1.2068065 0
-1.4639758 7.4331994 -1.1999177 0
-1.4900372 7.4339743 -1.2008425 0
-1.5154876 7.4315553 -1.2012658 0
-1.5392641 7.4209771 -1.2003833 0
-1.5812289 7.4968114 -1.2135006 0
-1.5954415 7.4405689 -1.2052559 0
-1.6211286 7.4386158 -1.2058132 0
-1.6461337 7.4334726 -1.2058674 0
-1.6528877 7.3471904 -1.1927629 0
-1.6916038 7.4032793 -1.2027824 0
-1.7005796 7.3293128 -1.1916851 0
-1.7284275 7.3375092 -1.1939533 0
-1.7737871 7.4185314 -1.2080981 0
-1.7924864 7.3871412 -1.2039582 0
-1.805966 7.3352818 -1.1964862 0
-1.8403721 7.3685126 -1.2029064 0
-1.8554914 7.3245015 -1.1967304 0
-1.8765832 7.3047886 -1.1945308 0
-1.9193773 7.3687625 -1.2060379 0
-1.9195316 7.2693472 -1.1908134 0
-1.9568582 7.3113098 -1.1987555 0
-1.9747133 7.2802014 -1.1947337 0
-2.0109251 7.3165226 -1.201794 0
-2.0344496 7.3061652 -1.2012064 0
-2.0598006 7.3023744 -1.2017119 0
-2.0749114 7.262661 -1.1963146 0
-2.1124661 7.3013425 -1.2038461 0
-2.1340199 7.2842708 -1.2022043 0
-2.1727097 7.3252158 -1.2101574 0
-2.1723831 7.2350464 -1.1964576 0
-2.1921175 7.2128787 -1.1940005 0
-2.2387259 7.2784357 -1.2060883 0
-2.2317255 7.1700363 -1.1893591 0
-2.2629354 7.1853194 -1.1931461 0
-2.2896051 7.1858258 -1.1944982 0
-2.321871 7.203505 -1.1987243 0
-2.3365662 7.1667142 -1.1938989 0
-2.3694355 7.1856909 -1.198377 0
-2.3936408 7.1780849 -1.1984402 0
-2.4121292 7.1535153 -1.1956817 0
-2.4531398 7.1953673 -1.2040451 0
-2.4711225 7.1693225 -1.2010665 0
-2.4828136 7.1256032 -1.1951301 0
-2.5189188 7.1519589 -1.2009604 0
-2.5451503 7.1498404 -1.2020308 0
-2.5701756 7.1442342 -1.2025303 0
-2.592813 7.1319966 -1.2019269 0
-2.5988903 7.0747523 -1.1937416 0
-2.6279225 7.0803504 -1.196166 0
-2.6623974 7.1001697 -1.2010157 0
-2.6858215 7.0902362 -1.2008519 0
-2.7182717 7.1039095 -1.2047045 0
-2.7132809 7.0202556 -1.1920543 0
-2.7505319 7.0462894 -1.198034 0
-2.7865379 7.0684733 -1.2033875 0
-2.8052347 7.0465646 -1.2012521 0
-2.8062334 6.9808712 -1.1916504 0
-2.8394184 6.9955559 -1.1957755 0
-2.8516362 6.9586143 -1.1910886 0
-2.9044685 7.0203605 -1.2033176 0
-2.9077315 6.9620776 -1.1949921 0
-2.9418771 6.977952 -1.199403 0
-2.9761183 6.9935737 -1.2037966 0
-2.9895148 6.9601927 -1.1997693 0
-3.0208721 6.9686723 -1.2029701 0
-3.0221715 6.9081068 -1.1942574 0
-3.0693443 6.9523616 -1.2036804 0
-3.0914109 6.9392791 -1.2032032 0
-3.1161883 6.9322762 -1.2037938 0
-3.135462 6.9130769 -1.2022786 0
-3.1675532 6.9220414 -1.2056779 0
-3.1612291 6.8474512 -1.1945252 0
-3.2041671 6.8797512 -1.2020272 0
-3.2132354 6.8392134 -1.19682 0
-3.2301562 6.8157592 -1.1946042 0
-3.2558186 6.8108077 -1.1956429 0
-3.2828877 6.808672 -1.1971936 0
-3.3012333 6.7884469 -1.1955768 0
-3.3385625 6.8070831 -1.2008237 0
-3.3700988 6.8135056 -1.2039431 0
-3.4050794 6.8265362 -1.2082562 0
-3.4049671 6.769393 -1.200156 0
-3.4503336 6.8026724 -1.2081004 0
-3.444629 6.735352 -1.1981891 0
-3.4756269 6.7401228 -1.2011042 0
-3.4898553 6.7123704 -1.1982369 0
-3.5132444 6.7023554 -1.1985452 0
-3.5487597 6.7152581 -1.2029735 0
-3.5382552 6.6413813 -1.1918576 0
-3.5726893 6.6521716 -1.195937 0
-3.6099703 6.6678576 -1.2009263 0
-3.6269081 6.6458249 -1.1991415 0
-3.649261 6.6337934 -1.1991715 0
-3.6969516 6.6674547 -1.2074903 0
-3.6929536 6.6079054 -1.1989415 0
-3.7144465 6.594348 -1.1987344 0
-3.7316144 6.5731883 -1.1971557 0
-3.7844317 6.6144724 -1.2069787 0
-3.7984545 6.5876417 -1.2043999 0
-3.808111 6.5535135 -1.200488 0
-3.818054 6.5202017 -1.1967241 0
-3.834919 6.4989338 -1.1951737 0
-3.8792381 6.5239649 -1.2021623 0
-3.9158685 6.5355873 -1.2067164 0
-3.9296694 6.5090218 -1.2042373 0
-3.9183004 6.4412813 -1.1941285 0
-3.9525824 6.4488411 -1.19798 0
-3.9792364 6.443737 -1.1995037 0
-3.9923918 6.4168153 -1.1969771 0
-4.0354328 6.4377708 -1.2034032 0
-4.0734205 6.4502149 -1.2082756 0
-4.0776062 6.4091434 -1.2031362 0
-4.101336 6.3989687 -1.2038008 0
-4.1112223 6.367301 -1.2004297 0
-4.103591 6.3089628 -1.1920184 0
-4.151763 6.336441 -1.1998334 0
-4.1906838 6.3493009 -1.2049223 0
-4.2197909 6.3470116 -1.207166 0
-4.18607 6.2507334 -1.1915172 0
-4.2287517 6.2689033 -1.1976767 0
-4.2342896 6.2319407 -1.1933205 0
-4.2820363 6.2569809 -1.2008578 0
-4.2957582 6.2320957 -1.1988393 0
-4.3097181 6.2077036 -1.19692 0
-4.3383694 6.2044625 -1.199093 0
-4.3714252 6.2073169 -1.2024703 0
-4.3727226 6.1651464 -1.1971345 0
-4.4034109 6.1645088 -1.1998708 0
-4.4380488 6.1691632 -1.2036663 0
-4.4427662 6.1322446 -1.1993626 0
-4.4479256 6.096241 -1.195231 0
-4.496089 6.1190586 -1.2026534 0
-4.4910536 6.0694523 -1.1958565 0
-4.528574 6.0774379 -1.2004147 0
-4.552218 6.0666084 -1.2012836 0
-4.562829 6.0384703 -1.1987344 0
-4.5914021 6.0341153 -1.200919 0
-4.5913029 5.9921875 -1.1956316 0
-4.6541085 6.032156 -1.2067133 0
-4.6359148 5.9671016 -1.1968021 0
-4.6819887 5.984879 -1.2035094 0
-4.6711864 5.9299941 -1.1956152 0
-4.6971111 5.9219508 -1.197162 0
-4.7147441 5.9034195 -1.1966047 0
-4.7448401 5.9004235 -1.1992153 0
-4.7984734 5.9263215 -1.207742 0
-4.7775378 5.8601804 -1.1975205 0
-4.792635 5.8386178 -1.1963912 0
-4.8141065 5.8248425 -1.1968693 0
-4.8738437 5.8570204 -1.2068319 0
-4.8682437 5.8105559 -1.2006145 0
-4.8603029 5.7617254 -1.1938852 0
-4.9194016 5.7922683 -1.203625 0
-4.9686108 5.8106112 -1.2108915 0
-4.9410601 5.7393212 -1.1994808 0
-4.9303179 5.6881604 -1.1922365 0
-4.9624276 5.6865711 -1.195384 0
-5.0076971 5.6997576 -1.2016786 0
-4.9723172 5.6213646 -1.1886592 0
-5.0279369 5.6459856 -1.1974233 0
-5.0535445 5.6365757 -1.1990144 0
-5.0625319 5.6086516 -1.1966784 0
-5.1266122 5.6415005 -1.2073478 0
-5.0808649 5.5536327 -1.1921821 0
-5.117238 5.555872 -1.1963391 0
-5.1277332 5.5299444 -1.1944515 0
-5.1903648 5.5599818 -1.2046915 0
-5.1896348 5.5219679 -1.2002183 0
-5.2221909 5.5194087 -1.2034611 0
-5.2122021 5.4719849 -1.1969243 0
-5.2759047 5.5018072 -1.2073101 0
-5.2314057 5.4189162 -1.1929628 0
-5.3020763 5.4553962 -1.2049006 0
-5.282805 5.3992295 -1.1964006 0
-5.317317 5.3981757 -1.2001109 0
-5.325079 5.3699236 -1.1977924 0
-5.3585753 5.3675876 -1.2012721 0
-5.3790641 5.3521008 -1.2018358 0
-5.3562136 5.293746 -1.1927578 0
-5.4106493 5.3118043 -1.2009073 0
-5.4350581 5.3000984 -1.202374 0
-5.4773073 5.3055873 -1.2077785 0
-5.463202 5.2565351 -1.2007751 0
-5.4706464 5.2284889 -1.1985517 0
-5.4492469 5.1731892 -1.1900566 0
-5.4996252 5.1860685 -1.1972545 0
-5.5018687 5.1534438 -1.1939747 0
-5.5549736 5.1683297 -1.2017319 0
-5.5475817 5.1268592 -1.1964073 0
-5.5964737 5.137361 -1.20323 0
-5.5909624 5.0978661 -1.1983635 0
-5.6227021 5.0923862 -1.2015003 0
-5.6560569 5.088181 -1.2049756 0
-5.6034441 5.0069613 -1.1901838 0
-5.6470304 5.0119586 -1.1958656 0
-5.7066441 5.0307641 -1.2049111 0
-5.6901379 4.982408 -1.1978921 0
-5.7086778 4.9649258 -1.1982839 0
-5.7447395 4.9625573 -1.2023542 0
-5.7735796 4.9537649 -1.2049073 0
-5.7553272 4.9046984 -1.1976596 0
-5.7776127 4.8903456 -1.1988783 0
-5.8317437 4.9026971 -1.2066929 0
-5.8008919 4.843658 -1.1969421 0
-5.8415823 4.8444858 -1.2019799 0
-5.8384633 4.8089523 -1.1980137 0
-5.8386369 4.7763286 -1.1947565 0
-5.9084005 4.8004231 -1.205732 0
-5.865418 4.7329421 -1.1937155 0
-5.9074836 4.7342706 -1.1990393 0
-5.9732027 4.7541366 -1.2091362 0
-5.9556417 4.7076287 -1.2023796 0
-5.9787993 4.693449 -1.2038711 0
-5.9527965 4.6408629 -1.1954954 0
-6.0050139 4.6492853 -1.2028449 0
-6.0220466 4.6302624 -1.2031401 0
-6.0046115 4.5849047 -1.1965789 0
-6.0438485 4.5828681 -1.2013291 0
-6.0338569 4.54351 -1.1963084 0
-6.0398722 4.5163865 -1.1944921 0
-6.0825543 4.5165854 -1.1999316 0
-6.1000552 4.49793 -1.2004023 0
-6.0957503 4.4632831 -1.1966035 0
-6.1538138 4.4741807 -1.20505 0
-6.1927214 4.4708071 -1.2097268 0
-6.1625624 4.4176784 -1.2009351 0
-6.1689324 4.3910079 -1.1993008 0
-6.1501646 4.3466549 -1.1928121 0
-6.1977377 4.3491917 -1.199204 0
-6.1676135 4.2972627 -1.1905807 0
-6.2126718 4.2977872 -1.1964904 0
-6.2216864 4.2732511 -1.1954603 0
-6.1985378 4.2268357 -1.1882828 0
-6.2711029 4.2455859 -1.1994582 0
-6.3068638 4.2390285 -1.203573 0
-6.3148942 4.213757 -1.2024025 0
-6.2967801 4.171226 -1.1962838 0
-6.34445 4.1722655 -1.2026758 0
-6.3392143 4.1384435 -1.1990464 0
-6.3672571 4.1263704 -1.2017269 0
-6.3766971 4.1021948 -1.200906 0
-6.4087329 4.0924892 -1.2043483 0
-6.4056644 4.060359 -1.2012066 0
-6.4283442 4.0445862 -1.2029099 0
-6.4335284 4.0178018 -1.2013525 0
-6.4287806 3.9849381 -1.1979642 0
-6.478528 3.9857695 -1.2047373 0
-6.4242711 3.9227581 -1.1921954 0
-6.4556017 3.912235 -1.1955687 0
-6.4829607 3.8991561 -1.1982076 0
-6.4819336 3.8690035 -1.1956135 0
-6.5014167 3.8511276 -1.1968188 0
-6.5094333 3.8264518 -1.1959262 0
-6.4940882 3.7881918 -1.1907667 0
-6.5700927 3.8030608 -1.2023581 0
-6.59653 3.7888935 -1.2048647 0
-6.5682349 3.7434103 -1.1973975 0
-6.5907702 3.7270341 -1.1992209 0
-6.6233749 3.7162187 -1.2028795 0
-6.6159019 3.6829157 -1.1992731 0
-6.6351738 3.6645577 -1.2005326 0
-6.6246257 3.6297994 -1.1964153 0
-6.6497488 3.6146288 -1.1987571 0
-6.6528625 3.5874774 -1.1971433 0
-6.7338505 3.6020591 -1.2095367 0
-6.6667013 3.5374432 -1.1953381 0
-6.7237668 3.5388834 -1.2034358 0
-6.7358694 3.5164638 -1.203485 0
-6.7493634 3.4947617 -1.2037957 0
-6.7406707 3.4616508 -1.2001684 0
-6.7613869 3.4436903 -1.2017944 0
-6.7571907 3.413069 -1.1990077 0
-6.749938 3.3810482 -1.1957027 0
-6.7849464 3.3701754 -1.1998957 0
-6.7868781 3.3428125 -1.1982485 0
-6.7651014 3.3039484 -1.1924413 0
-6.7713532 3.2789292 -1.1915988 0
-6.8973107 3.3114204 -1.2118038 0
-6.8515019 3.2612059 -1.2018276 0
-6.8710036 3.2422769 -1.2033348 0
-6.8856382 3.2210002 -1.2039998 0
-6.9066014 3.2026269 -1.205781 0
-6.8922358 3.1679316 -1.2014118 0
-6.8974962 3.1423807 -1.2004855 0
-6.8576894 3.0965228 -1.1917436 0
-6.945004 3.1079581 -1.2050996 0
-6.9397483 3.0777206 -1.2023903 0
-6.9366431 3.048553 -1.2000747 0
-6.9231448 3.0149658 -1.1959838 0
-7.0151243 3.0270817 -1.2101133 0
-6.974041 2.9816573 -1.2012951 0
-6.9922018 2.9617326 -1.2027061 0
-6.9878945 2.9323146 -1.2002674 0
-6.9484529 2.8884029 -1.1918226 0
-7.0327539 2.8958304 -1.2046101 0
-7.0199819 2.8630817 -1.2007715 0
-7.0350294 2.8417456 -1.2017088 0
-7.0392599 2.8160393 -1.200812 0
-7.084774 2.8067284 -1.2069639 0
-7.0538716 2.7671602 -1.2001121 0
-7.029695 2.730515 -1.1944345 0
-7.0574398 2.7140946 -1.1975958 0
-7.0938053 2.7008133 -1.2022234 0
-7.0698004 2.6645687 -1.1966343 0
-7.0627666 2.6349077 -1.1939417 0
-7.0908275 2.6183269 -1.1971946 0
-7.0853896 2.5893571 -1.1948041 0
-7.156991 2.5883563 -1.2054079 0
-7.125916 2.5501337 -1.1987274 0
-7.1491475 2.5314403 -1.2012008 0
-7.1685562 2.5112963 -1.2030404 0
-7.082839 2.4546371 -1.1872673 0
-7.1822734 2.4621551 -1.2025446 0
-7.1423998 2.4217553 -1.1945022 0
-7.1655693 2.4028547 -1.197023 0
-7.188694 2.3838267 -1.1995442 0
-7.2029281 2.3617706 -1.2005912 0
-7.2432785 2.3481343 -1.2059978 0
-7.2393899 2.3200796 -1.2040485 0
-7.2490482 2.2964025 -1.2043675 0
-7.1999049 2.2543001 -1.1949403 0
-7.2733831 2.2505572 -1.2058761 0
-7.2564421 2.218684 -1.2018273 0
-7.2572203 2.192342 -1.2007321 0
-7.232728 2.1585069 -1.1954756 0
-7.266027 2.1419394 -1.1997857 0
-7.3005786 2.1255465 -1.2043074 0
-7.2872553 2.0951891 -1.2009441 0
-7.312593 2.0759552 -1.2039659 0
-7.24757 2.0312626 -1.1921324 0
-7.3183193 2.0246518 -1.2026464 0
-7.3088679 1.9956803 -1.1999868 0
-7.2945571 1.965516 -1.1965485 0
-7.3431616 1.9522284 -1.2034408 0
-7.3544083 1.928841 -1.2042173 0
-7.3807487 1.909324 -1.2074754 0
-7.3022766 1.8629251 -1.193609 0
-7.3540888 1.8499037 -1.2010574 0
-7.368207 1.8272097 -1.2023559 0
-7.3914981 1.8067009 -1.2051613 0
-7.3593435 1.772714 -1.1989428 0
-7.4088783 1.7583851 -1.2060455 0
-7.3842878 1.7264169 -1.2010936 0
-7.3678379 1.6965379 -1.1974859 0
-7.4257755 1.6836816 -1.2059782 0
-7.4095111 1.6538938 -1.2024294 0
-7.4205132 1.6302497 -1.2033211 0
-7.3634987 1.5918628 -1.1932033 0
-7.3878112 1.5712098 -1.1962826 0
-7.4368086 1.5555868 -1.2033653 0
-7.4200253 1.5261278 -1.1998149 0
-7.3642983 1.4889481 -1.1899899 0
-7.466979 1.4836673 -1.2057714 0
-7.4449358 1.4533575 -1.2014182 0
-7.4598064 1.4303128 -1.2030373 0
-7.45613 1.4037063 -1.2016786 0
-7.4327669 1.3735203 -1.1971644 0
-7.4503226 1.3509477 -1.1992557 0
-7.4552727 1.3260429 -1.1993301 0
-7.4706054 1.3029454 -1.2010871 0
-7.4743395 1.2777891 -1.200992 0
-7.4568191 1.2490766 -1.1974971 0
-7.4969859 1.229978 -1.2032785 0
-7.4669719 1.1993585 -1.197809 0
-7.4525046 1.1714169 -1.1948515 0
-7.4781542 1.1497697 -1.1983391 0
-7.442121 1.1187007 -1.1919572 0
-7.4497662 1.0943207 -1.1925874 0
-7.5335732 1.0808401 -1.2054166 0
-7.5153694 1.0525244 -1.2019324 0
-7.513833 1.0266346 -1.2011296 0
-7.4615183 0.99401414 -1.1922272 0
-7.5178609 0.975878 -1.2007003 0
-7.5654817 0.95627761 -1.2077872 0
-7.5271373 0.92580128 -1.2011633 0
-7.4766994 0.89416087 -1.1926295 0
-7.5387044 0.87594897 -1.2020448 0
-7.4953122 0.84544718 -1.1946672 0
-7.5422087 0.8251372 -1.2016943 0
-7.4995489 0.79503375 -1.1944659 0
-7.4998541 0.76964682 -1.1940968 0
-7.4623246 0.74052078 -1.1877196 0
-7.520709 0.72085905 -1.1966207 0
-7.5396309 0.69716954 -1.1992527 0
-7.5441647 0.67208612 -1.1996087 0
-7.5325618 0.64560419 -1.1974127 0
-7.5787659 0.62397462 -1.2044182 0
-7.6292672 0.60238659 -1.2121161 0
-7.5810738 0.57301164 -1.2041472 0
-7.5419102 0.54462671 -1.1976299 0
-7.574285 0.52144307 -1.2024866 0
-7.568728 0.49556947 -1.2013339 0
-7.6230268 0.47346207 -1.2096936 0
-7.5835581 0.44549152 -1.2031865 0
-7.5698595 0.41922379 -1.2007834 0
-7.5560298 0.39305082 -1.1983738 0
-7.535903 0.36667332 -1.19498 0
-7.551312 0.342049 -1.1972349 0
-7.5679703 0.31738126 -1.1997006 0
-7.6151237 0.29378521 -1.2070125 0
-7.5736699 0.2667582 -1.2002934 0
-7.541863 0.24032296 -1.1951182 0
-7.5328445 0.2147563 -1.1935683 0
-7.5419712 0.18971141 -1.1949069 0
-7.5639768 0.1648903 -1.1982991 0
-7.5929174 0.1400532 -1.2028028 0
-7.5769978 0.11434809 -1.2002133 0
-7.6371675 0.089645483 -1.20969 0
-7.5928588 0.063665316 -1.2026311 0
-7.5697289 0.038090289 -1.1989406 0
-7.558332 0.012690922 -1.1971221 0
-7.6159592 2.0209633e-05 -1.2062477 0
-9.7795143 -0.01642043 -1.2007732 0
-9.7513189 -0.049067881 -1.1973248 0
-9.8059359 -0.082221732 -1.2040581 0
-9.7426195 -0.1143594 -1.196324 0
-9.8026228 -0.14793606 -1.203746 0
-9.7325916 -0.17952001 -1.1952134 0
-9.7507133 -0.21255989 -1.1975198 0
-9.7550068 -0.2453783 -1.1981412 0
-9.756525 -0.2781519 -1.1984355 0
-9.7969408 -0.31218147 -1.2035218 0
-9.7447739 -0.3432284 -1.197248 0
-9.7626562 -0.37663522 -1.1995933 0
-9.7920494 -0.41065341 -1.2033676 0
-9.7626066 -0.44221321 -1.1999247 0
-9.7969961 -0.47669098 -1.2043412 0
-9.751586 -0.50725961 -1.1989613 0
-9.7625542 -0.54065663 -1.2005259 0
-9.7436781 -0.57238644 -1.198434 0
-9.7153025 -0.60341221 -1.195186 0
-9.7448378 -0.63805223 -1.1990758 0
-9.7781906 -0.67316842 -1.2034508 0
-9.7348452 -0.70298588 -1.1983994 0
-9.7101526 -0.73393703 -1.1956559 0
-9.7366304 -0.76877832 -1.1992269 0
-9.7019987 -0.79878455 -1.1952845 0
-9.7345915 -0.8343367 -1.1996378 0
-9.7772522 -0.87102491 -1.2052482 0
-9.7272778 -0.89945537 -1.1994529 0
-9.739213 -0.93350232 -1.2013037 0
-9.7109871 -0.96366584 -1.1982139 0
-9.6824656 -0.99362981 -1.1950991 0
-9.7296667 -1.0314504 -1.2013452 0
-9.6816654 -1.0591992 -1.1958501 0
-9.7107105 -1.095337 -1.1998845 0
-9.719861 -1.1293854 -1.2014765 0
-9.6415615 -1.1530632 -1.192269 0
-9.7002106 -1.1930788 -1.2000093 0
-9.6760263 -1.2230507 -1.1975181 0
-9.6647997 -1.2545676 -1.1966425 0
-9.6336412 -1.2833816 -1.1933107 0
-9.7497644 -1.3321358 -1.2082413 0
-9.7202129 -1.3613119 -1.205138 0
-9.6717997 -1.387611 -1.1997056 0
-9.662282 -1.4193243 -1.1991085 0
-9.6157703 -1.445444 -1.1939311 0
-9.6599503 -1.4852219 -1.2000282 0
-9.6647682 -1.51915 -1.2012527 0
-9.6096258 -1.5435154 -1.1950355 0
-9.6423759 -1.581957 -1.199761 0
-9.6371975 -1.6143073 -1.1997834 0
-9.650301 -1.6497846 -1.2020966 0
-9.6153603 -1.6770111 -1.1984379 0
-9.6122293 -1.7096931 -1.1987554 0
-9.6171389 -1.7438508 -1.2000901 0
-9.6658192 -1.7861718 -1.2069052 0
-9.6123524 -1.8096412 -1.2009801 0
-9.6113615 -1.8428433 -1.2016215 0
-9.5638542 -1.8670005 -1.196458 0
-9.6228695 -1.9120364 -1.2046361 0
-9.5448904 -1.9298302 -1.1956776 0
-9.5353765 -1.9612067 -1.1953028 0
-9.5647011 -2.0006866 -1.1998129 0
-9.5970831 -2.041069 -1.2047267 0
-9.5417233 -2.0627577 -1.1986387 0
-9.5332747 -2.0944128 -1.1984528 0
-9.5285511 -2.1268895 -1.1987488 0
-9.5235653 -2.1593235 -1.1990256 0
-9.5332003 -2.1951399 -1.2011585 0
-9.4835482 -2.2172155 -1.1958324 0
-9.493535 -2.2531466 -1.1980375 0
-9.5233431 -2.293977 -1.2027631 0
-9.4585438 -2.3119483 -1.1955514 0
-9.48524 -2.3522036 -1.1999159 0
-9.455101 -2.3784084 -1.1971053 0
-9.4434204 -2.4091642 -1.1966423 0
-9.4722376 -2.4503706 -1.2013283 0
-9.4537392 -2.4794328 -1.2000299 0
-9.4294081 -2.506871 -1.1980014 0
-9.461729 -2.5494597 -1.203187 0
-9.4953403 -2.5926948 -1.2085598 0
-9.4428339 -2.6124098 -1.2029848 0
-9.3753939 -2.6276236 -1.1955088 0
-9.4083767 -2.6709223 -1.2008499 0
-9.3904362 -2.6998835 -1.1997087 0
-9.368269 -2.7275496 -1.1980382 0
-9.2998743 -2.7414937 -1.1904604 0
-9.3265247 -2.7833714 -1.1950599 0
-9.3498116 -2.8244953 -1.1992505 0
-9.3870239 -2.8701172 -1.2052511 0
-9.3560467 -2.8949826 -1.2025131 0
-9.3019686 -2.9124589 -1.196811 0
-9.3123207 -2.9500198 -1.1994088 0
-9.284832 -2.9756029 -1.1971465 0
-9.3116941 -3.0186758 -1.2019083 0
-9.3164129 -3.0547621 -1.2038325 0
-9.29111 -3.0810039 -1.2018911 0
-9.2674227 -3.1076763 -1.2001679 0
-9.2309675 -3.1299207 -1.1967993 0
-9.2805481 -3.1814647 -1.2046036 0
-9.2120047 -3.192523 -1.1970893 0
-9.2377081 -3.2361636 -1.2018327 0
-9.2299404 -3.2682278 -1.2022411 0
-9.2004471 -3.2925408 -1.1998304 0
-9.2291965 -3.3377783 -1.2050325 0
-9.1962738 -3.3607802 -1.2021983 0
-9.1530781 -3.3798242 -1.1980261 0
-9.1657505 -3.4194686 -1.2011787 0
-9.1514874 -3.4491448 -1.2008182 0
-9.1622772 -3.4883392 -1.2037618 0
-9.1125784 -3.5044439 -1.1987693 0
-9.1191683 -3.5421205 -1.2011918 0
-9.0632248 -3.5554082 -1.1953863 0
-9.1526022 -3.6259263 -1.2087713 0
-9.0634079 -3.6257946 -1.1985903 0
-9.1265078 -3.6865821 -1.2085627 0
-9.0331535 -3.6841488 -1.1978295 0
-9.0016623 -3.7065547 -1.1952949 0
-9.0553293 -3.7642105 -1.2040901 0
-9.0159159 -3.7833285 -1.2005293 0
-9.0057545 -3.8146262 -1.2008725 0
-8.9759111 -3.8375299 -1.198602 0
-8.9639711 -3.8680243 -1.1987326 0
-8.9287796 -3.8884013 -1.1957632 0
-8.9100418 -3.9158328 -1.1950054 0
-8.9541492 -3.9710906 -1.2027 0
-8.9735451 -4.0157504 -1.2071069 0
-8.9009552 -4.0191393 -1.1991482 0
-8.9198961 -4.0637517 -1.2035289 0
-8.8508177 -4.0681701 -1.1960421 0
-8.8378353 -4.0981498 -1.1961377 0
-8.8369045 -4.1337738 -1.1978809 0
-8.8796597 -4.1901178 -1.205574 0
-8.8179436 -4.1972013 -1.1990988 0
-8.8040886 -4.2268705 -1.1991352 0
-8.7770758 -4.2501712 -1.1973902 0
-8.8090115 -4.3021555 -1.2037079 0
-8.8021212 -4.3354015 -1.204746 0
-8.7649078 -4.3536491 -1.2016437 0
-8.7190599 -4.367383 -1.1973588 0
-8.7585516 -4.4239597 -1.2048122 0
-8.6901016 -4.4260178 -1.197431 0
-8.6923304 -4.4639192 -1.1997936 0
-8.6786642 -4.4937367 -1.1999803 0
-8.6446905 -4.5129642 -1.1973681 0
-8.6352816 -4.5449605 -1.1981689 0
-8.6894875 -4.6107616 -1.2078283 0
-8.6309299 -4.6168413 -1.2018337 0
-8.5889797 -4.631506 -1.1981479 0
-8.5712242 -4.6590924 -1.1978434 0
-8.5796528 -4.7010078 -1.2012173 0
-8.5194807 -4.7052464 -1.1949947 0
-8.5033579 -4.7336178 -1.1949527 0
-8.4956722 -4.7667208 -1.1961119 0
-8.5309334 -4.8241825 -1.2033468 0
-8.5135984 -4.8521242 -1.2031896 0
-8.5229836 -4.8954039 -1.2068288 0
-8.4503555 -4.8914404 -1.1988604 0
-8.4401398 -4.9233809 -1.1997463 0
-8.3576794 -4.9129095 -1.1903595 0
-8.4002094 -4.9758816 -1.1987863 0
-8.3982859 -5.012856 -1.2009035 0
-8.3360357 -5.0136824 -1.1943991 0
-8.3647461 -5.0692182 -1.2009414 0
-8.3245115 -5.0830736 -1.1976049 0
-8.3470602 -5.1353426 -1.2033192 0
-8.3222322 -5.1586113 -1.2022266 0
-8.3241739 -5.1985283 -1.2050182 0
-8.2919111 -5.2171054 -1.2028732 0
-8.2813683 -5.2493119 -1.2038903 0
-8.232399 -5.2570462 -1.1993271 0
-8.2283745 -5.2933979 -1.2013196 0
-8.2192478 -5.3265729 -1.2025876 0
-8.1573153 -5.3253579 -1.1961317 0
-8.1305294 -5.3468356 -1.1948261 0
-8.157196 -5.4036365 -1.2014006 0
-8.1205292 -5.4186082 -1.1986693 0
-8.1212282 -5.4585156 -1.2014672 0
-8.1330919 -5.5061674 -1.2059468 0
-8.1105108 -5.5306268 -1.2053413 0
-8.0529327 -5.5310092 -1.1995335 0
-7.9975395 -5.5325184 -1.1940387 0
-7.9966254 -5.5716205 -1.1966846 0
-8.0084782 -5.6198583 -1.2012713 0
-8.0116873 -5.6622939 -1.2045935 0
-7.9303894 -5.6448016 -1.195209 0
-7.9646707 -5.7095332 -1.203254 0
-7.9059854 -5.7076898 -1.1972725 0
-7.9603715 -5.787653 -1.2084405 0
-7.8702564 -5.7625694 -1.1976868 0
-7.84868 -5.7872934 -1.1973494 0
-7.8479595 -5.8274822 -1.2002136 0
-7.7923555 -5.8268266 -1.1946908 0
-7.7758427 -5.8552303 -1.1951623 0
-7.7658267 -5.8885922 -1.1966506 0
-7.7910733 -5.9489827 -1.2036077 0
-7.7175021 -5.9338732 -1.1953088 0
-7.7274714 -5.9828706 -1.1999531 0
-7.6899209 -5.9951434 -1.1972367 0
-7.6807227 -6.0294852 -1.1989453 0
-7.6823335 -6.0724902 -1.2023681 0
-7.6448617 -6.0846281 -1.1996895 0
-7.5832858 -6.0772624 -1.1932174 0
-7.6155567 -6.1451697 -1.2015303 0
-7.5582433 -6.1408777 -1.1957296 0
-7.57794 -6.1991754 -1.2021271 0
-7.580296 -6.2436433 -1.205815 0
-7.4857368 -6.2080007 -1.1940775 0
-7.4858751 -6.2505941 -1.1974357 0
-7.4944487 -6.300519 -1.2021794 0
-7.450913 -6.3066773 -1.1985811 0
-7.4434352 -6.3433065 -1.2007927 0
-7.4196138 -6.3660722 -1.2003863 0
-7.412972 -6.4036493 -1.2027786 0
-7.3614087 -6.4023318 -1.1978885 0
-7.3324189 -6.4204249 -1.1966673 0
-7.3109317 -6.445044 -1.1966804 0
-7.3111358 -6.4889164 -1.2002683 0
-7.2825489 -6.5073256 -1.1991502 0
-7.2613435 -6.5322943 -1.1992582 0
-7.2293234 -6.5474758 -1.1975887 0
-7.2476592 -6.6084499 -1.2042899 0
-7.1954255 -6.6051412 -1.1992837 0
-7.1779451 -6.6335778 -1.2000705 0
-7.1750097 -6.6756063 -1.2033149 0
-7.1034479 -6.6535974 -1.195048 0
-7.1413455 -6.7341876 -1.2052155 0
-7.0660777 -6.7081113 -1.1963018 0
-7.0639405 -6.751256 -1.1997656 0
-7.0690413 -6.8016272 -1.2044983 0
-7.0471683 -6.826231 -1.2046643 0
-7.019949 -6.8456345 -1.2039282 0
-6.9807019 -6.8531742 -1.2011312 0
-6.9351244 -6.8542428 -1.1972364 0
-6.9121561 -6.8775077 -1.1972454 0
-6.8995595 -6.9111633 -1.1990705 0
-6.9091873 -6.9673719 -1.2047966 0
-6.8753238 -6.9798746 -1.2029656 0
-6.8076434 -6.9576731 -1.1951987 0
-6.8544397 -7.0526495 -1.2075593 0
-6.7894807 -7.0328379 -1.2002627 0
-6.7823181 -7.072722 -1.2031819 0
-6.7169061 -7.0516853 -1.1957654 0
-6.6870489 -7.0676384 -1.194662 0
-6.6810637 -7.1089044 -1.197844 0
-6.651372 -7.125031 -1.196797 0
-6.6550207 -7.1770296 -1.2017766 0
-6.6016393 -7.1675115 -1.1964697 0
-6.6016922 -7.2159715 -1.2008575 0
-6.5353575 -7.1917324 -1.1931705 0
-6.5588326 -7.2663655 -1.2018976 0
-6.5801082 -7.3392601 -1.2102988 0
-6.4994683 -7.2984018 -1.1999606 0
-6.4638214 -7.3075576 -1.197896 0
-6.4644694 -7.3578544 -1.2025812 0
-6.4278274 -7.3658099 -1.2003523 0
-6.4383268 -7.4279666 -1.2069569 0
-6.3419657 -7.3665524 -1.193516 0
-6.3437896 -7.4188333 -1.1985338 0
-6.3390045 -7.4637566 -1.2023509 0
-6.3017526 -7.4705148 -1.2000291 0
-6.2807698 -7.4964952 -1.2008131 0
-6.2675362 -7.5318556 -1.2031044 0
-6.2419996 -7.552526 -1.2030563 0
-6.2057824 -7.5601821 -1.2009548 0
-6.1735978 -7.5726027 -1.1996331 0
-6.1688166 -7.6187539 -1.2036608 0
-6.1282401 -7.6207442 -1.2007225 0
-6.1252856 -7.6695843 -1.205175 0
-6.0794501 -7.6647539 -1.2012063 0
-6.0429821 -7.6714659 -1.1990762 0
-6.0287371 -7.7063966 -1.2013698 0
-6.0124779 -7.7389398 -1.2032937 0
-5.9832163 -7.7548027 -1.2026342 0
-5.9232888 -7.7305851 -1.1957918 0
-5.9092188 -7.7660174 -1.1982013 0
-5.8760271 -7.7763629 -1.196751 0
-5.869575 -7.8222122 -1.2007717 0
-5.8248124 -7.8170161 -1.1969693 0
-5.8177037 -7.862359 -1.2009188 0
-5.7879715 -7.8772769 -1.2002267 0
-5.7743926 -7.9142709 -1.2029065 0
-5.7272863 -7.9052377 -1.1986082 0
-5.6923046 -7.9126568 -1.1968327 0
-5.6836534 -7.9567714 -1.2006161 0
-5.6695766 -7.9935932 -1.2032971 0
-5.5891628 -7.9364743 -1.1918713 0
-5.5846982 -7.9868841 -1.1966228 0
-5.573401 -8.0279083 -1.1999627 0
-5.5581131 -8.0634642 -1.2024852 0
-5.5451112 -8.1026058 -1.205543 0
-5.5026283 -8.0986557 -1.2022035 0
-5.4800568 -8.1238976 -1.2032163 0
-5.4324522 -8.1118593 -1.198729 0
-5.3910766 -8.1087484 -1.1955914 0
-5.4020801 -8.1846867 -1.2041109 0
-5.3672576 -8.191535 -1.202464 0
-5.3344254 -8.2012787 -1.2012621 0
-5.3198929 -8.2392435 -1.2042036 0
-5.2652521 -8.2149296 -1.1980631 0
-5.2534041 -8.2572517 -1.2016599 0
-5.2367468 -8.2923288 -1.2042025 0
-5.1828451 -8.2682505 -1.1981758 0
-5.1402211 -8.2616758 -1.194719 0
-5.1076722 -8.2710581 -1.1935925 0
-5.1032529 -8.3262186 -1.1990767 0
-5.0799146 -8.3508549 -1.200165 0
-5.0752864 -8.4065981 -1.205724 0
-5.0303316 -8.395627 -1.2017246 0
-4.9760375 -8.3685236 -1.1954504 0
-4.9781637 -8.4363604 -1.2027498 0
-4.9347615 -8.4272356 -1.1990833 0
-4.8982205 -8.4295216 -1.1970652 0
-4.8878427 -8.4769621 -1.2014681 0
-4.8514957 -8.4794989 -1.1995155 0
-4.8118095 -8.4759378 -1.1967229 0
-4.796874 -8.5160074 -1.2001027 0
-4.7885609 -8.568306 -1.2052034 0
-4.7096968 -8.4939413 -1.1925156 0
-4.7164598 -8.5737953 -1.2014999 0
-4.6893315 -8.5925741 -1.2019215 0
-4.6436234 -8.5770836 -1.1975701 0
-4.6102171 -8.5839977 -1.1963705 0
-4.5777297 -8.5924969 -1.1954093 0
-4.5772057 -8.6613684 -1.202849 0
-4.5478415 -8.6760969 -1.2027701 0
-4.5028811 -8.6608191 -1.1985524 0
-4.4693103 -8.6671276 -1.1973449 0
-4.4635153 -8.7276011 -1.2036251 0
-4.428719 -8.7316561 -1.2021297 0
-4.4081383 -8.7637911 -1.2045122 0
-4.3717628 -8.7645531 -1.2025957 0
-4.3244357 -8.742939 -1.1976337 0
-4.3086667 -8.7850542 -1.2014172 0
-4.2709365 -8.7824831 -1.1991006 0
-4.2523508 -8.8193274 -1.2021776 0
-4.2012353 -8.7885141 -1.1960506 0
-4.1848545 -8.8302107 -1.1998091 0
-4.1369104 -8.8052111 -1.1945208 0
-4.1141224 -8.83354 -1.1964859 0
-4.0966954 -8.8737392 -1.2000636 0
-4.0777373 -8.9110632 -1.2032554 0
-4.0416746 -8.9110975 -1.2014236 0
-4.0140367 -8.9296303 -1.202101 0
-4.0026588 -8.9847546 -1.2077084 0
-3.9104755 -8.857605 -1.1888481 0
-3.9189298 -8.9579248 -1.2005426 0
-3.9001136 -8.9969425 -1.2040125 0
-3.8574166 -8.9808435 -1.2001204 0
-3.8233614 -8.9845085 -1.1988904 0
-3.8059168 -9.027401 -1.2029045 0
-3.7795084 -9.0494013 -1.2041407 0
-3.7257886 -9.0055647 -1.1966388 0
-3.7046132 -9.0400648 -1.1995659 0
-3.695729 -9.1052723 -1.2065675 0
-3.6342263 -9.0406113 -1.1963776 0
-3.6235292 -9.102066 -1.2028958 0
-3.587146 -9.0993366 -1.2009388 0
-3.5547652 -9.1065674 -1.2003134 0
-3.5352829 -9.1470776 -1.2040838 0
-3.480135 -9.0949564 -1.1956801 0
-3.456049 -9.1235409 -1.1979079 0
-3.4321945 -9.1530895 -1.2002699 0
-3.3902402 -9.1342449 -1.1963016 0
-3.4032292 -9.2643404 -1.2118387 0
-3.3196948 -9.1314154 -1.1929885 0
-3.3038666 -9.1836519 -1.1983591 0
-3.2707098 -9.1880836 -1.1974998 0
-3.2255683 -9.1583462 -1.1922078 0
-3.2101786 -9.2131195 -1.1979302 0
-3.1737478 -9.2078085 -1.1958493 0
-3.1549492 -9.2538624 -1.2004499 0
-3.1156695 -9.2399654 -1.1972853 0
-3.092479 -9.2737703 -1.2003154 0
-3.0578046 -9.2732792 -1.1989181 0
-3.0465896 -9.3444977 -1.2067983 0
-2.9917736 -9.2818489 -1.1974053 0
-2.9605336 -9.2915049 -1.1973637 0
-2.9281929 -9.2976599 -1.196885 0
-2.9070189 -9.3396034 -1.201023 0
-2.8716822 -9.3362713 -1.1993496 0
-2.8371658 -9.3353271 -1.1979995 0
-2.7955048 -9.3103313 -1.1935823 0
-2.7783802 -9.3672132 -1.1996735 0
-2.7682664 -9.4492102 -1.2089796 0
-2.7082353 -9.360507 -1.1964619 0
-2.6764274 -9.368103 -1.1962792 0
-2.6634536 -9.4424353 -1.2046241 0
-2.614722 -9.3900537 -1.1968163 0
-2.6076474 -9.487628 -1.2081317 0
-2.5649939 -9.4563961 -1.2030526 0
-2.5152221 -9.3974972 -1.1944799 0
-2.4924121 -9.4388704 -1.1986699 0
-2.4606302 -9.4467087 -1.1986108 0
-2.4215727 -9.4262152 -1.1949736 0
-2.4038651 -9.4891911 -1.2019287 0
-2.3627698 -9.4600973 -1.1972334 0
-2.3309138 -9.4674587 -1.1971693 0
-2.294476 -9.455925 -1.1947314 0
-2.2741311 -9.5111256 -1.2007357 0
-2.2383235 -9.5021162 -1.1986442 0
-2.2079537 -9.5160389 -1.1994599 0
-2.1802826 -9.5419741 -1.2018007 0
-2.156455 -9.5855799 -1.2063754 0
-2.1144311 -9.548171 -1.2007684 0
-2.0911124 -9.5951557 -1.2057886 0
-2.0420537 -9.5234079 -1.1959053 0
-2.0163147 -9.5596094 -1.1995956 0
-1.9804299 -9.5478907 -1.1972851 0
-1.945161 -9.5385618 -1.1952907 0
-1.9206189 -9.5821981 -1.1999451 0
-1.8951443 -9.6224174 -1.2041792 0
-1.8578731 -9.6028814 -1.2009481 0
-1.8295963 -9.6297426 -1.2035335 0
-1.7959764 -9.6287298 -1.2026476 0
-1.7529025 -9.5758057 -1.1952965 0
-1.7335953 -9.6529493 -1.2041935 0
-1.6955899 -9.6267357 -1.2002076 0
-1.670536 -9.6742506 -1.2054263 0
-1.6241271 -9.5972834 -1.1951509 0
-1.5897599 -9.5895233 -1.1935141 0
-1.5630031 -9.628089 -1.1976548 0
-1.5341687 -9.6550217 -1.2003586 0
-1.5073084 -9.6956167 -1.2047704 0
-1.4639361 -9.6292076 -1.1959019 0
-1.4344112 -9.6526899 -1.1982142 0
-1.4051443 -9.6788321 -1.2008678 0
-1.3697908 -9.6630707 -1.1983356 0
-1.338063 -9.672513 -1.1989435 0
-1.3054359 -9.67554 -1.1987695 0
-1.2757119 -9.700573 -1.2013344 0
-1.2494274 -9.753562 -1.207371 0
-1.2103167 -9.7063551 -1.2010182 0
-1.1715797 -9.6593523 -1.1947095 0
-1.1417037 -9.6845732 -1.1973488 0
-1.11413 -9.7311735 -1.2026416 0
-1.0786592 -9.7093096 -1.1994859 0
-1.0483843 -9.7340841 -1.2021055 0
-1.0137067 -9.7180338 -1.1996969 0
-0.97864074 -9.6968307 -1.1966676 0
-0.95053625 -9.7452974 -1.2022487 0
-0.91457337 -9.7135572 -1.197948 0
-0.88531667 -9.7531013 -1.2024519 0
-0.84956157 -9.721117 -1.1981508 0
-0.81969535 -9.7564249 -1.202157 0
-0.78331411 -9.7136669 -1.1965581 0
-0.74977082 -9.7036743 -1.1950109 0
-0.71782917 -9.7142143 -1.1960058 0
-0.68766338 -9.7507143 -1.200209 0
-0.65855521 -9.8063927 -1.2067839 0
-0.62452883 -9.7906151 -1.2045779 0
-0.58838832 -9.7378597 -1.1978376 0
-0.55740768 -9.7690773 -1.201441 0
-0.52486354 -9.7748556 -1.2019285 0
-0.49262619 -9.7872667 -1.2032447 0
-0.46074253 -9.8087473 -1.2056888 0
-0.42656043 -9.7805977 -1.2020462 0
-0.39193627 -9.7365303 -1.1964619 0
-0.36180642 -9.8060102 -1.2048441 0
