# .PCD v0.7 - Point Cloud Data file format
VERSION 0.7
FIELDS x y z intensity
SIZE 4 4 4 4
TYPE F F F F
COUNT 1 1 1 1
WIDTH 1413
HEIGHT 1
VIEWPOINT 0 0 0 1 0 0 0
POINTS 1413
DATA ascii
6.706995 -3.5013673 -1.1983244 0
6.7500534 -3.4950964 -1.203917 0
6.7313237 -3.4568281 -1.1985025 0
6.7747388 -3.4504678 -1.2041659 0
6.7613626 -3.4151537 -1.1997465 0
6.8031869 -3.4076982 -1.2051337 0
6.8106165 -3.3829033 -1.2044338 0
6.7864904 -3.3425992 -1.1981785 0
6.8454542 -3.3431685 -1.2066031 0
6.7677555 -3.2771649 -1.1909641 0
6.8065052 -3.2678022 -1.1958483 0
6.8348761 -3.2532701 -1.1989099 0
6.8372154 -3.2263107 -1.1974159 0
6.8982863 -3.2268946 -1.2062099 0
6.8387957 -3.1711628 -1.1939417 0
6.8909717 -3.1673284 -1.20119 0
6.8812604 -3.1349618 -1.1976582 0
6.8684192 -3.1013458 -1.1936069 0
5.1958694 -2.3251865 -0.90158808 0
5.1691871 -2.292475 -0.89561939 0
5.1439705 -2.2606833 -0.8899321 0
5.1436186 -2.2399824 -0.88856691 0
5.1540551 -2.2239995 -0.88907671 0
5.1814084 -2.2152252 -0.89250892 0
5.1309562 -2.1733365 -0.88255823 0
5.1215558 -2.1491308 -0.87969697 0
5.1595216 -2.1447458 -0.884978 0
5.1719193 -2.1295907 -0.88587481 0
5.1413703 -2.096879 -0.87943304 0
5.2053099 -2.1026287 -0.88915908 0
5.2397766 -2.096144 -0.89384103 0
5.3119617 -2.1043887 -0.90494627 0
5.270442 -2.0675232 -0.89668697 0
5.3410563 -2.0745878 -0.90751243 0
5.4310889 -2.088629 -0.92161506 0
5.4383211 -2.0705068 -0.92165905 0
7.0740385 -2.6661446 -1.1973505 0
7.0701056 -2.6376243 -1.1951813 0
7.0848508 -2.6160986 -1.1961844 0
7.0836468 -2.5886989 -1.1945089 0
7.1362696 -2.5808408 -1.2019167 0
7.0878105 -2.5364757 -1.1923161 0
7.1344643 -2.5262196 -1.1987326 0
7.1274219 -2.4968646 -1.196136 0
7.1590505 -2.4810276 -1.2000413 0
7.1340723 -2.44561 -1.194473 0
7.1543527 -2.425787 -1.1965002 0
7.2076497 -2.4169445 -1.2040516 0
7.2538466 -2.4054105 -1.2104149 0
7.1684017 -2.3504288 -1.1948353 0
7.1882882 -2.3302863 -1.196841 0
7.2128434 -2.3115506 -1.1996323 0
7.2138085 -2.285218 -1.1985117 0
7.2196393 -2.2604578 -1.1982145 0
7.2497053 -2.2432096 -1.2019495 0
7.2628965 -2.2206361 -1.2028953 0
7.3002119 -2.2053084 -1.2078441 0
7.2680721 -2.1690338 -1.2013166 0
7.2655644 -2.1417823 -1.1997085 0
7.2876296 -2.1217554 -1.2021704 0
7.264833 -2.0887218 -1.197248 0
7.2619872 -2.0615678 -1.1956331 0
7.304286 -2.0471373 -1.2014605 0
7.3287845 -2.0275261 -1.2043653 0
7.3046937 -1.9945197 -1.1993005 0
7.2720208 -1.9594229 -1.1928511 0
7.3296347 -1.9486114 -1.2012231 0
7.3257775 -1.9213113 -1.1995285 0
7.3111529 -1.8912996 -1.1960888 0
7.3487558 -1.8747618 -1.2012055 0
7.325079 -1.8425857 -1.1963187 0
7.3692966 -1.8274592 -1.2025329 0
7.3246222 -1.7903339 -1.1942567 0
7.4213729 -1.7876347 -1.2090474 0
7.3917799 -1.7543063 -1.2032614 0
7.3717003 -1.7234534 -1.1990454 0
7.4056101 -1.7052149 -1.2036242 0
7.4274778 -1.6840469 -1.206254 0
7.4354644 -1.6596662 -1.2066405 0
7.4014087 -1.626032 -1.2002224 0
7.4102054 -1.6019394 -1.2007712 0
7.4493833 -1.5842841 -1.2062521 0
7.4511971 -1.558576 -1.2056929 0
7.4596138 -1.5342497 -1.2062157 0
7.42766 -1.5017383 -1.2002279 0
7.4419751 -1.4786785 -1.2017331 0
7.4319773 -1.4508073 -1.1993264 0
7.4363174 -1.4257886 -1.1992487 0
7.4900894 -1.410079 -1.2071512 0
7.4715595 -1.3806683 -1.2034119 0
7.4546194 -1.3517064 -1.1999468 0
7.4728241 -1.3291442 -1.2021531 0
7.4906096 -1.3064138 -1.2043028 0
7.421936 -1.2688103 -1.1925712 0
7.4763637 -1.2523301 -1.2006353 0
7.4619522 -1.2242098 -1.197655 0
7.4451613 -1.195835 -1.1943098 0
7.5266585 -1.1830523 -1.20674 0
7.4680877 -1.1482016 -1.1967255 0
7.5580368 -1.1361047 -1.2105222 0
7.5542278 -1.1096449 -1.2093095 0
7.4984117 -1.0757753 -1.19979 0
7.5281162 -1.0542892 -1.2039706 0
7.5162811 -1.0269488 -1.2015204 0
7.4595833 -0.99373615 -1.1919177 0
7.5362048 -0.97823882 -1.2036296 0
7.5137324 -0.94971621 -1.1995252 0
7.5331578 -0.92652154 -1.2021236 0
7.4669499 -0.89297479 -1.1910739 0
7.5438528 -0.87652689 -1.2028654 0
7.5496039 -0.85155082 -1.2033204 0
7.5597067 -0.8270312 -1.2044818 0
7.5116167 -0.79629296 -1.1963876 0
7.5844574 -0.77830857 -1.2075667 0
7.5591569 -0.75010961 -1.2031312 0
7.5890465 -0.72738886 -1.2074935 0
7.6253881 -0.70507884 -1.2128929 0
7.5298376 -0.6707896 -1.1973302 0
7.5561895 -0.64760911 -1.2011684 0
7.5825548 -0.62426633 -1.2050201 0
7.5493631 -0.59605747 -1.199421 0
7.6125493 -0.57537037 -1.2091465 0
7.5419469 -0.54460925 -1.1976355 0
7.543035 -0.51927155 -1.1975251 0
7.5786424 -0.49619842 -1.2029072 0
7.5323534 -0.4678103 -1.1953044 0
7.5835433 -0.44547045 -1.2031839 0
7.5665784 -0.41902193 -1.2002627 0
7.5632472 -0.39340615 -1.1995183 0
7.5809937 -0.3688471 -1.20213 0
7.5856457 -0.34358403 -1.2026782 0
7.5804114 -0.31788284 -1.2016726 0
7.5806193 -0.29243392 -1.2015435 0
7.5994163 -0.26764485 -1.2043737 0
7.5806303 -0.24153815 -1.2012614 0
7.5687847 -0.21576081 -1.1992629 0
7.6156855 -0.19154541 -1.2065858 0
7.6067586 -0.16580273 -1.2050766 0
7.5587654 -0.13940319 -1.1973926 0
7.5913515 -0.11454456 -1.202487 0
7.5844383 -0.089006416 -1.2013379 0
7.5920877 -0.063638702 -1.202509 0
7.574502 -0.038094208 -1.1996967 0
7.5856905 -0.01271673 -1.2014552 0
7.5151453 0.012598467 -1.190282 0
7.6293502 0.03837005 -1.2083838 0
7.6130857 0.063814715 -1.2058349 0
7.560533 0.08872588 -1.1975515 0
7.5698166 0.11421963 -1.1990758 0
7.6037674 0.14023314 -1.2045214 0
7.5791755 0.1652015 -1.2007068 0
7.5876718 0.19084083 -1.2021474 0
7.5306096 0.21467258 -1.1932142 0
7.5524616 0.24064063 -1.1967976 0
7.5624471 0.26634285 -1.1985148 0
7.5923548 0.29288664 -1.2034035 0
7.5348773 0.31597337 -1.1944543 0
7.5523772 0.34207717 -1.1974036 0
7.5500169 0.36733997 -1.1972179 0
7.591557 0.39487869 -1.2040082 0
7.567451 0.41907024 -1.2004011 0
7.5506811 0.44354007 -1.19797 0
7.5512276 0.46898252 -1.1982995 0
7.5531316 0.49452811 -1.198858 0
7.5623608 0.52060199 -1.2005932 0
7.5289998 0.54367429 -1.1955795 0
7.5477471 0.57047248 -1.1988536 0
7.5072818 0.59273493 -1.1927352 0
7.5861821 0.62456501 -1.2055966 0
7.5002208 0.64281225 -1.1922714 0
7.60004 0.6770435 -1.2084932 0
7.5250196 0.69579834 -1.1969284 0
7.5076132 0.71958369 -1.1945367 0
7.5400133 0.74821001 -1.2000843 0
7.5396724 0.77371281 -1.2004361 0
7.5705791 0.8025434 -1.2057787 0
7.5573182 0.82676989 -1.2041013 0
7.4947357 0.84536201 -1.194575 0
7.5446677 0.8766216 -1.2029953 0
7.5169101 0.8989495 -1.1990432 0
7.4799924 0.91998255 -1.1936396 0
7.459589 0.94287264 -1.1908815 0
7.4876351 0.97193426 -1.1958724 0
7.4712801 0.99529439 -1.1937866 0
7.4958835 1.0241618 -1.1982597 0
7.4591508 1.0446309 -1.192941 0
7.5101786 1.0774634 -1.2016729 0
7.4579358 1.0955003 -1.1938946 0
7.5167913 1.1299047 -1.2039162 0
7.4992681 1.1529956 -1.201722 0
7.4917879 1.1775713 -1.2011493 0
7.473227 1.2003428 -1.1988119 0
7.4749355 1.2263399 -1.1997389 0
7.4822583 1.2533174 -1.2015818 0
7.5106177 1.2839707 -1.2068207 0
7.4384031 1.2973086 -1.1959093 0
7.4716396 1.3289335 -1.2019625 0
7.5250611 1.3644792 -1.2112856 0
7.4838324 1.3829361 -1.2053887 0
7.4207077 1.3970174 -1.1959692 0
7.4584618 1.4300345 -1.2028198 0
7.4279032 1.4500121 -1.198669 0
7.4534764 1.4809637 -1.2035903 0
7.4434266 1.504926 -1.2027755 0
7.4266376 1.5274674 -1.2008834 0
7.4285665 1.5538422 -1.202031 0
7.4406924 1.5824358 -1.2048448 0
7.3752513 1.594383 -1.1951071 0
7.3415198 1.6128749 -1.1905107 0
7.3591909 1.6426412 -1.1942627 0
7.4107347 1.6802506 -1.2035347 0
7.4407945 1.7133163 -1.2093427 0
7.3854251 1.726662 -1.2012777 0
7.413662 1.7594997 -1.2068235 0
7.3532138 1.7712169 -1.1979434 0
7.3388362 1.7938082 -1.1965742 0
7.3306351 1.8178718 -1.1962241 0
7.3741164 1.8549207 -1.2043275 0
7.3112116 1.8651837 -1.1950686 0
7.3312249 1.8964919 -1.1993725 0
7.3389535 1.9247669 -1.2016859 0
7.3307486 1.9489075 -1.2014056 0
7.3344393 1.9762414 -1.2030897 0
7.3244972 1.999927 -1.202552 0
7.3108835 2.0225737 -1.2014234 0
7.3327351 2.0551105 -1.2061399 0
7.2615242 2.0614364 -1.1955569 0
7.2575612 2.0866308 -1.1960496 0
7.2933602 2.1234238 -1.2031157 0
7.2417812 2.1347711 -1.1957812 0
7.2746663 2.1710017 -1.2024065 0
7.213028 2.1789711 -1.1934193 0
7.2087994 2.2040961 -1.1939358 0
7.2176957 2.2333052 -1.1966425 0
7.1806254 2.2482426 -1.1917396 0
7.2293916 2.2901545 -1.2011007 0
7.2007394 2.3076715 -1.1976191 0
7.2346663 2.3453212 -1.2045629 0
7.2460351 2.3758838 -1.2077754 0
7.1430869 2.3686819 -1.1919329 0
7.1514282 2.3980918 -1.1946597 0
7.1523643 2.4251127 -1.1961676 0
4.7324638 1.622322 -0.79236662 0
4.7011437 1.6292198 -0.78803277 0
4.6327043 1.62292 -0.77746832 0
4.5865188 1.6240257 -0.77062684 0
4.5849347 1.6407853 -0.77128071 0
4.4832597 1.6213765 -0.75508714 0
4.435822 1.6210587 -0.74800867 0
4.4647794 1.6486309 -0.75381958 0
4.429441 1.6524791 -0.74878442 0
4.4367728 1.6721816 -0.75096732 0
4.4574146 1.6970508 -0.75542003 0
4.4609861 1.7155575 -0.75699592 0
4.4445739 1.7263737 -0.75518876 0
4.4152856 1.7320567 -0.75119483 0
4.5008259 1.7830489 -0.76676112 0
4.4805841 1.7924333 -0.76433218 0
4.4705715 1.8058389 -0.76365274 0
4.3481588 1.7733721 -0.74375397 0
4.4562254 1.8348966 -0.76328683 0
6.9882355 2.9049184 -1.198645 0
6.9815068 2.9296124 -1.1991689 0
6.9437718 2.9411972 -1.1943744 0
6.9681048 2.9790976 -1.2002712 0
6.9863482 3.0146425 -1.205148 0
6.9803753 3.0398672 -1.2058691 0
6.9306736 3.0459075 -1.1990404 0
6.8904166 3.0558205 -1.1938416 0
6.8906903 3.0836306 -1.1956737 0
6.9538841 3.1399362 -1.208459 0
6.8847885 3.1365693 -1.1982723 0
6.9045076 3.1735499 -1.2035495 0
6.8991895 3.1991677 -1.2044854 0
6.8968186 3.226208 -1.2059532 0
6.8192253 3.2178218 -1.1942654 0
6.8296819 3.2507977 -1.1979986 0
6.826282 3.2772973 -1.1993231 0
6.8192716 3.3021107 -1.2000297 0
6.8216753 3.3315556 -1.2024117 0
6.7697029 3.3343306 -1.1952146 0
6.7781668 3.3667855 -1.1986952 0
6.7565908 3.3843584 -1.1968795 0
6.7986269 3.4339759 -1.2063587 0
6.7980285 3.4623299 -1.2083056 0
6.7423921 3.4625123 -1.2004733 0
6.7206378 3.4798653 -1.1986706 0
6.744978 3.5211961 -1.2051108 0
6.6927028 3.522511 -1.1978743 0
6.7058368 3.5581863 -1.2023535 0
6.683794 3.5752604 -1.2005438 0
6.6548247 3.5885127 -1.1974947 0
6.6730571 3.6272757 -1.2029572 0
6.6172228 3.6257203 -1.1950766 0
6.6112623 3.6513286 -1.1962044 0
6.6303859 3.6909554 -1.2018968 0
6.5613127 3.6813745 -1.1916066 0
6.5812597 3.721633 -1.1974885 0
6.5859766 3.7534986 -1.2006299 0
6.5983858 3.7899363 -1.2052019 0
6.6195202 3.8316483 -1.2114018 0
6.5851889 3.84131 -1.2074692 0
6.5374255 3.8428831 -1.201067 0
6.4572697 3.824954 -1.1886901 0
6.5346823 3.9004653 -1.2053412 0
6.506906 3.9135346 -1.2026314 0
6.5270271 3.9554968 -1.2087946 0
6.4791017 3.9562147 -1.2023686 0
6.453691 3.9704657 -1.2001168 0
6.4212337 3.9802365 -1.196556 0
6.4410849 4.0224972 -1.2027615 0
6.4179325 4.0380116 -1.2009596 0
6.3779087 4.0427423 -1.1959999 0
6.3897815 4.0803633 -1.2007849 0
6.3852944 4.1077013 -1.2025231 0
6.3839951 4.1371937 -1.2048839 0
6.3367195 4.1367908 -1.1985724 0
6.3183665 4.1550884 -1.1977293 0
6.3425169 4.2014999 -1.204971 0
6.3057809 4.2076521 -1.2006651 0
6.271522 4.21525 -1.1968263 0
6.2821927 4.2530694 -1.2015772 0
6.2637162 4.2712569 -1.2007755 0
6.2313018 4.2798314 -1.1973058 0
6.1792474 4.2746406 -1.190051 0
6.2347169 4.3439922 -1.203532 0
6.2396231 4.3785596 -1.2073061 0
6.1648517 4.3570108 -1.1956584 0
6.1949234 4.4094834 -1.2043514 0
6.1413202 4.4024262 -1.1967933 0
6.1520185 4.4413972 -1.2017734 0
6.1530166 4.4735761 -1.2048916 0
6.1245518 4.4843464 -1.202255 0
6.1252818 4.5165057 -1.2053641 0
6.0243635 4.473351 -1.1884497 0
6.0787783 4.545454 -1.2021841 0
6.0504093 4.5559492 -1.1995878 0
6.0207567 4.5653329 -1.1967368 0
5.9997144 4.5811405 -1.1956006 0
5.9540768 4.5779762 -1.1895581 0
5.9917159 4.6389647 -1.2001787 0
5.9650764 4.6504107 -1.1979591 0
5.9847908 4.6981268 -1.2050749 0
5.9493451 4.7026262 -1.2011058 0
5.9191756 4.7111101 -1.1981971 0
5.9192719 4.7436919 -1.2014295 0
5.8809662 4.7454624 -1.1968772 0
5.8756542 4.7737918 -1.1990469 0
5.8757977 4.8067026 -1.2023582 0
5.8674612 4.8328109 -1.2039613 0
5.8514571 4.8526487 -1.2040091 0
5.800889 4.8436298 -1.1969389 0
5.7759409 4.8557582 -1.1951437 0
5.8261361 4.9313908 -1.2089444 0
5.7872119 4.9318438 -1.2042919 0
5.7779622 4.957499 -1.2058192 0
5.7086177 4.9313273 -1.1947913 0
5.6857891 4.944993 -1.1934768 0
5.7071586 4.9972854 -1.2014725 0
5.6710787 4.9993844 -1.197399 0
5.6576343 5.0213428 -1.1981083 0
5.6019111 5.0055642 -1.1898552 0
5.6319847 5.0664983 -1.1998442 0
5.6299272 5.0989027 -1.2030413 0
5.6099887 5.1151872 -1.2024387 0
5.5693874 5.1124692 -1.1974036 0
5.5576558 5.1361423 -1.198577 0
5.5020065 5.1190224 -1.1902703 0
5.5293241 5.1791334 -1.19993 0
5.5365167 5.220829 -1.2052827 0
5.5112815 5.2320528 -1.2036011 0
5.4933128 5.250124 -1.2035146 0
5.4331126 5.2275562 -1.1941587 0
5.4688044 5.2973223 -1.2059004 0
5.4180713 5.2835054 -1.1986129 0
5.3720927 5.2739239 -1.1923465 0
5.3752584 5.3125405 -1.1969957 0
5.3269014 5.3001714 -1.1901779 0
5.3880095 5.3970423 -1.2078674 0
5.3545256 5.3995895 -1.2044127 0
5.3081489 5.3888397 -1.1980385 0
5.3160362 5.4331641 -1.2039232 0
5.2769179 5.4294815 -1.1991801 0
5.2906404 5.4802451 -1.2064673 0
5.2514601 5.4762874 -1.201713 0
5.222651 5.4829254 -1.1993204 0
5.2154808 5.5122876 -1.2019113 0
5.2138762 5.5477319 -1.2058212 0
5.1548128 5.5218692 -1.1964365 0
5.116322 5.5176086 -1.19179 0
5.1194272 5.5582194 -1.1968476 0
5.1079412 5.5831985 -1.1985317 0
5.1148014 5.6284733 -1.2045627 0
5.075809 5.6233311 -1.1998132 0
5.0496569 5.6322093 -1.1980884 0
5.0447073 5.6647873 -1.2014136 0
5.0664639 5.7277699 -1.2111619 0
5.0182943 5.7117887 -1.2042179 0
5.0006795 5.7303743 -1.2045947 0
4.9601402 5.7225361 -1.1994444 0
4.9529238 5.7530708 -1.2023571 0
4.9089265 5.7407818 -1.1963422 0
4.903862 5.7739401 -1.1998191 0
4.8951964 5.8030586 -1.2024525 0
4.8796206 5.8241038 -1.2034165 0
4.8433313 5.8203216 -1.1992728 0
4.8395305 5.8555727 -1.2031863 0
4.8055434 5.8543119 -1.1996096 0
4.7747531 5.8567328 -1.1968186 0
4.787293 5.9124808 -1.204924 0
4.7765031 5.9397659 -1.2072139 0
4.7248163 5.9159985 -1.199157 0
4.6722832 5.8906164 -1.19083 0
4.6815557 5.9431257 -1.1982653 0
4.6595597 5.9561763 -1.19774 0
4.6117616 5.9359798 -1.1905626 0
4.6368885 6.0098042 -1.2022444 0
4.5664186 5.9596777 -1.1891472 0
4.5932565 6.0365191 -1.2013999 0
4.5617824 6.0370517 -1.1984551 0
4.5384126 6.0481772 -1.1976364 0
4.5262694 6.0743117 -1.1997995 0
4.501925 6.0841107 -1.1987469 0
4.5058827 6.1323538 -1.2052689 0
4.4836254 6.1451359 -1.2048197 0
4.4230776 6.1050348 -1.1940432 0
4.4306121 6.1587915 -1.201645 0
4.4095769 6.1731067 -1.2015467 0
4.3798318 6.1751342 -1.1990762 0
4.363061 6.195405 -1.200165 0
4.3527179 6.2249484 -1.2030543 0
4.3341432 6.2428498 -1.2036988 0
4.3024654 6.2417908 -1.2007065 0
4.282896 6.2582011 -1.2010942 0
4.2732716 6.289278 -1.204302 0
4.2398062 6.2852545 -1.2008028 0
4.2299814 6.316267 -1.2040114 0
4.1875196 6.2984352 -1.1979293 0
4.1634178 6.3079538 -1.1970779 0
4.169004 6.3627172 -1.2048111 0
4.1219678 6.3371787 -1.1973516 0
4.1199732 6.3808174 -1.2029799 0
4.0770316 6.361012 -1.1966622 0
4.0409985 6.3515673 -1.1923299 0
4.0549426 6.420917 -1.2027894 0
4.0125437 6.4012179 -1.1965725 0
3.9942131 6.4197044 -1.197518 0
3.959985 6.4125242 -1.1936953 0
3.9794171 6.4925842 -1.206108 0
3.9359987 6.4703369 -1.1995169 0
3.9069695 6.4713836 -1.1972758 0
3.8895795 6.491672 -1.1986098 0
3.87835 6.5224323 -1.2018818 0
3.8592126 6.5400639 -1.2027396 0
3.8139076 6.5130816 -1.1954191 0
3.8054559 6.5489044 -1.1996455 0
3.7477169 6.499608 -1.1883068 0
3.7684321 6.5864673 -1.2018703 0
3.7316051 6.5731316 -1.1971471 0
3.7320824 6.6256161 -1.2044202 0
3.7071772 6.6333146 -1.2035534 0
3.6542678 6.5904331 -1.1935432 0
3.6336505 6.6053743 -1.194036 0
3.621995 6.6367807 -1.1975114 0
3.590008 6.6309438 -1.1942797 0
3.5832839 6.6718559 -1.1994776 0
3.5885487 6.7357397 -1.2087929 0
3.5292392 6.6782765 -1.1963503 0
3.5111167 6.6982532 -1.1978133 0
3.5069189 6.7451468 -1.2040896 0
3.467448 6.7242179 -1.1982715 0
3.4561501 6.7578354 -1.2021905 0
3.4496384 6.8012571 -1.2078507 0
3.4027975 6.7650347 -1.1993849 0
3.3885193 6.7932916 -1.2023737 0
3.3530915 6.7790761 -1.1978611 0
3.3300183 6.7896166 -1.1977439 0
3.3246574 6.8365688 -1.2040535 0
3.2869968 6.8171477 -1.1986854 0
3.2529516 6.8047643 -1.1945834 0
3.2218513 6.7981892 -1.1915262 0
3.2280149 6.8706236 -1.2023182 0
3.1942346 6.8583775 -1.1982943 0
3.1675568 6.8611097 -1.1969094 0
3.1446509 6.8719449 -1.1969535 0
3.1179037 6.8743162 -1.195539 0
3.1325467 6.9686174 -1.2101058 0
3.0776877 6.9084253 -1.1978549 0
3.0615234 6.9345965 -1.2006061 0
3.0295157 6.9248443 -1.1971524 0
3.0103843 6.9444284 -1.1987864 0
2.986059 6.952096 -1.198375 0
2.9459755 6.9226904 -1.1915969 0
2.9558632 7.0110745 -1.2050977 0
2.9417894 7.043571 -1.2089812 0
2.9003429 7.0103359 -1.2016007 0
2.8806398 7.0293365 -1.2031952 0
2.8425596 7.0032415 -1.1970906 0
2.8365648 7.0562701 -1.2045225 0
2.8035889 7.0423756 -1.2005394 0
2.7666531 7.0179782 -1.1947922 0
2.7490668 7.0424805 -1.1973877 0
2.7409134 7.0916953 -1.2041861 0
2.7035837 7.0654674 -1.1981866 0
2.6588058 7.0188613 -1.1887646 0
2.6722043 7.126265 -1.2054311 0
2.6484301 7.1355453 -1.205492 0
2.6151986 7.1190891 -1.2012237 0
2.5958126 7.1401892 -1.2033087 0
2.5804176 7.1726437 -1.2073133 0
2.5393097 7.1333733 -1.1992635 0
2.5000472 7.0983167 -1.1919539 0
2.4860749 7.1349025 -1.1966909 0
2.4695728 7.1647649 -1.200304 0
2.4484482 7.1815443 -1.201733 0
2.4285891 7.2022662 -1.2038312 0
2.4024024 7.2042952 -1.2028172 0
2.3779819 7.211544 -1.2026896 0
2.3423455 7.1843758 -1.1968422 0
2.3184421 7.1928015 -1.1969442 0
2.2899241 7.1867609 -1.1946546 0
2.2664113 7.19629 -1.1949687 0
2.2468247 7.2184796 -1.1973958 0
2.2187352 7.2133751 -1.1953083 0
2.2054513 7.2566824 -1.2012526 0
2.1686215 7.2224493 -1.1943754 0
2.1463795 7.2363734 -1.1954813 0
2.1331184 7.2811217 -1.2016855 0
2.1230156 7.3377318 -1.209847 0
2.0790007 7.2769017 -1.1986612 0
2.0605829 7.3050733 -1.2021569 0
2.0348239 7.3074346 -1.201416 0
1.9943153 7.2560139 -1.1918559 0
1.9725693 7.2722206 -1.1934249 0
1.9469674 7.2742782 -1.1926847 0
1.9278668 7.3008351 -1.1959723 0
1.9205985 7.3733702 -1.206793 0
1.8893356 7.3543477 -1.2026359 0
1.8537589 7.3175812 -1.1956005 0
1.8443502 7.384357 -1.2054937 0
1.8239688 7.4083185 -1.2084002 0
1.781306 7.3409796 -1.1964355 0
1.7586247 7.355031 -1.1977578 0
1.7355585 7.3676939 -1.1988657 0
1.7108356 7.3734255 -1.1988581 0
1.6787987 7.3471479 -1.1936637 0
1.6629646 7.391891 -1.2000204 0
1.6381682 7.3974094 -1.2000179 0
1.6129475 7.4009824 -1.1997135 0
1.5918647 7.4237919 -1.202539 0
1.561757 7.4043951 -1.198542 0
1.5350201 7.4004173 -1.1970583 0
1.503086 7.3706412 -1.1914201 0
1.4831626 7.3995743 -1.1952863 0
1.4644895 7.4357033 -1.2003225 0
1.4440387 7.463769 -1.2040647 0
1.4143045 7.4438233 -1.2000754 0
1.3876195 7.4393053 -1.1985903 0
1.3621221 7.440928 -1.198109 0
1.3385583 7.4532032 -1.1993562 0
1.3117193 7.4471898 -1.197674 0
1.299119 7.5232162 -1.2091936 0
1.2661983 7.4820919 -1.2018945 0
1.2307236 7.4236736 -1.191841 0
1.2161831 7.4915543 -1.2020775 0
1.1896764 7.4868917 -1.2006825 0
1.1618515 7.4733677 -1.1978823 0
1.1385921 7.4890866 -1.1997832 0
1.1106049 7.4735403 -1.1966894 0
1.0867527 7.4855657 -1.1980247 0
1.0567183 7.4543858 -1.1924608 0
1.0418967 7.5314555 -1.2042239 0
1.0131283 7.5088844 -1.200065 0
0.98764902 7.5099759 -1.1997035 0
0.96342856 7.5207748 -1.2009058 0
0.93235135 7.4770002 -1.1934102 0
0.90861249 7.4910936 -1.1951666 0
0.88792324 7.531692 -1.2011622 0
0.86090469 7.5192442 -1.1987098 0
0.83839858 7.5464754 -1.2025962 0
0.80904448 7.5116649 -1.1966099 0
0.78412706 7.5169454 -1.1970254 0
0.76132065 7.5433211 -1.2008123 0
0.73449844 7.5301805 -1.1983218 0
0.71116424 7.5529623 -1.201561 0
0.68428642 7.5382271 -1.198845 0
0.65615273 7.5078053 -1.1936504 0
0.63596106 7.5692863 -1.2030793 0
0.60752177 7.533464 -1.1970552 0
0.58280355 7.5424919 -1.1981725 0
0.55804807 7.551662 -1.1993253 0
0.53017098 7.5172682 -1.193574 0
0.50642467 7.5407524 -1.1970264 0
0.48400226 7.5872912 -1.2041497 0
0.45650712 7.5548849 -1.1987569 0
0.43186003 7.568388 -1.200663 0
0.40504915 7.5431051 -1.19643 0
0.38048774 7.5589533 -1.1987345 0
0.35437047 7.5437651 -1.1961308 0
0.32914612 7.5465264 -1.1963869 0
0.30301425 7.5270209 -1.1931268 0
0.27922577 7.5672884 -1.1993545 0
0.25322461 7.5494623 -1.196388 0
0.22939982 7.5995817 -1.2042019 0
0.20284963 7.5604677 -1.1978896 0
0.17728673 7.5520344 -1.1964525 0
0.15214947 7.5617452 -1.1979034 0
0.12696879 7.5725474 -1.1995405 0
0.10090932 7.5230222 -1.191635 0
0.075992219 7.5538096 -1.1964647 0
0.050777249 7.570714 -1.1991085 0
0.025259292 7.5307426 -1.1927574 0
1.005532e-05 7.5786543 -1.2003391 0
-0.025361584 7.5672264 -1.1985359 0
-0.050426148 7.5213418 -1.1912885 0
-0.076228105 7.5792565 -1.2004952 0
-0.10153697 7.5713129 -1.1992842 0
-0.12707734 7.5802217 -1.2007561 0
-0.15191336 7.5510068 -1.1962022 0
-0.17659938 7.5236058 -1.1919485 0
-0.20314835 7.5723505 -1.1997722 0
-0.22968583 7.6097264 -1.2058094 0
-0.25534648 7.6133251 -1.2065084 0
-0.27807021 7.5365143 -1.1944771 0
-0.30489284 7.5741863 -1.200603 0
-0.32965282 7.5586047 -1.1983016 0
-0.35558075 7.5699577 -1.2002836 0
-0.38094527 7.5684428 -1.2002392 0
-0.40612376 7.5634923 -1.1996634 0
-0.43221858 7.5750251 -1.2017157 0
-0.45858309 7.5895753 -1.2042612 0
-0.48394457 7.5867038 -1.2040563 0
-0.51005113 7.5950527 -1.2056459 0
-0.53593361 7.5992632 -1.2065927 0
-0.55579287 7.5214152 -1.1945213 0
-0.58116627 7.5215626 -1.1948475 0
-0.60536534 7.5069723 -1.1928455 0
-0.63084108 7.5085869 -1.1934314 0
-0.65973312 7.5490031 -1.2002001 0
-0.68505806 7.5469503 -1.2002321 0
-0.71069014 7.5481415 -1.2007937 0
-0.73756385 7.5618148 -1.2033557 0
-0.75737625 7.5044384 -1.1946224 0
-0.78805977 7.5548406 -1.2030597 0
-0.81582373 7.5747962 -1.2066664 0
-0.83184105 7.4876318 -1.1932186 0
-0.85755622 7.4901743 -1.1940752 0
-0.88530827 7.5096827 -1.1976517 0
-0.91530252 7.5464172 -1.2039928 0
-0.93977529 7.5366993 -1.2029383 0
-0.96520752 7.5348206 -1.2031482 0
-0.98910534 7.5212035 -1.2014967 0
-1.0143447 7.5180511 -1.2015296 0
-1.0358399 7.4878201 -1.1972464 0
-1.0592992 7.4727345 -1.1953956 0
-1.0842584 7.4685249 -1.195297 0
-1.1128744 7.4889488 -1.1991562 0
-1.1353157 7.4676685 -1.1963514 0
-1.162365 7.4768009 -1.1984321 0
-1.1892668 7.4844422 -1.2002892 0
-1.2171022 7.4973412 -1.2030056 0
-1.2425672 7.4952374 -1.2033297 0
-1.2641178 7.4699183 -1.1999385 0
-1.2845337 7.4388704 -1.1956363 0
-1.3142426 7.4616318 -1.1999961 0
-1.3383638 7.4522338 -1.1991997 0
-1.370461 7.4865932 -1.2054614 0
-1.3942435 7.4749279 -1.2043289 0
-1.4163046 7.4544578 -1.2017893 0
-1.4318737 7.4009967 -1.1939377 0
-1.4724324 7.4761372 -1.206849 0
-1.4908688 7.4381227 -1.2015126 0
-1.5041479 7.3759484 -1.1922773 0
-1.5428029 7.4380383 -1.2031431 0
-1.5638459 7.4143963 -1.2001603 0
-1.5894458 7.4126072 -1.2007265 0
-1.6213998 7.4398603 -1.2060149 0
-1.6424721 7.4169378 -1.2031851 0
-1.6643107 7.3979664 -1.2010059 0
-1.6803944 7.3542213 -1.1948122 0
-1.7197535 7.4119496 -1.2051212 0
-1.7452985 7.4091301 -1.2056073 0
-1.7639508 7.3773932 -1.2013987 0
-1.7879797 7.3685684 -1.2009312 0
-1.806285 7.3365774 -1.1966976 0
-1.844023 7.3831301 -1.2052926 0
-1.8509262 7.3064804 -1.193786 0
-1.8819485 7.3256736 -1.1979462 0
-1.9157379 7.3547897 -1.203751 0
-1.9373713 7.3369074 -1.2018806 0
-1.9615071 7.3286796 -1.2016033 0
-1.9847982 7.3173809 -1.2008352 0
-1.9967172 7.2648282 -1.1933029 0
-2.0299685 7.2900724 -1.1985606 0
-2.051662 7.2735214 -1.1969637 0
-2.0780478 7.2736387 -1.1981229 0
-2.0993083 7.2558646 -1.1963478 0
-2.1249666 7.2533679 -1.1971041 0
-2.1651959 7.2998834 -1.2059724 0
-2.1817901 7.266376 -1.2016386 0
-2.2014537 7.2435985 -1.1990857 0
-2.2317798 7.2558527 -1.2023462 0
-2.248112 7.2226825 -1.198092 0
-2.2823505 7.2469668 -1.2033828 0
-2.2965944 7.2077608 -1.1981444 0
-2.3190529 7.1947627 -1.1972694 0
-2.3571699 7.2299099 -1.2044266 0
-2.383836 7.229362 -1.2056601 0
-2.4075193 7.2197037 -1.2053888 0
-2.4167092 7.1670976 -1.1979519 0
-2.4344499 7.1405478 -1.1948718 0
-2.4785724 7.1909366 -1.2046875 0
-2.4928296 7.1543493 -1.1999515 0
-2.5235643 7.1651492 -1.2031752 0
-2.5358899 7.123826 -1.1976572 0
-2.5609677 7.118639 -1.198222 0
-2.5889316 7.1213207 -1.2001277 0
-2.6000671 7.0779562 -1.1942822 0
-2.6473145 7.1325979 -1.2049929 0
-2.6620147 7.0991492 -1.2008431 0
-2.6668239 7.0400844 -1.1923579 0
-2.7133913 7.0911551 -1.2025416 0
-2.7200892 7.0378714 -1.1950455 0
-2.7628269 7.0777869 -1.2033893 0
-2.7865379 7.0684733 -1.2033876 0
-2.8144379 7.0696821 -1.205193 0
-2.8284652 7.0361753 -1.2010909 0
-2.8332291 6.9803066 -1.193169 0
-2.8840673 7.0377536 -1.2046347 0
-2.887852 6.9801974 -1.1964335 0
-2.9074483 6.9613991 -1.1948756 0
-2.9459932 6.9877152 -1.2010812 0
-2.9746969 6.9902334 -1.2032216 0
-2.9897666 6.9607792 -1.1998703 0
-3.0142112 6.9533067 -1.2003176 0
-3.0354843 6.9385376 -1.1995182 0
-3.0503311 6.9092946 -1.1962241 0
-3.1006169 6.9599438 -1.2067863 0
-3.1175148 6.9352274 -1.2043062 0
-3.1248796 6.8897448 -1.1982207 0
-3.1534109 6.8911362 -1.2002949 0
-3.1704543 6.867434 -1.1980112 0
-3.2326005 6.9408016 -1.2126938 0
-3.200572 6.8122602 -1.1921034 0
-3.2467551 6.8507833 -1.2007428 0
-3.2653258 6.8306956 -1.1991343 0
-3.2962973 6.8364835 -1.2020837 0
-3.3205793 6.828229 -1.2025832 0
-3.3346035 6.7990112 -1.1993997 0
-3.3721857 6.8177247 -1.2046887 0
-3.3694072 6.7550206 -1.1955984 0
-3.3953788 6.7503304 -1.1967764 0
-3.3920667 6.6877937 -1.1876988 0
-3.4624064 6.770113 -1.204373 0
-3.452594 6.6954565 -1.1931446 0
-3.4946511 6.7215948 -1.1998836 0
-3.5152032 6.7060924 -1.1992135 0
-3.5378947 6.6946988 -1.1992905 0
-3.5716419 6.7040486 -1.2031039 0
-3.5854509 6.6759329 -1.2002089 0
-3.6076632 6.6635962 -1.2001588 0
-3.6037858 6.6034565 -1.1914968 0
-3.6478298 6.6311917 -1.1987013 0
-3.696707 6.6670132 -1.2074103 0
-3.7162907 6.649663 -1.2065179 0
-3.7097874 6.5860763 -1.1972308 0
-3.7227716 6.5576124 -1.1943189 0
-3.7271948 6.5144329 -1.188724 0
-3.7795012 6.5547714 -1.1983904 0
-3.8045354 6.5473604 -1.1993608 0
-3.8245974 6.5313764 -1.1987751 0
-3.8399136 6.5073981 -1.1967304 0
-3.8494616 6.4738879 -1.1929346 0
-3.9123545 6.5297227 -1.2056335 0
-3.9008341 6.4612598 -1.1954008 0
-3.9262769 6.4543939 -1.1965593 0
-3.9625738 6.4651423 -1.2010082 0
-3.9878271 6.4576483 -1.2020931 0
-4.0152693 6.4535851 -1.2038361 0
-4.0196714 6.4126263 -1.1987031 0
-4.0487432 6.4111385 -1.2009556 0
-4.0488615 6.3639636 -1.1946549 0
-4.072135 6.3534088 -1.1952299 0
-4.1039543 6.3560448 -1.1983075 0
-4.1241856 6.3406253 -1.1980007 0
-4.1598926 6.3488479 -1.2021828 0
-4.1795578 6.3324447 -1.2017235 0
-4.2137003 6.3378506 -1.2054236 0
-4.2241926 6.3076591 -1.2023684 0
-4.2462392 6.2948275 -1.2026296 0
-4.2365613 6.2352843 -1.1939608 0
-4.2750349 6.2467499 -1.1988943 0
-4.3047705 6.2451701 -1.2013544 0
-4.3420892 6.2543302 -1.2059102 0
-4.3641291 6.2413025 -1.2062128 0
-4.3543978 6.1831379 -1.1977865 0
-4.4085641 6.2156792 -1.206947 0
-4.3899879 6.1457181 -1.1962134 0
-4.396812 6.1118417 -1.1924824 0
-4.4532428 6.1467056 -1.202191 0
-4.4606853 6.113729 -1.1986597 0
-4.4869399 6.1066074 -1.2002062 0
-4.4908023 6.0691133 -1.1957896 0
-4.536746 6.0884051 -1.2025809 0
-4.5205536 6.0244107 -1.1929278 0
-4.551959 6.0240846 -1.1958786 0
-4.5480361 5.9771233 -1.1895764 0
-4.6036677 6.0083246 -1.1988515 0
-4.6390271 6.012609 -1.202803 0
-4.6761818 6.0189309 -1.2071973 0
-4.6739573 5.9746132 -1.201445 0
-4.6891093 5.9527473 -1.2002027 0
-4.7239242 5.9557552 -1.2039958 0
-4.7388697 5.9336271 -1.2027277 0
-4.7302423 5.8822703 -1.1955258 0
-4.7655935 5.8857136 -1.1994663 0
-4.7916374 5.8774748 -1.2010547 0
-4.7822704 5.8259912 -1.1938038 0
-4.8510332 5.8695216 -1.2060498 0
-4.8336897 5.8087659 -1.1968892 0
-4.8725343 5.8156776 -1.2016727 0
-4.880868 5.7861042 -1.1989367 0
-4.9053588 5.7757339 -1.2001891 0
-4.9622278 5.8031468 -1.2093359 0
-4.9204044 5.7153287 -1.1944665 0
-4.9207029 5.6770678 -1.1899115 0
-4.9485989 5.6707239 -1.1920528 0
-5.0058107 5.6976104 -1.201226 0
-4.9971261 5.6494117 -1.1945899 0
-5.0497804 5.6705141 -1.2026254 0
-5.0364747 5.6175365 -1.1949644 0
-5.0926757 5.6420474 -1.2038038 0
-5.1130376 5.6265626 -1.2041508 0
-5.1349201 5.6127176 -1.2048656 0
-5.1260529 5.5654426 -1.1983999 0
-5.1559367 5.56036 -1.2010211 0
-5.2015548 5.571969 -1.2072889 0
-5.1700821 5.5011625 -1.1956962 0
-5.1815462 5.4764504 -1.1940943 0
-5.1985593 5.4576621 -1.1937914 0
-5.1942825 5.4166903 -1.188632 0
-5.2670021 5.4557886 -1.2010802 0
-5.2855458 5.4383879 -1.201144 0
-5.2525983 5.3683572 -1.1895597 0
-5.314702 5.3955212 -1.1995207 0
-5.316432 5.3612037 -1.1958475 0
-5.346364 5.3553553 -1.1985346 0
-5.3977542 5.370697 -1.2060117 0
-5.4189181 5.3557196 -1.2067213 0
-5.3465524 5.248878 -1.1866808 0
-5.3974257 5.2634006 -1.1940488 0
-5.4195666 5.2496567 -1.1950463 0
-5.4668241 5.2600203 -1.2015712 0
-5.4644828 5.2225981 -1.1972013 0
-5.5072079 5.2282138 -1.2027146 0
-5.4647441 5.1531763 -1.189661 0
-5.542737 5.1917243 -1.2028437 0
-5.5317183 5.1466928 -1.1967009 0
-5.5648475 5.1428156 -1.2001309 0
-5.542273 5.0876069 -1.1915771 0
-5.5764971 5.0846763 -1.195263 0
-5.63062 5.0995579 -1.2031922 0
-5.6378345 5.0717878 -1.2010934 0
-5.6504378 5.0489526 -1.2001653 0
-5.7077265 5.0658288 -1.2087191 0
-5.6663842 4.9952726 -1.1964107 0
-5.7228503 5.0110521 -1.2047788 0
-5.7294917 4.9830279 -1.2026529 0
-5.7205296 4.9416437 -1.1972871 0
-5.7507653 4.9341903 -1.2001462 0
-5.7678699 4.9153872 -1.2002697 0
-5.7677875 4.8820291 -1.1968395 0
-5.7891016 4.8668485 -1.1978695 0
-5.8176165 4.8576226 -1.200393 0
-5.8705478 4.8685069 -1.2079399 0
-5.8490934 4.817708 -1.200195 0
-5.8880134 4.8167214 -1.2048604 0
-5.8612976 4.7621531 -1.1961197 0
-5.8728342 4.7389264 -1.1952249 0
-5.9005823 4.7287402 -1.1976386 0
-5.9102001 4.7039924 -1.1963828 0
-5.9445758 4.6988821 -1.2001455 0
-5.9368677 4.6605325 -1.1954279 0
-5.9818468 4.6635108 -1.2013296 0
-6.0328846 4.6708641 -1.2084275 0
-6.0341973 4.639605 -1.2055677 0
-6.0272298 4.6021752 -1.2010862 0
-6.0175524 4.5629287 -1.1961024 0
-6.038578 4.5470653 -1.1972445 0
-6.0893965 4.5534186 -1.2042863 0
-6.0864363 4.5194678 -1.2006974 0
-6.1188831 4.5118127 -1.2041074 0
-6.1032834 4.4687991 -1.1980823 0
-6.1572151 4.4766536 -1.205716 0
-6.2173281 4.4885716 -1.2145337 0
-6.1351027 4.397994 -1.1955839 0
-6.1982656 4.4118872 -1.2050035 0
-6.1966305 4.3794951 -1.2018242 0
-6.2070694 4.3557401 -1.2010096 0
-6.2554049 4.3584313 -1.2075278 0
-6.1935301 4.2845449 -1.1928039 0
-6.2588181 4.2987547 -1.2025951 0
-6.2633514 4.2710328 -1.2007079 0
-6.2505307 4.2316585 -1.1955234 0
-6.3049951 4.2377725 -1.2032163 0
-6.3357091 4.2276464 -1.2063658 0
-6.3274703 4.1915565 -1.2021145 0
-6.3241916 4.1589432 -1.1988356 0
-6.333972 4.1350212 -1.1980548 0
-6.3430767 4.1107001 -1.1971633 0
-6.3953471 4.1141925 -1.2044184 0
-6.4482055 4.1176953 -1.2117661 0
-6.405911 4.0605154 -1.2012528 0
-6.4009728 4.0273647 -1.197788 0
-6.4671926 4.0388255 -1.2076386 0
-6.4303446 3.9859076 -1.1982557 0
-6.4308791 3.9564548 -1.1958767 0
-6.4632497 3.946559 -1.1994289 0
-6.4962316 3.9368577 -1.2030933 0
-6.5027585 3.9110637 -1.2018667 0
-6.5071478 3.8840539 -1.2002643 0
-6.5620441 3.8870406 -1.2079794 0
-6.5908313 3.8743002 -1.2108808 0
-6.5207491 3.8037438 -1.1956552 0
-6.5793586 3.8084242 -1.2040539 0
-6.5619493 3.7690313 -1.1985486 0
-6.5902276 3.7559445 -1.2014067 0
-6.6228967 3.7452013 -1.2050664 0
-6.5988054 3.7024336 -1.1984174 0
-6.6221919 3.6864171 -1.2004132 0
-6.6626925 3.6797559 -1.2055117 0
-6.6165981 3.6254008 -1.1949655 0
-6.6429949 3.6109576 -1.1975396 0
-6.6761789 3.6000504 -1.201339 0
-6.6517668 3.5581512 -1.1947927 0
-6.7093906 3.5600948 -1.2029924 0
-6.6877241 3.5199132 -1.1969848 0
-6.7258282 3.5112219 -1.2016909 0
-6.7071185 3.4728878 -1.196261 0
-6.7250266 3.4536169 -1.197383 0
-6.7680693 3.4470937 -1.2029822 0
-6.7803516 3.4247677 -1.2031175 0
-6.7930584 3.4026475 -1.2033411 0
-6.7719193 3.3637047 -1.197592 0
-6.7598944 3.3295219 -1.1934845 0
-6.7606511 3.3017747 -1.1916568 0
-6.8248057 3.3048129 -1.2010052 0
-6.8834105 3.3047469 -1.2093616 0
-6.8695297 3.2697871 -1.2049899 0
-6.8458519 3.2304082 -1.1989299 0
-6.8413215 3.2002695 -1.1962507 0
-6.8644676 3.1830893 -1.1984251 0
-6.9006128 3.171782 -1.202872 0
-6.9020662 3.1444626 -1.2012808 0
-6.8885794 3.110471 -1.1971117 0
-6.9054465 3.090256 -1.1982356 0
-6.9115767 3.0652268 -1.1975093 0
-6.97681 3.0662057 -1.2070237 0
-6.9864855 3.0425503 -1.206926 0
-6.9223075 2.9870305 -1.1941023 0
-6.9389639 2.9666605 -1.195253 0
-6.98873 2.9602621 -1.202109 0
-7.0040517 2.9390945 -1.2030426 0
-6.9584856 2.8925736 -1.1935436 0
-7.0105643 2.8866935 -1.2008094 0
-7.0121627 2.8598928 -1.199434 0
-7.0492864 2.8475046 -1.2041441 0
-6.9798846 2.7922864 -1.1906832 0
-7.0079627 2.7762985 -1.1938784 0
-7.0410347 2.7621243 -1.1979281 0
-7.0494218 2.7381773 -1.1977863 0
-7.1292777 2.7417216 -1.2097862 0
-7.0749116 2.6936197 -1.1990213 0
-7.110261 2.6798182 -1.2034827 0
-7.0652313 2.6358273 -1.1943585 0
-7.1320038 2.6335316 -1.2041467 0
-7.0602393 2.5801659 -1.190563 0
-7.1269493 2.5774915 -1.2003481 0
-7.1595988 2.5621877 -1.2043935 0
-7.1103315 2.5176957 -1.194679 0
-7.1288867 2.4973993 -1.196383 0
-7.1980634 2.4945693 -1.206582 0
-7.1257372 2.4427741 -1.1930786 0
-7.1577697 2.4269669 -1.1970727 0
-7.1857319 2.409616 -1.2003913 0
-7.1882396 2.3836758 -1.1994684 0
-7.2100739 2.3641138 -1.2017823 0
-7.2276363 2.3430634 -1.2033935 0
-7.1846108 2.3025239 -1.1949377 0
-7.2904315 2.3095121 -1.211243 0
-7.2194734 2.260427 -1.1981879 0
-7.2427831 2.2410889 -1.2008028 0
-7.2883511 2.2284403 -1.2071122 0
-7.3039479 2.2064581 -1.2084633 0
-7.2441602 2.1619186 -1.1973652 0
-7.2485228 2.1367795 -1.1968954 0
-7.2943254 2.1237259 -1.2032759 0
-7.3219051 2.1051514 -1.2066544 0
-7.3075094 2.074512 -1.2031289 0
-7.3061762 2.047688 -1.2017723 0
-7.2870455 2.0159996 -1.197507 0
-7.3311739 2.001771 -1.203649 0
-7.3230309 1.9731883 -1.2012192 0
-7.3375568 1.9507383 -1.2025223 0
-7.3415561 1.9254702 -1.2021129 0
-7.3420277 1.8993073 -1.2011406 0
-7.360189 1.8776993 -1.2030751 0
-7.3521376 1.8494129 -1.2007388 0
-7.3718934 1.8281239 -1.2029575 0
-7.3728857 1.8021516 -1.2021266 0
-7.3642507 1.7738961 -1.1997423 0
-7.4164734 1.7601876 -1.2072818 0
-7.3207088 1.7115524 -1.1907521 0
-7.3681436 1.6966083 -1.1975356 0
-7.4106355 1.6802487 -1.2035193 0
-7.3743048 1.6460352 -1.1967161 0
-7.3655634 1.6181775 -1.1944103 0
-7.4274421 1.6056863 -1.2035649 0
-7.4228148 1.5786543 -1.2019507 0
-7.3949475 1.5468307 -1.1965917 0
-7.3719091 1.5162314 -1.1920345 0
-7.3923731 1.4946243 -1.1945264 0
-7.4296761 1.4762553 -1.1997477 0
-7.4226208 1.4490013 -1.1978172 0
-7.4409904 1.4267051 -1.2000028 0
-7.3952637 1.3922476 -1.191869 0
-7.4279013 1.3726211 -1.1963807 0
-7.4320254 1.3476299 -1.1963105 0
-7.4514136 1.3253565 -1.1987094 0
-7.4600344 1.3011017 -1.1993877 0
-7.4938145 1.2811185 -1.2041212 0
-7.4971151 1.2558265 -1.2039683 0
-7.5176139 1.2333622 -1.2065893 0
-7.5001392 1.2046859 -1.2031296 0
-7.4359941 1.1688217 -1.1922044 0
-7.4857469 1.1509371 -1.1995559 0
-7.4822645 1.1247351 -1.1983868 0
-7.4893179 1.1001304 -1.1989189 0
-7.495183 1.0753323 -1.1992739 0
-7.5033736 1.0508444 -1.200014 0
-7.522562 1.0278273 -1.2025249 0
-7.5226836 1.0021625 -1.2020005 0
-7.5042953 0.97411704 -1.1985337 0
-7.4983158 0.94778782 -1.1970644 0
-7.544693 0.92796057 -1.2039648 0
-7.5371633 0.90139186 -1.2022742 0
-7.5137568 0.87305021 -1.1980669 0
-7.5653396 0.85334605 -1.2058288 0
-7.5655284 0.8276884 -1.2054098 0
-7.4978476 0.79485339 -1.1941949 0
-7.5050411 0.77017909 -1.1949227 0
-7.5309529 0.74733108 -1.1986426 0
-7.5519028 0.72384894 -1.201584 0
-7.5357418 0.69680995 -1.1986341 0
-7.5286899 0.67070746 -1.197148 0
-7.5578985 0.64777577 -1.2014403 0
-7.531136 0.62005317 -1.1968489 0
-7.5642653 0.59725422 -1.2017889 0
-7.5463896 0.57039005 -1.1986382 0
-7.5495257 0.54517663 -1.1988393 0
-7.5839987 0.52211177 -1.2040287 0
-7.524426 0.49266872 -1.1943021 0
-7.5259795 0.46743453 -1.1942931 0
-7.5814185 0.44536585 -1.202847 0
-7.5618234 0.41877875 -1.1995085 0
-7.5982118 0.39524505 -1.2050638 0
-7.531836 0.36647543 -1.1943351 0
-7.5461512 0.34181523 -1.1964166 0
-7.610352 0.31915861 -1.206419 0
-7.5632339 0.29178333 -1.1987878 0
-7.5225568 0.26495793 -1.1921929 0
-7.5358629 0.24013177 -1.1941674 0
-7.592855 0.21646714 -1.2030768 0
-7.5502033 0.18991849 -1.1962112 0
-7.5960379 0.16558921 -1.2033782 0
-7.5543647 0.13934208 -1.1966956 0
-7.6230636 0.1150433 -1.2075104 0
-7.5590529 0.088728577 -1.1973171 0
-7.5518169 0.063321181 -1.1961305 0
-7.6018696 0.038252018 -1.2040313 0
-7.6145682 0.012785347 -1.2060291 0
-7.5092115 1.9926367e-05 -1.1893405 0
-9.7436962 -0.016360288 -1.1963754 0
-9.7143412 -0.04888181 -1.1927844 0
-9.806283 -0.082224637 -1.2041006 0
-9.7679329 -0.11465653 -1.1994323 0
-9.8069067 -0.14800072 -1.204272 0
-9.7797289 -0.18038946 -1.2010022 0
-9.8643808 -0.21503778 -1.2114795 0
-9.7748795 -0.24587817 -1.2005821 0
-9.767807 -0.27847356 -1.1998214 0
-9.8168068 -0.3128145 -1.2059623 0
-9.8056221 -0.3453716 -1.2047238 0
-9.7899151 -0.37768686 -1.2029428 0
-9.8015442 -0.4110516 -1.2045344 0
-9.7303143 -0.44075048 -1.1959556 0
-9.7545033 -0.47462341 -1.1991175 0
-9.8029909 -0.50993359 -1.2052815 0
-9.7584705 -0.54043049 -1.2000238 0
-9.7250872 -0.57129437 -1.1961474 0
-9.7211561 -0.60377574 -1.1959062 0
-9.7406454 -0.63777775 -1.19856 0
-9.7080593 -0.66834038 -1.1948195 0
-9.7435236 -0.70361263 -1.1994678 0
-9.7145214 -0.73426718 -1.1961938 0
-9.678874 -0.76421809 -1.1921132 0
-9.7386417 -0.80180144 -1.1997989 0
-9.7296162 -0.83391035 -1.1990248 0
-9.7446795 -0.86812305 -1.2012329 0
-9.7310705 -0.89980608 -1.1999205 0
-9.6946478 -0.92923081 -1.1958067 0
-9.7640638 -0.96893299 -1.2047631 0
-9.7138004 -0.99684542 -1.1989667 0
-9.7680492 -1.0355195 -1.2060845 0
-9.7155828 -1.06291 -1.2000395 0
-9.7501001 -1.0997801 -1.2047517 0
-9.6663017 -1.1231622 -1.1948559 0
-9.6831694 -1.1580392 -1.1974142 0
-9.6747932 -1.1899525 -1.196865 0
-9.6932287 -1.225225 -1.1996471 0
-9.7179174 -1.2614628 -1.2032193 0
-9.7277861 -1.2959235 -1.2049724 0
-9.7255383 -1.3288256 -1.2052391 0
-9.6475916 -1.3511412 -1.1961341 0
-9.6874943 -1.3898628 -1.2016524 0
-9.6573992 -1.418607 -1.1985025 0
-9.6262693 -1.4470222 -1.1952347 0
-9.6276484 -1.4802554 -1.1960155 0
-9.5779991 -1.5055113 -1.1904681 0
-9.6608887 -1.5517495 -1.2014105 0
-9.6387606 -1.5813638 -1.1993113 0
-9.6242542 -1.6121392 -1.1981721 0
-9.5937805 -1.6401221 -1.1950562 0
-9.6105995 -1.6761808 -1.1978446 0
-9.5760841 -1.7032641 -1.1942477 0
-9.5718479 -1.7356384 -1.1944385 0
-9.5724134 -1.768911 -1.1952423 0
-9.572464 -1.8021319 -1.1959964 0
-9.6344995 -1.8472797 -1.2045143 0
-9.5784807 -1.8698558 -1.1982877 0
-9.6090393 -1.9092884 -1.2029048 0
-9.5925779 -1.939472 -1.2016515 0
-9.5970373 -1.9738889 -1.2030323 0
-9.5376444 -1.9950269 -1.1964189 0
-9.5735016 -2.0360537 -1.2017665 0
-9.5853195 -2.0721827 -1.2041154 0
-9.5571327 -2.0996544 -1.2014521 0
-9.5793209 -2.138222 -1.2051359 0
-9.5482464 -2.1649196 -1.2021329 0
-9.5583639 -2.2009342 -1.204329 0
-9.5185242 -2.2253928 -1.2002428 0
-9.5418139 -2.264605 -1.2041301 0
-9.5452261 -2.299248 -1.2055268 0
-9.4866457 -2.3188171 -1.1991035 0
-9.4729452 -2.3491545 -1.1983604 0
-9.4410563 -2.3748755 -1.195327 0
-9.5024796 -2.4242313 -1.2041262 0
-9.4806423 -2.4525449 -1.2023942 0
-9.4382925 -2.4753814 -1.198069 0
-9.4398603 -2.5096498 -1.1993294 0
-9.4942656 -2.5582268 -1.2073245 0
-9.4172592 -2.5713749 -1.1986217 0
-9.4609089 -2.6174104 -1.2052876 0
-9.4382696 -2.6452458 -1.2035265 0
-9.4680862 -2.6878731 -1.2084711 0
-9.3895941 -2.6996415 -1.1996012 0
-9.3743238 -2.7293124 -1.1988126 0
-9.3851118 -2.7666206 -1.2013717 0
-9.3329029 -2.7852745 -1.1958771 0
-9.358552 -2.8271358 -1.2003715 0
-9.3595552 -2.8617182 -1.2017242 0
-9.3234501 -2.8848965 -1.1983236 0
-9.2719812 -2.9030702 -1.1929528 0
-9.3397942 -2.9587233 -1.2029474 0
-9.3163223 -2.9856946 -1.2012067 0
-9.3126965 -3.0190005 -1.2020376 0
-9.2334919 -3.0275729 -1.1931177 0
-9.2589169 -3.0703285 -1.1977266 0
-9.2496767 -3.1017256 -1.1978698 0
-9.2225599 -3.12707 -1.1957092 0
-9.2384491 -3.167033 -1.1991392 0
-9.2284698 -3.1982293 -1.1992289 0
-9.244976 -3.2387097 -1.2027782 0
-9.2471046 -3.2743051 -1.2044766 0
-9.1897411 -3.2887096 -1.1984344 0
-9.222434 -3.3353324 -1.2041494 0
-9.2191629 -3.3691449 -1.2051904 0
-9.1417494 -3.3756411 -1.1965432 0
-9.1844196 -3.4264333 -1.2036252 0
-9.11479 -3.4353139 -1.196003 0
-9.0877724 -3.4599731 -1.1939733 0
-9.1130753 -3.5046351 -1.1988347 0
-9.1119928 -3.5393333 -1.2002466 0
-9.0976839 -3.5689261 -1.1999311 0
-9.1161213 -3.6114738 -1.2039533 0
-9.0987396 -3.6399291 -1.2032627 0
-9.0636415 -3.6611881 -1.2002379 0
-9.0928783 -3.7085073 -1.2057493 0
-9.0218859 -3.7148821 -1.1979803 0
-9.0373926 -3.7567544 -1.2017051 0
-9.021245 -3.7855647 -1.2012389 0
-8.977664 -3.8027277 -1.1971269 0
-8.9350233 -3.8200488 -1.1931421 0
-8.9603481 -3.8664613 -1.1982483 0
-8.9572916 -3.9008181 -1.1995817 0
-8.9514494 -3.934031 -1.2005591 0
-8.9236889 -3.9575818 -1.1986088 0
-8.8587637 -3.9643848 -1.1916668 0
-8.9062805 -4.0215445 -1.1998657 0
-8.8763809 -4.0439267 -1.1976575 0
-8.8610439 -4.0728698 -1.1974238 0
-8.8988533 -4.1264443 -1.2043961 0
-8.8222895 -4.1269369 -1.1958996 0
-8.9031591 -4.2012067 -1.2087646 0
-8.8545408 -4.2146206 -1.2040755 0
-8.8127327 -4.2310209 -1.2003126 0
-8.8039541 -4.2631865 -1.201057 0
-8.8102207 -4.3027458 -1.2038732 0
-8.766284 -4.3177505 -1.1998409 0
-8.7735233 -4.3579288 -1.2028248 0
-8.739109 -4.3774257 -1.2001121 0
-8.7280111 -4.408534 -1.2006112 0
-8.7399864 -4.4514246 -1.2043047 0
-8.6826525 -4.4589496 -1.1984577 0
-8.6561365 -4.4820724 -1.1968654 0
-8.647583 -4.5144744 -1.1977688 0
-8.6688633 -4.5626354 -1.2028285 0
-8.6402416 -4.584631 -1.2009832 0
-8.6030807 -4.6019444 -1.1979558 0
-8.6391115 -4.6585388 -1.2051413 0
-8.6107731 -4.6805906 -1.2033705 0
-8.5622759 -4.6914868 -1.1987845 0
-8.5726252 -4.7345977 -1.2024491 0
-8.5487804 -4.7589035 -1.2013359 0
-8.5485296 -4.7963777 -1.2035537 0
-8.493166 -4.8028259 -1.1980195 0
-8.4989262 -4.8437624 -1.2011161 0
-8.4871607 -4.8748279 -1.2017564 0
-8.4240952 -4.8762398 -1.1951348 0
-8.4539318 -4.9314256 -1.2017066 0
-8.4491701 -4.9666905 -1.2033902 0
-8.4263811 -4.9913845 -1.2025212 0
-8.3893051 -5.0074954 -1.1996194 0
-8.3780556 -5.0389552 -1.2004199 0
-8.3158932 -5.0396118 -1.1939274 0
-8.3152275 -5.077405 -1.1962693 0
-8.3251076 -5.1218362 -1.2001544 0
-8.3170061 -5.1553721 -1.2014717 0
-8.3035908 -5.1856742 -1.2020386 0
-8.2917004 -5.2169728 -1.2028427 0
-8.2507114 -5.2298794 -1.1994336 0
-8.211134 -5.2434664 -1.196229 0
-8.2056618 -5.2787862 -1.1980035 0
-8.2256689 -5.3307347 -1.2035272 0
-8.2438316 -5.3818393 -1.208818 0
-8.1684504 -5.3717732 -1.2003988 0
-8.1979313 -5.4306211 -1.2074002 0
-8.0965366 -5.4025989 -1.1951277 0
-8.1182823 -5.4565358 -1.2010313 0
-8.1114712 -5.4915299 -1.2027409 0
-8.1022921 -5.525022 -1.2041198 0
-8.0370827 -5.520123 -1.1971725 0
-8.0251007 -5.5515847 -1.1981537 0
-7.9983244 -5.572804 -1.1969389 0
-8.0227118 -5.6298466 -1.2034063 0
-7.9556971 -5.6227231 -1.1961753 0
-7.9826317 -5.6819878 -1.2030827 0
-7.9088449 -5.6695142 -1.1948202 0
-7.9307528 -5.7255707 -1.2010232 0
-7.8829618 -5.7313714 -1.1966892 0
-7.9013319 -5.7853227 -1.2024158 0
-7.8827906 -5.8124456 -1.2025532 0
-7.9009843 -5.8668561 -1.2083228 0
-7.8371625 -5.8603315 -1.2015604 0
-7.818871 -5.8876305 -1.2017758 0
-7.8028307 -5.9166512 -1.2023526 0
-7.7445035 -5.9134235 -1.1964133 0
-7.7619557 -5.9680529 -1.202194 0
-7.7177544 -5.9753475 -1.1984441 0
-7.6869154 -5.9928002 -1.1967688 0
-7.7201171 -6.0604105 -1.2050946 0
-7.7124195 -6.0962715 -1.2070769 0
-7.6455173 -6.0851498 -1.1997924 0
-7.62503 -6.1107159 -1.1997857 0
-7.573462 -6.1112027 -1.1948889 0
-7.5918612 -6.1681914 -1.201048 0
-7.5707488 -6.1932926 -1.2009863 0
-7.5517917 -6.2201653 -1.2012807 0
-7.5635972 -6.2725706 -1.2064972 0
-7.5244517 -6.282805 -1.2036064 0
-7.4495006 -6.2627316 -1.1949693 0
-7.4156904 -6.2768636 -1.1929151 0
-7.4396925 -6.340117 -1.2001889 0
-7.3941197 -6.3441978 -1.1962618 0
-7.4090152 -6.4002314 -1.2021366 0
-7.3186564 -6.3651495 -1.1909316 0
-7.3771882 -6.4596262 -1.2039738 0
-7.341145 -6.4716792 -1.2016259 0
-7.3042355 -6.4827924 -1.1991355 0
-7.2602086 -6.4873638 -1.1954718 0
-7.2944956 -6.5621181 -1.2047335 0
-7.2713428 -6.5855327 -1.2045496 0
-7.2547636 -6.6149278 -1.2054704 0
-7.1915593 -6.6015916 -1.1986393 0
-7.1723242 -6.6283827 -1.1991307 0
-7.174571 -6.6751981 -1.2032415 0
-7.1236973 -6.6725645 -1.1984546 0
-7.0952191 -6.690691 -1.1974308 0
-7.1204 -6.7596817 -1.2054987 0
-7.0353079 -6.7238903 -1.1949024 0
-7.0416145 -6.775238 -1.199825 0
-7.0091228 -6.7893786 -1.1981608 0
-6.9902678 -6.8166904 -1.1988379 0
-6.9800797 -6.8525629 -1.2010241 0
-6.9830704 -6.9016294 -1.2055135 0
-6.9032145 -6.8686113 -1.1956966 0
-6.8703094 -6.8818636 -1.193987 0
-6.8567724 -6.914516 -1.1956568 0
-6.8363023 -6.9402599 -1.1961381 0
-6.8276916 -6.9781628 -1.1987184 0
-6.8073483 -7.0041966 -1.1992631 0
-6.8026552 -7.0464845 -1.2025918 0
-6.7730436 -7.0630507 -1.2015367 0
-6.7586451 -7.0955043 -1.2031958 0
-6.7097025 -7.0915809 -1.198709 0
-6.6705375 -7.0977039 -1.1959568 0
-6.6656213 -7.140295 -1.1993608 0
-6.6418858 -7.1628642 -1.1994046 0
-6.6141958 -7.1811447 -1.1987455 0
-6.5818739 -7.1943088 -1.1972525 0
-6.5621581 -7.2212248 -1.1980635 0
-6.588213 -7.2989154 -1.2072815 0
-6.5217156 -7.2741308 -1.1995585 0
-6.4793563 -7.2758174 -1.1962475 0
-6.4706984 -7.3153329 -1.1991705 0
-6.4581618 -7.3506751 -1.2014078 0
-6.4157658 -7.3519878 -1.1980999 0
-6.3997021 -7.3834047 -1.1997161 0
-6.3697228 -7.3987937 -1.1987398 0
-6.3537083 -7.4304333 -1.2004077 0
-6.2944841 -7.4113369 -1.1939064 0
-6.3344564 -7.5092845 -1.206257 0
-6.2809234 -7.4966784 -1.2008424 0
-6.2277279 -7.4840164 -1.1954628 0
-6.2171469 -7.5224552 -1.1982664 0
-6.1991916 -7.5521526 -1.1996794 0
-6.1771231 -7.5769267 -1.2003181 0
-6.161334 -7.6095128 -1.2022009 0
-6.1121106 -7.6006861 -1.1975621 0
-6.0918999 -7.6277814 -1.1986063 0
-6.068635 -7.6511192 -1.1990695 0
-6.0520782 -7.6830134 -1.2008811 0
-6.0123048 -7.6853919 -1.1980953 0
-5.9764557 -7.6925735 -1.1960844 0
-5.9603868 -7.725214 -1.1980455 0
-5.9453073 -7.7593217 -1.2002369 0
-5.9041142 -7.7593088 -1.1971662 0
-5.8788185 -7.7800574 -1.1973195 0
-5.8777323 -7.8330827 -1.2024404 0
-5.8311658 -7.8255424 -1.198275 0
-5.8294773 -7.8782706 -1.2033492 0
-5.7692103 -7.8517437 -1.1963362 0
-5.7849264 -7.9287081 -1.2051009 0
-5.7469153 -7.9323311 -1.2027161 0
-5.725718 -7.9591036 -1.2038579 0
-5.6639481 -7.9291854 -1.1964535 0
-5.658679 -7.9782286 -1.2009842 0
-5.626049 -7.988852 -1.1997371 0
-5.6012001 -8.0104847 -1.2001587 0
-5.5635042 -8.0136528 -1.197832 0
-5.5774155 -8.0914679 -1.2066613 0
-5.5393109 -8.0941305 -1.204282 0
-5.5099692 -8.1094599 -1.2038074 0
-5.4899077 -8.1385012 -1.2053792 0
-5.4545641 -8.1448774 -1.2036083 0
-5.4019403 -8.1250887 -1.1980007 0
-5.4049263 -8.1889992 -1.2047452 0
-5.341507 -8.1522341 -1.196695 0
-5.3299799 -8.1944437 -1.2002611 0
-5.2741685 -8.1684275 -1.1938535 0
-5.2753439 -8.2306747 -1.2003595 0
-5.2430968 -8.2410507 -1.1993022 0
-5.2297297 -8.2812166 -1.202589 0
-5.1847591 -8.2713041 -1.1986183 0
-5.16045 -8.2941895 -1.1994206 0
-5.1669168 -8.3669958 -1.2074373 0
-5.1166902 -8.3481426 -1.202234 0
-5.0760593 -8.3445177 -1.1992543 0
-5.0509434 -8.3662767 -1.1999408 0
-5.0346012 -8.4027538 -1.2027447 0
-4.9911356 -8.3939142 -1.1990775 0
-4.9594264 -8.4046068 -1.1982229 0
-4.9664674 -8.4813814 -1.2067876 0
-4.911325 -8.4520731 -1.2002678 0
-4.8824992 -8.4676952 -1.2001547 0
-4.8653579 -8.503727 -1.2029428 0
-4.8036237 -8.4615192 -1.194687 0
-4.8149652 -8.5481262 -1.2046289 0
-4.7759004 -8.5456524 -1.2020169 0
-4.743412 -8.5547466 -1.2010524 0
-4.721355 -8.582695 -1.202747 0
-4.6763754 -8.5688343 -1.1986008 0
-4.6741409 -8.6334524 -1.2054405 0
-4.6438847 -8.6466846 -1.2051073 0
-4.6237669 -8.6789103 -1.2074313 0
-4.5412054 -8.5932465 -1.1933886 0
-4.557796 -8.6950874 -1.2054027 0
-4.4899797 -8.6360044 -1.1951184 0
-4.4811053 -8.6900005 -1.2005049 0
-4.4629512 -8.7264986 -1.203473 0
-4.4249625 -8.7242489 -1.20111 0
-4.3841982 -8.7161951 -1.1979707 0
-4.365869 -8.752737 -1.2009745 0
