# .PCD v0.7 - Point Cloud Data file format
VERSION 0.7
FIELDS x y z intensity
SIZE 4 4 4 4
TYPE F F F F
COUNT 1 1 1 1
WIDTH 1395
HEIGHT 1
VIEWPOINT 0 0 0 1 0 0 0
POINTS 1395
DATA ascii
0.075035878 4.4752159 -1.1992972 0
0.059169393 4.4112148 -1.182086 0
0.045222104 4.4951859 -1.2045405 0
0.029866312 4.4529648 -1.1931933 0
0.014877687 4.4355965 -1.1885194 0
5.9160689e-06 4.4589176 -1.1947615 0
-0.015039703 4.4874501 -1.2024134 0
-0.029836269 4.4502459 -1.1924648 0
-0.045022134 4.4764895 -1.1995305 0
-0.060121603 4.4830914 -1.2013469 0
-0.074969672 4.4719748 -1.1984286 0
-0.090936527 4.520092 -1.2113982 0
-0.10497857 4.4723678 -1.1986955 0
-0.11940695 4.4508915 -1.19304 0
-0.13499969 4.4726777 -1.1989944 0
-0.15027902 4.480669 -1.2012649 0
-0.16525933 4.4790101 -1.2009619 0
-0.18042427 4.4821224 -1.2019519 0
-0.19561999 4.4853678 -1.2029912 0
-0.21125099 4.4973221 -1.2063806 0
-0.22647741 4.4995475 -1.2071745 0
-0.23882991 4.4478765 -1.1935198 0
-0.25638232 4.4933338 -1.2059416 0
-0.27019501 4.4717426 -1.2003832 0
-0.2869617 4.4986424 -1.2078556 0
-0.30017906 4.4698968 -1.2004011 0
-0.31685039 4.4927759 -1.2068238 0
-0.32822967 4.4418554 -1.1934347 0
-0.34383622 4.4499927 -1.195924 0
-0.35931244 4.4557366 -1.1977849 0
-0.37670106 4.4836845 -1.2056305 0
-0.38904059 4.451601 -1.1973475 0
-0.4054907 4.467093 -1.2018733 0
-0.42290935 4.4916615 -1.2088581 0
-0.43546101 4.4645295 -1.2019422 0
-0.4541958 4.5003848 -1.2119982 0
-0.46607995 4.4681377 -1.203728 0
-0.48352253 4.4894314 -1.2098944 0
-0.49002153 4.4108195 -1.1891447 0
-0.50710535 4.4292231 -1.1945579 0
-0.51938951 4.4057541 -1.1886914 0
-0.54328746 4.4792557 -1.209007 0
-0.55930084 4.485415 -1.2111689 0
-0.57433176 4.4834781 -1.2111591 0
-0.58272636 4.4310789 -1.197525 0
-0.60253167 4.4658031 -1.2074487 0
-0.616247 4.4546909 -1.2049961 0
-0.63050014 4.4478092 -1.2036996 0
-0.64438087 4.4385862 -1.2017816 0
-0.65437967 4.4035659 -1.1928869 0
-0.66061652 4.3452806 -1.1776913 0
-0.6909104 4.4442148 -1.2051263 0
-0.70947891 4.4649811 -1.2113957 0
-0.71523899 4.4058676 -1.1960014 0
-0.72753024 4.3885045 -1.1919436 0
-0.74675679 4.4127312 -1.1991971 0
-0.75860435 4.393158 -1.1945623 0
-0.77251428 4.3859611 -1.193303 0
-0.7980212 4.4435158 -1.2096833 0
-0.80165416 4.3792992 -1.1929263 0
-0.83095968 4.4550066 -1.2143011 0
-0.83242005 4.3812895 -1.194962 0
-0.84156913 4.3498602 -1.1871529 0
-0.85907727 4.3618841 -1.1912137 0
-0.87927973 4.3868318 -1.1988252 0
-0.88863122 4.3576155 -1.1916486 0
-0.90951294 4.384871 -1.1999292 0
-0.91755706 4.3502569 -1.1912922 0
-0.93607545 4.3655214 -1.1963249 0
-0.95498455 4.3819866 -1.2017077 0
-0.96921521 4.3767009 -1.2011425 0
-0.98684013 4.3865671 -1.2047515 0
-0.98932469 4.3297648 -1.1900555 0
-1.0036638 4.3256812 -1.1898513 0
-1.029597 4.3708391 -1.2032155 0
-1.0278074 4.2986112 -1.1842743 0
-1.0570759 4.356389 -1.201162 0
-1.0747104 4.3651452 -1.2045629 0
-1.0774186 4.3137865 -1.1913806 0
-1.1054964 4.3639169 -1.2062426 0
-1.1024309 4.2913232 -1.1871917 0
-1.1305741 4.3404346 -1.2018203 0
-1.1536673 4.3689871 -1.2107904 0
-1.1618841 4.3410883 -1.2041316 0
-1.1632248 4.288476 -1.1906132 0
-1.1785955 4.2881856 -1.191623 0
-1.2072645 4.3355579 -1.205905 0
-1.208241 4.2834377 -1.1925281 0
-1.2331457 4.3162899 -1.2028186 0
-1.2482543 4.3143563 -1.2034394 0
-1.2620403 4.3078523 -1.2027987 0
-1.2637812 4.2607946 -1.1908361 0
-1.2895728 4.2948775 -1.2015635 0
-1.3071754 4.3010917 -1.2045213 0
-1.3190482 4.2884245 -1.2022057 0
-1.3096694 4.2076755 -1.180793 0
-1.3344465 4.2371626 -1.1903169 0
-1.3605081 4.2698951 -1.2007868 0
-1.3665875 4.239779 -1.1935995 0
-1.3919505 4.2693896 -1.2032425 0
-1.4026591 4.253787 -1.200164 0
-1.405022 4.2134004 -1.1900916 0
-1.4316725 4.2458301 -1.2006007 0
-1.4632807 4.291986 -1.2150328 0
-1.4655954 4.2520456 -1.2051102 0
-1.478398 4.2429595 -1.2039331 0
-1.4997411 4.2582107 -1.2096806 0
-1.4975134 4.2068172 -1.1965003 0
-1.5174322 4.2179575 -1.2011091 0
-1.5211295 4.1841393 -1.1929246 0
-1.5351837 4.1791086 -1.1929511 0
-1.5630102 4.2111821 -1.2035958 0
-1.5560063 4.1496091 -1.1874821 0
-1.5845008 4.1828856 -1.1985183 0
-1.5956119 4.1699591 -1.1963407 0
-1.6234236 4.2003942 -1.206627 0
-1.6313008 4.1790528 -1.2020608 0
-1.6347495 4.1467886 -1.1943502 0
-1.6497827 4.144145 -1.1951754 0
-1.6572822 4.1227055 -1.1905879 0
-1.6937827 4.1730204 -1.2067516 0
-1.7100037 4.1727824 -1.2083338 0
-1.7184694 4.1536946 -1.2044681 0
-1.7319139 4.1467786 -1.2041397 0
-1.7403133 4.1279163 -1.2003502 0
-1.7337667 4.0741744 -1.1864064 0
-1.7823437 4.1496553 -1.21012 0
-1.7705464 4.0843697 -1.1928059 0
-1.787421 4.0857029 -1.1949387 0
-1.8024014 4.0826135 -1.1957958 0
-1.8327674 4.1140065 -1.2067839 0
-1.8452659 4.1049805 -1.2059443 0
-1.8547038 4.0892568 -1.2031451 0
-1.8580997 4.0604978 -1.1965098 0
-1.8700757 4.0507197 -1.1954694 0
-1.9021428 4.0841408 -1.2072082 0
-1.894019 4.0313263 -1.1934674 0
-1.8970671 4.0028877 -1.1869246 0
-1.9222441 4.0211191 -1.1942348 0
-1.9243653 3.991112 -1.1872325 0
-1.9386048 3.9864242 -1.1877649 0
-1.9448928 3.965493 -1.1834646 0
-1.9789999 4.0010476 -1.1960491 0
-2.0011518 4.0119286 -1.2013007 0
-2.042007 4.059701 -1.2176485 0
-2.0283008 3.9989948 -1.2014736 0
-2.0327632 3.9747031 -1.1962162 0
-2.0492537 3.9740231 -1.1980727 0
-2.0606954 3.9635313 -1.1969858 0
-2.0776203 3.9635582 -1.199091 0
-2.0724018 3.9215708 -1.188484 0
-2.120312 3.979871 -1.2083004 0
-2.0930583 3.8971717 -1.1853166 0
-2.1320214 3.9379866 -1.1998976 0
-2.1427221 3.9262524 -1.1985044 0
-2.1715984 3.9476309 -1.2072462 0
-2.1674547 3.9090059 -1.1976497 0
-2.1724873 3.8872924 -1.193222 0
-2.1669354 3.8470135 -1.1830817 0
-2.2188613 3.9084947 -1.2042704 0
-2.2085521 3.8601322 -1.191644 0
-2.219358 3.8490219 -1.1905046 0
-2.2245891 3.8283744 -1.1864187 0
-2.2713664 3.8788786 -1.2044232 0
-2.2535026 3.8189499 -1.1881542 0
-2.2610214 3.8025055 -1.1853899 0
-2.2648222 3.77999 -1.1807315 0
-2.325645 3.8521495 -1.2057004 0
-2.3438671 3.8530755 -1.2084432 0
-2.3469486 3.8291671 -1.203406 0
-2.3603201 3.822161 -1.2036844 0
-2.3577998 3.7895992 -1.1959128 0
-2.3870366 3.8080659 -1.2042594 0
-2.3866773 3.7792761 -1.1976788 0
-2.3916476 3.7591696 -1.1938413 0
-2.4248135 3.783232 -1.2040583 0
-2.4328051 3.7678339 -1.2017469 0
-2.4646351 3.7891912 -1.2111876 0
-2.4435024 3.729285 -1.1946511 0
-2.4782372 3.754775 -1.2054716 0
-2.4983211 3.7577386 -1.2091055 0
-2.5056119 3.741436 -1.2065562 0
-2.5161207 3.7300174 -1.2055877 0
-2.4918828 3.6675019 -1.1880757 0
-2.5763102 3.7645459 -1.2223041 0
-2.5285883 3.668364 -1.193821 0
-2.5463512 3.6677558 -1.1963947 0
-2.5780289 3.6869349 -1.2054635 0
-2.564384 3.6413622 -1.1933677 0
-2.6058867 3.6740661 -1.2069422 0
-2.5913858 3.6277835 -1.1945857 0
-2.6071353 3.6240799 -1.1962378 0
-2.6351969 3.6373 -1.2035111 0
-2.6256218 3.5986264 -1.1936208 0
-2.6452029 3.6000514 -1.1970285 0
-2.6519318 3.5839641 -1.1946292 0
-2.7044938 3.6294856 -1.2128184 0
-2.6743715 3.5640571 -1.1939446 0
-2.7254837 3.6069186 -1.2113574 0
-2.7108386 3.5626402 -1.1995325 0
-2.6922402 3.5136886 -1.1860832 0
-2.7295005 3.5376856 -1.1972661 0
-2.7352958 3.5207262 -1.1946236 0
-2.7345817 3.4955533 -1.1891865 0
-2.7743948 3.5220485 -1.2013578 0
-2.7647657 3.4857183 -1.1921209 0
-2.7738025 3.47313 -1.1909897 0
-2.826658 3.5150771 -1.2086172 0
-2.8003235 3.4585202 -1.1923923 0
-2.8438683 3.4883199 -1.205947 0
-2.8360391 3.454999 -1.1977081 0
-2.8638136 3.4650798 -1.2045245 0
-2.8512566 3.4264264 -1.1944044 0
-2.8983626 3.4593787 -1.2092718 0
-2.8728037 3.405612 -1.1938372 0
-2.8689246 3.3779681 -1.1875119 0
-2.9230351 3.4183843 -1.2051586 0
-2.9249487 3.3974936 -1.2012442 0
-2.9667645 3.4227879 -1.2136976 0
-2.9647989 3.397438 -1.2082267 0
-2.9669774 3.3770115 -1.2044934 0
-2.9961658 3.3872616 -1.2117256 0
-2.9624038 3.3265512 -1.193554 0
-2.9948785 3.3404 -1.202119 0
-3.0087383 3.3333054 -1.2031894 0
-3.0370622 3.342088 -1.2100283 0
-3.0324578 3.3146243 -1.2037593 0
-3.0242651 3.2834959 -1.1961302 0
-3.0321832 3.2700226 -1.1949189 0
-3.076674 3.2957706 -1.2080903 0
-3.0605431 3.2565334 -1.1974622 0
-3.0541918 3.2280192 -1.1907361 0
-3.0919373 3.2460434 -1.2012019 0
-3.1101322 3.2433014 -1.2040392 0
-3.0851603 3.1957424 -1.190217 0
-3.1376865 3.2284188 -1.2062982 0
-3.1546972 3.2242217 -1.2086753 0
-3.1627474 3.2108421 -1.2076281 0
-3.1768663 3.20362 -1.2089111 0
-3.1626315 3.1679504 -1.1994456 0
-3.1697276 3.1538389 -1.1981198 0
-3.1466839 3.1099854 -1.1854615 0
-3.2170987 3.1583269 -1.207993 0
-3.2561905 3.1753352 -1.2186671 0
-3.1859272 3.0860445 -1.1884911 0
-3.2407906 3.1181953 -1.2050507 0
-3.2541289 3.1100852 -1.2061263 0
-3.2393391 3.0752347 -1.1968161 0
-3.2337203 3.0493524 -1.1909561 0
-3.2556708 3.0494943 -1.195268 0
-3.2925072 3.0633383 -1.2050143 0
-3.286638 3.0373831 -1.1991324 0
-3.307282 3.0359657 -1.2029438 0
-3.2867985 2.9969184 -1.1918319 0
-3.3263888 3.0126541 -1.2025183 0
-3.3182626 2.9851043 -1.1959559 0
-3.3490417 2.9925382 -1.2034261 0
-3.33253 2.9577496 -1.1939228 0
-3.3632746 2.9649372 -1.2013692 0
-3.4065111 2.982815 -1.2132342 0
-3.4002223 2.9572263 -1.2074564 0
-3.3887968 2.9273908 -1.1999068 0
-3.3758488 2.896498 -1.1918769 0
-3.3858242 2.8854043 -1.1919765 0
-3.4264922 2.9002862 -1.2028635 0
-3.4545596 2.9042187 -1.2092913 0
-3.4816816 2.9071522 -1.2153667 0
-3.4405921 2.8533192 -1.1976771 0
-3.4438713 2.8366046 -1.1955013 0
-3.4559014 2.8271191 -1.1963803 0
-3.4674447 2.8172092 -1.1970997 0
-3.4360971 2.7726667 -1.1830611 0
-3.4953961 2.8012183 -1.2002376 0
-3.4922218 2.7794971 -1.1959409 0
-3.5408227 2.7988386 -1.2093643 0
-3.549057 2.7860641 -1.2089794 0
-3.5263326 2.7491663 -1.1980917 0
-3.5505507 2.7489569 -1.2031817 0
-3.5483744 2.7282925 -1.1993376 0
-3.5500438 2.7106855 -1.1968234 0
-3.6092162 2.7367597 -1.2136718 0
-3.5681539 2.6868291 -1.1968278 0
-3.5832791 2.6794398 -1.198881 0
-3.594619 2.6691751 -1.1996741 0
-3.5468028 2.6152666 -1.1807828 0
-3.5801482 2.6213696 -1.1889513 0
-3.6271431 2.6371441 -1.201615 0
-3.6622224 2.6439247 -1.2102926 0
-3.6436577 2.6119831 -1.2012564 0
-3.6866536 2.6241372 -1.2125241 0
-3.6426506 2.5744588 -1.195206 0
-3.6343527 2.5503654 -1.1896709 0
-3.7247565 2.5952108 -1.2164086 0
-3.6818087 2.5469925 -1.1995875 0
-3.6429276 2.5020781 -1.1841795 0
-3.6870282 2.5142159 -1.195768 0
-3.7195489 2.5181639 -1.2035701 0
-3.6954134 2.4837959 -1.193059 0
-3.7160265 2.4796035 -1.197023 0
-3.7536216 2.4865415 -1.206441 0
-3.7324424 2.4545455 -1.1969821 0
-3.7632022 2.4567397 -1.2041982 0
-3.7372034 2.4219353 -1.1932737 0
-3.8066773 2.4488745 -1.212828 0
-3.783534 2.4160895 -1.2028668 0
-3.8361413 2.4316154 -1.216993 0
-3.8031378 2.3928587 -1.2039708 0
-3.8089957 2.3787553 -1.2032937 0
-3.7976091 2.3539827 -1.1971965 0
-3.8402178 2.3626082 -1.2081249 0
-3.9018612 2.3825362 -1.2249978 0
-3.7959113 2.3004048 -1.1893064 0
-3.8865154 2.3375325 -1.2152314 0
-3.900177 2.3279781 -1.2170558 0
-3.8347352 2.2715132 -1.1942512 0
-3.856802 2.2671506 -1.1987494 0
-3.8702617 2.2576368 -1.2005734 0
-3.8456836 2.226052 -1.1906273 0
-3.8626511 2.2186172 -1.1935707 0
-3.9142683 2.2308447 -1.2072027 0
-3.892472 2.2011654 -1.1981975 0
-3.8955164 2.1856821 -1.1968721 0
-3.8976557 2.1697326 -1.1952876 0
-3.9166636 2.1631444 -1.1988858 0
-3.9855211 2.1837673 -1.2177149 0
-3.9528406 2.1486604 -1.2055221 0
-3.9516134 2.1308608 -1.2029622 0
-3.9757123 2.1266809 -1.2081209 0
-3.9259605 2.0831685 -1.1908735 0
-3.9562542 2.0822737 -1.1979382 0
-3.9701416 2.0726144 -1.2000324 0
-3.9796491 2.0606277 -1.2008109 0
-3.983526 2.0457275 -1.1999044 0
-3.9755278 2.0248044 -1.1954436 0
-4.0106168 2.0257697 -1.2039459 0
-3.9816813 1.9944267 -1.1932455 0
-3.9856992 1.9797511 -1.1924537 0
-4.0123773 1.9762584 -1.1984462 0
-4.0064049 1.9566529 -1.1946962 0
-4.0615721 1.9667571 -1.2091736 0
-4.070282 1.9541552 -1.2098093 0
-4.0858116 1.9447814 -1.2124803 0
-4.0502295 1.9112151 -1.2000128 0
-4.0933928 1.914829 -1.2108924 0
-4.0957208 1.8992069 -1.2096905 0
-4.0495763 1.861338 -1.1942115 0
-4.0596328 1.8494989 -1.1953418 0
-4.0967007 1.8498253 -1.2044233 0
-4.0687709 1.8208153 -1.1944104 0
-4.0642319 1.802453 -1.1912973 0
-4.1277227 1.8140737 -1.208118 0
-4.1136684 1.7914649 -1.2022398 0
-4.124454 1.7797345 -1.2036412 0
-4.1410356 1.770444 -1.2067411 0
-4.099093 1.7362797 -1.1928155 0
-4.1270499 1.7318248 -1.1992544 0
-4.1576266 1.7282841 -1.2064488 0
-4.1505346 1.7090381 -1.2027215 0
-4.1371102 1.68731 -1.1971853 0
-4.1308084 1.6686081 -1.1937361 0
-4.1855307 1.6744117 -1.2079208 0
-4.1463332 1.6426257 -1.1950125 0
-4.1988873 1.6471795 -1.2085605 0
-4.2070837 1.63414 -1.2093359 0
-4.1666651 1.6023834 -1.1961664 0
-4.1627402 1.5848734 -1.1935074 0
-4.1747918 1.5734559 -1.1954435 0
-4.1625743 1.5529324 -1.1904473 0
-4.1818419 1.544168 -1.1944703 0
-4.1694298 1.5237191 -1.1894592 0
-4.1517501 1.501498 -1.1829726 0
-4.2211094 1.5105977 -1.2012855 0
-4.2198553 1.4942077 -1.1994962 0
-4.1912575 1.4682858 -1.1899612 0
-4.2325406 1.4668342 -1.200279 0
-4.2227721 1.4476086 -1.1961257 0
-4.2212892 1.4313018 -1.1943396 0
-4.2542062 1.4265774 -1.2022928 0
-4.2852278 1.4210147 -1.2097067 0
-4.2640638 1.3981453 -1.202402 0
-4.2782164 1.386917 -1.2050748 0
-4.2272358 1.3547444 -1.1894287 0
-4.2902107 1.3590819 -1.2058592 0
-4.2376151 1.326803 -1.1898189 0
-4.2493014 1.3148346 -1.1918557 0
-4.2248764 1.2917715 -1.1837834 0
-4.3043752 1.3003137 -1.2048302 0
-4.2822461 1.2779766 -1.1974299 0
-4.3294263 1.2762641 -1.2094195 0
-4.319397 1.2575823 -1.2054331 0
-4.2927752 1.2342336 -1.1968421 0
-4.2834721 1.216025 -1.1931049 0
-4.341825 1.2168751 -1.2082152 0
-4.301528 1.1900403 -1.1958845 0
-4.3567114 1.1895964 -1.2101105 0
-4.3477612 1.1715028 -1.2065269 0
-4.3322496 1.1517574 -1.2011439 0
-4.305232 1.1291335 -1.1925968 0
-4.3091512 1.1147332 -1.1926403 0
-4.3989892 1.1222509 -1.2164565 0
-4.3527722 1.0949296 -1.2026541 0
-4.3317108 1.0742022 -1.1958332 0
-4.3152461 1.0547739 -1.1903049 0
-4.3538284 1.0487474 -1.1999707 0
-4.3585176 1.0344281 -1.2003003 0
-4.3284678 1.0119784 -1.1910838 0
-4.3312769 0.99733132 -1.19093 0
-4.2824106 0.97097141 -1.1765919 0
-4.3808661 0.97786301 -1.2027349 0
-4.4328151 0.97386742 -1.216094 0
-4.3699741 0.94471383 -1.1979785 0
-4.4005537 0.93589193 -1.2054945 0
-4.4124799 0.9229759 -1.2079071 0
-4.3973742 0.90443826 -1.202935 0
-4.3689227 0.88332909 -1.1943351 0
-4.3797379 0.87024134 -1.1964873 0
-4.3629065 0.8517015 -1.1911024 0
-4.3473511 0.83354336 -1.1860859 0
-4.4140582 0.83099973 -1.2035187 0
-4.3954511 0.81224674 -1.1976961 0
-4.4212775 0.80169874 -1.2039942 0
-4.4174657 0.78571892 -1.202232 0
-4.4053211 0.76833034 -1.1982191 0
-4.3909302 0.75065941 -1.1936135 0
-4.4138379 0.739353 -1.1991601 0
-4.3784337 0.71833891 -1.1888804 0
-4.4574347 0.71596122 -1.209673 0
-4.4005766 0.69170165 -1.1936066 0
-4.4485669 0.68396926 -1.2059946 0
-4.4695387 0.67186165 -1.2110624 0
-4.4781909 0.65781611 -1.2128024 0
-4.4260855 0.63500959 -1.1981077 0
-4.4055085 0.61698967 -1.1919709 0
-4.3966818 0.60073006 -1.1890311 0
-4.4592056 0.59404975 -1.2053946 0
-4.422533 0.57407993 -1.1949544 0
-4.393043 0.55528104 -1.1864766 0
-4.4646707 0.54913276 -1.2053177 0
-4.4339442 0.53026867 -1.1965359 0
-4.4380846 0.51567692 -1.19718 0
-4.4107738 0.49752116 -1.1893562 0
-4.4689798 0.48891798 -1.2046025 0
-4.4467249 0.47140121 -1.198171 0
-4.4810925 0.45985675 -1.2070091 0
-4.4515667 0.44174945 -1.1986505 0
-4.4573069 0.4272323 -1.1998036 0
-4.4504952 0.4115254 -1.197592 0
-4.4374461 0.39531821 -1.1937171 0
-4.4631877 0.38253289 -1.2002902 0
-4.4502296 0.36639613 -1.1964682 0
-4.4519348 0.35151291 -1.1966032 0
-4.4818687 0.33875978 -1.2043368 0
-4.4005513 0.31777862 -1.1821928 0
-4.4701133 0.30773988 -1.2005965 0
-4.4643898 0.29231003 -1.1987892 0
-4.4676185 0.27748135 -1.1993996 0
-4.477663 0.26303759 -1.2018527 0
-4.4714389 0.24763121 -1.1999525 0
-4.4540248 0.2316902 -1.1950641 0
-4.4640703 0.2172076 -1.1975572 0
-4.4933205 0.20353228 -1.2052141 0
-4.5410228 0.19043884 -1.217831 0
-4.4180279 0.17044388 -1.1846858 0
-4.5136628 0.1589793 -1.2101804 0
-4.5034337 0.14350282 -1.2073021 0
-4.4957261 0.1281701 -1.2051138 0
-4.4972906 0.11312525 -1.2054248 0
-4.4729495 0.0975077 -1.198806 0
-4.4778242 0.082594551 -1.2000316 0
-4.4813313 0.067629911 -1.2009039 0
-4.4963346 0.052778218 -1.2048703 0
-4.4666739 0.037452586 -1.1968819 0
-4.4823895 0.022555035 -1.2010659 0
-4.4881272 0.0075358525 -1.2025899 0
-4.5191317 1.1991922e-05 -1.2108959 0
-5.1382985 -0.0086275321 -1.1862695 0
-5.2032814 -0.026182508 -1.2012856 0
-5.2311087 -0.043862291 -1.2077372 0
-5.2138357 -0.061200283 -1.2037899 0
-5.2075233 -0.078589223 -1.2023866 0
-5.2029138 -0.095968999 -1.2013898 0
-5.1895113 -0.11312833 -1.1983759 0
-5.1538224 -0.1296397 -1.1902281 0
-5.2129784 -0.14861847 -1.203998 0
-5.1758738 -0.16493024 -1.1955492 0
-5.1996017 -0.18313928 -1.2011652 0
-5.2407231 -0.20218278 -1.2108145 0
-5.199604 -0.21805805 -1.2014765 0
-5.2111602 -0.23604801 -1.2043229 0
-5.19524 -0.25278401 -1.2008328 0
-5.1918917 -0.2700727 -1.2002615 0
-5.2091498 -0.28848612 -1.204468 0
-5.2158084 -0.30639949 -1.2062384 0
-5.2025328 -0.32312649 -1.2034119 0
-5.2207165 -0.34183121 -1.2078763 0
-5.2657657 -0.36251566 -1.2185735 0
-5.2055302 -0.37590885 -1.204919 0
-5.1671057 -0.39055309 -1.1963212 0
-5.1845689 -0.40935972 -1.2006754 0
-5.1445942 -0.42356452 -1.19174 0
-5.1799874 -0.44396868 -1.2002769 0
-5.1970577 -0.46298966 -1.2045853 0
-5.1509476 -0.47629437 -1.1942612 0
-5.2393489 -0.50219095 -1.2151408 0
-5.2158256 -0.51759034 -1.2100809 0
-5.1647916 -0.53001904 -1.1986464 0
-5.1573787 -0.54673821 -1.1973448 0
-5.1098752 -0.55903363 -1.1867448 0
-5.1805944 -0.58435446 -1.2036172 0
-5.1892056 -0.60295236 -1.2060808 0
-5.1434617 -0.61512196 -1.1959215 0
-5.1677608 -0.63560945 -1.2020601 0
-5.148212 -0.65073448 -1.1980137 0
-5.1234827 -0.66506869 -1.1927713 0
-5.1408672 -0.68485987 -1.1973463 0
-5.1287279 -0.70075142 -1.1950594 0
-5.1339421 -0.71900648 -1.1968294 0
-5.1788502 -0.74300849 -1.2078724 0
-5.1171565 -0.7516759 -1.1940646 0
-5.1521969 -0.77447897 -1.2028402 0
-5.1680937 -0.79459679 -1.2071667 0
-5.1315603 -0.80660081 -1.1992582 0
-5.118484 -0.8221401 -1.1968397 0
-5.0832963 -0.8339808 -1.1892591 0
-5.1125937 -0.85640013 -1.1967783 0
-5.1362023 -0.87806875 -1.2029872 0
-5.0826836 -0.88646883 -1.1911416 0
-5.1702194 -0.91960853 -1.2123716 0
-5.0733566 -0.91993856 -1.1903746 0
-5.1578093 -0.95312488 -1.210933 0
-5.1245914 -0.96476609 -1.2038869 0
-5.077384 -0.97351688 -1.1935569 0
-5.1421323 -1.0038174 -1.2095618 0
-5.1306348 -1.0194423 -1.2076545 0
-5.0654664 -1.0241596 -1.1931167 0
-5.096149 -1.0481601 -1.2011646 0
-5.1012654 -1.067052 -1.203207 0
-5.0995946 -1.0845612 -1.2036639 0
-5.1122389 -1.1051788 -1.2075162 0
-5.0968661 -1.1197561 -1.2047652 0
-5.0892758 -1.1359887 -1.2038645 0
-5.1183434 -1.1605065 -1.2116541 0
-5.0807014 -1.1698958 -1.2036649 0
-5.0448856 -1.179474 -1.1961099 0
-5.0866332 -1.2072353 -1.2069609 0
-5.0322938 -1.2121757 -1.1950248 0
-5.09091 -1.2443691 -1.2099285 0
-5.0371423 -1.2491392 -1.1981385 0
-4.9837937 -1.2536616 -1.1864421 0
-5.008162 -1.2776605 -1.1932563 0
-5.0177488 -1.2980402 -1.1965706 0
-5.0244923 -1.3177738 -1.1992257 0
-4.999198 -1.3290701 -1.1942455 0
-5.0338464 -1.3563682 -1.203602 0
-5.0487089 -1.3785459 -1.2082541 0
-5.0525236 -1.3978072 -1.2102817 0
-5.0284181 -1.4093051 -1.2056326 0
-4.9754834 -1.4124784 -1.1940696 0
-5.0130095 -1.4413114 -1.2042285 0
-5.0223036 -1.462232 -1.2076321 0
-4.9950166 -1.4724722 -1.2022511 0
-5.0258441 -1.4998932 -1.2108747 0
-4.9984012 -1.5099728 -1.2054757 0
-4.9976153 -1.5280392 -1.206515 0
-4.9825625 -1.541723 -1.2041222 0
-4.9384971 -1.5462501 -1.1947191 0
-4.9267478 -1.5607284 -1.193136 0
-4.9677463 -1.5920631 -1.2043507 0
-4.9518886 -1.6053088 -1.2018044 0
-4.9427719 -1.6206872 -1.2009038 0
-4.9338942 -1.6361175 -1.2000729 0
-4.8937316 -1.6410317 -1.1916357 0
-4.8942652 -1.6594861 -1.1931138 0
-4.9244189 -1.6881402 -1.2018377 0
-4.8714523 -1.6882561 -1.1902856 0
-4.9262724 -1.7257769 -1.2050873 0
-4.9356365 -1.7476584 -1.2088046 0
-4.8818021 -1.7470381 -1.1970477 0
-4.8319683 -1.7475019 -1.1862582 0
-4.888155 -1.7863773 -1.2015158 0
-4.9046817 -1.8110806 -1.2070638 0
-4.8461518 -1.8079548 -1.1941445 0
-4.8868465 -1.8418254 -1.205687 0
-4.849545 -1.8463596 -1.1980046 0
-4.8626328 -1.8700331 -1.2027798 0
-4.8159065 -1.8706224 -1.1927667 0
-4.8958502 -1.9205908 -1.2141545 0
-4.8251362 -1.9115424 -1.1982003 0
-4.8626809 -1.945304 -1.2091365 0
-4.7735906 -1.928255 -1.1885846 0
-4.8372817 -1.9728731 -1.2060833 0
-4.8073225 -1.9794792 -1.2002616 0
-4.7909689 -1.9915583 -1.197839 0
-4.8471441 -2.0339961 -1.2135822 0
-4.7357326 -2.0059452 -1.1873652 0
-4.7560086 -2.0333674 -1.1941515 0
-4.8008971 -2.071625 -1.2071594 0
-4.8173385 -2.0979066 -1.2130554 0
-4.755477 -2.0899625 -1.1992357 0
-4.7184849 -2.0926089 -1.1916698 0
-4.7685704 -2.1339827 -1.2061192 0
-4.7304745 -2.1359997 -1.1982882 0
-4.7454586 -2.1619494 -1.2039132 0
-4.7750998 -2.1948161 -1.2132933 0
-4.6991296 -2.1790109 -1.1958399 0
-4.6822109 -2.1902695 -1.1933964 0
-4.7068977 -2.2210824 -1.2015799 0
-4.7352672 -2.253912 -1.2107445 0
-4.6834178 -2.2485237 -1.1994082 0
-4.6932015 -2.2726145 -1.2038583 0
-4.649364 -2.2706618 -1.1945596 0
-4.6554852 -2.293015 -1.1981008 0
-4.6308889 -2.3002257 -1.1937491 0
-4.617382 -2.3128498 -1.1922596 0
-4.6306057 -2.338927 -1.1976922 0
-4.6853824 -2.3863456 -1.2139226 0
-4.649272 -2.3876195 -1.2066342 0
-4.5874066 -2.3753192 -1.1926383 0
-4.5960579 -2.399374 -1.1969723 0
-4.6242671 -2.4338651 -1.2064373 0
-4.602582 -2.4421933 -1.2029094 0
-4.6164055 -2.4693992 -1.2086792 0
-4.5526838 -2.4549809 -1.1941439 0
-4.5645666 -2.4811788 -1.1994361 0
-4.557704 -2.4972808 -1.1998261 0
-4.5264192 -2.499908 -1.1937901 0
-4.557157 -2.5368612 -1.2041334 0
-4.5327935 -2.5432432 -1.1999422 0
-4.5171313 -2.5544059 -1.1980565 0
-4.5194783 -2.5757701 -1.2009628 0
-4.5058603 -2.5880616 -1.1996431 0
-4.4803309 -2.5934141 -1.1951544 0
-4.517952 -2.6354537 -1.2075404 0
-4.4779434 -2.6322775 -1.1991992 0
-4.4486542 -2.6351695 -1.1937149 0
-4.4254589 -2.6415136 -1.1898607 0
-4.4347529 -2.6672683 -1.1947573 0
-4.4778519 -2.7136757 -1.208813 0
-4.4383864 -2.7101467 -1.2006053 0
-4.4510798 -2.7384274 -1.2065158 0
-4.415513 -2.7369959 -1.1993557 0
-4.4106383 -2.7544873 -1.2005334 0
-4.3927832 -2.7638519 -1.198189 0
-4.3941894 -2.7853453 -1.201113 0
-4.3803964 -2.7972338 -1.1998997 0
-4.393743 -2.8265398 -1.2061448 0
-4.3543601 -2.8218906 -1.1979243 0
-4.3754911 -2.8564615 -1.2063655 0
-4.321619 -2.8420026 -1.1941329 0
-4.3697886 -2.8947136 -1.2101179 0
-4.2797909 -2.855788 -1.1878399 0
-4.3383398 -2.9159255 -1.2067966 0
-4.3121018 -2.9193268 -1.202214 0
-4.2943492 -2.9283535 -1.1999952 0
-4.255487 -2.9228032 -1.1918672 0
-4.3078799 -2.9800947 -1.2093331 0
-4.2668786 -2.9729323 -1.2006143 0
-4.2146235 -2.9575639 -1.1886944 0
-4.2480803 -3.0023491 -1.200963 0
-4.2591882 -3.0316637 -1.2069701 0
-4.2509103 -3.0472963 -1.2075127 0
-4.2154188 -3.0433025 -1.2003229 0
-4.1689715 -3.0310848 -1.1899842 0
-4.1927571 -3.0699196 -1.1997049 0
-4.1440916 -3.0556827 -1.1887046 0
-4.1672463 -3.094378 -1.1983156 0
-4.1780548 -3.1241901 -1.204429 0
-4.1828651 -3.1497083 -1.2088532 0
-4.1445541 -3.1426904 -1.2008197 0
-4.1637907 -3.1793203 -1.2094749 0
-4.121356 -3.1688497 -1.2002282 0
-4.1055083 -3.1786242 -1.19871 0
-4.1017609 -3.1977758 -1.2007394 0
-4.0911102 -3.2115841 -1.200767 0
-4.0715866 -3.21838 -1.1981971 0
-4.0860353 -3.2521195 -1.205651 0
-4.0222487 -3.223439 -1.1900121 0
-4.015686 -3.2403502 -1.1912781 0
-3.9748967 -3.229501 -1.1823833 0
-4.0424933 -3.3069839 -1.2057822 0
-4.0428548 -3.329968 -1.2092134 0
-4.0176625 -3.3318899 -1.2050129 0
-3.9707477 -3.315515 -1.1942692 0
-3.962033 -3.3308475 -1.1950003 0
-3.9582064 -3.3503454 -1.1972276 0
-3.9476616 -3.364203 -1.197443 0
-3.9366653 -3.377682 -1.197536 0
-3.9269719 -3.3922901 -1.1980404 0
-3.9106359 -3.4011409 -1.1965288 0
-3.9499667 -3.4586766 -1.2121041 0
-3.9003389 -3.4383931 -1.200406 0
-3.8867283 -3.4496222 -1.19977 0
-3.9072022 -3.4912829 -1.2096965 0
-3.8573434 -3.4700608 -1.1978552 0
-3.8511822 -3.4879508 -1.1995668 0
-3.8190012 -3.4821835 -1.1931729 0
-3.857059 -3.5406408 -1.2087655 0
-3.8182752 -3.5287015 -1.200312 0
-3.8266895 -3.5603397 -1.2067029 0
-3.7517226 -3.514132 -1.1867718 0
-3.7656159 -3.5509224 -1.1949259 0
-3.786633 -3.5948029 -1.2054131 0
-3.7398572 -3.5743127 -1.1943309 0
-3.7566397 -3.6145301 -1.2035539 0
-3.6933792 -3.5775874 -1.1871228 0
-3.7568507 -3.6635633 -1.2114651 0
-3.7431972 -3.6748142 -1.2110286 0
-3.6705666 -3.6277583 -1.1914589 0
-3.6848457 -3.6663749 -1.2000774 0
-3.6649208 -3.6710844 -1.1975902 0
-3.6373811 -3.6680129 -1.192603 0
-3.6859324 -3.7419832 -1.2126285 0
-3.647944 -3.7283387 -1.2042365 0
-3.6405914 -3.7458663 -1.2059485 0
-3.6109068 -3.7403336 -1.2002629 0
-3.5720177 -3.7249637 -1.1914809 0
-3.6075532 -3.7873583 -1.2075629 0
-3.5857959 -3.7898793 -1.2045267 0
-3.5719914 -3.800734 -1.2041634 0
-3.5497694 -3.8025563 -1.2009633 0
-3.5530837 -3.8317816 -1.2064242 0
-3.5113342 -3.812315 -1.1965818 0
-3.5151057 -3.8421819 -1.2022504 0
-3.5265174 -3.8807011 -1.2105968 0
-3.5041313 -3.882139 -1.2073734 0
-3.4887686 -3.8912704 -1.2065687 0
-3.451884 -3.8761995 -1.1983002 0
-3.4517386 -3.9023015 -1.202785 0
-3.4115744 -3.8830516 -1.1933194 0
-3.4129832 -3.9110234 -1.1983922 0
-3.3836071 -3.9037039 -1.1926665 0
-3.3800745 -3.9261482 -1.1960546 0
-3.3654037 -3.9357183 -1.1955259 0
-3.3813722 -3.9813409 -1.2059337 0
-3.327446 -3.9445748 -1.1914115 0
-3.3298998 -3.9744456 -1.1970547 0
-3.3272572 -3.9984484 -1.2009174 0
-3.2818124 -3.9708385 -1.1893134 0
-3.2982171 -4.0180459 -1.2001338 0
-3.2699821 -4.0109959 -1.1947465 0
-3.2541232 -4.0189824 -1.1938688 0
-3.2663617 -4.0618687 -1.2033485 0
-3.2185719 -4.0300341 -1.1907136 0
-3.2189262 -4.0583076 -1.1958719 0
-3.2133718 -4.0793223 -1.1988829 0
-3.202481 -4.0936584 -1.1999338 0
-3.2067089 -4.1275039 -1.2066964 0
-3.1638982 -4.1007056 -1.1957536 0
-3.1898692 -4.1631522 -1.2108375 0
-3.1376388 -4.1235499 -1.1962528 0
-3.1207736 -4.1300468 -1.1950954 0
-3.1275303 -4.1679688 -1.2030277 0
-3.1286817 -4.1987543 -1.2088789 0
-3.0768955 -4.1582828 -1.1942496 0
-3.061707 -4.1669025 -1.1937704 0
-3.0549662 -4.1870775 -1.196609 0
-3.0421662 -4.1990299 -1.1971033 0
-3.0353549 -4.2193317 -1.1999829 0
-3.0350802 -4.2489285 -1.2054995 0
-2.9878485 -4.2125978 -1.1923429 0
-2.9863722 -4.2405753 -1.197421 0
-2.9815869 -4.2640781 -1.2012278 0
-2.9394262 -4.2339396 -1.1899545 0
-2.9401646 -4.2654605 -1.1960362 0
-2.9442801 -4.3022294 -1.2035714 0
-2.9283257 -4.3098497 -1.2029499 0
-2.8978176 -4.2958632 -1.1963273 0
-2.8998182 -4.3300734 -1.20314 0
-2.8783805 -4.3293881 -1.2002614 0
-2.8682241 -4.345644 -1.2020952 0
-2.8138151 -4.2944584 -1.1853198 0
-2.8386343 -4.3641868 -1.201932 0
-2.8128529 -4.3564367 -1.1971935 0
-2.7871497 -4.3485546 -1.1924525 0
-2.8003182 -4.4015145 -1.2043937 0
-2.7468774 -4.349649 -1.1876749 0
-2.7876947 -4.4472404 -1.2117634 0
-2.7279291 -4.3844938 -1.1921676 0
-2.7204573 -4.4053454 -1.1953506 0
-2.7122974 -4.425252 -1.1982777 0
-2.6929543 -4.426939 -1.1962829 0
-2.6692245 -4.4212475 -1.1923199 0
-2.6700397 -4.4562984 -1.1993513 0
-2.6473699 -4.4522529 -1.1958669 0
-2.6242776 -4.4472928 -1.1921647 0
-2.6067886 -4.4516888 -1.1909935 0
-2.6091878 -4.4902444 -1.1989613 0
-2.5958791 -4.5020208 -1.1997751 0
-2.5837817 -4.5159626 -1.2011752 0
-2.5895462 -4.561451 -1.2109581 0
-2.5405903 -4.5103722 -1.1951298 0
-2.5484192 -4.5599575 -1.2059978 0
-2.5103467 -4.5274115 -1.1951575 0
-2.5289228 -4.5971913 -1.211333 0
-2.5097363 -4.5987573 -1.2095215 0
-2.4949348 -4.6083121 -1.2098277 0
-2.4579942 -4.5766644 -1.1993488 0
-2.4390721 -4.5781908 -1.1975991 0
-2.4117284 -4.5636725 -1.1916794 0
-2.4117401 -4.6009717 -1.1993008 0
-2.3960474 -4.6085458 -1.1991743 0
-2.3779564 -4.6114612 -1.1978515 0
-2.364084 -4.6225414 -1.1986639 0
-2.3468707 -4.6270866 -1.1977955 0
-2.333631 -4.6394768 -1.1989707 0
-2.3303037 -4.6718159 -1.2053021 0
-2.3011975 -4.652452 -1.1983091 0
-2.2780654 -4.6448078 -1.1943662 0
-2.2895195 -4.7080231 -1.2086407 0
-2.2517362 -4.6700749 -1.1969538 0
-2.2425814 -4.6912289 -1.2004417 0
-2.2294087 -4.7041416 -1.2018265 0
-2.1991529 -4.680789 -1.1939698 0
-2.2036514 -4.7315178 -1.2050182 0
-2.1721754 -4.7050896 -1.196426 0
-2.1532576 -4.7055054 -1.1946892 0
-2.1468127 -4.7332997 -1.1999117 0
-2.1207714 -4.7178702 -1.194191 0
-2.1233265 -4.7662234 -1.2046214 0
-2.0970643 -4.7500534 -1.1987507 0
-2.0839958 -4.7636166 -1.2004036 0
-2.0574539 -4.7462196 -1.1942745 0
-2.0533364 -4.7805805 -1.2011817 0
-2.021369 -4.7500105 -1.1917911 0
-2.0161297 -4.782136 -1.1981486 0
-1.9941406 -4.7746367 -1.1945877 0
-1.9922593 -4.8154693 -1.2031258 0
-1.9761947 -4.8223462 -1.2031819 0
-1.9396861 -4.7788596 -1.1907026 0
-1.9456172 -4.8399758 -1.2042981 0
-1.9166983 -4.81462 -1.1963832 0
-1.896035 -4.8095784 -1.1935441 0
-1.9103942 -4.8940315 -1.2129056 0
-1.8672693 -4.8313127 -1.1958035 0
-1.8647463 -4.873313 -1.2046448 0
-1.8377432 -4.8514142 -1.1977017 0
-1.8312837 -4.883728 -1.2041568 0
-1.8084044 -4.8723421 -1.1998476 0
-1.7964604 -4.8903613 -1.2027949 0
-1.7664651 -4.8589787 -1.1936129 0
-1.7573839 -4.8849435 -1.198537 0
-1.7384062 -4.8835335 -1.1967543 0
-1.7358831 -4.928688 -1.2063868 0
-1.7050699 -4.8935013 -1.1963682 0
-1.704121 -4.944066 -1.2073267 0
-1.675952 -4.9157777 -1.1990398 0
-1.6561508 -4.9115529 -1.1966481 0
-1.6383573 -4.9131298 -1.1956872 0
-1.6366659 -4.96345 -1.2065912 0
-1.6153517 -4.9546056 -1.2031178 0
-1.5907801 -4.9353271 -1.1971345 0
-1.5813658 -4.9630475 -1.2025657 0
-1.5555193 -4.9391174 -1.1954969 0
-1.5549158 -4.9955978 -1.2078991 0
-1.5358213 -4.993187 -1.2060643 0
-1.5064397 -4.9567447 -1.1960354 0
-1.4956723 -4.9812846 -1.2007399 0
-1.4756132 -4.9749794 -1.1980207 0
-1.4645233 -4.9990087 -1.202618 0
-1.4442039 -4.9916191 -1.1996686 0
-1.4270465 -4.9949865 -1.1993213 0
-1.4047341 -4.9800425 -1.1945955 0
-1.3765178 -4.9433842 -1.1846883 0
-1.3729317 -4.9952559 -1.1960095 0
-1.3713745 -5.0558643 -1.2094133 0
-1.3506694 -5.0464377 -1.2060683 0
-1.3217711 -5.0056033 -1.1952432 0
-1.3125744 -5.0391598 -1.2021983 0
-1.2939788 -5.0369425 -1.2006274 0
-1.2720687 -5.0214562 -1.1959128 0
-1.2577261 -5.0357046 -1.1982952 0
-1.2426049 -5.047081 -1.2000041 0
-1.2131131 -4.999445 -1.1877043 0
-1.2246702 -5.121953 -1.2158259 0
-1.2011173 -5.0989757 -1.2094089 0
-1.1720545 -5.0514274 -1.1971923 0
-1.1624615 -5.0874958 -1.2048101 0
-1.1409613 -5.0716448 -1.2001437 0
-1.1225497 -5.0691156 -1.1986477 0
-1.100607 -5.0501814 -1.1932912 0
-1.0862794 -5.0660191 -1.1961662 0
-1.0760055 -5.1014814 -1.2036808 0
-1.0620291 -5.1201701 -1.2072434 0
-1.04187 -5.1090584 -1.203793 0
-1.015287 -5.0653887 -1.1926948 0
-1.0112802 -5.1346798 -1.2082049 0
-0.98404223 -5.0862679 -1.1960305 0
-0.97039777 -5.1075096 -1.2002536 0
-0.953776 -5.1134591 -1.2008935 0
-0.94281948 -5.1504612 -1.2088342 0
-0.91787386 -5.1108756 -1.1988143 0
-0.89534378 -5.0833273 -1.1916417 0
-0.88725895 -5.1382103 -1.2038033 0
-0.86891782 -5.1346045 -1.2022692 0
-0.84828281 -5.1168909 -1.1974488 0
-0.83081365 -5.1178064 -1.1970044 0
-0.81539267 -5.1315308 -1.1995684 0
-0.79741526 -5.1292973 -1.1984146 0
-0.78001177 -5.1306167 -1.1981051 0
-0.76747352 -5.1646171 -1.2054371 0
-0.75099713 -5.1729741 -1.2067932 0
-0.73043793 -5.1528115 -1.2015114 0
-0.70978785 -5.1308737 -1.1958344 0
-0.6960336 -5.1588144 -1.2017958 0
-0.67546099 -5.1362371 -1.1960019 0
-0.65974921 -5.1502829 -1.1987507 0
-0.64183378 -5.1473026 -1.1975495 0
-0.62714911 -5.1706715 -1.2024904 0
-0.60970151 -5.1718311 -1.2022779 0
-0.58848262 -5.139998 -1.1944124 0
-0.57371283 -5.1641479 -1.1995704 0
-0.55751884 -5.1764755 -1.201993 0
-0.53911138 -5.1682634 -1.1996597 0
-0.52282602 -5.1804047 -1.2020644 0
-0.50024319 -5.1287036 -1.1896716 0
-0.48832837 -5.1864681 -1.2026844 0
-0.47063702 -5.1847782 -1.2019199 0
-0.45117125 -5.1625319 -1.1964054 0
-0.43308577 -5.1548038 -1.1942712 0
-0.42027751 -5.2117476 -1.2071308 0
-0.40217867 -5.2050719 -1.2052654 0
-0.38128012 -5.1597753 -1.194474 0
-0.36784941 -5.2159157 -1.2071781 0
-0.34748712 -5.1743503 -1.1972817 0
-0.33239481 -5.2108884 -1.2054716 0
-0.31264931 -5.1743636 -1.1967728 0
-0.2976009 -5.2157269 -1.2061021 0
-0.2782487 -5.1819963 -1.1980797 0
-0.26212755 -5.2078276 -1.2038419 0
-0.24452065 -5.2055993 -1.2031306 0
-0.22649999 -5.1934147 -1.2001321 0
-0.20867261 -5.1838713 -1.1977584 0
-0.19323231 -5.2371597 -1.2099144 0
-0.17344846 -5.1714811 -1.1946 0
-0.1570172 -5.2021403 -1.2015538 0
-0.14024879 -5.2277708 -1.2073584 0
-0.12155589 -5.1786056 -1.1959028 0
-0.1041346 -5.1761155 -1.1952404 0
-0.086777225 -5.176301 -1.1952094 0
-0.069841281 -5.207859 -1.2024353 0
-0.052496228 -5.2196283 -1.2051052 0
-0.034940578 -5.2115822 -1.2032137 0
-0.01727647 -5.1548419 -1.1900939 0
6.9187267e-06 -5.2146168 -1.2038872 0
0.017537331 -5.2285366 -1.2071078 0
0.035019811 -5.221334 -1.2054652 0
0.051776398 -5.1466985 -1.1882672 0
0.069661014 -5.1933894 -1.1990944 0
0.087409526 -5.2131925 -1.2037277 0
0.10422988 -5.1801682 -1.1961763 0
0.1214411 -5.1731305 -1.1946385 0
0.13876839 -5.1720772 -1.194496 0
0.15700376 -5.2012372 -1.2013453 0
0.1743675 -5.1984715 -1.2008349 0
0.19221088 -5.2091012 -1.2034323 0
0.20823827 -5.1727395 -1.1951865 0
0.22572252 -5.1752725 -1.1959399 0
0.24488531 -5.2130675 -1.2048569 0
0.26122236 -5.1895695 -1.1996216 0
0.27792072 -5.175632 -1.1966084 0
0.29382426 -5.1492977 -1.1907411 0
0.312392 -5.1698771 -1.1957353 0
0.33118519 -5.1917081 -1.2010347 0
0.34698373 -5.1666493 -1.1955 0
0.36258164 -5.141027 -1.189846 0
0.38042271 -5.1479859 -1.191745 0
0.39921916 -5.1665907 -1.1963551 0
0.4224849 -5.2389479 -1.213431 0
0.43676513 -5.198432 -1.2043793 0
0.45075732 -5.1576376 -1.1952715 0
0.46848187 -5.1608839 -1.1963811 0
0.48506552 -5.1516671 -1.1946148 0
0.50472987 -5.174561 -1.2003093 0
0.52487934 -5.2006116 -1.2067535 0
0.53539002 -5.1324558 -1.1913484 0
0.55705184 -5.1720109 -1.2009567 0
0.57182276 -5.1470103 -1.19559 0
0.58934921 -5.1474462 -1.1961435 0
0.60797119 -5.1570354 -1.1988388 0
0.6304909 -5.1981082 -1.2088715 0
0.64180511 -5.1469617 -1.1974705 0
0.65733683 -5.1313429 -1.1943427 0
0.67636764 -5.1430259 -1.1975831 0
0.69403011 -5.1438618 -1.1983129 0
0.7136333 -5.1585708 -1.2022901 0
0.7236467 -5.1048055 -1.190318 0
0.74358153 -5.1217985 -1.1948551 0
0.75739044 -5.0966711 -1.1895788 0
0.77967471 -5.1283083 -1.1975664 0
0.79955328 -5.1429601 -1.2016071 0
0.81034082 -5.0996509 -1.1921164 0
0.83340782 -5.1337004 -1.2007225 0
0.85374552 -5.1497574 -1.2051408 0
0.86509788 -5.1119494 -1.196965 0
0.88152468 -5.1049213 -1.1960049 0
0.90901917 -5.1608896 -1.2098246 0
0.92052799 -5.125576 -1.202263 0
0.93993682 -5.1346369 -1.2051208 0
0.95539147 -5.1220446 -1.2029104 0
0.9750309 -5.1318212 -1.2059673 0
0.99458086 -5.1406665 -1.2088228 0
1.0114131 -5.135283 -1.2083476 0
1.0135093 -5.0564494 -1.1905906 0
1.0337789 -5.069313 -1.1944289 0
1.0507355 -5.0656543 -1.1943902 0
1.0716563 -5.0807948 -1.1988004 0
1.0916373 -5.09094 -1.202051 0
1.0953779 -5.026123 -1.1876073 0
1.1134719 -5.0280595 -1.1889403 0
1.1358728 -5.048964 -1.1947773 0
1.1679422 -5.1114192 -1.2104764 0
1.1775365 -5.0749927 -1.2027781 0
1.1875741 -5.0414219 -1.1957587 0
1.2228515 -5.1142864 -1.2140069 0
1.2257388 -5.0514193 -1.2000525 0
1.2439146 -5.0523429 -1.201256 0
1.2554022 -5.0263438 -1.1960684 0
1.292354 -5.1014752 -1.2149709 0
1.2927597 -5.0321412 -1.1994839 0
1.3147079 -5.0472951 -1.2041401 0
1.3128715 -4.9718466 -1.1871836 0
1.3418168 -5.0133085 -1.1981515 0
1.3529267 -4.9878001 -1.1931325 0
1.3860837 -5.0430555 -1.207455 0
1.395027 -5.0098038 -1.2006067 0
1.4197574 -5.0332513 -1.20736 0
1.4339778 -5.0191979 -1.2051353 0
1.43639 -4.9645629 -1.193167 0
1.4539046 -4.9627137 -1.1938874 0
1.4893085 -5.0211034 -1.2091286 0
1.4827394 -4.9381647 -1.1903467 0
1.5118721 -4.9745722 -1.2003379 0
1.534474 -4.9887595 -1.2049959 0
1.5425129 -4.9557037 -1.198254 0
1.5551821 -4.9380012 -1.1952276 0
1.5805415 -4.9604149 -1.2019287 0
1.5953188 -4.9493632 -1.2005403 0
1.6012356 -4.9112644 -1.1925944 0
1.6225969 -4.9207392 -1.1962095 0
1.6359463 -4.9058561 -1.1939181 0
1.6628778 -4.9314594 -1.2014992 0
1.6826289 -4.9353189 -1.2038074 0
1.6991265 -4.9295335 -1.2037789 0
1.7063625 -4.8971691 -1.197266 0
1.7359519 -4.9288416 -1.2064254 0
1.7285702 -4.8558612 -1.1899741 0
1.7521986 -4.8704896 -1.1949918 0
1.7903453 -4.9246249 -1.2097402 0
1.7907963 -4.8749027 -1.198994 0
1.8155605 -4.8915825 -1.2045869 0
1.8190941 -4.851181 -1.1961329 0
1.8413893 -4.8610005 -1.2000695 0
1.8478035 -4.8289962 -1.1936913 0
1.8657283 -4.8272872 -1.1948085 0
1.8776747 -4.8101735 -1.192124 0
1.9037702 -4.8291626 -1.1984054 0
1.9189475 -4.8202324 -1.1977792 0
1.9363328 -4.816843 -1.1985434 0
1.9605523 -4.8302317 -1.2035037 0
1.9798187 -4.8311529 -1.2053804 0
2.0165079 -4.8740435 -1.2177618 0
2.0026817 -4.7950511 -1.1996967 0
2.0381505 -4.834332 -1.2112275 0
2.0202117 -4.7472558 -1.1911012 0
2.0664377 -4.811048 -1.2088383 0
2.0760534 -4.7890906 -1.2050635 0
2.0743263 -4.7414794 -1.1948265 0
2.1065972 -4.7716117 -1.2041928 0
2.1344662 -4.7911949 -1.2109342 0
2.1313465 -4.7413621 -1.2001387 0
2.1466079 -4.7328148 -1.1997902 0
2.1660118 -4.7333436 -1.2017586 0
2.175612 -4.7125006 -1.1983119 0
2.1885624 -4.6990876 -1.1967603 0
2.2219265 -4.7292285 -1.2063272 0
2.2190704 -4.6822953 -1.1962466 0
2.2401347 -4.686079 -1.1991254 0
2.2582757 -4.6836066 -1.2004235 0
2.2868025 -4.702404 -1.2071997 0
2.2838275 -4.6565251 -1.1973807 0
2.3039896 -4.6580658 -1.1997565 0
2.3155553 -4.6422172 -1.1976675 0
2.3130643 -4.5985575 -1.1883976 0
2.3369279 -4.6074533 -1.1927147 0
2.3542035 -4.6031914 -1.193648 0
2.3739147 -4.6035933 -1.1958094 0
2.390656 -4.598146 -1.1964698 0
2.4158783 -4.6088371 -1.2013526 0
2.4363172 -4.6101723 -1.2038232 0
2.4283402 -4.5580177 -1.1923237 0
2.4578135 -4.5762987 -1.1992548 0
2.5063798 -4.6294222 -1.2153715 0
2.4994543 -4.5798879 -1.2045604 0
2.5246966 -4.5894799 -1.2093028 0
2.5213459 -4.5472202 -1.2003883 0
2.5476091 -4.5584798 -1.2056088 0
2.5413036 -4.5116105 -1.1954597 0
2.5866051 -4.556242 -1.2095771 0
2.5756822 -4.5017786 -1.1974043 0
2.5739498 -4.4639616 -1.1896342 0
2.6370499 -4.5381651 -1.2117587 0
2.634001 -4.4981332 -1.2034209 0
2.6222327 -4.4438 -1.1912302 0
2.6621954 -4.4771585 -1.2025585 0
2.6778696 -4.4693394 -1.2028631 0
2.6715977 -4.4251518 -1.1933748 0
2.68907 -4.420527 -1.1945521 0
2.7265527 -4.4484839 -1.2045704 0
2.746592 -4.4476399 -1.2068288 0
2.7184322 -4.3692036 -1.1880122 0
2.7901647 -4.4511547 -1.212832 0
2.7795379 -4.4013405 -1.2017913 0
2.8013747 -4.4031491 -1.204843 0
2.8074396 -4.3801856 -1.2011285 0
2.8402116 -4.3987837 -1.2088329 0
2.8219397 -4.3384953 -1.1948583 0
2.8445537 -4.3413463 -1.1982635 0
2.860379 -4.3337326 -1.1988024 0
2.88305 -4.3363867 -1.2022038 0
2.8725421 -4.2893195 -1.1918185 0
2.9269404 -4.3390112 -1.2083455 0
2.9234869 -4.3027039 -1.2009574 0
2.9237561 -4.2722154 -1.1951771 0
2.9601667 -4.2944546 -1.2041683 0
2.9685826 -4.2759123 -1.2017533 0
2.9678245 -4.2443719 -1.1956786 0
2.9916356 -4.2480254 -1.1995268 0
2.9858165 -4.2097092 -1.1915275 0
3.050478 -4.2704606 -1.2116108 0
3.019501 -4.1972704 -1.1937109 0
3.0257154 -4.1763 -1.1906254 0
3.09972 -4.2483926 -1.2141345 0
3.0735621 -4.1830139 -1.1983885 0
3.1161156 -4.2112637 -1.209468 0
3.110538 -4.1743817 -1.2018641 0
3.1262209 -4.1662011 -1.2025198 0
3.125411 -4.1361613 -1.1968671 0
3.1104689 -4.0878201 -1.1858898 0
3.205744 -4.1838479 -1.2168592 0
3.162416 -4.0987616 -1.1951892 0
3.1616502 -4.0694847 -1.1897365 0
3.1689878 -4.0508223 -1.1873801 0
3.2030907 -4.0662484 -1.1950431 0
3.2355826 -4.0792851 -1.2020559 0
3.2258635 -4.0391417 -1.1934072 0
3.2590899 -4.052804 -1.2006656 0
3.2642922 -4.0315199 -1.1975957 0
3.2907948 -4.0365033 -1.2023469 0
3.2990866 -4.019084 -1.2004464 0
3.3076327 -4.0020585 -1.1986668 0
3.3187511 -3.9882047 -1.1978433 0
3.3451047 -3.9925723 -1.2025169 0
3.3678226 -3.9924185 -1.2058649 0
3.3562558 -3.9517469 -1.1969725 0
3.3853686 -3.9590452 -1.2026144 0
3.3643696 -3.9078851 -1.1904937 0
3.3957551 -3.9176979 -1.1969447 0
3.4060616 -3.9030709 -1.1959583 0
3.4274237 -3.9010704 -1.1988597 0
3.4156282 -3.8614569 -1.1901985 0
3.4416656 -3.8647046 -1.1947495 0
3.4965622 -3.8999424 -1.2092605 0
3.5224137 -3.9023726 -1.2136692 0
3.5013869 -3.8530262 -1.2019663 0
3.5170517 -3.8442886 -1.2029124 0
3.5109828 -3.8119133 -1.1964587 0
3.4926689 -3.766608 -1.1859075 0
3.5467615 -3.799314 -1.1999422 0
3.5535245 -3.7810643 -1.1979346 0
3.5568163 -3.7592304 -1.1947886 0
3.5808322 -3.7592857 -1.1986152 0
3.5696287 -3.7224526 -1.1906806 0
3.6564076 -3.7874448 -1.2153839 0
3.6488159 -3.7543087 -1.2086695 0
3.6139941 -3.6936212 -1.1930259 0
3.6565132 -3.7120969 -1.2029467 0
3.6247759 -3.6552823 -1.1884669 0
3.6741016 -3.6802611 -1.200587 0
3.6962771 -3.6777296 -1.2037972 0
3.7338855 -3.6903191 -1.2120091 0
3.7225068 -3.6544824 -1.2043315 0
3.7150049 -3.6227372 -1.197968 0
3.7098839 -3.5935555 -1.1924247 0
3.7715349 -3.6288426 -1.208323 0
3.7857957 -3.6181984 -1.2089984 0
3.7747526 -3.5835052 -1.2016281 0
3.7746789 -3.5594499 -1.1977988 0
3.7833934 -3.5437782 -1.1967871 0
3.827615 -3.561182 -1.2069919 0
3.8309338 -3.5403812 -1.2042885 0
3.8340738 -3.5195227 -1.2015592 0
3.8378031 -3.4993083 -1.1990443 0
3.8730357 -3.5077243 -1.2063708 0
3.8751409 -3.4860525 -1.2033792 0
3.8914282 -3.4771695 -1.2048099 0
3.885607 -3.4486084 -1.1994209 0
3.8961082 -3.4346452 -1.1991011 0
3.8720465 -3.3904297 -1.1881903 0
3.9123456 -3.4026096 -1.1970491 0
3.9463384 -3.4090014 -1.2039459 0
3.9705617 -3.4067469 -1.2078445 0
3.9860206 -3.3968744 -1.2090757 0
3.967376 -3.3580885 -1.1999983 0
3.9669082 -3.334928 -1.1964681 0
4.0241575 -3.3600936 -1.2103305 0
4.002501 -3.3192985 -1.2004631 0
3.9989223 -3.2937646 -1.1960707 0
4.0335302 -3.2996337 -1.203106 0
4.0234537 -3.2689347 -1.1968247 0
4.0829687 -3.2946243 -1.2112354 0
4.0654521 -3.2580445 -1.2027916 0
4.052269 -3.2252274 -1.1956854 0
4.051681 -3.2026281 -1.1923368 0
4.0725904 -3.1970282 -1.1953288 0
4.1349626 -3.2236428 -1.2104564 0
4.0871296 -3.1643772 -1.1933414 0
4.1627703 -3.200675 -1.2122865 0
4.1540985 -3.1719022 -1.2066572 0
4.1566639 -3.1518557 -1.204326 0
4.1151032 -3.0986664 -1.1892676 0
4.1719408 -3.1196015 -1.2026643 0
4.2064643 -3.123482 -1.2095907 0
4.1657796 -3.0716574 -1.1949234 0
4.1624041 -3.047678 -1.1910174 0
4.1988564 -3.0527959 -1.1985123 0
4.2006178 -3.0325999 -1.196106 0
4.2427015 -3.0413952 -1.2051789 0
4.2395563 -3.017673 -1.2014046 0
4.2235394 -2.9849877 -1.1940229 0
4.2430568 -2.9774997 -1.1967115 0
4.268744 -2.9742155 -1.2011372 0
4.2704806 -2.954206 -1.198832 0
4.2921362 -2.9479585 -1.2021298 0
4.2744913 -2.9147956 -1.1944441 0
4.3102136 -2.9180319 -1.2016854 0
4.3159041 -2.9008293 -1.2005537 0
4.3304691 -2.8895876 -1.2019033 0
4.3710685 -2.8955448 -1.2104702 0
4.3312349 -2.8483095 -1.1967878 0
4.3656797 -2.85004 -1.2036583 0
4.3628488 -2.8273754 -1.2002574 0
4.3734021 -2.8134379 -1.2005589 0
4.4084463 -2.8151295 -1.2075813 0
4.3954687 -2.78614 -1.2014607 0
4.3680663 -2.7482843 -1.1914451 0
4.4236226 -2.7625797 -1.2040656 0
4.4211645 -2.740483 -1.2008889 0
4.4524298 -2.7392418 -1.2068797 0
4.4345031 -2.7077594 -1.1995529 0
4.4151502 -2.6756611 -1.1918845 0
4.4175406 -2.6568997 -1.1901182 0
4.4820795 -2.6752939 -1.2050823 0
4.4966359 -2.6635754 -1.206588 0
4.4751682 -2.63063 -1.1984541 0
4.4676051 -2.6060691 -1.1940821 0
4.4837666 -2.595387 -1.1960691 0
4.4912128 -2.5796323 -1.1957415 0
4.5361705 -2.5852673 -1.2053965 0
4.4941921 -2.5414183 -1.1919707 0
4.5081692 -2.5294113 -1.1934217 0
4.4914527 -2.5002694 -1.1867706 0
4.5646806 -2.5210238 -1.2038794 0
4.5839105 -2.5116241 -1.2067232 0
4.5803475 -2.4897411 -1.203581 0
4.5556746 -2.456578 -1.1949266 0
4.558332 -2.4383192 -1.1934726 0
4.5909019 -2.4359801 -1.199855 0
4.58357 -2.4124298 -1.1958181 0
4.5681558 -2.3847923 -1.1897039 0
4.6304393 -2.3975856 -1.2038244 0
4.6656651 -2.3960226 -1.2108871 0
4.6547108 -2.3707085 -1.2059743 0
4.6639457 -2.3557518 -1.2063138 0
4.7084012 -2.3584256 -1.21576 0
4.6785326 -2.3238754 -1.2060291 0
4.6399679 -2.285357 -1.1941059 0
4.6754098 -2.2833669 -1.2012501 0
4.6962557 -2.2740781 -1.2046402 0
4.7020264 -2.2574422 -1.2041721 0
4.6767726 -2.2260542 -1.1957866 0
4.6858296 -2.2111256 -1.1962001 0
4.7025719 -2.1997786 -1.1985846 0
4.7217331 -2.189477 -1.2015905 0
4.7277007 -2.1730144 -1.2012484 0
4.6967301 -2.1397345 -1.1915495 0
4.6845126 -2.115231 -1.1866441 0
4.7437258 -2.1228495 -1.1998339 0
4.7717276 -2.1162062 -1.2051148 0
4.7408581 -2.0835228 -1.1955478 0
4.7596793 -2.0727816 -1.1985347 0
4.7853065 -2.0648828 -1.2032379 0
4.7670922 -2.0380912 -1.1969332 0
4.8495321 -2.0541329 -1.2158962 0
4.773139 -2.0029266 -1.195052 0
4.7812862 -1.9875183 -1.1954167 0
4.8136039 -1.9820509 -1.2018286 0
4.7899141 -1.9535396 -1.1942719 0
4.8092823 -1.9426575 -1.1974702 0
4.799376 -1.9199642 -1.1933941 0
4.8041792 -1.9032254 -1.192995 0
4.7982421 -1.8822855 -1.1899469 0
4.8014936 -1.8650094 -1.1891958 0
4.8138075 -1.8512416 -1.1907016 0
4.8659172 -1.8525782 -1.2020478 0
4.8717451 -1.8361191 -1.20196 0
4.8365726 -1.8043666 -1.191783 0
4.8829618 -1.8030456 -1.2017173 0
4.8858538 -1.7855215 -1.200949 0
4.8476562 -1.7531611 -1.1901085 0
4.8412619 -1.7325157 -1.1871059 0
4.9103599 -1.7386937 -1.202613 0
4.8623638 -1.703374 -1.1894526 0
4.9002991 -1.6982387 -1.1973329 0
4.9196038 -1.6864749 -1.2006615 0
4.9235468 -1.6694 -1.200251 0
4.9657111 -1.6651542 -1.2091619 0
4.9202795 -1.6315882 -1.1967604 0
4.9410071 -1.6200941 -1.200474 0
4.9315205 -1.5986915 -1.1968601 0
4.9703674 -1.5928887 -1.2049853 0
4.9794426 -1.5774069 -1.2058964 0
4.9804101 -1.5593587 -1.2048578 0
4.9497533 -1.5315566 -1.1961923 0
4.9675746 -1.5188397 -1.1992617 0
4.9922957 -1.508114 -1.2040023 0
4.9883437 -1.4886873 -1.2018387 0
5.0205975 -1.4799987 -1.2084073 0
5.0288525 -1.4641242 -1.2092059 0
5.0333834 -1.4471545 -1.2091217 0
4.983633 -1.4147778 -1.1960245 0
5.0514741 -1.4157525 -1.2111597 0
5.0397868 -1.3942692 -1.2072299 0
5.0416665 -1.3766085 -1.2065678 0
4.9953012 -1.345968 -1.1943849 0
5.0233474 -1.3354762 -1.2000135 0
5.0789309 -1.3320371 -1.212218 0
5.0075059 -1.2953762 -1.1941272 0
5.008975 -1.2778537 -1.1934491 0
5.052824 -1.2710117 -1.2028745 0
5.0401783 -1.2498778 -1.1988598 0
5.0637741 -1.237722 -1.2034785 0
5.0182095 -1.2087691 -1.1916795 0
5.0513082 -1.1988374 -1.1985782 0
5.0537996 -1.1815439 -1.1982228 0
5.077805 -1.1692146 -1.2029779 0
5.0930357 -1.1547542 -1.2056623 0
5.1184177 -1.1424794 -1.2107574 0
5.0317516 -1.1054368 -1.1893731 0
5.0461583 -1.0908793 -1.1919072 0
5.0843649 -1.0813081 -1.2000686 0
5.1118779 -1.0692576 -1.2057095 0
5.0879235 -1.0464543 -1.1992252 0
5.110703 -1.0332916 -1.203771 0
5.0713072 -1.0076401 -1.1936893 0
5.0986395 -0.99531299 -1.1993306 0
5.1157146 -0.98085207 -1.2025667 0
5.0664229 -0.95380133 -1.1902212 0
5.129899 -0.94795316 -1.2043797 0
5.1102819 -0.92662013 -1.1990379 0
5.1591196 -0.91762012 -1.2097682 0
5.1579785 -0.89958686 -1.2087866 0
5.1147728 -0.87439126 -1.1979674 0
5.1874995 -0.86893332 -1.2143121 0
5.1258206 -0.84094352 -1.1992073 0
5.1264753 -0.82340974 -1.1987078 0
5.0670662 -0.79644954 -1.1841853 0
5.142417 -0.79063505 -1.2011688 0
5.1520672 -0.77444547 -1.2028095 0
5.1169705 -0.75163472 -1.1940207 0
5.1352186 -0.73673481 -1.1976957 0
5.1590428 -0.72250789 -1.2026806 0
5.1631517 -0.70544088 -1.2030802 0
5.1366391 -0.68428278 -1.1963612 0
5.2085252 -0.67609388 -1.2125692 0
5.144372 -0.65023524 -1.1971197 0
5.1530371 -0.63378465 -1.198635 0
5.1803784 -0.61952299 -1.2045047 0
5.1562448 -0.59910864 -1.1984197 0
5.1659207 -0.58268541 -1.2002077 0
5.1819406 -0.56690377 -1.2034812 0
5.1896386 -0.5501442 -1.2048339 0
5.2036786 -0.53399575 -1.207671 0
5.1563053 -0.51167005 -1.1962718 0
5.1615086 -0.49471614 -1.1970873 0
5.227797 -0.48338643 -1.2120786 0
5.185513 -0.46194732 -1.2019092 0
5.1997104 -0.44564524 -1.2048467 0
5.1791945 -0.42639938 -1.1997548 0
5.1610131 -0.40748605 -1.19522 0
5.166862 -0.39052087 -1.1962646 0
5.1726203 -0.3735185 -1.197301 0
5.1734281 -0.35614499 -1.1972049 0
5.169991 -0.33849615 -1.1961402 0
5.1867476 -0.32213226 -1.1997604 0
5.1872835 -0.30471003 -1.1996413 0
