# .PCD v0.7 - Point Cloud Data file format
VERSION 0.7
FIELDS x y z intensity
SIZE 4 4 4 4
TYPE F F F F
COUNT 1 1 1 1
WIDTH 1416
HEIGHT 1
VIEWPOINT 0 0 0 1 0 0 0
POINTS 1416
DATA ascii
-13.670867 -0.98721933 -1.1991585 0
-13.714231 -1.0365833 -1.2032604 0
-13.631355 -1.0762955 -1.196299 0
-13.691469 -1.1272454 -1.2018995 0
-13.660817 -1.1708474 -1.1995466 0
-13.652746 -1.2162806 -1.1991893 0
-13.690831 -1.2659546 -1.2029005 0
-13.651711 -1.3085147 -1.199842 0
-13.586139 -1.348215 -1.1944696 0
-13.675589 -1.4034104 -1.2027408 0
-13.614032 -1.4432354 -1.1977458 0
-13.587214 -1.4864764 -1.1958182 0
-13.664454 -1.5413065 -1.2030641 0
-13.690279 -1.5907223 -1.2058007 0
-13.662742 -1.6339681 -1.203851 0
-13.607306 -1.6736324 -1.1994541 0
-13.597196 -1.7186868 -1.1990641 0
-13.588859 -1.7639416 -1.1988437 0
-13.586529 -1.8099804 -1.1991669 0
-13.554154 -1.8519394 -1.1968508 0
-13.565752 -1.899878 -1.1984305 0
-13.639217 -1.9568157 -1.2054936 0
-13.572915 -1.99377 -1.2002175 0
-13.51871 -2.0321345 -1.1960201 0
-13.564791 -2.085593 -1.2007089 0
-13.579457 -2.1344779 -1.2026337 0
-13.538033 -2.1745033 -1.199604 0
-13.558475 -2.2244439 -1.2020695 0
-13.504494 -2.2621102 -1.1979493 0
-13.534956 -2.3138928 -1.201333 0
-13.499093 -2.3543713 -1.1988437 0
-13.497378 -2.4007306 -1.1993996 0
-13.49006 -2.4461176 -1.1994714 0
-13.434486 -2.4825935 -1.1952634 0
-13.478307 -2.5374537 -1.1999122 0
-13.468611 -2.5824163 -1.1998131 0
-13.473437 -2.6302068 -1.2010219 0
-13.409979 -2.6645243 -1.1961548 0
-13.42661 -2.7146544 -1.1984435 0
-13.464075 -2.7692492 -1.2026095 0
-13.395286 -2.8019452 -1.1972977 0
-13.37913 -2.8454194 -1.1966996 0
-13.369022 -2.8901546 -1.1966556 0
-13.425466 -2.949508 -1.2025863 0
-13.346325 -2.9790635 -1.1963851 0
-13.320309 -3.0201774 -1.194954 0
-13.427492 -3.09185 -1.2054925 0
-13.409066 -3.1349859 -1.2047752 0
-13.351222 -3.1687105 -1.2005259 0
-13.353765 -3.2166464 -1.2017175 0
-13.299976 -3.2509081 -1.1978512 0
-13.285547 -3.2946253 -1.1975398 0
-13.306972 -3.3473372 -1.2004758 0
-13.274011 -3.3864076 -1.1985198 0
-13.311444 -3.4435341 -1.2029355 0
-13.247058 -3.4743066 -1.1981629 0
-13.283801 -3.5315871 -1.2025504 0
-13.281829 -3.5787845 -1.2034514 0
-13.217968 -3.6091554 -1.1987548 0
-13.214081 -3.6557453 -1.199507 0
-13.258115 -3.7158263 -1.2046283 0
-13.280045 -3.7700412 -1.2077627 0
-13.208597 -3.7976589 -1.2024161 0
-13.117213 -3.819046 -1.195256 0
-13.148195 -3.8759334 -1.1992565 0
-13.16994 -3.9303849 -1.2024351 0
-13.171628 -3.9790323 -1.2038006 0
-13.158908 -4.0233846 -1.2038641 0
-13.115608 -4.05828 -1.2011409 0
-13.114277 -4.1060977 -1.2022729 0
-13.03808 -4.130291 -1.1965503 0
-13.036361 -4.1778927 -1.1976713 0
-13.081064 -4.240634 -1.2030778 0
-13.024934 -4.27075 -1.1992257 0
-12.994857 -4.309195 -1.1977799 0
-12.96295 -4.34691 -1.1961756 0
-12.991624 -4.4050369 -1.2001777 0
-12.950744 -4.4396443 -1.1977694 0
-12.954788 -4.4896264 -1.1995291 0
-12.949304 -4.5364141 -1.2004228 0
-12.89359 -4.5654883 -1.1966703 0
-12.919161 -4.6233473 -1.2004755 0
-12.929749 -4.6760983 -1.2029095 0
-12.877776 -4.7061858 -1.1995354 0
-12.81993 -4.7338295 -1.1956189 0
-12.861856 -4.7983756 -1.2010227 0
-12.854427 -4.8447623 -1.2018391 0
-12.840505 -4.8887448 -1.2020631 0
-12.80898 -4.9259772 -1.2006514 0
-12.762585 -4.9573174 -1.1978537 0
-12.797875 -5.0204725 -1.2027391 0
-12.811313 -5.0753736 -1.2055944 0
-12.723476 -5.0899968 -1.1989279 0
-12.698009 -5.1292624 -1.1981418 0
-12.671119 -5.1678839 -1.1972328 0
-12.708528 -5.2329059 -1.2024183 0
-12.675653 -5.2691431 -1.2009727 0
-12.626799 -5.2985554 -1.1980203 0
-12.585751 -5.3310285 -1.1958148 0
-12.598625 -5.3863726 -1.1987473 0
-12.592408 -5.4337239 -1.1998825 0
-12.569317 -5.4738221 -1.1994243 0
-12.523507 -5.5038977 -1.196807 0
-12.539097 -5.5609851 -1.2000719 0
-12.493659 -5.5910363 -1.1975106 0
-12.519786 -5.6531873 -1.2018249 0
-12.491162 -5.6907592 -1.2009021 0
-12.411839 -5.7049494 -1.1951081 0
-12.449322 -5.7728152 -1.2005742 0
-12.472444 -5.8344254 -1.2046837 0
-12.378735 -5.8412552 -1.1975175 0
-12.368753 -5.8873301 -1.1984547 0
-12.349776 -5.9291658 -1.1985353 0
-12.39053 -5.9999337 -1.2044361 0
-12.393917 -6.0529556 -1.2067312 0
-12.331399 -6.0737138 -1.2026201 0
-12.28051 -6.0998969 -1.199645 0
-12.240524 -6.1312866 -1.1977404 0
-12.224728 -6.1747317 -1.1982137 0
-12.227149 -6.2274966 -1.200491 0
-12.183541 -6.2568202 -1.1982623 0
-12.201923 -6.3180499 -1.2021469 0
-12.120062 -6.3272839 -1.1961651 0
-12.14298 -6.3911481 -1.2005349 0
-12.147946 -6.4458675 -1.203156 0
-12.077253 -6.4603429 -1.198293 0
-12.04439 -6.4947944 -1.1971861 0
-12.010958 -6.5288415 -1.1960322 0
-12.077505 -6.6175694 -1.2048615 0
-12.033291 -6.6458979 -1.2026668 0
-12.043323 -6.7042322 -1.2059093 0
-11.965302 -6.7134471 -1.200344 0
-11.93619 -6.7498312 -1.1996871 0
-11.935347 -6.802269 -1.201888 0
-11.842694 -6.8021684 -1.1948477 0
-11.911203 -6.8947325 -1.2040854 0
-11.782646 -6.8731623 -1.1934125 0
-11.797533 -6.9349651 -1.1972687 0
-11.803561 -6.9918637 -1.2002528 0
-11.805256 -7.0464435 -1.2028208 0
-11.767776 -7.0776911 -1.201413 0
-11.739278 -7.1142578 -1.200932 0
-11.718727 -7.1556334 -1.2012773 0
-11.653607 -7.1696215 -1.1970594 0
-11.668946 -7.2331028 -1.2011194 0
-11.658979 -7.281147 -1.2025995 0
-11.572411 -7.2811303 -1.1961814 0
-11.541819 -7.3160138 -1.1955481 0
-11.594466 -7.403995 -1.2035662 0
-11.503437 -7.400279 -1.1966858 0
-11.494701 -7.4492669 -1.1983685 0
-11.45338 -7.4771352 -1.1966674 0
-11.412693 -7.5052662 -1.1950388 0
-11.444851 -7.5815034 -1.2010611 0
-11.447836 -7.6388297 -1.2040554 0
-11.422872 -7.6776476 -1.2041304 0
-11.372226 -7.6990862 -1.201506 0
-11.328979 -7.725328 -1.1996667 0
-11.298792 -7.7603683 -1.1992186 0
-11.279993 -7.8032465 -1.1999935 0
-11.244569 -7.8346138 -1.1990128 0
-11.231348 -7.8814702 -1.2004139 0
-11.206655 -7.920351 -1.2006062 0
-11.155996 -7.9407692 -1.1980246 0
-11.140574 -7.9862032 -1.1992372 0
-11.112119 -8.0223436 -1.1990627 0
-11.098561 -8.0692997 -1.2005124 0
-11.054965 -8.0943995 -1.1987256 0
-11.040675 -8.1409397 -1.200129 0
-11.035852 -8.194644 -1.2025846 0
-10.997327 -8.223382 -1.2013842 0
-10.95572 -8.2496862 -1.1998539 0
-10.936527 -8.2928391 -1.2007902 0
-10.900526 -8.3232489 -1.1998948 0
-10.86074 -8.3506622 -1.1985904 0
-10.817265 -8.3750935 -1.1968848 0
-10.821052 -8.4362059 -1.2004266 0
-10.815785 -8.4905577 -1.2029938 0
-10.706351 -8.462821 -1.193971 0
-10.767551 -8.5700102 -1.2039937 0
-10.748425 -8.6138115 -1.2050775 0
-10.636161 -8.5825653 -1.1957105 0
-10.670072 -8.669158 -1.2027836 0
-10.621728 -8.6891623 -1.2006112 0
-10.57777 -8.7125654 -1.1989378 0
-10.507401 -8.7138977 -1.1942666 0
-10.557549 -8.8153954 -1.2033188 0
-10.476841 -8.8077917 -1.1974792 0
-10.506569 -8.8930769 -1.2042783 0
-10.485694 -8.9359236 -1.205313 0
-10.392406 -8.9167442 -1.1980194 0
-10.357674 -8.9474115 -1.1974671 0
-10.342531 -8.9950609 -1.1991965 0
-10.331609 -9.0465813 -1.2014402 0
-10.272642 -9.0559778 -1.1981072 0
-10.251257 -9.0983877 -1.199164 0
-10.24677 -9.1560078 -1.2022234 0
-10.210816 -9.1856356 -1.2016119 0
-10.17134 -9.2120113 -1.2005943 0
-10.145144 -9.2503901 -1.2011561 0
-10.130807 -9.299715 -1.2031437 0
-10.077749 -9.3134632 -1.2005442 0
-10.050977 -9.3513966 -1.2010833 0
-10.053028 -9.4163857 -1.2050943 0
-9.9890261 -9.4195099 -1.2012013 0
-9.9467068 -9.4428091 -1.1999129 0
-9.9045458 -9.4661226 -1.1986488 0
-9.8543949 -9.4816141 -1.1964201 0
-9.8782969 -9.5686007 -1.2032102 0
-9.8222933 -9.578393 -1.2002938 0
-9.8055105 -9.6263771 -1.2021801 0
-9.7593536 -9.6455345 -1.2004795 0
-9.6968222 -9.6482153 -1.1967601 0
-9.6926031 -9.7089043 -1.2002501 0
-9.6985731 -9.7802486 -1.2050432 0
-9.5927267 -9.7386007 -1.1959422 0
-9.5981598 -9.8096876 -1.2007133 0
-9.5822277 -9.8593168 -1.2028488 0
-9.519228 -9.8604288 -1.1990838 0
-9.5019369 -9.9087896 -1.2010838 0
-9.4740944 -9.9462957 -1.2017729 0
-9.411253 -9.9468889 -1.1980253 0
-9.4270163 -10.030702 -1.2043064 0
-9.3569183 -10.023245 -1.1996377 0
-9.3197174 -10.050741 -1.199182 0
-9.2775841 -10.07283 -1.1980994 0
-9.276824 -10.14002 -1.2023849 0
-9.2056522 -10.130218 -1.1975558 0
-9.1900787 -10.181457 -1.1999638 0
-9.1451197 -10.200198 -1.1985523 0
-9.13305 -10.255711 -1.2014701 0
-9.093049 -10.279984 -1.2007354 0
-9.0389414 -10.288117 -1.1981388 0
-9.03617 -10.354775 -1.2023667 0
-8.9668531 -10.345155 -1.1977519 0
-8.9464388 -10.391796 -1.1996723 0
-8.8880615 -10.394268 -1.1965107 0
-8.8697577 -10.44355 -1.1987536 0
-8.8311539 -10.469034 -1.1982734 0
-8.8063383 -10.510921 -1.1996814 0
-8.770771 -10.540055 -1.1996435 0
-8.7240648 -10.555708 -1.1980892 0
-8.6939211 -10.591352 -1.1988196 0
-8.7018824 -10.673824 -1.2048453 0
-8.6498184 -10.682898 -1.2025892 0
-8.6068306 -10.702984 -1.2015951 0
-8.560895 -10.719257 -1.2001928 0
-8.5399952 -10.766922 -1.202317 0
-8.4772816 -10.761768 -1.1985608 0
-8.451582 -10.803464 -1.2000419 0
-8.4171152 -10.83406 -1.2002989 0
-8.3878975 -10.871493 -1.2013236 0
-8.3398304 -10.884454 -1.1996592 0
-8.3105946 -10.921954 -1.2007146 0
-8.2846642 -10.963964 -1.2022725 0
-8.2096872 -10.940812 -1.1967086 0
-8.2182741 -11.029091 -1.2033439 0
-8.1682291 -11.038985 -1.2014287 0
-8.1361971 -11.073151 -1.2021712 0
-8.0634737 -11.051641 -1.1968943 0
-8.0623274 -11.12824 -1.2022556 0
-7.9839602 -11.0982 -1.1961114 0
-7.9845543 -11.177894 -1.2018085 0
-7.9410548 -11.196174 -1.2009045 0
-7.8693862 -11.174335 -1.1957253 0
-7.8782482 -11.266974 -1.2028052 0
-7.797904 -11.232075 -1.1962816 0
-7.7559638 -11.252009 -1.1956283 0
-7.765141 -11.346549 -1.2029009 0
-7.7043562 -11.339114 -1.1993673 0
-7.6668224 -11.365664 -1.1994498 0
-7.6057634 -11.357096 -1.1958479 0
-7.6106024 -11.44715 -1.2026365 0
-7.5631676 -11.458948 -1.2012051 0
-7.5121303 -11.465049 -1.1991976 0
-7.4519753 -11.456852 -1.1957202 0
-7.4256268 -11.500522 -1.1976727 0
-7.4001775 -11.545874 -1.199805 0
-7.3397412 -11.536537 -1.1962709 0
-7.295105 -11.551715 -1.1953018 0
-7.2837157 -11.619793 -1.1998123 0
-7.2536521 -11.658511 -1.2012923 0
-7.2174697 -11.687538 -1.2017831 0
-7.1595225 -11.681129 -1.1986488 0
-7.1335959 -11.726895 -1.2008841 0
-7.1075163 -11.77274 -1.2031318 0
-7.0349236 -11.741293 -1.1975007 0
-7.0246816 -11.813861 -1.2024931 0
-6.9712992 -11.814073 -1.2001288 0
-6.9334693 -11.840487 -1.2004439 0
-6.9038396 -11.881063 -1.2022041 0
-6.8656421 -11.907051 -1.2024976 0
-6.7973447 -11.880475 -1.1975055 0
-6.7890058 -11.958743 -1.2030934 0
-6.703373 -11.900661 -1.1949824 0
-6.7080564 -12.002913 -1.2029847 0
-6.6717715 -12.032544 -1.2037057 0
-6.5908217 -11.981096 -1.1963416 0
-6.576395 -12.050366 -1.20105 0
-6.542078 -12.083657 -1.2021751 0
-6.4869542 -12.07839 -1.1994805 0
-6.4399786 -12.087979 -1.1982818 0
-6.4384956 -12.183456 -1.2055998 0
-6.3570251 -12.127549 -1.1979517 0
-6.3236017 -12.162785 -1.1993312 0
-6.2877889 -12.193619 -1.200286 0
-6.2474289 -12.215723 -1.2003932 0
-6.1874585 -12.199183 -1.1967226 0
-6.1617961 -12.250227 -1.1996965 0
-6.1360202 -12.301554 -1.2027016 0
-6.0894718 -12.311405 -1.2016618 0
-6.0353436 -12.305621 -1.1991154 0
-6.0025153 -12.343192 -1.2008086 0
-5.9619827 -12.365085 -1.2009871 0
-5.8862486 -12.313373 -1.1940408 0
-5.8866215 -12.421007 -1.2025576 0
-5.8132625 -12.373243 -1.1960396 0
-5.7983088 -12.449701 -1.2015442 0
-5.7404571 -12.434247 -1.1981884 0
-5.7114854 -12.481286 -1.2008692 0
-5.6623182 -12.484298 -1.1993256 0
-5.6328979 -12.530951 -1.2019863 0
-5.5793061 -12.523849 -1.199504 0
-5.5387535 -12.545812 -1.1998222 0
-5.4840574 -12.535507 -1.1970716 0
-5.4556231 -12.585257 -1.2000687 0
-5.4284215 -12.638458 -1.2033995 0
-5.3672543 -12.612499 -1.1992075 0
-5.3079724 -12.590185 -1.195387 0
-5.2875199 -12.660084 -1.2003337 0
-5.242785 -12.672281 -1.1998168 0
-5.218895 -12.735243 -1.2041146 0
-5.1764822 -12.753447 -1.2041879 0
-5.0969925 -12.679432 -1.1955792 0
-5.0825486 -12.767027 -1.2022252 0
-5.0323105 -12.765214 -1.2004589 0
-5.0094018 -12.833043 -1.2052513 0
-4.9221253 -12.735349 -1.1945194 0
-4.8987632 -12.802388 -1.1992601 0
-4.8593349 -12.828041 -1.2001302 0
-4.8205261 -12.855539 -1.201184 0
-4.7723155 -12.857939 -1.1999063 0
-4.7115507 -12.825881 -1.1954339 0
-4.6902127 -12.901271 -1.2009881 0
-4.6397815 -12.897051 -1.1991403 0
-4.6081934 -12.945344 -1.2021873 0
-4.5510364 -12.921744 -1.1985718 0
-4.510179 -12.944084 -1.1992346 0
-4.4779124 -12.991505 -1.2022302 0
-4.426033 -12.982111 -1.199981 0
-4.3792334 -12.987245 -1.1990916 0
-4.3413 -13.018753 -1.2006501 0
-4.3058205 -13.058085 -1.2029393 0
-4.2486501 -13.031456 -1.1991671 0
-4.1961493 -13.018373 -1.1966618 0
-4.1640987 -13.068841 -1.2000108 0
-4.1078768 -13.043417 -1.1964049 0
-4.0691042 -13.073124 -1.1978717 0
-4.0360646 -13.121856 -1.2010901 0
-3.9877982 -13.121334 -1.1998118 0
-3.9509118 -13.158375 -1.2019807 0
-3.9080226 -13.175763 -1.2023655 0
-3.8490889 -13.138493 -1.19778 0
-3.8121984 -13.176147 -1.2000407 0
-3.7677932 -13.188132 -1.199975 0
-3.7229698 -13.198616 -1.1997864 0
-3.6859488 -13.237069 -1.2021518 0
-3.6369231 -13.232532 -1.2006254 0
-3.6023469 -13.280819 -1.203904 0
-3.540689 -13.228896 -1.1981144 0
-3.5090911 -13.289077 -1.2024925 0
-3.4648061 -13.301883 -1.2025933 0
-3.4175603 -13.303197 -1.2016695 0
-3.3584702 -13.257469 -1.1965151 0
-3.3345702 -13.351008 -1.2039413 0
-3.2922196 -13.371989 -1.2048312 0
-3.2348447 -13.331345 -1.2001851 0
-3.1793029 -13.296837 -1.196112 0
-3.1342306 -13.305415 -1.1959317 0
-3.1029551 -13.373398 -1.2011003 0
-3.0587807 -13.386708 -1.201368 0
-3.0024285 -13.345984 -1.1968031 0
-2.9691839 -13.407991 -1.2014641 0
-2.9238091 -13.41602 -1.2012984 0
-2.879102 -13.427103 -1.2014197 0
-2.8357377 -13.444601 -1.2021278 0
-2.7894828 -13.448432 -1.2016274 0
-2.7425606 -13.448802 -1.200832 0
-2.69646 -13.452962 -1.2003895 0
-2.6526339 -13.468499 -1.2009755 0
-2.5936928 -13.406149 -1.1946336 0
-2.5696037 -13.524634 -1.2044175 0
-2.5121453 -13.468311 -1.1986449 0
-2.4650533 -13.466164 -1.1977115 0
-2.4213896 -13.482703 -1.1984538 0
-2.3736215 -13.476271 -1.1971678 0
-2.3392272 -13.546711 -1.202722 0
-2.2863526 -13.510503 -1.1988199 0
-2.2432284 -13.531284 -1.1999898 0
-2.2027326 -13.568818 -1.2026566 0
-2.1517045 -13.541375 -1.199578 0
-2.1072159 -13.554463 -1.200105 0
-2.0642018 -13.577524 -1.2015271 0
-2.025584 -13.630913 -1.205644 0
-1.9702373 -13.571272 -1.1997777 0
-1.9309587 -13.621782 -1.2036641 0
-1.8765231 -13.564902 -1.1980753 0
-1.842461 -13.655827 -1.2055534 0
-1.7887996 -13.602118 -1.2002757 0
-1.7402201 -13.584898 -1.1982347 0
-1.7024001 -13.652708 -1.2037055 0
-1.6523256 -13.62297 -1.2005883 0
-1.6052029 -13.616234 -1.1995137 0
-1.5625925 -13.64819 -1.2018607 0
-1.5179179 -13.663198 -1.2027273 0
-1.4696298 -13.645283 -1.2007098 0
-1.4264842 -13.675182 -1.2029132 0
-1.3742176 -13.616391 -1.1973296 0
-1.3318334 -13.654515 -1.2002827 0
-1.2853246 -13.651255 -1.1996105 0
-1.242748 -13.690748 -1.202708 0
-1.193773 -13.659761 -1.1996275 0
-1.1502494 -13.690845 -1.2020118 0
-1.0990055 -13.62847 -1.1962055 0
-1.057144 -13.681756 -1.2005645 0
-1.0157648 -13.746109 -1.2059058 0
-0.96424216 -13.672459 -1.1991544 0
-0.91785091 -13.667504 -1.1984433 0
-0.87397039 -13.701062 -1.201122 0
-0.82612449 -13.672406 -1.1983603 0
-0.77763361 -13.628738 -1.1942977 0
-0.73400921 -13.669905 -1.1976827 0
-0.69108552 -13.730164 -1.2027526 0
-0.64599603 -13.752608 -1.2045221 0
-0.60009271 -13.759516 -1.2049443 0
-0.55109721 -13.690427 -1.1987253 0
-0.50556064 -13.702168 -1.1995983 0
-0.45939195 -13.697077 -1.199011 0
-0.41428143 -13.725568 -1.2013767 0
-0.36960655 -13.777077 -1.2057699 0
-0.3220129 -13.718611 -1.2005517 0
-0.27559173 -13.698565 -1.1987098 0
-0.23042281 -13.744825 -1.2026836 0
-0.18453117 -13.759947 -1.2039459 0
-0.13786572 -13.7078 -1.1993359 0
-0.091918148 -13.710106 -1.199504 0
-0.045797095 -13.664643 -1.1955063 0
1.8151828e-05 -13.68096 -1.1969271 0
0.045873988 -13.676757 -1.1965661 0
0.091844663 -13.693724 -1.1980708 0
0.13806315 -13.723808 -1.2007366 0
0.18393378 -13.712688 -1.1998109 0
0.23020151 -13.729451 -1.2013384 0
0.27593899 -13.714017 -1.200062 0
0.32319653 -13.767479 -1.2048284 0
0.36899251 -13.752828 -1.2036477 0
0.4136785 -13.704386 -1.1995227 0
0.45921284 -13.690653 -1.1984487 0
0.50723934 -13.746676 -1.203495 0
0.55310547 -13.739409 -1.2030144 0
0.59836149 -13.718986 -1.201395 0
0.64395618 -13.708406 -1.2006509 0
0.69128859 -13.733473 -1.2030426 0
0.73548412 -13.696694 -1.2000301 0
0.77968878 -13.66412 -1.1973984 0
0.82679653 -13.682925 -1.1992825 0
0.87421787 -13.70437 -1.2014122 0
0.91529578 -13.628916 -1.1950598 0
0.96550798 -13.68989 -1.2006834 0
1.0120012 -13.694682 -1.2013946 0
1.056899 -13.678112 -1.200245 0
1.1040324 -13.690354 -1.2016374 0
1.1489738 -13.675227 -1.200641 0
1.1984544 -13.712908 -1.2042953 0
1.2387576 -13.646385 -1.1988112 0
1.2814599 -13.609821 -1.1959697 0
1.3337506 -13.673798 -1.2019778 0
1.3778158 -13.651681 -1.2004331 0
1.4224201 -13.63587 -1.1994555 0
1.4683297 -13.632873 -1.1996181 0
1.5196626 -13.678574 -1.2040811 0
1.5670462 -13.686769 -1.2052583 0
1.6100762 -13.65726 -1.2031282 0
1.6541147 -13.637418 -1.2018621 0
1.6885498 -13.54134 -1.193887 0
1.748015 -13.645461 -1.2035769 0
1.7897205 -13.60884 -1.2008693 0
1.8304446 -13.566492 -1.1976674 0
1.8800819 -13.590363 -1.2003243 0
1.9272019 -13.59502 -1.2012997 0
1.968792 -13.561064 -1.1988758 0
2.0188546 -13.585382 -1.2016172 0
2.0638511 -13.574975 -1.2013022 0
2.1023867 -13.523166 -1.1973343 0
2.1479902 -13.517769 -1.1974874 0
2.1977282 -13.537764 -1.1999047 0
2.2479 -13.559239 -1.2024695 0
2.2853065 -13.504103 -1.1982526 0
2.3292739 -13.488858 -1.1975861 0
2.3775797 -13.498533 -1.1991462 0
2.4260366 -13.508371 -1.2007359 0
2.463172 -13.455685 -1.19678 0
2.5233881 -13.528388 -1.2039921 0
2.5722132 -13.538174 -1.2056237 0
2.6021695 -13.449772 -1.1985215 0
2.6531227 -13.470792 -1.2011806 0
2.6960239 -13.450602 -1.2001795 0
2.7499213 -13.484713 -1.2040391 0
2.7813642 -13.409112 -1.1981148 0
2.8244553 -13.390932 -1.1973298 0
2.863867 -13.35588 -1.1950474 0
2.9087214 -13.346619 -1.1950847 0
2.9681931 -13.403349 -1.2010489 0
3.0227559 -13.436174 -1.2048917 0
3.0640156 -13.409455 -1.20341 0
3.1104703 -13.405625 -1.2039955 0
3.1395047 -13.327646 -1.1979307 0
3.1890254 -13.337343 -1.1997565 0
3.2365391 -13.338173 -1.2008005 0
3.2847381 -13.34145 -1.2020802 0
3.3144643 -13.270358 -1.1966695 0
3.3686326 -13.297436 -1.200123 0
3.4086246 -13.268268 -1.1985151 0
3.4613209 -13.288358 -1.2013714 0
3.494576 -13.233965 -1.1975064 0
3.5509205 -13.266983 -1.2015647 0
3.5874183 -13.225642 -1.1989032 0
3.630295 -13.208279 -1.1984258 0
3.6876044 -13.24288 -1.2026803 0
3.7153072 -13.171318 -1.1973058 0
3.7716315 -13.201434 -1.2011862 0
3.803659 -13.146502 -1.1973416 0
3.8551607 -13.159089 -1.1996585 0
3.8885045 -13.109832 -1.1963497 0
3.9633226 -13.199581 -1.2057458 0
3.9797325 -13.09467 -1.1973746 0
4.0286818 -13.097729 -1.1988827 0
4.0766706 -13.097312 -1.2000889 0
4.138772 -13.141394 -1.2053928 0
4.1706166 -13.089177 -1.2018791 0
4.1931453 -13.008936 -1.1957954 0
4.2566948 -13.056014 -1.2014281 0
4.3172579 -13.092654 -1.2061249 0
4.3345518 -12.998402 -1.1987742 0
4.380939 -12.992188 -1.1995491 0
4.4253697 -12.980054 -1.1997919 0
4.4530177 -12.919168 -1.1955373 0
4.495625 -12.902205 -1.1953557 0
4.5509162 -12.921293 -1.1985312 0
4.6052938 -12.93709 -1.2014219 0
4.6420274 -12.903186 -1.1997119 0
4.6882906 -12.895877 -1.2004871 0
4.7163615 -12.838871 -1.1966457 0
4.7430444 -12.77897 -1.1925381 0
4.8253269 -12.868237 -1.2023717 0
4.8562903 -12.819901 -1.1993699 0
4.910471 -12.832883 -1.2021179 0
4.9412799 -12.784808 -1.1991597 0
4.9803982 -12.758642 -1.198265 0
5.0476785 -12.804098 -1.2041168 0
5.0952501 -12.798833 -1.2052214 0
5.1141748 -12.722078 -1.1996017 0
5.172245 -12.74291 -1.2031944 0
5.2049532 -12.701125 -1.2008901 0
5.257978 -12.708909 -1.2032861 0
5.2862592 -12.65697 -1.2000399 0
5.3309464 -12.644584 -1.2005534 0
5.3778744 -12.637362 -1.2015729 0
5.4032059 -12.579659 -1.1978023 0
5.4630628 -12.602327 -1.2016979 0
5.4883842 -12.545307 -1.1980088 0
5.537921 -12.543837 -1.1996347 0
5.5776343 -12.520006 -1.1991374 0
5.6220078 -12.506637 -1.1996555 0
5.6807947 -12.524946 -1.203232 0
5.7007389 -12.457714 -1.1986027 0
5.7489319 -12.452517 -1.1999505 0
5.7909427 -12.433799 -1.2000109 0
5.826087 -12.400455 -1.1986713 0
5.872282 -12.390666 -1.1996216 0
5.9080377 -12.358869 -1.1984541 0
5.9415936 -12.322715 -1.1968733 0
5.985024 -12.30714 -1.1973029 0
6.0406923 -12.316444 -1.2001716 0
6.094717 -12.321927 -1.2026905 0
6.1232457 -12.275862 -1.2001913 0
6.1699471 -12.266351 -1.2012771 0
6.2330713 -12.289033 -1.2055384 0
6.252224 -12.225019 -1.2013084 0
6.2850547 -12.188236 -1.1997578 0
6.3232603 -12.162049 -1.1992602 0
6.3673391 -12.147146 -1.1998891 0
6.3895249 -12.090713 -1.196424 0
6.4497633 -12.106267 -1.2000964 0
6.4663892 -12.040022 -1.1956719 0
6.5246363 -12.051365 -1.1989641 0
6.5595679 -12.019458 -1.197971 0
6.5996308 -11.997034 -1.1979349 0
6.615613 -11.931188 -1.193568 0
6.7019043 -11.991831 -1.2018757 0
6.7417006 -11.968632 -1.2018093 0
6.7712121 -11.927326 -1.1999346 0
6.8438425 -11.961672 -1.2056916 0
6.8716297 -11.917362 -1.2035408 0
6.8956585 -11.866911 -1.200774 0
6.9389248 -11.849732 -1.201383 0
6.9806385 -11.829828 -1.2017312 0
7.0177803 -11.802183 -1.2013063 0
7.0305119 -11.733859 -1.1967444 0
7.0687275 -11.708422 -1.1965606 0
7.132268 -11.724642 -1.2006553 0
7.1539531 -11.671971 -1.1977112 0
7.2042241 -11.66602 -1.1995723 0
7.242054 -11.639801 -1.1993663 0
7.2734523 -11.603351 -1.1981167 0
7.3071518 -11.570724 -1.1972706 0
7.3421164 -11.540203 -1.196653 0
7.3885446 -11.527656 -1.197914 0
7.4613814 -11.55583 -1.2034347 0
7.4739676 -11.490597 -1.1992441 0
7.4936099 -11.436717 -1.1962364 0
7.5918245 -11.502299 -1.2057517 0
7.5810218 -11.402592 -1.1979573 0
7.6647153 -11.445059 -1.2051121 0
7.6385789 -11.323729 -1.1950265 0
7.7247663 -11.369088 -1.2025399 0
7.7536616 -11.329711 -1.2011179 0
7.7837763 -11.292295 -1.1999112 0
7.8087492 -11.247632 -1.1979407 0
7.877809 -11.266283 -1.2027335 0
7.8859563 -11.197802 -1.1982386 0
7.9108381 -11.153508 -1.1963304 0
8.0076399 -11.210149 -1.2052788 0
7.9633722 -11.06952 -1.1930227 0
8.0088139 -11.054314 -1.1942712 0
8.0856457 -11.081967 -1.2001809 0
8.1554413 -11.099279 -1.2050104 0
8.1308432 -10.9884 -1.1959255 0
8.1826696 -10.981248 -1.1981263 0
8.2214212 -10.956389 -1.1984149 0
8.275034 -10.95116 -1.2008709 0
8.3036757 -10.912803 -1.1997108 0
8.3356323 -10.878916 -1.1990513 0
8.43153 -10.927984 -1.2075685 0
8.4335032 -10.855095 -1.2026318 0
8.4450874 -10.795104 -1.1991158 0
8.4947863 -10.783933 -1.2010318 0
8.5309162 -10.755416 -1.2010347 0
8.5963039 -10.763535 -1.205153 0
8.6069908 -10.703124 -1.2016134 0
8.6255732 -10.652896 -1.1992145 0
8.6462326 -10.605506 -1.1971363 0
8.6735868 -10.566522 -1.1960118 0
8.735877 -10.569943 -1.1997076 0
8.7681379 -10.536835 -1.1992797 0
8.8246956 -10.532774 -1.2021784 0
8.8600044 -10.50318 -1.2021843 0
8.8505611 -10.420892 -1.1961554 0
8.9298038 -10.443027 -1.2021263 0
8.93857 -10.3826 -1.1986134 0
8.9535847 -10.329791 -1.1959758 0
9.0582542 -10.380026 -1.2053015 0
9.0711288 -10.324697 -1.2024018 0
9.078331 -10.263289 -1.1987883 0
9.114399 -10.234713 -1.199013 0
9.1559849 -10.212263 -1.1999726 0
9.1889839 -10.18019 -1.1998174 0
9.2417412 -10.169876 -1.202247 0
9.2514629 -10.112246 -1.1990943 0
9.3006725 -10.097844 -1.2010776 0
9.3624802 -10.096804 -1.2046808 0
9.3732271 -10.040662 -1.2017252 0
9.4052038 -10.007439 -1.2015163 0
9.4048023 -9.9400177 -1.1972008 0
9.4657135 -9.9374447 -1.2007065 0
9.5024261 -9.9092464 -1.2011422 0
9.5296679 -9.8711901 -1.2003955 0
9.5690603 -9.8457165 -1.2011926 0
9.5525188 -9.7629881 -1.1950003 0
9.6340637 -9.7805138 -1.2010925 0
9.6692638 -9.7506409 -1.2013984 0
9.7238693 -9.7401714 -1.2041186 0
9.7694178 -9.720396 -1.2057165 0
9.8036385 -9.6892509 -1.2059238 0
9.7906685 -9.6117554 -1.2003574 0
9.8212299 -9.5773048 -1.2001607 0
9.8382263 -9.5297356 -1.1983265 0
9.8969631 -9.522521 -1.2015852 0
9.9357967 -9.4959383 -1.2024276 0
9.9625883 -9.4578352 -1.2018257 0
9.9585342 -9.390707 -1.1975317 0
10.035131 -9.3995724 -1.2029461 0
10.039965 -9.3411016 -1.1997644 0
10.119995 -9.3524561 -1.205574 0
10.14384 -9.3116293 -1.2046885 0
10.121856 -9.2291069 -1.1983962 0
10.157499 -9.1994267 -1.1989577 0
10.219884 -9.1937437 -1.2026761 0
10.209743 -9.1228743 -1.1978765 0
10.268169 -9.1133499 -1.2011397 0
10.247179 -9.0334826 -1.1951346 0
10.337259 -9.0514803 -1.2020944 0
10.339912 -8.992734 -1.19889 0
10.377331 -8.964344 -1.199737 0
10.419598 -8.9400272 -1.2011513 0
10.435102 -8.8927622 -1.1994948 0
10.473578 -8.8651047 -1.2004942 0
10.494034 -8.822197 -1.1994417 0
10.523499 -8.7869167 -1.1994354 0
10.554974 -8.7533035 -1.199671 0
10.5934 -8.7253914 -1.2007067 0
10.550662 -8.6309805 -1.1925758 0
10.631532 -8.6377983 -1.1984365 0
10.644011 -8.5888529 -1.1965903 0
10.711252 -8.5839748 -1.2009073 0
10.730516 -8.5404873 -1.19985 0
10.776243 -8.5180206 -1.2017629 0
10.795578 -8.4746475 -1.2007436 0
10.781241 -8.4051228 -1.1960077 0
10.813219 -8.3719149 -1.1964346 0
10.850117 -8.3424482 -1.1974156 0
10.869547 -8.2995481 -1.1964822 0
10.965984 -8.3151302 -1.2040222 0
10.978927 -8.2671146 -1.2023929 0
11.001275 -8.2262888 -1.2018131 0
10.98759 -8.158762 -1.1973231 0
11.021802 -8.1269779 -1.1980752 0
11.070761 -8.1059198 -1.200436 0
11.085758 -8.0599461 -1.1991253 0
11.084369 -8.002265 -1.196066 0
11.129985 -7.9785676 -1.1980951 0
11.157353 -7.94169 -1.198168 0
11.221968 -7.931129 -1.2022445 0
11.240091 -7.8875613 -1.2013463 0
11.267353 -7.8504438 -1.20144 0
11.308909 -7.8232059 -1.2030675 0
11.314387 -7.7710357 -1.2008717 0
11.36609 -7.7505894 -1.2035943 0
11.343102 -7.6793251 -1.1984268 0
11.368919 -7.6413412 -1.198441 0
11.386234 -7.597681 -1.1975743 0
11.43683 -7.5761461 -1.2002172 0
11.467105 -7.5410056 -1.2007344 0
11.513059 -7.5160522 -1.2029006 0
11.481772 -7.4408445 -1.1970186 0
11.558674 -7.4357705 -1.20243 0
11.49883 -7.3428802 -1.1936365 0
11.545406 -7.3182449 -1.1959177 0
11.600676 -7.2988715 -1.1991011 0
11.646543 -7.2733374 -1.2013147 0
11.671135 -7.234417 -1.2013427 0
11.690442 -7.1922402 -1.2008411 0
11.722803 -7.1580801 -1.2016933 0
11.685678 -7.0817327 -1.1954468 0
11.775934 -7.0825558 -1.202244 0
11.780554 -7.0316567 -1.200302 0
11.834366 -7.0100689 -1.2033833 0
11.801079 -6.937007 -1.1976267 0
11.837735 -6.9052548 -1.1989905 0
11.882843 -6.8782744 -1.2012167 0
11.876327 -6.821444 -1.1982392 0
11.939217 -6.8044324 -1.2022758 0
11.941051 -6.7525387 -1.200174 0
11.933043 -6.6953063 -1.1971061 0
11.990459 -6.6747627 -1.2006142 0
12.041205 -6.6502271 -1.203456 0
12.04446 -6.5994215 -1.2015631 0
12.054125 -6.5522642 -1.2003289 0
12.039982 -6.4923763 -1.1967462 0
12.116975 -6.4815493 -1.2022324 0
12.097464 -6.4190392 -1.1981544 0
12.156278 -6.3981061 -1.201848 0
12.133022 -6.3340092 -1.1974427 0
12.129979 -6.280757 -1.1950572 0
12.193686 -6.2619886 -1.1992583 0
12.213552 -6.22053 -1.1991541 0
12.246679 -6.1857786 -1.2003638 0
12.295044 -6.158555 -1.2030736 0
12.339002 -6.1289096 -1.2053573 0
12.279777 -6.0482473 -1.1975842 0
12.348159 -6.0305676 -1.2022744 0
12.338891 -5.9748878 -1.199415 0
12.387144 -5.9470663 -1.2021604 0
12.358853 -5.8825774 -1.1974939 0
12.416363 -5.8589706 -1.2011561 0
12.395823 -5.7985435 -1.1972815 0
12.429198 -5.7634435 -1.198632 0
12.427155 -5.7119493 -1.1965814 0
12.478359 -5.684886 -1.1996697 0
12.56952 -5.6756039 -1.2065976 0
5.135859 -2.2983315 -0.49226877 0
5.1476474 -2.2829223 -0.49266228 0
5.1664066 -2.2705436 -0.49372628 0
5.119411 -2.2294402 -0.48851806 0
5.131722 -2.2143626 -0.48898163 0
5.101367 -2.1810048 -0.48538971 0
5.1355095 -2.1752651 -0.48794162 0
5.126122 -2.1510472 -0.48636174 0
5.1088943 -2.1237009 -0.4840489 0
5.1386929 -2.1159093 -0.48619729 0
5.1346827 -2.0941513 -0.48515081 0
5.1167231 -2.0668449 -0.48279643 0
5.2114735 -2.0848217 -0.49107444 0
5.261622 -2.0844462 -0.49513859 0
5.3444142 -2.0965414 -0.50226533 0
5.3462577 -2.0766082 -0.5017814 0
5.4188061 -2.0839055 -0.50793195 0
5.461894 -2.0794816 -0.51131439 0
12.875905 -4.8528185 -1.203846 0
12.854354 -4.7955375 -1.200321 0
12.909573 -4.766892 -1.2039781 0
12.872451 -4.7042012 -1.1990383 0
12.902705 -4.6662793 -1.2003924 0
12.908584 -4.619524 -1.1994915 0
12.978016 -4.5953441 -1.2045048 0
12.999137 -4.5538325 -1.2050413 0
12.919021 -4.4771924 -1.1962161 0
13.011686 -4.4604974 -1.2034048 0
12.946035 -4.3895411 -1.1959651 0
12.990967 -4.356267 -1.1987598 0
12.985647 -4.3061032 -1.1969301 0
13.036292 -4.274436 -1.2002703 0
13.069174 -4.2367415 -1.2019832 0
13.091243 -4.1954427 -1.2027124 0
13.061432 -4.1376505 -1.1986923 0
13.064717 -4.0905428 -1.1977285 0
13.151006 -4.0691948 -1.2043816 0
13.124773 -4.0129099 -1.2007402 0
13.14955 -3.9723248 -1.2017817 0
13.193757 -3.9374547 -1.2046087 0
13.159102 -3.8791108 -1.2002505 0
13.162843 -3.832293 -1.1994129 0
13.177011 -3.7885399 -1.1995398 0
13.227532 -3.7550955 -1.202986 0
13.22147 -3.7055182 -1.2012979 0
13.237877 -3.6622908 -1.2016662 0
13.202087 -3.6047816 -1.1973137 0
13.249553 -3.5700498 -1.200526 0
13.265667 -3.5267282 -1.2009079 0
13.222761 -3.4678967 -1.1959645 0
13.275979 -3.4343221 -1.1997297 0
13.285471 -3.3892939 -1.1995537 0
13.338751 -3.3552938 -1.203342 0
13.359919 -3.3130307 -1.2042427 0
13.314791 -3.2544916 -1.1991847 0
13.340556 -3.2134273 -1.200528 0
13.359006 -3.1705203 -1.201225 0
13.323561 -3.1149578 -1.1970921 0
13.34245 -3.0722308 -1.197857 0
13.401193 -3.0384791 -1.2022094 0
13.392241 -2.9892752 -1.2005005 0
13.393945 -2.9425457 -1.199762 0
13.381068 -2.8927214 -1.197733 0
13.433934 -2.8570378 -1.2016009 0
13.435586 -2.8103378 -1.2008991 0
13.439355 -2.7641277 -1.2004008 0
13.381708 -2.705539 -1.194435 0
13.448627 -2.6721661 -1.1996015 0
13.482115 -2.6318636 -1.2017949 0
13.473342 -2.5832865 -1.2002341 0
13.480086 -2.5377519 -1.2000701 0
13.536134 -2.5013399 -1.2043064 0
13.441085 -2.4372003 -1.1951162 0
13.510476 -2.4030232 -1.200563 0
13.492321 -2.3531535 -1.1982418 0
13.576005 -2.3208735 -1.2049758 0
13.560863 -2.2715154 -1.202949 0
13.53828 -2.2210937 -1.2002785 0
13.563703 -2.1785893 -1.2018781 0
13.522394 -2.1254716 -1.1975796 0
13.56519 -2.0856175 -1.2007437 0
13.584519 -2.04199 -1.2018418 0
13.553958 -1.9909487 -1.1985407 0
13.591027 -1.9498651 -1.2012339 0
13.526224 -1.8943056 -1.1949382 0
13.517565 -1.8469036 -1.1936194 0
13.590533 -1.810477 -1.1995199 0
13.624754 -1.7685645 -1.2020102 0
13.618249 -1.7213112 -1.2009203 0
13.654795 -1.6794366 -1.2036397 0
13.638928 -1.6310836 -1.2017524 0
13.673223 -1.5887038 -1.204298 0
13.632792 -1.5376985 -1.2002761 0
13.618773 -1.4898925 -1.1985954 0
13.628812 -1.4447657 -1.1990458 0
13.681396 -1.4039696 -1.2032511 0
13.678721 -1.3573657 -1.2026089 0
13.671012 -1.3103281 -1.2015381 0
13.700979 -1.2668563 -1.2037919 0
13.647082 -1.2157395 -1.1986915 0
13.686286 -1.1729938 -1.2017827 0
13.659321 -1.1245621 -1.1990771 0
13.649459 -1.0776885 -1.1978875 0
13.728355 -1.0376141 -1.2044994 0
13.665016 -0.98676032 -1.1986451 0
13.679914 -0.9417417 -1.1996683 0
13.65357 -0.89394373 -1.1970885 0
13.676393 -0.84939688 -1.198833 0
13.642572 -0.80138832 -1.1956261 0
13.736003 -0.76067227 -1.2035841 0
13.696509 -0.71243083 -1.1999074 0
13.691189 -0.6661337 -1.1992389 0
13.713695 -0.62114775 -1.2010212 0
13.674767 -0.5734483 -1.1974368 0
13.693726 -0.5282563 -1.198935 0
13.700326 -0.48251361 -1.1993645 0
13.730532 -0.43748963 -1.2018737 0
13.694519 -0.39038509 -1.1986001 0
13.76912 -0.34631309 -1.205021 0
13.694819 -0.29850277 -1.1984243 0
13.681978 -0.25233108 -1.1972197 0
13.725598 -0.20710313 -1.2009692 0
13.756237 -0.16143493 -1.2035959 0
13.723631 -0.11503477 -1.2007024 0
13.695415 -0.068877921 -1.198207 0
13.677374 -0.02292889 -1.196615 0
13.706027 0.022976926 -1.1991218 0
13.708661 0.068944536 -1.1993659 0
13.645474 0.11437964 -1.1938645 0
13.725002 0.16106838 -1.200863 0
13.72632 0.20711404 -1.2010324 0
13.736712 0.25334051 -1.2020092 0
13.715961 0.29896358 -1.2002742 0
13.733453 0.34541601 -1.2018996 0
13.758716 0.39221513 -1.2042189 0
13.666335 0.43544418 -1.1962544 0
13.704617 0.48266473 -1.1997402 0
13.687938 0.52803302 -1.1984284 0
13.722533 0.57545137 -1.2016195 0
13.688195 0.61999273 -1.1987879 0
13.708783 0.6669898 -1.2007802 0
13.686558 0.71191323 -1.1990356 0
13.720274 0.75980121 -1.2022058 0
13.678598 0.80350459 -1.1987835 0
13.70889 0.85141516 -1.2016816 0
13.682295 0.89582443 -1.1996069 0
13.701543 0.94323063 -1.201565 0
13.642447 0.98513055 -1.1966654 0
13.738815 1.0384047 -1.2054172 0
13.64045 1.0769771 -1.1970968 0
13.580151 1.1180441 -1.1921272 0
13.66319 1.1710143 -1.1997547 0
13.648609 1.2158755 -1.1988256 0
13.694789 1.2662839 -1.2032479 0
13.662972 1.3095577 -1.2008315 0
13.621648 1.3517022 -1.1975911 0
13.61983 1.3976518 -1.1978366 0
13.69081 1.4513381 -1.2045003 0
13.684417 1.497074 -1.2043726 0
13.601337 1.5341507 -1.1975068 0
13.640114 1.5848569 -1.2013819 0
13.606355 1.627188 -1.1988822 0
13.607732 1.6736482 -1.1994913 0
13.676677 1.7286963 -1.2060727 0
13.567194 1.7610928 -1.196932 0
13.581388 1.8092588 -1.1987127 0
13.584167 1.8560033 -1.1995004 0
13.581478 1.9020438 -1.1998194 0
13.572474 1.9472034 -1.199594 0
13.588339 1.9959987 -1.2015809 0
13.596827 2.0438402 -1.2029307 0
13.58974 2.0893919 -1.2029167 0
13.521586 2.1253445 -1.197508 0
13.532224 2.1735334 -1.1990888 0
13.52335 2.2186444 -1.1989548 0
13.478837 2.2577758 -1.1956729 0
13.552055 2.3167791 -1.2028502 0
13.56117 2.3651612 -1.2043562 0
13.525686 2.4057286 -1.2019145 0
13.487428 2.4456034 -1.1992366 0
13.461402 2.4875305 -1.1976575 0
13.406014 2.523807 -1.1934757 0
13.494177 2.5872812 -1.20209 0
13.414112 2.6185889 -1.1957331 0
13.465278 2.6754746 -1.2010869 0
13.449325 2.7192099 -1.2004703 0
13.435385 2.7633111 -1.2000463 0
13.42589 2.8083096 -1.2000325 0
13.378173 2.8451786 -1.1966133 0
13.420163 2.9011731 -1.2012324 0
13.405725 2.9451337 -1.2008172 0
13.405125 2.9921508 -1.2016554 0
13.347974 3.0264127 -1.1974351 0
13.354495 3.0750041 -1.1989383 0
13.347411 3.1205337 -1.1992348 0
13.325701 3.162616 -1.1982303 0
13.311489 3.2064257 -1.1979123 0
13.305265 3.2521634 -1.1983268 0
13.348042 3.3100858 -1.2031722 0
13.299461 3.3454106 -1.1997974 0
13.30457 3.3941665 -1.2012783 0
13.250583 3.4277523 -1.1974347 0
13.271683 3.4807272 -1.2003893 0
13.253523 3.5234997 -1.1998086 0
13.24147 3.567872 -1.1997937 0
13.203669 3.6052132 -1.197457 0
13.228022 3.6595643 -1.2007717 0
13.218548 3.7046993 -1.2010324 0
13.226881 3.7549105 -1.2029268 0
13.177964 3.7888136 -1.1996264 0
13.156476 3.8304393 -1.1988328 0
13.178788 3.8849142 -1.202046 0
13.125133 3.916975 -1.1983432 0
13.132359 3.9671316 -1.2002106 0
13.083869 4.0004029 -1.196998 0
13.107759 4.0558133 -1.200421 0
13.059003 4.0887537 -1.1972047 0
13.055387 4.1357355 -1.1981376 0
13.039273 4.1787877 -1.1979378 0
13.026793 4.223002 -1.1980853 0
13.076368 4.2875767 -1.2039603 0
13.042614 4.3249936 -1.2021807 0
13.014194 4.3640556 -1.2009031 0
12.965683 4.3962026 -1.1977801 0
4.7497325 1.6282417 -0.4392859 0
4.6883435 1.624784 -0.43410969 0
4.6396832 1.6253649 -0.43010622 0
4.5863423 1.6239634 -0.4256638 0
4.567472 1.634536 -0.42441869 0
4.525353 1.6365995 -0.4210124 0
4.4098554 1.6115694 -0.41076759 0
4.4838891 1.6556872 -0.41817838 0
4.4572868 1.6628674 -0.416215 0
4.4153767 1.6641177 -0.41282016 0
4.4780517 1.7049078 -0.41921213 0
4.5002666 1.7306634 -0.42183262 0
4.5092845 1.7515088 -0.423226 0
4.4980321 1.7645172 -0.42272276 0
4.4403501 1.7590907 -0.41785377 0
4.4775929 1.7912368 -0.42192128 0
4.4678659 1.804746 -0.42157251 0
4.487257 1.8301024 -0.42397878 0
4.3953881 1.8098462 -0.41586953 0
12.686678 5.2736869 -1.202016 0
12.67823 5.3200979 -1.2028989 0
12.633187 5.3510823 -1.2003207 0
12.6301 5.3997898 -1.2017407 0
12.578279 5.4275875 -1.1985348 0
12.629662 5.5000615 -1.2051812 0
12.55473 5.51758 -1.1997895 0
12.610238 5.5924954 -1.2068791 0
12.546169 5.6144953 -1.2025423 0
12.461548 5.6268506 -1.1962329 0
12.489859 5.690125 -1.2007753 0
12.486261 5.7391167 -1.2022725 0
12.43653 5.7668433 -1.199339 0
12.484027 5.8398037 -1.2058009 0
12.407655 5.8548617 -1.2003137 0
12.395798 5.9001622 -1.2010735 0
12.425209 5.9653411 -1.2058545 0
12.401078 6.0050011 -1.2054598 0
12.309302 6.011591 -1.1984912 0
12.254961 6.0360246 -1.195164 0
12.279377 6.0992932 -1.1995327 0
12.282521 6.1522822 -1.2018483 0
12.166283 6.1451702 -1.1924837 0
12.209123 6.2182751 -1.1987194 0
12.225273 6.2782106 -1.202365 0
12.140371 6.2861381 -1.196081 0
12.158649 6.3473873 -1.1999718 0
12.150928 6.3952904 -1.2013191 0
12.122596 6.4323745 -1.2006435 0
12.091179 6.4677505 -1.1996729 0
12.012972 6.4778118 -1.1940616 0
12.058675 6.554738 -1.2007821 0
12.058295 6.6070023 -1.2029433 0
11.970926 6.611413 -1.196432 0
11.971935 6.6644511 -1.1987594 0
11.951711 6.70578 -1.1989788 0
11.916077 6.7384162 -1.1976638 0
11.889188 6.7759199 -1.1972378 0
11.948781 6.86306 -1.2055494 0
11.841658 6.8544345 -1.1970533 0
11.795781 6.8807821 -1.1947411 0
11.865391 6.9748111 -1.2041533 0
11.823401 7.0035739 -1.2022684 0
11.770499 7.0256553 -1.1992775 0
11.762804 7.0746589 -1.2009035 0
11.766273 7.1305742 -1.2036917 0
11.718999 7.1557574 -1.2013032 0
11.724119 7.2129598 -1.2043004 0
11.664088 7.2300482 -1.2006173 0
11.626371 7.2607403 -1.1992341 0
11.624681 7.3139753 -1.2015826 0
11.607089 7.3573437 -1.2023071 0
11.538239 7.3680463 -1.1977274 0
11.522383 7.4124241 -1.1986547 0
11.537596 7.4770217 -1.2028384 0
11.455737 7.478631 -1.1969117 0
11.429241 7.5161057 -1.1967696 0
11.448648 7.5839753 -1.2014575 0
11.388565 7.599236 -1.1978194 0
11.373906 7.6446924 -1.1989666 0
11.386162 7.708477 -1.2029762 0
11.353192 7.7417946 -1.2022285 0
11.281572 7.7484975 -1.1973889 0
11.26158 7.7904649 -1.1980325 0
11.27906 7.8586006 -1.2026882 0
11.259827 7.9014106 -1.2034556 0
11.186305 7.9059243 -1.1984239 0
11.168844 7.9498692 -1.1994021 0
11.162448 8.0018387 -1.2015896 0
11.119143 8.0273695 -1.1998184 0
11.050907 8.0346079 -1.1953555 0
11.056876 8.0957537 -1.1989305 0
10.984776 8.0996771 -1.1940504 0
10.993389 8.1630678 -1.197955 0
10.942371 8.1822433 -1.1953783 0
10.952223 8.2470064 -1.1994684 0
10.948685 8.3020115 -1.2021227 0
10.90526 8.3268175 -1.2004135 0
10.873656 8.3605471 -1.2000135 0
10.884707 8.4272642 -1.2043445 0
10.788961 8.4111414 -1.1968642 0
10.762811 8.448926 -1.1970991 0
10.739501 8.4889774 -1.1976655 0
10.693203 8.5107899 -1.1956778 0
10.68363 8.5618382 -1.1978104 0
10.674446 8.6134119 -1.2000118 0
10.640675 8.6452265 -1.1994672 0
10.649767 8.7120533 -1.203778 0
10.630764 8.7561674 -1.2049417 0
10.550061 8.7492294 -1.1991127 0
10.509824 8.7754993 -1.1978768 0
10.501592 8.8285513 -1.2003055 0
10.442949 8.83918 -1.1969835 0
10.451924 8.9070969 -1.2014284 0
10.424407 8.9441538 -1.2017057 0
10.437769 9.0165529 -1.2067243 0
10.354992 9.0058489 -1.2006384 0
10.344197 9.0575552 -1.2029012 0
10.272315 9.0556412 -1.1980662 0
10.247918 9.095376 -1.1987708 0
10.236949 9.1471834 -1.2010684 0
10.216757 9.1909313 -1.2023081 0
10.148936 9.1916714 -1.1979469 0
10.1354 9.241457 -1.1999997 0
10.087095 9.2595396 -1.1979495 0
10.124154 9.3562994 -1.2060695 0
10.058002 9.3578844 -1.2019199 0
10.008209 9.3743544 -1.1997188 0
10.00246 9.432128 -1.2028139 0
9.9297304 9.4266415 -1.1978619 0
9.9073439 9.4687462 -1.1989844 0
9.8516502 9.4789238 -1.1960838 0
9.8395405 9.5310078 -1.1984864 0
9.8257818 9.5817442 -1.200717 0
9.8217897 9.6423082 -1.204173 0
9.777235 9.6631556 -1.2026758 0
9.6927328 9.6440954 -1.1962522 0
9.7042618 9.7205305 -1.2016907 0
9.6565228 9.737792 -1.1998153 0
9.6060572 9.7520809 -1.1976008 0
9.5902834 9.8015862 -1.1997247 0
9.5501995 9.8263102 -1.198825 0
9.5200987 9.8612776 -1.1991901 0
9.4909849 9.897316 -1.1996961 0
9.4675331 9.9393549 -1.2009374 0
9.4273853 9.9638863 -1.2000755 0
9.4179821 10.021035 -1.2031487 0
9.3915977 10.060341 -1.2040805 0
9.3415289 10.074209 -1.201985 0
9.2850952 10.080932 -1.1990659 0
9.2328691 10.091923 -1.1966845 0
9.222806 10.149039 -1.1997838 0
9.1660423 10.154774 -1.1968219 0
9.1536531 10.209662 -1.1996671 0
9.1247425 10.246327 -1.2003738 0
9.0987015 10.28632 -1.2014782 0
9.0467682 10.29697 -1.1991726 0
9.0153189 10.330826 -1.1995884 0
8.9797125 10.359935 -1.1994659 0
8.9383278 10.382318 -1.1985809 0
8.9178286 10.429024 -1.2005142 0
8.8937979 10.4718 -1.2019989 0
8.8297863 10.467357 -1.1980841 0
8.8207989 10.528124 -1.2016475 0
8.7711697 10.540477 -1.1996943 0
8.7197981 10.550488 -1.1974994 0
8.7057123 10.605659 -1.2004416 0
8.669466 10.634005 -1.2003533 0
8.6515598 10.684992 -1.2028275 0
8.5724735 10.660201 -1.1967945 0
8.5613194 10.71973 -1.2002484 0
8.5047083 10.722375 -1.197345 0
8.5077295 10.800364 -1.2028618 0
8.4343729 10.781407 -1.1975943 0
8.4174767 10.834466 -1.2003465 0
8.3984938 10.885167 -1.2028371 0
8.3219261 10.861028 -1.1970797 0
8.2850761 10.888358 -1.1970235 0
8.2439289 10.909995 -1.1963569 0
8.2456894 10.98873 -1.2019523 0
8.209794 11.017649 -1.2020979 0
8.1427374 11.004474 -1.1976749 0
8.1108341 11.03857 -1.1984195 0
8.0781164 11.071648 -1.1990633 0
8.0373802 11.093743 -1.198531 0
8.0257378 11.156212 -1.202366 0
7.9534707 11.134315 -1.1971254 0
7.9528565 11.21275 -1.2026848 0
7.9027505 11.221649 -1.2007904 0
7.8774896 11.265826 -1.2026848 0
7.8169274 11.259413 -1.1991954 0
7.812346 11.333742 -1.2043153 0
7.7245946 11.287238 -1.1966151 0
7.690042 11.317982 -1.1971343 0
7.6797476 11.384759 -1.2014672 0
7.6097178 11.362936 -1.1964649 0
7.5988421 11.429396 -1.2007732 0
7.5877442 11.496119 -1.2051036 0
7.5492482 11.521632 -1.2051182 0
7.4628625 11.473523 -1.1974622 0
7.4397388 11.522311 -1.1999439 0
7.4071884 11.556745 -1.2009368 0
7.372858 11.588522 -1.2016635 0
7.3244114 11.598053 -1.2000985 0
7.2663531 11.592026 -1.1969472 0
7.252758 11.657005 -1.2011391 0
7.21738 11.687324 -1.2017629 0
7.1568661 11.676724 -1.1981989 0
7.1313667 11.723161 -1.2005037 0
7.0927663 11.74824 -1.2006298 0
7.0291152 11.731527 -1.1965067 0
7.0274944 11.81852 -1.2029692 0
6.9547887 11.786022 -1.1972811 0
6.9287119 11.832291 -1.1996148 0
6.8777466 11.836086 -1.1976548 0
6.8591557 11.895728 -1.2013561 0
6.7910523 11.869405 -1.1963915 0
6.7613029 11.909871 -1.1981785 0
6.7183604 11.927196 -1.1976485 0
6.7123713 12.010559 -1.2037528 0
6.6539698 12.000363 -1.2004882 0
6.6175432 12.029596 -1.2011863 0
6.5637765 12.027168 -1.1987396 0
6.5449219 12.088833 -1.2026918 0
6.4805565 12.066401 -1.1982915 0
6.4787827 12.160737 -1.205496 0
6.4030633 12.116331 -1.198959 0
6.370811 12.15377 -1.2005434 0
6.3479176 12.209475 -1.2039367 0
6.2998734 12.216974 -1.2025867 0
6.2484179 12.217577 -1.200577 0
6.2087073 12.240997 -1.2008262 0
6.1510453 12.228772 -1.197597 0
6.1203246 12.270006 -1.1996188 0
6.0857701 12.303839 -1.2009249 0
6.0605764 12.356986 -1.2041222 0
6.0040178 12.346199 -1.2011027 0
5.9486747 12.3374 -1.1982996 0
5.909348 12.361609 -1.19872 0
5.8648815 12.375051 -1.1981097 0
5.8492537 12.449763 -1.2034377 0
5.8063741 12.466931 -1.2032087 0
5.7350225 12.422388 -1.1970471 0
5.7081819 12.47398 -1.2001677 0
5.6484642 12.453664 -1.1963842 0
5.6326313 12.53027 -1.2019224 0
5.5730286 12.509668 -1.1981472 0
5.5330172 12.532729 -1.1985724 0
5.5012717 12.574765 -1.2008219 0
5.4659786 12.609054 -1.2023393 0
5.4175992 12.613171 -1.2009931 0
5.3706317 12.620342 -1.1999546 0
5.3522887 12.695206 -1.2053598 0
5.2852092 12.654455 -1.1998014 0
5.2459717 12.679889 -1.2005384 0
5.2159634 12.727993 -1.2034304 0
5.153666 12.697137 -1.1988724 0
5.111042 12.714285 -1.1988668 0
5.0939426 12.795548 -1.2049122 0
5.0144453 12.719797 -1.196189 0
5.0003204 12.809678 -1.2030581 0
4.9501624 12.807791 -1.2013154 0
4.9103231 12.832497 -1.2020818 0
4.8578391 12.82399 -1.1997524 0
4.8223243 12.86023 -1.2016234 0
4.7791977 12.876376 -1.2016282 0
4.7394724 12.901784 -1.2025095 0
4.6888857 12.897513 -1.2006395 0
4.6321721 12.875792 -1.1971649 0
4.6048713 12.935903 -1.2013116 0
4.5637918 12.957851 -1.2019222 0
4.5107198 12.945525 -1.1993693 0
4.4721045 12.974542 -1.2006617 0
4.443306 13.032661 -1.2046546 0
4.3761973 12.978127 -1.1982509 0
4.3377881 13.008106 -1.1996692 0
4.3068967 13.061234 -1.2032304 0
4.2574625 13.058368 -1.2016447 0
4.2256112 13.109658 -1.2050539 0
4.1458206 13.011357 -1.1947335 0
4.1148033 13.065289 -1.1984122 0
4.074255 13.08955 -1.1993778 0
4.0227113 13.078318 -1.197106 0
3.9890511 13.125331 -1.2001783 0
3.943363 13.133106 -1.1996735 0
3.8945134 13.13009 -1.1981984 0
3.8536873 13.154059 -1.1992 0
3.8091924 13.165627 -1.1990836 0
3.7621002 13.168073 -1.1981508 0
3.7173607 13.178597 -1.1979675 0
3.6818171 13.222096 -1.2007928 0
3.6307731 13.210017 -1.1985836 0
3.5949173 13.253288 -1.2014093 0
3.5607531 13.30372 -1.2048919 0
3.4994836 13.25255 -1.1991882 0
3.4571235 13.272243 -1.1999146 0
3.4197423 13.311543 -1.2024243 0
3.375886 13.326068 -1.2027071 0
3.3303695 13.334039 -1.2024119 0
3.2750297 13.302017 -1.1985273 0
3.225347 13.292048 -1.1966481 0
3.1857564 13.323671 -1.1985267 0
3.1453502 13.352462 -1.2001611 0
3.1007614 13.363782 -1.2002374 0
3.0541589 13.366318 -1.1995387 0
2.9984925 13.328323 -1.19522 0
2.9682326 13.403527 -1.2010648 0
2.9246888 13.419885 -1.2016451 0
2.8794587 13.428592 -1.2015536 0
2.8318045 13.425776 -1.2004453 0
2.776973 13.387941 -1.1962231 0
2.746676 13.468799 -1.2026182 0
2.6933959 13.43749 -1.1990095 0
2.6522098 13.466157 -1.2007673 0
2.6040225 13.45935 -1.199375 0
2.5644474 13.4973 -1.2019839 0
2.5181968 13.500557 -1.2015153 0
2.4662778 13.472651 -1.198289 0
2.4166257 13.455972 -1.1960782 0
2.3757963 13.488409 -1.1982467 0
2.3327997 13.509274 -1.1993988 0
2.2981794 13.580171 -1.2050023 0
2.2492793 13.567559 -1.2032073 0
2.1959436 13.526771 -1.1989303 0
2.1541336 13.556429 -1.2009121 0
2.1096082 13.569615 -1.201447 0
2.0588706 13.542215 -1.1984031 0
2.0260756 13.633972 -1.2059151 0
1.9812322 13.646751 -1.2064511 0
1.9217923 13.556859 -1.1979276 0
1.8805797 13.593961 -1.2006422 0
1.8375812 13.619386 -1.2023369 0
1.7873199 13.590586 -1.1992586 0
1.740644 13.587922 -1.1985017 0
1.6984619 13.620831 -1.2008954 0
1.6550131 13.644824 -1.2025148 0
1.6030706 13.597836 -1.1978934 0
1.561197 13.635681 -1.2007594 0
1.5185647 13.668691 -1.2032112 0
1.4664541 13.615459 -1.1980858 0
1.4220676 13.632491 -1.1991582 0
1.3752545 13.626304 -1.1982017 0
1.3304644 13.640105 -1.1990162 0
1.2898757 13.699202 -1.2038242 0
1.23817 13.639914 -1.1982425 0
1.1956123 13.680387 -1.2014393 0
1.1477383 13.660522 -1.1993499 0
1.1023446 13.669426 -1.1998005 0
1.0555393 13.660515 -1.1987009 0
1.0078586 13.638623 -1.1964767 0
0.96463406 13.677498 -1.1995966 0
0.91660827 13.648458 -1.1967734 0
0.8727228 13.680933 -1.1993576 0
0.82552266 13.661843 -1.1974347 0
0.78433877 13.745611 -1.2045395 0
0.73591298 13.70468 -1.2007297 0
0.68794036 13.666955 -1.1972157 0
0.64200681 13.666908 -1.1970162 0
0.5981589 13.714341 -1.2009883 0
0.55017084 13.666511 -1.1966314 0
0.50800604 13.767455 -1.2053142 0
0.45973507 13.706222 -1.1998116 0
0.41436818 13.727234 -1.2015226 0
0.36939314 13.767759 -1.2049545 0
0.32118332 13.681722 -1.1973236 0
0.27618492 13.726238 -1.2011316 0
0.22976761 13.703573 -1.199074 0
0.18383835 13.705574 -1.1991884 0
0.13799581 13.717115 -1.200151 0
0.09202791 13.721046 -1.2004611 0
0.046051651 13.729725 -1.2012002 0
1.8172288e-05 13.696381 -1.1982763 0
-0.04604451 13.738464 -1.2019649 0
-0.09186434 13.70208 -1.1988018 0
-0.13763987 13.685344 -1.1973711 0
-0.18388377 13.711673 -1.1997219 0
-0.22938205 13.682744 -1.1972514 0
-0.27593863 13.715808 -1.2002187 0
-0.32286334 13.754841 -1.2037224 0
-0.3682324 13.725856 -1.201287 0
-0.41497722 13.74862 -1.2033944 0
-0.45735097 13.636224 -1.193684 0
-0.50531781 13.695588 -1.1990222 0
-0.55171531 13.705782 -1.2000699 0
-0.59743291 13.69853 -1.1996036 0
-0.64400059 13.710127 -1.2008015 0
-0.68913627 13.691437 -1.1993601 0
-0.73534381 13.69476 -1.1998605 0
-0.78193384 13.704104 -1.2009021 0
-0.82590479 13.66877 -1.1980416 0
-0.87518555 13.720112 -1.202792 0
-0.92040664 13.705562 -1.2017803 0
-0.96258521 13.648964 -1.1970937 0
-1.0112166 13.684559 -1.2005062 0
-1.0548193 13.651669 -1.1979245 0
-1.1033126 13.681882 -1.2008934 0
-1.1468018 13.64981 -1.1984092 0
-1.1962404 13.687993 -1.202107 0
-1.2416456 13.678603 -1.2016412 0
-1.2862686 13.661282 -1.2004915 0
-1.3324605 13.660946 -1.2008479 0
-1.3728577 13.602917 -1.1961448 0
-1.4245011 13.656169 -1.2012407 0
