# .PCD v0.7 - Point Cloud Data file format
VERSION 0.7
FIELDS x y z intensity
SIZE 4 4 4 4
TYPE F F F F
COUNT 1 1 1 1
WIDTH 1419
HEIGHT 1
VIEWPOINT 0 0 0 1 0 0 0
POINTS 1419
DATA ascii
-7.0941544 -6.7347655 -1.2010553 0
-7.0726752 -6.759604 -1.201249 0
-6.9989767 -6.7342129 -1.19256 0
-7.0307102 -6.8102889 -1.201851 0
-7.0012383 -6.8273888 -1.2007194 0
-6.9876461 -6.8599911 -1.2023261 0
-6.9393578 -6.8584266 -1.1979673 0
-6.9289637 -6.8942313 -1.2001566 0
-6.8854146 -6.8969941 -1.1966121 0
-6.8705616 -6.928421 -1.1980612 0
-6.8477354 -6.9518671 -1.1981386 0
-6.8789992 -7.030601 -1.2077264 0
-6.8228745 -7.0201716 -1.2019984 0
-6.8090758 -7.0531354 -1.2037268 0
-6.7376475 -7.0261388 -1.1952573 0
-6.7839818 -7.1221042 -1.2077065 0
-6.6906886 -7.071485 -1.1953121 0
-6.6860256 -7.1141839 -1.1987337 0
-6.6768827 -7.1523585 -1.2013873 0
-6.6369243 -7.1575136 -1.1985086 0
-6.6102514 -7.1768618 -1.1980306 0
-6.63867 -7.2563896 -1.2075838 0
-6.5483203 -7.205997 -1.1955371 0
-6.5635843 -7.2716298 -1.2027683 0
-6.5314159 -7.2849503 -1.2013427 0
-6.5009894 -7.3001103 -1.2002414 0
-6.467855 -7.3121181 -1.1986436 0
-6.4492774 -7.3405633 -1.1997551 0
-6.4175787 -7.3540649 -1.1984384 0
-6.4166765 -7.4029884 -1.2028983 0
-6.3809028 -7.4117804 -1.2008438 0
-6.3591185 -7.4367599 -1.2014298 0
-6.3584714 -7.4866776 -1.2060432 0
-6.3268695 -7.5002904 -1.2048122 0
-6.2409787 -7.4490018 -1.1932055 0
-6.2687931 -7.5333652 -1.2033455 0
-6.1922841 -7.4923725 -1.1934744 0
-6.1897655 -7.5406694 -1.1978551 0
-6.1679511 -7.5656767 -1.1985358 0
-6.1625557 -7.6110215 -1.2024393 0
-6.1407051 -7.6362448 -1.2031647 0
-6.1148543 -7.6565237 -1.2031227 0
-6.0624413 -7.6433101 -1.1978456 0
-6.043468 -7.6720829 -1.1991726 0
-6.0151505 -7.6890297 -1.1986624 0
-5.9868927 -7.706008 -1.1981732 0
-5.9451771 -7.7055006 -1.1949883 0
-5.9336081 -7.7440529 -1.1978751 0
-5.9279723 -7.7906637 -1.2020038 0
-5.8964238 -7.8033562 -1.2009052 0
-5.8800073 -7.8361149 -1.2029058 0
-5.8302312 -7.8242879 -1.1980828 0
-5.7882919 -7.8226104 -1.1948475 0
-5.7812185 -7.8680863 -1.1988262 0
-5.7316365 -7.85567 -1.1939996 0
-5.7040133 -7.8731141 -1.1937376 0
-5.7047167 -7.9299107 -1.1994424 0
-5.6616759 -7.9260039 -1.1959735 0
-5.6737761 -7.9995146 -1.2041885 0
-5.6548662 -8.0297718 -1.2058823 0
-5.6194 -8.0365124 -1.2040584 0
-5.5684023 -8.0207081 -1.1988865 0
-5.5420542 -8.0401669 -1.199011 0
-5.5129614 -8.0556278 -1.1985534 0
-5.4601111 -8.0360794 -1.1929145 0
-5.4339781 -8.0555878 -1.1930991 0
-5.4319282 -8.1110773 -1.1986134 0
-5.407526 -8.1334896 -1.1992395 0
-5.3571577 -8.1166248 -1.1940976 0
-5.3539577 -8.171236 -1.1994843 0
-5.3564997 -8.2352152 -1.206233 0
-5.3038168 -8.214345 -1.2005646 0
-5.2678785 -8.2190266 -1.1986607 0
-5.2693729 -8.2823515 -1.2053127 0
-5.2044163 -8.2411337 -1.1967682 0
-5.2332368 -8.3486414 -1.2098254 0
-5.1578064 -8.2899408 -1.1988062 0
-5.1422629 -8.3270721 -1.2016759 0
-5.1073732 -8.3329411 -1.2000449 0
-5.0916018 -8.3700676 -1.2029263 0
-5.0262628 -8.3253965 -1.1940776 0
-5.0150194 -8.3700714 -1.1980667 0
-5.0224886 -8.4466429 -1.2066098 0
-4.9498539 -8.3883839 -1.19591 0
-4.9258175 -8.4119616 -1.1969101 0
-4.8963408 -8.4262877 -1.1966058 0
-4.8640599 -8.4357166 -1.1956222 0
-4.8420558 -8.4629993 -1.1971815 0
-4.8196325 -8.4897175 -1.1986684 0
-4.782021 -8.4896383 -1.1963867 0
-4.7530317 -8.5047331 -1.1962613 0
-4.7479448 -8.5629206 -1.2022001 0
-4.7369452 -8.6110344 -1.2067184 0
-4.6848016 -8.5842743 -1.2007605 0
-4.6470046 -8.5833292 -1.1984421 0
-4.6400681 -8.6395779 -1.2041169 0
-4.6015091 -8.6371317 -1.2016189 0
-4.5749321 -8.6570663 -1.2022516 0
-4.5404296 -8.6619568 -1.2008098 0
-4.4956841 -8.6469765 -1.1966368 0
-4.4904428 -8.7081079 -1.2030064 0
-4.4568715 -8.7146111 -1.2018336 0
-4.4273033 -8.7288647 -1.2017454 0
-4.3712392 -8.6904325 -1.1944298 0
-4.3567939 -8.7345438 -1.1984781 0
-4.340003 -8.7744112 -1.2019451 0
-4.3036056 -8.7747345 -1.200006 0
-4.2805729 -8.8022985 -1.2018061 0
-4.2554994 -8.8258581 -1.2030679 0
-4.2175961 -8.8227386 -1.2007084 0
-4.1804333 -8.8208818 -1.1985414 0
-4.1663313 -8.8678312 -1.2030159 0
-4.1388111 -8.8865499 -1.203666 0
-4.1055651 -8.892952 -1.2026619 0
-4.0624256 -8.8776026 -1.1987373 0
-4.0386257 -8.904376 -1.2005173 0
-4.0003052 -8.8990841 -1.1979889 0
-3.9680777 -8.9071302 -1.1972743 0
-3.9581068 -8.9654942 -1.2033288 0
-3.9143391 -8.9474316 -1.1991363 0
-3.8912308 -8.9764519 -1.2012703 0
-3.8527627 -8.9700079 -1.1986725 0
-3.8123283 -8.9585819 -1.1954308 0
-3.7890234 -8.9873304 -1.1975652 0
-3.7790675 -9.0483456 -1.2040002 0
-3.7264681 -9.0072079 -1.1968571 0
-3.7276371 -9.0962477 -1.207021 0
-3.6677618 -9.0363684 -1.1974369 0
-3.655041 -9.0923901 -1.2032298 0
-3.6030037 -9.0505075 -1.196082 0
-3.593272 -9.1148758 -1.2029897 0
-3.5397491 -9.068099 -1.195243 0
-3.5347743 -9.1457615 -1.2039106 0
-3.4952457 -9.1344471 -1.2008717 0
-3.4739506 -9.1707993 -1.2041129 0
-3.4320941 -9.1528225 -1.2002349 0
-3.4097252 -9.1867428 -1.2031771 0
-3.366842 -9.165287 -1.1988819 0
-3.3420596 -9.192934 -1.2010257 0
-3.2912924 -9.1486998 -1.1937983 0
-3.2837162 -9.2246208 -1.2022618 0
-3.2529695 -9.2361469 -1.2023357 0
-3.2116354 -9.2173004 -1.1984738 0
-3.1947865 -9.2688465 -1.2037765 0
-3.1619074 -9.274272 -1.2030976 0
-3.1340988 -9.2946196 -1.2043672 0
-3.0896013 -9.2651405 -1.1991985 0
-3.065326 -9.2960892 -1.2018671 0
-3.0289984 -9.2905416 -1.1998302 0
-2.998472 -9.3026304 -1.2000864 0
-2.9496517 -9.2573528 -1.1929628 0
-2.9346759 -9.3182449 -1.1995349 0
-2.9128642 -9.3583822 -1.2034379 0
-2.8840201 -9.3763847 -1.2045026 0
-2.8284101 -9.3065176 -1.1943024 0
-2.8088353 -9.3547287 -1.1992741 0
-2.7731931 -9.3497248 -1.1974338 0
-2.7507119 -9.3892889 -1.201313 0
-2.7277596 -9.4279881 -1.2050874 0
-2.6853011 -9.3991632 -1.2002454 0
-2.649822 -9.3941088 -1.1984588 0
-2.6160347 -9.3947678 -1.1974171 0
-2.5956693 -9.444047 -1.2025821 0
-2.5652137 -9.4572067 -1.2031559 0
-2.5266509 -9.4401979 -1.1999074 0
-2.4924145 -9.43888 -1.198671 0
-2.4590528 -9.4406528 -1.1978425 0
-2.4192591 -9.4172087 -1.1938319 0
-2.3959973 -9.4581337 -1.1979948 0
-2.3648303 -9.4683466 -1.1982775 0
-2.3431907 -9.5173244 -1.2034749 0
-2.3032565 -9.4921112 -1.1993034 0
-2.2685184 -9.4876528 -1.1977723 0
-2.2440238 -9.5263147 -1.2016966 0
-2.2161827 -9.551506 -1.2039303 0
-2.1767843 -9.5266638 -1.1998724 0
-2.1418221 -9.5205345 -1.1981893 0
-2.1167967 -9.5588541 -1.2021118 0
-2.0768905 -9.5298977 -1.197588 0
-2.0514092 -9.5670395 -1.2013843 0
-2.0155542 -9.5560036 -1.1991431 0
-1.9801168 -9.546381 -1.1970958 0
-1.9568976 -9.5961151 -1.2025027 0
-1.9222298 -9.5902348 -1.2009516 0
-1.8831599 -9.5615673 -1.1965642 0
-1.8580523 -9.6038074 -1.2010639 0
-1.8277255 -9.6198969 -1.2023029 0
-1.7855881 -9.5730362 -1.1956913 0
-1.7565167 -9.5955496 -1.1977609 0
-1.7311321 -9.6392345 -1.2024826 0
-1.6879606 -9.5834217 -1.1948073 0
-1.6666211 -9.6515789 -1.2026013 0
-1.6342167 -9.6569042 -1.2025754 0
-1.6050804 -9.6819382 -1.2050159 0
-1.562744 -9.6264925 -1.1974564 0
-1.5428841 -9.7098703 -1.2071776 0
-1.5019319 -9.6610336 -1.2004731 0
-1.4687005 -9.6605463 -1.1997939 0
-1.433681 -9.6477766 -1.1976043 0
-1.4033394 -9.666399 -1.1993252 0
-1.378944 -9.7276421 -1.2063432 0
-1.3406463 -9.691186 -1.2012582 0
-1.3073467 -9.689703 -1.2005242 0
-1.2786995 -9.7232914 -1.2041477 0
-1.2492368 -9.7520742 -1.2071868 0
-1.2089245 -9.6951904 -1.1996368 0
-1.173232 -9.6729746 -1.1963944 0
-1.1410927 -9.67939 -1.196708 0
-1.1154155 -9.7424002 -1.2040291 0
-1.077566 -9.6994696 -1.1982702 0
-1.0446438 -9.6993542 -1.1978165 0
-1.0113515 -9.6954556 -1.1969095 0
-0.98288023 -9.7388372 -1.2018515 0
-0.9475587 -9.7147703 -1.1984826 0
-0.91569877 -9.7255096 -1.199422 0
-0.88435721 -9.7425318 -1.2011489 0
-0.85570353 -9.7913971 -1.206813 0
-0.82064795 -9.7677631 -1.2035542 0
-0.78693503 -9.7585688 -1.2020893 0
-0.75667185 -9.7929888 -1.20601 0
-0.72143668 -9.7630339 -1.2020165 0
-0.68707448 -9.7423639 -1.1991812 0
-0.65644497 -9.7749691 -1.2029169 0
-0.62303251 -9.7671585 -1.2016919 0
-0.58872145 -9.7433729 -1.1985158 0
-0.55567318 -9.7386789 -1.1977025 0
-0.5199315 -9.6830034 -1.1906343 0
-0.49104244 -9.7558012 -1.1993763 0
-0.45822784 -9.7552109 -1.1991082 0
-0.42539731 -9.7539282 -1.1987685 0
-0.39183918 -9.7341185 -1.1961656 0
-0.36031067 -9.7654715 -1.1998632 0
-0.32757664 -9.7669153 -1.199899 0
-0.29465893 -9.762352 -1.1992102 0
-0.26219964 -9.7734861 -1.2004632 0
-0.2280345 -9.714879 -1.193164 0
-0.19622594 -9.7536087 -1.1978331 0
-0.1634437 -9.7494917 -1.1972535 0
-0.13065623 -9.74265 -1.1963528 0
-0.098240644 -9.7679338 -1.1994103 0
-0.065489523 -9.7681284 -1.1994005 0
-0.032839291 -9.798377 -1.2030944 0
1.2957136e-05 -9.7657413 -1.1990805 0
0.032675195 -9.7417021 -1.1961355 0
0.065525353 -9.7696056 -1.1995819 0
0.098109528 -9.7523232 -1.1974936 0
0.13127995 -9.7872219 -1.2018261 0
0.163311 -9.7400341 -1.196092 0
0.19714147 -9.797823 -1.203263 0
0.22911328 -9.7597342 -1.198673 0
0.2624028 -9.7800913 -1.2012746 0
0.29438785 -9.752512 -1.1980015 0
0.32622147 -9.7257395 -1.1948404 0
0.36078915 -9.7777348 -1.2013701 0
0.39277133 -9.7566309 -1.1989322 0
0.42799795 -9.8129606 -1.2060237 0
0.45866281 -9.7639189 -1.2001787 0
0.49410841 -9.8161964 -1.2068014 0
0.52279967 -9.7359371 -1.1971433 0
0.55473411 -9.7217674 -1.1956228 0
0.58970135 -9.75916 -1.2004579 0
0.6224615 -9.7577991 -1.2005405 0
0.6549024 -9.7516117 -1.2000427 0
0.68737227 -9.7462168 -1.1996557 0
0.72266358 -9.7792845 -1.2040174 0
0.75841838 -9.8152533 -1.2087522 0
0.78680021 -9.7565737 -1.2018439 0
0.82069838 -9.7680521 -1.20359 0
0.85029703 -9.7292356 -1.1991516 0
0.8818692 -9.7148361 -1.1977346 0
0.91849566 -9.7549381 -1.2030516 0
0.94642502 -9.7028809 -1.1970161 0
0.98240799 -9.7338991 -1.2012424 0
1.0174228 -9.7534084 -1.2040642 0
1.0492682 -9.7420492 -1.2030895 0
1.0754685 -9.680356 -1.1959093 0
1.1028329 -9.6322746 -1.1904194 0
1.1491681 -9.7476683 -1.2051499 0
1.1736795 -9.6764488 -1.1968246 0
1.2112815 -9.7138824 -1.2019501 0
1.2459956 -9.7265673 -1.2040297 0
1.2758937 -9.7017565 -1.2014812 0
1.3037016 -9.6624928 -1.1971533 0
1.3461614 -9.7308645 -1.2061768 0
1.3762254 -9.7082777 -1.2039423 0
1.4029273 -9.6633806 -1.1989511 0
1.4344281 -9.6526279 -1.198207 0
1.4648515 -9.6350574 -1.1966288 0
1.5015981 -9.6587172 -1.2001858 0
1.5289636 -9.6220999 -1.1962661 0
1.5692544 -9.6664343 -1.2024252 0
1.5903767 -9.5930862 -1.193958 0
1.627912 -9.6194944 -1.1979173 0
1.6670793 -9.6540794 -1.2029135 0
1.6917872 -9.6049976 -1.1974978 0
1.7296419 -9.6307888 -1.2014296 0
1.7621382 -9.6261148 -1.2015768 0
1.7980217 -9.639554 -1.2040001 0
1.8278058 -9.6201792 -1.2023388 0
1.8485583 -9.5545998 -1.1949105 0
1.9027412 -9.6608543 -1.2089899 0
1.9217725 -9.587821 -1.20065 0
1.9440589 -9.5330276 -1.1945978 0
1.9724017 -9.509058 -1.1924162 0
2.0073652 -9.5170536 -1.1942561 0
2.060535 -9.6094751 -1.2067138 0
2.0867629 -9.5750761 -1.203266 0
2.1099355 -9.52775 -1.1982009 0
2.1444049 -9.5318975 -1.19962 0
2.1780488 -9.5320816 -1.2005554 0
2.2046428 -9.5016556 -1.1976476 0
2.2418723 -9.5170689 -1.2005311 0
2.2628527 -9.4638453 -1.1947676 0
2.2995784 -9.4768429 -1.1973751 0
2.3336086 -9.4782972 -1.1985406 0
2.3629143 -9.4605684 -1.1972939 0
2.3932128 -9.4470367 -1.1965901 0
2.4409518 -9.501545 -1.2045242 0
2.4463563 -9.3918076 -1.1916456 0
2.4900584 -9.4298553 -1.1975257 0
2.5096352 -9.376523 -1.1918148 0
2.5460613 -9.3864985 -1.1941611 0
2.591996 -9.4305849 -1.2008687 0
2.6332517 -9.456501 -1.2052863 0
2.6562428 -9.4167767 -1.2013515 0
2.692574 -9.4245262 -1.2034851 0
2.7106183 -9.3686495 -1.1975037 0
2.7358427 -9.3384428 -1.1948084 0
2.7622161 -9.3126249 -1.1926835 0
2.8123069 -9.3662004 -1.2007457 0
2.8261607 -9.2990265 -1.1933422 0
2.8778267 -9.3561602 -1.2019056 0
2.9214153 -9.3857679 -1.2069604 0
2.9408398 -9.3377295 -1.2020442 0
2.968972 -9.3179035 -1.2007667 0
2.9867454 -9.2661657 -1.1953832 0
3.0270023 -9.2843361 -1.1990298 0
3.0587234 -9.2759829 -1.1992687 0
3.1005871 -9.2980032 -1.2034529 0
3.1128268 -9.2314539 -1.1961834 0
3.157799 -9.2621412 -1.201525 0
3.1900301 -9.2549677 -1.2019751 0
3.2055662 -9.1998034 -1.1961999 0
3.2453856 -9.2145357 -1.1995236 0
3.2782941 -9.2093115 -1.2002676 0
3.3143506 -9.2127171 -1.202153 0
3.3478599 -9.2088127 -1.2031014 0
3.3695545 -9.172595 -1.199839 0
3.4013894 -9.1642094 -1.2002271 0
3.430073 -9.1473589 -1.1995196 0
3.4620614 -9.1393394 -1.1999835 0
3.4927156 -9.1277618 -1.1999941 0
3.5240333 -9.1178989 -1.2002441 0
3.535773 -9.0578423 -1.1938922 0
3.584132 -9.0916204 -1.1999217 0
3.615149 -9.080945 -1.2001058 0
3.6378243 -9.0494919 -1.1975542 0
3.6760485 -9.056716 -1.2001344 0
3.7068157 -9.0453711 -1.2002712 0
3.7389274 -9.0372553 -1.200851 0
3.7614558 -9.0061102 -1.1983817 0
3.7689967 -8.9397631 -1.191228 0
3.8430324 -9.0306664 -1.2050512 0
3.8627589 -8.9932146 -1.2017751 0
3.8944743 -8.9838686 -1.2022643 0
3.920378 -8.9611702 -1.200979 0
3.9425468 -8.9301853 -1.1985911 0
3.9756951 -8.9241648 -1.1995655 0
4.0018339 -8.902421 -1.1984395 0
4.0470333 -8.9228497 -1.2030095 0
4.0594287 -8.8709908 -1.1978461 0
4.1040444 -8.8895969 -1.2022096 0
4.1140594 -8.8333445 -1.1964608 0
4.1726627 -8.8812456 -1.2048373 0
4.1815701 -8.8232193 -1.1988605 0
4.2101836 -8.8071718 -1.1985915 0
4.2507296 -8.8159056 -1.2017127 0
4.2791843 -8.7993841 -1.2014097 0
4.3075891 -8.7827978 -1.2011102 0
4.3237538 -8.7415018 -1.1974385 0
4.3675623 -8.756074 -1.2014339 0
4.3753648 -8.698576 -1.1955507 0
4.4513979 -8.7763119 -1.2082793 0
4.4553995 -8.7116756 -1.2014304 0
4.4681029 -8.6647291 -1.1970153 0
4.5206246 -8.694891 -1.2032692 0
4.5518932 -8.6837711 -1.2038356 0
4.5706162 -8.6488447 -1.2011114 0
4.5847836 -8.6056824 -1.1972452 0
4.651669 -8.6611242 -1.2071216 0
4.6584821 -8.604475 -1.2013963 0
4.6694517 -8.5560942 -1.1968204 0
4.7116113 -8.5649281 -1.2002591 0
4.7347574 -8.5390844 -1.1988553 0
4.7871962 -8.5658112 -1.2048542 0
4.7790828 -8.4843693 -1.1956459 0
4.8287497 -8.5057259 -1.2009304 0
4.8788691 -8.5272894 -1.2062778 0
4.8904195 -8.4813795 -1.202096 0
4.875567 -8.3904858 -1.1915236 0
4.9476829 -8.4492512 -1.2022177 0
4.9565601 -8.3996983 -1.1975249 0
5.0383711 -8.4733028 -1.2104201 0
5.0137835 -8.3679581 -1.1977661 0
5.0654707 -8.3902893 -1.2033868 0
5.0631719 -8.3232822 -1.1962043 0
5.1117182 -8.3399801 -1.2010605 0
5.1302052 -8.307498 -1.198853 0
5.1950297 -8.349719 -1.2074528 0
5.1695409 -8.2469778 -1.1950951 0
5.2225723 -8.2698345 -1.2009381 0
5.2650037 -8.2754354 -1.2043082 0
5.2780809 -8.2348967 -1.2009772 0
5.2915139 -8.1952429 -1.1977749 0
5.3406367 -8.2107801 -1.2026559 0
5.3505344 -8.1659641 -1.1987126 0
5.3817148 -8.1537838 -1.1995666 0
5.4425731 -8.1861572 -1.2070072 0
5.4535589 -8.1433296 -1.2033815 0
5.461813 -8.0968056 -1.1992059 0
5.4977245 -8.0913925 -1.2011275 0
5.525794 -8.0743332 -1.2013386 0
5.5514617 -8.0537701 -1.2010417 0
5.5899959 -8.0517654 -1.2035311 0
5.6527376 -8.0841436 -1.2111969 0
5.6459818 -8.0171108 -1.2039831 0
5.6451197 -7.9590669 -1.198102 0
5.6761684 -7.9462485 -1.1990305 0
5.6990924 -7.9220481 -1.1982554 0
5.7478156 -7.9335294 -1.2029002 0
5.7472568 -7.8770351 -1.1972493 0
5.7716622 -7.8550367 -1.1968403 0
5.8044996 -7.844471 -1.1981889 0
5.8623352 -7.8673291 -1.2046758 0
5.8805132 -7.8367457 -1.2030051 0
5.8683829 -7.7662039 -1.19519 0
5.9644461 -7.8385549 -1.2093953 0
5.9661474 -7.7864776 -1.20444 0
6.0060449 -7.784348 -1.2072186 0
6.0289035 -7.7600393 -1.2065768 0
5.9809618 -7.6452847 -1.1918454 0
6.0540228 -7.6854401 -1.2012628 0
6.1055279 -7.6975904 -1.2063549 0
6.1356792 -7.6825571 -1.2072161 0
6.1338243 -7.6276469 -1.2018125 0
6.1983409 -7.6551766 -1.2094177 0
6.1553693 -7.5502024 -1.196087 0
6.2060008 -7.5604072 -1.2009932 0
6.2325211 -7.5410171 -1.2012258 0
6.2658806 -7.5298247 -1.2027826 0
6.2911453 -7.5088387 -1.202793 0
6.3004298 -7.4689064 -1.1997736 0
6.3828545 -7.5153465 -1.2106644 0
6.3624463 -7.4406118 -1.2020549 0
6.3776531 -7.4079657 -1.2002285 0
6.4259491 -7.4136462 -1.2046329 0
6.4034052 -7.3377843 -1.195788 0
6.4417915 -7.3320031 -1.1983589 0
6.5024347 -7.351172 -1.2050483 0
6.5187764 -7.320044 -1.2035217 0
6.5174031 -7.2692819 -1.1987617 0
6.5468955 -7.2531018 -1.1997066 0
6.5496879 -7.2074637 -1.1957833 0
6.5530729 -7.1627898 -1.19201 0
6.6366553 -7.2054911 -1.2028126 0
6.6629119 -7.1855016 -1.2031981 0
6.6841178 -7.1600709 -1.2026857 0
6.6961117 -7.1248779 -1.2005386 0
6.6924291 -7.073287 -1.1956197 0
6.7473068 -7.0835638 -1.201174 0
6.7894287 -7.0800996 -1.20444 0
6.7564664 -6.9986029 -1.1944231 0
6.8276486 -7.0250463 -1.2028362 0
6.8378491 -6.9885068 -1.2004986 0
6.8253136 -6.9290671 -1.1942122 0
6.8900619 -6.9480491 -1.2014585 0
6.9310722 -6.9426918 -1.2045437 0
6.8930364 -6.8584471 -1.1939305 0
6.9318562 -6.8509765 -1.1966691 0
6.9203262 -6.7938657 -1.1907396 0
6.9570556 -6.7842665 -1.1931388 0
7.0497003 -6.8286476 -1.2050941 0
7.0632153 -6.7959857 -1.2035025 0
7.0471725 -6.7351942 -1.1969146 0
7.0573168 -6.699759 -1.1948156 0
7.1030922 -6.6980801 -1.1987566 0
7.1451626 -6.6926351 -1.2020628 0
7.1492972 -6.651648 -1.1989998 0
7.167428 -6.6238227 -1.1983092 0
7.2253919 -6.6326137 -1.2042754 0
7.2397313 -6.6011863 -1.2029697 0
7.2039456 -6.524457 -1.1933819 0
7.2419357 -6.5148001 -1.19605 0
7.2722292 -6.4980702 -1.1974483 0
7.3241558 -6.5004377 -1.2024029 0
7.3393793 -6.470088 -1.2013341 0
7.3760004 -6.4585514 -1.2037771 0
7.3902068 -6.4273434 -1.2025719 0
7.3858514 -6.380187 -1.1983755 0
7.4345083 -6.3788171 -1.2027932 0
7.4408884 -6.3411016 -1.2003791 0
7.4667115 -6.3200159 -1.2011198 0
7.5051026 -6.3094416 -1.2038858 0
7.5339279 -6.2906837 -1.2051196 0
7.5169716 -6.23387 -1.1990572 0
7.549655 -6.2183714 -1.2009381 0
7.55054 -6.1767273 -1.1977779 0
7.5716929 -6.151772 -1.1978548 0
7.6256404 -6.1532731 -1.2031188 0
7.6204882 -6.1070433 -1.1990687 0
7.5955048 -6.0453115 -1.1919415 0
7.6396232 -6.0386968 -1.1956809 0
7.7069764 -6.0500617 -1.2030408 0
7.6896076 -5.9948664 -1.1971854 0
7.7152786 -5.9733977 -1.1980572 0
7.7318358 -5.9448614 -1.1975265 0
7.7934432 -5.9507594 -1.2039714 0
7.7678723 -5.890111 -1.1969634 0
7.8102098 -5.8810759 -1.2004421 0
7.8417177 -5.8637052 -1.2022564 0
7.8681083 -5.8424115 -1.2032925 0
7.9011936 -5.8259826 -1.2053583 0
7.9121046 -5.7931781 -1.2040528 0
7.925662 -5.7623854 -1.2031691 0
7.8622088 -5.676054 -1.1906408 0
7.9705033 -5.7136827 -1.2041329 0
7.8979597 -5.6216869 -1.1903192 0
7.964355 -5.6288104 -1.1974748 0
7.9698801 -5.5927405 -1.1954794 0
8.0231752 -5.5900869 -1.2006555 0
8.0215883 -5.5491238 -1.1976272 0
8.0365219 -5.5197067 -1.1970869 0
8.072299 -5.5045381 -1.1996602 0
8.0923061 -5.4785237 -1.1998971 0
8.1223831 -5.4592609 -1.201636 0
8.1460476 -5.435605 -1.2024339 0
8.1592531 -5.4049678 -1.2017015 0
8.1459532 -5.3569474 -1.1970906 0
8.1919279 -5.3479233 -1.201205 0
8.2254152 -5.3305392 -1.203488 0
8.2316771 -5.2954912 -1.2017996 0
8.2345543 -5.2583914 -1.199639 0
8.2901506 -5.254848 -1.205165 0
8.2748213 -5.2063222 -1.200392 0
8.3099661 -5.1896248 -1.2029595 0
8.3197489 -5.1570415 -1.2018659 0
8.3059292 -5.1100073 -1.1973878 0
8.3716459 -5.1118245 -1.204384 0
8.34793 -5.0589967 -1.1985251 0
8.3562288 -5.0257974 -1.1972907 0
8.3537121 -4.9862204 -1.194528 0
8.4196587 -4.9873719 -1.2015599 0
8.4090109 -4.9430542 -1.1976687 0
8.4135695 -4.9078512 -1.1959674 0
8.4856577 -4.9118452 -1.203867 0
8.464612 -4.8618464 -1.1985618 0
8.5084152 -4.8491402 -1.2024553 0
8.5163231 -4.8158908 -1.2012841 0
8.5251217 -4.7832146 -1.2002563 0
8.5374794 -4.7525826 -1.1997459 0
8.5388288 -4.7159028 -1.1977069 0
8.6022215 -4.7133446 -1.2043754 0
8.6532764 -4.7036643 -1.2093086 0
8.6610937 -4.6703625 -1.2082059 0
8.620183 -4.6110635 -1.2003356 0
8.6222124 -4.5750351 -1.1984755 0
8.6805487 -4.5687566 -1.2044482 0
8.6576309 -4.519691 -1.1991589 0
8.6548271 -4.4813652 -1.1966826 0
8.7393141 -4.4880185 -1.2062771 0
8.7416964 -4.4522667 -1.2045387 0
8.7481318 -4.4186678 -1.2033774 0
8.7229757 -4.3693156 -1.1978951 0
8.7151051 -4.3288827 -1.1948143 0
8.7943935 -4.3315659 -1.2036866 0
8.7928123 -4.2942152 -1.2014929 0
8.7669888 -4.2452579 -1.1960125 0
8.8085108 -4.2289648 -1.199736 0
8.8599367 -4.2171602 -1.2048076 0
8.8233967 -4.1635404 -1.1979339 0
8.8383636 -4.134428 -1.1980771 0
8.8996973 -4.1268072 -1.2045088 0
8.8702965 -4.0770946 -1.1986728 0
8.9144764 -4.0612535 -1.2027961 0
8.9295692 -4.0320315 -1.2030017 0
5.1466393 -2.3031559 -0.69231689 0
5.1246505 -2.2727234 -0.68833011 0
5.0886574 -2.2363741 -0.68248457 0
5.1841035 -2.2576132 -0.69426662 0
5.096209 -2.1990385 -0.68150437 0
5.1387968 -2.1970074 -0.68621063 0
5.1522651 -2.1823623 -0.68702811 0
5.1105247 -2.1445022 -0.68049967 0
5.1622548 -2.1458821 -0.68642604 0
5.118135 -2.1074445 -0.67961597 0
5.1078472 -2.0832069 -0.67731869 0
5.2052207 -2.1025927 -0.68929207 0
5.1812577 -2.0727339 -0.68519467 0
5.2389121 -2.0754492 -0.69189501 0
5.3354983 -2.0930438 -0.70372027 0
5.3144016 -2.0642347 -0.70002097 0
5.4179077 -2.08356 -0.71273077 0
5.5253968 -2.1036587 -0.7259391 0
9.1404095 -3.444942 -1.1993634 0
9.2199183 -3.4396489 -1.2082762 0
9.1849585 -3.3915687 -1.2021977 0
9.154068 -3.3453286 -1.1966797 0
9.2328959 -3.3390884 -1.2055143 0
9.1904793 -3.2889464 -1.1985295 0
9.1935596 -3.2553179 -1.1975011 0
9.1974316 -3.2220268 -1.1965916 0
9.1945543 -3.1864483 -1.1948206 0
9.217823 -3.1599348 -1.1964608 0
9.2485838 -3.1358664 -1.199082 0
9.2572775 -3.1042471 -1.1988531 0
9.2829504 -3.0782712 -1.2008345 0
9.2164469 -3.0219572 -1.1909143 0
9.3209572 -3.0216513 -1.2031028 0
9.3321848 -2.990751 -1.203251 0
9.2810993 -2.9401021 -1.1953864 0
9.3203125 -2.9181755 -1.1991702 0
9.3027658 -2.8784695 -1.1956642 0
9.3274612 -2.8518784 -1.1976024 0
9.3170376 -2.8145678 -1.1950458 0
9.3962688 -2.8041582 -1.2039957 0
9.3306341 -2.7505345 -1.1943972 0
9.4019794 -2.7373371 -1.2023482 0
9.3983603 -2.7021348 -1.2007202 0
9.3945665 -2.6669748 -1.1990863 0
9.4112034 -2.6376328 -1.2000742 0
9.4625101 -2.6178265 -1.2054907 0
9.4274511 -2.574131 -1.199918 0
9.4231176 -2.5390291 -1.1982763 0
9.47861 -2.5199246 -1.2042518 0
9.4770508 -2.4855199 -1.2029881 0
9.4353428 -2.4407997 -1.1966482 0
9.5246105 -2.4298501 -1.2069297 0
9.477067 -2.3839071 -1.1998855 0
9.4555264 -2.3448083 -1.1961563 0
9.4993982 -2.3219073 -1.2007145 0
9.4831934 -2.2842791 -1.1976916 0
9.5470181 -2.2658136 -1.2047862 0
9.5392475 -2.230211 -1.202855 0
9.518259 -2.191673 -1.1992753 0
9.5228539 -2.1591358 -1.1989354 0
9.5507631 -2.1318207 -1.2015424 0
9.5940399 -2.1077361 -1.2060912 0
9.5060434 -2.0550179 -1.1941559 0
9.5192518 -2.0244896 -1.1949558 0
9.5737944 -2.0025623 -1.200953 0
9.6169434 -1.9779565 -1.2055269 0
9.5426836 -1.9293578 -1.1954006 0
9.5765276 -1.902802 -1.1988342 0
9.5397654 -1.8622717 -1.1934438 0
9.5249357 -1.826246 -1.1908159 0
9.5881863 -1.8050654 -1.1979601 0
9.5946598 -1.7729957 -1.1980195 0
9.6038628 -1.7414172 -1.1984328 0
9.6223984 -1.7114755 -1.2000231 0
9.6445608 -1.6820776 -1.2020769 0
9.6520615 -1.6500592 -1.2023154 0
9.6383352 -1.6144717 -1.1999246 0
9.638442 -1.5812854 -1.1992711 0
9.6531248 -1.550476 -1.2004445 0
9.6003895 -1.5090046 -1.1932504 0
9.657815 -1.4848673 -1.1997625 0
9.6338539 -1.4481362 -1.1961759 0
9.6593447 -1.4188666 -1.1987436 0
9.6820841 -1.3890604 -1.2009809 0
9.689805 -1.3570271 -1.2013675 0
9.6882524 -1.323705 -1.2006179 0
9.6641331 -1.2874177 -1.1970873 0
9.6650152 -1.2545696 -1.1966689 0
9.7156038 -1.228027 -1.2024158 0
9.6507244 -1.1869662 -1.1938871 0
9.6995573 -1.159973 -1.1994404 0
9.6617308 -1.1226051 -1.1942905 0
9.7327013 -1.0977913 -1.2026014 0
9.6646814 -1.0573152 -1.1937519 0
9.6966219 -1.0279214 -1.1972648 0
9.7141447 -0.99685472 -1.1990089 0
9.7141695 -0.9639557 -1.1986064 0
9.7256403 -0.93217534 -1.1996293 0
9.7239609 -0.89912271 -1.1990436 0
9.7281218 -0.86662197 -1.1991916 0
9.713933 -0.83254015 -1.1970917 0
9.7334232 -0.80134583 -1.1991558 0
9.7276926 -0.76804674 -1.1981258 0
9.7346935 -0.73576593 -1.1986775 0
9.776248 -0.70594972 -1.2034961 0
9.7081919 -0.66832358 -1.1948355 0
9.7135639 -0.6359787 -1.1952275 0
9.7684612 -0.60668778 -1.2017254 0
9.7861433 -0.57485497 -1.2036568 0
9.7964573 -0.54250813 -1.2046949 0
9.7604208 -0.50769323 -1.2000473 0
9.7788572 -0.47578239 -1.2021112 0
9.7929993 -0.44356385 -1.2036601 0
9.7571745 -0.40916491 -1.1990815 0
9.7676926 -0.37680361 -1.2002121 0
9.7102499 -0.3419866 -1.1930063 0
9.8208714 -0.31291792 -1.2064614 0
9.792304 -0.27914596 -1.2028304 0
9.7395124 -0.24496269 -1.1962382 0
9.7944193 -0.21348666 -1.2028873 0
9.7848625 -0.18045819 -1.2016326 0
9.8092251 -0.14800966 -1.2045567 0
9.7534227 -0.11446032 -1.1976504 0
9.7786875 -0.081967309 -1.2007122 0
9.7585497 -0.049078368 -1.1982126 0
9.7724295 -0.016382601 -1.1999032 0
9.8040018 0.01643553 -1.2037799 0
9.7793503 0.049182981 -1.2007667 0
9.8147945 0.082269967 -1.2051457 0
9.7818203 0.11479358 -1.2011374 0
9.7444487 0.14703228 -1.1966022 0
9.7896996 0.18054737 -1.2022265 0
9.8003092 0.21361503 -1.2036107 0
9.7872496 0.24616334 -1.2021013 0
9.7334385 0.27746791 -1.1955997 0
9.8110781 0.31260589 -1.2052585 0
9.7270994 0.34258005 -1.1950763 0
9.7247581 0.37514734 -1.1949365 0
9.7768412 0.40998963 -1.2014984 0
9.766305 0.44235474 -1.2003791 0
9.7614183 0.47493392 -1.1999675 0
9.7657804 0.50797206 -1.2007064 0
9.7981472 0.54260176 -1.2049028 0
9.712635 0.57053703 -1.1946156 0
9.7392979 0.60487658 -1.1981378 0
9.7091866 0.63569212 -1.1946889 0
9.7174282 0.66895944 -1.1959723 0
9.7268772 0.70238453 -1.1974182 0
9.7929878 0.74017191 -1.2058556 0
9.7416086 0.76914549 -1.1998398 0
9.7568092 0.80327117 -1.202037 0
9.750351 0.83566141 -1.2015797 0
9.7744589 0.87074989 -1.2049036 0
9.7274694 0.89944702 -1.1994761 0
9.7882395 0.93817538 -1.2073507 0
9.6921377 0.9617694 -1.1958879 0
9.6730309 0.99263573 -1.1939343 0
9.6860123 1.0267967 -1.1959548 0
9.6867771 1.0597326 -1.1964812 0
9.7168159 1.0959996 -1.2006387 0
9.7486677 1.1327063 -1.2050369 0
9.6759834 1.1571537 -1.1965251 0
9.7023478 1.1933155 -1.2002734 0
9.6803131 1.2235663 -1.1980482 0
9.7023716 1.2594186 -1.2012941 0
9.6667175 1.2877619 -1.1974075 0
9.6718369 1.3214622 -1.1985837 0
9.7236137 1.3617618 -1.2055591 0
9.680788 1.3888744 -1.2008201 0
9.6263275 1.4140167 -1.1946461 0
9.676425 1.4545354 -1.2014618 0
9.7388649 1.4973285 -1.209831 0
9.6118345 1.5108036 -1.1946731 0
9.6466665 1.5494387 -1.1996413 0
9.5875473 1.5729355 -1.1929384 0
9.6285677 1.6128354 -1.1987085 0
9.604003 1.6418434 -1.196329 0
9.6452494 1.6821978 -1.2021627 0
9.6683702 1.7196522 -1.2057563 0
9.638135 1.7476315 -1.2027096 0
9.61654 1.7770388 -1.2007515 0
9.5656204 1.800817 -1.1951407 0
9.5744648 1.8357425 -1.197008 0
9.6159286 1.8771397 -1.2029721 0
9.6097622 1.9094056 -1.2029947 0
9.5994577 1.9408364 -1.2025126 0
9.5546227 1.9651387 -1.1977147 0
9.6180611 2.0118215 -1.2065059 0
9.560998 2.0333679 -1.2001963 0
9.5720139 2.0692794 -1.2024431 0
9.5242949 2.0924137 -1.1973233 0
9.5629139 2.1345329 -1.203071 0
9.5144691 2.1572347 -1.1978797 0
9.5145979 2.19083 -1.1988139 0
9.4921618 2.2192028 -1.1969178 0
9.547287 2.2658772 -1.20482 0
9.5052757 2.289598 -1.2004805 0
9.4651861 2.313545 -1.1963902 0
9.5239506 2.3617764 -1.2048122 0
9.4947872 2.3883646 -1.2021291 0
9.4575968 2.4127541 -1.1984379 0
9.4559336 2.4461262 -1.1992596 0
9.4941931 2.4900155 -1.2051641 0
9.4727221 2.5183594 -1.2035036 0
9.4326115 2.5415874 -1.1994835 0
9.428956 2.5745418 -1.2001096 0
9.4161959 2.6050134 -1.1995904 0
9.4493685 2.6483293 -1.2049409 0
9.4230042 2.6750479 -1.202716 0
9.424758 2.7097244 -1.2040926 0
9.4081278 2.7391272 -1.2031345 0
9.2890644 2.7382805 -1.1890759 0
9.3434219 2.7883871 -1.197224 0
9.3616772 2.828053 -1.2007716 0
9.356411 2.8607299 -1.2013196 0
9.33533 2.8885453 -1.1998495 0
9.3428583 2.9252346 -1.202071 0
9.3271465 2.9546893 -1.2013173 0
1.9967496 0.63991243 -0.25745213 0
2.0572026 0.66690022 -0.26553348 0
2.0434122 0.6700092 -0.26404196 0
2.0253472 0.67161489 -0.26199716 0
2.0216231 0.67791182 -0.26180798 0
2.076983 0.70423114 -0.26928154 0
4.7236481 1.6192999 -0.61312306 0
4.7017574 1.6294326 -0.61098737 0
4.687449 1.6420981 -0.60984004 0
4.6235023 1.6371212 -0.60223126 0
4.5101428 1.6140199 -0.58816725 0
4.5374427 1.6409718 -0.59244162 0
4.4643869 1.6314976 -0.58361387 0
4.396656 1.6234761 -0.575468 0
4.5073071 1.6815284 -0.59068549 0
4.4579444 1.6801611 -0.5849514 0
4.4750576 1.703768 -0.5879432 0
4.4931312 1.7279193 -0.59107554 0
4.4354224 1.7228191 -0.5842405 0
4.4682026 1.7528155 -0.58932912 0
4.4360671 1.7573938 -0.58586448 0
4.4410973 1.7766368 -0.58731228 0
4.4651413 1.8036455 -0.59128833 0
4.4813352 1.8276873 -0.59424096 0
4.498064 1.852124 -0.59727937 0
8.9717865 3.7294548 -1.1929802 0
8.9914713 3.7730429 -1.197273 0
9.0346222 3.8268259 -1.2047206 0
8.9541321 3.8281906 -1.1956924 0
8.950079 3.8620019 -1.1968735 0
8.9929724 3.9163284 -1.2043588 0
8.9536829 3.9349842 -1.2008572 0
8.9849796 3.984735 -1.2068397 0
8.9389334 4.0002332 -1.2024497 0
8.8814707 4.010313 -1.1965218 0
8.8385496 4.0266628 -1.1925515 0
8.8835173 4.0831714 -1.2004594 0
8.8642263 4.1103587 -1.199708 0
8.8921156 4.1595721 -1.2053634 0
8.836854 4.1698899 -1.1997609 0
8.8336287 4.204638 -1.2012302 0
8.8026934 4.2261715 -1.1989436 0
8.8294106 4.2754846 -1.2045282 0
8.797061 4.2962899 -1.2020735 0
8.7935457 4.3311486 -1.2035706 0
8.7809763 4.3616018 -1.203845 0
8.740221 4.3779535 -1.2002633 0
8.7327271 4.4108868 -1.2012582 0
8.6981735 4.4301 -1.1985416 0
8.7322769 4.4844046 -1.2053058 0
8.6819553 4.4954119 -1.2004336 0
8.6951771 4.5392919 -1.2043593 0
8.6643286 4.5602193 -1.2021976 0
8.6265993 4.577363 -1.1990852 0
8.5933218 4.5966949 -1.1965952 0
8.6048975 4.6400595 -1.2003666 0
8.5775604 4.6625075 -1.1987273 0
8.6007767 4.7125525 -1.2041731 0
8.5690336 4.7325845 -1.2019436 0
8.5243664 4.7452826 -1.1979032 0
8.5283594 4.7850308 -1.2007121 0
8.525053 4.820828 -1.2025156 0
8.459218 4.8211017 -1.1955024 0
8.469986 4.864933 -1.1993226 0
8.5052719 4.9231977 -1.2066495 0
8.4329824 4.9191751 -1.1987269 0
8.4591236 4.9725113 -1.204806 0
8.4083261 4.980659 -1.1999427 0
8.4105101 5.0201221 -1.2026497 0
8.3577719 5.0267258 -1.1975118 0
8.3472099 5.0585604 -1.1984217 0
8.3127851 5.0758834 -1.1959161 0
8.3793087 5.1551518 -1.2079662 0
8.3272657 5.1617012 -1.2029518 0
8.2896891 5.1769619 -1.2000242 0
8.286767 5.2138381 -1.202125 0
8.2603664 5.2359686 -1.2008351 0
8.2470512 5.2663722 -1.2014596 0
8.1849651 5.2654409 -1.1949798 0
8.1851559 5.3044486 -1.1975975 0
8.205698 5.3569131 -1.2032242 0
8.1891651 5.3853645 -1.2034408 0
8.1582937 5.4043322 -1.2015601 0
8.1490469 5.4376063 -1.2028767 0
8.1325321 5.4660826 -1.2031374 0
8.125844 5.5012288 -1.2048699 0
8.0929441 5.5186167 -1.2027285 0
8.0386343 5.5211573 -1.1974015 0
8.0477219 5.5672021 -1.2015289 0
8.0349998 5.5983257 -1.202425 0
8.0032883 5.6161847 -1.2004907 0
7.9756517 5.6367941 -1.1991733 0
7.9519324 5.6601043 -1.1984537 0
7.9423928 5.6935315 -1.1998861 0
7.9337015 5.7276678 -1.2014675 0
7.8616619 5.7158537 -1.1934536 0
7.8731856 5.7646818 -1.1981302 0
7.8873968 5.8158097 -1.2032535 0
7.8388734 5.820703 -1.1988215 0
7.8370132 5.8601875 -1.2015352 0
7.8077683 5.8792377 -1.2000669 0
7.8458896 5.9492688 -1.2089853 0
7.7289839 5.9015408 -1.1940134 0
7.7682033 5.9728236 -1.2031591 0
7.7381039 5.9910698 -1.2016016 0
7.7177711 6.0168228 -1.20157 0
7.6792383 6.0282869 -1.198711 0
7.6445241 6.0425706 -1.196448 0
7.6547799 6.0924888 -1.2012434 0
7.6301146 6.1147575 -1.2005832 0
7.5892844 6.1239367 -1.1973828 0
7.6026826 6.17695 -1.2027574 0
7.6210704 6.2344246 -1.2089664 0
7.5549021 6.2226934 -1.2017728 0
7.5598507 6.2694297 -1.205897 0
7.502768 6.2646656 -1.2001352 0
7.4904528 6.2971258 -1.2015358 0
7.450562 6.3063464 -1.198522 0
7.4078708 6.3129644 -1.1950526 0
7.4479809 6.390377 -1.204973 0
7.3941512 6.3873568 -1.1997221 0
7.367466 6.4075651 -1.1988714 0
7.3384528 6.4256744 -1.1976492 0
7.2972527 6.432951 -1.1944387 0
7.3042874 6.4828038 -1.1991411 0
7.3072186 6.5293345 -1.2032095 0
7.2679248 6.5381799 -1.2003423 0
7.2059894 6.5263081 -1.1937205 0
7.2364902 6.5982308 -1.2024312 0
7.2282615 6.6352477 -1.2047536 0
7.1986957 6.652719 -1.2035367 0
7.1479101 6.6503577 -1.1987672 0
7.1275506 6.6761384 -1.1991 0
7.0980897 6.6933622 -1.1979123 0
7.1423287 6.7804637 -1.2092083 0
7.0523849 6.7401757 -1.1977998 0
7.0284162 6.7625031 -1.1975732 0
7.0453944 6.8244767 -1.2043581 0
6.9912252 6.8175879 -1.1989989 0
6.960217 6.8330269 -1.1976033 0
6.9626503 6.8814111 -1.2019851 0
6.9296179 6.8948455 -1.2002667 0
6.8964357 6.9079976 -1.1985244 0
6.8747473 6.9326053 -1.1987878 0
6.8502016 6.9543333 -1.1985668 0
6.8233228 6.9736605 -1.1979482 0
6.7952456 6.9917068 -1.1971277 0
6.7835298 7.0266361 -1.1992074 0
6.7591567 7.0485315 -1.1990697 0
6.7526398 7.0891628 -1.2021235 0
6.7216001 7.1041179 -1.2008312 0
6.712738 7.1425691 -1.2035196 0
6.6859679 7.1620526 -1.2030185 0
6.6129904 7.1316648 -1.1941832 0
6.650878 7.2209325 -1.2053902 0
6.5990219 7.2130141 -1.2003682 0
6.5302982 7.1861267 -1.1922433 0
6.5914621 7.3024759 -1.2078733 0
6.5333047 7.2870183 -1.2016865 0
6.4807553 7.2773499 -1.1965022 0
6.4777141 7.3232245 -1.2004671 0
6.4574237 7.3497958 -1.2012669 0
6.4425864 7.3826828 -1.2031047 0
6.3679695 7.346755 -1.1937639 0
6.3907375 7.4231639 -1.2026908 0
6.327858 7.4001622 -1.19552 0
6.3566446 7.4844861 -1.2056929 0
6.3063259 7.4758964 -1.2008963 0
6.2724686 7.486547 -1.1992222 0
6.2709126 7.535872 -1.2037486 0
6.2354426 7.5445518 -1.2017888 0
6.1607757 7.5053115 -1.1922411 0
6.1903453 7.5931039 -1.2028834 0
6.1314287 7.5725374 -1.1963619 0
6.1306849 7.6237426 -1.2011974 0
6.0955615 7.6323247 -1.1993228 0
6.0933499 7.6822367 -1.2039486 0
6.0806208 7.7192054 -1.2065406 0
5.9964285 7.6650553 -1.1949275 0
6.0125713 7.7390175 -1.2033082 0
5.9935555 7.7681613 -1.2047083 0
5.9342375 7.7448316 -1.1979979 0
5.9451995 7.8132606 -1.2054927 0
5.9140449 7.826633 -1.2044898 0
5.8545485 7.8021436 -1.1976933 0
5.8695621 7.8770275 -1.2061609 0
5.8182631 7.8630714 -1.20103 0
5.7732477 7.8571944 -1.1971691 0
5.7496066 7.8802557 -1.1977388 0
5.7299271 7.9088387 -1.1991565 0
5.7234111 7.955852 -1.2033684 0
5.6942596 7.9715748 -1.202852 0
5.6561503 7.9746184 -1.200443 0
5.6486082 8.0208397 -1.2045432 0
5.5831623 7.9846425 -1.1962892 0
5.5622406 8.0117874 -1.1975553 0
5.5321646 8.025774 -1.1968668 0
5.517046 8.0615511 -1.1994369 0
5.508779 8.1076622 -1.2035426 0
5.4711738 8.1106825 -1.2012613 0
5.4538269 8.1437292 -1.2034408 0
5.4065814 8.1320229 -1.1990252 0
5.3541136 8.1119661 -1.1934143 0
5.3493738 8.1641932 -1.1984526 0
5.3278465 8.1911154 -1.1997757 0
5.2886763 8.1908484 -1.1971326 0
5.2589831 8.2051001 -1.1966317 0
5.2316179 8.2229605 -1.1966716 0
5.1956253 8.2271643 -1.1947416 0
5.1823707 8.2674446 -1.198061 0
5.1809969 8.3271646 -1.2041912 0
5.1465034 8.33389 -1.2026616 0
5.1006565 8.3219337 -1.1984615 0
5.0662231 8.3282976 -1.1969252 0
5.0459719 8.3579912 -1.1987544 0
5.0404534 8.4124699 -1.2041374 0
4.9818463 8.3782425 -1.1968405 0
4.9631262 8.4108257 -1.1991113 0
4.9396896 8.4356003 -1.2002755 0
4.918817 8.4649153 -1.2020932 0
4.8788366 8.4612913 -1.1992489 0
4.8333397 8.4477139 -1.1950209 0
4.8262219 8.5012722 -1.2003016 0
4.811657 8.5421991 -1.2037956 0
4.7902174 8.5712175 -1.2056147 0
4.7289753 8.528656 -1.1973913 0
4.7181754 8.5768604 -1.2019312 0
4.6973028 8.6071262 -1.2039587 0
4.6592588 8.6059093 -1.2015966 0
4.6173792 8.5972786 -1.1982232 0
4.6090374 8.651207 -1.2035788 0
4.5544763 8.6183033 -1.1968701 0
4.5484972 8.6772919 -1.2029375 0
4.4967313 8.6489353 -1.1969094 0
4.4734783 8.6751537 -1.1984553 0
4.4713044 8.742774 -1.2057192 0
4.4101129 8.6949148 -1.197073 0
4.3791032 8.7060089 -1.1965722 0
4.3681531 8.7572584 -1.2015964 0
4.3258262 8.7456913 -1.1980125 0
4.2975373 8.7623034 -1.1983075 0
4.2531443 8.7458372 -1.1940987 0
4.2299447 8.7727985 -1.1958368 0
4.2159314 8.8191967 -1.2002279 0
4.1658869 8.7901278 -1.1943642 0
4.1436415 8.8194761 -1.1964575 0
4.1380973 8.8849554 -1.2034515 0
4.1021843 8.8855667 -1.2016647 0
4.0612063 8.874876 -1.1983706 0
4.0502234 8.929883 -1.2039577 0
4.0119071 8.9248304 -1.2014562 0
3.9522188 8.8714685 -1.1924821 0
3.9356787 8.914628 -1.1965032 0
3.9190805 8.9582052 -1.2005816 0
3.8738668 8.9363308 -1.1959025 0
3.8622923 8.9921284 -1.2016299 0
3.8195879 8.9755745 -1.1976998 0
3.7982199 9.009078 -1.2004642 0
3.7306767 8.932415 -1.1885755 0
3.7324171 9.0215187 -1.19876 0
3.7074099 9.0468206 -1.2004637 0
3.669347 9.040205 -1.1979465 0
3.6220224 9.0101824 -1.1923523 0
3.6232405 9.1012707 -1.2027919 0
3.5751498 9.0688353 -1.1969146 0
3.5540242 9.104598 -1.200055 0
3.5446894 9.1713438 -1.2072793 0
3.4730034 9.0762472 -1.1932217 0
3.4722533 9.1662455 -1.2035161 0
3.4464409 9.1910086 -1.2052436 0
3.4055829 9.1755075 -1.2017068 0
3.3819487 9.2063341 -1.2042524 0
3.3533173 9.2238235 -1.2050625 0
3.2972825 9.1652737 -1.1959622 0
3.2818592 9.219327 -1.2015729 0
3.2381382 9.1939592 -1.1968449 0
3.2110152 9.2154427 -1.1982334 0
3.2027771 9.2919493 -1.206778 0
3.1551661 9.2544184 -1.2005231 0
3.126436 9.2718134 -1.2014132 0
3.105346 9.312274 -1.2053 0
3.0575962 9.2725649 -1.1988268 0
3.0331683 9.3032475 -1.2014722 0
2.9937797 9.2879887 -1.1981984 0
2.9675403 9.3134098 -1.2001877 0
2.938693 9.3309135 -1.2011667 0
2.8986542 9.3126431 -1.197557 0
2.8619597 9.304575 -1.1952788 0
2.8396156 9.343298 -1.1990235 0
2.8106267 9.3606043 -1.2000283 0
2.7693396 9.3366413 -1.1957592 0
2.7435188 9.3646441 -1.1981606 0
2.7192118 9.3983507 -1.2013001 0
2.6948736 9.4325752 -1.204513 0
2.6533408 9.4064884 -1.200039 0
2.6253088 9.4279766 -1.2016507 0
2.5820289 9.3943214 -1.196251 0
2.5702713 9.4757528 -1.2055161 0
2.5295351 9.4508734 -1.2012652 0
2.4878833 9.4216185 -1.1964798 0
2.4731965 9.4948492 -1.2047197 0
2.4244993 9.4375029 -1.1964054 0
2.4058871 9.4970675 -1.2029271 0
2.3653114 9.4701662 -1.1985085 0
2.3346307 9.4824476 -1.1990654 0
2.3081207 9.5120468 -1.201823 0
2.2612948 9.4573298 -1.1939449 0
2.2465091 9.5367527 -1.203014 0
2.2146654 9.5448503 -1.2030921 0
2.1868451 9.5705776 -1.205404 0
2.1576304 9.5906858 -1.2070186 0
2.1138763 9.5455456 -1.2004389 0
2.0746858 9.5196609 -1.1963022 0
2.0553813 9.5854397 -1.2036955 0
2.0172842 9.5640802 -1.2001573 0
1.9903094 9.5953922 -1.2032423 0
1.9553983 9.5886326 -1.2015657 0
1.9148301 9.5531855 -1.1963127 0
1.8765895 9.5280733 -1.1923733 0
1.8564571 9.5954256 -1.2000164 0
1.8141046 9.5480671 -1.1933261 0
1.790362 9.5984888 -1.1988709 0
1.7586254 9.606925 -1.1991816 0
1.7247255 9.6034145 -1.1980146 0
1.6872169 9.5790501 -1.1942629 0
1.6584516 9.6041155 -1.1966879 0
1.6266773 9.6121979 -1.1970087 0
1.6030705 9.6696548 -1.2034878 0
1.5736833 9.6937151 -1.2058189 0
1.5351115 9.6607904 -1.2010763 0
1.500489 9.6515827 -1.1992993 0
1.4671547 9.6502066 -1.1985103 0
1.4343916 9.6523819 -1.1981765 0
1.4065782 9.6885281 -1.2020712 0
1.371376 9.6740694 -1.1997001 0
1.3419852 9.700676 -1.2024349 0
1.3024403 9.6531448 -1.1959952 0
1.2751118 9.6958113 -1.200745 0
1.2502005 9.7593918 -1.2080929 0
1.2066904 9.6770649 -1.1973944 0
1.1810548 9.7372551 -1.2043453 0
1.146546 9.7254257 -1.2024 0
1.109587 9.6912651 -1.1977098 0
1.0793828 9.7155886 -1.2002618 0
1.0505185 9.7536583 -1.2045231 0
1.0167445 9.7469063 -1.2032615 0
0.9797262 9.7073278 -1.1979632 0
0.94746614 9.7135544 -1.198333 0
0.91699046 9.7389517 -1.2010801 0
0.88430578 9.7416773 -1.2010438 0
0.84975177 9.7229967 -1.1983826 0
0.81910884 9.7491331 -1.2012589 0
0.78163773 9.6925573 -1.1939582 0
0.75545436 9.7768946 -1.2040282 0
0.72281307 9.7813082 -1.2042665 0
0.68836218 9.760253 -1.2013834 0
0.65499616 9.7530079 -1.2002145 0
0.62093884 9.7339296 -1.1976037 0
0.58849168 9.7391405 -1.1979954 0
0.55827928 9.7838964 -1.2032638 0
0.5251236 9.7792149 -1.2024647 0
0.49045554 9.7436266 -1.1978798 0
0.46037444 9.8003559 -1.2046576 0
0.42570978 9.760498 -1.199576 0
0.39520976 9.8172016 -1.2063754 0
0.36261415 9.8271942 -1.2074471 0
0.32895857 9.8073416 -1.2048656 0
0.29342532 9.7206259 -1.1940846 0
0.26096892 9.7266483 -1.1947103 0
0.22890276 9.7507668 -1.1975716 0
0.19737256 9.8093071 -1.2046735 0
0.16343395 9.7473669 -1.1969925 0
0.1314255 9.7980747 -1.2031587 0
0.098361447 9.7773647 -1.2005683 0
0.065475017 9.7621002 -1.1986604 0
0.032712247 9.7527485 -1.1974919 0
1.2905882e-05 9.7271118 -1.1943374 0
-0.032669645 9.7477579 -1.1968791 0
-0.065301739 9.7401199 -1.1959614 0
-0.098294817 9.7733202 -1.2000717 0
-0.13153237 9.8079815 -1.2043753 0
-0.16403036 9.7844858 -1.2015508 0
-0.19675063 9.7796888 -1.201036 0
-0.22913323 9.7616882 -1.198913 0
-0.2625888 9.7879925 -1.202245 0
-0.29519677 9.7801704 -1.2013991 0
-0.32723308 9.7566719 -1.1986405 0
-0.36146709 9.796813 -1.2037141 0
-0.392331 9.746336 -1.197667 0
-0.4256165 9.758954 -1.1993861 0
-0.45803836 9.7511778 -1.1986125 0
-0.49174431 9.7697458 -1.2010908 0
-0.52576804 9.7917013 -1.2039999 0
-0.55622238 9.7483053 -1.1988864 0
-0.58809328 9.732976 -1.197237 0
-0.62358421 9.7758074 -1.202756 0
-0.65429008 9.7428818 -1.1989682 0
-0.68215138 9.6725559 -1.1905886 0
-0.7186175 9.7248831 -1.1973194 0
-0.75412756 9.7600603 -1.2019548 0
-0.78583908 9.744978 -1.2004153 0
-0.81903303 9.7485418 -1.2011857 0
-0.84851384 9.7091293 -1.1966733 0
-0.88123006 9.7080812 -1.1969014 0
-0.91770631 9.7468319 -1.2020515 0
-0.94368666 9.6750727 -1.1935853 0
-0.98326039 9.7426043 -1.2023164 0
-1.0183039 9.7621069 -1.2051377 0
-1.0527296 9.7744303 -1.207088 0
-1.0801531 9.7227564 -1.2011471 0
-1.1141118 9.7310133 -1.2026218 0
-1.1445043 9.7083292 -1.2002859 0
-1.1814867 9.7410326 -1.2048122 0
-1.2093011 9.6982107 -1.2000104 0
-1.2369478 9.6561413 -1.1953114 0
-1.2708342 9.6634836 -1.196741 0
-1.3024324 9.6532793 -1.1960114 0
-1.3348091 9.6489906 -1.1960279 0
-1.3714775 9.6749697 -1.1998112 0
-1.3978982 9.6289196 -1.1946751 0
-1.437292 9.6720762 -1.2006207 0
-1.4686137 9.6599751 -1.1997231 0
-1.4968295 9.6282129 -1.1963948 0
-1.5314401 9.6378498 -1.1982236 0
-1.5630739 9.6285238 -1.1977091 0
-1.6078776 9.6988106 -1.2071159 0
-1.6358593 9.6666107 -1.2037841 0
-1.6687921 9.6641512 -1.2041678 0
-1.7062938 9.6875076 -1.2077843 0
-1.7234794 9.5966225 -1.1971668 0
-1.7586941 9.6074448 -1.1992457 0
-1.7940689 9.6185036 -1.2013704 0
-1.8217791 9.5885983 -1.1983912 0
-1.8603525 9.6156969 -1.2025509 0
-1.8779645 9.5351877 -1.1932629 0
-1.9279809 9.618928 -1.2045447 0
-1.9486521 9.5556812 -1.197436 0
-1.989311 9.5907068 -1.2026541 0
-2.0137975 9.5476751 -1.1980979 0
-2.0559974 9.5884371 -1.2040713 0
-2.0765262 9.5282259 -1.1973778 0
-2.1215968 9.5805292 -1.2048377 0
-2.1428764 9.5252218 -1.198779 0
-2.1767597 9.526557 -1.1998589 0
-2.200084 9.4821224 -1.1951847 0
-2.2411194 9.5139856 -1.2001414 0
-2.2750492 9.514966 -1.2012205 0
-2.305773 9.5024824 -1.2006137 0
-2.3468735 9.5322828 -1.2053664 0
-2.3611851 9.4537525 -1.1964304 0
-2.4070871 9.5019102 -1.2035397 0
-2.4280939 9.4515991 -1.1981916 0
-2.4646583 9.4621725 -1.2005728 0
-2.4950035 9.4486847 -1.1999161 0
-2.5191655 9.4122305 -1.1963526 0
-2.5547969 9.4188032 -1.1982701 0
-2.5869563 9.4123468 -1.1985453 0
-2.6123948 9.3816967 -1.1957511 0
-2.6479599 9.3875074 -1.1976167 0
-2.7066319 9.4738264 -1.2097797 0
-2.7362964 9.4574947 -1.208859 0
-2.7527003 9.3960762 -1.2021813 0
-2.7747719 9.3550472 -1.1981156 0
-2.8133826 9.369873 -1.2012156 0
-2.8370786 9.3350401 -1.1979628 0
-2.8792334 9.3608217 -1.2025034 0
-2.9106443 9.3512506 -1.2025207 0
-2.9439814 9.3477917 -1.2033385 0
-2.9619792 9.2960424 -1.1979485 0
-3.0167975 9.3594856 -1.2074208 0
-3.0127692 9.2407637 -1.1934016 0
-3.0710933 9.3135796 -1.2041284 0
-3.0925856 9.2740898 -1.2003567 0
-3.1252198 9.2682877 -1.2009553 0
-3.1385298 9.2057028 -1.1942024 0
-3.1846366 9.239399 -1.1999521 0
-3.2089067 9.2094698 -1.1974556 0
-3.2293355 9.1690426 -1.1936003 0
-3.2951112 9.2566319 -1.2064338 0
-3.3027444 9.1805315 -1.197952 0
-3.3341832 9.1712685 -1.1981953 0
-3.3650091 9.1602964 -1.1982291 0
-3.4046779 9.1731443 -1.201396 0
-3.4390934 9.1714878 -1.2026826 0
-3.4586678 9.1304541 -1.1988156 0
-3.4978628 9.1412868 -1.201771 0
-3.5337222 9.1430397 -1.2035522 0
-3.5654778 9.1340113 -1.2039307 0
-3.5843234 9.0921774 -1.1999938 0
-3.6176705 9.0873499 -1.2009509 0
-3.645952 9.0697803 -1.2002378 0
-3.6888258 9.0882654 -1.2043139 0
-3.6918421 9.0088997 -1.1954305 0
-3.7201517 8.9919405 -1.1948284 0
-3.7804103 9.0515614 -1.2044281 0
-3.7930939 8.9969854 -1.1988517 0
-3.8427236 9.0300074 -1.2049619 0
-3.8589466 8.9844055 -1.2005965 0
-3.9036827 9.0051765 -1.2051144 0
-3.928683 8.9802189 -1.2035304 0
-3.9331837 8.9090405 -1.1957518 0
-3.9618013 8.8930416 -1.1953804 0
-4.0050578 8.9096565 -1.1994121 0
-4.0296569 8.8846006 -1.1978512 0
-4.0646086 8.8823729 -1.1993815 0
-4.0900507 8.8593464 -1.1981171 0
-4.139523 8.8880777 -1.203873 0
-4.1715703 8.8789825 -1.2045287 0
-4.1773028 8.8142767 -1.197644 0
-4.227828 8.844142 -1.2036213 0
-4.2330065 8.7792072 -1.1967089 0
-4.2812109 8.8036108 -1.2019852 0
-4.3082094 8.7841215 -1.2012897 0
-4.3239083 8.7418728 -1.1974878 0
-4.3464775 8.7138615 -1.1956402 0
-4.3797288 8.7073097 -1.1967494 0
-4.4173045 8.7091503 -1.1990314 0
-4.4271626 8.6565199 -1.1938223 0
-4.4831209 8.6939087 -1.2010448 0
-4.5411487 8.7344236 -1.2087383 0
-4.5376282 8.6566133 -1.2000691 0
-4.5632734 8.635005 -1.1991878 0
-4.588418 8.6125593 -1.1982003 0
-4.5978041 8.5608854 -1.1931493 0
-4.6303101 8.5524931 -1.1941366 0
-4.6918755 8.5972357 -1.2025735 0
-4.6828351 8.5126715 -1.1929343 0
-4.7310815 8.5325079 -1.1979302 0
-4.7542243 8.5068674 -1.1965616 0
-4.78966 8.5032005 -1.1982979 0
-4.8261085 8.5011253 -1.2002791 0
-4.8440547 8.4664936 -1.1976757 0
-4.8633375 8.4344635 -1.1954446 0
-4.8862233 8.4088755 -1.1941332 0
-4.9416056 8.4389238 -1.2007464 0
-4.9558783 8.3985939 -1.1973655 0
-4.994617 8.3997698 -1.199914 0
-5.0279183 8.3915997 -1.2011482 0
-5.0545878 8.3723135 -1.2008066 0
-5.0564747 8.3123226 -1.1946273 0
-5.1218691 8.3565922 -1.2034508 0
-5.1165643 8.2854586 -1.1956705 0
-5.1628628 8.2980671 -1.1999813 0
-5.2316585 8.3461237 -1.2094605 0
-5.2226262 8.269969 -1.2009555 0
-5.2359061 8.2297487 -1.1976575 0
-5.2777615 8.2344456 -1.2009095 0
-5.2802124 8.1777878 -1.1952215 0
-5.3085976 8.1615696 -1.1954459 0
-5.3663516 8.1901522 -1.2022611 0
-5.3863111 8.1607952 -1.200596 0
-5.3997855 8.1218472 -1.1975228 0
-5.4432459 8.1279774 -1.2011107 0
-5.4604669 8.0948563 -1.1989151 0
-5.492013 8.0830326 -1.1998843 0
-5.528038 8.0776577 -1.2018312 0
-5.541729 8.0396948 -1.1989406 0
-5.5892582 8.0507488 -1.2033769 0
-5.5819287 7.9829235 -1.1960294 0
-5.6228046 7.9842448 -1.1990453 0
-5.6402469 7.9522414 -1.1970723 0
-5.6783204 7.9493051 -1.1994895 0
-5.7050085 7.9303164 -1.1995038 0
-5.7562795 7.9452562 -1.2046759 0
-5.7721224 7.911159 -1.2024336 0
-5.777986 7.863687 -1.198156 0
-5.8201261 7.865633 -1.2014189 0
-5.8709264 7.878902 -1.2064455 0
-5.837944 7.7800589 -1.1943008 0
-5.9143662 7.8271012 -1.2045594 0
-5.9204788 7.7808156 -1.2004844 0
-5.9455609 7.7596526 -1.2002881 0
-5.9496884 7.7113476 -1.1958951 0
-6.0058055 7.7303514 -1.2019583 0
-5.9945083 7.662643 -1.194549 0
-6.0464153 7.6758246 -1.1997575 0
-6.051168 7.629097 -1.1956183 0
-6.0746541 7.6061883 -1.1952132 0
-6.106215 7.5933547 -1.196407 0
-6.1331754 7.5747356 -1.1967065 0
-6.1781907 7.5782366 -1.2005255 0
-6.189363 7.5401788 -1.1977772 0
-6.2469473 7.5585122 -1.20401 0
-6.2399111 7.4986572 -1.1978015 0
-6.2983723 7.5175047 -1.2041785 0
-6.3124409 7.4831858 -1.2020646 0
-6.2974696 7.4148521 -1.1944728 0
-6.3558674 7.4329581 -1.2008157 0
-6.3400092 7.3642802 -1.1931479 0
-6.4095535 7.3947701 -1.2015629 0
-6.4202733 7.3571529 -1.1989416 0
-6.441833 7.3320899 -1.1983702 0
-6.4749126 7.320097 -1.1999515 0
-6.5000978 7.299109 -1.2000768 0
-6.5225825 7.2750978 -1.1997179 0
-6.5554433 7.2626104 -1.2012764 0
-6.5532155 7.2113843 -1.1964309 0
-6.6111903 7.2263532 -1.2025852 0
-6.5951982 7.1605182 -1.1953024 0
-6.6551685 7.1771894 -1.2018033 0
-6.6843534 7.1603608 -1.2027314 0
-6.6889153 7.1172585 -1.1992518 0
-6.7011323 7.0825229 -1.1971779 0
-6.743948 7.0800753 -1.2005795 0
-6.7240148 7.0119224 -1.1928389 0
-6.7842717 7.027442 -1.1993418 0
-6.805192 7.0019774 -1.1988832 0
-6.8294964 6.9800072 -1.1990353 0
-6.8524046 6.9566073 -1.1989555 0
-6.8760543 6.93396 -1.199019 0
-6.9122615 6.9238868 -1.2012779 0
-6.9224815 6.8877811 -1.1990337 0
-6.9391561 6.8582273 -1.1979324 0
-6.9970746 6.8692474 -1.2039484 0
-7.0339065 6.8592453 -1.2063218 0
-7.0020642 6.7825408 -1.1969541 0
