# .PCD v0.7 - Point Cloud Data file format
VERSION 0.7
FIELDS x y z intensity
SIZE 4 4 4 4
TYPE F F F F
COUNT 1 1 1 1
WIDTH 1417
HEIGHT 1
VIEWPOINT 0 0 0 1 0 0 0
POINTS 1417
DATA ascii
4.9332337 -5.7692084 -1.2022661 0
4.9539642 -5.7542796 -1.2026097 0
4.9658785 -5.7291565 -1.2008321 0
5.0016127 -5.7314434 -1.2048196 0
4.9936762 -5.6837683 -1.1983105 0
5.0155983 -5.6702647 -1.1990021 0
5.059566 -5.6814723 -1.2049524 0
5.0636802 -5.647851 -1.2014157 0
5.0773635 -5.6250534 -1.2001808 0
5.0770106 -5.5868874 -1.1956627 0
5.0981097 -5.5724525 -1.1962249 0
5.1432009 -5.5840306 -1.2024053 0
5.1454 -5.5489674 -1.1985633 0
5.1418033 -5.5079331 -1.193417 0
5.2181454 -5.5522747 -1.2068086 0
5.2190714 -5.5160823 -1.2027388 0
5.2876692 -5.5511842 -1.2142512 0
5.23879 -5.4630747 -1.1988137 0
5.2510147 -5.4391994 -1.1974311 0
5.276165 -5.4287071 -1.1990089 0
5.2898698 -5.4064212 -1.1979973 0
5.3132138 -5.3939815 -1.1991816 0
5.3391995 -5.3841343 -1.2009654 0
5.344089 -5.3530483 -1.1980215 0
5.3584971 -5.3316088 -1.1972373 0
5.4027133 -5.3396754 -1.2031096 0
5.4053535 -5.3065772 -1.1997288 0
5.4150925 -5.2806005 -1.1979539 0
5.4433436 -5.2726603 -1.2002861 0
5.4392247 -5.2334371 -1.195502 0
5.5044532 -5.2607708 -1.2059551 0
5.5038848 -5.2250309 -1.2019858 0
5.5065503 -5.1925712 -1.1987591 0
5.5321832 -5.1818113 -1.2005503 0
5.4986963 -5.115942 -1.1895542 0
5.588202 -5.1643715 -1.2051647 0
5.5743899 -5.1170616 -1.1984792 0
5.6253381 -5.1291828 -1.2057288 0
5.620163 -5.0900598 -1.2009549 0
5.623919 -5.0592422 -1.198126 0
5.6571469 -5.0549202 -1.2015876 0
5.690309 -5.050343 -1.2050278 0
5.6810722 -5.0081944 -1.199509 0
5.6888051 -4.9812145 -1.1976087 0
5.7143331 -4.9698176 -1.1994683 0
5.7080717 -4.9308558 -1.1946771 0
5.7557654 -4.9384542 -1.2011869 0
5.7531357 -4.9028044 -1.1972009 0
5.7664685 -4.8808866 -1.1965631 0
5.7646227 -4.8462429 -1.1928017 0
5.7851868 -4.8305187 -1.193699 0
5.864819 -4.86373 -1.2067585 0
5.7916555 -4.7703724 -1.1884065 0
5.8979597 -4.8248324 -1.2068932 0
5.8647027 -4.764894 -1.196812 0
5.8553829 -4.7248187 -1.1916705 0
5.8989434 -4.7274008 -1.1973034 0
5.9152551 -4.7079897 -1.1974036 0
5.9425869 -4.6972842 -1.1997415 0
5.8991208 -4.6308751 -1.1878248 0
6.0542026 -4.7198944 -1.2158582 0
5.9492049 -4.6060514 -1.1916635 0
6.0188131 -4.6277509 -1.2024916 0
6.0208941 -4.5973125 -1.1998212 0
6.0145316 -4.5606132 -1.1954995 0
6.0534019 -4.5582023 -1.2001811 0
6.0812216 -4.5472808 -1.2026672 0
6.0913281 -4.5230751 -1.20166 0
6.1257381 -4.5168424 -1.205454 0
6.1260414 -4.4854374 -1.2025474 0
6.1496859 -4.4711542 -1.2042392 0
6.12359 -4.4208732 -1.1962199 0
6.1678433 -4.4214396 -1.2019621 0
6.1203713 -4.3564181 -1.1898578 0
6.2147207 -4.3922558 -1.2053305 0
6.1882873 -4.3425355 -1.1973733 0
6.2629986 -4.3636971 -1.2089914 0
6.2865047 -4.3488383 -1.2107075 0
6.2506785 -4.2931399 -1.2010289 0
6.2190418 -4.2407937 -1.1922114 0
6.2969689 -4.263073 -1.2044034 0
6.2476745 -4.1992216 -1.1922754 0
6.3671255 -4.2485852 -1.2123456 0
6.2778502 -4.1586623 -1.1926854 0
6.3316422 -4.1638188 -1.200246 0
6.3284678 -4.1314039 -1.1970116 0
6.3570867 -4.1197553 -1.1998054 0
6.3036427 -4.0551744 -1.1871458 0
6.4126153 -4.0949445 -1.205076 0
6.4073734 -4.0614185 -1.2015251 0
6.421062 -4.0399804 -1.2015451 0
6.4224319 -4.010848 -1.1992784 0
6.4209199 -3.980042 -1.1964974 0
6.4137788 -3.9459107 -1.1926948 0
6.4442697 -3.9349463 -1.1959047 0
6.4858899 -3.9305668 -1.201176 0
6.5006499 -3.9097719 -1.201475 0
6.4865441 -3.8717322 -1.196462 0
6.5606976 -3.8862193 -1.2077297 0
6.5334964 -3.8405735 -1.2003452 0
6.5388966 -3.8143063 -1.1989809 0
6.5702891 -3.8031514 -1.2023923 0
6.5779471 -3.7781968 -1.2014687 0
6.5625935 -3.7401719 -1.1963671 0
6.5900993 -3.7266319 -1.199097 0
6.6421509 -3.7267306 -1.2062877 0
6.5860572 -3.6662788 -1.1938612 0
6.6514325 -3.6735144 -1.2034726 0
6.5926437 -3.6122527 -1.1906376 0
6.6433263 -3.611115 -1.1975976 0
6.5944004 -3.5559297 -1.1866217 0
6.6729712 -3.5694711 -1.1985998 0
6.6721697 -3.5403221 -1.196317 0
6.7154622 -3.5344899 -1.2019478 0
6.7152805 -3.5056927 -1.1998048 0
6.6670604 -3.4521236 -1.1891147 0
6.770967 -3.4771867 -1.205561 0
6.7513356 -3.4385486 -1.2000062 0
6.7714581 -3.420253 -1.2015378 0
6.7677979 -3.389972 -1.1988648 0
6.8183775 -3.3867586 -1.2058064 0
6.7920966 -3.3453605 -1.1991683 0
6.8227191 -3.3320651 -1.2025957 0
6.7711835 -3.2788248 -1.1915674 0
6.8107839 -3.2698565 -1.1966001 0
6.844038 -3.2576311 -1.2005169 0
6.8546329 -3.2345297 -1.2004663 0
6.8218522 -3.1911399 -1.1928449 0
6.8910947 -3.1954141 -1.2030722 0
6.8703809 -3.1578643 -1.1976008 0
6.8716273 -3.1305733 -1.1959817 0
6.9218888 -3.1254892 -1.2028989 0
5.1429925 -2.3015239 -0.8924129 0
5.1492362 -2.283627 -0.89216268 0
5.1894794 -2.2806838 -0.89780539 0
5.1393909 -2.2381413 -0.88783658 0
5.1337829 -2.2152517 -0.88557971 0
5.1348882 -2.1953361 -0.88449568 0
5.1290584 -2.1725328 -0.88223183 0
5.1273942 -2.1515808 -0.88069975 0
5.1779208 -2.1523943 -0.88813388 0
5.1577439 -2.1237538 -0.88344675 0
5.0960336 -2.0783887 -0.87167817 0
5.1729794 -2.0895691 -0.88363647 0
5.2093124 -2.083957 -0.88864422 0
5.2717681 -2.0884657 -0.89809889 0
5.313755 -2.0845144 -0.90405607 0
5.3760204 -2.0881686 -0.91345328 0
5.3765211 -2.0676439 -0.9123553 0
5.4304276 -2.0675015 -0.92032129 0
7.0753016 -2.6666207 -1.1975644 0
7.1106734 -2.6527588 -1.2020391 0
7.1305981 -2.6329908 -1.2039082 0
7.1492829 -2.6126854 -1.2055771 0
7.1234555 -2.5762067 -1.1997585 0
7.1621132 -2.563066 -1.2048154 0
7.1817727 -2.5429709 -1.2066814 0
7.1190529 -2.493933 -1.1947316 0
7.1874084 -2.4908552 -1.2047948 0
7.1893744 -2.4645681 -1.2037325 0
7.2197609 -2.4479647 -1.2074392 0
7.226584 -2.4232938 -1.2072146 0
7.1496263 -2.3708503 -1.193024 0
7.1833968 -2.3553455 -1.1973348 0
7.199399 -2.3338883 -1.1986909 0
7.1785917 -2.3005738 -1.1939356 0
7.2336383 -2.2914996 -1.2018063 0
7.2512646 -2.2703598 -1.2034632 0
7.3045063 -2.2601662 -1.2110351 0
7.2604952 -2.219902 -1.2024976 0
7.2172003 -2.1802316 -1.1941097 0
7.2504544 -2.1637762 -1.1984046 0
7.2995467 -2.1517997 -1.2053196 0
7.3171239 -2.1303425 -1.2070358 0
7.3496213 -2.1130993 -1.2112211 0
7.2904038 -2.0696349 -1.2003117 0
7.3221669 -2.0521488 -1.2044017 0
7.2752795 -2.0127237 -1.1955725 0
7.3091173 -1.9957277 -1.2000269 0
7.2542176 -1.954626 -1.1899307 0
7.3279071 -1.9481521 -1.20094 0
7.3224406 -1.9204361 -1.1989821 0
7.2677913 -1.8800825 -1.1889949 0
7.3677444 -1.879606 -1.2043093 0
7.3465538 -1.8479875 -1.199826 0
7.3278708 -1.8171862 -1.195773 0
7.3850393 -1.8051015 -1.2041075 0
7.4109788 -1.7851311 -1.2073542 0
7.2986493 -1.7322035 -1.1881013 0
7.3871222 -1.7270588 -1.2015538 0
7.4115853 -1.7065907 -1.2045954 0
7.3435903 -1.6650269 -1.1926303 0
7.3391356 -1.6381646 -1.1910081 0
7.397275 -1.6251239 -1.1995521 0
7.4244914 -1.6050278 -1.2030861 0
7.3710613 -1.5676271 -1.1935697 0
7.4013338 -1.548146 -1.1976244 0
7.4680419 -1.5359831 -1.2075784 0
7.4065647 -1.4974731 -1.1968191 0
7.42766 -1.4758341 -1.1994215 0
7.4313459 -1.4506841 -1.1992246 0
7.4354539 -1.4256232 -1.1991094 0
7.4445148 -1.4014993 -1.1998061 0
7.4491124 -1.3765203 -1.1997964 0
7.4473348 -1.3503855 -1.1987742 0
7.4560513 -1.3261609 -1.1994548 0
7.4259496 -1.2951366 -1.193907 0
7.4619136 -1.2756445 -1.1989948 0
7.4205818 -1.2429862 -1.1916772 0
7.4536963 -1.2228553 -1.1963298 0
7.4619756 -1.1985356 -1.1970071 0
7.4363408 -1.168856 -1.1922596 0
7.5040102 -1.1537247 -1.2024819 0
7.472631 -1.1232667 -1.1968434 0
7.523798 -1.105175 -1.2044382 0
7.4820919 -1.0734339 -1.1971788 0
7.4753628 -1.0469012 -1.1955338 0
7.4841571 -1.0225596 -1.1963851 0
7.5201044 -1.0017985 -1.2015879 0
7.5048223 -0.9741652 -1.1986175 0
7.5467744 -0.95389265 -1.2048001 0
7.5135784 -0.92411333 -1.1989992 0
7.5194883 -0.89925784 -1.1994544 0
7.5265965 -0.87452191 -1.2001139 0
7.5699606 -0.85384697 -1.2065649 0
7.5556788 -0.82659054 -1.2038401 0
7.4975829 -0.79480523 -1.1941525 0
7.5705686 -0.77688336 -1.2053554 0
7.5453491 -0.74873942 -1.2009336 0
7.5085649 -0.71967489 -1.1946881 0
7.5939984 -0.70217645 -1.2079002 0
7.5252242 -0.67037863 -1.1965966 0
7.5231018 -0.6447733 -1.1959087 0
7.4858365 -0.61630356 -1.1896496 0
7.5640912 -0.5972203 -1.201761 0
7.6002975 -0.57444435 -1.2072005 0
7.5598512 -0.54590213 -1.2004787 0
7.5429411 -0.51926512 -1.1975102 0
7.553287 -0.49453831 -1.1988827 0
7.5513911 -0.46899268 -1.1983255 0
7.5838857 -0.44549057 -1.2032382 0
7.6116538 -0.42151812 -1.2074128 0
7.539515 -0.39217171 -1.1957544 0
7.570137 -0.36831892 -1.2004085 0
7.5751147 -0.34310704 -1.2010086 0
7.5974665 -0.31859803 -1.2043762 0
7.5327516 -0.29058734 -1.1939563 0
7.5989289 -0.26762772 -1.2042965 0
7.5616856 -0.24093454 -1.1982594 0
7.5386367 -0.2149014 -1.1944859 0
7.577311 -0.19058022 -1.2005059 0
7.5576429 -0.16473217 -1.1972955 0
7.5745416 -0.13969414 -1.1998918 0
7.5800591 -0.11437418 -1.2006983 0
7.5656419 -0.088785835 -1.1983607 0
7.5233269 -0.063062333 -1.191618 0
7.5451832 -0.037946753 -1.195053 0
7.5707493 -0.012691682 -1.1990888 0
7.5768528 0.012701914 -1.2000555 0
7.5794902 0.038119294 -1.2004867 0
7.5420923 0.063219629 -1.1945902 0
7.5676122 0.088808954 -1.1986728 0
7.5681996 0.11419523 -1.1988196 0
7.5935588 0.14004487 -1.2029042 0
7.6429076 0.16659066 -1.2108034 0
7.5339108 0.18948865 -1.1936299 0
7.5894156 0.21634893 -1.2025318 0
7.5807981 0.2415435 -1.201288 0
7.5818276 0.26702541 -1.2015862 0
7.5896254 0.29278135 -1.2029709 0
7.6203146 0.31955618 -1.2079982 0
7.5420985 0.34161159 -1.195774 0
7.6140771 0.37045676 -1.2073761 0
7.5593543 0.39320365 -1.1989009 0
7.6035242 0.42106792 -1.2061232 0
7.5353813 0.44264135 -1.1955427 0
7.5851126 0.47108701 -1.2036767 0
7.5333905 0.49323562 -1.1957247 0
7.5974998 0.52302098 -1.206172 0
7.5312071 0.54383373 -1.1959301 0
7.61202 0.57533038 -1.2090625 0
7.5638123 0.59719825 -1.2017165 0
7.5374017 0.6205489 -1.1978444 0
7.5752344 0.64924133 -1.204196 0
7.5151668 0.66948265 -1.1949974 0
7.4894514 0.69250953 -1.1912708 0
7.5309134 0.7218169 -1.198244 0
7.4698606 0.74124861 -1.1889187 0
7.5498204 0.77475417 -1.2020519 0
7.5483871 0.80019087 -1.2022442 0
7.5779238 0.82902414 -1.2073843 0
7.5549664 0.85215569 -1.2041751 0
7.5402946 0.87611347 -1.2022979 0
7.5256586 0.89999574 -1.2004386 0
7.5299282 0.92612427 -1.2016083 0
7.5432343 0.9534452 -1.2042351 0
7.5041509 0.97407806 -1.1985102 0
7.5094137 1.0003744 -1.1998796 0
7.4429908 1.0169351 -1.1898046 0
7.4808512 1.0476699 -1.1964115 0
7.5094848 1.0773638 -1.2015618 0
7.5237379 1.1051661 -1.2044286 0
7.5202851 1.13043 -1.2044758 0
7.4851322 1.1508223 -1.1994568 0
7.4652777 1.1734043 -1.1968989 0
7.4313025 1.193609 -1.1920867 0
7.4971762 1.2299887 -1.2033085 0
7.4364676 1.2456473 -1.1942283 0
7.4823794 1.2791432 -1.2022834 0
7.4707928 1.3029575 -1.2011167 0
7.4153347 1.3189188 -1.1929047 0
7.4751511 1.3554293 -1.2032517 0
7.4330902 1.3735596 -1.1972159 0
7.4614873 1.4046944 -1.2025415 0
7.4363093 1.4257871 -1.1992472 0
7.4572735 1.4557453 -1.2034086 0
7.3933091 1.4690088 -1.1938745 0
7.5049911 1.5173732 -1.2127236 0
7.4353437 1.5292579 -1.2022913 0
7.4271517 1.5535463 -1.201802 0
7.377152 1.5689225 -1.194556 0
7.4305511 1.6063378 -1.2040679 0
7.3987136 1.62544 -1.1997854 0
7.3923955 1.6500528 -1.1996511 0
7.3697543 1.6709591 -1.1968794 0
7.4421401 1.7136261 -1.2095615 0
7.3832188 1.7261462 -1.2009189 0
7.3706293 1.7492867 -1.1998184 0
7.3831306 1.7784231 -1.2028172 0
7.3481159 1.7960764 -1.1980872 0
7.3936768 1.833505 -1.2065113 0
7.3645816 1.8525224 -1.2027704 0
7.3563299 1.876694 -1.2024435 0
7.3550987 1.9026678 -1.2032783 0
7.4220262 1.9465541 -1.2152883 0
7.3037806 1.941738 -1.196986 0
7.3411026 1.9780369 -1.2041827 0
7.3311701 2.001749 -1.2036476 0
7.2916684 2.0172577 -1.1982658 0
7.2613573 2.0351059 -1.1943992 0
7.2886572 2.069139 -1.2000241 0
7.2659178 2.0890334 -1.1974267 0
7.2095361 2.0990188 -1.1892881 0
7.2363863 2.1331809 -1.1948905 0
7.2971072 2.1776989 -1.2061157 0
7.25313 2.1910853 -1.2000543 0
7.2517252 2.2172205 -1.2010452 0
7.2118506 2.2314966 -1.1956735 0
7.1949854 2.2527387 -1.1941228 0
7.2581067 2.2992508 -1.2058715 0
7.2156639 2.3124547 -1.2001014 0
7.2320585 2.3444757 -1.2041287 0
7.2060056 2.3627586 -1.2011032 0
7.1969848 2.3865547 -1.2009265 0
7.2124648 2.4185591 -1.204856 0
7.1613851 2.4281714 -1.1976763 0
4.7090697 1.6143022 -0.78844965 0
4.6742435 1.6198974 -0.78352356 0
4.636364 1.6242023 -0.77808255 0
4.5840836 1.6231635 -0.77021766 0
4.5157084 1.6160116 -0.75963539 0
4.4821272 1.6209669 -0.75489634 0
4.4177532 1.6144556 -0.74496174 0
4.4445524 1.641162 -0.7504046 0
4.4537983 1.6615659 -0.75290191 0
4.430038 1.6696433 -0.74982738 0
4.4740014 1.7033658 -0.7582311 0
4.4434752 1.7088233 -0.75402445 0
4.5067992 1.7505434 -0.76576167 0
4.443615 1.74317 -0.75601465 0
4.4577556 1.765986 -0.75942355 0
4.4343138 1.773923 -0.75643903 0
4.477191 1.8085129 -0.7647835 0
4.4689121 1.8226206 -0.76440883 0
4.4438739 1.8298107 -0.76117122 0
7.0274053 2.9212008 -1.2053635 0
6.9613762 2.921165 -1.1957111 0
7.0147018 2.9712412 -1.2065749 0
7.0134554 2.9984863 -1.2080829 0
6.9995627 3.0203447 -1.2074275 0
6.8802891 2.9962809 -1.188579 0
6.9031177 3.0337973 -1.1942731 0
6.8995538 3.0598726 -1.1954248 0
6.867497 3.0732512 -1.1916492 0
6.9245391 3.1266861 -1.2033595 0
6.8803391 3.1345422 -1.197498 0
6.8879352 3.1659327 -1.2006607 0
6.8763108 3.1885586 -1.2004912 0
6.8294082 3.1946745 -1.1941661 0
6.8987131 3.2553298 -1.2081861 0
6.8288651 3.2504091 -1.1978554 0
6.8153386 3.2720432 -1.1974003 0
6.8695998 3.3264811 -1.2088863 0
6.8091865 3.3254561 -1.2002103 0
6.7930365 3.3458233 -1.1993343 0
6.823719 3.3894117 -1.206751 0
6.7725339 3.3923442 -1.1997037 0
6.7341094 3.4013882 -1.1949106 0
6.7277699 3.4265461 -1.1958176 0
6.7531104 3.4680166 -1.2023816 0
6.7483792 3.4942296 -1.2036185 0
6.7017417 3.4986248 -1.1973858 0
6.704504 3.5287223 -1.1999865 0
6.6704082 3.5393875 -1.1960012 0
6.6969895 3.5823188 -1.202914 0
6.6809464 3.6025982 -1.2021952 0
6.6366949 3.6075103 -1.1964021 0
6.622735 3.6287405 -1.1960721 0
6.6590152 3.677702 -1.2048445 0
6.604352 3.6764634 -1.1971776 0
6.6251135 3.7171712 -1.2031935 0
6.5964022 3.730196 -1.2002438 0
6.5951347 3.758718 -1.2022995 0
6.5762272 3.7772088 -1.2011546 0
6.5837698 3.8109543 -1.2048593 0
6.5322499 3.8104291 -1.1977623 0
6.595377 3.8769486 -1.211714 0
6.519619 3.8618863 -1.2001677 0
6.4897146 3.8736248 -1.1970469 0
6.5056906 3.9128036 -1.2024068 0
6.47158 3.9218946 -1.1985258 0
6.4804964 3.9570665 -1.2026275 0
6.4770985 3.9848664 -1.2044696 0
6.4747238 4.0133929 -1.2065235 0
6.4683781 4.0395417 -1.2078581 0
6.4207897 4.0398092 -1.2014942 0
6.4360023 4.0795655 -1.2068936 0
6.4108548 4.0938201 -1.2047451 0
6.3696523 4.0976386 -1.1995772 0
6.3298812 4.1021247 -1.1946708 0
6.3281598 4.1312027 -1.1969534 0
6.3388619 4.1685667 -1.2016145 0
6.2954078 4.1702929 -1.196021 0
6.2577519 4.1756039 -1.1915201 0
6.3145804 4.2441907 -1.2050434 0
6.2466469 4.2290049 -1.1947784 0
6.2731781 4.2777095 -1.2025894 0
6.2491856 4.2921143 -1.200742 0
6.2257247 4.3067923 -1.199002 0
6.2283392 4.3395486 -1.2023008 0
6.1983328 4.3495851 -1.199317 0
6.2081451 4.3876085 -1.2040552 0
6.177238 4.3968949 -1.2009132 0
6.2114515 4.4527001 -1.2104602 0
6.1381159 4.4313602 -1.1990576 0
6.1248603 4.453105 -1.199378 0
6.1204877 4.4813709 -1.2014573 0
6.0728202 4.4778228 -1.1950405 0
6.0653248 4.5037665 -1.1965303 0
6.0720906 4.540453 -1.2008615 0
6.0260038 4.5375714 -1.194749 0
6.0081787 4.5557957 -1.1942366 0
6.0212231 4.5975633 -1.1998867 0
6.0406227 4.6445198 -1.206849 0
6.0055499 4.6496749 -1.2029498 0
5.9749985 4.6581464 -1.1999516 0
5.9343057 4.6584954 -1.1949096 0
5.9209652 4.6801934 -1.1953762 0
5.91921 4.7111378 -1.198204 0
5.9158311 4.7409344 -1.200731 0
5.9136267 4.7718167 -1.2035242 0
5.8673744 4.7670646 -1.1973572 0
5.9076052 4.8327227 -1.208867 0
5.8580365 4.825048 -1.2020274 0
5.8455315 4.8477349 -1.2027898 0
5.8336148 4.870955 -1.2036914 0
5.8239126 4.8960872 -1.2050699 0
5.7858672 4.897306 -1.2005885 0
5.7836094 4.9287739 -1.2035424 0
5.7554655 4.9381967 -1.2011243 0
5.7156234 4.9373789 -1.1962575 0
5.6993475 4.9567842 -1.1963227 0
5.6933646 4.9852071 -1.1985686 0
5.7140746 5.0372877 -1.2064772 0
5.7148151 5.072093 -1.2102174 0
5.653451 5.0516176 -1.2008024 0
5.5846548 5.023921 -1.1897612 0
5.6338606 5.1024652 -1.2038817 0
5.5866609 5.0939169 -1.1974387 0
5.5889497 5.1304269 -1.2016095 0
5.5508819 5.1298819 -1.1971161 0
5.518806 5.1346521 -1.1939045 0
5.5460434 5.1947937 -1.2035582 0
5.5028725 5.1891031 -1.1979585 0
5.5039887 5.2251296 -1.2020085 0
5.4997163 5.2562437 -1.2049174 0
5.4790182 5.2717252 -1.2042484 0
5.453495 5.2824936 -1.2025247 0
5.4439397 5.3087316 -1.2043357 0
5.4053936 5.3066163 -1.1997377 0
5.3906007 5.327704 -1.2004124 0
5.3944459 5.3673768 -1.2052692 0
5.3919902 5.4010301 -1.2087598 0
5.2997203 5.3443227 -1.1920853 0
5.3350773 5.4161777 -1.2041161 0
5.2809391 5.3972936 -1.1959747 0
5.2967367 5.4498734 -1.2036839 0
5.2709675 5.459867 -1.2019811 0
5.2594132 5.4845805 -1.2035328 0
5.2082343 5.4677906 -1.1960099 0
5.2119675 5.508574 -1.2011015 0
5.1732659 5.5045214 -1.1964293 0
5.1572433 5.5244727 -1.1970006 0
5.1261997 5.5282612 -1.1940907 0
5.1166706 5.5552263 -1.196203 0
5.0795774 5.552196 -1.1918764 0
5.0828676 5.5933328 -1.1970421 0
5.0618629 5.6078806 -1.1965168 0
5.0406713 5.6221871 -1.1959565 0
5.0346494 5.6534929 -1.1990184 0
5.0058508 5.6592455 -1.1966721 0
5.0092678 5.7015147 -1.2020519 0
4.9772072 5.7034764 -1.1989405 0
4.9578338 5.7198749 -1.1988866 0
4.9312463 5.7278914 -1.1970947 0
4.9204221 5.7542253 -1.1991438 0
4.8899603 5.7575727 -1.1964179 0
4.8795571 5.7845192 -1.198611 0
4.8404579 5.7773609 -1.1937581 0
4.8324795 5.8072801 -1.1965857 0
4.8737206 5.8969407 -1.2116864 0
4.8338251 5.8887653 -1.2066696 0
4.7710609 5.8522038 -1.1958932 0
4.763226 5.8827572 -1.1988665 0
4.741076 5.8957105 -1.1982599 0
4.7110004 5.8986993 -1.1956505 0
4.6695199 5.8871322 -1.1901257 0
4.6753173 5.9352059 -1.1966685 0
4.678319 5.9801555 -1.2025621 0
4.656168 5.9931374 -1.2020265 0
4.6380944 6.0113673 -1.2025571 0
4.6209726 6.0308771 -1.2033538 0
4.6015825 6.0474615 -1.2035778 0
4.5354714 6.0022316 -1.1915429 0
4.5633397 6.0813971 -1.2042143 0
4.4907451 6.0266371 -1.1903828 0
4.5151396 6.1019697 -1.2022656 0
4.4747462 6.0899782 -1.1969403 0
4.4705443 6.1272073 -1.2013047 0
4.4297996 6.1143131 -1.1958579 0
4.4186406 6.1421504 -1.198398 0
4.405262 6.1670656 -1.2003708 0
4.3722682 6.1644702 -1.1970055 0
4.3847713 6.2262325 -1.2061369 0
4.3309784 6.1938581 -1.1970457 0
4.320539 6.2232547 -1.1999205 0
4.272336 6.198081 -1.1922982 0
4.2654896 6.2327671 -1.1962128 0
4.262136 6.2728887 -1.2011636 0
4.2676892 6.3265896 -1.2086998 0
4.2138953 6.2922468 -1.1994326 0
4.1749725 6.2795634 -1.19434 0
4.1871128 6.3438544 -1.2038908 0
4.1611462 6.3507247 -1.2025402 0
4.1079164 6.3155761 -1.19327 0
4.1306562 6.3973622 -1.2060992 0
4.0821137 6.3689408 -1.1981539 0
4.0604506 6.3821411 -1.1980692 0
4.0459094 6.4066138 -1.2001101 0
4.0261378 6.4229045 -1.2006263 0
3.990725 6.4140983 -1.1964723 0
3.9795899 6.4442711 -1.199605 0
3.9363852 6.4223762 -1.1930656 0
3.9264877 6.4547019 -1.1966183 0
3.8956089 6.4525661 -1.1937944 0
3.9084561 6.5231767 -1.2044269 0
3.8830676 6.5303659 -1.2033436 0
3.8639863 6.5481534 -1.2042273 0
3.8147147 6.5144601 -1.195672 0
3.7751658 6.4967771 -1.1900967 0
3.7764726 6.5494785 -1.1974245 0
3.7564311 6.5654922 -1.1980429 0
3.732007 6.5738397 -1.1972761 0
3.7138851 6.5933104 -1.1985476 0
3.7086496 6.6359491 -1.2040315 0
3.6741741 6.6263337 -1.200045 0
3.664012 6.6605663 -1.204013 0
3.6316261 6.6544285 -1.2006956 0
3.6085744 6.6652365 -1.200456 0
3.5959301 6.6954026 -1.2037108 0
3.5713835 6.7035208 -1.2030109 0
3.5351231 6.6894107 -1.1983449 0
3.4975491 6.67237 -1.1931847 0
3.4805806 6.6944885 -1.1950465 0
3.4626317 6.7148781 -1.1966071 0
3.4168775 6.681046 -1.18853 0
3.4020526 6.7074375 -1.1911891 0
3.4167304 6.7927346 -1.2042959 0
3.3562064 6.7285109 -1.1909078 0
3.3595877 6.7922091 -1.2001817 0
3.3223 6.7738795 -1.1949679 0
3.3386505 6.8653431 -1.2091212 0
3.3065991 6.8578024 -1.2058339 0
3.2697709 6.8399472 -1.2007599 0
3.2215569 6.7975674 -1.1914172 0
3.2275033 6.869535 -1.2021276 0
3.1938162 6.8574791 -1.1981373 0
3.1820776 6.8925633 -1.2023963 0
3.1547894 6.8941007 -1.2008126 0
3.1393888 6.9216857 -1.2037772 0
3.1071744 6.9121742 -1.2003045 0
3.0744517 6.9011617 -1.1965954 0
3.0579298 6.9264565 -1.1991968 0
3.0571563 6.9880247 -1.2080748 0
3.0138116 6.9523344 -1.2001511 0
2.9958057 6.9747882 -1.2022866 0
2.9612389 6.9585576 -1.1977706 0
2.9281013 6.9452248 -1.1937791 0
2.9305544 7.0166702 -1.2043638 0
2.9020565 7.0144782 -1.2023107 0
2.8631849 6.986743 -1.1959046 0
2.8581846 7.0417371 -1.2036707 0
2.8506124 7.0912151 -1.2104877 0
2.8058071 7.0479479 -1.2014893 0
2.7860599 7.0672059 -1.203173 0
2.7573807 7.0637789 -1.2010089 0
2.7188022 7.0344863 -1.1944718 0
2.7109287 7.0846629 -1.2014419 0
2.6629541 7.0298123 -1.1906193 0
2.6455696 7.0552359 -1.1934162 0
2.6465495 7.1304784 -1.204636 0
2.5970678 7.0697336 -1.1928959 0
2.5894523 7.1226935 -1.2003603 0
2.5684583 7.1394014 -1.201718 0
2.5509679 7.1661229 -1.2047694 0
2.5093002 7.1245885 -1.1963655 0
2.4915085 7.150497 -1.1993065 0
2.4672754 7.1580992 -1.1991874 0
2.4394052 7.1550202 -1.1972946 0
2.4112623 7.1508813 -1.1952425 0
2.3904598 7.1684818 -1.1968379 0
2.3835235 7.2283502 -1.2054924 0
2.3503451 7.2089119 -1.2009296 0
2.3362789 7.2481389 -1.2061528 0
2.2880094 7.1807513 -1.1936556 0
2.2699835 7.2076325 -1.1968522 0
2.2383535 7.1912637 -1.1928812 0
2.2378027 7.2753658 -1.2055806 0
2.1967273 7.2279782 -1.1965009 0
2.1973338 7.3180733 -1.2101887 0
2.1622567 7.2899027 -1.2043245 0
2.1240773 7.2502613 -1.1965923 0
2.1016457 7.2638712 -1.1976688 0
2.0774913 7.2716179 -1.1977909 0
2.0495663 7.2660179 -1.1957299 0
2.033489 7.3026404 -1.2006278 0
2.0034745 7.2893386 -1.1973298 0
1.9798883 7.2992029 -1.197853 0
1.9648008 7.3409076 -1.2036091 0
1.925081 7.2902851 -1.1942441 0
1.9091412 7.3293843 -1.1995938 0
1.897229 7.3850727 -1.2076603 0
1.8486161 7.2972798 -1.1922835 0
1.8404281 7.3686533 -1.2029301 0
1.8119725 7.3595939 -1.2004527 0
1.7861034 7.3607502 -1.1996577 0
1.7546803 7.3385344 -1.1950715 0
1.739098 7.3827195 -1.2013106 0
1.719219 7.4095564 -1.2047328 0
1.6892532 7.3929014 -1.2010971 0
1.6512864 7.3399816 -1.1915933 0
1.6501507 7.4515185 -1.2087955 0
1.617027 7.4197011 -1.2027478 0
1.5966327 7.4460278 -1.2061409 0
1.5724686 7.4551797 -1.2067626 0
1.5386533 7.417933 -1.1998916 0
1.5139785 7.4240541 -1.2000539 0
1.4922043 7.4446836 -1.2025731 0
1.4543204 7.3840718 -1.1919879 0
1.4396461 7.4410644 -1.200402 0
1.4188528 7.4677625 -1.2039348 0
1.3836559 7.418056 -1.1951666 0
1.3585058 7.4211736 -1.1949283 0
1.3359541 7.4387026 -1.1970228 0
1.3199148 7.4937196 -1.2051572 0
1.2868332 7.4520688 -1.1977582 0
1.2708662 7.5096745 -1.2063254 0
1.2432309 7.4991179 -1.2039533 0
1.2152748 7.4859591 -1.2011797 0
1.1982366 7.5407629 -1.209322 0
1.1619416 7.4739475 -1.1979752 0
1.1375699 7.4823632 -1.198706 0
1.1087177 7.4608407 -1.1946558 0
1.0836916 7.4644814 -1.1946503 0
1.0649687 7.5125861 -1.2017709 0
1.0369182 7.4954681 -1.1984698 0
1.0112795 7.495182 -1.1978751 0
0.98578572 7.4958072 -1.19744 0
0.96271318 7.5151906 -1.2000141 0
0.93246657 7.4779239 -1.1935576 0
0.91938204 7.5798836 -1.2093326 0
0.88537413 7.5100698 -1.1977139 0
0.86153382 7.5247393 -1.1995859 0
0.83737713 7.537281 -1.201131 0
0.81105733 7.5303531 -1.1995869 0
0.78691399 7.5436621 -1.2012799 0
0.75682968 7.4988232 -1.1937288 0
0.73823696 7.5685081 -1.204421 0
0.70998967 7.5404873 -1.1995764 0
0.68659824 7.563695 -1.2028954 0
0.65746224 7.5227885 -1.1960325 0
0.63542163 7.5628657 -1.2020589 0
0.61058199 7.5714116 -1.2030851 0
0.58424968 7.5612078 -1.2011456 0
0.55842954 7.5568237 -1.200145 0
0.52957582 7.5088291 -1.192234 0
0.50914598 7.5812736 -1.2034588 0
0.48191077 7.5545049 -1.1989462 0
0.454303 7.5184083 -1.1929691 0
0.4296962 7.5304666 -1.1946471 0
0.40656352 7.5713072 -1.2009031 0
0.37932536 7.535861 -1.1950724 0
0.35477781 7.5524368 -1.1975057 0
0.32903925 7.544076 -1.1959984 0
0.30579194 7.5960202 -1.204064 0
0.28069681 7.6071548 -1.2056731 0
0.25309032 7.5454583 -1.1957535 0
0.23004684 7.6210165 -1.2075984 0
0.20350681 7.5849614 -1.2017704 0
0.17815889 7.5891867 -1.2023385 0
0.15303287 7.6056495 -1.2048585 0
0.12670332 7.5567145 -1.1970325 0
0.10160608 7.5749679 -1.1998632 0
0.07533507 7.4884868 -1.186118 0
0.050665002 7.553978 -1.1964576 0
0.025472907 7.5944295 -1.2028444 0
1.0082028e-05 7.598784 -1.2035273 0
-0.025306825 7.5508876 -1.195948 0
-0.051014092 7.6090364 -1.2051783 0
-0.076817453 7.6378546 -1.2097768 0
-0.10051449 7.49507 -1.1872075 0
-0.12657203 7.5500793 -1.1959814 0
-0.15256368 7.5833316 -1.2013229 0
-0.17834513 7.5979795 -1.2037314 0
-0.20299521 7.5666423 -1.1988678 0
-0.22815508 7.559011 -1.1977732 0
-0.25465026 7.592567 -1.2032188 0
-0.27911794 7.5649114 -1.1989777 0
-0.3062014 7.6066933 -1.2057558 0
-0.33057678 7.5797901 -1.2016602 0
-0.3538934 7.5340362 -1.1945879 0
-0.38310599 7.6113706 -1.207047 0
-0.40637589 7.5681882 -1.2004082 0
-0.43313089 7.5910139 -1.2042522 0
-0.45607081 7.547997 -1.1976638 0
-0.48472545 7.5989456 -1.205999 0
-0.50791532 7.5632486 -1.2005973 0
-0.53277606 7.554491 -1.1994839 0
-0.55591106 7.523015 -1.1947755 0
-0.57887441 7.4919009 -1.1901356 0
-0.6102168 7.5671334 -1.202405 0
-0.63766599 7.5898194 -1.2063427 0
-0.66454417 7.604054 -1.2089524 0
-0.68177605 7.5107942 -1.194482 0
-0.71025711 7.5435429 -1.2000622 0
-0.73321849 7.5172648 -1.1962661 0
-0.76176018 7.5478764 -1.2015373 0
-0.78270137 7.5034714 -1.1948795 0
-0.81407613 7.5585699 -1.2040814 0
-0.83335114 7.5012245 -1.1953846 0
-0.86241806 7.532639 -1.2008449 0
-0.88728422 7.5264435 -1.2003248 0
-0.90246093 7.4405422 -1.187101 0
-0.92702574 7.4344516 -1.1866186 0
-0.96866053 7.5617762 -1.2074524 0
-0.99910825 7.5972662 -1.2136476 0
-1.0195241 7.5564389 -1.2076647 0
-1.0450104 7.554112 -1.2078459 0
-1.0564232 7.4524465 -1.1921501 0
-1.088577 7.4982724 -1.2000579 0
-1.1119868 7.482975 -1.1981996 0
-1.1360654 7.4726 -1.1971414 0
-1.1644937 7.4904938 -1.2006269 0
-1.1915115 7.4985685 -1.2025547 0
-1.2123045 7.4677873 -1.1982634 0
-1.2471808 7.523067 -1.2077976 0
-1.258981 7.4395642 -1.1950625 0
-1.2853428 7.4435554 -1.1963893 0
-1.3148679 7.4651814 -1.200567 0
-1.3477101 7.5042758 -1.2075741 0
-1.3669049 7.4671669 -1.2023333 0
-1.3998591 7.5050344 -1.2091796 0
-1.4213268 7.4808912 -1.2060508 0
-1.4299352 7.3909769 -1.1923213 0
-1.4626701 7.4265699 -1.1988475 0
-1.4833401 7.4005618 -1.1954453 0
-1.5091096 7.4002795 -1.1962103 0
-1.5398695 7.4238958 -1.2008555 0
-1.5650578 7.4201422 -1.2010903 0
-1.5992408 7.4582877 -1.2081261 0
-1.6128969 7.4008446 -1.1996903 0
-1.6348985 7.3827376 -1.1976371 0
-1.6598258 7.3780308 -1.1977695 0
-1.689965 7.3961072 -1.2016172 0
-1.7214661 7.4193306 -1.2063212 0
-1.7388645 7.3818164 -1.2011628 0
-1.7626486 7.3719463 -1.2005117 0
-1.7978183 7.4091144 -1.2075393 0
-1.8141176 7.368391 -1.2018868 0
-1.844823 7.386333 -1.2058156 0
-1.8633287 7.3554392 -1.2017852 0
-1.8937925 7.3717775 -1.2054853 0
-1.900782 7.2973719 -1.1943535 0
-1.9464074 7.3711276 -1.2074863 0
-1.9596297 7.3216648 -1.2004533 0
-1.9826217 7.3093572 -1.1995184 0
-2.0017691 7.2832093 -1.1963221 0
-2.0225701 7.2635036 -1.1941924 0
-2.0690954 7.3353262 -1.2071346 0
-2.0698833 7.2450614 -1.1934155 0
-2.0860081 7.2098951 -1.1887683 0
-2.1355236 7.289403 -1.2030513 0
-2.1625457 7.2909479 -1.2044963 0
-2.1976068 7.3190527 -1.2103498 0
-2.1868184 7.1954432 -1.1911142 0
-2.2299023 7.2497487 -1.2013347 0
-2.243504 7.2078781 -1.1956362 0
-2.2989361 7.2996297 -1.2121277 0
-2.3030307 7.2279615 -1.2015023 0
-2.3260365 7.2164283 -1.2008748 0
-2.3443301 7.190527 -1.197866 0
-2.3825958 7.2256007 -1.2050328 0
-2.3916042 7.171977 -1.1974205 0
-2.4071727 7.1388159 -1.1932247 0
-2.4399209 7.1565948 -1.1975571 0
-2.4737697 7.1770029 -1.2023531 0
-2.5150399 7.2180924 -1.2106427 0
-2.5122094 7.1329088 -1.1977614 0
-2.5428822 7.1434689 -1.2009596 0
-2.5750134 7.1576819 -1.2047938 0
-2.5739825 7.0801997 -1.1931978 0
-2.6324308 7.1660571 -1.2091477 0
-2.6380641 7.1076751 -1.2007823 0
-2.664474 7.1057076 -1.2019525 0
-2.6902943 7.1020432 -1.2028517 0
-2.7110174 7.0849504 -1.2014894 0
-2.7241809 7.0484586 -1.1968431 0
-2.7588074 7.0674896 -1.2016386 0
-2.799567 7.1015239 -1.2090143 0
-2.8078465 7.0531254 -1.2023706 0
-2.8172433 7.0082593 -1.1963257 0
-2.8507922 7.0235777 -1.2005655 0
-2.8640368 6.9888749 -1.1962682 0
-2.8929546 6.9925308 -1.1985475 0
-2.9415026 7.0429363 -1.2088709 0
-2.9259689 6.9402184 -1.1929172 0
-2.9549069 6.9437294 -1.1952169 0
-2.9750931 6.9266162 -1.1939815 0
-3.0057747 6.9338455 -1.1969581 0
-3.0500503 6.9718328 -1.2052742 0
-3.0561655 6.9225101 -1.1985121 0
-3.0797417 6.9130855 -1.1986614 0
-3.095371 6.8859653 -1.1957519 0
-3.1224027 6.884284 -1.197271 0
-3.1616781 6.9092026 -1.2034415 0
-3.1630237 6.8513389 -1.1952033 0
-3.2139504 6.9007573 -1.2056974 0
-3.2313271 6.8777208 -1.2035586 0
-3.2305114 6.8165083 -1.1947355 0
-3.2448051 6.7877688 -1.1915984 0
-3.2785668 6.7997108 -1.1956178 0
-3.3366981 6.8613744 -1.2084208 0
-3.3289504 6.7874846 -1.1973662 0
-3.3473775 6.7675691 -1.1958262 0
-3.3879783 6.7922521 -1.2021881 0
-3.4225631 6.8043756 -1.2063582 0
-3.4421451 6.7865276 -1.2052332 0
-3.4598713 6.7651558 -1.2034911 0
-3.4711957 6.7315297 -1.1995728 0
-3.4876199 6.7080712 -1.1974695 0
-3.5385807 6.7506905 -1.2071887 0
-3.5305586 6.6808167 -1.1968036 0
-3.5859914 6.7309833 -1.2079375 0
-3.568922 6.6451569 -1.1946759 0
-3.5909388 6.6327047 -1.1945951 0
-3.6514702 6.6908321 -1.2072624 0
-3.650687 6.6363854 -1.1996402 0
-3.6766016 6.6307535 -1.2008436 0
-3.6973832 6.6158314 -1.2003795 0
-3.7088876 6.5844789 -1.1969404 0
-3.7316003 6.573164 -1.1971512 0
-3.7684805 6.5865927 -1.2018914 0
-3.770674 6.5394621 -1.1955914 0
-3.7943883 6.5298977 -1.196162 0
-3.8281617 6.5374632 -1.1998923 0
-3.8629074 6.5463653 -1.2038965 0
-3.8647981 6.4996805 -1.1976874 0
-3.9118509 6.5288825 -1.2054784 0
-3.9333017 6.5150385 -1.2053505 0
-3.9467859 6.4881086 -1.2028096 0
-3.9655116 6.4699354 -1.2018986 0
-3.9792552 6.443768 -1.1995093 0
-4.0269222 6.4723148 -1.2073299 0
-4.0517421 6.463789 -1.2082667 0
-4.0457773 6.4064422 -1.2000759 0
-4.0644307 6.3884349 -1.1992487 0
-4.0828919 6.3701921 -1.1983871 0
-4.1029215 6.354445 -1.1980059 0
-4.1410842 6.3666053 -1.2029095 0
-4.1413431 6.320538 -1.1968222 0
-4.1640592 6.3089623 -1.1972672 0
-4.1792121 6.2859759 -1.1955574 0
-4.2267785 6.3115201 -1.2031044 0
-4.24753 6.2967415 -1.2029952 0
-4.2592883 6.2687335 -1.2003658 0
-4.2783823 6.2516413 -1.1998329 0
-4.3436174 6.301528 -1.2121956 0
-4.3350859 6.2442431 -1.2039652 0
-4.3201947 6.1784706 -1.1940696 0
-4.3657498 6.1992579 -1.2009091 0
-4.3760042 6.1697726 -1.1980329 0
-4.3972926 6.1559439 -1.1982038 0
-4.4170203 6.1399322 -1.197963 0
-4.4364762 6.1235633 -1.1976647 0
-4.4738612 6.1317873 -1.2022003 0
-4.47264 6.0871453 -1.1963811 0
-4.5194311 6.1078033 -1.2034127 0
-4.533814 6.0844698 -1.2018037 0
-4.5371237 6.0464931 -1.1973004 0
-4.5678725 6.045145 -1.2000594 0
-4.5960011 6.0401597 -1.2021221 0
-4.6157851 6.0241394 -1.2020071 0
-4.6024609 5.9652162 -1.1933222 0
-4.6541557 5.9905796 -1.201511 0
-4.6853509 5.9891768 -1.2043736 0
-4.6993551 5.9657536 -1.2028251 0
-4.7151809 5.9447322 -1.2017674 0
-4.7252507 5.9165745 -1.1992712 0
-4.7737789 5.93641 -1.2065293 0
-4.8199959 5.9529023 -1.213159 0
-4.7825751 5.8663592 -1.1987832 0
-4.8368258 5.8924532 -1.2074226 0
-4.8356462 5.8509045 -1.2022244 0
-4.896194 5.8838787 -1.2123661 0
-4.8717947 5.8147945 -1.2014903 0
-4.8697805 5.7729607 -1.1962132 0
-4.9077134 5.7785063 -1.2007651 0
-4.8985395 5.7286654 -1.1938145 0
-4.9570603 5.7579064 -1.203365 0
-4.9569364 5.7188702 -1.1986734 0
-4.9504113 5.6728015 -1.1924895 0
-4.993257 5.683322 -1.1982136 0
-5.0263805 5.6824846 -1.2015833 0
-5.0459223 5.6661816 -1.2017066 0
-5.0565462 5.639924 -1.1997267 0
-5.0636349 5.6098733 -1.196939 0
-5.140708 5.6570125 -1.2106674 0
-5.1229134 5.5995941 -1.2020484 0
-5.1074214 5.5452142 -1.1940441 0
-5.1902776 5.5973945 -1.2090205 0
-5.1799083 5.5487809 -1.2022647 0
-5.2058725 5.5392451 -1.2039737 0
-5.2154851 5.512321 -1.2019155 0
-5.2478633 5.5094237 -1.2051135 0
-5.2475462 5.4722347 -1.2008207 0
-5.2776265 5.466794 -1.2035029 0
-5.2725468 5.4250131 -1.19819 0
-5.3093381 5.4263473 -1.2024096 0
-5.3330574 5.414156 -1.2036635 0
-5.3429127 5.3879075 -1.2018039 0
-5.35536 5.364367 -1.2005514 0
-5.3836918 5.3567052 -1.2028697 0
-5.3802166 5.3174691 -1.198103 0
-5.4389992 5.3396363 -1.2071997 0
-5.423986 5.2893014 -1.1999246 0
-5.4464393 5.2756872 -1.200972 0
-5.4404407 5.2346349 -1.1957724 0
-5.4789891 5.2364621 -1.2003794 0
-5.4740591 5.196744 -1.1954752 0
-5.4989476 5.1854296 -1.197107 0
-5.5065298 5.1578097 -1.1949862 0
-5.5541649 5.1675773 -1.2015569 0
-5.5921288 5.1680279 -1.2060145 0
-5.5742874 5.1169949 -1.1984601 0
-5.5511627 5.0615764 -1.1898329 0
-5.6221662 5.0919008 -1.2013857 0
-5.6292515 5.0640664 -1.1992649 0
-5.6623244 5.0595737 -1.2026901 0
-5.7109308 5.0686727 -1.2093977 0
-5.7194805 5.0420804 -1.2076215 0
-5.6880255 4.9805589 -1.1974474 0
-5.7095881 4.9657173 -1.198475 0
-5.7330871 4.9524913 -1.1999154 0
-5.7048759 4.8948169 -1.1905693 0
-5.8090968 4.9505205 -1.2088488 0
-5.7775536 4.8902955 -1.198866 0
-5.7768126 4.8565173 -1.1953268 0
-5.818265 4.8581643 -1.2005268 0
-5.8401017 4.8432579 -1.2016752 0
-5.833045 4.8044896 -1.1969019 0
-5.8437996 4.7805524 -1.1958131 0
-5.8938231 4.7885795 -1.2027572 0
-5.9325438 4.7871075 -1.2073767 0
-5.9099426 4.7362409 -1.1995384 0
-5.9857841 4.7641501 -1.211683 0
-5.9420328 4.6968718 -1.199632 0
-5.9655304 4.683033 -1.2011993 0
-5.9709044 4.6549802 -1.199132 0
-5.9900985 4.6377378 -1.1998571 0
-6.02072 4.6292424 -1.2028751 0
-6.0157237 4.59339 -1.1987933 0
-6.0418992 4.5813904 -1.2009417 0
-6.0051508 4.5218945 -1.190617 0
-6.0645156 4.5348139 -1.1993657 0
-6.0647831 4.5033889 -1.1964258 0
-6.0872016 4.488452 -1.1978729 0
-6.1232061 4.4833865 -1.2019932 0
-6.1680279 4.4845152 -1.2078334 0
-6.1915011 4.4699259 -1.2094884 0
-6.1740398 4.4259062 -1.2031718 0
-6.1603422 4.3848934 -1.1976308 0
-6.1733937 4.3630724 -1.1973174 0
-6.2097726 4.3576369 -1.2015326 0
-6.2366962 4.345396 -1.2039163 0
-6.2201982 4.3029938 -1.1979399 0
-6.1687474 4.2368913 -1.1852885 0
-6.2476664 4.2603374 -1.197701 0
-6.2831669 4.2537532 -1.2017657 0
-6.2648387 4.2107821 -1.1955531 0
-6.3264356 4.2214584 -1.2046001 0
-6.2766304 4.1578784 -1.1924558 0
-6.3646836 4.1855717 -1.2065114 0
-6.3124142 4.1209474 -1.1939772 0
-6.3103051 4.0894623 -1.1909782 0
-6.3445063 4.0814862 -1.1948436 0
-6.3670568 4.0658755 -1.1965165 0
-6.4230623 4.0713873 -1.2044692 0
-6.4208441 4.0398674 -1.2015064 0
-6.3815365 3.9853325 -1.1916438 0
-6.501236 4.0298505 -1.2114658 0
-6.4673734 3.9789069 -1.2026631 0
-6.4922094 3.9642422 -1.2048031 0
-6.4950151 3.9361205 -1.202868 0
-6.5500965 3.9395349 -1.210616 0
-6.4988832 3.8791206 -1.1987399 0
-6.5736189 3.8938966 -1.2101102 0
-6.4943614 3.8175919 -1.1931571 0
-6.5341291 3.8115487 -1.1981087 0
-6.5692186 3.8025548 -1.2021983 0
-6.5180092 3.743793 -1.1905228 0
-6.5935154 3.7578182 -1.2020061 0
-6.593955 3.7288351 -1.1998004 0
-6.6115618 3.7095909 -1.2007341 0
-6.6267447 3.6889517 -1.2012385 0
-6.6625361 3.6796699 -1.2054834 0
-6.6654754 3.6521819 -1.2037928 0
-6.6490746 3.6142626 -1.1986356 0
-6.6566429 3.5895159 -1.1978236 0
-6.6945748 3.5810499 -1.2024819 0
-6.6755261 3.5421259 -1.1969205 0
-6.7041726 3.5285707 -1.1999288 0
-6.7545438 3.5262127 -1.2068214 0
-6.7432432 3.4915929 -1.2027041 0
-6.7727256 3.4781125 -1.2058758 0
-6.7082629 3.4166334 -1.1923519 0
-6.7652869 3.4171584 -1.2004445 0
-6.7412133 3.3766782 -1.1941571 0
-6.771832 3.3636613 -1.1975765 0
-6.7775731 3.3382294 -1.1966058 0
-6.7854066 3.3138649 -1.1960204 0
-6.7891212 3.287533 -1.1947255 0
-6.8383884 3.2831318 -1.2014515 0
-6.8760004 3.2728667 -1.2061249 0
-6.8609991 3.237556 -1.2015828 0
-6.8128524 3.1869521 -1.1912726 0
-6.904233 3.2015285 -1.2053674 0
-6.8492737 3.1481845 -1.1939229 0
-6.8774247 3.1332364 -1.1969922 0
-6.902915 3.1169441 -1.199603 0
-6.9480767 3.1093333 -1.2056328 0
-6.9410882 3.0783148 -1.2026224 0
-6.9472423 3.0532112 -1.2019083 0
-6.9460793 3.0249536 -1.1999458 0
-6.9298635 2.9902909 -1.1954057 0
-6.9944181 2.9903693 -1.2048051 0
-6.9906044 2.961056 -1.2024313 0
-7.0132895 2.942971 -1.2046293 0
-6.9986463 2.9092679 -1.2004319 0
-7.0131726 2.8877676 -1.2012562 0
-7.0381393 2.8704875 -1.2038773 0
-7.0572929 2.8507388 -1.2055118 0
-7.044786 2.8182499 -1.2017546 0
-7.0236907 2.7825296 -1.1965579 0
-7.0407872 2.7620273 -1.197886 0
-7.0674753 2.7451899 -1.2008538 0
-7.0615606 2.7156794 -1.1982951 0
-7.0989347 2.7027662 -1.2030927 0
-7.1038265 2.677393 -1.2023937 0
-7.0777988 2.6405158 -1.196483 0
-7.1299248 2.6327639 -1.2037957 0
-7.1482449 2.6123276 -1.2054032 0
-7.1432815 2.5833981 -1.2030989 0
-7.1292348 2.5513213 -1.1992856 0
-7.1532125 2.5328796 -1.2018839 0
-7.1260772 2.4964149 -1.1959115 0
-7.1781178 2.4876568 -1.2032385 0
-7.1354156 2.4460919 -1.194699 0
-7.1858187 2.4364772 -1.2017636 0
-7.1917896 2.4116473 -1.2014033 0
-7.2220297 2.394881 -1.2051067 0
-7.1276331 2.3370821 -1.1880411 0
-7.2089529 2.3370066 -1.2002827 0
-7.2104177 2.3107946 -1.1992298 0
-7.239449 2.2933614 -1.2027726 0
-7.1639881 2.2430544 -1.1889794 0
-7.2282934 2.2366054 -1.1984006 0
-7.2108669 2.2047491 -1.1942791 0
-7.2450504 2.1886656 -1.1987185 0
-7.3049612 2.180064 -1.2074149 0
-7.2957139 2.1506908 -1.2046877 0
-7.3048596 2.1267929 -1.2050136 0
-7.2797966 2.0930448 -1.1997149 0
-7.2883658 2.0690773 -1.199977 0
-7.2926698 2.0439026 -1.1995506 0
-7.3047647 2.0209017 -1.2004188 0
-7.3231936 1.9995921 -1.2023388 0
-7.3136272 1.9706545 -1.1996766 0
-7.3395848 1.9512775 -1.2028546 0
-7.2998242 1.9145253 -1.1952797 0
-7.3194594 1.8934691 -1.1974486 0
-7.3315001 1.8703803 -1.1983857 0
-7.3346386 1.845011 -1.1978809 0
-7.3798261 1.8300911 -1.2042519 0
-7.3399506 1.7941011 -1.1967566 0
-7.3913083 1.7804136 -1.2041503 0
-7.3337579 1.7405564 -1.193817 0
-7.3728037 1.723732 -1.1992255 0
-7.3985357 1.7036065 -1.2024752 0
-7.4331975 1.6853644 -1.2071835 0
-7.40516 1.6529225 -1.2017233 0
-7.4109321 1.6281449 -1.2017674 0
-7.4904766 1.6193134 -1.2137792 0
-7.4183464 1.577704 -1.2012272 0
-7.430016 1.5541661 -1.2022662 0
-7.4201059 1.5261444 -1.1998279 0
-7.3955173 1.4952601 -1.1950346 0
-7.3980136 1.469964 -1.1946348 0
-7.4390216 1.4522029 -1.2004638 0
-7.4183555 1.4223652 -1.1963525 0
-7.4363956 1.3999912 -1.1984981 0
-7.4608879 1.3787168 -1.2016938 0
-7.4870977 1.3576161 -1.2051753 0
-7.3986912 1.3159789 -1.1902279 0
-7.4970436 1.3075564 -1.2053378 0
-7.4599853 1.2753352 -1.1986855 0
-7.5298772 1.2613144 -1.2092296 0
-7.5221486 1.2341062 -1.2073171 0
-7.4738231 1.2004589 -1.1989081 0
-7.4887376 1.1771121 -1.2006607 0
-7.4808383 1.1501824 -1.1987692 0
-7.4948235 1.1266229 -1.2003982 0
-7.5175085 1.1042715 -1.2034317 0
-7.4861898 1.0740421 -1.197835 0
-7.5010304 1.0505162 -1.1996392 0
-7.5267301 1.0283967 -1.2031912 0
-7.508779 1.0003102 -1.1997787 0
-7.5158768 0.97562045 -1.2003834 0
-7.5323687 0.95209211 -1.2025008 0
-7.5291805 0.92605263 -1.2014893 0
-7.5704727 0.90537548 -1.2075875 0
-7.5212069 0.87391585 -1.1992549 0
-7.5138025 0.84753287 -1.1976144 0
-7.5364461 0.82450676 -1.2007761 0
-7.5174141 0.79692769 -1.1973114 0
-7.5632992 0.77615762 -1.2041982 0
-7.5610027 0.75031304 -1.2034253 0
-7.5039372 0.71925145 -1.1939522 0
-7.5715337 0.7001195 -1.2043272 0
-7.6214662 0.6789726 -1.2119005 0
-7.5281048 0.64522219 -1.1967043 0
-7.6040335 0.626055 -1.2084337 0
-7.6229348 0.60188657 -1.21111 0
-7.5869603 0.57345659 -1.2050823 0
-7.601727 0.54894626 -1.2071286 0
-7.5311399 0.51847279 -1.1956369 0
-7.5413585 0.49377739 -1.1969897 0
-7.545114 0.46862292 -1.1973295 0
-7.6251569 0.44793522 -1.2097864 0
-7.5449853 0.41784623 -1.1968377 0
-7.6133432 0.39603215 -1.2074636 0
-7.6046681 0.3700192 -1.2058842 0
-7.5204768 0.34065226 -1.1923461 0
-7.566505 0.31731978 -1.1994683 0
-7.5623994 0.29175115 -1.1986556 0
-7.5499558 0.26592296 -1.1965352 0
-7.5572443 0.24081309 -1.1975557 0
-7.5396457 0.21495019 -1.194646 0
-7.5544019 0.19002409 -1.1968764 0
-7.5433292 0.1644402 -1.1950279 0
-7.5434866 0.13914143 -1.1949724 0
-7.5670433 0.11419787 -1.1986365 0
-7.5057497 0.088102899 -1.1888741 0
-7.6171017 0.06386859 -1.206471 0
-7.5419893 0.037950706 -1.1945471 0
-7.5764589 0.012721359 -1.1999931 0
-7.5769672 2.0106163e-05 -1.2000719 0
-9.7471018 -0.016366007 -1.1967936 0
-9.8166475 -0.049396608 -1.2053462 0
-9.7602625 -0.081838764 -1.1984499 0
-9.8283634 -0.11536586 -1.2068526 0
-9.7704477 -0.14745049 -1.1997949 0
-9.8081093 -0.18091294 -1.2044874 0
-9.7844458 -0.21329524 -1.2016625 0
-9.7757349 -0.24589971 -1.2006872 0
-9.7553329 -0.27811792 -1.1982892 0
-9.756382 -0.31088907 -1.1985394 0
-9.748806 -0.34337044 -1.1977434 0
-9.7577696 -0.37644672 -1.198993 0
-9.7649202 -0.40951568 -1.2000335 0
-9.8208914 -0.44485331 -1.2070885 0
-9.7602282 -0.47490194 -1.1998212 0
-9.7465677 -0.50699854 -1.1983442 0
-9.8134661 -0.54347616 -1.2067866 0
-9.7897158 -0.57509094 -1.2040964 0
-9.7346725 -0.60461521 -1.1975689 0
-9.7546949 -0.63869768 -1.2002889 0
-9.7248306 -0.66949493 -1.1968836 0
-9.7475882 -0.70390612 -1.1999681 0
-9.7734861 -0.73872405 -1.2034545 0
-9.7114925 -0.76679355 -1.1961308 0
-9.7749748 -0.80479282 -1.2042751 0
-9.7433786 -0.83508992 -1.2007208 0
-9.6976986 -0.86393774 -1.1954416 0
-9.7337008 -0.90004927 -1.2002449 0
-9.7174397 -0.93141538 -1.1986181 0
-9.7389135 -0.96643722 -1.2016598 0
-9.6786938 -0.99324274 -1.1946336 0
-9.7005482 -1.0283636 -1.1977499 0
-9.7477875 -1.0664332 -1.2040174 0
-9.7394018 -1.0985733 -1.2034298 0
-9.7001753 -1.1270981 -1.199043 0
-9.7163935 -1.1620126 -1.2015226 0
-9.7250595 -1.196135 -1.2030834 0
-9.7030725 -1.2264693 -1.2008654 0
-9.6743164 -1.255803 -1.1978208 0
-9.7225494 -1.2952259 -1.2043238 0
-9.6942148 -1.3245459 -1.2013572 0
-9.6548424 -1.3521568 -1.1970332 0
-9.6791897 -1.3886713 -1.2006223 0
-9.6564722 -1.4184709 -1.1983875 0
-9.6823807 -1.4554569 -1.2022017 0
-9.6901798 -1.4898696 -1.2037835 0
-9.679122 -1.5214062 -1.2030368 0
-9.6683207 -1.5529431 -1.2023346 0
-9.6123133 -1.5770248 -1.1960205 0
-9.6635246 -1.6187172 -1.203061 0
-9.6393385 -1.6479106 -1.2007312 0
-9.6193933 -1.6777146 -1.1989406 0
-9.6260843 -1.7121575 -1.2004833 0
-9.5857983 -1.738168 -1.1961793 0
-9.6337652 -1.7802484 -1.2029029 0
-9.5723562 -1.8021114 -1.1959829 0
-9.6134968 -1.8432527 -1.2018886 0
-9.6005058 -1.8741555 -1.2010432 0
-9.6077337 -1.9090291 -1.2027414 0
-9.579814 -1.9368913 -1.2000525 0
-9.6015825 -1.9748238 -1.2036021 0
-9.5875454 -2.005465 -1.2026786 0
-9.5265226 -2.0260623 -1.1958692 0
-9.4931421 -2.0522554 -1.192536 0
-9.5899715 -2.106869 -1.2055804 0
-9.5338144 -2.1280644 -1.1994109 0
-9.5425873 -2.1636364 -1.2014204 0
-9.5230608 -2.1928053 -1.199881 0
-9.5077143 -2.2228656 -1.1988797 0
-9.55091 -2.2667637 -1.2052779 0
-9.5308075 -2.2957749 -1.2037058 0
-9.5053778 -2.3233957 -1.2014711 0
-9.430234 -2.338563 -1.1929574 0
-9.4117022 -2.3674915 -1.1916106 0
-9.4513197 -2.4111795 -1.1976433 0
-9.460618 -2.4473648 -1.1998546 0
-9.4722891 -2.4842978 -1.2023845 0
-9.4743462 -2.5188181 -1.2037108 0
-9.4115801 -2.5359471 -1.1968099 0
-9.4636078 -2.5840304 -1.2045209 0
-9.3911028 -2.5980983 -1.1963946 0
-9.3587933 -2.6229711 -1.1933922 0
-9.4269648 -2.6761992 -1.2032225 0
-9.3481922 -2.6877377 -1.1943116 0
-9.3516684 -2.7227163 -1.1959153 0
-9.3442383 -2.7545719 -1.1961396 0
-9.4010696 -2.805618 -1.2046118 0
-9.3355494 -2.8201869 -1.1974211 0
-9.3693628 -2.8647172 -1.2029835 0
-9.343091 -2.8909738 -1.200848 0
-9.3142786 -2.9163134 -1.1983948 0
-9.3081627 -2.9487026 -1.1988732 0
-9.3116884 -2.9842098 -1.2006093 0
-9.2797155 -3.0083089 -1.1977806 0
-9.2861652 -3.0448439 -1.199924 0
-9.240859 -3.0643404 -1.1953906 0
-9.2241993 -3.0931823 -1.1945704 0
-9.265028 -3.1414695 -1.2012151 0
-9.2631102 -3.1754868 -1.20234 0
-9.2740936 -3.2140408 -1.2051578 0
-9.2308159 -3.2337494 -1.2009361 0
-9.227931 -3.2675161 -1.2019793 0
-9.1948814 -3.290549 -1.1991047 0
-9.2093077 -3.3305852 -1.2024355 0
-9.1392918 -3.3399563 -1.1947492 0
-9.1234818 -3.3688958 -1.1941522 0
-9.1393242 -3.4096096 -1.1977154 0
-9.1541538 -3.4501498 -1.2011681 0
-9.1294956 -3.4758584 -1.199455 0
-9.1062956 -3.5020278 -1.1979429 0
-9.0471296 -3.5141387 -1.1917027 0
-9.0678873 -3.5572371 -1.1960012 0
-9.1767902 -3.6355088 -1.2119658 0
-9.0259418 -3.6108065 -1.1936356 0
-9.0075397 -3.6385262 -1.1928086 0
-9.0734577 -3.7005868 -1.203174 0
-9.0776548 -3.7378457 -1.2053856 0
-9.0794916 -3.7742546 -1.207303 0
-8.9990749 -3.7762616 -1.1982868 0
-8.9537249 -3.7925878 -1.1939347 0
-8.985507 -3.8416324 -1.1998833 0
-8.9322414 -3.8543329 -1.1944896 0
-8.9698229 -3.9062755 -1.20126 0
-8.961401 -3.9384046 -1.2018937 0
-8.970212 -3.9782143 -1.2048576 0
-8.8957663 -3.9809434 -1.1966442 0
-8.8819771 -4.0105705 -1.1965915 0
-8.8723021 -4.0420685 -1.1971072 0
-8.9063416 -4.0936904 -1.2035451 0
-8.8503494 -4.1039529 -1.1978314 0
-8.8196259 -4.1256914 -1.1955386 0
-8.8492384 -4.1757627 -1.2014438 0
-8.8037262 -4.190434 -1.1971655 0
-8.8142166 -4.2317328 -1.2005146 0
-8.8221941 -4.2720189 -1.2035453 0
-8.7571325 -4.2768188 -1.1966189 0
-8.7448502 -4.3071933 -1.1969073 0
-8.7334185 -4.3380079 -1.1973265 0
-8.7676926 -4.3917432 -1.2040374 0
-8.7258854 -4.4074602 -1.2003187 0
-8.7033253 -4.4327526 -1.1992531 0
-8.6670723 -4.4509482 -1.1963073 0
-8.7104034 -4.5101714 -1.2043688 0
-8.6750526 -4.5288153 -1.2015736 0
-8.659627 -4.5577741 -1.2015469 0
-8.6240349 -4.5760317 -1.1987305 0
-8.6325912 -4.6177306 -1.2020651 0
-8.6409063 -4.6595063 -1.2053915 0
-8.6028461 -4.6762815 -1.2022626 0
-8.5837727 -4.7032652 -1.2017941 0
-8.600585 -4.7500396 -1.2063709 0
-8.5234976 -4.7448292 -1.1977829 0
-8.5573187 -4.8013091 -1.2047912 0
-8.5029907 -4.8083816 -1.1994053 0
-8.4932775 -4.8405428 -1.2003177 0
-8.4912853 -4.8771973 -1.2023405 0
-8.4432821 -4.8873458 -1.1978568 0
-8.4885054 -4.9515934 -1.2066213 0
-8.4553556 -4.9703269 -1.2042713 0
-8.4035597 -4.9778657 -1.1992644 0
-8.3794956 -5.0016403 -1.1982168 0
-8.373332 -5.0361142 -1.199743 0
-8.3590364 -5.0657582 -1.2001216 0
-8.2909784 -5.0625982 -1.1927807 0
-8.3313284 -5.1256638 -1.2010514 0
-8.3283968 -5.1624327 -1.2031171 0
-8.2706556 -5.1651063 -1.1972709 0
-8.2999411 -5.2221575 -1.2040381 0
-8.2337341 -5.2191181 -1.1969656 0
-8.2198124 -5.2490087 -1.1974934 0
-8.2293568 -5.2940297 -1.201463 0
-8.2146549 -5.323597 -1.2019157 0
-8.169733 -5.3334651 -1.1979527 0
-8.1488285 -5.3588691 -1.1975152 0
-8.1627188 -5.4072943 -1.202214 0
-8.1065645 -5.4092903 -1.1966081 0
-8.1063385 -5.4485083 -1.1992644 0
-8.0805311 -5.470583 -1.1981533 0
-8.1208239 -5.5376592 -1.206874 0
-8.0619373 -5.5371938 -1.2008748 0
-8.0182953 -5.5468764 -1.1971376 0
-8.0024128 -5.5756526 -1.1975507 0
-7.9817314 -5.6010885 -1.1972593 0
-7.9608545 -5.626368 -1.1969507 0
-7.9621739 -5.6674261 -1.1999993 0
-7.9712505 -5.7142501 -1.2042481 0
-7.9001279 -5.7034612 -1.1963855 0
-7.9022126 -5.745368 -1.1996117 0
-7.8438931 -5.7432661 -1.1936748 0
-7.8719149 -5.8044262 -1.200894 0
-7.8499427 -5.8289552 -1.2005168 0
-7.8017597 -5.833859 -1.1961327 0
-7.834795 -5.8996215 -1.2042234 0
-7.7696328 -5.8914785 -1.1972371 0
-7.7595291 -5.9248962 -1.1987345 0
-7.7217817 -5.9371638 -1.1959717 0
-7.7498221 -6.0001755 -1.2034237 0
-7.7192073 -6.0179753 -1.2017962 0
-7.6610684 -6.0140562 -1.1958772 0
-7.6745901 -6.0663695 -1.2011561 0
-7.6612215 -6.0976491 -1.2022568 0
-7.6226463 -6.1088057 -1.1994107 0
-7.5902848 -6.1247773 -1.1975431 0
-7.5985518 -6.1736274 -1.2021065 0
-7.5988455 -6.2162771 -1.2054435 0
-7.5593333 -6.226377 -1.2024803 0
-7.549818 -6.2611437 -1.2042992 0
-7.5218534 -6.2806354 -1.2031908 0
-7.4904346 -6.2971444 -1.2015356 0
-7.4718342 -6.3243856 -1.2019465 0
-7.4411926 -6.3413954 -1.2004309 0
-7.4169908 -6.3638215 -1.1999619 0
-7.3876438 -6.3817701 -1.1986691 0
-7.3695488 -6.409411 -1.199213 0
-7.3717718 -6.4548831 -1.2030898 0
-7.3469849 -6.4768276 -1.2025819 0
-7.3177133 -6.4947543 -1.2013481 0
-7.2430134 -6.4719992 -1.1926403 0
-7.2512426 -6.5232077 -1.19759 0
-7.2252254 -6.5437651 -1.1969099 0
-7.2371464 -6.5988646 -1.2025431 0
