# .PCD v0.7 - Point Cloud Data file format
VERSION 0.7
FIELDS x y z intensity
SIZE 4 4 4 4
TYPE F F F F
COUNT 1 1 1 1
WIDTH 1417
HEIGHT 1
VIEWPOINT 0 0 0 1 0 0 0
POINTS 1417
DATA ascii
-1.1337748 -4.2936535 -1.1899129 0
-1.1274401 -4.328403 -1.1984888 0
-1.1095821 -4.3191595 -1.1948926 0
-1.1055011 -4.363935 -1.2062477 0
-1.0893292 -4.3614745 -1.2045512 0
-1.0741968 -4.3630586 -1.2039872 0
-1.0615071 -4.374651 -1.2061973 0
-1.027318 -4.2965646 -1.1837106 0
-1.033165 -4.3859854 -1.2073849 0
-1.0081531 -4.3450294 -1.1951733 0
-0.98563755 -4.3136282 -1.1856202 0
-0.97717965 -4.3436251 -1.1929578 0
-0.96533519 -4.35918 -1.1963341 0
-0.94733584 -4.34689 -1.1920829 0
-0.93497574 -4.3603926 -1.1949195 0
-0.9297142 -4.4078956 -1.2070762 0
-0.90788454 -4.3770204 -1.1977808 0
-0.8987776 -4.4073706 -1.2052548 0
-0.88708431 -4.4257698 -1.2094662 0
-0.86169845 -4.3751926 -1.1948484 0
-0.85088205 -4.3979964 -1.2002901 0
-0.83083218 -4.372932 -1.1926826 0
-0.81870526 -4.389307 -1.1963935 0
-0.79867238 -4.3630104 -1.1884891 0
-0.78588551 -4.3759422 -1.1912873 0
-0.77291673 -4.3882461 -1.1939247 0
-0.76056165 -4.4044929 -1.1976445 0
-0.74015176 -4.3737011 -1.1885903 0
-0.72952747 -4.4005518 -1.1952157 0
-0.70905548 -4.3677769 -1.1856616 0
-0.69765407 -4.3905635 -1.1912055 0
-0.69134492 -4.44701 -1.2058842 0
-0.67974013 -4.4710689 -1.2117834 0
-0.65976143 -4.4397817 -1.2026975 0
-0.63675523 -4.3860598 -1.1875596 0
-0.62926275 -4.4390798 -1.2013372 0
-0.62015253 -4.482923 -1.2126329 0
-0.60060924 -4.4515543 -1.2035962 0
-0.58743858 -4.4669108 -1.2072089 0
-0.57220274 -4.4668579 -1.2066693 0
-0.55608815 -4.4596505 -1.204212 0
-0.53924656 -4.4459395 -1.2000147 0
-0.52334785 -4.4393306 -1.1977506 0
-0.50948501 -4.4500074 -1.2001635 0
-0.49858078 -4.487864 -1.2099158 0
-0.47729614 -4.4316201 -1.1943145 0
-0.46282232 -4.4369082 -1.1953146 0
-0.45114127 -4.470119 -1.2038474 0
-0.43639225 -4.4740767 -1.2045125 0
-0.42178887 -4.4797611 -1.2056553 0
-0.40136871 -4.4216833 -1.1896557 0
-0.38403687 -4.3943462 -1.1819476 0
-0.37645254 -4.4807267 -1.2048351 0
-0.36047843 -4.4701958 -1.2016717 0
-0.34555572 -4.4722471 -1.2019049 0
-0.33096606 -4.4788861 -1.2033842 0
-0.31789714 -4.5076184 -1.2108107 0
-0.30202836 -4.4974341 -1.2077963 0
-0.2841385 -4.4543839 -1.1959724 0
-0.27341336 -4.5250063 -1.2146811 0
-0.25678644 -4.5004163 -1.2078425 0
-0.24076194 -4.4838576 -1.2031748 0
-0.22698814 -4.5096941 -1.2098967 0
-0.2115424 -4.5035257 -1.2080446 0
-0.19555974 -4.4839864 -1.2026207 0
-0.18003708 -4.4725037 -1.1993724 0
-0.164436 -4.4566956 -1.1949787 0
-0.15018395 -4.4778342 -1.2005049 0
-0.13412136 -4.4435778 -1.1911935 0
-0.11988747 -4.4688034 -1.1978412 0
-0.10516464 -4.4802947 -1.2008201 0
-0.090593897 -4.5030608 -1.2068338 0
-0.075377278 -4.4962888 -1.2049444 0
-0.058940798 -4.3950419 -1.177752 0
-0.045293864 -4.5035071 -1.2067703 0
-0.030030217 -4.4791746 -1.2002163 0
-0.015208121 -4.5377016 -1.2158784 0
5.9349813e-06 -4.4731717 -1.198581 0
0.015194334 -4.5300012 -1.2138151 0
0.030302919 -4.5180612 -1.2106363 0
0.045100339 -4.4830823 -1.2012972 0
0.059806142 -4.4586859 -1.1948068 0
0.075118713 -4.4801559 -1.2006211 0
0.090280868 -4.4869094 -1.2025052 0
0.10485481 -4.4665899 -1.197147 0
0.11867252 -4.4230781 -1.1855849 0
0.13402495 -4.4399929 -1.1902325 0
0.1508638 -4.4977479 -1.2058438 0
0.1646322 -4.4616919 -1.1963185 0
0.18131772 -4.5040202 -1.2078241 0
0.19591805 -4.4919281 -1.2047509 0
0.21108329 -4.4934974 -1.2053548 0
0.22237732 -4.4178553 -1.1852576 0
0.23977676 -4.4652886 -1.1981925 0
0.25385654 -4.4488597 -1.1940056 0
0.26807547 -4.4364681 -1.1909145 0
0.28590429 -4.4818783 -1.2033547 0
0.29692134 -4.4212112 -1.1873267 0
0.31817177 -4.511342 -1.2118112 0
0.33128569 -4.4830499 -1.2045032 0
0.34256762 -4.4334211 -1.1914707 0
0.3574203 -4.432126 -1.1914381 0
0.37922508 -4.5135832 -1.2136703 0
0.39071789 -4.4706569 -1.2024732 0
0.40693635 -4.4828868 -1.2061229 0
0.41747534 -4.4338217 -1.1932918 0
0.434257 -4.4520631 -1.1985863 0
0.45363072 -4.4946661 -1.2104585 0
0.46376699 -4.4458499 -1.1977239 0
0.47470328 -4.4074359 -1.1877972 0
0.48947284 -4.4057741 -1.1877849 0
0.51453429 -4.4940038 -1.2120297 0
0.52276933 -4.4343224 -1.1963996 0
0.53610969 -4.4199786 -1.1930078 0
0.55821538 -4.4766135 -1.2087927 0
0.57455677 -4.4851398 -1.2116084 0
0.58211643 -4.4263496 -1.1962475 0
0.60088933 -4.4535413 -1.2041339 0
0.61666656 -4.4576368 -1.2057934 0
0.6257453 -4.4141817 -1.1945996 0
0.63904417 -4.4017444 -1.1918068 0
0.66014802 -4.4423022 -1.2033808 0
0.67180341 -4.4187851 -1.1976136 0
0.68673021 -4.4172487 -1.1978146 0
0.70297849 -4.423996 -1.2002765 0
0.72896022 -4.4903145 -1.2189257 0
0.73422968 -4.428843 -1.2029004 0
0.73954558 -4.370048 -1.1875981 0
0.76138818 -4.4092093 -1.1989275 0
0.7786417 -4.420681 -1.2027498 0
0.79341054 -4.4177752 -1.2026763 0
0.80350614 -4.3893504 -1.1956648 0
0.81863242 -4.3888521 -1.19627 0
0.82710582 -4.3532562 -1.1873168 0
0.85577935 -4.4232464 -1.2071818 0
0.86278021 -4.3806238 -1.1963322 0
0.88295656 -4.4051156 -1.2038225 0
0.89879209 -4.407382 -1.2052586 0
0.89899778 -4.3341184 -1.1860412 0
0.93230879 -4.4201388 -1.2104295 0
0.93389362 -4.3552899 -1.1935217 0
0.95190924 -4.3678193 -1.1978233 0
0.97551 -4.4050708 -1.2089292 0
0.98501343 -4.3783927 -1.2025073 0
0.99854475 -4.3700628 -1.2011323 0
1.007735 -4.3431754 -1.194664 0
1.0249326 -4.3509855 -1.1977509 0
1.0416545 -4.3564734 -1.2002162 0
1.0561074 -4.3523479 -1.2000484 0
1.0601473 -4.3059449 -1.1882274 0
1.0906976 -4.3669043 -1.2060515 0
1.0987698 -4.3373156 -1.1988903 0
1.1131324 -4.3329315 -1.1987035 0
1.1409309 -4.3801484 -1.2128174 0
1.1391499 -4.3139629 -1.1955422 0
1.1424787 -4.2685399 -1.1840088 0
1.1732216 -4.3252854 -1.2008334 0
1.1640186 -4.2351055 -1.1768736 0
1.2171726 -4.3710952 -1.2157903 0
1.2219205 -4.3318901 -1.2060184 0
1.2336557 -4.3180318 -1.2033049 0
1.239082 -4.2826114 -1.1945853 0
1.2542553 -4.2812371 -1.1953684 0
1.2718476 -4.2879486 -1.1984262 0
1.2869682 -4.2861619 -1.199126 0
1.3043365 -4.2917094 -1.2018949 0
1.3188217 -4.2876477 -1.2019889 0
1.3456572 -4.323256 -1.2132292 0
1.343573 -4.2661018 -1.1984475 0
1.3582816 -4.2628679 -1.1988118 0
1.378377 -4.2763166 -1.2038866 0
1.3912184 -4.2671061 -1.2026 0
1.4124547 -4.2834554 -1.2085357 0
1.4186224 -4.2541475 -1.201602 0
1.4307343 -4.2430105 -1.1998045 0
1.4238901 -4.1764126 -1.1823157 0
1.4552435 -4.2219763 -1.196589 0
1.4631503 -4.1991634 -1.1915071 0
1.4836911 -4.212604 -1.1967257 0
1.4883837 -4.1811347 -1.1891967 0
1.5025103 -4.1764445 -1.189289 0
1.5303824 -4.2095561 -1.2001723 0
1.5379025 -4.1864753 -1.1950551 0
1.5570499 -4.1950893 -1.1989975 0
1.5789982 -4.2108908 -1.2050201 0
1.5767119 -4.1622906 -1.1926185 0
1.5824338 -4.1354871 -1.1864519 0
1.6063174 -4.1561012 -1.1939045 0
1.6238354 -4.1598954 -1.1965517 0
1.6520799 -4.1907172 -1.2070037 0
1.6481043 -4.1398973 -1.1939515 0
1.6635714 -4.1383185 -1.1950982 0
1.6836776 -4.1480923 -1.1995442 0
1.7325559 -4.2277822 -1.2242619 0
1.6999393 -4.1088748 -1.1914729 0
1.7200814 -4.1184168 -1.1959054 0
1.7408409 -4.129137 -1.2007066 0
1.7510163 -4.1146789 -1.1982027 0
1.7866149 -4.1595693 -1.2130123 0
1.7841263 -4.1156664 -1.2019471 0
1.774737 -4.0566807 -1.1864519 0
1.7957804 -4.0675869 -1.191396 0
1.8173727 -4.079421 -1.1966401 0
1.8322642 -4.0760279 -1.1974401 0
1.8445438 -4.0668278 -1.1965474 0
1.875165 -4.0977621 -1.207492 0
1.8810464 -4.0744543 -1.2024757 0
1.9093244 -4.0995321 -1.2117592 0
1.9050086 -4.0546889 -1.2003855 0
1.942409 -4.0985327 -1.2152865 0
1.9212521 -4.0190167 -1.193612 0
1.9366324 -4.0165262 -1.1947941 0
1.9510678 -4.0120254 -1.1953943 0
1.9518529 -3.9796576 -1.1876935 0
1.9919147 -4.0271316 -1.2038481 0
2.0149102 -4.039485 -1.2095536 0
2.0146966 -4.0053787 -1.201357 0
2.0190833 -3.9807954 -1.1960073 0
2.0531633 -4.0145655 -1.2082148 0
2.0889659 -4.0510087 -1.2212837 0
2.0494547 -3.9418857 -1.1904505 0
2.0753849 -3.9592681 -1.1977948 0
2.1096447 -3.9920194 -1.209836 0
2.1165676 -3.9728177 -1.2061607 0
2.0976286 -3.9056563 -1.1878988 0
2.1524839 -3.9757569 -1.211408 0
2.1777225 -3.9903607 -1.2180756 0
2.142683 -3.8950424 -1.1911656 0
2.1687105 -3.9112461 -1.1983378 0
2.1489792 -3.8452046 -1.1803048 0
2.190583 -3.8889716 -1.195987 0
2.1908743 -3.8591719 -1.189075 0
2.2145588 -3.8706071 -1.1948794 0
2.2324576 -3.871717 -1.197526 0
2.2508564 -3.8735549 -1.2004219 0
2.2721579 -3.8802066 -1.2048374 0
2.2626529 -3.8344338 -1.1929735 0
2.3056977 -3.8776171 -1.208807 0
2.3120813 -3.8588424 -1.2053641 0
2.3251946 -3.8513803 -1.2054616 0
2.3060672 -3.7909136 -1.1889492 0
2.330734 -3.8026893 -1.1950866 0
2.3569453 -3.8166733 -1.2019582 0
2.3725841 -3.8133392 -1.2034066 0
2.382354 -3.8005733 -1.2018919 0
2.3944459 -3.7915554 -1.2015722 0
2.4225726 -3.8077548 -1.2092732 0
2.3927407 -3.73317 -1.1881275 0
2.4131961 -3.7374423 -1.1920556 0
2.4282289 -3.7331977 -1.1932918 0
2.4627867 -3.7586951 -1.2040745 0
2.4489198 -3.7103345 -1.1912061 0
2.4994564 -3.7594247 -1.2096502 0
2.506196 -3.7422867 -1.2068328 0
2.5026398 -3.7100112 -1.1991236 0
2.5278203 -3.7203729 -1.2052052 0
2.5015941 -3.655349 -1.1868513 0
2.5277643 -3.6671479 -1.1934273 0
2.5452611 -3.6661649 -1.1958779 0
2.5549777 -3.6539476 -1.1946803 0
2.57583 -3.6575949 -1.1986898 0
2.5669451 -3.6191416 -1.1889015 0
2.5874994 -3.6223226 -1.1927897 0
2.6151998 -3.6352696 -1.1999335 0
2.633291 -3.6346488 -1.2026362 0
2.6797693 -3.6728194 -1.2182322 0
2.6154349 -3.5595183 -1.1835535 0
2.6417401 -3.5701704 -1.1900338 0
2.6952136 -3.6170113 -1.2086524 0
2.6937723 -3.5898921 -1.2026017 0
2.7156625 -3.5939012 -1.206988 0
2.7235408 -3.5793138 -1.2051489 0
2.7326224 -3.5663724 -1.2038697 0
2.7511516 -3.5657279 -1.2067591 0
2.7621932 -3.5553279 -1.2063668 0
2.7492342 -3.5142639 -1.1955543 0
2.7918568 -3.5441966 -1.2089151 0
2.7752073 -3.4988632 -1.1966192 0
2.8041806 -3.5111477 -1.2040292 0
2.8323529 -3.52214 -1.2110482 0
2.7878084 -3.4430449 -1.1870594 0
2.8325305 -3.4743943 -1.2011353 0
2.8369987 -3.4561491 -1.1981095 0
2.8427904 -3.4396243 -1.1956784 0
2.8948593 -3.478806 -1.2126659 0
2.8927102 -3.4526136 -1.2069097 0
2.9228745 -3.4649503 -1.214641 0
2.8842494 -3.3959939 -1.1938515 0
2.9179833 -3.4124582 -1.2030721 0
2.9334521 -3.4073527 -1.2047328 0
2.916101 -3.3643188 -1.1929675 0
2.9538136 -3.3848312 -1.2037462 0
2.9756413 -3.3868546 -1.2080071 0
2.9796915 -3.368619 -1.2050594 0
2.9774513 -3.3434305 -1.1996131 0
3.0268373 -3.3760278 -1.2149433 0
3.0401819 -3.3681233 -1.2157601 0
3.0444708 -3.3502226 -1.2129765 0
3.043714 -3.32691 -1.2082239 0
3.0188019 -3.2775469 -1.193966 0
3.0539758 -3.2935071 -1.2035034 0
3.0745678 -3.2934973 -1.2072599 0
3.0636024 -3.2597713 -1.1986558 0
3.052316 -3.2260196 -1.1900014 0
3.1103823 -3.2653904 -1.2083644 0
3.1112745 -3.2444754 -1.2044781 0
3.0903325 -3.2010829 -1.1922091 0
3.134851 -3.2254844 -1.205205 0
3.1487813 -3.218158 -1.2064054 0
3.1216047 -3.1690571 -1.1919155 0
3.1623499 -3.1889644 -1.2033839 0
3.1712511 -3.1765676 -1.2027115 0
3.2109082 -3.1947961 -1.2136823 0
3.1755238 -3.1384723 -1.1963233 0
3.1990008 -3.140543 -1.2011943 0
3.2084894 -3.1288018 -1.2008114 0
3.2361877 -3.1347127 -1.2072374 0
3.2442982 -3.1215537 -1.206352 0
3.2700391 -3.1252744 -1.2120203 0
3.2250721 -3.0616744 -1.191542 0
3.2746739 -3.0879545 -1.206036 0
3.2498102 -3.0439885 -1.1931134 0
3.3063312 -3.0761838 -1.2100708 0
3.3049881 -3.0543251 -1.2058245 0
3.2418556 -2.9758906 -1.1791437 0
3.308677 -3.0168512 -1.1997625 0
3.3027966 -2.9912713 -1.1939868 0
3.3490562 -3.0127902 -1.2070515 0
3.3200531 -2.9666195 -1.1930066 0
3.327157 -2.952965 -1.1919949 0
3.3632953 -2.9649396 -1.2013738 0
3.3656731 -2.9470406 -1.1986868 0
3.3939092 -2.9517198 -1.2052118 0
3.3859029 -2.9248755 -1.1988795 0
3.401876 -2.9188137 -1.2010633 0
3.4234035 -2.9174137 -1.2052035 0
3.4165533 -2.8918581 -1.1993717 0
3.4180536 -2.873513 -1.1965096 0
3.4302735 -2.8642118 -1.1974189 0
3.4467278 -2.8583922 -1.1998104 0
3.4506481 -2.8421712 -1.1978512 0
3.4417503 -2.8155274 -1.1914787 0
3.485667 -2.8319991 -1.2033882 0
3.459388 -2.7914455 -1.1910778 0
3.5228984 -2.8232434 -1.2096786 0
3.5148995 -2.7975314 -1.2037045 0
3.5285711 -2.789139 -1.2051772 0
3.5118132 -2.7568121 -1.1962899 0
3.5232184 -2.7467232 -1.1970311 0
3.5825186 -2.7736924 -1.2140123 0
3.5307705 -2.7147422 -1.1933852 0
3.5106819 -2.6806152 -1.1835508 0
3.6071911 -2.735209 -1.2129884 0
3.5830622 -2.6980402 -1.2018259 0
3.5498683 -2.6544418 -1.1877002 0
3.6163166 -2.6852717 -1.2069131 0
3.6193082 -2.6687143 -1.2049185 0
3.6022379 -2.6375291 -1.1962849 0
3.6554284 -2.6576941 -1.210983 0
3.5907722 -2.5923271 -1.1866775 0
3.6883371 -2.643997 -1.2159842 0
3.6651225 -2.6087968 -1.2054403 0
3.60039 -2.5445766 -1.1813375 0
3.7039776 -2.5992093 -1.2124597 0
3.6687272 -2.5561581 -1.1981088 0
3.6715438 -2.5398772 -1.1962408 0
3.7082951 -2.5469601 -1.2054259 0
3.7429206 -2.552315 -1.2138927 0
3.7210677 -2.5191777 -1.2040594 0
3.7324119 -2.5086493 -1.2050017 0
3.7088661 -2.4748113 -1.1947144 0
3.7477403 -2.482631 -1.2045486 0
3.7553959 -2.4696262 -1.2043412 0
3.7378349 -2.440165 -1.1960789 0
3.7664297 -2.4408617 -1.2026035 0
3.8098838 -2.450923 -1.2138475 0
3.7773767 -2.4121432 -1.2009071 0
3.7902417 -2.4025068 -1.2024295 0
3.7982113 -2.389745 -1.2024093 0
3.7996032 -2.3728757 -1.2003245 0
3.8233719 -2.3699379 -1.2053162 0
3.8022232 -2.3392191 -1.1961699 0
3.8296711 -2.3384418 -1.2023317 0
3.8195987 -2.3147459 -1.196726 0
3.8527238 -2.3171947 -1.2046636 0
3.8436949 -2.2942507 -1.1994286 0
3.8891404 -2.3037264 -1.2111927 0
3.8635659 -2.2711129 -1.2008499 0
3.860148 -2.2517235 -1.1974343 0
3.8729494 -2.2418211 -1.199067 0
3.8451314 -2.2085404 -1.1881553 0
3.8891966 -2.216542 -1.1994684 0
3.89869 -2.204668 -1.2001097 0
3.8694258 -2.1710298 -1.1888542 0
3.9128363 -2.1781697 -1.1999413 0
3.9039922 -2.1561325 -1.1950053 0
3.8770382 -2.1243136 -1.184568 0
3.9447582 -2.1442535 -1.2030554 0
3.9569395 -2.1337192 -1.2045819 0
3.9546654 -2.1154091 -1.2017236 0
3.9102166 -2.0748012 -1.1860962 0
3.9324524 -2.0697329 -1.1907294 0
4.0010619 -2.0887427 -1.2093767 0
3.9814963 -2.0615709 -1.2013667 0
3.953064 -2.0300708 -1.1907271 0
3.9850674 -2.02965 -1.1983106 0
4.0040359 -2.0224323 -1.2019687 0
3.992682 -1.9999237 -1.1965407 0
4.0324087 -2.002939 -1.2064267 0
4.0107675 -1.9754523 -1.1979638 0
4.0256286 -1.9660281 -1.2004271 0
3.966305 -1.9206125 -1.1808101 0
4.0770512 -1.9573917 -1.2118198 0
4.0286026 -1.9175377 -1.1955017 0
4.0880127 -1.9290308 -1.2112057 0
4.0500388 -1.8945353 -1.198066 0
4.0451994 -1.8757669 -1.1947674 0
4.0833435 -1.8768455 -1.204168 0
4.0977716 -1.8668612 -1.2065703 0
4.0437722 -1.825913 -1.188861 0
4.0909562 -1.8307304 -1.2009217 0
4.1280727 -1.8307527 -1.2100087 0
4.1033106 -1.803332 -1.2009715 0
4.0625238 -1.7691789 -1.187291 0
4.1200118 -1.7778047 -1.2023435 0
4.0263658 -1.7214059 -1.1733239 0
4.1285949 -1.748763 -1.201399 0
4.1133552 -1.726065 -1.1952735 0
4.061439 -1.6882873 -1.1785362 0
4.1453443 -1.706888 -1.2012161 0
4.1617298 -1.6973381 -1.2043084 0
4.1694984 -1.6842237 -1.2049155 0
4.1270008 -1.6509843 -1.1910281 0
4.1139851 -1.6297977 -1.1856881 0
4.1406922 -1.6243376 -1.1918091 0
4.1590791 -1.6154809 -1.1955355 0
4.1790648 -1.6071391 -1.1997248 0
4.1554623 -1.5820899 -1.1914196 0
4.1520534 -1.5648733 -1.1889312 0
4.1538239 -1.5496554 -1.1879437 0
4.2138748 -1.5559837 -1.2036188 0
4.198328 -1.5342673 -1.1977022 0
4.252943 -1.5380822 -1.2118047 0
4.2178416 -1.5094157 -1.2003545 0
4.2466846 -1.503695 -1.2071213 0
4.2621484 -1.4931077 -1.2100871 0
4.2498207 -1.4728103 -1.2051783 0
4.2835336 -1.4684255 -1.2133356 0
4.2287111 -1.4338058 -1.1964384 0
4.2521043 -1.42586 -1.2016978 0
4.2290845 -1.4023848 -1.1938566 0
4.2062259 -1.3791686 -1.1860917 0
4.2628069 -1.3819091 -1.2007333 0
4.3330069 -1.3886293 -1.2191887 0
4.2762361 -1.3546425 -1.2019303 0
4.2633219 -1.3348396 -1.1970358 0
4.2570434 -1.3172177 -1.1940261 0
4.2736278 -1.3066651 -1.1974423 0
4.3105993 -1.3021815 -1.2065713 0
4.2801065 -1.2773257 -1.1968307 0
4.2999454 -1.267561 -1.201183 0
4.2765069 -1.2450827 -1.1934627 0
4.2870555 -1.2325768 -1.1952465 0
4.2779908 -1.2144567 -1.1915773 0
4.311892 -1.2084734 -1.1998848 0
4.3089414 -1.1920791 -1.1979446 0
4.3295684 -1.1821728 -1.2025706 0
4.3816032 -1.1806091 -1.2159173 0
4.346777 -1.1556072 -1.2051709 0
4.4003839 -1.1540765 -1.2189541 0
4.2987752 -1.1120368 -1.1897678 0
4.3376045 -1.1065786 -1.199481 0
4.3343873 -1.0902927 -1.1975737 0
4.3869963 -1.0878999 -1.2110947 0
4.380486 -1.0707082 -1.2082996 0
4.3697281 -1.0525651 -1.204352 0
4.3526406 -1.0330212 -1.1986812 0
4.3147788 -1.0087659 -1.1873162 0
4.3581223 -1.0035006 -1.1983106 0
4.3823333 -0.99361521 -1.2040449 0
4.4152274 -0.9855206 -1.2121679 0
4.3501549 -0.95569527 -1.1934164 0
4.3967142 -0.95048243 -1.2053083 0
4.3676381 -0.9288795 -1.1964769 0
4.3776102 -0.91567004 -1.198361 0
4.3754616 -0.89991933 -1.1969401 0
4.3934951 -0.8882851 -1.2010518 0
4.3838429 -0.87104493 -1.1976081 0
4.3664145 -0.85237426 -1.1920594 0
4.3883119 -0.84138495 -1.1972607 0
4.3726616 -0.82319427 -1.1922312 0
4.4347172 -0.81949073 -1.208395 0
4.4125733 -0.80010843 -1.2016233 0
4.3964534 -0.78196949 -1.1965129 0
4.395474 -0.76660085 -1.1955402 0
4.3989396 -0.75201666 -1.1957903 0
4.3903503 -0.7354067 -1.1927785 0
4.3702836 -0.71698987 -1.1866668 0
4.3904395 -0.70518833 -1.1914911 0
4.4511271 -0.69963533 -1.2073174 0
4.479332 -0.68868715 -1.2143344 0
4.4564199 -0.66987759 -1.2075074 0
4.3892708 -0.64474249 -1.1887203 0
4.4322181 -0.63587737 -1.1997674 0
4.3623543 -0.61093414 -1.1802945 0
4.4043317 -0.60176337 -1.1910995 0
4.5051632 -0.60016 -1.2178172 0
4.4448271 -0.57696182 -1.2009778 0
4.4657803 -0.56446302 -1.2061211 0
4.474977 -0.55038834 -1.2080997 0
4.47891 -0.53563416 -1.2086699 0
4.4340367 -0.51519465 -1.1960877 0
4.478292 -0.50512499 -1.207562 0
4.4231882 -0.48389634 -1.1922591 0
4.4224048 -0.46881112 -1.1916176 0
4.4494429 -0.45659688 -1.1984837 0
4.4453044 -0.44111606 -1.1969639 0
4.4587493 -0.42735863 -1.2001916 0
4.4496655 -0.41143677 -1.1973684 0
4.488625 -0.3998656 -1.2074846 0
4.5044074 -0.38605371 -1.2113751 0
4.4597235 -0.36716586 -1.1990205 0
4.4808927 -0.35378736 -1.2043862 0
4.4001098 -0.33256835 -1.1823668 0
4.3815417 -0.31639418 -1.1770858 0
4.4576445 -0.3068696 -1.1972474 0
4.4446888 -0.29100826 -1.1934988 0
4.4772587 -0.27806818 -1.2019875 0
4.4935627 -0.26395965 -1.2061203 0
4.4855351 -0.24839994 -1.2037352 0
4.4467297 -0.23129888 -1.1931065 0
4.4900393 -0.21845923 -1.2045237 0
4.4638624 -0.20218605 -1.1973127 0
4.4750795 -0.18766145 -1.200146 0
4.4706845 -0.17246346 -1.1988055 0
4.4833317 -0.15789907 -1.2020481 0
4.5025778 -0.14346357 -1.2070725 0
4.4936767 -0.12809974 -1.2045642 0
4.4228148 -0.11124013 -1.1854626 0
4.4860187 -0.09778069 -1.2023087 0
4.3740988 -0.080669694 -1.1722337 0
4.4527183 -0.067186281 -1.1932362 0
4.4614863 -0.052357327 -1.1955322 0
4.4928131 -0.037659835 -1.203886 0
4.4506145 -0.022383336 -1.1925519 0
4.4761839 -0.0075039212 -1.1993897 0
4.40592 0.0073861303 -1.1805626 0
4.5076528 0.022670198 -1.2078353 0
4.4730554 0.037494224 -1.1985918 0
4.5012131 0.052823532 -1.2061775 0
4.4705772 0.067455754 -1.1980221 0
4.5335093 0.083609641 -1.2149549 0
4.4458437 0.096905008 -1.1915413 0
4.441596 0.1117125 -1.1904966 0
4.5399122 0.12941776 -1.2169582 0
4.4921403 0.143131 -1.2042743 0
4.4614773 0.15712938 -1.1961886 0
4.4766002 0.17269166 -1.2003918 0
4.4557915 0.1868526 -1.1949732 0
4.4447527 0.2013205 -1.1921871 0
4.4621592 0.21710275 -1.1970444 0
4.4957376 0.23384808 -1.2062559 0
4.4797163 0.24807772 -1.2021737 0
4.4854183 0.26348126 -1.2039342 0
4.4320421 0.27525994 -1.1898484 0
4.4836149 0.29355687 -1.2039514 0
4.4867382 0.30887243 -1.2050613 0
4.4853921 0.32389331 -1.2049848 0
4.4370089 0.33535725 -1.1922822 0
4.4487824 0.35125214 -1.1957556 0
4.4354992 0.36517149 -1.1925076 0
4.4695792 0.38306874 -1.2020087 0
4.4529839 0.39669055 -1.1978967 0
4.435708 0.41014618 -1.1936126 0
4.4411283 0.42566967 -1.1954484 0
4.4326797 0.43986332 -1.1935645 0
4.4507046 0.45672637 -1.1988237 0
4.4576912 0.47255182 -1.2011256 0
4.4348269 0.48516962 -1.1953963 0
4.4679842 0.50396228 -1.2047825 0
4.4321032 0.51496994 -1.1955661 0
4.4048834 0.52678132 -1.1886933 0
4.4089761 0.54227072 -1.1902816 0
4.4563375 0.5632695 -1.2035708 0
4.426609 0.57459706 -1.1960554 0
4.4455867 0.59222347 -1.2017128 0
4.473208 0.61117393 -1.2097263 0
4.4810472 0.62755674 -1.2124087 0
4.4644971 0.64050841 -1.208505 0
4.4250793 0.65000248 -1.1984181 0
4.4600883 0.67042899 -1.2085013 0
4.4260526 0.68049562 -1.1998905 0
4.4022136 0.69194698 -1.1940501 0
4.368062 0.70159405 -1.1854181 0
4.4189935 0.72498119 -1.1998931 0
4.4330177 0.74255365 -1.2043704 0
4.423954 0.75629294 -1.20259 0
4.375701 0.76315224 -1.1901619 0
4.4275222 0.78749549 -1.2049685 0
4.4439855 0.80580419 -1.2101774 0
4.4161792 0.81606501 -1.2033436 0
4.4482985 0.83743358 -1.2128539 0
4.3974929 0.84314519 -1.1997656 0
4.3410826 0.84742922 -1.1851437 0
4.4348526 0.88118023 -1.2115432 0
4.3968272 0.88895881 -1.2019627 0
4.3892074 0.9027465 -1.2007004 0
4.3309216 0.90590411 -1.18558 0
4.3985248 0.93544823 -1.2049381 0
4.3731279 0.94538349 -1.1988424 0
4.3611813 0.9581176 -1.1964413 0
4.4139795 0.98524213 -1.2118254 0
4.3381915 0.98360687 -1.1919171 0
4.3370581 0.99865043 -1.1925189 0
4.3778253 1.0235057 -1.2046649 0
4.3329277 1.0283426 -1.1932523 0
4.356328 1.0493373 -1.2006588 0
4.3696465 1.0680587 -1.2053097 0
4.3562527 1.0802759 -1.2026075 0
4.3133864 1.0850101 -1.1917713 0
4.3513398 1.1100825 -1.2032791 0
4.3260384 1.1190895 -1.1973134 0
4.3290124 1.135358 -1.1991833 0
4.3077135 1.1452222 -1.1943403 0
4.3177547 1.1634053 -1.198199 0
4.304512 1.1753312 -1.195611 0
4.3336244 1.1989077 -1.2048069 0
4.3425593 1.2170684 -1.2084186 0
4.3343134 1.2304459 -1.2072653 0
4.2813187 1.2309275 -1.193647 0
4.3459296 1.2652948 -1.2128367 0
4.387526 1.2933785 -1.2256485 0
4.2812214 1.2776585 -1.1971424 0
4.2998295 1.2989281 -1.2035569 0
4.2857704 1.3103776 -1.2008445 0
4.298151 1.3299373 -1.2055563 0
4.2357035 1.3261923 -1.1892812 0
4.2634988 1.3506074 -1.1983501 0
4.2713709 1.3688763 -1.2018461 0
4.256052 1.3797194 -1.1988307 0
4.2333894 1.3880752 -1.1937513 0
4.248457 1.4088087 -1.1993253 0
4.281095 1.4355816 -1.209891 0
4.2670774 1.4468145 -1.2072935 0
4.2823577 1.4680225 -1.2130027 0
4.2191272 1.4621731 -1.1964741 0
4.2224126 1.4791876 -1.1988056 0
4.2576537 1.5075791 -1.2102393 0
4.2220201 1.510911 -1.2015436 0
4.2096028 1.522408 -1.1994556 0
4.2251472 1.5440683 -1.2053531 0
4.213675 1.55591 -1.2035618 0
4.1838875 1.5608711 -1.1965415 0
4.1367946 1.5591224 -1.184562 0
4.1916051 1.5958505 -1.2017821 0
4.2005162 1.6153888 -1.2058831 0
4.1323814 1.605111 -1.1878613 0
4.1277862 1.6192746 -1.1880944 0
4.139082 1.6397402 -1.1929213 0
4.1386795 1.6556561 -1.1943984 0
4.12468 1.6661199 -1.1919638 0
4.1405449 1.6886979 -1.1981778 0
4.1389074 1.7042376 -1.1993508 0
4.1249003 1.7146672 -1.196951 0
4.1134658 1.7261117 -1.1953057 0
4.1288848 1.7488859 -1.2014834 0
4.0913439 1.7491863 -1.1922591 0
4.1241074 1.7795721 -1.2035387 0
4.1148558 1.7919688 -1.2025853 0
4.0976624 1.8008496 -1.1993184 0
4.0738273 1.8066955 -1.1941085 0
4.0876355 1.8292445 -1.199947 0
4.0633364 1.8347471 -1.194613 0
4.0671105 1.8528926 -1.1975422 0
4.0161371 1.8459554 -1.1843491 0
4.0588713 1.8821067 -1.1988055 0
4.1113677 1.923224 -1.2162081 0
4.0813274 1.9258763 -1.2092251 0
4.0360136 1.9210652 -1.197701 0
4.0204306 1.9302082 -1.1949905 0
3.9696083 1.922212 -1.1817935 0
3.9959519 1.9515346 -1.1915776 0
4.0194392 1.9797236 -1.200554 0
4.0025582 1.988112 -1.1974961 0
3.9671924 1.9871562 -1.1889019 0
3.992245 2.0164766 -1.1984291 0
3.9956002 2.0350144 -1.2014778 0
3.9485273 2.027741 -1.1893606 0
3.9591672 2.050009 -1.1946292 0
3.9815149 2.0785382 -1.2034683 0
3.9597385 2.084094 -1.1989915 0
3.975523 2.1094537 -1.2059058 0
3.9523952 2.1141946 -1.2010338 0
3.98859 2.1507862 -1.2142169 0
3.9081106 2.1243329 -1.1918788 0
3.8988647 2.1362727 -1.1912367 0
3.9727023 2.1940804 -1.2160374 0
3.9636188 2.2064388 -1.2155145 0
3.9205866 2.1997347 -1.204573 0
3.8958521 2.2030632 -1.1992363 0
3.8754199 2.2086904 -1.1952195 0
3.8913987 2.2351153 -1.2024519 0
3.8726811 2.2416658 -1.198984 0
3.8469675 2.244035 -1.1933457 0
3.8660336 2.2725635 -1.2016169 0
3.8811851 2.2990141 -1.2087152 0
3.8551624 2.3010952 -1.203007 0
3.7899618 2.2794468 -1.1850393 0
3.8434591 2.329206 -1.2042018 0
3.8106496 2.326827 -1.1963598 0
3.8337908 2.35864 -1.2061009 0
3.8094077 2.3612821 -1.200914 0
3.8070242 2.3775101 -1.2026689 0
3.7972224 2.3891227 -1.2020961 0
3.7676275 2.3881724 -1.1952553 0
3.8012905 2.4274142 -1.2085098 0
3.7432649 2.4080667 -1.1926224 0
3.7631736 2.4387515 -1.2015638 0
3.7588124 2.4538598 -1.2027916 0
3.7280457 2.4516401 -1.19557 0
3.7136285 2.4600344 -1.1935849 0
3.7175827 2.4806275 -1.1975223 0
3.6872237 2.4782772 -1.1904128 0
3.7124529 2.5133455 -1.2012719 0
3.693054 2.5183108 -1.1977202 0
3.6775043 2.5258121 -1.1954169 0
3.6552551 2.528609 -1.1909337 0
3.7003872 2.578217 -1.2084481 0
3.7005308 2.5967906 -1.2113315 0
3.6867218 2.6055918 -1.2096641 0
3.6530416 2.6001976 -1.2014669 0
3.6840961 2.6409569 -1.214586 0
3.6456413 2.6319394 -1.2048106 0
3.6342926 2.6423273 -1.2039812 0
3.6165142 2.6479821 -1.201026 0
3.5827444 2.6417537 -1.1927459 0
3.607996 2.6790934 -1.2041361 0
3.572084 2.6710536 -1.195133 0
3.545501 2.6697567 -1.1892271 0
3.5821719 2.716238 -1.2045752 0
3.5519345 2.7121141 -1.1974584 0
3.5810761 2.7534213 -1.2103883 0
3.522079 2.7268982 -1.193531 0
3.5714927 2.784358 -1.2134326 0
3.495306 2.7438538 -1.1906667 0
3.5597005 2.813745 -1.2158093 0
3.5275712 2.8076167 -1.2080441 0
3.4829943 2.7912643 -1.1959766 0
3.4927611 2.8183749 -1.2025682 0
3.5086834 2.8506992 -1.2113343 0
3.4526148 2.8244152 -1.1952399 0
3.4908316 2.8752689 -1.2118005 0
3.4753032 2.8820901 -1.2097576 0
3.4350669 2.8682141 -1.199092 0
3.3998618 2.8582194 -1.1901414 0
3.4166536 2.891943 -1.199407 0
3.4162731 2.9113374 -1.2026933 0
3.368124 2.8898547 -1.1891469 0
3.3684433 2.9097929 -1.1926973 0
3.397763 2.9550714 -1.2065803 0
3.3600261 2.942096 -1.1966757 0
3.323761 2.9300878 -1.187252 0
3.3616889 2.9836133 -1.2043663 0
3.3417304 2.9859893 -1.200796 0
3.3386321 3.0034127 -1.2032944 0
3.3134823 3.0009489 -1.1978498 0
3.329186 3.0355513 -1.2071992 0
3.3152399 3.0432544 -1.2058353 0
3.2790987 3.0303993 -1.1963788 0
3.2711022 3.043407 -1.1971775 0
3.2625771 3.0559468 -1.1978005 0
3.2672858 3.0809879 -1.203315 0
3.2647583 3.0993497 -1.2062045 0
3.2350636 3.0918474 -1.1990567 0
3.2540905 3.1309752 -1.209993 0
3.1869116 3.0869815 -1.1888553 0
3.1892092 3.1100006 -1.1935955 0
3.1864011 3.1281734 -1.1964631 0
3.1832433 3.1461017 -1.1992315 0
3.1609967 3.1451349 -1.1948165 0
3.1768513 3.1821771 -1.2048353 0
3.0989003 3.1249807 -1.1792392 0
3.1433246 3.1911073 -1.2002088 0
3.1493144 3.218703 -1.2066097 0
3.1393545 3.230118 -1.2069362 0
3.1269879 3.2390521 -1.2063503 0
3.1033201 3.2361801 -1.2013987 0
3.08845 3.2423651 -1.1998439 0
3.0656316 3.240093 -1.1951927 0
3.0832536 3.2806809 -1.2063446 0
3.0791378 3.2983923 -1.2090542 0
3.0632708 3.3035312 -1.2071663 0
3.0062535 3.2639229 -1.189003 0
3.0293171 3.3111737 -1.202509 0
3.0415268 3.346983 -1.2118036 0
3.0367126 3.3642797 -1.2143728 0
2.9932432 3.3385582 -1.2014591 0
2.9985955 3.3671734 -1.208132 0
2.974824 3.3631163 -1.2030909 0
2.9641564 3.3737829 -1.2033446 0
2.9826157 3.4178362 -1.2154837 0
2.9400895 3.3919945 -1.2027812 0
2.4553876 3.7201343 -1.1943523 0
2.4601352 3.7546484 -1.2027781 0
2.4469383 3.7619617 -1.202486 0
2.4240665 3.7542779 -1.1974254 0
2.4484379 3.8200691 -1.2157842 0
2.4005115 3.7730799 -1.198261 0
2.4005454 3.8012137 -1.204633 0
2.3872147 3.8083277 -1.2043442 0
2.344769 3.7686331 -1.1892984 0
2.3660946 3.8314891 -1.206624 0
2.3444741 3.8251071 -1.2021319 0
2.3358285 3.8398378 -1.2042934 0
2.3120694 3.8296404 -1.1986572 0
2.3113964 3.8576989 -1.205007 0
2.2880743 3.8479788 -1.1995677 0
2.2555571 3.8224087 -1.1892322 0
2.2679842 3.8730788 -1.2026242 0
2.2406709 3.8560266 -1.1949899 0
2.2207785 3.8514619 -1.1912611 0
2.2231019 3.8855386 -1.1994889 0
2.2074392 3.8883507 -1.1980654 0
2.1918502 3.8912213 -1.1966789 0
2.1732402 3.8886154 -1.19363 0
2.1618352 3.8988466 -1.1945388 0
2.1672504 3.9397018 -1.2048231 0
2.1369014 3.9155622 -1.195243 0
2.1208465 3.9173212 -1.1936027 0
2.1399362 3.9844306 -1.2118578 0
2.1116824 3.9636481 -1.2033768 0
2.1211736 4.0138354 -1.2164477 0
2.0705404 3.9500265 -1.1949989 0
2.0838652 4.00807 -1.2104383 0
2.0697932 4.0138283 -1.2100747 0
2.0281706 3.9656971 -1.1935074 0
2.0156558 3.9740374 -1.1939769 0
2.0188196 4.0135756 -1.2038155 0
1.9955281 4.000628 -1.1979185 0
1.9801646 4.003376 -1.1967467 0
1.966007 4.0085168 -1.1963062 0
1.956458 4.023109 -1.1986967 0
1.9378895 4.0191336 -1.1955696 0
1.9302368 4.0378118 -1.1991938 0
1.9338963 4.0805707 -1.2099605 0
1.9210725 4.0888801 -1.2105076 0
1.8896379 4.0572629 -1.1992651 0
1.8823925 4.0773702 -1.2033361 0
1.8632108 4.0716386 -1.1997942 0
1.8730581 4.1296954 -1.2150445 0
1.8471109 4.109056 -1.2071429 0
1.8201624 4.0856833 -1.198477 0
1.8050852 4.0886631 -1.197569 0
1.7904752 4.0926547 -1.1969732 0
1.7798407 4.1057801 -1.19906 0
1.761151 4.1002841 -1.1957238 0
1.7510518 4.1147623 -1.198227 0
1.7330899 4.1107526 -1.1953605 0
1.7195692 4.1171904 -1.1955492 0
1.7044232 4.1197124 -1.1946156 0
1.7050167 4.1605816 -1.2048022 0
1.6900929 4.163898 -1.2041149 0
1.67186 4.1589375 -1.2010525 0
1.661428 4.1733656 -1.2036037 0
1.6549578 4.1980176 -1.2091063 0
1.6265851 4.1669393 -1.1985778 0
1.6093569 4.1639652 -1.1961637 0
1.5946949 4.1675296 -1.1956447 0
1.5878923 4.1918054 -1.2010752 0
1.5664402 4.1774011 -1.1954364 0
1.5514109 4.1798964 -1.1946553 0
1.5372738 4.1847639 -1.1945666 0
1.4963554 4.1159601 -1.1734873 0
1.5143751 4.2094245 -1.1986803 0
1.4951719 4.2002039 -1.1946205 0
1.4939835 4.2418275 -1.2050276 0
1.479362 4.2456899 -1.2047091 0
1.4639838 4.2473335 -1.2037758 0
1.447638 4.2460675 -1.2020346 0
1.4457932 4.2876692 -1.2124327 0
1.4225718 4.2659912 -1.2049472 0
1.3975205 4.2381654 -1.1957576 0
1.3976359 4.2867889 -1.2081474 0
1.3749106 4.2655625 -1.2008591 0
1.3507473 4.2392225 -1.192162 0
1.3371642 4.2457523 -1.1927309 0
1.3370805 4.295701 -1.2054965 0
1.3397293 4.3556213 -1.2210444 0
1.3078822 4.3033762 -1.205162 0
1.3002124 4.3302703 -1.2114662 0
1.2799463 4.3152533 -1.2060574 0
1.2528877 4.2765689 -1.194065 0
1.2582452 4.348845 -1.2130604 0
1.2204853 4.2719331 -1.1904587 0
1.2117367 4.2957869 -1.1959671 0
1.1920853 4.2810016 -1.1907314 0
1.1976293 4.3573928 -1.2108555 0
1.171563 4.319171 -1.1991358 0
1.158758 4.3293629 -1.2008801 0
1.1472894 4.3447871 -1.2040846 0
1.1268106 4.3259387 -1.1978074 0
1.1207769 4.3626885 -1.2069358 0
1.0932095 4.3153663 -1.1928234 0
1.0839478 4.3398795 -1.1985878 0
1.0702242 4.3468733 -1.1995217 0
1.0626419 4.3792768 -1.2074734 0
1.0328369 4.3195958 -1.1900564 0
1.0197791 4.3291082 -1.1917285 0
1.0142752 4.3713627 -1.2024175 0
1.0048547 4.3976779 -1.2087224 0
0.97428739 4.3307152 -1.1894128 0
0.96305895 4.3488464 -1.1934988 0
0.95959669 4.4030933 -1.2074966 0
0.93003529 4.337296 -1.1885908 0
0.93380642 4.4272394 -1.212374 0
0.91757029 4.4236574 -1.2105439 0
0.90160322 4.4211669 -1.2090282 0
0.88199157 4.400301 -1.2025068 0
0.86995083 4.4170313 -1.206275 0
0.85863334 4.4379978 -1.2112077 0
0.83076602 4.3725204 -1.1925709 0
0.81127954 4.349432 -1.1855252 0
0.79814416 4.3600597 -1.1876858 0
0.78039217 4.3452883 -1.1829427 0
0.77587897 4.4049959 -1.1984824 0
0.75776196 4.3882098 -1.1932174 0
0.74599969 4.4081864 -1.1979625 0
0.7212683 4.3506603 -1.1816655 0
0.71571636 4.4087338 -1.1967801 0
0.7007919 4.4102354 -1.1965431 0
0.68760848 4.4228983 -1.1993464 0
0.67576385 4.4448347 -1.2046738 0
0.65137619 4.3832746 -1.1873906 0
0.64285493 4.4279923 -1.1989137 0
0.63176888 4.4566736 -1.2060992 0
0.61095607 4.416358 -1.1946275 0
0.60091037 4.4536972 -1.2041759 0
0.58525413 4.4502087 -1.2026955 0
0.57306898 4.473526 -1.2084711 0
0.55858469 4.4795752 -1.2095925 0
0.54414988 4.4862661 -1.2108997 0
0.52574736 4.4595828 -1.203215 0
0.5054757 4.414885 -1.1906915 0
0.4936009 4.4429312 -1.1978023 0
0.47797379 4.4378014 -1.1959807 0
0.46471414 4.4549298 -1.20017 0
0.44827834 4.4416332 -1.1961763 0
0.44107696 4.5219822 -1.21741 0
0.42583683 4.5226254 -1.2171919 0
0.40374047 4.4476805 -1.1966506 0
0.38436145 4.3979254 -1.1829106 0
0.37646559 4.4807391 -1.2048388 0
0.35910255 4.4529867 -1.1970458 0
0.34620312 4.4804707 -1.2041153 0
0.3296786 4.4613028 -1.1986601 0
0.31602097 4.4808459 -1.2036195 0
0.29776192 4.4337277 -1.190688 0
0.28564084 4.4777484 -1.2022458 0
0.27039236 4.4748111 -1.201207 0
0.25617382 4.4894705 -1.2049049 0
0.23857558 4.4429193 -1.1921899 0
0.22531077 4.4761324 -1.2008927 0
0.21134114 4.4989862 -1.2068272 0
0.1950344 4.4716682 -1.1993171 0
0.18269296 4.5381818 -1.2169852 0
0.16569962 4.4906201 -1.204075 0
0.14927109 4.450264 -1.1931134 0
0.13613218 4.5098014 -1.2089462 0
0.1217338 4.5371761 -1.2161683 0
0.10525542 4.4836555 -1.201721 0
0.089640126 4.4550648 -1.1939708 0
0.074808523 4.4616561 -1.1956633 0
0.060915068 4.5413589 -1.216961 0
0.045442585 4.5171022 -1.2104132 0
0.030077551 4.4844599 -1.2016325 0
0.014998463 4.4716043 -1.1981677 0
5.9911063e-06 4.5154724 -1.2099154 0
-0.014954038 4.4618897 -1.1955646 0
-0.03019529 4.5037961 -1.2068138 0
-0.045055445 4.4798017 -1.200418 0
-0.059788771 4.4582729 -1.1946962 0
-0.075160943 4.4833846 -1.2014862 0
-0.089796945 4.4634476 -1.1962173 0
-0.10664149 4.5432129 -1.2176837 0
-0.12068481 4.4985237 -1.2058077 0
-0.13466623 4.4616299 -1.1960328 0
-0.14915569 4.447176 -1.1922854 0
-0.16362362 4.4346776 -1.189075 0
-0.17905208 4.4480343 -1.1928105 0
-0.19400136 4.4482541 -1.1930373 0
-0.20839924 4.4366112 -1.1900953 0
-0.22549863 4.4801016 -1.2019573 0
-0.23858017 4.4432249 -1.1922718 0
-0.25440466 4.4586735 -1.1966393 0
-0.26777545 4.4316983 -1.1896338 0
-0.28581575 4.4806771 -1.2030321 0
-0.29975528 4.4635859 -1.1987063 0
-0.31604823 4.4814019 -1.2037686 0
-0.3292872 4.4561672 -1.19728 0
-0.34554687 4.4721322 -1.2018741 0
-0.35569879 4.4109249 -1.1857386 0
-0.37447906 4.4572372 -1.198519 0
-0.39517581 4.5218034 -1.2162298 0
-0.40401569 4.4508433 -1.1975013 0
-0.42256373 4.4879909 -1.2078702 0
-0.43947944 4.5057278 -1.2130337 0
-0.45248058 4.4833894 -1.2074213 0
-0.46642801 4.4714742 -1.2046268 0
-0.47891298 4.4466324 -1.1983602 0
-0.49478361 4.4536843 -1.200701 0
-0.50834227 4.4400263 -1.1974716 0
-0.52250189 4.4321547 -1.1958144 0
-0.54931271 4.5289321 -1.2224153 0
-0.55542517 4.4543338 -1.2027762 0
-0.5718953 4.464458 -1.206021 0
-0.58347702 4.4367867 -1.1990676 0
-0.60017735 4.4483538 -1.2027308 0
-0.61468387 4.4433913 -1.2019396 0
-0.62668484 4.4208941 -1.1964158 0
-0.63891196 4.4009156 -1.1915821 0
-0.65763885 4.4254985 -1.1988282 0
-0.67769915 4.457644 -1.2081449 0
-0.68880135 4.4306488 -1.2014476 0
-0.69870007 4.3971462 -1.1929915 0
-0.72299522 4.4536457 -1.2089711 0
-0.73783648 4.4506721 -1.2088287 0
-0.7511676 4.4387956 -1.2062802 0
-0.75980592 4.400116 -1.1964544 0
-0.77696085 4.4112067 -1.2001716 0
-0.7858963 4.3760023 -1.1913036 0
-0.79905868 4.3651209 -1.189064 0
-0.83594531 4.4817357 -1.2215867 0
-0.83226454 4.3804712 -1.1947389 0
-0.85432875 4.4158115 -1.2051522 0
-0.8656677 4.3953462 -1.2003522 0
-0.87362158 4.3586025 -1.1911108 0
-0.89634204 4.3954272 -1.2019887 0
-0.91046774 4.3894744 -1.2011889 0
-0.92699784 4.3950171 -1.2035494 0
-0.92902464 4.3326392 -1.1873139 0
-0.9548946 4.3815737 -1.2015945 0
-0.96495724 4.3574734 -1.1958658 0
-0.97004783 4.311924 -1.1842512 0
-1.0100155 4.4203181 -1.2149444 0
-1.006444 4.3376637 -1.1931473 0
-1.033968 4.3893943 -1.2083234 0
-1.0384806 4.3432503 -1.1965725 0
-1.0578407 4.3595409 -1.202031 0
-1.0687658 4.3409996 -1.1979001 0
-1.0884795 4.3580728 -1.2036116 0
-1.0996138 4.3406954 -1.1998239 0
-1.1212839 4.3647103 -1.2074943 0
-1.1339139 4.3532562 -1.2053705 0
-1.1453462 4.3374748 -1.2020572 0
-1.1572694 4.3238468 -1.1993492 0
-1.1636124 4.2899046 -1.1910098 0
-1.1880841 4.3227091 -1.2012163 0
-1.2061642 4.3316069 -1.204806 0
-1.2188547 4.3210654 -1.2030039 0
-1.2206872 4.2726817 -1.1906664 0
-1.2428484 4.2956719 -1.1982275 0
-1.2638311 4.3139653 -1.2045054 0
-1.2739013 4.2949147 -1.2003721 0
-1.2947527 4.3121285 -1.2063898 0
-1.2987324 4.2733107 -1.1967412 0
-1.3175186 4.283452 -1.2008116 0
-1.3319353 4.279211 -1.2008679 0
-1.3529671 4.2959695 -1.2068371 0
-1.3554899 4.2541456 -1.1963577 0
-1.376147 4.2694373 -1.2019489 0
-1.4021405 4.3006444 -1.2120512 0
-1.4178984 4.3000026 -1.2132033 0
-1.4303071 4.2892256 -1.2115089 0
-1.4552001 4.3156047 -1.220331 0
-1.4463592 4.242353 -1.200982 0
-1.4680341 4.2591214 -1.2071155 0
-1.4728316 4.2269845 -1.1994002 0
-1.4898705 4.230185 -1.201719 0
-1.5001618 4.2142568 -1.1986163 0
-1.5251563 4.2394276 -1.2072229 0
-1.5209593 4.183671 -1.1927911 0
-1.5353918 4.1796751 -1.1931129 0
-1.5532758 4.1849546 -1.1960999 0
-1.5685304 4.1830091 -1.1970401 0
-1.5902933 4.1981773 -1.2028998 0
-1.5926888 4.1623201 -1.194149 0
-1.6120712 4.171021 -1.1981893 0
-1.6235689 4.159245 -1.1963634 0
-1.6369098 4.1522684 -1.1959286 0
-1.6485486 4.1410456 -1.1942815 0
-1.6755797 4.1682224 -1.2037327 0
-1.6865159 4.155117 -1.2015742 0
-1.7052454 4.161171 -1.2049714 0
-1.7152523 4.1459184 -1.2022134 0
-1.7179818 4.1134205 -1.1944532 0
-1.7471629 4.1441631 -1.2050745 0
-1.7506664 4.1138873 -1.1979707 0
-1.7613637 4.1008096 -1.1958755 0
-1.7838243 4.1149998 -1.2017511 0
-1.7951074 4.1032724 -1.2000772 0
-1.8061718 4.0911536 -1.1982973 0
-1.820048 4.0854549 -1.1984087 0
-1.8162007 4.0403223 -1.1869493 0
-1.851369 4.0819044 -1.200982 0
-1.8548255 4.0533428 -1.1944015 0
-1.8899455 4.0937591 -1.2081714 0
-1.8893243 4.0566177 -1.1990728 0
-1.8967332 4.0371032 -1.1951777 0
-1.9210445 4.0534811 -1.2019264 0
-1.9494102 4.0779476 -1.2111124 0
-1.9684609 4.0825658 -1.2144372 0
-1.9644994 4.0396719 -1.2036302 0
-1.9769073 4.0307684 -1.2029455 0
-2.0056043 4.0548353 -1.212128 0
-1.9990464 4.0077081 -1.200037 0
-2.0363052 4.0483651 -1.2142484 0
-2.0348814 4.0119691 -1.2053716 0
-2.0598309 4.0276289 -1.2121446 0
-2.0493472 3.9742045 -1.1981274 0
-2.0646229 3.9710858 -1.1992673 0
-2.0764785 3.9613805 -1.1984321 0
-2.0935788 3.9616439 -1.2006286 0
-2.0984869 3.938905 -1.1958629 0
-2.1325488 3.970701 -1.2076802 0
-2.1264558 3.9277065 -1.1967653 0
-2.1270418 3.8975203 -1.1897339 0
-2.1701581 3.9450123 -1.2064453 0
-2.1943421 3.9574976 -1.2125067 0
-2.1591148 3.8633647 -1.1858773 0
-2.1999469 3.9056196 -1.201105 0
-2.2199187 3.9103572 -1.2048442 0
-2.1968915 3.8397517 -1.1853524 0
-2.2108128 3.8342021 -1.1859208 0
-2.2476199 3.8680089 -1.1987014 0
-2.252274 3.8462739 -1.1942992 0
-2.2726023 3.8513179 -1.1982245 0
-2.2906573 3.8523462 -1.2009271 0
-2.3082819 3.8525243 -1.2033887 0
-2.3248348 3.8508077 -1.2052804 0
-2.3242865 3.8208869 -1.1983478 0
-2.3556278 3.8433275 -1.2078562 0
-2.349946 3.805362 -1.1983939 0
-2.3579617 3.7898595 -1.195995 0
-2.3818784 3.7998369 -1.2016571 0
-2.395411 3.7931058 -1.2020615 0
-2.3834929 3.7463524 -1.1897708 0
-2.3955162 3.7375221 -1.1895106 0
-2.4269629 3.7587857 -1.198861 0
-2.4031086 3.6945989 -1.180952 0
-2.4609637 3.755935 -1.2031882 0
-2.4616458 3.7296374 -1.1974012 0
-2.4951558 3.7529778 -1.2075737 0
-2.506762 3.7431533 -1.20711 0
-2.5140107 3.7268894 -1.2045766 0
-2.5115192 3.6964023 -1.1974379 0
-2.5199673 3.6822169 -1.1955727 0
-2.5440724 3.6908278 -1.2011315 0
-2.5542815 3.6791785 -1.2001207 0
-2.600251 3.7187154 -1.2158543 0
-2.5803201 3.6639912 -1.2007838 0
-2.5619423 3.6121087 -1.186589 0
-2.583313 3.6164818 -1.1908642 0
-2.6138291 3.6333849 -1.1993092 0
-2.6364787 3.6390688 -1.2040964 0
-2.650243 3.6323719 -1.2048138 0
-2.6494253 3.6057982 -1.1989393 0
-2.6569688 3.5907712 -1.1968981 0
-2.6686871 3.5814321 -1.1967609 0
-2.6735165 3.5629179 -1.1935629 0
-2.7122824 3.5894477 -1.20549 0
-2.7121201 3.5643241 -1.2000995 0
-2.7194016 3.5491371 -1.1980493 0
-2.736428 3.5466642 -1.2003047 0
-2.7684872 3.5634484 -1.2091198 0
-2.7247629 3.4830022 -1.1849165 0
-2.7725549 3.5197127 -1.2005612 0
-2.784004 3.5099728 -1.2004161 0
-2.8035529 3.5103807 -1.2037636 0
-2.7872696 3.4660957 -1.1917756 0
-2.8113847 3.4721811 -1.1971022 0
-2.8206921 3.459892 -1.1961192 0
-2.8498042 3.4717681 -1.2035214 0
-2.8526757 3.4516034 -1.1998399 0
-2.8564043 3.4326127 -1.1965609 0
-2.9210496 3.4864571 -1.2187374 0
-2.9093935 3.4489877 -1.2090425 0
-2.9328697 3.453259 -1.2139802 0
-2.9163444 3.4105597 -1.2024 0
-2.9261398 3.3988771 -1.2017335 0
-2.9141228 3.3620548 -1.192162 0
-2.9568477 3.3883262 -1.2049863 0
-2.9360974 3.3418641 -1.1919572 0
-2.9753041 3.363677 -1.2032887 0
-3.0030169 3.3721566 -1.2099171 0
-2.9927442 3.3380194 -1.2012622 0
-3.0010257 3.3247609 -1.2001052 0
-3.0051599 3.3069816 -1.1973177 0
-3.0416255 3.3246448 -1.2073984 0
-3.0771887 3.340956 -1.2170621 0
-3.0672274 3.3078156 -1.208729 0
-3.0544858 3.2720025 -1.1993779 0
-3.0834215 3.2808771 -1.2064136 0
-3.0941181 3.2702179 -1.206302 0
-3.114732 3.2699742 -1.2100576 0
-3.0682149 3.1995893 -1.1878116 0
-3.1312242 3.2434576 -1.2079879 0
-3.1316519 3.2222099 -1.2039783 0
-3.1578083 3.2274013 -1.2098672 0
-3.1415303 3.1893024 -1.1995269 0
-3.1535034 3.1800604 -1.2000207 0
-3.1629646 3.1682842 -1.199572 0
-3.2216825 3.2055335 -1.2177582 0
-3.1669834 3.130048 -1.193109 0
-3.1960433 3.137656 -1.2000868 0
-3.2307186 3.1504958 -1.209134 0
-3.2072954 3.1067429 -1.1964624 0
-3.2444375 3.1217041 -1.2064068 0
-3.2277834 3.0849059 -1.1963614 0
-3.3009899 3.1337624 -1.2195939 0
-3.2637396 3.0776603 -1.2020121 0
-3.2468886 3.0412681 -1.1920438 0
-3.2698655 3.0422726 -1.1967279 0
-3.2603967 3.0131319 -1.1895583 0
-3.2693775 3.0011706 -1.189157 0
-3.2908611 3.0006227 -1.1933051 0
-3.3347375 3.0202155 -1.2055366 0
-3.3351998 3.0003409 -1.2020602 0
-3.329787 2.9753332 -1.1965072 0
-3.3545489 2.9772923 -1.2018113 0
-3.3945274 2.9924886 -1.2125328 0
-3.384187 2.9632676 -1.2052834 0
-3.3633337 2.9251437 -1.1943568 0
-3.3974886 2.9348993 -1.2029845 0
-3.416208 2.9311264 -1.2061261 0
-3.4464951 2.937108 -1.2133356 0
-3.4268088 2.9005544 -1.2029747 0
-3.4114087 2.8679421 -1.1941861 0
-3.4795318 2.9053571 -1.2146163 0
-3.4358091 2.8493526 -1.1960123 0
-3.4873104 2.8723841 -1.2105807 0
-3.4503002 2.8225372 -1.1944412 0
-3.4514394 2.8042054 -1.191574 0
-3.4821315 2.8098128 -1.198911 0
-3.4748538 2.7847555 -1.1931838 0
-3.4791715 2.7691102 -1.1914717 0
-3.5233707 2.7850437 -1.2034036 0
-3.5320196 2.7726896 -1.2031755 0
-3.4993575 2.7281361 -1.1889267 0
-3.5664237 2.7612462 -1.2085606 0
-3.5358245 2.718643 -1.1950959 0
-3.570261 2.7261226 -1.2036391 0
-3.546165 2.6889501 -1.1924696 0
-3.5413523 2.6666477 -1.187838 0
-3.6127505 2.7014773 -1.2087414 0
-3.5885549 2.6646721 -1.1976502 0
-3.5777459 2.6380827 -1.1910841 0
-3.5769839 2.6190529 -1.1879004 0
-3.6968832 2.687849 -1.2247187 0
-3.6186938 2.6124997 -1.1959074 0
-3.643636 2.6119676 -1.2012492 0
-3.6843138 2.6224718 -1.2117546 0
-3.677753 2.5992675 -1.2067236 0
-3.6758516 2.5794868 -1.2032552 0
-3.650629 2.5435629 -1.1922005 0
-3.6931114 2.5548117 -1.2032701 0
-3.6530447 2.5090268 -1.1874682 0
-3.6646512 2.4989569 -1.1885108 0
-3.70245 2.5065877 -1.1980373 0
-3.7233324 2.5025611 -1.2020725 0
-3.7529607 2.5042486 -1.2089205 0
-3.7289155 2.470175 -1.1985003 0
-3.7623827 2.4742351 -1.2065839 0
-3.7236514 2.4309196 -1.1915424 0
-3.7803242 2.4498804 -1.2070421 0
-3.7336605 2.4019022 -1.1895645 0
-3.7558813 2.3984308 -1.1940753 0
-3.8002422 2.40886 -1.2056041 0
-3.7656991 2.369303 -1.1921188 0
-3.8064687 2.3771772 -1.2024953 0
-3.7754469 2.3402452 -1.1902099 0
-3.785727 2.3290839 -1.1909821 0
-3.8057442 2.3238456 -1.1948216 0
-3.8316028 2.3220346 -1.200489 0
-3.8539276 2.3179326 -1.205042 0
-3.8534002 2.3000574 -1.202459 0
-3.8547993 2.2833984 -1.2004998 0
-3.8632798 2.2709587 -1.2007629 0
-3.9068692 2.278991 -1.2119293 0
-3.8614423 2.2351739 -1.1955062 0
-3.8841512 2.2309661 -1.2002143 0
-3.8763528 2.2092357 -1.1955091 0
-3.9192455 2.2163057 -1.2064391 0
-3.9291012 2.2045257 -1.2071909 0
-3.8925154 2.1668711 -1.1937113 0
-3.9257574 2.1681669 -1.2016695 0
-3.9533386 2.1661339 -1.2078822 0
-3.9134862 2.1272683 -1.1935199 0
-3.9454005 2.1275105 -1.2010709 0
-3.9626412 2.119689 -1.204149 0
-3.9801838 2.1119404 -1.2073213 0
-3.928596 2.0677166 -1.1895634 0
-3.9546854 2.0645454 -1.1953604 0
-3.9407439 2.040483 -1.1890719 0
-3.9722633 2.0399437 -1.196512 0
-4.0052366 2.0399356 -1.2043771 0
-3.9654164 2.002939 -1.1903771 0
-4.0200996 2.0136704 -1.2047589 0
-4.0344186 2.0039508 -1.2070298 0
-4.0058408 1.9730388 -1.1964937 0
-4.0155244 1.9611065 -1.1974156 0
-4.0101113 1.9418381 -1.1938533 0
-4.0237608 1.9318202 -1.1959819 0
-3.9970243 1.9025201 -1.1861323 0
-4.0278149 1.9006381 -1.1933717 0
-4.0857573 1.9112571 -1.2086337 0
-4.0954046 1.8990602 -1.2095971 0
-4.0395551 1.856732 -1.1912564 0
-4.0776653 1.8577142 -1.2006514 0
-4.0676389 1.8367027 -1.1958792 0
-4.0617414 1.8176695 -1.1923468 0
-4.1159678 1.8253975 -1.206462 0
-4.1360373 1.8177279 -1.2105515 0
-4.1020932 1.7864238 -1.1988567 0
-4.0641413 1.7537093 -1.1860402 0
-4.1154633 1.7595109 -1.199289 0
-4.1111946 1.7414056 -1.196337 0
-4.16113 1.7461257 -1.2091575 0
-4.1175275 1.7116153 -1.194813 0
-4.1077189 1.691408 -1.1903144 0
-4.1575332 1.6956394 -1.2030952 0
-4.1500053 1.6763626 -1.1992837 0
-4.1731806 1.669471 -1.2043566 0
-4.1839485 1.6575274 -1.2058536 0
-4.151351 1.6285316 -1.1948782 0
-4.1825404 1.6246067 -1.2022809 0
-4.1911941 1.6118166 -1.2032082 0
-4.175869 1.589872 -1.1972717 0
-4.2195172 1.5903127 -1.2082505 0
-4.1936531 1.564527 -1.1993356 0
-4.235507 1.5639843 -1.2097988 0
-4.1715059 1.5244776 -1.1900513 0
-4.2037368 1.5202992 -1.1977853 0
-4.2352309 1.5156515 -1.2053044 0
-4.2673802 1.5110358 -1.2130051 0
-4.2543497 1.4903883 -1.2078739 0
-4.3016033 1.4907687 -1.2198641 0
-4.267293 1.4628707 -1.2087364 0
-4.3124185 1.4622008 -1.2201231 0
-4.2474761 1.4243207 -1.2003909 0
-4.224236 1.4007895 -1.1924889 0
-4.2576952 1.3960571 -1.2006061 0
-4.2774229 1.3866599 -1.2048514 0
-4.3154373 1.3830112 -1.2142462 0
-4.2733078 1.3537272 -1.2011081 0
-4.2557096 1.3324685 -1.1948994 0
-4.3295913 1.3396783 -1.2143756 0
-4.27596 1.3073905 -1.1980968 0
-4.2712231 1.2902987 -1.1955506 0
-4.301456 1.2837095 -1.2028015 0
-4.3052936 1.26915 -1.202678 0
-4.3007283 1.252147 -1.2002231 0
-4.3240252 1.2432184 -1.2055546 0
-4.3081865 1.2230411 -1.1999888 0
-4.2705874 1.1969093 -1.1883916 0
-4.3567295 1.2053123 -1.2112312 0
-4.3793154 1.1957685 -1.2163891 0
-4.3385148 1.1690114 -1.2039609 0
-4.3240647 1.1495814 -1.1988746 0
-4.340497 1.1383823 -1.2023655 0
-4.3207145 1.1177245 -1.1958407 0
-4.3736248 1.1157801 -1.2094425 0
-4.3140793 1.0851965 -1.1919634 0
-4.3568892 1.0804461 -1.2027841 0
-4.401772 1.0759233 -1.2141719 0
-4.3830686 1.0557908 -1.2080296 0
-4.3897567 1.0418423 -1.2089034 0
-4.3307238 1.0125059 -1.1917046 0
-4.3822184 1.0090612 -1.2049369 0
-4.3638954 0.98944688 -1.1989799 0
-4.3738232 0.97629094 -1.2008014 0
-4.4218154 0.97145081 -1.2130762 0
-4.3794684 0.94676638 -1.2005813 0
-4.3966956 0.93507147 -1.2044376 0
-4.3693533 0.91395497 -1.1961013 0
-4.3836222 0.90160978 -1.1991731 0
-4.3462267 0.87874025 -1.1881306 0
-4.4058666 0.87543303 -1.2036253 0
-4.3985529 0.85866016 -1.200834 0
-4.5007658 0.86295843 -1.227942 0
-4.4152083 0.83121622 -1.2038324 0
-4.4146714 0.81579858 -1.2029334 0
-4.3999405 0.79782981 -1.1981838 0
-4.4338646 0.78863573 -1.2066951 0
-4.3846364 0.7647227 -1.1925929 0
-4.3905621 0.75059646 -1.1935135 0
-4.3876281 0.73496264 -1.1920394 0
-4.4670987 0.73288554 -1.2129557 0
-4.4809923 0.7197451 -1.2160661 0
-4.4119811 0.69349426 -1.1967 0
-4.4382291 0.68237978 -1.203192 0
-4.4369507 0.66696304 -1.2022325 0
-4.4307961 0.65085417 -1.1999668 0
-4.4470458 0.63801676 -1.2037815 0
-4.4206038 0.61910379 -1.1960553 0
-4.4902949 0.61352068 -1.2143477 0
-4.4550562 0.59349698 -1.2042729 0
-4.3950982 0.57051861 -1.1875416 0
-4.4418983 0.56145632 -1.1996714 0
-4.4432392 0.54649687 -1.199532 0
-4.4640994 0.53387499 -1.2046735 0
-4.4104939 0.51247102 -1.1897372 0
-4.4316611 0.49987715 -1.1949884 0
-4.4499402 0.486835 -1.1994704 0
-4.4781156 0.47472897 -1.2066293 0
-4.4686923 0.45858419 -1.203669 0
-4.4588337 0.44247055 -1.2006072 0
-4.4579439 0.42729339 -1.1999751 0
