# .PCD v0.7 - Point Cloud Data file format
VERSION 0.7
FIELDS x y z intensity
SIZE 4 4 4 4
TYPE F F F F
COUNT 1 1 1 1
WIDTH 1403
HEIGHT 1
VIEWPOINT 0 0 0 1 0 0 0
POINTS 1403
DATA ascii
-5.2401567 3.3710465 -1.211148 0
-5.2037625 3.3230193 -1.2001545 0
-5.2042789 3.2988367 -1.197716 0
-5.251195 3.3039474 -1.2059572 0
-5.2384582 3.2714689 -1.2005063 0
-5.2455201 3.2514832 -1.1996195 0
-5.2534294 3.2320549 -1.1989434 0
-5.2572489 3.2101564 -1.1973521 0
-5.2994242 3.2115662 -1.2044984 0
-5.3118095 3.1947711 -1.204872 0
-5.3173094 3.1738505 -1.203699 0
-5.2939205 3.135865 -1.1960176 0
-5.2801728 3.1038535 -1.1905539 0
-5.3474922 3.1193485 -1.2033678 0
-5.3333855 3.0871999 -1.1978573 0
-5.3586988 3.0779121 -1.201218 0
-5.3375916 3.0420341 -1.1941936 0
-5.3581181 3.029978 -1.1965065 0
-5.3261132 2.9883561 -1.1871154 0
-5.4415722 3.0291944 -1.2105792 0
-5.4159336 2.9911804 -1.2026374 0
-5.3876166 2.9520109 -1.194145 0
-5.4372044 2.9555216 -1.2029328 0
-5.3964581 2.9099762 -1.1917528 0
-5.521379 2.9534862 -1.2171465 0
-5.4598231 2.8970571 -1.201429 0
-5.4755445 2.8819134 -1.2027555 0
-5.4659472 2.8535001 -1.198539 0
-5.4829025 2.8389993 -1.200163 0
-5.4858384 2.8172355 -1.1987313 0
-5.5116539 2.8071797 -1.2023089 0
-5.5410452 2.7987916 -1.2066665 0
-5.5087085 2.7593157 -1.1976032 0
-5.5416574 2.7526169 -1.2027532 0
-5.5020437 2.7099795 -1.1921767 0
-5.564754 2.717721 -1.2037835 0
-5.5755281 2.6998684 -1.2041494 0
-5.5434856 2.6614447 -1.1952951 0
-5.5803399 2.6561532 -1.2013148 0
-5.6677322 2.6744792 -1.218191 0
-5.5885539 2.6142433 -1.1992822 0
-5.6182122 2.6051941 -1.2037655 0
-5.6182027 2.5823379 -1.2019017 0
-5.5840731 2.5440078 -1.1927688 0
-5.5951295 2.5264261 -1.1933144 0
-5.6436701 2.5255985 -1.2018543 0
-5.6518593 2.5065527 -1.2018019 0
-5.607532 2.4644282 -1.1906124 0
-5.6531224 2.4618828 -1.1985331 0
-5.7047687 2.4616528 -1.207726 0
-5.7089481 2.440784 -1.2068716 0
-5.7415457 2.4319839 -1.2120321 0
-5.7032237 2.3932309 -1.2022418 0
-5.7168975 2.3764577 -1.2034379 0
-5.6910944 2.343384 -1.1963454 0
-5.7198977 2.3328457 -1.2007494 0
-5.784811 2.3367298 -1.2127248 0
-5.7307949 2.2925911 -1.1997827 0
-5.7615676 2.2825224 -1.2046162 0
-5.7333837 2.2491465 -1.1971402 0
-5.7467036 2.232168 -1.198352 0
-5.7414269 2.2079928 -1.1957012 0
-5.7836633 2.2020049 -1.202953 0
-5.775177 2.1766322 -1.1996633 0
-5.7776251 2.1554596 -1.1986638 0
-5.8100681 2.1453996 -1.2038956 0
-5.8272023 2.1295521 -1.2059597 0
-5.8000889 2.0976267 -1.1988862 0
-5.7889676 2.0716832 -1.1951449 0
-5.7992306 2.0534484 -1.1958356 0
-5.8676519 2.055562 -1.2085166 0
-5.8617582 2.0314579 -1.2058932 0
-5.858717 2.0084269 -1.2038754 0
-5.8777614 1.9929576 -1.2064089 0
-5.8526139 1.962577 -1.19989 0
-5.8917036 1.9537345 -1.2065543 0
-5.8666801 1.9236279 -1.2001023 0
-5.8875279 1.9086255 -1.2030511 0
-5.8409429 1.8719052 -1.1922429 0
-5.9138393 1.873426 -1.2058334 0
-5.8827739 1.8419046 -1.1982332 0
-5.9085422 1.828243 -1.2022265 0
-5.937067 1.8152801 -1.2067853 0
-5.9270396 1.7905064 -1.2035202 0
-5.8817115 1.7553147 -1.1931143 0
-5.8800364 1.7333657 -1.1915889 0
-5.8846116 1.7132909 -1.1913452 0
-5.9534144 1.711691 -1.2041057 0
-5.9633889 1.6929326 -1.2049683 0
-5.9655347 1.6719489 -1.2042625 0
-5.9089384 1.634739 -1.1917243 0
-5.9496422 1.624545 -1.1988282 0
-5.9712038 1.6089389 -1.2020791 0
-6.0258594 1.6020149 -1.2119938 0
-5.9516597 1.5609421 -1.1960105 0
-5.9756703 1.5458447 -1.1997873 0
-5.9852285 1.5269254 -1.2006717 0
-6.0119486 1.5122916 -1.2050079 0
-6.0161467 1.4919181 -1.2048401 0
-6.066278 1.482778 -1.2138772 0
-5.9830971 1.4412045 -1.1962589 0
-6.0136914 1.4272586 -1.2014124 0
-6.0059915 1.4041767 -1.1989268 0
-6.0032206 1.3823175 -1.1974417 0
-6.0500221 1.3717505 -1.205853 0
-6.0278926 1.3454995 -1.2005364 0
-6.0679893 1.333107 -1.2076252 0
-6.0811272 1.314636 -1.2093557 0
-6.0689535 1.2907205 -1.2060673 0
-6.0258889 1.2604592 -1.1966628 0
-6.0658169 1.2475984 -1.2037544 0
-6.050633 1.223345 -1.1999204 0
-6.0467143 1.2014647 -1.1983378 0
-6.0449171 1.1800538 -1.1971908 0
-6.0962358 1.1688673 -1.2065715 0
-6.0864973 1.1458565 -1.2038769 0
-6.0811367 1.123749 -1.2020645 0
-6.0945158 1.1051028 -1.2039701 0
-6.0461497 1.0754071 -1.1936963 0
-6.1106133 1.0657496 -1.2057112 0
-6.0870228 1.0406179 -1.2003613 0
-6.0991917 1.0216631 -1.2020786 0
-6.090456 0.9992184 -1.19969 0
-6.1007876 0.97991949 -1.2010711 0
-6.1105223 0.96047837 -1.2023469 0
-6.0916595 0.9365955 -1.1980107 0
-6.0442815 0.90857726 -1.1880873 0
-6.1435952 0.90245289 -1.2070073 0
-6.1035376 0.87567329 -1.1985538 0
-6.1157293 0.85650539 -1.2003772 0
-6.1628251 0.84204286 -1.2090601 0
-6.0583606 0.80708718 -1.1880281 0
-6.1262603 0.79523724 -1.2008134 0
-6.1339927 0.77533722 -1.2018127 0
-6.1571674 0.75730163 -1.2058491 0
-6.1276011 0.73281813 -1.1995707 0
-6.1201048 0.71111679 -1.1976297 0
-6.1101828 0.68920904 -1.1952291 0
-6.0805049 0.665223 -1.1889808 0
-6.1731071 0.6544165 -1.2066524 0
-6.1716809 0.63334757 -1.2059518 0
-6.1348872 0.60879308 -1.1983566 0
-6.1563406 0.59008449 -1.202154 0
-6.1249108 0.56635416 -1.1956393 0
-6.1756554 0.55016989 -1.2051781 0
-6.1510782 0.52719939 -1.2000302 0
-6.1519747 0.50650412 -1.199867 0
-6.1069226 0.48218632 -1.1907582 0
-6.1704388 0.46638951 -1.2028313 0
-6.1777925 0.44611916 -1.2039664 0
-6.1677079 0.42460886 -1.2017169 0
-6.178617 0.40455064 -1.2035713 0
-6.1931849 0.38465536 -1.2061511 0
-6.1277256 0.35996953 -1.1931609 0
-6.1895919 0.34278366 -1.2049766 0
-6.1758947 0.32125872 -1.2020936 0
-6.1594973 0.29970175 -1.1986996 0
-6.1522512 0.27867627 -1.1971009 0
-6.1363053 0.25734091 -1.1938236 0
-6.1821647 0.23850283 -1.2025832 0
-6.1412005 0.21630409 -1.1944668 0
-6.1747632 0.19676006 -1.2008598 0
-6.2159467 0.17721243 -1.2087468 0
-6.1810899 0.15547968 -1.2018604 0
-6.1569204 0.13421729 -1.1970667 0
-6.1867394 0.1141159 -1.2027831 0
-6.1943979 0.093482621 -1.2042043 0
-6.1874099 0.072628155 -1.2027917 0
-6.2053933 0.052031562 -1.2062469 0
-6.2010112 0.031203007 -1.2053679 0
-6.2443147 0.010484603 -1.2137716 0
-6.2431927 1.6566873e-05 -1.2135519 0
-7.6159773 -0.012787713 -1.2062522 0
-7.6069818 -0.038277742 -1.204841 0
-7.5535736 -0.06333591 -1.1964087 0
-7.5805526 -0.088980936 -1.2007225 0
-7.5813446 -0.1144137 -1.200902 0
-7.5850949 -0.13990891 -1.2015635 0
-7.5876093 -0.16540548 -1.2020429 0
-7.5733624 -0.19050102 -1.1998804 0
-7.5427341 -0.21503824 -1.1951354 0
-7.6035228 -0.24228776 -1.2048892 0
-7.5724559 -0.26671547 -1.2001011 0
-7.584826 -0.29261634 -1.2022103 0
-7.5662618 -0.31730959 -1.1994298 0
-7.550559 -0.34201491 -1.1971155 0
-7.5987015 -0.36972889 -1.2049381 0
-7.5373321 -0.39207819 -1.1954083 0
-7.581285 -0.41985652 -1.2025957 0
-7.5625224 -0.4442558 -1.199849 0
-7.5134177 -0.4666543 -1.1922997 0
-7.5896139 -0.49693695 -1.2046489 0
-7.5727916 -0.52134025 -1.2022495 0
-7.5756307 -0.5470618 -1.2029847 0
-7.5690374 -0.57210183 -1.2022355 0
-7.5613708 -0.59702569 -1.201329 0
-7.5271587 -0.6197257 -1.1962168 0
-7.5385633 -0.64611858 -1.1983668 0
-7.5510826 -0.67270237 -1.2007087 0
-7.5762982 -0.70056003 -1.2050849 0
-7.5936651 -0.72785187 -1.2082288 0
-7.5288377 -0.74712116 -1.1983058 0
-7.5418334 -0.77395481 -1.2007806 0
-7.5369558 -0.79899931 -1.2004238 0
-7.5183811 -0.82253033 -1.1978978 0
-7.5723844 -0.8541407 -1.2069516 0
-7.5195193 -0.87371981 -1.1989857 0
-7.5163512 -0.89890289 -1.1989543 0
-7.4909792 -0.92135406 -1.1953933 0
-7.5416994 -0.95327151 -1.2039903 0
-7.4974627 -0.97323012 -1.1974424 0
-7.4877949 -0.99751467 -1.1964258 0
-7.4982057 -1.0244994 -1.1986314 0
-7.492259 -1.0492878 -1.1982365 0
-7.5103245 -1.0775046 -1.2016966 0
-7.473423 -1.0977956 -1.1963744 0
-7.4799213 -1.1243829 -1.1980114 0
-7.4802251 -1.1500881 -1.198671 0
-7.4710279 -1.1743284 -1.1978213 0
-7.5089498 -1.2061011 -1.204543 0
-7.5127554 -1.2325652 -1.2058096 0
-7.5080824 -1.2576636 -1.2057295 0
-7.4422841 -1.2723091 -1.1958412 0
-7.4994631 -1.3079784 -1.2057267 0
-7.4852314 -1.3313714 -1.2041495 0
-7.4632993 -1.3533007 -1.2013445 0
-7.4339919 -1.3737466 -1.1973617 0
-7.4785123 -1.4079201 -1.2052859 0
-7.4284773 -1.4243058 -1.1979848 0
-7.441781 -1.4527416 -1.2009091 0
-7.3993306 -1.4702257 -1.1948475 0
-7.4498119 -1.5062376 -1.203808 0
-7.4425764 -1.530766 -1.2034614 0
-7.4719772 -1.5629431 -1.209056 0
-7.4105573 -1.5760474 -1.1999658 0
-7.4476805 -1.6100615 -1.2068444 0
-7.3609061 -1.6171544 -1.1936551 0
-7.3959198 -1.65086 -1.2002238 0
-7.349597 -1.6664093 -1.1936064 0
-7.381824 -1.6997584 -1.199759 0
-7.4260926 -1.7361907 -1.2078934 0
-7.3310695 -1.7399184 -1.1933795 0
-7.3512306 -1.7707598 -1.1976211 0
-7.3939395 -1.8072977 -1.2055594 0
-7.3564115 -1.8242846 -1.2004311 0
-7.3279366 -1.8433253 -1.1967863 0
-7.3672471 -1.8795 -1.2042289 0
-7.3021369 -1.8889879 -1.1946146 0
-7.2707105 -1.9068896 -1.1905127 0
-7.3453488 -1.9528099 -1.2037994 0
-7.2959132 -1.9658815 -1.196771 0
-7.3272667 -2.0007043 -1.2030076 0
-7.3025951 -2.0203016 -1.2000623 0
-7.295239 -2.0446227 -1.1999732 0
-7.3468819 -2.0856893 -1.2096113 0
-7.2690606 -2.089958 -1.1979456 0
-7.2783651 -2.1190791 -1.2006431 0
-7.2464008 -2.1361539 -1.196545 0
-7.2667127 -2.168649 -1.2010928 0
-7.2255321 -2.1827695 -1.1954892 0
-7.22609 -2.2094035 -1.1968004 0
-7.2509122 -2.2436042 -1.2021506 0
-7.2473159 -2.2691445 -1.2028089 0
-7.1869311 -2.2767246 -1.1940473 0
-7.2305546 -2.3172479 -1.202579 0
-7.1899452 -2.3308446 -1.1971179 0
-7.2300091 -2.3706503 -1.2051052 0
-7.1572728 -2.3734071 -1.194301 0
-7.1698241 -2.4042816 -1.1977339 0
-7.1918807 -2.4385328 -1.2027775 0
-7.1366348 -2.4465098 -1.1949033 0
-7.1424999 -2.4753129 -1.197268 0
-7.2006059 -2.5225239 -1.2084191 0
-7.134726 -2.5263336 -1.1987778 0
-7.0893731 -2.5370562 -1.1925801 0
-7.0855312 -2.5625126 -1.1933724 0
-7.1362038 -2.6079271 -1.2033727 0
-7.1211662 -2.6295297 -1.2023169 0
-7.1322379 -2.6608253 -1.2056857 0
-7.0941758 -2.6737556 -1.2007601 0
-7.0849447 -2.6974397 -1.2007217 0
-7.0167446 -2.6984444 -1.19069 0
-6.9953232 -2.7171643 -1.1885943 0
-7.1242042 -2.7947507 -1.2120781 0
-7.0500755 -2.7929821 -1.2010528 0
-7.0309672 -2.8127217 -1.1993973 0
-7.0591803 -2.8515015 -1.2058343 0
-6.9904852 -2.8510516 -1.195726 0
-6.9506726 -2.8620322 -1.1905508 0
-6.9637909 -2.8947787 -1.1944535 0
-6.9914875 -2.9338222 -1.2008846 0
-6.9737234 -2.9539056 -1.1995277 0
-6.9440875 -2.9688513 -1.1961356 0
-6.9498997 -2.9989369 -1.198862 0
-6.9301987 -3.0180378 -1.1972023 0
-6.9579268 -3.0579069 -1.2037568 0
-6.9402857 -3.0779591 -1.2024835 0
-6.8710465 -3.0748615 -1.1922666 0
-6.9056787 -3.118192 -1.2000833 0
-6.8617706 -3.1261048 -1.1942676 0
-6.9011588 -3.1720331 -1.2029673 0
-6.8687825 -3.1850901 -1.1991783 0
-6.8234072 -3.1918893 -1.1931182 0
-6.8318381 -3.2237954 -1.1964757 0
-6.845335 -3.2582707 -1.2007459 0
-6.8396764 -3.2837501 -1.2016778 0
-6.8292904 -3.3069844 -1.2017944 0
-6.8240824 -3.3327534 -1.2028376 0
-6.7819734 -3.3403966 -1.1973826 0
-6.7814784 -3.3684528 -1.1992824 0
-6.7567611 -3.3844659 -1.1969113 0
-6.7852731 -3.4272535 -1.2039908 0
-6.7424927 -3.434067 -1.198436 0
-6.7174516 -3.4497266 -1.1960343 0
-6.7559128 -3.498153 -1.2049637 0
-6.6734834 -3.4838951 -1.1923386 0
-6.7411489 -3.548032 -1.2065469 0
-6.6848822 -3.5470903 -1.198598 0
-6.6656661 -3.5655863 -1.1972893 0
-6.6677604 -3.595511 -1.1998241 0
-6.6628499 -3.6217504 -1.2011188 0
-6.5930753 -3.6125121 -1.1907172 0
-6.6148105 -3.6533113 -1.1968482 0
-6.6428719 -3.6979291 -1.204162 0
-6.6114221 -3.7095125 -1.2007089 0
-6.59233 -3.7279162 -1.1995047 0
-6.5702233 -3.7445436 -1.19776 0
-6.5601759 -3.7680125 -1.1982247 0
-6.5374594 -3.7841713 -1.1963862 0
-6.5450993 -3.8179479 -1.2001202 0
-6.5548248 -3.8531344 -1.2042656 0
-6.523715 -3.8643363 -1.2009237 0
-6.5143342 -3.8883431 -1.2015898 0
-6.5059185 -3.9129643 -1.2024508 0
-6.461874 -3.9160361 -1.1967303 0
-6.4958234 -3.966449 -1.2054738 0
-6.4194427 -3.9494188 -1.1937499 0
-6.4293671 -3.985302 -1.1980736 0
-6.4345441 -4.018436 -1.2015421 0
-6.4135008 -4.0352473 -1.2001324 0
-6.4334731 -4.0779862 -1.2064214 0
-6.389411 -4.0801506 -1.2007173 0
-6.4044409 -4.1200428 -1.206131 0
-6.3850427 -4.1378965 -1.2050837 0
-6.3161054 -4.1233573 -1.1946753 0
-6.365952 -4.1864061 -1.2067519 0
-6.3426929 -4.2016401 -1.2050065 0
-6.3052144 -4.2072983 -1.2005594 0
-6.2870474 -4.2257094 -1.1997913 0
-6.2408657 -4.2251148 -1.1936748 0
-6.2777772 -4.28087 -1.2034733 0
-6.2481303 -4.2914138 -1.2005414 0
-6.2572722 -4.3286405 -1.2050799 0
-6.2258883 -4.3378654 -1.2018299 0
-6.2260323 -4.3690472 -1.2046788 0
-6.1475716 -4.3448224 -1.1923093 0
-6.2229853 -4.429482 -1.2098092 0
-6.1410923 -4.4022875 -1.1967512 0
-6.1418099 -4.434052 -1.1997814 0
-6.0977182 -4.4333959 -1.1940653 0
-6.098711 -4.4654512 -1.1971848 0
-6.1189723 -4.5118785 -1.2041248 0
-6.0650258 -4.5035691 -1.1964736 0
-6.0519538 -4.5254207 -1.1968814 0
-6.0474381 -4.5537372 -1.1990012 0
-6.0116491 -4.5584526 -1.1949289 0
-6.0094762 -4.5886192 -1.1975483 0
-6.0423393 -4.645865 -1.2071944 0
-5.9732184 -4.6246686 -1.196476 0
-5.9847097 -4.6657429 -1.2019045 0
-5.9783807 -4.6931205 -1.2037868 0
-5.9528856 -4.7054505 -1.2018232 0
-5.9268031 -4.717207 -1.1997437 0
-5.9488611 -4.7674308 -1.2074378 0
-5.879715 -4.7444787 -1.1966251 0
-5.8638892 -4.7642589 -1.1966486 0
-5.8968511 -4.8239517 -1.206669 0
-5.8765712 -4.8403406 -1.2058332 0
-5.8328042 -4.8372059 -1.2001736 0
-5.8352036 -4.8723078 -1.2040219 0
-5.8075266 -4.882338 -1.2016821 0
-5.8110256 -4.9186268 -1.2058116 0
-5.7388024 -4.8906155 -1.1942208 0
-5.7689834 -4.9498215 -1.2039481 0
-5.7735405 -4.9874368 -1.2083821 0
-5.7301517 -4.983602 -1.2027915 0
-5.7083378 -4.9983444 -1.2017236 0
-5.7038364 -5.0282888 -1.2043183 0
-5.6919889 -5.0518608 -1.2053864 0
-5.6492839 -5.0479212 -1.1999202 0
-5.6140122 -5.0503573 -1.1960182 0
-5.59972 -5.0715718 -1.1965892 0
-5.5635586 -5.0728793 -1.1924899 0
-5.567893 -5.111125 -1.1970853 0
-5.5521812 -5.1311097 -1.1973993 0
-5.5430341 -5.1572213 -1.1991489 0
-5.5650177 -5.2125936 -1.2076788 0
-5.4979739 -5.1845117 -1.1968951 0
-5.5143914 -5.2350335 -1.2042834 0
-5.4746203 -5.2322865 -1.1994222 0
-5.5003424 -5.2922702 -1.2089384 0
-5.4599714 -5.288795 -1.2039558 0
-5.4364853 -5.3014903 -1.2026898 0
-5.4143925 -5.3154788 -1.2017381 0
-5.3906403 -5.3277712 -1.2004242 0
-5.3476515 -5.3208456 -1.1948172 0
-5.3314199 -5.3403864 -1.1951845 0
-5.3519502 -5.3970208 -1.2038367 0
-5.3350763 -5.4162054 -1.2041192 0
-5.2882686 -5.4048133 -1.1976379 0
-5.3064699 -5.4599171 -1.205899 0
-5.2738667 -5.4628992 -1.2026455 0
-5.2555156 -5.480545 -1.2026443 0
-5.2369914 -5.4980102 -1.2026169 0
-5.1921234 -5.4876299 -1.1965319 0
-5.1962814 -5.5290399 -1.2017554 0
-5.1869645 -5.5563397 -1.2039024 0
-5.1584072 -5.5630245 -1.2015966 0
-5.1581364 -5.600276 -1.2059005 0
-5.1131105 -5.5888791 -1.1997483 0
-5.0746541 -5.5843239 -1.1951113 0
-5.0831733 -5.6315198 -1.2015575 0
-5.0626659 -5.6467495 -1.2011787 0
-5.0574765 -5.6791563 -1.2044584 0
-5.0350099 -5.6922402 -1.2036462 0
-5.007225 -5.6992197 -1.2015653 0
-4.9652238 -5.689775 -1.1960576 0
-4.8837581 -5.6344438 -1.1809775 0
-4.9498067 -5.7494812 -1.2016041 0
-4.9451995 -5.7832327 -1.205186 0
-4.9347205 -5.8103051 -1.207373 0
-4.8801589 -5.7852635 -1.1987625 0
-4.8415151 -5.7786536 -1.1940225 0
-4.8341136 -5.8092752 -1.1969941 0
-4.8169165 -5.8282428 -1.1975678 0
-4.8231087 -5.875742 -1.2039983 0
-4.7858906 -5.8704257 -1.1996142 0
-4.7775364 -5.9004631 -1.2024722 0
-4.7182016 -5.8672976 -1.1924827 0
-4.7356606 -5.9296093 -1.2019132 0
-4.7137637 -5.9429455 -1.2014062 0
-4.6912012 -5.9554024 -1.2007381 0
-4.6642284 -5.9621763 -1.1989441 0
-4.6348038 -5.9656715 -1.1965152 0
-4.6156678 -5.9823337 -1.1967466 0
-4.6123781 -6.0196934 -1.2011199 0
-4.5847979 -6.0254359 -1.1991917 0
-4.573607 -6.0527339 -1.201566 0
-4.5469184 -6.059546 -1.1998851 0
-4.5106335 -6.0533614 -1.1956592 0
-4.5138359 -6.1002421 -1.2019229 0
-4.4978976 -6.12152 -1.2031372 0
-4.4393268 -6.0844555 -1.1929203 0
-4.4351873 -6.1217837 -1.1973168 0
-4.4237175 -6.1492419 -1.1997795 0
-4.3844328 -6.1379409 -1.1946995 0
-4.3840036 -6.1810513 -1.2002228 0
-4.3375092 -6.1591563 -1.1931409 0
-4.3368926 -6.2023511 -1.1986849 0
-4.2886438 -6.1773486 -1.1910671 0
-4.2909536 -6.2251258 -1.1974984 0
-4.3003135 -6.2836876 -1.2059834 0
-4.2572541 -6.2657394 -1.1997925 0
-4.2486048 -6.2983341 -1.2032995 0
-4.2188854 -6.2997346 -1.2008578 0
-4.2066278 -6.3272123 -1.2034004 0
-4.1744709 -6.3247371 -1.2002608 0
-4.1605649 -6.349874 -1.2023771 0
-4.119657 -6.333663 -1.1966852 0
-4.1080718 -6.3624215 -1.1995097 0
-4.0919218 -6.3842802 -1.2010375 0
-4.0766759 -6.4076819 -1.2028618 0
-4.0279617 -6.378231 -1.1947913 0
-4.011579 -6.3997169 -1.1962898 0
-4.0066671 -6.4397597 -1.2012571 0
-3.9741409 -6.4354858 -1.1979676 0
-3.9756122 -6.4864149 -1.20496 0
-3.9139426 -6.4341173 -1.1928004 0
-3.9256117 -6.5023007 -1.2029939 0
-3.8974991 -6.5049286 -1.2010556 0
-3.87937 -6.5241866 -1.202203 0
-3.843257 -6.5130644 -1.1977724 0
-3.8050325 -6.4979649 -1.1926427 0
-3.814286 -6.5641403 -1.2024347 0
-3.7801692 -6.5559297 -1.1986022 0
-3.7644947 -6.5796261 -1.2006202 0
-3.748862 -6.6035705 -1.2026891 0
-3.7243097 -6.6118579 -1.2019174 0
-3.7129712 -6.643723 -1.2054403 0
-3.6632717 -6.6067128 -1.1964898 0
-3.6433926 -6.6231251 -1.1972431 0
-3.6136909 -6.6216068 -1.1947716 0
-3.6044505 -6.6576619 -1.19909 0
-3.5787897 -6.6635308 -1.1979792 0
-3.5813723 -6.7223129 -1.2063816 0
-3.5646634 -6.7453527 -1.2083646 0
-3.5212102 -6.7175522 -1.2012627 0
-3.5010264 -6.7338567 -1.2020726 0
-3.4475217 -6.6856194 -1.1913916 0
-3.4751287 -6.7949886 -1.2087983 0
-3.410475 -6.7240872 -1.1941444 0
-3.4103353 -6.7800651 -1.2020482 0
-3.3829398 -6.7821507 -1.2004002 0
-3.3598275 -6.7927394 -1.2002739 0
-3.329932 -6.7894859 -1.1977195 0
-3.3064237 -6.7991199 -1.1974565 0
-3.2691662 -6.7802138 -1.1921897 0
-3.2650783 -6.8301778 -1.1990434 0
-3.2435968 -6.8441195 -1.1995749 0
-3.2240369 -6.8622041 -1.2008432 0
-3.2054002 -6.8823991 -1.2024897 0
-3.1865408 -6.9022789 -1.2040898 0
-3.1593792 -6.9041791 -1.2025665 0
-3.1317139 -6.9048133 -1.2008413 0
-3.1203485 -6.9415307 -1.2054008 0
-3.0607629 -6.8704834 -1.1912746 0
-3.0497613 -6.9080043 -1.1960007 0
-3.0385048 -6.9454417 -1.2007118 0
-3.0005131 -6.9217076 -1.1948628 0
-3.0086191 -7.0046716 -1.2074363 0
-2.9684691 -6.9755988 -1.2007025 0
-2.9524481 -7.003026 -1.2037129 0
-2.9138746 -6.9767857 -1.1975166 0
-2.8892457 -6.9835658 -1.1970109 0
-2.8621428 -6.9842529 -1.1954771 0
-2.8519092 -7.0263295 -1.2010357 0
-2.8238862 -7.0247841 -1.1991465 0
-2.7779303 -6.9779773 -1.1895598 0
-2.7880862 -7.072401 -1.2040563 0
-2.759773 -7.069963 -1.2020591 0
-2.7246964 -7.0497918 -1.1970696 0
-2.7076933 -7.0762634 -1.2000163 0
-2.698956 -7.1249094 -1.2067244 0
-2.6585138 -7.0898128 -1.1992638 0
-2.6388175 -7.1097045 -1.2011253 0
-2.6009634 -7.0803957 -1.1946938 0
-2.5968792 -7.1431818 -1.2038119 0
-2.5530488 -7.0966277 -1.194517 0
-2.5442393 -7.1472807 -1.2016004 0
-2.5164201 -7.1448646 -1.1997691 0
-2.4866607 -7.1366448 -1.196982 0
-2.4575148 -7.1298432 -1.1944526 0
-2.4263244 -7.1167145 -1.1908835 0
-2.4293354 -7.2045426 -1.2042106 0
-2.3895624 -7.165854 -1.1963981 0
-2.3717549 -7.1927247 -1.19955 0
-2.3471897 -7.1992979 -1.1993271 0
-2.311883 -7.1725178 -1.1935678 0
-2.2964692 -7.2073679 -1.1980791 0
-2.2745519 -7.2222047 -1.199271 0
-2.2443948 -7.2107401 -1.196111 0
-2.2240152 -7.2306089 -1.1981632 0
-2.2041109 -7.2523413 -1.200533 0
-2.1640551 -7.2073102 -1.1918709 0
-2.1630101 -7.2925138 -1.2047549 0
-2.1345551 -7.2860975 -1.2025058 0
-2.1073277 -7.2835817 -1.2009178 0
-2.0775678 -7.2719588 -1.1978462 0
-2.0533063 -7.2793508 -1.1979229 0
-2.0272725 -7.2803903 -1.1969688 0
-1.9953712 -7.2599316 -1.1924986 0
-1.9820906 -7.3073988 -1.1991971 0
-1.9496065 -7.2842159 -1.1943132 0
-1.9497838 -7.383914 -1.2095809 0
-1.9154538 -7.3536992 -1.2035725 0
-1.8797954 -7.3172922 -1.1965756 0
-1.8676493 -7.3724947 -1.2045718 0
-1.836298 -7.352201 -1.2002435 0
-1.8141353 -7.368463 -1.2018986 0
-1.7849181 -7.3559504 -1.1988747 0
-1.7641029 -7.3780289 -1.2015023 0
-1.7398108 -7.3858337 -1.2018166 0
-1.7041575 -7.3447328 -1.1941922 0
-1.6899431 -7.3960109 -1.2016016 0
-1.6766032 -7.4526072 -1.2098765 0
-1.6332489 -7.375289 -1.1964288 0
-1.6058863 -7.3686762 -1.1944759 0
-1.5879668 -7.4057097 -1.1996093 0
-1.5663762 -7.426393 -1.2021022 0
-1.5356724 -7.4036613 -1.1975825 0
-1.5237781 -7.4722099 -1.2078373 0
-1.4874874 -7.4212527 -1.1987876 0
-1.4736778 -7.48246 -1.2078696 0
-1.4335597 -7.4097114 -1.1953435 0
-1.4245521 -7.4978671 -1.2087876 0
-1.3807517 -7.402595 -1.192675 0
-1.369836 -7.4831786 -1.2049116 0
-1.3355954 -7.4368186 -1.1967191 0
-1.3186134 -7.4864469 -1.2039869 0
-1.2884747 -7.4616928 -1.1993045 0
-1.2626551 -7.4612751 -1.1985501 0
-1.2291751 -7.4144554 -1.1903604 0
-1.2158604 -7.4896917 -1.2017782 0
-1.192701 -7.5060544 -1.2037553 0
-1.1709516 -7.5320339 -1.2072852 0
-1.1407977 -7.5037274 -1.2021283 0
-1.1132011 -7.4911475 -1.1995082 0
-1.0891565 -7.5022635 -1.2006967 0
-1.0637997 -7.5044837 -1.2004744 0
-1.0356317 -7.4863148 -1.1970057 0
-1.018488 -7.5487599 -1.2064375 0
-0.97838122 -7.4396567 -1.1884698 0
-0.95722669 -7.4725189 -1.1932 0
-0.94136542 -7.5494518 -1.2049737 0
-0.91758627 -7.5652461 -1.2069968 0
-0.88685942 -7.52284 -1.1997501 0
-0.85864818 -7.499712 -1.1955957 0
-0.83484882 -7.5147052 -1.197533 0
-0.81249762 -7.5439134 -1.2017467 0
-0.78655571 -7.5404215 -1.2007635 0
-0.75888503 -7.5193877 -1.1970022 0
-0.73518461 -7.5374217 -1.1994739 0
-0.70630491 -7.5015664 -1.1933844 0
-0.68396294 -7.5348859 -1.1983135 0
-0.65932834 -7.5443721 -1.1994637 0
-0.63474017 -7.5549955 -1.2008077 0
-0.61056584 -7.5714626 -1.2030928 0
-0.58575356 -7.5809326 -1.2042788 0
-0.55903751 -7.5653243 -1.2014948 0
-0.5329448 -7.5568833 -1.1998637 0
-0.50647724 -7.5418353 -1.197198 0
-0.48232448 -7.5613065 -1.2000254 0
-0.45526439 -7.5346503 -1.195546 0
-0.43124226 -7.5579138 -1.1990012 0
-0.40632644 -7.5672669 -1.2002621 0
-0.38143548 -7.5781822 -1.2017838 0
-0.35369694 -7.5298538 -1.1939249 0
-0.32961226 -7.5576744 -1.1981541 0
-0.30552244 -7.5898266 -1.2030822 0
-0.28007308 -7.5907979 -1.2030805 0
-0.25405303 -7.5747595 -1.2003969 0
-0.22790045 -7.5505748 -1.1964364 0
-0.203328 -7.5790472 -1.2008332 0
-0.17820875 -7.5921693 -1.2028109 0
-0.15241222 -7.5758038 -1.2001303 0
-0.12684642 -7.5664463 -1.1985739 0
-0.10190377 -7.5986652 -1.2036167 0
-0.076170214 -7.5735006 -1.1995835 0
-0.050844386 -7.583724 -1.201169 0
-0.025490012 -7.605546 -1.2046051 0
1.0061689e-05 -7.5834551 -1.2010994 0
0.025330972 -7.5521135 -1.1961422 0
0.050909221 -7.5903907 -1.202225 0
0.07599023 -7.5536118 -1.1964333 0
0.10157868 -7.5729241 -1.1995394 0
0.12640329 -7.5388198 -1.1941978 0
0.15173756 -7.5412736 -1.1946603 0
0.17820908 -7.5913248 -1.2026771 0
0.20368028 -7.5914268 -1.2027948 0
0.23007348 -7.6218991 -1.2077383 0
0.25458065 -7.5898905 -1.2027948 0
0.28061077 -7.6048231 -1.2053035 0
0.3073402 -7.63448 -1.2101604 0
0.32990572 -7.5639424 -1.1991479 0
0.3548964 -7.5549607 -1.1979059 0
0.38136733 -7.576427 -1.2015057 0
0.40831625 -7.6039476 -1.2060803 0
0.42997688 -7.5353856 -1.1954274 0
0.45701993 -7.5633712 -1.2001035 0
0.48079389 -7.5369964 -1.1961676 0
0.50634903 -7.5396266 -1.1968477 0
0.53411514 -7.5731921 -1.2024535 0
0.55536306 -7.5153275 -1.1935548 0
0.57961041 -7.5011673 -1.1916078 0
0.60761124 -7.534574 -1.1972315 0
0.63473177 -7.5546551 -1.2007539 0
0.66176188 -7.5719857 -1.2038543 0
0.68362743 -7.5309677 -1.1976906 0
0.71090186 -7.5501752 -1.2011176 0
0.73879468 -7.5742264 -1.2053311 0
0.76183021 -7.5483699 -1.2016162 0
0.78393 -7.5150561 -1.1967247 0
0.8118934 -7.5381155 -1.2008234 0
0.83302933 -7.4981465 -1.1948946 0
0.85709316 -7.4859538 -1.1934028 0
0.88752019 -7.5282736 -1.200617 0
0.91225982 -7.5211639 -1.1999642 0
0.93908232 -7.5309792 -1.2020257 0
0.96725315 -7.5506306 -1.2056732 0
0.98970079 -7.5255771 -1.2021958 0
1.017126 -7.5385137 -1.2048004 0
1.042402 -7.5351081 -1.2048079 0
1.0633281 -7.5010133 -1.1999197 0
1.090467 -7.5111499 -1.2021192 0
1.1142234 -7.4978895 -1.2005882 0
1.1380255 -7.4853601 -1.1991862 0
1.1648686 -7.4927745 -1.2009929 0
1.1876652 -7.4742351 -1.1986529 0
1.2138681 -7.477294 -1.1997893 0
1.2460251 -7.5159717 -1.2066591 0
1.2627103 -7.4614811 -1.1985837 0
1.2860594 -7.4475875 -1.1970379 0
1.3127236 -7.4528913 -1.1985911 0
1.3337637 -7.4265065 -1.1950603 0
1.3675537 -7.4705997 -1.2028867 0
1.3867874 -7.4348445 -1.1978714 0
1.4254973 -7.5027337 -1.2095728 0
1.4449524 -7.4684911 -1.2048265 0
1.4642509 -7.4344921 -1.200127 0
1.4882511 -7.4249606 -1.1993871 0
1.5208441 -7.4577212 -1.205496 0
1.5500513 -7.4728842 -1.2087803 0
1.5746324 -7.4654384 -1.208423 0
1.5920377 -7.4245987 -1.2026696 0
1.6219279 -7.4421887 -1.206393 0
1.6502585 -7.4520054 -1.2088745 0
1.6735897 -7.4391198 -1.2076876 0
1.6849743 -7.3741751 -1.1980548 0
1.7179316 -7.4040084 -1.2038307 0
1.7319504 -7.3523769 -1.1963732 0
1.7531074 -7.3319564 -1.1940002 0
1.7882985 -7.3697968 -1.2011321 0
1.8086698 -7.34618 -1.1982646 0
1.8451281 -7.3874712 -1.2060021 0
1.8602599 -7.3432431 -1.1997933 0
1.8907056 -7.3596807 -1.203508 0
1.9113098 -7.3377104 -1.2009565 0
1.9316115 -7.3150163 -1.1982954 0
1.9544853 -7.3023667 -1.1972899 0
1.9867593 -7.3245344 -1.2020099 0
2.0033538 -7.2888999 -1.1972576 0
2.0241804 -7.2692118 -1.1951318 0
2.0552156 -7.2860456 -1.1990256 0
2.0796244 -7.2790842 -1.1990207 0
2.1034484 -7.2701015 -1.1986961 0
2.1307998 -7.2732072 -1.2003794 0
2.1565986 -7.2708263 -1.2011731 0
2.1769819 -7.2502928 -1.1989799 0
2.2043281 -7.2529874 -1.2006409 0
2.2186871 -7.2132187 -1.1952823 0
2.2522969 -7.2360601 -1.200312 0
2.2726181 -7.2159972 -1.1982412 0
2.2758102 -7.1424651 -1.1872914 0
2.3352566 -7.2449675 -1.2056251 0
2.3438623 -7.1890278 -1.1976172 0
2.3722482 -7.1941557 -1.1997898 0
2.3995559 -7.1957593 -1.2013922 0
2.4244153 -7.1898885 -1.2017623 0
2.447226 -7.177959 -1.2011331 0
2.4606934 -7.1390038 -1.1959883 0
2.49629 -7.1642189 -1.2016079 0
2.5063097 -7.1160975 -1.1949396 0
2.5387118 -7.1316934 -1.198981 0
2.5669544 -7.135221 -1.2010143 0
2.5793424 -7.0948853 -1.1956738 0
2.6191862 -7.1299438 -1.2030554 0
2.6395812 -7.1117043 -1.2014643 0
2.6587014 -7.0902562 -1.19934 0
2.691401 -7.104908 -1.203338 0
2.6962011 -7.046174 -1.1949148 0
2.7188463 -7.0345998 -1.1944911 0
2.7515543 -7.0488529 -1.1984712 0
2.7734728 -7.0352769 -1.1977372 0
2.8003652 -7.0342784 -1.199159 0
2.8355043 -7.0536318 -1.2040721 0
2.8642035 -7.0565658 -1.2062055 0
2.8837254 -7.0368657 -1.204484 0
2.9067879 -7.0259142 -1.2042708 0
2.905179 -6.955914 -1.1939354 0
2.9600947 -7.021111 -1.2068228 0
2.9549258 -6.9437222 -1.195217 0
2.9904356 -6.9622855 -1.2001314 0
3.016125 -6.9576712 -1.2010725 0
3.0228708 -6.9096551 -1.1945264 0
3.0697851 -6.95331 -1.203846 0
3.0858138 -6.9266663 -1.2010176 0
3.1004782 -6.8972783 -1.1977178 0
3.1234553 -6.8865561 -1.1976676 0
3.1362453 -6.8535767 -1.1937541 0
3.1817844 -6.8919277 -1.2022855 0
3.1791661 -6.8260241 -1.1926415 0
3.2166243 -6.8463793 -1.1980755 0
3.2257264 -6.8063655 -1.1929592 0
3.2511222 -6.8009372 -1.1939117 0
3.2630606 -6.7675052 -1.1899565 0
3.3213561 -6.8297801 -1.202858 0
3.3174767 -6.7640452 -1.193233 0
3.3627338 -6.7985702 -1.2013056 0
3.3589313 -6.733974 -1.1918749 0
3.4173479 -6.7939625 -1.2045135 0
3.4127429 -6.7285147 -1.1949321 0
3.47646 -6.7975478 -1.2092551 0
3.4904718 -6.7688665 -1.206228 0
3.4820242 -6.6972647 -1.1955421 0
3.5016687 -6.6802287 -1.1945901 0
3.5166755 -6.6545029 -1.1920915 0
3.5906208 -6.7396293 -1.2094909 0
3.5800116 -6.6657629 -1.1983823 0
3.5977917 -6.6453209 -1.196869 0
3.6269498 -6.6458597 -1.1991496 0
3.6458519 -6.6275544 -1.1980455 0
3.6840777 -6.6441951 -1.2032796 0
3.6955121 -6.612442 -1.1997664 0
3.7205205 -6.6050901 -1.200689 0
3.7144713 -6.5429511 -1.1916504 0
3.7600999 -6.5719047 -1.1992129 0
3.7893255 -6.5717692 -1.2014998 0
3.8160701 -6.5671706 -1.2029916 0
3.8236322 -6.5296884 -1.1984671 0
3.8701324 -6.5585694 -1.2061429 0
3.8683197 -6.5055633 -1.1987733 0
3.9087174 -6.523613 -1.2045074 0
3.9013603 -6.4620924 -1.1955568 0
3.9488156 -6.491406 -1.2034229 0
3.9507408 -6.4457974 -1.1974167 0
3.9757965 -6.4381285 -1.1984615 0
3.9935386 -6.4186201 -1.1973158 0
4.0120473 -6.4004264 -1.1964245 0
4.0291958 -6.3801479 -1.1951524 0
4.0500422 -6.3657818 -1.1949983 0
4.0621209 -6.3377476 -1.1922857 0
4.1396356 -6.4112692 -1.208721 0
4.1564465 -6.3901868 -1.2073669 0
4.1908464 -6.3960528 -1.2111233 0
4.1484075 -6.2852125 -1.1927621 0
4.1972837 -6.3131213 -1.2007225 0
4.1893616 -6.2556124 -1.1924493 0
4.2329531 -6.2750959 -1.198862 0
4.2706413 -6.2854066 -1.2035606 0
4.2878928 -6.2655025 -1.2024955 0
4.2797384 -6.2088203 -1.1943641 0
4.3306193 -6.2377739 -1.2027202 0
4.3268757 -6.1879907 -1.1959118 0
4.351891 -6.179544 -1.1970924 0
4.3823071 -6.1786246 -1.199754 0
4.4122605 -6.1768632 -1.2022778 0
4.4397111 -6.1714396 -1.2041128 0
4.4800572 -6.183682 -1.2094253 0
4.4665003 -6.1216645 -1.2002178 0
4.4855404 -6.1046686 -1.1998276 0
4.5226607 -6.112134 -1.2042683 0
4.5253682 -6.0731025 -1.1995606 0
4.5559721 -6.071578 -1.2022702 0
4.5723352 -6.0510173 -1.2012275 0
4.579957 -6.0190406 -1.1979214 0
4.6201782 -6.02984 -1.2031469 0
4.6223278 -5.9909325 -1.1984692 0
4.6849737 -6.0302143 -1.2094629 0
4.6735539 -5.9740644 -1.2013371 0
4.6847091 -5.9471283 -1.1990722 0
4.6905708 -5.9136724 -1.195491 0
4.7297463 -5.9221716 -1.2004082 0
4.7722292 -5.9344511 -1.2061337 0
4.7601542 -5.8789635 -1.1980933 0
4.7805762 -5.8638754 -1.1982782 0
4.8067951 -5.8558369 -1.1999222 0
4.8343124 -5.8492594 -1.2018889 0
4.8271022 -5.8008184 -1.1952542 0
4.8670578 -5.8091092 -1.2003182 0
4.8642149 -5.7663317 -1.1948423 0
4.9346657 -5.8102098 -1.2073559 0
4.9282765 -5.7634106 -1.2010579 0
4.9302292 -5.7267098 -1.1968478 0
4.9778666 -5.7429872 -1.2037309 0
4.9824886 -5.7095284 -1.2002127 0
4.9922752 -5.6821742 -1.1979743 0
5.0054431 -5.6587839 -1.1965744 0
5.0135832 -5.6298375 -1.1940014 0
5.0747309 -5.6601758 -1.2040375 0
5.0738568 -5.6211686 -1.1993518 0
5.0855184 -5.5962501 -1.1976664 0
5.0910478 -5.5647335 -1.1945679 0
5.1540689 -5.5958304 -1.2049462 0
5.1463261 -5.5499659 -1.198779 0
5.1753731 -5.5438933 -1.2012086 0
5.2062259 -5.5395913 -1.2040519 0
5.2137089 -5.5104146 -1.2015029 0
5.1977973 -5.4568329 -1.1936131 0
5.2320786 -5.4560757 -1.1972778 0
5.277863 -5.4670095 -1.2035536 0
5.257175 -5.4091682 -1.1946934 0
5.2741866 -5.3903923 -1.1944455 0
5.3346009 -5.4156938 -1.2040086 0
5.3414092 -5.386363 -1.2014625 0
5.3494859 -5.3584542 -1.1992313 0
5.3667254 -5.3397956 -1.1990758 0
5.4298944 -5.366539 -1.2091625 0
5.3807135 -5.2823873 -1.1942599 0
5.428371 -5.2935491 -1.2008915 0
5.4802356 -5.3083954 -1.208421 0
5.4439497 -5.2379832 -1.1965406 0
5.4325366 -5.1920381 -1.1901991 0
5.4501767 -5.1740441 -1.1902566 0
5.4613018 -5.1499028 -1.1889086 0
5.5251641 -5.1752367 -1.1990272 0
5.526022 -5.141366 -1.1954657 0
5.5969458 -5.172452 -1.2070503 0
5.5434556 -5.088665 -1.1918284 0
5.6121569 -5.1171641 -1.2029035 0
5.6126428 -5.0832491 -1.1993479 0
5.6457443 -5.0788765 -1.2027756 0
5.6578732 -5.0555687 -1.2017417 0
5.6597905 -5.0232568 -1.1985649 0
5.6837339 -5.0105405 -1.200071 0
5.6943302 -4.9860525 -1.1987718 0
5.6917295 -4.9501591 -1.1947236 0
5.7305484 -4.9502721 -1.1993814 0
5.7618041 -4.9436355 -1.2024472 0
5.7795939 -4.9253521 -1.2027067 0
5.8062172 -4.9145308 -1.2048112 0
5.8193254 -4.892231 -1.2041208 0
5.8389993 -4.8754511 -1.2048025 0
5.8076339 -4.8163061 -1.1949919 0
5.8622136 -4.8284888 -1.2028846 0
5.8818555 -4.8116584 -1.2035978 0
5.8571792 -4.758781 -1.1952766 0
5.9396763 -4.7928367 -1.2088257 0
5.8860054 -4.7170324 -1.1946774 0
5.9187732 -4.7107902 -1.1981157 0
5.9379702 -4.6936345 -1.1988093 0
5.9731607 -4.6889973 -1.2027332 0
6.0128479 -4.687654 -1.2075529 0
6.0366797 -4.6737766 -1.2091852 0
6.0428624 -4.6462417 -1.2072965 0
6.0199103 -4.596561 -1.1996251 0
6.0244441 -4.5681291 -1.1974697 0
6.0373745 -4.546134 -1.1970035 0
6.0798459 -4.5462523 -1.2023952 0
6.1320524 -4.5533147 -1.2096939 0
6.1101699 -4.505363 -1.2023903 0
6.1175694 -4.4792342 -1.2008843 0
6.1373711 -4.4622006 -1.2018278 0
6.1056566 -4.4079261 -1.1927167 0
6.1828766 -4.4322162 -1.2048917 0
6.1864109 -4.4034243 -1.2026964 0
6.1691022 -4.3600149 -1.1964829 0
6.2196951 -4.3645754 -1.2034503 0
6.2369595 -4.3455548 -1.2039648 0
6.2268648 -4.3075809 -1.1992216 0
6.1633244 -4.2331424 -1.1842443 0
6.2803507 -4.2826004 -1.2039645 0
6.2812958 -4.2524624 -1.2014056 0
6.2500296 -4.2008042 -1.1927248 0
6.2489448 -4.1697268 -1.1898432 0
6.3087449 -4.1791277 -1.1985548 0
6.2920423 -4.1377773 -1.1927392 0
6.336585 -4.136703 -1.198547 0
6.3628187 -4.1234703 -1.2008872 0
6.3437629 -4.0809841 -1.1947016 0
6.3658433 -4.0650768 -1.1962864 0
6.4251294 -4.0726738 -1.2048547 0
6.3949175 -4.023531 -1.1966529 0
6.4165506 -4.0071754 -1.1981802 0
6.4177113 -3.9780533 -1.1958996 0
6.4149313 -3.9466197 -1.1929091 0
6.3840575 -3.8981798 -1.1847306 0
6.5068336 -3.943259 -1.2050548 0
6.5003552 -3.9095945 -1.2014207 0
6.5089512 -3.8851068 -1.200595 0
6.5582609 -3.8847759 -1.2072811 0
6.5005388 -3.8212001 -1.1942902 0
6.5224471 -3.8047111 -1.1959648 0
6.5114431 -3.769089 -1.1916232 0
6.5819392 -3.7804897 -1.2021979 0
6.5947499 -3.7584987 -1.2022294 0
6.5927029 -3.7281039 -1.1995707 0
6.6067848 -3.7068875 -1.1998649 0
6.6027889 -3.6755931 -1.1968943 0
6.6069722 -3.6489592 -1.1954281 0
6.6391673 -3.6377442 -1.1990398 0
6.71172 -3.6482918 -1.209927 0
6.6262751 -3.5731175 -1.1923573 0
6.7236352 -3.5965719 -1.2077 0
6.6626449 -3.5352683 -1.1946092 0
6.6886411 -3.5203731 -1.1971473 0
6.7364426 -3.5167403 -1.2035857 0
6.7197061 -3.479383 -1.1985044 0
6.750308 -3.4665775 -1.2018827 0
6.7658248 -3.4459279 -1.2025815 0
6.7347927 -3.4017334 -1.1950319 0
6.7752829 -3.3937211 -1.2001907 0
6.7914534 -3.3733852 -1.2010449 0
6.744266 -3.3218021 -1.1907237 0
6.7951331 -3.3185928 -1.1977333 0
6.8186641 -3.3018162 -1.1999228 0
6.8695521 -3.2980711 -1.2069253 0
6.795629 -3.2345893 -1.1920254 0
6.8548107 -3.2346137 -1.2004975 0
6.9039063 -3.2295234 -1.2071925 0
6.8888006 -3.1943502 -1.2026718 0
6.8593173 -3.1527791 -1.1956723 0
6.9094954 -3.147825 -1.2025725 0
6.8851585 -3.1089044 -1.1965158 0
5.1322045 -2.2966962 -0.89054096 0
5.1249609 -2.2728612 -0.88795674 0
5.1295557 -2.2543483 -0.8874383 0
5.0920119 -2.2175083 -0.87965178 0
5.125567 -2.2117066 -0.88416243 0
5.1390295 -2.1971068 -0.88520908 0
5.1512384 -2.1819277 -0.88604695 0
5.0982451 -2.1393492 -0.87569302 0
5.1378965 -2.1357565 -0.88126874 0
5.1263165 -2.1108134 -0.87806374 0
5.1629186 -2.1056674 -0.88311887 0
5.143538 -2.0776765 -0.87860739 0
5.2755208 -2.1104434 -0.89993852 0
5.2740617 -2.0893741 -0.89848953 0
5.2872105 -2.0741012 -0.89953989 0
5.3594317 -2.0817254 -0.91063464 0
5.4107308 -2.0807998 -0.91816044 0
5.4508505 -2.0752771 -0.92378247 0
7.0882282 -2.6714926 -1.1997523 0
7.0483379 -2.6295035 -1.1915015 0
7.1358342 -2.6349244 -1.2047923 0
7.0749483 -2.58552 -1.1930422 0
7.1266289 -2.5773542 -1.2002931 0
7.1237516 -2.5493376 -1.1983621 0
7.1379447 -2.527452 -1.1993175 0
7.162189 -2.5090444 -1.2019708 0
7.1580033 -2.4806647 -1.1998657 0
7.1999555 -2.4681954 -1.2055041 0
7.2217593 -2.4486423 -1.2077733 0
7.1939049 -2.4123354 -1.2017555 0
7.1599188 -2.3742635 -1.1947415 0
7.1806378 -2.3544409 -1.1968749 0
7.21945 -2.3403883 -1.2020293 0
7.2211967 -2.3142278 -1.2010216 0
7.2086072 -2.2835703 -1.1976476 0
7.2245741 -2.2620029 -1.1990336 0
7.201787 -2.2283826 -1.194005 0
7.2775278 -2.2251098 -1.2053186 0
7.2517614 -2.1906719 -1.1998279 0
7.2783046 -2.1720874 -1.2030078 0
7.2633586 -2.1411319 -1.1993442 0
7.3041711 -2.1265714 -1.2048992 0
7.2739825 -2.0913522 -1.1987557 0
7.3087096 -2.0748317 -1.2033256 0
7.2667389 -2.0366142 -1.1952845 0
7.3406587 -2.0308111 -1.2063166 0
7.3524332 -2.0075548 -1.2071385 0
7.3583174 -1.9826752 -1.2070065 0
7.3017111 -1.9411877 -1.1966468 0
7.3473849 -1.9269782 -1.2030666 0
7.3549323 -1.9026247 -1.203251 0
7.3667521 -1.8793528 -1.2041471 0
7.388504 -1.8585399 -1.2066772 0
7.407176 -1.8368527 -1.2087141 0
7.3892097 -1.8061208 -1.2047874 0
7.3837614 -1.7785751 -1.2029201 0
7.3875132 -1.7532936 -1.2025667 0
7.3670106 -1.7223569 -1.1982826 0
7.3788176 -1.6990455 -1.1992698 0
7.4115238 -1.6804296 -1.203663 0
7.3534498 -1.6413598 -1.193331 0
7.3759623 -1.6204417 -1.1960959 0
7.4458466 -1.6096444 -1.2065465 0
7.4341502 -1.5810444 -1.2037855 0
7.4260588 -1.5533177 -1.2016252 0
7.4380932 -1.5298234 -1.2027358 0
7.3992958 -1.4960035 -1.1956445 0
7.3851085 -1.4673793 -1.1925503 0
7.4097176 -1.4464619 -1.1957343 0
7.4620209 -1.4307169 -1.2033938 0
7.4038281 -1.3938396 -1.1932487 0
7.4413853 -1.3750924 -1.1985519 0
7.4746819 -1.3553442 -1.2031761 0
7.4609556 -1.3270332 -1.2002437 0
7.451231 -1.2995459 -1.1979717 0
7.4998579 -1.2821312 -1.2050917 0
7.4771476 -1.2524613 -1.2007611 0
7.480886 -1.2273161 -1.200694 0
7.4910221 -1.2032012 -1.2016666 0
7.4785223 -1.1754861 -1.1990224 0
7.4554529 -1.1462591 -1.1947008 0
7.45717 -1.1209427 -1.1943671 0
7.5007682 -1.1017921 -1.2007514 0
7.4976907 -1.0756718 -1.1996747 0
7.4562879 -1.0442299 -1.1924831 0
7.4747081 -1.0212686 -1.1948748 0
7.5073524 -1.0000998 -1.1995503 0
7.5090337 -0.97471189 -1.19929 0
7.5182972 -0.95029318 -1.200254 0
7.5144897 -0.92422545 -1.1991446 0
7.5492916 -0.90282202 -1.2042084 0
7.5000772 -0.87144053 -1.1958853 0
7.520483 -0.84826618 -1.1986789 0
7.5197797 -0.82266319 -1.1981204 0
7.5683489 -0.80230701 -1.2054235 0
7.5431166 -0.77406627 -1.2009846 0
7.5042548 -0.74466163 -1.1943929 0
7.4998298 -0.71883768 -1.1932983 0
7.5174856 -0.69510168 -1.19573 0
7.5025291 -0.66835684 -1.1929879 0
7.5487895 -0.64697486 -1.1999921 0
7.5515838 -0.6217165 -1.2000983 0
7.5773721 -0.59826887 -1.2038709 0
7.589426 -0.57362264 -1.2054737 0
7.5169034 -0.54280084 -1.1936587 0
7.592474 -0.52267498 -1.205374 0
7.5749288 -0.49595526 -1.2023178 0
7.529304 -0.46762094 -1.1948205 0
7.5873652 -0.44569495 -1.2037903 0
7.6289248 -0.42247456 -1.2101525 0
7.6208868 -0.3964043 -1.2086599 0
7.554512 -0.36755866 -1.1979307 0
7.5721641 -0.34297341 -1.2005408 0
7.5400691 -0.31619111 -1.1952775 0
7.5638247 -0.29178604 -1.1988814 0
7.5384517 -0.26549774 -1.1947119 0
7.6491241 -0.24372055 -1.2121153 0
7.5246224 -0.2145019 -1.1922654 0
7.5245614 -0.18925351 -1.1921486 0
7.5369921 -0.16428204 -1.194024 0
7.6393394 -0.14088918 -1.2101564 0
7.5508628 -0.11393364 -1.1960735 0
7.6380825 -0.089635953 -1.2098349 0
7.5216241 -0.063048057 -1.1913483 0
7.6187158 -0.038316566 -1.2066995 0
7.571178 -0.0126924 -1.1991566 0
7.5210056 0.012608292 -1.1912102 0
7.5671749 0.038057357 -1.1985362 0
7.5979757 0.063688055 -1.2034416 0
7.5581203 0.088697568 -1.1971693 0
7.5340595 0.11368009 -1.1934118 0
7.5706654 0.13962266 -1.1992778 0
7.5726132 0.16505846 -1.1996671 0
7.5487223 0.18986118 -1.1959765 0
7.6123695 0.21700329 -1.2061689 0
7.5234537 0.23971637 -1.1922009 0
7.5170445 0.2647438 -1.1913192 0
7.6419268 0.29479894 -1.2112607 0
7.5973754 0.31859422 -1.2043618 0
7.5695519 0.34285507 -1.2001266 0
7.524426 0.36609486 -1.1931599 0
7.5274458 0.39154392 -1.1938403 0
7.5760784 0.41954803 -1.2017696 0
7.5604024 0.44411111 -1.1995125 0
7.5559511 0.46927589 -1.1990491 0
7.5668178 0.49542418 -1.2010304 0
7.5403705 0.51908815 -1.1971021 0
7.5870519 0.54786628 -1.2047981 0
7.5961924 0.57413411 -1.2065485 0
7.5421524 0.59548813 -1.1982753 0
7.5584645 0.62228298 -1.2011917 0
7.5942922 0.65087467 -1.2072254 0
7.5817442 0.67541367 -1.2055839 0
7.5909786 0.7018972 -1.2074198 0
7.6036916 0.72879255 -1.2098237 0
7.5364513 0.7478565 -1.1995174 0
7.5575471 0.77554709 -1.2032821 0
7.5253496 0.79774868 -1.1985749 0
7.5126777 0.82188624 -1.1969888 0
7.5209355 0.84831727 -1.198751 0
7.5370522 0.87573677 -1.201781 0
7.5049195 0.89751559 -1.1971306 0
7.5494075 0.92852008 -1.2047168 0
7.5332994 0.95218945 -1.202649 0
7.4614291 0.96853262 -1.191687 0
7.5132146 1.0008807 -1.200487 0
7.4707451 1.0207272 -1.1942413 0
7.4685607 1.0459486 -1.1944458 0
7.482636 1.073512 -1.1972659 0
7.5079584 1.1028483 -1.2019025 0
7.4665947 1.1223594 -1.1958766 0
7.5506611 1.1608971 -1.2099575 0
7.471292 1.1743497 -1.1978632 0
7.5238357 1.2084715 -1.2069303 0
7.4679074 1.2251868 -1.1986108 0
7.4806828 1.2530535 -1.2013289 0
7.4472117 1.2731311 -1.1966325 0
7.4600167 1.3010782 -1.1993842 0
7.4227986 1.3202465 -1.1941055 0
7.4253211 1.3463938 -1.1952307 0
7.4537306 1.3773737 -1.2005403 0
7.4576836 1.4039785 -1.2019285 0
7.4562736 1.4296149 -1.202467 0
7.4142423 1.4473453 -1.1964644 0
7.4137354 1.4730674 -1.1971729 0
7.3959832 1.4953339 -1.1951092 0
7.4056921 1.5231594 -1.1974965 0
7.4475436 1.5578117 -1.2051017 0
7.4065614 1.5751771 -1.1993182 0
7.3526006 1.5894864 -1.1914366 0
7.3888998 1.623284 -1.1981939 0
7.4014034 1.6520634 -1.201113 0
7.3202105 1.6597259 -1.1888332 0
7.3730001 1.697706 -1.1983242 0
7.2936506 1.7052058 -1.1863502 0
7.3816514 1.7519025 -1.2016126 0
7.3558302 1.771847 -1.1983696 0
7.3047857 1.7854854 -1.1910224 0
7.3698654 1.8276002 -1.2026258 0
7.3411756 1.8466347 -1.1989477 0
7.3286667 1.8696368 -1.1979219 0
7.3444262 1.899907 -1.2015322 0
7.3201699 1.9198406 -1.1986103 0
7.346859 1.9531906 -1.2040459 0
7.2794676 1.9614295 -1.1940725 0
7.3523045 2.0075197 -1.2071174 0
7.349894 2.033366 -1.2078342 0
7.3312969 2.0547075 -1.2059034 0
7.3006706 2.0725496 -1.202002 0
7.2650466 2.088783 -1.1972831 0
7.2518764 2.111346 -1.1962725 0
7.2318811 2.1318529 -1.1941465 0
7.2069001 2.1507781 -1.1912056 0
7.2667422 2.1951976 -1.2023065 0
7.2693248 2.2226017 -1.2039601 0
7.2237186 2.2351687 -1.197641 0
7.1862555 2.2500055 -1.1926739 0
7.2349505 2.2919154 -1.2020243 0
2.2121391 0.70893979 -0.36792058 0
2.1829791 0.70767426 -0.36346328 0
2.2141094 0.72597867 -0.36904967 0
2.1539178 0.71424949 -0.35941401 0
2.1774743 0.73017347 -0.36375123 0
2.1758223 0.73774409 -0.36388642 0
2.1898146 0.75068384 -0.36664537 0
2.1772654 0.75454915 -0.36496577 0
2.1496937 0.75307655 -0.36076525 0
2.1249385 0.75241268 -0.35703215 0
2.107554 0.7542187 -0.35453409 0
2.1087656 0.76263773 -0.35516605 0
2.1353395 0.78035384 -0.36008036 0
2.0894032 0.77151722 -0.35276836 0
2.1158004 0.78933567 -0.35767004 0
2.0835981 0.7852903 -0.35266945 0
2.1251938 0.80911523 -0.36016709 0
2.0141237 0.77456975 -0.34178168 0
2.0868571 0.81058282 -0.3545832 0
2.0658417 0.8104018 -0.35147211 0
2.0557892 0.81442219 -0.35022441 0
2.0572057 0.82297397 -0.35093385 0
2.0461385 0.8265155 -0.34951666 0
2.0785725 0.84773409 -0.35554048 0
2.0298917 0.83582872 -0.34769103 0
2.0216055 0.84035504 -0.34675238 0
1.9593101 0.82217479 -0.3365382 0
2.0379403 0.86321735 -0.35053915 0
6.9456348 2.969491 -1.1964008 0
6.9513154 2.9995258 -1.1991048 0
6.9405603 3.0225284 -1.1989909 0
6.9414296 3.0506346 -1.2009014 0
6.9035478 3.0616441 -1.1961168 0
6.879705 3.0787144 -1.1937675 0
6.8971 3.1142962 -1.198591 0
6.8419299 3.1170437 -1.1908129 0
6.8970165 3.1701069 -1.2022437 0
6.8598146 3.1809094 -1.1976112 0
6.9129114 3.2337358 -1.2087671 0
6.852355 3.2334547 -1.2000674 0
6.8340783 3.2528903 -1.1987698 0
6.8250213 3.2766919 -1.1991016 0
6.8148241 3.299957 -1.1992471 0
6.7977653 3.3198781 -1.1981971 0
6.7457676 3.3225415 -1.1909888 0
6.7836814 3.3695247 -1.1996704 0
6.7435751 3.3778389 -1.194574 0
6.7669735 3.4179878 -1.2007421 0
6.7553339 3.4405849 -1.2007169 0
6.6989932 3.4402249 -1.1927462 0
6.7226124 3.4808877 -1.1990228 0
6.7298841 3.5133164 -1.2024139 0
6.6522174 3.5012026 -1.1906281 0
6.6824126 3.5457571 -1.1981535 0
6.6734648 3.5697351 -1.1986884 0
6.6885538 3.6067007 -1.203564 0
6.6916871 3.6374025 -1.2063156 0
6.651741 3.6446335 -1.2013106 0
6.6343737 3.6640928 -1.200386 0
6.6570373 3.7057917 -1.206728 0
6.6345062 3.7224414 -1.2048993 0
6.5786562 3.7201607 -1.1970149 0
6.5787582 3.7493846 -1.1993141 0
6.5244184 3.7474513 -1.1916918 0
6.5177755 3.7727544 -1.1927822 0
6.5463562 3.8186579 -1.2003489 0
6.5235329 3.8347166 -1.1985147 0
6.5285864 3.8671982 -1.2018185 0
6.4707932 3.8623307 -1.1935568 0
6.4562187 3.883049 -1.1932631 0
6.4366794 3.9007442 -1.1920623 0
6.4800553 3.9567971 -1.2025456 0
6.4403214 3.9622405 -1.1976306 0
6.4353309 3.9889746 -1.1991829 0
6.4171643 4.0075588 -1.1982948 0
6.3985744 4.0258322 -1.1973372 0
6.3688793 4.0370183 -1.1943066 0
6.442512 4.1140361 -1.2106942 0
6.3739886 4.1004286 -1.2003939 0
6.3726678 4.1298528 -1.2027462 0
6.3419185 4.1401849 -1.1995558 0
6.3275442 4.1611238 -1.1994691 0
6.3192663 4.1860976 -1.2005538 0
6.3388319 4.2297058 -1.2069583 0
6.308588 4.2401628 -1.2038997 0
6.2657981 4.2419705 -1.1984415 0
6.2413912 4.2560339 -1.1964958 0
6.2281895 4.2776933 -1.1967077 0
6.2241068 4.3056731 -1.1986904 0
6.177145 4.3038793 -1.1924185 0
6.2405891 4.3792377 -1.2074931 0
6.1471334 4.3444886 -1.1922221 0
6.166338 4.3891363 -1.1987941 0
6.1905317 4.4377036 -1.2063835 0
6.1500807 4.4399977 -1.2013948 0
6.1385937 4.4630899 -1.2020673 0
6.1542039 4.5060577 -1.2080758 0
6.1310372 4.5207496 -1.2064967 0
6.0337534 4.4803233 -1.1903021 0
6.0365167 4.5138526 -1.1938261 0
6.0786409 4.5772071 -1.2051852 0
6.0400424 4.579957 -1.2005702 0
6.0451832 4.6158586 -1.2046614 0
6.0033517 4.6158628 -1.1994027 0
6.0026321 4.6474161 -1.2023653 0
5.9906244 4.6703281 -1.2030898 0
5.9418917 4.6644506 -1.196437 0
5.9805994 4.7273307 -1.2074157 0
5.9212985 4.7128 -1.1986269 0
5.8835549 4.7150683 -1.19418 0
5.9149141 4.7728558 -1.2037863 0
5.851563 4.7542181 -1.1941305 0
5.8729076 4.8043385 -1.2017668 0
5.8559723 4.8233476 -1.2016038 0
5.8215976 4.8278861 -1.1978651 0
5.8200765 4.8596506 -1.2008979 0
5.7959428 4.8725734 -1.1992825 0
5.8034105 4.9121552 -1.2042288 0
5.7657733 4.9135742 -1.1998307 0
5.7430239 4.9275217 -1.1985279 0
5.7346506 4.9538155 -1.2002399 0
5.6979113 4.9555354 -1.1960212 0
5.6955438 4.9871154 -1.1990274 0
5.6590719 4.9887996 -1.1948639 0
5.6392674 5.0050416 -1.1942188 0
5.6540775 5.0521774 -1.2009355 0
5.606638 5.0436964 -1.1944444 0
5.6466866 5.1140814 -1.2066226 0
5.6294751 5.1329546 -1.2066154 0
5.5682468 5.1114225 -1.1971583 0
5.5641165 5.1421123 -1.1999702 0
5.5414929 5.1557598 -1.1988125 0
5.5297222 5.1795063 -1.2000164 0
5.516151 5.2016249 -1.2008492 0
5.4921927 5.2139316 -1.1994324 0
5.4551678 5.2136674 -1.1951574 0
5.4659467 5.2591481 -1.2013754 0
5.4381967 5.2676744 -1.1991513 0
5.4076138 5.2733078 -1.1962994 0
5.4466085 5.3470778 -1.2088853 0
5.4029083 5.3398681 -1.203153 0
5.3862329 5.3592052 -1.2034342 0
5.3797369 5.3887558 -1.2060128 0
5.2932973 5.3378458 -1.1906404 0
5.3208098 5.4016929 -1.2008959 0
5.2498565 5.3655262 -1.1889355 0
5.2774892 5.4300694 -1.1993099 0
5.2692909 5.4581304 -1.2015988 0
5.2324529 5.4564662 -1.1973635 0
5.2172375 5.477242 -1.1980772 0
5.20261 5.4986839 -1.1989452 0
5.1591215 5.4894714 -1.193158 0
5.206058 5.5767636 -1.2083306 0
5.1406603 5.5438557 -1.1974591 0
5.1452484 5.5862536 -1.2028841 0
5.1138043 5.5896077 -1.1999075 0
5.1000848 5.6122789 -1.2010969 0
5.0949049 5.6444869 -1.2043271 0
5.0295334 5.6097646 -1.193314 0
5.0389194 5.6582875 -1.2000353 0
5.0167513 5.6715684 -1.1992779 0
4.9888291 5.6782517 -1.1971474 0
4.9808884 5.707695 -1.1998273 0
4.9447923 5.7048292 -1.1957331 0
4.8943977 5.6850901 -1.1881495 0
4.9227686 5.7569695 -1.1997156 0
4.9117041 5.783174 -1.2017379 0
4.923883 5.8370657 -1.2094991 0
4.8951192 5.8426023 -1.2072388 0
4.8380504 5.8139749 -1.1979651 0
4.8402233 5.856411 -1.2033584 0
4.8005967 5.8482857 -1.1983749 0
4.7853646 5.8697491 -1.1994785 0
4.7519255 5.8688006 -1.1960223 0
4.7346096 5.8876696 -1.1966257 0
4.7415981 5.9370112 -1.2034161 0
4.6774793 5.8971672 -1.1921543 0
4.7019877 5.9690633 -1.2034949 0
4.6770115 5.9784842 -1.2022259 0
4.6438012 5.9772196 -1.1988339 0
4.620368 5.9883924 -1.197961 0
4.5833311 5.981751 -1.1935515 0
4.5948973 6.0386758 -1.2018292 0
4.5846891 6.0673661 -1.2044731 0
4.5588088 6.0753589 -1.2030188 0
4.53546 6.0866456 -1.2022358 0
4.4831529 6.0587416 -1.1937485 0
4.4621563 6.0728436 -1.1935725 0
4.4737983 6.1316671 -1.202179 0
4.3916059 6.0615959 -1.1855472 0
4.4268308 6.1535354 -1.2006193 0
4.3912501 6.1474504 -1.1965529 0
4.4018903 6.2062345 -1.2051152 0
4.3541832 6.1827989 -1.197723 0
4.3208442 6.1793647 -1.1942446 0
4.3261647 6.2313581 -1.201483 0
4.34131 6.2981443 -1.2115469 0
4.2834425 6.2589998 -1.2012473 0
4.2322373 6.2288847 -1.1927376 0
4.2396784 6.2850657 -1.2007667 0
4.1995687 6.270854 -1.1953547 0
4.2168503 6.3425512 -1.2063199 0
