# .PCD v0.7 - Point Cloud Data file format
VERSION 0.7
FIELDS x y z intensity
SIZE 4 4 4 4
TYPE F F F F
COUNT 1 1 1 1
WIDTH 1411
HEIGHT 1
VIEWPOINT 0 0 0 1 0 0 0
POINTS 1411
DATA ascii
2.0105484 0.47716761 -0.10829508 0
2.0581744 0.49576595 -0.11094929 0
1.942077 0.47469565 -0.10477608 0
1.9934675 0.49434572 -0.10763744 0
1.9712825 0.49586591 -0.10652873 0
2.0057566 0.51169419 -0.10848382 0
1.9351466 0.50059706 -0.10475498 0
1.9627379 0.51476181 -0.10634141 0
2.0239711 0.53808045 -0.10975616 0
1.9937893 0.53722018 -0.10821653 0
1.9967514 0.54520565 -0.10847591 0
2.0188346 0.55851549 -0.10977671 0
1.9318453 0.54142904 -0.10514469 0
1.9560586 0.55529535 -0.10656328 0
1.9426146 0.55852365 -0.10593229 0
1.9370465 0.56396097 -0.10573117 0
1.9639213 0.57893527 -0.10730345 0
1.9776011 0.59018177 -0.10815838 0
1.9671484 0.59425247 -0.10769507 0
1.9528108 0.59707338 -0.10701913 0
1.9582934 0.60593671 -0.10743032 0
1.9601263 0.61371249 -0.10764315 0
1.9876505 0.62965554 -0.10927001 0
2.039583 0.65363955 -0.11224481 0
1.9554633 0.63391858 -0.1077318 0
1.9836891 0.65042669 -0.10940636 0
1.9525071 0.64746076 -0.10780571 0
1.9374573 0.64968842 -0.10709441 0
2.0331612 0.68937278 -0.11251165 0
1.9876528 0.68138134 -0.1101191 0
1.9486016 0.67530388 -0.10808043 0
1.9826763 0.69456732 -0.11009895 0
1.967868 0.69679612 -0.10940576 0
1.947135 0.69681048 -0.10838237 0
1.9785559 0.7155472 -0.11026425 0
2.0172358 0.73719317 -0.11255698 0
1.9766867 0.72989649 -0.11043037 0
1.9507855 0.72777408 -0.10911907 0
1.9688337 0.74203658 -0.11026715 0
1.9705626 0.75024313 -0.11050424 0
1.9853652 0.76351005 -0.11147726 0
1.998747 0.77635884 -0.11237417 0
1.9867171 0.77936226 -0.11184411 0
1.9362898 0.76708126 -0.10914943 0
1.9494413 0.77986342 -0.11003756 0
1.9812074 0.80028731 -0.11198144 0
1.9497986 0.79521435 -0.11035624 0
1.9548179 0.80491632 -0.11079245 0
1.9504941 0.81079495 -0.11070084 0
1.9188874 0.80521244 -0.1090596 0
1.9721707 0.8353591 -0.11224651 0
1.9753684 0.84453601 -0.11258903 0
1.9648849 0.84785724 -0.1121529 0
1.9898173 0.86654085 -0.1137412 0
1.9435154 0.8541404 -0.11125759 0
1.934554 0.85795248 -0.11090863 0
1.9384208 0.86745632 -0.11129643 0
1.9878432 0.89758492 -0.11430622 0
1.9931707 0.90804797 -0.114787 0
1.9605784 0.90114951 -0.11308336 0
1.9230186 0.89170748 -0.11108878 0
1.9733845 0.92311382 -0.11417647 0
1.9516186 0.92091995 -0.11309515 0
1.9789355 0.94193542 -0.11486051 0
1.9552152 0.93869853 -0.11366578 0
1.9296464 0.93439686 -0.11236085 0
1.9658071 0.96005672 -0.11465323 0
1.9775985 0.97404093 -0.11553077 0
1.96558 0.9763239 -0.11501925 0
1.9689823 0.98625803 -0.11541118 0
1.9699955 0.99504167 -0.11566547 0
1.9322006 0.98409641 -0.11363949 0
1.9702229 1.0117954 -0.11607458 0
1.9854478 1.0280409 -0.11717395 0
20.344114 10.620585 -1.2027309 0
20.220392 10.64242 -1.1975193 0
20.207533 10.722326 -1.1988801 0
20.174206 10.791481 -1.1990427 0
20.146694 10.863798 -1.1995658 0
20.099827 10.92567 -1.1989496 0
20.131723 11.030609 -1.2030514 0
20.10265 11.102475 -1.2035317 0
19.990154 11.127975 -1.1990237 0
19.979458 11.209931 -1.2006298 0
19.930202 11.270319 -1.1999339 0
19.887516 11.334351 -1.1996452 0
19.834501 11.392406 -1.1987445 0
19.79833 11.460081 -1.198874 0
19.752525 11.522156 -1.1984329 0
19.729095 11.59732 -1.1993638 0
19.68236 11.658815 -1.1988921 0
19.681696 11.747745 -1.2012442 0
19.65382 11.820658 -1.2019551 0
19.591614 11.872873 -1.2005786 0
19.517908 11.917862 -1.1985037 0
19.49464 11.993571 -1.1995375 0
19.486139 12.078589 -1.2014995 0
19.387026 12.107317 -1.1978844 0
19.37855 12.192526 -1.1998799 0
19.315948 12.24373 -1.1985388 0
19.206057 12.264534 -1.1942649 0
19.24437 12.380028 -1.1992216 0
19.222067 12.456998 -1.2004277 0
19.099787 12.468884 -1.1953954 0
19.117231 12.571887 -1.1991186 0
19.089396 12.645467 -1.2000252 0
19.041878 12.706055 -1.1997094 0
19.006556 12.774791 -1.2001758 0
18.965866 12.839967 -1.2003181 0
18.885399 12.878041 -1.1979513 0
18.883129 12.969458 -1.200559 0
18.843674 13.035557 -1.2008225 0
18.800451 13.099074 -1.2008601 0
18.728273 13.142278 -1.1990576 0
18.72093 13.231023 -1.2014209 0
18.598593 13.238289 -1.1964116 0
18.624783 13.351239 -1.2009692 0
18.521093 13.371143 -1.1971672 0
18.531446 13.473364 -1.2007495 0
18.477623 13.529163 -1.2001945 0
18.435049 13.593172 -1.2003828 0
18.340389 13.618534 -1.1971855 0
18.320438 13.699251 -1.1988747 0
18.308035 13.785922 -1.2010809 0
18.25275 13.840434 -1.2004917 0
18.1744 13.877239 -1.1983919 0
18.128979 13.939026 -1.1984718 0
18.076738 13.995547 -1.1981137 0
18.082598 14.097307 -1.2016281 0
18.060192 14.177451 -1.2032912 0
17.991976 14.221655 -1.2019162 0
17.901676 14.24806 -1.1990685 0
17.859545 14.3126 -1.1994539 0
17.782009 14.348639 -1.197471 0
17.778112 14.444179 -1.2004631 0
17.69755 14.4775 -1.1982942 0
17.669411 14.55364 -1.1996861 0
17.626278 14.617579 -1.2000784 0
17.579514 14.678553 -1.2002385 0
17.530293 14.737489 -1.2002448 0
17.469305 14.786467 -1.1994567 0
17.422918 14.847757 -1.1996832 0
17.393076 14.923282 -1.2010667 0
17.314655 14.957077 -1.1991078 0
17.277727 15.026628 -1.2000327 0
17.251106 15.105363 -1.2016946 0
17.182743 15.147584 -1.2004635 0
17.124285 15.198385 -1.1999327 0
17.090132 15.270817 -1.2011206 0
17.012135 15.30401 -1.1992383 0
16.921774 15.325684 -1.196484 0
16.883938 15.394773 -1.1974516 0
16.911091 15.523688 -1.2030621 0
16.78438 15.511388 -1.1977408 0
16.762129 15.595347 -1.1998775 0
16.709822 15.651531 -1.199883 0
16.658239 15.7084 -1.1999542 0
16.545282 15.707019 -1.1956043 0
16.549221 15.816587 -1.1997143 0
16.498528 15.874323 -1.199891 0
16.442209 15.926641 -1.1996719 0
16.36294 15.956543 -1.197785 0
16.365593 16.06653 -1.2019155 0
16.298489 16.10832 -1.200947 0
16.183666 16.102457 -1.1964577 0
16.202494 16.229656 -1.2018658 0
16.050879 16.185963 -1.1946383 0
16.087578 16.33213 -1.2014385 0
16.01288 16.36569 -1.1999512 0
15.944128 16.405098 -1.1989142 0
15.901267 16.471132 -1.1998371 0
15.8365 16.514496 -1.1991214 0
15.809379 16.59725 -1.2012746 0
15.744712 16.640724 -1.2005936 0
15.691902 16.696688 -1.2008287 0
15.587038 16.696938 -1.1970812 0
15.542255 16.761276 -1.1979512 0
15.502549 16.831291 -1.1992337 0
15.439221 16.875732 -1.1987051 0
15.375598 16.919748 -1.198163 0
15.373037 17.031311 -1.2024065 0
15.288798 17.052588 -1.2002829 0
15.253576 17.1285 -1.2020196 0
15.199192 17.183083 -1.2022672 0
15.127288 17.217777 -1.2011391 0
15.057838 17.255064 -1.2002116 0
14.963004 17.262886 -1.1972593 0
14.934726 17.347437 -1.1996437 0
14.870825 17.3908 -1.1991878 0
14.800499 17.42651 -1.1982217 0
14.74896 17.484299 -1.1987883 0
14.715797 17.564138 -1.2008727 0
14.645416 17.599669 -1.1999379 0
14.567827 17.626289 -1.1984161 0
14.554648 17.731075 -1.2022158 0
14.428517 17.698082 -1.196692 0
14.406834 17.792963 -1.1998347 0
14.33807 17.829943 -1.1990799 0
14.300269 17.905537 -1.2009325 0
14.205799 17.910069 -1.1980351 0
14.173557 17.992998 -1.2003969 0
14.09982 18.023378 -1.1992631 0
14.03407 18.063805 -1.1988153 0
14.017039 18.167282 -1.202557 0
13.899768 18.140724 -1.1977074 0
13.891911 18.256935 -1.202298 0
13.828388 18.300455 -1.202104 0
13.780239 18.364424 -1.2032642 0
13.67787 18.355877 -1.1996927 0
13.624585 18.412899 -1.2004272 0
13.549719 18.440708 -1.1992717 0
13.492285 18.492161 -1.1996691 0
13.408696 18.507603 -1.1977476 0
13.408294 18.638256 -1.2032869 0
13.293754 18.610348 -1.1986009 0
13.247341 18.677456 -1.2000556 0
13.169449 18.70019 -1.1986725 0
13.079042 18.704718 -1.1961452 0
13.08164 18.842644 -1.2021538 0
12.984477 18.837196 -1.1990221 0
12.922691 18.882738 -1.1991562 0
12.860468 18.927666 -1.1992643 0
12.809529 18.989349 -1.2004446 0
12.73558 19.016945 -1.199483 0
12.675175 19.064692 -1.1998074 0
12.613308 19.110302 -1.2000096 0
12.545375 19.1467 -1.1996472 0
12.484852 19.19441 -1.200007 0
12.447419 19.277966 -1.2026148 0
12.374128 19.306196 -1.201781 0
12.288442 19.314747 -1.1997417 0
12.235027 19.373913 -1.2008621 0
12.151237 19.38489 -1.1990104 0
12.092537 19.435747 -1.1996416 0
12.029228 19.479298 -1.1998335 0
11.957738 19.509546 -1.1992204 0
11.914276 19.585722 -1.2014407 0
11.835504 19.603962 -1.2001187 0
11.766011 19.637363 -1.1997416 0
11.695534 19.669016 -1.1992729 0
11.638055 19.722578 -1.2001529 0
11.577069 19.770378 -1.2006928 0
11.494627 19.781391 -1.1990143 0
11.418446 19.802835 -1.1979868 0
11.363733 19.861538 -1.1992265 0
11.299586 19.903948 -1.1994928 0
11.25663 19.984045 -1.2020386 0
11.142304 19.937115 -1.1969619 0
11.09454 20.008883 -1.1990308 0
11.011922 20.017847 -1.1973487 0
10.948764 20.062023 -1.1977885 0
10.89636 20.126183 -1.1994312 0
10.839363 20.182232 -1.2005988 0
10.762831 20.201935 -1.1996176 0
10.696516 20.240707 -1.1997834 0
10.607508 20.236233 -1.1974034 0
10.57301 20.335945 -1.2011992 0
10.516676 20.394371 -1.2025608 0
10.417723 20.36985 -1.1990485 0
10.356675 20.419069 -1.199895 0
10.29602 20.469315 -1.2008122 0
10.222932 20.494898 -1.2002957 0
10.145134 20.510813 -1.1992289 0
10.098553 20.590067 -1.2018762 0
9.9923096 20.547415 -1.1974242 0
9.9340677 20.603004 -1.198716 0
9.8435135 20.591387 -1.1961132 0
9.807868 20.694853 -1.2002064 0
9.7516813 20.755831 -1.2018399 0
9.6782856 20.780357 -1.2013744 0
9.5877066 20.767523 -1.1987672 0
9.5380869 20.843397 -1.2012942 0
9.4428778 20.819542 -1.1980878 0
9.4125881 20.939106 -1.2031454 0
9.3181324 20.916231 -1.2000291 0
9.2297325 20.906086 -1.197665 0
9.1794977 20.982426 -1.2002684 0
9.112483 21.020901 -1.2007147 0
9.0252562 21.012461 -1.1984974 0
8.9623709 21.060499 -1.1995168 0
8.9256229 21.170874 -1.204092 0
8.8447428 21.177101 -1.2027528 0
8.754859 21.161119 -1.2001712 0
8.6892366 21.203472 -1.2009144 0
8.60923 21.210644 -1.1996788 0
8.5419817 21.249128 -1.2002289 0
8.4741087 21.286238 -1.2007134 0
8.3962154 21.2981 -1.1997879 0
8.33529 21.353107 -1.2013055 0
8.2382097 21.315111 -1.1976073 0
8.1772375 21.370157 -1.1991528 0
8.1099253 21.409027 -1.1998013 0
8.0262709 21.404552 -1.1980358 0
7.9703021 21.474026 -1.2004218 0
7.8931656 21.486761 -1.1996477 0
7.8329916 21.54587 -1.2014747 0
7.7528958 21.550295 -1.2002652 0
7.6888127 21.599243 -1.2015489 0
7.6432576 21.701296 -1.2057936 0
7.5384221 21.634869 -1.2006916 0
7.4468379 21.604887 -1.1976353 0
7.3922009 21.682066 -1.200533 0
7.3223567 21.715309 -1.2010075 0
7.2385225 21.706793 -1.1991875 0
7.1698408 21.74349 -1.19988 0
7.0995846 21.775644 -1.2003341 0
7.0362601 21.829496 -1.2019954 0
6.9455652 21.798153 -1.1989805 0
6.8647804 21.796993 -1.197644 0
6.7994881 21.845034 -1.1990242 0
6.735816 21.898947 -1.2007371 0
6.6699739 21.946476 -1.2021102 0
6.5810866 21.91787 -1.1993278 0
6.5153632 21.966108 -1.2007654 0
6.4300504 21.948139 -1.1985979 0
6.3554139 21.966076 -1.1984069 0
6.3046288 22.067411 -1.2027756 0
6.2209377 22.054152 -1.2009093 0
6.1449475 22.067659 -1.2005162 0
6.0754046 22.104439 -1.2014022 0
5.9987335 22.115376 -1.2008966 0
5.9255209 22.138987 -1.2010932 0
5.847281 22.143663 -1.2002765 0
5.7722483 22.16024 -1.2001193 0
5.6950107 22.168156 -1.1995072 0
5.6162791 22.169861 -1.1985738 0
5.5575852 22.251301 -1.2019626 0
5.4680247 22.20919 -1.1986908 0
5.3977094 22.244619 -1.1996194 0
5.3357854 22.315659 -1.202479 0
5.2486162 22.281128 -1.1996633 0
5.1801505 22.325615 -1.2011167 0
5.0922837 22.286032 -1.1980618 0
5.0354395 22.38257 -1.2023371 0
4.9528446 22.36536 -1.200514 0
4.8615861 22.307306 -1.196516 0
4.7945719 22.35988 -1.198467 0
4.730454 22.427401 -1.2012292 0
4.6497822 22.416859 -1.1998228 0
4.5667801 22.393995 -1.1977727 0
4.5057092 22.479212 -1.201516 0
4.4269719 22.477219 -1.2006093 0
4.3479209 22.472996 -1.1995984 0
4.2673259 22.459957 -1.1981319 0
4.1961331 22.496307 -1.1993139 0
4.1159277 22.48427 -1.1979296 0
4.0653372 22.636133 -1.2052877 0
3.9699168 22.538912 -1.1993955 0
3.8927081 22.542727 -1.1988972 0
3.8264403 22.610817 -1.2018294 0
3.7422314 22.572985 -1.199145 0
3.6750247 22.637749 -1.2019241 0
3.6000488 22.655888 -1.2022395 0
3.5255818 22.67757 -1.202756 0
3.4340975 22.587767 -1.1973758 0
3.3659136 22.650082 -1.2000741 0
3.2851191 22.627941 -1.1983107 0
3.2111092 22.652061 -1.1990111 0
3.1386514 22.688059 -1.2003528 0
3.0596049 22.676517 -1.1991926 0
2.985569 22.701941 -1.200001 0
2.9098148 22.714775 -1.2001569 0
2.8297222 22.692984 -1.1984975 0
2.7561069 22.722837 -1.1995795 0
2.6789629 22.723951 -1.1991574 0
2.6060367 22.761436 -1.2006676 0
2.5332391 22.801836 -1.2023439 0
2.4477885 22.726768 -1.1979462 0
2.3749952 22.767624 -1.1996732 0
2.301723 22.805943 -1.2012789 0
2.2297573 22.859783 -1.2037144 0
2.1452491 22.783747 -1.1993251 0
2.0687797 22.790064 -1.1992857 0
1.9937087 22.812336 -1.2000992 0
1.9177634 22.825455 -1.2004443 0
1.8407006 22.825275 -1.2001036 0
1.760174 22.779715 -1.1973912 0
1.6858388 22.81324 -1.1988494 0
1.6123909 22.862011 -1.2011216 0
1.5304062 22.788019 -1.1969578 0
1.4586957 22.86673 -1.2008287 0
1.3808807 22.852644 -1.1998391 0
1.3051375 22.87266 -1.2006533 0
1.2303184 22.911842 -1.2024869 0
1.1491594 22.829756 -1.1979698 0
1.0709637 22.798452 -1.1961321 0
0.99925166 22.910429 -1.2018244 0
0.92294568 22.926418 -1.2024941 0
0.84536672 22.910255 -1.201491 0
0.76429236 22.786081 -1.1948377 0
0.69048709 22.874531 -1.1993476 0
0.61531562 22.933607 -1.2023302 0
0.53843534 22.936192 -1.2023643 0
0.4597353 22.848591 -1.1976845 0
0.38349816 22.872219 -1.198849 0
0.30706021 22.892048 -1.1998276 0
0.23039673 22.901989 -1.2003014 0
0.15358317 22.898726 -1.2000965 0
0.076862179 22.915499 -1.2009554 0
3.0429252e-05 22.934406 -1.2019395 0
-0.076811686 22.918577 -1.2011167 0
-0.15367626 22.921671 -1.2012992 0
-0.22973146 22.841885 -1.1971513 0
-0.30698502 22.89097 -1.199771 0
-0.38425243 22.920834 -1.2013969 0
-0.4595592 22.842854 -1.1973836 0
-0.53654701 22.858335 -1.1982828 0
-0.61426687 22.896786 -1.2003996 0
-0.69068617 22.883139 -1.1997988 0
-0.76828396 22.906898 -1.2011728 0
-0.84347814 22.86072 -1.198893 0
-0.9194594 22.841326 -1.1980308 0
-0.99513316 22.817392 -1.1969439 0
-1.0749055 22.883659 -1.2006023 0
-1.1507945 22.863447 -1.1997375 0
-1.2279006 22.867949 -1.200183 0
-1.3035078 22.845163 -1.1992098 0
-1.3833759 22.894947 -1.2020599 0
-1.4591213 22.874359 -1.201229 0
-1.5349866 22.857128 -1.2005877 0
-1.6124151 22.863218 -1.2011847 0
-1.6853154 22.80698 -1.1985203 0
-1.7621239 22.805738 -1.1987587 0
-1.8404696 22.823168 -1.1999925 0
-1.9159193 22.80423 -1.1993278 0
-1.9925727 22.800035 -1.1994518 0
-2.0650148 22.74926 -1.1971382 0
-2.1523492 22.859804 -1.2033284 0
-2.2220087 22.780968 -1.1995639 0
-2.2988222 22.777805 -1.1997964 0
-2.3786957 22.803684 -1.2015729 0
-2.4517972 22.764555 -1.1999376 0
-2.5274215 22.750021 -1.1996114 0
-2.6014245 22.721685 -1.1985705 0
-2.6806686 22.738937 -1.1999478 0
-2.761374 22.766768 -1.2018982 0
-2.8330631 22.720266 -1.1999381 0
-2.9116914 22.729902 -1.2009559 0
-2.9900329 22.736353 -1.2018195 0
-3.0629141 22.701498 -1.2005132 0
-3.1348746 22.661201 -1.1989313 0
-3.2153039 22.682083 -1.2005998 0
-3.2878616 22.647255 -1.199333 0
-3.3645389 22.641243 -1.1996052 0
-3.4443958 22.655909 -1.2009875 0
-3.5161815 22.6175 -1.1995696 0
-3.5896482 22.590822 -1.1987863 0
-3.6709702 22.613152 -1.2006176 0
-3.7536125 22.642008 -1.2028111 0
-3.823539 22.594036 -1.200937 0
-3.8945456 22.553724 -1.1994816 0
-3.9747553 22.56673 -1.2008754 0
-4.0425982 22.509865 -1.1985638 0
-4.1112018 22.45879 -1.1965715 0
-4.1970925 22.501785 -1.1996052 0
-4.2653432 22.449846 -1.197592 0
-4.3435335 22.450638 -1.1984043 0
-4.430717 22.496548 -1.2016412 0
-4.501039 22.456223 -1.2002865 0
-4.5769138 22.443991 -1.2004462 0
-4.6502151 22.419245 -1.1999499 0
-4.7245879 22.399885 -1.1997547 0
-4.7889051 22.333744 -1.1970655 0
-4.8744144 22.366453 -1.1996878 0
-4.9482508 22.344896 -1.1994148 0
-5.0338106 22.375607 -1.2019624 0
-5.0857687 22.257792 -1.196543 0
-5.1848187 22.346003 -1.2022128 0
-5.2386947 22.239273 -1.197409 0
-5.3292208 22.288464 -1.2010128 0
-5.4038668 22.270254 -1.201001 0
-5.4708076 22.220749 -1.1993138 0
-5.5485468 22.215364 -1.2000206 0
-5.6133208 22.15843 -1.1979549 0
-5.6975675 22.178354 -1.2000582 0
-5.7779274 22.182283 -1.2013123 0
-5.8440175 22.131542 -1.1996187 0
-5.9241443 22.134079 -1.200826 0
-5.9914637 22.088806 -1.199453 0
-6.0647264 22.065817 -1.1993021 0
-6.1454821 22.069807 -1.2006321 0
-6.2101941 22.016287 -1.1988465 0
-6.2844591 21.997034 -1.1989387 0
-6.3634529 21.99408 -1.1999339 0
-6.4555502 22.035397 -1.2033621 0
-6.5225945 21.990702 -1.2021089 0
-6.5779414 21.907606 -1.1987653 0
-6.6630769 21.923992 -1.2008777 0
-6.7414865 21.917591 -1.2017583 0
-6.8052192 21.863651 -1.2000451 0
-6.8623304 21.789415 -1.1972266 0
-6.9657555 21.861717 -1.2024758 0
-7.0306549 21.812305 -1.2010477 0
-7.091095 21.749802 -1.1989084 0
-7.1635942 21.724739 -1.1988442 0
-7.2441058 21.72373 -1.200122 0
-7.3063288 21.667967 -1.198388 0
-7.3758574 21.634315 -1.1978879 0
-7.4558954 21.631351 -1.1991012 0
-7.5375304 21.632496 -1.2005588 0
-7.6150928 21.621511 -1.2013594 0
-7.6671739 21.538637 -1.1981763 0
-7.7498245 21.541937 -1.1997986 0
-7.8199 21.510036 -1.1994754 0
-7.8951783 21.492416 -1.1999623 0
-7.9659681 21.462523 -1.1997776 0
-8.0415878 21.445574 -1.2003306 0
-8.1030626 21.391081 -1.1987945 0
-8.1967335 21.421276 -1.2020202 0
-8.2686214 21.393967 -1.2020365 0
-8.3348513 21.352152 -1.2012506 0
-8.4031191 21.315779 -1.2007824 0
-8.4780827 21.296385 -1.2012845 0
-8.5292931 21.217728 -1.198454 0
-8.6086502 21.209377 -1.1996059 0
-8.6739511 21.166334 -1.1988096 0
-8.7719126 21.202497 -1.2025168 0
-8.8225784 21.124191 -1.1997465 0
-8.8878136 21.081348 -1.1989989 0
-8.9548616 21.043011 -1.1985193 0
-9.0305634 21.024971 -1.1992097 0
-9.0942574 20.97901 -1.1983206 0
-9.179183 20.981859 -1.2002345 0
-9.2497368 20.951548 -1.2002679 0
-9.3271112 20.936533 -1.2011926 0
-9.3945799 20.899193 -1.2008506 0
-9.4267349 20.784096 -1.1960466 0
-9.4990959 20.758337 -1.1963903 0
-9.5849295 20.761652 -1.1984268 0
-9.6452961 20.709669 -1.1972861 0
-9.7427979 20.737066 -1.2007518 0
-9.8105984 20.700756 -1.2005472 0
-9.8760347 20.659557 -1.2000716 0
-9.9426289 20.620901 -1.1997557 0
-10.020027 20.604549 -1.2007523 0
-10.102674 20.598608 -1.2023731 0
-10.16086 20.542744 -1.2010942 0
-10.238695 20.526636 -1.2021527 0
-10.294629 20.466684 -1.2006564 0
-10.351915 20.409821 -1.1993499 0
-10.419024 20.372526 -1.1992044 0
-10.503453 20.368862 -1.2010549 0
-10.56628 20.323133 -1.2004408 0
-10.617975 20.256332 -1.1985911 0
-10.68262 20.21454 -1.1982309 0
-10.78828 20.249832 -1.2024601 0
-10.849387 20.201025 -1.2017152 0
-10.877964 20.092331 -1.197412 0
-10.979808 20.119032 -1.2011905 0
-11.059823 20.105051 -1.2025629 0
-11.101135 20.020905 -1.1997494 0
-11.174222 19.994349 -1.2003963 0
-11.257154 19.9851 -1.2021003 0
-11.301937 19.908211 -1.1997479 0
-11.373305 19.878391 -1.2002423 0
-11.440371 19.840981 -1.2002926 0
-11.487259 19.768831 -1.1982512 0
-11.560208 19.741703 -1.1989495 0
-11.64565 19.735569 -1.2009414 0
-11.680943 19.644594 -1.1977819 0
-11.777657 19.656918 -1.2009344 0
-11.829396 19.593964 -1.1995046 0
-11.939239 19.626875 -1.2039632 0
-11.966099 19.523304 -1.2000642 0
-12.064631 19.536741 -1.2033699 0
-12.08782 19.42828 -1.1991787 0
-12.134856 19.358871 -1.1973991 0
-12.207948 19.331146 -1.1982092 0
-12.308324 19.346111 -1.2016879 0
-12.352194 19.272085 -1.1996557 0
-12.424355 19.242357 -1.2003914 0
-12.477736 19.18358 -1.1993278 0
-12.56765 19.180807 -1.2017821 0
-12.619239 19.119398 -1.2005786 0
-12.669661 19.056507 -1.1992902 0
-12.757998 19.050529 -1.2015992 0
-12.80204 18.978355 -1.1997474 0
-12.880376 18.957073 -1.2011254 0
-12.956113 18.931681 -1.2022622 0
-12.978958 18.829298 -1.1985171 0
-13.054748 18.804014 -1.199687 0
-13.120516 18.764137 -1.1999427 0
-13.196717 18.739016 -1.201159 0
-13.249526 18.680641 -1.200258 0
-13.34096 18.676537 -1.2028614 0
-13.388361 18.610653 -1.2015026 0
-13.438458 18.548786 -1.2004106 0
-13.510558 18.517309 -1.2012984 0
-13.570301 18.468822 -1.2010977 0
-13.620987 18.408138 -1.2001144 0
-13.664551 18.338104 -1.1985288 0
-13.730579 18.298344 -1.1989322 0
-13.81741 18.28603 -1.201154 0
-13.890299 18.254919 -1.2021629 0
-13.9488 18.204817 -1.2019365 0
-14.007268 18.154716 -1.2017227 0
-14.033478 18.063143 -1.1987689 0
-14.120618 18.050062 -1.2010361 0
-14.177434 17.998018 -1.2007293 0
-14.218159 17.925749 -1.1990814 0
-14.254661 17.848526 -1.1971062 0
-14.35793 17.854736 -1.2007447 0
-14.384478 17.76545 -1.1979767 0
-14.471821 17.751295 -1.2002875 0
-14.55337 17.729614 -1.2021141 0
-14.5917 17.655272 -1.2003838 0
-14.641351 17.594877 -1.1996086 0
-14.713976 17.562059 -1.2007278 0
-14.757239 17.494209 -1.199465 0
-14.819178 17.448597 -1.1997375 0
-14.889681 17.412945 -1.2007121 0
-14.927485 17.339121 -1.1990659 0
-15.033448 17.34425 -1.2028996 0
-15.036931 17.231199 -1.1985488 0
-15.084823 17.169535 -1.1977708 0
-15.159496 17.138298 -1.1991308 0
-15.266564 17.143175 -1.2030467 0
-15.250261 17.009695 -1.197261 0
-15.365326 17.02286 -1.2018069 0
-15.392361 16.938284 -1.1994728 0
-15.409228 16.843037 -1.1963798 0
-15.495647 16.823887 -1.1987032 0
-15.58925 16.812044 -1.2015767 0
-15.642035 16.755939 -1.2013084 0
-15.693357 16.698326 -1.2009435 0
-15.727476 16.622595 -1.1992826 0
-15.778684 16.565113 -1.1989455 0
-15.854549 16.533407 -1.2004913 0
-15.890075 16.459627 -1.1989958 0
-15.970728 16.432554 -1.2009176 0
-16.027348 16.380564 -1.2010385 0
-16.078901 16.323408 -1.2007937 0
-16.117928 16.253664 -1.1996318 0
-16.201788 16.229036 -1.2018167 0
-16.235727 16.154343 -1.2003098 0
-16.272848 16.083063 -1.1990608 0
-16.307663 16.009745 -1.1976643 0
-16.388798 15.981842 -1.1996808 0
-16.437077 15.921755 -1.1993005 0
-16.474882 15.851655 -1.1981742 0
-16.560905 15.827838 -1.2005643 0
-16.595589 15.754859 -1.1992425 0
-16.664396 15.714289 -1.2004006 0
-16.724953 15.665788 -1.2009726 0
-16.730528 15.566031 -1.1976185 0
-16.818445 15.542953 -1.2001747 0
-16.88187 15.496947 -1.2009861 0
-16.908607 15.41735 -1.1992042 0
-16.995686 15.392705 -1.2017128 0
-17.042452 15.331367 -1.2013783 0
-17.065741 15.249104 -1.1994092 0
-17.157019 15.22752 -1.2022294 0
-17.169514 15.136002 -1.199542 0
-17.203604 15.063848 -1.1983883 0
-17.347734 15.087594 -1.2048979 0
-17.295618 14.940711 -1.1977921 0
-17.4142 14.941485 -1.2025281 0
-17.466724 14.885168 -1.2027022 0
-17.46319 14.78137 -1.1990396 0
-17.566149 14.767712 -1.2027024 0
-17.645828 14.734003 -1.2047688 0
-17.610085 14.604229 -1.1989785 0
-17.633018 14.523745 -1.1972178 0
-17.717655 14.494025 -1.199658 0
-17.747253 14.419186 -1.198382 0
-17.839226 14.394886 -1.2013267 0
-17.884157 14.332403 -1.2011095 0
-17.872211 14.224687 -1.1970975 0
-17.939936 14.180597 -1.1984423 0
-18.007053 14.135813 -1.1997532 0
-18.061026 14.080566 -1.200197 0
-18.114592 14.024931 -1.2006249 0
-18.195683 13.990391 -1.202884 0
-18.212137 13.906132 -1.2008828 0
-18.268036 13.8521 -1.2014993 0
-18.280531 13.765287 -1.1992788 0
-18.329182 13.705865 -1.1994492 0
-18.390345 13.655703 -1.2004486 0
-18.452818 13.606349 -1.2015421 0
-18.45838 13.51515 -1.198947 0
-18.49506 13.446984 -1.1983943 0
-18.586847 13.418689 -1.2014196 0
-18.59907 13.332881 -1.1993134 0
-18.626253 13.258051 -1.1981932 0
-18.678434 13.201064 -1.198696 0
-18.759384 13.164184 -1.2010516 0
-18.782209 13.086438 -1.1996971 0
-18.836702 13.030807 -1.2003804 0
-18.877432 12.965618 -1.2001989 0
-18.924379 12.904696 -1.2004262 0
-18.961702 12.837221 -1.2000567 0
-18.971802 12.751506 -1.1979834 0
-19.034382 12.701126 -1.1992393 0
-19.070181 12.632812 -1.1988194 0
-19.080393 12.547734 -1.19681 0
-19.167616 12.513238 -1.1996427 0
-19.200163 12.442875 -1.1990619 0
-19.290092 12.409515 -1.202073 0
-19.305195 12.327913 -1.2004316 0
-19.317383 12.244711 -1.1986299 0
-19.353106 12.176589 -1.1983064 0
-19.412586 12.123352 -1.1994659 0
-19.414345 12.034159 -1.1970748 0
-19.501848 11.998076 -1.1999829 0
-19.526436 11.92314 -1.1990293 0
-19.600822 11.878525 -1.2011447 0
-19.65538 11.821666 -1.2020524 0
-19.637165 11.721234 -1.1985283 0
-19.701349 11.670135 -1.2000507 0
-19.725967 11.595551 -1.1991755 0
-19.777803 11.536971 -1.1999683 0
-19.807194 11.465281 -1.1994126 0
-19.872274 11.414173 -1.2010293 0
-19.870167 11.324533 -1.1986004 0
-19.929487 11.269985 -1.1998926 0
-19.920822 11.177101 -1.1971079 0
-19.995852 11.131216 -1.1993673 0
-20.048742 11.072773 -1.2003062 0
-20.121588 11.025126 -1.2024475 0
-20.095646 10.923466 -1.1987019 0
-20.142071 10.861373 -1.1992921 0
-20.165527 10.786908 -1.1985286 0
-20.241924 10.740644 -1.2009221 0
-20.274199 10.670809 -1.2007076 0
-20.287434 10.591064 -1.1993816 0
-20.35181 10.537991 -1.2010919 0
-20.340069 10.44558 -1.1983254 0
-20.397638 10.388867 -1.1996583 0
-20.417517 10.312923 -1.198787 0
-20.426313 10.231554 -1.1972826 0
-20.508585 10.186893 -1.2000961 0
-20.534634 10.11414 -1.1996294 0
-20.567099 10.044584 -1.1995517 0
-20.633539 9.9914904 -1.2014662 0
-20.633163 9.9060459 -1.1995035 0
-20.692247 9.8491802 -1.2010119 0
-20.70499 9.7702332 -1.1998435 0
-20.71056 9.6880951 -1.1982771 0
-20.752422 9.6230049 -1.1988257 0
-20.844009 9.5806932 -1.2022542 0
-20.871933 9.508894 -1.2020192 0
-20.815546 9.3990574 -1.1969502 0
-20.929621 9.3662128 -1.2016972 0
-20.958622 9.2949743 -1.2015663 0
-20.922569 9.1951628 -1.1977252 0
-21.026093 9.1566696 -1.2018871 0
-21.009556 9.0657902 -1.1991978 0
-21.014662 8.9845362 -1.197763 0
-21.078604 8.9284019 -1.1996944 0
-21.102921 8.8553715 -1.1993819 0
-21.089136 8.7665443 -1.1969212 0
-21.187725 8.724329 -1.2008497 0
-21.202919 8.6475563 -1.2000608 0
-21.201664 8.5642481 -1.1983579 0
-21.284721 8.5149021 -1.2014321 0
-21.275122 8.4284248 -1.1992884 0
-21.303366 8.3570871 -1.1992942 0
-21.391655 8.3090715 -1.2026895 0
-21.340658 8.2070227 -1.1982685 0
-21.399208 8.1472864 -1.2000155 0
-21.42247 8.0740099 -1.1997951 0
-21.428549 7.9943528 -1.1986277 0
-21.506271 7.9413085 -1.2014791 0
-21.458952 7.8421783 -1.1973599 0
-21.549444 7.793448 -1.2009444 0
-21.516558 7.7000766 -1.1976662 0
-21.625132 7.657238 -1.2022738 0
-21.605608 7.5688992 -1.1997707 0
-21.628607 7.4956355 -1.1996456 0
-21.671476 7.4291987 -1.2006351 0
-21.677145 7.3500147 -1.1995771 0
-21.741005 7.2904854 -1.2017516 0
-21.733408 7.2069664 -1.1999892 0
-21.690134 7.1119862 -1.1962765 0
-21.825018 7.0752592 -1.2024007 0
-21.855476 7.0042424 -1.2027781 0
-21.858099 6.9243565 -1.2016381 0
-21.865969 6.8462644 -1.200802 0
-21.864862 6.7655067 -1.1994889 0
-21.898712 6.6956115 -1.2001076 0
-21.912745 6.6196465 -1.1996535 0
-21.951302 6.5510597 -1.2005551 0
-21.939869 6.4676156 -1.1987371 0
-22.042366 6.4175835 -1.2031549 0
-22.022575 6.3318028 -1.2009091 0
-22.045551 6.2584605 -1.2010111 0
-22.018185 6.1709943 -1.1983862 0
-22.075666 6.1073494 -1.2003936 0
-22.15192 6.0485635 -1.2034304 0
-22.102137 5.9554133 -1.1996344 0
-22.122091 5.8813052 -1.1996404 0
-22.184416 5.8183079 -1.2019556 0
-22.196005 5.7418785 -1.2015336 0
-22.180489 5.6585894 -1.1996599 0
-22.185682 5.5807562 -1.198922 0
-22.25205 5.5181894 -1.2015021 0
-22.194574 5.4250112 -1.1974097 0
-22.265284 5.3632474 -1.2002476 0
-22.293331 5.2909846 -1.2007966 0
-22.282927 5.2096586 -1.1992886 0
-22.302624 5.1354613 -1.1994152 0
-22.355293 5.0687227 -1.2013271 0
-22.33654 4.9857898 -1.1994143 0
-22.419109 4.9253664 -1.2029545 0
-22.365162 4.8349667 -1.1991832 0
-22.352673 4.7538762 -1.1976522 0
-22.381887 4.6817083 -1.1983697 0
-22.448709 4.6171808 -1.2011119 0
-22.411636 4.5312886 -1.1983087 0
-22.498304 4.4703484 -1.2021345 0
-22.476645 4.3877611 -1.2001843 0
-22.533146 4.3204131 -1.2024212 0
-22.550806 4.245461 -1.2025973 0
-22.53964 4.1651583 -1.2012502 0
-22.467674 4.0740051 -1.1966802 0
-22.569126 4.0142903 -1.2013601 0
-22.535879 3.9304736 -1.1988821 0
-22.631565 3.86902 -1.2032756 0
-22.580257 3.7823727 -1.1998667 0
-22.589762 3.7061439 -1.1997048 0
-22.60663 3.6311176 -1.1999472 0
-22.616167 3.5549068 -1.1998141 0
-22.619268 3.4777229 -1.1993532 0
-22.590731 3.3958418 -1.1972296 0
-22.645529 3.3264761 -1.199536 0
-22.654163 3.2501881 -1.1994094 0
-22.664835 3.174201 -1.1994041 0
-22.679398 3.0987451 -1.1996182 0
-22.689186 3.022625 -1.1995932 0
-22.743729 2.9523163 -1.2019467 0
-22.736744 2.8739266 -1.2010617 0
-22.733002 2.7960486 -1.2003621 0
-22.780005 2.7243288 -1.2023548 0
-22.752165 2.6436553 -1.2004108 0
-22.767426 2.5680926 -1.200755 0
-22.760809 2.4900916 -1.199959 0
-22.700819 2.4065337 -1.1963642 0
-22.809649 2.3407621 -1.2016793 0
-22.780235 2.2605875 -1.1997236 0
-22.798475 2.1852312 -1.2002916 0
-22.870033 2.1147308 -1.203679 0
-22.826925 2.0335796 -1.2010446 0
-22.839119 1.9575055 -1.201334 0
-22.784138 1.8758627 -1.1981045 0
-22.833368 1.8028619 -1.2003686 0
-22.851585 1.7272255 -1.2010151 0
-22.83366 1.6488954 -1.1997757 0
-22.909121 1.5771524 -1.2034562 0
-22.874725 1.4977437 -1.2013787 0
-22.819294 1.417294 -1.1982112 0
-22.879322 1.3440319 -1.2011198 0
-22.859091 1.2659514 -1.1998281 0
-22.829874 1.1875682 -1.1980789 0
-22.866554 1.1126145 -1.1998013 0
-22.932882 1.0387824 -1.203092 0
-22.924902 0.96141154 -1.2024975 0
-22.875683 0.88252503 -1.1997538 0
-22.852669 0.80491191 -1.1983985 0
-22.885342 0.72924596 -1.1999769 0
-22.952076 0.65434813 -1.2033544 0
-22.858225 0.57497782 -1.198326 0
-22.868546 0.49852103 -1.1987727 0
-22.906309 0.42251241 -1.2006712 0
-22.933222 0.34609622 -1.2020143 0
-22.863022 0.26836738 -1.1982809 0
-22.881685 0.1918605 -1.1992186 0
-22.867094 0.11506544 -1.198427 0
-22.93784 0.038514096 -1.2021211 0
-22.905338 6.0781374e-05 -1.2004162 0
-68.794746 -0.11551078 -1.2008166 0
-68.738197 -0.34588528 -1.1998432 0
-68.789825 -0.57679534 -1.2007712 0
-68.722382 -0.80666697 -1.1996344 0
-68.724953 -1.0371611 -1.1997333 0
-68.756371 -1.2682278 -1.2003493 0
-68.740555 -1.4985042 -1.2001541 0
-68.679184 -1.7275622 -1.199177 0
-68.784996 -1.9610137 -1.2011327 0
-68.683594 -2.1886163 -1.1994833 0
-68.648354 -2.417918 -1.1990027 0
-68.679268 -2.6495898 -1.1996912 0
-68.697197 -2.8809841 -1.2001663 0
-68.648239 -3.109534 -1.1994864 0
-68.673637 -3.3414428 -1.2001191 0
-68.680084 -3.572612 -1.2004343 0
-68.658684 -3.8023629 -1.2002764 0
-68.579391 -4.0286546 -1.1991197 0
-68.629707 -4.2625537 -1.2002425 0
-68.598122 -4.4915252 -1.1999468 0
-68.586754 -4.721777 -1.200018 0
-68.558083 -4.9508095 -1.1998001 0
-68.528862 -5.1797194 -1.199586 0
-68.576256 -5.4145985 -1.2007266 0
-68.519333 -5.6413312 -1.2000544 0
-68.491653 -5.8703132 -1.1999075 0
-68.496567 -6.1021452 -1.2003453 0
-68.436981 -6.3281846 -1.1996661 0
-68.418198 -6.5578752 -1.1997156 0
-68.385773 -6.7862349 -1.1995393 0
-68.405128 -7.0198417 -1.200285 0
-68.395485 -7.2506652 -1.2005355 0
-68.322639 -7.4746737 -1.1996901 0
-68.308968 -7.7050333 -1.1998969 0
-68.263618 -7.9317937 -1.1995608 0
-68.303574 -8.1686287 -1.2007374 0
-68.237694 -8.3929043 -1.200067 0
-68.224754 -8.6236153 -1.2003412 0
-68.190056 -8.8516111 -1.2002462 0
-68.14669 -9.0784168 -1.200012 0
-68.093849 -9.3038397 -1.1996239 0
-68.09713 -9.5369759 -1.2002385 0
-68.036232 -9.7611437 -1.199735 0
-68.043297 -9.9951029 -1.2004439 0
-67.990898 -10.220402 -1.2001172 0
-67.969444 -10.450334 -1.2003503 0
-67.913681 -10.674966 -1.1999909 0
-67.880661 -10.903114 -1.2000465 0
-67.800247 -11.123511 -1.1992775 0
-67.825226 -11.361265 -1.2003864 0
-67.801674 -11.591158 -1.2006507 0
-67.74395 -11.815196 -1.2003232 0
-67.65876 -12.034223 -1.1995219 0
-67.65303 -12.267348 -1.2001429 0
-67.642212 -12.49978 -1.2006876 0
-67.59285 -12.725169 -1.200562 0
-67.524353 -12.946844 -1.2001097 0
-67.491127 -13.175229 -1.2002976 0
-67.397034 -13.391596 -1.1994158 0
-67.315933 -13.610248 -1.1987779 0
-67.302124 -13.842492 -1.1993518 0
-67.251343 -14.06723 -1.1992805 0
-67.224586 -14.297053 -1.1996515 0
-67.14711 -14.51606 -1.1991308 0
-67.148933 -14.752287 -1.2000399 0
-67.133492 -14.985019 -1.200655 0
-67.056686 -15.204083 -1.2001864 0
-66.976845 -15.422266 -1.1996762 0
-66.968948 -15.657072 -1.2004682 0
-66.926147 -15.883907 -1.2006488 0
-66.837135 -16.099688 -1.2000138 0
-66.764977 -16.319336 -1.1996937 0
-66.724655 -16.546759 -1.1999594 0
-66.634949 -16.761864 -1.19935 0
-66.56131 -16.980831 -1.1990426 0
-66.508293 -17.205013 -1.1991199 0
-66.435928 -17.424154 -1.1988618 0
-66.449745 -17.666107 -1.2001733 0
-66.367149 -17.882607 -1.1997576 0
-66.300041 -18.103172 -1.199635 0
-66.307625 -18.344355 -1.2008783 0
-66.198715 -18.553387 -1.2000257 0
-66.138908 -18.776022 -1.2000761 0
-66.137878 -19.015577 -1.2012074 0
-65.987251 -19.212034 -1.1996349 0
-65.939606 -19.438223 -1.1999469 0
-65.87674 -19.659994 -1.1999955 0
-65.814941 -19.882113 -1.2000774 0
-65.719009 -20.09383 -1.1995499 0
-65.659859 -20.316717 -1.1997068 0
-65.618317 -20.545183 -1.2001996 0
-65.562103 -20.769207 -1.2004385 0
-65.436859 -20.971203 -1.1994259 0
-65.418221 -21.207354 -1.2003808 0
-65.343735 -21.425581 -1.2003255 0
-65.265503 -21.642546 -1.2002146 0
-65.225212 -21.872194 -1.2008156 0
-65.076714 -22.065395 -1.1994368 0
-65.020142 -22.289555 -1.1997648 0
-64.932373 -22.503038 -1.1995307 0
-64.838112 -22.714155 -1.1991895 0
-64.777122 -22.936918 -1.1994772 0
-64.671196 -23.143719 -1.1989459 0
-64.624146 -23.371597 -1.1995196 0
-64.535988 -23.58469 -1.1993443 0
-64.476166 -23.808178 -1.1997093 0
-64.359795 -24.010723 -1.1990352 0
-64.320923 -24.242199 -1.1998185 0
-64.260887 -24.465944 -1.200222 0
-64.111397 -24.655458 -1.1989672 0
-64.077919 -24.889519 -1.199895 0
-64.013145 -25.111687 -1.2002518 0
-63.92831 -25.326059 -1.2002467 0
-63.807838 -25.526175 -1.1995848 0
-63.758514 -25.754759 -1.2002742 0
-63.598549 -25.938507 -1.1988933 0
-63.54467 -26.165367 -1.1995246 0
-63.478027 -26.387186 -1.19993 0
-63.38168 -26.596712 -1.1997876 0
-63.345406 -26.831627 -1.2007972 0
-63.200409 -27.020485 -1.1997591 0
-63.160976 -27.254461 -1.2007385 0
-63.036419 -27.45178 -1.2001137 0
-62.918369 -27.651701 -1.1996245 0
-62.821621 -27.860867 -1.1995542 0
-62.720737 -28.068153 -1.1994181 0
-62.583847 -28.259127 -1.1986054 0
-62.551117 -28.497213 -1.1998017 0
-62.424313 -28.69257 -1.1992079 0
-62.346863 -28.910563 -1.1995755 0
-62.281525 -29.13438 -1.2001911 0
-62.154705 -29.329451 -1.1996354 0
-62.088688 -29.553228 -1.200267 0
-61.896408 -29.716658 -1.1984693 0
-61.871647 -29.960443 -1.199928 0
-61.74939 -30.15724 -1.1995113 0
-61.692017 -30.385818 -1.200369 0
-61.549728 -30.572588 -1.1995882 0
-61.487026 -30.798893 -1.2003721 0
-61.327129 -30.976442 -1.1992713 0
-61.228291 -31.184618 -1.1993763 0
-61.105766 -31.380678 -1.1990305 0
-61.064072 -31.618446 -1.2002858 0
-61.005569 -31.847986 -1.201228 0
-60.85899 -32.031582 -1.2004498 0
-60.728107 -32.223167 -1.1999924 0
-60.661648 -32.44902 -1.2008222 0
-60.530178 -32.640182 -1.2003794 0
-60.35939 -32.80978 -1.1991673 0
-60.317497 -33.049477 -1.2005297 0
-60.19273 -33.243999 -1.200258 0
-60.039513 -33.422573 -1.1994307 0
-59.969154 -33.647274 -1.2002721 0
-59.801376 -33.817257 -1.1991767 0
-59.647755 -33.994827 -1.198375 0
-59.543629 -34.200478 -1.19858 0
-59.510826 -34.447506 -1.2002379 0
-59.37891 -34.637455 -1.1999128 0
-59.307526 -34.86285 -1.2008256 0
-59.131748 -35.026814 -1.1996377 0
-59.023739 -35.230701 -1.199836 0
-58.915047 -35.434269 -1.2000349 0
-58.781464 -35.622845 -1.1997401 0
-58.673115 -35.826702 -1.1999736 0
-58.543137 -36.017357 -1.1997783 0
-58.43647 -36.222378 -1.2000744 0
-58.340668 -36.434322 -1.200609 0
-58.18856 -36.611084 -1.1999981 0
-58.018238 -36.776028 -1.1990217 0
-57.949787 -37.005581 -1.2001644 0
-57.872269 -37.229824 -1.2011374 0
-57.712059 -37.400928 -1.2004082 0
-57.56023 -37.577171 -1.199864 0
-57.462833 -37.788967 -1.2004681 0
-57.280621 -37.944859 -1.1993126 0
-57.208584 -38.173733 -1.2004774 0
-57.061871 -38.352959 -1.2000903 0
-56.893387 -38.517269 -1.1992562 0
-56.77058 -38.712341 -1.1993967 0
-56.633076 -38.897392 -1.1992402 0
-56.543587 -39.115585 -1.2001157 0
-56.380402 -39.282845 -1.1994408 0
-56.266903 -39.484657 -1.1998359 0
-56.16151 -39.692387 -1.2004195 0
-55.958206 -39.830704 -1.1989218 0
-55.909 -40.078781 -1.2007399 0
-55.757687 -40.254009 -1.200382 0
-55.607193 -40.429661 -1.2000536 0
-55.426254 -40.582874 -1.1990786 0
-55.299351 -40.775463 -1.199284 0
-55.185959 -40.978191 -1.1997977 0
-55.075138 -41.183094 -1.2003837 0
-54.93148 -41.363548 -1.2002685 0
-54.789555 -41.545265 -1.2002043 0
-54.610615 -41.698696 -1.1993403 0
-54.497524 -41.90234 -1.1999353 0
-54.370544 -42.09552 -1.2002404 0
-54.199154 -42.25423 -1.1995776 0
-54.08276 -42.455795 -1.2001452 0
-53.908508 -42.611904 -1.1994421 0
-53.793701 -42.814987 -1.2000749 0
-53.670967 -43.012032 -1.2005473 0
-53.478683 -43.153191 -1.1994759 0
-53.366096 -43.358578 -1.2002046 0
-53.21867 -43.535824 -1.200165 0
-53.108875 -43.744053 -1.2009897 0
-52.906826 -43.87619 -1.1997406 0
-52.756233 -44.050667 -1.1996682 0
-52.63763 -44.252007 -1.2003382 0
-52.482105 -44.422436 -1.2001814 0
-52.320484 -44.587593 -1.1998974 0
-52.188934 -44.778412 -1.2003168 0
-52.010639 -44.929066 -1.199674 0
-51.852264 -45.096722 -1.1995019 0
-51.728897 -45.294945 -1.2001543 0
-51.560432 -45.453751 -1.1997749 0
-51.408611 -45.627136 -1.1997951 0
-51.238159 -45.783886 -1.1993928 0
-51.102757 -45.971966 -1.1998246 0
-50.986088 -46.177238 -1.2007136 0
-50.790352 -46.310883 -1.199754 0
-50.636681 -46.482647 -1.1997987 0
-50.464355 -46.637196 -1.1994139 0
-50.285267 -46.785252 -1.1988789 0
-50.175606 -46.998062 -1.2000145 0
-49.989918 -47.139782 -1.1993468 0
-49.809509 -47.286167 -1.1988155 0
-49.708477 -47.508133 -1.2002107 0
-49.505402 -47.632668 -1.1991568 0
-49.400158 -47.851402 -1.200487 0
-49.194931 -47.973358 -1.1994019 0
-49.04092 -48.145012 -1.1995758 0
-48.902386 -48.332058 -1.2001442 0
-48.735954 -48.491657 -1.200043 0
-48.577457 -48.659153 -1.2001507 0
-48.396938 -48.804508 -1.1997268 0
-48.224049 -48.957375 -1.1995033 0
-48.059807 -49.118965 -1.1995076 0
-47.892208 -49.277107 -1.1994416 0
-47.783894 -49.496624 -1.2008783 0
-47.541222 -49.576832 -1.1989503 0
-47.426228 -49.790012 -1.2002536 0
-47.245228 -49.934158 -1.1999031 0
-47.104229 -50.120682 -1.2005833 0
-46.923679 -50.265221 -1.2002703 0
-46.720757 -50.385456 -1.1993941 0
-46.586739 -50.580013 -1.2003005 0
-46.400249 -50.717731 -1.19987 0
-46.232815 -50.876183 -1.1999446 0
-46.064762 -51.033989 -1.2000172 0
-45.894573 -51.189465 -1.200048 0
-45.694561 -51.311466 -1.1993097 0
-45.533993 -51.477642 -1.1996187 0
-45.33744 -51.603043 -1.1989919 0
-45.184177 -51.777687 -1.199523 0
-45.040394 -51.963585 -1.2003244 0
-44.852146 -52.098309 -1.1999561 0
-44.693108 -52.266979 -1.2003828 0
-44.49144 -52.385715 -1.199677 0
-44.321442 -52.541576 -1.1998365 0
-44.165947 -52.714848 -1.200405 0
-43.982075 -52.854359 -1.2002172 0
-43.793991 -52.988667 -1.199926 0
-43.646572 -53.172344 -1.2007648 0
-43.426643 -53.267597 -1.1996211 0
-43.264706 -53.433777 -1.2000899 0
-43.117691 -53.618801 -1.2009917 0
-42.886829 -53.699402 -1.1995697 0
-42.72591 -53.867306 -1.2001135 0
-42.546204 -54.011703 -1.2001458 0
-42.333069 -54.113392 -1.1992447 0
-42.185795 -54.299297 -1.2002234 0
-41.99791 -54.433186 -1.2000636 0
-41.803318 -54.55822 -1.1997234 0
-41.627899 -54.708244 -1.1999465 0
-41.425083 -54.822155 -1.1993918 0
-41.271095 -55.00079 -1.2002659 0
-41.086361 -55.138729 -1.2002633 0
-40.879288 -55.246479 -1.1996185 0
-40.718014 -55.416149 -1.2003314 0
-40.51376 -55.527374 -1.1997916 0
-40.360672 -55.708881 -1.2007828 0
-40.169151 -55.837616 -1.200648 0
-39.966679 -55.950932 -1.2001964 0
-39.761608 -56.060295 -1.1996759 0
-39.587757 -56.213642 -1.2001103 0
-39.42239 -56.379421 -1.2008209 0
-39.216019 -56.486618 -1.2002969 0
-38.989529 -56.564285 -1.1991627 0
-38.840553 -56.754444 -1.2004266 0
-38.638245 -56.866982 -1.20006 0
-38.453667 -57.00555 -1.2002567 0
-38.244591 -57.107677 -1.1997004 0
-38.015213 -57.178894 -1.1985121 0
-37.864948 -57.369144 -1.1998322 0
-37.691635 -57.525154 -1.2004452 0
-37.518143 -57.68132 -1.2010723 0
-37.287498 -57.749428 -1.1998805 0
-37.061451 -57.823856 -1.1988384 0
-36.908169 -58.011917 -1.200165 0
-36.708683 -58.127781 -1.200009 0
-36.524258 -58.267555 -1.2003598 0
-36.304176 -58.350285 -1.1995497 0
-36.119667 -58.490025 -1.1999261 0
-35.897556 -58.568703 -1.1990644 0
-35.713886 -58.709938 -1.1994976 0
-35.547142 -58.879543 -1.200521 0
-35.344028 -58.989208 -1.2003341 0
-35.137287 -59.092644 -1.2000349 0
-34.924377 -59.185406 -1.1995339 0
-34.727325 -59.304863 -1.1995884 0
-34.525532 -59.416218 -1.1994926 0
-34.321293 -59.523254 -1.1993237 0
-34.118515 -59.632721 -1.1992177 0
-33.949188 -59.801037 -1.2003068 0
-33.729111 -59.880112 -1.1996173 0
-33.549973 -60.031902 -1.2003978 0
-33.328281 -60.107574 -1.1996698 0
-33.11945 -60.206047 -1.1994122 0
-32.929859 -60.339573 -1.1998659 0
-32.72953 -60.453644 -1.1999454 0
-32.530003 -60.569267 -1.2000688 0
-32.340801 -60.704384 -1.2005907 0
-32.139217 -60.816498 -1.2006701 0
-31.926731 -60.90789 -1.2003545 0
-31.709581 -60.990051 -1.1998717 0
-31.522999 -61.131096 -1.2005603 0
-31.302862 -61.207115 -1.1999854 0
-31.116127 -61.348511 -1.2007054 0
-30.905863 -61.443745 -1.2005345 0
-30.663271 -61.474026 -1.1991106 0
-30.481033 -61.625107 -1.2000574 0
-30.254494 -61.686684 -1.1992744 0
-30.082071 -61.858868 -1.2006543 0
-29.859951 -61.929199 -1.2000694 0
-29.661669 -62.048889 -1.200455 0
-29.447439 -62.135277 -1.2002094 0
-29.217731 -62.188507 -1.1993386 0
-29.019699 -62.30896 -1.1997783 0
-28.810577 -62.405804 -1.1997763 0
-28.600563 -62.500698 -1.1997504 0
-28.397776 -62.611507 -1.2000431 0
-28.195612 -62.723991 -1.2003803 0
-27.986473 -62.821136 -1.2004369 0
-27.764759 -62.889862 -1.1999646 0
-27.583122 -63.049747 -1.201244 0
-27.364649 -63.125904 -1.2009401 0
-27.124228 -63.150665 -1.1996744 0
-26.934107 -63.2924 -1.2006446 0
-26.705118 -63.342899 -1.1998973 0
-26.511122 -63.476448 -1.2007365 0
-26.302368 -63.57518 -1.2009293 0
-26.064735 -63.603642 -1.1998094 0
-25.84547 -63.676216 -1.199537 0
-25.635441 -63.771496 -1.1997061 0
-25.425457 -63.867073 -1.1998936 0
-25.20352 -63.932526 -1.1995289 0
-25.012236 -64.076134 -1.2006432 0
-24.776016 -64.104668 -1.1996146 0
-24.573318 -64.219711 -1.2002188 0
-24.358152 -64.302505 -1.2002331 0
-24.117289 -64.31678 -1.1989836 0
-23.929482 -64.472649 -1.2003868 0
-23.709951 -64.543716 -1.2002231 0
-23.491713 -64.618164 -1.2001362 0
-23.286385 -64.728409 -1.2007269 0
-23.030148 -64.696327 -1.1986927 0
-22.838993 -64.846687 -1.200053 0
-22.622213 -64.925095 -1.2000936 0
-22.393707 -64.969551 -1.1995207 0
-22.18635 -65.075356 -1.200094 0
-21.970343 -65.156204 -1.2002198 0
-21.766676 -65.274223 -1.2010428 0
-21.52668 -65.283089 -1.1998711 0
-21.305803 -65.349144 -1.1997654 0
-21.099913 -65.461571 -1.200524 0
-20.865297 -65.484825 -1.1996607 0
-20.655882 -65.58699 -1.2002568 0
-20.42234 -65.612419 -1.1994624 0
-20.198023 -65.666817 -1.1992121 0
-19.983095 -65.751785 -1.1995336 0
-19.766552 -65.831818 -1.1997777 0
-19.551039 -65.915649 -1.2001042 0
-19.334505 -65.996468 -1.2003886 0
-19.116289 -66.071861 -1.2005874 0
-18.886303 -66.106354 -1.2000567 0
-18.658852 -66.149078 -1.19969 0
-18.449022 -66.254578 -1.2004747 0
-18.221184 -66.295708 -1.2001063 0
-18.01004 -66.397842 -1.2008554 0
-17.773827 -66.40744 -1.1999444 0
-17.542532 -66.434311 -1.1993604 0
-17.327152 -66.5214 -1.199877 0
-17.113928 -66.617676 -1.2005719 0
-16.882483 -66.643135 -1.2000039 0
-16.66538 -66.725128 -1.2004675 0
-16.433578 -66.748169 -1.1998838 0
-16.208086 -66.79628 -1.1997651 0
-15.988931 -66.870697 -1.2001321 0
-15.752184 -66.871071 -1.1991842 0
-15.537507 -66.964958 -1.199927 0
-15.311244 -67.00943 -1.1997973 0
-15.105368 -67.14431 -1.2012987 0
-14.857819 -67.093697 -1.1994951 0
-14.63791 -67.166656 -1.1999153 0
-14.420596 -67.252502 -1.2005785 0
-14.18286 -67.242783 -1.1995492 0
-13.966297 -67.333199 -1.20032 0
-13.74511 -67.402428 -1.2007259 0
-13.507056 -67.388321 -1.1996611 0
-13.287215 -67.464584 -1.200219 0
-13.066099 -67.5354 -1.2006927 0
-12.834814 -67.55368 -1.2002459 0
-12.610995 -67.611061 -1.2005074 0
-12.364642 -67.545921 -1.1986078 0
-12.160824 -67.713509 -1.2008514 0
-11.93392 -67.755005 -1.2008711 0
-11.700225 -67.757233 -1.2002085 0
-11.471621 -67.78804 -1.2000661 0
-11.248574 -67.852051 -1.2005249 0
-11.017597 -67.868324 -1.2001525 0
-10.780477 -67.845039 -1.1990948 0
-10.557081 -67.90741 -1.1995649 0
-10.340395 -68.015137 -1.2008486 0
-10.11044 -68.036942 -1.2006284 0
-9.8786888 -68.045799 -1.2001935 0
-9.6565905 -68.121582 -1.2009523 0
-9.4273825 -68.148117 -1.2008561 0
-9.1793728 -68.035049 -1.1983147 0
-8.9651909 -68.171738 -1.200186 0
-8.7354412 -68.192574 -1.2000304 0
-8.5135384 -68.275871 -1.2009872 0
-8.2759876 -68.233238 -1.1997426 0
-8.0542717 -68.320862 -1.2008016 0
-7.8209548 -68.31076 -1.2001563 0
-7.5983691 -68.395027 -1.2011825 0
-7.362493 -68.359596 -1.2001201 0
-7.1298146 -68.350922 -1.1995412 0
-6.9003778 -68.372177 -1.1995015 0
-6.6756358 -68.441429 -1.200317 0
-6.4430003 -68.430214 -1.1997348 0
-6.2136559 -68.45282 -1.1997591 0
-5.9815326 -68.443748 -1.199242 0
-5.7545676 -68.493744 -1.1997732 0
-5.5258379 -68.524422 -1.1999792 0
-5.2992482 -68.583862 -1.2007022 0
-5.0654955 -68.550171 -1.1998082 0
-4.8409891 -68.642738 -1.2011377 0
-4.6034236 -68.548515 -1.199212 0
-4.3765101 -68.609695 -1.2000189 0
-4.1493034 -68.671196 -1.2008445 0
-3.9163647 -68.637863 -1.2000252 0
-3.6870034 -68.665329 -1.2002826 0
-3.4559429 -68.661057 -1.1999986 0
-3.2247798 -68.652328 -1.1996504 0
-2.9955444 -68.684792 -1.2000353 0
-2.7653773 -68.697845 -1.2000947 0
-2.5347724 -68.69973 -1.1999725 0
-2.3042455 -68.702614 -1.1998811 0
-2.073576 -68.699692 -1.1997019 0
-1.8447342 -68.762428 -1.2006828 0
-1.6128846 -68.713196 -1.1997219 0
-1.3825824 -68.722656 -1.1997994 0
-1.1517098 -68.700012 -1.19933 0
-0.92127812 -68.696999 -1.1992167 0
-0.69121265 -68.726334 -1.1996815 0
-0.46064308 -68.707489 -1.1993189 0
-0.23030475 -68.71685 -1.1994621 0
9.1186106e-05 -68.726601 -1.1996255 0
0.23042086 -68.697105 -1.1991174 0
0.46145046 -68.800682 -1.2009456 0
0.69182825 -68.769394 -1.2004331 0
0.92165744 -68.711685 -1.199473 0
1.1532996 -68.783958 -1.2007954 0
1.3836957 -68.768921 -1.2006071 0
1.6135521 -68.733856 -1.2000828 0
1.8439548 -68.726578 -1.2000568 0
2.0731654 -68.680046 -1.1993589 0
2.3042238 -68.696518 -1.1997749 0
2.5354655 -68.71357 -1.2002143 0
2.7646897 -68.676231 -1.1997173 0
2.9959199 -68.689217 -1.2001128 0
3.2286849 -68.731575 -1.2010353 0
3.4570231 -68.678894 -1.2003105 0
3.6883321 -68.686676 -1.2006558 0
3.9140184 -68.593544 -1.1992506 0
4.1505442 -68.688705 -1.2011509 0
4.3754992 -68.590981 -1.1996918 0
4.606781 -68.595779 -1.2000391 0
4.8397183 -68.622131 -1.2007772 0
5.0678735 -68.579872 -1.2003284 0
5.2951035 -68.527855 -1.1997219 0
5.5312796 -68.58963 -1.2011213 0
5.7568183 -68.518356 -1.2002045 0
5.9874058 -68.508858 -1.2003831 0
6.2149882 -68.465477 -1.1999812 0
6.4424529 -68.422455 -1.199599 0
6.6706958 -68.388901 -1.1993961 0
6.9040995 -68.407234 -1.2001169 0
7.1315947 -68.366226 -1.1998103 0
7.3615313 -68.348969 -1.1999338 0
7.5918021 -68.334259 -1.2001157 0
7.8193808 -68.295403 -1.199887 0
8.0453358 -68.2435 -1.1994423 0
8.2803507 -68.267693 -1.2003487 0
8.5094929 -68.241959 -1.2003911 0
8.7326841 -68.169609 -1.1996268 0
8.9648371 -68.167641 -1.2001144 0
9.1884651 -68.101074 -1.199478 0
9.4217796 -68.106293 -1.2001195 0
9.6498041 -68.072411 -1.2000859 0
9.8835268 -68.077858 -1.2007594 0
10.098104 -67.95269 -1.1991421 0
10.327996 -67.932365 -1.1993878 0
10.561057 -67.931801 -1.1999962 0
10.79861 -67.958 -1.2010918 0
11.014064 -67.845421 -1.199748 0
11.241509 -67.808319 -1.1997517 0
11.47598 -67.812706 -1.2005033 0
11.69514 -67.726715 -1.1996685 0
11.921606 -67.684044 -1.1996139 0
12.149115 -67.647278 -1.1996775 0
12.378195 -67.618942 -1.1999043 0
12.610662 -67.608284 -1.2004586 0
12.834408 -67.55056 -1.200191 0
13.057832 -67.491707 -1.1999165 0
13.289403 -67.474747 -1.2004005 0
13.514918 -67.42662 -1.2003436 0
13.733232 -67.343269 -1.1996727 0
13.952165 -67.26416 -1.1990901 0
14.184045 -67.247513 -1.1996343 0
14.418451 -67.241638 -1.2003851 0
14.639386 -67.172577 -1.2000217 0
14.8576 -67.091866 -1.199463 0
15.09618 -67.102646 -1.2005539 0
15.318004 -67.0382 -1.200313 0
15.537402 -66.963699 -1.1999052 0
15.766585 -66.931412 -1.2002671 0
15.981546 -66.839035 -1.1995646 0
16.221121 -66.84922 -1.2007167 0
16.432096 -66.741394 -1.1997628 0
16.654068 -66.679085 -1.1996398 0
