# .PCD v0.7 - Point Cloud Data file format
VERSION 0.7
FIELDS x y z intensity
SIZE 4 4 4 4
TYPE F F F F
COUNT 1 1 1 1
WIDTH 1415
HEIGHT 1
VIEWPOINT 0 0 0 1 0 0 0
POINTS 1415
DATA ascii
-8.2371397 -5.416945 -1.2104931 0
-8.171916 -5.4133873 -1.2035687 0
-8.1443071 -5.4344749 -1.2021792 0
-8.1540976 -5.480608 -1.2063299 0
-8.1120949 -5.4919524 -1.2028334 0
-8.0473471 -5.487555 -1.1959542 0
-8.0796051 -5.5493288 -1.2035066 0
-8.0500164 -5.568821 -1.2018737 0
-8.0297995 -5.5947342 -1.201649 0
-7.9652553 -5.5895271 -1.1947879 0
-8.0011683 -5.65486 -1.2030121 0
-7.9601488 -5.6659846 -1.1996942 0
-8.0002842 -5.7350631 -1.2086343 0
-7.9169273 -5.7155895 -1.1989295 0
-7.9343963 -5.7687678 -1.2044973 0
-7.8800387 -5.769732 -1.1991755 0
-7.8793678 -5.8099217 -1.202031 0
-7.8801689 -5.8513994 -1.2051394 0
-7.791431 -5.8261352 -1.1945491 0
-7.806119 -5.8780279 -1.1998158 0
-7.7692857 -5.8912153 -1.1971837 0
-7.8062692 -5.9605856 -1.2059553 0
-7.727643 -5.9416704 -1.1968795 0
-7.7045102 -5.9650936 -1.1963875 0
-7.7194452 -6.0181608 -1.2018332 0
-7.70504 -6.0485744 -1.202741 0
-7.642755 -6.0412054 -1.1961737 0
-7.6284671 -6.0715795 -1.1971167 0
-7.6432476 -6.1253161 -1.2026523 0
-7.6624546 -6.183013 -1.2089297 0
-7.5733562 -6.1531563 -1.1981205 0
-7.536634 -6.1653848 -1.1955745 0
-7.5359316 -6.2071018 -1.1987578 0
-7.5403523 -6.2532935 -1.2027893 0
-7.4854121 -6.2502074 -1.1973617 0
-7.4898186 -6.296627 -1.2014368 0
-7.4758062 -6.3277478 -1.2025855 0
-7.4527268 -6.3512244 -1.2022916 0
-7.4453816 -6.3881807 -1.2045552 0
-7.4262772 -6.415143 -1.2049375 0
-7.4198546 -6.4531627 -1.2073991 0
-7.3073621 -6.3984847 -1.192578 0
-7.3139825 -6.4477339 -1.1971799 0
-7.2992454 -6.4783635 -1.1983162 0
-7.2927399 -6.5164323 -1.2008283 0
-7.2617431 -6.5326538 -1.1993241 0
-7.2183709 -6.5375571 -1.1957744 0
-7.1860209 -6.552248 -1.1940479 0
-7.1580248 -6.5708084 -1.19305 0
-7.1646738 -6.6213126 -1.1978517 0
-7.141468 -6.6443992 -1.1976897 0
-7.0974894 -6.6480165 -1.1940455 0
-7.1352749 -6.7284632 -1.204191 0
-7.1041064 -6.7442136 -1.2027402 0
-7.0694818 -6.7565517 -1.2007067 0
-7.0538459 -6.7870069 -1.2019092 0
-7.0696564 -6.8480144 -1.2085086 0
-6.9870191 -6.8135219 -1.1982807 0
-6.9788585 -6.8513646 -1.200814 0
-6.9730549 -6.8917313 -1.2037846 0
-6.8926988 -6.8581481 -1.1938752 0
-6.8818297 -6.8934035 -1.1959891 0
-6.8759427 -6.9338479 -1.1989995 0
-6.8683462 -6.9727912 -1.2017448 0
-6.7964921 -6.9462757 -1.1932409 0
-6.8366408 -7.0343361 -1.2044237 0
-6.7800303 -7.0230489 -1.1985921 0
-6.7486238 -7.0375853 -1.1972046 0
-6.7582202 -7.0950584 -1.2031202 0
-6.6961155 -7.0772209 -1.1962817 0
-6.7534385 -7.185914 -1.2108202 0
-6.6851645 -7.1612296 -1.2028773 0
-6.6466999 -7.1680565 -1.200274 0
-6.6228037 -7.1904902 -1.2003055 0
-6.5943723 -7.2079701 -1.199526 0
-6.5260673 -7.181509 -1.1914744 0
-6.511517 -7.2139459 -1.1932271 0
-6.5305429 -7.2839766 -1.2011821 0
-6.5155892 -7.3165045 -1.2029369 0
-6.4280958 -7.267169 -1.1912752 0
-6.4259119 -7.3139687 -1.1954083 0
-6.446043 -7.386683 -1.2037538 0
-6.4081779 -7.3931832 -1.201305 0
-6.3663478 -7.3948741 -1.1981046 0
-6.3496451 -7.4256811 -1.19964 0
-6.3396106 -7.4644699 -1.2024658 0
-6.3138022 -7.4847994 -1.2023238 0
-6.2751908 -7.4898362 -1.1997464 0
-6.2212772 -7.4762645 -1.1942245 0
-6.2251673 -7.5321598 -1.1998122 0
-6.2315745 -7.5916028 -1.2059461 0
-6.1568646 -7.5520778 -1.1963814 0
-6.1637406 -7.6124854 -1.2026705 0
-6.1442299 -7.6406283 -1.2038553 0
-6.0968509 -7.6339808 -1.1995804 0
-6.0804501 -7.6660147 -1.2014039 0
-6.0329881 -7.6587787 -1.1970931 0
-6.0148005 -7.6885819 -1.1985927 0
-6.0102544 -7.7360778 -1.2028487 0
-5.9854426 -7.7576885 -1.2030817 0
-5.9395995 -7.7518721 -1.1990846 0
-5.9153719 -7.7741041 -1.1994489 0
-5.8962221 -7.8030891 -1.2008641 0
-5.9036412 -7.8676109 -1.2077408 0
-5.8645849 -7.8703918 -1.2051425 0
-5.8025393 -7.8418651 -1.1977886 0
-5.824532 -7.9270349 -1.207808 0
-5.7578015 -7.891531 -1.1994503 0
-5.7382793 -7.9204111 -1.2009088 0
-5.7262921 -7.9599018 -1.2039787 0
-5.6874251 -7.9620509 -1.2014127 0
-5.6563973 -7.9750123 -1.2005 0
-5.6047316 -7.958581 -1.1951911 0
-5.5983524 -8.0064116 -1.1995485 0
-5.5623751 -8.0120258 -1.1975889 0
-5.5564561 -8.06106 -1.2021267 0
-5.5339999 -8.0863705 -1.2031274 0
-5.5027065 -8.0987711 -1.2022207 0
-5.4518948 -8.0821486 -1.1970329 0
-5.446588 -8.132967 -1.2018481 0
-5.3966999 -8.1172066 -1.1968385 0
-5.365478 -8.1292305 -1.1959523 0
-5.3392153 -8.148736 -1.1961815 0
-5.3079185 -8.1605263 -1.1952931 0
-5.3021293 -8.2117319 -1.2001827 0
-5.2745423 -8.2294235 -1.2001771 0
-5.255125 -8.2599573 -1.2020537 0
-5.2359133 -8.2910089 -1.204011 0
-5.1716905 -8.2504549 -1.1955971 0
-5.1676307 -8.3057308 -1.2010896 0
-5.1238227 -8.2972116 -1.1973666 0
-5.110662 -8.3383074 -1.2008176 0
-5.101717 -8.3866959 -1.2053161 0
-5.0615973 -8.3839235 -1.2024719 0
-5.0046964 -8.3528423 -1.1956005 0
-5.0039239 -8.4154224 -1.2021499 0
-4.9486222 -8.3862963 -1.1956124 0
-4.9297667 -8.4187059 -1.1978698 0
-4.9050808 -8.441328 -1.1987418 0
-4.8587165 -8.4264488 -1.1943088 0
-4.8703933 -8.5125275 -1.2041878 0
-4.8358965 -8.5183668 -1.2027134 0
-4.7973442 -8.5168428 -1.2002203 0
-4.7712841 -8.5373926 -1.2008553 0
-4.7264652 -8.5241823 -1.1967614 0
-4.7068071 -8.5562487 -1.199041 0
-4.6814427 -8.5781193 -1.1998996 0
-4.6525812 -8.5936298 -1.1998804 0
-4.6288619 -8.6187134 -1.2012088 0
-4.5917373 -8.6187897 -1.1990671 0
-4.5859017 -8.677825 -1.2051344 0
-4.5160818 -8.6155081 -1.1943706 0
-4.495955 -8.6474981 -1.1967089 0
-4.50423 -8.7348452 -1.2067001 0
-4.4348364 -8.671525 -1.1958916 0
-4.4195166 -8.7135124 -1.1996318 0
-4.3777156 -8.7033081 -1.1961994 0
-4.3724623 -8.765955 -1.2027881 0
-4.3242002 -8.7424622 -1.1975685 0
-4.3013029 -8.7700396 -1.1993639 0
-4.2863326 -8.8141432 -1.2034233 0
-4.250566 -8.8156261 -1.2016732 0
-4.2202687 -8.8283291 -1.2014692 0
-4.1778665 -8.8154659 -1.1978055 0
-4.146121 -8.8248148 -1.1971803 0
-4.1303124 -8.8683023 -1.2011944 0
-4.1057591 -8.8933716 -1.2027187 0
-4.0669026 -8.8873863 -1.2000585 0
-4.0289469 -8.8830357 -1.1976402 0
-4.01231 -8.9257898 -1.201584 0
-3.9724345 -8.9169102 -1.1985888 0
-3.9483476 -8.9433889 -1.200362 0
-3.9103663 -8.9383507 -1.1979192 0
-3.870182 -8.9278955 -1.1947724 0
-3.8360977 -8.9312086 -1.1934876 0
-3.8198707 -8.976305 -1.1977959 0
-3.7892437 -8.9878531 -1.1976348 0
-3.754096 -8.988555 -1.1960444 0
-3.7537251 -9.0730896 -1.2056113 0
-3.7257457 -9.0916319 -1.2064086 0
-3.6827734 -9.0733538 -1.2023379 0
-3.6725056 -9.1358356 -1.2089791 0
-3.597882 -9.0376425 -1.1943817 0
-3.5913539 -9.1100111 -1.2023476 0
-3.5275247 -9.0367832 -1.1911153 0
-3.5411823 -9.1623411 -1.2060931 0
-3.5205503 -9.2005777 -1.2095658 0
-3.4722307 -9.1662588 -1.2035167 0
-3.4219263 -9.1257067 -1.1966791 0
-3.410115 -9.1877937 -1.2033147 0
-3.3732762 -9.1828022 -1.2011729 0
-3.3249795 -9.1459522 -1.1948878 0
-3.3087177 -9.1971359 -1.2001187 0
-3.2617669 -9.162961 -1.1942254 0
-3.2414896 -9.2035522 -1.1980926 0
-3.2190919 -9.2387009 -1.2012564 0
-3.178031 -9.2202349 -1.1974632 0
-3.1620409 -9.274663 -1.2031484 0
-3.1356139 -9.2991133 -1.2049494 0
-3.0933282 -9.2763176 -1.200645 0
-3.0674853 -9.3026371 -1.2027137 0
-3.0118859 -9.2380543 -1.1930517 0
-2.9927926 -9.2850113 -1.1978133 0
-2.9766061 -9.3419485 -1.2038642 0
-2.9294577 -9.3016758 -1.197402 0
-2.9026146 -9.3254528 -1.1992033 0
-2.8824985 -9.3714371 -1.2038671 0
-2.8479702 -9.3708782 -1.2025617 0
-2.8033476 -9.3364515 -1.196931 0
-2.7708933 -9.3419714 -1.1964408 0
-2.7530267 -9.3971901 -1.2023239 0
-2.7122345 -9.3743286 -1.1982287 0
-2.6840525 -9.3947935 -1.1996875 0
-2.6599762 -9.4301081 -1.2030513 0
-2.6286776 -9.4401712 -1.2032042 0
-2.5909879 -9.4270144 -1.2004132 0
-2.5680611 -9.4677038 -1.2044913 0
-2.5177741 -9.4070311 -1.1956918 0
-2.4956081 -9.4509735 -1.2002069 0
-2.4676125 -9.4735146 -1.2020119 0
-2.4430037 -9.5096369 -1.2055492 0
-2.4009864 -9.477828 -1.2004894 0
-2.3687694 -9.4841185 -1.2002735 0
-2.331989 -9.4718266 -1.1977216 0
-2.3106751 -9.5226851 -1.2031664 0
-2.2541621 -9.4276094 -1.1901922 0
-2.2287188 -9.4613428 -1.1935008 0
-2.2093866 -9.5222158 -1.2002383 0
-2.1862483 -9.5680838 -1.2050892 0
-2.1513562 -9.5629148 -1.2035229 0
-2.0979159 -9.4735928 -1.1913894 0
-2.0809631 -9.5485859 -1.1999363 0
-2.0440352 -9.53265 -1.1970658 0
-2.0204134 -9.5790424 -1.2020341 0
-1.99519 -9.619051 -1.2062083 0
-1.9438429 -9.5320978 -1.1944807 0
-1.9234006 -9.596076 -1.201683 0
-1.8971689 -9.6326962 -1.2054656 0
-1.8630188 -9.6294785 -1.2042743 0
-1.8284268 -9.6235876 -1.2027643 0
-1.7916796 -9.6056938 -1.1997703 0
-1.7652001 -9.6429863 -1.2036822 0
-1.7227764 -9.5927076 -1.1966785 0
-1.6933095 -9.6137896 -1.1985935 0
-1.6562879 -9.5917377 -1.1951451 0
-1.6283954 -9.6225061 -1.1982918 0
-1.5978063 -9.6380606 -1.1995549 0
-1.5643232 -9.63622 -1.1986665 0
-1.5285472 -9.6196442 -1.1959602 0
-1.5019515 -9.6611586 -1.2004887 0
-1.4730325 -9.6890402 -1.2033328 0
-1.4333135 -9.6453028 -1.1972973 0
-1.4101747 -9.7134819 -1.2051668 0
-1.3727456 -9.6839151 -1.2009207 0
-1.3399577 -9.6862097 -1.2006413 0
-1.3086858 -9.6996279 -1.2017539 0
-1.2723974 -9.6753702 -1.1982131 0
-1.2420731 -9.6961508 -1.2002641 0
-1.210363 -9.706727 -1.2010642 0
-1.1788895 -9.7196198 -1.2021637 0
-1.139589 -9.6666336 -1.1951309 0
-1.1125379 -9.7172661 -1.2009228 0
-1.0801775 -9.7229776 -1.2011744 0
-1.0478603 -9.7292185 -1.2015046 0
-1.0134919 -9.7159748 -1.1994426 0
-0.97789657 -9.6894569 -1.1957576 0
-0.94994253 -9.7392101 -1.2014977 0
-0.9167918 -9.7371187 -1.2008538 0
-0.8824929 -9.7219934 -1.1986167 0
-0.8561334 -9.7963152 -1.2074192 0
-0.81977487 -9.7573709 -1.2022736 0
-0.78412616 -9.7237368 -1.1977986 0
-0.75387406 -9.7567797 -1.2015508 0
-0.72174346 -9.7671862 -1.2025276 0
-0.68552595 -9.7204065 -1.1964784 0
-0.65693003 -9.7821922 -1.2038058 0
-0.62146229 -9.7425423 -1.1986632 0
-0.59253579 -9.8065004 -1.2062811 0
-0.55863452 -9.7905788 -1.2040855 0
-0.52440035 -9.7662296 -1.2008679 0
-0.49254003 -9.7855549 -1.2030343 0
-0.45705733 -9.7302923 -1.1960453 0
-0.4252722 -9.7510595 -1.198416 0
-0.39345518 -9.7742634 -1.2010988 0
-0.36155313 -9.7991457 -1.2040007 0
-0.32786128 -9.7754021 -1.2009416 0
-0.29412287 -9.7445917 -1.1970285 0
-0.26321498 -9.8113337 -1.2051119 0
-0.23022248 -9.8080931 -1.2046123 0
-0.19766693 -9.8252344 -1.2066294 0
-0.16379745 -9.7705936 -1.1998447 0
-0.13078032 -9.7519045 -1.1974891 0
-0.098366491 -9.7804461 -1.2009467 0
-0.065402344 -9.7551241 -1.1978039 0
-0.032740902 -9.7690201 -1.1994897 0
1.2889244e-05 -9.714572 -1.1927977 0
0.032655101 -9.7357111 -1.1954 0
0.065694705 -9.7948551 -1.2026823 0
0.098784208 -9.8193884 -1.2057284 0
0.13121375 -9.7822886 -1.2012203 0
0.16379295 -9.7687778 -1.1996219 0
0.19511066 -9.6968927 -1.1908679 0
0.22842269 -9.7303162 -1.19506 0
0.26117614 -9.7343721 -1.1956589 0
0.29393888 -9.7376385 -1.1961745 0
0.32847932 -9.7930536 -1.2031102 0
0.36055279 -9.7713299 -1.2005831 0
0.39246243 -9.7489567 -1.1979892 0
0.42807797 -9.8147945 -1.2062491 0
0.45872569 -9.7652578 -1.2003433 0
0.49283475 -9.7908936 -1.2036908 0
0.52356523 -9.7501936 -1.1988962 0
0.55573976 -9.7393913 -1.1977904 0
0.5899201 -9.7627792 -1.2009032 0
0.62502348 -9.7979612 -1.2054819 0
0.65935397 -9.8178968 -1.2081997 0
0.68900555 -9.7693758 -1.2025062 0
0.72257966 -9.7781487 -1.2038776 0
0.75527883 -9.774622 -1.2037485 0
0.78862447 -9.7791948 -1.2046305 0
0.82064873 -9.7674618 -1.2035172 0
0.84826493 -9.7059841 -1.1962858 0
0.88635021 -9.7641993 -1.2038206 0
0.91662008 -9.7350178 -1.200595 0
0.94935703 -9.7329407 -1.2007245 0
0.98051095 -9.7151031 -1.1989229 0
1.0144273 -9.7246923 -1.2005192 0
1.0469145 -9.7201958 -1.2003907 0
1.0822577 -9.7414665 -1.2034588 0
1.1144009 -9.7333097 -1.202906 0
1.1440024 -9.7038498 -1.1997324 0
1.1758429 -9.6942854 -1.1990306 0
1.2078704 -9.6865273 -1.1985652 0
1.2403787 -9.6827202 -1.1986021 0
1.2805827 -9.7374115 -1.2058969 0
1.3075931 -9.6913357 -1.2007269 0
1.337608 -9.669035 -1.1985128 0
1.3805188 -9.7385645 -1.2076982 0
1.4102166 -9.7135887 -1.2051805 0
1.4363526 -9.6655788 -1.1998146 0
1.479992 -9.734643 -1.208997 0
1.5052302 -9.6820793 -1.2030888 0
1.5350989 -9.6607103 -1.2010663 0
1.5689436 -9.6645193 -1.2021872 0
1.5956558 -9.6249294 -1.1979212 0
1.6316444 -9.6415491 -1.2006638 0
1.6628964 -9.6298561 -1.1998953 0
1.7010061 -9.6573362 -1.2040232 0
1.7388957 -9.6823149 -1.2078574 0
1.7535411 -9.5791512 -1.1957146 0
1.7773143 -9.5285378 -1.1901339 0
1.8342764 -9.6542358 -1.2065953 0
1.856465 -9.5954666 -1.2000214 0
1.8884997 -9.5885458 -1.1999409 0
1.9278136 -9.6179609 -1.2044241 0
1.9492397 -9.5584326 -1.1977814 0
1.9902226 -9.5949745 -1.2031898 0
2.0087576 -9.5236549 -1.1950845 0
2.0494246 -9.5576601 -1.2002072 0
2.0821908 -9.5540972 -1.2006296 0
2.1107097 -9.5312462 -1.1986406 0
2.1459308 -9.5386801 -1.2004735 0
2.1924064 -9.5949173 -1.2084696 0
2.2120471 -9.5335665 -1.2016698 0
2.2558975 -9.5766077 -1.2080415 0
2.280005 -9.5355806 -1.2038237 0
2.3003805 -9.4801483 -1.1977926 0
2.3356354 -9.4865284 -1.1995814 0
2.3710976 -9.4933338 -1.2014405 0
2.4004991 -9.4757986 -1.2002331 0
2.4369459 -9.4859524 -1.2025474 0
2.4642961 -9.4606791 -1.2003843 0
2.5057259 -9.4891882 -1.2050606 0
2.5241499 -9.4307537 -1.1987078 0
2.5611117 -9.4419842 -1.20122 0
2.5999112 -9.459383 -1.2045358 0
2.6175661 -9.4001703 -1.1981066 0
2.6468194 -9.3833685 -1.1970896 0
2.6823702 -9.3888102 -1.1989243 0
2.7158296 -9.3866615 -1.199806 0
2.7440157 -9.3663406 -1.1983777 0
2.7766078 -9.361146 -1.1988975 0
2.8111749 -9.3624296 -1.2002623 0
2.8549569 -9.3937759 -1.2055013 0
2.8755 -9.3485956 -1.2009338 0
2.9079869 -9.3426256 -1.2014126 0
2.9257691 -9.2898779 -1.1958842 0
2.9474304 -9.2502966 -1.1920544 0
2.9990957 -9.3044815 -1.2003261 0
3.0345023 -9.3073387 -1.2020005 0
3.061167 -9.2833939 -1.2002268 0
3.084022 -9.2483282 -1.1970234 0
3.117178 -9.2443571 -1.1978555 0
3.1618159 -9.2739229 -1.2030534 0
3.1915941 -9.2595053 -1.2025645 0
3.2182689 -9.2362595 -1.2009401 0
3.2433074 -9.2086353 -1.1987555 0
3.2849348 -9.2279673 -1.2026989 0
3.3013172 -9.1764879 -1.1974255 0
3.3397975 -9.186636 -1.2002041 0
3.3790557 -9.1984596 -1.2032222 0
3.3739109 -9.0901756 -1.190531 0
3.4378445 -9.1680841 -1.2022374 0
3.4558907 -9.1230497 -1.1978446 0
3.486095 -9.1104603 -1.1977196 0
3.5274158 -9.1266499 -1.2013961 0
3.5680566 -9.1405449 -1.2047932 0
3.5936642 -9.1157999 -1.203113 0
3.6010184 -9.0454512 -1.1954149 0
3.6743217 -9.1402836 -1.209569 0
3.691735 -9.0953636 -1.2052557 0
3.7006202 -9.0302525 -1.1982651 0
3.7270987 -9.0086641 -1.1970519 0
3.7710767 -9.0291452 -1.2014468 0
3.7799203 -8.9656725 -1.1946806 0
3.8119352 -8.957592 -1.1953001 0
3.8488138 -8.9607487 -1.1974366 0
3.8850811 -8.9622002 -1.1993645 0
3.9231186 -8.9674349 -1.2018186 0
3.9380906 -8.9200916 -1.1972364 0
3.9619446 -8.8933001 -1.1954167 0
4.0037332 -8.9066467 -1.1990083 0
4.0244484 -8.8730545 -1.196296 0
4.0764933 -8.9082813 -1.2028813 0
4.0907516 -8.8608027 -1.1983156 0
4.1288543 -8.8651094 -1.2007635 0
4.1610861 -8.8566065 -1.2014946 0
4.1875186 -8.8357706 -1.2005661 0
4.2103186 -8.8074551 -1.1986299 0
4.2377682 -8.7890234 -1.1980485 0
4.2767897 -8.7944603 -1.2007375 0
4.3008533 -8.7690639 -1.1992321 0
4.3416047 -8.7775917 -1.2023822 0
4.3675308 -8.756011 -1.2014252 0
4.3841357 -8.7160139 -1.1979474 0
4.4502492 -8.7740469 -1.2079674 0
4.4537339 -8.7084179 -1.2009811 0
4.4783349 -8.6845713 -1.1997565 0
4.5031352 -8.661252 -1.1986139 0
4.5118866 -8.6074495 -1.1932551 0
4.5717974 -8.6510792 -1.2014217 0
4.5817838 -8.6000519 -1.196462 0
4.6232982 -8.6082993 -1.1997592 0
4.6621194 -8.6111927 -1.2023343 0
4.6946621 -8.6022873 -1.2032819 0
4.6921406 -8.5295334 -1.195299 0
4.7385526 -8.545929 -1.1998162 0
4.7726426 -8.5397692 -1.2011913 0
4.7657952 -8.4607801 -1.1923218 0
4.8185339 -8.487731 -1.1983896 0
4.8612566 -8.4965067 -1.2019233 0
4.8715377 -8.4486332 -1.1974548 0
4.887229 -8.4105549 -1.1943735 0
4.9454503 -8.4454384 -1.2016752 0
4.9774289 -8.4350634 -1.2025669 0
4.9873247 -8.387455 -1.1981566 0
5.0582061 -8.4420986 -1.2083784 0
5.0780892 -8.41119 -1.2063845 0
5.0948982 -8.3754358 -1.2036997 0
5.1138201 -8.3434105 -1.2015544 0
5.1298127 -8.3068619 -1.1987613 0
5.1810865 -8.3273087 -1.204212 0
5.1799092 -8.2635183 -1.197492 0
5.2375517 -8.2935543 -1.2043825 0
5.252336 -8.2555256 -1.2014107 0
5.2673459 -8.2181482 -1.1985346 0
5.2920532 -8.1960783 -1.1978968 0
5.3024268 -8.1520357 -1.1940515 0
5.365447 -8.1887236 -1.2020535 0
5.3625679 -8.1247749 -1.1952989 0
5.4075737 -8.1335144 -1.1992452 0
5.4541941 -8.1442785 -1.2035217 0
5.4533329 -8.0842342 -1.1973441 0
5.5236192 -8.1295033 -1.2067848 0
5.5378928 -8.0920124 -1.203969 0
5.5511522 -8.0533199 -1.2009747 0
5.589241 -8.0506783 -1.2033687 0
5.5733352 -7.9705882 -1.1941836 0
5.6388474 -8.0069799 -1.2024617 0
5.6515622 -7.9681501 -1.1994693 0
5.6869755 -7.9613771 -1.2013133 0
5.7019243 -7.9259844 -1.1988508 0
5.7417526 -7.9251609 -1.2016313 0
5.7618995 -7.8971038 -1.2002996 0
5.7667403 -7.8483381 -1.1958196 0
5.7925797 -7.8283615 -1.1957284 0
5.820437 -7.811101 -1.1960659 0
5.872612 -7.8262162 -1.2013887 0
5.8695173 -7.7677054 -1.195421 0
5.9113011 -7.7687111 -1.1986192 0
5.9341378 -7.7447014 -1.1979779 0
5.9525385 -7.7149997 -1.1964639 0
5.9746089 -7.6901546 -1.1957107 0
6.019825 -7.6949625 -1.1995898 0
6.0609536 -7.6942387 -1.2026381 0
6.0761824 -7.6605926 -1.2005566 0
6.1108994 -7.6515293 -1.2023405 0
6.1394787 -7.6346784 -1.2029204 0
6.1145272 -7.5516639 -1.1930641 0
6.1609468 -7.557044 -1.1971709 0
6.2054248 -7.5597053 -1.2008816 0
6.2345071 -7.5434198 -1.2016085 0
6.2393236 -7.497911 -1.1976849 0
6.2847657 -7.501224 -1.2015733 0
6.26618 -7.4283051 -1.1932515 0
6.3573232 -7.4852853 -1.2058216 0
6.3511677 -7.4274216 -1.199924 0
6.3657451 -7.394134 -1.1979876 0
6.4211621 -7.4081235 -1.2037355 0
6.4650908 -7.4084706 -1.2073072 0
6.4899158 -7.3867779 -1.2073114 0
6.508204 -7.3576946 -1.2061176 0
6.4977565 -7.2964406 -1.199641 0
6.5340662 -7.2878675 -1.2018266 0
6.514534 -7.2172499 -1.1937764 0
6.5860667 -7.2474961 -1.202425 0
6.5795236 -7.1917019 -1.1968215 0
6.5834532 -7.1477289 -1.1931703 0
6.6494584 -7.1709929 -1.2007687 0
6.6905742 -7.1669865 -1.2038473 0
6.6756287 -7.1030836 -1.1968663 0
6.6678581 -7.0473175 -1.1912301 0
6.7180276 -7.0528255 -1.1959617 0
6.7590308 -7.0484004 -1.1990474 0
6.8071108 -7.0510626 -1.2033762 0
6.802321 -6.9989862 -1.1983742 0
6.8428702 -6.9936385 -1.20138 0
6.8749676 -6.979476 -1.2029001 0
6.8694763 -6.92729 -1.1978687 0
6.9052138 -6.9167905 -1.2000499 0
6.9196529 -6.8849306 -1.1985407 0
6.9480267 -6.8669581 -1.1994606 0
6.9982109 -6.8703265 -1.2041407 0
7.0402017 -6.8653479 -1.2073984 0
6.9820232 -6.7630925 -1.1935252 0
7.0471292 -6.780508 -1.2007617 0
7.0711374 -6.7580981 -1.2009848 0
7.0637569 -6.7058725 -1.1959059 0
7.1195655 -6.7136135 -1.2015367 0
7.169507 -6.7154379 -1.2061585 0
7.1800365 -6.6802478 -1.2041551 0
7.1933956 -6.6478209 -1.2026507 0
7.1922994 -6.6022363 -1.1987597 0
7.2127533 -6.5765877 -1.1984869 0
7.2577953 -6.5732274 -1.2023025 0
7.2323484 -6.506176 -1.1944667 0
7.2898088 -6.5137782 -1.2003428 0
7.270462 -6.4527826 -1.193588 0
7.3385763 -6.4693799 -1.2012026 0
7.3349705 -6.4226251 -1.197081 0
7.3859825 -6.4236693 -1.2018845 0
7.3890934 -6.382988 -1.1989014 0
7.3924131 -6.3427 -1.1959829 0
7.4221544 -6.3251371 -1.1973569 0
7.4672155 -6.3204422 -1.2012008 0
7.4935727 -6.2997484 -1.2020363 0
7.4987545 -6.2613144 -1.1994933 0
7.5232978 -6.2391167 -1.2000663 0
7.5466552 -6.2159009 -1.2004609 0
7.5288954 -6.1590209 -1.1943443 0
7.5681162 -6.1488657 -1.1972889 0
7.6305909 -6.1572676 -1.2038997 0
7.6186023 -6.1055317 -1.1987718 0
7.6645145 -6.1002369 -1.2027711 0
7.6468534 -6.0444121 -1.1968125 0
7.6963377 -6.0417099 -1.2013801 0
7.7472935 -6.0398383 -1.2061664 0
7.7236099 -5.9798484 -1.199351 0
7.7698255 -5.974071 -1.2034104 0
7.6956038 -5.8760533 -1.1888567 0
7.8102679 -5.9222579 -1.2034962 0
7.827064 -5.8937674 -1.2030327 0
7.809783 -5.8398261 -1.1973603 0
7.8404417 -5.8218675 -1.1990614 0
7.9104314 -5.8327942 -1.2067674 0
7.8889332 -5.7762122 -1.2005267 0
7.9272919 -5.7635703 -1.2034166 0
7.928196 -5.7236929 -1.2006338 0
7.9345493 -5.6879086 -1.1987011 0
8.0057669 -5.6984234 -1.2065672 0
7.9927473 -5.6488762 -1.2017436 0
7.9764628 -5.5973601 -1.1964668 0
8.0364094 -5.599308 -1.202636 0
8.0180025 -5.5466428 -1.1970917 0
8.0192728 -5.5078597 -1.1945176 0
8.0787449 -5.508934 -1.2006183 0
8.0790977 -5.4695816 -1.1979386 0
8.1423578 -5.4726863 -1.2045909 0
8.1326666 -5.4266763 -1.2004588 0
8.1636429 -5.4078755 -1.202348 0
8.178483 -5.3783393 -1.201871 0
8.183567 -5.3424654 -1.1999791 0
8.1718845 -5.2958484 -1.1956558 0
8.2179565 -5.286665 -1.1997964 0
8.2749567 -5.2841911 -1.2055249 0
8.2359114 -5.2204671 -1.1972799 0
8.2776222 -5.2080846 -1.2007984 0
8.2715397 -5.1656275 -1.1973969 0
8.2956533 -5.1421056 -1.198385 0
8.3276672 -5.1233811 -1.2005216 0
8.3905382 -5.1233602 -1.2071018 0
8.2972231 -5.0282679 -1.1912451 0
8.3416805 -5.0170469 -1.195206 0
8.416585 -5.0237484 -1.2035184 0
8.398118 -4.9746127 -1.198486 0
8.4426651 -4.9628367 -1.2024618 0
8.4357052 -4.9207635 -1.199114 0
8.4671984 -4.9011598 -1.201248 0
8.4654884 -4.86235 -1.1986859 0
8.4909191 -4.839169 -1.1999826 0
8.4833612 -4.7972512 -1.1966347 0
8.5123949 -4.7760735 -1.1984645 0
8.5111332 -4.7379165 -1.1960436 0
8.5561247 -4.7254553 -1.200133 0
8.5836515 -4.7031693 -1.2017754 0
8.608222 -4.6791739 -1.2030122 0
8.6128817 -4.6443648 -1.2014804 0
8.6558867 -4.6301618 -1.2053072 0
8.6351833 -4.5819178 -1.2002784 0
8.6570425 -4.5563846 -1.2011865 0
8.63132 -4.5059552 -1.1955146 0
8.6505527 -4.4791517 -1.1960917 0
8.6890326 -4.4621968 -1.1993369 0
8.7203054 -4.4413719 -1.2015913 0
8.6794586 -4.3839812 -1.1939307 0
8.726984 -4.3713231 -1.1984454 0
8.7417936 -4.3421392 -1.1984732 0
8.7060013 -4.2880297 -1.1915884 0
8.8329325 -4.3138089 -1.2069751 0
8.815486 -4.2687416 -1.2026286 0
8.8140469 -4.2316227 -1.20049 0
8.804451 -4.1907501 -1.1972625 0
8.8474712 -4.1749001 -1.2012024 0
8.8224154 -4.1269674 -1.1959153 0
8.8534117 -4.1053443 -1.1982443 0
8.8799067 -4.0815115 -1.1999714 0
8.8897552 -4.0499911 -1.1994605 0
8.9162636 -4.0260234 -1.2012092 0
5.1696692 -2.3134618 -0.69541484 0
5.113534 -2.2677934 -0.68683696 0
5.1231518 -2.251534 -0.68711096 0
5.0977249 -2.2199962 -0.68269861 0
5.115747 -2.2074692 -0.68411714 0
5.0213461 -2.1467934 -0.6705268 0
5.1183119 -2.1679809 -0.68250066 0
5.1661687 -2.1678517 -0.68790901 0
5.158885 -2.1444812 -0.68597788 0
5.1164818 -2.1067638 -0.67939645 0
5.1529255 -2.1015918 -0.6832962 0
5.1676397 -2.0874121 -0.68431544 0
5.1759191 -2.0705984 -0.68448871 0
5.208889 -2.0635555 -0.68792993 0
5.3275447 -2.0899239 -0.70267123 0
5.3246965 -2.0682333 -0.70137697 0
5.4237242 -2.0857966 -0.71349585 0
5.4207983 -2.0638354 -0.71219671 0
9.117156 -3.436178 -1.1963121 0
9.16119 -3.4177394 -1.2005798 0
9.1853657 -3.3917189 -1.2022508 0
9.2035913 -3.3634269 -1.2031537 0
9.2141838 -3.3323209 -1.203071 0
9.2358513 -3.3051832 -1.2044464 0
9.2587643 -3.2784061 -1.2059942 0
9.2201576 -3.2299879 -1.1995482 0
9.1784697 -3.1808741 -1.1927304 0
9.2203321 -3.1607947 -1.1967865 0
9.2467279 -3.1352372 -1.1988415 0
9.2924967 -3.1160572 -1.2034141 0
9.2350178 -3.0623763 -1.194634 0
9.2884159 -3.0455546 -1.2002138 0
9.333189 -3.0256164 -1.2046816 0
9.3325243 -2.99086 -1.2032948 0
9.2955704 -2.9446864 -1.1972504 0
9.3267822 -2.9202011 -1.2000026 0
9.3096514 -2.8805997 -1.1965491 0
9.3320179 -2.8532715 -1.1981875 0
9.3236694 -2.8165712 -1.1958964 0
9.3286867 -2.7839897 -1.195336 0
9.4093056 -2.7737257 -1.2044678 0
9.3646259 -2.7264621 -1.1975715 0
9.4296761 -2.7111382 -1.204721 0
9.3740435 -2.6611485 -1.1964668 0
9.3905287 -2.6318388 -1.197438 0
9.4461651 -2.6133046 -1.2034084 0
9.4255009 -2.5735984 -1.1996698 0
9.4424114 -2.5442278 -1.2007297 0
9.4607744 -2.515183 -1.2019856 0
9.4221973 -2.4711332 -1.196025 0
9.470645 -2.4499319 -1.2011254 0
9.481452 -2.4188399 -1.2014607 0
9.4772072 -2.3839424 -1.1999032 0
9.5073977 -2.3576715 -1.2027181 0
9.5026474 -2.3227017 -1.2011253 0
9.4947844 -2.287071 -1.1991553 0
9.4901419 -2.252315 -1.1976087 0
9.5229282 -2.2263956 -1.2007973 0
9.5562801 -2.2004278 -1.2040658 0
9.5582771 -2.1671672 -1.2033951 0
9.5770502 -2.1376884 -1.2048495 0
9.5460043 -2.097183 -1.2000524 0
9.5832634 -2.0717115 -1.2038563 0
9.5241528 -2.025532 -1.1955711 0
9.5620403 -2.0001035 -1.1994785 0
9.5327225 -1.9606345 -1.1949695 0
9.5916567 -1.9392592 -1.2015353 0
9.5589504 -1.8993096 -1.1966338 0
9.6235018 -1.8786181 -1.2039194 0
9.610302 -1.8426137 -1.2014885 0
9.5814018 -1.8037881 -1.1971124 0
9.5734978 -1.769085 -1.1953771 0
9.6144695 -1.7433405 -1.1997564 0
9.5986958 -1.7072595 -1.197067 0
9.6314945 -1.6797988 -1.2004483 0
9.6228733 -1.6450695 -1.1986796 0
9.5936193 -1.6069815 -1.1943578 0
9.6347036 -1.580672 -1.1988059 0
9.6291275 -1.5466217 -1.1974602 0
9.6060619 -1.5098963 -1.1939555 0
9.6397257 -1.4820862 -1.1975154 0
9.6702967 -1.4536141 -1.2007009 0
9.6291437 -1.4144304 -1.1949956 0
9.6623507 -1.3862292 -1.1985331 0
9.6494799 -1.3513795 -1.1963677 0
9.7000275 -1.3253138 -1.2020772 0
9.683363 -1.2899793 -1.1994692 0
9.6910906 -1.2579542 -1.1998973 0
9.6935091 -1.2252343 -1.1996813 0
9.7361269 -1.1974701 -1.2044522 0
9.7043009 -1.1605403 -1.2000269 0
9.7133541 -1.1286032 -1.2006718 0
9.6654129 -1.0902016 -1.1942871 0
9.7560835 -1.0673146 -1.2050416 0
9.7041063 -1.0287148 -1.1981889 0
9.753089 -1.0008512 -1.2038158 0
9.7061214 -0.96315706 -1.1976134 0
9.7339973 -0.93297637 -1.2006601 0
9.6364031 -0.89102662 -1.188247 0
9.7256889 -0.86640525 -1.1988916 0
9.7322483 -0.83410984 -1.1993488 0
9.7350283 -0.80147797 -1.1993536 0
9.7497272 -0.76978642 -1.2008396 0
9.7100496 -0.73390329 -1.1956429 0
9.7241211 -0.70218557 -1.1970791 0
9.7381382 -0.67038512 -1.1985211 0
9.7903185 -0.64100403 -1.2046719 0
9.7480288 -0.60541886 -1.1992118 0
9.7777891 -0.57436424 -1.2026293 0
9.7438059 -0.53959244 -1.1982203 0
9.7594156 -0.50764096 -1.1999238 0
9.791996 -0.47642165 -1.2037264 0
9.7621622 -0.44216713 -1.19987 0
9.7798939 -0.41011766 -1.2018737 0
9.7791624 -0.37724605 -1.2016214 0
9.7531147 -0.34349626 -1.1982726 0
9.7494764 -0.31064308 -1.1976908 0
9.7778435 -0.27873373 -1.2010542 0
9.8023739 -0.24654375 -1.203959 0
9.7467566 -0.21244775 -1.1970336 0
9.766408 -0.18011782 -1.1993662 0
9.8142452 -0.14808542 -1.2051731 0
9.7863054 -0.11484621 -1.2016882 0
9.7862082 -0.082030348 -1.2016357 0
9.7498598 -0.049034663 -1.1971456 0
9.8078413 -0.016441967 -1.2042514 0
9.7824116 0.016399335 -1.201129 0
9.7168522 0.04886866 -1.1930928 0
9.7062454 0.081360079 -1.1918172 0
9.8043747 0.11505825 -1.2039069 0
9.744956 0.14703992 -1.1966645 0
9.7458572 0.1797388 -1.1968424 0
9.7809858 0.21319383 -1.2012374 0
9.7259502 0.24462157 -1.1945723 0
9.7586107 0.27818546 -1.1986917 0
9.6993351 0.30904546 -1.1915312 0
9.7223091 0.34241131 -1.1944878 0
9.7948685 0.37785196 -1.2035514 0
9.7513094 0.40891895 -1.1983607 0
9.8275127 0.4451271 -1.2079022 0
9.7402411 0.47390354 -1.1973641 0
9.7551928 0.50742131 -1.1994046 0
9.7837524 0.54180455 -1.2031325 0
9.742609 0.57229769 -1.1983023 0
9.7690096 0.60672188 -1.201793 0
9.7697506 0.63965738 -1.2021412 0
9.7739353 0.67284942 -1.2029269 0
9.7182169 0.70175922 -1.1963521 0
9.7480297 0.73677391 -1.2003196 0
9.7492313 0.76974732 -1.2007786 0
9.786705 0.80573249 -1.2057201 0
9.6970406 0.83109236 -1.1950099 0
9.7703629 0.87038499 -1.2043986 0
9.7169619 0.89847553 -1.1981806 0
9.6786003 0.92766672 -1.193827 0
9.7523708 0.9677465 -1.2033199 0
9.6753902 0.99287784 -1.1942255 0
9.6765423 1.0257928 -1.1947856 0
9.7161617 1.0629472 -1.2001107 0
9.7044039 1.0945996 -1.199105 0
9.7095833 1.128165 -1.2002056 0
9.7365065 1.1643916 -1.2040093 0
9.7378426 1.1976811 -1.2046643 0
9.7271786 1.22949 -1.2038484 0
9.6801662 1.2565364 -1.1985447 0
9.6904354 1.2909214 -1.2003453 0
9.6756516 1.3219833 -1.1990564 0
9.6972303 1.3580669 -1.202288 0
9.6907549 1.3903043 -1.2020564 0
9.6407175 1.4161304 -1.1964319 0
9.6685467 1.453351 -1.2004836 0
9.6789179 1.4881119 -1.202384 0
9.6554499 1.5176592 -1.2000941 0
9.6137276 1.544148 -1.195545 0
9.6497507 1.5831406 -1.2006782 0
9.6320457 1.6134181 -1.1991416 0
9.5982838 1.6408657 -1.1956165 0
9.6000547 1.6743155 -1.1965297 0
9.6485939 1.7161347 -1.20329 0
9.5930119 1.7394497 -1.1970788 0
9.5770054 1.7697332 -1.1958151 0
9.6221428 1.8114579 -1.2022027 0
9.5825891 1.8373001 -1.1980238 0
9.6084023 1.8756704 -1.2020304 0
1.7695796 0.3516055 -0.22152421 0
1.760868 0.35601562 -0.22058183 0
1.8217895 0.37469497 -0.22836947 0
1.7558984 0.3672834 -0.22026287 0
1.7848051 0.37958017 -0.22404735 0
1.7814419 0.38511243 -0.22378601 0
1.8299209 0.40201941 -0.23004399 0
1.7870035 0.39887613 -0.22481561 0
1.7902663 0.40591064 -0.22539604 0
1.8289498 0.42113373 -0.23044279 0
1.8053985 0.42208987 -0.22765242 0
1.8525975 0.43968076 -0.23378856 0
1.7909908 0.43140772 -0.22619538 0
1.8596073 0.45453784 -0.23505253 0
1.8133292 0.44967455 -0.22939231 0
1.8798971 0.47287837 -0.2380126 0
1.8194625 0.46416822 -0.23055677 0
1.8464801 0.47766024 -0.23418197 0
1.838981 0.48230445 -0.23343468 0
1.8663988 0.49618924 -0.23712483 0
1.875349 0.50530684 -0.23847586 0
1.8889141 0.51576108 -0.2404194 0
1.9279237 0.53336477 -0.24561074 0
1.9093645 0.53512847 -0.24347356 0
1.8813498 0.53408664 -0.24012825 0
1.9707123 0.56660205 -0.25177521 0
1.9060698 0.55494231 -0.2437529 0
1.9138777 0.56418318 -0.24499193 0
1.9174654 0.57223529 -0.2456954 0
1.8657377 0.56361747 -0.23930803 0
1.9047781 0.58238739 -0.24456462 0
1.8821285 0.58236969 -0.24190585 0
1.9265865 0.60321128 -0.24787851 0
1.8886249 0.59828585 -0.243251 0
1.9055411 0.61068219 -0.2456921 0
1.9360127 0.62761313 -0.24989091 0
1.9535909 0.64055789 -0.25243559 0
1.9882838 0.65932447 -0.25720268 0
1.9591645 0.65696752 -0.25371933 0
1.9540268 0.66254115 -0.25334024 0
1.9810405 0.67911464 -0.25713634 0
2.0163498 0.6987825 -0.26202208 0
1.9722393 0.69091105 -0.25658956 0
2.0439224 0.72372597 -0.26622978 0
1.9732889 0.70617002 -0.25733641 0
1.9615936 0.70941281 -0.25611997 0
1.9985332 0.73035842 -0.26126134 0
1.9359088 0.7148391 -0.25338656 0
2.0287938 0.75687641 -0.26587471 0
1.9686625 0.74197203 -0.25831902 0
2.0558581 0.78271729 -0.27010328 0
2.0396085 0.78437042 -0.26831236 0
4.455379 1.7305707 -0.58686924 0
4.3883991 1.7215096 -0.57880354 0
4.4521275 1.7637564 -0.58798558 0
4.4605346 1.7844125 -0.58988273 0
4.4448953 1.7954674 -0.58860731 0
4.4532371 1.8162277 -0.59051502 0
4.4756413 1.8428911 -0.59430188 0
8.9912424 3.7375424 -1.1955673 0
8.9729137 3.7652557 -1.1948019 0
9.0510798 3.8337967 -1.2069151 0
9.0099726 3.8520641 -1.2031491 0
8.9466925 3.8605406 -1.1964207 0
8.9604959 3.9021854 -1.2000095 0
9.012208 3.9607046 -1.2087065 0
8.9461689 3.9675229 -1.2016268 0
8.8624172 3.9659915 -1.1921568 0
8.938489 4.0360594 -1.2042035 0
8.9590225 4.0815477 -1.2088065 0
8.8846235 4.0836797 -1.2006087 0
8.8569288 4.1069751 -1.1987205 0
8.8850021 4.1562448 -1.2043992 0
8.8436518 4.1730981 -1.2006838 0
8.8301907 4.2030015 -1.2007626 0
8.8060808 4.2277985 -1.1994051 0
8.7653837 4.2444806 -1.1957935 0
8.7482214 4.272438 -1.1953998 0
8.7766352 4.3228197 -1.2012562 0
8.7886305 4.3654032 -1.2048943 0
8.7473412 4.3815203 -1.201241 0
8.6961842 4.3924294 -1.1962315 0
8.7482166 4.4555879 -1.2054372 0
8.7084131 4.4721494 -1.2020118 0
8.7044649 4.5070667 -1.2035459 0
8.6409283 4.5109715 -1.1968455 0
8.6655722 4.560874 -1.2023702 0
8.6467896 4.5880756 -1.2018917 0
8.6055574 4.60324 -1.1982989 0
8.6045275 4.6398602 -1.200315 0
8.5869207 4.6675954 -1.2000353 0
8.5906296 4.7069926 -1.2027524 0
8.5517378 4.723032 -1.1995176 0
8.5127926 4.7388401 -1.1962768 0
8.4764023 4.7558789 -1.193397 0
8.4999647 4.8066401 -1.1989766 0
8.4948492 4.8414087 -1.2005379 0
8.5102854 4.8880801 -1.2050289 0
8.4627819 4.898603 -1.2006214 0
8.4416122 4.9242091 -1.1999536 0
8.4470444 4.9654107 -1.2030855 0
8.3812532 4.9646225 -1.1960791 0
8.3839941 5.0042953 -1.1988581 0
8.3833027 5.0420809 -1.2011697 0
8.3275785 5.0466638 -1.1956033 0
8.3147459 5.0770802 -1.196198 0
8.3032036 5.1083302 -1.1969948 0
8.2702188 5.1263404 -1.1947109 0
8.2841311 5.1734905 -1.1992195 0
8.3376007 5.245822 -1.2094992 0
8.2595892 5.2354755 -1.2007221 0
8.2575769 5.2730937 -1.202993 0
8.2127647 5.2833252 -1.1990385 0
8.1881466 5.3063865 -1.198035 0
8.1881857 5.3454809 -1.2006564 0
8.169137 5.3721933 -1.2004976 0
8.1415758 5.3932576 -1.1990979 0
8.1211634 5.4190006 -1.1987609 0
8.1134453 5.4532537 -1.2003137 0
8.0963488 5.4812603 -1.2004964 0
8.100194 5.52356 -1.2038059 0
8.0842733 5.5525036 -1.2041998 0
8.0147762 5.5444112 -1.1966101 0
7.9933338 5.5692954 -1.1961898 0
7.9611473 5.5866127 -1.1941695 0
7.9573464 5.623857 -1.196421 0
7.9613738 5.6668243 -1.1998764 0
7.9684744 5.7122283 -1.2038264 0
7.9208589 5.7183962 -1.1995226 0
7.8719807 5.7233558 -1.19502 0
7.9191885 5.7983646 -1.2051308 0
7.8769464 5.808104 -1.2016592 0
7.8180017 5.8052053 -1.1956296 0
7.8397346 5.8622227 -1.2019525 0
7.8285546 5.8948894 -1.2032617 0
7.7886415 5.9058595 -1.2001638 0
7.7954683 5.9523058 -1.2042842 0
7.7368059 5.9486828 -1.1982963 0
7.7462635 5.9973869 -1.2028687 0
7.7279391 6.0247502 -1.2031533 0
7.6950722 6.0407166 -1.2011826 0
7.6925645 6.080544 -1.2039669 0
7.6398616 6.0806155 -1.1989024 0
7.6428642 6.1249752 -1.2025894 0
7.6315446 6.1580372 -1.2040503 0
7.598279 6.1733723 -1.2020607 0
7.5674524 6.1905622 -1.2004608 0
7.5405874 6.2109032 -1.1994958 0
7.5032682 6.222506 -1.1968713 0
7.4963598 6.259315 -1.1991103 0
7.4961271 6.3018966 -1.2024461 0
7.4397693 6.2972112 -1.1967858 0
7.4956179 6.387742 -1.2092081 0
7.4043713 6.3529596 -1.1979176 0
7.3835988 6.3782415 -1.19801 0
7.3575974 6.3989825 -1.1972655 0
7.3612533 6.4456387 -1.2013704 0
7.3044243 6.4392729 -1.1956125 0
7.3349333 6.5100031 -1.2041723 0
7.2611527 6.4881725 -1.1956244 0
7.2992249 6.5663376 -1.2055117 0
7.2272677 6.5455794 -1.1972454 0
7.226037 6.5886993 -1.2006942 0
7.2145004 6.6226158 -1.2024601 0
7.1985035 6.6525412 -1.2035046 0
7.1799922 6.6802063 -1.2041476 0
7.1327772 6.6810341 -1.1999793 0
7.1378393 6.7308455 -1.2046207 0
7.0857439 6.7267456 -1.1996284 0
7.0480967 6.7360773 -1.1970716 0
7.0448728 6.778337 -1.2003771 0
7.0115447 6.7916884 -1.1985717 0
7.0353284 6.8605952 -1.2065626 0
6.9684043 6.8410649 -1.1990122 0
6.9269896 6.8461666 -1.1958289 0
6.9105134 6.8758368 -1.1969577 0
6.9312201 6.9428401 -1.2045695 0
6.8712268 6.9290552 -1.198174 0
6.8773785 6.9819236 -1.2033219 0
6.8709307 7.0223174 -1.2063066 0
6.7864861 6.9826937 -1.1955845 0
6.7943358 7.0378299 -1.2011178 0
6.7642961 7.0538907 -1.1999815 0
6.7475147 7.0837817 -1.2012111 0
6.7202177 7.1026568 -1.2005843 0
6.6943188 7.1229706 -1.2002172 0
6.6775575 7.1530433 -1.2015052 0
6.6505799 7.1722026 -1.2009712 0
6.6285839 7.1967273 -1.2013496 0
6.5810819 7.1934047 -1.1971049 0
6.5986757 7.2613711 -1.2047271 0
6.5385303 7.2438345 -1.1981736 0
6.5123482 7.2636442 -1.197832 0
6.4883571 7.2858858 -1.1979055 0
6.4935384 7.341115 -1.2033997 0
6.4622087 7.3552418 -1.202157 0
6.4413271 7.3812394 -1.2028695 0
6.398643 7.3821435 -1.1995139 0
6.3868132 7.4186058 -1.2019523 0
6.3250413 7.3968682 -1.1949879 0
6.2853856 7.4005842 -1.1921771 0
6.3027072 7.4716067 -1.2002072 0
6.2622557 7.4743571 -1.1972696 0
6.272151 7.5373602 -1.2039863 0
6.2448478 7.5559311 -1.2036015 0
6.1852069 7.5350747 -1.196969 0
6.1327276 7.5224299 -1.1916873 0
6.1507072 7.5963473 -1.2001235 0
6.1226454 7.6137457 -1.1996223 0
6.0753083 7.6069655 -1.1953379 0
6.0525427 7.6307883 -1.1958858 0
6.0631056 7.6969705 -1.2030652 0
6.0065193 7.6779542 -1.1969383 0
6.0207596 7.7495575 -1.204947 0
5.9526587 7.7151546 -1.196488 0
5.9398451 7.7521501 -1.1991301 0
5.9520044 7.8222041 -1.2068726 0
5.8935318 7.7994857 -1.2003119 0
5.8523436 7.7992053 -1.1972423 0
5.8439546 7.8426623 -1.2008988 0
5.7934508 7.8295393 -1.1959082 0
5.7575822 7.8358741 -1.1939205 0
5.7700515 7.908277 -1.2019979 0
5.7505689 7.9373298 -1.2034764 0
5.68996 7.9093533 -1.1963352 0
5.6973243 7.9758644 -1.2034993 0
5.6588197 7.9783821 -1.2010096 0
5.6242471 7.986248 -1.1993483 0
5.5973902 8.0049896 -1.1993378 0
5.587719 8.0484858 -1.2030408 0
5.5515776 8.053937 -1.2010667 0
5.526792 8.0757923 -1.2015557 0
5.4825625 8.0690775 -1.1978149 0
5.4761572 8.1180706 -1.2023554 0
5.4003124 8.0638218 -1.1916323 0
5.3994293 8.1212654 -1.1974391 0
5.4329858 8.2314644 -1.2109947 0
5.3781748 8.208149 -1.204905 0
5.3244605 8.1859102 -1.1990132 0
5.2884083 8.1904335 -1.1970719 0
5.27598 8.2316189 -1.2004992 0
5.253418 8.257225 -1.2016581 0
5.1931009 8.2231674 -1.1941611 0
5.17132 8.2498159 -1.1955063 0
5.1674042 8.3053169 -1.2010318 0
5.1256323 8.3000927 -1.1977843 0
5.1041412 8.3276186 -1.1992803 0
5.0668869 8.3293886 -1.1970819 0
5.0541453 8.3715305 -1.2006962 0
5.0409055 8.4132252 -1.2042454 0
4.9987397 8.4066525 -1.200899 0
4.9597101 8.4050369 -1.1982859 0
4.9376607 8.4321356 -1.1997825 0
4.9238563 8.473588 -1.2033248 0
4.8810158 8.4650707 -1.1997845 0
4.8674011 8.507246 -1.2034425 0
4.8245344 8.4982996 -1.1998819 0
4.7905383 8.5047073 -1.1985121 0
4.7643771 8.5249796 -1.1991111 0
4.7338529 8.5374527 -1.1986263 0
4.7040763 8.5512314 -1.1983396 0
4.6906481 8.5949326 -1.2022531 0
4.6559167 8.5997362 -1.2007346 0
4.639699 8.6388369 -1.2040153 0
4.6364112 8.7025871 -1.210727 0
4.5642638 8.6368246 -1.1994421 0
4.5129671 8.6095104 -1.1935409 0
4.501462 8.6580334 -1.1981686 0
4.4947076 8.7163219 -1.2041427 0
4.4320893 8.6660967 -1.1951445 0
4.4472904 8.7682133 -1.2071644 0
4.3791356 8.7060728 -1.1965811 0
4.347105 8.7150612 -1.1958064 0
4.3483477 8.7912235 -1.2042496 0
4.2965999 8.7603922 -1.1980461 0
4.2772517 8.7954102 -1.2008672 0
4.2483902 8.8110542 -1.2010515 0
4.2585673 8.9083853 -1.2123657 0
4.1594553 8.776557 -1.1925203 0
4.1595979 8.8534384 -1.2010649 0
4.1378136 8.884347 -1.2033691 0
4.0888777 8.8567448 -1.1977668 0
4.077198 8.9098225 -1.2030895 0
4.0365572 8.8997517 -1.1998954 0
3.9994473 8.8971119 -1.1977248 0
3.9890189 8.954073 -1.2035856 0
3.9446256 8.9348936 -1.1992232 0
3.9099147 8.937254 -1.1977737 0
3.9117289 9.0236721 -1.2075909 0
3.8601985 8.9872541 -1.2009785 0
3.812114 8.9580126 -1.1953562 0
3.7953682 9.0023136 -1.1995629 0
3.7737529 9.035553 -1.2022995 0
3.7503686 9.064909 -1.2045256 0
3.7007408 9.0305471 -1.1983042 0
3.6937425 9.1003084 -1.205911 0
3.655302 9.0929699 -1.2033077 0
3.6041975 9.0534363 -1.1964703 0
3.5832381 9.0893526 -1.1996224 0
3.5693619 9.1438894 -1.2052339 0
3.5135722 9.0908327 -1.1966811 0
3.5109458 9.1754045 -1.2062575 0
3.4752202 9.174077 -1.2045444 0
3.4214747 9.1244278 -1.1965127 0
3.400763 9.1625223 -1.2000061 0
3.3763175 9.1910057 -1.2022473 0
3.3412263 9.1905661 -1.2007176 0
3.3025382 9.179882 -1.1978683 0
3.2950163 9.2562876 -1.20639 0
3.2397592 9.1985607 -1.197444 0
3.2043209 9.1962309 -1.1957353 0
3.1740143 9.2085018 -1.1959405 0
3.1646388 9.2822027 -1.2041274 0
3.1025519 9.2009821 -1.1922351 0
3.0781784 9.2308044 -1.1947553 0
3.0676801 9.3031454 -1.2027805 0
3.0279205 9.2871523 -1.1993934 0
2.9968581 9.2975388 -1.1994305 0
2.9650195 9.3054981 -1.1991681 0
2.9327307 9.3119812 -1.1987296 0
2.9126604 9.3576412 -1.2033435 0
2.8664834 9.3192825 -1.1971681 0
2.85847 9.4053354 -1.2069846 0
2.8058691 9.344759 -1.197997 0
2.7614594 9.3100748 -1.1923567 0
2.7468891 9.3761482 -1.1996326 0
2.7044351 9.3472786 -1.194772 0
2.6822681 9.3884535 -1.1988788 0
2.6559863 9.4158669 -1.2012355 0
2.6070366 9.3623581 -1.1932873 0
2.5760813 9.3726816 -1.1934954 0
2.5625668 9.4473486 -1.2019026 0
2.5333352 9.4650717 -1.2030699 0
2.4859402 9.4142599 -1.1955453 0
2.4685481 9.4770041 -1.2024555 0
2.4361751 9.4829521 -1.202167 0
2.389941 9.4341211 -1.1949542 0
2.3740311 9.5050783 -1.2029269 0
2.3293836 9.4611359 -1.1963705 0
2.2959616 9.4619389 -1.1954919 0
2.2723253 9.5034618 -1.1997689 0
2.2416852 9.5162745 -1.2004309 0
2.2040529 9.4991131 -1.1973271 0
2.1793911 9.5379572 -1.2012955 0
2.1557212 9.5821981 -1.2059505 0
2.1075907 9.5171623 -1.1968694 0
2.0867033 9.5748024 -1.2032316 0
2.044713 9.5356874 -1.1974479 0
2.0243704 9.5976763 -1.2043731 0
1.985808 9.5736914 -1.200521 0
1.9623893 9.6229143 -1.2058617 0
1.9186784 9.5723848 -1.1987169 0
1.894783 9.6204472 -1.2039334 0
1.856535 9.5958281 -1.2000667 0
1.8299088 9.6312485 -1.2037224 0
1.7823497 9.5555334 -1.1935058 0
1.7680292 9.6582956 -1.2055938 0
1.7316858 9.642169 -1.2028494 0
1.6910554 9.6008425 -1.1969798 0
1.6585753 9.6048326 -1.1967772 0
1.6321485 9.6445274 -1.2010348 0
1.6009104 9.6566257 -1.201866 0
1.5665008 9.6494722 -1.2003154 0
1.5347097 9.6582603 -1.2007618 0
1.5034947 9.6709166 -1.2017018 0
1.4696728 9.666769 -1.2005674 0
1.4362541 9.664916 -1.1997323 0
1.4035138 9.6674204 -1.1994523 0
1.3741717 9.6937904 -1.2021457 0
1.3328059 9.6343222 -1.1942101 0
1.3070527 9.6873302 -1.2002307 0
1.2754314 9.6982412 -1.201046 0
1.2356771 9.646018 -1.1940588 0
1.2038727 9.6544676 -1.1945983 0
1.1740782 9.6797371 -1.1972312 0
1.1485256 9.7422171 -1.204476 0
1.1057737 9.657959 -1.1935937 0
1.0861584 9.776576 -1.2077962 0
1.0516756 9.7643995 -1.2058496 0
1.0185835 9.7645359 -1.2054379 0
0.98203129 9.7301674 -1.2007818 0
0.95112687 9.7510843 -1.202963 0
0.91608077 9.729291 -1.1998886 0
0.88286459 9.7258015 -1.1990864 0
0.85242051 9.7535324 -1.2021463 0
0.81387407 9.6868286 -1.1935818 0
0.78872508 9.7804432 -1.2047842 0
0.75131118 9.7232742 -1.1974249 0
0.72275019 9.7804575 -1.2041618 0
0.68714988 9.7430639 -1.1992676 0
0.65232152 9.7131824 -1.1953136 0
0.62059188 9.7284908 -1.1969347 0
0.589257 9.7518063 -1.1995534 0
0.5589323 9.7953415 -1.2046713 0
0.5232566 9.7444468 -1.1981895 0
0.48813698 9.6975641 -1.192217 0
0.45813066 9.7525902 -1.1987863 0
0.42566678 9.7595119 -1.1994549 0
0.3905409 9.7012253 -1.1921238 0
0.36078551 9.7776365 -1.201358 0
0.3266333 9.738018 -1.1963489 0
0.29598796 9.805521 -1.2045132 0
0.26253894 9.7851648 -1.2018977 0
0.23022807 9.8072224 -1.2045054 0
0.19562691 9.7225504 -1.194019 0
0.16346525 9.7492332 -1.1972218 0
0.13105534 9.7704782 -1.19977 0
0.098374955 9.7787075 -1.2007332 0
0.065405861 9.7517891 -1.1973943 0
0.03276233 9.7676802 -1.1993252 0
1.2976695e-05 9.7804823 -1.2008904 0
-0.032808024 9.7890482 -1.2019489 0
-0.065247484 9.7320261 -1.1949676 0
-0.098101608 9.7541084 -1.1977128 0
-0.13202381 9.8446283 -1.2088752 0
-0.16317406 9.733408 -1.1952783 0
-0.19594966 9.7398758 -1.1961465 0
-0.23007546 9.8018293 -1.2038431 0
-0.26271564 9.7927198 -1.2028257 0
-0.29726744 9.848774 -1.2098264 0
-0.32742676 9.7624464 -1.1993499 0
-0.35915974 9.7342777 -1.1960305 0
-0.39428508 9.7948799 -1.2036322 0
-0.42703667 9.7915173 -1.2033882 0
-0.45857707 9.7626467 -1.2000221 0
-0.49043792 9.7437916 -1.1978999 0
-0.52685648 9.8119726 -1.2064924 0
-0.55420154 9.7128878 -1.1945306 0
-0.58970523 9.759654 -1.2005185 0
-0.62175173 9.7470798 -1.1992215 0
-0.65606397 9.7692957 -1.2022187 0
-0.68631595 9.7316074 -1.1978573 0
-0.72254956 9.7780952 -1.2038708 0
-0.7541759 9.7606859 -1.2020319 0
-0.78518242 9.7368345 -1.1994121 0
-0.81311768 9.678133 -1.1925102 0
-0.84598666 9.680212 -1.193109 0
-0.88713944 9.7731819 -1.2049277 0
-0.91410923 9.7086277 -1.19734 0
-0.95339382 9.7745943 -1.205863 0
-0.98276424 9.7376881 -1.2017096 0
-1.0175143 9.7545366 -1.2042032 0
-1.0458357 9.7104225 -1.1991833 0
-1.0797201 9.7188606 -1.2006657 0
-1.1121026 9.7134657 -1.2004532 0
-1.1434349 9.6992569 -1.1991643 0
-1.1795883 9.7253809 -1.2028762 0
-1.2062979 9.6741257 -1.1970303 0
-1.2445062 9.7151451 -1.2026154 0
-1.2730969 9.6806898 -1.1988719 0
-1.31098 9.7166309 -1.2038605 0
-1.3366767 9.6624918 -1.1977013 0
-1.3650923 9.6299257 -1.1942253 0
-1.4066676 9.6893244 -1.2021695 0
-1.4315709 9.6335773 -1.1958417 0
-1.4711658 9.6767616 -1.2018079 0
-1.4988747 9.641367 -1.1980294 0
-1.5461936 9.7306986 -1.2097671 0
-1.5561001 9.5855656 -1.1923654 0
-1.5947514 9.6196318 -1.1972613 0
-1.6340638 9.6560011 -1.202463 0
-1.6643606 9.6384878 -1.2009702 0
-1.6931847 9.613081 -1.198505 0
-1.7234802 9.5966272 -1.1971674 0
-1.7603768 9.6166363 -1.2003931 0
-1.7880366 9.5861635 -1.1973308 0
-1.8135002 9.5450239 -1.1929452 0
-1.8557563 9.5919399 -1.1995797 0
-1.8753877 9.5221043 -1.1916257 0
-1.929378 9.6258984 -1.2054175 0
-1.9656539 9.6390533 -1.2078835 0
-1.9897183 9.5926714 -1.2029004 0
-2.0244641 9.5982475 -1.2044441 0
-2.0434027 9.5296993 -1.1966953 0
-2.079468 9.5417261 -1.1990743 0
-2.1150403 9.5509214 -1.2011143 0
-2.1539528 9.5744572 -1.2049755 0
-2.1714756 9.5034304 -1.1969461 0
-2.2011089 9.4865398 -1.1957415 0
-2.2426555 9.5205069 -1.2009641 0
-2.2718966 9.5017815 -1.199556 0
-2.3087981 9.5149488 -1.2021888 0
-2.3327036 9.4747286 -1.1980885 0
-2.3772788 9.5181894 -1.2045853 0
-2.3988431 9.469367 -1.1994177 0
-2.4332917 9.4718323 -1.2007567 0
-2.4729733 9.4940958 -1.2046233 0
-2.4977026 9.4589052 -1.2012141 0
-2.5103793 9.3794031 -1.19218 0
-2.5508788 9.4043579 -1.1964324 0
-2.5847983 9.4044952 -1.1975456 0
-2.6233995 9.421216 -1.2007881 0
-2.6612635 9.4346704 -1.2036335 0
-2.6942265 9.4304047 -1.2042348 0
-2.7060614 9.3529921 -1.1955014 0
-2.7487996 9.382761 -1.2004777 0
-2.7725189 9.3474512 -1.1971427 0
-2.7905228 9.2937393 -1.1914552 0
-2.8441031 9.3581524 -1.2009288 0
-2.8830924 9.3733683 -1.2041152 0
-2.8966601 9.3063231 -1.1967432 0
-2.9536319 9.3784332 -1.207283 0
-2.9781642 9.346838 -1.2044944 0
-2.9940927 9.2890444 -1.1983336 0
-3.0287912 9.2899055 -1.199748 0
-3.0565145 9.2693672 -1.1984123 0
-3.0982821 9.291173 -1.2025678 0
-3.11957 9.2515326 -1.1987841 0
-3.1562872 9.2577868 -1.2009591 0
-3.1730855 9.2058868 -1.1955997 0
-3.2136161 9.2229862 -1.199213 0
-3.252763 9.2355614 -1.2022594 0
-3.2726779 9.1936121 -1.1982204 0
-3.3152747 9.2153616 -1.202497 0
-3.3419831 9.1927233 -1.2009983 0
-3.3684227 9.16959 -1.1994447 0
-3.4087367 9.1840801 -1.2028283 0
-3.4430983 9.182169 -1.2040832 0
-3.4461122 9.0973091 -1.1944637 0
-3.483676 9.1042109 -1.1968967 0
-3.5273249 9.1264877 -1.2013735 0
-3.5492773 9.0925083 -1.1984603 0
-3.5809336 9.0835772 -1.198859 0
-3.6190133 9.0907221 -1.2013966 0
-3.6619506 9.1095791 -1.2055044 0
-3.674377 9.0526667 -1.1995965 0
-3.711936 9.0579338 -1.201937 0
-3.7406363 9.0414534 -1.2014076 0
-3.754997 8.9907131 -1.1963315 0
-3.7934639 8.9978638 -1.1989686 0
-3.8350317 9.0119324 -1.2025499 0
-3.8500304 8.9636459 -1.1978225 0
-3.8940825 8.9830303 -1.2021507 0
-3.9212756 8.9632874 -1.2012613 0
-3.9588051 8.9670763 -1.2035412 0
-3.9793746 8.9324884 -1.2006829 0
-4.0035868 8.9063835 -1.1989715 0
-4.0357556 8.8980465 -1.1996641 0
-4.055162 8.8617296 -1.196594 0
-4.0907369 8.8608332 -1.1983182 0
-4.1299024 8.8674221 -1.2010752 0
-4.1322198 8.7952271 -1.1931664 0
-4.1980228 8.8579969 -1.2035844 0
-4.2257261 8.8397455 -1.203023 0
-4.242578 8.7990589 -1.1994148 0
-4.2623501 8.7648268 -1.19669 0
-4.3139677 8.7958622 -1.2028954 0
-4.3389583 8.7722998 -1.2016557 0
-4.3745294 8.7700996 -1.2033567 0
-4.3954973 8.7386599 -1.2010583 0
-4.4332619 8.740612 -1.2033627 0
-4.4524479 8.7059612 -1.2006407 0
-4.4650116 8.6587906 -1.1961932 0
-4.5002546 8.6557674 -1.1978533 0
-4.5315094 8.6449404 -1.1984508 0
-4.5699091 8.647562 -1.2009317 0
-4.6141815 8.6609182 -1.2049282 0
-4.6252351 8.6119604 -1.2002677 0
-4.6443496 8.5784254 -1.1977575 0
-4.6739721 8.5644302 -1.1979847 0
-4.7344027 8.6064129 -1.2060709 0
-4.7501717 8.5669374 -1.202764 0
-4.7311492 8.4655781 -1.1907539 0
-4.7979255 8.5178738 -1.2003658 0
-4.8335962 8.5143147 -1.2021413 0
-4.854351 8.4844894 -1.2002214 0
-4.8943858 8.4883108 -1.2030766 0
-4.911799 8.4528894 -1.2003835 0
-4.9437609 8.4426041 -1.2012702 0
-4.9553261 8.3976574 -1.1972321 0
-4.9678025 8.3546743 -1.1934719 0
-5.0117378 8.3645945 -1.1972827 0
-5.0345941 8.3391962 -1.1960567 0
-5.0850344 8.359272 -1.2013747 0
-5.1137047 8.3432713 -1.2015325 0
-5.1465135 8.3339558 -1.2026691 0
-5.1606841 8.2945652 -1.199475 0
-5.2267604 8.3383093 -1.2083281 0
-5.2259855 8.2752886 -1.201728 0
-5.2214751 8.2070665 -1.1943566 0
-5.2761626 8.2319517 -1.2005457 0
-5.2785707 8.1752443 -1.19485 0
-5.3308434 8.1957712 -1.2004554 0
-5.3551712 8.1730881 -1.1997563 0
-5.3701239 8.1362696 -1.1969879 0
-5.412508 8.1409836 -1.2003444 0
-5.4392223 8.1219683 -1.2002228 0
-5.4700265 8.1090279 -1.201014 0
-5.4975247 8.0911446 -1.2010885 0
-5.5404782 8.0958357 -1.2045357 0
-5.5607038 8.0672226 -1.2030457 0
-5.5570745 8.0043917 -1.1964476 0
-5.6009631 8.0101452 -1.2001079 0
