# .PCD v0.7 - Point Cloud Data file format
VERSION 0.7
FIELDS x y z intensity
SIZE 4 4 4 4
TYPE F F F F
COUNT 1 1 1 1
WIDTH 1413
HEIGHT 1
VIEWPOINT 0 0 0 1 0 0 0
POINTS 1413
DATA ascii
-10.454394 -8.7889204 -1.1949136 0
-10.466361 -8.8590431 -1.1996696 0
-10.430351 -8.8887606 -1.1989515 0
-10.441966 -8.9592676 -1.2037326 0
-10.34968 -8.940506 -1.1965429 0
-10.358031 -9.0085411 -1.2009937 0
-10.327093 -9.0426264 -1.200915 0
-10.302632 -9.0824165 -1.201605 0
-10.261983 -9.1079082 -1.2004188 0
-10.210748 -9.1238194 -1.1979971 0
-10.184613 -9.1620636 -1.1985282 0
-10.191812 -9.2305517 -1.2030106 0
-10.150477 -9.2552538 -1.2017877 0
-10.096518 -9.2682381 -1.1990714 0
-10.055243 -9.2926636 -1.1978631 0
-9.9892664 -9.2939816 -1.193709 0
-10.011576 -9.3775578 -1.2001253 0
-10.021654 -9.4502773 -1.2051249 0
-9.9215803 -9.4189548 -1.1968817 0
-9.9125595 -9.4737816 -1.1996186 0
-9.8415985 -9.4693022 -1.1948664 0
-9.8756409 -9.5660276 -1.2028867 0
-9.8228254 -9.5789118 -1.2003587 0
-9.7445679 -9.5665483 -1.1947086 0
-9.7267399 -9.6133013 -1.1964678 0
-9.7195015 -9.6707811 -1.1995591 0
-9.688055 -9.7043486 -1.199687 0
-9.6438208 -9.7250357 -1.1982404 0
-9.6080494 -9.7541561 -1.1978525 0
-9.560853 -9.7715588 -1.1960462 0
-9.5584288 -9.8348293 -1.1998612 0
-9.5137234 -9.8547258 -1.1983902 0
-9.5454369 -9.9541512 -1.2065823 0
-9.4387112 -9.9091492 -1.1972847 0
-9.4110498 -9.9466743 -1.1979995 0
-9.3591747 -9.9585152 -1.1956395 0
-9.3676796 -10.034773 -1.2010174 0
-9.328145 -10.05983 -1.2002664 0
-9.2482014 -10.040929 -1.1943049 0
-9.2541647 -10.115252 -1.199448 0
-9.246666 -10.175349 -1.2028912 0
-9.1937485 -10.185523 -1.200443 0
-9.1553726 -10.211635 -1.199896 0
-9.1088629 -10.228551 -1.1982883 0
-9.1297359 -10.32146 -1.20558 0
-9.044589 -10.294545 -1.1988875 0
-9.0425797 -10.362121 -1.2032195 0
-8.9900875 -10.371961 -1.2008554 0
-8.9552813 -10.402067 -1.200858 0
-8.9175882 -10.428798 -1.2004856 0
-8.9016647 -10.481119 -1.2030659 0
-8.8413877 -10.481167 -1.1996621 0
-8.8151541 -10.521443 -1.2008823 0
-8.7762661 -10.546659 -1.2003952 0
-8.7391129 -10.573915 -1.2001557 0
-8.7503719 -10.660123 -1.2066036 0
-8.6752481 -10.641154 -1.2011576 0
-8.6094112 -10.632994 -1.1969714 0
-8.6006556 -10.695305 -1.2007329 0
-8.5618505 -10.720453 -1.2003268 0
-8.5377178 -10.764051 -1.2019963 0
-8.5064449 -10.798792 -1.2026842 0
-8.453968 -10.806514 -1.2003807 0
-8.4005327 -10.812716 -1.1979342 0
-8.3916159 -10.876312 -1.2018561 0
-8.3485985 -10.895898 -1.2009206 0
-8.2967997 -10.903826 -1.1987215 0
-8.2604275 -10.93189 -1.1987553 0
-8.2258959 -10.962413 -1.1990713 0
-8.1715717 -10.966414 -1.1965055 0
-8.1257439 -10.981569 -1.1951797 0
-8.1409121 -11.079567 -1.202868 0
-8.0738688 -11.065888 -1.1984372 0
-8.0583963 -11.122813 -1.2016693 0
-8.0024128 -11.123851 -1.198876 0
-7.9796166 -11.17098 -1.2010652 0
-7.9099541 -11.152325 -1.1962012 0
-7.9088111 -11.230318 -1.2017158 0
-7.8472815 -11.222689 -1.1980773 0
-7.8308005 -11.279459 -1.2013282 0
-7.7881603 -11.298718 -1.2005916 0
-7.7808332 -11.369479 -1.2053317 0
-7.7300467 -11.376925 -1.2033666 0
-7.6811495 -11.386903 -1.2016913 0
-7.6589351 -11.436494 -1.204208 0
-7.5850863 -11.408771 -1.1986043 0
-7.5591002 -11.452785 -1.2005591 0
-7.5329032 -11.496754 -1.2025138 0
-7.4763303 -11.494295 -1.1996281 0
-7.4098234 -11.476047 -1.1951238 0
-7.4491386 -11.622263 -1.2077432 0
-7.3554878 -11.561288 -1.1988374 0
-7.3278861 -11.603623 -1.2006729 0
-7.3015327 -11.648216 -1.2027472 0
-7.2206364 -11.605446 -1.1958245 0
-7.203021 -11.664141 -1.1993772 0
-7.1972833 -11.742737 -1.2049707 0
-7.1076117 -11.684179 -1.1965098 0
-7.0947671 -11.751623 -1.2009736 0
-7.0557857 -11.776112 -1.201052 0
-6.9958954 -11.765449 -1.1975653 0
-6.9541125 -11.784947 -1.1971701 0
-6.9434266 -11.857491 -1.2021679 0
-6.8724122 -11.826979 -1.1967314 0
-6.8366089 -11.856699 -1.1974126 0
-6.8039045 -11.891941 -1.1986612 0
-6.7552371 -11.89926 -1.1971091 0
-6.736618 -11.959682 -1.2009089 0
-6.6684766 -11.932092 -1.1958866 0
-6.6264343 -11.950779 -1.195526 0
-6.6189241 -12.032182 -1.2014426 0
-6.5827923 -12.062089 -1.2022183 0
-6.5348854 -12.070372 -1.2008533 0
-6.498682 -12.100226 -1.2016491 0
-6.463253 -12.131664 -1.2026123 0
-6.4049149 -12.119912 -1.1993117 0
-6.3520904 -12.118134 -1.1970216 0
-6.3359909 -12.186613 -1.2016808 0
-6.2898445 -12.197605 -1.2006783 0
-6.26191 -12.244039 -1.2031757 0
-6.2009592 -12.225801 -1.1993338 0
-6.1697922 -12.266124 -1.2012533 0
-6.1121578 -12.253715 -1.1980244 0
-6.1025271 -12.337799 -1.2042381 0
-6.0392146 -12.313514 -1.1998845 0
-6.0050287 -12.34836 -1.2013115 0
-5.9796696 -12.401767 -1.2045499 0
-5.9214644 -12.387039 -1.2011844 0
-5.8640409 -12.373361 -1.1979446 0
-5.8317409 -12.412574 -1.1998414 0
-5.806252 -12.466756 -1.2031902 0
-5.7621865 -12.481315 -1.202724 0
-5.6982532 -12.45237 -1.1980871 0
-5.6676464 -12.496046 -1.2004542 0
-5.6113973 -12.48312 -1.1973983 0
-5.5805192 -12.526572 -1.1997648 0
-5.5334239 -12.533739 -1.1986676 0
-5.4818044 -12.530357 -1.1965797 0
-5.4459763 -12.563004 -1.1979468 0
-5.4220061 -12.623523 -1.2019775 0
-5.3716207 -12.622759 -1.2001832 0
-5.330164 -12.642821 -1.2003847 0
-5.2859712 -12.656375 -1.199982 0
-5.2601185 -12.714178 -1.2037836 0
-5.1959615 -12.67928 -1.1988233 0
-5.1399236 -12.663375 -1.1956834 0
-5.1209388 -12.739001 -1.2011961 0
-5.0791922 -12.758595 -1.2014312 0
-5.0096788 -12.707806 -1.1950601 0
-4.9874358 -12.776772 -1.1999664 0
-4.9465914 -12.798652 -1.200457 0
-4.886447 -12.770201 -1.196245 0
-4.8470588 -12.795634 -1.1970984 0
-4.8024764 -12.807404 -1.1966864 0
-4.7581539 -12.819783 -1.1963457 0
-4.7361736 -12.89291 -1.2016813 0
-4.6845264 -12.885629 -1.199532 0
-4.6437626 -12.908117 -1.2001693 0
-4.5881739 -12.889106 -1.1969646 0
-4.5388355 -12.887102 -1.1953586 0
-4.5076752 -12.936898 -1.1985688 0
-4.4870715 -13.018077 -1.2046893 0
-4.4108949 -12.93771 -1.1958768 0
-4.3798666 -12.989123 -1.199265 0
-4.33851 -13.010387 -1.1998785 0
-4.3140035 -13.082902 -1.2052255 0
-4.2581139 -13.060483 -1.2018383 0
-4.2159276 -13.079734 -1.2023022 0
-4.1692395 -13.084975 -1.2014923 0
-4.116117 -13.069581 -1.1988047 0
-4.066123 -13.063546 -1.1969941 0
-4.0379863 -13.128102 -1.2016619 0
-4.0045395 -13.176418 -1.2048486 0
-3.9344058 -13.103402 -1.1969591 0
-3.8955657 -13.133765 -1.1985329 0
-3.8467457 -13.130494 -1.1970508 0
-3.8116198 -13.174148 -1.1998585 0
-3.778008 -13.223886 -1.2032281 0
-3.719739 -13.187162 -1.1987453 0
-3.6874905 -13.242606 -1.2026546 0
-3.6193485 -13.168589 -1.1948237 0
-3.5897467 -13.234365 -1.1996931 0
-3.5389287 -13.22232 -1.1975188 0
-3.5039363 -13.269556 -1.2007262 0
-3.4479444 -13.237148 -1.1967409 0
-3.4149399 -13.292996 -1.2007481 0
-3.3649001 -13.28285 -1.1988058 0
-3.3291762 -13.329412 -1.2019938 0
-3.2845457 -13.34082 -1.2020228 0
-3.2394304 -13.350244 -1.2018864 0
-3.1982362 -13.376022 -1.2032351 0
-3.153414 -13.386852 -1.2032515 0
-3.111558 -13.410475 -1.2044302 0
-3.0573401 -13.380404 -1.2008021 0
-3.006258 -13.363007 -1.1983296 0
-2.9620001 -13.375552 -1.1985573 0
-2.9194031 -13.395802 -1.199488 0
-2.8643839 -13.358463 -1.1952779 0
-2.8398604 -13.464147 -1.2038754 0
-2.7807446 -13.406303 -1.1978631 0
-2.7318101 -13.396084 -1.1961248 0
-2.6981223 -13.461255 -1.2011294 0
-2.6576774 -13.494106 -1.2032589 0
-2.5996468 -13.436924 -1.197376 0
-2.5728483 -13.541713 -1.2059383 0
-2.5150619 -13.483948 -1.2000365 0
-2.4710493 -13.498919 -1.2006248 0
-2.4328597 -13.54657 -1.2041308 0
-2.3845768 -13.538469 -1.2026932 0
-2.3319273 -13.504436 -1.1989686 0
-2.2881472 -13.521107 -1.1997608 0
-2.2423398 -13.525925 -1.1995144 0
-2.2039886 -13.576555 -1.2033424 0
-2.1505861 -13.534337 -1.1989546 0
-2.1056862 -13.544624 -1.1992338 0
-2.0610132 -13.55655 -1.1996711 0
-2.0149956 -13.55966 -1.1993417 0
-1.9758257 -13.609765 -1.2031808 0
-1.9241565 -13.573796 -1.1994239 0
-1.8820668 -13.604977 -1.2016147 0
-1.8315089 -13.574653 -1.1983873 0
-1.7814611 -13.546314 -1.1953516 0
-1.7409601 -13.590675 -1.1987442 0
-1.6940558 -13.58579 -1.1978056 0
-1.6519693 -13.620032 -1.2003295 0
-1.6140375 -13.691174 -1.2061155 0
-1.5608867 -13.633291 -1.2005486 0
-1.5100658 -13.592521 -1.1965058 0
-1.4699347 -13.648114 -1.200959 0
-1.4276234 -13.686102 -1.2038736 0
-1.3756806 -13.630886 -1.1986042 0
-1.3295262 -13.630861 -1.1982033 0
-1.2852926 -13.650915 -1.1995807 0
-1.2414443 -13.676386 -1.2014463 0
-1.1972328 -13.69935 -1.2031044 0
-1.1500536 -13.688514 -1.2018073 0
-1.1029356 -13.677206 -1.2004831 0
-1.057526 -13.6867 -1.2009984 0
-1.0075562 -13.635023 -1.1961607 0
-0.96258527 -13.648965 -1.1970938 0
-0.91797185 -13.669305 -1.1986011 0
-0.8742221 -13.705008 -1.201468 0
-0.82858384 -13.713108 -1.2019278 0
-0.77962965 -13.66372 -1.1973633 0
-0.73509622 -13.690148 -1.1994563 0
-0.6886549 -13.681873 -1.1985223 0
-0.6428721 -13.686103 -1.1986973 0
-0.59666485 -13.680919 -1.1980612 0
-0.55203217 -13.713653 -1.2007589 0
-0.50622857 -13.720272 -1.2011832 0
-0.46041307 -13.727522 -1.2016761 0
-0.41582322 -13.776649 -1.2058477 0
-0.36751279 -13.699032 -1.1989394 0
-0.32232001 -13.731694 -1.2016968 0
-0.27612576 -13.72511 -1.2010328 0
-0.23031756 -13.738547 -1.2021343 0
-0.18419704 -13.735031 -1.2017658 0
-0.13808054 -13.729158 -1.2012047 0
-0.092030078 -13.7268 -1.2009646 0
-0.046011813 -13.728709 -1.2011114 0
1.8187353e-05 -13.707735 -1.1992697 0
0.046184737 -13.769403 -1.2046716 0
0.091898359 -13.701731 -1.1987712 0
0.13831434 -13.748777 -1.2029213 0
0.18435389 -13.744007 -1.2025512 0
0.22938922 -13.681006 -1.1970994 0
0.27587992 -13.711082 -1.1998051 0
0.32268742 -13.745791 -1.2029305 0
0.36838639 -13.730236 -1.2016705 0
0.41350374 -13.698597 -1.199016 0
0.45891958 -13.68191 -1.1976833 0
0.50680006 -13.734772 -1.2024528 0
0.55185658 -13.708385 -1.2002978 0
0.59615666 -13.668434 -1.1969681 0
0.64375675 -13.704161 -1.200279 0
0.68679959 -13.644292 -1.1952305 0
0.73493564 -13.68648 -1.1991352 0
0.77911991 -13.65415 -1.1965247 0
0.83194947 -13.768203 -1.2067569 0
0.87147725 -13.661407 -1.1976459 0
0.91870594 -13.679693 -1.1995122 0
0.96548295 -13.689535 -1.2006524 0
1.010583 -13.675491 -1.1997111 0
1.0553252 -13.657743 -1.1984577 0
1.1004287 -13.645667 -1.197715 0
1.1497226 -13.684138 -1.2014234 0
1.1941624 -13.663797 -1.1999823 0
1.2388477 -13.647378 -1.1988983 0
1.2861212 -13.659328 -1.2003201 0
1.3324132 -13.660086 -1.2007726 0
1.3786283 -13.659731 -1.201141 0
1.4208591 -13.620905 -1.1981391 0
1.473731 -13.683022 -1.204031 0
1.5141836 -13.629256 -1.1997398 0
1.559288 -13.619008 -1.1992912 0
1.6066806 -13.628457 -1.200591 0
1.6558994 -13.652131 -1.2031589 0
1.6996256 -13.630163 -1.2017182 0
1.7357426 -13.54966 -1.1951269 0
1.7855618 -13.577218 -1.198079 0
1.839854 -13.63623 -1.2038239 0
1.8826563 -13.608973 -1.2019681 0
1.923987 -13.572342 -1.1992958 0
1.9672787 -13.55064 -1.1979543 0
2.0118234 -13.538067 -1.1974323 0
2.0597508 -13.548004 -1.1989154 0
2.1010666 -13.514672 -1.1965823 0
2.1504822 -13.533451 -1.1988766 0
2.195246 -13.522473 -1.1985494 0
2.2417874 -13.522369 -1.1991997 0
2.2944369 -13.558056 -1.2030399 0
2.333096 -13.510992 -1.1995512 0
2.3836224 -13.532842 -1.2021939 0
2.4294012 -13.527106 -1.2024012 0
2.4755909 -13.523526 -1.2028141 0
2.513762 -13.476781 -1.1993992 0
2.5616498 -13.482576 -1.2006726 0
2.6026187 -13.452094 -1.1987284 0
2.6395788 -13.402025 -1.1950487 0
2.6864181 -13.402678 -1.1959033 0
2.7439082 -13.455227 -1.2014064 0
2.7859864 -13.431396 -1.2001058 0
2.827759 -13.406596 -1.1987303 0
2.8779731 -13.421664 -1.2009337 0
2.9252379 -13.422405 -1.2018707 0
2.9559071 -13.34787 -1.1960773 0
3.0057893 -13.360758 -1.1981286 0
3.0516748 -13.355447 -1.1985631 0
3.1051965 -13.382897 -1.2019542 0
3.1508381 -13.375758 -1.2022551 0
3.1854055 -13.322204 -1.1983947 0
3.2376516 -13.342757 -1.2012134 0
3.2796388 -13.320737 -1.200214 0
3.3217564 -13.299554 -1.1993022 0
3.3699434 -13.30261 -1.20059 0
3.4229207 -13.323915 -1.2035418 0
3.4573016 -13.272927 -1.1999764 0
3.5103686 -13.293772 -1.2029182 0
3.5471716 -13.252976 -1.2002962 0
3.5905824 -13.237308 -1.1999606 0
3.6258669 -13.192167 -1.1969639 0
3.678077 -13.208665 -1.199573 0
3.7205729 -13.189985 -1.1990027 0
3.7503762 -13.127036 -1.1944169 0
3.8083324 -13.162654 -1.1988127 0
3.8588932 -13.171829 -1.20082 0
3.8812232 -13.085283 -1.1941096 0
3.9405539 -13.123752 -1.198819 0
3.9759498 -13.082223 -1.1962365 0
4.0200648 -13.069715 -1.1963185 0
4.0643158 -13.057618 -1.1964518 0
4.1284208 -13.108526 -1.202378 0
4.1690698 -13.084323 -1.2014334 0
4.2136321 -13.072495 -1.2016377 0
4.2668624 -13.0872 -1.2042978 0
4.3030596 -13.049597 -1.2021583 0
4.3494425 -13.043056 -1.2028924 0
4.3804388 -12.990706 -1.1994122 0
4.4380932 -13.017372 -1.2032413 0
4.4731836 -12.977674 -1.2009515 0
4.4993839 -12.912992 -1.1963551 0
4.5543427 -12.931023 -1.1994336 0
4.6070662 -12.942068 -1.2018842 0
4.639905 -12.897287 -1.1991634 0
4.6866689 -12.891416 -1.2000718 0
4.7052646 -12.808662 -1.1938301 0
4.7711377 -12.854661 -1.1996017 0
4.8119378 -12.832531 -1.1990354 0
4.8505883 -12.80485 -1.1979618 0
4.9074798 -12.825066 -1.2013856 0
4.9369841 -12.773693 -1.1981171 0
5.0164547 -12.85101 -1.2069401 0
5.0410986 -12.787407 -1.2025472 0
5.087646 -12.779733 -1.2034229 0
5.1151199 -12.724429 -1.1998234 0
5.1628094 -12.719664 -1.2009994 0
5.2076659 -12.707746 -1.201516 0
5.2553964 -12.702668 -1.2026951 0
5.2797408 -12.641362 -1.19856 0
5.3378863 -12.661044 -1.2021163 0
5.3626018 -12.601473 -1.1981605 0
5.4055772 -12.58518 -1.1983279 0
5.4665041 -12.610266 -1.2024549 0
5.5116911 -12.598582 -1.2030962 0
5.5436115 -12.556726 -1.2008673 0
5.5732498 -12.510164 -1.1981947 0
5.6214895 -12.505483 -1.1995448 0
5.6787605 -12.520461 -1.2028012 0
5.7170286 -12.493312 -1.2020277 0
5.7434359 -12.440612 -1.1988033 0
5.8144517 -12.484276 -1.2048825 0
5.842073 -12.434479 -1.2019602 0
5.8577685 -12.360042 -1.1966566 0
5.9174943 -12.378651 -1.2003725 0
5.9505224 -12.341232 -1.1986719 0
5.9774132 -12.291491 -1.1957804 0
6.0387306 -12.312445 -1.1997819 0
6.0884323 -12.309221 -1.2014502 0
6.116076 -12.261488 -1.1987859 0
6.1391926 -12.205209 -1.1952894 0
6.2108378 -12.245198 -1.2012383 0
6.2668962 -12.253708 -1.2041276 0
6.2710462 -12.161071 -1.1970838 0
6.3318729 -12.178615 -1.2008938 0
6.357862 -12.129067 -1.1981033 0
6.3983002 -12.107317 -1.1980672 0
6.4367776 -12.081893 -1.1976801 0
6.485333 -12.075294 -1.1991748 0
6.5215473 -12.045659 -1.1983964 0
6.5629878 -12.025724 -1.1985956 0
6.5831823 -11.967134 -1.1949493 0
6.6734953 -12.035577 -1.2040108 0
6.6719804 -11.938287 -1.1965094 0
6.7422152 -11.969545 -1.201901 0
6.768559 -11.922652 -1.1994643 0
6.8024554 -11.889335 -1.1984003 0
6.8602042 -11.897547 -1.2015398 0
6.8760648 -11.833192 -1.1973619 0
6.9411187 -11.853478 -1.2017628 0
6.9669256 -11.806589 -1.1993705 0
7.0011144 -11.774155 -1.1984534 0
7.0248027 -11.72433 -1.1957726 0
7.0920372 -11.747031 -1.2005063 0
7.1278939 -11.717451 -1.199919 0
7.173399 -11.703698 -1.2009668 0
7.1872005 -11.638453 -1.1967378 0
7.2411199 -11.6383 -1.1992117 0
7.2859421 -11.623276 -1.200174 0
7.3036122 -11.565118 -1.1966906 0
7.3574538 -11.56431 -1.1991528 0
7.4001942 -11.545832 -1.1998028 0
7.4799724 -11.584622 -1.2064332 0
7.4609723 -11.470617 -1.1971589 0
7.5237832 -11.482767 -1.201053 0
7.5469036 -11.43424 -1.1986172 0
7.5750041 -11.39354 -1.1970063 0
7.6337686 -11.398849 -1.2002463 0
7.6713653 -11.372333 -1.2001557 0
7.7169709 -11.357615 -1.2013264 0
7.764266 -11.345206 -1.2027606 0
7.7890368 -11.299926 -1.2007221 0
7.8070374 -11.245167 -1.1976781 0
7.8737812 -11.260523 -1.2021185 0
7.9290643 -11.259013 -1.2047887 0
7.9518976 -11.211398 -1.2025398 0
7.9539585 -11.134998 -1.1971987 0
7.9999933 -11.120425 -1.1985091 0
8.0343246 -11.089526 -1.1980754 0
8.0916805 -11.090239 -1.2010766 0
8.0866957 -11.005719 -1.1948529 0
8.1406021 -11.001588 -1.1973609 0
8.1995373 -11.003884 -1.2005961 0
8.253726 -10.99944 -1.2031237 0
8.278492 -10.955736 -1.2013726 0
8.2754993 -10.875772 -1.19564 0
8.3785496 -10.934928 -1.2052248 0
8.3572378 -10.831696 -1.1969284 0
8.4385509 -10.861591 -1.2033516 0
8.432971 -10.779614 -1.1973952 0
8.4945211 -10.783595 -1.2009943 0
8.5169001 -10.737746 -1.1990615 0
8.5359097 -10.687914 -1.196686 0
8.5982189 -10.692217 -1.2003888 0
8.6220827 -10.648585 -1.1987292 0
8.6830511 -10.650667 -1.202234 0
8.7363071 -10.642931 -1.2046604 0
8.7545071 -10.592485 -1.2022661 0
8.7766848 -10.547105 -1.2004486 0
8.8387785 -10.549582 -1.2040968 0
8.8770514 -10.523388 -1.2044973 0
8.8906412 -10.468083 -1.2015723 0
8.8794966 -10.384195 -1.1953539 0
8.9381495 -10.382112 -1.198557 0
8.973978 -10.353318 -1.1986998 0
8.9825144 -10.293235 -1.1952235 0
9.0680943 -10.321243 -1.2019994 0
9.093132 -10.280023 -1.2007428 0
9.0922976 -10.209895 -1.1961056 0
9.169445 -10.227277 -1.2017368 0
9.1845827 -10.175314 -1.1992428 0
9.2243938 -10.150786 -1.1999903 0
9.2472734 -10.107667 -1.1985514 0
9.3065166 -10.104189 -1.2018323 0
9.3167324 -10.047468 -1.1987945 0
9.3836279 -10.051804 -1.2030587 0
9.394392 -9.9959345 -1.2001351 0
9.3798914 -9.9136896 -1.1940297 0
9.4648495 -9.9365377 -1.2005969 0
9.4724598 -9.8779964 -1.1973543 0
9.4941273 -9.8343754 -1.1959186 0
9.5462599 -9.822257 -1.1983304 0
9.5633564 -9.774065 -1.1963562 0
9.5955544 -9.7414198 -1.1962914 0
9.6956949 -9.7772942 -1.2046825 0
9.6898909 -9.7061357 -1.1999111 0
9.7317619 -9.6829281 -1.201069 0
9.7376165 -9.6239996 -1.1978025 0
9.8014526 -9.6223421 -1.2016796 0
9.8245497 -9.5805416 -1.2005663 0
9.8157797 -9.5079927 -1.1955923 0
9.8501396 -9.4774694 -1.1959003 0
9.929451 -9.4898739 -1.2016597 0
9.9202747 -9.4176655 -1.1967212 0
9.9666262 -9.3983374 -1.1985047 0
10.016892 -9.3824883 -1.2007596 0
10.043605 -9.3444881 -1.2001994 0
10.094161 -9.3285809 -1.2024964 0
10.114544 -9.2847366 -1.2012094 0
10.115292 -9.2231216 -1.197619 0
10.155679 -9.1977777 -1.1987427 0
10.211584 -9.1862774 -1.2016994 0
10.22647 -9.1378202 -1.199839 0
10.233542 -9.0826178 -1.1970892 0
10.315106 -9.0933638 -1.2030571 0
10.316477 -9.0332823 -1.1996777 0
10.371141 -9.0198956 -1.202511 0
10.381763 -8.968173 -1.2002494 0
10.412661 -8.9340763 -1.2003517 0
10.440815 -8.8976297 -1.2001514 0
10.472672 -8.864337 -1.2003902 0
10.482179 -8.8122301 -1.1980866 0
10.532413 -8.7943602 -1.2004514 0
10.576487 -8.7711439 -1.2021161 0
10.562234 -8.6997223 -1.1971742 0
10.616249 -8.6846342 -1.1999894 0
10.656322 -8.6579399 -1.201231 0
10.681517 -8.6191168 -1.2008067 0
10.73267 -8.6011391 -1.2033087 0
10.701561 -8.5174417 -1.1966124 0
10.758151 -8.5037193 -1.1997452 0
10.794091 -8.4734812 -1.2005782 0
10.810639 -8.4280424 -1.1992691 0
10.874432 -8.4193077 -1.2032076 0
10.87497 -8.361558 -1.2001585 0
10.890018 -8.3151789 -1.1987356 0
10.855981 -8.2317181 -1.1919441 0
10.913533 -8.2178736 -1.1952312 0
10.990733 -8.2184067 -1.2006615 0
11.025667 -8.1870356 -1.2014724 0
11.076891 -8.1675978 -1.2040633 0
11.07387 -8.1081963 -1.2007731 0
11.098229 -8.0690126 -1.2004743 0
11.096841 -8.0112686 -1.1974119 0
11.19105 -8.0223417 -1.2046684 0
11.179236 -7.9572668 -1.2005181 0
11.207212 -7.9207006 -1.2006637 0
11.184327 -7.8484292 -1.1953861 0
11.229419 -7.8240137 -1.1973951 0
11.254756 -7.7857437 -1.1973065 0
11.296868 -7.7590032 -1.1990123 0
11.358434 -7.745369 -1.2027836 0
11.361798 -7.6919827 -1.2004021 0
11.377574 -7.6471581 -1.1993533 0
11.410074 -7.6135888 -1.2000816 0
11.453929 -7.5874739 -1.2020117 0
11.47407 -7.5455856 -1.2014636 0
11.487473 -7.4993496 -1.2002276 0
11.474979 -7.4364424 -1.1963104 0
11.495979 -7.3954382 -1.195908 0
11.563011 -7.3838654 -1.200299 0
11.602179 -7.3542309 -1.2017984 0
11.595161 -7.2954016 -1.1985312 0
11.595055 -7.2411828 -1.1960038 0
11.676339 -7.2376428 -1.2018784 0
11.688633 -7.1911273 -1.2006552 0
11.753001 -7.1765189 -1.2047888 0
11.737482 -7.1131268 -1.2007464 0
11.736346 -7.0587459 -1.1982024 0
11.786325 -7.0351009 -1.2008899 0
11.766608 -6.9699326 -1.1964933 0
11.855344 -6.9689054 -1.2031338 0
11.856074 -6.9159527 -1.2008479 0
11.885326 -6.8797116 -1.2014678 0
11.912103 -6.8419929 -1.2018487 0
11.909977 -6.7877684 -1.1993314 0
11.98696 -6.7784996 -1.2047882 0
11.987913 -6.7260923 -1.2026106 0
11.962351 -6.6591153 -1.1977997 0
12.029435 -6.6437268 -1.2022797 0
11.998086 -6.5740123 -1.1969368 0
11.997383 -6.5214214 -1.1946787 0
12.098718 -6.5240488 -1.2025845 0
12.094979 -6.4697833 -1.20005 0
12.088937 -6.4145145 -1.1973099 0
12.12616 -6.3822546 -1.1988704 0
12.165769 -6.3511038 -1.2006743 0
12.181759 -6.3075676 -1.2001585 0
12.23468 -6.2830415 -1.2032902 0
12.261435 -6.2449179 -1.2038555 0
12.238088 -6.1814389 -1.1995217 0
12.286328 -6.1541891 -1.2022208 0
12.252366 -6.0858765 -1.1968942 0
12.331996 -6.073967 -1.2026769 0
12.328176 -6.0208082 -1.2003288 0
12.33959 -5.9752264 -1.1994828 0
12.370659 -5.9391518 -1.2005606 0
12.391542 -5.8981366 -1.2006613 0
12.399363 -5.8509488 -1.1995115 0
12.41734 -5.808609 -1.1993599 0
12.460052 -5.77775 -1.2016073 0
12.418358 -5.7079062 -1.1957344 0
12.417061 -5.65696 -1.1937765 0
12.4756 -5.6331959 -1.1975819 0
5.1344228 -2.2976887 -0.49213111 0
5.1099553 -2.2662065 -0.48905492 0
5.1828842 -2.2777853 -0.49530095 0
5.1312752 -2.234607 -0.48965025 0
5.1672277 -2.2296834 -0.49236485 0
5.1215615 -2.1896386 -0.48731121 0
5.1432519 -2.1785445 -0.48867726 0
5.1210036 -2.1488993 -0.48587611 0
5.0857253 -2.1140697 -0.48185372 0
5.1193099 -2.1079283 -0.48436338 0
5.1348505 -2.0942199 -0.48516667 0
5.089716 -2.0559356 -0.48024815 0
5.2216406 -2.0888889 -0.49203247 0
5.2453094 -2.0779836 -0.4936035 0
5.2816563 -2.0719223 -0.49636734 0
5.3781295 -2.0889881 -0.50477284 0
5.3983331 -2.0760322 -0.50601286 0
5.4472237 -2.0738962 -0.50994098 0
12.814376 -4.8296285 -1.1980932 0
12.851676 -4.7945385 -1.2000709 0
12.904623 -4.7650638 -1.2035164 0
12.868782 -4.7028604 -1.1986965 0
12.890897 -4.6620088 -1.1992937 0
12.919945 -4.6235895 -1.2005472 0
12.924654 -4.5764494 -1.1995522 0
12.968638 -4.5431485 -1.202214 0
12.930787 -4.4812703 -1.1973056 0
13.013783 -4.461216 -1.2035986 0
13.003455 -4.4090099 -1.2012695 0
12.987945 -4.3552532 -1.198481 0
13.03376 -4.3220572 -1.2013646 0
13.040308 -4.275753 -1.2006401 0
13.035529 -4.2258344 -1.1988889 0
13.064106 -4.1867461 -1.2002193 0
13.059964 -4.1371856 -1.1985577 0
13.112223 -4.1054168 -1.2020837 0
13.096755 -4.0524082 -1.1994132 0
13.103361 -4.0063629 -1.1987814 0
13.114833 -3.9618371 -1.1986089 0
13.179245 -3.9331238 -1.2032838 0
13.207357 -3.8933358 -1.2046518 0
13.162181 -3.8321002 -1.1993525 0
13.193938 -3.7934065 -1.2010807 0
13.18469 -3.7429335 -1.1990896 0
13.165405 -3.6898053 -1.1962039 0
13.241173 -3.6632025 -1.2019655 0
13.224117 -3.6107967 -1.1993115 0
13.256226 -3.5718479 -1.2011306 0
13.283076 -3.5313566 -1.202484 0
13.240005 -3.4724193 -1.1975242 0
13.238955 -3.4247441 -1.1963838 0
13.273826 -3.386323 -1.1985023 0
13.318055 -3.3500879 -1.2014749 0
13.311831 -3.3011057 -1.1999081 0
13.289668 -3.2483511 -1.1969221 0
13.318027 -3.2080007 -1.1985006 0
13.308642 -3.1585674 -1.1966964 0
13.400105 -3.1328533 -1.2039694 0
13.388427 -3.0828173 -1.2019846 0
13.417154 -3.042098 -1.2036413 0
13.419075 -2.9952648 -1.2029059 0
13.399049 -2.9436672 -1.2002193 0
13.390283 -2.8947136 -1.198558 0
13.438704 -2.8580523 -1.2020277 0
13.422462 -2.8075926 -1.1997261 0
13.481465 -2.7727888 -1.2041621 0
13.424968 -2.7142851 -1.1982962 0
13.470304 -2.6764736 -1.2015352 0
13.440109 -2.6236637 -1.1980505 0
13.485127 -2.585546 -1.2012838 0
13.405127 -2.5236399 -1.1933968 0
13.464274 -2.4880612 -1.1979131 0
13.562039 -2.4591324 -1.2058709 0
13.514897 -2.4038095 -1.2009557 0
13.539626 -2.3614037 -1.2024429 0
13.506112 -2.3089249 -1.1987723 0
13.535204 -2.2672174 -1.200673 0
13.552182 -2.2233746 -1.201511 0
13.573794 -2.1802104 -1.2027723 0
13.589243 -2.1359792 -1.2034999 0
13.548857 -2.0831063 -1.1992979 0
13.617336 -2.0469232 -1.2047452 0
13.569553 -1.9932395 -1.1999198 0
13.545581 -1.943345 -1.1972171 0
13.619853 -1.907418 -1.2032095 0
13.577408 -1.8550799 -1.1989037 0
13.570562 -1.8078166 -1.1977571 0
13.597607 -1.7650405 -1.1996151 0
13.601564 -1.7192023 -1.1994489 0
13.580205 -1.6702627 -1.1970649 0
13.576883 -1.6236635 -1.1962855 0
13.681659 -1.5896839 -1.2050411 0
13.577631 -1.5314769 -1.1954197 0
13.619731 -1.4899974 -1.1986797 0
13.645035 -1.4464855 -1.2004731 0
13.630991 -1.3987972 -1.1988181 0
13.679959 -1.3574886 -1.2027178 0
13.619084 -1.305351 -1.1969742 0
13.656974 -1.2627873 -1.1999254 0
13.713761 -1.2216796 -1.2045482 0
13.678988 -1.1723683 -1.201142 0
13.622047 -1.1214935 -1.1958052 0
13.71384 -1.0827717 -1.2035377 0
13.686184 -1.0344267 -1.2007993 0
13.671794 -0.98724979 -1.1992397 0
13.641027 -0.93906474 -1.1962581 0
13.623468 -0.89197284 -1.1944492 0
13.683947 -0.84986603 -1.1994951 0
13.688743 -0.80410045 -1.1996725 0
13.690479 -0.75815129 -1.1995951 0
13.709321 -0.71309727 -1.2010299 0
13.699347 -0.66653061 -1.1999536 0
13.680917 -0.61966306 -1.1981505 0
13.687919 -0.57399976 -1.1985884 0
13.756228 -0.53066742 -1.2044075 0
13.743752 -0.48404309 -1.2031662 0
13.698912 -0.43648216 -1.1991059 0
13.719544 -0.39109847 -1.2007904 0
13.717206 -0.34500739 -1.2004778 0
13.718411 -0.29901698 -1.2004887 0
13.703826 -0.25273401 -1.1991315 0
13.684077 -0.20647663 -1.1973361 0
13.733619 -0.1611695 -1.2016169 0
13.714143 -0.11495524 -1.1998724 0
13.736484 -0.069084466 -1.2018 0
13.732698 -0.023021638 -1.2014554 0
13.703225 0.022972228 -1.1988767 0
13.681086 0.068805851 -1.1969532 0
13.709558 0.11491682 -1.1994714 0
13.729355 0.16111948 -1.2012439 0
13.721148 0.20703599 -1.2005798 0
13.737758 0.25335979 -1.2021006 0
13.71172 0.29887113 -1.1999032 0
13.673291 0.34390289 -1.1966345 0
13.688056 0.39020085 -1.1980344 0
13.738279 0.43773651 -1.2025518 0
13.728456 0.48350435 -1.2018272 0
13.681389 0.52778035 -1.197855 0
13.614697 0.57092923 -1.1921767 0
13.646725 0.61811435 -1.195156 0
13.654643 0.66435564 -1.1960378 0
13.726061 0.71396798 -1.2024964 0
13.710108 0.75923824 -1.201315 0
13.666706 0.80280596 -1.1977412 0
13.674345 0.84926969 -1.1986535 0
13.680922 0.89573449 -1.1994865 0
2.194211 0.15105212 -0.19242264 0
2.1589773 0.15590125 -0.18937759 0
2.1618998 0.16340034 -0.18968093 0
2.1705475 0.17137484 -0.19048899 0
2.1358392 0.17584214 -0.18749367 0
2.138839 0.18331087 -0.1878099 0
2.1569695 0.19215192 -0.18945742 0
2.143039 0.19815536 -0.18829113 0
2.1791742 0.20886774 -0.19152649 0
2.0879817 0.20719442 -0.18357165 0
2.1470652 0.22032945 -0.18883005 0
2.1635232 0.22935119 -0.19034407 0
2.1521714 0.23544736 -0.18941374 0
2.1288028 0.2401164 -0.18742685 0
2.0851321 0.24227333 -0.18365242 0
2.1700726 0.25951964 -0.1912093 0
2.1610851 0.26579714 -0.19049485 0
2.1678257 0.27400753 -0.19116892 0
2.1456141 0.27851194 -0.18929148 0
2.1477373 0.28611308 -0.18956237 0
2.1219797 0.28992587 -0.1873737 0
2.0573027 0.28811884 -0.18174691 0
2.1123748 0.30305627 -0.18670084 0
2.1308801 0.31300619 -0.1884281 0
2.1030409 0.31612372 -0.18605903 0
2.1231198 0.3264249 -0.18793122 0
2.1018901 0.33037847 -0.18614905 0
2.1370664 0.34325364 -0.18936521 0
2.1322441 0.34981653 -0.18904077 0
2.0327415 0.34049484 -0.18031925 0
2.1035903 0.35961729 -0.18670996 0
2.0616989 0.35957444 -0.18309776 0
2.0117052 0.35780933 -0.17876339 0
2.0764415 0.37651008 -0.18462712 0
2.0565553 0.38003051 -0.18297119 0
2.0091448 0.3782402 -0.17886491 0
2.0742047 0.39769381 -0.18477456 0
2.067796 0.40365753 -0.18432319 0
2.1410086 0.42540631 -0.19097543 0
2.0563927 0.41576532 -0.1835511 0
2.0337152 0.41828263 -0.1816511 0
2.0593147 0.43074936 -0.18406561 0
2.0568256 0.43743163 -0.18397318 0
2.0929899 0.45246288 -0.18734254 0
2.0424757 0.44871607 -0.18295468 0
2.0660245 0.46115625 -0.18520151 0
2.0693321 0.4691838 -0.185638 0
2.015394 0.46406433 -0.1809378 0
2.0068939 0.46919814 -0.18031491 0
2.0480905 0.48607749 -0.18416171 0
2.0701549 0.49865177 -0.186295 0
2.0420375 0.49912867 -0.18391427 0
1.9648442 0.48724768 -0.17710806 0
2.0470619 0.51492786 -0.18467364 0
1.9785641 0.50475705 -0.17864583 0
1.9915417 0.51518577 -0.17997254 0
1.9663339 0.51570493 -0.1778498 0
2.0177402 0.53642398 -0.18266103 0
2.0280304 0.54644638 -0.18375739 0
2.0466163 0.55882108 -0.18561016 0
2.0514231 0.56753117 -0.18621761 0
1.9393728 0.54353875 -0.17621072 0
2.0088196 0.57027334 -0.1826933 0
2.0038934 0.57614201 -0.18241996 0
2.0072601 0.58440328 -0.18290377 0
1.9803687 0.58378375 -0.18063074 0
1.9978178 0.59621507 -0.18240359 0
1.9474611 0.58830518 -0.17798504 0
1.9693519 0.60213083 -0.18016921 0
1.9512044 0.60374326 -0.17869316 0
1.9318917 0.60487229 -0.17710921 0
1.9089384 0.60472083 -0.17518982 0
1.9721189 0.6320188 -0.18118155 0
1.975315 0.64035404 -0.18167143 0
1.9864069 0.65131783 -0.18289137 0
1.9562553 0.64870363 -0.18031451 0
1.9524298 0.65470916 -0.18016322 0
1.9551119 0.66290903 -0.1806148 0
1.9232982 0.65932018 -0.17787904 0
1.9416294 0.67288762 -0.17978208 0
1.9277266 0.67531747 -0.17870341 0
1.947805 0.68969208 -0.18077806 0
1.9670452 0.70393562 -0.18278179 0
1.914531 0.69239253 -0.17811677 0
1.9513991 0.71313334 -0.18176819 0
1.9390501 0.71599907 -0.18084051 0
1.9564853 0.72990042 -0.18269376 0
1.8898525 0.71226925 -0.17669369 0
1.9321594 0.73562211 -0.1808788 0
1.8948348 0.72869492 -0.17761239 0
1.9323035 0.75055069 -0.1813594 0
1.9415246 0.76163381 -0.1824635 0
1.8544074 0.73464274 -0.17450677 0
1.9050703 0.76211298 -0.17951378 0
1.9210812 0.77599996 -0.18126664 0
1.9224716 0.78406924 -0.18164486 0
1.8508935 0.76212436 -0.17512225 0
1.885956 0.78396732 -0.17868738 0
1.9091924 0.80114418 -0.18114242 0
1.9090135 0.8086074 -0.18138166 0
1.855499 0.79328787 -0.17654879 0
1.9052873 0.82214051 -0.18154734 0
1.8988008 0.82690436 -0.18119244 0
1.8599631 0.8174206 -0.17774688 0
1.9188824 0.85100228 -0.18364914 0
1.8565437 0.83081579 -0.17794852 0
1.8901061 0.85345298 -0.18143871 0
1.8884346 0.86033231 -0.18155414 0
1.8410667 0.84621781 -0.17727196 0
1.8811512 0.87229347 -0.18141219 0
1.8913867 0.88475674 -0.18268432 0
1.8501953 0.87306082 -0.17898747 0
1.8814116 0.89551592 -0.18229677 0
1.8582631 0.89215189 -0.18034264 0
1.8546139 0.89806372 -0.18027969 0
1.8260678 0.89181113 -0.1777945 0
1.816679 0.89478207 -0.17717147 0
12.317739 6.1183486 -1.2032803 0
12.257257 6.1396279 -1.1993762 0
12.274603 6.199883 -1.2031007 0
12.24393 6.2360024 -1.2021369 0
12.166162 6.2478547 -1.1965514 0
12.184774 6.3091297 -1.2004557 0
12.134153 6.3345995 -1.1975542 0
12.121397 6.3797479 -1.1983995 0
12.112662 6.427104 -1.1996597 0
12.086847 6.4654336 -1.1992432 0
12.07578 6.5116796 -1.2003045 0
12.076141 6.5642319 -1.2025213 0
12.018588 6.5852456 -1.1989821 0
11.992945 6.6235738 -1.1986327 0
12.012883 6.6872454 -1.2028595 0
11.946335 6.702764 -1.1984396 0
11.910492 6.7352581 -1.1971025 0
11.889323 6.7759972 -1.1972516 0
11.918124 6.8454514 -1.2024562 0
11.845399 6.8565998 -1.1974314 0
11.828478 6.8998551 -1.1980529 0
11.824123 6.9505534 -1.1999654 0
11.779699 6.9776874 -1.1978246 0
11.772018 7.0265622 -1.1994324 0
11.769743 7.0788321 -1.201612 0
11.730456 7.1088691 -1.2000277 0
11.696262 7.1418738 -1.1989726 0
11.674882 7.1826677 -1.1992428 0
11.629183 7.2084122 -1.1970243 0
11.61421 7.2531457 -1.1979797 0
11.620438 7.311305 -1.2011439 0
11.600268 7.3530202 -1.2016006 0
11.586904 7.3991222 -1.2027791 0
11.498916 7.3973269 -1.1962134 0
11.491933 7.4474292 -1.1980778 0
11.548321 7.5390725 -1.206585 0
11.462391 7.5379057 -1.2002407 0
11.42273 7.5668068 -1.1987376 0
11.436254 7.6310573 -1.2028351 0
11.394371 7.6584473 -1.201124 0
11.4049 7.7211623 -1.2049559 0
11.34759 7.7379746 -1.2016354 0
11.283947 7.7501287 -1.1976409 0
11.270054 7.7963262 -1.198934 0
11.242699 7.8332658 -1.1988111 0
11.231218 7.8813348 -1.2003978 0
11.194136 7.911459 -1.1992629 0
11.175343 7.954495 -1.2000999 0
11.160003 8.0000858 -1.2013264 0
11.121571 8.0291224 -1.2000803 0
11.097985 8.0688353 -1.2004478 0
11.050841 8.0913353 -1.198276 0
11.040044 8.1404285 -1.2000581 0
11.004767 8.1715164 -1.1991949 0
10.99402 8.2208633 -1.2010205 0
10.961137 8.2537193 -1.2004447 0
10.962756 8.3126812 -1.2036676 0
10.860039 8.2922888 -1.1954356 0
10.879912 8.3653574 -1.2007039 0
10.885555 8.4279203 -1.2044383 0
10.822445 8.4372463 -1.2005787 0
10.834332 8.5050707 -1.205054 0
10.769463 8.51266 -1.2010067 0
10.7188 8.5311623 -1.19854 0
10.744184 8.6103668 -1.2045996 0
10.692165 8.6277094 -1.2020038 0
10.684266 8.680644 -1.204381 0
10.617242 8.6854458 -1.2001016 0
10.637757 8.7619276 -1.2057344 0
10.555449 8.7536974 -1.199725 0
10.55514 8.8133373 -1.2030418 0
10.495584 8.8235016 -1.1996189 0
10.468079 8.8604498 -1.1998638 0
10.4397 8.8966799 -1.2000233 0
10.435188 8.9534044 -1.2029486 0
10.395969 8.9804449 -1.2018918 0
10.370684 9.0194969 -1.2024579 0
10.334576 9.0491304 -1.2017823 0
10.299631 9.0797215 -1.2012521 0
10.275618 9.1199598 -1.2020109 0
10.223428 9.1351013 -1.199482 0
10.208616 9.1836081 -1.2013501 0
10.154118 9.1963644 -1.1985584 0
10.107921 9.2164011 -1.1967463 0
10.12528 9.2945919 -1.2024844 0
10.078597 9.3141975 -1.2006423 0
10.040998 9.342062 -1.1998878 0
10.035987 9.4003735 -1.2030486 0
9.9850588 9.415719 -1.2007213 0
9.9272318 9.4242697 -1.1975604 0
9.911417 9.4726391 -1.1994773 0
9.8885202 9.5143986 -1.2005601 0
9.8142061 9.5064688 -1.1954007 0
9.8441505 9.5996561 -1.2029616 0
9.8083687 9.6291323 -1.2025275 0
9.7178545 9.6044674 -1.1953716 0
9.7305241 9.6816969 -1.2009163 0
9.709012 9.7252884 -1.2022789 0
9.6658382 9.7471857 -1.2009727 0
9.5989246 9.7448416 -1.1967117 0
9.6021233 9.8136854 -1.2012057 0
9.5893002 9.8665409 -1.2037332 0
9.5066509 9.8473482 -1.1974962 0
9.4807844 9.8866787 -1.1984067 0
9.4378777 9.9082212 -1.1971756 0
9.4275427 9.9640522 -1.2000955 0
9.3901253 9.991395 -1.1995901 0
9.3829327 10.051059 -1.2029696 0
9.336278 10.068546 -1.2013093 0
9.285531 10.081405 -1.1991222 0
9.2593889 10.12091 -1.2001218 0
9.2078571 10.132589 -1.1978391 0
9.1719904 10.161364 -1.1975986 0
9.154458 10.21056 -1.1997726 0
9.1426449 10.266431 -1.2027289 0
9.0754948 10.260084 -1.1984138 0
9.0856323 10.341205 -1.2043242 0
9.0013189 10.314783 -1.1977257 0
8.9741154 10.353477 -1.1987182 0
8.9590034 10.406334 -1.2013533 0
8.9258614 10.438417 -1.2015955 0
8.8325262 10.399656 -1.1937181 0
8.8069553 10.440291 -1.1949862 0
8.8356447 10.545843 -1.20367 0
8.7552414 10.521336 -1.1975156 0
8.7164145 10.546394 -1.1970347 0
8.7216864 10.625118 -1.2026442 0
8.6754675 10.641366 -1.201184 0
8.6144886 10.639207 -1.1976734 0
8.6027327 10.697829 -1.2010189 0
8.589324 10.754795 -1.2041744 0
8.5029058 10.720102 -1.1970912 0
8.5236244 10.82054 -1.205109 0
8.3927784 10.728237 -1.1916883 0
8.4462271 10.871471 -1.2044462 0
8.4016151 10.889213 -1.2032841 0
8.3372202 10.880988 -1.1992797 0
8.3308039 10.948455 -1.2036303 0
8.2642851 10.936934 -1.1993109 0
8.24471 10.987425 -1.2018095 0
8.1957445 10.998795 -1.2000407 0
8.1429033 11.004699 -1.1976994 0
8.0902872 11.010608 -1.1953835 0
8.0643702 11.052808 -1.1970229 0
8.044383 11.103409 -1.1995753 0
8.0356426 11.169979 -1.2038498 0
7.9630265 11.147693 -1.1985637 0
7.9337583 11.185823 -1.1997966 0
7.8791485 11.188134 -1.1972042 0
7.8637609 11.246193 -1.2005887 0
7.8082385 11.246897 -1.1978624 0
7.772397 11.275785 -1.198157 0
7.7494516 11.32356 -1.2004658 0
7.7177744 11.358798 -1.2014515 0
7.656013 11.349574 -1.197754 0
7.6273594 11.389279 -1.1992387 0
7.5837588 11.406709 -1.1983898 0
7.5769281 11.479731 -1.2033858 0
7.538805 11.505693 -1.203451 0
7.4935422 11.520691 -1.2023849 0
7.4320884 11.510463 -1.1987101 0
7.4020462 11.548721 -1.200103 0
7.3431911 11.541893 -1.1968282 0
7.3263297 11.601091 -1.2004129 0
7.2839789 11.620144 -1.1998506 0
7.2364244 11.630754 -1.1984341 0
7.2034564 11.664777 -1.1994445 0
7.1760602 11.70804 -1.2014124 0
7.1326575 11.725282 -1.2007209 0
7.1018591 11.7633 -1.2021689 0
7.0485845 11.764022 -1.1998209 0
6.9997783 11.771908 -1.1982247 0
6.9899487 11.845606 -1.203334 0
6.9123578 11.804363 -1.1967833 0
6.8912129 11.859262 -1.1999998 0
6.8277035 11.841181 -1.1958473 0
6.8158708 11.912783 -1.2007637 0
6.771029 11.927003 -1.1999021 0
6.7259769 11.940718 -1.1990063 0
6.6771178 11.947479 -1.1974306 0
6.6512513 11.995461 -1.1999978 0
6.6160812 12.026939 -1.2009209 0
6.5582051 12.01696 -1.1977222 0
6.5398569 12.079478 -1.201761 0
6.481535 12.068222 -1.1984725 0
6.4441185 12.095672 -1.199046 0
6.3990936 12.108819 -1.1982157 0
6.3633685 12.139572 -1.1991409 0
6.3244615 12.16436 -1.199488 0
6.2845788 12.187314 -1.1996671 0
6.2549958 12.230439 -1.2018409 0
6.1798534 12.18411 -1.1952455 0
6.1772985 12.280966 -1.2027085 0
6.1453505 12.320177 -1.2045239 0
6.0870695 12.306465 -1.2011812 0
6.0248575 12.284158 -1.1970255 0
5.982132 12.301194 -1.1967244 0
5.9463024 12.33248 -1.1978219 0
5.9191661 12.382147 -1.2007115 0
5.874248 12.394814 -1.2000232 0
5.8186121 12.384544 -1.1971334 0
5.7867589 12.424815 -1.199144 0
5.7543201 12.464189 -1.2010751 0
5.7277794 12.516806 -1.2042881 0
5.673285 12.508389 -1.2016414 0
5.6129012 12.486379 -1.1977123 0
5.5901775 12.548162 -1.2018341 0
5.5464816 12.563227 -1.2014891 0
5.4986167 12.568697 -1.2002423 0
5.4526739 12.578362 -1.1994127 0
5.4009004 12.574292 -1.1972911 0
5.3756948 12.63224 -1.2010859 0
5.3300004 12.64234 -1.2003403 0
5.279336 12.640394 -1.1984682 0
5.2355642 12.654733 -1.1981567 0
5.2137108 12.722496 -1.2029107 0
5.1533155 12.696273 -1.1987909 0
5.1269975 12.753976 -1.2026094 0
5.0767941 12.752474 -1.200856 0
5.0288153 12.756248 -1.1996169 0
4.9874678 12.776752 -1.1999658 0
4.9413486 12.784986 -1.1991764 0
4.9133048 12.840289 -1.2028117 0
4.8684177 12.851916 -1.202365 0
4.8358636 12.896337 -1.2049972 0
4.776938 12.870289 -1.2010601 0
4.722343 12.855154 -1.1981634 0
4.7007985 12.930283 -1.2036899 0
4.6524081 12.932041 -1.2023948 0
4.6084661 12.946002 -1.2022495 0
4.5666032 12.965834 -1.2026626 0
4.5133085 12.952955 -1.2000576 0
4.461 12.942326 -1.1976804 0
4.4175897 12.957233 -1.1976825 0
4.3861704 13.007704 -1.2009816 0
4.3401093 13.015068 -1.2003112 0
4.2901731 13.010517 -1.1985582 0
4.2499447 13.035311 -1.1995229 0
4.2070985 13.052224 -1.1997745 0
4.1559525 13.043156 -1.1976533 0
4.1271887 13.104614 -1.2020192 0
4.0819249 13.114191 -1.2016355 0
4.0417027 13.140061 -1.2027576 0
3.9896491 13.127298 -1.2003582 0
3.9301474 13.089093 -1.1956531 0
3.8962638 13.135991 -1.198737 0
3.8442671 13.121905 -1.1962687 0
3.8145869 13.184272 -1.2007816 0
3.7704775 13.197394 -1.2008187 0
3.7357278 13.243711 -1.2038865 0
3.6877027 13.243232 -1.2027123 0
3.6389811 13.239882 -1.2012932 0
3.5991907 13.269043 -1.2028375 0
3.554863 13.281713 -1.2028987 0
3.5081747 13.285463 -1.2021664 0
3.4524903 13.254457 -1.1983064 0
3.4099646 13.273483 -1.1989863 0
3.3764584 13.328328 -1.202911 0
3.3235731 13.306828 -1.1999581 0
3.2789907 13.318106 -1.1999769 0
3.2300925 13.311606 -1.1984088 0
3.1982172 13.375786 -1.2032146 0
3.140383 13.331375 -1.1982658 0
3.1026275 13.371824 -1.2009598 0
3.060998 13.396249 -1.2022249 0
3.0169201 13.410234 -1.2025654 0
2.9520597 13.330497 -1.1945206 0
2.9024439 13.317815 -1.1925055 0
2.8659084 13.365399 -1.1958992 0
2.8386388 13.458179 -1.2033424 0
2.7933936 13.467107 -1.2032965 0
2.7391875 13.432078 -1.1993394 0
2.6894443 13.417775 -1.1972505 0
2.6547434 13.479022 -1.2019144 0
2.6042886 13.460725 -1.1994976 0
2.5554118 13.449743 -1.1977488 0
2.5171261 13.494817 -1.2010044 0
2.4746401 13.518332 -1.202352 0
2.4175608 13.461178 -1.196541 0
2.3791893 13.507672 -1.199958 0
2.3379483 13.539091 -1.2020459 0
2.2882202 13.521319 -1.1997802 0
2.2373228 13.495439 -1.1968113 0
2.1953459 13.523088 -1.198604 0
2.1431823 13.487512 -1.1948071 0
2.1028464 13.52612 -1.197596 0
2.066216 13.590529 -1.2026786 0
2.0184624 13.582742 -1.2013837 0
1.9736123 13.594266 -1.2018111 0
1.9218544 13.557297 -1.1979663 0
1.8780484 13.575663 -1.1990261 0
1.8267039 13.538768 -1.1952198 0
1.7865385 13.584644 -1.1987343 0
1.738173 13.568632 -1.1968004 0
1.6929239 13.576419 -1.1969798 0
1.6570487 13.661607 -1.2039939 0
1.6088345 13.646728 -1.2022004 0
1.5614208 13.637635 -1.2009315 0
1.5186639 13.669583 -1.2032897 0
1.4652221 13.60402 -1.1970792 0
1.4245772 13.656549 -1.2012744 0
1.3780948 13.654446 -1.2006762 0
1.3295788 13.631027 -1.1982182 0
1.2855029 13.652761 -1.1997432 0
1.2393098 13.652469 -1.1993456 0
1.1931013 13.651656 -1.1989161 0
1.1486105 13.670901 -1.2002612 0
1.1023402 13.669372 -1.1997956 0
1.0578163 13.689983 -1.2012868 0
1.0115215 13.68819 -1.200825 0
0.96665865 13.706204 -1.2021143 0
0.9214341 13.720316 -1.2030742 0
0.87979019 13.791722 -1.2090701 0
0.82589555 13.668015 -1.1979756 0
0.7815398 13.696559 -1.2002411 0
0.7348004 13.683962 -1.1989145 0
0.69082236 13.724211 -1.2022312 0
0.6420638 13.668121 -1.1971226 0
0.59625798 13.670756 -1.1971716 0
0.55006307 13.663834 -1.1963971 0
0.50485051 13.681938 -1.1978272 0
0.46021041 13.720393 -1.2010521 0
0.41331947 13.692492 -1.1984817 0
0.36719912 13.685986 -1.1977977 0
0.32176107 13.706332 -1.1994772 0
0.2762658 13.730259 -1.2014834 0
0.22976464 13.703397 -1.1990585 0
0.18366718 13.692813 -1.1980718 0
0.13777041 13.694711 -1.1981908 0
0.091877565 13.69863 -1.1985 0
0.046004966 13.715806 -1.1999825 0
1.8206694e-05 13.722312 -1.200545 0
-0.045870081 13.686419 -1.1974115 0
-0.092079848 13.734223 -1.201614 0
-0.13772351 13.69366 -1.1980989 0
-0.18397336 13.718352 -1.2003064 0
-0.23015204 13.728675 -1.2012703 0
-0.27509412 13.673831 -1.1965455 0
-0.32230568 13.731084 -1.2016433 0
-0.36820185 13.724717 -1.2011874 0
-0.41220862 13.656893 -1.1953657 0
-0.45907658 13.687674 -1.1981878 0
-0.50350952 13.646577 -1.1947314 0
-0.55171597 13.705797 -1.2000712 0
-0.59782434 13.707505 -1.2003895 0
-0.64148706 13.656616 -1.1961148 0
-0.68923438 13.693386 -1.1995308 0
-0.736646 13.71901 -1.2019851 0
-0.78244472 13.713058 -1.2016866 0
-0.82865965 13.714363 -1.2020378 0
-0.87424546 13.705375 -1.2015001 0
-0.917337 13.659852 -1.1977723 0
-0.96023506 13.615641 -1.1941711 0
-1.0081624 13.643227 -1.1968803 0
-1.0593811 13.71071 -1.2031052 0
-1.1001097 13.642164 -1.1974074 0
-1.1466268 13.647726 -1.1982262 0
-1.193821 13.66031 -1.1996757 0
-1.2414901 13.67689 -1.2014906 0
-1.2839737 13.636907 -1.1983496 0
-1.3308426 13.644358 -1.1993898 0
-1.3767231 13.641216 -1.1995126 0
-1.4224544 13.636549 -1.1995149 0
-1.4694868 13.643956 -1.200593 0
-1.5138053 13.626181 -1.1994689 0
-1.5614932 13.638588 -1.201015 0
-1.6042968 13.608547 -1.1988366 0
-1.650508 13.607984 -1.1992677 0
-1.7031386 13.65863 -1.2042277 0
-1.7368472 13.558567 -1.1959122 0
-1.7929856 13.633946 -1.2030843 0
-1.8336459 13.590492 -1.1997856 0
-1.8855135 13.629892 -1.2038152 0
-1.9309385 13.621639 -1.2036513 0
-1.9708354 13.575392 -1.200142 0
-2.0127101 13.544281 -1.1979815 0
-2.0642867 13.578082 -1.2015766 0
-2.1043434 13.535987 -1.198469 0
-2.1529534 13.549235 -1.2002743 0
-2.2053323 13.584832 -1.2040761 0
-2.2439773 13.535801 -1.2003903 0
-2.2785254 13.464251 -1.1947157 0
-2.339772 13.549866 -1.203002 0
-2.3748598 13.483301 -1.1977924 0
-2.4127488 13.43459 -1.194177 0
-2.4679124 13.481783 -1.1991006 0
-2.5219841 13.52106 -1.2033393 0
-2.5596621 13.472309 -1.1997578 0
-2.6047421 13.46326 -1.1997228 0
-2.6530395 13.470558 -1.2011591 0
-2.6913323 13.427379 -1.1981068 0
-2.7335622 13.404675 -1.196892 0
-2.7888505 13.445383 -1.2013549 0
-2.8151095 13.346799 -1.193383 0
-2.8753648 13.409674 -1.1998601 0
-2.9141872 13.371869 -1.1973449 0
-2.9533927 13.336683 -1.1950743 0
-3.008709 13.373901 -1.1993066 0
-3.0597677 13.391028 -1.2017556 0
-3.0941658 13.335516 -1.1976981 0
-3.1388166 13.324883 -1.1976815 0
-3.1921513 13.350574 -1.2009459 0
-3.2417176 13.359669 -1.2027349 0
-3.2710786 13.286121 -1.1970943 0
-3.3310578 13.336946 -1.2026732 0
-3.359206 13.260373 -1.1967772 0
-3.4100437 13.273937 -1.1990265 0
-3.4563191 13.2693 -1.1996475 0
-3.505089 13.273921 -1.2011211 0
-3.5364842 13.213187 -1.1966916 0
-3.5802538 13.199368 -1.1965206 0
-3.631017 13.211042 -1.1986758 0
-3.6751108 13.198148 -1.198617 0
-3.7236586 13.201058 -1.2000084 0
-3.7675538 13.187294 -1.1998987 0
-3.8011639 13.138008 -1.1965672 0
-3.8522153 13.149164 -1.1987529 0
-3.9031713 13.159408 -1.2008729 0
-3.9581544 13.182496 -1.2041842 0
-3.9816453 13.101089 -1.1979606 0
-4.0501604 13.167684 -1.205285 0
-4.074038 13.088975 -1.199324 0
-4.1269994 13.104136 -1.2019743 0
-4.1527367 13.033183 -1.1967366 0
-4.2074637 13.053475 -1.1998885 0
-4.2516232 13.040576 -1.2000062 0
-4.2954893 13.026754 -1.200053 0
-4.347816 13.038293 -1.2024521 0
-4.3727298 12.967958 -1.1973109 0
-4.4239602 12.976031 -1.199419 0
-4.4709344 12.97126 -1.2003568 0
-4.5063777 12.933174 -1.1982238 0
-4.5585227 12.943 -1.2005434 0
-4.6033807 12.931825 -1.2009318 0
-4.6255207 12.85741 -1.1954547 0
-4.6798296 12.87271 -1.1983293 0
-4.7224174 12.855462 -1.1981909 0
-4.773685 12.861629 -1.2002507 0
-4.831399 12.884535 -1.2038932 0
-4.8582416 12.825155 -1.1998603 0
-4.9112902 12.835126 -1.2023269 0
-4.9488511 12.804498 -1.2010053 0
-4.9951205 12.796457 -1.2018152 0
-5.0471396 12.802831 -1.2039964 0
-5.081666 12.76481 -1.2020164 0
-5.1020565 12.69203 -1.196767 0
-5.1697612 12.736887 -1.2026244 0
-5.209775 12.712988 -1.2020104 0
-5.2559996 12.704222 -1.2028409 0
-5.2762027 12.632985 -1.1977645 0
-5.3449249 12.677834 -1.203709 0
-5.3738055 12.627893 -1.2006713 0
-5.4173007 12.612567 -1.2009343 0
-5.44238 12.554707 -1.1971557 0
-5.5035877 12.580151 -1.2013347 0
-5.5417585 12.552619 -1.2004732 0
-5.5731635 12.51006 -1.1981834 0
-5.6112976 12.482899 -1.1973771 0
-5.6553254 12.468881 -1.1978445 0
-5.7022691 12.461145 -1.1989313 0
-5.7536116 12.46274 -1.2009342 0
-5.7962012 12.445176 -1.2011075 0
-5.836185 12.422032 -1.2007556 0
-5.8694611 12.384797 -1.1990519 0
-5.9117646 12.366749 -1.1992167 0
-5.9569845 12.354718 -1.1999801 0
-6.0027719 12.343719 -1.20086 0
-6.0434599 12.322169 -1.2007279 0
-6.0888901 12.310228 -1.2015469 0
-6.1074028 12.244182 -1.1970924 0
-6.1401772 12.207246 -1.1954873 0
-6.2116346 12.24685 -1.2013986 0
-6.2530432 12.226702 -1.201472 0
-6.2655406 12.150474 -1.196039 0
-6.3183746 12.152731 -1.1983397 0
-6.3713055 12.154792 -1.2006427 0
-6.3943944 12.100005 -1.1973419 0
-6.4230595 12.056221 -1.1951336 0
-6.4966941 12.096525 -1.2012814 0
-6.5193987 12.041767 -1.1980075 0
-6.5541916 12.009682 -1.1969949 0
-6.6018672 12.001175 -1.1983465 0
-6.6627512 12.016275 -1.2020782 0
-6.712286 12.010482 -1.2037432 0
-6.7461476 11.976601 -1.2026078 0
-6.7884908 11.957836 -1.2030022 0
-6.8386164 11.952611 -1.2047764 0
-6.8576345 11.893163 -1.2010951 0
-6.8943968 11.864813 -1.2005597 0
-6.9114623 11.802906 -1.1966337 0
-6.9767985 11.823392 -1.2010756 0
-7.0108709 11.790634 -1.2001289 0
-7.054369 11.773747 -1.2008108 0
-7.0803528 11.727748 -1.1985338 0
-7.1160612 11.69807 -1.1979322 0
-7.1722617 11.701913 -1.2007816 0
-7.1795568 11.626144 -1.1954701 0
-7.225492 11.613251 -1.1966286 0
-7.2894273 11.628904 -1.2007531 0
-7.3047853 11.567044 -1.1968879 0
-7.3769608 11.595039 -1.2023371 0
-7.4043374 11.552363 -1.2004795 0
-7.4339213 11.513368 -1.1990106 0
-7.4868345 11.510445 -1.2013136 0
-7.51861 11.474938 -1.2002321 0
-7.5390859 11.422462 -1.1973804 0
-7.6126256 11.450192 -1.2029561 0
-7.6427846 11.412377 -1.2016687 0
-7.668788 11.368577 -1.1997573 0
-7.6899357 11.31789 -1.1971225 0
-7.7374902 11.306146 -1.1986175 0
-7.784132 11.292874 -1.1999706 0
-7.8238697 11.269476 -1.2002649 0
-7.8314781 11.200088 -1.1956646 0
-7.8943849 11.209832 -1.1995238 0
-7.9363594 11.189554 -1.2001945 0
-7.95612 11.138087 -1.1975286 0
-8.0078564 11.131417 -1.1996914 0
-8.0477982 11.108186 -1.200089 0
-8.0661173 11.055264 -1.1972866 0
-8.1478615 11.089025 -1.2038947 0
-8.1551323 11.021287 -1.1995023 0
-8.1902885 10.991533 -1.1992462 0
-8.2441149 10.986692 -1.201727 0
-8.277688 10.954733 -1.2012602 0
-8.2845097 10.887674 -1.196946 0
-8.3527184 10.901275 -1.2015132 0
-8.3585138 10.833408 -1.1971152 0
-8.3992424 10.811056 -1.1977503 0
-8.4492931 10.800538 -1.1997169 0
-8.4943037 10.783379 -1.2009676 0
-8.5425425 10.770134 -1.2026756 0
-8.5306444 10.681379 -1.1959518 0
-8.5898228 10.681833 -1.1992205 0
-8.658988 10.694222 -1.2038641 0
-8.6637983 10.62711 -1.1995724 0
-8.7110739 10.612248 -1.2011849 0
-8.7351151 10.569078 -1.1996068 0
-8.7702932 10.539481 -1.1995782 0
-8.7978697 10.500813 -1.1985277 0
-8.8730888 10.518748 -1.2039635 0
-8.877327 10.452462 -1.1997766 0
-8.9143686 10.425033 -1.2000521 0
-8.9079161 10.347049 -1.1945065 0
-8.9957752 10.378522 -1.2016151 0
-9.0316439 10.349588 -1.2017643 0
-9.0540934 10.305363 -1.2001473 0
