# .PCD v0.7 - Point Cloud Data file format
VERSION 0.7
FIELDS x y z intensity
SIZE 4 4 4 4
TYPE F F F F
COUNT 1 1 1 1
WIDTH 1401
HEIGHT 1
VIEWPOINT 0 0 0 1 0 0 0
POINTS 1401
DATA ascii
1.8435485 7.3811469 -1.2049698 0
1.8032432 7.3241386 -1.1946694 0
1.7838463 7.3514481 -1.1981417 0
1.7613856 7.3665776 -1.1996382 0
1.7362731 7.3707275 -1.1993593 0
1.7108315 7.3734083 -1.1988554 0
1.6851631 7.3750014 -1.198189 0
1.6614451 7.3851376 -1.1989239 0
1.6447155 7.4269753 -1.2048141 0
1.6103227 7.3889384 -1.1977611 0
1.5903373 7.4166689 -1.2013851 0
1.5455813 7.3277054 -1.1861284 0
1.5365994 7.4080315 -1.19829 0
1.5102783 7.40591 -1.197121 0
1.4875269 7.4213476 -1.1988035 0
1.4618649 7.4223776 -1.1981714 0
1.4350212 7.41716 -1.1965457 0
1.4129504 7.4366961 -1.1989263 0
1.390808 7.4563999 -1.2013444 0
1.3634964 7.4484353 -1.1993179 0
1.3449966 7.4890518 -1.205125 0
1.3084143 7.4284258 -1.1946565 0
1.2912772 7.4778037 -1.2018945 0
1.2655408 7.4782066 -1.2012705 0
1.2432183 7.4990411 -1.2039409 0
1.2162644 7.4920545 -1.2021577 0
1.1944898 7.5171833 -1.2055405 0
1.1638843 7.486443 -1.199978 0
1.1441534 7.5256658 -1.2056433 0
1.1126585 7.4873595 -1.198902 0
1.08973 7.5060735 -1.2013068 0
1.0630991 7.4993978 -1.1996613 0
1.0303622 7.4480772 -1.1908923 0
1.0192833 7.554503 -1.2073557 0
0.9932946 7.5529037 -1.2065611 0
0.96683508 7.5473666 -1.205152 0
0.93726879 7.5164351 -1.1997044 0
0.90741217 7.4811974 -1.1935877 0
0.88772744 7.5300317 -1.2008973 0
0.86147493 7.5242248 -1.1995039 0
0.83628553 7.5274558 -1.1995652 0
0.81100452 7.5298629 -1.1995088 0
0.78405273 7.5162334 -1.1969121 0
0.7640875 7.5707355 -1.2051765 0
0.7312941 7.4973288 -1.1930939 0
0.70721555 7.511025 -1.1948894 0
0.68836683 7.5831776 -1.2059939 0
0.65725952 7.5204692 -1.1956638 0
0.63264978 7.5298753 -1.1968153 0
0.61313874 7.6031165 -1.2081228 0
0.58097404 7.518815 -1.1944113 0
0.55754453 7.544848 -1.198243 0
0.53363407 7.566371 -1.2013704 0
0.50244486 7.481493 -1.1876194 0
0.48287839 7.5696735 -1.2013537 0
0.45868039 7.5908508 -1.2044637 0
0.43345991 7.596426 -1.205111 0
0.40826786 7.6030464 -1.2059374 0
0.37949935 7.5393171 -1.1956205 0
0.35413301 7.5387101 -1.1953293 0
0.32763702 7.5119262 -1.1909015 0
0.30388233 7.5485845 -1.1965449 0
0.2786237 7.5509715 -1.1967685 0
0.25345117 7.5562172 -1.1974585 0
0.22871621 7.5769348 -1.2006134 0
0.20228203 7.5393124 -1.1945378 0
0.17760433 7.5655637 -1.1985959 0
0.15211293 7.5599294 -1.1976157 0
0.12741978 7.5994453 -1.2038013 0
0.10157585 7.5727139 -1.1995062 0
0.076438725 7.5981932 -1.2034947 0
0.050808381 7.5753555 -1.1998436 0
0.025434153 7.5828753 -1.2010144 0
1.000593e-05 7.5414295 -1.1944432 0
-0.025347818 7.5631189 -1.1978853 0
-0.05123309 7.6417017 -1.2103521 0
-0.075888813 7.5455213 -1.1951518 0
-0.10196903 7.6035309 -1.2043874 0
-0.12716575 7.5854955 -1.2015915 0
-0.15335026 7.6224298 -1.2075168 0
-0.17748035 7.5611382 -1.1978947 0
-0.20255204 7.5501232 -1.1962504 0
-0.22882637 7.5812521 -1.2012974 0
-0.25385952 7.5689907 -1.1994827 0
-0.27698249 7.5070338 -1.1898046 0
-0.30444047 7.5629487 -1.1988217 0
-0.32964009 7.5583129 -1.1982553 0
-0.35553202 7.5689206 -1.2001193 0
-0.38045102 7.5586228 -1.198682 0
-0.40690124 7.5779719 -1.20196 0
-0.43155861 7.563458 -1.1998807 0
-0.45801643 7.5801969 -1.202773 0
-0.48414639 7.5898681 -1.2045584 0
-0.50710571 7.5511932 -1.1986836 0
-0.53607589 7.6012812 -1.2069131 0
-0.56035066 7.5830946 -1.2043171 0
-0.58432263 7.5624127 -1.2013369 0
-0.60614812 7.5166793 -1.1943879 0
-0.63489866 7.5568819 -1.2011075 0
-0.66079652 7.5611711 -1.2021346 0
-0.68227518 7.5162926 -1.1953565 0
-0.7096653 7.5372567 -1.1990622 0
-0.73245621 7.509449 -1.1950223 0
-0.76768243 7.6065564 -1.2108785 0
-0.78672206 7.5420165 -1.2010175 0
-0.81320274 7.5504608 -1.2027897 0
-0.83326024 7.5004063 -1.1952543 0
-0.86786813 7.5802417 -1.2084337 0
-0.8902967 7.5519972 -1.2044001 0
-0.91017759 7.5041637 -1.1972514 0
-0.9421683 7.5558906 -1.2060014 0
-0.96677876 7.5470862 -1.2051067 0
-0.98791444 7.5121484 -1.2000501 0
-1.0164642 7.5337596 -1.2040402 0
-1.0349745 7.4815636 -1.196246 0
-1.0625908 7.4959559 -1.1991102 0
-1.0872481 7.4891176 -1.1985927 0
-1.117563 7.5205002 -1.2042083 0
-1.1345673 7.4627461 -1.1955628 0
-1.1626294 7.4785023 -1.1987048 0
-1.1911235 7.4961267 -1.2021631 0
-1.2078788 7.4405251 -1.193889 0
-1.2367074 7.4598904 -1.197655 0
-1.2670137 7.48703 -1.2026874 0
-1.2937356 7.4921598 -1.2042013 0
-1.3112147 7.4444408 -1.1972314 0
-1.3347067 7.4318705 -1.1959227 0
-1.3661706 7.4631557 -1.2016876 0
-1.3984784 7.4976325 -1.2079871 0
-1.4190695 7.4690108 -1.2041354 0
-1.4449062 7.468359 -1.2048045 0
-1.4527969 7.3764396 -1.1907551 0
-1.4883626 7.4256191 -1.1994929 0
-1.5165493 7.4367619 -1.2021074 0
-1.5377977 7.4139075 -1.1992399 0
-1.5611687 7.4017034 -1.1981057 0
-1.585591 7.3946295 -1.1978145 0
-1.6140149 7.4059744 -1.2005219 0
-1.6410671 7.4105935 -1.2021559 0
-1.6715854 7.4303031 -1.2062557 0
-1.6901014 7.3967037 -1.2017142 0
-1.706292 7.3539324 -1.195688 0
-1.742667 7.3979588 -1.2037895 0
-1.7588522 7.3560691 -1.1979262 0
-1.795135 7.3980565 -1.2057371 0
-1.8148098 7.3712025 -1.2023454 0
-1.8327777 7.3381062 -1.1979425 0
-1.8505803 7.3051147 -1.1935629 0
-1.8957764 7.3794999 -1.2067482 0
-1.9072766 7.3223057 -1.1984344 0
-1.9299479 7.308794 -1.1972753 0
-1.9584478 7.3172493 -1.1997293 0
-1.980237 7.3005652 -1.1980757 0
-2.0024471 7.2856765 -1.1967273 0
-2.0372071 7.3160686 -1.2028347 0
-2.063808 7.3165808 -1.2040497 0
-2.0954988 7.3347216 -1.2081845 0
-2.1065469 7.2808838 -1.200473 0
-2.1128135 7.2118845 -1.1902577 0
-2.1486628 7.244143 -1.1967639 0
-2.1876328 7.2858353 -1.2048565 0
-2.2057219 7.2576423 -1.2014105 0
-2.2167714 7.207058 -1.1942606 0
-2.2542193 7.2423034 -1.2013466 0
-2.2863519 7.2596726 -1.2054926 0
-2.3063369 7.2383375 -1.2032272 0
-2.3105147 7.1682725 -1.1928613 0
-2.3588815 7.2351594 -1.2053012 0
-2.38433 7.2308602 -1.20591 0
-2.4095247 7.2257171 -1.2063928 0
-2.4257669 7.1939602 -1.2024418 0
-2.4336333 7.1381526 -1.194471 0
-2.4734368 7.1760373 -1.2021914 0
-2.5090201 7.2008152 -1.207745 0
-2.5030577 7.106925 -1.1933982 0
-2.5362535 7.1248474 -1.1978289 0
-2.5545614 7.100832 -1.1952248 0
-2.5916057 7.1286764 -1.2013674 0
-2.6086192 7.1012368 -1.1982104 0
-2.6311247 7.0889778 -1.1976236 0
-2.6628728 7.1014376 -1.2012302 0
-2.6916955 7.105742 -1.2034781 0
-2.7160254 7.0980387 -1.203709 0
-2.7360163 7.0790806 -1.2020429 0
-2.7526882 7.0518131 -1.1989732 0
-2.7776878 7.0460238 -1.1995656 0
-2.824734 7.0955453 -1.2096021 0
-2.8318443 7.0445814 -1.202526 0
-2.8498313 7.0212102 -1.2001607 0
-2.870223 7.0039706 -1.1988522 0
-2.913789 7.0428896 -1.2071792 0
-2.9140382 6.9771771 -1.1975838 0
-2.9583366 7.016993 -1.2061136 0
-2.9656651 6.9690099 -1.1995684 0
-2.985594 6.9510646 -1.1981958 0
-3.0232234 6.9740963 -1.2039064 0
-3.047003 6.9648666 -1.20407 0
-3.0600677 6.9313493 -1.2000425 0
-3.094058 6.9452209 -1.2042334 0
-3.1009474 6.8983712 -1.1979061 0
-3.1525426 6.950736 -1.208828 0
-3.1600935 6.9057403 -1.2028384 0
-3.1802661 6.8886876 -1.2017188 0
-3.1990497 6.8687639 -1.2001075 0
-3.221725 6.8572831 -1.1999822 0
-3.2403214 6.8372078 -1.1983635 0
-3.2584743 6.8163633 -1.1966182 0
-3.3199954 6.885633 -1.2107259 0
-3.3009722 6.78791 -1.1954823 0
-3.3520439 6.8345704 -1.2056726 0
-3.3637807 6.8007321 -1.2016861 0
-3.3385928 6.6932435 -1.1846642 0
-3.4319296 6.8229971 -1.2096596 0
-3.4284532 6.7595334 -1.2004392 0
-3.4558449 6.7572832 -1.2020906 0
-3.4829159 6.7542577 -1.2036231 0
-3.4988959 6.7297592 -1.2013412 0
-3.5469508 6.7666583 -1.2100441 0
-3.5608959 6.7382236 -1.2070875 0
-3.5550094 6.6728292 -1.1975013 0
-3.5791168 6.6641397 -1.1980886 0
-3.5927753 6.636097 -1.195206 0
-3.6052952 6.6062226 -1.1919959 0
-3.6378405 6.6130328 -1.1954187 0
-3.6977832 6.6689544 -1.2077619 0
-3.705251 6.6299095 -1.2029338 0
-3.7151263 6.5955544 -1.1989537 0
-3.7538714 6.6123943 -1.2042961 0
-3.7516215 6.5571265 -1.1965145 0
-3.8036745 6.5966949 -1.206055 0
-3.8148844 6.5651703 -1.2026232 0
-3.8310914 6.5424666 -1.2008106 0
-3.8574853 6.5371766 -1.2022067 0
-3.8787718 6.523181 -1.2020178 0
-3.8472607 6.4210811 -1.1855742 0
-3.9185131 6.4905429 -1.2008185 0
-3.9623773 6.5137391 -1.2075611 0
-3.9642279 6.4678411 -1.2015096 0
-3.9896162 6.4605455 -1.2026324 0
-4.0157166 6.4543037 -1.2039702 0
-4.0330281 6.4339347 -1.2026861 0
-4.0529504 6.4178004 -1.2022036 0
-4.0684133 6.3946943 -1.2004237 0
-4.0880742 6.3782778 -1.1999083 0
-4.1359911 6.4056621 -1.2076619 0
-4.129128 6.3482237 -1.1994363 0
-4.1549768 6.3413458 -1.2007622 0
-4.1814694 6.3353405 -1.202273 0
-4.188755 6.3003297 -1.1982874 0
-4.2327347 6.3204145 -1.2047998 0
-4.2041755 6.23247 -1.1907161 0
-4.2564554 6.264564 -1.1995674 0
-4.2886629 6.2666636 -1.202716 0
-4.2887583 6.221941 -1.1968858 0
-4.3282623 6.2344146 -1.2020702 0
-4.3168926 6.1737485 -1.193157 0
-4.3354464 6.1562276 -1.1925734 0
-4.3654652 6.1549139 -1.1951476 0
-4.4171958 6.1838069 -1.2036271 0
-4.4202228 6.1443839 -1.1988316 0
-4.4511819 6.1438613 -1.2016346 0
-4.4702592 6.1268506 -1.2012323 0
-4.5328026 6.1690254 -1.212474 0
-4.5297899 6.1218033 -1.206171 0
-4.5434165 6.0973568 -1.204349 0
-4.5491633 6.0625377 -1.2004776 0
-4.5712395 6.0496006 -1.2009439 0
-4.6034522 6.049952 -1.2040709 0
-4.5669613 5.9604187 -1.1892927 0
-4.6338043 6.0058398 -1.2014489 0
-4.6564741 5.9935641 -1.2021096 0
-4.6870475 5.9913459 -1.2048098 0
-4.6788592 5.9397349 -1.1975791 0
-4.6879587 5.9104114 -1.1948292 0
-4.7344956 5.9281502 -1.2016176 0
-4.7546625 5.9126382 -1.2016978 0
-4.7593184 5.8779631 -1.1978869 0
-4.8072414 5.8966155 -1.2049659 0
-4.7812948 5.8248024 -1.1935602 0
-4.8319478 5.8464293 -1.2013048 0
-4.8248229 5.7981105 -1.1946937 0
-4.8830557 5.8282351 -1.2042674 0
-4.8805175 5.7856889 -1.1988508 0
-4.9275341 5.8018436 -1.2056147 0
-4.9234176 5.7577596 -1.1998775 0
-4.9556766 5.756299 -1.2030289 0
-4.9825206 5.7483869 -1.20486 0
-4.9894447 5.7175303 -1.201892 0
-5.0004954 5.6915607 -1.1999506 0
-4.9940162 5.645896 -1.1938465 0
-5.0792036 5.7035542 -1.2096328 0
-5.0616517 5.645618 -1.2009379 0
-5.0936179 5.6430912 -1.2040265 0
-5.0663347 5.5751691 -1.1931521 0
-5.113575 5.5893865 -1.1998572 0
-5.1586485 5.6008325 -1.2060204 0
-5.1616292 5.5664988 -1.2023472 0
-5.1311226 5.4965215 -1.1909415 0
-5.1902661 5.5226393 -1.2003642 0
-5.231348 5.5290871 -1.2055713 0
-5.22789 5.4884548 -1.2005268 0
-5.233882 5.4579854 -1.1976938 0
-5.2342491 5.4218616 -1.1936113 0
-5.3018217 5.4551349 -1.2048428 0
-5.2943039 5.4109817 -1.1990048 0
-5.3418612 5.4230933 -1.2056506 0
-5.334229 5.3791504 -1.1998506 0
-5.3899393 5.3990045 -1.2083032 0
-5.3431063 5.3163228 -1.1938016 0
-5.4127579 5.3496308 -1.2053496 0
-5.4212322 5.3221936 -1.2032562 0
-5.4221773 5.2875376 -1.1995244 0
-5.4936137 5.3213825 -1.2113742 0
-5.479362 5.2720842 -1.2043271 0
-5.4703283 5.2281847 -1.1984819 0
-5.4966102 5.218153 -1.2004002 0
-5.5088806 5.1947966 -1.1992694 0
-5.5438504 5.1927671 -1.2030853 0
-5.5590081 5.1720834 -1.2026047 0
-5.5669394 5.1447487 -1.200582 0
-5.5714865 5.1144238 -1.1978579 0
-5.5614319 5.07094 -1.192034 0
-5.6008582 5.0726027 -1.1968325 0
-5.653512 5.0858912 -1.2044333 0
-5.6591349 5.0567236 -1.2020125 0
-5.6429195 5.0083103 -1.194995 0
-5.7509589 5.0698309 -1.2142678 0
-5.7338781 5.0207081 -1.2071003 0
-5.666512 4.9282537 -1.1894331 0
-5.7285891 4.9486055 -1.1989739 0
-5.7446413 4.928936 -1.1988682 0
-5.7870049 4.931694 -1.2042516 0
-5.7667165 4.8811226 -1.1966174 0
-5.7996759 4.8757381 -1.2000576 0
-5.8382602 4.8748603 -1.2046527 0
-5.8255963 4.8312283 -1.1986905 0
-5.8661232 4.8317347 -1.2036893 0
-5.8670077 4.7995377 -1.2005621 0
-5.8540988 4.7563043 -1.1946507 0
-5.8627191 4.7307644 -1.1931663 0
-5.8992395 4.727664 -1.1973661 0
-5.881021 4.6807685 -1.1904762 0
-5.9220161 4.6810493 -1.1955909 0
-5.9366021 4.6603236 -1.1953744 0
-5.9629245 4.6487589 -1.1975294 0
-6.0039229 4.6484408 -1.2026263 0
-5.9807601 4.5985179 -1.1948916 0
-5.999002 4.5806212 -1.195461 0
-6.0285101 4.5712376 -1.1982803 0
-6.0550456 4.5594654 -1.2005094 0
-6.0474067 4.5220208 -1.1959822 0
-6.1007037 4.5300617 -1.203512 0
-6.0762262 4.4803591 -1.195713 0
-6.1678596 4.5160813 -1.2107587 0
-6.1024327 4.4368234 -1.1949885 0
-6.1264315 4.4229493 -1.1967773 0
-6.1368999 4.399282 -1.1959342 0
-6.2109113 4.4208879 -1.2074618 0
-6.1918674 4.3761287 -1.2009003 0
-6.2071633 4.3558064 -1.2010278 0
-6.1943803 4.3159122 -1.1957477 0
-6.2190008 4.3021655 -1.1977092 0
-6.2643404 4.3025475 -1.2036561 0
-6.2228856 4.2434387 -1.1929504 0
-6.251606 4.2323861 -1.195729 0
-6.291296 4.2285647 -1.2006021 0
-6.3016734 4.2049356 -1.1998852 0
-6.2942438 4.1695457 -1.195802 0
-6.3296299 4.1625199 -1.1998665 0
-6.3730531 4.1605344 -1.205447 0
-6.4115028 4.1550446 -1.2100778 0
-6.3712215 4.0986724 -1.1998749 0
-6.4090734 4.0927062 -1.2044123 0
-6.3864698 4.0481925 -1.1976073 0
-6.3994012 4.0263758 -1.1974939 0
-6.471046 4.0412316 -1.2083582 0
-6.4592733 4.0038395 -1.2036463 0
-6.4301538 3.9560084 -1.1957418 0
-6.492979 3.9647121 -1.2049459 0
-6.465239 3.9180753 -1.1973535 0
-6.461441 3.8862133 -1.1942303 0
-6.4640074 3.8583035 -1.1923069 0
-6.5332355 3.8699756 -1.2026762 0
-6.5297341 3.8383853 -1.1996559 0
-6.5215659 3.8042202 -1.1958051 0
-6.5544486 3.7940054 -1.1994953 0
-6.5408874 3.7569337 -1.1947016 0
-6.6069727 3.7654881 -1.2044594 0
-6.5854702 3.7240372 -1.1982565 0
-6.6479921 3.7300313 -1.2073504 0
-6.5964684 3.6720977 -1.1957504 0
-6.5907321 3.640013 -1.1924915 0
-6.6302137 3.6328611 -1.1974245 0
-6.6437044 3.6113434 -1.1976675 0
-6.6506991 3.5863106 -1.196754 0
-6.7373486 3.6039305 -1.210165 0
-6.6671729 3.5376935 -1.1954228 0
-6.7369227 3.5458078 -1.2057905 0
-6.6818972 3.4882874 -1.1938419 0
-6.7474518 3.493772 -1.2034547 0
-6.7279997 3.4551437 -1.1979123 0
-6.7495513 3.4376621 -1.1996907 0
-6.7766247 3.4228852 -1.2024562 0
-6.8144064 3.4133406 -1.2071228 0
-6.7516966 3.3536596 -1.1940156 0
-6.8488779 3.3733499 -1.2091948 0
-6.8123565 3.3270268 -1.2007707 0
-6.7875528 3.2867737 -1.1944495 0
-6.8333774 3.280726 -1.2005712 0
-6.7972522 3.235384 -1.1923116 0
-6.8618894 3.2379758 -1.2017386 0
-6.9022684 3.2287796 -1.2069076 0
-6.8781347 3.1894267 -1.2008111 0
-6.882627 3.1635151 -1.199737 0
-6.8617129 3.1260786 -1.1942576 0
-6.9316502 3.1299191 -1.2045966 0
-6.9181623 3.0959463 -1.2004421 0
-6.9488425 3.0817537 -1.203966 0
-6.9001164 3.0325 -1.1937553 0
-6.9458556 3.0248563 -1.1999071 0
-6.9691496 3.0072434 -1.2021827 0
-6.9705253 2.9801543 -1.2006896 0
-6.9906311 2.9610674 -1.202436 0
-7.0216446 2.9464772 -1.2060645 0
-6.9962492 2.9082713 -1.2000208 0
-7.0001678 2.8824127 -1.1990286 0
-7.0308847 2.8675287 -1.2026364 0
-7.0487218 2.8472767 -1.2040477 0
-7.031456 2.8129175 -1.1994807 0
-7.0447464 2.7908709 -1.2001449 0
-7.0592151 2.7692561 -1.2010212 0
-7.08075 2.7503459 -1.2031094 0
-7.1060534 2.7327902 -1.2058451 0
-7.0820608 2.6963418 -1.200233 0
-7.0844221 2.6700795 -1.1991092 0
-7.0767961 2.6401417 -1.1963134 0
-7.1031485 2.6228766 -1.1992749 0
-7.1670566 2.6192024 -1.2085755 0
-7.1036811 2.5690765 -1.1964293 0
-7.1753306 2.5678174 -1.20704 0
-7.1267433 2.5235071 -1.1974365 0
-7.2023983 2.5231519 -1.2087198 0
-7.1251473 2.4692993 -1.1943593 0
-7.182857 2.4623554 -1.2026423 0
-7.1587958 2.4273148 -1.1972444 0
-7.1722903 2.4051087 -1.1981459 0
-7.165843 2.3762491 -1.1957312 0
-7.2280335 2.3700025 -1.2047759 0
-7.1903582 2.3309786 -1.1971867 0
-7.2293396 2.3168585 -1.2023768 0
-7.2303653 2.290484 -1.2012634 0
-7.2546883 2.2714529 -1.2040325 0
-7.2200446 2.2340529 -1.1970329 0
-7.2555623 2.2184148 -1.2016816 0
-7.3143573 2.2096028 -1.2101856 0
-7.2509499 2.1639447 -1.1984874 0
-7.2854161 2.1476552 -1.2029873 0
-7.275352 2.1182017 -1.2001461 0
-7.2522745 2.0851316 -1.1951792 0
-7.2785082 2.0662789 -1.1983541 0
-7.3078442 2.0481555 -1.2020466 0
-7.2941122 2.0179546 -1.1986682 0
-7.2856469 1.9893398 -1.1961743 0
-7.2883177 1.9638348 -1.1955251 0
-7.335146 1.9500974 -1.2021272 0
-7.3611407 1.9306067 -1.2053198 0
-7.3787837 1.9088157 -1.2071539 0
-7.3493242 1.8749275 -1.2012992 0
-7.352469 1.8494962 -1.2007929 0
-7.3468118 1.8219039 -1.1988646 0
-7.3583636 1.7986019 -1.1997589 0
-7.3433585 1.7688634 -1.1963385 0
-7.388247 1.7534885 -1.202687 0
-7.3696294 1.7229898 -1.1987092 0
-7.3917317 1.7020398 -1.2013694 0
-7.3981395 1.6774155 -1.2014899 0
-7.3568277 1.6421342 -1.19388 0
-7.4284143 1.6319857 -1.2046024 0
-7.4631553 1.6134069 -1.209352 0
-7.4478712 1.5839832 -1.206008 0
-7.4941115 1.5675731 -1.2126375 0
-7.4161372 1.5253282 -1.1991861 0
-7.4272971 1.5016855 -1.2001698 0
-7.3867054 1.4677171 -1.1928087 0
-7.4679084 1.457842 -1.2051253 0
-7.3984609 1.4185506 -1.1931442 0
-7.4264145 1.3981121 -1.1968895 0
-7.3892016 1.3654697 -1.1901475 0
-7.4880133 1.357782 -1.2053226 0
-7.4705391 1.3287582 -1.201786 0
-7.4147563 1.2932047 -1.192108 0
-7.4096923 1.2667373 -1.1906043 0
-7.4398184 1.2462288 -1.194767 0
-7.4863234 1.2282286 -1.2015672 0
-7.5091023 1.2061255 -1.2045674 0
-7.4396415 1.1693951 -1.1927892 0
-7.4941716 1.1522324 -1.2009058 0
-7.5022607 1.1277409 -1.2015893 0
-7.5111694 1.1033404 -1.202417 0
-7.4734793 1.0722184 -1.1958011 0
-7.5292087 1.0544626 -1.2041458 0
-7.5089493 1.0259672 -1.2003487 0
-7.5463681 1.0053177 -1.2057848 0
-7.5554605 0.98075879 -1.2067055 0
-7.5207691 0.95062596 -1.200649 0
-7.5273042 0.92582178 -1.2011899 0
-7.5431848 0.90211201 -1.2032347 0
-7.5341454 0.87541926 -1.2013178 0
-7.5052071 0.84656328 -1.1962444 0
-7.5834541 0.82964957 -1.2082659 0
-7.5542998 0.80083793 -1.2031862 0
-7.5184875 0.771559 -1.1970636 0
-7.5202193 0.74626595 -1.1969342 0
-7.5794821 0.7264924 -1.2059721 0
-7.5564294 0.69872284 -1.2019247 0
-7.5611773 0.67360169 -1.2023139 0
-7.538156 0.64608365 -1.198302 0
-7.5790429 0.62399745 -1.2044623 0
-7.5888577 0.59919596 -1.205696 0
-7.555613 0.57108718 -1.2001032 0
-7.5863528 0.54783607 -1.2046872 0
-7.5622153 0.52061212 -1.2005703 0
-7.5750756 0.49598506 -1.2023413 0
-7.5541229 0.46918246 -1.1987592 0
-7.5342407 0.44259441 -1.195362 0
-7.6013846 0.42096967 -1.2057841 0
-7.5717387 0.39386797 -1.2008651 0
-7.6087847 0.37021953 -1.206537 0
-7.5645146 0.34264705 -1.1993282 0
-7.5333595 0.31592977 -1.194214 0
-7.5401058 0.29089108 -1.195122 0
-7.58356 0.26710656 -1.2018609 0
-7.5871687 0.24176665 -1.2022976 0
-7.6087308 0.21691976 -1.2055924 0
-7.5735912 0.19050679 -1.1999166 0
-7.6191902 0.16609392 -1.207046 0
-7.5590563 0.13942862 -1.1974387 0
-7.5824146 0.11442984 -1.2010714 0
-7.5670877 0.088822886 -1.1985897 0
-7.527956 0.06312111 -1.1923512 0
-7.5647378 0.038065173 -1.1981502 0
-7.5539865 0.012683626 -1.1964338 0
-7.5727663 2.0095016e-05 -1.1994066 0
-9.7569342 -0.016382515 -1.1980007 0
-9.7657719 -0.049140602 -1.1990993 0
-9.8174868 -0.082318582 -1.2054764 0
-9.7832994 -0.11483689 -1.2013191 0
-9.8072224 -0.14800549 -1.2043108 0
-9.756362 -0.17995845 -1.1981325 0
-9.783515 -0.21327494 -1.2015482 0
-9.7480345 -0.24520291 -1.1972849 0
-9.7705917 -0.27855295 -1.2001634 0
-9.7249966 -0.30988893 -1.1946837 0
-9.7853289 -0.34465683 -1.2022306 0
-9.7579536 -0.37645385 -1.1990156 0
-9.7783394 -0.41007844 -1.2016827 0
-9.8038073 -0.44407946 -1.2049887 0
-9.7955351 -0.4766199 -1.2041616 0
-9.7807293 -0.50877565 -1.2025445 0
-9.7879782 -0.54206467 -1.2036524 0
-9.7705631 -0.57396579 -1.2017407 0
-9.7555666 -0.60591292 -1.2001393 0
-9.7656765 -0.63941669 -1.20164 0
-9.7032213 -0.66800725 -1.1942239 0
-9.7177467 -0.70175117 -1.1962945 0
-9.7394867 -0.7361542 -1.1992679 0
-9.7867613 -0.77273661 -1.2054013 0
-9.6729622 -0.79639393 -1.1917073 0
-9.7158203 -0.83272785 -1.1973245 0
-9.7069607 -0.86476284 -1.1965834 0
-9.7705116 -0.90345311 -1.2047839 0
-9.6914244 -0.92892188 -1.1954092 0
-9.7279663 -0.96535075 -1.2003089 0
-9.6891336 -0.99431413 -1.1959221 0
-9.8179321 -1.0408076 -1.2122436 0
-9.7319136 -1.0646966 -1.2020566 0
-9.7015762 -1.0943067 -1.198756 0
-9.7015352 -1.127256 -1.1992112 0
-9.7057447 -1.1607389 -1.2002058 0
-9.654295 -1.1874313 -1.1943291 0
-9.6759043 -1.2230352 -1.1975031 0
-9.7120686 -1.2607036 -1.2024951 0
-9.6753168 -1.2889335 -1.198473 0
-9.6841841 -1.3231753 -1.2001143 0
-9.7108021 -1.3599938 -1.2039711 0
-9.6560926 -1.3853576 -1.1977574 0
-9.6706219 -1.4205494 -1.2001436 0
-9.6728649 -1.4540265 -1.2010202 0
-9.6250648 -1.4798582 -1.1956944 0
-9.6798077 -1.5215141 -1.203122 0
-9.6621246 -1.551948 -1.2015642 0
-9.6472292 -1.5827532 -1.2003649 0
-9.6544542 -1.617198 -1.2019318 0
-9.6190548 -1.6444428 -1.1982044 0
-9.6693439 -1.6864264 -1.2051662 0
-9.6989298 -1.7251141 -1.2095679 0
-9.5946159 -1.7397668 -1.1972796 0
-9.6252642 -1.7786773 -1.2018415 0
-9.6375971 -1.8143939 -1.2041342 0
-9.5590782 -1.8328185 -1.1950849 0
-9.5984907 -1.873762 -1.2007911 0
-9.6396265 -1.9153661 -1.2067339 0
-9.6194811 -1.9449115 -1.2050215 0
-9.57061 -1.9684535 -1.1997195 0
-9.5298061 -1.9933875 -1.1954356 0
-9.5660543 -2.0344698 -1.2008315 0
-9.540411 -2.0624743 -1.1984739 0
-9.5392246 -2.0957201 -1.1992009 0
-9.5373373 -2.1288507 -1.199854 0
-9.4840794 -2.1503708 -1.1940544 0
-9.5362873 -2.1958508 -1.2015474 0
-9.5573711 -2.2344749 -1.2051411 0
-9.5192871 -2.2592585 -1.2012873 0
-9.5068493 -2.2900038 -1.2006799 0
-9.5412989 -2.332176 -1.2060115 0
-9.4882994 -2.3529623 -1.2003028 0
-9.4879932 -2.3866823 -1.2012696 0
-9.507885 -2.4256101 -1.2048111 0
-9.5110426 -2.4604092 -1.2062498 0
-9.4175444 -2.4699397 -1.1954353 0
-9.4516373 -2.5127807 -1.2008257 0
-9.4255848 -2.5397205 -1.1985908 0
-9.4054136 -2.5681405 -1.197114 0
-9.407114 -2.6025279 -1.1984344 0
-9.4788074 -2.6566072 -1.2086958 0
-9.3939734 -2.6668334 -1.1990116 0
-9.4313478 -2.7116461 -1.2049354 0
-9.410594 -2.7398725 -1.2034509 0
-9.3284807 -2.7499266 -1.1941224 0
-9.3152618 -2.78001 -1.1936167 0
-9.3899326 -2.8366158 -1.2043966 0
-9.3285809 -2.852248 -1.1977472 0
-9.4052773 -2.9102159 -1.2088407 0
-9.3486061 -2.9270613 -1.2028115 0
-9.3839521 -2.9727118 -1.2086349 0
-9.2900887 -2.9772873 -1.1978242 0
-9.3197021 -3.0212717 -1.2029419 0
-9.2924938 -3.0469191 -1.2007418 0
-9.2753391 -3.0757744 -1.199851 0
-9.2254486 -3.0936012 -1.1947322 0
-9.2777138 -3.1457708 -1.2028599 0
-9.2961874 -3.186826 -1.2066334 0
-9.2252283 -3.1971059 -1.1988077 0
-9.2149048 -3.2281752 -1.198866 0
-9.2475929 -3.2744782 -1.2045403 0
-9.1954403 -3.2907491 -1.1991776 0
-9.1610546 -3.3131342 -1.1961353 0
-9.2004013 -3.3622885 -1.2027378 0
-9.144063 -3.3764954 -1.196846 0
-9.1263313 -3.404762 -1.1960126 0
-9.1767035 -3.4586487 -1.2041268 0
-9.1371117 -3.4787579 -1.2004555 0
-9.1556149 -3.5209944 -1.2044308 0
-9.0603981 -3.5192926 -1.1934505 0
-9.0963392 -3.5683987 -1.1997539 0
-9.0749149 -3.5951495 -1.1985112 0
-9.1065931 -3.6430709 -1.2043014 0
-9.0402527 -3.6517401 -1.1971406 0
-9.0223999 -3.6797631 -1.1964035 0
-9.0445395 -3.7242098 -1.2009883 0
-9.0101414 -3.7454264 -1.1980816 0
-9.0146351 -3.7827911 -1.2003587 0
-8.9592886 -3.7949445 -1.1946766 0
-8.9928217 -3.8447597 -1.2008601 0
-8.9599285 -3.8662801 -1.1981921 0
-8.9435616 -3.8948388 -1.1977429 0
-8.9531202 -3.9347653 -1.2007831 0
-8.9258261 -3.9585295 -1.1988957 0
-8.9300938 -3.9963057 -1.201262 0
-8.9195461 -4.0275345 -1.2016529 0
-8.8500223 -4.031918 -1.194101 0
-8.8483343 -4.0670285 -1.1957064 0
-8.8998566 -4.1269097 -1.2045319 0
-8.8657112 -4.1472492 -1.2017857 0
-8.8195286 -4.1617436 -1.1974102 0
-8.8367376 -4.2061467 -1.2016544 0
-8.7947178 -4.2223716 -1.1978589 0
-8.7865934 -4.2547798 -1.1986886 0
-8.7896118 -4.2926812 -1.2010571 0
-8.797368 -4.3330603 -1.2040954 0
-8.8036041 -4.37287 -1.2069488 0
-8.7154417 -4.3655705 -1.196862 0
-8.7080421 -4.3984475 -1.1978643 0
-8.710988 -4.436656 -1.200309 0
-8.664957 -4.449862 -1.1960154 0
-8.6798487 -4.49435 -1.2001439 0
-8.7040768 -4.5439677 -1.2055938 0
-8.6059122 -4.5295029 -1.1940938 0
-8.6624632 -4.5964217 -1.2040719 0
-8.6081533 -4.6046581 -1.1986623 0
-8.5886488 -4.6313272 -1.1981018 0
-8.600462 -4.6749854 -1.2019295 0
-8.5621538 -4.6914196 -1.1987673 0
-8.5355816 -4.714139 -1.1972532 0
-8.5374126 -4.7525754 -1.1997384 0
-8.5061398 -4.7725935 -1.1975856 0
-8.5203295 -4.8181863 -1.201851 0
-8.5252571 -4.8587689 -1.2048373 0
-8.4896812 -4.8762755 -1.2021133 0
-8.4580107 -4.8958712 -1.1999464 0
-8.4099846 -4.9057899 -1.1954597 0
-8.3511581 -4.9090762 -1.1894307 0
-8.4049892 -4.9787126 -1.1994684 0
-8.4249754 -5.0287867 -1.20472 0
-8.3494997 -5.0217805 -1.1963284 0
-8.3642769 -5.0689335 -1.200874 0
-8.3403454 -5.0927424 -1.1998829 0
-8.3116903 -5.1135817 -1.1982203 0
-8.3712416 -5.1889906 -1.2093065 0
-8.249855 -5.1521158 -1.1942598 0
-8.2839661 -5.2121067 -1.2017207 0
-8.2217541 -5.211524 -1.1952239 0
-8.2364731 -5.2596478 -1.1999205 0
-8.2178392 -5.2866206 -1.1997814 0
-8.183466 -5.3033843 -1.1973523 0
-8.1813059 -5.3410206 -1.1996497 0
-8.208456 -5.3980818 -1.2062778 0
-8.1861172 -5.4227948 -1.2056601 0
-8.1406927 -5.4320631 -1.2016456 0
-8.1058102 -5.448153 -1.1991862 0
-8.0907078 -5.4774728 -1.1996621 0
-8.0785027 -5.5088 -1.2005844 0
-8.0583134 -5.5347052 -1.200335 0
-8.020812 -5.5486178 -1.1975133 0
-8.02248 -5.5896344 -1.2005538 0
-7.961771 -5.5870819 -1.1942652 0
-7.959949 -5.6257277 -1.1968145 0
-7.9216399 -5.6385741 -1.1938903 0
-7.9637384 -5.7088652 -1.2031132 0
-7.9471049 -5.7373762 -1.2034997 0
-7.8994584 -5.7433658 -1.1991936 0
-7.9078188 -5.7900724 -1.203403 0
-7.8365631 -5.7783594 -1.195501 0
-7.8314362 -5.8152132 -1.1976866 0
-7.8115969 -5.8412147 -1.1976408 0
-7.7805862 -5.8588018 -1.1958914 0
-7.79287 -5.9090986 -1.2008178 0
-7.7424397 -5.9118476 -1.1960945 0
-7.7769704 -5.9795971 -1.2045194 0
-7.7137699 -5.9722624 -1.1978254 0
-7.7066035 -6.0081491 -1.1998339 0
-7.6802616 -6.0291233 -1.1988733 0
-7.6459641 -6.0437422 -1.1966759 0
-7.6390233 -6.0799813 -1.1987733 0
-7.6453452 -6.126997 -1.2029824 0
-7.6369967 -6.1624703 -1.204913 0
-7.5696273 -6.1501269 -1.1975306 0
-7.5644026 -6.1881008 -1.1999795 0
-7.550344 -6.2189727 -1.2010504 0
-7.554328 -6.264884 -1.2050186 0
-7.4694929 -6.2369151 -1.1948153 0
-7.4974732 -6.303062 -1.2026646 0
-7.4697399 -6.3226128 -1.2016096 0
-7.4469051 -6.3462634 -1.2013525 0
-7.3704591 -6.3238969 -1.1924338 0
-7.3997674 -6.3922429 -1.2006361 0
-7.3789849 -6.4176183 -1.2007486 0
-7.3057098 -6.397038 -1.1923083 0
-7.3489976 -6.4786019 -1.2029113 0
-7.3180981 -6.4950957 -1.2014112 0
-7.3382096 -6.5570617 -1.2083154 0
-7.2296801 -6.5038099 -1.1940287 0
-7.2422724 -6.5592041 -1.1997339 0
-7.257967 -6.6178484 -1.2060026 0
-7.1444964 -6.5583901 -1.1907952 0
-7.1475239 -6.6054635 -1.1949843 0
-7.1496835 -6.6520429 -1.1990676 0
-7.1494722 -6.6967072 -1.2027909 0
-7.1194687 -6.7135582 -1.2015234 0
-7.1406417 -6.7788978 -1.2089256 0
-7.0916843 -6.7777715 -1.2044777 0
-7.0426197 -6.7762051 -1.1999964 0
-7.0515032 -6.83043 -1.2054054 0
-7.007122 -6.8331261 -1.2017283 0
-6.9611902 -6.8340192 -1.1977739 0
-6.9526196 -6.8715339 -1.2002567 0
-6.92661 -6.8918891 -1.1997489 0
-6.9118872 -6.9235115 -1.2012128 0
-6.8641911 -6.9219971 -1.1969503 0
-6.8213096 -6.9250393 -1.1935148 0
-6.8527236 -7.0037465 -1.2031133 0
-6.8139405 -7.0109792 -1.2004244 0
-6.7845416 -7.0277219 -1.1993896 0
-6.7769947 -7.0671706 -1.2022375 0
-6.7690992 -7.1064796 -1.2050569 0
-6.7092376 -7.0910897 -1.198626 0
-6.6485629 -7.0743222 -1.1920171 0
-6.6707673 -7.1458073 -1.2002869 0
-6.6273937 -7.1472359 -1.1967876 0
-6.6129699 -7.1798134 -1.1985233 0
-6.6328826 -7.2500639 -1.206531 0
-6.558403 -7.2170925 -1.1973779 0
-6.522285 -7.2258754 -1.1952003 0
-6.5294151 -7.2827182 -1.2009746 0
-6.533288 -7.3363791 -1.2062045 0
-6.4626307 -7.3062119 -1.1976753 0
-6.4382176 -7.3279753 -1.1976976 0
-6.4391441 -7.3787775 -1.2024655 0
-6.385613 -7.3671503 -1.197075 0
-6.3801785 -7.4109392 -1.2007076 0
-6.3470664 -7.4226651 -1.1991528 0
-6.3285189 -7.4514108 -1.2003621 0
-6.274467 -7.438169 -1.1948333 0
-6.2758112 -7.4905767 -1.1998651 0
-6.2962623 -7.5663762 -1.2086185 0
-6.2267671 -7.5340953 -1.2001206 0
-6.2187576 -7.5759883 -1.2034657 0
-6.1667595 -7.5642147 -1.1983042 0
-6.1527395 -7.5988984 -1.200524 0
-6.1528292 -7.6513219 -1.2055402 0
-6.095449 -7.6322255 -1.1993046 0
-6.1001453 -7.690846 -1.2052954 0
-6.0724988 -7.7089372 -1.204933 0
-6.0002718 -7.6700101 -1.1956974 0
-6.0100927 -7.7358694 -1.2028162 0
-5.9863839 -7.7589087 -1.2032709 0
-5.9541149 -7.7708168 -1.202015 0
-5.9245329 -7.7861433 -1.2013065 0
-5.9083471 -7.8191357 -1.2033335 0
-5.8559847 -7.804101 -1.1979915 0
-5.8432989 -7.8418255 -1.2007682 0
-5.8296633 -7.8785224 -1.2033876 0
-5.7336249 -7.8033123 -1.188957 0
-5.7624125 -7.897851 -1.2004108 0
-5.7361908 -7.9175282 -1.2004716 0
-5.716742 -7.9466267 -1.2019707 0
-5.7022333 -7.9827819 -1.2045408 0
-5.6236963 -7.9289064 -1.1935596 0
-5.618166 -7.9776578 -1.198056 0
-5.6017208 -8.0112286 -1.2002703 0
-5.5576034 -8.0051527 -1.1965615 0
-5.5254192 -8.0160341 -1.195412 0
-5.5200105 -8.0659285 -1.200086 0
-5.5101318 -8.1096992 -1.2038429 0
-5.4392896 -8.0634623 -1.1942654 0
-5.4604268 -8.1536322 -1.2049019 0
-5.4391365 -8.181036 -1.2062498 0
-5.3883572 -8.1638947 -1.201052 0
-5.3390446 -8.1484756 -1.1961433 0
-5.3297868 -8.1941462 -1.2002175 0
-5.2958064 -8.2019386 -1.1987514 0
-5.2740846 -8.2287092 -1.2000728 0
-5.2512145 -8.2538099 -1.201159 0
-5.1926036 -8.2224283 -1.1940517 0
-5.1818151 -8.2666073 -1.1979377 0
-5.168375 -8.3069267 -1.2012626 0
-5.1387148 -8.3213263 -1.2008467 0
-5.0913 -8.3067169 -1.1962682 0
-5.093224 -8.372735 -1.2033095 0
-5.0312734 -8.3336954 -1.1952679 0
-5.0308666 -8.3965197 -1.2018524 0
-4.9938817 -8.3985329 -1.1997373 0
-4.9602127 -8.4059391 -1.1984128 0
-4.9354987 -8.4284945 -1.1992625 0
-4.9384894 -8.4988213 -1.2069064 0
-4.8579855 -8.4251814 -1.194129 0
-4.8544827 -8.4847202 -1.200254 0
-4.8048186 -8.463624 -1.1949842 0
-4.7777133 -8.4819908 -1.195309 0
-4.7729082 -8.5402985 -1.2012639 0
-4.7380133 -8.5450096 -1.1996855 0
-4.7080798 -8.5585623 -1.1993653 0
-4.6831851 -8.5813112 -1.2003461 0
-4.6485262 -8.5861397 -1.1988345 0
-4.6205277 -8.6031952 -1.1990461 0
-4.5865564 -8.609066 -1.1977143 0
-4.5576892 -8.6244383 -1.1977204 0
-4.5263557 -8.635108 -1.1970878 0
-4.5112081 -8.6768351 -1.2007688 0
-4.4881959 -8.7037506 -1.2024044 0
-4.4783454 -8.7565994 -1.2076242 0
-4.4241724 -8.7226915 -1.2008955 0
-4.3968868 -8.7414217 -1.201438 0
-4.346169 -8.7132425 -1.1955553 0
-4.3485522 -8.7916965 -1.2043128 0
-4.3145471 -8.7970438 -1.2030569 0
-4.2785196 -8.7980766 -1.2012297 0
-4.243742 -8.8014727 -1.1997439 0
-4.2273722 -8.8431892 -1.2034916 0
-4.1492395 -8.7550621 -1.1895982 0
-4.1596742 -8.8536625 -1.2010938 0
-4.1280551 -8.8634558 -1.2005379 0
-4.1109986 -8.9047213 -1.2042536 0
-4.0803766 -8.916831 -1.2040343 0
-4.046411 -8.9215403 -1.2028315 0
-3.9887381 -8.8733511 -1.1945248 0
-3.9754915 -8.9237719 -1.1995112 0
-3.9338439 -8.9105368 -1.1959525 0
-3.9078801 -8.9326677 -1.1971576 0
-3.887434 -8.9676933 -1.2000982 0
-3.8487327 -8.9606247 -1.1974187 0
-3.8230159 -8.9836969 -1.1987822 0
-3.7882729 -8.9855509 -1.197328 0
-3.7839487 -9.0600328 -1.2055554 0
-3.7449777 -9.0519466 -1.2028019 0
-3.7019501 -9.0335655 -1.1987035 0
-3.6726673 -9.0484552 -1.1990385 0
-3.6591208 -9.1025391 -1.2045728 0
-3.6203184 -9.0940008 -1.2018299 0
-3.6027541 -9.1389284 -1.2061642 0
-3.5463319 -9.0849628 -1.1974658 0
-3.5273862 -9.126646 -1.2013943 0
-3.4820268 -9.0999012 -1.1963302 0
-3.4513965 -9.1112585 -1.1962953 0
-3.4071209 -9.0862226 -1.1915015 0
-3.3862455 -9.1234827 -1.1948919 0
-3.3776965 -9.1948347 -1.2027469 0
-3.3374126 -9.180151 -1.1993557 0
-3.3145597 -9.2133741 -1.2022376 0
-3.2712846 -9.1896982 -1.1977102 0
-3.2238095 -9.1533537 -1.1915579 0
-3.2221293 -9.2474184 -1.20239 0
-3.1858287 -9.2428579 -1.2004013 0
-3.154397 -9.252243 -1.2002399 0
-3.1373265 -9.3041916 -1.2056075 0
-3.1006091 -9.298152 -1.2034711 0
-3.0489297 -9.2463646 -1.1954384 0
-3.0173712 -9.254879 -1.1952244 0
-3.0122521 -9.3453827 -1.2056016 0
-2.9579763 -9.2834797 -1.1963296 0
-2.92963 -9.3022232 -1.1974725 0
-2.9018676 -9.3230534 -1.1988947 0
-2.8731644 -9.3410912 -1.1999688 0
-2.8342602 -9.3257656 -1.1967726 0
-2.8138814 -9.3715343 -1.2014285 0
-2.7805581 -9.3745556 -1.200614 0
-2.7427595 -9.3621445 -1.19784 0
-2.7188189 -9.3970861 -1.2011375 0
-2.6849627 -9.3979797 -1.2000943 0
-2.6589506 -9.4264717 -1.2025875 0
-2.6238503 -9.4228363 -1.2009946 0
-2.5873322 -9.4137144 -1.1987196 0
-2.5489662 -9.3973064 -1.1955353 0
-2.5229039 -9.426198 -1.198128 0
-2.4942126 -9.4456892 -1.1995357 0
-2.4660881 -9.4676619 -1.2012694 0
-2.436132 -9.4828882 -1.2021582 0
-2.3945744 -9.4525166 -1.1972834 0
-2.3762064 -9.513895 -1.2040418 0
-2.3362107 -9.4889736 -1.1998898 0
-2.3085656 -9.5139904 -1.2020679 0
-2.2799664 -9.535531 -1.2038168 0
-2.2447448 -9.529376 -1.2020829 0
-2.2065821 -9.510128 -1.1987149 0
-2.1709502 -9.5011311 -1.1966566 0
-2.1356053 -9.4929008 -1.1947113 0
-2.102478 -9.494194 -1.1939802 0
-2.0781775 -9.5358038 -1.1983302 0
-2.0355284 -9.4929771 -1.192084 0
-2.0087767 -9.5238705 -1.1951108 0
-1.9861867 -9.5756445 -1.2007654 0
-1.9520423 -9.5723057 -1.1995192 0
-1.9250615 -9.6043625 -1.2027206 0
-1.8858457 -9.5752039 -1.1982707 0
-1.8616796 -9.6225557 -1.2034086 0
-1.8222212 -9.5909252 -1.1986821 0
-1.79612 -9.6295004 -1.2027438 0
-1.7689424 -9.6634293 -1.206234 0
-1.7292964 -9.6290121 -1.2012074 0
-1.6931956 -9.613143 -1.1985128 0
-1.6601187 -9.6139221 -1.1979094 0
-1.6269419 -9.6139164 -1.1972221 0
-1.5897677 -9.589571 -1.1935199 0
-1.5640185 -9.6343441 -1.1984329 0
-1.532203 -9.6426506 -1.1988205 0
-1.50295 -9.6675816 -1.2012868 0
-1.4652165 -9.6376295 -1.1969478 0
-1.434429 -9.6528101 -1.1982292 0
-1.4034381 -9.6670799 -1.1994096 0
-1.3753921 -9.7025843 -1.2032359 0
-1.3464903 -9.7334318 -1.2064947 0
-1.3066528 -9.6845598 -1.1998869 0
-1.2737978 -9.6860189 -1.1995318 0
-1.2410215 -9.6879416 -1.199248 0
-1.2116863 -9.7173386 -1.2023773 0
-1.1764575 -9.6995687 -1.1996837 0
-1.1441675 -9.7054729 -1.1999327 0
-1.1129059 -9.7204809 -1.2013202 0
-1.08444 -9.761344 -1.2059143 0
-1.0487922 -9.7378721 -1.2025733 0
-1.013974 -9.7205973 -1.2000133 0
-0.98383856 -9.748333 -1.2030233 0
-0.94798487 -9.7191401 -1.1990217 0
-0.91533613 -9.7216587 -1.1989471 0
-0.88395751 -9.7381287 -1.200606 0
-0.85493898 -9.782649 -1.2057347 0
-0.81522048 -9.7031622 -1.1955942 0
-0.78618896 -9.7493172 -1.2009497 0
-0.75186348 -9.7307577 -1.1983463 0
-0.7211929 -9.7597351 -1.2016103 0
-0.68837893 -9.7608604 -1.2014579 0
-0.65455276 -9.7467928 -1.1994495 0
-0.62223697 -9.7546864 -1.2001574 0
-0.59004933 -9.7653484 -1.2012191 0
-0.55752093 -9.7710629 -1.2016852 0
-0.52536345 -9.7841673 -1.2030735 0
-0.49066368 -9.7482767 -1.1984513 0
-0.45884195 -9.7682848 -1.2007153 0
-0.42730695 -9.7977142 -1.2041498 0
-0.39454523 -9.801342 -1.2044263 0
-0.36008164 -9.759264 -1.1991005 0
-0.32935518 -9.8199444 -1.2064137 0
-0.29702234 -9.8406534 -1.2088288 0
-0.26209265 -9.7694988 -1.1999733 0
-0.22972234 -9.7867861 -1.2019954 0
-0.19612184 -9.7484341 -1.1971976 0
-0.16510619 -9.8486595 -1.2094314 0
-0.13059518 -9.7380981 -1.1957939 0
-0.098787613 -9.8223171 -1.2060881 0
-0.065290578 -9.7384539 -1.1957569 0
-0.032567441 -9.7172632 -1.1931348 0
1.2924929e-05 -9.7414675 -1.1961 0
0.032767098 -9.7691011 -1.1994998 0
0.065599114 -9.7806025 -1.2009323 0
0.098357663 -9.776988 -1.2005222 0
0.13135593 -9.7928867 -1.2025217 0
0.16399896 -9.781065 -1.2011307 0
0.19765247 -9.8232193 -1.206382 0
0.22895458 -9.7529745 -1.1978428 0
0.26174447 -9.7555542 -1.1982608 0
0.29447123 -9.7552748 -1.1983409 0
0.32702455 -9.7496824 -1.1977819 0
0.36167228 -9.8016691 -1.2043109 0
0.39124271 -9.7186594 -1.1942661 0
0.42584088 -9.763504 -1.1999454 0
0.46160963 -9.8266497 -1.2078896 0
0.48913333 -9.7173586 -1.1946504 0
0.52545661 -9.7854156 -1.2032272 0
0.55551726 -9.7354918 -1.1973108 0
0.58972913 -9.7596197 -1.2005144 0
0.62107718 -9.7360983 -1.1978706 0
0.65358633 -9.7320156 -1.1976311 0
0.68963122 -9.7782469 -1.2035983 0
0.71984434 -9.7411337 -1.1993203 0
0.75555551 -9.778203 -1.2041894 0
0.78732026 -9.7630234 -1.2026383 0
0.81623513 -9.7149296 -1.1970444 0
0.85088885 -9.7360067 -1.1999862 0
0.8831948 -9.7294388 -1.199535 0
0.91950721 -9.7656813 -1.2043766 0
0.94610637 -9.6996136 -1.1966132 0
0.98053247 -9.7153168 -1.1989492 0
1.0145713 -9.7260742 -1.2006898 0
1.0442841 -9.6957741 -1.1973747 0
1.0750481 -9.6765718 -1.1954418 0
1.1154063 -9.7420912 -1.2039913 0
1.1490231 -9.7464371 -1.2049978 0
1.1772443 -9.7058401 -1.2004597 0
1.2093529 -9.6984167 -1.2000363 0
1.2382095 -9.6657867 -1.1965058 0
1.2741058 -9.6881618 -1.1997976 0
1.3002279 -9.6367474 -1.1939636 0
1.3334011 -9.6386242 -1.1947434 0
1.3714066 -9.674284 -1.1997267 0
1.3984954 -9.6328535 -1.1951636 0
1.441487 -9.7001286 -1.2041035 0
1.4666266 -9.6467333 -1.1980789 0
1.4994247 -9.6447372 -1.1984487 0
1.5280576 -9.6163979 -1.1955571 0
1.5574141 -9.5934992 -1.1933528 0
1.5847098 -9.5589037 -1.1897036 0
1.6293703 -9.6281109 -1.1989903 0
1.6651936 -9.6431589 -1.2015527 0
1.6840479 -9.561058 -1.1920197 0
1.7314087 -9.6406269 -1.202657 0
1.7589048 -9.6084518 -1.1993721 0
1.7958028 -9.6276579 -1.2025143 0
1.8238161 -9.5991802 -1.1997144 0
1.8550234 -9.5880156 -1.1990895 0
1.9002942 -9.6484299 -1.207435 0
1.9180148 -9.5690737 -1.1983023 0
1.9449764 -9.5375271 -1.1951617 0
1.9836508 -9.5632915 -1.199217 0
2.0210099 -9.5817442 -1.2023737 0
2.0350435 -9.490592 -1.1917851 0
2.0855527 -9.5695238 -1.2025682 0
2.1304231 -9.620265 -1.2098355 0
2.1371844 -9.4998026 -1.1955807 0
2.1744273 -9.5162325 -1.1985593 0
2.1987455 -9.4762392 -1.1944439 0
2.2484124 -9.5448322 -1.2040333 0
2.2728856 -9.505805 -1.2000648 0
2.2921531 -9.4462433 -1.1935089 0
2.3371074 -9.492507 -1.2003374 0
2.3740547 -9.5051727 -1.2029388 0
2.3819077 -9.4024105 -1.1909375 0
2.4401183 -9.4983006 -1.2041129 0
2.465076 -9.4636745 -1.2007642 0
2.4899633 -9.4294949 -1.1974801 0
2.5336785 -9.4663544 -1.2032329 0
2.575654 -9.4955978 -1.2080408 0
2.5923412 -9.4318409 -1.2010286 0
2.6141796 -9.3880091 -1.1965566 0
2.6596282 -9.4287786 -1.2028826 0
2.6854928 -9.3997402 -1.20032 0
2.7152157 -9.3845396 -1.1995348 0
2.7530353 -9.3971272 -1.2023169 0
2.7882547 -9.4004135 -1.2039266 0
2.7994046 -9.3232298 -1.1952369 0
2.8451123 -9.3613844 -1.2013445 0
2.8803811 -9.3644648 -1.2029724 0
2.9099739 -9.3490095 -1.2022336 0
2.9366286 -9.3243589 -1.200323 0
2.9692287 -9.3187094 -1.2008705 0
2.9844885 -9.2591629 -1.1944798 0
3.0248301 -9.2776728 -1.1981692 0
3.0529375 -9.2584372 -1.1970001 0
3.096946 -9.2870846 -1.2020397 0
3.1263039 -9.2714214 -1.2013624 0
3.1524165 -9.2463531 -1.199477 0
3.1795499 -9.2245626 -1.1980263 0
3.2134137 -9.2223263 -1.1991284 0
3.2372246 -9.1913643 -1.1965072 0
3.2885001 -9.2379818 -1.2040043 0
3.2925715 -9.1521788 -1.1942534 0
3.3211951 -9.1354666 -1.193519 0
3.3818834 -9.2061567 -1.2042291 0
3.4066498 -9.1783829 -1.2020833 0
3.422411 -9.1269255 -1.1968402 0
3.465467 -9.1483297 -1.2011639 0
3.4911809 -9.1237516 -1.1994669 0
3.5106716 -9.0833273 -1.1956933 0
3.5478935 -9.088892 -1.1979849 0
3.5956628 -9.1208696 -1.2037821 0
3.6098449 -9.0676222 -1.1983451 0
3.6389194 -9.0522165 -1.1979147 0
3.6760006 -9.0565977 -1.2001188 0
3.7037313 -9.0378437 -1.1992725 0
3.7178001 -8.9861889 -1.1940655 0
3.7655463 -9.0159044 -1.1996849 0
3.8015249 -9.0169172 -1.2015089 0
3.8351765 -9.0122061 -1.2025878 0
3.8623343 -8.9922266 -1.201643 0
3.8694839 -8.9262199 -1.1945494 0
3.9242411 -8.9700012 -1.2021624 0
3.9353626 -8.9139128 -1.1964071 0
3.9768221 -8.9266949 -1.1999056 0
4.0244842 -8.9528084 -1.2052226 0
4.026782 -8.8781996 -1.1969897 0
4.0937748 -8.9460478 -1.2079809 0
4.0976167 -8.8756733 -1.2003267 0
4.1391606 -8.8872395 -1.2037609 0
4.1427135 -8.817502 -1.1961896 0
4.193243 -8.8478498 -1.2022073 0
4.2161732 -8.8197021 -1.2002966 0
4.2509933 -8.816452 -1.2017874 0
4.2985034 -8.8391104 -1.2068337 0
4.3042512 -8.7759924 -1.2001796 0
4.3665915 -8.8281088 -1.2093022 0
4.3505297 -8.7219276 -1.1967486 0
4.3674231 -8.6827879 -1.1933807 0
4.4345069 -8.7430086 -1.2036943 0
4.4295721 -8.6611748 -1.1944658 0
4.4800267 -8.6878519 -1.2002096 0
4.5127192 -8.6796856 -1.201165 0
4.5423145 -8.6654968 -1.2013023 0
4.5539751 -8.6173544 -1.1967382 0
4.6116376 -8.6560879 -1.2042578 0
4.6194038 -8.6010485 -1.1987486 0
4.6887832 -8.6604424 -1.2092108 0
4.6896224 -8.5930529 -1.2019902 0
4.7153411 -8.5717087 -1.2012092 0
4.7380028 -8.5449371 -1.199677 0
4.7828426 -8.5580206 -1.2037586 0
4.7953115 -8.5131807 -1.1997061 0
4.8156333 -8.4826212 -1.1976682 0
4.8761063 -8.5224609 -1.2055948 0
4.8690553 -8.4443283 -1.1968446 0
4.9116111 -8.4525137 -1.2003322 0
4.9278374 -8.4153605 -1.1973956 0
4.9610114 -8.4072418 -1.1986003 0
4.9865432 -8.3861408 -1.197969 0
5.0306239 -8.3960648 -1.2017893 0
5.0426168 -8.3524351 -1.1979575 0
5.0828748 -8.3556709 -1.2008592 0
5.112112 -8.3406229 -1.201153 0
5.1373696 -8.3190994 -1.2005273 0
5.1969361 -8.3527822 -1.2078958 0
5.1793408 -8.2626114 -1.1973606 0
5.2217326 -8.2685051 -1.200745 0
5.2300363 -8.2204742 -1.1963098 0
5.2666268 -8.2170258 -1.1983709 0
5.3015409 -8.2107725 -1.2000445 0
5.345314 -8.2179708 -1.2037092 0
5.3453679 -8.1580791 -1.1975551 0
5.3728833 -8.1404037 -1.1975981 0
5.4056187 -8.1305742 -1.1988117 0
5.4115286 -8.0805693 -1.1941073 0
5.4801955 -8.1240568 -1.2032421 0
5.5127754 -8.1135435 -1.2044157 0
5.5182009 -8.0632381 -1.199688 0
5.5099645 -7.993567 -1.1920638 0
5.5786266 -8.0353899 -1.2010833 0
5.5847511 -7.9869146 -1.1966296 0
5.618216 -7.9776845 -1.1980622 0
5.6658096 -7.9882379 -1.2024932 0
5.6781449 -7.9490147 -1.1994479 0
5.695734 -7.9173794 -1.1975492 0
5.7442665 -7.9286308 -1.2021574 0
5.7566199 -7.8898678 -1.1991998 0
5.7702789 -7.8531542 -1.1965535 0
5.8014021 -7.8402843 -1.1975495 0
5.8669391 -7.8735075 -1.2056218 0
5.8362155 -7.7777119 -1.1939429 0
5.8840256 -7.7869053 -1.1983758 0
5.8987136 -7.7521682 -1.1960669 0
5.9062581 -7.7083154 -1.1923496 0
5.9750834 -7.7442193 -1.2009954 0
5.9825788 -7.7004128 -1.1973058 0
6.0130615 -7.686317 -1.1982421 0
6.0346913 -7.6608992 -1.197427 0
6.0711741 -7.6542783 -1.1995672 0
6.160677 -7.7138567 -1.2121345 0
6.1353655 -7.6295629 -1.2021145 0
6.1541667 -7.6006198 -1.2007985 0
6.1381216 -7.5290465 -1.1927356 0
6.2149439 -7.5713019 -1.2027239 0
6.2488041 -7.5607181 -1.2043639 0
6.2554007 -7.517231 -1.200771 0
6.2545862 -7.4652033 -1.1958033 0
6.318634 -7.4904876 -1.2032402 0
6.3255801 -7.4479098 -1.1998008 0
6.3752213 -7.4555516 -1.2044684 0
6.3907824 -7.4232159 -1.2026994 0
6.3891807 -7.3712268 -1.1977401 0
6.4461355 -7.3867493 -1.2037674 0
6.4544554 -7.346417 -1.2007147 0
6.4761648 -7.3214736 -1.2001801 0
6.5040407 -7.3034973 -1.2008011 0
6.5277352 -7.2808061 -1.2006621 0
6.5376105 -7.2428155 -1.1980052 0
6.602571 -7.2656574 -1.2054383 0
6.581121 -7.1934476 -1.1971121 0
6.6103945 -7.1769791 -1.198053 0
6.6449661 -7.1661482 -1.1999575 0
6.6712337 -7.1462688 -1.2003673 0
6.732389 -7.1634784 -1.2070428 0
6.7056332 -7.0872421 -1.1979786 0
6.7338629 -7.0694494 -1.1987807 0
6.7595148 -7.0489049 -1.1991333 0
6.7980013 -7.041626 -1.2017657 0
6.7841606 -6.9803009 -1.1951748 0
6.8355865 -6.9861946 -1.2001013 0
6.8566842 -6.9609151 -1.1997011 0
6.9013948 -6.9594769 -1.2034346 0
6.9032907 -6.9148641 -1.1997156 0
6.9407997 -6.9059711 -1.2022035 0
6.9589925 -6.8777962 -1.2013538 0
6.9395609 -6.8127484 -1.1940491 0
7.0078692 -6.8338184 -1.2018534 0
7.0068259 -6.7871175 -1.197765 0
7.0472116 -6.7805872 -1.2007757 0
7.067131 -6.7542691 -1.2003044 0
7.0643635 -6.7064486 -1.1960086 0
7.1106315 -6.7051892 -1.200029 0
7.1477804 -6.695087 -1.2025033 0
7.1664968 -6.6676502 -1.2018844 0
7.1694283 -6.6256714 -1.1986436 0
7.2140298 -6.6221838 -1.2023816 0
7.2570868 -6.6170106 -1.2058535 0
7.2272058 -6.5455232 -1.197235 0
7.2610831 -6.5320253 -1.1992123 0
7.2744884 -6.5000892 -1.1978202 0
7.2933192 -6.4730692 -1.1973405 0
7.3427496 -6.4730592 -1.2018857 0
7.3386331 -6.4258318 -1.1976787 0
7.3529601 -6.3949494 -1.1965109 0
7.4070196 -6.3984733 -1.20181 0
7.438159 -6.3819494 -1.2033839 0
7.4194899 -6.322866 -1.1969271 0
7.4306731 -6.2895117 -1.1953225 0
7.4882431 -6.2952681 -1.2011813 0
7.5229559 -6.2815218 -1.2033645 0
7.5677342 -6.2759681 -1.2071545 0
7.5535669 -6.2215939 -1.2015604 0
7.5560064 -6.1811991 -1.1986451 0
7.5663109 -6.1473989 -1.1970034 0
7.6175528 -6.1467471 -1.2018428 0
7.6258926 -6.1113739 -1.199919 0
7.6441174 -6.0840025 -1.1995702 0
7.6676016 -6.060812 -1.2000599 0
7.7149501 -6.0563211 -1.2042855 0
7.7272778 -6.0242343 -1.2030503 0
7.7752099 -6.0197983 -1.2073636 0
7.7453847 -5.9552789 -1.1996249 0
7.7370405 -5.9076929 -1.195258 0
7.8006597 -5.9149723 -1.2020156 0
7.8253784 -5.892498 -1.2027736 0
7.8104553 -5.8403287 -1.1974634 0
7.8371773 -5.8194437 -1.1985621 0
7.8797307 -5.8101568 -1.2020839 0
7.8708029 -5.7629371 -1.1977676 0
7.9294348 -5.7651281 -1.2037419 0
7.927134 -5.7229266 -1.200473 0
7.9650779 -5.7097931 -1.2033132 0
7.9557242 -5.6628036 -1.199025 0
7.9632273 -5.6280131 -1.1973052 0
8.0244207 -5.6310139 -1.2036605 0
7.9867568 -5.564713 -1.1952056 0
7.9784851 -5.5193057 -1.1911917 0
8.0155153 -5.5052791 -1.1939579 0
8.0371056 -5.4805398 -1.1944301 0
8.0550613 -5.4533086 -1.1943744 0
8.155385 -5.4814425 -1.2065183 0
8.1393881 -5.4311614 -1.2014509 0
8.1214542 -5.3799286 -1.1961344 0
8.1608858 -5.3667674 -1.199285 0
8.1744537 -5.3365159 -1.1986427 0
8.2159243 -5.3243885 -1.2020993 0
8.2044497 -5.277976 -1.1978246 0
8.2007446 -5.2368016 -1.1947135 0
8.2596502 -5.2355146 -1.2007309 0
8.259861 -5.1969094 -1.1982218 0
8.2923174 -5.1786032 -1.2004046 0
8.3197622 -5.1570497 -1.2018678 0
8.3445835 -5.1337881 -1.2029603 0
8.3468676 -5.0966949 -1.2008193 0
8.3285265 -5.0472383 -1.1957394 0
8.3374424 -5.0144982 -1.1945988 0
8.4163675 -5.0236182 -1.2034872 0
8.4235315 -4.989666 -1.2021127 0
8.410718 -4.944057 -1.1979116 0
8.4370613 -4.921555 -1.1993068 0
8.4580517 -4.8958654 -1.1999505 0
8.4451962 -4.8506947 -1.1958125 0
8.493866 -4.840848 -1.200399 0
8.5628624 -4.8422084 -1.2078488 0
8.5503511 -4.7973695 -1.2038083 0
8.508378 -4.736383 -1.1956564 0
8.5307913 -4.7114635 -1.1965796 0
8.597435 -4.7107215 -1.2037052 0
8.5923128 -4.6705265 -1.2007889 0
8.6039991 -4.639575 -1.2002413 0
8.6414728 -4.6224518 -1.2033001 0
8.6676216 -4.5991297 -1.2047873 0
8.65767 -4.556715 -1.2012737 0
8.6028786 -4.4911079 -1.1915753 0
8.6883554 -4.4987254 -1.2013185 0
8.6913795 -4.4634023 -1.1996608 0
8.7214909 -4.4419756 -1.2017546 0
8.7632771 -4.4263177 -1.2054608 0
8.6786432 -4.3471093 -1.1918069 0
8.6994791 -4.3211212 -1.192672 0
8.7303705 -4.3000321 -1.1949238 0
8.7135458 -4.2555032 -1.1906615 0
8.7835369 -4.2532711 -1.1982701 0
8.811471 -4.2303863 -1.2001392 0
8.8666382 -4.2203503 -1.205719 0
8.7634315 -4.1352439 -1.1897924 0
8.8458929 -4.1379499 -1.1990978 0
8.886775 -4.1208148 -1.2027599 0
8.8485508 -4.0670991 -1.1957341 0
8.9142771 -4.0611629 -1.2027692 0
8.9394493 -4.0364923 -1.2043327 0
5.1244936 -2.2932453 -0.68933785 0
5.1525083 -2.285078 -0.69207186 0
5.1265759 -2.2530389 -0.68757021 0
5.1174693 -2.2285948 -0.68534285 0
5.1493206 -2.2219565 -0.68860686 0
5.1819267 -2.2154467 -0.69196999 0
5.169456 -2.1896441 -0.68932045 0
5.1636438 -2.1667922 -0.68757284 0
5.099196 -2.1196692 -0.67804104 0
5.1336989 -2.1138532 -0.68168271 0
5.1750069 -2.1105974 -0.68622428 0
5.1416149 -2.0768998 -0.68086916 0
5.2212763 -2.0887432 -0.69048691 0
5.2983046 -2.0989783 -0.69973892 0
5.2764511 -2.0698802 -0.69593227 0
5.3866796 -2.092309 -0.7095415 0
5.3610592 -2.0616977 -0.70525223 0
5.4523273 -2.0758393 -0.71633905 0
9.164731 -3.4541087 -1.2025548 0
9.1289139 -3.4056983 -1.19635 0
9.1532221 -3.3798499 -1.1980437 0
9.1661263 -3.3497353 -1.198256 0
9.217371 -3.3334737 -1.2034872 0
9.230505 -3.3032699 -1.2037492 0
9.2348433 -3.2699363 -1.2028785 0
9.1909227 -3.2197466 -1.1957449 0
9.2720547 -3.2133067 -1.2048917 0
9.2451677 -3.1693087 -1.2000102 0
9.245266 -3.1347413 -1.1986519 0
9.2717981 -3.1091163 -1.2007335 0
9.3275986 -3.0930765 -1.2066101 0
9.2709141 -3.0398161 -1.1979523 0
9.2905235 -3.0117853 -1.1991746 0
9.3607254 -2.9998977 -1.2069309 0
9.3057814 -2.947921 -1.1985655 0
9.3075638 -2.9141839 -1.1975299 0
9.3260641 -2.8856783 -1.1986586 0
9.3358145 -2.8544326 -1.198675 0
9.4007463 -2.8398552 -1.2057827 0
9.3675156 -2.7955775 -1.2003114 0
9.3414288 -2.7537165 -1.1957788 0
9.3987017 -2.736383 -1.2019291 0
9.3817778 -2.6973672 -1.1986016 0
9.4098244 -2.6713061 -1.2010337 0
9.4111834 -2.6376274 -1.2000718 0
9.3782759 -2.5945227 -1.1947596 0
9.4171019 -2.571305 -1.1986008 0
