# .PCD v0.7 - Point Cloud Data file format
VERSION 0.7
FIELDS x y z intensity
SIZE 4 4 4 4
TYPE F F F F
COUNT 1 1 1 1
WIDTH 1412
HEIGHT 1
VIEWPOINT 0 0 0 1 0 0 0
POINTS 1412
DATA ascii
-13.646501 3.6212215e-05 -1.1939123 0
-22.88063 -0.03841804 -1.1991229 0
-22.895588 -0.11520882 -1.1999203 0
-22.898867 -0.19200456 -1.2001191 0
-22.866838 -0.26841217 -1.198481 0
-22.900665 -0.34560487 -1.2003078 0
-22.922077 -0.42280322 -1.2014977 0
-22.907007 -0.49935949 -1.2007889 0
-22.8848 -0.57564628 -1.1997192 0
-22.898338 -0.65281612 -1.2005368 0
-22.895535 -0.72957075 -1.2005113 0
-22.857307 -0.80507529 -1.1986418 0
-22.930836 -0.88465279 -1.2026464 0
-22.853777 -0.95842868 -1.1987667 0
-22.859179 -1.0354438 -1.1992254 0
-22.885036 -1.1135138 -1.200771 0
-22.862 -1.1892394 -1.1997648 0
-22.865561 -1.2663097 -1.2001677 0
-22.798929 -1.3393093 -1.1968994 0
-22.82839 -1.417859 -1.1986889 0
-22.8381 -1.4953457 -1.1994551 0
-22.812666 -1.5705122 -1.1983892 0
-22.834913 -1.648986 -1.1998416 0
-22.820879 -1.7249045 -1.1994013 0
-22.796091 -1.7999185 -1.198409 0
-22.764828 -1.8742728 -1.197089 0
-22.780533 -1.9524843 -1.1982524 0
-22.804014 -2.0315385 -1.1998391 0
-22.779654 -2.1063738 -1.1989222 0
-22.767708 -2.182282 -1.1986718 0
-22.795546 -2.2621067 -1.2005299 0
-22.77697 -2.3374085 -1.1999576 0
-22.77886 -2.4148068 -1.200477 0
-22.748898 -2.4887884 -1.199331 0
-22.789366 -2.5705674 -1.2019122 0
-22.739864 -2.6422262 -1.199762 0
-22.747675 -2.7204626 -1.2006484 0
-22.728748 -2.7955256 -1.2001375 0
-22.6532 -2.8633666 -1.1966485 0
-22.686768 -2.9449227 -1.1989366 0
-22.689537 -3.0226717 -1.1996117 0
-22.640249 -3.0933962 -1.1975476 0
-22.730007 -3.1833282 -1.202853 0
-22.647451 -3.2492251 -1.199054 0
-22.635895 -3.3250608 -1.1990256 0
-22.707644 -3.4134161 -1.2034256 0
-22.628822 -3.4791918 -1.1998599 0
-22.604435 -3.5530629 -1.1991917 0
-22.566805 -3.6247208 -1.1978334 0
-22.543911 -3.6986213 -1.1972697 0
-22.552681 -3.7777534 -1.1984013 0
-22.590702 -3.8620343 -1.2011031 0
-22.505789 -3.9252255 -1.1972814 0
-22.526743 -4.0067515 -1.199104 0
-22.586704 -4.0955887 -1.20302 0
-22.521984 -4.1618958 -1.2003093 0
-22.525911 -4.2407746 -1.2012696 0
-22.495201 -4.313138 -1.2003964 0
-22.53417 -4.3989906 -1.2032561 0
-22.43008 -4.4567924 -1.1984892 0
-22.421272 -4.533237 -1.1988239 0
-22.400547 -4.607275 -1.198535 0
-22.402859 -4.6860952 -1.1994926 0
-22.449902 -4.7745543 -1.2028617 0
-22.397575 -4.8419738 -1.2009212 0
-22.39617 -4.9203267 -1.2017236 0
-22.378061 -4.9950576 -1.2016438 0
-22.332222 -5.0634913 -1.2000873 0
-22.27984 -5.1302156 -1.19819 0
-22.229025 -5.1970568 -1.1963875 0
-22.31459 -5.29603 -1.2019416 0
-22.286213 -5.368289 -1.201376 0
-22.204966 -5.4275508 -1.1979704 0
-22.229464 -5.5125885 -1.2002825 0
-22.180639 -5.5794878 -1.1986495 0
-22.199514 -5.6634431 -1.200689 0
-22.180191 -5.7377882 -1.2006776 0
-22.139921 -5.8066382 -1.1995449 0
-22.14345 -5.8869834 -1.2007986 0
-22.135422 -5.9643822 -1.2014409 0
-22.092896 -6.0324473 -1.2002239 0
-22.018929 -6.0916529 -1.1973084 0
-22.027147 -6.1735063 -1.198874 0
-22.041464 -6.2573004 -1.2007884 0
-21.982304 -6.3202238 -1.1987131 0
-21.959518 -6.3934622 -1.1986327 0
-21.949753 -6.4705291 -1.1992772 0
-21.912252 -6.5394063 -1.1984195 0
-21.89455 -6.61415 -1.1986574 0
-21.920103 -6.7021523 -1.2012799 0
-21.87674 -6.7691817 -1.2001404 0
-21.834717 -6.8364797 -1.1990858 0
-21.869741 -6.9280443 -1.2022781 0
-21.797277 -6.9855909 -1.1995753 0
-21.794996 -7.065527 -1.2007468 0
-21.764385 -7.1363325 -1.2003717 0
-21.755095 -7.2141576 -1.2011865 0
-21.664429 -7.2648067 -1.1975187 0
-21.651382 -7.341279 -1.1981514 0
-21.636633 -7.4172544 -1.1987047 0
-21.621401 -7.4931383 -1.1992459 0
-21.659939 -7.5879326 -1.2027878 0
-21.562778 -7.6351595 -1.1988072 0
-21.542158 -7.7092381 -1.1990911 0
-21.543865 -7.7914305 -1.2006334 0
-21.523481 -7.8657608 -1.2009605 0
-21.468033 -7.9271894 -1.1993428 0
-21.455894 -8.0045547 -1.2001574 0
-21.442839 -8.081687 -1.200936 0
-21.373243 -8.1374006 -1.1985595 0
-21.366575 -8.2169895 -1.1997237 0
-21.309381 -8.2771139 -1.1980639 0
-21.305273 -8.3578358 -1.1994016 0
-21.317373 -8.4451637 -1.2016701 0
-21.263149 -8.5062723 -1.2002144 0
-21.269157 -8.5915117 -1.2021728 0
-21.165909 -8.6324625 -1.1979661 0
-21.199131 -8.7290249 -1.2014961 0
-21.145201 -8.7898502 -1.2001032 0
-21.163612 -8.8808393 -1.2028313 0
-21.019371 -8.9033117 -1.1963232 0
-21.035753 -8.9935532 -1.1989651 0
-21.006876 -9.0646334 -1.1990447 0
-21.037298 -9.1615505 -1.2025278 0
-20.950291 -9.207345 -1.1993121 0
-20.955559 -9.2936163 -1.2013907 0
-20.975233 -9.3866253 -1.2043161 0
-20.854336 -9.4165716 -1.1991806 0
-20.824999 -9.4875116 -1.1993161 0
-20.856464 -9.5864182 -1.2029725 0
-20.73595 -9.6153679 -1.1978742 0
-20.681839 -9.6746597 -1.1966153 0
-20.706001 -9.7707109 -1.1999021 0
-20.690311 -9.848259 -1.2008996 0
-20.582094 -9.8815279 -1.1965348 0
-20.625847 -9.9877653 -1.2010182 0
-20.531458 -10.027178 -1.197473 0
-20.510347 -10.102178 -1.1982106 0
-20.506859 -10.186037 -1.1999952 0
-20.495934 -10.266427 -1.2013633 0
-20.444063 -10.326332 -1.2003455 0
-20.350521 -10.364869 -1.196887 0
-20.357065 -10.454309 -1.1993268 0
-20.34675 -10.53537 -1.2007933 0
-20.335196 -10.615997 -1.2022052 0
-20.259075 -10.662848 -1.1998118 0
-20.232319 -10.735546 -1.2003523 0
-20.169529 -10.789048 -1.1987664 0
-20.14011 -10.860315 -1.1991754 0
-20.06794 -10.908406 -1.1970493 0
-20.121086 -11.02485 -1.2024175 0
-20.019451 -11.056596 -1.1985525 0
-20.028149 -11.149195 -1.2013044 0
-19.960236 -11.199216 -1.1994764 0
-19.917652 -11.263292 -1.1991801 0
-19.879038 -11.329588 -1.1991355 0
-19.841473 -11.396482 -1.1991677 0
-19.83448 -11.481076 -1.2010648 0
-19.746519 -11.518722 -1.1980703 0
-19.719587 -11.5918 -1.1987876 0
-19.696381 -11.667192 -1.1997482 0
-19.694782 -11.755626 -1.2020448 0
-19.615728 -11.797817 -1.1996274 0
-19.619749 -11.889995 -1.2023046 0
-19.507505 -11.911581 -1.1978668 0
-19.484179 -11.987206 -1.1988957 0
-19.485357 -12.078176 -1.2014533 0
-19.475203 -12.162457 -1.2033348 0
-19.422915 -12.220511 -1.2026289 0
-19.366573 -12.275891 -1.2016821 0
-19.319351 -12.336952 -1.2013117 0
-19.270405 -12.396849 -1.200846 0
-19.217203 -12.453918 -1.2001261 0
-19.20225 -12.535848 -1.2018102 0
-19.124454 -12.57671 -1.1995736 0
-19.069893 -12.632621 -1.1988013 0
-19.071501 -12.725894 -1.2015778 0
-19.03301 -12.792645 -1.2018484 0
-18.955975 -12.833344 -1.1996943 0
-18.96538 -12.932654 -1.2030269 0
-18.838678 -12.939002 -1.1977351 0
-18.817205 -13.017321 -1.199138 0
-18.794044 -13.094684 -1.200453 0
-18.768541 -13.170609 -1.201638 0
-18.712872 -13.225402 -1.200906 0
-18.640429 -13.268142 -1.1991051 0
-18.593655 -13.329 -1.1989644 0
-18.553968 -13.394954 -1.1992946 0
-18.511086 -13.458635 -1.1994326 0
-18.438007 -13.500234 -1.1976237 0
-18.428408 -13.588349 -1.1999526 0
-18.378721 -13.647072 -1.19969 0
-18.325487 -13.703102 -1.1992074 0
-18.275522 -13.761517 -1.1989504 0
-18.245739 -13.835195 -1.2000329 0
-18.195873 -13.893712 -1.1998103 0
-18.161018 -13.963738 -1.2005924 0
-18.115107 -14.025331 -1.2006592 0
-17.992197 -14.026907 -1.1956233 0
-18.037897 -14.160025 -1.2018081 0
-17.984327 -14.215688 -1.2014079 0
-17.934706 -14.274426 -1.2012835 0
-17.850075 -14.30509 -1.1988206 0
-17.793619 -14.358086 -1.1982554 0
-17.75161 -14.422726 -1.1986761 0
-17.723967 -14.499188 -1.2000854 0
-17.705873 -14.583752 -1.2021643 0
-17.637569 -14.627023 -1.2008498 0
-17.543545 -14.648598 -1.1977853 0
-17.500662 -14.712657 -1.1982187 0
-17.511755 -14.822477 -1.2023741 0
-17.41272 -14.839146 -1.1989837 0
-17.340046 -14.877862 -1.1974076 0
-17.337906 -14.977242 -1.2007207 0
-17.273191 -15.022762 -1.1997204 0
-17.223513 -15.081282 -1.1997752 0
-17.185118 -15.149757 -1.2006322 0
-17.104502 -15.180909 -1.1985494 0
-17.087631 -15.268664 -1.2009476 0
-17.026121 -15.316674 -1.2002271 0
-16.986446 -15.384338 -1.2010597 0
-16.938915 -15.444983 -1.2013537 0
-16.920416 -15.532331 -1.2037283 0
-16.783554 -15.510707 -1.1976848 0
-16.757059 -15.590714 -1.1995176 0
-16.715405 -15.656845 -1.2002869 0
-16.639357 -15.690678 -1.198597 0
-16.612446 -15.770863 -1.2004607 0
-16.587132 -15.852902 -1.2024654 0
-16.502285 -15.878022 -1.2001673 0
-16.45825 -15.942264 -1.2008454 0
-16.388966 -15.982006 -1.1996931 0
-16.332561 -16.034187 -1.1994928 0
-16.283682 -16.093771 -1.1998591 0
-16.231321 -16.14996 -1.1999841 0
-16.184711 -16.211931 -1.2005501 0
-16.149977 -16.285982 -1.2020172 0
-16.052576 -16.296682 -1.1988279 0
-16.007183 -16.359955 -1.1995275 0
-15.943095 -16.404121 -1.1988398 0
-15.878597 -16.447737 -1.1981298 0
-15.879011 -16.558916 -1.2023436 0
-15.779186 -16.565641 -1.1989838 0
-15.731337 -16.626677 -1.1995771 0
-15.674746 -16.678522 -1.1995192 0
-15.609713 -16.721315 -1.198826 0
-15.581244 -16.803411 -1.2009597 0
-15.495507 -16.823734 -1.1986923 0
-15.436203 -16.872522 -1.1984742 0
-15.409174 -16.956785 -1.200783 0
-15.351149 -17.007151 -1.200698 0
-15.286604 -17.05023 -1.2001141 0
-15.226388 -17.098061 -1.1998806 0
-15.191631 -17.174627 -1.2016727 0
-15.11297 -17.201572 -1.2000059 0
-15.056495 -17.253616 -1.2001081 0
-14.992891 -17.297459 -1.1996545 0
-14.974739 -17.394009 -1.2028615 0
-14.904016 -17.429708 -1.2018681 0
-14.835124 -17.467373 -1.2010286 0
-14.773238 -17.513176 -1.2007654 0
-14.709045 -17.556173 -1.2003255 0
-14.648168 -17.603069 -1.2001672 0
-14.578672 -17.639509 -1.1993121 0
-14.528481 -17.699293 -1.2000582 0
-14.450792 -17.7255 -1.1985433 0
-14.419148 -17.80827 -1.2008642 0
-14.34381 -17.837177 -1.1995639 0
-14.281429 -17.882044 -1.1993543 0
-14.198395 -17.900831 -1.1974146 0
-14.157282 -17.972435 -1.1990225 0
-14.095356 -18.017771 -1.1988875 0
-14.069854 -18.109962 -1.2018762 0
-13.98229 -18.122345 -1.19958 0
-13.927239 -18.176678 -1.2000787 0
-13.858343 -18.212921 -1.1993971 0
-13.799816 -18.262743 -1.1996244 0
-13.726036 -18.29229 -1.1985356 0
-13.673047 -18.349506 -1.1992739 0
-13.617342 -18.403212 -1.1997932 0
-13.566885 -18.464174 -1.2007954 0
-13.521537 -18.532358 -1.2022746 0
-13.447272 -18.560951 -1.2011979 0
-13.389551 -18.612309 -1.2016094 0
-13.291249 -18.606945 -1.1983795 0
-13.27142 -18.711508 -1.2022413 0
-13.210807 -18.759022 -1.2024413 0
-13.102035 -18.737705 -1.1982524 0
-13.061673 -18.81399 -1.2003235 0
-12.999392 -18.858942 -1.2004039 0
-12.937471 -18.904442 -1.2005323 0
-12.870679 -18.942802 -1.2002212 0
-12.805962 -18.984167 -1.200115 0
-12.743804 -19.029333 -1.2002623 0
-12.677954 -19.068981 -1.2000753 0
-12.630313 -19.136175 -1.2016321 0
-12.551958 -19.156858 -1.2002815 0
-12.484934 -19.194647 -1.2000197 0
-12.419824 -19.23534 -1.1999537 0
-12.323858 -19.227877 -1.1969037 0
-12.282516 -19.305544 -1.1991682 0
-12.241411 -19.384134 -1.2014936 0
-12.1775 -19.426901 -1.201607 0
-12.082357 -19.4195 -1.1986368 0
-12.040851 -19.498232 -1.2009978 0
-11.940739 -19.481928 -1.1975209 0
-11.872479 -19.51713 -1.1972311 0
-11.845922 -19.621338 -1.2011805 0
-11.741721 -19.596941 -1.1972702 0
-11.694871 -19.668018 -1.1992102 0
-11.62346 -19.697964 -1.1986532 0
-11.581916 -19.778774 -1.2012008 0
-11.49769 -19.786783 -1.1993393 0
-11.451219 -19.859795 -1.2014308 0
-11.355107 -19.846584 -1.1983217 0
-11.290818 -19.888624 -1.1985676 0
-11.239499 -19.953758 -1.2002151 0
-11.154058 -19.958269 -1.1982303 0
-11.103786 -20.025684 -1.2000358 0
-11.053064 -20.092764 -1.201828 0
-10.965007 -20.091913 -1.1995714 0
-10.886316 -20.107758 -1.1983314 0
-10.84525 -20.193321 -1.2012569 0
-10.782957 -20.239841 -1.2018669 0
-10.692523 -20.233282 -1.1993417 0
-10.628046 -20.275543 -1.1997278 0
-10.561309 -20.31357 -1.1998758 0
-10.496081 -20.354567 -1.200212 0
-10.415008 -20.364674 -1.1987422 0
-10.352876 -20.411713 -1.1994611 0
-10.280546 -20.438686 -1.1990139 0
-10.220504 -20.490168 -1.200017 0
-10.137813 -20.496147 -1.1983697 0
-10.064889 -20.521566 -1.1978762 0
-10.008649 -20.581152 -1.1993887 0
-9.9609795 -20.658958 -1.20197 0
-9.8680677 -20.642893 -1.1991036 0
-9.7969389 -20.671934 -1.1988757 0
-9.7354364 -20.721397 -1.1998446 0
-9.6839027 -20.792562 -1.2020785 0
-9.57829 -20.747271 -1.1975967 0
-9.5246029 -20.814075 -1.1996028 0
-9.4547081 -20.845772 -1.1995958 0
-9.3755627 -20.856886 -1.1984197 0
-9.2891397 -20.851299 -1.1963024 0
-9.2487993 -20.949423 -1.2001462 0
-9.1824617 -20.989353 -1.2006633 0
-9.0959034 -20.982805 -1.1985375 0
-9.0500422 -21.070322 -1.2017963 0
-8.9665623 -21.070505 -1.2000854 0
-8.8785572 -21.059393 -1.1977503 0
-8.842804 -21.172617 -1.2024969 0
-8.7290726 -21.098951 -1.1966441 0
-8.6788139 -21.1782 -1.1994816 0
-8.5913696 -21.1668 -1.1971978 0
-8.5406199 -21.245903 -1.2000455 0
-8.456028 -21.240984 -1.1981595 0
-8.3933992 -21.291122 -1.1993936 0
-8.3135672 -21.297625 -1.1981829 0
-8.2517519 -21.350319 -1.1995841 0
-8.1891775 -21.401531 -1.2009121 0
-8.1078014 -21.403591 -1.1994957 0
-8.0425158 -21.448048 -1.2004691 0
-7.9514871 -21.423506 -1.1975965 0
-7.8947201 -21.491169 -1.1998925 0
-7.8289547 -21.534945 -1.2008643 0
-7.755568 -21.557903 -1.2006878 0
-7.686563 -21.593105 -1.2012063 0
-7.6020408 -21.584452 -1.1993003 0
-7.5227957 -21.590206 -1.1982118 0
-7.4580212 -21.637518 -1.1994431 0
-7.3957696 -21.692722 -1.2011218 0
-7.3154688 -21.695072 -1.1998872 0
-7.2364459 -21.700758 -1.198853 0
-7.1519008 -21.689278 -1.1968873 0
-7.1030698 -21.786531 -1.2009331 0
-7.037478 -21.833473 -1.2022133 0
-6.9512291 -21.816128 -1.1999682 0
-6.8805051 -21.847124 -1.2003975 0
-6.8010535 -21.850267 -1.1993105 0
-6.7219582 -21.854099 -1.1982771 0
-6.659759 -21.913076 -1.2002797 0
-6.596046 -21.967903 -1.2020646 0
-6.5025754 -21.923208 -1.1984193 0
-6.4491878 -22.013678 -1.2021761 0
-6.3649364 -21.999207 -1.2002137 0
-6.2896676 -22.015265 -1.1999325 0
-6.2130551 -22.02643 -1.1993989 0
-6.1335759 -22.027048 -1.198306 0
-6.062912 -22.059216 -1.1989434 0
-5.9894762 -22.08148 -1.1990552 0
-5.9249921 -22.137247 -1.2009979 0
-5.8549495 -22.172943 -1.2018628 0
-5.767282 -22.141415 -1.1990989 0
-5.7011747 -22.192394 -1.2008179 0
-5.6237278 -22.199512 -1.200176 0
-5.5516791 -22.227905 -1.200698 0
-5.4690294 -22.213524 -1.1989239 0
-5.3975596 -22.244261 -1.1995994 0
-5.3338871 -22.30798 -1.2020644 0
-5.2582965 -22.322485 -1.2018893 0
-5.1782489 -22.317686 -1.2006894 0
-5.1001706 -22.32082 -1.1999313 0
-5.026403 -22.34268 -1.2001936 0
-4.9603529 -22.399546 -1.2023482 0
-4.8805232 -22.394484 -1.2011914 0
-4.8045201 -22.406565 -1.2009686 0
-4.733161 -22.440531 -1.2019317 0
-4.6393824 -22.36702 -1.1971546 0
-4.5823197 -22.470501 -1.2018641 0
-4.4948478 -22.425335 -1.1986356 0
-4.4273171 -22.479284 -1.2007191 0
-4.3406324 -22.435644 -1.1976039 0
-4.2783761 -22.518442 -1.2012513 0
-4.1988888 -22.511415 -1.2001185 0
-4.1224937 -22.520477 -1.1998581 0
-4.0450201 -22.52335 -1.1992818 0
-3.9660594 -22.517361 -1.1982481 0
-3.8890615 -22.521965 -1.1977925 0
-3.8181617 -22.562262 -1.1992481 0
-3.7413723 -22.568174 -1.1988889 0
-3.6701918 -22.608356 -1.2003629 0
-3.5905616 -22.596571 -1.1990913 0
-3.5228364 -22.660307 -1.20184 0
-3.4455535 -22.663525 -1.2013912 0
-3.3669169 -22.657246 -1.2004532 0
-3.288331 -22.650488 -1.1995043 0
-3.2121742 -22.660006 -1.1994312 0
-3.1329925 -22.647596 -1.1982117 0
-3.0648272 -22.715677 -1.2012631 0
-2.9846506 -22.695425 -1.1996561 0
-2.9098117 -22.715227 -1.2001805 0
-2.8314517 -22.707342 -1.1992555 0
-2.7572095 -22.732433 -1.2000856 0
-2.683001 -22.758722 -1.2009919 0
-2.6021094 -22.727667 -1.198886 0
-2.5300303 -22.773502 -1.2008495 0
-2.4528017 -22.77388 -1.2004291 0
-2.3767123 -22.78467 -1.2005711 0
-2.305639 -22.84535 -1.2033544 0
-2.2231965 -22.793146 -1.2002052 0
-2.1461012 -22.793446 -1.1998353 0
-2.0696065 -22.799843 -1.1998 0
-1.9950111 -22.827936 -1.2009196 0
-1.9157194 -22.801851 -1.1992028 0
-1.8403902 -22.822184 -1.1999408 0
-1.7615726 -22.798603 -1.1983837 0
-1.687005 -22.829845 -1.1997219 0
-1.6148416 -22.897625 -1.2029924 0
-1.5358993 -22.870718 -1.2013016 0
-1.4560864 -22.82678 -1.1987305 0
-1.3826212 -22.882458 -1.2014041 0
-1.3029215 -22.834888 -1.1986705 0
-1.2256539 -22.826105 -1.1979871 0
-1.1501796 -22.851231 -1.1990966 0
-1.0724844 -22.832119 -1.1978981 0
-0.99892205 -22.904268 -1.2015011 0
-0.92165506 -22.89587 -1.2008917 0
-0.84394425 -22.873352 -1.1995555 0
-0.76760679 -22.886707 -1.2001141 0
-0.69103688 -22.89476 -1.2004081 0
-0.61388314 -22.882481 -1.1996497 0
-0.53817838 -22.927837 -1.2019262 0
-0.45884949 -22.807577 -1.1955346 0
-0.38373742 -22.890112 -1.1997867 0
-0.30657375 -22.860302 -1.1981636 0
-0.23073363 -22.94153 -1.2023736 0
-0.15349704 -22.894941 -1.1998981 0
-0.076784693 -22.910522 -1.2006946 0
3.044623e-05 -22.947201 -1.20261 0
0.076608352 -22.839823 -1.1969894 0
0.15339884 -22.871241 -1.1986562 0
0.23004837 -22.867361 -1.1984866 0
0.30655569 -22.854433 -1.1978561 0
0.38365033 -22.881294 -1.1993246 0
0.4609769 -22.910299 -1.2009192 0
0.53702241 -22.876003 -1.199209 0
0.61388391 -22.880247 -1.1995326 0
0.69051963 -22.875608 -1.1994041 0
0.7656976 -22.827976 -1.1970345 0
0.84358573 -22.861988 -1.1989596 0
0.92077374 -22.872467 -1.1996644 0
0.9968431 -22.855207 -1.1989276 0
1.0736458 -22.855551 -1.1991278 0
1.1493087 -22.832722 -1.1981254 0
1.2256044 -22.824053 -1.1978794 0
1.3052113 -22.873951 -1.2007213 0
1.38047 -22.845848 -1.1994822 0
1.4565765 -22.833511 -1.1990842 0
1.5327927 -22.823555 -1.1988244 0
1.6108036 -22.839504 -1.1999391 0
1.6884362 -22.848389 -1.2006966 0
1.7610726 -22.791344 -1.1980025 0
1.8425719 -22.84848 -1.2013236 0
1.9167824 -22.813778 -1.1998303 0
1.991137 -22.782909 -1.1985512 0
2.0667176 -22.767347 -1.1980903 0
2.1485751 -22.819071 -1.2011844 0
2.2184727 -22.744091 -1.1976223 0
2.2958803 -22.748053 -1.1982296 0
2.3774147 -22.790819 -1.2008954 0
2.4514983 -22.761211 -1.1997616 0
2.5290844 -22.764439 -1.200372 0
2.5982864 -22.693743 -1.1970968 0
2.6828651 -22.757051 -1.200904 0
2.7613399 -22.765982 -1.2018571 0
2.8345339 -22.731569 -1.2005355 0
2.9072843 -22.695019 -1.1991132 0
2.9836926 -22.687675 -1.1992469 0
3.060709 -22.6847 -1.1996254 0
3.1463177 -22.743477 -1.2032847 0
3.207243 -22.624786 -1.1975675 0
3.2865829 -22.638025 -1.1988447 0
3.3656368 -22.648218 -1.1999754 0
3.4433241 -22.648455 -1.2005929 0
3.5096266 -22.574944 -1.197313 0
3.5995083 -22.652487 -1.202059 0
3.6774945 -22.652962 -1.2027317 0
3.7358043 -22.534218 -1.1970855 0
3.8188016 -22.565678 -1.1994302 0
3.8965402 -22.564917 -1.2000774 0
3.9622865 -22.49559 -1.1970901 0
4.0505376 -22.553728 -1.2009 0
4.121654 -22.515553 -1.1995963 0
4.1913042 -22.470419 -1.1979337 0
4.2697458 -22.472694 -1.1988114 0
4.3450017 -22.457907 -1.1987929 0
4.4278693 -22.481775 -1.2008528 0
4.4958868 -22.43021 -1.1988969 0
4.5720072 -22.419624 -1.1991436 0
4.6561794 -22.447701 -1.2014736 0
4.7182922 -22.369741 -1.198141 0
4.7984419 -22.37793 -1.1994344 0
4.8748956 -22.368376 -1.1997917 0
4.9517403 -22.360373 -1.2002462 0
5.0251145 -22.336676 -1.1998718 0
5.1005139 -22.322052 -1.1999981 0
5.1763797 -22.309362 -1.2002423 0
5.2479911 -22.278473 -1.1995203 0
5.3365126 -22.318699 -1.2026428 0
5.4040294 -22.270664 -1.2010241 0
5.4621406 -22.185291 -1.1974009 0
5.5563059 -22.24618 -1.2016859 0
5.6205134 -22.186575 -1.1994774 0
5.6877599 -22.139933 -1.1979799 0
5.776206 -22.175434 -1.2009422 0
5.8523064 -22.162695 -1.2013081 0
5.9222713 -22.126848 -1.2004346 0
5.9838047 -22.060337 -1.197908 0
6.0796032 -22.119715 -1.2022325 0
6.1376901 -22.041597 -1.1990983 0
6.2015319 -21.985355 -1.1971631 0
6.2993608 -22.048971 -1.2017705 0
6.3745151 -22.032093 -1.2020087 0
6.4290919 -21.944866 -1.1984192 0
6.5105786 -21.949978 -1.1998836 0
6.5873494 -21.938728 -1.2004693 0
6.6571546 -21.904295 -1.1997998 0
6.745647 -21.930908 -1.2024895 0
6.7975836 -21.838917 -1.1986885 0
6.8688388 -21.809879 -1.198352 0
6.9600401 -21.84358 -1.2014792 0
7.0181241 -21.773232 -1.1988972 0
7.09197 -21.752289 -1.1990466 0
7.1771212 -21.76557 -1.2010983 0
7.2388411 -21.70775 -1.1992403 0
7.306191 -21.667368 -1.1983559 0
7.3936157 -21.686216 -1.2007627 0
7.4616876 -21.64797 -1.2000235 0
7.5592508 -21.694647 -1.2040092 0
7.6140738 -21.618435 -1.2011896 0
7.670218 -21.547009 -1.1986431 0
7.7662396 -21.587385 -1.2023311 0
7.8170204 -21.501938 -1.1990249 0
7.894043 -21.489149 -1.1997809 0
7.9673977 -21.4662 -1.1999843 0
8.0329542 -21.422377 -1.1990335 0
8.1279459 -21.456596 -1.2024673 0
8.185544 -21.391865 -1.200371 0
8.2470903 -21.338087 -1.1988982 0
8.3385715 -21.361515 -1.2017785 0
8.3948917 -21.294743 -1.1995988 0
8.4784184 -21.297062 -1.201324 0
8.5334158 -21.227819 -1.1990254 0
8.590251 -21.163883 -1.1970341 0
8.6882553 -21.201078 -1.2007787 0
8.7507505 -21.15119 -1.1996081 0
8.8311424 -21.144537 -1.2009033 0
8.9162464 -21.148632 -1.2028271 0
8.98703 -21.118446 -1.2028172 0
9.0438375 -21.055721 -1.200965 0
9.1258097 -21.051641 -1.2024708 0
9.1704035 -20.961639 -1.1990793 0
9.2479095 -20.947258 -1.2000235 0
9.3081064 -20.893724 -1.1987379 0
9.3846664 -20.876991 -1.1995764 0
9.4443274 -20.822737 -1.1982716 0
9.5093336 -20.780563 -1.1976728 0
9.6114845 -20.819029 -1.2017403 0
9.6610622 -20.743376 -1.1992364 0
9.7440681 -20.739626 -1.2009016 0
9.831068 -20.743805 -1.2030454 0
9.8522396 -20.60964 -1.1971736 0
9.941946 -20.619345 -1.1996667 0
10.030289 -20.625511 -1.2019753 0
10.0769 -20.545919 -1.1992992 0
10.134389 -20.489088 -1.1979586 0
10.231732 -20.512541 -1.2013289 0
10.273349 -20.424242 -1.1981682 0
10.363737 -20.432995 -1.2007133 0
10.43212 -20.398001 -1.2007056 0
10.486407 -20.335674 -1.1990997 0
10.573755 -20.337378 -1.2012838 0
10.632244 -20.283422 -1.2001958 0
10.707534 -20.261557 -1.2010193 0
10.776703 -20.227974 -1.2011638 0
10.835341 -20.174744 -1.2001535 0
10.9253 -20.179632 -1.2026166 0
10.980306 -20.119818 -1.2012391 0
11.056753 -20.099344 -1.2022233 0
11.089235 -19.999317 -1.1984575 0
11.16225 -19.972801 -1.1991045 0
11.216673 -19.913111 -1.1977719 0
11.285838 -19.87973 -1.1980335 0
11.373636 -19.878847 -1.2002716 0
11.450995 -19.859285 -1.2014019 0
11.520595 -19.82608 -1.2017231 0
11.587835 -19.788763 -1.2018094 0
11.629482 -19.70805 -1.1992688 0
11.694141 -19.666674 -1.1991301 0
11.785051 -19.669142 -1.201683 0
11.826298 -19.588715 -1.1991851 0
11.931394 -19.613861 -1.2031668 0
11.966933 -19.524548 -1.2001426 0
12.027534 -19.476551 -1.1996644 0
12.096272 -19.44175 -1.2000121 0
12.140975 -19.368519 -1.1979978 0
12.21953 -19.349373 -1.1993409 0
12.29424 -19.32386 -1.2003078 0
12.386938 -19.326181 -1.2030251 0
12.395769 -19.197973 -1.1976247 0
12.486375 -19.196751 -1.2001534 0
12.539602 -19.137892 -1.1990952 0
12.616536 -19.115191 -1.2003165 0
12.650609 -19.027742 -1.197482 0
12.729114 -19.00729 -1.198874 0
12.786748 -18.955576 -1.1983097 0
12.865015 -18.934359 -1.1996883 0
12.92609 -18.887705 -1.1994716 0
12.980697 -18.831713 -1.198673 0
13.05931 -18.81048 -1.2001017 0
13.113396 -18.753847 -1.1992869 0
13.172579 -18.704634 -1.1989573 0
13.253045 -18.685497 -1.2005723 0
13.309581 -18.632504 -1.2000278 0
13.37985 -18.598719 -1.2007344 0
13.448308 -18.562277 -1.201286 0
13.509412 -18.515636 -1.201192 0
13.543727 -18.432554 -1.1987413 0
13.62005 -18.406769 -1.2000276 0
13.718479 -18.410374 -1.2032545 0
13.721937 -18.286726 -1.1981734 0
13.812166 -18.278988 -1.2006938 0
13.883972 -18.246502 -1.201611 0
13.924788 -18.173378 -1.1998633 0
13.974048 -18.111561 -1.1988686 0
14.04611 -18.079302 -1.1998438 0
14.10987 -18.036224 -1.2001178 0
14.201815 -18.02887 -1.2027901 0
14.229215 -17.939589 -1.2000098 0
14.267712 -17.864771 -1.1981983 0
14.36692 -17.865818 -1.2014925 0
14.404683 -17.790308 -1.1996557 0
14.502515 -17.788847 -1.2028292 0
14.514338 -17.681965 -1.198886 0
14.589869 -17.65296 -1.2002294 0
14.663651 -17.621582 -1.2014319 0
14.726958 -17.577459 -1.2017834 0
14.756096 -17.49276 -1.1993684 0
14.825998 -17.456533 -1.200286 0
14.905572 -17.431437 -1.2019899 0
14.910608 -17.319424 -1.1977066 0
15.000863 -17.306564 -1.2002885 0
15.069601 -17.268543 -1.2011492 0
15.118885 -17.208212 -1.2004719 0
15.151597 -17.129276 -1.1985024 0
15.238843 -17.111956 -1.2008586 0
15.265741 -17.026871 -1.1984727 0
15.335082 -16.989262 -1.1994379 0
15.40554 -16.952696 -1.2004963 0
15.414893 -16.84914 -1.1968162 0
15.509707 -16.839064 -1.1997874 0
15.552185 -16.771984 -1.1987165 0
15.637327 -16.750807 -1.2009435 0
15.719286 -16.725826 -1.2029243 0
15.718509 -16.613029 -1.1985955 0
15.800241 -16.587658 -1.2005804 0
15.84455 -16.522892 -1.1997309 0
15.91626 -16.486664 -1.2009684 0
15.934316 -16.395002 -1.1981764 0
16.017553 -16.370468 -1.2003014 0
16.070995 -16.315294 -1.2002001 0
16.085598 -16.220974 -1.1972224 0
16.165293 -16.192394 -1.1991065 0
16.21422 -16.132858 -1.1987166 0
16.275663 -16.085762 -1.1992652 0
16.345024 -16.046337 -1.2004049 0
16.391762 -15.984649 -1.1998947 0
16.433176 -15.917892 -1.1990128 0
16.486599 -15.862844 -1.1990234 0
16.57106 -15.83746 -1.2012974 0
16.594475 -15.753718 -1.199159 0
16.666582 -15.716267 -1.2005551 0
16.758286 -15.696926 -1.2033631 0
16.710611 -15.547417 -1.1961898 0
16.846748 -15.569027 -1.2021915 0
16.851345 -15.468843 -1.1988117 0
16.882231 -15.393216 -1.1973306 0
16.977758 -15.376388 -1.2004426 0
17.039392 -15.328531 -1.2011598 0
17.113405 -15.291613 -1.2027563 0
17.148972 -15.220296 -1.2016625 0
17.164331 -15.131353 -1.1991773 0
17.255501 -15.10921 -1.2020007 0
17.257607 -15.009129 -1.1986352 0
17.34951 -14.987185 -1.2015215 0
17.380241 -14.91227 -1.2001805 0
17.403301 -14.831038 -1.1983323 0
17.426018 -14.749826 -1.1964846 0
17.550087 -14.754129 -1.2016 0
17.574635 -14.674479 -1.1999053 0
17.595049 -14.591681 -1.1979522 0
17.651169 -14.538615 -1.1984475 0
17.730932 -14.504808 -1.2005545 0
17.797766 -14.460148 -1.2017902 0
17.786348 -14.35214 -1.1977632 0
17.86298 -14.315353 -1.1996847 0
17.947348 -14.28441 -1.2021276 0
17.971405 -14.205395 -1.2005421 0
17.961702 -14.100135 -1.1967291 0
18.029451 -14.055873 -1.1980963 0
18.135883 -14.041339 -1.2020338 0
18.161404 -13.963957 -1.2006153 0
18.201612 -13.898019 -1.2001863 0
18.247555 -13.836494 -1.2001499 0
18.291103 -13.773173 -1.1999701 0
18.365753 -13.733135 -1.20184 0
18.36113 -13.633935 -1.1985394 0
18.397327 -13.565357 -1.1979265 0
18.44841 -13.507774 -1.198297 0
18.512375 -13.459497 -1.1995138 0
18.57177 -13.407729 -1.2004428 0
18.596169 -13.330727 -1.1991241 0
18.652494 -13.276655 -1.1998791 0
18.750597 -13.25199 -1.2033248 0
18.70599 -13.126641 -1.197631 0
18.779041 -13.084156 -1.1994926 0
18.84886 -13.039145 -1.2011529 0
18.901676 -12.982197 -1.2017382 0
18.924025 -12.90438 -1.2004014 0
18.964771 -12.839226 -1.2002487 0
19.015553 -12.780838 -1.2007439 0
19.04357 -12.707184 -1.199816 0
19.096401 -12.650107 -1.2004656 0
19.121622 -12.574774 -1.1993939 0
19.193195 -12.529864 -1.2012415 0
19.212421 -12.450747 -1.1998253 0
19.246073 -12.381124 -1.1993277 0
19.2992 -12.324013 -1.2000568 0
19.384003 -12.286867 -1.2027615 0
19.365463 -12.184293 -1.1990696 0
19.426672 -12.132077 -1.2003342 0
19.476419 -12.072564 -1.2009002 0
19.479429 -11.984212 -1.1986015 0
19.54653 -11.935339 -1.2002612 0
19.608747 -11.883256 -1.2016283 0
19.558674 -11.763433 -1.1961362 0
19.689478 -11.752389 -1.2017193 0
19.731644 -11.688009 -1.2018943 0
19.679224 -11.568003 -1.196332 0
19.780027 -11.538198 -1.2001015 0
19.831612 -11.479346 -1.2008893 0
19.823103 -11.385859 -1.1980556 0
19.871183 -11.325041 -1.1986599 0
19.912956 -11.260567 -1.1988956 0
20.000517 -11.221746 -1.2018952 0
20.048697 -11.160564 -1.2025352 0
20.058374 -11.078023 -1.200881 0
20.043076 -10.982038 -1.1977539 0
20.102163 -10.926939 -1.1990888 0
20.145027 -10.862899 -1.1994665 0
20.201382 -10.806018 -1.2006578 0
20.215773 -10.726698 -1.199369 0
20.267553 -10.667242 -1.2003123 0
20.281372 -10.587831 -1.1990216 0
20.320936 -10.521936 -1.1992682 0
20.344234 -10.447651 -1.1985692 0
20.41337 -10.396811 -1.2005819 0
20.428335 -10.31832 -1.1994205 0
20.517088 -10.276956 -1.2026018 0
20.492609 -10.17889 -1.1991597 0
20.594215 -10.143418 -1.2031085 0
20.576588 -10.049151 -1.2001036 0
20.629705 -9.9895668 -1.2012415 0
20.65173 -9.9148932 -1.2005814 0
20.652523 -9.8302059 -1.1987048 0
20.734785 -9.7842255 -1.2015686 0
20.708353 -9.6869955 -1.198148 0
20.798218 -9.6441746 -1.2014699 0
20.827356 -9.5729723 -1.2012922 0
20.815598 -9.4831619 -1.1987733 0
20.886534 -9.4310436 -1.2010307 0
5.1187725 -2.2906852 -0.29389963 0
5.1298885 -2.2750466 -0.29409823 0
5.1440821 -2.2607324 -0.29447576 0
5.1561828 -2.2454538 -0.29473582 0
5.1310635 -2.2140784 -0.29287401 0
5.1251392 -2.1911683 -0.29211485 0
5.1319389 -2.1737528 -0.29208538 0
5.131856 -2.1534531 -0.29166806 0
5.1060514 -2.122519 -0.2897954 0
5.1823974 -2.1339054 -0.29372072 0
5.1177664 -2.0872524 -0.28965941 0
5.1427212 -2.0773466 -0.29067597 0
5.2313914 -2.0927896 -0.29528949 0
5.2430367 -2.0770833 -0.29555207 0
5.3356171 -2.0930903 -0.30037355 0
5.3664989 -2.0844705 -0.30171698 0
5.3973064 -2.0756373 -0.30305606 0
5.4505806 -2.0751743 -0.305655 0
21.394506 -8.063406 -1.1982279 0
21.417732 -7.990253 -1.1980215 0
21.449261 -7.9201922 -1.1982929 0
21.558323 -7.8784289 -1.2029034 0
21.55727 -7.7962136 -1.2013794 0
21.572296 -7.7199583 -1.2007675 0
21.612534 -7.6527128 -1.2015723 0
21.606514 -7.5691524 -1.1998199 0
21.606621 -7.4879513 -1.1984249 0
21.664223 -7.4266481 -1.200232 0
21.716581 -7.3633223 -1.2017584 0
21.737301 -7.2891788 -1.2015457 0
21.796598 -7.2278566 -1.2034771 0
21.727564 -7.1241951 -1.1983399 0
21.826286 -7.0756063 -1.2024695 0
21.821955 -6.9934354 -1.2009323 0
21.79283 -6.903616 -1.1980489 0
21.809181 -6.8284211 -1.1976825 0
21.86241 -6.7646847 -1.1993533 0
21.870438 -6.686903 -1.198557 0
21.890015 -6.6127167 -1.1984081 0
21.969624 -6.5564642 -1.2015562 0
21.95698 -6.4725966 -1.199671 0
22.03116 -6.4142575 -1.2025423 0
22.027325 -6.3331051 -1.2011672 0
22.015585 -6.2498903 -1.1993777 0
22.045883 -6.1786947 -1.1998929 0
22.079962 -6.1084752 -1.2006263 0
22.092312 -6.0322247 -1.2001913 0
22.141747 -5.9660234 -1.2017834 0
22.110573 -5.8781805 -1.199015 0
22.157495 -5.8111844 -1.2004962 0
22.232502 -5.7512574 -1.2035085 0
22.201191 -5.6638083 -1.2007788 0
22.166594 -5.575892 -1.1978897 0
22.21357 -5.5085845 -1.1994236 0
22.260958 -5.4411745 -1.2009903 0
22.271078 -5.3645806 -1.2005593 0
22.303856 -5.2934198 -1.2013627 0
22.341576 -5.2233081 -1.2024443 0
22.300776 -5.1349735 -1.1993152 0
22.303961 -5.0570211 -1.1985677 0
22.34864 -4.9884286 -1.2000633 0
22.367624 -4.9139934 -1.2001911 0
22.433258 -4.8496256 -1.2028338 0
22.397787 -4.7634091 -1.2000688 0
22.377876 -4.6808071 -1.1981543 0
22.417894 -4.6107807 -1.1994625 0
22.435053 -4.5359612 -1.19956 0
22.448009 -4.4602928 -1.1994466 0
22.469391 -4.3862834 -1.1997964 0
22.524176 -4.3186316 -1.201942 0
22.519209 -4.2394505 -1.2009116 0
22.473766 -4.1529236 -1.1977389 0
22.519245 -4.0832944 -1.1994263 0
22.582563 -4.0166183 -1.2020748 0
22.578104 -3.9377766 -1.2011279 0
22.566811 -3.857888 -1.1998322 0
22.616678 -3.7884119 -1.2018015 0
22.615257 -3.7102652 -1.2010583 0
22.61418 -3.6322687 -1.2003474 0
22.625952 -3.5563834 -1.2003326 0
22.647942 -3.48207 -1.2008731 0
22.66704 -3.4072511 -1.2012733 0
22.680769 -3.3315911 -1.2014022 0
22.659536 -3.2508976 -1.1996933 0
22.684015 -3.1768258 -1.2004187 0
22.659401 -3.0959516 -1.1985601 0
22.703142 -3.0244229 -1.2003306 0
22.694952 -2.9459238 -1.1993687 0
22.751347 -2.875711 -1.2018327 0
22.709352 -2.7930787 -1.1991129 0
22.751026 -2.7208018 -1.200825 0
22.758112 -2.644285 -1.2007242 0
22.778543 -2.5692854 -1.2013409 0
22.738361 -2.4875746 -1.1987752 0
22.767202 -2.4135098 -1.1998622 0
22.78562 -2.3382351 -1.2004131 0
22.80435 -2.2629194 -1.2009933 0
22.785389 -2.1839156 -1.1996024 0
22.761963 -2.104677 -1.1979908 0
22.836636 -2.0343835 -1.2015553 0
22.834412 -1.9570409 -1.2010862 0
22.844172 -1.8807443 -1.201261 0
22.80769 -1.8007734 -1.1990184 0
22.854538 -1.7273878 -1.2011701 0
22.848539 -1.6499089 -1.2005574 0
22.848055 -1.5728875 -1.200248 0
22.877956 -1.4978943 -1.2015482 0
22.853909 -1.4193829 -1.2000285 0
22.852816 -1.3424139 -1.199728 0
22.89303 -1.2677702 -1.2016094 0
22.893661 -1.1908253 -1.2014261 0
22.862068 -1.1123354 -1.1995658 0
22.84766 -1.0348613 -1.198621 0
22.839737 -0.95777923 -1.1980301 0
22.879 -0.8825922 -1.1999277 0
22.907913 -0.80679685 -1.2012954 0
22.873634 -0.72881216 -1.199363 0
22.836296 -0.65098667 -1.197284 0
22.879593 -0.57545453 -1.1994461 0
22.862463 -0.49832773 -1.1984537 0
22.931944 -0.42292437 -1.2020148 0
22.934763 -0.34605861 -1.202095 0
22.891985 -0.2686466 -1.1997988 0
22.929901 -0.19220392 -1.2017456 0
22.915081 -0.1152461 -1.2009419 0
22.899446 -0.038388867 -1.200109 0
22.895761 0.03838269 -1.1999159 0
22.898052 0.11516046 -1.2000494 0
22.893604 0.19189969 -1.1998433 0
22.88316 0.26854303 -1.1993364 0
22.801271 0.34404436 -1.1950983 0
22.900318 0.42234111 -1.2003572 0
22.89488 0.49903432 -1.200153 0
22.893438 0.5758028 -1.2001719 0
22.909115 0.65306246 -1.2011018 0
22.907551 0.72989279 -1.2011412 0
22.883177 0.80592567 -1.1999983 0
22.886097 0.88286597 -1.2002999 0
22.909851 0.96071947 -1.2017078 0
22.874331 1.0360693 -1.2000202 0
22.803694 1.1094953 -1.1965029 0
22.872822 1.1897414 -1.2003325 0
22.895704 1.2679181 -1.2017497 0
22.839827 1.3416508 -1.1990461 0
22.910706 1.4229105 -1.2030109 0
22.87495 1.4976975 -1.2013903 0
22.875454 1.5747737 -1.2016873 0
22.828377 1.648453 -1.1994979 0
22.822676 1.7249795 -1.1994956 0
22.853291 1.8043739 -1.2014157 0
22.76737 1.8744214 -1.1972225 0
22.914534 1.963908 -1.2053006 0
22.841236 2.0347934 -1.2017972 0
22.783897 2.1067052 -1.1991452 0
22.720316 2.1776786 -1.1961764 0
22.83527 2.2659876 -1.2026217 0
22.820604 2.341825 -1.2022561 0
22.712835 2.4077466 -1.196997 0
22.745277 2.4883313 -1.1991398 0
22.787626 2.5703101 -1.20182 0
22.70495 2.6381083 -1.1979195 0
22.768524 2.7228947 -1.2017485 0
22.726307 2.7951641 -1.2000082 0
22.735855 2.8737531 -1.2010144 0
22.675535 2.943403 -1.1983424 0
22.692106 3.0229526 -1.1997471 0
22.6455 3.0940526 -1.1978248 0
1.9684919 0.27568117 -0.10417091 0
1.9374024 0.27795345 -0.10257442 0
1.9823042 0.2911818 -0.10500281 0
2.0606804 0.30975619 -0.10920881 0
2.0192759 0.31045914 -0.10706908 0
1.929828 0.30333346 -0.10237959 0
2.0175405 0.32405549 -0.10708987 0
1.9728674 0.32366914 -0.10477567 0
2.0394902 0.3416253 -0.10837412 0
1.9240052 0.32891652 -0.10229551 0
1.9817628 0.34563303 -0.10542738 0
1.9979577 0.35536417 -0.10635173 0
1.9729381 0.35774234 -0.10508318 0
2.0196197 0.37320521 -0.10763559 0
2.0118852 0.37875611 -0.10729045 0
2.0252573 0.38830897 -0.10807239 0
1.9472421 0.38012403 -0.10397675 0
2.0380127 0.40494165 -0.10889551 0
1.9853154 0.40139481 -0.10615109 0
2.0040796 0.41218734 -0.10722766 0
2.0341406 0.42548361 -0.10891178 0
2.0278187 0.43126267 -0.10865011 0
1.9625537 0.42426521 -0.10522885 0
1.9899987 0.43718725 -0.10677839 0
1.9973253 0.44582194 -0.10725112 0
2.0026381 0.45406213 -0.10761755 0
2.0044467 0.46154362 -0.10779729 0
2.0159049 0.47130486 -0.10849788 0
2.0102706 0.47710165 -0.10828012 0
2.0081367 0.48371309 -0.10825194 0
2.0751753 0.50722843 -0.1119568 0
2.0286837 0.50307876 -0.10953894 0
1.9854413 0.4994275 -0.10729388 0
1.9576037 0.49940977 -0.10587941 0
2.0235746 0.52347225 -0.10954184 0
1.9912591 0.52224195 -0.10788669 0
1.9692861 0.52354223 -0.1067907 0
2.038789 0.5493452 -0.11065897 0
2.0188639 0.55124342 -0.1096772 0
2.0457547 0.56596297 -0.11124053 0
2.0129862 0.56417 -0.10956094 0
2.0481668 0.58144343 -0.1115812 0
2.0741 0.59632719 -0.11310229 0
2.0204625 0.58824718 -0.11028434 0
1.9973264 0.58878261 -0.10912861 0
2.0304286 0.60594726 -0.11104761 0
2.0126407 0.60799515 -0.11018562 0
1.9951788 0.61002749 -0.10934101 0
1.9792105 0.61240888 -0.10857782 0
2.0379055 0.63806504 -0.1119145 0
2.0073094 0.63588321 -0.11035074 0
2.0167422 0.64631957 -0.11098781 0
2.0341923 0.65944082 -0.1120692 0
2.0239599 0.66363096 -0.11162741 0
2.0256641 0.67171991 -0.11184499 0
2.0206327 0.6775797 -0.111692 0
2.0402982 0.69179267 -0.1129066 0
2.0466959 0.70162177 -0.11339018 0
1.9924003 0.69048262 -0.11050975 0
2.0073216 0.703201 -0.11146751 0
1.987049 0.70358783 -0.11047214 0
2.0512743 0.73407823 -0.11417902 0
2.0843236 0.75379825 -0.11615865 0
1.9954959 0.7292484 -0.11134394 0
2.0648851 0.76246393 -0.11535769 0
2.0551362 0.76670384 -0.11495602 0
2.0571756 0.77533185 -0.11521486 0
2.0384567 0.77609217 -0.11431157 0
2.0229864 0.77797806 -0.11358967 0
2.0364044 0.79098582 -0.11449136 0
2.0517142 0.8048597 -0.11550318 0
1.9992073 0.79200667 -0.11269611 0
2.012908 0.80525291 -0.11361998 0
2.0138741 0.81348264 -0.11382782 0
2.0420201 0.83282644 -0.11557587 0
2.0675607 0.85133928 -0.11718232 0
2.0062706 0.83398056 -0.11386646 0
2.0419962 0.85687196 -0.11605648 0
2.0926728 0.88640058 -0.11910491 0
2.0710478 0.88544214 -0.11804242 0
2.025141 0.87385798 -0.11559223 0
2.101361 0.91511679 -0.12011722 0
2.0898032 0.91843122 -0.11963191 0
2.0697863 0.91792643 -0.11866155 0
2.086143 0.93356299 -0.11977805 0
2.0323486 0.91768068 -0.1168654 0
2.014462 0.9177478 -0.11601315 0
2.0124283 0.92498153 -0.11607399 0
2.0186002 0.9360289 -0.11661034 0
2.1279762 0.9954291 -0.12312087 0
2.1111996 0.99622226 -0.12234277 0
2.0906246 0.99509728 -0.12134313 0
2.1082265 1.0121592 -0.12256104 0
2.0516026 0.99345195 -0.1194622 0
2.0669975 1.0094758 -0.12055503 0
2.0922546 1.0305133 -0.12222896 0
2.0594568 1.0229535 -0.1205126 0
2.0897017 1.046726 -0.12248711 0
2.051125 1.03602 -0.12042888 0
2.0965886 1.0678215 -0.12330772 0
2.0479543 1.0517138 -0.12065408 0
2.0654676 1.0694742 -0.12189644 0
20.346373 10.621764 -1.2028644 0
20.25598 10.661151 -1.1996269 0
20.243631 10.74148 -1.2010217 0
20.158289 10.782968 -1.1980968 0
20.087242 10.831739 -1.1960258 0
20.110561 10.931504 -1.1995897 0
20.062218 10.992525 -1.1988978 0
20.038063 11.066806 -1.1996651 0
19.984522 11.12484 -1.1986859 0
19.941326 11.188537 -1.1983384 0
19.879316 11.241544 -1.1968702 0
19.889967 11.335747 -1.199793 0
19.827469 11.388367 -1.1983194 0
19.809143 11.46634 -1.1995287 0
19.762461 11.527951 -1.1990356 0
19.717052 11.59024 -1.1986316 0
19.683958 11.659763 -1.1989896 0
19.678921 11.746087 -1.2010748 0
19.650499 11.81866 -1.2017519 0
19.562532 11.855249 -1.1987964 0
19.508919 11.912373 -1.1979517 0
19.50787 12.00171 -1.2003515 0
19.467718 12.067171 -1.2003636 0
19.375475 12.100104 -1.1971709 0
19.363585 12.18311 -1.1989533 0
19.332722 12.254363 -1.1995796 0
19.261837 12.300153 -1.1977334 0
19.251865 12.384851 -1.1996887 0
19.246841 12.473053 -1.2019749 0
19.160049 12.508225 -1.199167 0
19.144705 12.589953 -1.2008418 0
19.07527 12.636109 -1.1991372 0
19.018974 12.690771 -1.1982664 0
19.030821 12.7911 -1.201708 0
18.956541 12.833653 -1.1997279 0
18.928938 12.907731 -1.2007133 0
18.859568 12.953275 -1.1990609 0
18.811312 13.01317 -1.1987602 0
18.8046 13.101964 -1.2011251 0
18.693911 13.118165 -1.1968576 0
18.723305 13.2327 -1.2015733 0
18.651762 13.276134 -1.1998318 0
18.622698 13.349744 -1.2008348 0
18.572857 13.408515 -1.2005131 0
18.535763 13.476502 -1.2010293 0
18.503372 13.548017 -1.201867 0
18.427219 13.587399 -1.199873 0
18.361643 13.634315 -1.1985729 0
18.35746 13.726934 -1.2012974 0
18.319256 13.794373 -1.2018172 0
18.276632 13.858542 -1.2020622 0
18.208273 13.903104 -1.2006254 0
18.117418 13.930139 -1.1977077 0
18.083427 14.000726 -1.198557 0
18.064123 14.082904 -1.2004004 0
18.048328 14.168138 -1.2025007 0
17.97571 14.208798 -1.2008297 0
17.891699 14.240119 -1.1984003 0
17.822931 14.283258 -1.196995 0
17.797863 14.361431 -1.1985387 0
17.807251 14.467854 -1.2024306 0
17.728609 14.502908 -1.2003971 0
17.707071 14.58466 -1.202243 0
17.648327 14.635864 -1.2015796 0
17.583572 14.681941 -1.2005155 0
17.531363 14.738388 -1.2003181 0
17.489014 14.803148 -1.2008098 0
17.441837 14.863879 -1.2009858 0
17.400908 14.930001 -1.2016076 0
17.343517 14.982008 -1.2011064 0
17.27776 15.026655 -1.2000349 0
17.212942 15.071945 -1.1990361 0
17.169853 15.13622 -1.1995629 0
17.164415 15.234003 -1.2027448 0
17.068621 15.251595 -1.1996087 0
17.049364 15.337502 -1.2018627 0
16.976517 15.375262 -1.2003547 0
16.952433 15.457227 -1.2023095 0
16.883774 15.498612 -1.2011187 0
16.812281 15.537172 -1.1997318 0
16.774378 15.606745 -1.2007544 0
16.712259 15.653815 -1.2000581 0
16.681044 15.729904 -1.2015969 0
16.599665 15.758645 -1.1995341 0
16.528563 15.796844 -1.1982167 0
16.514992 15.890164 -1.2010883 0
16.445967 15.930282 -1.199946 0
16.405054 15.997611 -1.2008678 0
16.319992 16.021763 -1.1985666 0
16.255455 16.065788 -1.1977762 0
16.199593 16.118303 -1.1976353 0
16.202616 16.229778 -1.201875 0
16.131416 16.267179 -1.2006326 0
16.076294 16.320675 -1.2005959 0
16.025623 16.378716 -1.200906 0
15.941528 16.402422 -1.1987187 0
15.893985 16.463591 -1.1992877 0
15.874793 16.55443 -1.2020209 0
15.786746 16.57349 -1.1995548 0
15.748765 16.645008 -1.2009027 0
15.686889 16.691355 -1.2004451 0
15.612741 16.72447 -1.1990552 0
15.595218 16.818392 -1.2020333 0
15.519468 16.849661 -1.2005424 0
15.446466 16.883652 -1.1992675 0
15.436708 16.986996 -1.2029251 0
15.314225 16.966154 -1.1978065 0
15.281423 17.044361 -1.1997038 0
15.244467 17.118269 -1.2013017 0
15.191608 17.174509 -1.2016673 0
15.125834 17.216122 -1.2010236 0
15.044614 17.23991 -1.1991575 0
15.019617 17.328201 -1.2017891 0
14.954489 17.370394 -1.2012312 0
14.905886 17.431803 -1.2020152 0
14.818882 17.448154 -1.1997099 0
14.729904 17.461712 -1.1972395 0
14.702932 17.548784 -1.1998228 0
14.644499 17.598566 -1.1998627 0
14.546442 17.600416 -1.1966568 0
14.528224 17.698883 -1.2000331 0
14.493189 17.777409 -1.2020558 0
14.403191 17.788465 -1.1995313 0
14.340239 17.83264 -1.1992612 0
14.26981 17.867397 -1.1983745 0
14.251416 17.967579 -1.2018821 0
14.179343 18.000343 -1.200887 0
14.127677 18.058987 -1.2016325 0
14.068568 18.10821 -1.2017622 0
13.961127 18.094816 -1.1977601 0
13.958291 18.217104 -1.2027502 0
13.865764 18.222572 -1.2000351 0
13.799659 18.262436 -1.1996067 0
13.724662 18.290358 -1.1984112 0
13.677608 18.355524 -1.1996697 0
13.627704 18.417114 -1.200702 0
13.556501 18.449938 -1.1998719 0
13.493594 18.493956 -1.1997856 0
13.430117 18.537169 -1.199661 0
13.372212 18.5881 -1.2000489 0
13.303478 18.62396 -1.1994776 0
13.234197 18.658922 -1.1988648 0
13.174438 18.707273 -1.1991266 0
13.133058 18.781967 -1.2010852 0
13.038619 18.780676 -1.1982002 0
12.984687 18.837502 -1.1990415 0
12.91505 18.871571 -1.198447 0
12.867238 18.93763 -1.1998956 0
12.779793 18.945265 -1.1976578 0
12.75002 19.038507 -1.2008431 0
12.673284 19.061848 -1.1996284 0
12.622587 19.124359 -1.2008923 0
12.559355 19.168037 -1.200984 0
12.466691 19.166489 -1.1982614 0
12.393559 19.19455 -1.1974111 0
12.366084 19.293646 -1.2009997 0
12.297845 19.329525 -1.2006599 0
12.212134 19.337662 -1.1986151 0
12.175488 19.423576 -1.2014034 0
12.109502 19.463013 -1.2013246 0
12.037604 19.492861 -1.2006689 0
11.960471 19.514006 -1.1994946 0
11.879579 19.528685 -1.1979418 0
11.818136 19.575195 -1.1983576 0
11.768218 19.641047 -1.1999667 0
11.705101 19.685104 -1.200254 0
11.630848 19.710365 -1.1994097 0
11.558004 19.737822 -1.1987156 0
11.518259 19.82206 -1.2014794 0
11.46318 19.880417 -1.2026801 0
11.364947 19.863661 -1.1993546 0
11.272021 19.855392 -1.1965667 0
11.235352 19.94627 -1.1997665 0
11.169487 19.98575 -1.1998819 0
11.101412 20.021276 -1.1997734 0
11.022309 20.03673 -1.1984782 0
10.994502 20.145832 -1.2027923 0
10.89461 20.12295 -1.1992385 0
10.818532 20.143446 -1.1982917 0
10.76442 20.204918 -1.1997947 0
10.686361 20.221491 -1.1986445 0
10.598713 20.219454 -1.1964107 0
10.545074 20.282211 -1.1980252 0
10.50129 20.364534 -1.2008014 0
10.433469 20.400639 -1.2008609 0
10.361553 20.428688 -1.2004603 0
10.285412 20.448223 -1.1995751 0
10.223825 20.496687 -1.2004004 0
10.136609 20.493576 -1.1982211 0
10.075972 20.544027 -1.1991888 0
10.020065 20.604488 -1.2007502 0
9.9509077 20.63793 -1.2007481 0
9.8766346 20.660671 -1.2001379 0
9.7956066 20.66898 -1.1987059 0
9.726532 20.702303 -1.1987405 0
9.6704674 20.763571 -1.2004038 0
9.6050987 20.805195 -1.2009417 0
9.5455713 20.859755 -1.2022369 0
9.4466858 20.827938 -1.198571 0
9.3843975 20.876394 -1.199542 0
9.3062696 20.889603 -1.1985015 0
9.2607689 20.976385 -1.2016922 0
9.1909304 21.00856 -1.2017633 0
9.1019115 20.996513 -1.1993219 0
9.0306673 21.025059 -1.199216 0
8.96243 21.060638 -1.1995248 0
8.9025955 21.116255 -1.2009856 0
8.8140783 21.103682 -1.198583 0
8.7653971 21.186592 -1.201616 0
8.6859045 21.195341 -1.2004538 0
8.6205177 21.238453 -1.2012517 0
8.5454111 21.257658 -1.2007108 0
8.4898806 21.325855 -1.2029482 0
8.4055061 21.321667 -1.2011155 0
8.3391285 21.362942 -1.2018589 0
8.2737799 21.407143 -1.2027781 0
8.1745987 21.363262 -1.1987659 0
8.092391 21.362738 -1.1972073 0
8.0464382 21.458336 -1.2010461 0
7.9486809 21.415771 -1.1971654 0
7.9060459 21.521824 -1.2016052 0
7.825809 21.526114 -1.2003731 0
7.7502456 21.542929 -1.199855 0
7.664897 21.532061 -1.1978115 0
7.5991077 21.575941 -1.1988286 0
7.5483723 21.663425 -1.2022765 0
7.4691792 21.669704 -1.2012283 0
7.4026518 21.712719 -1.2022302 0
7.3152385 21.694199 -1.1998399 0
7.2357745 21.698553 -1.1987323 0
7.1780891 21.768503 -1.2012603 0
7.0979867 21.770744 -1.2000639 0
7.0199394 21.778864 -1.1992073 0
6.9480033 21.805803 -1.1994013 0
6.8702097 21.814232 -1.1985912 0
6.8107524 21.881224 -1.2010106 0
6.7389722 21.909208 -1.2012997 0
6.6533551 21.891794 -1.199115 0
6.5908799 21.950485 -1.2011126 0
6.5028558 21.923941 -1.1984603 0
6.4304271 21.949425 -1.1986681 0
6.3536272 21.9599 -1.19807 0
6.2812848 21.985703 -1.1983221 0
6.2048459 21.997103 -1.1978028 0
6.1441431 22.06477 -1.200359 0
6.0668497 22.073315 -1.1997105 0
5.9903855 22.084599 -1.1992254 0
5.9082623 22.074507 -1.197595 0
5.8331547 22.090166 -1.1973768 0
5.7735982 22.165422 -1.2004 0
5.6945076 22.166197 -1.1994013 0
5.618587 22.17897 -1.1990663 0
5.5395427 22.179064 -1.1980605 0
5.4870605 22.286507 -1.2028638 0
5.396266 22.238672 -1.1992987 0
5.3174915 22.239149 -1.1983563 0
5.2496061 22.28533 -1.1998895 0
5.1750793 22.303757 -1.1999407 0
5.1077433 22.353691 -1.201699 0
5.0240674 22.33202 -1.1996218 0
4.9407806 22.310884 -1.1975898 0
4.8819408 22.400703 -1.2015257 0
4.79494 22.361597 -1.198559 0
4.7288718 22.419901 -1.2008275 0
4.6629539 22.480362 -1.2032217 0
4.5764136 22.441235 -1.2002995 0
4.5012546 22.456989 -1.2003282 0
4.4299002 22.492086 -1.2014035 0
4.3510499 22.489168 -1.2004616 0
4.2758574 22.50486 -1.2005273 0
4.1952419 22.491531 -1.1990591 0
4.1294861 22.558336 -1.2018758 0
4.0503235 22.552536 -1.2008365 0
3.9662232 22.517941 -1.1982796 0
3.9019563 22.596283 -1.2017456 0
3.815964 22.54891 -1.198539 0
3.7444563 22.586405 -1.199858 0
3.663902 22.569233 -1.1982863 0
3.59466 22.621975 -1.2004399 0
3.5210004 22.6481 -1.2011931 0
3.4413908 22.635738 -1.1999187 0
3.355387 22.579245 -1.1963209 0
3.2870739 22.641405 -1.1990237 0
3.2167859 22.692106 -1.2011307 0
3.1343267 22.656799 -1.1986989 0
3.0597928 22.67791 -1.1992663 0
2.9845552 22.694233 -1.1995937 0
2.9077494 22.698652 -1.1993051 0
2.8314779 22.707064 -1.1992412 0
2.7625849 22.776247 -1.2023991 0
2.6794689 22.728243 -1.1993839 0
2.6092088 22.789141 -1.2021291 0
2.5290153 22.763817 -1.2003392 0
2.4546103 22.790106 -1.2012846 0
2.3745308 22.763172 -1.1994386 0
2.299356 22.78249 -1.2000434 0
2.2299507 22.861765 -1.2038187 0
2.1420441 22.749706 -1.1975332 0
2.0690188 22.792698 -1.1994244 0
1.9962189 22.841059 -1.2016102 0
1.9164053 22.80929 -1.1995943 0
1.8399538 22.816015 -1.1996167 0
1.7651609 22.844254 -1.2007835 0
1.6901314 22.871328 -1.201902 0
1.6097963 22.825222 -1.1991887 0
1.5336188 22.835854 -1.1994704 0
1.457024 22.840527 -1.1994525 0
1.382996 22.88765 -1.201677 0
1.3072956 22.910479 -1.2026386 0
1.2280749 22.87006 -1.2002941 0
1.1528672 22.903416 -1.201835 0
1.0732584 22.847301 -1.1986949 0
0.99820465 22.886425 -1.2005652 0
0.9183557 22.812401 -1.1965139 0
0.84345824 22.858534 -1.1987785 0
0.76730162 22.875797 -1.1995422 0
0.69020665 22.86524 -1.1988605 0
0.61422384 22.892916 -1.2001969 0
0.53756446 22.899094 -1.2004194 0
0.45979345 22.851482 -1.197836 0
0.38391578 22.897127 -1.2001544 0
0.30696684 22.885086 -1.1994627 0
0.23016889 22.879341 -1.1991143 0
0.15344028 22.87742 -1.19898 0
0.076688543 22.863731 -1.1982424 0
3.0401394e-05 22.913408 -1.200839 0
-0.076689333 22.882071 -1.1992035 0
-0.15347318 22.891382 -1.1997117 0
-0.23003709 22.872274 -1.1987439 0
-0.30722234 22.908669 -1.2006986 0
-0.38348413 22.875004 -1.1989949 0
