# .PCD v0.7 - Point Cloud Data file format
VERSION 0.7
FIELDS x y z intensity
SIZE 4 4 4 4
TYPE F F F F
COUNT 1 1 1 1
WIDTH 1401
HEIGHT 1
VIEWPOINT 0 0 0 1 0 0 0
POINTS 1401
DATA ascii
3.3311379 3.9759018 -1.1974961 0
3.3233044 3.9936767 -1.1994869 0
3.312089 4.0074501 -1.2002817 0
3.2518134 3.9614937 -1.1832449 0
3.2728786 4.0145273 -1.195801 0
3.3233063 4.1044044 -1.2192466 0
3.2703192 4.0667682 -1.2048025 0
3.2468369 4.065403 -1.2011664 0
3.2495372 4.0968785 -1.2072402 0
3.1954186 4.056509 -1.1921808 0
3.2211182 4.1174593 -1.2069128 0
3.183877 4.0980935 -1.1981006 0
3.1465487 4.0781965 -1.1891924 0
3.1941669 4.1687388 -1.2124647 0
3.1675909 4.1628904 -1.2076681 0
3.1640587 4.1873074 -1.2116672 0
3.142745 4.1882219 -1.2088759 0
3.0854344 4.1406927 -1.1921645 0
3.0850253 4.1692467 -1.1974009 0
3.0736458 4.1831279 -1.1984211 0
3.0767825 4.2169547 -1.20515 0
3.0325801 4.1857753 -1.1933267 0
3.0322785 4.2150321 -1.1987624 0
2.997117 4.1957593 -1.1904166 0
3.0113652 4.2457304 -1.201723 0
3.0305049 4.3032184 -1.2151119 0
2.9655905 4.2411771 -1.1947786 0
2.9619761 4.266396 -1.1990787 0
2.914525 4.22824 -1.1856018 0
2.9226997 4.2706718 -1.1947452 0
2.9353075 4.3201008 -1.2058132 0
2.9239218 4.3345366 -1.2070993 0
2.8971622 4.3260827 -1.2020333 0
2.8799939 4.33179 -1.2009294 0
2.8468568 4.3132453 -1.1931351 0
2.8733163 4.3852439 -1.2103797 0
2.854176 4.3880558 -1.2085078 0
2.8121984 4.3553982 -1.19691 0
2.8201079 4.399951 -1.2065486 0
2.8001704 4.4012561 -1.2043251 0
2.7855842 4.4109144 -1.2044055 0
2.7231369 4.3442249 -1.1836962 0
2.7353015 4.396317 -1.1953845 0
2.7027783 4.3766913 -1.1875775 0
2.7228053 4.4423699 -1.2029148 0
2.6969898 4.4335461 -1.1980703 0
2.6758132 4.4321342 -1.1952577 0
2.6674263 4.4519095 -1.1981721 0
2.6611736 4.4754405 -1.2020969 0
2.6359599 4.467063 -1.1974663 0
2.6333499 4.4970207 -1.2031233 0
2.5994287 4.4734221 -1.1944714 0
2.5968268 4.5036368 -1.2002076 0
2.5856102 4.5191307 -1.2020196 0
2.544172 4.4814973 -1.1897341 0
2.5630815 4.5502729 -1.2057043 0
2.5444152 4.5527654 -1.2040974 0
2.5319958 4.5664272 -1.2054586 0
2.4950364 4.5355625 -1.1950958 0
2.4810197 4.5461092 -1.1956762 0
2.481204 4.5829215 -1.2031635 0
2.4704614 4.5998483 -1.205426 0
2.4517555 4.6019683 -1.2038207 0
2.434778 4.6072593 -1.2030625 0
2.4147213 4.6066298 -1.2007773 0
2.4047353 4.625226 -1.2035162 0
2.3809135 4.6171656 -1.1993349 0
2.3617542 4.6179552 -1.1974765 0
2.3464844 4.6262946 -1.197592 0
2.3422248 4.6565313 -1.2033796 0
2.3240433 4.659234 -1.2020577 0
2.2956574 4.6412196 -1.1954176 0
2.3122826 4.7145424 -1.2122992 0
2.2644444 4.6564283 -1.1953969 0
2.2395236 4.6447148 -1.1904554 0
2.2405589 4.6869659 -1.1993524 0
2.2240992 4.6929064 -1.1989576 0
2.1975315 4.6773052 -1.1930827 0
2.1922238 4.7069483 -1.1987624 0
2.1792133 4.7203012 -1.2002954 0
2.1488149 4.6957641 -1.1922174 0
2.1393194 4.7167454 -1.1957165 0
2.1118684 4.6980309 -1.1891707 0
2.1282749 4.777297 -1.2074217 0
2.1082833 4.7754312 -1.2051567 0
2.0790615 4.7523031 -1.1975541 0
2.0450208 4.717504 -1.1870503 0
2.0464427 4.7644958 -1.1971415 0
2.0264988 4.7620296 -1.1948079 0
2.022023 4.7960792 -1.2016432 0
2.0077069 4.8070827 -1.2027069 0
1.9799902 4.7857776 -1.1957089 0
1.9798199 4.8311558 -1.2053812 0
1.9326816 4.7615662 -1.186395 0
1.9387239 4.8227911 -1.2000235 0
1.9352024 4.861063 -1.2079252 0
1.9217353 4.8747334 -1.2097143 0
1.8881396 4.8369823 -1.1987681 0
1.8621377 4.8179975 -1.1925091 0
1.8693522 4.8853111 -1.2076119 0
1.8500726 4.8839231 -1.2057287 0
1.8244829 4.8655524 -1.1996764 0
1.8189451 4.9007015 -1.2068324 0
1.8167816 4.9456401 -1.216392 0
1.7913625 4.927423 -1.2104275 0
1.7668561 4.911232 -1.2049881 0
1.7396488 4.8869834 -1.1976008 0
1.7229109 4.8918147 -1.1973624 0
1.7204672 4.9376493 -1.2071625 0
1.7117683 4.9662099 -1.2127352 0
1.6714286 4.9024677 -1.1957942 0
1.666594 4.9424806 -1.2041843 0
1.6473546 4.9400668 -1.2022438 0
1.642216 4.980237 -1.2106731 0
1.6066241 4.9277921 -1.1966077 0
1.5775555 4.8942542 -1.1871728 0
1.5899848 4.9900517 -1.2091099 0
1.5683204 4.9797177 -1.2053251 0
1.5467561 4.969336 -1.2015502 0
1.5306424 4.9763021 -1.201987 0
1.5246303 5.016551 -1.2104672 0
1.5042217 5.0097098 -1.2075927 0
1.4795027 4.9880438 -1.2011677 0
1.467882 5.0104241 -1.2053651 0
1.4528518 5.0214591 -1.2068412 0
1.4312994 5.0098228 -1.2028843 0
1.4098716 4.9982047 -1.198953 0
1.3943788 5.0074759 -1.2000488 0
1.378038 5.013783 -1.2004464 0
1.359604 5.0124168 -1.1990211 0
1.3468422 5.0320849 -1.2026389 0
1.3391048 5.0711923 -1.2109054 0
1.3078269 5.0208788 -1.1978377 0
1.2880976 5.0139942 -1.1951582 0
1.270487 5.0151563 -1.1944132 0
1.2567825 5.0318699 -1.1973835 0
1.2498178 5.0763197 -1.2069569 0
1.2300782 5.0693026 -1.204301 0
1.1981416 5.0109434 -1.1894758 0
1.1887425 5.046382 -1.1969352 0
1.1783867 5.0786567 -1.2036464 0
1.1519951 5.0416279 -1.1939485 0
1.1338152 5.0398178 -1.1926129 0
1.1148598 5.0343275 -1.1904224 0
1.1115606 5.1003771 -1.2051525 0
1.0863287 5.0661836 -1.1962057 0
1.0708158 5.0768094 -1.1978602 0
1.0477607 5.0513129 -1.1910088 0
1.0433079 5.1160402 -1.2054387 0
1.0260881 5.119206 -1.2053673 0
1.0094115 5.1251202 -1.2059561 0
0.99003977 5.1171951 -1.2033035 0
0.96925956 5.1014452 -1.1988291 0
0.95161402 5.1017928 -1.1981543 0
0.94505256 5.1625829 -1.2116798 0
0.91531569 5.0965533 -1.1954554 0
0.90012908 5.1104169 -1.1979926 0
0.88307703 5.1139112 -1.1981109 0
0.86414093 5.1062946 -1.1956409 0
0.84652615 5.1062107 -1.19495 0
0.83813858 5.1628413 -1.2075382 0
0.81323403 5.1178584 -1.1963727 0
0.80524075 5.1795435 -1.2101545 0
0.7941702 5.2236524 -1.2198312 0
0.76447797 5.1443648 -1.2007107 0
0.73894542 5.0898652 -1.1874052 0
0.73815197 5.20713 -1.2141776 0
0.71602321 5.1758466 -1.2063165 0
0.69203508 5.1290755 -1.1948682 0
0.67892295 5.1624565 -1.2021075 0
0.66336662 5.1784129 -1.2052984 0
0.64378703 5.1628556 -1.2011683 0
0.62316561 5.1377149 -1.1948264 0
0.60889554 5.1648765 -1.2006615 0
0.59112322 5.1629405 -1.199744 0
0.57284236 5.156188 -1.1977218 0
0.55130816 5.1186824 -1.1885737 0
0.53691077 5.1470346 -1.1947324 0
0.52158642 5.167985 -1.1991827 0
0.5014804 5.1412468 -1.1925817 0
0.48703891 5.1726255 -1.1994748 0
0.47047988 5.1828942 -1.2014835 0
0.45068821 5.156847 -1.1950881 0
0.43111196 5.1311474 -1.1887907 0
0.41346678 5.1271205 -1.1875299 0
0.39818406 5.1531944 -1.1932532 0
0.38095057 5.155129 -1.1933987 0
0.36664653 5.1986632 -1.2031853 0
0.3472425 5.1705022 -1.1963916 0
0.32842305 5.1484089 -1.191018 0
0.31512785 5.2151532 -1.2062073 0
0.29659665 5.1978841 -1.2019763 0
0.27757677 5.1692266 -1.1951276 0
0.26304859 5.2258506 -1.2080083 0
0.2457746 5.2319984 -1.2092322 0
0.22600192 5.1816788 -1.1974202 0
0.20805444 5.1681733 -1.1941314 0
0.1902867 5.1569533 -1.1913849 0
0.1721231 5.1315584 -1.1853781 0
0.15689605 5.1976695 -1.2005212 0
0.13975483 5.2088428 -1.2029871 0
0.12165586 5.1822786 -1.1967511 0
0.1047152 5.204288 -1.2017459 0
0.087188154 5.1999903 -1.2006792 0
0.06981308 5.2047262 -1.201712 0
0.052375302 5.2062306 -1.2020121 0
0.034866154 5.1984239 -1.2001759 0
0.01741074 5.1907945 -1.1983943 0
6.9320758e-06 5.224678 -1.2062101 0
-0.017435145 5.2021866 -1.2010243 0
-0.035216507 5.2527385 -1.2127156 0
-0.052372739 5.2073498 -1.2022704 0
-0.06926138 5.164618 -1.1924514 0
-0.086245611 5.1445899 -1.1878872 0
-0.10484987 5.2116685 -1.2034501 0
-0.12208104 5.2009788 -1.2010695 0
-0.13778926 5.1360922 -1.1861851 0
-0.15547727 5.1511211 -1.1897697 0
-0.17449695 5.2027426 -1.2018213 0
-0.19089524 5.1738186 -1.195281 0
-0.20779333 5.1620278 -1.1927114 0
-0.22575951 5.1764364 -1.1962087 0
-0.24522574 5.2206106 -1.2066 0
-0.26056975 5.176878 -1.1966876 0
-0.28119019 5.2367778 -1.2107452 0
-0.29458982 5.1629553 -1.193899 0
-0.31269541 5.1751261 -1.1969492 0
-0.32884097 5.1551752 -1.1925831 0
-0.34786749 5.1800137 -1.1985922 0
-0.36603081 5.1901288 -1.20121 0
-0.3807677 5.1528406 -1.1928687 0
-0.3990128 5.1640983 -1.1957778 0
-0.42023903 5.2112708 -1.2070203 0
-0.43454203 5.1721368 -1.1982869 0
-0.45015714 5.150928 -1.1937162 0
-0.47122186 5.1912212 -1.2034135 0
-0.48719651 5.1744466 -1.1998968 0
-0.5042724 5.1700125 -1.1992539 0
-0.5229134 5.1812706 -1.2022653 0
-0.53991705 5.1759872 -1.2014526 0
-0.55233914 5.1283827 -1.1908258 0
-0.57752812 5.1984906 -1.2075479 0
-0.59042943 5.157002 -1.1983637 0
-0.61005455 5.1748257 -1.202974 0
-0.62664479 5.1665139 -1.2015234 0
-0.64079267 5.1389537 -1.1956071 0
-0.6611535 5.1612453 -1.2013023 0
-0.67997611 5.1705704 -1.2039967 0
-0.68556345 5.081212 -1.1837176 0
-0.71139401 5.1424842 -1.1985403 0
-0.72992486 5.1491919 -1.2006674 0
-0.748752 5.1575093 -1.2031854 0
-0.76175827 5.1261568 -1.1964604 0
-0.77912581 5.1247892 -1.1967442 0
-0.80044991 5.1488171 -1.2029752 0
-0.81451815 5.1260271 -1.1982818 0
-0.82911289 5.1073298 -1.1945541 0
-0.84652221 5.1062708 -1.1949636 0
-0.87787539 5.1875367 -1.2146633 0
-0.89229375 5.167367 -1.2106342 0
-0.9053027 5.1398692 -1.2048963 0
-0.92213166 5.1345835 -1.2043753 0
-0.94471478 5.1608148 -1.2112643 0
-0.96060508 5.1500716 -1.209492 0
-0.97426349 5.1278563 -1.205035 0
-0.98503077 5.0913777 -1.197232 0
-0.99923152 5.073504 -1.1938101 0
-1.0268561 5.1231079 -1.2062855 0
-1.0488461 5.1432676 -1.2118534 0
-1.0524246 5.0738649 -1.1963254 0
-1.0609455 5.0300803 -1.1868339 0
-1.0830859 5.051126 -1.1926496 0
-1.1083928 5.0859065 -1.2017326 0
-1.1392394 5.1444821 -1.2164689 0
-1.13888 5.0623937 -1.1979544 0
-1.1471238 5.0203705 -1.1889136 0
-1.1607411 5.0026674 -1.1856362 0
-1.1970514 5.0817146 -1.2053149 0
-1.2119787 5.0688729 -1.2032261 0
-1.2197502 5.0267973 -1.1942024 0
-1.245086 5.0571585 -1.2024002 0
-1.2603962 5.0463953 -1.2008392 0
-1.2714932 5.0191846 -1.1953719 0
-1.2899244 5.0211601 -1.1968656 0
-1.3167272 5.0551023 -1.2060018 0
-1.3178064 4.9905887 -1.191658 0
-1.3382268 4.999949 -1.1949577 0
-1.3481375 4.9701958 -1.1889205 0
-1.3768902 5.0096583 -1.199458 0
-1.3928276 5.0019565 -1.1987252 0
-1.4027637 4.9730568 -1.1929199 0
-1.4166957 4.9587564 -1.1906222 0
-1.4349438 4.9596133 -1.1919764 0
-1.4611424 4.9874682 -1.1998416 0
-1.4873993 5.0147157 -1.2075895 0
-1.4770315 4.9192019 -1.1857748 0
-1.51467 4.9838257 -1.2025698 0
-1.5195138 4.9401689 -1.1932583 0
-1.5438906 4.960176 -1.1993344 0
-1.566282 4.9732914 -1.2037686 0
-1.5711627 4.9310255 -1.1948066 0
-1.5996743 4.9629211 -1.2038279 0
-1.6262542 4.9880457 -1.211238 0
-1.6359109 4.9611602 -1.2060345 0
-1.6593282 4.9760175 -1.2109919 0
-1.6635704 4.933557 -1.2020091 0
-1.6763818 4.9170384 -1.1993473 0
-1.6860059 4.89151 -1.1944926 0
-1.7149743 4.9219265 -1.2033176 0
-1.7374731 4.9332023 -1.2074918 0
-1.7244298 4.8442712 -1.1871326 0
-1.7729397 4.9281831 -1.209146 0
-1.7855182 4.9113874 -1.2064872 0
-1.7955515 4.887887 -1.2021865 0
-1.8157457 4.8921213 -1.2047184 0
-1.8238784 4.8639793 -1.1992873 0
-1.846849 4.875452 -1.2036362 0
-1.8563812 4.8514519 -1.1992408 0
-1.8898665 4.88978 -1.2102748 0
-1.880654 4.8178434 -1.1940237 0
-1.9059312 4.834682 -1.1997738 0
-1.9044966 4.7839699 -1.1887671 0
-1.9383534 4.8219066 -1.199802 0
-1.9367232 4.7715597 -1.1888838 0
-1.9650359 4.7951164 -1.1963879 0
-2.0045223 4.8451099 -1.2105315 0
-2.0010133 4.7910924 -1.1987048 0
-1.9936846 4.7288976 -1.1848098 0
-2.0308914 4.772387 -1.1974053 0
-2.0557821 4.7862749 -1.2026125 0
-2.0785105 4.7947941 -1.2064972 0
-2.0971043 4.7935801 -1.2079542 0
-2.1055269 4.7692218 -1.2035882 0
-2.1083009 4.7324958 -1.196097 0
-2.1217761 4.7201056 -1.1947567 0
-2.1419301 4.7225347 -1.1971827 0
-2.1711359 4.7445745 -1.2046084 0
-2.1700842 4.7005596 -1.1952741 0
-2.1970785 4.7174048 -1.2014239 0
-2.1932743 4.6682763 -1.1907781 0
-2.2179945 4.6800575 -1.1956733 0
-2.2357917 4.6770258 -1.1968073 0
-2.2525675 4.6717997 -1.1973958 0
-2.2495325 4.6257958 -1.1875314 0
-2.2957094 4.6807823 -1.2036167 0
-2.3146033 4.6795549 -1.2052898 0
-2.3229861 4.6571455 -1.2015172 0
-2.3577707 4.6874685 -1.2113731 0
-2.353061 4.6392918 -1.2009549 0
-2.3604643 4.6154633 -1.1968286 0
-2.3654788 4.5872636 -1.1915661 0
-2.4188008 4.6523099 -1.210562 0
-2.4014232 4.5812902 -1.1941705 0
-2.4267867 4.5921674 -1.1991199 0
-2.4480054 4.5949588 -1.2019854 0
-2.4580178 4.5767083 -1.1993603 0
-2.4514403 4.5279746 -1.1887366 0
-2.4912696 4.564919 -1.2006217 0
-2.5235398 4.5874057 -1.2087545 0
-2.5184996 4.5421152 -1.199039 0
-2.5295632 4.5262179 -1.1970745 0
-2.5540185 4.5342116 -1.2014467 0
-2.5685177 4.5244093 -1.2011244 0
-2.57763 4.5052109 -1.1983153 0
-2.5831716 4.4799824 -1.1939019 0
-2.6320872 4.5296526 -1.2094839 0
-2.6205969 4.4752698 -1.1973022 0
-2.638561 4.4714985 -1.1986533 0
-2.6272616 4.4184356 -1.1867837 0
-2.6591477 4.4381194 -1.1944588 0
-2.6680441 4.4192924 -1.1917925 0
-2.6959176 4.4318099 -1.1975992 0
-2.7304733 4.4549069 -1.2063078 0
-2.7231121 4.4096446 -1.1965171 0
-2.7405283 4.4047441 -1.1976738 0
-2.7753255 4.4275079 -1.2063868 0
-2.7955093 4.4266567 -1.208702 0
-2.7911949 4.3871746 -1.2004699 0
-2.7900043 4.3530087 -1.193674 0
-2.816349 4.3618522 -1.1986816 0
-2.8339355 4.3569627 -1.1999425 0
-2.8648086 4.3722844 -1.2068008 0
-2.8745458 4.3552217 -1.2047446 0
-2.8585603 4.2995768 -1.1919966 0
-2.8974283 4.3265047 -1.2021484 0
-2.9062567 4.3083735 -1.1998112 0
-2.9316483 4.3147402 -1.2043148 0
-2.9277492 4.2780743 -1.1968139 0
-2.9477663 4.2764888 -1.1991286 0
-2.9576359 4.2601686 -1.1973263 0
-3.0029097 4.2945724 -1.2098184 0
-2.9733856 4.2221346 -1.1922138 0
-3.0150919 4.251009 -1.2032148 0
-2.9896612 4.1853447 -1.1874596 0
-3.019237 4.1969271 -1.193611 0
-3.0383539 4.1937675 -1.195603 0
-3.0894747 4.234374 -1.2101258 0
-3.0680926 4.1755934 -1.1962602 0
-3.0652966 4.1426077 -1.1897478 0
-3.1485517 4.22542 -1.2165563 0
-3.1424503 4.1878524 -1.2087668 0
-3.1442664 4.1611376 -1.204092 0
-3.1533544 4.1442037 -1.2022445 0
-3.1342494 4.0905623 -1.1897249 0
-3.1769559 4.1176295 -1.2006886 0
-3.200455 4.1194544 -1.204343 0
-3.1749346 4.0584459 -1.1896124 0
-3.2267663 4.0963264 -1.2038803 0
-3.2358882 4.0796928 -1.2021735 0
-3.259912 4.0817966 -1.2060075 0
-3.2321556 4.0193319 -1.1907468 0
-3.2641544 4.0313711 -1.197549 0
-3.3055615 4.0546379 -1.2077461 0
-3.2843003 4.0010924 -1.1950699 0
-3.2928033 3.9841373 -1.1932966 0
-3.3414736 4.0155325 -1.2060485 0
-3.3599246 4.010282 -1.2078482 0
-3.3507252 3.9721718 -1.1997468 0
-3.3998363 4.0030813 -1.2125188 0
-3.3926146 3.9675405 -1.2051922 0
-3.3973503 3.9462149 -1.2021677 0
-3.3721087 3.8904381 -1.1886135 0
-3.4277399 3.9279335 -1.2035737 0
-3.4244504 3.8977072 -1.1978233 0
-3.4285309 3.8760645 -1.1946981 0
-3.4729209 3.8998225 -1.2056031 0
-3.4696231 3.8699162 -1.1999474 0
-3.4736109 3.8483262 -1.1968575 0
-3.5297792 3.8842907 -1.2117165 0
-3.5084834 3.8349433 -1.1999853 0
-3.5082772 3.808996 -1.1955401 0
-3.5471578 3.8253911 -1.2044122 0
-3.5263257 3.7774432 -1.1930317 0
-3.5415621 3.7683558 -1.1939052 0
-3.588428 3.7926612 -1.2054108 0
-3.6006427 3.7801032 -1.2052497 0
-3.6056485 3.7600346 -1.2026987 0
-3.6306231 3.7607565 -1.2068166 0
-3.6298423 3.7348065 -1.2023879 0
-3.639576 3.7197862 -1.2014741 0
-3.6426973 3.6980908 -1.1984047 0
-3.6250453 3.6555734 -1.1885585 0
-3.684849 3.6910462 -1.2041022 0
-3.6835809 3.6651163 -1.1996654 0
-3.6980438 3.6549149 -1.2003781 0
-3.6942532 3.6267641 -1.1951938 0
-3.7291329 3.6365337 -1.2025269 0
-3.7682741 3.6501341 -1.2111955 0
-3.7309227 3.5897861 -1.1953146 0
-3.7513735 3.5853193 -1.1980087 0
-3.7536869 3.5635257 -1.1949252 0
-3.8188438 3.6011157 -1.2118165 0
-3.7770045 3.5378127 -1.1947691 0
-3.8074431 3.542433 -1.2006338 0
-3.8063121 3.5176456 -1.1965513 0
-3.8273284 3.5133493 -1.1994482 0
-3.8478675 3.5085039 -1.2021917 0
-3.8493268 3.4862704 -1.1989889 0
-3.8313468 3.4466741 -1.1897823 0
-3.9211135 3.5037134 -1.2140034 0
-3.8592582 3.4252415 -1.1912904 0
-3.9212861 3.4568594 -1.2068529 0
-3.8929536 3.4087548 -1.1946088 0
-3.9112499 3.4016747 -1.1967167 0
-3.9243419 3.3900182 -1.197238 0
-3.9488411 3.3881288 -1.2012398 0
-3.966526 3.3802793 -1.2031652 0
-4.006474 3.3912005 -1.2118269 0
-3.9974141 3.3605919 -1.2056717 0
-3.9757962 3.3197305 -1.1957877 0
-4.0111961 3.3265271 -1.2030734 0
-4.0096626 3.3026285 -1.1992856 0
-4.0243015 3.2921019 -1.200356 0
-4.0564036 3.2957232 -1.2066284 0
-4.0300989 3.2519805 -1.1955539 0
-4.0648189 3.257555 -1.2026069 0
-4.0875039 3.2532885 -1.2060845 0
-4.0904784 3.2333133 -1.2037567 0
-4.0779114 3.2012231 -1.1968932 0
-4.0696282 3.1727252 -1.1913331 0
-4.1453791 3.2094932 -1.2103512 0
-4.1330323 3.1778274 -1.2036285 0
-4.1924329 3.2011905 -1.2177948 0
-4.1186433 3.1230431 -1.1933125 0
-4.2060108 3.1671371 -1.2155423 0
-4.1302562 3.0884485 -1.19065 0
-4.1834068 3.1063781 -1.2029628 0
-4.1853647 3.0861156 -1.2005435 0
-4.191277 3.0688357 -1.1992813 0
-4.1882763 3.0451202 -1.1954945 0
-4.2055731 3.0361946 -1.1975193 0
-4.2030602 3.0129948 -1.1939205 0
-4.2352204 3.0146039 -1.2001781 0
-4.2090688 2.9747772 -1.1899341 0
-4.2468009 2.9801438 -1.1977696 0
-4.2985277 2.9949839 -1.2095199 0
-4.293303 2.9700105 -1.205241 0
-4.2783546 2.9385095 -1.1982721 0
-4.2872839 2.9235353 -1.1980208 0
-4.3370972 2.936249 -1.2091827 0
-4.2816691 2.8778355 -1.1910325 0
-4.3400683 2.8960097 -1.2045697 0
-4.3133574 2.8573315 -1.1944906 0
-4.3398247 2.8539751 -1.1991634 0
-4.3411164 2.8340206 -1.1968881 0
-4.3552027 2.8224366 -1.198156 0
-4.3535337 2.800673 -1.1951069 0
-4.3708401 2.7911315 -1.197282 0
-4.4005332 2.7893662 -1.202847 0
-4.4034128 2.7705398 -1.2010883 0
-4.435729 2.7701564 -1.2073628 0
-4.4183393 2.7387478 -1.2001234 0
-4.4314122 2.7263274 -1.2011846 0
-4.440484 2.7114275 -1.2011727 0
-4.4272122 2.6829867 -1.1951425 0
-4.4642754 2.6850243 -1.2027109 0
-4.4538956 2.6584873 -1.1975064 0
-4.421845 2.6192892 -1.1865212 0
-4.485147 2.6365118 -1.2011284 0
-4.5244651 2.6392529 -1.2092812 0
-4.4757814 2.5907807 -1.1939409 0
-4.5401797 2.6077738 -1.2087804 0
-4.5610971 2.5994897 -1.2120222 0
-4.5525947 2.5744603 -1.2074623 0
-4.5309048 2.5421834 -1.1994421 0
-4.5301275 2.5218146 -1.1969914 0
-4.567965 2.5228536 -1.2047474 0
-4.5579672 2.4974251 -1.1998954 0
-4.5642295 2.4809952 -1.1993474 0
-4.5225706 2.4387429 -1.1862454 0
-4.6505766 2.4876781 -1.217626 0
-4.625824 2.4545259 -1.2089838 0
-4.5727425 2.4067466 -1.192995 0
-4.585115 2.3936613 -1.1941223 0
-4.6511812 2.4083412 -1.2092185 0
-4.6550188 2.3905706 -1.2081256 0
-4.6423025 2.3644044 -1.2027612 0
-4.6120181 2.3295383 -1.1928844 0
-4.6301908 2.3192656 -1.1955669 0
-4.6494503 2.3094454 -1.1985338 0
-4.6535645 2.2920692 -1.1976066 0
-4.7198634 2.3050926 -1.2126729 0
-4.6980438 2.2749593 -1.2051004 0
-4.6442614 2.2297244 -1.1893803 0
-4.6683106 2.2220418 -1.1936246 0
-4.6975827 2.216687 -1.1992019 0
-4.6816039 2.1899855 -1.1932417 0
-4.7277751 2.1922936 -1.2031295 0
-4.7368784 2.177248 -1.2035817 0
-4.7666945 2.1716242 -1.2093009 0
-4.7173886 2.130091 -1.1949735 0
-4.683888 2.0960863 -1.1847004 0
-4.7741413 2.1172919 -1.2057259 0
-4.7455616 2.0856047 -1.1967353 0
-4.7936988 2.0876117 -1.2071025 0
-4.7715077 2.0589435 -1.1997696 0
-4.7932463 2.0492878 -1.2035012 0
-4.80759 2.0363822 -1.2053815 0
-4.7355299 1.9871597 -1.1856371 0
-4.775207 1.9850062 -1.1938982 0
-4.7573996 1.9589229 -1.1877972 0
-4.7640243 1.9429952 -1.1878179 0
-4.7639799 1.9243729 -1.1861916 0
-4.8370128 1.9350356 -1.202754 0
-4.8122206 1.9064258 -1.1949931 0
-4.8423533 1.8996046 -1.2008876 0
-4.8956261 1.9015876 -1.2125111 0
-4.8308558 1.8578126 -1.1949197 0
-4.7972684 1.8264563 -1.1850904 0
-4.8593411 1.8314587 -1.1989008 0
-4.9005089 1.8282338 -1.2075387 0
-4.8801408 1.8020189 -1.2010243 0
-4.8681159 1.779054 -1.1965902 0
-4.9171872 1.7783217 -1.2071797 0
-4.9057231 1.7555989 -1.2029133 0
-4.9222765 1.7429278 -1.2055326 0
-4.9105959 1.7202852 -1.2012525 0
-4.8804221 1.6913648 -1.1924772 0
-4.8843784 1.6744138 -1.1920655 0
-4.9436145 1.6762189 -1.2051442 0
-4.9110575 1.6468416 -1.1958547 0
-4.9363737 1.6369399 -1.2006761 0
-4.9335165 1.6176525 -1.1986551 0
-4.9371862 1.6005427 -1.1982362 0
-4.9586315 1.5891421 -1.202141 0
-4.9534254 1.5691797 -1.1995966 0
-4.978406 1.5587457 -1.204374 0
-4.9921646 1.5446942 -1.2064427 0
-4.9846759 1.524083 -1.2033912 0
-5.0292783 1.5193005 -1.2129225 0
-4.9727187 1.4840386 -1.1980751 0
-4.9433408 1.4572389 -1.1898133 0
-4.9604354 1.4442192 -1.1927556 0
-4.9999819 1.4375656 -1.2010989 0
-4.9985204 1.4190183 -1.1995982 0
-5.0776448 1.4231018 -1.2174355 0
-5.0349841 1.3929551 -1.2060804 0
-5.054934 1.3802456 -1.2097439 0
-5.0565467 1.3624848 -1.2090298 0
-5.0691118 1.3476571 -1.2109469 0
-5.0293345 1.3190439 -1.2003814 0
-5.0224876 1.299266 -1.1977007 0
-5.0584645 1.2904934 -1.2052414 0
-5.0186329 1.2624253 -1.1947359 0
-5.0245509 1.2460166 -1.1951435 0
-5.0259147 1.2284824 -1.1944815 0
-5.0170527 1.2085044 -1.1914055 0
-5.0603676 1.2010015 -1.2007285 0
-5.0429587 1.1790235 -1.1956531 0
-5.0917611 1.1724424 -1.2062851 0
-5.0413938 1.1430594 -1.1934379 0
-5.0727377 1.1322973 -1.1999525 0
-5.0719538 1.114283 -1.1988765 0
-5.1018362 1.1029299 -1.2050591 0
-5.1167021 1.0881995 -1.2077018 0
-5.0841455 1.063471 -1.1991692 0
-5.0756073 1.0439352 -1.1963229 0
-5.0729828 1.0256792 -1.194887 0
-5.0562134 1.0046551 -1.1901371 0
-5.097538 0.99511194 -1.1990721 0
-5.1161427 0.98094833 -1.2026681 0
-5.0502658 0.95077342 -1.186426 0
-5.1217575 0.94646281 -1.202469 0
-5.1324286 0.93065 -1.204235 0
-5.1480494 0.91566527 -1.207173 0
-5.1098351 0.89120436 -1.1975046 0
-5.1418676 0.87903726 -1.2043141 0
-5.1126308 0.85640639 -1.1967871 0
-5.181706 0.85012615 -1.2122823 0
-5.082067 0.81629074 -1.1883245 0
-5.1391659 0.80779636 -1.2010357 0
-5.1516438 0.79206765 -1.2033244 0
-5.1642036 0.77628386 -1.2056434 0
-5.1056561 0.74998659 -1.191381 0
-5.1760674 0.74260926 -1.2072233 0
-5.1447334 0.72051781 -1.1993451 0
-5.1146131 0.69882292 -1.1917706 0
-5.1904421 0.69146419 -1.2088927 0
-5.1185822 0.66443259 -1.1916304 0
-5.1601343 0.65224147 -1.2007881 0
-5.1564522 0.63421857 -1.1994298 0
-5.1622334 0.61736697 -1.2002863 0
-5.1782041 0.60167402 -1.2035238 0
-5.1666374 0.58278018 -1.2003746 0
-5.1680346 0.56539637 -1.2002519 0
-5.1972995 0.55097026 -1.2066128 0
-5.178637 0.5314399 -1.2018597 0
-5.1657834 0.51262444 -1.198471 0
-5.1729102 0.49582279 -1.1997319 0
-5.1649618 0.47759023 -1.1975105 0
-5.1844711 0.46186835 -1.2016679 0
-5.1602864 0.44228014 -1.1957119 0
-5.1516166 0.42414269 -1.1933668 0
-5.1930604 0.41003022 -1.2026421 0
-5.1617589 0.39014894 -1.1950834 0
-5.1822462 0.37422743 -1.1995294 0
-5.2191434 0.35930598 -1.2077843 0
-5.1919441 0.33994734 -1.2012196 0
-5.1757956 0.32146585 -1.1972272 0
-5.1962528 0.3052507 -1.2017157 0
-5.2293987 0.28960752 -1.20915 0
-5.196002 0.2702865 -1.2012116 0
-5.1533055 0.25074363 -1.1911401 0
-5.1998649 0.23553635 -1.2017125 0
-5.1839237 0.21740046 -1.1978532 0
-5.178762 0.19979239 -1.196499 0
-5.2148504 0.18367638 -1.2046878 0
-5.1506801 0.16412744 -1.1897299 0
-5.2123437 0.14860038 -1.2038515 0
-5.153275 0.12962593 -1.1901019 0
-5.2137399 0.11365651 -1.2039708 0
-5.2371025 0.096599616 -1.2092842 0
-5.1919017 0.078353465 -1.1987796 0
-5.2004933 0.061043672 -1.2007095 0
-5.199439 0.043596745 -1.2004255 0
-5.2137384 0.026235128 -1.2036998 0
-5.1919651 0.0087176412 -1.1986594 0
-5.2358098 1.3893692e-05 -1.2087802 0
-6.1849279 -0.010384889 -1.2022281 0
-6.2062716 -0.031229477 -1.2063904 0
-6.2082543 -0.052055553 -1.206803 0
-6.1799669 -0.07254079 -1.2013448 0
-6.1709409 -0.093128622 -1.1996442 0
-6.1533594 -0.11350019 -1.1962935 0
-6.1843524 -0.13481529 -1.2024001 0
-6.1647224 -0.15506798 -1.1986779 0
-6.1634312 -0.17571525 -1.1985346 0
-6.1388278 -0.19561496 -1.193871 0
-6.1409135 -0.21629398 -1.194411 0
-6.1276388 -0.23639926 -1.1919765 0
-6.2139473 -0.26059699 -1.2089289 0
-6.1847343 -0.28014761 -1.2034214 0
-6.2114959 -0.30223182 -1.208819 0
-6.173213 -0.32111925 -1.2015716 0
-6.1543722 -0.34083319 -1.1981201 0
-6.105309 -0.35865268 -1.188796 0
-6.1450253 -0.38166419 -1.1967717 0
-6.14329 -0.40223759 -1.1966897 0
-6.1604819 -0.4241114 -1.2003089 0
-6.149065 -0.44404468 -1.1983678 0
-6.1176291 -0.4623979 -1.1925368 0
-6.1252584 -0.48363408 -1.1943334 0
-6.1576743 -0.50697339 -1.2009788 0
-6.1015382 -0.52295339 -1.1903653 0
-6.1091537 -0.54424548 -1.1922004 0
-6.1164088 -0.56556797 -1.1939795 0
-6.1270676 -0.58727866 -1.1964378 0
-6.1514473 -0.61043638 -1.2015914 0
-6.1679158 -0.63296121 -1.2052161 0
-6.0790577 -0.64444619 -1.1882685 0
-6.1570754 -0.67360002 -1.2039534 0
-6.2140684 -0.70092696 -1.2155504 0
-6.1172557 -0.71078575 -1.1970721 0
-6.1692562 -0.73779982 -1.2077253 0
-6.1384172 -0.75499547 -1.2021769 0
-6.145102 -0.7767415 -1.2039894 0
-6.1437173 -0.79750323 -1.2042351 0
-6.1074114 -0.81362164 -1.1976467 0
-6.1168594 -0.83576244 -1.2000422 0
-6.0964589 -0.85380656 -1.1965948 0
-6.0963392 -0.87464052 -1.1971402 0
-6.109159 -0.89739436 -1.2002417 0
-6.1084108 -0.91821718 -1.2006929 0
-6.079371 -0.93470609 -1.195594 0
-6.0911832 -0.95743847 -1.1985415 0
-6.0584197 -0.97311431 -1.1927301 0
-6.0955515 -1.0000544 -1.2006936 0
-6.0774159 -1.0180155 -1.1977869 0
-6.0797901 -1.0393815 -1.1989349 0
-6.1001763 -1.0639293 -1.2036518 0
-6.0945954 -1.0840241 -1.203261 0
-6.0542617 -1.0978036 -1.1960177 0
-6.0384107 -1.1158535 -1.1936189 0
-6.1110482 -1.1504785 -1.2087328 0
-6.0135164 -1.153007 -1.1901995 0
-6.0304222 -1.1772243 -1.1943201 0
-6.0345387 -1.1990454 -1.1959248 0
-6.0225344 -1.217664 -1.1943482 0
-6.0653648 -1.2475054 -1.2036647 0
-6.0834279 -1.2724948 -1.2080892 0
-6.0048904 -1.2770959 -1.1933364 0
-6.0214224 -1.3017288 -1.1974822 0
-6.0385561 -1.3266407 -1.2017674 0
-5.9997034 -1.3392073 -1.194922 0
-6.0538955 -1.3726287 -1.206625 0
-6.0223351 -1.3867189 -1.2012545 0
-6.0413671 -1.4124473 -1.2059885 0
-6.0036659 -1.4248792 -1.1994095 0
-6.0155454 -1.4490207 -1.2027466 0
-5.9703455 -1.4593291 -1.1946809 0
-6.0067778 -1.4895948 -1.2029638 0
-6.0574274 -1.5237316 -1.2141235 0
-5.9959211 -1.5296533 -1.2028167 0
-5.9493208 -1.5390283 -1.1944969 0
-6.0170922 -1.5781031 -1.2091595 0
-5.9336839 -1.5775094 -1.1934544 0
-6.0043459 -1.617869 -1.208751 0
-5.9738603 -1.6311576 -1.2037081 0
-5.9333677 -1.6414975 -1.1966512 0
-5.9396033 -1.6646812 -1.1990277 0
-5.9778304 -1.6970323 -1.2078865 0
-5.9013071 -1.6967094 -1.1935668 0
-5.9517751 -1.7328454 -1.2049426 0
-5.9098339 -1.7421497 -1.1976274 0
-5.9170179 -1.7658515 -1.2002763 0
-5.9184232 -1.7879033 -1.2017705 0
-5.8982625 -1.8034154 -1.1988978 0
-5.9417648 -1.8385229 -1.2089864 0
-5.8852811 -1.8426895 -1.1987438 0
-5.855062 -1.8548061 -1.1938487 0
-5.9067836 -1.8930057 -1.205682 0
-5.9201188 -1.9191909 -1.2097107 0
-5.907691 -1.937075 -1.2084916 0
-5.8668833 -1.945504 -1.2014714 0
-5.8141026 -1.9496629 -1.1919945 0
-5.8048396 -1.9682323 -1.1914417 0
-5.8082108 -1.9911129 -1.1934972 0
-5.7706499 -1.9998832 -1.1871501 0
-5.8322501 -2.0431602 -1.2012252 0
-5.8277049 -2.0635307 -1.2017072 0
-5.799727 -2.0755336 -1.1973662 0
-5.8063288 -2.0998833 -1.200176 0
-5.8109827 -2.1236248 -1.202603 0
-5.7859778 -2.1365042 -1.1989039 0
-5.769495 -2.1524265 -1.196977 0
-5.7636414 -2.1722846 -1.1972669 0
-5.7952981 -2.2064345 -1.2053729 0
-5.7198396 -2.1996908 -1.1912054 0
-5.7688613 -2.2407746 -1.2029725 0
-5.7859077 -2.2697511 -1.2081074 0
-5.7099032 -2.2620549 -1.1938144 0
-5.7547379 -2.3021693 -1.2047954 0
-5.708631 -2.3059573 -1.1967545 0
-5.735641 -2.3392668 -1.2040544 0
-5.6845784 -2.3407011 -1.1949757 0
-5.6782746 -2.3604026 -1.1953075 0
-5.6472645 -2.3697491 -1.1904455 0
-5.7212462 -2.4233856 -1.207747 0
-5.6931305 -2.4340212 -1.2035277 0
-5.6287127 -2.4288342 -1.1916246 0
-5.6876297 -2.4769104 -1.2058491 0
-5.7291284 -2.517868 -1.2164302 0
-5.6413312 -2.5018833 -1.1995631 0
-5.6275215 -2.5183718 -1.1984154 0
-5.6601944 -2.5558054 -1.2071912 0
-5.6395555 -2.5692844 -1.20462 0
-5.5897355 -2.5692534 -1.1958117 0
-5.5875649 -2.5909829 -1.1971991 0
-5.564342 -2.6029174 -1.1940864 0
-5.5465446 -2.6172936 -1.1921436 0
-5.5834885 -2.6576519 -1.2019926 0
-5.5715446 -2.674916 -1.2013453 0
-5.5694551 -2.6969275 -1.2028377 0
-5.5435953 -2.7073877 -1.1992065 0
-5.5696244 -2.7432659 -1.2068201 0
-5.5340796 -2.7488527 -1.2011085 0
-5.5609875 -2.7855024 -1.2089688 0
-5.5195408 -2.7879298 -1.2019836 0
-5.456295 -2.7789845 -1.1902329 0
-5.4810705 -2.8147871 -1.1976895 0
-5.449326 -2.8216138 -1.1928134 0
-5.4850202 -2.8634574 -1.2027214 0
-5.4511948 -2.8690977 -1.1974069 0
-5.4914956 -2.9138632 -1.2083986 0
-5.43256 -2.9059753 -1.1975671 0
-5.4309711 -2.928587 -1.1993747 0
-5.3972158 -2.933785 -1.1940856 0
-5.4259143 -2.972995 -1.2026335 0
-5.3931179 -2.9785793 -1.197571 0
-5.4246273 -3.0197613 -1.2068094 0
-5.3740273 -3.0152395 -1.1977948 0
-5.3923035 -3.0493095 -1.2041402 0
-5.3338013 -3.0398741 -1.1933455 0
-5.3011527 -3.0448589 -1.1883184 0
-5.3979015 -3.1245446 -1.2123474 0
-5.2762785 -3.0778077 -1.1873423 0
-5.3093262 -3.1209905 -1.1971272 0
-5.2787991 -3.1269076 -1.1926013 0
-5.2665968 -3.1435807 -1.192219 0
-5.3249407 -3.2026687 -1.2078506 0
-5.3108015 -3.218461 -1.2070843 0
-5.2815228 -3.2249784 -1.2028805 0
-5.224566 -3.2142975 -1.1923562 0
-5.249887 -3.2541902 -1.2006183 0
-5.1890988 -3.2406433 -1.1891946 0
-5.2284546 -3.2896397 -1.2007347 0
-5.2142458 -3.3051546 -1.2000098 0
-5.2151155 -3.3302689 -1.2027729 0
-5.2264762 -3.3622458 -1.2079862 0
-5.152606 -3.3392026 -1.1934937 0
-5.1619911 -3.3699141 -1.1982778 0
-5.1497908 -3.3866284 -1.1980748 0
-5.1461191 -3.4089847 -1.199873 0
-5.1236005 -3.4188392 -1.1972884 0
-5.1252789 -3.4448504 -1.2003731 0
-5.133553 -3.4754558 -1.2050332 0
-5.145669 -3.5088756 -1.2106321 0
-5.0856466 -3.4929833 -1.199259 0
-5.1043115 -3.5310483 -1.2064455 0
-5.0500984 -3.5186381 -1.1964134 0
-5.0224562 -3.5244513 -1.1926576 0
-5.0480547 -3.5677342 -1.2015702 0
-4.9930253 -3.5540042 -1.1913012 0
-4.9957047 -3.581208 -1.1947987 0
-5.0039825 -3.6126022 -1.1996686 0
-4.9560361 -3.6033263 -1.1910635 0
-5.0147252 -3.671761 -1.2081199 0
-4.9565182 -3.6547325 -1.1970422 0
-4.9451528 -3.6720107 -1.1972641 0
-4.9779801 -3.7223442 -1.2082267 0
-4.9250684 -3.7085896 -1.1983955 0
-4.95295 -3.7556727 -1.2082371 0
-4.8949356 -3.737596 -1.197135 0
-4.9196935 -3.7826793 -1.206285 0
-4.9124017 -3.8033481 -1.2076169 0
-4.8652811 -3.7930243 -1.1991528 0
-4.8623056 -3.8169844 -1.2015671 0
-4.8500848 -3.8337431 -1.2017168 0
-4.8392453 -3.8516078 -1.2022239 0
-4.8374925 -3.8767772 -1.2050109 0
-4.800086 -3.8733008 -1.1989211 0
-4.7919307 -3.8933201 -1.2001379 0
-4.7704473 -3.9024909 -1.1980276 0
-4.7787728 -3.9361198 -1.203426 0
-4.7833734 -3.9669018 -1.2079271 0
-4.7765608 -3.9883568 -1.2095767 0
-4.6868768 -3.9402175 -1.1902047 0
-4.7111564 -3.9876645 -1.1997588 0
-4.6863842 -3.9937434 -1.1968535 0
-4.6972375 -4.0302572 -1.2030697 0
-4.6670184 -4.0315747 -1.1987851 0
-4.6587067 -4.0517497 -1.200133 0
-4.6544447 -4.0755329 -1.2025484 0
-4.6571021 -4.1055274 -1.2067846 0
-4.6163182 -4.0971613 -1.1997691 0
-4.6349578 -4.1415696 -1.2082157 0
-4.585938 -4.1255035 -1.1990365 0
-4.6097479 -4.1749706 -1.2089149 0
-4.6147423 -4.2077436 -1.2139176 0
-4.587337 -4.21101 -1.2104158 0
-4.5264955 -4.1832108 -1.1980562 0
-4.5776391 -4.2590208 -1.2153654 0
-4.5165181 -4.230494 -1.202897 0
-4.4892063 -4.2332582 -1.1993964 0
-4.4631162 -4.2370152 -1.1962144 0
-4.4673347 -4.2695885 -1.2011752 0
-4.4497957 -4.2814646 -1.2003123 0
-4.453176 -4.3135633 -1.2051185 0
-4.399509 -4.2902637 -1.1944813 0
-4.3741622 -4.2942519 -1.1915019 0
-4.3573198 -4.3065023 -1.1908405 0
-4.360374 -4.3385167 -1.1956439 0
-4.3391056 -4.3464031 -1.1938013 0
-4.3413458 -4.3779063 -1.1984493 0
-4.3459182 -4.4120049 -1.2037883 0
-4.2900949 -4.3846412 -1.1923909 0
-4.2732677 -4.3968382 -1.1918048 0
-4.3083968 -4.4628239 -1.2057686 0
-4.2819967 -4.4653425 -1.2025634 0
-4.2705617 -4.4834118 -1.2035668 0
-4.2363443 -4.4774537 -1.1981475 0
-4.2421393 -4.5137968 -1.20406 0
-4.1912732 -4.4897432 -1.1938884 0
-4.2272286 -4.5588055 -1.2084775 0
-4.1507654 -4.5065565 -1.1909311 0
-4.1490836 -4.5351505 -1.1948045 0
-4.1888518 -4.6095572 -1.2107004 0
-4.1035876 -4.5462613 -1.1904553 0
-4.1269307 -4.6030579 -1.2016977 0
-4.0972891 -4.6009398 -1.1975517 0
-4.1060648 -4.6420383 -1.2046589 0
-4.0851235 -4.6496849 -1.203082 0
-4.0556769 -4.6475024 -1.1989923 0
-4.0463262 -4.6682897 -1.2008482 0
-4.0352135 -4.687129 -1.2022074 0
-4.0225134 -4.7041845 -1.2031159 0
-4.0185027 -4.7315197 -1.2066544 0
-4.0134087 -4.757761 -1.209908 0
-3.9460499 -4.7098598 -1.1943555 0
-3.9489293 -4.7455273 -1.200036 0
-3.9002488 -4.7191176 -1.190044 0
-3.9179089 -4.7729845 -1.2003087 0
-3.9008017 -4.7847662 -1.1999757 0
-3.8733222 -4.7837195 -1.1964496 0
-3.8534791 -4.791976 -1.1952764 0
-3.8511841 -4.8221397 -1.1995727 0
-3.8108487 -4.8045821 -1.1920199 0
-3.8289227 -4.860754 -1.2027644 0
-3.7929809 -4.8484807 -1.196574 0
-3.7907348 -4.879231 -1.2010194 0
-3.749835 -4.8601336 -1.1932173 0
-3.7805777 -4.9340963 -1.2082571 0
-3.721535 -4.8909183 -1.1946214 0
-3.7243643 -4.9288416 -1.2008276 0
-3.7084725 -4.9421735 -1.2010396 0
-3.692625 -4.9555779 -1.2012815 0
-3.6849301 -4.9800138 -1.2042034 0
-3.6749065 -5.001451 -1.2064009 0
-3.6613135 -5.0181255 -1.207455 0
-3.6015356 -4.9711142 -1.1932311 0
-3.6194777 -5.0312991 -1.2047577 0
-3.5674758 -4.9942503 -1.1930155 0
-3.5784793 -5.0453343 -1.2023455 0
-3.5386543 -5.0248027 -1.1946185 0
-3.546778 -5.0723786 -1.2030954 0
-3.5292711 -5.0835505 -1.2029319 0
-3.5099275 -5.0920477 -1.2021511 0
-3.4785862 -5.0829663 -1.1972469 0
-3.449939 -5.0775495 -1.1932398 0
-3.4535942 -5.1197729 -1.2004346 0
-3.4158723 -5.100657 -1.1932603 0
-3.4409459 -5.1755462 -1.2080743 0
-3.3931887 -5.141017 -1.1973523 0
-3.4169805 -5.2150121 -1.2119108 0
-3.3506858 -5.1514273 -1.194517 0
-3.3617654 -5.2065716 -1.2046834 0
-3.3299229 -5.1953979 -1.1995082 0
-3.3041654 -5.1934566 -1.1964954 0
-3.3132677 -5.2465215 -1.2061547 0
-3.2912781 -5.2506127 -1.2045516 0
-3.2471635 -5.219039 -1.1948038 0
-3.2522886 -5.2665615 -1.2031801 0
-3.1990163 -5.2193594 -1.1899394 0
-3.1858168 -5.237154 -1.1915544 0
-3.2058482 -5.3100996 -1.2056987 0
-3.1665392 -5.284956 -1.1975722 0
-3.1764288 -5.3420053 -1.2080796 0
-3.1514218 -5.3406296 -1.2053721 0
-3.1136208 -5.3172207 -1.1977259 0
-3.0953467 -5.3268924 -1.19756 0
-3.0706439 -5.3254032 -1.194904 0
-3.0892746 -5.3994694 -1.2091919 0
-3.039279 -5.3536491 -1.1966419 0
-3.0529068 -5.4198999 -1.2091554 0
-3.0247452 -5.4122615 -1.2051821 0
-2.9957788 -5.4028888 -1.2008516 0
-2.9763286 -5.4105062 -1.2003199 0
-2.9466143 -5.3992777 -1.1956304 0
-2.9602971 -5.4678674 -1.2086145 0
-2.9147344 -5.4270921 -1.1974345 0
-2.895972 -5.435802 -1.1972072 0
-2.8883657 -5.4656057 -1.2016318 0
-2.8694983 -5.4742551 -1.2014115 0
-2.8480625 -5.4779496 -1.2001197 0
-2.8158503 -5.4606485 -1.1942543 0
-2.8043215 -5.4833465 -1.1971554 0
-2.782356 -5.4856892 -1.1956234 0
-2.7607298 -5.4885888 -1.1942313 0
-2.7651381 -5.5435762 -1.2041717 0
-2.7538333 -5.5675693 -1.207371 0
-2.7131908 -5.5319958 -1.1976773 0
-2.7052619 -5.5629292 -1.2024038 0
-2.6586654 -5.5140419 -1.1899036 0
-2.6505692 -5.5446935 -1.1945935 0
-2.6312613 -5.5520668 -1.1942747 0
-2.6206396 -5.5779023 -1.1979352 0
-2.6291602 -5.6451387 -1.2104753 0
-2.5814872 -5.5916882 -1.1971514 0
-2.5744941 -5.6260319 -1.2026494 0
-2.5464871 -5.6145034 -1.1983531 0
-2.5154524 -5.5958781 -1.1925709 0
-2.4843175 -5.576539 -1.1866677 0
-2.4760575 -5.6085091 -1.1916975 0
-2.468785 -5.6431708 -1.197297 0
-2.4495652 -5.6507583 -1.1971575 0
-2.4345069 -5.6680222 -1.1990789 0
-2.4095228 -5.6621318 -1.196117 0
-2.4020145 -5.6974311 -1.2018659 0
-2.3815958 -5.702333 -1.2012087 0
-2.3431058 -5.6634965 -1.1913661 0
-2.3487394 -5.7314367 -1.2039946 0
-2.2948182 -5.6538081 -1.1860644 0
-2.3005409 -5.7228951 -1.1989326 0
-2.2949431 -5.7647457 -1.2060815 0
-2.2719877 -5.7632389 -1.2041658 0
-2.2565641 -5.7808471 -1.2062572 0
-2.213906 -5.7281895 -1.1937138 0
-2.1987338 -5.7461529 -1.1959144 0
-2.1727285 -5.735734 -1.192223 0
-2.1536138 -5.7433286 -1.1922941 0
-2.1449413 -5.7790651 -1.1982132 0
-2.1256139 -5.7863903 -1.1982474 0
-2.1034634 -5.7859535 -1.1966898 0
-2.1078765 -5.8591962 -1.2103699 0
-2.0589073 -5.783886 -1.1933799 0
-2.0498316 -5.8200808 -1.1994232 0
-2.0268452 -5.8169875 -1.1973784 0
-2.0155463 -5.8475862 -1.2022791 0
-1.9800172 -5.8076396 -1.1926943 0
-1.975099 -5.8574395 -1.2015549 0
-1.9431478 -5.8271394 -1.1939962 0
-1.9493846 -5.911819 -1.2100012 0
-1.9130456 -5.867692 -1.19965 0
-1.8977854 -5.8877978 -1.202453 0
-1.8906727 -5.9337935 -1.2105451 0
-1.8532157 -5.8843694 -1.1991878 0
-1.8312864 -5.8835149 -1.1977556 0
-1.8023992 -5.8598714 -1.1917055 0
-1.7952677 -5.9070959 -1.2000785 0
-1.7753638 -5.9127874 -1.2000188 0
-1.7514049 -5.9048014 -1.1971993 0
-1.7366025 -5.9277248 -1.2006599 0
-1.715651 -5.9298258 -1.1999135 0
-1.6931825 -5.9265232 -1.1980897 0
-1.6806902 -5.9583573 -1.2033794 0
-1.6559353 -5.9468355 -1.1999242 0
-1.6326503 -5.9402122 -1.1974766 0
-1.611105 -5.9396815 -1.1962739 0
-1.6069744 -6.0040569 -1.2081475 0
-1.5698125 -5.9449468 -1.1951874 0
-1.5556128 -5.9722185 -1.1996149 0
-1.5205464 -5.9188795 -1.1878701 0
-1.5169241 -5.9880166 -1.2007179 0
-1.5105565 -6.0479913 -1.2117217 0
-1.4781028 -6.0036016 -1.2018285 0
-1.4681201 -6.0503726 -1.2101991 0
-1.4417688 -6.0299268 -1.2051359 0
-1.423751 -6.0440984 -1.2070074 0
-1.4021355 -6.0430508 -1.2058526 0
-1.3797364 -6.0383964 -1.203994 0
-1.3559456 -6.0272636 -1.2008611 0
-1.3316845 -6.0135088 -1.1972243 0
-1.3134201 -6.0266824 -1.1989635 0
-1.2975562 -6.0513382 -1.2029964 0
-1.2777207 -6.0578394 -1.2034304 0
-1.2493888 -6.0234537 -1.1957605 0
-1.2276508 -6.0200787 -1.1942666 0
-1.2059371 -6.0165648 -1.1927607 0
-1.1944201 -6.0645556 -1.2014741 0
-1.1750288 -6.0734301 -1.2024449 0
-1.1511173 -6.0586934 -1.1987565 0
-1.1395128 -6.1092463 -1.207996 0
-1.1077033 -6.0511937 -1.195776 0
-1.0985007 -6.1166363 -1.2079735 0
-1.0728031 -6.0908556 -1.202165 0
-1.0419472 -6.0340266 -1.1902523 0
-1.0285397 -6.0778413 -1.1982081 0
-1.0090635 -6.0867295 -1.1992866 0
-0.98291504 -6.05475 -1.1923295 0
-0.97096765 -6.1106148 -1.2026829 0
-0.94409269 -6.0727854 -1.1946077 0
-0.93120617 -6.1251154 -1.2042809 0
-0.9103772 -6.1262693 -1.2039007 0
-0.89008254 -6.1310139 -1.20424 0
-0.86569452 -6.1069674 -1.1989399 0
-0.85616815 -6.1890192 -1.2144783 0
-0.82462859 -6.1119256 -1.1988008 0
-0.80346847 -6.109612 -1.1978118 0
-0.7835983 -6.1171017 -1.1987585 0
-0.76487935 -6.1340895 -1.2015781 0
-0.75061184 -6.1885881 -1.2117538 0
-0.72587144 -6.1572495 -1.2051343 0
-0.69932383 -6.1081214 -1.195053 0
-0.68427342 -6.1593347 -1.2046173 0
-0.65987426 -6.1268296 -1.1978207 0
-0.63402814 -6.0781956 -1.1878902 0
-0.62076604 -6.1508408 -1.201674 0
-0.60327345 -6.1850128 -1.2079482 0
-0.57658803 -6.1238618 -1.195621 0
-0.55671537 -6.1330614 -1.197046 0
-0.54125774 -6.1933475 -1.2084515 0
-0.51691127 -6.1525369 -1.2001436 0
-0.49192199 -6.1001921 -1.1896045 0
-0.47585583 -6.1586156 -1.2006799 0
-0.45529744 -6.1614342 -1.2009251 0
-0.43999705 -6.2389321 -1.2157359 0
-0.41316026 -6.1522737 -1.1985726 0
-0.39229313 -6.1499023 -1.1978477 0
-0.37032554 -6.1289082 -1.1935099 0
-0.3535057 -6.1955099 -1.2062421 0
-0.32887176 -6.1247811 -1.19225 0
-0.3101722 -6.1623559 -1.1993552 0
-0.29056695 -6.1858792 -1.2037371 0
-0.27071881 -6.2073073 -1.2077235 0
-0.24897377 -6.1850376 -1.2032214 0
-0.2267677 -6.1460667 -1.1954855 0
-0.20907062 -6.2335801 -1.2123647 0
-0.1862739 -6.1714449 -1.2001519 0
-0.1661507 -6.193264 -1.2042799 0
-0.14406143 -6.1374021 -1.1933169 0
-0.1246495 -6.1958294 -1.204589 0
-0.10267323 -6.124505 -1.1906487 0
-0.082885638 -6.1805382 -1.2014812 0
-0.062741823 -6.2383337 -1.2126688 0
-0.041282043 -6.1574473 -1.1969116 0
-0.020717079 -6.1814289 -1.201553 0
8.1256212e-06 -6.124248 -1.1904314 0
0.020567298 -6.1318827 -1.1919222 0
0.041246057 -6.1496458 -1.1953951 0
0.061973568 -6.1603217 -1.197504 0
0.082984015 -6.1866498 -1.2026693 0
0.10414355 -6.2112274 -1.2075081 0
0.12424596 -6.1749563 -1.200531 0
0.14411117 -6.1388268 -1.1935941 0
0.16570292 -6.175962 -1.2009156 0
0.18619904 -6.1684217 -1.1995641 0
0.20836665 -6.2120981 -1.2081867 0
0.22924076 -6.2126465 -1.2084361 0
0.24806887 -6.1621513 -1.1987692 0
0.26919922 -6.1720891 -1.2008713 0
0.29046133 -6.1832805 -1.2032316 0
0.31362507 -6.2306271 -1.2126427 0
0.32886496 -6.124351 -1.1921664 0
0.3500827 -6.1352324 -1.1945064 0
0.37583169 -6.2197609 -1.2112024 0
0.39589301 -6.2060781 -1.2087895 0
0.41287753 -6.147819 -1.197705 0
0.43400851 -6.1537852 -1.1991441 0
0.4561249 -6.1724091 -1.2030644 0
0.48067546 -6.220777 -1.2127991 0
0.49591249 -6.1494732 -1.1992152 0
0.51520795 -6.1320682 -1.1961511 0
0.53935689 -6.1714077 -1.2041709 0
0.5591588 -6.1597981 -1.2022647 0
0.57667696 -6.1246324 -1.1957717 0
0.6011529 -6.1631031 -1.2036694 0
0.62225342 -6.1654143 -1.2045215 0
0.64098078 -6.1446896 -1.2008858 0
0.65651143 -6.0954542 -1.191687 0
0.67828679 -6.1052999 -1.1940497 0
0.70494771 -6.1570973 -1.2046355 0
0.72165465 -6.1213412 -1.1981064 0
0.74148172 -6.1131768 -1.1969883 0
0.76363826 -6.1240039 -1.199603 0
0.7894758 -6.1628542 -1.2077248 0
0.80198503 -6.098207 -1.1955763 0
0.82806796 -6.1372948 -1.2037771 0
0.83976519 -6.0703278 -1.1911877 0
0.86883414 -6.1289983 -1.2032655 0
0.89355427 -6.1548128 -1.2089149 0
0.9105376 -6.1272368 -1.2040914 0
0.92513359 -6.0850635 -1.1964065 0
0.96359026 -6.1980939 -1.2192582 0
0.96431082 -6.0686169 -1.1944175 0
0.9918443 -6.1096516 -1.2031417 0
1.0125883 -6.1078906 -1.2034566 0
1.0300866 -6.0868845 -1.1999915 0
1.0543988 -6.1060376 -1.2044575 0
1.0714703 -6.0831933 -1.2006533 0
1.0970049 -6.1082139 -1.2063107 0
1.1132569 -6.0814404 -1.2017537 0
1.1369882 -6.0956206 -1.2053024 0
1.156021 -6.084415 -1.2038463 0
1.1667944 -6.0307827 -1.1940022 0
1.1938868 -6.0617628 -1.2009214 0
1.2077072 -6.0253124 -1.1944956 0
1.2316502 -6.0396094 -1.1981418 0
1.2567933 -6.0590706 -1.2028316 0
1.2787446 -6.0626144 -1.2043796 0
1.3007722 -6.0662584 -1.2059631 0
1.316654 -6.0414443 -1.201901 0
1.3245223 -5.9810915 -1.190771 0
1.3502198 -6.0017381 -1.1957761 0
1.3788403 -6.0344009 -1.2031981 0
1.3930618 -6.0038714 -1.1980354 0
1.4175382 -6.017652 -1.2017268 0
1.4205757 -5.9412212 -1.1874081 0
1.4568559 -6.003881 -1.2009007 0
1.4677418 -5.9614506 -1.1933913 0
1.494935 -5.9853783 -1.199178 0
1.5285065 -6.0336704 -1.2098733 0
1.5395088 -5.9926267 -1.2026714 0
1.5522006 -5.9590535 -1.1969713 0
1.5806174 -5.9858007 -1.2034017 0
1.5948205 -5.9585838 -1.1989981 0
1.6126155 -5.9451876 -1.1973838 0
1.6257154 -5.9149194 -1.1923788 0
1.6522398 -5.9335032 -1.1972351 0
1.6803764 -5.9571848 -1.2031434 0
1.6913768 -5.9201431 -1.1968009 0
1.7053506 -5.8941655 -1.1926985 0
1.7204142 -5.8724098 -1.1894567 0
1.7584716 -5.9285688 -1.2020192 0
1.7710179 -5.8982568 -1.1970706 0
1.7900699 -5.8899369 -1.1965934 0
1.8114694 -5.8893046 -1.1976922 0
1.8282279 -5.8736334 -1.195745 0
1.8557713 -5.8924294 -1.2008314 0
1.884654 -5.9148498 -1.2066815 0
1.8992162 -5.8921833 -1.2033496 0
1.9176104 -5.8816404 -1.2025027 0
1.9228148 -5.8311901 -1.1934996 0
1.9614792 -5.8820601 -1.2052506 0
1.9897848 -5.9009404 -1.2104795 0
1.9928766 -5.8453069 -1.2004311 0
2.0029237 -5.810915 -1.1947405 0
2.0152998 -5.7838025 -1.1905488 0
2.053637 -5.8308368 -1.2016408 0
2.0761597 -5.8323021 -1.2033707 0
2.1003196 -5.8381419 -1.2060218 0
2.1154969 -5.819005 -1.203527 0
2.121839 -5.7760663 -1.1961107 0
2.1364441 -5.756125 -1.193458 0
2.1582451 -5.7556334 -1.1948496 0
2.1984735 -5.8036509 -1.2063414 0
2.1904373 -5.7244258 -1.1913936 0
2.2282755 -5.7653232 -1.2014534 0
2.2685547 -5.8115187 -1.2126585 0
2.2668719 -5.7502179 -1.2014464 0
2.2670331 -5.6945934 -1.1914058 0
2.3011951 -5.7244782 -1.1992656 0
2.3220484 -5.7208529 -1.2001303 0
2.3625691 -5.7651405 -1.2110761 0
2.348213 -5.6757984 -1.1939552 0
2.3805864 -5.6998739 -1.2006921 0
2.4013917 -5.6959114 -1.2015467 0
2.4122362 -5.6684666 -1.1974566 0
2.4268532 -5.6501617 -1.1953019 0
2.4802487 -5.7214985 -1.2121457 0
2.4671328 -5.6393533 -1.1964884 0
2.5180676 -5.7036257 -1.2119093 0
2.5135789 -5.6421814 -1.2006375 0
2.534523 -5.6382627 -1.2016052 0
2.5493851 -5.6208529 -1.1997098 0
2.5852451 -5.6494865 -1.2076646 0
2.5935879 -5.6178603 -1.2027562 0
2.6075168 -5.598629 -1.2005038 0
2.6110001 -5.5573468 -1.1935222 0
2.6580491 -5.6085515 -1.2064264 0
2.6844645 -5.6155605 -1.2098633 0
2.689363 -5.5776706 -1.2036359 0
2.6940134 -5.5397611 -1.1973976 0
2.7330835 -5.5725183 -1.2064519 0
2.7329693 -5.5253506 -1.1982172 0
2.7554188 -5.5240541 -1.1999326 0
2.7810645 -5.5289798 -1.2030213 0
2.7966812 -5.513896 -1.2017728 0
2.8138344 -5.5019107 -1.2012101 0
2.8359022 -5.4994984 -1.2027526 0
2.86272 -5.5061059 -1.20629 0
2.8614161 -5.4588017 -1.1980215 0
2.867687 -5.4264407 -1.1930228 0
2.9018226 -5.4467483 -1.1996199 0
2.9456332 -5.4845891 -1.2101226 0
2.927789 -5.4077883 -1.1953363 0
2.9599619 -5.4237013 -1.2010406 0
2.9973047 -5.4486032 -1.2087735 0
2.9874322 -5.3878021 -1.1975002 0
3.0154548 -5.3956041 -1.2014747 0
3.0648527 -5.4410744 -1.2138811 0
3.0606008 -5.3911738 -1.2050312 0
3.0416629 -5.3162203 -1.1905503 0
3.0948617 -5.3673711 -1.2043225 0
3.0815189 -5.3030629 -1.1922046 0
3.1183085 -5.3251939 -1.1995237 0
3.1506104 -5.3392224 -1.2050564 0
3.173701 -5.3373857 -1.2070367 0
3.1605954 -5.2750044 -1.1953191 0
3.1944683 -5.2912183 -1.2014135 0
3.21435 -5.2840276 -1.202221 0
3.1977289 -5.2172275 -1.1894553 0
3.225203 -5.2226696 -1.1931547 0
3.258451 -5.2371497 -1.198952 0
3.2421887 -5.1722689 -1.1865807 0
3.3306477 -5.2740116 -1.2124766 0
3.2988539 -5.1850777 -1.1945671 0
3.330348 -5.1960306 -1.1996562 0
3.3476129 -5.1846223 -1.199607 0
3.3711007 -5.1827841 -1.20179 0
3.375385 -5.1514993 -1.1971532 0
3.4085426 -5.1642504 -1.2027653 0
3.411551 -5.1313033 -1.1977494 0
3.433955 -5.1276293 -1.1995724 0
3.4419267 -5.102447 -1.1963743 0
3.4892538 -5.1353831 -1.206833 0
3.4863069 -5.0942187 -1.1998996 0
3.5041556 -5.0836453 -1.2001696 0
3.5285094 -5.0824242 -1.2026676 0
3.5382922 -5.060214 -1.2002125 0
3.5407608 -5.0277653 -1.195325 0
3.569654 -5.0328631 -1.1993757 0
3.6021073 -5.0427041 -1.2045922 0
3.607631 -5.0148029 -1.20081 0
3.6195669 -4.9959745 -1.1992006 0
3.6552336 -5.0097647 -1.2054456 0
3.6699028 -4.9946132 -1.2047539 0
3.6799645 -4.9732752 -1.2025763 0
3.6934886 -4.9567089 -1.2015582 0
3.7141645 -4.9497318 -1.2028788 0
3.6977291 -4.8935657 -1.1922356 0
3.7467613 -4.9240441 -1.2027149 0
3.7685471 -4.9183679 -1.2044079 0
3.7506444 -4.8611565 -1.1934707 0
3.8191195 -4.9157391 -1.2100084 0
3.8278863 -4.8930726 -1.2075814 0
3.8408363 -4.8758516 -1.2065027 0
3.8130646 -4.8073502 -1.1927091 0
3.8593886 -4.832386 -1.2021242 0
3.8586667 -4.7984009 -1.1968815 0
3.893985 -4.8092132 -1.2028283 0
3.890363 -4.7719364 -1.1967607 0
3.9557197 -4.8190217 -1.2118887 0
3.9095526 -4.7303495 -1.1928791 0
3.9530277 -4.7504268 -1.2012776 0
3.9669428 -4.7347713 -1.2006754 0
4.0050836 -4.7478662 -1.2073945 0
4.0212369 -4.7347136 -1.2074716 0
4.0371637 -4.7212925 -1.2074941 0
4.0158162 -4.6645732 -1.1964247 0
4.0348907 -4.6550717 -1.1974509 0
4.0402899 -4.6298451 -1.1944395 0
4.0626202 -4.6240468 -1.1964511 0
4.0860662 -4.6194048 -1.198788 0
4.0958915 -4.5993462 -1.1971396 0
4.1124225 -4.5868516 -1.1974696 0
4.1545539 -4.6027012 -1.2052372 0
4.1490483 -4.5657315 -1.1991924 0
4.2018833 -4.5928388 -1.2100056 0
4.2113733 -4.5723352 -1.2083172 0
4.2061424 -4.5360413 -1.2024459 0
4.2253518 -4.5262246 -1.2035923 0
4.1919107 -4.4603276 -1.1898 0
4.2403669 -4.4816809 -1.1992818 0
4.2436991 -4.4551868 -1.1959928 0
4.270606 -4.4534407 -1.1993611 0
4.2980876 -4.4521213 -1.20288 0
4.3208261 -4.4457479 -1.2050654 0
4.2841597 -4.3785524 -1.1907381 0
4.319643 -4.3853073 -1.196507 0
4.3488288 -4.3854284 -1.2005117 0
4.401237 -4.4086156 -1.210892 0
4.3753819 -4.3534265 -1.199756 0
4.3753238 -4.3242731 -1.1957577 0
4.4153748 -4.3346891 -1.2027249 0
4.4209018 -4.3111019 -1.2002863 0
4.4263735 -4.2875786 -1.1978623 0
4.4548583 -4.2863131 -1.2016748 0
4.4882579 -4.2895632 -1.206798 0
4.4449592 -4.2197556 -1.191345 0
4.502789 -4.2460437 -1.2030222 0
4.5179191 -4.2317839 -1.203267 0
4.5068402 -4.1931276 -1.1965654 0
4.5753207 -4.2283111 -1.2109761 0
4.542778 -4.170084 -1.1986556 0
4.5642853 -4.1617146 -1.2006419 0
4.5610728 -4.1308646 -1.1961468 0
4.6325068 -4.1673741 -1.2112094 0
4.604125 -4.1139965 -1.2001755 0
4.6262269 -4.1059341 -1.2023417 0
4.6211867 -4.0738435 -1.1974751 0
4.6391883 -4.0621524 -1.1986039 0
