# .PCD v0.7 - Point Cloud Data file format
VERSION 0.7
FIELDS x y z intensity
SIZE 4 4 4 4
TYPE F F F F
COUNT 1 1 1 1
WIDTH 1402
HEIGHT 1
VIEWPOINT 0 0 0 1 0 0 0
POINTS 1402
DATA ascii
3.9946563 3.4274201 -1.2151741 0
3.9428897 3.4060223 -1.2028939 0
3.9403965 3.4270058 -1.2056319 0
3.9301391 3.4412966 -1.2060169 0
3.9189982 3.454824 -1.206146 0
3.8801341 3.4437511 -1.1977316 0
3.8584142 3.44767 -1.1945885 0
3.8648024 3.476752 -1.2001686 0
3.8398278 3.4776485 -1.1960273 0
3.849545 3.5100148 -1.2027129 0
3.8371594 3.5223551 -1.2025262 0
3.7805147 3.4937861 -1.1884388 0
3.8300562 3.5634532 -1.2077616 0
3.7675781 3.5289645 -1.1917843 0
3.7727869 3.5576656 -1.1971984 0
3.7322938 3.5431976 -1.188112 0
3.7413423 3.5757132 -1.1948022 0
3.7359676 3.5946209 -1.1969279 0
3.707969 3.5917006 -1.1918092 0
3.7442002 3.6512074 -1.2073826 0
3.7317791 3.6635852 -1.2073313 0
3.6749313 3.6320527 -1.1928726 0
3.6898634 3.6713479 -1.2017084 0
3.677511 3.6836762 -1.201701 0
3.6607053 3.691514 -1.2002472 0
3.6320171 3.6872287 -1.1948878 0
3.640811 3.7210288 -1.2018785 0
3.6403062 3.745553 -1.2058507 0
3.5966535 3.7255495 -1.1955217 0
3.5890946 3.7427521 -1.1971737 0
3.5842147 3.7628365 -1.1997473 0
3.5795925 3.7833028 -1.2024394 0
3.5431979 3.7700765 -1.1944534 0
3.545073 3.7975054 -1.199371 0
3.5330725 3.8101807 -1.1996262 0
3.5122375 3.8132756 -1.1968863 0
3.5167229 3.8439291 -1.2028 0
3.4952064 3.846225 -1.1998447 0
3.499171 3.8766229 -1.2056608 0
3.460242 3.859432 -1.1966994 0
3.4688148 3.895191 -1.2041742 0
3.4317429 3.8796749 -1.1958138 0
3.4392848 3.9145706 -1.2030084 0
3.4049797 3.9018312 -1.1955783 0
3.3817236 3.9015098 -1.191999 0
3.3849006 3.9317327 -1.1977586 0
3.3961217 3.9716208 -1.2064345 0
3.3451295 3.9386463 -1.1930044 0
3.3651397 3.9892383 -1.2049042 0
3.3696408 4.0218573 -1.2113373 0
3.3452687 4.0200715 -1.2074144 0
3.3173614 4.0138297 -1.2021923 0
3.267308 3.9803698 -1.1888829 0
3.2643142 4.0040216 -1.1926718 0
3.2470407 4.0102134 -1.1912665 0
3.2654657 4.0607324 -1.2030145 0
3.2298551 4.0441399 -1.1948839 0
3.2311997 4.0737596 -1.2004277 0
3.2197912 4.0874496 -1.2012739 0
3.211858 4.1056223 -1.2034431 0
3.1862955 4.1012068 -1.1990106 0
3.1821551 4.1243453 -1.2026495 0
3.1781337 4.1478133 -1.2063787 0
3.1439342 4.1318007 -1.1986488 0
3.1254385 4.1361976 -1.1968776 0
3.1084385 4.1425028 -1.1956797 0
3.1095238 4.1730208 -1.2014723 0
3.0830152 4.1665301 -1.1966207 0
3.0879848 4.2026429 -1.2040119 0
3.0903823 4.2355947 -1.210477 0
3.0611398 4.2251949 -1.204565 0
3.0388877 4.2242188 -1.2013751 0
3.0177207 4.2246032 -1.1986002 0
3.0090594 4.2424793 -1.2008029 0
2.9917278 4.2481561 -1.1995637 0
2.9969022 4.2859569 -1.2073935 0
2.962549 4.2672215 -1.1993107 0
2.9455407 4.2732358 -1.1982186 0
2.9373975 4.2921481 -1.2007533 0
2.9026668 4.2720613 -1.1924046 0
2.9197574 4.3283629 -1.2053802 0
2.9114254 4.3473806 -1.2079511 0
2.8719697 4.3197207 -1.1975833 0
2.872283 4.3517685 -1.2037914 0
2.8572006 4.3606482 -1.2035911 0
2.826762 4.3459091 -1.1969001 0
2.8069506 4.3472705 -1.1946765 0
2.8118901 4.3871298 -1.2030326 0
2.7905831 4.3861871 -1.2002017 0
2.7418177 4.3416114 -1.1854823 0
2.7624769 4.4069843 -1.2007966 0
2.7318029 4.3906941 -1.1938555 0
2.7254105 4.4133406 -1.1975219 0
2.6837692 4.3786812 -1.1856691 0
2.6992962 4.4373374 -1.1990949 0
2.6617448 4.4088321 -1.1889735 0
2.6629813 4.4444909 -1.1961755 0
2.6478732 4.4530721 -1.1960889 0
2.6021876 4.4098306 -1.1821243 0
2.638175 4.5052605 -1.2053277 0
2.5979364 4.4708538 -1.1937855 0
2.5921173 4.4954691 -1.1980309 0
2.5787508 4.5071421 -1.1988308 0
2.5792651 4.5433125 -1.2061447 0
2.54303 4.5146756 -1.1962719 0
2.5505564 4.5637536 -1.2070036 0
2.5213764 4.5472751 -1.2004029 0
2.5103076 4.563323 -1.2024106 0
2.4820414 4.5479813 -1.1961685 0
2.4673195 4.5572758 -1.1964307 0
2.4539704 4.5691433 -1.1973795 0
2.4637725 4.6245246 -1.2097211 0
2.4310341 4.6001754 -1.2012126 0
2.4240172 4.6243639 -1.2053999 0
2.3937817 4.6041579 -1.1980342 0
2.3887436 4.63235 -1.2032791 0
2.3596008 4.6137447 -1.1963845 0
2.3552618 4.6436 -1.2020719 0
2.3314219 4.6350541 -1.1978294 0
2.3246393 4.660429 -1.202366 0
2.3017085 4.6534538 -1.1985686 0
2.3098934 4.709671 -1.2110467 0
2.2627499 4.6529441 -1.1945025 0
2.2467761 4.6597562 -1.1943107 0
2.2793579 4.7681289 -1.2201211 0
2.2259479 4.6968069 -1.199954 0
2.2016125 4.6859918 -1.1952984 0
2.1940649 4.7109013 -1.1997691 0
2.1629324 4.6850357 -1.191328 0
2.1659081 4.7331176 -1.201701 0
2.1425283 4.7238202 -1.1975101 0
2.1241732 4.7254043 -1.1960994 0
2.1141162 4.7455153 -1.199389 0
2.08723 4.7277436 -1.1931219 0
2.0823166 4.7597437 -1.199429 0
2.0717521 4.7791686 -1.2025669 0
2.0554106 4.7853751 -1.2023877 0
2.0263975 4.7617917 -1.1947483 0
2.0065079 4.7592783 -1.192423 0
2.0024025 4.7943826 -1.1995294 0
1.9892498 4.8081589 -1.2013007 0
1.9702996 4.8079247 -1.199585 0
1.9643947 4.8396983 -1.2058624 0
1.9397153 4.8252573 -1.2006371 0
1.9219103 4.8276744 -1.1996285 0
1.901371 4.8230767 -1.1968951 0
1.8819894 4.8212266 -1.1948634 0
1.8716154 4.8425193 -1.1985785 0
1.8484188 4.8306046 -1.1940888 0
1.8425236 4.8639951 -1.2008089 0
1.8234541 4.8628087 -1.199 0
1.8056865 4.8649793 -1.1980356 0
1.7837198 4.855639 -1.1942561 0
1.7817127 4.9008794 -1.203907 0
1.7697483 4.9192715 -1.2069606 0
1.7276742 4.8533444 -1.1893573 0
1.7045457 4.8396707 -1.1845993 0
1.707731 4.9010968 -1.1982262 0
1.6934184 4.9129734 -1.1997349 0
1.6834314 4.9376731 -1.2043815 0
1.6505431 4.8948793 -1.1925869 0
1.6538191 4.9594526 -1.2069618 0
1.6280404 4.9372478 -1.2002226 0
1.5971794 4.8988233 -1.1895733 0
1.5959044 4.9511795 -1.2009809 0
1.5821657 4.9655123 -1.203164 0
1.5593766 4.9513192 -1.1984514 0
1.5351198 4.9319515 -1.1925108 0
1.5275002 4.9660869 -1.1995195 0
1.5225258 5.0096264 -1.2087963 0
1.4911695 4.9662399 -1.1971143 0
1.4831406 5.0003085 -1.2041211 0
1.4623829 4.9916534 -1.2008494 0
1.4401345 4.9775047 -1.1962774 0
1.4267039 4.9937377 -1.1990223 0
1.4003694 4.9645181 -1.1908724 0
1.3880584 4.9847784 -1.1946094 0
1.3694446 4.9825168 -1.1929603 0
1.3580984 5.0068665 -1.1976933 0
1.3389438 5.0025749 -1.1955861 0
1.3255152 5.0197282 -1.1986169 0
1.310418 5.0308261 -1.2002109 0
1.2939584 5.0368075 -1.2005961 0
1.2711917 5.0179386 -1.1950759 0
1.256808 5.0319724 -1.1974078 0
1.2414111 5.0421743 -1.1988384 0
1.2306046 5.0714722 -1.2048165 0
1.2054094 5.0413394 -1.196691 0
1.1913298 5.0573654 -1.1995403 0
1.160356 5.0009475 -1.1852293 0
1.1497588 5.0318408 -1.1916307 0
1.1373509 5.0555339 -1.1963319 0
1.1282704 5.0948853 -1.204742 0
1.1102746 5.0944757 -1.2037581 0
1.0874496 5.0714107 -1.1974398 0
1.0666221 5.0569277 -1.1931691 0
1.0559707 5.0908933 -1.2003411 0
1.0333108 5.0670176 -1.1938881 0
1.0155013 5.0663877 -1.1929307 0
1.0127528 5.1420846 -1.2099481 0
0.99613452 5.1486969 -1.2107111 0
0.96865618 5.0982695 -1.1980827 0
0.94622797 5.0729175 -1.1913729 0
0.92726451 5.0654111 -1.1888732 0
0.91967082 5.1208029 -1.2011435 0
0.90114927 5.1162086 -1.1993504 0
0.88600338 5.1308579 -1.2020812 0
0.86589944 5.1166859 -1.1980741 0
0.86745989 5.2324824 -1.2244999 0
0.83342856 5.1338282 -1.2007524 0
0.8152107 5.1302977 -1.1992806 0
0.79505551 5.1140289 -1.1948477 0
0.77893239 5.1234255 -1.1964263 0
0.77024752 5.1831899 -1.2097725 0
0.74214041 5.1118722 -1.1925393 0
0.72872412 5.1406236 -1.1986699 0
0.71178275 5.1451936 -1.1991724 0
0.69614404 5.1595292 -1.2019628 0
0.67252153 5.1137805 -1.1907731 0
0.66017371 5.1534882 -1.1994972 0
0.64267433 5.1539326 -1.1990924 0
0.62386608 5.1434898 -1.1961694 0
0.60331511 5.1175413 -1.1896577 0
0.59844631 5.2269015 -1.2146071 0
0.57468981 5.1728168 -1.2015846 0
0.55538225 5.1565089 -1.1973571 0
0.54155093 5.1915169 -1.2050577 0
0.51472121 5.0999637 -1.1833991 0
0.50380343 5.1650629 -1.1981061 0
0.48923305 5.1959291 -1.2048786 0
0.46927312 5.1696005 -1.1984017 0
0.45075673 5.1576309 -1.1952699 0
0.43919435 5.2273445 -1.2110778 0
0.4148539 5.144321 -1.1915138 0
0.39959311 5.1714301 -1.1974758 0
0.38589999 5.222106 -1.2089037 0
0.36570787 5.1853538 -1.2001051 0
0.3507461 5.2226715 -1.208463 0
0.32845944 5.1489792 -1.19115 0
0.31673935 5.2418222 -1.2123755 0
0.29888293 5.2379518 -1.2112416 0
0.27796352 5.1764293 -1.1967927 0
0.25865993 5.1386628 -1.1878539 0
0.24458554 5.2066865 -1.203382 0
0.22594705 5.1804209 -1.1971296 0
0.20950317 5.2041602 -1.2024465 0
0.19218108 5.208293 -1.2032456 0
0.17554289 5.2335134 -1.2089294 0
0.1568315 5.1955309 -1.2000273 0
0.13946632 5.1980901 -1.2005036 0
0.12278473 5.2303667 -1.2078561 0
0.1037435 5.1559949 -1.1905943 0
0.087078556 5.1934533 -1.1991699 0
0.070095249 5.2257624 -1.206569 0
0.051920105 5.1609836 -1.1915654 0
0.034522593 5.1472006 -1.1883497 0
0.017355498 5.174325 -1.1945919 0
6.9066818e-06 5.2055383 -1.2017914 0
-0.017239003 5.1436629 -1.187513 0
-0.03492251 5.2088876 -1.2025917 0
-0.052341353 5.2042294 -1.2015499 0
-0.069832161 5.2071791 -1.2022783 0
-0.087228544 5.2032223 -1.2014254 0
-0.10468411 5.2034297 -1.2015476 0
-0.12150247 5.1763301 -1.1953773 0
-0.13943735 5.1975245 -1.2003731 0
-0.15598956 5.1680937 -1.1936899 0
-0.17482153 5.21242 -1.2040567 0
-0.19263828 5.2210598 -1.206195 0
-0.20861292 5.1823883 -1.1974157 0
-0.22584945 5.1784983 -1.1966852 0
-0.24286823 5.1704211 -1.1950002 0
-0.26103997 5.1862202 -1.1988472 0
-0.28122389 5.2374053 -1.2108903 0
-0.29926708 5.2449284 -1.2128549 0
-0.31416154 5.1993904 -1.2025613 0
-0.32794264 5.1410923 -1.1893252 0
-0.34895059 5.1961422 -1.2023242 0
-0.36502925 5.1759272 -1.1979231 0
-0.38259238 5.1775336 -1.198585 0
-0.40449753 5.2350831 -1.2122147 0
-0.41616216 5.1607146 -1.1953107 0
-0.43328223 5.1571417 -1.1948129 0
-0.4505544 5.1554732 -1.1947696 0
-0.47281104 5.2087283 -1.207472 0
-0.48627561 5.1646657 -1.1976287 0
-0.5004952 5.1312876 -1.1902711 0
-0.52081853 5.1605134 -1.1974488 0
-0.54008073 5.177556 -1.2018167 0
-0.56085765 5.2074757 -1.2091914 0
-0.57113779 5.1409693 -1.1941863 0
-0.58969831 5.1506166 -1.1968799 0
-0.60969859 5.1718063 -1.2022721 0
-0.6213879 5.1231723 -1.1914439 0
-0.64006782 5.1331406 -1.1942545 0
-0.66058069 5.156774 -1.2002616 0
-0.67396325 5.1248484 -1.19335 0
-0.69779891 5.1718984 -1.2048439 0
-0.71309984 5.1548152 -1.2014145 0
-0.72355807 5.1042781 -1.1901946 0
-0.75274616 5.1850214 -1.2096038 0
-0.76152241 5.1245699 -1.19609 0
-0.77777368 5.1158957 -1.1946673 0
-0.79603678 5.1204305 -1.1963428 0
-0.8181417 5.1488314 -1.2036126 0
-0.83139497 5.1213875 -1.1978421 0
-0.84780008 5.1139789 -1.1967674 0
-0.8664676 5.1201258 -1.198879 0
-0.88005066 5.0964661 -1.1940233 0
-0.90279621 5.1256385 -1.2015604 0
-0.92101645 5.1283741 -1.2029186 0
-0.93602324 5.1133342 -1.2001204 0
-0.95084268 5.0977325 -1.1972002 0
-0.95880181 5.0464764 -1.1859109 0
-0.98086333 5.0698371 -1.1921668 0
-1.0021738 5.0884428 -1.1973252 0
-1.0213529 5.0956516 -1.1998206 0
-1.0390373 5.0951681 -1.2005202 0
-1.0542371 5.0826039 -1.198386 0
-1.0760587 5.1017342 -1.2037405 0
-1.0868491 5.0686755 -1.1967934 0
-1.1027505 5.0600166 -1.1956152 0
-1.1136255 5.0288172 -1.1891187 0
-1.1398382 5.0666528 -1.1989623 0
-1.1472013 5.0207095 -1.1889939 0
-1.1761841 5.0692248 -1.2014104 0
-1.1940501 5.0689735 -1.2022929 0
-1.2248615 5.1227531 -1.2160159 0
-1.2351665 5.0903311 -1.2092959 0
-1.2339543 5.0119452 -1.1916502 0
-1.2540954 5.0211682 -1.1948361 0
-1.2892352 5.0892205 -1.2120516 0
-1.3081893 5.0922585 -1.2138128 0
-1.2996944 4.9897113 -1.1904013 0
-1.3302777 5.037818 -1.2029356 0
-1.3354661 4.9896345 -1.1924926 0
-1.3681641 5.0440283 -1.206582 0
-1.3777273 5.0127039 -1.2001872 0
-1.3927277 5.0015979 -1.1986393 0
-1.4035107 4.9757051 -1.1935551 0
-1.4208726 4.9733768 -1.1941326 0
-1.4539697 5.025373 -1.2077808 0
-1.445676 4.9346752 -1.1871411 0
-1.4778163 4.9824071 -1.1998093 0
-1.4885418 4.9575367 -1.1950154 0
-1.513965 4.9815059 -1.20201 0
-1.5312917 4.9784603 -1.2025073 0
-1.5547425 4.9950404 -1.2077644 0
-1.5578853 4.94663 -1.1973153 0
-1.5653716 4.9128504 -1.1904027 0
-1.5935708 4.9439855 -1.1992347 0
-1.5953845 4.893362 -1.1882461 0
-1.6333884 4.9535103 -1.2041749 0
-1.6365379 4.9076734 -1.1943593 0
-1.6581335 4.9174328 -1.1980807 0
-1.6781243 4.9221497 -1.2005939 0
-1.679119 4.8715296 -1.1896133 0
-1.7174255 4.9289618 -1.2050375 0
-1.732152 4.9180942 -1.2037938 0
-1.7314969 4.8641238 -1.1919978 0
-1.7600068 4.8922343 -1.2003258 0
-1.7782035 4.8912673 -1.2015446 0
-1.8126277 4.9343724 -1.2136195 0
-1.8266646 4.9215398 -1.2119628 0
-1.81486 4.8399286 -1.1933573 0
-1.8325136 4.8376088 -1.1942935 0
-1.8402597 4.8093195 -1.1888262 0
-1.8793043 4.8624516 -1.2035108 0
-1.8990551 4.8649831 -1.2057065 0
-1.8875383 4.7880254 -1.1881956 0
-1.9288667 4.8451858 -1.2039787 0
-1.9350724 4.8137445 -1.1977712 0
-1.9635981 4.8377724 -1.2053813 0
-1.9685227 4.8036246 -1.1985108 0
-1.9852504 4.7985282 -1.1988932 0
-1.9970398 4.7815781 -1.1963245 0
-2.010087 4.7678032 -1.1945575 0
-2.0280747 4.7657681 -1.1957445 0
-2.0449381 4.7610278 -1.1962687 0
-2.0764754 4.7900991 -1.2053159 0
-2.1070211 4.8162479 -1.2136663 0
-2.0947201 4.7447438 -1.1974108 0
-2.1275287 4.7756562 -1.2070054 0
-2.1287873 4.7357025 -1.1987047 0
-2.1175954 4.6688814 -1.1835814 0
-2.1580391 4.7159543 -1.197342 0
-2.1648428 4.6892066 -1.1923872 0
-2.2126656 4.7508726 -1.2099475 0
-2.2150178 4.7145567 -1.2025832 0
-2.2181668 4.6804209 -1.1957663 0
-2.2534943 4.7140574 -1.2062832 0
-2.2663603 4.7004056 -1.2047276 0
-2.2686076 4.6650214 -1.1976013 0
-2.2915978 4.672399 -1.2014611 0
-2.3040361 4.6581907 -1.1997871 0
-2.3287373 4.6686754 -1.2044919 0
-2.3538127 4.6795993 -1.2093395 0
-2.361218 4.6553741 -1.2051181 0
-2.3626506 4.6197386 -1.1979373 0
-2.4087873 4.6712499 -1.2133819 0
-2.4009073 4.6178932 -1.2016065 0
-2.39956 4.5777354 -1.193244 0
-2.4451315 4.6268811 -1.2081845 0
-2.4496627 4.5980697 -1.2027991 0
-2.4720461 4.6028285 -1.2062052 0
-2.4607642 4.5451965 -1.1932578 0
-2.4926381 4.5674272 -1.2012813 0
-2.4966359 4.5384984 -1.1958678 0
-2.4916828 4.493751 -1.1862717 0
-2.5549438 4.5716324 -1.2090856 0
-2.5579333 4.5411615 -1.2032882 0
-2.5894234 4.5612345 -1.2109007 0
-2.5745149 4.4997659 -1.1968671 0
-2.5954926 4.5013504 -1.1995964 0
-2.6374359 4.5388575 -1.2119417 0
-2.6331685 4.4967384 -1.2030458 0
-2.6403804 4.4745817 -1.1994798 0
-2.6499259 4.4565516 -1.1970215 0
-2.6883814 4.4869108 -1.2075902 0
-2.6678591 4.4189858 -1.19171 0
-2.7010419 4.4402342 -1.1998756 0
-2.7483268 4.484036 -1.2141954 0
-2.7383792 4.4343672 -1.2032254 0
-2.7509401 4.4214783 -1.202224 0
-2.7359872 4.3647509 -1.1892871 0
-2.7966776 4.4285069 -1.2092072 0
-2.7695525 4.353157 -1.1911616 0
-2.8232961 4.4049506 -1.2079175 0
-2.8479333 4.4107685 -1.2121243 0
-2.8275638 4.3471665 -1.1972445 0
-2.8088601 4.2868958 -1.1832324 0
-2.8790367 4.3620257 -1.2066268 0
-2.8800044 4.3318305 -1.2009385 0
-2.9173424 4.3562412 -1.210411 0
-2.8876083 4.2807283 -1.1921126 0
-2.9120243 4.2858577 -1.1962532 0
-2.9219155 4.2695503 -1.1944293 0
-2.9500887 4.2798581 -1.2000734 0
-2.9350529 4.2276402 -1.188184 0
-2.9742103 4.2535281 -1.1982559 0
-2.9924631 4.2492242 -1.1998631 0
-2.9950569 4.2227612 -1.1952195 0
-3.0174365 4.2242289 -1.1984917 0
-3.0537946 4.2449641 -1.2072729 0
-3.0377319 4.1929092 -1.1953583 0
-3.0608358 4.1951222 -1.1989082 0
-3.0824416 4.1951218 -1.2018549 0
-3.0965741 4.1848774 -1.2018877 0
-3.1325922 4.2040019 -1.2103899 0
-3.1112616 4.1462879 -1.1967698 0
-3.1319411 4.1448259 -1.1993721 0
-3.1552734 4.1467257 -1.2029762 0
-3.1728225 4.1409044 -1.2043668 0
-3.1866009 4.1301303 -1.2043338 0
-3.1845484 4.0989804 -1.1983572 0
-3.1844625 4.0706258 -1.1931823 0
-3.2713561 4.1529326 -1.2205163 0
-3.2325301 4.075459 -1.2009259 0
-3.2268503 4.0403996 -1.1937762 0
-3.252794 4.0449967 -1.1983501 0
-3.2646646 4.0320015 -1.1977363 0
-3.3110716 4.0613971 -1.2097594 0
-3.2978988 4.0176587 -1.2000179 0
-3.3008082 3.9938228 -1.1961974 0
-3.3084154 3.9758058 -1.1941167 0
-3.370065 4.0223856 -1.2114936 0
-3.3600338 3.9832067 -1.2030798 0
-3.3038847 3.8901045 -1.1782986 0
-3.3775027 3.9498677 -1.199824 0
-3.4096527 3.9605048 -1.2065209 0
-3.4087334 3.9326923 -1.2015231 0
-3.3949728 3.8903849 -1.1920682 0
-3.4163663 3.8885057 -1.1949955 0
-3.4202659 3.8667207 -1.1918181 0
-3.4565277 3.8814142 -1.1999123 0
-3.4793258 3.8807383 -1.203303 0
-3.4928358 3.8696249 -1.2034814 0
-3.5107503 3.8633506 -1.2051842 0
-3.4930017 3.8180211 -1.1946902 0
-3.5188525 3.8204777 -1.1991439 0
-3.5419583 3.8197837 -1.2026467 0
-3.5335002 3.7851286 -1.195459 0
-3.5477345 3.7749236 -1.195986 0
-3.5569766 3.7594197 -1.1948458 0
-3.5337331 3.7098589 -1.182853 0
-3.5603721 3.7128193 -1.1875963 0
-3.5948367 3.7236874 -1.1949211 0
-3.628094 3.7330077 -1.2018087 0
-3.6234944 3.7033503 -1.1961653 0
-3.6687133 3.7245023 -1.2069637 0
-3.6658456 3.696717 -1.2019358 0
-3.6743491 3.6805286 -1.2006711 0
-3.6654758 3.6471021 -1.1937691 0
-3.6745725 3.6317174 -1.1927593 0
-3.7509556 3.6824307 -1.2135386 0
-3.7300882 3.6374652 -1.202835 0
-3.7371864 3.6200211 -1.2012032 0
-3.7612708 3.6189861 -1.2050376 0
-3.7667866 3.6000502 -1.2029309 0
-3.7331994 3.5440762 -1.1884034 0
-3.7556946 3.5415668 -1.1917777 0
-3.752768 3.5151112 -1.1871024 0
-3.8543591 3.5860837 -1.2154282 0
-3.8224645 3.532573 -1.2016289 0
-3.8535047 3.5373781 -1.2076516 0
-3.8577464 3.5175116 -1.2052782 0
-3.8493154 3.4862602 -1.1989853 0
-3.8213913 3.4377184 -1.1866908 0
-3.87535 3.4628215 -1.1998348 0
-3.9466481 3.5028033 -1.2182662 0
-3.9360213 3.4698493 -1.211388 0
-3.9726956 3.4785783 -1.2190788 0
-3.9029305 3.3944392 -1.1941712 0
-3.9277596 3.3929706 -1.1982807 0
-3.9600165 3.3977175 -1.2046394 0
-3.9734964 3.3862193 -1.2052795 0
-3.9776628 3.3668137 -1.2031125 0
-3.9586141 3.3279731 -1.1939691 0
-4.0213432 3.3577616 -1.2094867 0
-3.9880841 3.3073602 -1.1961415 0
-4.0368891 3.3250542 -1.2074291 0
-3.9907568 3.2646606 -1.1903504 0
-4.0232205 3.2687628 -1.1967578 0
-4.0406737 3.2605133 -1.1986909 0
-4.0798659 3.2696137 -1.2070587 0
-4.0683966 3.238081 -1.2004466 0
-4.0695028 3.2167327 -1.1975838 0
-4.1036091 3.221396 -1.2044355 0
-4.0908742 3.1892889 -1.1975526 0
-4.0915852 3.1678441 -1.1946447 0
-4.1264424 3.1727602 -1.2017094 0
-4.1021876 3.1322825 -1.1915809 0
-4.1760173 3.166548 -1.2099357 0
-4.1766152 3.1450021 -1.207047 0
-4.1684976 3.1170437 -1.2016739 0
-4.1813731 3.1048682 -1.2023779 0
-4.2359605 3.1234231 -1.2150567 0
-4.1780872 3.0591784 -1.1955073 0
-4.1953855 3.0502892 -1.1975238 0
-4.2178659 3.045069 -1.2010196 0
-4.2333093 3.0346792 -1.2025131 0
-4.2135863 2.9992046 -1.1940475 0
-4.2325435 2.9913683 -1.1965706 0
-4.2440176 2.9781909 -1.1969848 0
-4.2377682 2.9526501 -1.1924233 0
-4.3114557 2.9825683 -1.2103369 0
-4.2534165 2.9213812 -1.1912875 0
-4.3105822 2.9394226 -1.2045312 0
-4.2777905 2.8960977 -1.1926479 0
-4.283658 2.8791723 -1.1915858 0
-4.3602467 2.9094741 -1.2101701 0
-4.3202658 2.861908 -1.1964036 0
-4.3344922 2.8504682 -1.19769 0
-4.3670373 2.8509429 -1.2040348 0
-4.3110371 2.7938147 -1.1860056 0
-4.3734479 2.813484 -1.2005736 0
-4.3636918 2.7865667 -1.1953239 0
-4.3752427 2.7733355 -1.1959341 0
-4.417625 2.7794819 -1.2049649 0
-4.4099021 2.7540274 -1.200333 0
-4.4214611 2.7406831 -1.2009714 0
-4.407949 2.7118921 -1.1948247 0
-4.4466624 2.7151999 -1.202844 0
-4.4346666 2.6875043 -1.1971549 0
-4.4816866 2.6954963 -1.2074016 0
-4.4733772 2.6701157 -1.2027444 0
-4.4282355 2.6230745 -1.188236 0
-4.5178928 2.6557608 -1.2098976 0
-4.5090985 2.6302891 -1.2051741 0
-4.4997234 2.6046393 -1.2003275 0
-4.5275321 2.6005092 -1.205413 0
-4.5171337 2.5744338 -1.2003398 0
-4.5632153 2.580466 -1.2102791 0
-4.5590549 2.5579779 -1.2068943 0
-4.538918 2.5267081 -1.1993141 0
-4.5414729 2.5082221 -1.1977605 0
-4.5441551 2.489857 -1.1962594 0
-4.5591173 2.4782164 -1.198004 0
-4.5551186 2.4562938 -1.1947825 0
-4.583674 2.4518907 -1.2001095 0
-4.5885892 2.4347684 -1.1992522 0
-4.5550237 2.3974206 -1.1883723 0
-4.6069455 2.4050581 -1.1998078 0
-4.6259513 2.3952773 -1.2026592 0
-4.5770717 2.3505411 -1.1878959 0
-4.6246023 2.3553891 -1.1981752 0
-4.6521468 2.3498075 -1.2032636 0
-4.6429553 2.3256593 -1.1988628 0
-4.6049266 2.2873297 -1.1870564 0
-4.6754074 2.3028276 -1.2032279 0
-4.6153483 2.2540493 -1.18582 0
-4.6970773 2.2744913 -1.2048525 0
-4.6507897 2.2328589 -1.1910522 0
-4.7154498 2.2444792 -1.2056774 0
-4.6910472 2.213603 -1.1975336 0
-4.6542444 2.177187 -1.1862683 0
-4.7329988 2.1947162 -1.204459 0
-4.7026625 2.1615212 -1.1948879 0
-4.711442 2.1464522 -1.1952834 0
-4.7019844 2.1231351 -1.1910713 0
-4.7378716 2.1202445 -1.1983545 0
-4.7130737 2.090209 -1.1903031 0
-4.75562 2.0900254 -1.1992718 0
-4.8080497 2.0938616 -1.2107164 0
-4.7868633 2.0655694 -1.2036307 0
-4.8111949 2.0569615 -1.2080078 0
-4.7834454 2.0261552 -1.1993281 0
-4.779758 2.0057189 -1.1967106 0
-4.8038993 1.9969332 -1.2010719 0
-4.8356361 1.9911379 -1.2073308 0
-4.7991304 1.9573132 -1.196571 0
-4.8468823 1.9578606 -1.2068336 0
-4.8240337 1.9298432 -1.1995265 0
-4.8284774 1.9128661 -1.19903 0
-4.809165 1.8865851 -1.1926569 0
-4.8333926 1.8774145 -1.1970975 0
-4.8517303 1.8658404 -1.2000831 0
-4.9168177 1.8719721 -1.2146232 0
-4.8608513 1.8320279 -1.1992735 0
-4.8378844 1.8048706 -1.1921074 0
-4.8420229 1.7879436 -1.1916432 0
-4.851903 1.7731289 -1.1926049 0
-4.9437556 1.7879303 -1.2137022 0
-4.9039254 1.7549554 -1.2024724 0
-4.9186559 1.7416458 -1.2046459 0
-4.945271 1.7324326 -1.2097349 0
-4.9304247 1.7086937 -1.2046949 0
-4.914794 1.6848406 -1.1994886 0
-4.9378376 1.67426 -1.2037358 0
-4.9581585 1.6626362 -1.2073239 0
-4.9055519 1.626719 -1.1931792 0
-4.9259672 1.6151773 -1.196821 0
-4.9240875 1.5962963 -1.1950573 0
-4.951973 1.5870081 -1.2005267 0
-4.9653921 1.5729705 -1.2024947 0
-4.9890628 1.5620824 -1.206952 0
-4.981349 1.5413474 -1.2038288 0
-4.9586253 1.5161179 -1.1971022 0
-4.9957685 1.5091776 -1.2048409 0
-5.0094328 1.4949954 -1.2069206 0
-4.9922333 1.4716518 -1.2015812 0
-4.9944177 1.4541131 -1.2009268 0
-4.9943571 1.4359485 -1.1997478 0
-5.0068293 1.4213772 -1.2015923 0
-5.017333 1.4061984 -1.2029749 0
-4.9591031 1.3719621 -1.1879039 0
-5.0026379 1.3659661 -1.1972283 0
-5.0493259 1.3605392 -1.2073032 0
-5.0558252 1.3441248 -1.207773 0
-5.0530467 1.3252629 -1.206041 0
-5.053648 1.3073269 -1.2051315 0
-5.0899687 1.2985306 -1.2127477 0
-5.0493588 1.2701544 -1.2020506 0
-5.001627 1.2403319 -1.1896908 0
-5.0601768 1.2368571 -1.2026243 0
-5.0188303 1.2089326 -1.1918278 0
-5.0449219 1.1973358 -1.1970637 0
-5.0563974 1.1821654 -1.1988393 0
-5.0756292 1.1687279 -1.2024633 0
-5.1020837 1.1568198 -1.2078049 0
-5.0547595 1.1282843 -1.1956997 0
-5.0683384 1.1134887 -1.198022 0
-5.0464034 1.0909463 -1.1919658 0
-5.0766006 1.0796709 -1.1982366 0
-5.0851307 1.0636771 -1.1994015 0
-5.096211 1.048173 -1.2011793 0
-5.1420488 1.0396433 -1.2111548 0
-5.151217 1.0235319 -1.2124991 0
-5.0815916 0.99199903 -1.1953211 0
-5.0747008 0.97300237 -1.192926 0
-5.1514926 0.96983063 -1.2102066 0
-5.1733284 0.95599276 -1.2145766 0
-5.1331692 0.93078429 -1.2044086 0
-5.0774097 0.90310079 -1.1906085 0
-5.1199665 0.89297134 -1.1998789 0
-5.1121874 0.87396324 -1.1973624 0
-5.1421585 0.86135244 -1.203699 0
-5.1672115 0.84774816 -1.2088914 0
-5.1601133 0.82882667 -1.2065737 0
-5.1583376 0.81080985 -1.2055162 0
-5.1224809 0.78758383 -1.1965125 0
-5.0935388 0.76566154 -1.1891459 0
-5.1411304 0.75519753 -1.1996588 0
-5.1838646 0.74372792 -1.209042 0
-5.1682363 0.72380936 -1.2048242 0
-5.1783285 0.70752853 -1.2066171 0
-5.1473775 0.68572718 -1.1988626 0
-5.1406574 0.66729814 -1.1967696 0
-5.156085 0.65172964 -1.1998458 0
-5.1343045 0.63149452 -1.194278 0
-5.2561293 0.62859625 -1.2221183 0
-5.1469979 0.59804803 -1.1962707 0
-5.1732736 0.58352864 -1.2019163 0
-5.1560225 0.56408221 -1.1974622 0
-5.1683273 0.54789889 -1.1998866 0
-5.2076979 0.5344221 -1.2086041 0
-5.1802473 0.51405972 -1.2018266 0
-5.161067 0.49468765 -1.1969852 0
-5.1516652 0.47636071 -1.1944276 0
-5.1854377 0.46195444 -1.2018919 0
-5.2060809 0.44620514 -1.2063233 0
-5.1330633 0.42261514 -1.1890689 0
-5.1764569 0.40871924 -1.1987969 0
-5.2011619 0.3931272 -1.2042061 0
-5.1528659 0.37210578 -1.1927288 0
-5.1577835 0.35508177 -1.1935848 0
-5.1540656 0.33746719 -1.1924559 0
-5.1821613 0.32186124 -1.1986997 0
-5.1944709 0.30514604 -1.2013037 0
-5.2148075 0.28879946 -1.2057761 0
-5.1941447 0.27018988 -1.2007823 0
-5.2052231 0.25326976 -1.2031403 0
-5.2359905 0.23717274 -1.2100613 0
-5.1515822 0.21604414 -1.1903801 0
-5.1800108 0.19984056 -1.1967875 0
-5.1851978 0.18263195 -1.1978377 0
-5.2253428 0.16650659 -1.2069759 0
-5.2070074 0.14844826 -1.2026191 0
-5.1602101 0.12980038 -1.1917034 0
-5.22822 0.11397216 -1.2073146 0
-5.2389264 0.096633263 -1.2097054 0
-5.1603608 0.077877469 -1.191497 0
-5.1685348 0.060668539 -1.1933306 0
-5.1914968 0.043530151 -1.1985918 0
-5.1792393 0.026061529 -1.1957349 0
-5.1730652 0.0086859073 -1.1942961 0
-5.1639729 1.3703066e-05 -1.1921953 0
-6.1447883 -0.010317492 -1.1944257 0
-6.1933875 -0.031164644 -1.203886 0
-6.1153264 -0.05127636 -1.1887389 0
-6.1995692 -0.072770879 -1.2051554 0
-6.1910448 -0.093432017 -1.2035524 0
-6.1644363 -0.11370452 -1.1984471 0
-6.1644158 -0.13438068 -1.1985239 0
-6.1206126 -0.15395842 -1.190101 0
-6.1734948 -0.17600214 -1.2004915 0
-6.1252275 -0.19518159 -1.1912261 0
-6.1550093 -0.21679045 -1.1971526 0
-6.1705852 -0.23805611 -1.2003307 0
-6.1181545 -0.2565797 -1.1902924 0
-6.195498 -0.28063521 -1.2055159 0
-6.2244716 -0.30286318 -1.2113442 0
-6.138535 -0.31931534 -1.1948217 0
-6.1929841 -0.34297153 -1.205637 0
-6.1323557 -0.36024153 -1.1940624 0
-6.1919651 -0.3845796 -1.2059135 0
-6.1427808 -0.40220425 -1.1965905 0
-6.1084514 -0.4205294 -1.1901712 0
-6.1502938 -0.4441334 -1.1986073 0
-6.174365 -0.46668625 -1.2035966 0
-6.1622739 -0.48655671 -1.2015508 0
-6.1846189 -0.50919181 -1.2062339 0
-6.1711898 -0.52892309 -1.2039539 0
-6.1527004 -0.54812485 -1.2006985 0
-6.1570773 -0.56932849 -1.2019184 0
-6.1304064 -0.58759868 -1.1970898 0
-6.1429768 -0.60959584 -1.1999369 0
-6.1391783 -0.63001209 -1.1996007 0
-6.1269541 -0.64952379 -1.1976309 0
-6.1698999 -0.67500305 -1.2064611 0
-6.175961 -0.69662863 -1.2080963 0
-6.1314292 -0.71243268 -1.1998458 0
-6.1729875 -0.73824602 -1.2084557 0
-6.1524405 -0.75672024 -1.2049233 0
-6.144208 -0.77662843 -1.2038141 0
-6.1238823 -0.79492855 -1.2003473 0
-6.1053882 -0.81335217 -1.19725 0
-6.1586313 -0.84146982 -1.2082373 0
-6.129271 -0.85840189 -1.2030351 0
-6.1188564 -0.8778711 -1.2015619 0
-6.1759248 -0.90720189 -1.213359 0
-6.1435699 -0.92350233 -1.2076038 0
-6.083024 -0.93526781 -1.1963124 0
-6.1558943 -0.96761006 -1.2112746 0
-6.0303788 -0.96861035 -1.1872096 0
-6.0860705 -0.99849892 -1.1988261 0
-6.1183376 -1.0248703 -1.2058522 0
-6.0489111 -1.0341026 -1.1928456 0
-6.0822253 -1.0607985 -1.2001098 0
-6.0639453 -1.0785724 -1.1972097 0
-6.1197462 -1.1096778 -1.2089543 0
-6.0672259 -1.1211784 -1.1993148 0
-6.0866566 -1.1458865 -1.2039083 0
-6.046813 -1.1593913 -1.1967896 0
-6.1213336 -1.1949714 -1.212325 0
-6.0857253 -1.2092161 -1.206069 0
-6.0361362 -1.220414 -1.1970456 0
-6.0400419 -1.2422971 -1.1986394 0
-6.0533409 -1.2662014 -1.2021143 0
-6.0680037 -1.2905185 -1.2058786 0
-6.0043745 -1.2980434 -1.1940919 0
-6.0715327 -1.3338854 -1.2083303 0
-5.9909401 -1.3372513 -1.1931767 0
-6.00038 -1.3604949 -1.1959586 0
-5.9909344 -1.3794885 -1.1949911 0
-6.0104933 -1.4052292 -1.1998255 0
-5.9808087 -1.4194545 -1.1948432 0
-5.9754949 -1.4393734 -1.1947389 0
-6.0089593 -1.4687675 -1.2024076 0
-5.9068489 -1.4648138 -1.1829512 0
-5.9389887 -1.4939387 -1.1903843 0
-6.0105934 -1.5333964 -1.20576 0
-5.9679255 -1.5438411 -1.1982323 0
-5.9898748 -1.5709648 -1.2036901 0
-5.9818411 -1.5903124 -1.2031404 0
-5.9624476 -1.6065795 -1.2003163 0
-5.9659781 -1.6290054 -1.2021198 0
-5.990881 -1.6574088 -1.2082505 0
-5.9605064 -1.6705397 -1.2032474 0
-5.9327092 -1.6842231 -1.1987692 0
-5.9306979 -1.7051598 -1.1995113 0
-5.9918184 -1.744504 -1.2130494 0
-5.8967795 -1.7383013 -1.1949818 0
-5.9518123 -1.7762353 -1.2073343 0
-5.9021459 -1.782986 -1.1984653 0
-5.9188733 -1.8097173 -1.2030873 0
-5.9059138 -1.8274297 -1.2016917 0
-5.8828197 -1.8419188 -1.1982425 0
-5.8674698 -1.8587366 -1.1963786 0
-5.8503003 -1.874904 -1.1941528 0
-5.8548665 -1.8980373 -1.1963772 0
-5.8679509 -1.9240446 -1.2003622 0
-5.8812413 -1.9502652 -1.2044117 0
-5.8791771 -1.9714845 -1.205336 0
-5.8555322 -1.9854203 -1.2018462 0
-5.876029 -2.0143616 -1.2074327 0
-5.7738419 -2.0009894 -1.1878067 0
-5.8265777 -2.0411727 -1.2000568 0
-5.8213334 -2.0612748 -1.2003934 0
-5.801651 -2.0762222 -1.1977634 0
-5.7756987 -2.0888059 -1.1938448 0
-5.8017049 -2.1202343 -1.2006829 0
-5.779891 -2.1342564 -1.1976426 0
-5.7735367 -2.1539345 -1.1978157 0
-5.7591553 -2.1705937 -1.1963352 0
-5.7645593 -2.1947315 -1.1989795 0
-5.7415738 -2.2080493 -1.1957318 0
-5.7482948 -2.2327862 -1.1986839 0
-5.7745166 -2.2652824 -1.2057289 0
-5.7726979 -2.2869318 -1.2069434 0
-5.74507 -2.2983017 -1.2027713 0
-5.727314 -2.3135042 -1.2006712 0
-5.7591963 -2.3488736 -1.2089992 0
-5.714282 -2.352932 -1.2012198 0
-5.6700096 -2.3569667 -1.1935676 0
-5.6935854 -2.3891864 -1.20021 0
-5.6775694 -2.4048851 -1.1985269 0
-5.6738286 -2.4257691 -1.1994473 0
-5.6877751 -2.45432 -1.2041285 0
-5.6492181 -2.4601824 -1.1977053 0
-5.6296582 -2.4741521 -1.1953104 0
-5.6668453 -2.5131986 -1.2049884 0
-5.6511822 -2.5289602 -1.2034541 0
-5.5864081 -2.5224881 -1.1914544 0
-5.617095 -2.5590518 -1.1998223 0
-5.6104627 -2.5787802 -1.2002457 0
-5.5822315 -2.5885098 -1.1960562 0
-5.6138878 -2.6260941 -1.2047187 0
-5.6073503 -2.6459863 -1.2052128 0
-5.6189251 -2.6745191 -1.2096212 0
-5.5995121 -2.6883433 -1.2073758 0
-5.5633183 -2.6939559 -1.2015123 0
-5.5211229 -2.6964126 -1.1943451 0
-5.557704 -2.7373946 -1.2042372 0
-5.499444 -2.7316487 -1.1935912 0
-5.5386143 -2.7742956 -1.2041048 0
-5.5567236 -2.806711 -1.2100809 0
-5.4969974 -2.799715 -1.1991118 0
-5.5117712 -2.8305531 -1.2043979 0
-5.4870653 -2.8411548 -1.2010742 0
-5.4684086 -2.8547852 -1.1990788 0
-5.4559913 -2.8716221 -1.1984605 0
-5.4455028 -2.8894587 -1.1982778 0
-5.4162717 -2.8972626 -1.1939764 0
-5.4035258 -2.9137874 -1.1933136 0
-5.4484544 -2.9616368 -1.2054217 0
-5.4330306 -2.9768944 -1.2042109 0
-5.3896642 -2.9766719 -1.1968042 0
-5.3944016 -3.0029354 -1.200085 0
-5.3711352 -3.0136168 -1.1971502 0
-5.4037242 -3.055768 -1.2066907 0
-5.3222418 -3.0332861 -1.1907594 0
-5.3697867 -3.0842807 -1.2037036 0
-5.362999 -3.1043415 -1.2045084 0
-5.2876043 -3.0844145 -1.1898911 0
-5.3531513 -3.1467524 -1.2070087 0
-5.324039 -3.1537056 -1.2028221 0
-5.3023758 -3.164937 -1.2003185 0
-5.3135276 -3.1958044 -1.2052617 0
-5.308599 -3.2171264 -1.2065837 0
-5.2866144 -3.2280877 -1.2040402 0
-5.2597771 -3.2359602 -1.2003921 0
-5.3045111 -3.2880495 -1.2131104 0
-5.2443666 -3.2751586 -1.2018604 0
-5.2182875 -3.2832427 -1.1983998 0
-5.2529311 -3.3296759 -1.2089128 0
-5.1881137 -3.313026 -1.1965454 0
-5.220511 -3.3584085 -1.2066075 0
-5.1888652 -3.3627007 -1.2018924 0
-5.1624708 -3.3702273 -1.1983893 0
-5.1740246 -3.4025655 -1.2037128 0
-5.1247802 -3.3948488 -1.1948977 0
-5.1125422 -3.4114604 -1.1947044 0
-5.1408696 -3.4553294 -1.2040244 0
-5.0897684 -3.4458134 -1.1947553 0
-5.1103868 -3.4848166 -1.2023312 0
-5.1137533 -3.5122879 -1.205887 0
-4.9976778 -3.4572814 -1.1812418 0
-5.0574784 -3.5237799 -1.1981618 0
-5.0780873 -3.5634899 -1.2058681 0
-4.9856238 -3.5236111 -1.18671 0
-5.0287499 -3.5794332 -1.199825 0
-5.0008969 -3.5849299 -1.1960405 0
-5.0345001 -3.6346345 -1.206985 0
-4.9937334 -3.6307347 -1.2001232 0
-4.963192 -3.6340289 -1.1957048 0
-4.9557381 -3.6541574 -1.1968539 0
-4.9470248 -3.6734006 -1.1977173 0
-4.9556994 -3.7056835 -1.2028189 0
-4.9606795 -3.7354047 -1.2070606 0
-4.9118524 -3.7245095 -1.1982114 0
-4.8939734 -3.7368617 -1.1968998 0
-4.9311008 -3.7914505 -1.209082 0
-4.8804502 -3.7786105 -1.1997623 0
-4.8797374 -3.8042948 -1.202716 0
-4.8836575 -3.8337462 -1.2068435 0
-4.8613291 -3.8426311 -1.2045028 0
-4.7928271 -3.8146629 -1.1906922 0
-4.7975426 -3.8447616 -1.1950594 0
-4.7980795 -3.8716817 -1.1984199 0
-4.8041787 -3.9032714 -1.2032055 0
-4.7981029 -3.9251144 -1.2049729 0
-4.7405257 -3.9046168 -1.1937943 0
-4.7695961 -3.9554763 -1.204448 0
-4.7561598 -3.9713225 -1.2044107 0
-4.6843505 -3.9380934 -1.189563 0
-4.7171159 -3.9927089 -1.2012764 0
-4.6858497 -3.993288 -1.196717 0
-4.6589217 -3.9973822 -1.1932561 0
-4.6841946 -4.046412 -1.203197 0
-4.6746116 -4.0655823 -1.2042301 0
-4.6388097 -4.0618424 -1.1985087 0
-4.6809535 -4.126554 -1.2129651 0
-4.6078186 -4.0896177 -1.1975602 0
-4.6018081 -4.1119485 -1.1995745 0
-4.595675 -4.1342626 -1.2015822 0
-4.5551734 -4.1255436 -1.1946026 0
-4.591567 -4.1866126 -1.2078214 0
-4.538578 -4.1662507 -1.1975502 0
-4.5384502 -4.1942592 -1.2012204 0
-4.5300226 -4.2147188 -1.2027233 0
-4.530673 -4.2437525 -1.2066668 0
-4.4816713 -4.2261524 -1.1973832 0
-4.4656801 -4.2394495 -1.1969016 0
-4.4549313 -4.2577343 -1.1978401 0
-4.4403114 -4.2723393 -1.197754 0
-4.4163795 -4.2779207 -1.1951606 0
-4.3644466 -4.256072 -1.1849617 0
-4.4088707 -4.3283267 -1.2009563 0
-4.4202909 -4.3687387 -1.2080503 0
-4.4253564 -4.4031739 -1.2134626 0
-4.3282032 -4.3354826 -1.1908017 0
-4.3366442 -4.3731647 -1.1971513 0
-4.3574309 -4.4236932 -1.2069772 0
-4.3068938 -4.4018106 -1.1970601 0
-4.3042612 -4.4287276 -1.2004488 0
-4.2746301 -4.4278469 -1.1963184 0
-4.278039 -4.4612155 -1.2014519 0
-4.2408452 -4.4522142 -1.1951917 0
-4.2197008 -4.4598627 -1.1934403 0
-4.2313819 -4.5023503 -1.2010067 0
-4.2100639 -4.509872 -1.1992409 0
-4.197382 -4.5266175 -1.1999449 0
-4.1666203 -4.5237703 -1.1954801 0
-4.1967525 -4.5872555 -1.2085317 0
-4.1682091 -4.5868406 -1.204734 0
-4.1430368 -4.5899663 -1.2018998 0
-4.10251 -4.5758195 -1.1945868 0
-4.121315 -4.6279192 -1.204574 0
-4.084065 -4.617167 -1.1982045 0
-4.0527906 -4.6128836 -1.1935599 0
-4.0158157 -4.6018248 -1.1872079 0
-4.055706 -4.6791115 -1.203632 0
-4.0177369 -4.6668291 -1.1970007 0
-4.0273366 -4.7098255 -1.2045586 0
-4.00174 -4.7117829 -1.2016211 0
-4.0218468 -4.7677636 -1.2124518 0
-3.9820838 -4.7528682 -1.2052618 0
-3.9648483 -4.7646575 -1.2048737 0
-3.9144008 -4.7362409 -1.1943622 0
-3.9181662 -4.7732978 -1.2003875 0
-3.9203196 -4.8087072 -1.2059798 0
-3.8914421 -4.8060985 -1.2020468 0
-3.8791869 -4.8239446 -1.2032504 0
-3.8648882 -4.8392987 -1.2038413 0
-3.8555791 -4.8609767 -1.2060114 0
-3.7934878 -4.8157701 -1.1916335 0
-3.826467 -4.8912849 -1.2071377 0
-3.7981398 -4.8887625 -1.2033656 0
-3.763026 -4.8772306 -1.1974146 0
-3.7613244 -4.9089684 -1.2021037 0
-3.7347679 -4.908309 -1.1988692 0
-3.7154014 -4.9169803 -1.1979377 0
-3.6917231 -4.9198523 -1.1956151 0
-3.7106462 -4.9797621 -1.2071441 0
-3.6149662 -4.8854609 -1.1813397 0
-3.6049058 -4.9061818 -1.183421 0
-3.6627731 -5.0201259 -1.2079364 0
-3.6342039 -5.0162053 -1.2040545 0
-3.6113794 -5.0200415 -1.2020621 0
-3.5792716 -5.0107636 -1.1969602 0
-3.5884616 -5.0594087 -1.2056994 0
-3.5243495 -5.0044894 -1.1897892 0
-3.5061631 -5.0142941 -1.1893187 0
-3.4983709 -5.039042 -1.1923996 0
-3.5303354 -5.121654 -1.2091407 0
-3.4998093 -5.1139779 -1.2045515 0
-3.4811833 -5.1235342 -1.2040464 0
-3.4415309 -5.1018896 -1.1962414 0
-3.439992 -5.136673 -1.201686 0
-3.3952086 -5.1067524 -1.1920165 0
-3.392612 -5.1401434 -1.1971487 0
-3.3449848 -5.1051321 -1.1863759 0
-3.34009 -5.1351376 -1.1907396 0
-3.3351777 -5.1653934 -1.1951557 0
-3.3317819 -5.1982985 -1.2001778 0
-3.3159578 -5.2119918 -1.2007656 0
-3.3165693 -5.2517495 -1.2073566 0
-3.260778 -5.2019553 -1.1933889 0
-3.2680759 -5.2526507 -1.2024986 0
-3.2457421 -5.2559605 -1.2007582 0
-3.2262707 -5.2638259 -1.2000772 0
-3.2028124 -5.2650928 -1.197911 0
-3.1953487 -5.2927084 -1.2017499 0
-3.17221 -5.2944207 -1.1997169 0
-3.1550279 -5.3060141 -1.1999402 0
-3.1391597 -5.3198495 -1.200682 0
-3.1321929 -5.3489366 -1.2048701 0
-3.1048267 -5.3432064 -1.2012277 0
-3.0910046 -5.3607149 -1.2028271 0
-3.0933957 -5.406672 -1.2108049 0
-3.0631275 -5.395658 -1.2060317 0
-3.0348682 -5.3878756 -1.202011 0
-3.0133455 -5.3918633 -1.20064 0
-2.9867659 -5.3866339 -1.1972388 0
-2.9416652 -5.3474932 -1.1863406 0
-2.9740977 -5.4496374 -1.2067822 0
-2.9349756 -5.4210968 -1.1982763 0
-2.9351614 -5.465126 -1.2058264 0
-2.8870215 -5.4190016 -1.1935071 0
-2.8628073 -5.4172416 -1.1909988 0
-2.872206 -5.4794211 -1.2025452 0
-2.8389628 -5.4604468 -1.1962852 0
-2.7926769 -5.415709 -1.1844261 0
-2.7942052 -5.4635658 -1.1928368 0
-2.786037 -5.4929461 -1.1972051 0
-2.7893856 -5.5455589 -1.2066271 0
-2.7571683 -5.5275979 -1.2007009 0
-2.7328787 -5.5252042 -1.1981839 0
-2.7071621 -5.5197043 -1.195016 0
-2.6792176 -5.5093732 -1.1908278 0
-2.6797259 -5.5577211 -1.1993294 0
-2.6706407 -5.5866809 -1.2036396 0
-2.6454954 -5.5821009 -1.2007352 0
-2.6011314 -5.5363803 -1.1890178 0
-2.5965743 -5.5751729 -1.1954726 0
-2.5826948 -5.5943046 -1.1977115 0
-2.5569041 -5.5875926 -1.1944324 0
-2.5428298 -5.6064396 -1.1966319 0
-2.5617208 -5.6988068 -1.2145067 0
-2.510314 -5.6348929 -1.1990851 0
-2.487082 -5.633481 -1.1970036 0
-2.4759607 -5.6595731 -1.2007769 0
-2.4526653 -5.6579099 -1.1986725 0
-2.4529994 -5.7110763 -1.2081871 0
-2.3986521 -5.6365867 -1.1907207 0
-2.4107134 -5.7180643 -1.2062185 0
-2.3959379 -5.7366734 -1.2084426 0
-2.3510623 -5.6827283 -1.1954118 0
-2.3349903 -5.697886 -1.1969466 0
-2.3202105 -5.7163682 -1.1991882 0
-2.2992766 -5.7197499 -1.1982738 0
-2.2874022 -5.7458034 -1.2021184 0
-2.2813964 -5.7871056 -1.2091525 0
-2.24158 -5.7424607 -1.1982473 0
-2.2099946 -5.7180691 -1.1916049 0
-2.1867449 -5.7148213 -1.1893935 0
-2.1873028 -5.7742081 -1.2002202 0
-2.1470177 -5.725738 -1.1886423 0
-2.1361418 -5.7553573 -1.1932976 0
-2.1194587 -5.7696338 -1.1947776 0
-2.1267838 -5.8501005 -1.2099572 0
-2.0804198 -5.782876 -1.194604 0
-2.0675468 -5.8081565 -1.1983875 0
-2.0524275 -5.8274517 -1.2009422 0
-2.0039515 -5.7512832 -1.1838537 0
-2.0108173 -5.8338661 -1.1994582 0
-2.0055077 -5.8824067 -1.2080491 0
-1.9688962 -5.8390441 -1.1977813 0
-1.9456334 -5.8345938 -1.1955236 0
-1.937996 -5.8772817 -1.2029322 0
-1.9191836 -5.8865185 -1.2034991 0
-1.8871839 -5.854907 -1.1957358 0
-1.8665088 -5.8579564 -1.1950737 0
-1.8579963 -5.899549 -1.2022814 0
-1.8167496 -5.8368111 -1.1882478 0
-1.8183333 -5.9116755 -1.2022407 0
-1.793306 -5.9006414 -1.1987672 0
-1.7702787 -5.8958516 -1.1965815 0
-1.7404268 -5.8677888 -1.1896951 0
-1.7400604 -5.939528 -1.2030506 0
-1.7170408 -5.9346285 -1.2008854 0
-1.701262 -5.954803 -1.2038068 0
-1.6740334 -5.9347582 -1.1986132 0
-1.6642243 -5.976603 -1.2059307 0
-1.6270545 -5.9198527 -1.1933724 0
-1.6129732 -5.9465694 -1.1976613 0
-1.5836412 -5.9168782 -1.1906053 0
-1.5839816 -5.9986057 -1.2059752 0
-1.5700873 -6.0277882 -1.2107769 0
-1.5367434 -5.9819279 -1.2005235 0
-1.5091897 -5.9574847 -1.1945957 0
-1.5038872 -6.0212889 -1.2063718 0
-1.4788526 -6.0066471 -1.2024382 0
-1.462446 -6.026988 -1.2055218 0
-1.4270005 -5.9681616 -1.1927916 0
-1.4160717 -6.0114985 -1.2004972 0
-1.3903707 -5.9923458 -1.1957347 0
-1.3830597 -6.0529408 -1.206894 0
-1.3619466 -6.0539384 -1.2061757 0
-1.3302423 -6.0069966 -1.1959277 0
-1.3172066 -6.0440574 -1.2024201 0
-1.2861345 -5.9980717 -1.192407 0
-1.2696147 -6.0194077 -1.1957957 0
-1.2611401 -6.0801077 -1.2070073 0
-1.233276 -6.0476637 -1.199739 0
-1.2176452 -6.0749779 -1.2043409 0
-1.190181 -6.0430317 -1.19721 0
-1.1740937 -6.0685968 -1.2014881 0
-1.1520728 -6.0637221 -1.1997515 0
-1.1337901 -6.0785646 -1.2019293 0
-1.1092677 -6.0597396 -1.1974648 0
-1.1013635 -6.1325769 -1.2111217 0
-1.0675588 -6.0610805 -1.1962882 0
-1.0501922 -6.0817742 -1.1996709 0
-1.0373328 -6.1298013 -1.2084517 0
-1.0030513 -6.0504632 -1.1921411 0
-0.99156427 -6.1080294 -1.2028216 0
-0.96954679 -6.1016726 -1.200923 0
-0.94576991 -6.0835743 -1.19673 0
-0.92768431 -6.1019502 -1.1997262 0
-0.91151547 -6.1339293 -1.2054061 0
-0.88239527 -6.078063 -1.1938394 0
-0.86677778 -6.1146088 -1.2004402 0
-0.85221452 -6.160439 -1.2088699 0
-0.83007008 -6.152257 -1.2067114 0
-0.80597186 -6.1286483 -1.2015439 0
-0.78729153 -6.1459327 -1.2044083 0
-0.77310234 -6.2000351 -1.214496 0
-0.7493518 -6.1781993 -1.2097197 0
-0.72003639 -6.1077538 -1.1954466 0
-0.70845491 -6.1878748 -1.2106568 0
-0.68045682 -6.1249804 -1.1978984 0
-0.66243201 -6.150578 -1.2024635 0
-0.64250284 -6.1594396 -1.203768 0
-0.61492866 -6.0930014 -1.1903741 0
-0.59953845 -6.1467204 -1.2004696 0
-0.57607651 -6.1184287 -1.1945603 0
-0.56172812 -6.1882844 -1.2078243 0
-0.53509939 -6.1228809 -1.194702 0
-0.51980811 -6.1870165 -1.2068694 0
-0.49910372 -6.1892505 -1.206972 0
-0.47843686 -6.1920195 -1.2071923 0
-0.45452353 -6.1509609 -1.1988838 0
-0.43656889 -6.1903224 -1.2062637 0
-0.41404223 -6.1654067 -1.2011312 0
-0.39110163 -6.1312237 -1.1942096 0
-0.37130192 -6.1450672 -1.1966567 0
-0.35151204 -6.1605692 -1.1994393 0
-0.32930499 -6.1328492 -1.1938206 0
-0.30980551 -6.1550713 -1.1979374 0
-0.28965995 -6.1665697 -1.1999795 0
-0.26770905 -6.1382966 -1.1942964 0
-0.24679749 -6.1309738 -1.192704 0
-0.22807401 -6.1814713 -1.2023721 0
-0.20571598 -6.1335592 -1.1929117 0
-0.18598893 -6.1620035 -1.1983157 0
-0.16555218 -6.1709547 -1.1999419 0
-0.1444359 -6.1533556 -1.1964188 0
-0.12421358 -6.174161 -1.2003764 0
-0.10380821 -6.1922069 -1.2038105 0
-0.082437448 -6.1471181 -1.1949843 0
-0.061826643 -6.1473384 -1.1949801 0
-0.041326985 -6.1641507 -1.1982147 0
-0.020587321 -6.1427126 -1.1940273 0
8.2175147e-06 -6.1935077 -1.2038941 0
0.020687455 -6.1677065 -1.1988856 0
0.041296076 -6.1571035 -1.1968448 0
0.062660769 -6.228631 -1.2107826 0
0.082784176 -6.1717515 -1.1997731 0
0.10382731 -6.1923661 -1.2038413 0
0.12334321 -6.1300902 -1.1918081 0
0.1451983 -6.1851363 -1.2025981 0
0.16531672 -6.1615672 -1.1981165 0
0.18519132 -6.1350379 -1.193072 0
0.20685184 -6.1669364 -1.1994034 0
0.22681616 -6.1469374 -1.1956549 0
0.24918625 -6.1899071 -1.2041688 0
0.26575255 -6.0930648 -1.185496 0
0.29139197 -6.2030921 -1.2070867 0
0.31104201 -6.1793108 -1.2026552 0
0.33311316 -6.203464 -1.2075666 0
0.35191014 -6.1672587 -1.2007419 0
0.3713786 -6.1460652 -1.1968513 0
0.39345092 -6.1677952 -1.2013329 0
0.41241121 -6.1408758 -1.1963524 0
0.43242678 -6.1313577 -1.1947738 0
0.4558101 -6.168149 -1.2022341 0
0.47678497 -6.1704273 -1.202983 0
0.49438328 -6.1305108 -1.1955173 0
0.51284528 -6.1039476 -1.1906658 0
0.53712457 -6.1458659 -1.1991872 0
0.55323434 -6.094533 -1.1895263 0
0.58021343 -6.1621914 -1.2031047 0
0.60303247 -6.1823726 -1.2074329 0
0.62466878 -6.1893463 -1.209197 0
0.63978964 -6.1332712 -1.1986542 0
0.65964019 -6.1245041 -1.1973662 0
0.68778259 -6.1907716 -1.210766 0
0.70231152 -6.1340723 -1.2001307 0
0.71730477 -6.0844436 -1.1908846 0
0.73675925 -6.0742421 -1.1893648 0
0.76596719 -6.1426811 -1.2032615 0
0.78797007 -6.1510997 -1.2054214 0
0.80763161 -6.1411428 -1.203994 0
0.82867825 -6.141818 -1.2046643 0
0.84222323 -6.0880961 -1.1946744 0
0.86403769 -6.0951629 -1.1966228 0
0.88317299 -6.0833063 -1.1948698 0
0.9064548 -6.0997629 -1.1986923 0
0.93563807 -6.1541572 -1.2099912 0
0.95395529 -6.1361189 -1.2070668 0
0.97175634 -6.1154737 -1.2036397 0
0.98520523 -6.0687556 -1.1950881 0
1.0177277 -6.1388912 -1.2095648 0
1.0220639 -6.0394769 -1.1906453 0
1.0480952 -6.0695338 -1.1972569 0
1.0660334 -6.0523262 -1.1945609 0
1.0912977 -6.0764356 -1.200035 0
1.1180944 -6.1078668 -1.2069758 0
1.1358206 -6.0893612 -1.2040647 0
1.154814 -6.0780625 -1.2025894 0
1.1760242 -6.0784883 -1.203447 0
1.1951394 -6.0681229 -1.2021815 0
1.2048786 -6.0112009 -1.191698 0
1.2248595 -6.0063095 -1.1915358 0
1.2483387 -6.0183105 -1.1947402 0
1.2811965 -6.0742393 -1.2066889 0
1.2967689 -6.0475888 -1.2022517 0
1.3199558 -6.0565953 -1.204915 0
1.3378314 -6.0411906 -1.2027361 0
1.349697 -5.9994144 -1.1953131 0
1.3618462 -5.9600267 -1.1883687 0
1.3940349 -6.0080657 -1.1988723 0
1.4097682 -5.9846678 -1.1951399 0
1.4436039 -6.0375309 -1.2066565 0
1.4489824 -5.9714332 -1.1944104 0
1.4858567 -6.0350266 -1.2081201 0
1.5035167 -6.0197372 -1.2060618 0
1.5151187 -5.980823 -1.1992762 0
1.5413036 -5.9996133 -1.2040735 0
1.5486567 -5.9454484 -1.1942385 0
1.5689303 -5.9415417 -1.1945037 0
1.59831 -5.971621 -1.2016215 0
1.6207532 -5.9751892 -1.2034262 0
1.650239 -6.0041447 -1.2103655 0
1.6492524 -5.9227753 -1.1950704 0
1.6781312 -5.9492249 -1.2015358 0
1.6775635 -5.8717942 -1.1870269 0
1.7058992 -5.8960614 -1.1930822 0
1.7339922 -5.9187565 -1.1988443 0
1.7533212 -5.9112043 -1.1984985 0
1.7679178 -5.8879318 -1.1949751 0
1.7986366 -5.9181242 -1.20232 0
1.8123428 -5.8921442 -1.1982696 0
1.8259686 -5.866375 -1.1942673 0
1.8436959 -5.8540878 -1.1930176 0
1.8812749 -5.9042449 -1.204518 0
1.9093235 -5.9235406 -1.2097536 0
1.9256508 -5.9063015 -1.2075447 0
1.9326354 -5.8609724 -1.1995952 0
1.949833 -5.8471355 -1.1980945 0
1.9690955 -5.8395839 -1.1978931 0
2.0019739 -5.8719897 -1.2059108 0
2.0090628 -5.8287258 -1.1984024 0
2.0321066 -5.8320374 -1.2004775 0
2.0442777 -5.8042626 -1.1961644 0
2.0552735 -5.7736292 -1.1912647 0
2.0773544 -5.7743068 -1.192835 0
2.1212852 -5.8349271 -1.2068201 0
2.1361756 -5.815094 -1.2041926 0
2.1566336 -5.8105206 -1.2047362 0
2.1716864 -5.7914782 -1.2022909 0
2.1720297 -5.7338428 -1.1918312 0
2.1987867 -5.7462459 -1.1959349 0
2.2242789 -5.7549825 -1.1992985 0
2.2412744 -5.7416329 -1.1980759 0
2.260237 -5.733387 -1.1979299 0
2.2756751 -5.7163014 -1.1959474 0
2.2879448 -5.6915169 -1.1923603 0
2.3053336 -5.6796727 -1.1914915 0
2.3279006 -5.6805425 -1.1933047 0
2.3504927 -5.6813092 -1.1951145 0
2.361928 -5.6551995 -1.1912812 0
2.3897798 -5.6683688 -1.1957365 0
2.4078925 -5.6582599 -1.1953003 0
2.4436882 -5.6893563 -1.2035936 0
2.4650104 -5.6863465 -1.2046986 0
2.4720211 -5.6505275 -1.1988591 0
2.4855607 -5.6299944 -1.1962641 0
2.5403948 -5.7023745 -1.2134464 0
2.5292284 -5.6264844 -1.1990951 0
2.5606115 -5.6456051 -1.2049929 0
2.5922661 -5.6648293 -1.2109443 0
2.5674467 -5.5612373 -1.1906334 0
2.6029451 -5.5888133 -1.1983989 0
2.6407483 -5.6206641 -1.2071204 0
2.6328065 -5.5552893 -1.1949694 0
2.657655 -5.5594783 -1.1977805 0
2.7054615 -5.6110582 -1.2108408 0
2.7149642 -5.5828428 -1.2067095 0
2.7052186 -5.5157042 -1.1941515 0
2.7692821 -5.5987659 -1.2141378 0
2.7430725 -5.4993024 -1.1945561 0
2.783191 -5.5332069 -1.2039411 0
2.8079574 -5.536128 -1.2066184 0
2.8405578 -5.5541635 -1.2126182 0
2.8153141 -5.4595728 -1.1940207 0
2.8439794 -5.4700603 -1.1983931 0
2.8819263 -5.4979296 -1.2066089 0
2.9087372 -5.5041189 -1.2101008 0
2.8872957 -5.4194818 -1.1936145 0
2.9280059 -5.4517684 -1.2028809 0
2.9447839 -5.4391789 -1.2022749 0
2.9674156 -5.4373589 -1.204065 0
3.0079877 -5.4680228 -1.2130818 0
2.9875984 -5.3881016 -1.1975667 0
3.0265951 -5.4155374 -1.2059134 0
3.0446401 -5.4051905 -1.2058756 0
3.038209 -5.3517313 -1.196215 0
3.0399065 -5.3131504 -1.1898628 0
3.0963261 -5.3699107 -1.2048924 0
3.0917954 -5.3207479 -1.1961806 0
3.1243391 -5.3354926 -1.2018435 0
3.1579764 -5.3517051 -1.2078737 0
3.1322918 -5.2677455 -1.1912878 0
3.1480103 -5.2540002 -1.1905595 0
3.1951561 -5.2923579 -1.2016722 0
3.216279 -5.287199 -1.2029426 0
3.1876688 -5.2008142 -1.1857133 0
3.2500877 -5.2629662 -1.2023607 0
3.2696457 -5.2551427 -1.2030711 0
3.293566 -5.2542315 -1.2053838 0
3.3049014 -5.2332425 -1.2031039 0
3.3161831 -5.2123156 -1.2008423 0
3.3491588 -5.2253799 -1.2064323 0
3.3336947 -5.1630664 -1.1946194 0
3.3860586 -5.20578 -1.2071224 0
3.4005101 -5.1898451 -1.2060643 0
3.373853 -5.111692 -1.1905245 0
3.4139574 -5.134923 -1.1985942 0
3.4654665 -5.1746826 -1.2105802 0
3.454809 -5.1215439 -1.2008519 0
3.4651177 -5.0998602 -1.198485 0
3.4902248 -5.0999436 -1.2012479 0
3.52988 -5.1209645 -1.2089801 0
3.4634562 -4.9887223 -1.1804947 0
3.5244324 -5.0403929 -1.1955111 0
3.5322263 -5.0156465 -1.1924438 0
3.5628467 -5.0232654 -1.1970885 0
3.600549 -5.0405226 -1.2040712 0
3.6257946 -5.0400515 -1.2068558 0
3.6165271 -4.9917789 -1.1981936 0
3.6443052 -4.9947863 -1.2018416 0
3.6741545 -5.0003996 -1.2061497 0
3.6554685 -4.9401703 -1.1945713 0
3.6957867 -4.9597931 -1.2023058 0
3.6906836 -4.9184399 -1.1952742 0
3.7176633 -4.9199467 -1.1986629 0
3.780951 -4.9689765 -1.2136898 0
3.7799714 -4.9332776 -1.2080591 0
3.769016 -4.8849673 -1.1993166 0
3.7683053 -4.8503346 -1.193909 0
3.8120179 -4.8727889 -1.2025754 0
3.8114495 -4.8385458 -1.1972716 0
3.8080249 -4.8009958 -1.1911327 0
3.8451202 -4.8145208 -1.19768 0
3.8501115 -4.7877622 -1.1942279 0
3.8595262 -4.766655 -1.1921842 0
3.9212022 -4.8097634 -1.2062474 0
3.938607 -4.7981739 -1.2066458 0
3.9505656 -4.7799726 -1.2053928 0
