# .PCD v0.7 - Point Cloud Data file format
VERSION 0.7
FIELDS x y z intensity
SIZE 4 4 4 4
TYPE F F F F
COUNT 1 1 1 1
WIDTH 1413
HEIGHT 1
VIEWPOINT 0 0 0 1 0 0 0
POINTS 1413
DATA ascii
-13.592284 1.3948615 -1.1954143 0
-13.645529 1.3541085 -1.1996909 0
-13.665073 1.3097956 -1.2010165 0
-13.603518 1.2578809 -1.1952291 0
-13.688675 1.2194813 -1.202345 0
-13.686231 1.1730256 -1.2017782 0
-13.667359 1.1252605 -1.1997831 0
-13.664487 1.0789114 -1.1992066 0
-13.646393 1.0314558 -1.1973084 0
-13.707015 0.98982966 -1.2023294 0
-13.648952 0.9396466 -1.1969532 0
-13.69092 0.8964256 -1.2003633 0
-13.621235 0.84600747 -1.1939981 0
-13.695187 0.80451542 -1.2002374 0
-13.667314 0.75690484 -1.1975656 0
-13.697433 0.71251541 -1.1999886 0
-13.698992 0.6665498 -1.1999226 0
-13.739543 0.62235498 -1.203285 0
-13.71958 0.57536393 -1.2013609 0
-13.664118 0.52715039 -1.1963429 0
-13.643082 0.48053378 -1.1943533 0
-13.707056 0.43677807 -1.199819 0
-13.707343 0.39078707 -1.1997226 0
-13.703573 0.34470087 -1.1992848 0
-13.717076 0.29902431 -1.200372 0
-13.733211 0.25331238 -1.2017028 0
-13.70308 0.20679973 -1.1989989 0
-13.73471 0.16121876 -1.2017124 0
-13.711308 0.11496787 -1.1996244 0
-13.706571 0.068970397 -1.1991829 0
-13.698397 0.023000482 -1.1984543 0
-13.711468 3.6384608e-05 -1.1995962 0
-22.89357 -0.038439766 -1.1998011 0
-22.928562 -0.11537474 -1.2016485 0
-22.921534 -0.19219463 -1.2013072 0
-22.869005 -0.26843762 -1.1985946 0
-22.938805 -0.34618047 -1.2023069 0
-22.911142 -0.42260152 -1.2009245 0
-22.84297 -0.49796346 -1.1974319 0
-22.934839 -0.57690495 -1.2023424 0
-22.880722 -0.65231389 -1.1996132 0
-22.830332 -0.72749305 -1.1970925 0
-22.810421 -0.80342394 -1.1961831 0
-22.926785 -0.88449651 -1.2024339 0
-22.877144 -0.9594087 -1.1999924 0
-22.842266 -1.0346777 -1.1983382 0
-22.874645 -1.1130081 -1.2002258 0
-22.867748 -1.1895384 -1.2000664 0
-22.903278 -1.2683985 -1.2021474 0
-22.840448 -1.3417482 -1.199079 0
-22.834871 -1.4182615 -1.1990292 0
-22.901968 -1.4995275 -1.2028095 0
-22.885971 -1.5755587 -1.20224 0
-22.784866 -1.6453718 -1.1972119 0
-22.799669 -1.7233014 -1.1982865 0
-22.846506 -1.8038992 -1.2010592 0
-22.829998 -1.8796384 -1.200516 0
-22.827206 -1.9564843 -1.2007073 0
-22.847715 -2.0354316 -1.2021384 0
-22.846943 -2.1125958 -1.2024636 0
-22.77075 -2.1825736 -1.1988319 0
-22.812513 -2.2637906 -1.2014235 0
-22.812479 -2.3410523 -1.2018284 0
-22.750383 -2.411788 -1.1989763 0
-22.744102 -2.4882636 -1.1990782 0
-22.696968 -2.5601454 -1.1970391 0
-22.741276 -2.64239 -1.1998364 0
-22.721865 -2.7173758 -1.1992861 0
-22.708426 -2.793026 -1.1990644 0
-22.717649 -2.8715131 -1.2000531 0
-22.644566 -2.9394443 -1.1967063 0
-22.698841 -3.0239112 -1.2001036 0
-22.640699 -3.0934577 -1.1975713 0
-22.640696 -3.17082 -1.1981267 0
-22.630001 -3.2467215 -1.19813 0
-22.631268 -3.3243811 -1.1987805 0
-22.619987 -3.4002397 -1.1987802 0
-22.628714 -3.4791753 -1.1998541 0
-22.58456 -3.5499387 -1.1981373 0
-22.646034 -3.6374469 -1.2020388 0
-22.586731 -3.7056463 -1.1995437 0
-22.607229 -3.7868907 -1.2012999 0
-22.572628 -3.8589442 -1.200142 0
-22.602186 -3.9420383 -1.2024096 0
-22.549839 -4.0108595 -1.2003334 0
-22.547726 -4.0885205 -1.2009439 0
-22.512812 -4.1602006 -1.1998204 0
-22.55114 -4.2455239 -1.202615 0
-22.458754 -4.30615 -1.1984515 0
-22.455889 -4.3837094 -1.1990762 0
-22.46143 -4.4630213 -1.2001643 0
-22.394014 -4.5277257 -1.1973665 0
-22.445375 -4.6164956 -1.2009336 0
-22.442858 -4.6944618 -1.2016343 0
-22.346302 -4.752521 -1.1973108 0
-22.384499 -4.8391471 -1.2002201 0
-22.356756 -4.9116678 -1.1996087 0
-22.336206 -4.9857149 -1.1993963 0
-22.320351 -5.0607996 -1.1994493 0
-22.310276 -5.1372232 -1.1998267 0
-22.271515 -5.2069907 -1.1986744 0
-22.286064 -5.2892599 -1.2004051 0
-22.302849 -5.3722959 -1.2022727 0
-22.197128 -5.4256353 -1.1975476 0
-22.225296 -5.5115552 -1.2000575 0
-22.238544 -5.5940537 -1.2017788 0
-22.184406 -5.6595893 -1.1998719 0
-22.128912 -5.7245226 -1.1979017 0
-22.108011 -5.7982693 -1.1978159 0
-22.092684 -5.873487 -1.1980456 0
-22.066805 -5.9458933 -1.1977166 0
-22.110796 -6.0373344 -1.2011963 0
-22.073908 -6.106863 -1.2002978 0
-22.046959 -6.179059 -1.1999524 0
-21.97551 -6.2385764 -1.1971953 0
-21.991283 -6.3228054 -1.1992028 0
-21.996872 -6.4043384 -1.2006717 0
-21.948385 -6.4701266 -1.1992025 0
-21.987829 -6.5619607 -1.2025529 0
-21.956333 -6.6328144 -1.2020398 0
-21.88637 -6.6918383 -1.1994312 0
-21.883703 -6.7713366 -1.2005224 0
-21.867207 -6.846652 -1.20087 0
-21.850075 -6.921814 -1.2011969 0
-21.813295 -6.9907246 -1.2004569 0
-21.774298 -7.0588164 -1.1996063 0
-21.705559 -7.1170435 -1.1971273 0
-21.752127 -7.2131739 -1.2010227 0
-21.664629 -7.2648735 -1.1975298 0
-21.668304 -7.3470168 -1.1990877 0
-21.634657 -7.4165773 -1.1985952 0
-21.651964 -7.5037298 -1.2009411 0
-21.641651 -7.5815263 -1.2017722 0
-21.581081 -7.6416407 -1.1998248 0
-21.585148 -7.7246227 -1.2014841 0
-21.557419 -7.7963319 -1.2013887 0
-21.488276 -7.8528953 -1.1989961 0
-21.502106 -7.9397707 -1.2012464 0
-21.483036 -8.0146809 -1.2016755 0
-21.48011 -8.0957346 -1.2030234 0
-21.407156 -8.1503124 -1.2004613 0
-21.392784 -8.2270689 -1.2011954 0
-21.304941 -8.2753887 -1.1978142 0
-21.274767 -8.3458691 -1.1976843 0
-21.298643 -8.4377432 -1.2006142 0
-21.320751 -8.5293159 -1.2034658 0
-21.237865 -8.5788717 -1.200404 0
-21.22669 -8.6572523 -1.2014062 0
-21.205942 -8.7318306 -1.2018822 0
-21.127264 -8.7823944 -1.1990851 0
-21.128878 -8.8662634 -1.2008572 0
-21.11483 -8.9437466 -1.2017562 0
-21.088814 -9.0162392 -1.2019894 0
-21.029625 -9.0744495 -1.2003431 0
-21.052082 -9.1679888 -1.2033728 0
-20.979631 -9.2202406 -1.2009917 0
-20.918385 -9.2771292 -1.1992594 0
-20.91433 -9.3593702 -1.2008193 0
-20.869116 -9.4232464 -1.2000306 0
-20.849667 -9.4987497 -1.2007369 0
-20.841476 -9.5795288 -1.202108 0
-20.757734 -9.6254692 -1.1991327 0
-20.796202 -9.728157 -1.2032323 0
-20.681929 -9.7593517 -1.1985071 0
-20.687078 -9.8467207 -1.200712 0
-20.622265 -9.9008131 -1.1988699 0
-20.668587 -10.008462 -1.2035069 0
-20.540918 -10.031798 -1.1980247 0
-20.537235 -10.115421 -1.1997813 0
-20.545645 -10.205302 -1.2022648 0
-20.495653 -10.266286 -1.2013469 0
-20.445028 -10.32682 -1.2004023 0
-20.420832 -10.40068 -1.2010223 0
-20.34543 -10.448333 -1.1986412 0
-20.328856 -10.526105 -1.1997372 0
-20.273197 -10.583632 -1.19854 0
-20.230051 -10.647573 -1.1980929 0
-20.215113 -10.726417 -1.1993314 0
-20.153374 -10.780406 -1.1978062 0
-20.153938 -10.867772 -1.1999986 0
-20.095898 -10.923602 -1.1987168 0
-20.065018 -10.994128 -1.1990669 0
-20.035576 -11.065501 -1.1995178 0
-19.998466 -11.132672 -1.199524 0
-19.95009 -11.193523 -1.1988667 0
-19.968563 -11.292082 -1.2022452 0
-19.875736 -11.327705 -1.1989363 0
-19.870432 -11.413115 -1.200918 0
-19.793898 -11.457585 -1.1986074 0
-19.786007 -11.541757 -1.2004662 0
-19.732496 -11.599388 -1.1995723 0
-19.731962 -11.688269 -1.2019155 0
-19.642519 -11.724431 -1.198855 0
-19.655689 -11.821853 -1.2020713 0
-19.636232 -11.899984 -1.2033147 0
-19.507095 -11.911331 -1.1978418 0
-19.52265 -12.010875 -1.201263 0
-19.439491 -12.049747 -1.1986252 0
-19.441761 -12.141571 -1.2012684 0
-19.388102 -12.198607 -1.2004733 0
-19.337484 -12.257453 -1.1998771 0
-19.303259 -12.326677 -1.2003112 0
-19.271055 -12.397267 -1.2008865 0
-19.251501 -12.476146 -1.202268 0
-19.189308 -12.527398 -1.2010002 0
-19.125872 -12.577641 -1.1996626 0
-19.070158 -12.632796 -1.198818 0
-19.060646 -12.718652 -1.200894 0
-19.012699 -12.778993 -1.2005658 0
-19.004335 -12.866084 -1.202755 0
-18.858418 -12.859716 -1.1962421 0
-18.853096 -12.948904 -1.1986518 0
-18.823811 -13.021891 -1.199559 0
-18.827049 -13.11768 -1.2025613 0
-18.756744 -13.162332 -1.2008827 0
-18.668795 -13.19425 -1.1980773 0
-18.679718 -13.296106 -1.2016325 0
-18.638704 -13.361294 -1.2018692 0
-18.542099 -13.386384 -1.1985272 0
-18.590332 -13.516253 -1.2045674 0
-18.491804 -13.539622 -1.2011179 0
-18.441082 -13.597694 -1.2007779 0
-18.347019 -13.623531 -1.1976205 0
-18.350071 -13.721484 -1.2008162 0
-18.263988 -13.752831 -1.1981937 0
-18.207087 -13.805885 -1.1974907 0
-18.200447 -13.897205 -1.2001119 0
-18.149088 -13.954565 -1.1998036 0
-18.129524 -14.036493 -1.2016147 0
-18.046406 -14.069169 -1.1992255 0
-18.055561 -14.173892 -1.202985 0
-17.946783 -14.186009 -1.1988997 0
-17.951454 -14.287757 -1.2024053 0
-17.847874 -14.303327 -1.1986728 0
-17.80966 -14.371028 -1.1993356 0
-17.740129 -14.413398 -1.1979009 0
-17.747913 -14.518777 -1.2017068 0
-17.653658 -14.540745 -1.1986191 0
-17.64673 -14.63462 -1.2014735 0
-17.591564 -14.688693 -1.2010639 0
-17.557693 -14.760603 -1.2021235 0
-17.460873 -14.779408 -1.1988804 0
-17.415831 -14.841796 -1.1991978 0
-17.345877 -14.882864 -1.1978102 0
-17.337446 -14.976846 -1.2006888 0
-17.280991 -15.029547 -1.2002622 0
-17.210938 -15.070271 -1.1988993 0
-17.194937 -15.158414 -1.2013183 0
-17.103456 -15.179981 -1.1984761 0
-17.044712 -15.230313 -1.1979313 0
-17.014463 -15.306188 -1.1994054 0
-16.975775 -15.374674 -1.2003052 0
-16.90229 -15.411589 -1.1987561 0
-16.863665 -15.480235 -1.1996909 0
-16.78899 -15.515732 -1.1980728 0
-16.783415 -15.615236 -1.2014042 0
-16.738731 -15.678694 -1.2019619 0
-16.653887 -15.70438 -1.1996437 0
-16.600134 -15.759175 -1.199571 0
-16.549889 -15.817309 -1.1997657 0
-16.476719 -15.853424 -1.198308 0
-16.486231 -15.969368 -1.2028869 0
-16.391842 -15.984812 -1.1999037 0
-16.326731 -16.028463 -1.1990646 0
-16.296272 -16.106216 -1.2007869 0
-16.229132 -16.147779 -1.1998222 0
-16.161091 -16.188271 -1.1987979 0
-16.125916 -16.261717 -1.2002263 0
-16.04442 -16.288404 -1.1982188 0
-15.998137 -16.35071 -1.1988497 0
-15.984311 -16.446529 -1.201939 0
-15.882215 -16.451487 -1.1984029 0
-15.847895 -16.526466 -1.1999874 0
-15.781298 -16.567858 -1.1991441 0
-15.685776 -16.578522 -1.1961029 0
-15.689053 -16.693745 -1.200614 0
-15.628463 -16.7414 -1.200266 0
-15.529684 -16.747807 -1.1969856 0
-15.519932 -16.850252 -1.2005818 0
-15.458508 -16.896902 -1.2002059 0
-15.39785 -16.944324 -1.1999005 0
-15.354194 -17.010525 -1.2009362 0
-15.257398 -17.017654 -1.1978213 0
-15.200939 -17.069483 -1.1978751 0
-15.189152 -17.171825 -1.2014766 0
-15.106195 -17.193861 -1.1994679 0
-15.050967 -17.247284 -1.1996676 0
-14.986876 -17.290518 -1.1991731 0
-14.934012 -17.346701 -1.1995902 0
-14.88076 -17.402514 -1.1999928 0
-14.819028 -17.44842 -1.1997255 0
-14.781195 -17.522608 -1.2014121 0
-14.701512 -17.547182 -1.1997107 0
-14.629386 -17.5805 -1.1986283 0
-14.567593 -17.626102 -1.1984007 0
-14.539432 -17.712633 -1.2009627 0
-14.494972 -17.779692 -1.2022077 0
-14.400426 -17.785147 -1.1993051 0
-14.338693 -17.830814 -1.1991359 0
-14.284452 -17.88583 -1.1996082 0
-14.207347 -17.912117 -1.1981696 0
-14.19437 -18.01952 -1.2021637 0
-14.131628 -18.064137 -1.2019726 0
-14.038327 -18.069384 -1.1991831 0
-13.983461 -18.123863 -1.1996803 0
-13.931728 -18.182537 -1.2004656 0
-13.87333 -18.232616 -1.2006942 0
-13.816992 -18.285475 -1.2011175 0
-13.728554 -18.295645 -1.1987554 0
-13.700167 -18.3859 -1.2016526 0
-13.624825 -18.413326 -1.2004527 0
-13.55163 -18.443413 -1.1994451 0
-13.456333 -18.442989 -1.1964769 0
-13.431985 -18.53985 -1.1998323 0
-13.372068 -18.588005 -1.2000405 0
-13.297981 -18.616369 -1.1989864 0
-13.236422 -18.662165 -1.1990709 0
-13.191807 -18.732042 -1.200712 0
-13.095323 -18.728106 -1.1976386 0
-13.067699 -18.82267 -1.2008773 0
-12.983309 -18.835609 -1.1989188 0
-12.931005 -18.894993 -1.1999322 0
-12.853485 -18.917496 -1.1986178 0
-12.818152 -19.002241 -1.2012575 0
-12.738174 -19.020927 -1.1997321 0
-12.667862 -19.053802 -1.1991199 0
-12.614073 -19.11157 -1.2000871 0
-12.547799 -19.150513 -1.1998838 0
-12.496716 -19.212761 -1.2011522 0
-12.459641 -19.297007 -1.2038006 0
-12.332521 -19.241394 -1.1977451 0
-12.305981 -19.342426 -1.2014592 0
-12.215346 -19.342861 -1.1989354 0
-12.170274 -19.415373 -1.200894 0
-12.066331 -19.393742 -1.1970469 0
-12.026907 -19.475653 -1.199607 0
-11.928698 -19.46228 -1.1963133 0
-11.865548 -19.505735 -1.1965321 0
-11.836655 -19.605986 -1.2002406 0
-11.755859 -19.620539 -1.1987118 0
-11.675696 -19.635773 -1.197244 0
-11.61909 -19.690559 -1.1982025 0
-11.566637 -19.752684 -1.1996163 0
-11.495801 -19.783533 -1.1991423 0
-11.445879 -19.850534 -1.2008706 0
-11.355022 -19.846437 -1.1983129 0
-11.317431 -19.935503 -1.2013928 0
-11.255489 -19.982145 -1.2019227 0
-11.164893 -19.977655 -1.1993941 0
-11.085575 -19.992842 -1.1980677 0
-11.046388 -20.080627 -1.2011021 0
-10.968959 -20.099154 -1.2000036 0
-10.919404 -20.168873 -1.2019736 0
-10.835576 -20.17531 -1.2001854 0
-10.771159 -20.217697 -1.2005519 0
-10.705915 -20.258623 -1.2008438 0
-10.638188 -20.294893 -1.2008728 0
-10.55359 -20.298723 -1.1989989 0
-10.506867 -20.375483 -1.2014453 0
-10.427402 -20.388908 -1.2001687 0
-10.351893 -20.409777 -1.1993474 0
-10.302685 -20.4827 -1.2015959 0
-10.223925 -20.497025 -1.2004186 0
-10.146286 -20.513279 -1.1993715 0
-10.096031 -20.585064 -1.2015827 0
-10.015255 -20.594734 -1.2001803 0
-9.9728928 -20.683666 -1.2034075 0
-9.8622084 -20.630634 -1.1983916 0
-9.83039 -20.742516 -1.2029691 0
-9.7448931 -20.741526 -1.2010101 0
-9.6575432 -20.735966 -1.1988064 0
-9.5997906 -20.793842 -1.200285 0
-9.5329227 -20.832258 -1.2006508 0
-9.4609575 -20.85955 -1.2003888 0
-9.3689175 -20.842104 -1.1975703 0
-9.331378 -20.946112 -1.2017421 0
-9.2454786 -20.941904 -1.1997154 0
-9.1620264 -20.942642 -1.1979911 0
-9.0839853 -20.955313 -1.196967 0
-9.036747 -21.039368 -1.2000308 0
-8.9709768 -21.080877 -1.2006761 0
-8.8864517 -21.078117 -1.1988152 0
-8.8184776 -21.11437 -1.1991887 0
-8.7598085 -21.173241 -1.2008575 0
-8.6904964 -21.206707 -1.2010962 0
-8.6131544 -21.220472 -1.2002336 0
-8.5250721 -21.207228 -1.197861 0
-8.4800663 -21.301369 -1.2015656 0
-8.4068193 -21.325165 -1.2013112 0
-8.3416624 -21.369598 -1.2022321 0
-8.2468977 -21.337757 -1.1988784 0
-8.1714163 -21.355114 -1.1983075 0
-8.1020746 -21.388472 -1.1986483 0
-8.0407515 -21.443342 -1.2002057 0
-7.9688187 -21.470203 -1.2002069 0
-7.870914 -21.426365 -1.1962744 0
-7.8312125 -21.541155 -1.2012106 0
-7.7373538 -21.507273 -1.1978679 0
-7.6725006 -21.5536 -1.1990087 0
-7.6102657 -21.607807 -1.2005979 0
-7.5457478 -21.656078 -1.2018676 0
-7.4533272 -21.623899 -1.1986881 0
-7.3975883 -21.698057 -1.2014172 0
-7.3228407 -21.716934 -1.2010963 0
-7.2488074 -21.737829 -1.200901 0
-7.1767287 -21.764572 -1.2010424 0
-7.1045294 -21.791008 -1.2011799 0
-7.0329638 -21.819468 -1.2014421 0
-6.9424815 -21.788675 -1.1984581 0
-6.8740702 -21.826691 -1.1992748 0
-6.8182397 -21.905483 -1.2023412 0
-6.7487512 -21.941208 -1.2030532 0
-6.6505589 -21.882803 -1.1986215 0
-6.5867839 -21.937056 -1.2003767 0
-6.5039968 -21.927999 -1.1986814 0
-6.4385686 -21.97743 -1.2001966 0
-6.3532634 -21.958862 -1.1980125 0
-6.2907805 -22.019159 -1.2001448 0
-6.2098231 -22.014973 -1.1987749 0
-6.1461358 -22.072153 -1.2007598 0
-6.074122 -22.100002 -1.2011602 0
-5.9995766 -22.118717 -1.2010772 0
-5.9204636 -22.120327 -1.20008 0
-5.8434086 -22.129236 -1.1994936 0
-5.7755866 -22.173296 -1.2008256 0
-5.6881461 -22.14168 -1.1980737 0
-5.6242371 -22.201521 -1.2002846 0
-5.5511093 -22.225624 -1.2005748 0
-5.4791684 -22.254705 -1.2011466 0
-5.4006472 -22.256985 -1.2002856 0
-5.3157554 -22.232149 -1.1979783 0
-5.2490726 -22.283329 -1.1997811 0
-5.175704 -22.306721 -1.2000993 0
-5.0982623 -22.312469 -1.1994823 0
-5.0184865 -22.307489 -1.1983033 0
-4.9419065 -22.316246 -1.1978769 0
-4.8733802 -22.361708 -1.1994334 0
-4.8051219 -22.409372 -1.2011191 0
-4.7261567 -22.407324 -1.2001532 0
-4.6544523 -22.439672 -1.2010432 0
-4.5885377 -22.50099 -1.203495 0
-4.5018115 -22.460077 -1.2004926 0
-4.431663 -22.501352 -1.2018979 0
-4.346137 -22.464096 -1.1991227 0
-4.2810864 -22.532709 -1.2020122 0
-4.1965818 -22.499046 -1.1994592 0
-4.1268539 -22.544296 -1.2011272 0
-4.0478468 -22.539091 -1.20012 0
-3.9691634 -22.534983 -1.199186 0
-3.9055893 -22.61768 -1.202883 0
-3.8188746 -22.566473 -1.199472 0
-3.7499697 -22.620033 -1.2016438 0
-3.6663749 -22.584845 -1.1991147 0
-3.5938909 -22.617523 -1.2002032 0
-3.5189555 -22.635344 -1.200516 0
-3.4452379 -22.661448 -1.2012811 0
-3.3654916 -22.647655 -1.199945 0
-3.2917402 -22.673969 -1.2007477 0
-3.2097335 -22.642788 -1.1985198 0
-3.1349213 -22.661539 -1.1989492 0
-3.0594592 -22.67589 -1.199159 0
-2.9844403 -22.693825 -1.1995716 0
-2.9122441 -22.734217 -1.2011838 0
-2.8248844 -22.654676 -1.1964741 0
-2.7597387 -22.753286 -1.2011865 0
-2.6760538 -22.699793 -1.1978822 0
-2.6051826 -22.754511 -1.200302 0
-2.5282907 -22.757845 -1.200024 0
-2.4548023 -22.792456 -1.2014083 0
-2.372474 -22.74404 -1.1984302 0
-2.2993367 -22.782904 -1.200065 0
-2.2265499 -22.827524 -1.2020154 0
-2.1477492 -22.810947 -1.2007565 0
-2.0760374 -22.870689 -1.2035282 0
-1.9953549 -22.831871 -1.2011266 0
-1.9191254 -22.842392 -1.2013348 0
-1.8400095 -22.817461 -1.1996925 0
-1.7640245 -22.830336 -1.2000517 0
-1.6836034 -22.783812 -1.1973028 0
-1.6108807 -22.841461 -1.2000418 0
-1.5352349 -22.860826 -1.2007819 0
-1.4576945 -22.851992 -1.2000544 0
-1.3813411 -22.861271 -1.2002918 0
-1.304305 -22.859135 -1.1999432 0
-1.2264134 -22.84025 -1.1987293 0
-1.1506168 -22.859915 -1.1995523 0
-1.074478 -22.874559 -1.200125 0
-0.9974395 -22.870275 -1.1997179 0
-0.92045522 -22.866064 -1.1993283 0
-0.84602767 -22.929819 -1.2025168 0
-0.76732355 -22.878263 -1.1996714 0
-0.69235742 -22.938511 -1.202702 0
-0.6140011 -22.886879 -1.1998802 0
-0.53757763 -22.902243 -1.2005845 0
-0.46159968 -22.944277 -1.2027001 0
-0.38381821 -22.894932 -1.2000394 0
-0.30723414 -22.909548 -1.2007446 0
-0.23057857 -22.926113 -1.2015656 0
-0.15402006 -22.972952 -1.2039866 0
-0.076745242 -22.89875 -1.2000777 0
3.0337376e-05 -22.865158 -1.1983104 0
0.076785706 -22.8927 -1.1997606 0
0.15373866 -22.921907 -1.2013115 0
0.23061258 -22.923445 -1.2014259 0
0.30723009 -22.904711 -1.2004913 0
0.38343704 -22.868572 -1.1986578 0
0.46091008 -22.906979 -1.200745 0
0.53645468 -22.85182 -1.1979413 0
0.61413014 -22.889423 -1.2000138 0
0.69125599 -22.900003 -1.2006832 0
0.76744008 -22.879923 -1.1997585 0
0.84515041 -22.904394 -1.2011836 0
0.92065191 -22.86944 -1.1995056 0
0.99963206 -22.919151 -1.202282 0
1.0756156 -22.897484 -1.2013277 0
1.1517948 -22.882113 -1.2007171 0
1.2292632 -22.892189 -1.2014555 0
1.3065324 -22.897102 -1.2019365 0
1.3843507 -22.91007 -1.202854 0
1.4610561 -22.903732 -1.2027718 0
1.534561 -22.849884 -1.2002075 0
1.6092277 -22.81716 -1.1987652 0
1.6856718 -22.81098 -1.1987307 0
1.7647921 -22.839481 -1.2005327 0
1.8379095 -22.790665 -1.1982838 0
1.9170444 -22.816896 -1.1999942 0
1.9902884 -22.773199 -1.1980404 0
2.0708346 -22.812702 -1.200477 0
2.1442661 -22.773306 -1.1987754 0
2.2262199 -22.823517 -1.2018046 0
2.301368 -22.802425 -1.2010936 0
2.3848004 -22.86162 -1.2046261 0
2.442538 -22.67802 -1.1953765 0
2.5316699 -22.78771 -1.2015991 0
2.6067646 -22.767792 -1.201003 0
2.6829348 -22.757641 -1.2009352 0
2.7539394 -22.704967 -1.1986361 0
2.834275 -22.729494 -1.2004259 0
2.9002435 -22.640059 -1.1962093 0
2.9843524 -22.69269 -1.1995121 0
3.062165 -22.69549 -1.200196 0
3.1366565 -22.673639 -1.1995898 0
3.2184765 -22.704031 -1.201762 0
3.2895277 -22.658308 -1.1999187 0
3.3640537 -22.637564 -1.1994109 0
3.4401376 -22.627497 -1.1994818 0
3.5135503 -22.60018 -1.1986516 0
3.5861688 -22.568539 -1.1976043 0
3.6658502 -22.581232 -1.1989235 0
3.7412589 -22.567118 -1.1988333 0
3.8246086 -22.599991 -1.2012541 0
3.8991179 -22.579845 -1.2008713 0
3.975219 -22.569014 -1.2009974 0
4.0481925 -22.54067 -1.2002046 0
4.118042 -22.495819 -1.198545 0
4.1938014 -22.483809 -1.1986474 0
4.2720776 -22.484968 -1.1994661 0
4.352397 -22.49613 -1.2008333 0
4.4184523 -22.433962 -1.1982988 0
4.5042772 -22.472071 -1.2011342 0
4.5660968 -22.390644 -1.1975936 0
4.6431971 -22.385113 -1.1981237 0
4.7243371 -22.398399 -1.1996759 0
4.8128223 -22.444992 -1.203029 0
4.8780966 -22.383064 -1.2005795 0
4.9455295 -22.332327 -1.1987407 0
5.0290403 -22.354126 -1.2008092 0
5.1120839 -22.372686 -1.2027203 0
5.1818576 -22.33297 -1.2015123 0
5.2599053 -22.32905 -1.2022436 0
5.3296838 -22.290138 -1.2011038 0
5.4073887 -22.28451 -1.2017707 0
5.4666972 -22.2038 -1.1983998 0
5.5463662 -22.206383 -1.1995362 0
5.6217718 -22.191542 -1.1997459 0
5.6983919 -22.181318 -1.2002194 0
5.7793679 -22.187572 -1.2015996 0
5.8562951 -22.177799 -1.2021269 0
5.9101529 -22.08157 -1.1979783 0
5.9855776 -22.066875 -1.198263 0
6.0579877 -22.041071 -1.197958 0
6.1453099 -22.068962 -1.200587 0
6.2224708 -22.059586 -1.2012051 0
6.3056517 -22.07099 -1.2029706 0
6.3598671 -21.981468 -1.1992468 0
6.4388919 -21.978317 -1.200246 0
6.5031452 -21.924917 -1.1985136 0
6.5751696 -21.898163 -1.1982496 0
6.6647482 -21.929281 -1.2011684 0
6.7272644 -21.871145 -1.1992127 0
6.803226 -21.857044 -1.1996834 0
6.8914609 -21.881708 -1.2022986 0
6.9331961 -21.759333 -1.1968452 0
7.021338 -21.783203 -1.1994463 0
7.1201568 -21.838743 -1.2038122 0
7.1658711 -21.731451 -1.1992157 0
7.2334843 -21.691685 -1.1983528 0
7.3206525 -21.710255 -1.2007279 0
7.3931537 -21.68486 -1.2006876 0
7.4626865 -21.650867 -1.2001842 0
7.5525336 -21.675369 -1.2029393 0
7.5973539 -21.570963 -1.1985519 0
7.6660638 -21.535337 -1.1979939 0
7.7592707 -21.568014 -1.2012521 0
7.8143921 -21.494709 -1.1986219 0
7.8818312 -21.455906 -1.197925 0
7.9617548 -21.450996 -1.1991345 0
8.0537176 -21.477749 -1.2021327 0
8.1040516 -21.39352 -1.1989324 0
8.1903687 -21.404472 -1.2010784 0
8.2417421 -21.324251 -1.1981207 0
8.3297663 -21.338959 -1.2005095 0
8.3972321 -21.30068 -1.1999333 0
8.4666204 -21.267427 -1.1996523 0
8.5597811 -21.293407 -1.2027299 0
8.61131 -21.215767 -1.1999687 0
8.7003851 -21.230677 -1.202455 0
8.7429028 -21.132219 -1.1985322 0
8.8184452 -21.114136 -1.1991768 0
8.8861761 -21.077309 -1.1987705 0
8.9706621 -21.079983 -1.2006265 0
9.0351086 -21.035398 -1.1998059 0
9.1105185 -21.016367 -1.2004559 0
9.1676741 -20.9554 -1.1987225 0
9.2536983 -20.960369 -1.2007748 0
9.3211765 -20.923063 -1.2004212 0
9.3810682 -20.868988 -1.1991165 0
9.4457245 -20.825817 -1.1984489 0
9.5168962 -20.797091 -1.1986253 0
9.5962009 -20.785923 -1.1998293 0
9.6594715 -20.739962 -1.199039 0
9.738162 -20.727057 -1.2001737 0
9.7973757 -20.672714 -1.1989224 0
9.8564434 -20.618435 -1.1976843 0
9.94491 -20.62549 -1.2000242 0
10.017481 -20.599173 -1.2004405 0
10.075015 -20.542076 -1.199075 0
10.162104 -20.54512 -1.2012347 0
10.222514 -20.494061 -1.2002466 0
10.281484 -20.440416 -1.1991169 0
10.341744 -20.389633 -1.1981652 0
10.45064 -20.434212 -1.2028371 0
10.495903 -20.354088 -1.2001854 0
10.551688 -20.294933 -1.1987767 0
10.612341 -20.245453 -1.1979489 0
10.731367 -20.306654 -1.2036926 0
10.800156 -20.271996 -1.2037778 0
10.836234 -20.176407 -1.2002523 0
10.912941 -20.156807 -1.2012563 0
10.944279 -20.053804 -1.1972978 0
11.0439 -20.075977 -1.2008257 0
11.082064 -19.986383 -1.1976824 0
11.179154 -20.00305 -1.2009206 0
11.223955 -19.926039 -1.1985495 0
11.285068 -19.878372 -1.1979516 0
11.363749 -19.861567 -1.1992282 0
11.448435 -19.854845 -1.2011331 0
11.48383 -19.762812 -1.1978881 0
11.577399 -19.770941 -1.200727 0
11.640486 -19.726698 -1.2004036 0
11.722967 -19.715151 -1.202086 0
11.750466 -19.611418 -1.1981565 0
11.840452 -19.612158 -1.2006203 0
11.870219 -19.513298 -1.196998 0
11.943067 -19.485609 -1.1977491 0
12.085177 -19.569897 -1.2054141 0
12.086022 -19.425276 -1.1989952 0
12.176857 -19.42576 -1.2015384 0
12.233425 -19.371374 -1.2007048 0
12.290314 -19.317688 -1.1999245 0
12.338916 -19.251259 -1.1983612 0
12.415372 -19.228333 -1.1995186 0
12.499329 -19.216667 -1.2013984 0
12.544742 -19.145735 -1.1995866 0
12.612436 -19.10898 -1.1999265 0
12.670537 -19.057716 -1.1993684 0
12.735701 -19.017124 -1.1994944 0
12.78985 -18.960175 -1.1986003 0
12.874509 -18.94833 -1.2005737 0
12.979072 -18.96512 -1.2043879 0
13.024761 -18.895641 -1.2027421 0
13.054404 -18.803413 -1.1996509 0
13.095932 -18.728872 -1.1976898 0
13.16949 -18.700249 -1.1986762 0
13.244674 -18.673695 -1.199814 0
13.307261 -18.629257 -1.1998187 0
13.357779 -18.568037 -1.1987536 0
13.436335 -18.54575 -1.2002164 0
13.481653 -18.477591 -1.1987239 0
13.542298 -18.430609 -1.1986148 0
13.658767 -18.459093 -1.2034389 0
13.677895 -18.355909 -1.1996949 0
13.730303 -18.297874 -1.1989038 0
13.771449 -18.225101 -1.1971543 0
13.87338 -18.232582 -1.2006943 0
13.908895 -18.152636 -1.1984937 0
13.967243 -18.102743 -1.1982849 0
14.018297 -18.043503 -1.1974679 0
14.117733 -18.046276 -1.2007867 0
14.132296 -17.940619 -1.1969024 0
14.248873 -17.964373 -1.2016677 0
14.298672 -17.903536 -1.2007983 0
14.323075 -17.811296 -1.1978258 0
14.442737 -17.837305 -1.2028247 0
14.466376 -17.74452 -1.199832 0
14.546593 -17.72126 -1.2015504 0
14.573112 -17.632685 -1.1988509 0
14.627214 -17.577795 -1.1984465 0
14.72069 -17.569977 -1.2012719 0
14.759562 -17.49687 -1.19965 0
14.82167 -17.451437 -1.1999356 0
14.894038 -17.417948 -1.2010598 0
14.932531 -17.344889 -1.1994675 0
14.984862 -17.288103 -1.1990083 0
15.067492 -17.266127 -1.2009811 0
15.076927 -17.160456 -1.1971403 0
15.187605 -17.169985 -1.2013506 0
15.253995 -17.128969 -1.2020526 0
15.265807 -17.026943 -1.1984779 0
15.339286 -16.993919 -1.1997666 0
15.369021 -16.91251 -1.1976506 0
15.484885 -16.925644 -1.2022504 0
15.514659 -16.844439 -1.2001704 0
15.590436 -16.813234 -1.2016648 0
15.608009 -16.7194 -1.1986918 0
15.672806 -16.676369 -1.1993673 0
15.72823 -16.623304 -1.1993368 0
15.786358 -16.573082 -1.1995254 0
15.84128 -16.51948 -1.1994833 0
15.927156 -16.49795 -1.2017906 0
15.935781 -16.396509 -1.1982865 0
16.02862 -16.381777 -1.2011306 0
16.093699 -16.338345 -1.2018957 0
16.164173 -16.300211 -1.2030705 0
1.5808536 -1.583504 -0.1172643 0
1.6012025 -1.5931678 -0.11837684 0
1.5605425 -1.5423343 -0.11498789 0
1.5388201 -1.5107 -0.11301344 0
1.5665659 -1.5276579 -0.11467431 0
1.6020113 -1.5517781 -0.11688746 0
1.6325904 -1.5708231 -0.11873365 0
1.6180139 -1.5463845 -0.11729581 0
1.6186076 -1.5366011 -0.11696471 0
1.6007835 -1.5095081 -0.11531032 0
1.6468037 -1.542506 -0.11825211 0
1.6468331 -1.5322001 -0.11788467 0
1.6283765 -1.5048742 -0.11620168 0
1.6506324 -1.5152129 -0.11742668 0
1.6715415 -1.5241113 -0.11854995 0
1.674412 -1.5164787 -0.11839227 0
1.6992031 -1.5285926 -0.11978211 0
1.676717 -1.4982235 -0.11784223 0
1.6946042 -1.5040189 -0.11874429 0
1.6983819 -1.4972219 -0.11865658 0
1.7039011 -1.4919648 -0.11869202 0
1.6684152 -1.451039 -0.11588056 0
1.7048812 -1.472743 -0.1180697 0
1.7293386 -1.4837748 -0.11941828 0
1.709823 -1.4571059 -0.11773262 0
1.6948094 -1.43453 -0.116367 0
1.7388546 -1.4618324 -0.11905398 0
1.7016695 -1.4208609 -0.1161812 0
1.7229509 -1.4288536 -0.11730645 0
1.7667688 -1.4552221 -0.1199569 0
1.7766864 -1.4534202 -0.12029874 0
1.7572973 -1.4277509 -0.11866111 0
1.7632366 -1.4227889 -0.11873938 0
1.7546417 -1.4061661 -0.11784242 0
1.7940428 -1.4278903 -0.12016642 0
1.7953002 -1.4190849 -0.11993128 0
1.8196633 -1.4284557 -0.12123817 0
1.7792736 -1.3871329 -0.11823661 0
1.7829452 -1.3804091 -0.11817237 0
1.7914156 -1.3773853 -0.11842702 0
1.8393176 -1.4044288 -0.12128176 0
1.8227057 -1.3820952 -0.11988018 0
1.8493078 -1.3925259 -0.12132205 0
1.8347263 -1.371931 -0.120063 0
1.8214544 -1.3525088 -0.11889708 0
1.8739551 -1.3817698 -0.12202102 0
1.8286933 -1.3389542 -0.11878084 0
1.8573126 -1.3503667 -0.12034503 0
1.8315747 -1.3222896 -0.1183894 0
1.8736091 -1.3431031 -0.12081467 0
1.8705206 -1.3314174 -0.12032698 0
1.8893856 -1.3353238 -0.12125184 0
1.8814524 -1.3202803 -0.12045797 0
1.9260498 -1.3419608 -0.12302452 0
1.9127758 -1.3232079 -0.12189259 0
1.8881605 -1.2968411 -0.12004621 0
1.9157016 -1.3063258 -0.12151808 0
1.9592115 -1.326394 -0.12399523 0
1.9064913 -1.2814014 -0.12038607 0
1.9565462 -1.3055426 -0.12326971 0
1.9374745 -1.2834493 -0.12179632 0
1.9799947 -1.3020855 -0.12419415 0
1.9664695 -1.2837672 -0.12307512 0
1.9947891 -1.2927374 -0.12457559 0
1.9374635 -1.246383 -0.12073392 0
1.9688439 -1.2572571 -0.12242603 0
1.934859 -1.2264421 -0.12005642 0
2.0226068 -1.2725765 -0.12523565 0
1.9916397 -1.2437912 -0.12305932 0
2.0816004 -1.2902913 -0.12834978 0
1.9906237 -1.2246795 -0.12248637 0
2.0026379 -1.222834 -0.12297265 0
2.0416956 -1.2373046 -0.12511556 0
2.020818 -1.2154074 -0.12358577 0
2.0219996 -1.2069048 -0.12340985 0
2.0591574 -1.2197387 -0.12542742 0
2.0463719 -1.2029151 -0.12440226 0
2.0420539 -1.1911825 -0.12389629 0
2.1133733 -1.2233067 -0.12797384 0
2.0650361 -1.1861014 -0.12480529 0
2.1143181 -1.2049983 -0.12753889 0
2.0945005 -1.184418 -0.12610319 0
2.0834568 -1.1689709 -0.1252016 0
2.0973222 -1.1675222 -0.12579888 0
2.1046257 -1.162362 -0.12600249 0
2.1136467 -1.158113 -0.12630939 0
2.1304564 -1.1580529 -0.12708119 0
2.113796 -1.1398323 -0.12585872 0
2.101079 -1.1238983 -0.12487646 0
2.0875306 -1.1076654 -0.1238498 0
2.1546416 -1.1340334 -0.12760508 0
2.16852 -1.1320696 -0.1282015 0
2.1888402 -1.133355 -0.12917744 0
20.40694 -10.479853 -1.2022634 0
20.45113 -10.416042 -1.2028025 0
20.418619 -10.313413 -1.19885 0
20.426317 -10.231488 -1.1972812 0
20.493103 -10.179136 -1.1991886 0
20.561342 -10.127226 -1.2011881 0
20.600922 -10.061035 -1.2015228 0
20.649427 -9.9991169 -1.2023898 0
20.666574 -9.92202 -1.2014444 0
20.639521 -9.8240166 -1.1979501 0
20.689192 -9.7627115 -1.1989266 0
20.762045 -9.7121124 -1.2012545 0
20.779697 -9.6355867 -1.2004 0
20.782272 -9.5522499 -1.1986918 0
20.852425 -9.499939 -1.2008941 0
20.875454 -9.4260406 -1.2003936 0
5.170774 -2.3139563 -0.29688534 0
5.0807853 -2.2532699 -0.29128313 0
5.1833091 -2.277972 -0.29672134 0
5.1528082 -2.2439842 -0.29454294 0
5.1145959 -2.2069726 -0.29193404 0
5.1500449 -2.2018163 -0.2935344 0
5.1562271 -2.1840408 -0.29346773 0
5.1858792 -2.1761227 -0.29473847 0
5.097723 -2.1190569 -0.2893227 0
5.1687193 -2.1282732 -0.29294547 0
5.1281981 -2.0915067 -0.29024982 0
5.1618271 -2.0850642 -0.29175586 0
5.2219663 -2.0890193 -0.29475749 0
5.2261701 -2.0704014 -0.29460129 0
5.2883482 -2.0745475 -0.29771253 0
5.3648367 -2.0838246 -0.30162349 0
5.4375339 -2.0911074 -0.30531481 0
5.4567728 -2.0775318 -0.30600223 0
21.416012 -8.0715113 -1.1994323 0
21.414583 -7.989078 -1.1978453 0
21.490112 -7.9352775 -1.2005752 0
21.499643 -7.8569846 -1.1996292 0
21.534058 -7.7878194 -1.2000858 0
21.50807 -7.6969743 -1.1971925 0
21.561663 -7.6347003 -1.1987441 0
21.637819 -7.5801196 -1.2015584 0
21.595499 -7.4840975 -1.1978081 0
21.67272 -7.4295611 -1.2007028 0
21.660248 -7.3442206 -1.1986408 0
21.698586 -7.276197 -1.1994057 0
21.713634 -7.2003455 -1.1988963 0
21.764807 -7.1364064 -1.2003939 0
21.732693 -7.0452657 -1.1973133 0
21.84421 -7.0005679 -1.2021571 0
21.820414 -6.912354 -1.1995653 0
21.860304 -6.8444271 -1.2004899 0
21.845762 -6.7595329 -1.1984401 0
21.88011 -6.6898603 -1.199087 0
21.901497 -6.6161852 -1.1990367 0
21.919401 -6.5414762 -1.1988095 0
21.96489 -6.4749279 -1.2001033 0
21.971392 -6.3968563 -1.1992799 0
22.000799 -6.3254786 -1.1997207 0
22.034664 -6.2553067 -1.200417 0
22.074209 -6.1866331 -1.2014345 0
22.046595 -6.0992441 -1.1988119 0
22.065044 -6.0247793 -1.19871 0
22.075361 -5.9481359 -1.1981802 0
22.120356 -5.8807812 -1.1995455 0
22.151802 -5.809691 -1.2001877 0
22.143166 -5.728147 -1.1986724 0
22.204651 -5.664691 -1.200966 0
22.2012 -5.5845971 -1.19976 0
22.240059 -5.5151529 -1.2008537 0
22.243881 -5.4370008 -1.2000692 0
22.301697 -5.3719559 -1.2022098 0
22.27795 -5.287272 -1.1999674 0
22.327732 -5.2200718 -1.2016993 0
22.261164 -5.1258526 -1.1971848 0
22.324415 -5.0616593 -1.1996671 0
22.32844 -4.9839196 -1.1989787 0
22.437342 -4.9293098 -1.203932 0
22.385437 -4.8392878 -1.2002697 0
22.376896 -4.7589655 -1.1989493 0
22.381136 -4.6814895 -1.1983289 0
22.426086 -4.6124659 -1.1999009 0
22.450108 -4.5390053 -1.2003651 0
22.484621 -4.4675674 -1.2014028 0
22.471863 -4.3867655 -1.1999284 0
22.481207 -4.3103929 -1.199649 0
22.495945 -4.2350712 -1.1996709 0
22.519703 -4.1614122 -1.2001871 0
22.605963 -4.0990186 -1.2040452 0
22.58515 -4.0170784 -1.2022125 0
22.552748 -3.9333539 -1.1997789 0
22.572786 -3.8589096 -1.2001499 0
22.577185 -3.7817965 -1.1997029 0
22.562323 -3.7015805 -1.198247 0
22.618666 -3.6329892 -1.2005855 0
22.613607 -3.5544431 -1.1996778 0
22.60918 -3.4761105 -1.1988178 0
22.621466 -3.4004004 -1.198858 0
22.679855 -3.3314569 -1.2013538 0
22.710215 -3.2581682 -1.2023765 0
22.682344 -3.1765916 -1.2003303 0
22.687052 -3.0997298 -1.2000227 0
22.685787 -3.0221109 -1.1994131 0
22.701292 -2.9467466 -1.1997037 0
22.688526 -2.8677707 -1.1985142 0
22.737209 -2.796505 -1.2005838 0
22.738266 -2.7192762 -1.2001514 0
22.739157 -2.6420827 -1.1997242 0
22.748306 -2.5658751 -1.1997464 0
22.782709 -2.4924264 -1.2011132 0
22.737606 -2.4103725 -1.1983026 0
22.796017 -2.3393018 -1.2009608 0
22.790371 -2.2615321 -1.2002571 0
22.778252 -2.1832316 -1.1992266 0
22.75975 -2.1044724 -1.1978743 0
22.788656 -2.0301094 -1.1990308 0
22.831833 -1.9568199 -1.2009505 0
22.805422 -1.8775542 -1.1992234 0
22.782667 -1.7987978 -1.197703 0
22.814026 -1.7243258 -1.1990409 0
22.823248 -1.6480826 -1.1992284 0
22.809191 -1.5702121 -1.1982064 0
22.835928 -1.4951426 -1.1993408 0
22.82658 -1.4176857 -1.1985936 0
22.853367 -1.3424463 -1.199757 0
22.900824 -1.2682017 -1.2020184 0
22.871902 -1.1896936 -1.2002842 0
22.883179 -1.1133626 -1.2006735 0
22.883085 -1.0364659 -1.2004795 0
22.891129 -0.95993429 -1.2007258 0
22.855082 -0.88166952 -1.1986732 0
22.869205 -0.80543363 -1.1992656 0
22.86545 -0.72855133 -1.1989337 0
22.877384 -0.65215796 -1.1994381 0
22.875608 -0.57535434 -1.1992372 0
22.832319 -0.49767068 -1.1968735 0
22.808126 -0.42064086 -1.1955247 0
22.883694 -0.34528804 -1.1994183 0
22.872805 -0.2684215 -1.1987936 0
22.852604 -0.19155601 -1.1976945 0
22.881107 -0.11507524 -1.1991614 0
22.88592 -0.038366191 -1.1994001 0
22.908585 0.038404189 -1.200588 0
22.879578 0.11506754 -1.1990812 0
22.894381 0.1919062 -1.1998841 0
22.928114 0.2690706 -1.2016925 0
22.843754 0.34468538 -1.1973249 0
22.865393 0.42169699 -1.1985265 0
22.88681 0.49885839 -1.1997299 0
22.842981 0.5745337 -1.1975267 0
22.878696 0.65219533 -1.199507 0
22.950674 0.73126686 -1.2034025 0
22.901516 0.80657154 -1.2009599 0
22.848656 0.88142163 -1.1983361 0
22.865211 0.95884746 -1.1993663 0
22.870722 1.0359058 -1.1998309 0
22.849125 1.1117057 -1.1988866 0
22.835602 1.1878054 -1.1983793 0
22.832657 1.2644267 -1.1984404 0
22.892803 1.3447628 -1.2018273 0
22.816471 1.4170578 -1.1980627 0
22.829113 1.4946964 -1.198983 0
22.8269 1.5714312 -1.1991367 0
22.868021 1.6513157 -1.201581 0
22.807072 1.7238001 -1.1986754 0
22.78447 1.7989402 -1.1977978 0
22.801941 1.8772676 -1.1990404 0
22.784815 1.9527903 -1.1984774 0
22.847589 2.0353594 -1.2021315 0
22.840153 2.1119068 -1.202106 0
22.81426 2.1866829 -1.2011224 0
22.839363 2.2663937 -1.2028372 0
22.794689 2.3391657 -1.2008908 0
22.796125 2.4165759 -1.2013866 0
22.754827 2.4893761 -1.1996433 0
22.771433 2.5684836 -1.200966 0
22.705551 2.6381781 -1.1979512 0
22.718307 2.7168894 -1.1990981 0
22.724524 2.7949448 -1.199914 0
22.663967 2.8646665 -1.1972169 0
22.650379 2.9401379 -1.1970131 0
22.704922 3.0246599 -1.2004247 0
22.682749 3.0991418 -1.199795 0
22.653318 3.1725268 -1.1987942 0
22.654652 3.2501969 -1.1994348 0
22.702902 3.3348422 -1.2025745 0
22.626232 3.4011171 -1.1991106 0
22.631712 3.4795747 -1.2000126 0
22.601652 3.5525639 -1.1990435 0
22.57468 3.6259243 -1.1982509 0
22.638056 3.7140055 -1.2022691 0
22.559593 3.7788498 -1.1987681 0
22.600292 3.8636119 -1.2016124 0
22.553425 3.9334724 -1.199815 0
22.553656 4.0114765 -1.200536 0
22.540598 4.0871663 -1.2005637 0
22.531418 4.1635771 -1.2008115 0
22.497812 4.2354226 -1.1997706 0
22.453693 4.3051176 -1.1981808 0
22.424528 4.3775253 -1.1974009 0
22.426115 4.4559426 -1.1982766 0
22.464966 4.5420089 -1.2011595 0
22.413506 4.6098785 -1.1992277 0
22.377171 4.6806598 -1.1981165 0
22.372679 4.758069 -1.1987234 0
22.363983 4.8346496 -1.1991193 0
22.391546 4.9192491 -1.2014748 0
22.384233 4.9963727 -1.2019745 0
22.323713 5.0615001 -1.1996293 0
22.353605 5.1471381 -1.2021563 0
22.295761 5.2125969 -1.1999786 0
22.286871 5.2893887 -1.2004478 0
22.2327 5.3553362 -1.1984905 0
22.232775 5.4342856 -1.1994699 0
22.294357 5.5286183 -1.2037855 0
22.209373 5.5866528 -1.2002015 0
22.155794 5.6522269 -1.1983235 0
22.242844 5.7539325 -1.2040683 0
22.173199 5.8153028 -1.201347 0
22.091595 5.8731351 -1.1979859 0
22.135136 5.964242 -1.2014246 0
22.110291 6.0371332 -1.2011679 0
22.022131 6.0924759 -1.1974815 0
22.026104 6.173151 -1.1988163 0
22.048439 6.2592173 -1.2011675 0
22.024591 6.3323193 -1.2010182 0
21.991968 6.4028468 -1.2004031 0
21.925915 6.463439 -1.1979737 0
21.943583 6.5486927 -1.200132 0
21.937696 6.6271205 -1.2010186 0
21.903454 6.6969981 -1.2003664 0
21.809229 6.7482295 -1.1964359 0
21.88294 6.8515143 -1.201733 0
21.812317 6.9097896 -1.1991203 0
21.847643 7.001668 -1.2023461 0
21.783588 7.0617647 -1.2001172 0
21.69978 7.1150851 -1.1968075 0
21.72493 7.2040915 -1.1995201 0
21.70615 7.2787337 -1.1998239 0
21.665834 7.3461151 -1.1989501 0
4.7787275 1.6381814 -0.26474902 0
4.6821089 1.6226232 -0.25969616 0
4.6773419 1.6385574 -0.25973502 0
4.6037798 1.6301377 -0.25595215 0
4.5719666 1.6361446 -0.25448701 0
4.4454756 1.6077118 -0.24774484 0
4.4522734 1.6270709 -0.24842632 0
4.4515204 1.6437348 -0.2486904 0
4.4075789 1.6443231 -0.24654219 0
4.4290261 1.6692619 -0.24805351 0
4.4779797 1.7048805 -0.25111395 0
4.4081655 1.6952443 -0.24751629 0
4.4870095 1.7428566 -0.25227001 0
4.4570508 1.7484409 -0.25091386 0
4.3998237 1.7430358 -0.24801981 0
4.4287992 1.771717 -0.24998662 0
4.4217911 1.7861347 -0.24992768 0
4.4962978 1.8337897 -0.25448501 0
4.4448695 1.8302206 -0.25192013 0
21.192188 8.8093166 -1.2027687 0
21.077785 8.844758 -1.1979519 0
21.084156 8.9306879 -1.2000092 0
21.027077 8.9897776 -1.1984692 0
21.042152 9.0797892 -1.2010568 0
20.988585 9.1402693 -1.1997417 0
20.934408 9.2002993 -1.1984015 0
20.963488 9.2970657 -1.2018437 0
20.896692 9.3514109 -1.1998051 0
20.866966 9.4222088 -1.1999055 0
20.850616 9.4991159 -1.20079 0
20.773773 9.5483427 -1.1982015 0
20.793301 9.6418934 -1.2011857 0
20.760666 9.7114668 -1.2011747 0
20.711224 9.7731075 -1.2002032 0
20.733553 9.8687735 -1.2034079 0
20.647242 9.9127378 -1.2003205 0
20.616449 9.9831476 -1.2004696 0
20.582701 10.052136 -1.2004602 0
20.538773 10.116111 -1.1998696 0
20.50263 10.183868 -1.1997461 0
20.425062 10.230859 -1.1972076 0
20.389734 10.298822 -1.1971542 0
20.437605 10.409155 -1.2020072 0
20.366734 10.459206 -1.1998947 0
20.344875 10.534331 -1.2006811 0
20.337351 10.617055 -1.2023309 0
20.279339 10.673446 -1.2010103 0
20.235949 10.737404 -1.2005659 0
20.193121 10.8016 -1.2001669 0
20.163538 10.87288 -1.2005686 0
20.100933 10.92627 -1.1990155 0
20.098547 11.01243 -1.2010688 0
20.066927 11.082747 -1.201393 0
19.979218 11.121887 -1.1983677 0
19.979729 11.210083 -1.200646 0
19.999784 11.309667 -1.2041231 0
19.910543 11.347474 -1.2010342 0
19.881325 11.419301 -1.2015744 0
19.83099 11.478986 -1.2008517 0
19.813803 11.5579 -1.2021507 0
19.734426 11.600452 -1.1996878 0
19.699253 11.668823 -1.1999213 0
19.682774 11.748386 -1.2013099 0
19.611485 11.795195 -1.1993659 0
19.568043 11.858588 -1.199134 0
19.492285 11.902217 -1.1969304 0
19.509768 12.002877 -1.2004682 0
19.439875 12.049912 -1.1986469 0
19.460674 12.153311 -1.202435 0
19.391727 12.200817 -1.2006959 0
19.374777 12.28102 -1.2021891 0
19.296574 12.322335 -1.1998934 0
19.253992 12.386218 -1.1998212 0
19.225954 12.459517 -1.2006705 0
19.202658 12.536041 -1.2018337 0
19.183746 12.615628 -1.2032906 0
19.104609 12.655545 -1.2009816 0
19.033157 12.700235 -1.19916 0
18.996519 12.768045 -1.199542 0
18.945415 12.826122 -1.1990238 0
18.928085 12.90715 -1.2006592 0
18.829165 12.932393 -1.1971279 0
18.844782 13.036324 -1.2008932 0
18.80929 13.105231 -1.2014246 0
18.761385 13.165513 -1.2011775 0
18.698511 13.215178 -1.1999822 0
18.667337 13.287221 -1.2008339 0
18.607441 13.338807 -1.199851 0
18.552288 13.393664 -1.1991835 0
18.513687 13.460452 -1.1995988 0
18.503355 13.548004 -1.2018659 0
18.427706 13.587757 -1.1999047 0
18.384703 13.651439 -1.2000781 0
18.358595 13.727783 -1.2013717 0
18.277109 13.762635 -1.1990521 0
18.227379 13.821196 -1.1988229 0
18.174042 13.876966 -1.1983683 0
18.153135 13.9576 -1.2000687 0
18.134851 14.040541 -1.2019655 0
18.081308 14.096302 -1.2015424 0
18.003645 14.13306 -1.1995236 0
17.961004 14.197173 -1.1998472 0
17.89576 14.243352 -1.1986723 0
17.840836 14.297607 -1.1981975 0
17.809166 14.370552 -1.1992998 0
17.780167 14.445848 -1.2006018 0
17.713253 14.490346 -1.1993574 0
17.670147 14.554247 -1.1997361 0
17.653643 14.640272 -1.2019414 0
17.613758 14.707146 -1.2025765 0
17.529911 14.737168 -1.2002187 0
17.449156 14.769412 -1.1980733 0
17.403734 14.831408 -1.1983621 0
17.387255 14.918285 -1.2006648 0
17.339058 14.978156 -1.2007977 0
17.273012 15.022527 -1.1997051 0
17.237505 15.093452 -1.2007471 0
17.223085 15.183147 -1.203282 0
17.087856 15.166054 -1.1973801 0
17.086081 15.267197 -1.2008358 0
17.0126 15.304429 -1.1992711 0
16.97541 15.37426 -1.2002765 0
16.915941 15.423953 -1.1997213 0
16.870455 15.486386 -1.2001711 0
16.795408 15.52158 -1.1985277 0
16.741884 15.576512 -1.1984284 0
16.707817 15.649653 -1.199739 0
16.678144 15.72717 -1.201388 0
16.649504 15.80596 -1.2031356 0
16.535479 15.803453 -1.198718 0
16.475897 15.852549 -1.198245 0
16.44957 15.933772 -1.200209 0
16.417307 16.009558 -1.2017646 0
16.333935 16.035452 -1.1995906 0
16.267426 16.07762 -1.1986581 0
16.207243 16.125916 -1.1982008 0
16.168131 16.195236 -1.199317 0
16.114235 16.249853 -1.1993538 0
16.079657 16.324087 -1.2008469 0
16.02264 16.375668 -1.2006826 0
15.962728 16.424234 -1.2003127 0
15.910239 16.480427 -1.2005141 0
15.852811 16.531506 -1.2003564 0
15.845905 16.635597 -1.2040501 0
15.73324 16.628599 -1.1997188 0
15.700975 16.706343 -1.2015229 0
15.598001 16.708681 -1.1979232 0
15.576749 16.798475 -1.2006098 0
15.498554 16.826954 -1.1989245 0
15.457252 16.895439 -1.2001048 0
15.447554 16.99893 -1.2037703 0
15.356366 17.012842 -1.2011026 0
15.262495 17.023251 -1.198218 0
15.231011 17.103159 -1.2002413 0
15.14994 17.127403 -1.1983713 0
15.09315 17.178921 -1.1984285 0
15.068745 17.267563 -1.2010809 0
14.986203 17.28965 -1.1991155 0
14.926309 17.33766 -1.1989677 0
14.868026 17.387527 -1.1989621 0
14.805313 17.432178 -1.1986114 0
14.749425 17.484852 -1.1988261 0
14.699526 17.544718 -1.1995448 0
14.622945 17.572664 -1.1980968 0
14.589809 17.652887 -1.2002245 0
14.541354 17.71488 -1.2011176 0
14.419748 17.687326 -1.1959647 0
14.405424 17.791224 -1.1997173 0
14.345454 17.839125 -1.1996974 0
14.27549 17.87451 -1.1988515 0
14.266939 17.98715 -1.2031913 0
14.174141 17.99374 -1.2004464 0
14.10117 18.025105 -1.1993779 0
14.039987 18.071421 -1.1993208 0
13.988799 18.13068 -1.2001342 0
13.921178 18.168667 -1.1995522 0
13.876938 18.237257 -1.2010022 0
13.796066 18.257681 -1.1992943 0
13.720736 18.285124 -1.1980685 0
13.694272 18.377888 -1.2011313 0
13.624985 18.413439 -1.2004623 0
13.533444 18.41856 -1.1978313 0
13.499501 18.502052 -1.2003108 0
13.432648 18.540663 -1.199887 0
13.36662 18.580328 -1.1995471 0
13.319633 18.646576 -1.2009342 0
13.24452 18.673479 -1.1998 0
13.174479 18.707331 -1.1991303 0
13.104679 18.741381 -1.1984898 0
13.069729 18.825487 -1.2010592 0
12.978455 18.828461 -1.1984659 0
12.942107 18.911108 -1.2009579 0
12.853662 18.917646 -1.1986295 0
12.794498 18.967066 -1.199036 0
12.735541 19.016888 -1.1994795 0
12.684775 19.079132 -1.2007161 0
12.63071 19.136665 -1.201665 0
12.551563 19.156145 -1.2002389 0
12.461818 19.158997 -1.1977929 0
12.444302 19.273138 -1.2023137 0
12.380121 19.315546 -1.202363 0
12.297281 19.32864 -1.2006048 0
12.240257 19.382193 -1.2013754 0
12.164952 19.406769 -1.2003638 0
12.078846 19.413742 -1.1982833 0
12.033279 19.485857 -1.2002375 0
11.940789 19.481894 -1.1975207 0
11.859126 19.495062 -1.1958793 0
11.828861 19.59296 -1.199445 0
11.742588 19.59827 -1.1973532 0
11.722369 19.714146 -1.2020246 0
11.641927 19.729141 -1.2005522 0
11.588455 19.789824 -1.2018737 0
11.488503 19.770853 -1.1983756 0
11.427007 19.817682 -1.1988851 0
11.365814 19.865175 -1.1994461 0
11.302388 19.908882 -1.1997902 0
11.251307 19.974596 -1.2014704 0
11.177301 19.999733 -1.2007214 0
11.10936 20.03561 -1.2006323 0
11.046368 20.080465 -1.201094 0
10.96297 20.088053 -1.1993426 0
10.90078 20.134344 -1.1999176 0
10.856216 20.213612 -1.2024657 0
10.747476 20.173115 -1.1979061 0
10.699105 20.245607 -1.200074 0
10.635596 20.289818 -1.2005742 0
10.56155 20.313902 -1.1998971 0
10.506515 20.374666 -1.2013988 0
10.446494 20.426107 -1.20236 0
10.36309 20.431719 -1.2006383 0
10.286065 20.449522 -1.1996512 0
10.23283 20.514742 -1.2014577 0
10.153978 20.528694 -1.2002743 0
10.081489 20.555275 -1.1998453 0
9.9951115 20.553175 -1.19776 0
9.9632578 20.663544 -1.2022383 0
9.8491287 20.603134 -1.1967956 0
9.8024082 20.683331 -1.1995382 0
9.7527847 20.758179 -1.2019759 0
9.6757078 20.774822 -1.2010543 0
9.5914593 20.775652 -1.1992364 0
9.5140877 20.790951 -1.1982715 0
9.4327288 20.797165 -1.1968001 0
9.3806486 20.868053 -1.1990628 0
9.3150692 20.909353 -1.1996346 0
9.2687407 20.994442 -1.2027266 0
9.1783257 20.979748 -1.2001151 0
9.1304321 21.062304 -1.2030798 0
9.0381622 21.042509 -1.2002114 0
8.9798203 21.101503 -1.2018522 0
8.8840017 21.072149 -1.1984771 0
8.7775402 21.016197 -1.1936142 0
8.7476625 21.143726 -1.1991848 0
8.6845179 21.191957 -1.2002622 0
8.6015663 21.191763 -1.1986109 0
8.5222588 21.200066 -1.1974577 0
8.46523 21.263935 -1.1994554 0
8.4049654 21.320295 -1.2010382 0
8.3252258 21.327326 -1.1998551 0
8.2425861 21.326433 -1.1982434 0
8.1723862 21.357479 -1.1984414 0
8.1198015 21.435099 -1.2012625 0
8.0255327 21.402584 -1.1979256 0
7.9599586 21.446156 -1.1988639 0
7.8894672 21.476694 -1.1990855 0
7.8363018 21.554974 -1.2019824 0
7.7439427 21.52541 -1.1988791 0
7.6668987 21.537683 -1.1981243 0
7.6082582 21.601923 -1.2002722 0
7.5317006 21.61558 -1.1996211 0
7.4678521 21.665854 -1.2010149 0
7.3840094 21.658041 -1.1992027 0
7.3288226 21.734484 -1.202068 0
7.2409892 21.714191 -1.1995962 0
7.1824603 21.781759 -1.2019918 0
7.1002707 21.77775 -1.2004501 0
7.0293126 21.807943 -1.2008086 0
6.9545131 21.826235 -1.200525 0
6.8850327 21.861298 -1.2011772 0
6.7963309 21.834892 -1.1984676 0
6.729516 21.878466 -1.199614 0
6.6662459 21.93421 -1.2014383 0
6.5972333 21.971645 -1.2022704 0
6.5136271 21.960255 -1.2004454 0
6.4262414 21.935137 -1.1978878 0
6.3670216 22.006195 -1.2005959 0
6.3022823 22.059198 -1.2023278 0
6.2120233 22.022549 -1.1991884 0
6.1412168 22.054262 -1.1997874 0
6.0688448 22.080572 -1.200105 0
5.9895272 22.081436 -1.1990536 0
5.9332471 22.167854 -1.2026594 0
5.8506064 22.156258 -1.2009592 0
5.7574792 22.103539 -1.1970485 0
5.6763535 22.095531 -1.1955775 0
5.6202993 22.18573 -1.1994317 0
5.5437098 22.195747 -1.1989616 0
5.4715323 22.223438 -1.1994597 0
5.4048181 22.273914 -1.2011993 0
5.3217392 22.256912 -1.1993134 0
5.2438455 22.260874 -1.1985728 0
5.1822901 22.334835 -1.2016127 0
5.1049042 22.341265 -1.2010311 0
5.0188313 22.308744 -1.1983715 0
4.9392047 22.303768 -1.1972078 0
4.8731599 22.360411 -1.1993644 0
4.7934594 22.354692 -1.198189 0
4.7292776 22.421824 -1.2009305 0
4.6564088 22.448805 -1.2015327 0
4.5701799 22.410666 -1.1986644 0
4.4927998 22.414808 -1.1980736 0
4.4096079 22.389055 -1.1959002 0
4.3452687 22.459288 -1.1988666 0
4.2768364 22.510014 -1.2008022 0
4.1961079 22.496174 -1.1993067 0
4.1206784 22.510221 -1.1993123 0
4.0436816 22.515554 -1.1988673 0
3.9750469 22.568037 -1.2009454 0
3.8917301 22.537064 -1.198596 0
3.8158023 22.547956 -1.1984882 0
3.7440557 22.58399 -1.1997296 0
3.6675694 22.591824 -1.1994858 0
3.59534 22.626255 -1.200667 0
3.5098383 22.576303 -1.1973852 0
3.4417026 22.637791 -1.2000275 0
3.3598614 22.609354 -1.1979162 0
3.2937672 22.68751 -1.2014652 0
3.2153561 22.682018 -1.2005968 0
3.1379163 22.682747 -1.2000717 0
3.0593874 22.674904 -1.1991074 0
2.9927816 22.756784 -1.2029001 0
2.9111958 22.725554 -1.2007265 0
2.8367529 22.749365 -1.2014753 0
2.7608719 22.762123 -1.2016535 0
2.6794131 22.72777 -1.1993588 0
2.6028097 22.73325 -1.1991808 0
2.5272646 22.748058 -1.1995083 0
2.4524896 22.770416 -1.2002468 0
2.3764646 22.78171 -1.2004154 0
2.2953176 22.742477 -1.1979359 0
2.2222469 22.782784 -1.1996598 0
2.1473451 22.806007 -1.2004968 0
2.0697503 22.800756 -1.1998484 0
1.9885098 22.75285 -1.1969697 0
1.9198241 22.849981 -1.2017343 0
