# .PCD v0.7 - Point Cloud Data file format
VERSION 0.7
FIELDS x y z intensity
SIZE 4 4 4 4
TYPE F F F F
COUNT 1 1 1 1
WIDTH 1418
HEIGHT 1
VIEWPOINT 0 0 0 1 0 0 0
POINTS 1418
DATA ascii
1.6348665 -1.6049912 -0.20043822 0
1.6347808 -1.5941786 -0.19977127 0
1.6303538 -1.5792319 -0.19858214 0
1.6283079 -1.5667025 -0.19769202 0
1.6512276 -1.5781277 -0.19983116 0
1.6041371 -1.5228637 -0.19351327 0
1.647033 -1.5531206 -0.19805868 0
1.6473633 -1.5430301 -0.19747517 0
1.6297157 -1.5162742 -0.19474918 0
1.6508224 -1.5256177 -0.19665904 0
1.6849886 -1.5467504 -0.20011027 0
1.6781919 -1.5301752 -0.19869268 0
1.679605 -1.5211818 -0.19825502 0
1.6989311 -1.5283478 -0.19993024 0
1.7175034 -1.5346681 -0.20150918 0
1.6906164 -1.5004796 -0.19776322 0
1.7473989 -1.5404333 -0.20380017 0
1.6961112 -1.4851438 -0.1972366 0
1.7045227 -1.482442 -0.19763565 0
1.705794 -1.4735316 -0.1972091 0
1.6890557 -1.449212 -0.19471112 0
1.6915123 -1.4415016 -0.19443607 0
1.7268099 -1.461616 -0.19792902 0
1.7194362 -1.4455075 -0.19652723 0
1.7132312 -1.4305148 -0.19526872 0
1.7320828 -1.4364268 -0.19686733 0
1.7118217 -1.4099642 -0.19402607 0
1.7202269 -1.4072334 -0.19444287 0
1.7219689 -1.3990477 -0.19410849 0
1.7789494 -1.4354677 -0.19998792 0
1.7253307 -1.3826764 -0.19343792 0
1.7355269 -1.3813171 -0.19406074 0
1.7426318 -1.3774534 -0.19433768 0
1.7264503 -1.3552825 -0.1920253 0
1.7444127 -1.3599551 -0.19351493 0
1.7677556 -1.3686489 -0.19559431 0
1.7595491 -1.3528838 -0.1941833 0
1.7618812 -1.3453016 -0.19394182 0
1.7626061 -1.3365237 -0.19352725 0
1.7746119 -1.3362801 -0.19435242 0
1.7465104 -1.3059669 -0.19079418 0
1.8085742 -1.3429447 -0.19708122 0
1.7554498 -1.2943892 -0.19081824 0
1.8302667 -1.3401062 -0.19846135 0
1.7826864 -1.2961094 -0.19282977 0
1.7956021 -1.2963195 -0.19375561 0
1.809667 -1.297266 -0.19480288 0
1.8133233 -1.290705 -0.19472952 0
1.8654126 -1.318381 -0.19984749 0
1.7978417 -1.2616078 -0.19215415 0
1.8630174 -1.2980435 -0.19865391 0
1.8337393 -1.2685325 -0.19507734 0
1.8264232 -1.2544382 -0.19385052 0
1.8453612 -1.2583604 -0.19541165 0
1.8066933 -1.2231386 -0.19088162 0
1.8506063 -1.2438397 -0.19507945 0
1.8664846 -1.2454473 -0.19631195 0
1.9159774 -1.2692088 -0.20106874 0
1.8710661 -1.2304518 -0.19592158 0
1.876919 -1.2253062 -0.19610317 0
1.8585857 -1.2044697 -0.19376464 0
1.8401403 -1.1837742 -0.19142678 0
1.9341327 -1.2350913 -0.20077275 0
1.9187517 -1.2162322 -0.1987517 0
1.868479 -1.1756029 -0.19313489 0
1.8987105 -1.1857564 -0.19584772 0
1.8843788 -1.1680424 -0.19396439 0
1.9668447 -1.2100501 -0.2020341 0
1.9304972 -1.178784 -0.1978934 0
1.8810972 -1.139979 -0.19243658 0
1.9463675 -1.1706295 -0.1987111 0
1.9354827 -1.155264 -0.19720328 0
1.9327672 -1.1448717 -0.19653438 0
1.9280366 -1.1333543 -0.19566585 0
1.9938048 -1.1630377 -0.20194344 0
1.9222624 -1.1126839 -0.19431828 0
1.9474515 -1.118564 -0.19648437 0
1.9609035 -1.1175637 -0.19746244 0
1.9556758 -1.1059141 -0.19656152 0
1.9713461 -1.1060688 -0.19776268 0
1.9591063 -1.0905812 -0.19616687 0
1.9888276 -1.098408 -0.19877301 0
1.998127 -1.0948173 -0.19933444 0
1.9748789 -1.0734856 -0.19665504 0
1.9946828 -1.0756022 -0.19826683 0
2.0450876 -1.0939476 -0.20291124 0
1.9913003 -1.0566045 -0.19722195 0
2.0541918 -1.0811646 -0.20309067 0
1.9906524 -1.0392143 -0.19646315 0
1.9913402 -1.0310919 -0.19618875 0
2.0134618 -1.0340004 -0.19802552 0
2.0524123 -1.0453219 -0.2015105 0
2.0166569 -1.0186102 -0.19766353 0
2.0304816 -1.0170628 -0.1986832 0
2.0375855 -1.0120897 -0.19904517 0
12.303393 -6.0598793 -1.1998874 0
12.30971 -6.0117898 -1.1985309 0
12.372572 -5.9911971 -1.2026888 0
12.370062 -5.9388652 -1.2005026 0
12.395744 -5.9001369 -1.2010684 0
12.36953 -5.8368716 -1.1966255 0
12.373676 -5.7881837 -1.1951425 0
12.453465 -5.7746964 -1.2009723 0
12.484296 -5.7382131 -1.2020832 0
12.496908 -5.6933365 -1.201453 0
12.53075 -5.6580982 -1.202876 0
5.1282601 -2.2949309 -0.49154046 0
5.0814095 -2.2535467 -0.48632291 0
5.1876497 -2.2798796 -0.49575639 0
5.124289 -2.2315648 -0.48898357 0
5.157115 -2.2253196 -0.49140123 0
5.1388035 -2.1970103 -0.48895177 0
5.1384335 -2.1765039 -0.48821947 0
5.1268754 -2.1513631 -0.48643321 0
5.1056857 -2.1223669 -0.48374486 0
5.1590714 -2.1243005 -0.48812541 0
5.0863271 -2.0744298 -0.48058194 0
5.1174722 -2.0671475 -0.48286712 0
5.2007771 -2.0805426 -0.49006653 0
5.2360306 -2.0743079 -0.49273035 0
5.3058763 -2.0814235 -0.49864355 0
5.3461003 -2.0765471 -0.50176662 0
5.4072671 -2.079468 -0.50685036 0
5.4430447 -2.0723052 -0.5095498 0
12.87491 -4.8524432 -1.203753 0
12.885311 -4.8070869 -1.2032118 0
12.868937 -4.7518864 -1.2001882 0
12.872875 -4.7043562 -1.1990777 0
12.91923 -4.672256 -1.2019297 0
12.914492 -4.6216383 -1.2000406 0
12.907071 -4.5702233 -1.1979203 0
12.955289 -4.5384717 -1.2009765 0
13.02598 -4.5142603 -1.2061198 0
12.999896 -4.4564557 -1.2023143 0
12.969339 -4.3974423 -1.1981179 0
12.974869 -4.3508687 -1.1972743 0
12.979753 -4.3041487 -1.1963867 0
13.030614 -4.2725744 -1.1997476 0
13.0315 -4.2245283 -1.1985183 0
13.091994 -4.1956835 -1.2027814 0
13.044927 -4.132422 -1.1971776 0
13.066974 -4.0912495 -1.1979353 0
13.11397 -4.057735 -1.2009897 0
13.15782 -4.0230136 -1.2037636 0
13.131214 -3.9667857 -1.2001059 0
13.142331 -3.9221077 -1.1999135 0
13.158145 -3.8788288 -1.2001631 0
13.16728 -3.833585 -1.1998172 0
13.184313 -3.7906389 -1.2002045 0
13.168704 -3.738395 -1.1976358 0
13.203312 -3.7004292 -1.1996481 0
13.171825 -3.6440177 -1.1956705 0
13.250265 -3.6179361 -1.2016829 0
13.265632 -3.5743823 -1.2019829 0
13.239202 -3.5196924 -1.1985122 0
13.250746 -3.4752362 -1.1984956 0
13.267812 -3.4322093 -1.1989917 0
13.275561 -3.3867657 -1.1986591 0
13.344385 -3.3567109 -1.2038503 0
13.321774 -3.3035715 -1.2008045 0
13.296293 -3.2499702 -1.1975187 0
13.349002 -3.2154617 -1.2012881 0
13.312348 -3.159447 -1.1970296 0
13.360415 -3.1235743 -1.2004033 0
13.34268 -3.0722835 -1.1978775 0
13.357824 -3.0286462 -1.1983188 0
13.45344 -3.0029354 -1.2059864 0
13.397992 -2.9434347 -1.2001246 0
13.417079 -2.9005065 -1.2009565 0
13.486953 -2.8683133 -1.2063432 0
13.417513 -2.8065574 -1.1992837 0
13.400421 -2.7561202 -1.1969234 0
13.424135 -2.7141171 -1.1982219 0
13.421385 -2.6667535 -1.1971716 0
13.466029 -2.6287236 -1.200361 0
13.460564 -2.5808363 -1.1990956 0
13.444913 -2.5311301 -1.1969388 0
13.497448 -2.4941914 -1.2008646 0
13.47906 -2.4440861 -1.1984928 0
13.581072 -2.4155798 -1.2068362 0
13.522876 -2.3584824 -1.2009554 0
13.536954 -2.3141975 -1.2015098 0
13.513161 -2.263525 -1.1987176 0
13.592535 -2.2299948 -1.2050886 0
13.567435 -2.179189 -1.2022089 0
13.522379 -2.1254692 -1.1975782 0
13.542248 -2.0820901 -1.1987129 0
13.572567 -2.0401936 -1.2007844 0
13.580859 -1.9949002 -1.2009195 0
13.552011 -1.9442675 -1.1977854 0
13.581697 -1.9020745 -1.1998389 0
13.616675 -1.860445 -1.202371 0
13.589457 -1.8103336 -1.1994247 0
13.692296 -1.7773317 -1.2079688 0
13.660973 -1.7267114 -1.2046878 0
13.616133 -1.6746814 -1.2002318 0
13.604134 -1.6269224 -1.1986866 0
13.624968 -1.583097 -1.2000479 0
13.633657 -1.5377961 -1.2003523 0
13.621853 -1.4902294 -1.1988664 0
13.654634 -1.4475031 -1.2013175 0
13.635562 -1.3992662 -1.1992202 0
13.660868 -1.3555942 -1.2010393 0
13.631442 -1.3065356 -1.1980604 0
13.650023 -1.2621446 -1.1993147 0
13.657501 -1.2166677 -1.1996067 0
13.705723 -1.1746596 -1.2034895 0
13.653126 -1.1240522 -1.1985333 0
13.685802 -1.0805579 -1.2010771 0
13.704906 -1.0358418 -1.2024419 0
13.666035 -0.98683393 -1.1987345 0
13.684244 -0.94203979 -1.200048 0
13.628826 -0.89232361 -1.1949189 0
13.721323 -0.8521874 -1.2027714 0
13.664092 -0.80265242 -1.1975121 0
13.685371 -0.75786841 -1.1991476 0
13.661592 -0.71061456 -1.1968484 0
13.706931 -0.66689968 -1.2006179 0
13.66786 -0.61907166 -1.1970071 0
13.71722 -0.57522851 -1.2011542 0
13.720511 -0.52928954 -1.2012802 0
13.686368 -0.48202205 -1.1981426 0
13.691942 -0.4362601 -1.1984959 0
13.631647 -0.38859281 -1.1930974 0
13.677959 -0.34402028 -1.1970431 0
13.69811 -0.29857445 -1.1987121 0
13.696545 -0.25259972 -1.1984943 0
13.758568 -0.20760061 -1.203854 0
13.705254 -0.16083664 -1.1991351 0
13.667905 -0.11456766 -1.195827 0
13.709009 -0.068946294 -1.1993964 0
13.69308 -0.02295522 -1.1979891 0
13.651575 0.022885641 -1.194358 0
13.699587 0.068898901 -1.1985719 0
13.708725 0.11490982 -1.1993984 0
13.75189 0.16138394 -1.2032156 0
13.719865 0.20701663 -1.2004675 0
13.748817 0.25356376 -1.2030684 0
13.69457 0.29849732 -1.1984024 0
13.708909 0.34479868 -1.1997516 0
13.766592 0.39243966 -1.2049083 0
13.717607 0.43707785 -1.2007424 0
13.674129 0.48159096 -1.1970712 0
13.73471 0.52983731 -1.2025234 0
13.658384 0.57276124 -1.1960022 0
13.71689 0.62129241 -1.201301 0
13.736884 0.66835701 -1.2032416 0
13.724871 0.71390611 -1.2023921 0
13.706026 0.75901222 -1.2009574 0
13.681336 0.8036654 -1.1990234 0
13.713264 0.85168684 -1.202065 0
13.681784 0.89579093 -1.1995621 0
13.710611 0.94385493 -1.2023603 0
13.705562 0.9896881 -1.2022016 0
13.693881 1.0350085 -1.2014748 0
13.674839 1.0796924 -1.2001148 0
13.683981 1.1265924 -1.2012419 0
13.666077 1.1712617 -1.2000082 0
13.648179 1.2158372 -1.1987878 0
13.631997 1.2604779 -1.197731 0
13.67182 1.3104056 -1.2016091 0
13.648768 1.3543935 -1.1999755 0
13.584785 1.3940555 -1.1947544 0
13.647554 1.4467525 -1.2006947 0
13.638444 1.4920444 -1.2003266 0
13.65152 1.539811 -1.201925 0
13.630406 1.5837289 -1.2005268 0
13.621758 1.6290302 -1.2002395 0
13.574516 1.6695629 -1.1965635 0
13.65527 1.7259905 -1.2041849 0
13.583175 1.7631673 -1.198342 0
13.591673 1.8106289 -1.1996205 0
13.60878 1.8593662 -1.2016737 0
13.575875 1.9012591 -1.1993245 0
13.543489 1.943045 -1.1970322 0
13.597823 1.9973921 -1.2024196 0
13.612548 2.0462034 -1.2043216 0
13.547535 2.0829029 -1.1991808 0
13.518869 2.1249175 -1.1972674 0
13.601233 2.1846175 -1.2052037 0
13.517712 2.2177193 -1.198455 0
13.526933 2.2658319 -1.1999393 0
13.534611 2.3137968 -1.2013018 0
13.510324 2.3562934 -1.1998407 0
13.524447 2.4055083 -1.2018045 0
13.502708 2.448374 -1.2005954 0
13.493355 2.4934349 -1.2005004 0
13.473886 2.5365844 -1.1995181 0
13.532086 2.5945497 -1.205467 0
13.493753 2.6341357 -1.2028322 0
13.404376 2.6633739 -1.1956545 0
13.437969 2.7169139 -1.1994567 0
13.403411 2.7567348 -1.1971904 0
13.446413 2.8126025 -1.2018669 0
13.421198 2.8543289 -1.2004617 0
13.334039 2.8825548 -1.1935235 0
13.409461 2.9459543 -1.2011518 0
13.352427 2.9803882 -1.1969314 0
13.352272 3.0273874 -1.1978208 0
13.371419 3.0789011 -1.2004577 0
13.387932 3.1300073 -1.2028756 0
13.436901 3.1890073 -1.2082292 0
13.376801 3.222158 -1.2037898 0
13.311627 3.2537184 -1.1988997 0
13.326595 3.3047671 -1.201239 0
13.334641 3.35426 -1.2029712 0
13.251683 3.3806741 -1.196503 0
13.300017 3.4405406 -1.201902 0
13.241606 3.4728391 -1.1976689 0
13.273397 3.5287833 -1.2016077 0
13.269668 3.5754697 -1.2023486 0
13.222801 3.6104372 -1.1991922 0
13.297084 3.6786704 -1.2070408 0
13.211237 3.7026503 -1.2003682 0
13.208427 3.7496719 -1.2012484 0
13.179088 3.7891366 -1.1997288 0
13.184058 3.8384697 -1.201346 0
13.167473 3.8815784 -1.2010139 0
13.138228 3.9208832 -1.1995388 0
13.140936 3.9697227 -1.2009945 0
13.161408 4.0241108 -1.2040919 0
13.092384 4.0510559 -1.199013 0
13.058453 4.0885811 -1.1971542 0
13.047614 4.1332731 -1.1974243 0
13.052608 4.1830611 -1.199163 0
13.074464 4.2384562 -1.2024697 0
13.088367 4.2915111 -1.205065 0
13.035435 4.3226128 -1.201519 0
12.99887 4.3589172 -1.1994891 0
13.00456 4.4093847 -1.2013717 0
4.7158384 1.6166227 -0.43615121 0
4.6886201 1.6248797 -0.43413529 0
4.6243868 1.6200064 -0.42868823 0
4.5663519 1.6168848 -0.42380843 0
4.6197615 1.6532485 -0.42927751 0
4.4832039 1.6213564 -0.4170911 0
4.4577756 1.6290817 -0.41523123 0
4.4409103 1.6398171 -0.41417006 0
4.4196424 1.6488235 -0.41269982 0
4.4571295 1.6798539 -0.41672391 0
4.4617329 1.6986949 -0.41768447 0
4.493175 1.7279363 -0.42116788 0
4.4050403 1.7110178 -0.41344196 0
4.5246353 1.7749532 -0.42522293 0
4.4102025 1.7471474 -0.41501677 0
4.4524708 1.7811868 -0.41955402 0
4.4582844 1.8008758 -0.42066842 0
4.4353046 1.8089141 -0.41907007 0
4.4349041 1.8261172 -0.41960832 0
12.676938 5.2696381 -1.2010932 0
12.670995 5.3170619 -1.2022123 0
12.584584 5.3304949 -1.1957027 0
12.690468 5.4255991 -1.2074847 0
12.585976 5.4309087 -1.1992682 0
12.570857 5.474453 -1.1995698 0
12.565889 5.5224843 -1.200856 0
12.535585 5.5593882 -1.1997346 0
12.58563 5.6321545 -1.2063247 0
12.536839 5.6608477 -1.2034605 0
12.427273 5.661612 -1.1947582 0
12.466779 5.7301617 -1.2003967 0
12.425876 5.7619028 -1.1983116 0
12.385996 5.7939467 -1.1963323 0
12.416549 5.8590584 -1.201174 0
12.362482 5.8843045 -1.1978455 0
12.367542 5.9376554 -1.200258 0
12.373813 5.9917984 -1.2028095 0
12.325416 6.0194607 -1.2000601 0
12.285608 6.0511198 -1.1981529 0
12.273766 6.0965061 -1.1989846 0
12.206111 6.1140084 -1.1943715 0
12.255931 6.1904521 -1.2012706 0
12.267263 6.2478867 -1.2044277 0
12.189846 6.2600174 -1.1988808 0
12.184545 6.30901 -1.200433 0
12.10213 6.3178816 -1.1943936 0
12.08674 6.3615069 -1.1949731 0
12.098858 6.4197788 -1.1982925 0
12.090573 6.4674263 -1.1996129 0
12.089817 6.5192494 -1.2016999 0
12.04589 6.5477881 -1.1995089 0
12.04272 6.5984678 -1.2013896 0
12.009727 6.6328425 -1.20031 0
12.027702 6.6954951 -1.2043434 0
11.990267 6.7274132 -1.2028468 0
11.9203 6.7408047 -1.1980884 0
11.883912 6.7729135 -1.1967067 0
11.862939 6.8137546 -1.1968884 0
11.845413 6.8566084 -1.197433 0
11.841821 6.9076381 -1.1994042 0
11.859605 6.9714103 -1.2035662 0
11.792051 6.9850035 -1.1990805 0
11.77608 7.0289865 -1.1998461 0
11.678812 7.0241423 -1.1923286 0
11.719269 7.1020894 -1.1988833 0
11.724456 7.1590891 -1.2018626 0
11.649084 7.1667962 -1.1965928 0
11.655564 7.2247648 -1.1997399 0
11.651855 7.2766557 -1.2018628 0
11.60762 7.3032408 -1.199819 0
11.647862 7.3831882 -1.2065305 0
11.547354 7.373867 -1.1986737 0
11.524412 7.4137297 -1.1988658 0
11.519034 7.464992 -1.2009032 0
11.500409 7.5077944 -1.2015791 0
11.485403 7.5530391 -1.2026504 0
11.427015 7.5696449 -1.1991874 0
11.381385 7.5944452 -1.1970642 0
11.343675 7.6243734 -1.1957798 0
11.307115 7.6549616 -1.1946247 0
11.317282 7.7173071 -1.1984259 0
11.290381 7.7545476 -1.1983237 0
11.306101 7.8212624 -1.2027687 0
11.260004 7.8453236 -1.2006564 0
11.216745 7.8711786 -1.198851 0
11.198848 7.9147887 -1.1997676 0
11.210161 7.9792781 -1.2038389 0
11.168779 8.0063772 -1.2022711 0
11.08924 8.0057812 -1.1965916 0
11.147383 8.1047497 -1.205791 0
11.045159 8.0871754 -1.1976601 0
10.996359 8.1082172 -1.1953095 0
10.982426 8.1549263 -1.1967603 0
10.977825 8.2087545 -1.1992514 0
10.999621 8.2826986 -1.2046595 0
10.913465 8.2753057 -1.1982557 0
10.92134 8.3390951 -1.2021835 0
10.903134 8.3832121 -1.2032666 0
10.880301 8.4238529 -1.2038571 0
10.801826 8.4211712 -1.1982913 0
10.820947 8.4945621 -1.2035652 0
10.756364 8.5023069 -1.1995459 0
10.72916 8.5394087 -1.1996984 0
10.693854 8.5700321 -1.1989567 0
10.673235 8.6124344 -1.1998757 0
10.619163 8.6277485 -1.1970422 0
10.582835 8.657299 -1.1962125 0
10.57269 8.708334 -1.1983594 0
10.554583 8.7529793 -1.1996266 0
10.521905 8.7855864 -1.1992538 0
10.485678 8.8151722 -1.1984866 0
10.459214 8.8529472 -1.1988478 0
10.455547 8.9101849 -1.2018449 0
10.444178 8.9611177 -1.2039849 0
10.381602 8.9680347 -1.2002308 0
10.326445 8.9810219 -1.1973284 0
10.324844 9.0406094 -1.2006507 0
10.335279 9.1111469 -1.2054096 0
10.261322 9.1072721 -1.2003386 0
10.204051 9.1177874 -1.1972085 0
10.183082 9.1606369 -1.1983452 0
10.175293 9.2155418 -1.2010579 0
10.099308 9.2085476 -1.1957265 0
10.092719 9.2647018 -1.1986175 0
10.088453 9.3233061 -1.2018164 0
10.062261 9.361845 -1.2024287 0
9.99788 9.3646803 -1.1984806 0
9.9490032 9.3817196 -1.1963856 0
9.9208927 9.418252 -1.1967958 0
9.9031773 9.4647636 -1.1984801 0
9.8875589 9.5134735 -1.2004434 0
9.8350077 9.526618 -1.1979344 0
9.8233023 9.5793266 -1.2004139 0
9.7861824 9.6073513 -1.1998074 0
9.7600212 9.646142 -1.2005584 0
9.7425251 9.6936378 -1.2023975 0
9.6693897 9.6856003 -1.1973723 0
9.6501722 9.731389 -1.1990263 0
9.6261196 9.7724495 -1.2001021 0
9.5893688 9.8006506 -1.1996102 0
9.5325155 9.808115 -1.1966051 0
9.5371466 9.8789358 -1.2013375 0
9.4923954 9.8987865 -1.1998744 0
9.4549532 9.9261475 -1.1993417 0
9.4506025 9.9884243 -1.2030309 0
9.4101496 10.012702 -1.2021482 0
9.3555956 10.021775 -1.1994648 0
9.3220835 10.053239 -1.199483 0
9.3342085 10.134254 -1.2054083 0
9.256732 10.118006 -1.1997774 0
9.2129068 10.138146 -1.1984961 0
9.195446 10.187349 -1.2006612 0
9.1075926 10.158288 -1.1936305 0
9.1350241 10.257873 -1.2017263 0
9.0847845 10.270586 -1.1996405 0
9.0571575 10.308796 -1.2005498 0
8.9956369 10.308271 -1.1969696 0
8.9860077 10.367198 -1.2003067 0
8.9700785 10.419199 -1.2028385 0
8.9020767 10.410602 -1.1983937 0
8.8979378 10.476674 -1.2025584 0
8.8591146 10.502126 -1.2020637 0
8.8316774 10.541107 -1.2031294 0
8.7637224 10.531528 -1.1986756 0
8.7649078 10.605069 -1.2036945 0
8.7056608 10.605597 -1.2004346 0
8.6909876 10.660403 -1.203333 0
8.6265707 10.654129 -1.1993532 0
8.5975618 10.6914 -1.200297 0
8.5372868 10.689638 -1.196879 0
8.5187607 10.740092 -1.1993234 0
8.4869852 10.774029 -1.1999288 0
8.474679 10.832929 -1.2033173 0
8.4135637 10.829429 -1.1997883 0
8.3461237 10.81729 -1.1953366 0
8.3180599 10.855982 -1.1965234 0
8.3192091 10.933216 -1.2019551 0
8.2815905 10.959837 -1.2018224 0
8.2274647 10.964443 -1.1992958 0
8.2090683 11.016675 -1.2019917 0
8.1894369 11.067587 -1.2045438 0
8.1131182 11.041678 -1.1987568 0
8.0821962 11.077241 -1.199669 0
8.010911 11.057209 -1.194584 0
7.9879556 11.103692 -1.1967057 0
7.9753075 11.164886 -1.2004122 0
7.9171977 11.162475 -1.1972922 0
7.8838124 11.194757 -1.1979128 0
7.8522959 11.229795 -1.1988384 0
7.8478146 11.303902 -1.2039337 0
7.757844 11.254673 -1.1959136 0
7.7590308 11.337557 -1.2019496 0
7.7250748 11.369542 -1.202588 0
7.6670914 11.365996 -1.1994871 0
7.6246681 11.38526 -1.1988155 0
7.5713286 11.388012 -1.1964256 0
7.5669637 11.464634 -1.2018032 0
7.4971385 11.442102 -1.1967996 0
7.4782195 11.497133 -1.1999264 0
7.4430189 11.52739 -1.200473 0
7.4066458 11.555898 -1.2008488 0
7.3931804 11.620464 -1.2049757 0
7.3290372 11.605378 -1.2008564 0
7.2691307 11.596457 -1.1974047 0
7.255085 11.660746 -1.2015245 0
7.1969047 11.654167 -1.1983535 0
7.1791539 11.713087 -1.2019303 0
7.144743 11.74515 -1.2027555 0
7.0775666 11.723063 -1.1980568 0
7.0701814 11.800067 -1.2034971 0
7.0114765 11.791581 -1.2002273 0
6.9811668 11.830724 -1.2018222 0
6.9299874 11.834469 -1.1998355 0
6.8807373 11.841232 -1.1981757 0
6.8505907 11.880875 -1.1998559 0
6.8120437 11.906094 -1.2000895 0
6.7791157 11.941248 -1.2013352 0
6.7275677 11.943541 -1.1992898 0
6.6874361 11.965942 -1.199281 0
6.6338296 11.964041 -1.1968545 0
6.6068497 12.010158 -1.1992452 0
6.5412397 11.985873 -1.1946237 0
6.5156574 12.034781 -1.1973141 0
6.4824791 12.069981 -1.1986471 0
6.4807949 12.164514 -1.2058703 0
6.414834 12.138604 -1.2011632 0
6.3800092 12.171318 -1.2022768 0
6.2947602 12.107232 -1.1938549 0
6.2751703 12.169069 -1.1978711 0
6.2321796 12.185826 -1.1974571 0
6.2258177 12.274732 -1.2041354 0
6.1759105 12.278206 -1.2024382 0
6.1327147 12.294846 -1.2020473 0
6.0895152 12.31141 -1.2016639 0
6.053699 12.342964 -1.2027558 0
5.9937649 12.325115 -1.1990515 0
5.9500051 12.340159 -1.1985676 0
5.9040074 12.350438 -1.1976366 0
5.8766608 12.399905 -1.2005161 0
5.8431878 12.436852 -1.2021896 0
5.8002868 12.453861 -1.2019472 0
5.7309232 12.413509 -1.1961915 0
5.7074471 12.472374 -1.2000132 0
5.662981 12.485671 -1.199459 0
5.6318064 12.528434 -1.2017463 0
5.5992222 12.568464 -1.2037786 0
5.5422759 12.5537 -1.200578 0
5.504714 12.582634 -1.2015733 0
5.458724 12.592319 -1.2007436 0
5.3911552 12.551604 -1.1951309 0
5.3382373 12.54422 -1.1927168 0
5.3346391 12.653342 -1.2013849 0
5.2813978 12.64533 -1.1989362 0
5.2568054 12.706075 -1.2030177 0
5.2085156 12.709818 -1.201712 0
5.1650949 12.725293 -1.2015311 0
5.1211853 12.739517 -1.201246 0
5.0831022 12.768319 -1.2023481 0
5.0166264 12.72533 -1.1967094 0
4.998055 12.803875 -1.2025132 0
4.9559937 12.822877 -1.2027304 0
4.8984885 12.801568 -1.1991845 0
4.8665447 12.846972 -1.2019025 0
4.8098145 12.826868 -1.1985062 0
4.7929854 12.913525 -1.2050948 0
4.7481375 12.925371 -1.204708 0
4.6809702 12.875741 -1.1986127 0
4.6400099 12.897578 -1.1991905 0
4.6058478 12.938647 -1.2015665 0
4.5639858 12.958403 -1.2019733 0
4.5186038 12.968152 -1.2014656 0
4.4680195 12.962691 -1.1995651 0
4.4256668 12.980924 -1.1998724 0
4.3901901 13.019624 -1.2020822 0
4.3491931 13.042308 -1.2028234 0
4.2699237 12.949107 -1.192901 0
4.2730227 13.106094 -1.2060364 0
4.2048039 13.045106 -1.1991202 0
4.1671615 13.078334 -1.2008835 0
4.1284041 13.108474 -1.2023731 0
4.0687675 13.07192 -1.1977624 0
4.043715 13.146604 -1.2033564 0
3.9932151 13.139032 -1.2014312 0
3.9364464 13.110072 -1.1975694 0
3.8930027 13.124996 -1.1977336 0
3.8619714 13.182336 -1.2017779 0
3.8189349 13.1993 -1.2021503 0
3.7634661 13.172853 -1.1985857 0
3.7206569 13.190283 -1.1990298 0
3.6836691 13.228746 -1.2013968 0
3.6355143 13.227268 -1.2001487 0
3.5809166 13.201674 -1.1967304 0
3.5409036 13.229558 -1.1981752 0
3.5062034 13.277998 -1.2014909 0
3.4494514 13.24279 -1.1972518 0
3.4145231 13.291227 -1.2005891 0
3.3749545 13.322392 -1.2023753 0
3.3243127 13.309789 -1.2002251 0
3.2679856 13.273407 -1.1959496 0
3.2271774 13.299592 -1.1973273 0
3.1850774 13.320832 -1.1982713 0
3.1492062 13.368831 -1.2016325 0
3.1063483 13.38786 -1.2024 0
3.0606413 13.394688 -1.2020848 0
3.0132742 13.394029 -1.2011122 0
2.9855549 13.48175 -1.2080741 0
2.9191413 13.39443 -1.1993659 0
2.8729999 13.398472 -1.1988585 0
2.8332367 13.432566 -1.2010524 0
2.7929401 13.46492 -1.2031013 0
2.7341409 13.407331 -1.1971298 0
2.6935673 13.438345 -1.1990858 0
2.6546192 13.478391 -1.2018582 0
2.6108193 13.49448 -1.2025055 0
2.5681455 13.516764 -1.2037172 0
2.5068851 13.439913 -1.1961181 0
2.4695494 13.490522 -1.1998786 0
2.421978 13.485774 -1.1987273 0
2.3797493 13.510851 -1.2002404 0
2.3320127 13.504718 -1.1989942 0
2.2893002 13.527702 -1.2003466 0
2.2496009 13.5695 -1.2033794 0
2.2045794 13.579966 -1.2036452 0
2.1569898 13.574405 -1.2025045 0
2.1098042 13.570875 -1.2015585 0
2.0604329 13.552492 -1.1993126 0
2.0206234 13.597284 -1.20267 0
1.9716135 13.580498 -1.2005938 0
1.9228584 13.56438 -1.1985922 0
1.8841054 13.619448 -1.2028931 0
1.8297038 13.561002 -1.1971827 0
1.7892339 13.60514 -1.2005428 0
1.7500706 13.661508 -1.2049923 0
1.7015023 13.645213 -1.2030451 0
1.6503903 13.606711 -1.1991559 0
1.6053561 13.617222 -1.1996012 0
1.5601528 13.62656 -1.1999563 0
1.5120494 13.610046 -1.1980488 0
1.4685509 13.634927 -1.1997988 0
1.4197347 13.610127 -1.197191 0
1.3730564 13.604524 -1.1962864 0
1.3337361 13.673648 -1.2019647 0
1.2825229 13.621111 -1.1969619 0
1.2395571 13.655192 -1.1995848 0
1.1944277 13.666834 -1.200249 0
1.1454092 13.632801 -1.1969161 0
1.1046656 13.698206 -1.2023265 0
1.0562501 13.669714 -1.1995081 0
1.0093024 13.658161 -1.1981907 0
0.96566612 13.692132 -1.2008801 0
0.92153275 13.721786 -1.2032031 0
0.87394124 13.700033 -1.201032 0
0.82744467 13.693651 -1.2002226 0
0.77983171 13.666624 -1.1976179 0
0.73735756 13.731582 -1.2030867 0
0.68967861 13.701488 -1.2002407 0
0.64280355 13.683869 -1.1985018 0
0.5986321 13.725189 -1.2019383 0
0.55281359 13.732157 -1.2023795 0
0.50616157 13.717467 -1.2009379 0
0.45817339 13.659662 -1.1957359 0
0.41310534 13.685398 -1.1978607 0
0.36826667 13.725774 -1.20128 0
0.32239535 13.733351 -1.2018417 0
0.27647388 13.7406 -1.2023882 0
0.22955401 13.690834 -1.1979593 0
0.18410929 13.725772 -1.2009556 0
0.13805944 13.72344 -1.2007043 0
0.091813557 13.689086 -1.197665 0
0.046067361 13.734408 -1.20161 0
1.8198378e-05 13.716044 -1.1999966 0
-0.04604052 13.737274 -1.2018608 0
-0.091690302 13.676121 -1.1965307 0
-0.13786969 13.708195 -1.1993705 0
-0.1842303 13.737512 -1.2019829 0
-0.22974779 13.70456 -1.1991603 0
-0.27552372 13.695185 -1.1984141 0
-0.32163975 13.702713 -1.1991605 0
-0.36788401 13.71287 -1.2001505 0
-0.41491681 13.746618 -1.2032192 0
-0.46112108 13.748631 -1.203524 0
-0.50469148 13.678613 -1.197536 0
-0.55100113 13.688039 -1.1985162 0
-0.59742236 13.698289 -1.1995825 0
-0.64238322 13.675694 -1.1977857 0
-0.6907568 13.723633 -1.2021804 0
-0.73367339 13.663651 -1.1971347 0
-0.78017551 13.673287 -1.1982017 0
-0.82812768 13.705559 -1.2012661 0
-0.873537 13.694268 -1.2005265 0
-0.91987747 13.697681 -1.2010893 0
-0.96701294 13.711747 -1.2026002 0
-1.0090359 13.655048 -1.1979175 0
-1.0587058 13.701969 -1.2023382 0
-1.1042295 13.693252 -1.2018914 0
-1.1538168 13.733305 -1.2057397 0
-1.1877227 13.590529 -1.1935475 0
-1.2390915 13.650466 -1.1991694 0
-1.284368 13.641095 -1.1987176 0
-1.324006 13.574265 -1.1932284 0
-1.3772467 13.646405 -1.1999688 0
-1.4222401 13.634495 -1.1993341 0
-1.4646437 13.598989 -1.1966361 0
-1.5240254 13.718176 -1.2075667 0
-1.5581541 13.609424 -1.1984469 0
-1.6058167 13.621441 -1.1999724 0
-1.6504368 13.607396 -1.1992159 0
-1.6961669 13.60272 -1.1992983 0
-1.7433022 13.608958 -1.2003568 0
-1.7935231 13.638034 -1.2034451 0
-1.8271645 13.542453 -1.1955447 0
-1.881651 13.601971 -1.2013493 0
-1.9230398 13.565918 -1.1987277 0
-1.9743894 13.599873 -1.2023063 0
-2.0083046 13.514634 -1.1953592 0
-2.0640309 13.5764 -1.2014277 0
-2.1140416 13.59837 -1.2039924 0
-2.1539705 13.555635 -1.2008413 0
-2.1944261 13.51765 -1.1981213 0
-2.2349355 13.48126 -1.1955535 0
-2.2889581 13.5259 -1.2001861 0
-2.3257234 13.46851 -1.1957788 0
-2.3803124 13.514259 -1.2005426 0
-2.4271376 13.514709 -1.2012986 0
-2.4790745 13.542758 -1.204524 0
-2.51314 13.473644 -1.1991196 0
-2.5633574 13.491759 -1.2014898 0
-2.5991504 13.434359 -1.1971474 0
-2.6533053 13.471908 -1.2012795 0
-2.7023261 13.482229 -1.2030009 0
-2.745959 13.465466 -1.2023199 0
-2.7859719 13.431504 -1.2001148 0
-2.8306234 13.420353 -1.1999596 0
-2.8758581 13.411974 -1.200066 0
-2.9311976 13.449923 -1.204334 0
-2.9777675 13.446754 -1.2049375 0
-3.0067024 13.364983 -1.1985068 0
-3.0561519 13.375204 -1.2003355 0
-3.1089129 13.399076 -1.2034065 0
-3.1454999 13.353256 -1.2002318 0
-3.177902 13.290977 -1.195585 0
-3.2364769 13.338071 -1.2007906 0
-3.2855275 13.344808 -1.2023821 0
-3.3136954 13.267429 -1.1964046 0
-3.3761721 13.327347 -1.2028216 0
-3.406544 13.260315 -1.197796 0
-3.4610753 13.28756 -1.2012984 0
-3.4995627 13.252993 -1.1992273 0
-3.5435135 13.23945 -1.1990703 0
-3.5914595 13.24068 -1.2002655 0
-3.6281805 13.200723 -1.1977394 0
-3.6766961 13.203841 -1.1991341 0
-3.7242286 13.203079 -1.2001921 0
-3.7706852 13.198255 -1.200896 0
-3.8091745 13.165696 -1.1990888 0
-3.8456881 13.126884 -1.1967217 0
-3.9042666 13.1631 -1.2012099 0
-3.9330828 13.098995 -1.1965567 0
-3.9879603 13.121867 -1.1998606 0
-4.0333643 13.113075 -1.2002865 0
-4.0685172 13.071239 -1.1976988 0
-4.1189346 13.078527 -1.1996254 0
-4.1695466 13.085939 -1.2015809 0
-4.2093306 13.059267 -1.2004209 0
-4.2334123 12.984718 -1.1948663 0
-4.2889161 13.006821 -1.1982167 0
-4.3215017 12.959381 -1.1951746 0
-4.3987069 13.044996 -1.2044237 0
-4.4318595 12.999202 -1.2015607 0
-4.4818363 13.002889 -1.2032838 0
-4.499445 12.913278 -1.1963805 0
-4.5609388 12.949861 -1.2011797 0
-4.6113038 12.954082 -1.2029986 0
-4.6419244 12.903008 -1.1996942 0
-4.6810651 12.876109 -1.1986458 0
-4.7159233 12.837783 -1.1965432 0
-4.7620864 12.830379 -1.1973344 0
-4.8100338 12.827558 -1.1985694 0
-4.8500295 12.803477 -1.1978321 0
-4.8949375 12.79239 -1.1983236 0
-4.9218292 12.734583 -1.1944475 0
-4.9929242 12.790832 -1.2012869 0
-5.0213342 12.73737 -1.1978405 0
-5.082418 12.766698 -1.2021942 0
-5.1010504 12.689528 -1.1965311 0
-5.1586471 12.709505 -1.2000389 0
-5.2003036 12.689875 -1.199825 0
-5.2400999 12.665792 -1.1992024 0
-5.277905 12.637061 -1.1981509 0
-5.3197455 12.618111 -1.1980385 0
-5.380723 12.644149 -1.2022169 0
-5.4121399 12.600553 -1.1997902 0
-5.444437 12.559452 -1.1976082 0
-5.5008564 12.573908 -1.2007385 0
-5.5264578 12.517961 -1.1971586 0
-5.5745769 12.513233 -1.1984873 0
-5.6160221 12.493409 -1.1983854 0
-5.6727419 12.50728 -1.2015334 0
-5.7267704 12.514688 -1.2040828 0
-5.7484069 12.451466 -1.1998477 0
-5.8102856 12.475417 -1.2040261 0
-5.8285284 12.405736 -1.1991804 0
-5.8847661 12.417092 -1.2021786 0
-5.9049888 12.352575 -1.1978424 0
-5.9525242 12.345468 -1.1990817 0
-5.988193 12.313741 -1.1979436 0
-6.0667887 12.369736 -1.205363 0
-6.047112 12.225763 -1.1933028 0
-6.1350298 12.299568 -1.2025074 0
-6.1729784 12.272458 -1.2018737 0
-6.2139945 12.251502 -1.2018551 0
-6.2400284 12.201253 -1.1989713 0
-6.2868338 12.191767 -1.2001036 0
-6.3307629 12.176558 -1.2006893 0
-6.3776722 12.166938 -1.2018424 0
-6.4263601 12.160493 -1.2033273 0
-6.4429622 12.093578 -1.1988368 0
-6.4626994 12.033228 -1.1949955 0
-6.5373764 12.074973 -1.2013111 0
-6.5763106 12.050212 -1.2010347 0
-6.6389375 12.068563 -1.2050754 0
-6.6517134 11.996369 -1.2000868 0
-6.6916404 11.973539 -1.2000407 0
-6.723526 11.93644 -1.198575 0
-6.7626481 11.912314 -1.1984224 0
-6.80234 11.889207 -1.1983856 0
-6.8401451 11.862831 -1.1980319 0
-6.8714714 11.825359 -1.1965677 0
-6.9486952 11.866489 -1.2030801 0
-6.9989781 11.86098 -1.2048938 0
-7.0015011 11.774877 -1.198525 0
-7.0440178 11.756471 -1.1990488 0
-7.0994759 11.759423 -1.2017708 0
-7.1297507 11.720574 -1.2002368 0
-7.1763306 11.708551 -1.2014629 0
-7.23104 11.709514 -1.2040427 0
-7.2488108 11.65073 -1.2004905 0
-7.3101783 11.662008 -1.2041714 0
-7.3340583 11.613398 -1.2016842 0
-7.3438425 11.542984 -1.1969395 0
-7.4202099 11.577127 -1.2030529 0
-7.4487643 11.536356 -1.2014046 0
-7.4922023 11.518698 -1.2021749 0
-7.5425854 11.511531 -1.2040595 0
-7.5453172 11.431903 -1.1983701 0
-7.5898719 11.415969 -1.1993606 0
-7.6366248 11.403179 -1.2007002 0
-7.6525111 11.344447 -1.1972109 0
-7.7034907 11.33784 -1.1992326 0
-7.7444487 11.316313 -1.1996953 0
-7.7948775 11.308463 -1.2016271 0
-7.8128281 11.253572 -1.1985711 0
-7.8835034 11.274491 -1.2036076 0
-7.9246101 11.252752 -1.2041165 0
-7.9364157 11.189633 -1.2002029 0
-7.9585347 11.141467 -1.1978921 0
-7.9995008 11.119802 -1.1984397 0
-8.0417204 11.099795 -1.1991826 0
-8.061841 11.049403 -1.1966518 0
-8.1471272 11.088025 -1.2037863 0
-8.1704607 11.042002 -1.201757 0
-8.20895 11.016577 -1.2019786 0
-8.270813 11.022272 -1.2056187 0
-8.2845392 10.9638 -1.2022545 0
-8.2770138 10.877822 -1.1958629 0
-8.3291759 10.870548 -1.1981266 0
-8.3741512 10.853677 -1.1993549 0
-8.4169998 10.833912 -1.2002825 0
-8.4476242 10.798405 -1.1994799 0
-8.4947948 10.784001 -1.2010369 0
-8.4907303 10.704811 -1.1953812 0
-8.5622034 10.720895 -1.2003762 0
-8.6018248 10.696759 -1.2008963 0
-8.6757851 10.714968 -1.2061994 0
-8.6591167 10.621367 -1.1989242 0
-8.6632404 10.553975 -1.1945889 0
-8.7444792 10.580408 -1.2008927 0
-8.7484932 10.513284 -1.1965965 0
-8.8244095 10.532489 -1.2021432 0
-8.8673735 10.511971 -1.2031879 0
-8.9036045 10.483402 -1.203328 0
-8.9340286 10.448025 -1.2026987 0
-8.921607 10.362952 -1.1963425 0
-8.9736443 10.352989 -1.1986589 0
-9.0163183 10.332026 -1.1997252 0
-9.0655899 10.318448 -1.2016711 0
-9.1108437 10.300101 -1.2030852 0
-9.1342173 10.257022 -1.2016238 0
-9.1548939 10.211101 -1.1998333 0
-9.1823959 10.172945 -1.1989608 0
-9.2264166 10.153067 -1.2002569 0
-9.2492981 10.109933 -1.1988173 0
-9.2876673 10.083778 -1.1994016 0
-9.2749834 10.002498 -1.1934259 0
-9.3271246 9.9913292 -1.1958178 0
-9.3831053 9.9839792 -1.1986967 0
-9.4494791 9.9872913 -1.2028915 0
-9.4712152 9.9432735 -1.2014078 0
-9.4755592 9.8812819 -1.1977495 0
-9.5032101 9.8438358 -1.1970659 0
-9.5900717 9.8673878 -1.2038333 0
-9.5628195 9.7735682 -1.1962923 0
-9.6577272 9.8045893 -1.2040459 0
-9.6721582 9.7536116 -1.2017612 0
-9.6991129 9.7154245 -1.2010562 0
-9.7058306 9.6571789 -1.1978718 0
-9.7172003 9.6038723 -1.1952943 0
-9.8330097 9.6533747 -1.2055517 0
-9.828516 9.5844612 -1.2010541 0
-9.8736134 9.5640631 -1.2026397 0
-9.9046841 9.5300007 -1.2025256 0
-9.9249353 9.4856091 -1.2011163 0
-9.8874083 9.3865147 -1.1927594 0
-9.9301844 9.3640232 -1.1941255 0
-9.9691153 9.3377867 -1.1950355 0
-9.988183 9.2929735 -1.1935794 0
-10.06792 9.3043804 -1.1993734 0
-10.095593 9.2673903 -1.1989617 0
-10.167836 9.2710819 -1.203843 0
-10.170774 9.2114983 -1.2005273 0
-10.166421 9.1456976 -1.1963874 0
-10.198108 9.1125259 -1.1965141 0
-10.248949 9.0963402 -1.1988941 0
-10.283545 9.065589 -1.1993788 0
-10.339823 9.0537729 -1.2023953 0
-10.346557 8.9985619 -1.1996632 0
-10.378876 8.9657269 -1.1999183 0
-10.438725 8.9564867 -1.203359 0
-10.383552 8.8488779 -1.1935718 0
-10.4863 8.8759212 -1.2019552 0
-10.490283 8.8190918 -1.1990156 0
-10.519466 8.7835979 -1.1989784 0
-10.553903 8.7524624 -1.1995519 0
-10.593061 8.7251596 -1.200671 0
-10.620558 8.6882057 -1.200479 0
-10.642076 8.6464119 -1.1996276 0
-10.657578 8.5998478 -1.1981182 0
-10.73757 8.6051121 -1.2038605 0
-10.724649 8.5358648 -1.1991966 0
-10.745852 8.4940434 -1.1983761 0
-10.773538 8.4573927 -1.1982946 0
-10.809801 8.4274349 -1.1991786 0
-10.861023 8.4089727 -1.2017263 0
-10.878843 8.3645811 -1.2005882 0
-10.891379 8.3162642 -1.1988879 0
-10.893232 8.2600098 -1.1960367 0
-10.960049 8.2529459 -1.200328 0
-10.995346 8.2219019 -1.2011678 0
-11.012691 8.1774464 -1.2000608 0
-11.034266 8.1362143 -1.1994324 0
-11.087087 8.117919 -1.2022086 0
-11.084653 8.0591869 -1.199008 0
-11.082109 8.0006781 -1.1958245 0
-11.162928 8.0022278 -1.2016435 0
-11.140316 7.9296074 -1.1963407 0
-11.204962 7.9191546 -1.2004249 0
-11.2243 7.8765244 -1.1996607 0
-11.226078 7.8217301 -1.197041 0
-11.297791 7.8155589 -1.2018869 0
-11.325301 7.7785759 -1.2020322 0
-11.360791 7.7470207 -1.2030354 0
-11.335042 7.673912 -1.1975774 0
-11.369071 7.6414862 -1.198459 0
-11.441094 7.6343307 -1.2033463 0
-11.426885 7.5696015 -1.1991757 0
-11.446305 7.5273705 -1.1985584 0
-11.470268 7.4881611 -1.198432 0
-11.488929 7.4455256 -1.1977667 0
-11.548428 7.4292221 -1.2013661 0
-11.567909 7.3870363 -1.2008095 0
-11.595452 7.3500109 -1.2011038 0
-11.612666 7.3064585 -1.2003425 0
-11.587542 7.2365341 -1.1952308 0
-11.634947 7.2120275 -1.1976197 0
-11.69525 7.195241 -1.2013369 0
-11.725933 7.1600337 -1.202016 0
-11.715094 7.0996017 -1.1984581 0
-11.77702 7.0832515 -1.2023568 0
-11.784749 7.0342031 -1.2007314 0
-11.811515 6.9965749 -1.2010616 0
-11.825295 6.9512844 -1.2000861 0
-11.849714 6.9122853 -1.2002057 0
-11.878299 6.8756857 -1.2007591 0
-11.917613 6.8452001 -1.2024065 0
-11.968418 6.8211174 -1.2052182 0
-11.980187 6.7747121 -1.2041093 0
-11.959992 6.7104688 -1.1998115 0
-12.042548 6.7038012 -1.2058316 0
-11.990376 6.6221967 -1.1983777 0
-12.020489 6.5863285 -1.1991736 0
-12.045222 6.5474668 -1.1994442 0
-12.102859 6.5263238 -1.2029979 0
-12.112959 6.4794421 -1.2018356 0
-12.111215 6.4263768 -1.199518 0
-12.117313 6.3776398 -1.1979976 0
-12.160253 6.3482656 -1.2001317 0
-12.172832 6.3029866 -1.1992807 0
-12.201781 6.2661877 -1.2000562 0
-12.199195 6.2132592 -1.1977463 0
-12.240698 6.1827979 -1.199779 0
-12.282736 6.1524305 -1.2018708 0
-12.264407 6.0918984 -1.1980721 0
-12.313094 6.0646977 -1.200835 0
-12.351398 6.0321908 -1.2025914 0
-12.380709 5.9951777 -1.2034813 0
-12.378946 5.9431705 -1.2013663 0
-12.393148 5.898942 -1.2008184 0
-12.456571 5.8779845 -1.2050474 0
-12.441753 5.8200693 -1.2017194 0
-12.420646 5.7595177 -1.1978087 0
-12.441546 5.7186046 -1.1979686 0
-12.465652 5.6791368 -1.1984495 0
-12.564147 5.6732183 -1.2060833 0
-12.476386 5.5833063 -1.195855 0
-12.56003 5.5702686 -1.2020754 0
-12.56196 5.5207977 -1.2004819 0
-12.63687 5.5032411 -1.2058705 0
-12.569107 5.4236693 -1.1976622 0
-12.62585 5.3980122 -1.2013377 0
-12.629507 5.3495631 -1.1999724 0
-12.706658 5.3320665 -1.2055974 0
-12.63397 5.2518158 -1.1970234 0
-12.663182 5.2142344 -1.198128 0
-12.664398 5.1651425 -1.1965978 0
-12.682309 5.1229205 -1.1966605 0
-12.748293 5.0999241 -1.2012663 0
-12.758027 5.0542636 -1.20058 0
-12.819173 5.0288272 -1.2047405 0
-12.787273 4.9669075 -1.200171 0
-12.775908 4.9132586 -1.1975514 0
-12.867549 4.8990417 -1.2045949 0
-12.840361 4.8394608 -1.2005239 0
-12.84654 4.7926617 -1.1995926 0
-12.879975 4.7560015 -1.2012188 0
-12.8866 4.7094102 -1.2003573 0
-12.856493 4.6496053 -1.1960942 0
-12.86539 4.6041045 -1.1954789 0
-12.997093 4.602138 -1.2062765 0
-12.889362 4.5154152 -1.1948662 0
-12.924171 4.4790158 -1.196694 0
-12.97957 4.4495268 -1.2004356 0
-13.017564 4.4138322 -1.202574 0
-13.002961 4.3603272 -1.1998676 0
-13.034778 4.322433 -1.2014595 0
-13.015865 4.267777 -1.1983907 0
-13.064965 4.2354155 -1.2015972 0
-13.049833 4.1822104 -1.1989092 0
-13.057264 4.1363683 -1.1983109 0
-13.08211 4.0960264 -1.199324 0
-13.090873 4.0506268 -1.1988755 0
-13.119319 4.0112801 -1.2002423 0
-13.137594 3.9687512 -1.20069 0
-13.165296 3.9289989 -1.2020111 0
-13.168662 3.8819671 -1.2011234 0
-13.129797 3.8227098 -1.1964027 0
-13.161929 3.7842414 -1.1981678 0
-13.171235 3.7391515 -1.1978669 0
-13.19045 3.696862 -1.1984804 0
-13.315305 3.6837494 -1.2086957 0
-13.221525 3.6101265 -1.1990774 0
-13.277624 3.5776515 -1.2030704 0
-13.238455 3.5195315 -1.1984453 0
-13.230791 3.4700403 -1.1966916 0
-13.284657 3.4366047 -1.2005148 0
-13.332542 3.40134 -1.2038047 0
-13.31728 3.3499303 -1.2014058 0
-13.28805 3.2952459 -1.1977654 0
-13.366817 3.2672455 -1.203871 0
-13.29233 3.201848 -1.1961889 0
-13.337246 3.1653934 -1.1992691 0
-13.359915 3.1234944 -1.2003591 0
-13.365401 3.0775528 -1.1999182 0
-13.390383 3.0360653 -1.2012403 0
-13.352403 2.9804201 -1.1969299 0
-13.452759 2.9555042 -1.205031 0
-13.359933 2.8881896 -1.195842 0
-13.437886 2.8579154 -1.2019551 0
-13.371319 2.7969317 -1.1951554 0
-13.463172 2.7690635 -1.2025288 0
-13.424316 2.7141907 -1.1982387 0
-13.502047 2.6828177 -1.2043672 0
-13.442891 2.6242437 -1.1982991 0
-13.497416 2.5879395 -1.2023792 0
-13.470567 2.5359967 -1.1992232 0
-13.472431 2.4896054 -1.1986393 0
-13.45996 2.4406598 -1.196795 0
-13.473543 2.3964913 -1.1972816 0
-13.558426 2.3647196 -1.2041131 0
-13.502228 2.3082976 -1.1984282 0
-13.520522 2.2647951 -1.1993712 0
-13.547329 2.2226152 -1.2010814 0
-13.543303 2.1753497 -1.200071 0
-13.52593 2.1260643 -1.1978933 0
-13.606709 2.0920377 -1.2044191 0
-13.586011 2.0422511 -1.2019743 0
-13.569701 1.9932979 -1.1999333 0
-13.56619 1.9463384 -1.199039 0
-13.562564 1.8994316 -1.198149 0
-13.593156 1.8572682 -1.2002946 0
-13.640802 1.8172106 -1.2039571 0
-13.54749 1.7585717 -1.1951941 0
-13.584547 1.717088 -1.1979487 0
-13.633447 1.6768477 -1.2017584 0
-13.59551 1.6259276 -1.197927 0
-13.651662 1.5862354 -1.2023994 0
-13.605172 1.5346198 -1.1978447 0
-13.628561 1.4909999 -1.1994572 0
-13.574936 1.4390908 -1.1943063 0
-13.636744 1.3994242 -1.1993245 0
-13.64957 1.3545096 -1.2000463 0
-13.705363 1.3136574 -1.2045575 0
-13.660636 1.2631625 -1.2002475 0
-13.664876 1.2173612 -1.2002547 0
-13.702183 1.1743928 -1.2031789 0
-13.577651 1.1178746 -1.191908 0
-13.714459 1.0828571 -1.2035923 0
-13.693132 1.0349885 -1.2014092 0
-13.662258 0.98659766 -1.1984035 0
-13.693341 0.94270259 -1.200846 0
-13.609542 0.89109731 -1.1932284 0
-13.691373 0.85036373 -1.2001463 0
-13.696767 0.80460829 -1.2003759 0
-13.736021 0.76070988 -1.2035859 0
-13.740728 0.71476752 -1.2037815 0
-13.67797 0.66552693 -1.1980813 0
-13.66101 0.61879772 -1.1964072 0
-13.693047 0.57425117 -1.1990376 0
-13.709009 0.52888232 -1.2002734 0
-13.737499 0.48385933 -1.202619 0
-13.667167 0.43550697 -1.1963272 0
-13.669544 0.38970944 -1.1964144 0
-13.714283 0.34497029 -1.200222 0
-13.711748 0.29890814 -1.1999058 0
-13.700607 0.25271103 -1.1988499 0
-13.751847 0.2075357 -1.2032659 0
-13.705153 0.16087183 -1.1991264 0
-13.722712 0.11506347 -1.2006221 0
-13.677814 0.068825699 -1.1966671 0
-13.710944 0.023021551 -1.1995521 0
-13.73374 3.6443711e-05 -1.2015448 0
-22.897821 -0.038446907 -1.2000239 0
-22.892431 -0.11519294 -1.199755 0
-22.936232 -0.19231787 -1.2020774 0
-22.891157 -0.26869765 -1.1997555 0
-22.88975 -0.34544015 -1.1997358 0
-22.842766 -0.42134032 -1.1973405 0
-22.908802 -0.49939856 -1.2008828 0
-22.888176 -0.57573122 -1.1998961 0
-22.839542 -0.65113991 -1.1974542 0
-22.862537 -0.72851932 -1.1987811 0
-22.874851 -0.80569321 -1.1995617 0
-22.85622 -0.88177419 -1.1987331 0
-22.880735 -0.95955932 -1.2001808 0
-22.854639 -1.0352381 -1.1989872 0
-22.881302 -1.113332 -1.2005751 0
-22.888134 -1.1905987 -1.2011362 0
-22.85997 -1.2660002 -1.1998743 0
-22.875616 -1.3438143 -1.2009254 0
-22.854321 -1.4194695 -1.2000504 0
-22.827944 -1.4946808 -1.1989218 0
-22.927279 -1.5784024 -1.20441 0
-22.861937 -1.6509373 -1.2012615 0
-22.832672 -1.725796 -1.200021 0
-22.895306 -1.8077524 -1.2036247 0
-22.820951 -1.8788936 -1.2000402 0
-22.831354 -1.9568399 -1.2009256 0
-22.829222 -2.0337842 -1.2011653 0
-22.836378 -2.111619 -1.2019076 0
-22.804174 -2.1857774 -1.2005917 0
-22.812403 -2.2637796 -1.2014177 0
-22.741436 -2.3337619 -1.1980857 0
-22.755949 -2.4123781 -1.1992695 0
-22.776928 -2.4918549 -1.2008088 0
-22.761032 -2.5673716 -1.2004179 0
-22.767378 -2.6454229 -1.2012135 0
-22.722029 -2.7173953 -1.1992948 0
-22.764048 -2.7998672 -1.2020013 0
-22.752436 -2.87591 -1.2018906 0
-22.676783 -2.9436264 -1.1984088 0
-22.704144 -3.0246174 -1.200384 0
-22.644005 -3.0939093 -1.1977462 0
-22.672195 -3.1752317 -1.1997937 0
-22.695621 -3.2561362 -1.2016044 0
-22.636543 -3.3251562 -1.19906 0
-22.581583 -3.3944669 -1.1967449 0
-22.601276 -3.4749568 -1.1983993 0
-22.606176 -3.5533366 -1.1992841 0
-22.589579 -3.6283786 -1.1990421 0
-22.632122 -3.7130935 -1.2019544 0
-22.59963 -3.7856178 -1.2008961 0
-22.534233 -3.8523805 -1.1981007 0
-22.55917 -3.9345357 -1.2001212 0
-22.57196 -4.0147943 -1.2015109 0
-22.577377 -4.0938973 -1.2025232 0
-22.534206 -4.1641545 -1.2009608 0
-22.552568 -4.2457929 -1.2026912 0
-22.497107 -4.3135033 -1.200498 0
-22.494452 -4.3912373 -1.2011353 0
-22.443689 -4.4594965 -1.1992164 0
-22.471611 -4.5434146 -1.2015154 0
-22.438354 -4.6150513 -1.2005578 0
-22.426382 -4.6910157 -1.2007521 0
-22.421909 -4.7686009 -1.2013619 0
-22.416117 -4.8459821 -1.2019153 0
-22.35516 -4.9113173 -1.1995231 0
-22.334362 -4.9853034 -1.1992973 0
-22.330856 -5.0631819 -1.2000139 0
-22.286558 -5.131762 -1.1985513 0
-22.290907 -5.211525 -1.1997181 0
-22.244413 -5.2793746 -1.1981617 0
-22.243721 -5.3580532 -1.1990852 0
-22.206055 -5.4278173 -1.1980292 0
-22.260611 -5.5203123 -1.2019643 0
-22.224409 -5.590498 -1.2010149 0
-22.213848 -5.6671 -1.2014642 0
-22.175148 -5.7364836 -1.2004046 0
-22.099327 -5.7959919 -1.1973455 0
-22.182861 -5.8974614 -1.2029358 0
-22.077927 -5.9488902 -1.1983204 0
-22.08358 -6.0299034 -1.1997178 0
-22.090679 -6.1115031 -1.2012099 0
-22.042582 -6.1778316 -1.1997141 0
-22.006844 -6.2474718 -1.1989024 0
-21.958563 -6.3133984 -1.1974186 0
-21.931444 -6.3852892 -1.1971004 0
-22.025526 -6.4928665 -1.2034173 0
-21.879648 -6.529676 -1.1966363 0
-21.896769 -6.6148205 -1.1987789 0
-21.938362 -6.7077351 -1.2022805 0
-21.851286 -6.7613058 -1.1987441 0
-21.805222 -6.8272448 -1.197466 0
-21.820503 -6.9124465 -1.1995713 0
-21.853628 -7.0036502 -1.2026764 0
-21.75174 -7.0515037 -1.1983635 0
-21.782129 -7.1421499 -1.2013503 0
-21.768448 -7.218586 -1.2019238 0
-21.703108 -7.2777772 -1.1996567 0
-21.704956 -7.3594441 -1.2011161 0
-21.667418 -7.4278078 -1.2004102 0
-21.659616 -7.506382 -1.2013656 0
-21.589796 -7.5633602 -1.1988927 0
-21.575584 -7.6396942 -1.1995192 0
-21.526619 -7.7036767 -1.1982261 0
-21.51465 -7.7808647 -1.1990054 0
-21.510742 -7.8611054 -1.2002497 0
-21.424137 -7.9109807 -1.1968906 0
-21.465397 -8.0081005 -1.2006888 0
-21.447929 -8.0836058 -1.2012211 0
-21.416424 -8.153841 -1.2009809 0
-21.388456 -8.2254047 -1.2009523 0
-21.398973 -8.3119144 -1.2031009 0
-21.317287 -8.3625488 -1.2000779 0
-21.338829 -8.4536638 -1.2028795 0
-21.304337 -8.5227489 -1.2025392 0
-21.232922 -8.5768738 -1.2001246 0
-21.212364 -8.6514082 -1.2005954 0
-21.172159 -8.7179193 -1.1999675 0
-21.112307 -8.7761765 -1.1982362 0
-21.111217 -8.8588524 -1.1998534 0
-21.076391 -8.9274645 -1.1995685 0
-21.085175 -9.0146828 -1.201782 0
-21.01244 -9.0670347 -1.1993623 0
-20.977154 -9.1353579 -1.1990898 0
-20.931978 -9.1992979 -1.1982638 0
-20.960136 -9.2956457 -1.2016531 0
-20.880747 -9.3443422 -1.1988912 0
-20.886232 -9.430975 -1.2010149 0
-20.85907 -9.5030336 -1.2012783 0
-20.868467 -9.5919352 -1.2036649 0
-20.777878 -9.6348095 -1.2002963 0
-20.740225 -9.701972 -1.1999936 0
-20.712709 -9.7738762 -1.2002908 0
-20.642834 -9.8256607 -1.198144 0
-20.619287 -9.8993845 -1.198697 0
-20.589478 -9.9701548 -1.1989006 0
-20.575275 -10.048577 -1.2000287 0
-20.531284 -10.11249 -1.1994337 0
-20.490253 -10.177789 -1.1990235 0
-20.507917 -10.272429 -1.2020657 0
-20.432955 -10.320722 -1.1996933 0
-20.403564 -10.391885 -1.2000067 0
-20.307053 -10.428625 -1.1963803 0
-20.3339 -10.528717 -1.200035 0
-20.305445 -10.600467 -1.2004464 0
-20.23835 -10.65194 -1.1985844 0
-20.212229 -10.724886 -1.1991603 0
-20.152004 -10.779674 -1.1977248 0
-20.150167 -10.865739 -1.1997741 0
-20.164907 -10.961114 -1.2028333 0
-20.100506 -11.013573 -1.2011876 0
-20.042459 -11.069303 -1.19993 0
-20.033457 -11.15215 -1.2016228 0
-19.964613 -11.201672 -1.1997396 0
-19.952085 -11.282764 -1.2012532 0
-19.863951 -11.32099 -1.1982255 0
-19.849501 -11.401093 -1.1996529 0
-19.810898 -11.467426 -1.1996368 0
-19.792135 -11.545331 -1.200838 0
-19.7113 -11.586929 -1.1982838 0
-19.71034 -11.675462 -1.2005985 0
-19.651268 -11.729652 -1.199389 0
-19.639767 -11.812276 -1.2010975 0
-19.647268 -11.906672 -1.2039909 0
-19.552149 -11.938841 -1.2006081 0
-19.524214 -12.011837 -1.2013592 0
-19.459677 -12.062258 -1.1998699 0
-19.453178 -12.148702 -1.2019739 0
-19.370058 -12.187256 -1.1993562 0
-19.320028 -12.246388 -1.198794 0
-19.307421 -12.329334 -1.2005699 0
-19.258535 -12.389214 -1.2001064 0
-19.228891 -12.461493 -1.200856 0
-19.16857 -12.513861 -1.1997024 0
-19.090309 -12.554255 -1.197432 0
-19.10627 -12.656718 -1.2010881 0
-19.038185 -12.703663 -1.1994789 0
-19.031815 -12.791842 -1.2017729 0
-18.946655 -12.827035 -1.1991044 0
-18.909496 -12.894547 -1.1994821 0
-18.897261 -12.979238 -1.2014596 0
-18.821266 -13.02013 -1.1993967 0
-18.774601 -13.081136 -1.1992111 0
-18.729225 -13.143021 -1.1991209 0
-18.701481 -13.217352 -1.200175 0
-18.632061 -13.262186 -1.1985669 0
-18.641691 -13.363435 -1.2020619 0
-18.58774 -13.419334 -1.2014774 0
-18.474417 -13.431975 -1.1970567 0
-18.446875 -13.506725 -1.1981996 0
-18.438267 -13.595619 -1.2005945 0
-18.350777 -13.626322 -1.1978658 0
-18.349243 -13.720865 -1.2007619 0
-18.270531 -13.757758 -1.1986229 0
-18.215973 -13.812624 -1.1980752 0
-18.232454 -13.921645 -1.2022225 0
-18.152107 -13.956886 -1.2000033 0
-18.079283 -13.997595 -1.1982847 0
-18.080219 -14.095531 -1.2014725 0
-17.9681 -14.105233 -1.1971577 0
-17.980907 -14.212984 -1.2011795 0
-17.908365 -14.253461 -1.199519 0
-17.863911 -14.316177 -1.1997498 0
-17.806606 -14.368565 -1.1991301 0
-17.782509 -14.447829 -1.2007625 0
-17.714588 -14.491516 -1.1994504 0
-17.681723 -14.563859 -1.2005246 0
-17.60067 -14.596421 -1.1983376 0
-17.576275 -14.675926 -1.20002 0
-17.510414 -14.720857 -1.1988864 0
-17.447239 -14.767868 -1.1979443 0
-17.464565 -14.883327 -1.2025535 0
-17.377842 -14.91029 -1.2000175 0
-17.299978 -14.944479 -1.198094 0
-17.262163 -15.013171 -1.1989543 0
-17.238569 -15.094465 -1.200824 0
-17.159412 -15.127096 -1.1988363 0
-17.137339 -15.210053 -1.2008502 0
-17.066643 -15.249908 -1.1994725 0
-16.990686 -15.284798 -1.1977292 0
-17.007429 -15.403341 -1.2025433 0
-16.94635 -15.451762 -1.2018809 0
-16.815113 -15.435667 -1.1962371 0
-16.831863 -15.555353 -1.2011322 0
-16.801964 -15.632493 -1.202732 0
-16.681889 -15.62545 -1.1978801 0
-16.640894 -15.692126 -1.1987077 0
-16.586887 -15.746598 -1.1986136 0
-16.584217 -15.850118 -1.2022542 0
-16.507147 -15.8827 -1.2005209 0
-16.439917 -15.924506 -1.1995077 0
-16.395134 -15.988022 -1.2001446 0
-16.372332 -16.073231 -1.2024136 0
-16.317514 -16.127209 -1.2023522 0
-16.214832 -16.133553 -1.1987652 0
-16.160044 -16.187222 -1.1987202 0
-16.157 -16.293064 -1.2025398 0
-16.060205 -16.304428 -1.1993976 0
-15.9923 -16.344744 -1.1984122 0
-15.942983 -16.404005 -1.1988313 0
-15.890056 -16.459606 -1.1989944 0
-15.883495 -16.563591 -1.2026831 0
-15.803154 -16.590803 -1.2008049 0
-15.717916 -16.612494 -1.1985537 0
-15.680551 -16.684698 -1.1999633 0
-15.617034 -16.729158 -1.1993884 0
-15.574578 -16.796223 -1.2004459 0
-15.513529 -16.843302 -1.2000865 0
-15.453917 -16.891884 -1.1998495 0
