# .PCD v0.7 - Point Cloud Data file format
VERSION 0.7
FIELDS x y z intensity
SIZE 4 4 4 4
TYPE F F F F
COUNT 1 1 1 1
WIDTH 1416
HEIGHT 1
VIEWPOINT 0 0 0 1 0 0 0
POINTS 1416
DATA ascii
22.50849 4.2374325 -1.2003399 0
22.508072 4.3155441 -1.2010826 0
22.531954 4.3984962 -1.2031372 0
22.470646 4.4647908 -1.2006561 0
22.403006 4.5294819 -1.1978467 0
22.478251 4.6231947 -1.2026918 0
22.3962 4.6846404 -1.1991354 0
22.419968 4.768126 -1.2012572 0
22.386967 4.8396182 -1.2003517 0
22.339554 4.9078269 -1.1986851 0
22.378729 4.9951444 -1.201679 0
22.38728 5.0759125 -1.2030451 0
22.316242 5.1385345 -1.2001469 0
22.298578 5.2132559 -1.2001302 0
22.288017 5.2896609 -1.2005095 0
22.20981 5.3498225 -1.1972564 0
22.280239 5.4458871 -1.2020305 0
22.194044 5.5037422 -1.1983691 0
22.231575 5.5922379 -1.2014014 0
22.210409 5.6661601 -1.2012775 0
22.164804 5.7337446 -1.1998439 0
22.158487 5.8114448 -1.20055 0
22.166094 5.8929405 -1.2020258 0
22.115477 5.9589453 -1.2003576 0
22.098175 6.0338254 -1.2005098 0
22.074963 6.1070919 -1.2003543 0
22.052755 6.1806207 -1.200267 0
22.018198 6.2506318 -1.1995199 0
22.008297 6.3276343 -1.2001296 0
21.961634 6.3940153 -1.1987473 0
21.962002 6.4740767 -1.1999454 0
21.936911 6.5467014 -1.1997671 0
21.899679 6.6156359 -1.1989372 0
21.904045 6.6971788 -1.2003988 0
21.850561 6.7610178 -1.1987033 0
21.837912 6.8374162 -1.1992602 0
21.843084 6.9195361 -1.2008117 0
21.786188 6.9819732 -1.198964 0
21.785145 7.0622692 -1.2002029 0
21.743862 7.129539 -1.1992388 0
21.721645 7.2030015 -1.1993387 0
21.681427 7.270443 -1.1984572 0
21.698313 7.3571277 -1.2007474 0
4.6881328 1.6071249 -0.25972995 0
4.6946683 1.6269759 -0.26039279 0
4.6483579 1.6284039 -0.25812551 0
4.6222405 1.6366743 -0.25697848 0
4.5358744 1.6232283 -0.252478 0
4.535542 1.6402844 -0.25276423 0
4.4941773 1.6423845 -0.25076443 0
4.4810762 1.6546484 -0.25034159 0
4.4429688 1.6575259 -0.24852175 0
4.4559865 1.6794231 -0.24956344 0
4.4111576 1.6794397 -0.24736674 0
4.4523783 1.7122471 -0.24999882 0
4.465168 1.7343729 -0.25104204 0
4.4377813 1.7408816 -0.24982907 0
4.4071312 1.7459307 -0.24843173 0
4.4506178 1.7804453 -0.2512182 0
4.38766 1.7723478 -0.24799852 0
4.452939 1.8161061 -0.25203094 0
4.4145126 1.8177208 -0.25019959 0
21.13505 8.7855654 -1.1995257 0
21.106445 8.8567848 -1.1995809 0
21.099264 8.9370871 -1.200869 0
21.079445 9.012167 -1.201454 0
21.035648 9.0769825 -1.2006856 0
20.979078 9.1361294 -1.1991984 0
20.972811 9.2171764 -1.2005999 0
20.922491 9.2788839 -1.1994935 0
20.894699 9.3505182 -1.1996907 0
20.846809 9.4131069 -1.1987464 0
20.831133 9.4902391 -1.1996679 0
20.799372 9.5601091 -1.1996781 0
20.78293 9.637085 -1.2005867 0
20.791948 9.7261 -1.2029847 0
20.703712 9.7695637 -1.1997679 0
20.701908 9.8537121 -1.2015712 0
20.672544 9.9248857 -1.2017915 0
20.632576 9.9909563 -1.2014085 0
20.571781 10.046803 -1.1998233 0
20.543819 10.118596 -1.2001644 0
20.512312 10.188677 -1.2003126 0
20.506224 10.271513 -1.2019649 0
20.344957 10.276206 -1.1945251 0
20.386328 10.383038 -1.1989913 0
20.361742 10.456642 -1.1996007 0
20.319965 10.521434 -1.1992109 0
20.320192 10.608097 -1.2013166 0
20.317623 10.693595 -1.2032777 0
20.234457 10.736611 -1.2004774 0
20.193056 10.801564 -1.200163 0
20.15387 10.867666 -1.1999929 0
20.139528 10.94725 -1.2013177 0
20.101351 11.013967 -1.2012364 0
20.029835 11.062261 -1.1991724 0
20.000837 11.133922 -1.1996645 0
19.978447 11.209365 -1.200569 0
19.904617 11.255852 -1.1983935 0
19.852375 11.314322 -1.1975254 0
19.903912 11.432275 -1.2029396 0
19.82338 11.474581 -1.2003908 0
19.784227 11.540648 -1.2003562 0
19.715523 11.58934 -1.1985387 0
19.679245 11.656971 -1.1987025 0
19.636511 11.720773 -1.1984864 0
19.626362 11.804142 -1.2002758 0
19.532267 11.836907 -1.1969416 0
19.553272 11.939456 -1.2006752 0
19.521221 12.009924 -1.2011731 0
19.465719 12.065932 -1.2002405 0
19.452635 12.14829 -1.2019383 0
19.373182 12.189149 -1.1995475 0
19.303497 12.235838 -1.1977662 0
19.295994 12.321964 -1.1998574 0
19.26129 12.390913 -1.200276 0
19.234724 12.4652 -1.2012181 0
19.233662 12.556281 -1.2037741 0
19.111282 12.567975 -1.1987454 0
19.082577 12.64095 -1.1995965 0
19.072407 12.726425 -1.2016329 0
19.024622 12.786934 -1.2013166 0
18.97814 12.848276 -1.2010949 0
18.886406 12.878728 -1.1980152 0
18.894852 12.977509 -1.2013043 0
18.829571 13.025801 -1.1999238 0
18.745092 13.060502 -1.1973242 0
18.773659 13.174126 -1.2019633 0
18.683149 13.204322 -1.1989964 0
18.68173 13.297465 -1.2017597 0
18.574198 13.314977 -1.1977074 0
18.615158 13.439054 -1.2032473 0
18.542749 13.481582 -1.2014819 0
18.500992 13.546274 -1.2017124 0
18.413565 13.57733 -1.1989838 0
18.393286 13.657812 -1.2006384 0
18.362417 13.730641 -1.2016218 0
18.272676 13.759297 -1.1987612 0
18.250237 13.838528 -1.2003262 0
18.133104 13.845709 -1.1956689 0
18.112982 13.926726 -1.1974143 0
18.109537 14.020942 -1.2002876 0
18.061991 14.081241 -1.2002586 0
18.047861 14.16777 -1.2024696 0
17.969065 14.203546 -1.2003858 0
17.917528 14.260676 -1.2001303 0
17.89839 14.343732 -1.202063 0
17.825769 14.38395 -1.2004179 0
17.744217 14.416641 -1.1981744 0
17.727852 14.502288 -1.2003458 0
17.67135 14.555238 -1.1998177 0
17.604807 14.599772 -1.1986165 0
17.554976 14.658064 -1.1985631 0
17.52284 14.731222 -1.1997344 0
17.501631 14.813828 -1.2016762 0
17.419647 14.84497 -1.1994579 0
17.351025 14.887201 -1.198163 0
17.320656 14.96226 -1.1995233 0
17.28867 15.036144 -1.2007927 0
17.195189 15.056399 -1.1977994 0
17.174086 15.139952 -1.1998588 0
17.120872 15.195357 -1.1996937 0
17.104673 15.283809 -1.2021425 0
16.97678 15.272205 -1.196746 0
17.004511 15.400618 -1.2023342 0
16.907906 15.416626 -1.1991514 0
16.895166 15.509071 -1.2019292 0
16.824934 15.548866 -1.2006347 0
16.761063 15.594357 -1.1998013 0
16.750004 15.689168 -1.2027683 0
16.675644 15.724813 -1.2012079 0
16.622492 15.780316 -1.2011837 0
16.53331 15.801381 -1.1985608 0
16.481726 15.858157 -1.1986691 0
16.44729 15.931563 -1.2000426 0
16.387602 15.980592 -1.1995902 0
16.313398 16.015289 -1.1980823 0
16.278032 16.088102 -1.1994396 0
16.251816 16.170265 -1.2014961 0
16.237494 16.264715 -1.2044622 0
16.120489 16.256159 -1.1998192 0
16.045877 16.289797 -1.1983243 0
16.036121 16.389444 -1.2016928 0
15.995194 16.45764 -1.202754 0
15.891075 16.460575 -1.1990681 0
15.785917 16.461748 -1.1952913 0
15.782377 16.568903 -1.1992229 0
15.753036 16.649523 -1.2012284 0
15.716423 16.72278 -1.2027051 0
15.64452 16.758512 -1.2014958 0
15.557505 16.777719 -1.1991265 0
15.524677 16.855316 -1.2009454 0
15.409661 16.843422 -1.1964099 0
15.388318 16.933744 -1.1991543 0
15.335588 16.98982 -1.1994774 0
15.268093 17.029493 -1.1986574 0
15.242681 17.116264 -1.201161 0
15.170075 17.150167 -1.199964 0
15.114146 17.202818 -1.2000957 0
15.062441 17.260338 -1.2005785 0
14.997046 17.30216 -1.1999832 0
14.964243 17.381723 -1.2020148 0
14.886299 17.408897 -1.2004356 0
14.855395 17.491146 -1.2026659 0
14.755775 17.49238 -1.1993423 0
14.689663 17.532946 -1.19874 0
14.637637 17.590321 -1.1993005 0
14.607017 17.673708 -1.20164 0
14.547695 17.722605 -1.2016414 0
14.450556 17.725115 -1.1985198 0
14.396552 17.780266 -1.1989784 0
14.353 17.848507 -1.2003284 0
14.287551 17.889612 -1.1998644 0
14.230872 17.941679 -1.2001495 0
14.16173 17.977983 -1.1993952 0
14.12287 18.052843 -1.2012237 0
14.039901 18.07131 -1.1993134 0
13.948905 18.078974 -1.1967115 0
13.950174 18.206511 -1.2020508 0
13.876791 18.237064 -1.2009895 0
13.80109 18.264328 -1.199731 0
13.731601 18.299604 -1.1990172 0
13.663787 18.336977 -1.1984575 0
13.608539 18.391212 -1.1990134 0
13.587985 18.492786 -1.2026585 0
13.493732 18.494146 -1.1997979 0
13.433218 18.541449 -1.1999381 0
13.344803 18.550001 -1.1975892 0
13.312835 18.63706 -1.2003212 0
13.246562 18.676357 -1.199985 0
13.197973 18.740694 -1.2012688 0
13.133776 18.782993 -1.2011508 0
13.030007 18.768272 -1.1974089 0
12.982209 18.833908 -1.1988127 0
12.922735 18.882801 -1.1991602 0
12.864375 18.933416 -1.1996286 0
12.781052 18.947132 -1.1977758 0
12.732627 19.012535 -1.1992049 0
12.681206 19.073763 -1.2003782 0
12.623868 19.126299 -1.2010142 0
12.522785 19.112225 -1.1974871 0
12.465504 19.164663 -1.1981473 0
12.412603 19.224045 -1.1992511 0
12.356318 19.27841 -1.2000513 0
12.305 19.340773 -1.2013584 0
12.270998 19.43087 -1.2043924 0
12.160503 19.399672 -1.1999248 0
12.103852 19.453934 -1.2007642 0
12.067153 19.540709 -1.2036163 0
11.960924 19.514744 -1.19954 0
11.914505 19.5861 -1.2014638 0
11.832952 19.599735 -1.1998599 0
11.76936 19.642952 -1.200083 0
11.704428 19.683971 -1.2001848 0
11.632782 19.713642 -1.1996092 0
11.573987 19.765114 -1.2003731 0
11.502726 19.79533 -1.1998591 0
11.439894 19.840031 -1.200237 0
11.381615 19.892792 -1.2011135 0
11.307815 19.91844 -1.2003663 0
11.261584 19.992842 -1.2025677 0
11.172002 19.990252 -1.2001522 0
11.086815 19.994953 -1.1981959 0
11.018977 20.030672 -1.1981158 0
10.988761 20.135313 -1.2021642 0
10.87797 20.092213 -1.1974068 0
10.850473 20.202919 -1.2018296 0
10.765493 20.206934 -1.1999145 0
10.694189 20.236303 -1.1995225 0
10.633022 20.284906 -1.2002835 0
10.592122 20.372705 -1.2033705 0
10.524932 20.410381 -1.2035048 0
10.444689 20.422577 -1.2021523 0
10.380747 20.46653 -1.2026839 0
10.305896 20.488949 -1.2019641 0
10.205352 20.459654 -1.1982316 0
10.152407 20.525517 -1.2000885 0
10.069245 20.530312 -1.1983883 0
10.025567 20.615801 -1.2014096 0
9.9468021 20.629416 -1.2002528 0
9.8947554 20.698578 -1.2023396 0
9.8025122 20.683552 -1.199551 0
9.7161732 20.680254 -1.1974638 0
9.6858406 20.796579 -1.2023122 0
9.6216564 20.841061 -1.203012 0
9.5370054 20.841034 -1.2011579 0
9.4832172 20.908482 -1.2032059 0
9.3694744 20.843195 -1.1976345 0
9.2933445 20.860588 -1.1968367 0
9.2591381 20.972692 -1.2014806 0
9.1661854 20.951998 -1.1985277 0
9.1003866 20.992996 -1.1991209 0
9.0470581 21.063219 -1.2013927 0
8.9561911 21.045979 -1.1986898 0
8.9035892 21.11861 -1.2011197 0
8.8366938 21.157829 -1.2016584 0
8.7676344 21.191999 -1.2019227 0
8.6709757 21.158913 -1.1983906 0
8.5976219 21.182043 -1.1980612 0
8.5330286 21.226856 -1.1989709 0
8.471818 21.280483 -1.2003889 0
8.3901339 21.282675 -1.1989188 0
8.3318605 21.344322 -1.2008113 0
8.2595615 21.370356 -1.2007113 0
8.1840649 21.387999 -1.2001539 0
8.1351948 21.475733 -1.2035397 0
8.0298729 21.414158 -1.1985734 0
7.9632268 21.454962 -1.1993562 0
7.9015155 21.509493 -1.2009168 0
7.8157973 21.498575 -1.1988374 0
7.7761436 21.614916 -1.2038643 0
7.6730046 21.554836 -1.1990786 0
7.6095176 21.605497 -1.2004708 0
7.5336876 21.621283 -1.1999376 0
7.4620972 21.649157 -1.2000893 0
7.3940802 21.687578 -1.2008382 0
7.3098226 21.678137 -1.1989516 0
7.2335958 21.692019 -1.1983713 0
7.1649866 21.728769 -1.1990676 0
7.1111422 21.811094 -1.2022882 0
7.0171232 21.770126 -1.1987263 0
6.9514499 21.81662 -1.1999962 0
6.8752656 21.830286 -1.1994733 0
6.7957125 21.832905 -1.1983585 0
6.7338328 21.8925 -1.2003835 0
6.6387424 21.843714 -1.1964813 0
6.5903721 21.948793 -1.2010201 0
6.5153913 21.966202 -1.2007705 0
6.439074 21.978939 -1.20028 0
6.3526297 21.956453 -1.1978821 0
6.2910299 22.019812 -1.2001811 0
6.2212648 22.055311 -1.2009724 0
6.1462579 22.072365 -1.2007722 0
6.0598602 22.047884 -1.1983283 0
6.0029731 22.131006 -1.2017454 0
5.9287562 22.151075 -1.2017491 0
5.8340755 22.093655 -1.1975658 0
5.774158 22.16757 -1.2005163 0
5.703639 22.201742 -1.2013245 0
5.6169229 22.172401 -1.1987112 0
5.5511093 22.225374 -1.200562 0
5.4768963 22.245222 -1.2006356 0
5.4051361 22.275227 -1.20127 0
5.3142104 22.225426 -1.1976168 0
5.2472572 22.275356 -1.1993525 0
5.165925 22.264305 -1.1978182 0
5.0986495 22.313892 -1.1995596 0
5.026598 22.343269 -1.2002261 0
4.9556646 22.378094 -1.2011974 0
4.8843536 22.411774 -1.2021195 0
4.8012562 22.391052 -1.2001379 0
4.7231936 22.392981 -1.1993856 0
4.6463194 22.400166 -1.1989293 0
4.5687351 22.40358 -1.1982855 0
4.5043049 22.472206 -1.2011416 0
4.4252129 22.468288 -1.2001324 0
4.3509536 22.48867 -1.200435 0
4.266695 22.456638 -1.1979549 0
4.1977081 22.504753 -1.199764 0
4.1157026 22.48304 -1.1978641 0
4.0511813 22.557312 -1.2010907 0
3.9722142 22.551954 -1.2000896 0
3.8930979 22.544985 -1.1990173 0
3.8063872 22.492319 -1.195531 0
3.7433615 22.579802 -1.1995071 0
3.6647675 22.574564 -1.1985693 0
3.5893037 22.588266 -1.1986512 0
3.5150046 22.609535 -1.1991477 0
3.4336417 22.58477 -1.1972169 0
3.3669982 22.657379 -1.2004607 0
3.2930069 22.682272 -1.2011878 0
3.2074485 22.626236 -1.1976441 0
3.137418 22.679144 -1.1998812 0
3.0634868 22.705286 -1.2007141 0
2.9892797 22.730158 -1.2014925 0
2.9103439 22.718904 -1.2003752 0
2.8279943 22.679127 -1.1977657 0
2.7645202 22.792202 -1.2032413 0
2.681968 22.749439 -1.2005024 0
2.6013689 22.720665 -1.198517 0
2.5291116 22.764685 -1.200385 0
2.4454286 22.704857 -1.1967912 0
2.3769858 22.786707 -1.2006787 0
2.3003776 22.792614 -1.2005768 0
2.2241833 22.802635 -1.2007052 0
2.1500194 22.834408 -1.2019918 0
2.0681798 22.783455 -1.198938 0
1.9898431 22.768105 -1.1977724 0
1.9132637 22.771896 -1.1976277 0
1.8369998 22.779383 -1.1976907 0
1.7639599 22.828711 -1.1999665 0
1.6882888 22.846395 -1.2005918 0
1.6087888 22.810936 -1.1984383 0
1.53495 22.855677 -1.2005117 0
1.4550772 22.810007 -1.1978499 0
1.3808231 22.851692 -1.199789 0
1.3046056 22.863337 -1.2001641 0
1.226077 22.832853 -1.1983414 0
1.1520736 22.88765 -1.2010077 0
1.0758957 22.903444 -1.2016405 0
0.99730229 22.865734 -1.1994798 0
0.92045486 22.864546 -1.1992489 0
0.84510553 22.903177 -1.2011198 0
0.76914352 22.93071 -1.2024215 0
0.69002932 22.859365 -1.1985525 0
0.6147483 22.912462 -1.2012216 0
0.53866315 22.945894 -1.2028729 0
0.46044144 22.883688 -1.1995242 0
0.38401335 22.902946 -1.2004595 0
0.30692667 22.88209 -1.1993057 0
0.23064014 22.926186 -1.2015694 0
0.15382276 22.934446 -1.2019687 0
0.076766632 22.887012 -1.1994625 0
3.0358913e-05 22.881392 -1.1991611 0
-0.076731257 22.894579 -1.199859 0
-0.15336761 22.875635 -1.1988864 0
-0.23014075 22.88258 -1.1992841 0
-0.30766326 22.941545 -1.2024218 0
-0.38375878 22.891386 -1.1998535 0
-0.4595556 22.842674 -1.1973743 0
-0.53704751 22.87966 -1.1994007 0
-0.61477685 22.915794 -1.2013962 0
-0.69042969 22.874641 -1.1993533 0
-0.76918817 22.933857 -1.2025865 0
-0.84353352 22.862221 -1.1989717 0
-0.92002416 22.855354 -1.1987667 0
-0.9983964 22.892216 -1.2008688 0
-1.0743413 22.871651 -1.1999723 0
-1.1517626 22.882679 -1.2007468 0
-1.2261897 22.836086 -1.1985108 0
-1.3064167 22.896145 -1.2018861 0
-1.380826 22.852745 -1.1998441 0
-1.4588494 22.870096 -1.2010051 0
-1.5317746 22.809299 -1.1980755 0
-1.6109589 22.842571 -1.2001001 0
-1.6887794 22.853857 -1.2009836 0
-1.7644068 22.835283 -1.2003118 0
-1.8400199 22.817591 -1.1996993 0
-1.917852 22.827234 -1.2005377 0
-1.9909939 22.781969 -1.1985015 0
-2.0706358 22.811182 -1.2003968 0
-2.1459064 22.791374 -1.1997262 0
-2.2178655 22.738491 -1.1973271 0
-2.3018284 22.807592 -1.2013655 0
-2.3777566 22.794682 -1.2010986 0
-2.4569845 22.812717 -1.2024763 0
-2.5284271 22.759073 -1.2000887 0
-2.5999966 22.709213 -1.1979126 0
-2.6766176 22.704575 -1.1981345 0
-2.7571938 22.732302 -1.2000788 0
-2.8319619 22.711435 -1.1994717 0
-2.9094183 22.712156 -1.2000183 0
-2.9869974 22.713268 -1.2005994 0
-3.0590842 22.673111 -1.1990122 0
-3.142272 22.714676 -1.2017605 0
-3.2154405 22.683048 -1.2006509 0
-3.2903748 22.664564 -1.2002497 0
-3.3668368 22.656706 -1.2004246 0
-3.4437015 22.651342 -1.2007453 0
-3.5278563 22.692598 -1.2035526 0
-3.5882089 22.581764 -1.1983056 0
-3.6807644 22.673485 -1.2038209 0
-3.7401197 22.560619 -1.1984875 0
-3.825141 22.603502 -1.2014401 0
-3.8815432 22.478426 -1.195477 0
-3.9745398 22.565508 -1.2008103 0
-4.0378804 22.483595 -1.197165 0
-4.1283202 22.552305 -1.2015538 0
-4.2048349 22.543291 -1.201818 0
-4.2652369 22.449286 -1.1975621 0
-4.3505187 22.486742 -1.2003316 0
-4.4237995 22.461426 -1.1997652 0
-4.5073667 22.487793 -1.201974 0
-4.5729146 22.424377 -1.1993973 0
-4.659339 22.463234 -1.2023042 0
-4.7193189 22.374903 -1.1984167 0
-4.7917624 22.347067 -1.1977797 0
-4.8819938 22.40123 -1.2015532 0
-4.9522519 22.362965 -1.2003846 0
-5.029953 22.358458 -1.2010412 0
-5.0924611 22.287081 -1.1981175 0
-5.1725764 22.29324 -1.1993741 0
-5.234252 22.220413 -1.1963935 0
-5.317925 22.24122 -1.1984671 0
-5.4074931 22.285198 -1.201807 0
-5.4758186 22.2411 -1.2004123 0
-5.536974 22.169029 -1.1975176 0
-5.6235566 22.198835 -1.2001394 0
-5.6983719 22.181484 -1.2002275 0
-5.7757444 22.173903 -1.2008585 0
-5.8468757 22.142366 -1.2002054 0
-5.9295192 22.154161 -1.2019156 0
-5.9926739 22.093267 -1.1996953 0
-6.0682168 22.078516 -1.1999923 0
-6.1443067 22.065586 -1.2004025 0
-6.2188334 22.046915 -1.2005143 0
-6.2779598 21.974285 -1.1976988 0
-6.3611321 21.986057 -1.1994963 0
-6.412488 21.888407 -1.1953349 0
-6.5073757 21.939392 -1.199304 0
-6.5842299 21.928549 -1.1999114 0
-6.6486464 21.876511 -1.1982769 0
-6.7242813 21.861652 -1.1986912 0
-6.8004184 21.848228 -1.1991985 0
-6.8639488 21.794554 -1.1975089 0
-6.9582186 21.838064 -1.2011747 0
-7.027782 21.803392 -1.200557 0
-7.0961728 21.765375 -1.199767 0
-7.1811752 21.778057 -1.2017865 0
-7.2481093 21.735735 -1.2007853 0
-7.319468 21.706934 -1.2005432 0
-7.4011793 21.70859 -1.2020004 0
-7.4646654 21.656796 -1.2005117 0
-7.5233369 21.591761 -1.1982981 0
-7.6098375 21.60659 -1.2005304 0
-7.6860271 21.5916 -1.2011225 0
-7.7514272 21.546392 -1.2000467 0
-7.8362885 21.555117 -1.2019892 0
-7.9062595 21.522583 -1.2016464 0
-7.9621539 21.452246 -1.1992031 0
-8.039731 21.44062 -1.2000533 0
-8.1235037 21.445042 -1.2018186 0
-8.1571484 21.317825 -1.196215 0
-8.2409763 21.322437 -1.1980176 0
-8.3125467 21.295012 -1.1980358 0
-8.3987074 21.304586 -1.200152 0
-8.4767046 21.292923 -1.2010893 0
-8.5360727 21.234592 -1.1994066 0
-8.604641 21.199499 -1.1990472 0
-8.7063608 21.245419 -1.2032888 0
-8.7576427 21.168007 -1.2005606 0
-8.8252249 21.130526 -1.2001063 0
-8.8784685 21.059183 -1.1977383 0
-8.9625874 21.061165 -1.1995534 0
-9.023221 21.007875 -1.1982347 0
-9.1159468 21.029043 -1.2011784 0
-9.179965 20.983646 -1.2003368 0
-9.2529888 20.958914 -1.2006899 0
-9.3198376 20.920206 -1.2002559 0
-9.3876133 20.883696 -1.1999601 0
-9.4588556 20.854916 -1.200122 0
-9.5304623 20.826881 -1.2003409 0
-9.5963802 20.786455 -1.1998585 0
-9.6697674 20.762213 -1.2003238 0
-9.7396421 20.730349 -1.2003629 0
-9.8090467 20.697483 -1.2003574 0
-9.878418 20.664543 -1.2003613 0
-9.9512148 20.638706 -1.2007917 0
-9.9890242 20.540796 -1.197037 0
-10.068845 20.529634 -1.1983471 0
-10.16028 20.541571 -1.2010256 0
-10.235557 20.520346 -1.2017844 0
-10.288532 20.454563 -1.1999453 0
-10.364699 20.435024 -1.2008309 0
-10.425335 20.384867 -1.1999308 0
-10.497245 20.356821 -1.2003449 0
-10.550184 20.292173 -1.198612 0
-10.648955 20.315435 -1.2020882 0
-10.705517 20.257868 -1.2007991 0
-10.771083 20.217554 -1.2005434 0
-10.826528 20.158463 -1.1991832 0
-10.890443 20.115379 -1.1987855 0
-10.970521 20.102016 -1.2001746 0
-11.018003 20.029028 -1.1980157 0
-11.114149 20.044374 -1.2011558 0
-11.181058 20.00658 -1.2011306 0
-11.226274 19.930279 -1.1988028 0
-11.29811 19.90147 -1.1993418 0
-11.358723 19.852903 -1.1987033 0
-11.445606 19.850061 -1.200842 0
-11.51169 19.810877 -1.2007997 0
-11.569768 19.75803 -1.1999409 0
-11.627529 19.704861 -1.1990728 0
-11.682641 19.647451 -1.1979562 0
-11.776253 19.654575 -1.2007912 0
-11.807268 19.55731 -1.1972607 0
-11.907907 19.575371 -1.2008038 0
-11.94967 19.496498 -1.1984165 0
-11.998387 19.42947 -1.1967624 0
-12.099894 19.447687 -1.2003765 0
-12.168646 19.412777 -1.2007333 0
-12.225525 19.358978 -1.1999344 0
-12.288703 19.315269 -1.1997722 0
-12.346189 19.262718 -1.1990725 0
-12.425161 19.243607 -1.2004693 0
-12.467548 19.167919 -1.1983488 0
-12.562626 19.17314 -1.2013017 0
-12.61773 19.117111 -1.200435 0
-12.692551 19.090937 -1.2014569 0
-12.7348 19.01589 -1.1994144 0
-12.803529 18.98056 -1.1998869 0
-12.873417 18.946831 -1.2004764 0
-12.950444 18.923399 -1.2017361 0
-12.985888 18.839352 -1.199157 0
-13.074582 18.832584 -1.2015097 0
-13.137768 18.788809 -1.2015204 0
-13.214379 18.764095 -1.2027665 0
-13.250312 18.681749 -1.2003292 0
-13.340338 18.675667 -1.2028054 0
-13.407213 18.63686 -1.2031944 0
-13.428122 18.534517 -1.1994872 0
-13.475975 18.46991 -1.1982234 0
-13.549908 18.441069 -1.1992928 0
-13.619254 18.405796 -1.1999618 0
-13.686268 18.367249 -1.2004336 0
-13.759566 18.336975 -1.2014633 0
-13.799386 18.262175 -1.1995871 0
-13.834744 18.181908 -1.1973548 0
-13.948253 18.204102 -1.2018893 0
-14.027085 18.180403 -1.203423 0
-13.999218 18.019045 -1.1958423 0
-14.128226 18.05979 -1.2016833 0
-14.143954 17.955517 -1.1978939 0
-14.222364 17.931051 -1.1994361 0
-14.309013 17.916584 -1.2016708 0
-14.338593 17.83069 -1.1991276 0
-14.422833 17.81282 -1.2011712 0
-14.461617 17.738779 -1.1994412 0
-14.501757 17.666735 -1.1978508 0
-14.578161 17.638889 -1.1992701 0
-14.654351 17.6105 -1.2006738 0
-14.698545 17.543642 -1.1994686 0
-14.784049 17.525991 -1.2016441 0
-14.858854 17.495314 -1.2029498 0
-14.879823 17.401417 -1.1999171 0
-14.982668 17.403217 -1.2034985 0
-15.001636 17.307549 -1.2003541 0
-15.086841 17.288391 -1.2025269 0
-15.120621 17.210279 -1.2006134 0
-15.164797 17.144291 -1.19955 0
-15.248292 17.122656 -1.2016068 0
-15.302588 17.06806 -1.201369 0
-15.308495 16.959896 -1.1973618 0
-15.373987 16.918064 -1.198041 0
-15.460445 16.899019 -1.2003564 0
-15.497279 16.825659 -1.1988294 0
-15.618818 16.843933 -1.2038559 0
-15.603154 16.714289 -1.1983223 0
-15.628852 16.62969 -1.1960071 0
-15.7531 16.649679 -1.2012366 0
-15.785097 16.571848 -1.199433 0
-15.810444 16.487411 -1.1971517 0
-15.894279 16.463982 -1.199313 0
-15.942899 16.403919 -1.198825 0
-16.028481 16.381721 -1.2011235 0
-16.069828 16.314198 -1.2001163 0
-16.092003 16.22752 -1.1977023 0
-16.15988 16.187057 -1.1987081 0
-16.291607 16.209942 -1.204441 0
-16.329872 16.139423 -1.2032627 0
-16.330858 16.032516 -1.1993678 0
-16.410246 16.002758 -1.2012509 0
-16.47468 15.958179 -1.2020441 0
-16.476233 15.852956 -1.1982726 0
-16.567286 15.833937 -1.2010268 0
-16.601675 15.760637 -1.1996824 0
-16.658068 15.708322 -1.1999447 0
-16.70575 15.647799 -1.1995935 0
-16.76018 15.593617 -1.199741 0
-16.810114 15.535254 -1.1995801 0
-16.865097 15.48155 -1.199793 0
-16.908621 15.41736 -1.199205 0
-16.974346 15.373378 -1.200204 0
-17.046568 15.335069 -1.2016685 0
-17.065447 15.24884 -1.1993885 0
-17.137794 15.210458 -1.2008822 0
-17.156706 15.124711 -1.1986473 0
-17.229555 15.086572 -1.2001961 0
-17.248857 15.001599 -1.1980302 0
-17.350916 14.98848 -1.2016217 0
-17.391491 14.922001 -1.20096 0
-17.388964 14.818901 -1.1973479 0
-17.489157 14.803349 -1.2008225 0
-17.568153 14.769396 -1.2028396 0
-17.537907 14.64389 -1.1974005 0
-17.614031 14.607501 -1.1992471 0
-17.674437 14.557858 -1.2000299 0
-17.696594 14.476795 -1.1982319 0
-17.742304 14.415164 -1.1980478 0
-17.805319 14.367526 -1.1990433 0
-17.864609 14.316737 -1.1997967 0
-17.898165 14.245343 -1.198836 0
-17.961372 14.197541 -1.1998744 0
-18.019951 14.145937 -1.2006124 0
-18.085724 14.09982 -1.2018381 0
-18.146097 14.049325 -1.2027133 0
-18.121819 13.933599 -1.1980009 0
-18.220882 13.912809 -1.2014594 0
-18.219046 13.814954 -1.1982774 0
-18.257776 13.748154 -1.1977862 0
-18.37499 13.740119 -1.2024469 0
-18.417154 13.675611 -1.2021987 0
-18.388008 13.55856 -1.197322 0
-18.452242 13.510655 -1.1985482 0
-18.573214 13.503807 -1.2034583 0
-18.592613 13.422853 -1.2017925 0
-18.648899 13.368601 -1.2025266 0
-18.690434 13.303735 -1.2023219 0
-18.713446 13.225808 -1.2009429 0
-18.786692 13.183347 -1.2028 0
-18.744701 13.060304 -1.1973013 0
-18.829245 13.025649 -1.1999053 0
-18.864422 12.956683 -1.1993718 0
-18.942371 12.916965 -1.2015675 0
-18.95274 12.831154 -1.1994896 0
-19.021078 12.784626 -1.201095 0
-19.078548 12.730597 -1.202022 0
-19.085287 12.642817 -1.199769 0
-19.105806 12.564446 -1.1984041 0
-19.153412 12.503965 -1.1987537 0
-19.188526 12.435333 -1.1983352 0
-19.262259 12.391609 -1.2003384 0
-19.322704 12.339093 -1.2015202 0
-19.345985 12.262842 -1.2004046 0
-19.398331 12.205044 -1.2011067 0
-19.435228 12.137492 -1.2008648 0
-19.491184 12.081788 -1.2018125 0
-19.550371 12.027929 -1.2029687 0
-19.510008 11.913109 -1.1980205 0
-19.54862 11.846889 -1.1979457 0
-19.69182 11.843584 -1.204281 0
-19.630402 11.717197 -1.1981155 0
-19.693604 11.665546 -1.199579 0
-19.673088 11.564466 -1.1959608 0
-19.780947 11.538805 -1.2001591 0
-19.773525 11.445793 -1.1973737 0
-19.861244 11.407838 -1.2003627 0
-19.932596 11.360112 -1.2023662 0
-19.953438 11.283528 -1.2013346 0
-19.927568 11.180887 -1.1975133 0
-19.945261 11.103054 -1.1963328 0
-20.009289 11.050983 -1.197944 0
-20.067327 10.995394 -1.1992049 0
-20.14863 10.952267 -1.2018623 0
-20.149021 10.865121 -1.1997058 0
-20.20504 10.808043 -1.200877 0
-20.237099 10.738083 -1.2006358 0
-20.230743 10.647937 -1.1981339 0
-20.286421 10.590535 -1.1993216 0
-20.340969 10.532377 -1.2004521 0
-20.3419 10.44652 -1.1984333 0
-20.420916 10.400722 -1.2010272 0
-20.483767 10.346387 -1.2026768 0
-20.506552 10.271745 -1.2019856 0
-20.503523 10.18438 -1.1998 0
-20.580345 10.136654 -1.2022997 0
-20.562778 10.042474 -1.1992998 0
-20.577345 9.9642792 -1.198194 0
-20.652264 9.9152164 -1.2006141 0
-20.664082 9.8357744 -1.1993772 0
-20.711523 9.7733164 -1.200222 0
-20.733601 9.6988735 -1.1996102 0
-20.778761 9.6352196 -1.2003473 0
-20.81287 9.5663805 -1.200458 0
-20.891636 9.5178699 -1.2031538 0
-20.813025 9.3979187 -1.1968051 0
-20.906733 9.3559704 -1.2003831 0
-20.92037 9.2780094 -1.1993732 0
-20.975677 9.218503 -1.2007654 0
-20.987085 9.1396828 -1.1996574 0
-21.053329 9.0846786 -1.2016962 0
-21.063732 9.0055151 -1.2005597 0
-21.098598 8.9368715 -1.2008325 0
-21.096424 8.8526449 -1.1990126 0
-21.202602 8.8137112 -1.203361 0
-21.162962 8.7141323 -1.1994462 0
-21.184128 8.6398926 -1.1989973 0
-21.173565 8.5528975 -1.1967697 0
-21.293575 8.5184441 -1.2019318 0
-21.243809 8.4160194 -1.1975231 0
-21.314276 8.3613672 -1.1999084 0
-21.235283 8.248332 -1.1938978 0
-21.344255 8.2084064 -1.1984705 0
-21.425419 8.1572657 -1.2014853 0
-21.415194 8.0712681 -1.1993877 0
-21.466518 8.0085182 -1.2007515 0
-21.470381 7.9280562 -1.1994741 0
-21.509422 7.8606234 -1.200176 0
-21.503525 7.7768412 -1.1983854 0
-21.524036 7.7027526 -1.1980823 0
-21.557995 7.6334662 -1.1985413 0
-21.581688 7.5605202 -1.1984425 0
-21.594557 7.4838347 -1.197757 0
-21.645376 7.4202518 -1.1991891 0
-21.731882 7.3685741 -1.2026061 0
-21.712158 7.2808123 -1.200157 0
-21.747875 7.2117639 -1.200788 0
-21.739258 7.1280928 -1.1989858 0
-21.801266 7.0675592 -1.2010921 0
-21.854734 7.0040045 -1.2027373 0
-21.831701 6.9159937 -1.2001868 0
-21.865265 6.8460441 -1.2007635 0
-21.902706 6.7772164 -1.2015649 0
-21.840666 6.6778641 -1.1969265 0
-21.880762 6.6099849 -1.1979026 0
-21.998856 6.5652518 -1.2031559 0
-21.952065 6.471211 -1.1994035 0
-22.021172 6.4114127 -1.201998 0
-22.02371 6.332129 -1.200971 0
-22.072466 6.2661014 -1.2024773 0
-22.106531 6.195755 -1.2031946 0
-22.041231 6.0978231 -1.1985211 0
-22.101076 6.0346804 -1.2006682 0
-22.093576 5.9531074 -1.1991698 0
-22.148615 5.8883567 -1.2010788 0
-22.133514 5.8049579 -1.1991976 0
-22.175293 5.7365212 -1.2004125 0
-22.194695 5.6622133 -1.2004282 0
-22.125652 5.5656557 -1.195678 0
-22.185495 5.5016847 -1.1979084 0
-22.166111 5.4180541 -1.1958742 0
-22.296745 5.3708258 -1.2019436 0
-22.28125 5.2881174 -1.2001458 0
-22.288713 5.2110114 -1.1996 0
-22.321606 5.1398325 -1.2004361 0
-22.354511 5.0685449 -1.201285 0
-22.385086 4.9966259 -1.202021 0
-22.394432 4.9199448 -1.2016304 0
-22.399282 4.8423429 -1.2010127 0
-22.366531 4.7568235 -1.1983948 0
-22.418955 4.6894617 -1.2003543 0
-22.420769 4.611434 -1.1996169 0
-22.420822 4.5331459 -1.1987998 0
-22.489481 4.468595 -1.2016631 0
-22.476585 4.3877492 -1.2001812 0
-22.510199 4.3160133 -1.2011967 0
-22.548386 4.2450056 -1.2024682 0
-22.526991 4.1628208 -1.2005761 0
-22.520674 4.0836153 -1.1995031 0
-22.528872 4.0071301 -1.1992173 0
-22.539778 3.9311538 -1.1990895 0
-22.597519 3.8631997 -1.2014655 0
-22.597357 3.7852371 -1.2007754 0
-22.613478 3.7100348 -1.2009642 0
-22.605944 3.6310074 -1.1999109 0
-22.621143 3.5556891 -1.200078 0
-22.61607 3.4772313 -1.1991837 0
-22.627674 3.4013951 -1.1991875 0
-22.659779 3.3285692 -1.2002907 0
-22.67255 3.252826 -1.2003828 0
-22.668171 3.1746681 -1.1995807 0
-22.708324 3.1026974 -1.2011483 0
-22.647015 3.0170069 -1.1973636 0
-22.776808 2.9566102 -1.2036949 0
-22.757151 2.8765061 -1.2021397 0
-22.757431 2.7990534 -1.2016521 0
-22.768332 2.7229328 -1.2017387 0
-22.743389 2.6426356 -1.199948 0
-22.746412 2.5657225 -1.1996467 0
-22.759926 2.4899948 -1.1999123 0
-22.753521 2.4121208 -1.1991416 0
-22.763948 2.3360722 -1.1992717 0
-22.821171 2.2646496 -1.2018795 0
-22.770464 2.1825461 -1.1988169 0
-22.8123 2.1093924 -1.2006404 0
-22.752014 2.026906 -1.197103 0
-22.829391 1.9566717 -1.2008224 0
-22.803602 1.8774654 -1.199128 0
-22.788326 1.7993056 -1.1980008 0
-22.805267 1.7237246 -1.1985807 0
-22.844221 1.6496581 -1.2003306 0
-22.822464 1.5711865 -1.1989039 0
-22.81201 1.4936373 -1.198085 0
-22.853336 1.4194083 -1.1999987 0
-22.852247 1.3424414 -1.1996984 0
-22.869091 1.2665052 -1.200353 0
-22.795204 1.1857647 -1.1962594 0
-22.847876 1.1117057 -1.1988212 0
-22.91206 1.0378392 -1.2019997 0
-22.888931 0.959903 -1.2006108 0
-22.924162 0.8843953 -1.2022964 0
-22.867931 0.80544949 -1.1991988 0
-22.908749 0.72999179 -1.2012042 0
-22.930645 0.65373713 -1.2022307 0
-22.933018 0.57685918 -1.2022469 0
-22.869682 0.4985458 -1.1988323 0
-22.944147 0.42321032 -1.2026546 0
-22.852716 0.34488127 -1.1977948 0
-22.884472 0.26861918 -1.1994052 0
-22.878077 0.19183023 -1.1990296 0
-22.921207 0.11533774 -1.2012631 0
-22.927269 0.038496353 -1.2015672 0
-22.904551 6.0779279e-05 -1.2003748 0
-68.72422 -0.11539236 -1.1995857 0
-68.743706 -0.34591299 -1.1999393 0
-68.725365 -0.5762549 -1.1996461 0
-68.697563 -0.80637568 -1.1992012 0
-68.784401 -1.0380583 -1.2007712 0
-68.694008 -1.2670776 -1.1992605 0
-68.728935 -1.498251 -1.1999513 0
-68.696548 -1.727999 -1.1994802 0
-68.727882 -1.9593853 -1.2001352 0
-68.688835 -2.1887834 -1.1995748 0
-68.748756 -2.4214544 -1.2007563 0
-68.716843 -2.6510391 -1.2003474 0
-68.665298 -2.8796463 -1.1996089 0
-68.684105 -3.1111586 -1.2001131 0
-68.670677 -3.3412991 -1.2000674 0
-68.699821 -3.5736387 -1.2007793 0
-68.628502 -3.8006916 -1.1997489 0
-68.601326 -4.0299435 -1.1995032 0
-68.570076 -4.2588501 -1.1991997 0
-68.593994 -4.4912548 -1.1998745 0
-68.54377 -4.7188182 -1.1992661 0
-68.576622 -4.9521484 -1.2001245 0
-68.520531 -5.17909 -1.1994402 0
-68.505669 -5.4090252 -1.1994908 0
-68.576668 -5.6460519 -1.2010586 0
-68.437233 -5.8656492 -1.1989542 0
-68.401947 -6.0937161 -1.1986872 0
-68.429771 -6.3275185 -1.1995399 0
-68.420883 -6.5581331 -1.1997627 0
-68.409218 -6.7885609 -1.1999505 0
-68.401344 -7.0194535 -1.2002186 0
-68.355186 -7.2463932 -1.1998281 0
-68.309227 -7.473207 -1.1994545 0
-68.274963 -7.7011976 -1.1992996 0
-68.268829 -7.9323993 -1.1996522 0
-68.280235 -8.1658373 -1.2003269 0
-68.221024 -8.3908539 -1.1997739 0
-68.255623 -8.6275167 -1.2008843 0
-68.182274 -8.8506002 -1.2001091 0
-68.179878 -9.0828381 -1.2005963 0
-68.103371 -9.3051414 -1.1997918 0
-68.113564 -9.5392771 -1.200528 0
-68.082932 -9.7678432 -1.2005585 0
-68.044281 -9.9952478 -1.2004613 0
-68.00119 -10.221949 -1.2002989 0
-67.915474 -10.442036 -1.1993971 0
-67.91008 -10.6744 -1.1999272 0
-67.840454 -10.896657 -1.1993358 0
-67.841423 -11.130266 -1.2000059 0
-67.796425 -11.356441 -1.1998768 0
-67.775131 -11.586619 -1.2001805 0
-67.754799 -11.817087 -1.2005154 0
-67.702393 -12.041984 -1.2002954 0
-67.607956 -12.259176 -1.1993433 0
-67.577316 -12.487786 -1.1995357 0
-67.524391 -12.712281 -1.1993461 0
-67.574402 -12.95644 -1.2009991 0
-67.493362 -13.175665 -1.2003372 0
-67.491798 -13.410425 -1.2011023 0
-67.445107 -13.636364 -1.2010783 0
-67.365868 -13.855602 -1.2004876 0
-67.322868 -14.082192 -1.200556 0
-67.272995 -14.307349 -1.2005154 0
-67.186539 -14.524583 -1.1998348 0
-67.122635 -14.746508 -1.1995698 0
-67.109215 -14.9796 -1.2002208 0
-67.00415 -15.192171 -1.199246 0
-66.985741 -15.424314 -1.1998354 0
-66.992287 -15.662528 -1.2008866 0
-66.898232 -15.877281 -1.200148 0
-66.818527 -16.095205 -1.1996796 0
-66.749977 -16.315672 -1.1994243 0
-66.772697 -16.558672 -1.2008233 0
-66.656143 -16.767197 -1.1997316 0
-66.616241 -16.994846 -1.2000322 0
-66.604485 -17.229897 -1.2008542 0
-66.502243 -17.441545 -1.2000585 0
-66.364426 -17.643425 -1.1986322 0
-66.357857 -17.880102 -1.1995896 0
-66.303337 -18.104073 -1.1996946 0
-66.251137 -18.328728 -1.1998553 0
-66.223289 -18.560274 -1.2004712 0
-66.159554 -18.781883 -1.2004507 0
-66.073044 -18.996937 -1.2000299 0
-65.990135 -19.212873 -1.1996874 0
-65.90583 -19.428265 -1.1993321 0
-65.814606 -19.641453 -1.1988637 0
-65.797424 -19.87682 -1.1997579 0
-65.773827 -20.110588 -1.2005504 0
-65.649857 -20.313623 -1.199524 0
-65.627319 -20.548004 -1.2003644 0
-65.525406 -20.75758 -1.1997665 0
-65.445763 -20.974056 -1.1995891 0
-65.346046 -21.183954 -1.1990564 0
-65.416969 -21.449594 -1.2016708 0
-65.267326 -21.64315 -1.2002481 0
-65.197121 -21.862772 -1.2002983 0
-65.057594 -22.058912 -1.1990844 0
-65.058258 -22.302622 -1.2004682 0
-64.941116 -22.506069 -1.1996922 0
-64.912079 -22.740068 -1.2005576 0
-64.75988 -22.930813 -1.199158 0
-64.705605 -23.156033 -1.1995838 0
-64.660721 -23.384825 -1.2001984 0
-64.530945 -23.582848 -1.1992506 0
-64.517998 -23.823626 -1.2004877 0
-64.443771 -24.042049 -1.2005996 0
-64.337982 -24.248631 -1.2001368 0
-64.276871 -24.472031 -1.2005205 0
-64.14415 -24.668053 -1.1995796 0
-64.072296 -24.887333 -1.1997896 0
-63.967724 -25.093868 -1.1994002 0
-63.897568 -25.313879 -1.1996695 0
-63.885551 -25.557264 -1.2010459 0
-63.775459 -25.761604 -1.2005932 0
-63.685562 -25.973995 -1.2005335 0
-63.569851 -26.175735 -1.2 0
-63.454906 -26.377575 -1.1994929 0
-63.33741 -26.578136 -1.1989496 0
-63.275379 -26.801968 -1.1994698 0
-63.242741 -27.038582 -1.2005627 0
-63.091553 -27.224504 -1.1994188 0
-63.016663 -27.443178 -1.1997375 0
-62.947914 -27.664686 -1.2001878 0
-62.817474 -27.859028 -1.199475 0
-62.771164 -28.090719 -1.2003824 0
-62.667759 -28.297016 -1.2002125 0
-62.540794 -28.49251 -1.1996037 0
-62.467793 -28.712555 -1.2000433 0
-62.394066 -28.932451 -1.2004837 0
-62.273521 -29.130636 -1.2000369 0
-62.118671 -29.312449 -1.19894 0
-62.072285 -29.54542 -1.1999499 0
-62.019173 -29.775599 -1.2008463 0
-61.851051 -29.95047 -1.1995287 0
-61.785072 -30.174667 -1.2002045 0
-61.68325 -30.3815 -1.2001984 0
-61.589714 -30.592451 -1.2003676 0
-61.443787 -30.777233 -1.1995279 0
-61.359299 -30.992691 -1.1999004 0
-61.251678 -31.196529 -1.1998345 0
-61.143269 -31.399939 -1.1997664 0
-61.003769 -31.587223 -1.1991005 0
-60.94548 -31.816616 -1.2000449 0
-60.864956 -32.034721 -1.2005675 0
-60.747353 -32.233379 -1.2003727 0
-60.63509 -32.434814 -1.2002965 0
-60.535091 -32.642834 -1.2004769 0
-60.381561 -32.821831 -1.1996077 0
-60.252014 -33.013596 -1.1992263 0
-60.191936 -33.243565 -1.2002423 0
-60.076042 -33.442909 -1.2001605 0
-59.945965 -33.634262 -1.1998079 0
-59.815479 -33.825233 -1.1994594 0
-59.733574 -34.043739 -1.2000991 0
-59.551636 -34.205074 -1.1987412 0
-59.519344 -34.452435 -1.2004097 0
-59.380558 -34.638416 -1.1999462 0
-59.238445 -34.822239 -1.1994269 0
-59.127213 -35.024128 -1.1995456 0
-59.029297 -35.23402 -1.1999491 0
-58.896862 -35.423332 -1.1996645 0
-58.834011 -35.65469 -1.2008126 0
-58.641689 -35.80751 -1.1993308 0
-58.543579 -36.017632 -1.1997874 0
-58.475319 -36.24646 -1.2008723 0
-58.332951 -36.429501 -1.2004502 0
-58.159477 -36.592785 -1.1993983 0
-58.031723 -36.784573 -1.1993004 0
-57.951263 -37.006523 -1.2001951 0
-57.820637 -37.196609 -1.2000659 0
-57.688328 -37.385551 -1.1999146 0
-57.586422 -37.594273 -1.20041 0
-57.508717 -37.819141 -1.2014267 0
-57.274929 -37.941086 -1.1991934 0
-57.162964 -38.143291 -1.19952 0
-57.062813 -38.353592 -1.2001101 0
-56.93428 -38.544956 -1.2001182 0
-56.7784 -38.717674 -1.199562 0
-56.693962 -38.939209 -1.2005295 0
-56.536205 -39.110481 -1.199959 0
-56.36784 -39.274094 -1.1991736 0
-56.236797 -39.463531 -1.1991938 0
-56.130798 -39.670681 -1.1997632 0
-55.961685 -39.833179 -1.1989963 0
-55.886635 -40.062748 -1.2002596 0
-55.704784 -40.215816 -1.1992432 0
-55.651024 -40.461533 -1.2009995 0
-55.481354 -40.623219 -1.2002705 0
-55.318611 -40.789669 -1.1997018 0
-55.181423 -40.974827 -1.1996992 0
-55.019058 -41.141159 -1.1991614 0
-54.92532 -41.35891 -1.2001339 0
-54.797253 -41.551102 -1.2003729 0
-54.625389 -41.709976 -1.1996648 0
-54.4641 -41.87664 -1.1991994 0
-54.307583 -42.046772 -1.1988505 0
-54.214516 -42.266209 -1.1999176 0
-54.090771 -42.462086 -1.200323 0
-53.935371 -42.633141 -1.2000399 0
-53.793777 -42.815048 -1.2000766 0
-53.63295 -42.981567 -1.199697 0
-53.506336 -43.175507 -1.2000961 0
-53.352509 -43.347538 -1.199899 0
-53.202488 -43.522587 -1.1998 0
-53.086159 -43.725342 -1.2004761 0
-52.910625 -43.879341 -1.1998267 0
-52.782772 -44.072826 -1.2002716 0
-52.632839 -44.247978 -1.200229 0
-52.44408 -44.390251 -1.1993119 0
-52.309624 -44.578335 -1.1996483 0
-52.171387 -44.763355 -1.1999133 0
-52.060921 -44.9725 -1.2008338 0
-51.867077 -45.109604 -1.1998445 0
-51.740894 -45.30545 -1.2004327 0
-51.595181 -45.484383 -1.2005833 0
-51.40136 -45.620701 -1.1996258 0
-51.278858 -45.820255 -1.2003455 0
-51.093842 -45.963947 -1.1996152 0
-50.962841 -46.156185 -1.2001662 0
-50.812202 -46.330807 -1.2002702 0
-50.611336 -46.459377 -1.1991981 0
-50.496937 -46.667305 -1.2001882 0
-50.339813 -46.836002 -1.2001793 0
-50.187004 -47.008739 -1.2002871 0
-49.981686 -47.132023 -1.1991494 0
-49.866776 -47.340534 -1.2001938 0
-49.722279 -47.521324 -1.200544 0
-49.568905 -47.693768 -1.200695 0
-49.397461 -47.848793 -1.2004216 0
-49.180321 -47.95911 -1.1990457 0
-49.067249 -48.170856 -1.2002198 0
-48.873787 -48.303791 -1.1994424 0
-48.737633 -48.493328 -1.2000843 0
-48.566536 -48.648216 -1.199881 0
-48.377071 -48.784473 -1.1992342 0
-48.240116 -48.97369 -1.199903 0
-48.086418 -49.146164 -1.2001718 0
-47.881405 -49.265991 -1.1991709 0
-47.763157 -49.475143 -1.2003572 0
-47.601307 -49.639488 -1.2004656 0
-47.421116 -49.784645 -1.2001241 0
-47.231422 -49.919571 -1.1995525 0
-47.099659 -50.115818 -1.2004668 0
-46.920467 -50.261776 -1.200188 0
-46.814293 -50.486328 -1.2017952 0
-46.58786 -50.58123 -1.2003293 0
-46.408501 -50.726749 -1.2000834 0
-46.247948 -50.892834 -1.2003374 0
-46.059696 -51.028381 -1.1998852 0
-45.88475 -51.178509 -1.1997912 0
-45.673214 -51.287495 -1.1987494 0
-45.596619 -51.548443 -1.2012687 0
-45.371113 -51.641369 -1.1998824 0
-45.225655 -51.825214 -1.2006241 0
-45.054737 -51.980129 -1.2007066 0
-44.860008 -52.107441 -1.2001663 0
-44.710655 -52.287498 -1.2008541 0
-44.498444 -52.393959 -1.1998658 0
-44.294785 -52.509972 -1.1991148 0
-44.15406 -52.700661 -1.2000819 0
-43.987854 -52.861305 -1.2003748 0
-43.777256 -52.968422 -1.1994675 0
-43.616226 -53.13538 -1.1999301 0
-43.413918 -53.251991 -1.1992695 0
-43.264107 -53.433037 -1.2000732 0
-43.054825 -53.540627 -1.1992408 0
-42.889145 -53.702301 -1.1996344 0
-42.707241 -53.843769 -1.1995891 0
-42.550163 -54.016731 -1.2002574 0
-42.37534 -54.167431 -1.2004423 0
-42.171772 -54.28125 -1.1998245 0
-42.00069 -54.43679 -1.2001431 0
-41.799046 -54.552647 -1.1996008 0
-41.650475 -54.737911 -1.2005973 0
-41.470623 -54.882423 -1.2007104 0
-41.226265 -54.941048 -1.1989621 0
-41.077316 -55.126591 -1.199999 0
-40.90279 -55.27824 -1.2003081 0
-40.713333 -55.409779 -1.2001934 0
-40.512768 -55.526016 -1.1997623 0
-40.342888 -55.68433 -1.2002536 0
-40.15934 -55.823975 -1.2003546 0
-39.982433 -55.972988 -1.2006695 0
-39.775932 -56.080494 -1.2001081 0
-39.579597 -56.202057 -1.199863 0
-39.400475 -56.34808 -1.2001534 0
-39.198372 -56.461205 -1.1997569 0
-39.016567 -56.603508 -1.1999942 0
-38.814766 -56.716766 -1.1996295 0
-38.627007 -56.850437 -1.1997108 0
-38.454346 -57.006557 -1.2002779 0
-38.25877 -57.128853 -1.2001452 0
-38.045368 -57.224251 -1.1994628 0
-37.903793 -57.428001 -1.2010632 0
-37.672932 -57.496613 -1.1998496 0
-37.459904 -57.591789 -1.199208 0
-37.306892 -57.779465 -1.2005045 0
-37.098358 -57.881443 -1.2000324 0
-36.901646 -58.001671 -1.1999531 0
-36.718502 -58.14333 -1.20033 0
-36.506744 -58.239616 -1.1997842 0
-36.317581 -58.371826 -1.1999927 0
-36.152782 -58.543648 -1.2010262 0
-35.914936 -58.597061 -1.1996448 0
-35.745903 -58.762569 -1.200573 0
-35.521606 -58.837242 -1.1996585 0
-35.328896 -58.963955 -1.1998202 0
-35.152782 -59.118706 -1.200564 0
-34.927452 -59.190613 -1.1996394 0
-34.74202 -59.32996 -1.2000961 0
-34.53537 -59.433147 -1.1998343 0
-34.35989 -59.590195 -1.2006724 0
-34.160221 -59.705616 -1.2006836 0
-33.928806 -59.765141 -1.1995862 0
-33.739128 -59.897903 -1.1999736 0
-33.547039 -60.026657 -1.2002929 0
-33.33062 -60.111794 -1.1997541 0
-33.125622 -60.217266 -1.1996357 0
-32.946178 -60.369476 -1.2004606 0
-32.731857 -60.457935 -1.2000306 0
-32.51664 -60.544384 -1.1995758 0
-32.337006 -60.697258 -1.2004498 0
-32.119507 -60.779198 -1.1999338 0
-31.892229 -60.842068 -1.1990572 0
-31.724279 -61.018326 -1.2004278 0
-31.514572 -61.114758 -1.2002394 0
-31.304976 -61.21125 -1.2000664 0
-31.100208 -61.317123 -1.2000911 0
-30.881161 -61.394634 -1.1995749 0
-30.700949 -61.549564 -1.2005841 0
-30.490196 -61.643627 -1.2004181 0
-30.270397 -61.719109 -1.1999048 0
-30.058821 -61.811054 -1.1997262 0
-29.856829 -61.922726 -1.199944 0
-29.662849 -62.051353 -1.2005026 0
-29.43206 -62.102825 -1.1995825 0
-29.232906 -62.220802 -1.1999614 0
-29.026306 -62.323147 -1.2000515 0
-28.816401 -62.418415 -1.2000188 0
-28.587559 -62.472279 -1.1992049 0
-28.377806 -62.567478 -1.1991992 0
-28.169668 -62.666275 -1.1992759 0
-27.993401 -62.836685 -1.2007341 0
-27.781015 -62.926685 -1.2006673 0
-27.552486 -62.979721 -1.1999098 0
-27.345833 -63.082493 -1.2001143 0
-27.129101 -63.16201 -1.1998899 0
-26.904224 -63.222179 -1.1993124 0
-26.693052 -63.314281 -1.1993552 0
-26.486916 -63.418491 -1.1996403 0
-26.295334 -63.558178 -1.2006081 0
-26.073469 -63.624954 -1.2002114 0
-25.875607 -63.750462 -1.2009357 0
-25.65 -63.807713 -1.2003872 0
-25.434063 -63.888687 -1.2002996 0
-25.21113 -63.951836 -1.1998912 0
-25.00116 -64.04776 -1.2001115 0
-24.784157 -64.125732 -1.2000087 0
-24.567726 -64.205101 -1.1999458 0
-24.356543 -64.298256 -1.2001538 0
-24.141459 -64.381241 -1.2001852 0
-23.924295 -64.458672 -1.2001265 0
-23.70385 -64.527107 -1.1999142 0
-23.472801 -64.566147 -1.1991701 0
-23.294388 -64.750656 -1.2011396 0
-23.048597 -64.748154 -1.1996529 0
-22.837626 -64.842804 -1.1999811 0
-22.641333 -64.979973 -1.201108 0
-22.394022 -64.970467 -1.1995376 0
-22.16761 -65.020386 -1.1990803 0
-21.964933 -65.14016 -1.1999243 0
-21.751497 -65.228706 -1.2002052 0
-21.520702 -65.264954 -1.1995379 0
-21.309685 -65.361046 -1.199984 0
-21.086956 -65.421379 -1.1997868 0
-20.880123 -65.531357 -1.2005131 0
-20.649891 -65.56797 -1.1999087 0
-20.426161 -65.624695 -1.1996869 0
-20.22122 -65.742241 -1.2005894 0
-19.974688 -65.724129 -1.1990288 0
-19.770462 -65.844833 -1.2000151 0
-19.553875 -65.925217 -1.2002784 0
-19.336678 -66.003876 -1.2005234 0
-19.107924 -66.042946 -1.200062 0
-18.890707 -66.121765 -1.2003366 0
-18.676718 -66.212418 -1.2008387 0
-18.445763 -66.242874 -1.2002627 0
-18.215811 -66.276161 -1.1997524 0
-17.990648 -66.326363 -1.1995624 0
-17.767366 -66.383308 -1.1995083 0
-17.556269 -66.486336 -1.2002995 0
-17.339249 -66.567841 -1.2007147 0
-17.110407 -66.603981 -1.2003251 0
-16.881489 -66.639214 -1.1999333 0
-16.65922 -66.700462 -1.2000237 0
-16.439859 -66.773682 -1.2003425 0
-16.196066 -66.746742 -1.1988753 0
-15.983738 -66.848984 -1.1997424 0
-15.76757 -66.936386 -1.2003555 0
-15.547261 -67.006996 -1.2006803 0
-15.295024 -66.938446 -1.1985263 0
-15.100141 -67.121078 -1.200883 0
-14.869451 -67.146217 -1.2004341 0
-14.640657 -67.179268 -1.2001406 0
-14.421873 -67.258461 -1.2006848 0
-14.191451 -67.283508 -1.2002758 0
-13.963282 -67.318657 -1.200061 0
-13.740175 -67.378235 -1.2002949 0
-13.510375 -67.404877 -1.1999559 0
-13.292423 -67.491028 -1.2006894 0
-13.062852 -67.518608 -1.2003942 0
-12.821184 -67.481934 -1.1989712 0
-12.612179 -67.617409 -1.2006201 0
-12.392854 -67.700035 -1.2013427 0
-12.150481 -67.655914 -1.1998302 0
-11.932663 -67.747871 -1.2007446 0
-11.698796 -67.748962 -1.200062 0
-11.467421 -67.763222 -1.1996268 0
-11.25417 -67.885803 -1.2011222 0
-11.013281 -67.841736 -1.1996824 0
-10.786986 -67.886009 -1.199819 0
-10.565482 -67.961449 -1.2005194 0
-10.330922 -67.95282 -1.1997485 0
-10.106152 -68.00808 -1.200119 0
-9.8784742 -68.044319 -1.2001674 0
-9.6501904 -68.076431 -1.2001563 0
-9.4240046 -68.123703 -1.2004259 0
-9.1951408 -68.151917 -1.2003731 0
-8.955266 -68.09626 -1.1988572 0
-8.7420521 -68.244171 -1.2009385 0
-8.5060863 -68.21611 -1.199936 0
-8.2787266 -68.255821 -1.2001395 0
-8.0451231 -68.243256 -1.1994376 0
-7.8156252 -68.264206 -1.1993386 0
-7.5928769 -68.345589 -1.2003143 0
-7.3612037 -68.347626 -1.1999099 0
-7.1297183 -68.349998 -1.1995251 0
-6.9026389 -68.394577 -1.1998945 0
-6.6755443 -68.440491 -1.2003006 0
-6.4394279 -68.392273 -1.1990695 0
-6.2153416 -68.471382 -1.2000846 0
-5.9835296 -68.466599 -1.1996423 0
-5.7609158 -68.569305 -1.2010967 0
-5.5265498 -68.533257 -1.2001339 0
-5.2986083 -68.575577 -1.2005572 0
-5.0624294 -68.508682 -1.1990821 0
-4.8398275 -68.626274 -1.2008495 0
-4.6060729 -68.587959 -1.1999022 0
-4.3748951 -68.584373 -1.1995759 0
-4.1480255 -68.650047 -1.2004746 0
-3.9159846 -68.631203 -1.1999089 0
-3.6849399 -68.6269 -1.1996108 0
-3.4564037 -68.670212 -1.2001586 0
-3.2269127 -68.697739 -1.2004439 0
-2.9956532 -68.687286 -1.200079 0
-2.7644413 -68.674599 -1.1996886 0
-2.5351615 -68.710281 -1.2001567 0
-2.3045259 -68.710976 -1.2000271 0
-2.0744791 -68.729614 -1.2002244 0
-1.843889 -68.730927 -1.2001326 0
-1.6133496 -68.733002 -1.2000678 0
-1.3839054 -68.788414 -1.2009474 0
-1.1515058 -68.687843 -1.1991175 0
-0.92185551 -68.740059 -1.1999682 0
-0.69208676 -68.81324 -1.2011986 0
-0.46094826 -68.753006 -1.2001134 0
-0.2302793 -68.709259 -1.1993295 0
9.1252245e-05 -68.776451 -1.2004956 0
0.23066029 -68.768486 -1.2003634 0
0.46135861 -68.786987 -1.2007065 0
0.69165564 -68.752235 -1.2001337 0
0.92157358 -68.705437 -1.1993639 0
1.1524301 -68.732094 -1.19989 0
1.3832955 -68.749031 -1.2002599 0
1.6123291 -68.681763 -1.1991731 0
1.8440965 -68.731857 -1.2001489 0
2.0747283 -68.731819 -1.200263 0
2.3065009 -68.764412 -1.2009605 0
2.535192 -68.706154 -1.2000848 0
2.7646246 -68.674614 -1.199689 0
2.994822 -68.66404 -1.1996731 0
3.2268393 -68.692284 -1.2003487 0
3.4553471 -68.645592 -1.1997285 0
3.6875587 -68.672272 -1.200404 0
3.9148831 -68.608696 -1.1995155 0
4.1462412 -68.617493 -1.1999056 0
4.3738556 -68.565216 -1.1992412 0
4.6065335 -68.592094 -1.1999747 0
4.8367081 -68.579445 -1.2000303 0
5.0677629 -68.578377 -1.2003022 0
5.2946143 -68.521523 -1.1996111 0
5.5231147 -68.488388 -1.1993484 0
5.7562256 -68.511299 -1.2000809 0
5.9878788 -68.514275 -1.2004778 0
6.2209139 -68.530754 -1.2011254 0
6.4454417 -68.454201 -1.2001556 0
6.6733289 -68.415894 -1.1998696 0
6.902925 -68.395592 -1.1999127 0
7.132596 -68.375824 -1.1999787 0
7.3586206 -68.321945 -1.1994593 0
7.5914273 -68.330887 -1.2000564 0
7.820467 -68.304893 -1.2000537 0
8.0507994 -68.289848 -1.2002569 0
8.2730827 -68.207771 -1.199295 0
8.5087471 -68.235977 -1.2002858 0
8.7355452 -68.191948 -1.2000198 0
8.9704418 -68.210258 -1.2008647 0
9.1934862 -68.13829 -1.2001334 0
9.4154034 -68.060196 -1.1993073 0
9.6499243 -68.073257 -1.2001008 0
9.8765879 -68.030052 -1.1999162 0
10.104823 -67.997902 -1.19994 0
10.346416 -68.053528 -1.201527 0
10.574526 -68.018433 -1.2015265 0
10.787236 -67.886421 -1.1998267 0
11.020615 -67.885773 -1.2004616 0
11.240113 -67.799896 -1.1996027 0
11.476209 -67.814056 -1.2005273 0
11.692375 -67.710709 -1.1993849 0
11.921548 -67.683708 -1.199608 0
12.143579 -67.616447 -1.1991308 0
12.371275 -67.581139 -1.1992335 0
12.599209 -67.546875 -1.1993684 0
12.823865 -67.495071 -1.1992052 0
13.060987 -67.508011 -1.2002064 0
13.28929 -67.474182 -1.2003903 0
13.51086 -67.406372 -1.1999831 0
13.741679 -67.384697 -1.2004107 0
13.95927 -67.298424 -1.1997008 0
14.191216 -67.281517 -1.2002409 0
14.411191 -67.207779 -1.1997807 0
14.625168 -67.10733 -1.1988562 0
