# .PCD v0.7 - Point Cloud Data file format
VERSION 0.7
FIELDS x y z intensity
SIZE 4 4 4 4
TYPE F F F F
COUNT 1 1 1 1
WIDTH 1419
HEIGHT 1
VIEWPOINT 0 0 0 1 0 0 0
POINTS 1419
DATA ascii
-3.291208 -9.2456665 -1.2050047 0
-3.2544658 -9.2403955 -1.2028888 0
-3.2142429 -9.2247839 -1.1994469 0
-3.1892509 -9.2527866 -1.2016908 0
-3.153137 -9.2485466 -1.1997604 0
-3.1201432 -9.253232 -1.1990043 0
-3.0859058 -9.2540588 -1.1977642 0
-3.0551002 -9.2650776 -1.1978577 0
-3.0247252 -9.2774353 -1.1981375 0
-2.9927621 -9.2849159 -1.197801 0
-2.973237 -9.3313742 -1.2025015 0
-2.9463043 -9.3551674 -1.2042879 0
-2.8986669 -9.3127699 -1.1975724 0
-2.8777857 -9.3561153 -1.2018987 0
-2.8222425 -9.2862234 -1.1916981 0
-2.8046422 -9.3407631 -1.1974837 0
-2.7796869 -9.3716183 -1.2002379 0
-2.7588229 -9.416975 -1.2048553 0
-2.6947312 -9.3138323 -1.190496 0
-2.6804667 -9.3822422 -1.1980847 0
-2.6417923 -9.3656416 -1.1948271 0
-2.6405792 -9.482913 -1.2086518 0
-2.5703003 -9.3517456 -1.1908287 0
-2.5558245 -9.4225912 -1.198752 0
-2.511821 -9.3847895 -1.1928647 0
-2.5051148 -9.4869757 -1.2047789 0
-2.4564483 -9.4306536 -1.1965737 0
-2.4327648 -9.4697809 -1.2004966 0
-2.3906679 -9.4370956 -1.1953301 0
-2.3686163 -9.4835052 -1.2001959 0
-2.3397245 -9.5032454 -1.2016946 0
-2.3022764 -9.4880724 -1.1987931 0
-2.2752953 -9.515995 -1.2013503 0
-2.2509954 -9.5559111 -1.20543 0
-2.2155266 -9.5486774 -1.2035738 0
-2.1740842 -9.5148478 -1.198384 0
-2.1442015 -9.5311108 -1.1995202 0
-2.1089666 -9.5234947 -1.1976651 0
-2.0771148 -9.5309277 -1.1977173 0
-2.0586345 -9.6007357 -1.2056158 0
-2.0189857 -9.5722742 -1.2011847 0
-1.9838408 -9.5643349 -1.1993471 0
-1.9489764 -9.557271 -1.1976352 0
-1.9229251 -9.5937042 -1.201386 0
-1.8877639 -9.5849428 -1.1994896 0
-1.8569108 -9.5979071 -1.2003261 0
-1.8292977 -9.628171 -1.203337 0
-1.7873218 -9.5823307 -1.1968522 0
-1.7594553 -9.6116028 -1.1997647 0
-1.7317945 -9.6429214 -1.2029426 0
-1.6853433 -9.5685616 -1.1929547 0
-1.6609939 -9.6189909 -1.1985409 0
-1.6294396 -9.6286755 -1.1990601 0
-1.588047 -9.5791912 -1.1922281 0
-1.5649819 -9.6402788 -1.1991712 0
-1.5287153 -9.6207018 -1.1960918 0
-1.5048656 -9.679904 -1.2028179 0
-1.4672691 -9.6511307 -1.1986246 0
-1.4401478 -9.6912937 -1.2030061 0
-1.3995953 -9.6406088 -1.1961254 0
-1.3658224 -9.6350765 -1.194864 0
-1.3403097 -9.6887541 -1.2009567 0
-1.3010077 -9.6427202 -1.1947032 0
-1.2815641 -9.7450733 -1.2068453 0
-1.2407713 -9.6859894 -1.1990062 0
-1.2136101 -9.7327671 -1.2042863 0
-1.1783698 -9.7153339 -1.2016337 0
-1.1400343 -9.6704121 -1.195598 0
-1.1099498 -9.6946621 -1.1981293 0
-1.0862614 -9.7777395 -1.2079396 0
-1.045118 -9.7037582 -1.1983603 0
-1.0117738 -9.6995049 -1.1974095 0
-0.97904837 -9.7008696 -1.197166 0
-0.94894791 -9.7290134 -1.2002398 0
-0.91800976 -9.7500544 -1.2024491 0
-0.88487095 -9.7481909 -1.2018466 0
-0.85018939 -9.728301 -1.1990362 0
-0.81743938 -9.7295732 -1.1988484 0
-0.78691852 -9.7583647 -1.2020642 0
-0.75122547 -9.7225008 -1.1973294 0
-0.72420722 -9.8005276 -1.2066326 0
-0.69049692 -9.7908916 -1.2051544 0
-0.65673941 -9.7793541 -1.2034565 0
-0.62445283 -9.7894249 -1.2044313 0
-0.58708525 -9.7162933 -1.1951848 0
-0.55619329 -9.7477951 -1.1988237 0
-0.52356988 -9.7507639 -1.1989661 0
-0.49002475 -9.7355824 -1.1968907 0
-0.45832714 -9.7573252 -1.1993681 0
-0.42693099 -9.789094 -1.2030904 0
-0.39084274 -9.7093649 -1.1931238 0
-0.36000243 -9.7571173 -1.1988367 0
-0.32756761 -9.7666464 -1.1998658 0
-0.29329145 -9.7170458 -1.1936448 0
-0.26279029 -9.7955027 -1.2031674 0
-0.22998488 -9.7979708 -1.2033691 0
-0.19642457 -9.7634821 -1.1990457 0
-0.16409573 -9.7883854 -1.2020297 0
-0.13103928 -9.7712135 -1.1998602 0
-0.097897351 -9.7337999 -1.195219 0
-0.065531857 -9.7744427 -1.2001758 0
-0.032726157 -9.7646198 -1.1989496 0
1.2949147e-05 -9.7597208 -1.1983413 0
0.032895565 -9.8074017 -1.2042025 0
0.065519959 -9.7688017 -1.1994832 0
0.098927073 -9.8335886 -1.2074722 0
0.13168719 -9.817584 -1.2055544 0
0.16439474 -9.8046684 -1.2040293 0
0.19631948 -9.7569704 -1.198246 0
0.22878152 -9.7456026 -1.1969374 0
0.26178259 -9.7569752 -1.1984353 0
0.2933543 -9.7182732 -1.1937956 0
0.32987309 -9.8346062 -1.2082151 0
0.36000222 -9.7564087 -1.1987498 0
0.39263025 -9.7531261 -1.1985015 0
0.42628428 -9.7736702 -1.2011949 0
0.45889431 -9.7688475 -1.2007846 0
0.49210837 -9.7764626 -1.2019167 0
0.52317113 -9.7428551 -1.1979938 0
0.5572266 -9.7654486 -1.200995 0
0.59118569 -9.7837248 -1.2034796 0
0.62024397 -9.7230368 -1.1962636 0
0.6529116 -9.7219696 -1.1963949 0
0.68922383 -9.7724705 -1.2028872 0
0.71774375 -9.7127085 -1.1958206 0
0.75429058 -9.7618332 -1.2021734 0
0.7824747 -9.7029362 -1.1952366 0
0.8206113 -9.7670155 -1.2034622 0
0.85291064 -9.759141 -1.2028376 0
0.886617 -9.7671385 -1.2041829 0
0.91401851 -9.7073879 -1.1971874 0
0.94781995 -9.7171822 -1.1987804 0
0.97688079 -9.6791344 -1.194484 0
1.0122348 -9.7036753 -1.1979246 0
1.0417336 -9.6720924 -1.1944503 0
1.0782702 -9.705574 -1.1990247 0
1.114429 -9.7335558 -1.2029364 0
1.1441559 -9.7051516 -1.1998934 0
1.1793133 -9.7228975 -1.2025695 0
1.2119962 -9.719615 -1.2026592 0
1.2445081 -9.7149553 -1.2025924 0
1.2724004 -9.6751938 -1.1981918 0
1.3076499 -9.6917553 -1.200779 0
1.3352281 -9.6518307 -1.1963804 0
1.379928 -9.7343969 -1.2071815 0
1.403623 -9.6681719 -1.1995456 0
1.433453 -9.6460657 -1.1973925 0
1.4674994 -9.6524725 -1.1987917 0
1.5010645 -9.6552849 -1.1997594 0
1.5373414 -9.6748228 -1.2028208 0
1.5627306 -9.6262484 -1.1974266 0
1.5976644 -9.6370449 -1.1994292 0
1.6362231 -9.6686049 -1.2040331 0
1.6649083 -9.6415071 -1.2013469 0
1.6985564 -9.6434288 -1.2022893 0
1.7189788 -9.5714159 -1.1940229 0
1.764776 -9.6405239 -1.2033755 0
1.7924322 -9.6095877 -1.2002572 0
1.8174509 -9.5656786 -1.1955273 0
1.8516454 -9.5705557 -1.196906 0
1.8932667 -9.6127481 -1.2029698 0
1.9292686 -9.6252193 -1.2053332 0
1.9450856 -9.538063 -1.1952288 0
1.9830382 -9.560338 -1.1988466 0
2.0192857 -9.5735703 -1.2013481 0
2.0439491 -9.5321255 -1.1970006 0
2.0795913 -9.5421696 -1.1991308 0
2.1268232 -9.6040096 -1.2077913 0
2.1362443 -9.4956236 -1.1950548 0
2.1642485 -9.4716864 -1.1929487 0
2.2045691 -9.5013371 -1.1976075 0
2.2573011 -9.5825653 -1.2087932 0
2.2803328 -9.536952 -1.2039969 0
2.3128254 -9.5314369 -1.2042729 0
2.3434565 -9.5182943 -1.2035984 0
2.3687112 -9.483778 -1.2002312 0
2.3809311 -9.3985548 -1.1904492 0
2.4214172 -9.4255066 -1.1948845 0
2.4639263 -9.45926 -1.2002041 0
2.496583 -9.4545641 -1.2006637 0
2.5249052 -9.4335747 -1.1990664 0
2.56549 -9.4581261 -1.2032737 0
2.5856075 -9.407341 -1.197909 0
2.6256661 -9.4292603 -1.2018143 0
2.6675725 -9.4569426 -1.2064757 0
2.6948848 -9.4326134 -1.204518 0
2.706424 -9.3541527 -1.1956507 0
2.767766 -9.4474087 -1.20875 0
2.7730668 -9.3492079 -1.1973686 0
2.8151462 -9.3756561 -1.2019579 0
2.8468277 -9.3670292 -1.2020688 0
2.8663516 -9.3188534 -1.197113 0
2.8988433 -9.3132496 -1.1976351 0
2.9335294 -9.314518 -1.1990561 0
2.9615326 -9.2945557 -1.1977578 0
3.0003238 -9.3082914 -1.2008176 0
3.0244348 -9.2764606 -1.1980127 0
3.0422404 -9.225996 -1.192806 0
3.1096132 -9.3250704 -1.2069563 0
3.1156559 -9.2398443 -1.1972706 0
3.1543276 -9.2519588 -1.2002041 0
3.172333 -9.2036247 -1.195307 0
3.2066381 -9.2028809 -1.1966 0
3.2386224 -9.1953335 -1.1970239 0
3.27777 -9.20784 -1.2000757 0
3.3173645 -9.2210941 -1.2032461 0
3.3511982 -9.2179956 -1.2043011 0
3.3805418 -9.2025051 -1.2037514 0
3.4100108 -9.187438 -1.2032692 0
3.4282956 -9.1426182 -1.1988981 0
3.4602604 -9.1345854 -1.1993592 0
3.4805584 -9.0959902 -1.1958172 0
3.5064824 -9.0724888 -1.1942664 0
3.5524409 -9.1005411 -1.1995203 0
3.5792253 -9.079174 -1.198279 0
3.6048465 -9.0550671 -1.1966858 0
3.667614 -9.1235971 -1.2073607 0
3.6733327 -9.050025 -1.1992478 0
3.7022121 -9.0341368 -1.1987805 0
3.7387929 -9.0369291 -1.2008078 0
3.7586355 -8.9993582 -1.1974832 0
3.8003161 -9.0140505 -1.2011268 0
3.8259623 -8.9905539 -1.1996986 0
3.8748431 -9.0213499 -1.2055347 0
3.9020422 -9.0013266 -1.2046006 0
3.9316907 -8.9870291 -1.2044445 0
3.9581087 -8.9654341 -1.2033222 0
3.9833782 -8.941411 -1.2018837 0
3.9938586 -8.8846788 -1.1960511 0
4.0580826 -8.9472103 -1.2062939 0
4.0696907 -8.8934174 -1.2008742 0
4.1092176 -8.9008017 -1.203725 0
4.117197 -8.8400803 -1.1973733 0
4.1747327 -8.8856516 -1.2054349 0
4.1849456 -8.8303423 -1.1998284 0
4.2062702 -8.7989864 -1.1974773 0
4.2503824 -8.8151855 -1.2016146 0
4.2528443 -8.7452211 -1.1940147 0
4.2896743 -8.7462711 -1.1961149 0
4.3225198 -8.739007 -1.1970968 0
4.3817925 -8.7846022 -1.2053484 0
4.4026937 -8.7529087 -1.2030182 0
4.4280028 -8.7301865 -1.201929 0
4.4406128 -8.6827621 -1.197443 0
4.4878407 -8.7030048 -1.2023031 0
4.4983721 -8.652091 -1.1973462 0
4.5401125 -8.6612968 -1.20072 0
4.551693 -8.6130362 -1.1961385 0
4.6029115 -8.6397085 -1.2019792 0
4.6097207 -8.5830183 -1.1962358 0
4.6275444 -8.5473309 -1.1934175 0
4.6928091 -8.5988922 -1.2028069 0
4.7260289 -8.5911369 -1.2039319 0
4.7446976 -8.5570116 -1.2013721 0
4.7833252 -8.5588837 -1.20388 0
4.7837276 -8.4926157 -1.1968081 0
4.8509135 -8.5447664 -1.2064426 0
4.8580551 -8.4909115 -1.2011317 0
4.872973 -8.4511223 -1.1978076 0
4.9210806 -8.468811 -1.2026465 0
4.9173846 -8.3975096 -1.1948557 0
4.9804974 -8.4402628 -1.2033081 0
4.9989133 -8.4069443 -1.2009406 0
5.017457 -8.3740892 -1.1986437 0
5.0871038 -8.4261217 -1.208526 0
5.0840468 -8.3575974 -1.2011361 0
5.0911598 -8.3064394 -1.1962302 0
5.1519928 -8.3427792 -1.2039446 0
5.1587472 -8.2914038 -1.1990198 0
5.1935654 -8.2853041 -1.200649 0
5.2126575 -8.2541342 -1.1986581 0
5.2654757 -8.2761774 -1.2044162 0
5.29492 -8.2611694 -1.2048088 0
5.2874694 -8.1889791 -1.1968594 0
5.3523226 -8.2287455 -1.2052875 0
5.3434982 -8.1552258 -1.1971362 0
5.3730168 -8.1406059 -1.1976279 0
5.429893 -8.1670847 -1.204195 0
5.4563084 -8.1474352 -1.2039883 0
5.4444146 -8.0710135 -1.1953859 0
5.4966669 -8.0898352 -1.2008964 0
5.5086117 -8.0492268 -1.1976032 0
5.5658817 -8.0746889 -1.2041614 0
5.5879192 -8.0487747 -1.203084 0
5.5920038 -7.9972873 -1.1981837 0
5.6177583 -7.9770341 -1.1979647 0
5.62532 -7.9311514 -1.1938998 0
5.6653128 -7.9310508 -1.1967373 0
5.7105765 -7.9380116 -1.20067 0
5.7245579 -7.9014273 -1.1980327 0
5.761498 -7.896554 -1.2002161 0
5.8052559 -7.9007568 -1.2038064 0
5.8245063 -7.8715086 -1.2023188 0
5.8143277 -7.8029022 -1.1948105 0
5.8542767 -7.8017812 -1.1976377 0
5.8883333 -7.7926064 -1.1992532 0
5.9406166 -7.8072381 -1.2045635 0
5.9725895 -7.7948852 -1.2057405 0
6.0291662 -7.8143153 -1.2118661 0
5.9952908 -7.7167749 -1.1998498 0
6.0307455 -7.7089219 -1.2017659 0
6.0274267 -7.6516771 -1.1959856 0
6.084548 -7.6711397 -1.2022096 0
6.0522518 -7.5780964 -1.1908015 0
6.1398349 -7.6351213 -1.2029903 0
6.1355596 -7.5776391 -1.1971679 0
6.1657205 -7.5628996 -1.1980984 0
6.2236519 -7.5819097 -1.204409 0
6.2021098 -7.5042205 -1.1953644 0
6.2686892 -7.5332003 -1.2033218 0
6.2991743 -7.5184216 -1.2043279 0
6.2893639 -7.4557886 -1.1976663 0
6.3364239 -7.4606776 -1.2018576 0
6.363874 -7.4422817 -1.2023246 0
6.3364825 -7.3601441 -1.1924806 0
6.3963566 -7.3795056 -1.1990854 0
6.4345632 -7.3734884 -1.2016064 0
6.4247851 -7.3126469 -1.1951952 0
6.4599023 -7.3030887 -1.1971662 0
6.5026021 -7.3018818 -1.2005357 0
6.5317411 -7.285274 -1.2013988 0
6.5324121 -7.2370567 -1.1970526 0
6.5884824 -7.2501545 -1.2028661 0
6.6262722 -7.2427998 -1.2053251 0
6.6403995 -7.2095561 -1.2034911 0
6.6058388 -7.1239519 -1.1928917 0
6.6832347 -7.1591244 -1.2025267 0
6.6432304 -7.0686107 -1.1910577 0
6.6582808 -7.0371952 -1.189519 0
6.7638302 -7.1009102 -1.2041155 0
6.7726521 -7.0626049 -1.2014638 0
6.7937579 -7.037231 -1.2010155 0
6.8204832 -7.0176735 -1.2015738 0
6.825099 -6.9754758 -1.1982601 0
6.8374567 -6.9413953 -1.1963369 0
6.9056549 -6.9637733 -1.2041774 0
6.9202614 -6.9318633 -1.202665 0
6.900075 -6.8654509 -1.1951497 0
6.9507356 -6.8696356 -1.1999283 0
6.9497209 -6.8227229 -1.1957973 0
6.9834743 -6.8100295 -1.1976696 0
6.9794369 -6.7605872 -1.1930832 0
7.0630465 -6.7958231 -1.2034738 0
7.0593271 -6.7468109 -1.198979 0
7.0741334 -6.7157235 -1.1976626 0
7.0909157 -6.6865973 -1.1967015 0
7.0995708 -6.649931 -1.1943928 0
7.175096 -6.6756511 -1.2033265 0
7.1757331 -6.6314983 -1.1996977 0
7.2150316 -6.6231031 -1.2025485 0
7.2298918 -6.5922146 -1.2013347 0
7.2120566 -6.5318031 -1.1947255 0
7.2564831 -6.5278873 -1.1984526 0
7.2989788 -6.5219722 -1.2018528 0
7.2833858 -6.4642529 -1.1957098 0
7.3666086 -6.494092 -1.205791 0
7.3337369 -6.4215446 -1.1968796 0
7.378283 -6.4169731 -1.2006316 0
7.3754892 -6.3712363 -1.1966941 0
1.5592848 -1.3378683 -0.25226918 0
1.5485115 -1.3196367 -0.249809 0
1.5628633 -1.3228475 -0.25140736 0
1.560979 -1.3122947 -0.25039503 0
1.5927422 -1.3299087 -0.25477344 0
1.5205251 -1.2609807 -0.24254403 0
1.5625193 -1.2869895 -0.24855296 0
1.5170052 -1.2409877 -0.2406497 0
1.5715671 -1.2768508 -0.24862459 0
1.599106 -1.2903488 -0.25229543 0
1.5552108 -1.2463427 -0.24470933 0
1.58644 -1.2626579 -0.24895564 0
1.5647776 -1.2368696 -0.24490406 0
1.5993598 -1.2555151 -0.24965629 0
1.6063497 -1.2523203 -0.25009057 0
1.5985216 -1.2376229 -0.24822439 0
1.6023649 -1.2320279 -0.24817835 0
1.586817 -1.2116296 -0.24513969 0
1.5986301 -1.2121863 -0.24633539 0
1.6329761 -1.2296284 -0.25099114 0
1.617507 -1.2095035 -0.24798881 0
1.5834403 -1.175773 -0.2421601 0
1.6139581 -1.1900598 -0.24621569 0
1.6349584 -1.1971031 -0.24880564 0
1.6347729 -1.1885684 -0.24816959 0
1.6128802 -1.164405 -0.2442521 0
1.6465912 -1.1803645 -0.24875651 0
1.6504272 -1.1747572 -0.24873959 0
1.6357411 -1.1560606 -0.24594066 0
1.6396914 -1.1506282 -0.24595316 0
1.6652358 -1.1602405 -0.24919991 0
1.6986372 -1.1750724 -0.25360736 0
1.6919087 -1.1620499 -0.2520197 0
1.6797638 -1.1454388 -0.24963717 0
1.6857524 -1.1412611 -0.24995708 0
1.6208018 -1.0893823 -0.23978353 0
1.6507759 -1.1015116 -0.2436702 0
1.6330605 -1.081795 -0.24051848 0
1.7112821 -1.1253746 -0.25148192 0
1.7152532 -1.1197661 -0.25151232 0
1.7228566 -1.1165096 -0.25207692 0
1.6993604 -1.0932096 -0.24810141 0
1.6532943 -1.0557547 -0.24085777 0
1.7115533 -1.0848961 -0.24881381 0
1.7074949 -1.0743154 -0.2476988 0
1.7391025 -1.0860802 -0.25175431 0
1.7048277 -1.0567467 -0.24627836 0
1.7166877 -1.0561475 -0.24747874 0
1.691233 -1.0326866 -0.24330866 0
1.6818597 -1.0192375 -0.24146718 0
1.6861302 -1.0141115 -0.24159077 0
1.7336775 -1.0348091 -0.2479049 0
1.8011212 -1.0668914 -0.25703597 0
1.7310052 -1.0175337 -0.24654154 0
1.7828275 -1.0399691 -0.25342441 0
1.7191629 -0.9951216 -0.24389899 0
1.7560948 -1.0086539 -0.24865736 0
1.7655892 -1.0062497 -0.24952261 0
1.7909615 -1.0127699 -0.25262707 0
1.7787472 -0.99800676 -0.25043073 0
1.7589633 -0.9791671 -0.24718176 0
1.7898473 -0.98851323 -0.25105461 0
1.8150305 -0.99449462 -0.25411785 0
1.7698436 -0.9620344 -0.24733834 0
1.7935182 -0.96712732 -0.25019234 0
1.7759966 -0.95000684 -0.2473024 0
1.8170161 -0.96412754 -0.2525627 0
1.7817404 -0.93776762 -0.24722099 0
1.8645431 -0.97337925 -0.25825581 0
1.8074017 -0.9358508 -0.2499052 0
1.8068657 -0.92790425 -0.24939951 0
1.8375376 -0.93588334 -0.25319859 0
1.8171071 -0.91781795 -0.24995799 0
1.8056464 -0.90444344 -0.24796294 0
1.808953 -0.89852566 -0.24800195 0
1.8204517 -0.89664024 -0.24916482 0
1.8929058 -0.92445338 -0.25865591 0
1.8452778 -0.89354289 -0.251737 0
1.803846 -0.86602622 -0.24568726 0
1.8307141 -0.87138486 -0.24894743 0
1.8446815 -0.87045902 -0.2504485 0
1.8643739 -0.87212068 -0.25272369 0
1.8777661 -0.87072384 -0.2541419 0
1.8627071 -0.85616452 -0.25171384 0
1.8684576 -0.85123116 -0.25210381 0
1.8782673 -0.84810728 -0.25304231 0
1.8159822 -0.81266433 -0.24428275 0
1.8684516 -0.82863683 -0.25096568 0
1.927157 -0.84695119 -0.25846797 0
1.9468526 -0.84783024 -0.26072681 0
1.926613 -0.83134276 -0.25764155 0
1.8719387 -0.80031633 -0.24996984 0
1.9039141 -0.80644739 -0.25387719 0
1.9226526 -0.80679244 -0.25601372 0
1.8812054 -0.78199255 -0.25014424 0
1.9314201 -0.79528201 -0.25646529 0
1.9620672 -0.80021811 -0.26017708 0
1.9461794 -0.78613812 -0.25771934 0
1.968905 -0.78764969 -0.26037756 0
1.9565265 -0.77509826 -0.25839543 0
1.9268521 -0.75587797 -0.25414023 0
1.9469427 -0.75623685 -0.2564542 0
5.4223909 -2.085284 -0.71332049 0
5.4524231 -2.0758758 -0.71635163 0
9.1242962 -3.4388692 -1.1972492 0
9.1787767 -3.4243004 -1.2028846 0
9.2004452 -3.3972874 -1.2042247 0
9.1562195 -3.3461146 -1.1969609 0
9.1665754 -3.3151033 -1.1968549 0
9.1924677 -3.2896576 -1.1987888 0
9.2120371 -3.2618606 -1.1999078 0
9.2366657 -3.2357709 -1.2016959 0
9.27279 -3.2135615 -1.2049873 0
9.2277832 -3.1633492 -1.1977537 0
9.234271 -3.1310134 -1.1972264 0
9.2845573 -3.113395 -1.202386 0
9.2695866 -3.0738394 -1.1991057 0
9.3297853 -3.0591195 -1.2055595 0
9.2675171 -3.0043271 -1.196205 0
9.3357086 -2.9918804 -1.2037053 0
9.2771235 -2.9388428 -1.1948744 0
9.2587299 -2.8988938 -1.1912467 0
9.32131 -2.8842072 -1.1980476 0
9.4031744 -2.8750279 -1.2073238 0
9.3494396 -2.8243558 -1.1992018 0
9.3575468 -2.7926023 -1.199034 0
9.3619156 -2.7597556 -1.1984013 0
9.4004736 -2.7368989 -1.2021557 0
9.3849411 -2.6982768 -1.1990057 0
9.3782473 -2.6623421 -1.1970034 0
9.4371223 -2.6448972 -1.2033794 0
9.3998966 -2.6005042 -1.1975139 0
9.4743071 -2.5869248 -1.2058818 0
9.4114618 -2.5358887 -1.196794 0
9.4304285 -2.5071154 -1.1981302 0
9.4856615 -2.4877779 -1.2040811 0
9.4694481 -2.4496224 -1.2009736 0
9.5037642 -2.4245319 -1.204288 0
9.4626331 -2.3802764 -1.198058 0
9.4953718 -2.3546894 -1.2011968 0
9.4298277 -2.3049026 -1.191921 0
9.5202198 -2.2931979 -1.2023678 0
9.5232992 -2.260184 -1.2017928 0
9.5394316 -2.2302542 -1.2028784 0
9.4866972 -2.1844056 -1.1952984 0
9.5491438 -2.1650965 -1.2022452 0
9.5123186 -2.1232395 -1.1967058 0
9.5442429 -2.096796 -1.1998309 0
9.5728493 -2.0694602 -1.2025481 0
9.5250578 -2.0257244 -1.1956847 0
9.5518188 -1.9979656 -1.1981963 0
9.5877094 -1.9719439 -1.2018623 0
9.56462 -1.9337928 -1.1981485 0
9.5667095 -1.9008512 -1.1976051 0
9.545042 -1.8633019 -1.194104 0
9.6073771 -1.8420528 -1.2011228 0
9.635828 -1.8140345 -1.2039126 0
9.6324615 -1.779981 -1.2027395 0
9.6261845 -1.7454647 -1.2012182 0
9.5772333 -1.7034422 -1.1943904 0
9.643198 -1.6818398 -1.2019069 0
9.6670408 -1.65262 -1.2041813 0
9.6559992 -1.6174304 -1.2021236 0
9.6577158 -1.5844474 -1.2016692 0
9.6729755 -1.5536644 -1.202913 0
9.6568251 -1.5178753 -1.2002649 0
9.6321115 -1.4809154 -1.1965694 0
9.6990252 -1.4579326 -1.2042679 0
9.6790485 -1.4217609 -1.2011888 0
9.624361 -1.3807789 -1.1938207 0
9.6371908 -1.3496586 -1.1948442 0
9.6655884 -1.3206084 -1.1978093 0
9.6984463 -1.2919887 -1.2013377 0
9.696723 -1.2586855 -1.2005948 0
9.7012758 -1.2262161 -1.2006427 0
9.6689844 -1.189212 -1.196146 0
9.7700748 -1.1684062 -1.2081605 0
9.6779432 -1.1244887 -1.1962945 0
9.6901112 -1.0929875 -1.1973389 0
9.6863174 -1.0596823 -1.1964245 0
9.7572327 -1.0343466 -1.2047485 0
9.7120647 -0.99664128 -1.1987522 0
9.7227573 -0.96480781 -1.1996659 0
9.7629061 -0.93574721 -1.204226 0
9.731514 -0.8998211 -1.199975 0
9.7607813 -0.86953145 -1.2032176 0
9.7440681 -0.83512288 -1.2008054 0
9.6945772 -0.79814768 -1.19437 0
9.6619377 -0.76285505 -1.190027 0
9.7607508 -0.73773533 -1.2018859 0
9.7303782 -0.70263737 -1.1978493 0
9.7340803 -0.67010576 -1.1980217 0
9.7992573 -0.64158928 -1.2057718 0
9.808918 -0.60920042 -1.2067025 0
9.7627649 -0.57348174 -1.2007813 0
9.7749662 -0.54131806 -1.2020521 0
9.7688456 -0.50813144 -1.2010832 0
9.7272549 -0.47327173 -1.1957678 0
9.7763481 -0.44280964 -1.2016134 0
9.7346678 -0.4082211 -1.1963156 0
9.7869587 -0.37754682 -1.2025795 0
9.8124495 -0.34558597 -1.2055625 0
9.7258015 -0.30988878 -1.1947825 0
9.7627773 -0.27830425 -1.1992035 0
9.7237415 -0.24456604 -1.1943011 0
9.7477665 -0.21246977 -1.1971577 0
9.7477922 -0.17977451 -1.1970801 0
9.8140068 -0.14808182 -1.2051438 0
9.7398844 -0.11430144 -1.1959881 0
9.8560886 -0.082616106 -1.2102163 0
9.7286921 -0.048928205 -1.1945465 0
9.7868681 -0.016406806 -1.2016762 0
9.7695141 0.016377715 -1.1995454 0
9.7478466 0.049024537 -1.1968983 0
9.7936449 0.08209268 -1.2025487 0
9.7767525 0.1147341 -1.2005152 0
9.7560444 0.14720723 -1.1980262 0
9.7045469 0.17897695 -1.1917694 0
9.761385 0.2127666 -1.1988302 0
9.7888861 0.24620453 -1.2023025 0
9.7724571 0.27858016 -1.2003925 0
9.7596025 0.31096575 -1.1989349 0
9.8029137 0.34525013 -1.2043909 0
9.791357 0.37771648 -1.2031199 0
9.7543612 0.40904692 -1.1987357 0
9.7699041 0.44251779 -1.2008215 0
9.7381039 0.47379956 -1.1971014 0
9.7630415 0.50782955 -1.2003696 0
9.7520914 0.54005128 -1.1992391 0
9.7583475 0.57322222 -1.200238 0
9.7389565 0.60485536 -1.1980957 0
9.797596 0.64148057 -1.2055675 0
9.7319775 0.66996104 -1.197763 0
9.7174501 0.70170385 -1.1962578 0
9.7364712 0.73590028 -1.1988964 0
9.7781172 0.77202797 -1.2043364 0
9.7859602 0.80567116 -1.2056283 0
9.7250643 0.83349419 -1.1984636 0
9.6742563 0.86182344 -1.1925516 0
9.706502 0.89750838 -1.1968908 0
9.6713715 0.92697388 -1.1929355 0
9.7136726 0.96390635 -1.198545 0
9.6830921 0.99366814 -1.1951761 0
9.7391396 1.0324286 -1.2025145 0
9.6420031 1.0548342 -1.1909509 0
9.7329006 1.0978138 -1.2026261 0
9.7072935 1.1278989 -1.1999226 0
9.6955881 1.1594982 -1.1989495 0
9.6564445 1.1876698 -1.1945947 0
9.7285442 1.2296627 -1.2040174 0
9.6885214 1.2576208 -1.1995792 0
9.7180729 1.2946032 -1.2037687 0
9.6958551 1.3247437 -1.2015601 0
9.7026234 1.3588222 -1.2029568 0
9.7021189 1.3919348 -1.2034661 0
9.6408615 1.4161516 -1.1964498 0
9.6786032 1.4548628 -1.2017323 0
9.6843767 1.4889511 -1.2030622 0
9.678545 1.5212892 -1.2029645 0
9.6418018 1.5486574 -1.1990364 0
9.6093874 1.5765185 -1.1956559 0
9.6047335 1.6088431 -1.1957413 0
9.6774397 1.6543977 -1.2054766 0
9.5339575 1.6627877 -1.1882915 0
9.6246834 1.7118819 -1.200308 0
9.6470547 1.749249 -1.2038226 0
9.6095905 1.7757546 -1.1998837 0
9.6086512 1.808918 -1.2005171 0
9.5811205 1.8370186 -1.1978402 0
9.6107769 1.876134 -1.2023275 0
9.6138201 1.9102119 -1.2035027 0
9.5908785 1.9391019 -1.201438 0
9.5818853 1.9707459 -1.2011322 0
9.5870008 2.0053246 -1.2026095 0
9.5509396 2.0312288 -1.1989335 0
9.5717583 2.0692241 -1.2024111 0
9.5337973 2.0945013 -1.1985178 0
9.5439405 2.1302979 -1.2006841 0
9.5001841 2.1539955 -1.196081 0
9.5473843 2.1983795 -1.2029449 0
9.5175409 2.2251363 -1.2001179 0
9.5070772 2.2563343 -1.1997458 0
9.5026836 2.2889738 -1.2001531 0
9.463273 2.3130774 -1.1961484 0
9.5141916 2.3593564 -1.2035775 0
9.4519043 2.3775775 -1.1966997 0
9.4560404 2.4123571 -1.1982408 0
9.4653692 2.4485672 -1.2004564 0
9.4804068 2.4863999 -1.2034141 0
9.4111547 2.5019915 -1.1956816 0
9.4652901 2.5503924 -1.203639 0
9.4332438 2.5757127 -1.2006553 0
9.4506998 2.6145592 -1.2039862 0
9.447011 2.6476686 -1.2046403 0
9.4239492 2.6753161 -1.2028366 0
9.3864346 2.6987059 -1.1991965 0
9.4098177 2.7396193 -1.2033507 0
9.3433237 2.7542751 -1.1960214 0
9.3410473 2.7876782 -1.1969198 0
9.3569307 2.8266191 -1.2001626 0
9.3346043 2.8540626 -1.1985196 0
9.3753471 2.9009273 -1.2049928 0
9.3371744 2.9234548 -1.2013397 0
9.298214 2.9455237 -1.1975908 0
9.2752113 2.9724925 -1.1959051 0
9.2403126 2.995508 -1.1926937 0
9.2744541 3.0409768 -1.1984097 0
9.295351 3.0823829 -1.2024386 0
9.2697029 3.1084137 -1.2004622 0
9.2489223 3.1359813 -1.199126 0
4.7751145 1.6369429 -0.61980337 0
4.6860714 1.6239965 -0.60894901 0
4.6491609 1.6286851 -0.6048587 0
4.5392914 1.6073033 -0.59126246 0
4.5798845 1.638978 -0.59726226 0
4.5418186 1.6425544 -0.59301299 0
4.4052887 1.6099005 -0.57588816 0
4.4335775 1.6371095 -0.58030057 0
4.4353547 1.6546853 -0.58125603 0
4.454 1.6786745 -0.58443385 0
4.4513903 1.6947572 -0.58483374 0
4.4171176 1.698687 -0.58107585 0
4.4408789 1.7249384 -0.58495921 0
4.4142823 1.7316633 -0.5822174 0
4.4257073 1.7532898 -0.58449632 0
4.4551454 1.7822567 -0.58917004 0
4.4204502 1.785593 -0.58537024 0
4.4778323 1.8262588 -0.59377646 0
4.4156661 1.8181957 -0.58633804 0
9.0359163 3.7561128 -1.2015076 0
8.9788532 3.7677481 -1.1955929 0
8.9977484 3.8112068 -1.1998036 0
9.0686436 3.8771484 -1.2109838 0
8.9788818 3.8744304 -1.2007253 0
8.9983435 3.9186676 -1.2050781 0
8.9327507 3.9257848 -1.1980498 0
8.9229507 3.957226 -1.1985081 0
8.9302378 3.9963417 -1.2012799 0
8.8989687 4.0182142 -1.1988792 0
8.9198351 4.063695 -1.2035192 0
8.8668976 4.0755324 -1.1982135 0
8.8705502 4.1132913 -1.2005639 0
8.8489676 4.1393881 -1.1995145 0
8.8279476 4.1656876 -1.1985517 0
8.8225374 4.1993589 -1.1997219 0
8.7705173 4.2107239 -1.1945611 0
8.8109779 4.2665591 -1.2020137 0
8.7819061 4.2888885 -1.2000026 0
8.7396803 4.3046179 -1.196198 0
8.7226744 4.3326426 -1.195852 0
8.7368536 4.3762665 -1.1998007 0
8.7128839 4.4008641 -1.1985288 0
8.7121964 4.4372416 -1.2004738 0
8.7233858 4.4798388 -1.2040786 0
8.6615543 4.4848485 -1.1976128 0
8.6616392 4.5217834 -1.1997141 0
8.6564264 4.5560603 -1.2011011 0
8.6561327 4.5930333 -1.2031903 0
8.6007042 4.6006441 -1.1976233 0
8.6252222 4.6510191 -1.2032019 0
8.580183 4.6639328 -1.1990937 0
8.5415354 4.6800933 -1.1958789 0
8.5582504 4.7266293 -1.2004311 0
8.5772753 4.7747359 -1.2053384 0
8.5494528 4.7968655 -1.2036818 0
8.4773169 4.7938333 -1.1957819 0
8.4458847 4.8135028 -1.1936181 0
8.4656382 4.8624358 -1.198707 0
8.4806547 4.9089489 -1.2031572 0
8.4443874 4.9258285 -1.2003481 0
8.4383574 4.9603047 -1.2018483 0
8.4141455 4.9841065 -1.2007732 0
8.3638248 4.9922566 -1.195974 0
8.3818264 5.041193 -1.2009583 0
8.317811 5.0407438 -1.1942009 0
8.3543034 5.1012349 -1.201889 0
8.2992458 5.1058955 -1.1964244 0
8.3288651 5.1626925 -1.2031828 0
8.3381491 5.2072258 -1.2070394 0
8.2741041 5.2058711 -1.2002881 0
8.2419205 5.2242761 -1.1981535 0
8.249877 5.2681761 -1.2018713 0
8.2027807 5.2769022 -1.1975809 0
8.229167 5.3329706 -1.204037 0
8.1873455 5.3449321 -1.2005332 0
8.131979 5.3477573 -1.195037 0
8.1773138 5.4169316 -1.2043614 0
8.1047812 5.4080691 -1.1963427 0
8.0936632 5.4399576 -1.1973871 0
8.1250477 5.50069 -1.2047518 0
8.0724382 5.5046329 -1.1996809 0
8.1168699 5.5748916 -1.2090552 0
8.0223055 5.5496197 -1.1977341 0
8.0181179 5.5865636 -1.1998987 0
8.0165901 5.6255188 -1.2024859 0
7.9772577 5.6379294 -1.1994147 0
7.9350085 5.6480579 -1.1959029 0
7.987576 5.7259212 -1.2067121 0
7.900496 5.7036953 -1.1964389 0
7.9137993 5.7537603 -1.2013682 0
7.8960662 5.7814345 -1.2016121 0
7.8873715 5.8157911 -1.2032497 0
7.875463 5.8478727 -1.2044173 0
7.8540144 5.8729005 -1.2041417 0
7.8284879 5.8948393 -1.2032515 0
7.7830625 5.901629 -1.1993041 0
7.807466 5.9614668 -1.2061377 0
7.7621226 5.9681482 -1.2022173 0
7.7134371 5.971972 -1.1977713 0
7.7128949 6.0130215 -1.2008109 0
7.6609268 6.0139122 -1.1958526 0
7.6641421 6.0580778 -1.1995184 0
7.6430483 6.0831518 -1.1994025 0
7.6123996 6.1005607 -1.1977959 0
7.5878816 6.1228046 -1.1971614 0
7.5808148 6.159183 -1.1992979 0
7.5799413 6.200779 -1.2024419 0
7.5752912 6.2394872 -1.2050161 0
7.5659785 6.2745118 -1.2068745 0
7.4990473 6.261559 -1.1995401 0
7.4927006 6.2990155 -1.2018964 0
7.4912558 6.3407907 -1.2050681 0
7.4472246 6.3465018 -1.2014014 0
7.4102197 6.3579779 -1.1988637 0
7.3729439 6.3690376 -1.1962812 0
7.388473 6.4258356 -1.2022898 0
7.329277 6.4176397 -1.1961519 0
7.3302069 6.4620023 -1.1998328 0
7.2586432 6.4422932 -1.1916478 0
7.2677732 6.4940886 -1.1967145 0
7.3059998 6.572432 -1.2066306 0
7.2597594 6.5750065 -1.2026278 0
7.2304602 6.5927329 -1.2014291 0
7.2099361 6.6184258 -1.2016993 0
7.1799202 6.6353674 -1.2003977 0
7.1628222 6.6642318 -1.2012681 0
7.1474476 6.6947751 -1.2024473 0
7.105001 6.6998796 -1.1990787 0
7.0939617 6.7345467 -1.2010195 0
7.0308938 6.719636 -1.1941497 0
7.0728521 6.8052578 -1.2051446 0
6.9964046 6.7770233 -1.1959836 0
6.9825673 6.8091445 -1.1975141 0
6.960465 6.8332705 -1.197646 0
6.9437232 6.8627048 -1.1987177 0
6.9394317 6.9046097 -1.2019665 0
6.8779883 6.8895192 -1.1953183 0
6.8817835 6.9397011 -1.2000148 0
6.8708801 6.9753265 -1.2021849 0
6.8107829 6.9608445 -1.1957465 0
6.8193007 7.0164571 -1.2013655 0
6.7639074 7.0063109 -1.1957386 0
6.7559633 7.0452013 -1.1985033 0
6.704844 7.0389848 -1.1936147 0
6.6997528 7.0810275 -1.1969281 0
6.6428709 7.0682282 -1.1909932 0
6.6405034 7.1133504 -1.194838 0
6.64431 7.1654406 -1.199839 0
6.6186295 7.1859198 -1.1995455 0
6.5944114 7.2079744 -1.1995296 0
6.6098928 7.2737145 -1.206775 0
6.5366783 7.2417827 -1.1978344 0
6.528069 7.2811785 -1.2007235 0
6.5106192 7.310884 -1.2020158 0
6.4865527 7.3332171 -1.202105 0
6.4437222 7.3342009 -1.198718 0
6.4276543 7.365572 -1.2003163 0
6.3890638 7.3710918 -1.1977183 0
6.3904538 7.4228344 -1.2026376 0
6.3500543 7.4261198 -1.1997136 0
6.3596582 7.4880347 -1.2062646 0
6.2716455 7.4347839 -1.1942922 0
6.2721305 7.4861436 -1.1991576 0
6.2159743 7.4698515 -1.1932027 0
6.2263746 7.5335793 -1.2000411 0
6.2303133 7.5900249 -1.2056981 0
6.2135863 7.6216116 -1.2073995 0
6.1321168 7.5733871 -1.1964961 0
6.1316853 7.6249866 -1.2013934 0
6.0858326 7.6201429 -1.1974086 0
6.0175061 7.586616 -1.1889632 0
6.042419 7.6707091 -1.1989604 0
6.0090537 7.6811938 -1.1974434 0
5.9750333 7.6907005 -1.1957957 0
5.9881186 7.7611141 -1.2036154 0
5.9129214 7.7170119 -1.1936948 0
5.8939061 7.7458506 -1.1950921 0
5.8978343 7.8051796 -1.2011882 0
5.8605313 7.8101168 -1.1989173 0
5.8240738 7.8159819 -1.1968133 0
5.7932754 7.8293023 -1.1958721 0
5.77876 7.8646965 -1.1983122 0
5.7644486 7.9005976 -1.2008306 0
5.7233014 7.8996935 -1.1977699 0
5.7318282 7.9675522 -1.2051382 0
5.6711259 7.9391885 -1.1979653 0
5.6349864 7.9447799 -1.1959513 0
5.614574 7.9725122 -1.1972855 0
5.6201439 8.0375309 -1.2042131 0
5.5576987 8.0052452 -1.1965774 0
5.5429111 8.0413647 -1.1991917 0
5.4844284 8.0138893 -1.1923455 0
5.4996071 8.0941629 -1.2015388 0
5.4684649 8.1066666 -1.2006664 0
5.4193611 8.0922651 -1.1958356 0
5.4314771 8.1694679 -1.2045463 0
5.385498 8.1595163 -1.2004099 0
5.3425093 8.1537161 -1.1969146 0
5.3505607 8.226037 -1.2048906 0
5.3012595 8.2103367 -1.1999809 0
5.2691092 8.2208986 -1.1989357 0
5.2139583 8.1952038 -1.1926322 0
5.2305803 8.2825146 -1.2027795 0
5.1975164 8.2916069 -1.2015624 0
5.1426058 8.26546 -1.195268 0
5.1259303 8.3005753 -1.197854 0
5.1009583 8.3224249 -1.1985323 0
5.0764771 8.3451538 -1.1993476 0
5.0485988 8.3623428 -1.1993786 0
4.9841633 8.3185225 -1.19069 0
4.98564 8.3846216 -1.197752 0
4.9717965 8.425518 -1.201206 0
4.9427691 8.4408588 -1.2010237 0
4.9338717 8.4908228 -1.2057724 0
4.9062791 8.5088844 -1.2059945 0
4.8622556 8.4982529 -1.2021701 0
4.8345528 8.5159473 -1.2023735 0
4.7931075 8.5092688 -1.1991549 0
4.7419219 8.4848013 -1.1934595 0
4.7320275 8.5341616 -1.1981641 0
4.7016311 8.5467863 -1.1977167 0
4.714047 8.6378078 -1.2082504 0
4.6647878 8.6161213 -1.2030225 0
4.6400671 8.6395216 -1.2041107 0
4.5929079 8.6209326 -1.1993669 0
4.5605645 8.6298237 -1.19847 0
4.5464787 8.6734419 -1.2024037 0
4.4919643 8.6397657 -1.1956406 0
4.462163 8.6532106 -1.195424 0
4.4309149 8.6638002 -1.1948278 0
4.4351368 8.7442513 -1.2038654 0
4.4017401 8.7510128 -1.2027577 0
4.3645234 8.7499809 -1.2005979 0
4.3408117 8.7759886 -1.2021626 0
4.2987623 8.764801 -1.198649 0
4.2623591 8.7647858 -1.1966859 0
4.2207747 8.7537794 -1.1932443 0
4.2020316 8.7901192 -1.1962707 0
4.1766887 8.8129196 -1.1974611 0
4.1610227 8.8564711 -1.2014762 0
4.1315675 8.8709364 -1.2015526 0
4.0850148 8.8483772 -1.1966351 0
4.0505681 8.8516283 -1.1952316 0
4.0330057 8.891921 -1.1988397 0
3.9988439 8.8957691 -1.1975441 0
3.9730906 8.9183187 -1.1987797 0
3.9302142 8.9022503 -1.1948419 0
3.9125638 8.9433088 -1.1985852 0
3.8768759 8.9432726 -1.1968315 0
3.8588989 8.9842281 -1.2005742 0
3.8303542 9.0008745 -1.2010757 0
3.7904336 8.9906092 -1.1980033 0
3.7840664 9.0602474 -1.2055852 0
3.7455125 9.0531712 -1.202966 0
3.7077165 9.0475683 -1.200563 0
3.6564822 9.0085106 -1.1937466 0
3.6391914 9.0528927 -1.1980042 0
3.5872521 9.0108709 -1.190845 0
3.6009901 9.1343832 -1.2055656 0
3.536911 9.0607576 -1.1942766 0
3.5397003 9.1584349 -1.2055801 0
3.4890287 9.1181269 -1.1987275 0
3.4492438 9.1055031 -1.1955408 0
3.4331648 9.1556034 -1.2006007 0
3.3997507 9.1597948 -1.1996489 0
3.3810143 9.2037907 -1.2039196 0
3.3625469 9.2492113 -1.2083794 0
3.3000376 9.1729317 -1.1969614 0
3.2790613 9.2114668 -1.2005484 0
3.2324486 9.1778049 -1.194742 0
3.2027204 9.191637 -1.1951381 0
3.184293 9.2383232 -1.1998135 0
3.1704366 9.2992086 -1.2063335 0
3.1071203 9.21453 -1.1939906 0
3.0916955 9.2713394 -1.2000017 0
3.0599847 9.279808 -1.1997632 0
3.0255716 9.2799473 -1.198463 0
2.9964578 9.2962971 -1.1992704 0
2.9794071 9.3506527 -1.204987 0
2.9397211 9.334178 -1.201587 0
2.9104934 9.3506784 -1.2024481 0
2.873193 9.3410959 -1.1999704 0
2.8365231 9.3331232 -1.1977177 0
2.8163686 9.3797274 -1.2024798 0
2.7835979 9.3847132 -1.2019157 0
2.7470145 9.3765764 -1.1996874 0
2.7083497 9.3608093 -1.1965015 0
2.684556 9.3964605 -1.1999013 0
2.6543248 9.409976 -1.200484 0
2.6103036 9.3740902 -1.1947826 0
2.5967524 9.4478903 -1.2030724 0
2.5566924 9.4256916 -1.1991473 0
2.5274711 9.443162 -1.2002851 0
2.5060332 9.4903517 -1.2052084 0
2.4670002 9.4710617 -1.2017015 0
2.4389837 9.4938841 -1.203553 0
2.3914878 9.4402275 -1.1957276 0
2.3526165 9.4193392 -1.192076 0
2.3317802 9.47087 -1.1976014 0
2.3108127 9.5231409 -1.2032247 0
2.270519 9.4959078 -1.1988152 0
2.2466912 9.5375252 -1.2031115 0
2.2096012 9.5230255 -1.2003411 0
2.173836 9.5136452 -1.1982335 0
2.1500614 9.5570402 -1.2027843 0
2.1257753 9.5992785 -1.2071962 0
2.0905187 9.592309 -1.2054316 0
2.0537152 9.5776701 -1.2027199 0
2.0219355 9.586132 -1.2029245 0
1.9771087 9.5317516 -1.1952618 0
1.9489129 9.5568304 -1.1975806 0
1.9102929 9.530549 -1.1934779 0
1.8875662 9.583806 -1.1993479 0
1.8615683 9.6218443 -1.2033203 0
1.8238294 9.5992508 -1.1997232 0
1.7897595 9.5952587 -1.1984676 0
1.7606934 9.6182222 -1.2005916 0
1.7301959 9.6338739 -1.2018144 0
1.6930802 9.6123381 -1.1984131 0
1.6591064 9.6079073 -1.1971604 0
1.6280124 9.6200876 -1.1979911 0
1.6018109 9.6620579 -1.2025422 0
1.5686386 9.6626406 -1.2019534 0
1.5390034 9.6852818 -1.2041211 0
1.4942245 9.6112881 -1.1942923 0
1.4684753 9.6588926 -1.199589 0
1.4353038 9.6585207 -1.1989385 0
1.4014901 9.6534805 -1.1977228 0
1.3717754 9.6768866 -1.2000494 0
1.3463799 9.7324438 -1.2063725 0
1.3117951 9.7224789 -1.2045854 0
1.2709148 9.6638975 -1.1967927 0
1.2407957 9.685976 -1.199005 0
1.212132 9.7207041 -1.2027941 0
1.1753985 9.6906214 -1.1985774 0
1.1464615 9.7247095 -1.2023114 0
1.1069032 9.6678247 -1.1948129 0
1.0745045 9.6716785 -1.1948373 0
1.0439709 9.6928663 -1.1970156 0
1.0135605 9.7163839 -1.1994935 0
0.98138523 9.7237654 -1.1999918 0
0.94829333 9.7220354 -1.1993792 0
0.91605479 9.7290144 -1.1998545 0
0.88471377 9.746172 -1.201598 0
0.85353518 9.7662868 -1.2037183 0
0.81935406 9.7520523 -1.2016184 0
0.77979302 9.6696825 -1.1911404 0
0.75621873 9.786787 -1.2052464 0
0.71991122 9.7420387 -1.1994318 0
0.69086486 9.7957392 -1.2057513 0
0.65760058 9.7917891 -1.2049869 0
0.61880249 9.7004404 -1.1934835 0
0.58965671 9.7584209 -1.2003671 0
0.5596661 9.8082018 -1.2062529 0
0.52555901 9.787324 -1.2034618 0
0.49019951 9.7385397 -1.1972544 0
0.45750117 9.7391901 -1.197139 0
0.42614466 9.7704687 -1.2008014 0
0.39350715 9.774909 -1.2011782 0
0.36229461 9.8185349 -1.2063831 0
0.32814002 9.782938 -1.2018675 0
0.29537693 9.7852783 -1.2020265 0
0.26251522 9.7842808 -1.2017891 0
0.22914606 9.7611313 -1.1988446 0
0.19685364 9.7835178 -1.2015063 0
0.16383249 9.7711353 -1.1999114 0
0.1304445 9.7249384 -1.1941779 0
0.098143458 9.7556953 -1.1979077 0
0.065651275 9.7883806 -1.2018872 0
0.032658707 9.7367859 -1.195532 0
1.3020804e-05 9.8137274 -1.2049724 0
-0.032750163 9.7717829 -1.1998291 0
-0.065561973 9.7789345 -1.2007273 0
-0.098311156 9.7749443 -1.2002711 0
-0.13065246 9.7423697 -1.1963183 0
-0.16284636 9.7138596 -1.1928778 0
-0.19726181 9.8050966 -1.2041564 0
-0.23028985 9.8109627 -1.2049648 0
-0.26129434 9.7397413 -1.1963184 0
-0.29603559 9.8079615 -1.2048129 0
-0.32875994 9.8021955 -1.2042333 0
-0.3586908 9.7215681 -1.1944689 0
-0.39409828 9.7902384 -1.2030619 0
-0.42336193 9.7072592 -1.1930329 0
-0.45603094 9.7084417 -1.1933594 0
-0.49143136 9.7635279 -1.2003263 0
-0.52430379 9.764432 -1.2006468 0
-0.5547325 9.7221937 -1.1956751 0
-0.59109497 9.7826538 -1.2033477 0
-0.62275302 9.7627773 -1.2011528 0
-0.65693253 9.7822294 -1.2038103 0
-0.68943989 9.7759037 -1.2033097 0
-0.72133315 9.7616329 -1.201844 0
-0.75359774 9.7532024 -1.2011104 0
-0.78323966 9.7127438 -1.1964445 0
-0.82148021 9.777669 -1.2047747 0
-0.84980059 9.7238522 -1.1984879 0
-0.88580096 9.7584372 -1.2031097 0
-0.91252589 9.6918116 -1.1952661 0
-0.94465172 9.684967 -1.1948059 0
-0.9816584 9.7267303 -1.2003574 0
-1.0130926 9.7121487 -1.1989703 0
-1.0461991 9.7137947 -1.1995999 0
-1.0732769 9.660862 -1.1935006 0
-1.1175045 9.7606468 -1.2062842 0
-1.1427695 9.6936131 -1.1984664 0
-1.1758314 9.6944056 -1.1990452 0
-1.2092429 9.6977434 -1.1999527 0
-1.2372547 9.6585369 -1.195608 0
-1.2744608 9.6910601 -1.2001562 0
-1.3071384 9.6881599 -1.200333 0
-1.3388089 9.6779041 -1.1996118 0
-1.3807535 9.740407 -1.2079263 0
-1.3953828 9.6115932 -1.1925253 0
-1.432459 9.6395531 -1.1965835 0
-1.4598927 9.6026125 -1.1925988 0
-1.5053594 9.6830797 -1.2032126 0
-1.5245419 9.5944376 -1.1928264 0
-1.5625411 9.6252422 -1.1973009 0
-1.597151 9.6341076 -1.1990629 0
-1.6256803 9.6064615 -1.1962938 0
-1.6690773 9.665803 -1.2043737 0
-1.6949339 9.6230125 -1.1997433 0
-1.7261896 9.6117125 -1.1990494 0
-1.756204 9.5938416 -1.1975477 0
-1.7925321 9.6102648 -1.2003412 0
-1.8223112 9.5913982 -1.1987412 0
-1.8505409 9.5649824 -1.1962085 0
-1.8852471 9.5721645 -1.1978904 0
-1.9296753 9.6273813 -1.2056034 0
-1.9624763 9.6234713 -1.2059308 0
-1.9785988 9.5390625 -1.1961781 0
-2.0100794 9.5300465 -1.1958859 0
-2.0492227 9.5568428 -1.2001039 0
-2.0818503 9.5526571 -1.2004479 0
-2.1120086 9.5372314 -1.1993927 0
-2.14291 9.5253696 -1.1987977 0
-2.1688037 9.4917374 -1.1954734 0
-2.203512 9.4968958 -1.1970469 0
-2.2395818 9.5074587 -1.1993181 0
-2.2908702 9.5811338 -1.2095739 0
-2.3018994 9.4865189 -1.1985967 0
-2.3309762 9.4677124 -1.1972014 0
-2.3553159 9.430254 -1.1934565 0
-2.4089873 9.5094118 -1.2044898 0
-2.4389095 9.4937 -1.2035289 0
-2.4727757 9.4933367 -1.204527 0
-2.4903316 9.4309912 -1.1976693 0
-2.5222793 9.4238644 -1.1978313 0
-2.5591748 9.4349432 -1.2003235 0
-2.5916677 9.4294882 -1.2007282 0
-2.6387255 9.4762554 -1.2078032 0
-2.6499941 9.3947191 -1.1985366 0
-2.6812866 9.3851118 -1.1984512 0
-2.7113159 9.3711538 -1.1978228 0
-2.7650015 9.4380655 -1.2075537 0
-2.7879362 9.3994303 -1.2037997 0
-2.8112772 9.3628616 -1.2003167 0
-2.8300407 9.311883 -1.194991 0
-2.8654485 9.3160048 -1.1967461 0
-2.9084749 9.3442812 -1.2016245 0
-2.9452572 9.3518419 -1.2038599 0
-2.9756553 9.3389645 -1.2034796 0
-3.0117502 9.3438263 -1.2054007 0
-3.0351205 9.3093195 -1.2022551 0
-3.0598967 9.279624 -1.1997384 0
-3.1030641 9.3055134 -1.2044239 0
-3.1359012 9.2999649 -1.2050599 0
-3.1679854 9.292099 -1.2054102 0
-3.1916702 9.2598047 -1.2026023 0
-3.2077727 9.2062149 -1.1970325 0
-3.2716396 9.2891569 -1.2092364 0
-3.2645414 9.1707554 -1.1952413 0
-3.3020492 9.1785994 -1.1976999 0
-3.3437753 9.1976528 -1.2016423 0
-3.3493021 9.1175385 -1.192636 0
-3.3889484 9.130765 -1.1958457 0
-3.4224899 9.1272087 -1.1968762 0
-3.4623215 9.1400995 -1.2000821 0
-3.4794338 9.0931244 -1.1954392 0
-3.5250506 9.1206026 -1.2005987 0
-3.5548725 9.106842 -1.2003496 0
-3.5948744 9.1189404 -1.2035261 0
-3.6090438 9.0656796 -1.1980871 0
-3.6538587 9.0894489 -1.2028406 0
-3.6705616 9.0432673 -1.198351 0
-3.6961989 9.0195322 -1.1968412 0
-3.7424045 9.0457268 -1.2019755 0
-3.7997403 9.0978432 -1.2105865 0
-3.8066249 9.0290804 -1.2031283 0
-3.8250287 8.9884262 -1.1994133 0
-3.872813 9.0166893 -1.2049105 0
-3.897104 8.9900007 -1.2030835 0
-3.9262099 8.9745665 -1.2027729 0
-3.9510636 8.9495411 -1.2011876 0
-3.9766302 8.9263277 -1.1998547 0
-3.9745767 8.8418484 -1.1902838 0
-4.063477 8.9591675 -1.2079046 0
-4.0725999 8.8998365 -1.2017395 0
-4.1076102 8.8973818 -1.2032609 0
-4.1560755 8.9236193 -1.2086869 0
-4.1444025 8.8211565 -1.196684 0
-4.1828141 8.8259058 -1.1992241 0
-4.2089887 8.8047323 -1.1982579 0
-4.2649336 8.8454237 -1.205735 0
-4.2769284 8.7948046 -1.2007829 0
-4.3148026 8.7975645 -1.2031281 0
-4.3547931 8.8043137 -1.2060412 0
-4.3566799 8.7343149 -1.1984466 0
-4.369463 8.6869001 -1.1939443 0
-4.4353442 8.7447176 -1.203928 0
-4.4388728 8.6794176 -1.19698 0
-4.4762197 8.6805258 -1.199196 0
-4.5163274 8.6866817 -1.2021315 0
-4.5512791 8.6826553 -1.2036792 0
-4.539032 8.5891342 -1.1928174 0
-4.5735273 8.58461 -1.194312 0
-4.63095 8.6226006 -1.2017508 0
-4.6491466 8.587286 -1.1989945 0
-4.6878057 8.5897789 -1.2015305 0
-4.722826 8.5853682 -1.2031217 0
-4.7286677 8.5281544 -1.197319 0
-4.7463446 8.4927673 -1.1945783 0
-4.8105869 8.5403528 -1.2035335 0
-4.8036504 8.461566 -1.1946936 0
-4.8474908 8.4724989 -1.1985253 0
-4.9000196 8.4980812 -1.2044615 0
-4.9349504 8.4927311 -1.2060416 0
-4.9356551 8.4287615 -1.1993005 0
-4.9585152 8.4030619 -1.1980026 0
-5.0029359 8.4137602 -1.2019125 0
-5.0284739 8.3925266 -1.2012808 0
-5.0615354 8.3838205 -1.2024572 0
-5.0704904 8.3353624 -1.1979386 0
-5.1141567 8.3440084 -1.2016387 0
-5.1280861 8.3041153 -1.1983629 0
-5.1637635 8.2995148 -1.2001908 0
-5.1899943 8.2796555 -1.1998285 0
-5.2244334 8.27283 -1.2013711 0
-5.2612987 8.2696609 -1.2034657 0
-5.2606344 8.2077236 -1.1970123 0
-5.3062158 8.2180605 -1.2011076 0
-5.3491788 8.2239599 -1.2045844 0
-5.3793354 8.2099676 -1.2051699 0
-5.3913684 8.168457 -1.2017232 0
-5.3898153 8.1068516 -1.1953118 0
-5.4255052 8.1014862 -1.197196 0
-5.4880047 8.1356802 -1.2049614 0
-5.5125923 8.1133204 -1.2043805 0
-5.5294061 8.0796576 -1.2021286 0
-5.5177135 8.0048542 -1.1937449 0
-5.5555897 8.0022526 -1.1961279 0
-5.6002092 8.0090675 -1.1999464 0
-5.6167455 7.9756413 -1.1977532 0
-5.6663427 7.9890347 -1.2026109 0
-5.6923547 7.9689527 -1.2024541 0
-5.6940556 7.9150906 -1.1972008 0
-5.7235188 7.9000373 -1.1978197 0
-5.761138 7.8961039 -1.2001454 0
-5.7768364 7.8621221 -1.1979175 0
-5.8086057 7.8500633 -1.1990408 0
-5.8377638 7.8343973 -1.1996309 0
-5.8525848 7.7995701 -1.1972959 0
-5.9083371 7.8191218 -1.2033315 0
-5.9109812 7.7683339 -1.1985586 0
-5.9296174 7.7388449 -1.1970695 0
-5.9654593 7.7317886 -1.1990651 0
-5.9586573 7.6696644 -1.1925223 0
-6.0246954 7.7012305 -1.2005644 0
-6.0359387 7.6625247 -1.1976786 0
-6.0880427 7.6755872 -1.2029041 0
-6.1237001 7.6675992 -1.2048632 0
-6.1053791 7.5923152 -1.1962432 0
-6.1440964 7.5882239 -1.1988375 0
-6.1615 7.5577636 -1.1972822 0
-6.2098699 7.5651612 -1.2017457 0
-6.2267718 7.534101 -1.2001214 0
-6.243072 7.5024557 -1.1984081 0
-6.2412071 7.4492745 -1.1932491 0
-6.279449 7.4440751 -1.1957821 0
-6.3122368 7.4322391 -1.1972736 0
-6.3207784 7.3919225 -1.1941862 0
-6.3497772 7.3756261 -1.1949861 0
-6.4242353 7.4117088 -1.2043152 0
-6.4452863 7.3858161 -1.2036126 0
-6.4681487 7.3620424 -1.2032657 0
-6.4913955 7.3387313 -1.2030061 0
-6.4927092 7.290812 -1.1987127 0
-6.496717 7.2462478 -1.1949604 0
-6.5535092 7.260468 -1.200922 0
-6.5718656 7.2319074 -1.1998358 0
-6.5756812 7.1875401 -1.196126 0
-6.6450772 7.214673 -1.2043424 0
-6.6018758 7.1197162 -1.1921796 0
-6.6492252 7.1227312 -1.1964108 0
-6.7103353 7.1400504 -1.2030921 0
-6.7090364 7.0908775 -1.19859 0
-6.7499833 7.086411 -1.2016538 0
-6.7625194 7.0520754 -1.1996696 0
-6.8096337 7.0537133 -1.2038255 0
-6.8159723 7.0130696 -1.2007824 0
-6.8979306 7.0499496 -1.2110502 0
-6.8661513 6.9705629 -1.2013608 0
-6.9013867 6.959506 -1.2034364 0
-6.8724303 6.8839884 -1.1943556 0
-6.9686565 6.9337249 -1.2070317 0
-6.9595404 6.8783736 -1.2014514 0
-6.9777379 6.8502641 -1.2006212 0
-7.0090213 6.8349781 -1.202054 0
-6.9996495 6.7802019 -1.1965413 0
-7.0190539 6.753531 -1.1959809 0
-7.0764408 6.7632031 -1.2018887 0
-7.046113 6.6891584 -1.1929218 0
-7.1435084 6.7362275 -1.2055805 0
-7.1036634 6.6537995 -1.1950842 0
-7.1920166 6.6914291 -1.2061672 0
-7.189712 6.6444521 -1.2020378 0
-7.2600212 6.6644378 -1.2100501 0
-7.2197399 6.582993 -1.1996508 0
-7.2439833 6.5607538 -1.2000173 0
-7.3068266 6.5732107 -1.2067701 0
-7.2571096 6.4845948 -1.1949614 0
-7.3275537 6.5034881 -1.2029636 0
-7.3005781 6.4359169 -1.1949857 0
-7.3509421 6.4366446 -1.1996903 0
-7.4060011 6.4411144 -1.2051448 0
-7.4105644 6.4015694 -1.2023879 0
-7.38097 6.3329158 -1.1941344 0
-7.4052639 6.3107767 -1.1946348 0
-7.4344006 6.2927008 -1.1959249 0
-7.4703579 6.2802663 -1.198315 0
-7.4822292 6.24755 -1.1968526 0
-7.5134621 6.2309933 -1.1985 0
-7.5593438 6.2263856 -1.202482 0
-7.5410719 6.1690154 -1.1962785 0
-7.5498176 6.1340322 -1.1943966 0
-7.5847244 6.1202903 -1.1966659 0
-7.6353698 6.1190023 -1.2014128 0
-7.6610847 6.0975404 -1.2022353 0
-7.6445985 6.0426621 -1.1964622 0
-7.6813645 6.0299888 -1.1990454 0
-7.7161341 6.0155792 -1.2013177 0
-7.7687659 6.014842 -1.2063655 0
-7.7269831 5.9411626 -1.1967772 0
-7.7771306 5.9383364 -1.2014538 0
-7.7896624 5.9066663 -1.2003236 0
-7.7961392 5.8705134 -1.1982819 0
-7.8337831 5.8578048 -1.2010423 0
-7.8944836 5.8620286 -1.2073286 0
-7.8574376 5.7937512 -1.1986854 0
-7.8896918 5.7767997 -1.2006445 0
-7.8917928 5.7377925 -1.1980299 0
-7.888206 5.6948543 -1.1945801 0
-7.9825668 5.7223625 -1.2059577 0
-7.9414167 5.6526508 -1.196871 0
-7.9565387 5.6233177 -1.1963018 0
-7.9880967 5.6055555 -1.1982142 0
-8.040575 5.602242 -1.2032616 0
-8.0261946 5.5523415 -1.1983169 0
-8.0806732 5.5500622 -1.2036656 0
-8.0541344 5.4921832 -1.1969628 0
-8.0846071 5.4733424 -1.1987575 0
-8.1079731 5.4496064 -1.1995062 0
-8.1760092 5.4556289 -1.2068588 0
-8.1664743 5.4097824 -1.2027671 0
-8.2017145 5.3936486 -1.2052872 0
-8.2078342 5.3583388 -1.2035395 0
-8.229023 5.3329082 -1.2040179 0
-8.2023926 5.2766833 -1.1975262 0
-8.2351665 5.2588129 -1.1997302 0
-8.2083206 5.2030091 -1.193271 0
-8.2898512 5.2158093 -1.2025744 0
-8.2762251 5.1685839 -1.1980771 0
-8.3037758 5.147171 -1.1995604 0
-8.3088789 5.1118522 -1.1978149 0
-8.3403206 5.0927272 -1.1998793 0
-8.3469343 5.0584235 -1.198384 0
-8.363513 5.0302086 -1.1983361 0
-8.4010878 5.0145283 -1.2013042 0
-8.4312601 4.9942746 -1.2032175 0
-8.4492054 4.9667115 -1.2033952 0
-8.4338388 4.9197054 -1.1988506 0
-8.3931789 4.8583441 -1.1907487 0
-8.4368105 4.8459082 -1.194627 0
-8.5485744 4.8720579 -1.2081326 0
-8.5083504 4.8114123 -1.2001613 0
-8.506135 4.7725911 -1.1975849 0
-8.5163918 4.7408733 -1.1967844 0
-8.5701036 4.7332053 -1.2020955 0
-8.5863056 4.7046533 -1.2021488 0
-8.6051416 4.6775293 -1.2025834 0
-8.5632963 4.6176562 -1.1945652 0
-8.6200418 4.6110172 -1.2003176 0
-8.6766195 4.6039338 -1.2060398 0
-8.6444206 4.5497708 -1.199437 0
-8.6723452 4.5274014 -1.2011986 0
-8.6892319 4.4992089 -1.2014414 0
-8.6947851 4.4651804 -1.2001325 0
-8.6952944 4.4286623 -1.1981465 0
-8.7090635 4.3989635 -1.1980047 0
-8.7397385 4.3777409 -1.2001985 0
-8.7580223 4.3502288 -1.2006997 0
-8.774374 4.3217349 -1.2009481 0
-8.8130856 4.3041453 -1.2042646 0
-8.8121881 4.2671738 -1.2021803 0
-8.8243465 4.2365961 -1.2018943 0
-8.8658075 4.2199836 -1.2056075 0
-8.8477678 4.1750689 -1.2012442 0
-8.8364964 4.1335831 -1.1978256 0
-8.8613968 4.1090755 -1.1993265 0
-8.9331493 4.1060128 -1.2071677 0
-8.9111567 4.0597701 -1.2023497 0
-8.9530478 4.0426612 -1.2061661 0
-8.9331341 3.9976661 -1.2016709 0
-8.9561806 3.9719915 -1.2029729 0
-8.9219332 3.9210589 -1.1966003 0
-8.9157343 3.8827205 -1.1940163 0
-8.9964142 3.882024 -1.2030712 0
-9.0113401 3.8526773 -1.2033331 0
-9.0545454 3.8352931 -1.2073786 0
-9.0567999 3.8004847 -1.2059733 0
-9.0142994 3.7471547 -1.1986344 0
-9.0363407 3.7208343 -1.1998997 0
-9.0413818 3.6875048 -1.1989206 0
-9.0584736 3.6591003 -1.1995534 0
-9.0874004 3.6353931 -1.2017633 0
-9.0510817 3.5857077 -1.1953636 0
-9.0723066 3.5589712 -1.1965842 0
-9.1125908 3.5395658 -1.2003255 0
-9.1004057 3.4997625 -1.1971679 0
-9.1689272 3.490871 -1.2046355 0
-9.127142 3.4399693 -1.1976237 0
-9.1412411 3.4103246 -1.1979666 0
-9.194706 3.3951957 -1.2034746 0
-9.151557 3.3444386 -1.1963526 0
-9.1808491 3.3202932 -1.1987197 0
-9.2068253 3.2948234 -1.2006624 0
-9.1670694 3.2459657 -1.1940517 0
-9.1579504 3.2082229 -1.1914562 0
-9.2222242 3.1960649 -1.1984174 0
-9.2370739 3.1665614 -1.1989607 0
-9.2759905 3.1451867 -1.2026365 0
-9.2748194 3.1101568 -1.2011259 0
-9.2531424 3.0684137 -1.1969796 0
-9.3258371 3.057852 -1.2050502 0
-9.284173 3.0097537 -1.1983559 0
-9.2993155 2.9802444 -1.1990139 0
-9.3176861 2.9517193 -1.2000997 0
-9.3170643 2.9171855 -1.1987532 0
-9.3102303 2.880806 -1.1966245 0
