# .PCD v0.7 - Point Cloud Data file format
VERSION 0.7
FIELDS x y z intensity
SIZE 4 4 4 4
TYPE F F F F
COUNT 1 1 1 1
WIDTH 1405
HEIGHT 1
VIEWPOINT 0 0 0 1 0 0 0
POINTS 1405
DATA ascii
-10.121467 9.2288008 -1.1983529 0
-10.137136 9.1810322 -1.1965568 0
-10.196509 9.1727648 -1.1999282 0
-10.216276 9.1287594 -1.1986457 0
-10.289769 9.1325693 -1.2036692 0
-10.250333 9.0363102 -1.1955053 0
-10.309931 9.0275993 -1.1989192 0
-10.3575 9.0080795 -1.200932 0
-10.356133 8.9460802 -1.1972889 0
-10.422096 8.9422197 -1.2014421 0
-10.409951 8.871376 -1.1966064 0
-10.480486 8.8709993 -1.2012887 0
-10.509278 8.8350611 -1.2011868 0
-10.536926 8.7981768 -1.2009685 0
-10.533897 8.7358723 -1.1972781 0
-10.591839 8.7241526 -1.2005323 0
-10.621158 8.6886969 -1.2005469 0
-10.627701 8.6347322 -1.1980072 0
-10.644153 8.5890141 -1.1966089 0
-10.646809 8.5323763 -1.1936847 0
-10.729523 8.5397425 -1.1997414 0
-10.769978 8.513114 -1.2010666 0
-10.786857 8.4678478 -1.1997761 0
-10.741735 8.3743706 -1.1916277 0
-10.843894 8.3957109 -1.1998311 0
-10.898339 8.3795719 -1.2027398 0
-10.893209 8.3176622 -1.1990893 0
-10.91883 8.2794189 -1.1988472 0
-10.93114 8.2311773 -1.1971619 0
-11.001821 8.2267427 -1.2018751 0
-10.990383 8.160881 -1.1976298 0
-11.044298 8.143611 -1.2005229 0
-11.058287 8.0968323 -1.1990858 0
-11.095002 8.0667124 -1.2001275 0
-11.074308 7.9950461 -1.1949828 0
-11.143473 7.9882812 -1.1995492 0
-11.183775 7.9605417 -1.2010077 0
-11.202145 7.9171634 -1.2001231 0
-11.271647 7.9097495 -1.2047211 0
-11.292921 7.8683023 -1.2041684 0
-11.242426 7.7772579 -1.195997 0
-11.315281 7.7716937 -1.2009687 0
-11.28385 7.6945534 -1.1948878 0
-11.34251 7.6789689 -1.1983665 0
-11.33247 7.6168857 -1.1946008 0
-11.400549 7.6072764 -1.1990819 0
-11.3924 7.5467577 -1.1955568 0
-11.493936 7.5586934 -1.2035458 0
-11.534649 7.5301905 -1.2051586 0
-11.523577 7.4679794 -1.2013788 0
-11.564871 7.4397998 -1.2030766 0
-11.556238 7.3795834 -1.199598 0
-11.591176 7.3472996 -1.2006607 0
-11.664701 7.3391981 -1.2057211 0
-11.622976 7.2586632 -1.1988859 0
-11.727587 7.2694516 -1.2071555 0
-11.688611 7.1911569 -1.200655 0
-11.752171 7.1760545 -1.2047056 0
-11.761173 7.1275268 -1.203172 0
-11.729483 7.0546603 -1.1975036 0
-11.80589 7.0468221 -1.2028854 0
-11.786749 6.9819055 -1.1985433 0
-11.832787 6.955688 -1.2008464 0
-11.826077 6.8984966 -1.1978115 0
-11.894783 6.8852277 -1.2024255 0
-11.880195 6.8237076 -1.1986313 0
-11.912894 6.7894726 -1.1996269 0
-11.939729 6.7518325 -1.2000428 0
-11.990438 6.7275515 -1.2028657 0
-11.976419 6.6669888 -1.1992102 0
-12.022932 6.6401768 -1.2016314 0
-12.020941 6.5865765 -1.1992186 0
-12.0309 6.5396814 -1.198018 0
-12.104892 6.5274196 -1.2031999 0
-12.132806 6.4900589 -1.2038049 0
-12.11915 6.4305878 -1.200304 0
-12.089923 6.3632231 -1.1952895 0
-12.129044 6.3319731 -1.1970515 0
-12.204984 6.3196344 -1.2024484 0
-12.195772 6.2631016 -1.1994653 0
-12.241493 6.2348022 -1.2018992 0
-12.216094 6.1703706 -1.1973675 0
-12.263262 6.1426759 -1.1999654 0
-12.281629 6.1004524 -1.1997544 0
-12.322695 6.0694265 -1.2017713 0
-12.300994 6.0075741 -1.1976838 0
-12.413641 6.0111246 -1.2066826 0
-12.360225 5.9341826 -1.1995494 0
-12.389685 5.8972931 -1.2004828 0
-12.39427 5.8485861 -1.1990204 0
-12.390182 5.7959447 -1.1967381 0
-12.429688 5.7637105 -1.1986808 0
-12.466863 5.7302403 -1.2004062 0
-12.473347 5.6826425 -1.1991893 0
-12.516064 5.6515069 -1.2014676 0
-12.463276 5.5774398 -1.1945984 0
-12.485303 5.537128 -1.1949236 0
-12.58814 5.5323029 -1.2029836 0
-12.552711 5.4665904 -1.1978396 0
-12.649293 5.4582701 -1.2053028 0
-12.603262 5.3883553 -1.1991886 0
-12.620415 5.3457117 -1.1991085 0
-12.623687 5.2972498 -1.1977252 0
-12.694882 5.2771368 -1.2027947 0
-12.693999 5.2269239 -1.2010437 0
-12.72016 5.1878853 -1.2018665 0
-12.747381 5.1492062 -1.2028004 0
-12.707178 5.0834765 -1.1973921 0
-12.768426 5.0583835 -1.2015586 0
-12.746504 5.0003204 -1.1979113 0
-12.81257 4.9767327 -1.202545 0
-12.799877 4.9224763 -1.1997981 0
-12.850369 4.8925009 -1.2029866 0
-12.884931 4.8562589 -1.2046909 0
-12.841945 4.790947 -1.1991634 0
-12.863396 4.7498794 -1.1996726 0
-12.879845 4.7069421 -1.1997281 0
-12.831173 4.6404481 -1.1937385 0
-12.903199 4.6176357 -1.1989924 0
-12.896417 4.5664897 -1.1969327 0
-12.972675 4.5446014 -1.2025893 0
-12.978976 4.4980092 -1.2017686 0
-12.899171 4.4219646 -1.1929997 0
-12.994788 4.4061098 -1.20047 0
-13.007181 4.3617425 -1.2002571 0
-13.057552 4.3299856 -1.2035588 0
-13.028281 4.2718477 -1.1995338 0
-13.014034 4.2189045 -1.196913 0
-13.023297 4.1737061 -1.1964712 0
-13.114704 4.1545644 -1.2035823 0
-13.076864 4.0943842 -1.1988431 0
-13.105811 4.0552487 -1.2002436 0
-13.106257 4.0072865 -1.1990472 0
-13.134635 3.9678574 -1.2004197 0
-13.149978 3.9244273 -1.2006125 0
-13.122128 3.8682492 -1.1968789 0
-13.166866 3.8335025 -1.1997805 0
-13.197949 3.7945974 -1.2014467 0
-13.234704 3.7571695 -1.2036391 0
-13.235759 3.7095609 -1.2025971 0
-13.252444 3.6663587 -1.2029895 0
-13.223164 3.610574 -1.1992259 0
-13.268911 3.5753038 -1.202281 0
-13.234042 3.5183582 -1.1980458 0
-13.284688 3.4841759 -1.2015665 0
-13.252304 3.4282353 -1.1975911 0
-13.314178 3.3966548 -1.2021465 0
-13.268944 3.3377714 -1.1970452 0
-13.263498 3.2891576 -1.1955523 0
-13.383118 3.27123 -1.2053392 0
-13.29365 3.2021658 -1.1963077 0
-13.371005 3.1734054 -1.2023047 0
-13.410818 3.1353955 -1.2049327 0
-13.359122 3.076107 -1.1993544 0
-13.311986 3.0182903 -1.1942074 0
-13.368357 2.9839814 -1.1983602 0
-13.367312 2.9367321 -1.1973772 0
-13.387226 2.8940902 -1.198285 0
-13.38621 2.8469253 -1.197333 0
-13.4386 2.8110054 -1.2011691 0
-13.419511 2.7600834 -1.1986291 0
-13.467561 2.722934 -1.2020987 0
-13.459735 2.6744106 -1.2005931 0
-13.466549 2.6288621 -1.2004079 0
-13.428102 2.5746493 -1.1962045 0
-13.462193 2.53442 -1.1984776 0
-13.513472 2.4971893 -1.2022907 0
-13.508287 2.4494226 -1.201092 0
-13.484274 2.3983998 -1.198235 0
-13.515763 2.3572788 -1.2003243 0
-13.552751 2.3169348 -1.2029123 0
-13.523763 2.2653379 -1.1996586 0
-13.529611 2.2197082 -1.1995105 0
-13.577076 2.1807745 -1.2030636 0
-13.527342 2.126286 -1.1980183 0
-13.532595 2.0806427 -1.1978589 0
-13.619325 2.0472589 -1.2049216 0
-13.550111 1.9904202 -1.1982009 0
-13.595246 1.9505072 -1.2016071 0
-13.621984 1.9077533 -1.2033983 0
-13.596086 1.8576685 -1.2005533 0
-13.566642 1.807331 -1.1974115 0
-13.588128 1.7638469 -1.1987793 0
-13.586901 1.7173855 -1.1981564 0
-13.613369 1.6743782 -1.1999886 0
-13.617094 1.6285089 -1.1998289 0
-13.589226 1.5789807 -1.1969001 0
-13.630911 1.537523 -1.2001108 0
-13.621989 1.490281 -1.1988788 0
-13.566501 1.4381967 -1.1935641 0
-13.633168 1.3990571 -1.1990099 0
-13.667883 1.3563269 -1.2016563 0
-13.664861 1.3097752 -1.2009978 0
-13.688769 1.265764 -1.2027194 0
-13.725896 1.2227973 -1.2056143 0
-13.57358 1.1633705 -1.1918864 0
-13.627569 1.1219845 -1.19629 0
-13.628621 1.0760796 -1.196059 0
-13.667667 1.0330637 -1.199175 0
-13.718468 0.99065667 -1.203334 0
-13.692681 0.94265711 -1.2007881 0
-13.674801 0.89537019 -1.1989501 0
-13.705578 0.85124606 -1.2013915 0
-13.691657 0.80430812 -1.199928 0
-13.699257 0.75867385 -1.2003645 0
-13.689852 0.71212101 -1.1993244 0
-13.669639 0.66512161 -1.1973516 0
-13.734742 0.62213755 -1.2028645 0
-13.712677 0.57507443 -1.2007564 0
-13.707648 0.52882981 -1.2001542 0
-13.720304 0.48325366 -1.2011136 0
-13.752106 0.43821359 -1.2037623 0
-13.692918 0.39037582 -1.1984601 0
-13.696162 0.34451449 -1.1986362 0
-13.721779 0.2991268 -1.2007835 0
-13.741847 0.25347167 -1.2024585 0
-13.661869 0.2061778 -1.195393 0
-13.700085 0.16081233 -1.1986829 0
-13.699886 0.11487209 -1.1986251 0
-13.722626 0.069051184 -1.2005876 0
-13.696824 0.022997843 -1.1983167 0
-13.741198 3.6463502e-05 -1.2021972 0
-22.850283 -0.038367085 -1.1975325 0
-22.911928 -0.11529104 -1.2007767 0
-22.92235 -0.19220147 -1.2013499 0
-22.89913 -0.26879123 -1.2001734 0
-22.909939 -0.34574482 -1.2007939 0
-22.911716 -0.42261213 -1.2009547 0
-22.946733 -0.50022548 -1.2028713 0
-22.910482 -0.57629228 -1.2010655 0
-22.921261 -0.65346962 -1.2017387 0
-22.887907 -0.72932768 -1.2001114 0
-22.919523 -0.80726665 -1.2019044 0
-22.88867 -0.88302612 -1.2004349 0
-22.895903 -0.96019536 -1.2009764 0
-22.884491 -1.0365903 -1.2005533 0
-22.851732 -1.1118934 -1.1990236 0
-22.817816 -1.1869409 -1.1974461 0
-22.866644 -1.2663698 -1.2002246 0
-22.827875 -1.3410097 -1.198419 0
-22.914413 -1.4232018 -1.2032058 0
-22.851326 -1.4962116 -1.2001498 0
-22.860651 -1.5738156 -1.20091 0
-22.846643 -1.649833 -1.2004579 0
-22.817989 -1.7246861 -1.1992494 0
-22.880268 -1.806565 -1.2028342 0
-22.860453 -1.8821458 -1.2021174 0
-22.747114 -1.9496199 -1.1964946 0
-22.856028 -2.0361722 -1.2025757 0
-22.778177 -2.1062372 -1.1988446 0
-22.782858 -2.1837339 -1.1994694 0
-22.786011 -2.2611606 -1.2000278 0
-22.794798 -2.3392379 -1.2008969 0
-22.756256 -2.4124107 -1.1992857 0
-22.792086 -2.4935133 -1.2016079 0
-22.757023 -2.5669191 -1.2002063 0
-22.689901 -2.6364207 -1.1971259 0
-22.744785 -2.7201169 -1.200496 0
-22.734148 -2.7961895 -1.2004225 0
-22.701391 -2.869458 -1.1991942 0
-22.738596 -2.9516501 -1.2016755 0
-22.658239 -3.0185022 -1.197957 0
-22.681034 -3.0989687 -1.1997048 0
-22.71109 -3.1806791 -1.201852 0
-22.619236 -3.245177 -1.1975601 0
-22.672867 -3.3304918 -1.2009841 0
-22.626966 -3.401289 -1.1991501 0
-22.585726 -3.4725659 -1.1975747 0
-22.650116 -3.5602431 -1.2016151 0
-22.563957 -3.6242633 -1.1976821 0
-22.625921 -3.7120762 -1.2016251 0
-22.553768 -3.7779355 -1.1984591 0
-22.56472 -3.8575923 -1.1997216 0
-22.567221 -3.93594 -1.2005495 0
-22.611105 -4.0217566 -1.2035947 0
-22.511097 -4.0818791 -1.198993 0
-22.52709 -4.1628389 -1.2005814 0
-22.506094 -4.2370434 -1.2002128 0
-22.528036 -4.3194332 -1.2021484 0
-22.466167 -4.385716 -1.199625 0
-22.46335 -4.4634032 -1.200267 0
-22.411266 -4.5312138 -1.1982889 0
-22.45462 -4.6183968 -1.2014282 0
-22.357901 -4.6766911 -1.1970855 0
-22.399902 -4.7639208 -1.2001828 0
-22.364143 -4.8347464 -1.1991286 0
-22.320168 -4.9036298 -1.1976455 0
-22.372957 -4.9939184 -1.2013698 0
-22.348703 -5.0672283 -1.2009729 0
-22.334257 -5.1427455 -1.2011164 0
-22.303406 -5.2144465 -1.2003908 0
-22.292265 -5.2907319 -1.2007391 0
-22.275963 -5.3658199 -1.2008233 0
-22.270044 -5.4434581 -1.2014815 0
-22.182364 -5.5009084 -1.1977392 0
-22.232208 -5.5924592 -1.2014363 0
-22.22781 -5.6706619 -1.2022194 0
-22.142084 -5.7279301 -1.1986147 0
-22.134369 -5.805182 -1.199244 0
-22.150299 -5.8888044 -1.2011701 0
-22.104082 -5.9559374 -1.1997399 0
-22.136961 -6.0444789 -1.2026178 0
-22.072159 -6.1063795 -1.2002028 0
-22.03668 -6.176178 -1.1993929 0
-22.038025 -6.2563238 -1.200601 0
-21.96855 -6.3162694 -1.197963 0
-21.907558 -6.3783345 -1.1957966 0
-21.964342 -6.4748302 -1.2000742 0
-21.969122 -6.5563784 -1.2015297 0
-21.934439 -6.6262002 -1.2008412 0
-21.911354 -6.6994772 -1.2008004 0
-21.895205 -6.7748952 -1.2011534 0
-21.888067 -6.8531837 -1.2020156 0
-21.856895 -6.9239745 -1.2015719 0
-21.824427 -6.9942918 -1.2010695 0
-21.791849 -7.0645061 -1.2005733 0
-21.813667 -7.1524911 -1.2030897 0
-21.785862 -7.2243605 -1.2028854 0
-21.730356 -7.2869148 -1.2011629 0
-21.649044 -7.3404865 -1.198022 0
-21.630806 -7.4152565 -1.1983818 0
-21.680601 -7.5136547 -1.2025295 0
-21.567066 -7.555397 -1.1976304 0
-21.585905 -7.6433487 -1.2000929 0
-21.531057 -7.7052655 -1.1984732 0
-21.558966 -7.7968917 -1.201475 0
-21.492542 -7.854454 -1.1992341 0
-21.490879 -7.9356251 -1.2006192 0
-21.420412 -7.9913177 -1.1981726 0
-21.509161 -8.1066837 -1.2046504 0
-21.425783 -8.1574039 -1.2015058 0
-21.320024 -8.1990871 -1.1971099 0
-21.347876 -8.2920656 -1.2002281 0
-21.281214 -8.3483973 -1.1980472 0
-21.280554 -8.4305773 -1.1995945 0
-21.25882 -8.5045404 -1.19997 0
-21.268658 -8.5913095 -1.2021445 0
-21.168522 -8.6335278 -1.198114 0
-21.14608 -8.707181 -1.1984894 0
-21.153231 -8.7931881 -1.2005589 0
-21.212376 -8.9013023 -1.2056028 0
-21.089575 -8.9330492 -1.2003189 0
-21.037039 -8.9941034 -1.1990384 0
-21.033569 -9.0761518 -1.2005683 0
-21.000639 -9.1455851 -1.2004322 0
-20.94976 -9.2071123 -1.1992817 0
-20.954813 -9.2932854 -1.2013479 0
-20.837038 -9.3247814 -1.1963816 0
-20.828138 -9.4047422 -1.1976743 0
-20.775452 -9.4649382 -1.1964626 0
-20.853561 -9.585083 -1.202805 0
-20.753212 -9.6233711 -1.1988714 0
-20.758982 -9.7107468 -1.2010788 0
-20.651402 -9.7449455 -1.196738 0
-20.650251 -9.8291912 -1.1985744 0
-20.602217 -9.8911886 -1.1977046 0
-20.646454 -9.9977446 -1.2022182 0
-20.561863 -10.042027 -1.1992463 0
-20.555637 -10.124485 -1.2008564 0
-20.530176 -10.197618 -1.2013596 0
-20.463125 -10.249992 -1.1994402 0
-20.406786 -10.307504 -1.198157 0
-20.371225 -10.375414 -1.1981047 0
-20.370207 -10.461057 -1.2001009 0
-20.339735 -10.531738 -1.2003794 0
-20.331593 -10.614118 -1.2019923 0
-20.310686 -10.690013 -1.2028685 0
-20.232355 -10.735566 -1.2003545 0
-20.201977 -10.806406 -1.2006949 0
-20.149855 -10.86557 -1.1997555 0
-20.1586 -10.957686 -1.2024571 0
-20.043896 -10.982555 -1.1978047 0
-20.039106 -11.067451 -1.1997292 0
-19.975712 -11.120005 -1.1981592 0
-19.973316 -11.206554 -1.2002624 0
-19.927532 -11.268879 -1.199775 0
-19.938814 -11.363656 -1.2027413 0
-19.83742 -11.394153 -1.1989228 0
-19.802876 -11.462782 -1.199151 0
-19.74675 -11.518857 -1.1980842 0
-19.716116 -11.58976 -1.1985766 0
-19.675299 -11.654704 -1.1984639 0
-19.660337 -11.735066 -1.1999426 0
-19.617668 -11.798985 -1.199746 0
-19.521915 -11.830706 -1.1963093 0
-19.543295 -11.933434 -1.2000645 0
-19.499348 -11.996539 -1.1998291 0
-19.457655 -12.061006 -1.1997452 0
-19.450773 -12.1472 -1.2018254 0
-19.381889 -12.194698 -1.2000886 0
-19.327742 -12.251278 -1.1992726 0
-19.304758 -12.327634 -1.2004044 0
-19.257414 -12.388492 -1.2000365 0
-19.228617 -12.461315 -1.2008388 0
-19.183781 -12.52379 -1.2006543 0
-19.168871 -12.605919 -1.2023597 0
-19.101402 -12.653494 -1.2007821 0
-19.025913 -12.695475 -1.1987057 0
-18.98279 -12.758891 -1.1986773 0
-18.980585 -12.850006 -1.2012519 0
-18.899876 -12.887986 -1.1988719 0
-18.897139 -12.979154 -1.2014519 0
-18.830763 -13.026699 -1.200002 0
-18.774418 -13.081009 -1.1991994 0
-18.72599 -13.14075 -1.1989137 0
-18.701717 -13.217519 -1.2001902 0
-18.667427 -13.287359 -1.2008419 0
-18.634529 -13.3583 -1.2016 0
-18.613693 -13.438071 -1.203155 0
-18.495874 -13.447577 -1.198447 0
-18.452658 -13.510961 -1.1985753 0
-18.449787 -13.604115 -1.2013447 0
-18.387964 -13.653936 -1.2002934 0
-18.314913 -13.695194 -1.1985154 0
-18.265665 -13.754093 -1.1983037 0
-18.235073 -13.827106 -1.1993314 0
-18.256191 -13.93977 -1.2037876 0
-18.137608 -13.945738 -1.1990447 0
-18.128773 -14.035912 -1.2015649 0
-17.998688 -14.031966 -1.1960545 0
-18.050528 -14.169941 -1.2026497 0
-17.978079 -14.210748 -1.2009904 0
-17.929716 -14.270454 -1.2009492 0
-17.916376 -14.358223 -1.2032734 0
-17.86305 -14.41411 -1.202931 0
-17.762846 -14.431854 -1.1994349 0
-17.712128 -14.489503 -1.1992838 0
-17.654436 -14.541385 -1.1986719 0
-17.626846 -14.61813 -1.2001197 0
-17.627098 -14.718364 -1.2034899 0
-17.496437 -14.709105 -1.1979294 0
-17.461813 -14.780204 -1.1989449 0
-17.440691 -14.862982 -1.2009095 0
-17.389391 -14.920199 -1.200815 0
-17.319117 -14.961011 -1.1994195 0
-17.29842 -15.044704 -1.2014726 0
-17.231983 -15.088697 -1.2003652 0
-17.163328 -15.130548 -1.1991099 0
-17.151192 -15.222348 -1.201821 0
-17.052126 -15.236938 -1.1984522 0
-17.028816 -15.319098 -1.2004172 0
-16.956646 -15.357347 -1.1989526 0
-16.954922 -15.459578 -1.2024889 0
-16.891052 -15.505377 -1.2016394 0
-16.830025 -15.553654 -1.2010009 0
-16.772621 -15.605194 -1.2006316 0
-16.703207 -15.645418 -1.1994109 0
-16.657066 -15.707378 -1.1998727 0
-16.644674 -15.801457 -1.2027895 0
-16.583031 -15.848984 -1.2021682 0
-16.483467 -15.859916 -1.1987987 0
-16.437222 -15.921896 -1.1993111 0
-16.377541 -15.970864 -1.1988567 0
-16.355036 -16.056252 -1.2011434 0
-16.306929 -16.116747 -1.2015721 0
-16.2089 -16.127649 -1.1983265 0
-16.220217 -16.247496 -1.2031838 0
-16.113344 -16.249041 -1.1992906 0
-16.087202 -16.331835 -1.2014138 0
-16.04077 -16.394281 -1.2020444 0
-15.967321 -16.429049 -1.2006614 0
-15.896119 -16.465887 -1.1994519 0
-15.834525 -16.512526 -1.1989751 0
-15.780339 -16.566851 -1.1990713 0
-15.761199 -16.658237 -1.2018542 0
-15.699901 -16.705288 -1.2014441 0
-15.636934 -16.750475 -1.2009166 0
-15.577197 -16.799047 -1.2006478 0
-15.514113 -16.843937 -1.2001317 0
-15.476599 -16.916677 -1.2016104 0
-15.376133 -16.920425 -1.1982082 0
-15.322344 -16.975239 -1.1984451 0
-15.277588 -17.040174 -1.1994064 0
-15.229401 -17.101442 -1.2001181 0
-15.208993 -17.194256 -1.203046 0
-15.131359 -17.222502 -1.201466 0
-15.012473 -17.203171 -1.1965992 0
-14.977231 -17.279392 -1.1984013 0
-14.932823 -17.34532 -1.1994946 0
-14.866142 -17.385418 -1.1988139 0
-14.793089 -17.417879 -1.1976255 0
-14.762649 -17.500622 -1.1999047 0
-14.719205 -17.5683 -1.2011546 0
-14.641926 -17.595568 -1.1996557 0
-14.608946 -17.676138 -1.2018026 0
-14.506048 -17.671963 -1.1982052 0
-14.481687 -17.763395 -1.2011057 0
-14.400455 -17.785183 -1.1993074 0
-14.337645 -17.82951 -1.1990483 0
-14.25592 -17.850105 -1.1972121 0
-14.239067 -17.952108 -1.2008446 0
-14.161672 -17.978008 -1.1993943 0
-14.128044 -18.059555 -1.2016678 0
-14.030723 -18.059595 -1.1985335 0
-13.99703 -18.141449 -1.2008444 0
-13.928905 -18.178852 -1.2002223 0
-13.881923 -18.24391 -1.2014378 0
-13.801802 -18.265371 -1.199797 0
-13.736413 -18.30612 -1.1994417 0
-13.697658 -18.382534 -1.2014326 0
-13.631954 -18.42296 -1.2010807 0
-13.54389 -18.432878 -1.1987602 0
-13.467473 -18.458258 -1.1974673 0
-13.422901 -18.527311 -1.1990209 0
-13.409284 -18.639736 -1.2033801 0
-13.306318 -18.62804 -1.1997381 0
-13.238383 -18.66493 -1.1992486 0
-13.178771 -18.713531 -1.1995255 0
-13.108054 -18.746315 -1.1988029 0
-13.067535 -18.822435 -1.2008622 0
-12.995639 -18.853497 -1.2000574 0
-12.926549 -18.888481 -1.1995188 0
-12.843257 -18.902443 -1.197664 0
-12.807592 -18.986586 -1.2002678 0
-12.739197 -19.022453 -1.1998284 0
-12.650586 -19.027817 -1.1974846 0
-12.619813 -19.120266 -1.2006332 0
-12.542078 -19.141781 -1.1993368 0
-12.474458 -19.178541 -1.1990128 0
-12.408076 -19.217146 -1.1988187 0
-12.361195 -19.286129 -1.2005298 0
-12.255862 -19.263651 -1.196566 0
-12.214392 -19.341349 -1.1988417 0
-12.153207 -19.388145 -1.1992098 0
-12.059836 -19.383303 -1.1964027 0
-12.038661 -19.494688 -1.2007796 0
-11.952886 -19.501747 -1.1987391 0
-11.926704 -19.60627 -1.2026992 0
-11.837494 -19.607378 -1.2003257 0
-11.785957 -19.670773 -1.2017808 0
-11.674248 -19.633335 -1.1970955 0
-11.618991 -19.690392 -1.1981924 0
-11.569851 -19.758173 -1.1999496 0
-11.476721 -19.750696 -1.197152 0
-11.435313 -19.832211 -1.1997621 0
-11.365831 -19.865328 -1.1994535 0
-11.316817 -19.934423 -1.2013276 0
-11.234736 -19.945301 -1.1997064 0
-11.188193 -20.019348 -1.2018971 0
-11.09234 -20.005043 -1.1987989 0
-11.03198 -20.054436 -1.1995354 0
-10.963484 -20.089123 -1.1994047 0
-10.892373 -20.118944 -1.1989981 0
-10.838125 -20.180056 -1.2004677 0
-10.746859 -20.172085 -1.1978433 0
-10.686319 -20.22154 -1.1986458 0
-10.668418 -20.352564 -1.2042853 0
-10.550424 -20.292633 -1.1986392 0
-10.481172 -20.325653 -1.1985071 0
-10.427641 -20.389376 -1.2001963 0
-10.351803 -20.409597 -1.1993369 0
-10.29195 -20.461359 -1.200344 0
-10.23234 -20.513897 -1.2014067 0
-10.166015 -20.553165 -1.2017035 0
-10.096649 -20.586323 -1.2016562 0
-10.014021 -20.592197 -1.2000325 0
-9.9319258 -20.598701 -1.1984642 0
-9.8728571 -20.65291 -1.1996855 0
-9.7923489 -20.662249 -1.1983141 0
-9.7049112 -20.656425 -1.1960825 0
-9.6644535 -20.750801 -1.1996642 0
-9.6197042 -20.836977 -1.2027748 0
-9.5304441 -20.826843 -1.2003386 0
-9.4797859 -20.901064 -1.2027776 0
-9.4006739 -20.912748 -1.2016295 0
-9.32022 -20.921064 -1.2003051 0
-9.2568398 -20.967636 -1.2011896 0
-9.1758213 -20.974174 -1.199795 0
-9.122036 -21.043089 -1.2019808 0
-9.0242834 -21.010349 -1.1983757 0
-8.9328508 -20.991285 -1.1955733 0
-8.8707037 -21.040766 -1.1966908 0
-8.8395691 -21.164873 -1.202057 0
-8.7543116 -21.159956 -1.200104 0
-8.6842947 -21.191572 -1.2002391 0
-8.6074114 -21.206322 -1.1994332 0
-8.5418758 -21.249027 -1.200222 0
-8.4793348 -21.29953 -1.2014619 0
-8.3956823 -21.296913 -1.1997198 0
-8.3050718 -21.275862 -1.1969585 0
-8.2478886 -21.340321 -1.1990224 0
-8.1870451 -21.395958 -1.2005993 0
-8.1171446 -21.428255 -1.2008778 0
-8.0263939 -21.405054 -1.1980627 0
-7.9473262 -21.412296 -1.1969699 0
-7.8998718 -21.505194 -1.2006756 0
-7.8438282 -21.575855 -1.2031457 0
-7.7496786 -21.541533 -1.1997761 0
-7.6782317 -21.5697 -1.1999043 0
-7.5970359 -21.570244 -1.1985108 0
-7.5378137 -21.633308 -1.2006038 0
-7.4575815 -21.636244 -1.1993724 0
-7.3895216 -21.674395 -1.2001071 0
-7.3249788 -21.723276 -1.201447 0
-7.2456927 -21.728489 -1.200385 0
-7.1812668 -21.778336 -1.2018018 0
-7.0945444 -21.760382 -1.1994917 0
-7.0061269 -21.736208 -1.1968577 0
-6.940886 -21.783667 -1.1981827 0
-6.8570037 -21.772501 -1.1962973 0
-6.8211784 -21.914927 -1.2028594 0
-6.7285695 -21.875595 -1.1994556 0
-6.6604633 -21.915392 -1.2004066 0
-6.5926695 -21.956656 -1.2014493 0
-6.521944 -21.988508 -1.2019889 0
-6.4322333 -21.955807 -1.1990157 0
-6.3535295 -21.95978 -1.1980627 0
-6.2885375 -22.011309 -1.1997168 0
-6.2096391 -22.01432 -1.1987394 0
-6.1422744 -22.058287 -1.2000054 0
-6.0707445 -22.087713 -1.2004923 0
-5.9829564 -22.057442 -1.19775 0
-5.9086404 -22.076153 -1.1976835 0
-5.842649 -22.126358 -1.1993377 0
-5.7747188 -22.169966 -1.2006452 0
-5.7152023 -22.247 -1.2037725 0
-5.6205993 -22.187162 -1.1995083 0
-5.5559621 -22.245052 -1.2016243 0
-5.47999 -22.258043 -1.2013267 0
-5.4011645 -22.259117 -1.2004005 0
-5.3140259 -22.224915 -1.1975884 0
-5.2446761 -22.264664 -1.1987761 0
-5.1737289 -22.298206 -1.1996413 0
-5.1065278 -22.348642 -1.201427 0
-5.0298033 -22.357794 -1.2010056 0
-4.9610281 -22.402594 -1.2025119 0
-4.8707356 -22.349573 -1.1987826 0
-4.8014297 -22.392153 -1.2001961 0
-4.7224822 -22.389902 -1.1992201 0
-4.648324 -22.410128 -1.1994619 0
-4.5725465 -22.422573 -1.1993008 0
-4.4989214 -22.445658 -1.1997218 0
-4.4256835 -22.470991 -1.200276 0
-4.339879 -22.431749 -1.197396 0
-4.2805638 -22.529957 -1.2018654 0
-4.2003002 -22.51898 -1.2005219 0
-4.1266384 -22.543118 -1.2010643 0
-4.0531144 -22.56842 -1.2016817 0
-3.9744577 -22.565042 -1.2007855 0
-3.9103773 -22.645407 -1.2043576 0
-3.8218591 -22.58411 -1.2004094 0
-3.7498221 -22.619144 -1.2015965 0
-3.6656852 -22.580595 -1.198889 0
-3.5886207 -22.584354 -1.1984431 0
-3.5179999 -22.629196 -1.2001899 0
-3.4369121 -22.606684 -1.1983781 0
-3.3737478 -22.703215 -1.2028887 0
-3.293371 -22.685204 -1.2013427 0
-3.216877 -22.693182 -1.2011873 0
-3.1357708 -22.667681 -1.1992742 0
-3.0615609 -22.691467 -1.1999829 0
-2.9855616 -22.702353 -1.2000223 0
-2.9148114 -22.754257 -1.2022426 0
-2.8309526 -22.703341 -1.1990442 0
-2.7587397 -22.74505 -1.2007518 0
-2.6781855 -22.717876 -1.1988364 0
-2.6064961 -22.765982 -1.2009071 0
-2.5264809 -22.741554 -1.1991649 0
-2.4541178 -22.7861 -1.2010733 0
-2.3714397 -22.734125 -1.1979077 0
-2.2976875 -22.766563 -1.1992043 0
-2.2246947 -22.808506 -1.201014 0
-2.1438086 -22.769096 -1.1985536 0
-2.0692661 -22.796095 -1.1996028 0
-1.989791 -22.768206 -1.1977774 0
-1.9179081 -22.827902 -1.2005728 0
-1.8395368 -22.8116 -1.1993842 0
-1.764607 -22.837873 -1.2004479 0
-1.6861922 -22.818844 -1.1991438 0
-1.6105832 -22.837242 -1.19982 0
-1.5324963 -22.820047 -1.19864 0
-1.4537315 -22.789864 -1.1967919 0
-1.3788774 -22.820496 -1.198151 0
-1.3014643 -22.809349 -1.1973299 0
-1.2256576 -22.826174 -1.1979907 0
-1.1515365 -22.878187 -1.2005111 0
-1.0736803 -22.857578 -1.199234 0
-0.99845487 -22.893557 -1.2009392 0
-0.92142689 -22.890202 -1.2005944 0
-0.84474385 -22.895025 -1.2006921 0
-0.7662037 -22.844873 -1.1979204 0
-0.69080275 -22.887003 -1.2000015 0
-0.61419815 -22.894222 -1.2002653 0
-0.5370813 -22.8811 -1.1994761 0
-0.46077335 -22.903204 -1.2005472 0
-0.38289404 -22.839804 -1.1971498 0
-0.30734268 -22.917641 -1.2011689 0
-0.2301933 -22.887806 -1.199558 0
-0.15372743 -22.929304 -1.2016991 0
-0.076669522 -22.87616 -1.1988937 0
3.0413468e-05 -22.92251 -1.201316 0
0.076851197 -22.912224 -1.2007837 0
0.15346345 -22.880873 -1.1991609 0
0.23044787 -22.907072 -1.2005677 0
0.30751663 -22.926075 -1.2016109 0
0.38373229 -22.886183 -1.1995808 0
0.46045303 -22.884262 -1.1995543 0
0.53772372 -22.905876 -1.200775 0
0.61450309 -22.903322 -1.2007425 0
0.69005811 -22.860319 -1.1986024 0
0.76620722 -22.843168 -1.1978313 0
0.84467024 -22.89138 -1.2005011 0
0.91995138 -22.852039 -1.1985929 0
0.99918127 -22.908815 -1.2017398 0
1.0739571 -22.862177 -1.1994754 0
1.152045 -22.887083 -1.2009779 0
1.227249 -22.854681 -1.1994869 0
1.3022686 -22.82238 -1.198014 0
1.3796237 -22.831841 -1.1987468 0
1.4596106 -22.881073 -1.2015818 0
1.5324914 -22.819067 -1.1985887 0
1.609084 -22.815123 -1.1986581 0
1.6880555 -22.843237 -1.2004259 0
1.7652593 -22.845526 -1.2008505 0
1.8420295 -22.841755 -1.2009701 0
1.9161675 -22.806459 -1.1994454 0
1.9941653 -22.81756 -1.2003741 0
2.0713882 -22.8188 -1.2007979 0
2.1483264 -22.816427 -1.2010454 0
2.2181692 -22.74098 -1.1974586 0
2.3018777 -22.807476 -1.2013597 0
2.3722718 -22.741516 -1.1982975 0
2.4539602 -22.784071 -1.2009666 0
2.5345831 -22.813932 -1.2029818 0
2.5995157 -22.704481 -1.1976632 0
2.6802962 -22.73526 -1.1997541 0
2.7558599 -22.7208 -1.199472 0
2.8276207 -22.67613 -1.1976075 0
2.913064 -22.740137 -1.2014971 0
2.9891999 -22.729549 -1.2014604 0
3.0667751 -22.72966 -1.202003 0
3.1400564 -22.698215 -1.2008901 0
3.2166159 -22.690907 -1.2010673 0
3.2977483 -22.71493 -1.2029173 0
3.3643003 -22.639223 -1.1994988 0
3.4445882 -22.656769 -1.2010336 0
3.522455 -22.657459 -1.2016894 0
3.5881822 -22.581209 -1.1982766 0
3.6676362 -22.592236 -1.1995076 0
3.7441094 -22.584312 -1.1997467 0
3.8092008 -22.508945 -1.1964147 0
3.8974628 -22.570261 -1.2003616 0
3.9717958 -22.54958 -1.1999632 0
4.0404372 -22.49749 -1.1979054 0
4.1309223 -22.566183 -1.2022939 0
4.1930208 -22.479624 -1.1984243 0
4.2806726 -22.530203 -1.2018793 0
4.3425078 -22.445019 -1.198105 0
4.4161153 -22.422096 -1.197665 0
4.4938183 -22.419889 -1.1983452 0
4.5777922 -22.447994 -1.2006611 0
4.6590667 -22.461618 -1.2022185 0
4.7243118 -22.398279 -1.1996695 0
4.8010707 -22.390188 -1.2000915 0
4.8719964 -22.355074 -1.1990782 0
4.9513593 -22.358652 -1.2001538 0
5.0229445 -22.32703 -1.1993537 0
5.1110291 -22.368071 -1.2024721 0
5.1700673 -22.282158 -1.1987786 0
5.2580047 -22.320982 -1.201809 0
5.3316526 -22.298372 -1.2015475 0
5.3958097 -22.236792 -1.1991973 0
5.4864426 -22.283997 -1.2027283 0
5.5364227 -22.166571 -1.1973857 0
5.6196451 -22.183147 -1.1992921 0
5.6951885 -22.168848 -1.1995447 0
5.7718153 -22.158579 -1.2000294 0
5.8536758 -22.167879 -1.2015892 0
5.9218993 -22.125458 -1.2003592 0
5.9978223 -22.112017 -1.2007143 0
6.0769529 -22.110073 -1.2017083 0
6.1429229 -22.060389 -1.2001206 0
6.2051535 -21.998192 -1.1978621 0
6.3041849 -22.065857 -1.2026908 0
6.3455491 -21.93198 -1.1965468 0
6.4242191 -21.928234 -1.1975108 0
6.5165782 -21.970205 -1.2009894 0
6.5707941 -21.883591 -1.1974522 0
6.6566696 -21.9027 -1.1997124 0
6.7285466 -21.875313 -1.1994412 0
6.8156691 -21.89702 -1.2018776 0
6.8808756 -21.848099 -1.200452 0
6.9473929 -21.803888 -1.199296 0
7.026495 -21.799202 -1.2003273 0
7.0901132 -21.746593 -1.1987327 0
7.1592927 -21.7115 -1.1981148 0
7.2358918 -21.698904 -1.1987517 0
7.3115082 -21.683136 -1.199228 0
7.4054875 -21.721037 -1.2026907 0
7.459044 -21.640301 -1.1995983 0
7.5389276 -21.63632 -1.2007722 0
7.6113706 -21.61076 -1.2007631 0
7.6850891 -21.588783 -1.2009671 0
7.7428575 -21.522392 -1.1987112 0
7.8109889 -21.485348 -1.1980999 0
7.8756571 -21.4391 -1.1969866 0
7.9822836 -21.506306 -1.2022263 0
8.0281544 -21.409576 -1.1983171 0
8.1028824 -21.390434 -1.1987594 0
8.1739788 -21.361641 -1.198675 0
8.2499475 -21.345482 -1.1993135 0
8.3401995 -21.365685 -1.2020131 0
8.4089451 -21.330393 -1.201607 0
8.4566755 -21.242447 -1.1982433 0
8.557374 -21.287416 -1.2023916 0
8.6086044 -21.209103 -1.1995916 0
8.6827183 -21.187569 -1.2000135 0
8.7456875 -21.13895 -1.1989141 0
8.8244257 -21.128454 -1.1999899 0
8.8816328 -21.066532 -1.1981577 0
8.9598007 -21.054461 -1.1991729 0
9.0422449 -21.052015 -1.2007536 0
9.1084824 -21.011671 -1.2001876 0
9.1789827 -20.981249 -1.200201 0
9.2568922 -20.967604 -1.2011892 0
9.3176317 -20.915106 -1.1999646 0
9.3811884 -20.869253 -1.1991317 0
9.4764709 -20.893608 -1.20235 0
9.5211563 -20.806398 -1.1991618 0
9.6109533 -20.817877 -1.2016737 0
9.6624489 -20.746355 -1.1994085 0
9.7300329 -20.709755 -1.1991719 0
9.802084 -20.682648 -1.1994985 0
9.8960648 -20.701317 -1.2024988 0
9.9300518 -20.594675 -1.1982315 0
10.011136 -20.586128 -1.1996803 0
10.084836 -20.562101 -1.2002438 0
10.148082 -20.516771 -1.1995772 0
10.224404 -20.49785 -1.2004685 0
10.32235 -20.52166 -1.2038831 0
10.345962 -20.397947 -1.1986538 0
10.431334 -20.396463 -1.2006152 0
10.469701 -20.303276 -1.1971892 0
10.587412 -20.363644 -1.2028352 0
10.594752 -20.211897 -1.1959635 0
10.698224 -20.24394 -1.1999751 0
10.76057 -20.197691 -1.1993655 0
10.852489 -20.206673 -1.2020528 0
10.896035 -20.12558 -1.1993953 0
10.970515 -20.101879 -1.2001681 0
11.032848 -20.055889 -1.1996242 0
11.121223 -20.057009 -1.2019147 0
11.177262 -19.999664 -1.2007172 0
11.257655 -19.985867 -1.2021482 0
11.296849 -19.899126 -1.1992023 0
11.370575 -19.873497 -1.1999485 0
11.440656 -19.841352 -1.200317 0
11.518852 -19.823082 -1.2015413 0
11.557151 -19.736362 -1.198627 0
11.630267 -19.709381 -1.1993498 0
11.68159 -19.645565 -1.1978431 0
11.789579 -19.676699 -1.2021447 0
11.846281 -19.621815 -1.2012115 0
11.899471 -19.561384 -1.1999477 0
11.982574 -19.550068 -1.2017113 0
12.026468 -19.474827 -1.1995583 0
12.074289 -19.406418 -1.1978314 0
12.154231 -19.389666 -1.1993058 0
12.252328 -19.401306 -1.2025601 0
12.296047 -19.3267 -1.2004844 0
12.32972 -19.236912 -1.1974682 0
12.456872 -19.292606 -1.2035282 0
12.472087 -19.174786 -1.1987801 0
12.546014 -19.147676 -1.1997082 0
12.614215 -19.111675 -1.2000958 0
12.677273 -19.067848 -1.200006 0
12.724998 -19.001143 -1.1984863 0
12.781029 -18.947098 -1.1977736 0
12.866807 -18.936995 -1.1998554 0
12.91123 -18.86599 -1.1980926 0
13.025075 -18.896095 -1.2027711 0
13.038326 -18.780256 -1.1981734 0
13.140913 -18.793201 -1.2018036 0
13.156148 -18.681303 -1.1974618 0
13.240633 -18.667997 -1.1994479 0
13.325619 -18.654955 -1.2014738 0
13.338445 -18.541162 -1.1970185 0
13.459575 -18.577827 -1.2022923 0
13.530387 -18.544384 -1.2030571 0
13.576369 -18.476978 -1.2016305 0
13.621367 -18.408548 -1.2001436 0
13.680568 -18.359497 -1.1999294 0
13.732982 -18.301445 -1.1991377 0
13.805782 -18.270538 -1.2001389 0
13.867929 -18.22542 -1.2002226 0
13.945861 -18.20088 -1.2016791 0
13.983662 -18.124022 -1.1996934 0
14.043069 -18.075388 -1.199584 0
14.090803 -18.011852 -1.1984961 0
14.161362 -17.977516 -1.1993641 0
14.20836 -17.913296 -1.198251 0
14.278962 -17.878859 -1.1991431 0
14.350051 -17.844841 -1.2000818 0
14.432351 -17.824478 -1.2019598 0
14.459055 -17.735538 -1.1992247 0
14.528234 -17.698895 -1.2000339 0
14.572803 -17.632311 -1.1988254 0
14.63314 -17.584915 -1.1989321 0
14.686724 -17.529438 -1.1985002 0
14.811072 -17.557932 -1.2038368 0
14.799794 -17.42568 -1.1981646 0
14.858915 -17.376873 -1.1982274 0
14.905852 -17.313898 -1.1973245 0
15.00036 -17.305983 -1.2002482 0
15.015256 -17.206268 -1.1968175 0
15.105525 -17.193007 -1.1994112 0
15.175864 -17.156712 -1.2004219 0
15.226786 -17.098415 -1.1999084 0
15.297592 -17.062395 -1.2009733 0
15.32269 -16.975533 -1.1984686 0
15.380762 -16.92543 -1.1985655 0
15.489842 -16.931063 -1.2026353 0
15.512922 -16.842552 -1.200036 0
15.589129 -16.811827 -1.2015641 0
15.620505 -16.732788 -1.1996515 0
15.645555 -16.647373 -1.197282 0
15.738747 -16.634418 -1.2001387 0
15.80789 -16.595688 -1.2011615 0
15.838457 -16.516537 -1.1992695 0
15.917203 -16.48764 -1.2010396 0
15.967294 -16.428932 -1.2006561 0
16.027267 -16.380396 -1.2010293 0
16.074137 -16.318483 -1.2004347 0
16.100933 -16.236439 -1.1983637 0
16.186152 -16.213287 -1.2006537 0
16.238918 -16.157433 -1.2005426 0
16.291122 -16.10104 -1.2004043 0
16.38209 -16.082727 -1.2031271 0
16.381176 -15.974325 -1.1991198 0
16.407579 -15.893098 -1.1971452 0
16.511215 -15.886529 -1.2008137 0
16.53788 -15.805749 -1.1988921 0
16.576401 -15.736559 -1.1978528 0
16.669836 -15.719337 -1.2007896 0
16.714783 -15.656178 -1.2002393 0
16.783989 -15.615687 -1.2014424 0
16.803122 -15.528709 -1.1990783 0
16.888853 -15.503276 -1.20148 0
16.938829 -15.444823 -1.2013447 0
16.982197 -15.380406 -1.2007563 0
16.994299 -15.287967 -1.1979811 0
17.081081 -15.26273 -1.2004845 0
17.138149 -15.21069 -1.2009043 0
17.230028 -15.189268 -1.2037671 0
17.26576 -15.118193 -1.2027153 0
17.293417 -15.040273 -1.2011224 0
17.344772 -14.983092 -1.2011935 0
17.34947 -14.885868 -1.1980556 0
17.429884 -14.853693 -1.2001628 0
17.464981 -14.782806 -1.1991597 0
17.531254 -14.738296 -1.2003105 0
17.592773 -14.689625 -1.2011437 0
1.509503 -1.25184 -0.10277393 0
1.4591385 -1.2018384 -0.099069975 0
1.4622853 -1.196224 -0.099010758 0
1.4479508 -1.1764163 -0.097772561 0
1.5414293 -1.2438084 -0.10380249 0
1.4928735 -1.1963857 -0.10026198 0
1.5092753 -1.201242 -0.10109247 0
1.5273432 -1.2072797 -0.10203096 0
1.5227625 -1.1953853 -0.10145665 0
1.533631 -1.1956284 -0.10191312 0
1.5507329 -1.2006234 -0.1027815 0
1.5522726 -1.1935128 -0.10261774 0
1.5269698 -1.1659327 -0.10068604 0
1.5582763 -1.1815873 -0.10248853 0
1.5801878 -1.1898791 -0.10366669 0
1.4892496 -1.113598 -0.097455285 0
1.5736543 -1.1685065 -0.10272171 0
1.5563328 -1.1475694 -0.10133931 0
1.5844356 -1.1601107 -0.10291535 0
1.5834587 -1.1512601 -0.10260059 0
1.5825895 -1.1425369 -0.10229549 0
1.5875297 -1.1380261 -0.1023676 0
1.5725552 -1.1193287 -0.10115944 0
1.5836824 -1.1192681 -0.10163327 0
1.5801938 -1.1088767 -0.10117021 0
1.6324019 -1.1373638 -0.10426805 0
1.6272175 -1.1256663 -0.10369525 0
1.6135499 -1.1082309 -0.10258691 0
1.6083136 -1.0967165 -0.10201963 0
1.6691884 -1.1300472 -0.10564015 0
1.6195834 -1.0885633 -0.10226917 0
1.6473659 -1.0992362 -0.10379021 0
1.6358531 -1.0836449 -0.10283536 0
1.6091435 -1.0582061 -0.1009327 0
1.6953804 -1.1067926 -0.10610851 0
1.6618761 -1.0769906 -0.10378499 0
1.6874486 -1.0855466 -0.10515412 0
1.64138 -1.0481464 -0.10206377 0
1.6903389 -1.071449 -0.10488415 0
1.7105532 -1.0762397 -0.10591393 0
1.6942436 -1.0580655 -0.10468382 0
1.7137135 -1.0622547 -0.10566618 0
1.7365294 -1.0683545 -0.10685152 0
1.7429123 -1.0642426 -0.10702412 0
1.7524452 -1.0620135 -0.10739023 0
1.7843727 -1.0731989 -0.10912564 0
1.7222143 -1.027967 -0.1051129 0
1.764006 -1.0449063 -0.10744916 0
1.7977941 -1.056794 -0.10929082 0
1.7289526 -1.0085425 -0.10489968 0
1.7692262 -1.0241003 -0.10713425 0
1.778427 -1.0214808 -0.1074834 0
1.7896676 -1.0199724 -0.10795546 0
1.7571132 -0.99362904 -0.10579018 0
1.8182836 -1.0201895 -0.1092665 0
1.8029634 -1.0036607 -0.10814303 0
1.7992177 -0.99368846 -0.10771792 0
1.8042969 -0.98861349 -0.10782295 0
1.8254015 -0.99223411 -0.10888473 0
1.8378482 -0.99103153 -0.10942835 0
1.8884691 -1.0101701 -0.11224011 0
1.7833407 -0.94625902 -0.10580271 0
1.8500388 -0.97371453 -0.10956548 0
1.8408872 -0.96102977 -0.10883205 0
1.8648005 -0.96557122 -0.11005379 0
1.8384669 -0.94413286 -0.10831224 0
1.8840439 -0.95956957 -0.11080723 0
1.8978494 -0.95860082 -0.11142952 0
1.8699106 -0.93663329 -0.10960414 0
1.893768 -0.9406541 -0.11081704 0
1.8880929 -0.92995602 -0.11030187 0
1.9494294 -0.9520582 -0.11369802 0
1.9089127 -0.92435688 -0.11115355 0
1.8977138 -0.9110921 -0.11032296 0
1.914541 -0.91128486 -0.11112296 0
1.9542428 -0.92215824 -0.11324722 0
1.9242254 -0.90011811 -0.11133222 0
1.9790519 -0.91769022 -0.11432572 0
1.9504921 -0.89651352 -0.1125016 0
1.9647392 -0.89509511 -0.11314961 0
1.9892319 -0.89821196 -0.11438607 0
1.9634838 -0.87867224 -0.11273545 0
1.9681338 -0.8728447 -0.11283378 0
1.9378496 -0.85165036 -0.11093324 0
1.9928617 -0.86786669 -0.11391523 0
1.9858596 -0.8569079 -0.11335012 0
2.0077317 -0.85837239 -0.11443363 0
2.0433142 -0.86549354 -0.11629565 0
2.050596 -0.86048061 -0.11654525 0
2.008081 -0.83473307 -0.1139692 0
2.013166 -0.8289417 -0.11409941 0
2.069073 -0.84385979 -0.11710703 0
2.0912788 -0.84474945 -0.11820288 0
2.0482767 -0.81940192 -0.11561638 0
2.0532007 -0.81339675 -0.11573974 0
2.0827055 -0.8170172 -0.11724786 0
2.0614803 -0.80072582 -0.11590117 0
2.0630071 -0.79336882 -0.11583682 0
2.0960832 -0.79803205 -0.11754312 0
2.1169121 -0.79784608 -0.11856049 0
2.0880966 -0.77900028 -0.11679969 0
2.0934103 -0.7729969 -0.11695129 0
21.531616 -7.868669 -1.2014133 0
21.552628 -7.7945347 -1.2011206 0
21.536074 -7.7069955 -1.1987512 0
21.572819 -7.6386499 -1.1993642 0
21.613207 -7.5714974 -1.2001916 0
21.638964 -7.4991603 -1.2002189 0
21.632835 -7.4158883 -1.1984931 0
21.687651 -7.3535123 -1.2001574 0
21.750969 -7.2937627 -1.2023013 0
21.735958 -7.2077479 -1.2001289 0
21.77824 -7.1408114 -1.2011348 0
21.770647 -7.0575695 -1.1994042 0
21.828426 -6.9955096 -1.2012885 0
21.840389 -6.9186821 -1.2006634 0
21.83646 -6.8369617 -1.1991806 0
21.896683 -6.7752891 -1.2012335 0
21.885239 -6.6914282 -1.1993681 0
21.916414 -6.6206918 -1.1998534 0
21.939716 -6.5475388 -1.1999205 0
21.944674 -6.4689693 -1.1989988 0
22.060242 -6.4227247 -1.2041297 0
21.973677 -6.3176804 -1.1982417 0
21.995197 -6.2441025 -1.1982669 0
22.041954 -6.1775932 -1.199679 0
22.055307 -6.1016541 -1.1992855 0
22.080122 -6.0288963 -1.1995291 0
22.069519 -5.9465618 -1.1978631 0
22.213425 -5.9055238 -1.2045923 0
22.143661 -5.8075562 -1.1997466 0
22.132713 -5.7254434 -1.1981066 0
22.203669 -5.6644406 -1.2009128 0
22.169983 -5.5767446 -1.1980729 0
22.18832 -5.5023227 -1.19806 0
22.235479 -5.434947 -1.1996158 0
22.249531 -5.3593907 -1.1993978 0
22.232683 -5.2765284 -1.1975292 0
22.310137 -5.2159581 -1.2007524 0
22.330524 -5.1418238 -1.200915 0
22.339672 -5.0651183 -1.2004869 0
22.356552 -4.9901943 -1.2004882 0
22.353586 -4.9109097 -1.199438 0
22.386196 -4.8394513 -1.2003103 0
22.383598 -4.7603912 -1.1993086 0
22.389252 -4.683187 -1.1987634 0
22.445459 -4.6164508 -1.2009374 0
22.444 -4.5377703 -1.2000384 0
22.44837 -4.4603648 -1.1994659 0
22.46591 -4.3856039 -1.1996106 0
22.511602 -4.3162208 -1.2012709 0
22.500744 -4.2359748 -1.199927 0
22.495216 -4.1568875 -1.1988821 0
22.516464 -4.0827904 -1.1992782 0
22.553949 -4.011529 -1.2005516 0
22.560869 -3.9347708 -1.200211 0
22.529575 -3.8515227 -1.1978525 0
22.617496 -3.7885489 -1.2018449 0
22.603373 -3.7083154 -1.2004271 0
22.600647 -3.6300952 -1.1996292 0
22.582344 -3.5495291 -1.1980193 0
22.587357 -3.4727552 -1.1976607 0
22.672716 -3.4081044 -1.2015741 0
22.659876 -3.328522 -1.2002954 0
22.6287 -3.2464738 -1.1980608 0
22.703901 -3.1796107 -1.2014711 0
22.710642 -3.1029527 -1.2012705 0
22.676632 -3.0208912 -1.198929 0
22.704453 -2.9471567 -1.1998707 0
22.737141 -2.8739154 -1.2010822 0
22.692106 -2.7909577 -1.1982023 0
22.763968 -2.7223496 -1.201508 0
22.735435 -2.6416502 -1.1995279 0
22.753086 -2.5664141 -1.1999984 0
22.724846 -2.4860959 -1.1980627 0
22.751829 -2.4118803 -1.1990521 0
22.773853 -2.3370275 -1.1997931 0
22.84893 -2.2673433 -1.2033412 0
22.795235 -2.1848595 -1.2001208 0
22.790176 -2.1072857 -1.1994758 0
22.799765 -2.0310988 -1.1996151 0
22.828903 -1.956569 -1.2007965 0
22.842018 -1.8805671 -1.2011479 0
22.767935 -1.7976346 -1.1969285 0
22.894581 -1.7304143 -1.2032746 0
22.802824 -1.6466079 -1.1981553 0
22.830959 -1.5717107 -1.19935 0
22.834967 -1.4950798 -1.1992905 0
22.888916 -1.4215572 -1.2018667 0
22.833887 -1.341302 -1.1987343 0
22.829647 -1.2642602 -1.1982826 0
22.836464 -1.1878502 -1.1984246 0
22.819595 -1.110269 -1.1973373 0
22.907652 -1.0375786 -1.2017682 0
22.894466 -0.96007431 -1.2009009 0
22.841484 -0.881145 -1.1979601 0
22.909254 -0.80684412 -1.2013658 0
22.853949 -0.72818488 -1.1983308 0
22.863173 -0.65175283 -1.198693 0
22.89332 -0.57579982 -1.2001657 0
22.865082 -0.49838483 -1.198591 0
22.892899 -0.42220426 -1.1999682 0
22.867285 -0.34504041 -1.1985582 0
22.84576 -0.26810414 -1.1973763 0
22.914677 -0.19207633 -1.2009478 0
22.881907 -0.11507926 -1.1992034 0
22.886967 -0.038367946 -1.199455 0
22.910143 0.0384068 -1.2006696 0
22.948404 0.11541369 -1.2026883 0
22.887058 0.19184482 -1.1995002 0
22.865744 0.26833865 -1.1984236 0
22.893612 0.34543768 -1.1999382 0
22.907349 0.42247075 -1.2007256 0
22.929014 0.49977833 -1.2019423 0
22.86297 0.57503647 -1.1985747 0
22.913363 0.65318358 -1.2013245 0
22.942589 0.73100919 -1.2029785 0
22.8631 0.80521864 -1.1989454 0
22.897509 0.88330621 -1.2008984 0
22.839108 0.95775282 -1.1979971 0
22.864643 1.0356305 -1.1995119 0
22.844618 1.1114864 -1.1986501 0
22.834272 1.1877363 -1.1983095 0
22.850569 1.2654186 -1.1993806 0
22.843092 1.3418428 -1.1992176 0
22.842854 1.4186963 -1.199448 0
22.826166 1.4945034 -1.1988282 0
22.875013 1.5747434 -1.2016642 0
22.842024 1.6494384 -1.200215 0
22.81378 1.7243072 -1.199028 0
22.779366 1.7985373 -1.1975294 0
22.788607 1.8761697 -1.1983392 0
22.800535 1.9541376 -1.1993043 0
22.81893 2.0328062 -1.2006235 0
22.856846 2.1134503 -1.2029846 0
22.82563 2.1877728 -1.201721 0
22.819052 2.2643783 -1.2017676 0
22.756418 2.3352382 -1.1988746 0
22.808823 2.417922 -1.2020558 0
22.767128 2.4907217 -1.2002918 0
22.718538 2.5625174 -1.1981764 0
22.779243 2.6467404 -1.2018392 0
22.7822 2.7245302 -1.2024704 0
22.738749 2.7966943 -1.2006651 0
22.713625 2.8709431 -1.1998401 0
22.74387 2.9522734 -1.2019539 0
22.747395 3.030318 -1.2026703 0
22.668663 3.0972173 -1.1990501 0
22.650442 3.1721239 -1.198642 0
22.643671 3.2486215 -1.1988534 0
22.683561 3.3320012 -1.2015501 0
22.661964 3.4064882 -1.2010043 0
22.654015 3.4830039 -1.2011952 0
22.588842 3.5505505 -1.1983639 0
22.574921 3.625963 -1.1982636 0
22.559404 3.701102 -1.198092 0
22.589808 3.783911 -1.2003736 0
22.58666 3.8612816 -1.2008876 0
22.538963 3.9309502 -1.1990457 0
22.487925 3.9997857 -1.1970372 0
22.492113 4.0783749 -1.1979812 0
22.484247 4.1548605 -1.1982975 0
22.530914 4.2416544 -1.2015358 0
22.527184 4.3192081 -1.2021024 0
22.499796 4.3922186 -1.2014199 0
22.434004 4.45751 -1.1986982 0
22.44631 4.5382371 -1.2001621 0
22.445686 4.616497 -1.2009495 0
22.505873 4.7075806 -1.2050076 0
22.400179 4.7639174 -1.2001969 0
22.401733 4.8428106 -1.2011435 0
22.359962 4.9123101 -1.1997801 0
22.30196 4.9780087 -1.1975566 0
22.362612 5.0703197 -1.2017196 0
22.300844 5.1349893 -1.1993188 0
22.326561 5.2197981 -1.2016363 0
22.328955 5.2993765 -1.2027146 0
22.270399 5.3644171 -1.2005227 0
22.237011 5.4353209 -1.1996984 0
22.231318 5.5129857 -1.2003818 0
22.237667 5.59377 -1.2017305 0
22.171349 5.6561952 -1.1991647 0
22.153259 5.7307582 -1.1992189 0
22.154125 5.8103004 -1.2003136 0
22.092066 5.8732605 -1.1980114 0
22.059471 5.9438543 -1.1973177 0
22.097698 6.0336957 -1.2004839 0
22.063343 6.1038775 -1.1997225 0
22.00803 6.1680851 -1.1978326 0
22.056158 6.2614083 -1.2015879 0
22.011883 6.3286653 -1.2003251 0
22.005392 6.4067554 -1.2011358 0
21.962063 6.4740953 -1.1999489 0
21.944664 6.5490155 -1.2001911 0
21.895582 6.6143985 -1.1987129 0
21.939196 6.7079263 -1.2023252 0
21.902573 6.7771115 -1.2015567 0
21.820267 6.831892 -1.1982913 0
21.868254 6.9275088 -1.2021953 0
21.788803 6.9828115 -1.1991079 0
21.796165 7.0658422 -1.2008102 0
21.797892 7.1472549 -1.2022187 0
21.732002 7.2064362 -1.1999105 0
21.723339 7.2844973 -1.200774 0
21.681252 7.3513427 -1.1998032 0
4.7179575 1.617349 -0.26138228 0
4.673718 1.6197153 -0.25923076 0
4.6395454 1.6253167 -0.25763616 0
4.6380653 1.6422778 -0.25785828 0
4.5113707 1.6144594 -0.25111407 0
4.4815841 1.6207705 -0.24975716 0
4.4888411 1.6404345 -0.2504667 0
4.4177442 1.631263 -0.24680346 0
4.4351163 1.6545962 -0.24808249 0
4.4354529 1.6716841 -0.24841344 0
4.4803209 1.7057719 -0.25124526 0
4.4476237 1.7104187 -0.24973185 0
4.4770904 1.7390039 -0.25171235 0
4.4751663 1.7555472 -0.25193369 0
4.4472904 1.7618401 -0.25069553 0
4.4747748 1.7901093 -0.25258175 0
4.4190683 1.7850349 -0.24977377 0
4.4525609 1.8159518 -0.25200954 0
4.4239469 1.8216054 -0.2507343 0
21.193373 8.8098087 -1.2028359 0
21.10157 8.8547392 -1.1993037 0
21.113544 8.9431362 -1.2016819 0
21.029781 8.9909344 -1.1986234 0
21.035225 9.0767994 -1.2006614 0
20.952374 9.1245003 -1.1976719 0
20.949547 9.2069521 -1.1992681 0
20.916504 9.2762289 -1.1991502 0
20.8734 9.3409872 -1.1984679 0
20.842352 9.4110947 -1.1984901 0
20.802149 9.4770346 -1.1979988 0
20.750486 9.5376396 -1.1968584 0
20.74855 9.6211433 -1.1986005 0
20.745287 9.7042732 -1.200285 0
20.69002 9.7631016 -1.1989744 0
20.681774 9.8441286 -1.2004025 0
20.614895 9.8972082 -1.1984401 0
20.59844 9.9744272 -1.1994209 0
20.595636 10.058454 -1.2012147 0
20.49649 10.095284 -1.1973995 0
20.456583 10.160996 -1.1970516 0
20.483509 10.260136 -1.2006335 0
20.386179 10.297028 -1.1969454 0
20.379883 10.379756 -1.1986123 0
20.399349 10.475955 -1.2018162 0
20.319132 10.521001 -1.1991616 0
20.322037 10.609059 -1.2014256 0
20.227661 10.646246 -1.1979498 0
20.255936 10.74801 -1.2017517 0
20.193758 10.80194 -1.2002047 0
20.16041 10.871193 -1.2003822 0
20.185722 10.97236 -1.2040732 0
20.06765 10.995502 -1.1992226 0
20.024088 11.059087 -1.1988283 0
20.041582 11.156604 -1.2021084 0
19.912294 11.172248 -1.1965938 0
19.962818 11.288763 -1.2018975 0
19.868427 11.323471 -1.1984936 0
19.861065 11.407664 -1.20035 0
19.751648 11.43306 -1.1960472 0
19.807516 11.554234 -1.2017692 0
19.745287 11.606836 -1.200348 0
19.712542 11.676694 -1.2007307 0
19.633169 11.71878 -1.1982825 0
19.628252 11.80528 -1.2003914 0
19.55747 11.852181 -1.1984861 0
19.513578 11.915218 -1.1982379 0
19.528046 12.014122 -1.2015929 0
19.458241 12.061296 -1.1997793 0
19.391642 12.1102 -1.1981697 0
19.338816 12.167527 -1.1974196 0
19.327269 12.250906 -1.1992413 0
19.272896 12.307216 -1.1984211 0
19.290049 12.409414 -1.2020681 0
19.207088 12.44729 -1.1994923 0
19.18391 12.523803 -1.2006603 0
19.106117 12.564579 -1.1984215 0
19.116503 12.663424 -1.2017293 0
19.024071 12.694173 -1.1985875 0
18.993282 12.765869 -1.1993376 0
18.975826 12.84671 -1.2009485 0
18.908813 12.894008 -1.1994365 0
18.866796 12.95824 -1.1995206 0
18.847641 13.038301 -1.2010753 0
18.810688 13.106206 -1.201514 0
18.762398 13.166224 -1.2012424 0
18.685171 13.20575 -1.1991261 0
18.676794 13.293951 -1.2014421 0
18.615591 13.34465 -1.2003765 0
18.56477 13.402676 -1.1999903 0
18.488369 13.442045 -1.1979585 0
18.46685 13.521276 -1.1994948 0
18.43609 13.593939 -1.2004505 0
18.405943 13.667211 -1.2014645 0
18.349936 13.721307 -1.2008048 0
18.268311 13.756009 -1.1984748 0
18.257191 13.843801 -1.2007836 0
18.255816 13.939405 -1.2037603 0
18.132278 13.941564 -1.1986899 0
18.111847 14.02273 -1.2004406 0
18.058861 14.078802 -1.2000507 0
18.010433 14.13839 -1.1999758 0
17.939066 14.179833 -1.1983818 0
17.881514 14.232013 -1.197718 0
17.849375 14.30445 -1.198771 0
17.783182 14.349585 -1.1975499 0
17.779005 14.444904 -1.2005234 0
17.718756 14.494846 -1.1997299 0
17.642723 14.531659 -1.1978741 0
17.631933 14.622269 -1.2004634 0
17.595739 14.692101 -1.2013463 0
17.543697 14.748757 -1.2011625 0
17.442999 14.7642 -1.1976504 0
17.423182 14.847981 -1.1997012 0
17.403818 14.932498 -1.2018086 0
17.340982 14.979819 -1.200931 0
17.273447 15.022905 -1.1997354 0
17.212843 15.071858 -1.1990292 0
17.139023 15.109042 -1.197409 0
17.097225 15.17437 -1.1980367 0
17.062304 15.245951 -1.1991647 0
16.986666 15.281098 -1.1974429 0
16.981894 15.380132 -1.2007349 0
16.98049 15.482809 -1.2042993 0
16.850807 15.46835 -1.1987734 0
16.795427 15.521599 -1.1985292 0
16.772402 15.604906 -1.2006129 0
16.681429 15.624937 -1.1978441 0
16.674723 15.723945 -1.2011416 0
16.586264 15.745922 -1.1985656 0
16.609632 15.874324 -1.2040937 0
16.515005 15.890177 -1.2010893 0
16.444901 15.92925 -1.1998683 0
16.405769 15.998308 -1.2009201 0
16.374149 16.07493 -1.202544 0
16.301241 16.111042 -1.2011499 0
16.245796 16.164276 -1.2010511 0
16.189939 16.217081 -1.2009346 0
16.104208 16.23974 -1.1986074 0
16.061489 16.305645 -1.1994903 0
15.991376 16.343712 -1.1983397 0
15.95354 16.414782 -1.1996218 0
15.895844 16.465515 -1.1994278 0
15.821671 16.499033 -1.1979985 0
15.771622 16.557611 -1.1984056 0
15.702994 16.596632 -1.1974125 0
15.687188 16.691673 -1.2004679 0
15.606285 16.717554 -1.1985594 0
15.547847 16.767305 -1.1983821 0
