# .PCD v0.7 - Point Cloud Data file format
VERSION 0.7
FIELDS x y z intensity
SIZE 4 4 4 4
TYPE F F F F
COUNT 1 1 1 1
WIDTH 1411
HEIGHT 1
VIEWPOINT 0 0 0 1 0 0 0
POINTS 1411
DATA ascii
-9.7328196 -1.2965939 -1.2055959 0
-9.6994629 -1.3252628 -1.2020077 0
-9.667655 -1.3539512 -1.1986217 0
-9.6612806 -1.3861018 -1.1984007 0
-9.6845102 -1.4225895 -1.2018672 0
-9.6632528 -1.4525816 -1.1998267 0
-9.7155991 -1.4937778 -1.2069412 0
-9.6835833 -1.5221075 -1.2035912 0
-9.6099415 -1.5435661 -1.1950747 0
-9.6721621 -1.5868438 -1.2034672 0
-9.6586571 -1.6179019 -1.202455 0
-9.6244326 -1.6453621 -1.1988744 0
-9.5904474 -1.6726661 -1.1953329 0
-9.5541945 -1.6993706 -1.1915178 0
-9.5850773 -1.7380372 -1.1960893 0
-9.6011333 -1.7742182 -1.1988283 0
-9.6467934 -1.8161253 -1.2052833 0
-9.5926828 -1.8392618 -1.1992862 0
-9.5731668 -1.8688185 -1.197623 0
-9.5362997 -1.8948354 -1.193799 0
-9.592392 -1.9394344 -1.2016282 0
-9.5630751 -1.9669037 -1.1987749 0
-9.5930433 -2.0066149 -1.2033682 0
-9.5278196 -2.0263381 -1.1960319 0
-9.5595713 -2.0666163 -1.2008809 0
-9.5710506 -2.1027122 -1.2032018 0
-9.5344381 -2.1282036 -1.1994894 0
-9.5566778 -2.1668313 -1.2031945 0
-9.5237942 -2.1929741 -1.1999733 0
-9.4874039 -2.218117 -1.1963186 0
-9.5221186 -2.2599306 -1.2016447 0
-9.4390821 -2.2736802 -1.1921213 0
-9.4521456 -2.3103843 -1.1947427 0
-9.5354872 -2.3646641 -1.2062724 0
-9.4744778 -2.3832827 -1.1995585 0
-9.4352436 -2.4070783 -1.1956062 0
-9.4561815 -2.4462171 -1.1992919 0
-9.4637022 -2.4820457 -1.2012944 0
-9.4373608 -2.5089853 -1.1990118 0
-9.4592266 -2.5487857 -1.2028688 0
-9.4166479 -2.571208 -1.1985439 0
-9.3758354 -2.5938745 -1.1944495 0
-9.4877481 -2.6591129 -1.2098358 0
-9.4355593 -2.6786392 -1.2043194 0
-9.4156055 -2.7071202 -1.2029244 0
-9.4085703 -2.7392833 -1.2031921 0
-9.3238964 -2.7485752 -1.1935356 0
-9.3272209 -2.7835791 -1.1951491 0
-9.3012896 -2.8098373 -1.1930269 0
-9.3764009 -2.866869 -1.2038871 0
-9.4030523 -2.9095273 -1.2085547 0
-9.3083153 -2.9144464 -1.1976277 0
-9.3300915 -2.9556494 -1.2016976 0
-9.2795362 -2.9739053 -1.1964637 0
-9.2926855 -3.0125134 -1.1994547 0
-9.3063974 -3.0514781 -1.2025385 0
-9.3079014 -3.0865724 -1.2040632 0
-9.2341127 -3.0965066 -1.1958542 0
-9.3199224 -3.1600826 -1.2083323 0
-9.2553072 -3.172812 -1.2013273 0
-9.239686 -3.2021163 -1.2006865 0
-9.2353582 -3.2353404 -1.201527 0
-9.2494602 -3.2751393 -1.2047834 0
-9.1745262 -3.2832644 -1.1964501 0
-9.2196417 -3.3343227 -1.2037848 0
-9.1573229 -3.3465457 -1.1971064 0
-9.167695 -3.385222 -1.1999393 0
-9.2015171 -3.4328117 -1.2058659 0
-9.1021843 -3.430563 -1.1943488 0
-9.1103363 -3.4685638 -1.1969377 0
-9.0840044 -3.4934549 -1.1950103 0
-9.1186781 -3.54193 -1.2011272 0
-9.1264858 -3.580225 -1.2037301 0
-9.0531416 -3.5865238 -1.1956358 0
-9.057951 -3.6236119 -1.1978687 0
-9.098011 -3.675071 -1.2047892 0
-9.0731544 -3.7004628 -1.2031337 0
-9.0867071 -3.7415729 -1.2065876 0
-9.0418062 -3.7585893 -1.202292 0
-9.000844 -3.7770038 -1.1985223 0
-9.0044098 -3.8140566 -1.2006932 0
-8.9727554 -3.8361809 -1.1981807 0
-8.9393578 -3.8574038 -1.1954412 0
-8.9401245 -3.893342 -1.1972827 0
-8.898324 -3.9106829 -1.1934339 0
-8.8689537 -3.9333074 -1.1912569 0
-8.9116468 -3.9880502 -1.1987804 0
-8.868309 -4.0043983 -1.1947501 0
-8.8719683 -4.0419164 -1.197062 0
-8.8689137 -4.0764875 -1.1984874 0
-8.823266 -4.0913939 -1.1941658 0
-8.8686123 -4.1486063 -1.202179 0
-8.8634357 -4.1824622 -1.2033714 0
-8.8200836 -4.1982198 -1.1993899 0
-8.788928 -4.2195921 -1.1970704 0
-8.7591553 -4.2414932 -1.1949453 0
-8.7685337 -4.2823868 -1.1981769 0
-8.7969704 -4.3328643 -1.2040409 0
-8.8036566 -4.3728962 -1.2069559 0
-8.728816 -4.3722696 -1.1986985 0
-8.7120943 -4.4004946 -1.1984217 0
-8.7018175 -4.4319849 -1.1990454 0
-8.716116 -4.4761348 -1.2030768 0
-8.6978149 -4.503653 -1.2026283 0
-8.6757898 -4.5292001 -1.2016757 0
-8.6699371 -4.5632005 -1.2029774 0
-8.5963011 -4.5613155 -1.1948755 0
-8.6289673 -4.6157918 -1.2015605 0
-8.6146393 -4.6453424 -1.2017274 0
-8.6081429 -4.6791606 -1.2030028 0
-8.6122437 -4.7188649 -1.2057803 0
-8.5797987 -4.7385592 -1.2034553 0
-8.5538149 -4.7617059 -1.2020433 0
-8.5393333 -4.7912183 -1.2022591 0
-8.5066471 -4.8104491 -1.1999211 0
-8.4885073 -4.8378243 -1.1996435 0
-8.5057802 -4.8855224 -1.2043928 0
-8.4598618 -4.8969431 -1.2002091 0
-8.4091311 -4.905292 -1.1953384 0
-8.4339132 -4.9577222 -1.2012173 0
-8.3632402 -4.9539824 -1.1935104 0
-8.3766365 -4.9999337 -1.1978079 0
-8.3729992 -5.0359139 -1.1996955 0
-8.3481073 -5.059135 -1.1985526 0
-8.3674469 -5.1092911 -1.2037818 0
-8.335207 -5.1280499 -1.2016103 0
-8.3679438 -5.1869464 -1.2088301 0
-8.2823687 -5.172421 -1.1989665 0
-8.2809353 -5.2101998 -1.2012811 0
-8.2462883 -5.2270756 -1.1987906 0
-8.2161303 -5.2466569 -1.1969569 0
-8.2258492 -5.2917728 -1.2009507 0
-8.1746359 -5.2976618 -1.1960603 0
-8.1730947 -5.33566 -1.1984457 0
-8.1549158 -5.3628726 -1.1984099 0
-8.173686 -5.4145598 -1.2038293 0
-8.1154985 -5.4152513 -1.1979266 0
-8.1344538 -5.4674053 -1.2034239 0
-8.1669302 -5.5290756 -1.2109641 0
-8.0349321 -5.4790893 -1.1941092 0
-8.0319281 -5.5165825 -1.1964047 0
-8.0457773 -5.5658884 -1.2012408 0
-8.0367594 -5.5995836 -1.2026906 0
-7.9895201 -5.6065545 -1.1984277 0
-7.9756656 -5.6368361 -1.1991776 0
-7.9257908 -5.6415286 -1.1945161 0
-7.9439845 -5.6947041 -1.2001289 0
-7.9003468 -5.7036195 -1.1964186 0
-7.8890204 -5.7357769 -1.1976091 0
-7.8603597 -5.7553229 -1.1961807 0
-7.8637681 -5.798419 -1.1996512 0
-7.864296 -5.839613 -1.2027118 0
-7.8186584 -5.8464952 -1.1987234 0
-7.8091083 -5.8802791 -1.2002752 0
-7.7854586 -5.9034786 -1.1996758 0
-7.7473025 -5.9155607 -1.1968458 0
-7.7473741 -5.9568415 -1.1999356 0
-7.7174492 -5.975111 -1.1983967 0
-7.7077589 -6.0090504 -1.2000139 0
-7.6980238 -6.043067 -1.201646 0
-7.62533 -6.027432 -1.1934464 0
-7.6725283 -6.1066484 -1.2040312 0
-7.6475649 -6.1287756 -1.2033316 0
-7.5862803 -6.1215458 -1.1969113 0
-7.5895996 -6.1663537 -1.2006902 0
-7.5242352 -6.155242 -1.1936076 0
-7.5590024 -6.2261043 -1.2024276 0
-7.5182428 -6.2349577 -1.1992626 0
-7.466918 -6.2347651 -1.1944034 0
-7.4640098 -6.2749295 -1.1972967 0
-7.4427161 -6.2997389 -1.1972625 0
-7.4114828 -6.3160763 -1.1956381 0
-7.4328842 -6.3774586 -1.2025334 0
-7.4163117 -6.4065342 -1.2033205 0
-7.3678718 -6.4079528 -1.1989403 0
-7.3594174 -6.4440656 -1.2010735 0
-7.3261957 -6.4585004 -1.1991789 0
-7.2690716 -6.4515834 -1.1933626 0
-7.2974091 -6.5206046 -1.2015972 0
-7.2606626 -6.5316815 -1.1991457 0
-7.2664127 -6.5810676 -1.2037328 0
-7.2702928 -6.6290874 -1.2080507 0
-7.1844063 -6.5950255 -1.1974471 0
-7.2154794 -6.6682653 -1.2063457 0
-7.1476932 -6.6501908 -1.1987337 0
-7.116384 -6.6657143 -1.1972243 0
-7.1148605 -6.7092128 -1.2007457 0
-7.0733147 -6.7149816 -1.1975271 0
-7.0324101 -6.7211208 -1.1944103 0
-7.063982 -6.7967591 -1.2036363 0
-7.0065198 -6.7868571 -1.1977158 0
-6.9623299 -6.7894464 -1.1940465 0
-6.9662013 -6.8389382 -1.1986362 0
-7.0034704 -6.9217916 -1.2090353 0
-6.9662895 -6.9313698 -1.2066218 0
-6.8979535 -6.9095545 -1.1987913 0
-6.8816161 -6.9395685 -1.1999888 0
-6.8474965 -6.9516239 -1.1980968 0
-6.8568478 -7.0079613 -1.2038373 0
-6.8235769 -7.0208941 -1.2021221 0
-6.7710829 -7.0137806 -1.1970103 0
-6.7667694 -7.0565076 -1.2004235 0
-6.7668424 -7.1041102 -1.2046552 0
-6.6941462 -7.0751395 -1.1959299 0
-6.7239199 -7.1545053 -1.2055278 0
-6.6856279 -7.1617265 -1.2029607 0
-6.6475906 -7.1690168 -1.2004348 0
-6.6297588 -7.1980419 -1.2015661 0
-6.5930099 -7.206481 -1.1992781 0
-6.5809507 -7.2419047 -1.2014945 0
-6.5599685 -7.2676239 -1.2021058 0
-6.5153356 -7.2670145 -1.198385 0
-6.4804659 -7.2770638 -1.1964523 0
-6.495204 -7.3430371 -1.203712 0
-6.4654222 -7.3589392 -1.2027584 0
-6.4238949 -7.3613033 -1.1996179 0
-6.3927045 -7.3753314 -1.1984043 0
-6.3661113 -7.394599 -1.1980602 0
-6.3360434 -7.4097748 -1.1970702 0
-6.3785625 -7.5103331 -1.209854 0
-6.283433 -7.4487982 -1.1965407 0
-6.3053708 -7.5258579 -1.2055165 0
-6.2484741 -7.5089478 -1.1994451 0
-6.173605 -7.4697714 -1.1898743 0
-6.208642 -7.5636654 -1.2015082 0
-6.1867647 -7.5887537 -1.2021916 0
-6.1132045 -7.5500708 -1.1928098 0
-6.11555 -7.6049633 -1.198236 0
-6.1208773 -7.6640649 -1.2043078 0
-6.052135 -7.6303163 -1.1958092 0
-6.0319014 -7.6573992 -1.1968775 0
-6.0451632 -7.7273936 -1.204643 0
-6.0275192 -7.7583003 -1.206304 0
-5.9825597 -7.7539515 -1.2025023 0
-5.9261694 -7.7343445 -1.1963733 0
-5.9264584 -7.7886739 -1.2016969 0
-5.9137473 -7.826282 -1.2044333 0
-5.8537822 -7.8011656 -1.1975408 0
-5.8378797 -7.8345528 -1.1996547 0
-5.8219624 -7.8681149 -1.201798 0
-5.7810764 -7.8678927 -1.1987967 0
-5.7947736 -7.9422045 -1.2071522 0
-5.7448215 -7.929441 -1.2022779 0
-5.7009001 -7.9246049 -1.1986399 0
-5.6898556 -7.9654541 -1.2019262 0
-5.6482458 -7.9635196 -1.19877 0
-5.6432357 -8.013257 -1.2034022 0
-5.6178999 -8.0343666 -1.2037369 0
-5.5399089 -7.9796662 -1.1927519 0
-5.5318146 -8.0253115 -1.1967957 0
-5.5169044 -8.0613899 -1.1994107 0
-5.5162163 -8.1186543 -1.2051722 0
-5.4885607 -8.1365042 -1.2050835 0
-5.4485722 -8.1359301 -1.202286 0
-5.4083657 -8.1347532 -1.1994257 0
-5.3837242 -8.1568756 -1.2000194 0
-5.3648562 -8.18787 -1.2019261 0
-5.3409028 -8.211237 -1.2027208 0
-5.2931657 -8.1978493 -1.1981536 0
-5.2519789 -8.1942196 -1.1950428 0
-5.2505684 -8.2527952 -1.2010113 0
-5.2228389 -8.2703056 -1.2010044 0
-5.217761 -8.3239527 -1.2062477 0
-5.153481 -8.2829885 -1.1978009 0
-5.1314898 -8.3096275 -1.1991584 0
-5.0984588 -8.3183966 -1.1979502 0
-5.0949759 -8.3756142 -1.2037234 0
-5.0365438 -8.3424253 -1.19652 0
-5.048861 -8.4265528 -1.2061514 0
-5.0176969 -8.4385853 -1.2054588 0
-4.9842129 -8.4466114 -1.2042112 0
-4.9434738 -8.4421139 -1.2012004 0
-4.8804026 -8.398859 -1.1927108 0
-4.9036374 -8.5043545 -1.2053506 0
-4.8486867 -8.4745893 -1.1988209 0
-4.8042183 -8.4625654 -1.1948348 0
-4.8019629 -8.5250425 -1.201376 0
-4.7811689 -8.5550795 -1.203343 0
-4.7289543 -8.5286722 -1.1973917 0
-4.715632 -8.5722914 -1.2012892 0
-4.6978531 -8.6081896 -1.2041057 0
-4.6352544 -8.5616264 -1.1954118 0
-4.6474061 -8.6532412 -1.2060212 0
-4.5543857 -8.5486803 -1.1893134 0
-4.5658631 -8.6399059 -1.1998683 0
-4.5344462 -8.6505423 -1.1992275 0
-4.495513 -8.6466475 -1.1965913 0
-4.4619431 -8.6528406 -1.1953713 0
-4.4471388 -8.6955805 -1.199209 0
-4.4320173 -8.7381582 -1.203025 0
-4.3956785 -8.7390194 -1.2011076 0
-4.3818469 -8.78477 -1.2053697 0
-4.3377299 -8.7698164 -1.2013156 0
-4.328824 -8.8261538 -1.2070379 0
-4.2677617 -8.7759552 -1.1982093 0
-4.2499638 -8.8143768 -1.2015029 0
-4.2117252 -8.8104572 -1.199037 0
-4.1811614 -8.8224182 -1.1987501 0
-4.1446118 -8.8216028 -1.1967446 0
-4.1259007 -8.8588305 -1.1999114 0
-4.0963354 -8.8729601 -1.1999583 0
-4.0587378 -8.8695431 -1.1976491 0
-4.0621824 -8.9563131 -1.2075198 0
-4.0134983 -8.9284325 -1.2019397 0
-3.9748483 -8.922328 -1.1993172 0
-3.9511371 -8.949707 -1.2012099 0
-3.9209778 -8.9626064 -1.20117 0
-3.8925414 -8.979475 -1.2016749 0
-3.8762136 -9.0246058 -1.2059685 0
-3.8457634 -9.0371504 -1.2059151 0
-3.8150573 -9.0490818 -1.2057935 0
-3.7659528 -9.0169449 -1.1998219 0
-3.7223794 -8.9973249 -1.1955439 0
-3.6918652 -9.0089569 -1.195438 0
-3.6607618 -9.0191221 -1.1951516 0
-3.6470296 -9.0724611 -1.2005925 0
-3.6059563 -9.0579243 -1.1970621 0
-3.5729151 -9.0632372 -1.1961744 0
-3.5396371 -9.067812 -1.1952052 0
-3.5355787 -9.1478434 -1.2041845 0
-3.4855897 -9.1092119 -1.1975542 0
-3.4624829 -9.1405258 -1.200138 0
-3.4305813 -9.1487885 -1.1997058 0
-3.4048314 -9.1735582 -1.2014502 0
-3.37605 -9.1903524 -1.2021606 0
-3.3470573 -9.2066813 -1.2028219 0
-3.3065834 -9.1912031 -1.1993445 0
-3.2818654 -9.2194214 -1.2015841 0
-3.2593603 -9.2542925 -1.2046978 0
-3.2085738 -9.2085142 -1.1973314 0
-3.1766274 -9.2161627 -1.1969343 0
-3.1604025 -9.2698574 -1.2025249 0
-3.1202292 -9.2534876 -1.1990374 0
-3.0952513 -9.2820845 -1.2013915 0
-3.0675673 -9.302887 -1.2027459 0
-3.0124633 -9.2398252 -1.1932803 0
-3.0108156 -9.3409262 -1.2050266 0
-2.9828851 -9.3616543 -1.2064037 0
-2.9427612 -9.3439169 -1.2028397 0
-2.9003122 -9.3180561 -1.1982521 0
-2.86868 -9.3265114 -1.1980959 0
-2.8391247 -9.3417721 -1.1988267 0
-2.8235497 -9.4037342 -1.2055566 0
-2.7753458 -9.3569822 -1.1983633 0
-2.7347846 -9.3349228 -1.1943572 0
-2.7249556 -9.4182968 -1.2038487 0
-2.6991155 -9.4475174 -1.2064202 0
-2.6573868 -9.420928 -1.2018802 0
-2.6126971 -9.382782 -1.1958895 0
-2.603935 -9.4741211 -1.2064116 0
-2.5507934 -9.4040432 -1.1963923 0
-2.5268946 -9.4411077 -1.2000231 0
-2.490551 -9.4318218 -1.1977748 0
-2.4679689 -9.4748831 -1.2021856 0
-2.426585 -9.4457254 -1.1974471 0
-2.3915291 -9.4404955 -1.1957607 0
-2.3777151 -9.5199356 -1.2048063 0
-2.3239245 -9.4390707 -1.1935797 0
-2.3068709 -9.5070066 -1.2011853 0
-2.2878613 -9.5685501 -1.2079853 0
-2.2430794 -9.5223055 -1.2011909 0
-2.2102156 -9.5257874 -1.2006886 0
-2.180917 -9.5447512 -1.2021505 0
-2.1424448 -9.523303 -1.1985376 0
-2.124593 -9.594059 -1.2065392 0
-2.0723956 -9.5092735 -1.1949961 0
-2.0536916 -9.5776834 -1.2027209 0
-2.01963 -9.5753279 -1.201568 0
-1.9915488 -9.6014957 -1.204007 0
-1.9541 -9.5823965 -1.2007836 0
-1.9163424 -9.5608616 -1.1972733 0
-1.8916432 -9.60464 -1.2019545 0
-1.8623737 -9.6261435 -1.2038573 0
-1.8261527 -9.611618 -1.2012683 0
-1.7908443 -9.6012163 -1.199211 0
-1.7542341 -9.5830793 -1.1962044 0
-1.7288567 -9.626564 -1.200902 0
-1.6919681 -9.6061735 -1.1976439 0
-1.657982 -9.6015491 -1.1963675 0
-1.6367049 -9.671608 -1.2044065 0
-1.592416 -9.605545 -1.1955081 0
-1.5668924 -9.6520472 -1.2006351 0
-1.5413176 -9.7000122 -1.2059519 0
-1.5024098 -9.6641073 -1.200855 0
-1.4567449 -9.5819063 -1.1900274 0
-1.4360042 -9.6634102 -1.1995449 0
-1.402532 -9.6608372 -1.1986351 0
-1.3744864 -9.6961966 -1.2024436 0
-1.342012 -9.7010603 -1.202482 0
-1.3015341 -9.6466217 -1.1951865 0
-1.2704775 -9.6607714 -1.1964052 0
-1.2424639 -9.6992016 -1.2006419 0
-1.2073864 -9.6828556 -1.1981105 0
-1.1801566 -9.7300663 -1.2034557 0
-1.1422154 -9.6889124 -1.1978853 0
-1.1145859 -9.7351542 -1.2031336 0
-1.0791627 -9.7138424 -1.2000458 0
-1.0470279 -9.7214909 -1.2005503 0
-1.0116581 -9.6983948 -1.1972724 0
-0.98139912 -9.7241621 -1.2000405 0
-0.95460349 -9.7869968 -1.2073929 0
-0.91892427 -9.7597675 -1.203647 0
-0.88655078 -9.7666969 -1.2041283 0
-0.85747343 -9.8116493 -1.2093091 0
-0.81688356 -9.7229576 -1.1980332 0
-0.78865355 -9.7798796 -1.2047145 0
-0.74742359 -9.673296 -1.1912699 0
-0.72162813 -9.765626 -1.2023355 0
-0.68913776 -9.7716198 -1.2027823 0
-0.6557737 -9.7649736 -1.2016869 0
-0.62324429 -9.7704792 -1.2021004 0
-0.58535105 -9.6875925 -1.1916543 0
-0.55836052 -9.785778 -1.2034949 0
-0.5232026 -9.7439241 -1.1981251 0
-0.48996022 -9.7343006 -1.1967331 0
-0.45631164 -9.7144175 -1.1940939 0
-0.42424569 -9.7275229 -1.1955233 0
-0.39446098 -9.7992487 -1.2041692 0
-0.35908511 -9.732255 -1.1957819 0
-0.32752723 -9.7654419 -1.199718 0
-0.29461762 -9.7609825 -1.199042 0
-0.2633259 -9.8154678 -1.2056197 0
-0.22962475 -9.7826281 -1.2014847 0
-0.19679075 -9.781683 -1.201281 0
-0.16374648 -9.7675524 -1.1994714 0
-0.13129963 -9.7906275 -1.2022442 0
-0.098504789 -9.7941971 -1.2026352 0
-0.065588243 -9.7828531 -1.2012085 0
-0.032781444 -9.7811165 -1.2009751 0
1.2924103e-05 -9.7408438 -1.1960235 0
0.032733906 -9.7592058 -1.1982847 0
0.065724164 -9.7992477 -1.2032216 0
0.097934984 -9.734973 -1.195363 0
0.13070542 -9.7443905 -1.1965666 0
0.16459855 -9.8168249 -1.2055221 0
0.19672772 -9.7772598 -1.2007377 0
0.22925943 -9.7659597 -1.1994377 0
0.26086608 -9.7228155 -1.1942394 0
0.29611522 -9.8097363 -1.205031 0
0.3266634 -9.7389154 -1.1964592 0
0.36089998 -9.7807388 -1.2017392 0
0.39222789 -9.7431307 -1.1972733 0
0.42975241 -9.8531857 -1.2109674 0
0.45987523 -9.7897282 -1.2033513 0
0.49309132 -9.79599 -1.2043173 0
0.52585 -9.7927427 -1.2041281 0
0.55567211 -9.7382059 -1.1976446 0
0.59328121 -9.8184032 -1.2077454 0
0.62239277 -9.7567225 -1.200408 0
0.65367681 -9.7333632 -1.1977971 0
0.68514359 -9.7146168 -1.195766 0
0.72158885 -9.7647419 -1.2022269 0
0.75195277 -9.7315769 -1.1984473 0
0.78612858 -9.7482452 -1.2008179 0
0.816001 -9.7121439 -1.196701 0
0.8496598 -9.7219439 -1.1982529 0
0.88125879 -9.7081118 -1.1969055 0
0.91538715 -9.7219238 -1.1989801 0
0.94621724 -9.7007513 -1.1967534 0
0.98066324 -9.7166119 -1.1991091 0
1.0174054 -9.7532415 -1.2040436 0
1.0453991 -9.7061253 -1.1986531 0
1.078683 -9.7092896 -1.1994838 0
1.1128247 -9.7195435 -1.2012047 0
1.1450455 -9.712698 -1.2008264 0
1.1742165 -9.6808767 -1.1973722 0
1.2062976 -9.6739149 -1.1970047 0
1.2356554 -9.6458492 -1.1940378 0
1.2698436 -9.6557522 -1.1957841 0
1.3092313 -9.7034769 -1.2022312 0
1.3374821 -9.6681242 -1.1984 0
1.3660126 -9.6362343 -1.195008 0
1.4052459 -9.6793509 -1.2009326 0
1.4295933 -9.6200933 -1.1941684 0
1.4725924 -9.6859722 -1.2029523 0
1.5098697 -9.7119217 -1.206797 0
1.5344765 -9.6567936 -1.2005793 0
1.558888 -9.6025782 -1.1944821 0
1.5940762 -9.6154022 -1.1967354 0
1.6228288 -9.5894575 -1.1941768 0
1.6579356 -9.6011276 -1.1963156 0
1.6984463 -9.6428041 -1.2022114 0
1.7401608 -9.6893587 -1.2087362 0
1.7593297 -9.6107731 -1.1996617 0
1.7988561 -9.6440277 -1.2045588 0
1.8257836 -9.6095362 -1.2010087 0
1.8515798 -9.5702162 -1.1968635 0
1.8850754 -9.5711594 -1.1977652 0
1.9268209 -9.6130075 -1.203804 0
1.9696743 -9.658638 -1.2103382 0
1.9856544 -9.5729504 -1.2004281 0
2.0174046 -9.5646505 -1.2002288 0
2.0403671 -9.51542 -1.1949028 0
2.0720704 -9.5076599 -1.1947939 0
2.1111991 -9.5334568 -1.1989186 0
2.1294999 -9.4656448 -1.1912819 0
2.1867809 -9.5702972 -1.2053686 0
2.2155404 -9.5486221 -1.2035676 0
2.2452137 -9.5312529 -1.2023203 0
2.2796974 -9.5342941 -1.2036614 0
2.2879314 -9.4288445 -1.1913105 0
2.3306532 -9.4662924 -1.1970226 0
2.3699834 -9.4888725 -1.2008759 0
2.3898721 -9.4338493 -1.1949197 0
2.4338138 -9.4737597 -1.2010018 0
2.4675922 -9.4733343 -1.2019899 0
2.4881961 -9.4228039 -1.1966302 0
2.5090954 -9.374506 -1.1915585 0
2.5537455 -9.4148273 -1.1977652 0
2.588263 -9.4170027 -1.1991392 0
2.6220593 -9.4163074 -1.2001634 0
2.6722898 -9.4736652 -1.2086092 0
2.6803002 -9.3815651 -1.1979991 0
2.7071793 -9.3567638 -1.1959844 0
2.7379978 -9.3457985 -1.1957495 0
2.7737312 -9.3514481 -1.1976556 0
2.8117285 -9.364274 -1.2004987 0
2.8520272 -9.3841372 -1.2042643 0
2.8612587 -9.3022966 -1.1949861 0
2.8907573 -9.2872715 -1.1942943 0
2.9304926 -9.3048754 -1.1978149 0
2.9735107 -9.3321476 -1.2026023 0
3.0013354 -9.31143 -1.2012225 0
3.0259664 -9.2811584 -1.1986194 0
3.0432522 -9.229064 -1.1932027 0
3.1008625 -9.2988291 -1.2035599 0
3.1155803 -9.2396202 -1.1972415 0
3.1493475 -9.2373524 -1.1983092 0
3.1825652 -9.2333097 -1.1991624 0
3.2130494 -9.2212811 -1.1989925 0
3.2459271 -9.216074 -1.1997237 0
3.2784245 -9.2096786 -1.2003154 0
3.3103373 -9.201561 -1.2006972 0
3.3432686 -9.1961832 -1.2014514 0
3.379281 -9.1990728 -1.2033025 0
3.3999109 -9.1602259 -1.1997054 0
3.4207323 -9.1224489 -1.1962531 0
3.4487207 -9.1041222 -1.1953595 0
3.500751 -9.1487617 -1.2027549 0
3.5114145 -9.0852499 -1.1959463 0
3.5388994 -9.0658512 -1.194948 0
3.5812454 -9.0842981 -1.1989553 0
3.6137245 -9.0773678 -1.199633 0
3.6667554 -9.1214609 -1.2070781 0
3.7028694 -9.1227951 -1.2088908 0
3.7188163 -9.0746546 -1.2041571 0
3.7384231 -9.0360355 -1.200689 0
3.7568469 -8.9950752 -1.1969132 0
3.7873919 -8.9833946 -1.197042 0
3.8362067 -9.0146265 -1.2029108 0
3.8394477 -8.9389429 -1.1945226 0
3.8992643 -8.9949188 -1.203743 0
3.9135466 -8.9455557 -1.1988863 0
3.9566402 -8.9621077 -1.2028757 0
3.9755797 -8.9239063 -1.1995306 0
4.0039396 -8.9071054 -1.1990701 0
4.0550694 -8.940567 -1.2053982 0
4.0656977 -8.8846903 -1.1996959 0
4.0877829 -8.854372 -1.197446 0
4.1301498 -8.8678923 -1.2011403 0
4.1463494 -8.8252401 -1.1972395 0
4.1969457 -8.8556633 -1.2032689 0
4.2093163 -8.8053579 -1.1983445 0
4.2574272 -8.8297958 -1.2036062 0
4.2691135 -8.7786751 -1.1985823 0
4.3056622 -8.7788687 -1.200573 0
4.3314018 -8.7569637 -1.1995566 0
4.3589869 -8.7388821 -1.199075 0
4.3908119 -8.7292871 -1.1997716 0
4.4161263 -8.7067709 -1.1987053 0
4.4259415 -8.6540766 -1.1934868 0
4.4641876 -8.6571369 -1.1959665 0
4.4891753 -8.6344023 -1.1948982 0
4.5483069 -8.6769295 -1.2028872 0
4.5639915 -8.6363087 -1.1993705 0
4.5938058 -8.6226177 -1.1996014 0
4.58639 -8.5395784 -1.1901815 0
4.6347852 -8.5607052 -1.195285 0
4.6894765 -8.5927858 -1.2019528 0
4.6948366 -8.5344343 -1.1959858 0
4.7159104 -8.5050945 -1.1940832 0
4.7853384 -8.5624866 -1.2043867 0
4.7935853 -8.5101156 -1.1992743 0
4.8218999 -8.493659 -1.1992267 0
4.8382692 -8.4563293 -1.1962397 0
4.8502574 -8.411727 -1.1922239 0
4.915792 -8.4597101 -1.201354 0
4.9382739 -8.4331827 -1.1999315 0
4.9516397 -8.3913593 -1.196336 0
4.9735875 -8.3643522 -1.1948564 0
5.0227642 -8.382947 -1.1999116 0
5.0543332 -8.3718414 -1.2007408 0
5.0863314 -8.3613539 -1.2016758 0
5.0993252 -8.3197613 -1.1981486 0
5.1187654 -8.2889729 -1.1961797 0
5.1479297 -8.2740173 -1.1965055 0
5.1841145 -8.2702274 -1.1984642 0
5.2068081 -8.2448721 -1.1973131 0
5.2523642 -8.2555685 -1.201417 0
5.2513394 -8.1931744 -1.1948924 0
5.2867646 -8.1878872 -1.1966997 0
5.2905121 -8.1337175 -1.1913685 0
5.373764 -8.201417 -1.2039168 0
5.3909531 -8.1677809 -1.2016258 0
5.4266553 -8.1622162 -1.203477 0
5.4282174 -8.1054888 -1.1977898 0
5.4422116 -8.0677481 -1.1949023 0
5.498888 -8.0931044 -1.2013817 0
5.507031 -8.046917 -1.1972594 0
5.5414348 -8.0392227 -1.1988723 0
5.5784593 -8.0351486 -1.2010472 0
5.6153884 -8.0307293 -1.2031941 0
5.613986 -7.9716778 -1.1971601 0
5.6347356 -7.9444261 -1.1958981 0
5.6920223 -7.9684424 -1.2023793 0
5.7145433 -7.9435258 -1.201504 0
5.7620921 -7.9532347 -1.2058879 0
5.7678246 -7.9052243 -1.2015339 0
5.7858615 -7.8743615 -1.1997846 0
5.8094063 -7.8511024 -1.1992018 0
5.8229027 -7.8144102 -1.1965727 0
5.8670139 -7.8187556 -1.2002435 0
5.9166608 -7.8300943 -1.2050225 0
5.915904 -7.7747607 -1.1995527 0
5.9323902 -7.7424207 -1.197625 0
5.9485612 -7.7098446 -1.1956644 0
5.9802332 -7.6973939 -1.1968364 0
6.0503411 -7.7339706 -1.2056708 0
6.0414629 -7.6694956 -1.1987708 0
6.0795293 -7.6648126 -1.201218 0
6.0800419 -7.6128926 -1.1962693 0
6.1287813 -7.6213756 -1.2008245 0
6.1546373 -7.6012011 -1.2008903 0
6.1658635 -7.5630751 -1.1981262 0
6.157155 -7.5009012 -1.1915405 0
6.211936 -7.5161099 -1.1972582 0
6.2523327 -7.5135441 -1.200182 0
6.2710524 -7.4848561 -1.1989514 0
6.3173208 -7.4889302 -1.2029901 0
6.3296103 -7.4526553 -1.2005653 0
6.3414979 -7.4161134 -1.198097 0
6.3670969 -7.3957043 -1.1982419 0
6.3984475 -7.381918 -1.1994773 0
6.4000998 -7.3339963 -1.1951706 0
6.472693 -7.3671751 -1.2041074 0
6.4874864 -7.3342729 -1.2022781 0
6.5293984 -7.3319716 -1.2054828 0
6.5204787 -7.2727122 -1.1993275 0
6.5481691 -7.2545133 -1.1999401 0
6.5946183 -7.2569065 -1.2039864 0
6.5991807 -7.2131877 -1.2003971 0
6.6534657 -7.223742 -1.2058592 0
6.622932 -7.142386 -1.1959784 0
6.6899543 -7.1663227 -1.2037357 0
6.6954932 -7.1242204 -1.2004278 0
6.7031741 -7.0846438 -1.1975394 0
6.7395425 -7.0754123 -1.1997918 0
6.7503304 -7.0393276 -1.197504 0
6.8134127 -7.05759 -1.2044901 0
6.8167272 -7.0138092 -1.2009121 0
6.8307142 -6.981215 -1.1992459 0
6.857923 -6.9621725 -1.1999179 0
6.8644648 -6.9222364 -1.1969949 0
6.9005737 -6.9121423 -1.1992434 0
6.94662 -6.9117622 -1.2032117 0
6.9158044 -6.8351121 -1.193898 0
6.9598269 -6.832644 -1.1975362 0
6.9845352 -6.8110642 -1.1978517 0
7.0182271 -6.798161 -1.1997139 0
7.0168648 -6.7513885 -1.1956049 0
7.063138 -6.750453 -1.1996262 0
7.0757489 -6.717257 -1.1979362 0
7.083251 -6.6793699 -1.1954081 0
7.1407299 -6.6884828 -1.2013171 0
7.1669555 -6.668077 -1.2019613 0
7.1624765 -6.619247 -1.1974813 0
7.1733494 -6.5848408 -1.1956012 0
7.234633 -6.5965371 -1.2021224 0
7.2396011 -6.5567498 -1.1992885 0
7.246717 -6.5191016 -1.1968397 0
7.2921138 -6.5158381 -1.2007223 0
7.259747 -6.4432726 -1.191829 0
7.2967391 -6.4324985 -1.1943547 0
7.3515239 -6.4371195 -1.1997825 0
7.367095 -6.4072428 -1.1988111 0
7.4044833 -6.3962822 -1.2013985 0
7.4149451 -6.3620324 -1.1996284 0
7.4205899 -6.3238039 -1.1971046 0
7.4218683 -6.2820592 -1.1939062 0
7.4575739 -6.269485 -1.1962618 0
7.5261326 -6.2841744 -1.2038727 0
7.5680561 -6.2762351 -1.2072059 0
7.5448947 -6.2144508 -1.200181 0
7.5080271 -6.1419497 -1.1910338 0
7.5594931 -6.1418595 -1.1959248 0
1.4473692 -1.1679095 -0.22835553 0
1.4227332 -1.1401753 -0.22386423 0
1.4111915 -1.1231765 -0.22145437 0
1.4144984 -1.1180823 -0.2213838 0
1.4429528 -1.1327338 -0.22524153 0
1.4371684 -1.1204255 -0.22375095 0
1.4213648 -1.1004629 -0.22071482 0
1.4652317 -1.1265887 -0.22693881 0
1.4063063 -1.0737988 -0.21725346 0
1.4335809 -1.0870352 -0.2209027 0
1.4959174 -1.1264235 -0.22992498 0
1.4850819 -1.1104816 -0.22768599 0
1.490759 -1.1069531 -0.22798608 0
1.4882067 -1.0973363 -0.22703181 0
1.4780877 -1.0822437 -0.22493328 0
1.5138351 -1.1006399 -0.2298104 0
1.504969 -1.0864995 -0.22791019 0
1.5633993 -1.1207281 -0.23618841 0
1.5260559 -1.086231 -0.22999533 0
1.5017959 -1.0613947 -0.22580142 0
1.5382012 -1.0794091 -0.23072968 0
1.5786599 -1.0999194 -0.23624398 0
1.5230606 -1.0536132 -0.2273937 0
1.56056 -1.071836 -0.23245452 0
1.5555629 -1.0607456 -0.23117912 0
1.5898231 -1.0763166 -0.23573305 0
1.5651504 -1.0519775 -0.23155038 0
1.5677749 -1.0461276 -0.23141845 0
1.5986001 -1.0589672 -0.23544315 0
1.57555 -1.0361142 -0.23153535 0
1.6112132 -1.0518458 -0.23625666 0
1.6202977 -1.0500455 -0.23707117 0
1.5821127 -1.0177834 -0.23098361 0
1.6486727 -1.0528034 -0.24018447 0
1.5795245 -1.0012075 -0.22962038 0
1.6290884 -1.024984 -0.23632471 0
1.603415 -1.0013425 -0.23211205 0
1.5770681 -0.9775542 -0.22782229 0
1.6740448 -1.0299126 -0.24133131 0
1.6775126 -1.0243088 -0.24133478 0
1.6485652 -0.99906033 -0.23668702 0
1.7226812 -1.0360949 -0.24682786 0
1.6574649 -0.98931885 -0.23700698 0
1.6546934 -0.98015511 -0.23613942 0
1.6731145 -0.98350388 -0.23829636 0
1.7181808 -1.002259 -0.24423502 0
1.7264868 -0.99936098 -0.24493805 0
1.7364545 -0.99737293 -0.24587634 0
1.7206726 -0.98065066 -0.24317476 0
1.7125043 -0.9684031 -0.24156013 0
1.6927221 -0.94974041 -0.23831922 0
1.6856738 -0.93836874 -0.2368826 0
1.7275831 -0.9541254 -0.24232107 0
1.7493377 -0.95850009 -0.24492036 0
1.7530024 -0.95288008 -0.24498478 0
1.7531879 -0.94537979 -0.24456635 0
1.7632728 -0.94320071 -0.24553064 0
1.7600456 -0.93389845 -0.2446439 0
1.7594248 -0.92602247 -0.24412465 0
1.7757349 -0.92701727 -0.24595508 0
1.7758373 -0.91950715 -0.24554086 0
1.7980192 -0.92336118 -0.24817844 0
1.8118135 -0.92278159 -0.249654 0
1.8672031 -0.94312137 -0.25684911 0
1.8158426 -0.90955073 -0.24936315 0
1.8069321 -0.89752185 -0.24772488 0
1.8557869 -0.91404414 -0.25400114 0
1.7518497 -0.85556465 -0.2393813 0
1.8663251 -0.90373468 -0.25460833 0
1.8516593 -0.8889814 -0.25219953 0
1.7944841 -0.8541401 -0.24402073 0
1.9040257 -0.898462 -0.25850552 0
1.8679631 -0.87379962 -0.25321019 0
1.8677449 -0.86607701 -0.25278559 0
1.8793675 -0.86382216 -0.2539652 0
1.9182762 -0.87392747 -0.25882563 0
1.8938783 -0.85515624 -0.25514543 0
1.8797607 -0.8412056 -0.2528621 0
1.9521402 -0.86575168 -0.26220652 0
1.9425845 -0.85373127 -0.26053709 0
1.8706769 -0.81465673 -0.25052521 0
1.9120605 -0.82506323 -0.25569546 0
1.9309061 -0.82552683 -0.25784406 0
1.8869419 -0.79925841 -0.25161403 0
1.9257945 -0.80811083 -0.25643209 0
1.9505347 -0.81081188 -0.25936297 0
1.9816496 -0.81596458 -0.26313508 0
1.9627391 -0.80049211 -0.26026618 0
2.0036552 -0.80935484 -0.26533046 0
1.9919715 -0.79687732 -0.26342797 0
1.9907707 -0.7886644 -0.262918 0
2.0344126 -0.79807252 -0.26832682 0
2.0132346 -0.78198618 -0.26518628 0
2.0377941 -0.78367269 -0.26807371 0
1.9977663 -0.76060033 -0.26247105 0
9.1358728 -3.4432323 -1.1987681 0
9.1509972 -3.4139366 -1.1992439 0
9.1269407 -3.3701453 -1.1946038 0
9.2033987 -3.3633561 -1.2031285 0
9.1953535 -3.325511 -1.2006124 0
9.2092581 -3.2956665 -1.2009784 0
9.1824121 -3.2513711 -1.1960491 0
9.2319965 -3.2341354 -1.2010885 0
9.2422247 -3.2029686 -1.2010152 0
9.28543 -3.1831107 -1.2052361 0
9.2535772 -3.1375594 -1.1997294 0
9.2395 -3.0982857 -1.1965508 0
9.2607107 -3.0708959 -1.1979575 0
9.2838326 -3.0440519 -1.1996216 0
9.2794504 -3.0081954 -1.1977453 0
9.3196144 -2.9867225 -1.2016302 0
9.3129654 -2.950197 -1.1994908 0
9.3463173 -2.9263177 -1.2025161 0
9.3777781 -2.9016795 -1.2053053 0
9.3981724 -2.8734984 -1.2066815 0
9.3616142 -2.8280337 -1.2007633 0
9.3511219 -2.7906849 -1.1982107 0
9.3648748 -2.760628 -1.1987802 0
9.3895969 -2.733732 -1.2007648 0
9.4064188 -2.7044518 -1.2017497 0
9.3963118 -2.66747 -1.199309 0
9.3967295 -2.6335764 -1.1982286 0
9.4209146 -2.606319 -1.2001916 0
9.4281683 -2.5743268 -1.2000093 0
9.4477892 -2.5456767 -1.2014135 0
9.4706964 -2.5178208 -1.2032464 0
9.48804 -2.4884019 -1.204383 0
9.4796886 -2.4522715 -1.2022725 0
9.4593954 -2.4132128 -1.1986657 0
9.5225506 -2.3953483 -1.2056442 0
9.4730463 -2.349153 -1.1983726 0
9.4745502 -2.315834 -1.1975739 0
9.5120363 -2.2912266 -1.2013342 0
9.4778662 -2.2494013 -1.1960595 0
9.5491142 -2.2325177 -1.2040992 0
9.5003567 -2.1875508 -1.1970196 0
9.5692358 -2.169652 -1.2047749 0
9.5389585 -2.1291859 -1.2000574 0
9.5514917 -2.0983887 -1.2007422 0
9.5535231 -2.0652823 -1.2001203 0
9.5953436 -2.0406723 -1.2045076 0
9.5733356 -2.0024662 -1.2008953 0
9.5752687 -1.969385 -1.2003028 0
9.5852575 -1.9379655 -1.2007338 0
9.5861969 -1.9047232 -1.2000446 0
9.5780315 -1.8697417 -1.1982309 0
9.5850983 -1.8377812 -1.1983374 0
9.5263586 -1.7934257 -1.1902353 0
9.6060209 -1.7750951 -1.1994381 0
9.6685495 -1.7531465 -1.2065048 0
9.6427393 -1.7150934 -1.2025598 0
9.6358767 -1.6805631 -1.2009945 0
9.6332884 -1.6468499 -1.1999769 0
9.6188793 -1.6112127 -1.1975025 0
9.6537933 -1.5838039 -1.2011812 0
9.6284485 -1.5465126 -1.1973758 0
9.6544142 -1.5174963 -1.1999654 0
9.7115326 -1.4931263 -1.2064357 0
9.6923037 -1.4569222 -1.2034333 0
9.6690884 -1.4202979 -1.1999528 0
9.6902666 -1.3902344 -1.2019958 0
9.7003088 -1.358498 -1.2026697 0
9.687212 -1.3235627 -1.2004889 0
9.6834202 -1.289987 -1.1994764 0
9.624238 -1.2492764 -1.19162 0
9.6548281 -1.2203451 -1.1948942 0
9.7353296 -1.197372 -1.2043535 0
9.6949196 -1.1594183 -1.1988667 0
9.7015762 -1.1272347 -1.1992158 0
9.707902 -1.0949942 -1.1995373 0
9.6740856 -1.058344 -1.1949136 0
9.7136259 -1.029724 -1.1993643 0
9.7339897 -0.99889123 -1.2014585 0
9.7234945 -0.964881 -1.199757 0
9.688221 -0.92858881 -1.1950138 0
9.7076416 -0.8976137 -1.1970313 0
9.7332582 -0.86707956 -1.1998248 0
9.729763 -0.83389688 -1.1990426 0
9.8221321 -0.80864912 -1.2100847 0
9.7485161 -0.76969081 -1.2006905 0
9.7302485 -0.73543 -1.1981301 0
9.7793226 -0.70617169 -1.2038746 0
9.7596664 -0.67186713 -1.2011707 0
9.7957764 -0.64136136 -1.2053435 0
9.7705431 -0.60681707 -1.2019815 0
9.7295809 -0.57153243 -1.1966999 0
9.7369061 -0.53921032 -1.1973717 0
9.7435904 -0.50681782 -1.197978 0
9.7533245 -0.47454008 -1.1989725 0
9.7779179 -0.44288075 -1.2018064 0
9.7493525 -0.4088369 -1.1981202 0
9.7956009 -0.37788022 -1.2036414 0
9.7904377 -0.34481075 -1.2028581 0
9.7491341 -0.3106322 -1.1976488 0
9.7216177 -0.2771309 -1.1941477 0
9.757412 -0.24541289 -1.1984366 0
9.7716188 -0.21298969 -1.2000872 0
9.7830524 -0.18042478 -1.2014102 0
9.8152199 -0.14810012 -1.2052929 0
9.8271275 -0.11532527 -1.2067008 0
9.719491 -0.081471108 -1.1934435 0
9.7885857 -0.049229424 -1.2019006 0
9.7542992 -0.016352208 -1.1976773 0
9.7783194 0.016392475 -1.2006265 0
9.7739897 0.049156021 -1.2001084 0
9.7641268 0.081845254 -1.1989243 0
9.7792597 0.11476352 -1.2008229 0
9.7846107 0.14763826 -1.201534 0
9.8010616 0.18075693 -1.2036219 0
9.7552195 0.21263221 -1.198073 0
9.7356663 0.24486595 -1.1957657 0
9.712862 0.27688134 -1.1930722 0
9.7623472 0.31105319 -1.199272 0
9.7779322 0.34437031 -1.2013217 0
9.7560883 0.37635595 -1.1987863 0
9.7528744 0.4089846 -1.1985531 0
9.73034 0.44072574 -1.1959586 0
9.7243443 0.47313011 -1.1954099 0
9.7701244 0.50819796 -1.2012403 0
9.7484217 0.53984809 -1.1987879 0
9.8120966 0.57637954 -1.206849 0
9.7378464 0.6047864 -1.1979592 0
9.7767258 0.64011407 -1.2029994 0
9.7360411 0.67024076 -1.198263 0
9.7418127 0.70346308 -1.199257 0
9.7547579 0.7372824 -1.201148 0
9.7890739 0.77289301 -1.2056859 0
9.7700033 0.80435741 -1.2036624 0
9.7497759 0.83561206 -1.2015088 0
9.7403679 0.86771297 -1.2007012 0
9.7324286 0.89990562 -1.2000877 0
9.7351484 0.93308669 -1.2008021 0
9.7467575 0.96718943 -1.2026273 0
9.7339993 0.99889225 -1.2014596 0
9.7801809 1.0367793 -1.207582 0
9.7738409 1.0692573 -1.207235 0
9.702754 1.0944135 -1.1989011 0
9.7232084 1.1297482 -1.2018899 0
9.674942 1.1570292 -1.1963964 0
9.7210274 1.195613 -1.2025843 0
9.7236137 1.2290395 -1.2034073 0
9.6519718 1.2528765 -1.1950538 0
9.7397814 1.2974952 -1.2064579 0
9.6832762 1.3230251 -1.2000014 0
9.6127272 1.3462324 -1.1918111 0
9.6838779 1.3893178 -1.2012033 0
9.6616096 1.4191993 -1.1990247 0
9.6240797 1.446667 -1.1949624 0
9.663496 1.4857408 -1.2004682 0
9.701252 1.5248582 -1.2057868 0
9.641758 1.5486503 -1.1990309 0
9.6397619 1.5815018 -1.1994354 0
9.637392 1.6143136 -1.1998072 0
9.5864334 1.63884 -1.1941404 0
9.5855455 1.671785 -1.1947213 0
9.6008692 1.7076461 -1.1973381 0
9.6407261 1.7481016 -1.203033 0
9.6286554 1.7792777 -1.2022643 0
9.6083212 1.8088559 -1.2004758 0
9.6294975 1.846294 -1.2038883 0
9.5451307 1.8633192 -1.194115 0
9.5741692 1.9023334 -1.198539 0
9.6240177 1.945802 -1.2055892 0
9.5820589 1.9707817 -1.201154 0
9.5790024 2.0036514 -1.2016062 0
9.4917049 2.0186312 -1.1914978 0
9.5915918 2.0735118 -1.2049025 0
9.5392761 2.0957048 -1.1992066 0
9.5430126 2.1300907 -1.2005674 0
9.5475693 2.1647394 -1.202047 0
9.5034437 2.1882617 -1.1974086 0
9.4898405 2.2186599 -1.1966251 0
9.5246019 2.2604935 -1.2019573 0
9.4695749 2.2809987 -1.1959715 0
9.5093088 2.3243299 -1.2019672 0
9.5186472 2.3604612 -1.2041413 0
9.4746113 2.3832896 -1.1995747 0
9.4337597 2.406673 -1.1954173 0
9.4512367 2.4449112 -1.1986641 0
9.4582224 2.4805818 -1.200598 0
9.4467831 2.5114634 -1.2002082 0
9.4375725 2.5429239 -1.2001144 0
9.422267 2.5727153 -1.1992582 0
9.3626966 2.5902128 -1.1927749 0
9.4221191 2.6406922 -1.2014662 0
9.3920307 2.666255 -1.1987627 0
9.394455 2.7010119 -1.2002212 0
9.4335184 2.7465196 -1.2063816 0
9.3089495 2.7441423 -1.1916213 0
9.3472586 2.7895319 -1.1977156 0
9.3322458 2.8191619 -1.1969965 0
9.3285732 2.8522184 -1.1977452 0
9.3477983 2.8924034 -1.2014521 0
9.3225851 2.9188869 -1.1994625 0
9.356019 2.9638357 -1.205036 0
9.2849789 2.9756227 -1.1971644 0
9.2989531 3.0145178 -1.2002627 0
9.2491903 3.0326931 -1.1951452 0
9.2664738 3.0728073 -1.1987031 0
9.3195486 3.1251287 -1.2069175 0
9.2281675 3.1289439 -1.1964351 0
4.7746539 1.636785 -0.61974359 0
4.693068 1.6264211 -0.60985816 0
4.655725 1.6309847 -0.60571271 0
4.608005 1.6316338 -0.60021269 0
4.5173512 1.6165996 -0.58910733 0
4.5059361 1.6295774 -0.58832788 0
4.4640017 1.6313568 -0.58356351 0
4.4080286 1.6276754 -0.57695651 0
4.3928237 1.6388183 -0.57568228 0
4.4052563 1.6603034 -0.57803792 0
4.5157518 1.7192613 -0.59328967 0
4.429709 1.7035291 -0.58273226 0
4.4390011 1.7242091 -0.58471185 0
4.4402676 1.7418569 -0.58564472 0
4.4213991 1.751583 -0.58392733 0
4.5011735 1.8006699 -0.59525704 0
4.4755321 1.8078427 -0.59266436 0
4.4473553 1.8138288 -0.58973509 0
4.46592 1.8388884 -0.59301108 0
9.0003576 3.7413313 -1.1967793 0
8.9980211 3.7757912 -1.1981452 0
8.9978075 3.8112319 -1.1998115 0
8.9614897 3.8313365 -1.1966749 0
9.0004349 3.8837306 -1.2036076 0
8.9085979 3.8795843 -1.1930592 0
8.9639311 3.9394877 -1.2022316 0
8.8958321 3.9451993 -1.1948657 0
8.9269018 3.9948485 -1.2008312 0
8.8575439 3.9995093 -1.1932985 0
8.8944693 4.0521388 -1.2000966 0
8.8805065 4.0817871 -1.2000525 0
8.8612804 4.1089931 -1.1993093 0
8.8447571 4.1374183 -1.1989437 0
8.8621092 4.1818075 -1.2031897 0
8.8428555 4.2090302 -1.202485 0
8.7825375 4.216495 -1.1961985 0
8.8120708 4.2670879 -1.2021627 0
8.7256098 4.261395 -1.19231 0
8.7721357 4.3206034 -1.2006402 0
8.7308102 4.3366838 -1.1969674 0
8.722971 4.3693128 -1.1978943 0
8.746273 4.4177289 -1.2031217 0
8.7086611 4.4354415 -1.1999868 0
8.7122316 4.4741106 -1.202539 0
8.6984415 4.5039482 -1.2027133 0
8.6575069 4.5196261 -1.1991417 0
8.6200953 4.5369387 -1.1960602 0
8.5806293 4.5529704 -1.1926954 0
8.5844507 4.5919499 -1.1953599 0
8.6265097 4.6517138 -1.2033815 0
8.561162 4.6535935 -1.1964355 0
8.6001663 4.7122178 -1.2040876 0
8.5283136 4.7100954 -1.196232 0
8.5592899 4.7647238 -1.2028109 0
8.5357866 4.7891979 -1.2017578 0
8.4735746 4.7917171 -1.1952542 0
8.5147772 4.852766 -1.2033544 0
8.4700956 4.8649964 -1.1993382 0
8.4540005 4.8935204 -1.1993756 0
8.4693079 4.9403648 -1.2038904 0
8.4645872 4.9757228 -1.205584 0
8.3930922 4.9716353 -1.1977687 0
8.4032421 5.0157838 -1.2016103 0
8.3877811 5.0447745 -1.2018116 0
8.3819952 5.0796409 -1.2034159 0
8.3854122 5.1202302 -1.2063644 0
8.3218889 5.1198258 -1.1996884 0
8.3123789 5.1524734 -1.2008013 0
8.2579994 5.1571712 -1.1954367 0
8.2756367 5.2068357 -1.2005104 0
8.2449255 5.226181 -1.1985904 0
8.2577209 5.2731848 -1.2030139 0
8.2339716 5.296968 -1.2021347 0
8.2144756 5.3234496 -1.2018874 0
8.1521912 5.3219824 -1.1953783 0
8.1635189 5.3684988 -1.199672 0
8.1494083 5.3984461 -1.2002515 0
8.1245184 5.4212389 -1.1992559 0
8.1329832 5.4663854 -1.2032042 0
8.1295967 5.5037694 -1.2054263 0
8.0332909 5.4779382 -1.193863 0
8.105814 5.5672984 -1.2074084 0
8.0762844 5.5869608 -1.2057933 0
8.0117931 5.5821571 -1.1989523 0
8.0056419 5.617836 -1.2008437 0
7.9934545 5.6493764 -1.2018499 0
7.9095078 5.6299067 -1.1920596 0
7.930697 5.6851473 -1.1981192 0
7.9397001 5.731998 -1.2023759 0
7.9244509 5.7615047 -1.2029853 0
7.8874688 5.7751398 -1.2003038 0
7.8703814 5.8032632 -1.2006577 0
7.8481803 5.8276138 -1.2002449 0
7.8023705 5.8342834 -1.1962239 0
7.8195281 5.8880925 -1.2018744 0
7.7693462 5.8912287 -1.1971905 0
7.7423239 5.911727 -1.1960742 0
7.7212005 5.9366841 -1.1958792 0
7.7395 5.9921508 -1.2018183 0
7.7451878 6.038197 -1.2058386 0
7.6933532 6.0393672 -1.2009144 0
7.6748276 6.066524 -1.2011908 0
7.6562862 6.093688 -1.2014798 0
7.6082339 6.0972223 -1.1971405 0
7.6106462 6.1411738 -1.2007531 0
7.5605197 6.142694 -1.1960871 0
7.5208459 6.1524358 -1.1930673 0
7.559741 6.2266793 -1.2025425 0
7.5305386 6.2451215 -1.2012212 0
7.492538 6.2561235 -1.1984988 0
7.4807644 6.288981 -1.1999817 0
7.4303098 6.2892041 -1.1952641 0
7.4332933 6.3346295 -1.1991539 0
7.4117703 6.3593082 -1.1991147 0
7.3973055 6.3900819 -1.2002339 0
7.3507643 6.3930397 -1.1961536 0
7.3214116 6.4107528 -1.1948681 0
7.3587966 6.4872055 -1.2045124 0
7.3444314 6.5184331 -1.2057316 0
7.2935834 6.5171509 -1.2009643 0
7.2776818 6.546957 -1.2019536 0
7.257422 6.5728898 -1.2022406 0
7.1891661 6.5550809 -1.1945677 0
7.2017841 6.6109428 -1.2003406 0
7.1666656 6.6231184 -1.1981817 0
7.1492052 6.6515622 -1.1989844 0
7.1243706 6.6731601 -1.198565 0
7.1254115 6.7191267 -1.2025234 0
7.0980654 6.7384429 -1.2017144 0
7.0398169 6.7281642 -1.1956652 0
7.0566568 6.7896752 -1.2023851 0
7.0105963 6.7907696 -1.1984096 0
6.989357 6.8157659 -1.1986785 0
6.9565353 6.8294129 -1.1969699 0
6.984076 6.9025869 -1.2056839 0
6.938674 6.9038558 -1.2018353 0
6.8992329 6.9107995 -1.1990104 0
6.8682165 6.9260197 -1.197649 0
6.9061856 7.0111685 -1.2083622 0
6.8446798 6.9954882 -1.2016977 0
6.7976699 6.9942012 -1.1975548 0
6.7656112 7.0080752 -1.1960397 0
6.728693 7.0167632 -1.1936655 0
6.7663507 7.1035566 -1.2045643 0
6.7048683 7.0864339 -1.197842 0
6.7072515 7.1367311 -1.2025359 0
6.6628361 7.1372738 -1.1988564 0
6.6460872 7.1673574 -1.2001599 0
6.6369128 7.20577 -1.2028592 0
6.6159577 7.2315259 -1.2034489 0
6.5994773 7.2622538 -1.2048734 0
6.5519238 7.2586727 -1.200628 0
6.5411248 7.2957401 -1.2031249 0
6.5025406 7.3018126 -1.2005242 0
6.4141202 7.2513304 -1.1886817 0
6.439281 7.3291459 -1.1978918 0
6.4632511 7.4063625 -1.2069637 0
6.3867331 7.3684025 -1.1972812 0
6.3597989 7.3872275 -1.1968685 0
6.3625526 7.4407358 -1.2020749 0
6.3486156 7.4750328 -1.2041701 0
6.2896519 7.45613 -1.1977211 0
6.2398977 7.4476714 -1.192995 0
6.2494869 7.5101247 -1.1996357 0
6.2321658 7.5405869 -1.2011572 0
6.202508 7.5561519 -1.2003173 0
6.1691728 7.5671339 -1.1987693 0
6.1431584 7.5870237 -1.1986506 0
6.1224952 7.6135588 -1.1995928 0
6.0769358 7.6090035 -1.1956581 0
6.0856614 7.6725435 -1.2024295 0
6.0741701 7.7110167 -1.2052606 0
6.0203109 7.6955838 -1.1996866 0
5.9707861 7.6852341 -1.1949457 0
5.9416246 7.7008538 -1.1942701 0
5.9401813 7.7525892 -1.199198 0
5.9254117 7.7872558 -1.2014805 0
5.8648596 7.7615409 -1.1944723 0
5.8384256 7.7806573 -1.1943951 0
5.8604975 7.8648624 -1.2042981 0
5.8413787 7.894311 -1.2058017 0
5.7901883 7.8802505 -1.200682 0
5.7428856 7.8710437 -1.1963387 0
5.7402229 7.9230494 -1.2013111 0
5.7084522 7.9350586 -1.2002233 0
5.669558 7.9369941 -1.1976341 0
5.6854491 8.0159273 -1.2066613 0
5.6361523 8.0031528 -1.201887 0
5.6001282 8.0089054 -1.1999245 0
5.5614877 8.0107031 -1.1973933 0
5.5246716 8.0149031 -1.1952456 0
5.5282025 8.0778522 -1.2018622 0
5.5017924 8.0973797 -1.2020162 0
5.4563026 8.0886374 -1.1979961 0
5.462997 8.1574221 -1.2054641 0
5.3959451 8.116024 -1.1966664 0
5.3831544 8.1559649 -1.1998874 0
5.3453283 8.1580181 -1.1975461 0
5.3221221 8.1823149 -1.1984867 0
5.2919154 8.1958656 -1.1978657 0
5.2671175 8.2177916 -1.1984826 0
5.2718959 8.2862692 -1.2058847 0
5.2184439 8.263298 -1.1999888 0
5.2004924 8.2963543 -1.2022504 0
5.1815596 8.3280687 -1.2043219 0
5.1526775 8.3438883 -1.2041044 0
5.1202936 8.3539715 -1.2030754 0
5.0891175 8.3659334 -1.202334 0
5.0485392 8.3622446 -1.1993644 0
5.0264797 8.3891478 -1.2007992 0
5.006629 8.41992 -1.2027943 0
4.9684467 8.4198418 -1.2003968 0
4.9222021 8.4057369 -1.1960262 0
4.9099002 8.4495707 -1.1999141 0
4.8599548 8.428545 -1.1946076 0
4.8592367 8.4929762 -1.2014239 0
4.8315973 8.5107412 -1.2016386 0
4.8093767 8.5381508 -1.203225 0
4.7626247 8.5218449 -1.19867 0
4.7374053 8.5438604 -1.1995258 0
4.7054791 8.5537806 -1.1986969 0
4.7036991 8.6188469 -1.2055982 0
4.6720514 8.6295376 -1.2048957 0
4.6209512 8.6039295 -1.1991502 0
4.5760083 8.5892105 -1.1949538 0
4.5549788 8.6192541 -1.1970021 0
4.5308094 8.643549 -1.1982596 0
4.5158749 8.6857548 -1.2020049 0
4.4745526 8.6772366 -1.1987432 0
4.4625497 8.7256565 -1.2033585 0
4.4341717 8.7423487 -1.2036035 0
4.4001293 8.7478104 -1.2023175 0
4.3467889 8.714427 -1.1957194 0
4.3335137 8.7612343 -1.2001415 0
4.3128848 8.7935953 -1.2025869 0
4.2819142 8.8049984 -1.2021762 0
4.2564793 8.8278303 -1.2033383 0
4.2001801 8.7862463 -1.1957436 0
4.1919909 8.8452072 -1.2018483 0
4.1564655 8.8467712 -1.2001604 0
4.1092911 8.8231049 -1.1950741 0
4.1039815 8.8894606 -1.2021911 0
4.0635548 8.8800077 -1.1990635 0
4.0400033 8.9073505 -1.2009197 0
3.992115 8.8808002 -1.195529 0
3.976517 8.9260101 -1.1998135 0
3.9537892 8.9556503 -1.202009 0
3.9407213 9.0076714 -1.207211 0
3.8988326 8.9939222 -1.2036097 0
3.8460858 8.9543972 -1.1965878 0
3.8213973 8.9798269 -1.1982671 0
3.7923796 8.995225 -1.1986184 0
3.7554429 8.9917135 -1.1964658 0
3.7333448 9.0237608 -1.1990579 0
3.7179849 9.0726252 -1.2038878 0
3.6848376 9.0783701 -1.2030039 0
3.6314557 9.0336494 -1.1954577 0
3.6135421 9.0769091 -1.1995723 0
3.6052263 9.1451292 -1.2069838 0
3.5317445 9.0475225 -1.1925321 0
3.5377827 9.1534729 -1.204927 0
3.5018065 9.1515198 -1.2031175 0
3.4653554 9.148035 -1.2011251 0
3.4301169 9.1474752 -1.1995349 0
3.4065745 9.1781797 -1.2020568 0
3.3900962 9.2285137 -1.2071536 0
3.3317676 9.1645479 -1.1973184 0
3.2996578 9.171876 -1.1968237 0
3.2915587 9.2465744 -1.2051241 0
3.2407968 9.2015066 -1.1978275 0
3.1973724 9.1762886 -1.1931424 0
3.1741273 9.2088299 -1.1959831 0
3.1493087 9.2372379 -1.1982944 0
3.1279788 9.2763891 -1.202006 0
3.1016488 9.3011866 -1.2038649 0
3.0688975 9.3068371 -1.2032577 0
3.0314524 9.2979841 -1.2007924 0
3.0028415 9.316102 -1.2018253 0
2.9676588 9.3137817 -1.2002355 0
2.9374003 9.3268089 -1.2006384 0
2.9057631 9.3354816 -1.2004939 0
2.8665714 9.3195677 -1.1972048 0
2.849999 9.3774633 -1.2034079 0
2.8080664 9.3520775 -1.1989352 0
2.7787735 9.3684483 -1.1998327 0
2.7494574 9.3849144 -1.2007542 0
2.6979852 9.3249865 -1.1919225 0
2.6926827 9.4249067 -1.2035336 0
2.650985 9.3981371 -1.1989735 0
2.6019735 9.3441753 -1.1909697 0
2.5792449 9.3841925 -1.1949612 0
2.555428 9.421031 -1.1985544 0
2.5294197 9.4504423 -1.2012104 0
2.486995 9.4182549 -1.1960526 0
2.465008 9.4634123 -1.200731 0
2.4344766 9.4763403 -1.201329 0
2.4032578 9.4866886 -1.2016125 0
2.3726118 9.4993954 -1.2022077 0
2.3356464 9.4865723 -1.199587 0
2.3113489 9.5253515 -1.203504 0
2.2711706 9.4986334 -1.1991594 0
2.241081 9.51371 -1.2001073 0
2.1952345 9.4611073 -1.1925366 0
2.1937828 9.6009407 -1.2092282 0
2.1581645 9.5930586 -1.2073172 0
2.1046972 9.504096 -1.1952262 0
2.080569 9.5466566 -1.1996945 0
2.0492115 9.5566673 -1.2000824 0
2.0188379 9.5714474 -1.2010818 0
1.9875648 9.5821609 -1.2015831 0
1.9517181 9.5705862 -1.1993043 0
1.9248313 9.6030817 -1.2025609 0
1.8962036 9.6276608 -1.204836 0
1.855477 9.5903597 -1.1993828 0
1.8279319 9.6208429 -1.2024218 0
1.7866536 9.5786076 -1.1963878 0
1.7628437 9.6299686 -1.2020578 0
1.7227321 9.5923147 -1.19663 0
1.6921811 9.607234 -1.1977767 0
1.6689038 9.6646452 -1.20423 0
1.6313217 9.6396418 -1.2004262 0
1.6044234 9.6778154 -1.2045034 0
1.5696455 9.6688433 -1.2027249 0
1.5273954 9.6122303 -1.195039 0
1.5042667 9.6758823 -1.2023188 0
1.4624283 9.6191187 -1.1946493 0
1.442039 9.7038441 -1.2045646 0
1.4054589 9.6808186 -1.2011147 0
1.3768032 9.7123537 -1.2044477 0
1.3300513 9.6144104 -1.1917419 0
1.3068048 9.6854916 -1.2000029 0
1.2769227 9.7095814 -1.2024503 0
1.2434261 9.7065086 -1.2015467 0
1.2095127 9.6996984 -1.200195 0
1.1765476 9.7000952 -1.1997492 0
1.1484966 9.741972 -1.2044456 0
1.1077592 9.6753006 -1.1957369 0
1.0848206 9.764535 -1.2063087 0
1.0437739 9.6910362 -1.1967896 0
1.0172905 9.75214 -1.2039076 0
0.98160529 9.7259464 -1.200261 0
0.95022684 9.7418575 -1.2018247 0
0.91798371 9.7495003 -1.202381 0
0.88381827 9.7363071 -1.2003818 0
0.85262483 9.7558708 -1.2024344 0
0.81467503 9.6963615 -1.1947565 0
0.7883026 9.7752037 -1.2041388 0
0.75270391 9.7412987 -1.1996446 0
0.72243172 9.7761469 -1.203631 0
0.68796062 9.7545595 -1.2006825 0
0.65633041 9.7728748 -1.2026594 0
0.62538481 9.8036251 -1.2061788 0
0.58871919 9.7429056 -1.1984586 0
0.55594099 9.742918 -1.1982241 0
0.52325892 9.7444897 -1.1981949 0
0.48923585 9.7193956 -1.1949009 0
0.45666093 9.721303 -1.1949404 0
0.42656258 9.7800503 -1.201979 0
0.39347404 9.774086 -1.2010771 0
0.36031163 9.7647934 -1.1997801 0
0.32748064 9.7632799 -1.1994524 0
0.29531431 9.7832041 -1.2017719 0
0.26237169 9.7789316 -1.2011321 0
0.22931619 9.7683783 -1.1997347 0
0.19748136 9.8147154 -1.2053376 0
0.163654 9.7604904 -1.1986042 0
0.13109358 9.7733278 -1.20012 0
0.098160498 9.75739 -1.1981156 0
0.065893091 9.8244343 -1.2063142 0
0.032824852 9.7863197 -1.201614 0
1.3007633e-05 9.8038015 -1.2037536 0
-0.032766961 9.7767954 -1.2004445 0
-0.065386117 9.7527046 -1.1975068 0
-0.098365061 9.780304 -1.2009293 0
-0.13142894 9.8002701 -1.2034283 0
-0.16443767 9.8087826 -1.2045344 0
-0.19697252 9.7907181 -1.2023904 0
-0.22804019 9.7151213 -1.1931937 0
-0.26312757 9.808074 -1.2047116 0
-0.29338932 9.7202883 -1.194043 0
-0.32802692 9.7803411 -1.2015483 0
-0.36192006 9.8090897 -1.2052225 0
-0.39401674 9.7882128 -1.202813 0
-0.42650267 9.779274 -1.2018834 0
-0.45790181 9.748271 -1.1982551 0
-0.49097621 9.7544861 -1.1992147 0
-0.52266133 9.7338438 -1.1968856 0
-0.55858594 9.7897282 -1.2039808 0
-0.59065914 9.7754412 -1.2024605 0
-0.62475604 9.7941771 -1.2050161 0
-0.6553089 9.7580528 -1.2008351 0
-0.68800622 9.7555752 -1.2008073 0
-0.7202825 9.7474155 -1.2000935 0
-0.75039065 9.7116966 -1.1959989 0
-0.78402632 9.7224989 -1.1976461 0
-0.81928122 9.7514954 -1.2015496 0
-0.8531425 9.7620916 -1.2032011 0
-0.88298613 9.7274275 -1.1992867 0
-0.9082222 9.646102 -1.1896288 0
-0.9522351 9.7627153 -1.2043974 0
-0.98296452 9.7396727 -1.2019545 0
-1.0099262 9.6817923 -1.1952229 0
-1.0469877 9.721117 -1.2005041 0
-1.0816965 9.7366495 -1.2028635 0
-1.1164562 9.7514906 -1.2051525 0
-1.151796 9.7701807 -1.2079328 0
-1.1798208 9.7272978 -1.2031133 0
-1.2084349 9.6912642 -1.1991509 0
-1.2408235 9.6863966 -1.1990566 0
-1.2707514 9.6628532 -1.196663 0
-1.3078189 9.693202 -1.2009578 0
-1.3347842 9.6488113 -1.1960056 0
-1.366257 9.6381416 -1.1952441 0
-1.4051877 9.6791315 -1.2009048 0
-1.4383487 9.6791868 -1.2015034 0
