# .PCD v0.7 - Point Cloud Data file format
VERSION 0.7
FIELDS x y z intensity
SIZE 4 4 4 4
TYPE F F F F
COUNT 1 1 1 1
WIDTH 1406
HEIGHT 1
VIEWPOINT 0 0 0 1 0 0 0
POINTS 1406
DATA ascii
-4.2953372 -1.2975833 -1.2023003 0
-4.2926793 -1.3125025 -1.2027814 0
-4.2648001 -1.3196303 -1.1962028 0
-4.2813115 -1.3404845 -1.2020879 0
-4.2718787 -1.3532746 -1.2007066 0
-4.299623 -1.377943 -1.2097964 0
-4.261591 -1.3815274 -1.2003919 0
-4.2015038 -1.3776326 -1.1847612 0
-4.2426014 -1.4068794 -1.1976733 0
-4.2531848 -1.426235 -1.2020042 0
-4.2237639 -1.4321408 -1.1950397 0
-4.2575727 -1.4595386 -1.2059832 0
-4.2542491 -1.4743575 -1.2064352 0
-4.1834784 -1.4655606 -1.1877526 0
-4.2277861 -1.497016 -1.2017505 0
-4.2688289 -1.5276752 -1.214866 0
-4.2110758 -1.5229535 -1.1998765 0
-4.2074471 -1.5376124 -1.2003047 0
-4.1813145 -1.5439734 -1.1943197 0
-4.1710029 -1.5560769 -1.1928579 0
-4.2092152 -1.5864298 -1.2053006 0
-4.2003212 -1.5991815 -1.2042823 0
-4.162828 -1.6009077 -1.1950648 0
-4.1623912 -1.6167802 -1.1964889 0
-4.153266 -1.6292828 -1.1954294 0
-4.1280828 -1.6353954 -1.1897525 0
-4.1831994 -1.6734791 -1.207248 0
-4.1578007 -1.6795113 -1.2015363 0
-4.1542425 -1.6942972 -1.202143 0
-4.1589537 -1.7125049 -1.2051611 0
-4.0733633 -1.6932569 -1.1819977 0
-4.1158628 -1.7271304 -1.1960037 0
-4.0805726 -1.7284348 -1.1874261 0
-4.0832286 -1.7457294 -1.1898955 0
-4.1092453 -1.7731719 -1.1992029 0
-4.1682396 -1.8152301 -1.2181885 0
-4.0816207 -1.7938124 -1.1946245 0
-4.0524678 -1.7972358 -1.187849 0
-4.110024 -1.8392766 -1.2065206 0
-4.0898991 -1.846754 -1.2024236 0
-4.1094813 -1.8722092 -1.2100196 0
-4.0440445 -1.8587954 -1.1925802 0
-4.0743065 -1.8892769 -1.2033657 0
-4.0380039 -1.8889188 -1.1945074 0
-4.035748 -1.9043816 -1.1957222 0
-4.0692563 -1.9369013 -1.2075673 0
-4.0341825 -1.9368237 -1.1990795 0
-4.0592966 -1.9656552 -1.2084962 0
-4.0115709 -1.9591758 -1.1962366 0
-4.0332303 -1.9865295 -1.2046747 0
-4.0330033 -2.0032477 -1.2066063 0
-4.0586114 -2.0329611 -1.2163002 0
-3.9899437 -2.0153277 -1.19774 0
-3.9715452 -2.0227761 -1.1942461 0
-3.9276164 -2.0170152 -1.1830635 0
-3.9411001 -2.0406673 -1.1891793 0
-3.9725518 -2.0738726 -1.2007608 0
-3.9470642 -2.0774367 -1.1951555 0
-3.9728055 -2.1080253 -1.2050831 0
-3.9233696 -2.0986819 -1.1922153 0
-3.9246359 -2.1163135 -1.1947496 0
-3.9124367 -2.126698 -1.1931999 0
-3.9325864 -2.1547632 -1.2015417 0
-3.9338396 -2.1726305 -1.2041434 0
-3.9024274 -2.1723888 -1.1967509 0
-3.8959019 -2.1858983 -1.1969906 0
-3.9495764 -2.2334578 -1.2157757 0
-3.8610537 -2.2005162 -1.1907907 0
-3.9220045 -2.2527082 -1.2119111 0
-3.8633308 -2.2362671 -1.1960909 0
-3.8961015 -2.2727101 -1.2085891 0
-3.8769741 -2.2790084 -1.2050192 0
-3.841939 -2.2757804 -1.1964947 0
-3.8266628 -2.2840981 -1.1941155 0
-3.8227851 -2.299202 -1.1953043 0
-3.8626184 -2.3408308 -1.2102066 0
-3.8493824 -2.3504918 -1.208522 0
-3.8128433 -2.3457665 -1.1995128 0
-3.8253114 -2.3711541 -1.2059296 0
-3.8505886 -2.4047306 -1.2164332 0
-3.8275104 -2.4081933 -1.2116865 0
-3.7570207 -2.3814631 -1.1918924 0
-3.8358457 -2.4494946 -1.2194977 0
-3.7593608 -2.4184353 -1.1977527 0
-3.756999 -2.4347644 -1.1995944 0
-3.7317936 -2.4362352 -1.1941478 0
-3.7248418 -2.4495473 -1.1945447 0
-3.7103262 -2.4578609 -1.1925256 0
-3.7713108 -2.5164931 -1.2148315 0
-3.7228308 -2.5022237 -1.2019106 0
-3.6866798 -2.4959114 -1.1929344 0
-3.7123923 -2.531512 -1.203994 0
-3.6722867 -2.522243 -1.1937231 0
-3.7065165 -2.564085 -1.2076377 0
-3.6661959 -2.554409 -1.1972843 0
-3.652637 -2.5631964 -1.1956562 0
-3.6535521 -2.5821636 -1.1987829 0
-3.622066 -2.5781641 -1.1912814 0
-3.6589701 -2.6229599 -1.2063048 0
-3.6251187 -2.6171379 -1.1980306 0
-3.6047218 -2.6208425 -1.1941872 0
-3.5694287 -2.6135209 -1.1853913 0
-3.6022928 -2.6561825 -1.1992562 0
-3.6281638 -2.6940837 -1.2108693 0
-3.5779371 -2.6754451 -1.1970937 0
-3.5741429 -2.691339 -1.1988366 0
-3.5707021 -2.7075558 -1.2007207 0
-3.5537236 -2.7134953 -1.198064 0
-3.5057824 -2.6955442 -1.1849418 0
-3.5115142 -2.7187335 -1.1899533 0
-3.5203536 -2.7445049 -1.1960603 0
-3.5608647 -2.7953334 -1.2130016 0
-3.4947269 -2.7624021 -1.1936203 0
-3.5307972 -2.8101997 -1.2091514 0
-3.5215387 -2.8221691 -1.2092143 0
-3.4986026 -2.8231039 -1.2045821 0
-3.5001669 -2.8437953 -1.2083967 0
-3.4427037 -2.8163226 -1.1918114 0
-3.4444029 -2.8370428 -1.1956859 0
-3.4427114 -2.8550768 -1.198415 0
-3.4328022 -2.8663387 -1.1983042 0
-3.4389453 -2.8910921 -1.2038256 0
-3.4367497 -2.9089684 -1.2064644 0
-3.3622837 -2.8653431 -1.1836891 0
-3.3656876 -2.8877797 -1.1882894 0
-3.3925416 -2.9306259 -1.2012329 0
-3.3927529 -2.9507301 -1.2048039 0
-3.3239558 -2.9105279 -1.1838319 0
-3.3355117 -2.9404624 -1.1914521 0
-3.3677385 -2.9889987 -1.2065367 0
-3.3209941 -2.9674764 -1.1933477 0
-3.3827214 -3.0430915 -1.2191879 0
-3.2921834 -2.9816749 -1.1901529 0
-3.3299489 -3.0362632 -1.2074788 0
-3.2935474 -3.0233576 -1.1979482 0
-3.2992303 -3.0490205 -1.2037268 0
-3.2866082 -3.0578499 -1.2028555 0
-3.2905142 -3.0821311 -1.2080603 0
-3.2698126 -3.0833869 -1.2042487 0
-3.2670975 -3.1015868 -1.2070718 0
-3.2262638 -3.0834534 -1.1957982 0
-3.2545218 -3.1314068 -1.2101564 0
-3.2235091 -3.122448 -1.2025107 0
-3.1842561 -3.1051869 -1.1917448 0
-3.2148669 -3.1561356 -1.2071549 0
-3.1868422 -3.1496754 -1.2005905 0
-3.1648359 -3.1489718 -1.1962708 0
-3.1669893 -3.1723154 -1.2010983 0
-3.1634533 -3.190094 -1.203807 0
-3.1544294 -3.2023981 -1.2044522 0
-3.1654785 -3.2352405 -1.212806 0
-3.1463532 -3.2373364 -1.2096303 0
-3.1041286 -3.2153907 -1.1975347 0
-3.0708587 -3.2023461 -1.1888351 0
-3.1112306 -3.2662983 -1.2086973 0
-3.0891833 -3.2650023 -1.2043781 0
-3.053339 -3.2488682 -1.1946436 0
-2.9908369 -3.2038212 -1.1743854 0
-3.0351491 -3.2732213 -1.1960876 0
-3.022428 -3.2815013 -1.1954036 0
-3.0423431 -3.3254294 -1.2076833 0
-3.016 -3.3189104 -1.2016367 0
-3.0249896 -3.35131 -1.2096883 0
-2.9810021 -3.3249226 -1.1965491 0
-2.9624062 -3.3265536 -1.1935549 0
-2.9625144 -3.3492179 -1.1981162 0
-2.956161 -3.3647003 -1.2001023 0
-2.9568136 -3.3882873 -1.2049725 0
-2.911397 -3.3589098 -1.1910468 0
-2.9096558 -3.3797302 -1.1949637 0
-2.9022596 -3.394088 -1.1965929 0
-2.9043629 -3.4196944 -1.2021806 0
-2.8876681 -3.423233 -1.2000142 0
-2.8755412 -3.4321401 -1.1997501 0
-2.8298824 -3.4007404 -1.1854507 0
-2.8194735 -3.4114304 -1.1858751 0
-2.8553591 -3.4785352 -1.2058672 0
-2.85813 -3.5058134 -1.2119946 0
-2.8229091 -3.4864142 -1.2020094 0
-2.832396 -3.5222127 -1.2110707 0
-2.7939835 -3.498399 -1.1996549 0
-2.7525818 -3.4703569 -1.1868675 0
-2.7541049 -3.4962904 -1.192572 0
-2.7457807 -3.5098689 -1.1940565 0
-2.7258439 -3.5085604 -1.1904956 0
-2.7563527 -3.5724885 -1.2090446 0
-2.7375062 -3.5727658 -1.2060254 0
-2.6889255 -3.5338416 -1.1898361 0
-2.6927717 -3.5636272 -1.1968184 0
-2.6982338 -3.5958579 -1.2045977 0
-2.6457505 -3.5506506 -1.1864752 0
-2.6524339 -3.5846424 -1.1948552 0
-2.6382613 -3.5906041 -1.1938872 0
-2.6281226 -3.6020541 -1.1947578 0
-2.6475165 -3.6543043 -1.2091376 0
-2.6010919 -3.615679 -1.1934649 0
-2.5905259 -3.6265795 -1.1941892 0
-2.5953591 -3.6592231 -1.2020662 0
-2.5803888 -3.6640887 -1.2008158 0
-2.5577378 -3.6579158 -1.1959755 0
-2.5864167 -3.725466 -1.2152194 0
-2.5569732 -3.7095437 -1.2072223 0
-2.5272448 -3.6928508 -1.1990255 0
-2.5056942 -3.6878295 -1.1946607 0
-2.5061755 -3.7152741 -1.2008225 0
-2.5076869 -3.7445343 -1.2075554 0
-2.4862404 -3.739568 -1.2032589 0
-2.4781051 -3.7545748 -1.2054073 0
-2.4352331 -3.7166643 -1.1906081 0
-2.4631016 -3.7868335 -1.210434 0
-2.421952 -3.751025 -1.1963857 0
-2.4243376 -3.7824898 -1.203822 0
-2.3990102 -3.7707422 -1.1975167 0
-2.3747072 -3.7603216 -1.191672 0
-2.3811901 -3.798739 -1.2013098 0
-2.3585503 -3.7908058 -1.1962936 0
-2.3756068 -3.8469155 -1.2114801 0
-2.3453889 -3.8266222 -1.2026061 0
-2.3476844 -3.8593507 -1.2104113 0
-2.3081708 -3.8232059 -1.1966412 0
-2.2983971 -3.8360264 -1.1982353 0
-2.274997 -3.8260093 -1.192717 0
-2.2714069 -3.8492923 -1.1975944 0
-2.2452064 -3.8342042 -1.1905514 0
-2.2487202 -3.8699026 -1.1992882 0
-2.2454472 -3.8942683 -1.2044992 0
-2.2369671 -3.9097962 -1.2069755 0
-2.200305 -3.8758078 -1.194199 0
-2.1969817 -3.9003553 -1.1994861 0
-2.1691513 -3.8813231 -1.1913898 0
-2.1744258 -3.9215782 -1.2015016 0
-2.1597936 -3.9261713 -1.2006835 0
-2.1413355 -3.9237115 -1.197729 0
-2.1220725 -3.9196103 -1.1942984 0
-2.1168561 -3.9414818 -1.1987933 0
-2.1036692 -3.9486325 -1.1988162 0
-2.0943034 -3.9630151 -1.2010442 0
-2.0778313 -3.9639611 -1.1992128 0
-2.0808814 -4.002357 -1.2087113 0
-2.055023 -3.9852111 -1.2014456 0
-2.0444915 -3.9976356 -1.203118 0
-2.0312569 -4.0048227 -1.2032247 0
-2.012006 -4.0000563 -1.1997589 0
-2.0021412 -4.0139127 -1.2018949 0
-1.9999465 -4.0433969 -1.2087086 0
-1.9505225 -3.9769716 -1.1868904 0
-1.9654807 -4.0416899 -1.2042314 0
-1.9442427 -4.0323372 -1.1994958 0
-1.9454702 -4.0697055 -1.2086645 0
-1.941366 -4.0963597 -1.2146406 0
-1.9120698 -4.0697465 -1.2048417 0
-1.908904 -4.0986576 -1.2114992 0
-1.89745 -4.1100144 -1.2129687 0
-1.8525304 -4.0483274 -1.1929235 0
-1.8546897 -4.0892258 -1.203136 0
-1.833153 -4.0780339 -1.1980281 0
-1.8261412 -4.099133 -1.2024209 0
-1.8094666 -4.0986166 -1.2004831 0
-1.795288 -4.1036854 -1.2001979 0
-1.773723 -4.0916977 -1.1949458 0
-1.7673939 -4.1148491 -1.1999698 0
-1.7456651 -4.1021347 -1.1945484 0
-1.7345328 -4.1142054 -1.1963632 0
-1.7128438 -4.1011181 -1.190881 0
-1.707436 -4.1270261 -1.1967349 0
-1.6978915 -4.1432257 -1.199775 0
-1.6622783 -4.0954022 -1.1843059 0
-1.6755067 -4.1680412 -1.2036803 0
-1.6533363 -4.1530714 -1.1977497 0
-1.6425122 -4.1664801 -1.2000217 0
-1.6104665 -4.1256795 -1.1867086 0
-1.6181078 -4.1866403 -1.2026761 0
-1.6051379 -4.1948543 -1.203483 0
-1.5801643 -4.1714382 -1.1952382 0
-1.5642844 -4.1716857 -1.1937996 0
-1.5576477 -4.196734 -1.1994665 0
-1.5391254 -4.1898389 -1.196014 0
-1.5374721 -4.2290926 -1.205741 0
-1.5364113 -4.2707129 -1.2161317 0
-1.4887865 -4.1823015 -1.1895275 0
-1.4778842 -4.1961522 -1.1920509 0
-1.4613796 -4.1941175 -1.1900742 0
-1.4783256 -4.2889791 -1.215578 0
-1.4358763 -4.2116055 -1.1922776 0
-1.4276708 -4.2339625 -1.1972449 0
-1.4090985 -4.2256246 -1.1935445 0
-1.3981549 -4.2401271 -1.19631 0
-1.3780795 -4.2268443 -1.1912521 0
-1.3716899 -4.2556095 -1.198056 0
-1.3839118 -4.3433471 -1.2214431 0
-1.3525108 -4.2945204 -1.2064301 0
-1.3361242 -4.2926688 -1.2046446 0
-1.3230945 -4.30158 -1.2058936 0
-1.3026839 -4.2863131 -1.2003826 0
-1.2970477 -4.3197722 -1.2085282 0
-1.265319 -4.2659793 -1.1922852 0
-1.2551324 -4.2842731 -1.1962152 0
-1.2497151 -4.3194051 -1.2048477 0
-1.2258345 -4.290699 -1.1956872 0
-1.2190167 -4.3216395 -1.2031636 0
-1.2085755 -4.3402662 -1.2072145 0
-1.1767877 -4.2816081 -1.1897951 0
-1.1721114 -4.3212385 -1.1997089 0
-1.1604849 -4.3358607 -1.2026817 0
-1.1554728 -4.3758245 -1.2126852 0
-1.1249065 -4.318676 -1.1957957 0
-1.1096441 -4.3194008 -1.1949594 0
-1.0920875 -4.3109856 -1.1916116 0
-1.0821971 -4.3329186 -1.1966646 0
-1.0685468 -4.3401103 -1.1976546 0
-1.0480264 -4.3190947 -1.190879 0
-1.0366756 -4.335701 -1.1944927 0
-1.0348791 -4.3932619 -1.209388 0
-1.0089613 -4.3485131 -1.1961316 0
-0.98709166 -4.3199921 -1.1873693 0
-0.98576516 -4.3817887 -1.2034392 0
-0.96854985 -4.3736963 -1.2003181 0
-0.94974351 -4.3579373 -1.1951126 0
-0.94577187 -4.4107418 -1.2087172 0
-0.91688758 -4.3470831 -1.190423 0
-0.90823573 -4.3787136 -1.1982441 0
-0.89158434 -4.372097 -1.1956087 0
-0.87970304 -4.3889437 -1.1994025 0
-0.87232012 -4.4291229 -1.2095765 0
-0.84328449 -4.3587265 -1.1895727 0
-0.83072561 -4.3723712 -1.1925296 0
-0.81977123 -4.3950219 -1.1979511 0
-0.80920953 -4.4205728 -1.2041693 0
-0.79673523 -4.4363551 -1.2077339 0
-0.77586061 -4.4049597 -1.198472 0
-0.76308328 -4.4190955 -1.2016152 0
-0.74623966 -4.4096751 -1.1983665 0
-0.73230958 -4.4173336 -1.1997738 0
-0.71292365 -4.3916044 -1.1921297 0
-0.70588136 -4.4423404 -1.205253 0
-0.68780118 -4.4242153 -1.1997031 0
-0.67376214 -4.4317479 -1.2011263 0
-0.6635868 -4.4655242 -1.2096708 0
-0.64232063 -4.4243951 -1.1979393 0
-0.63134301 -4.4537549 -1.2053088 0
-0.61231768 -4.4262872 -1.1973128 0
-0.59856266 -4.4363856 -1.199495 0
-0.57417953 -4.3660884 -1.179961 0
-0.5663799 -4.4214025 -1.1943901 0
-0.55029029 -4.4131532 -1.1916566 0
-0.54103112 -4.4606524 -1.2039859 0
-0.52496886 -4.4530811 -1.2014604 0
-0.5070104 -4.4283934 -1.1943341 0
-0.49786526 -4.4814229 -1.2081794 0
-0.47777504 -4.4360666 -1.1955128 0
-0.46940055 -4.4999709 -1.212304 0
-0.44998312 -4.4586434 -1.2007569 0
-0.43219844 -4.4310803 -1.1929369 0
-0.41917416 -4.4519906 -1.1981814 0
-0.40353888 -4.4455905 -1.1960881 0
-0.38977423 -4.4599962 -1.1996055 0
-0.37596884 -4.4749694 -1.2032871 0
-0.3624841 -4.4950676 -1.2083577 0
-0.34531707 -4.4691582 -1.2010748 0
-0.33243322 -4.4987411 -1.2087189 0
-0.31491876 -4.4653864 -1.1994666 0
-0.29735059 -4.4277787 -1.1890901 0
-0.28351218 -4.4445648 -1.1933361 0
-0.27482784 -4.5484161 -1.2209653 0
-0.25604883 -4.4874892 -1.204373 0
-0.24073671 -4.4833879 -1.2030488 0
-0.22426477 -4.4555879 -1.1953806 0
-0.20899427 -4.4492784 -1.1934932 0
-0.1943659 -4.4566126 -1.1952791 0
-0.17957936 -4.461133 -1.1963232 0
-0.16521539 -4.4778194 -1.2006426 0
-0.15057144 -4.4893875 -1.2036023 0
-0.13530929 -4.4829354 -1.2017441 0
-0.1195019 -4.4544311 -1.1939888 0
-0.10583811 -4.5089865 -1.2085102 0
-0.089860529 -4.466608 -1.1970644 0
-0.074936658 -4.470006 -1.1979009 0
-0.059197929 -4.4142156 -1.1828901 0
-0.045452513 -4.5192814 -1.2109972 0
-0.030220967 -4.5076261 -1.20784 0
-0.015085069 -4.5009861 -1.2060405 0
5.9099343e-06 -4.4542937 -1.1935226 0
0.014937058 -4.4532976 -1.1932623 0
0.030167453 -4.4978638 -1.2052243 0
0.045296136 -4.5025449 -1.2065125 0
0.059580389 -4.4418554 -1.1902969 0
0.074431434 -4.4391661 -1.1896363 0
0.08968842 -4.4574652 -1.1946141 0
0.10582575 -4.5079498 -1.2082324 0
0.11980681 -4.4653544 -1.1969168 0
0.13427907 -4.4484115 -1.1924894 0
0.15020157 -4.4780054 -1.2005508 0
0.16526127 -4.4787402 -1.2008897 0
0.18041116 -4.4815006 -1.2017853 0
0.19583255 -4.4899678 -1.2042252 0
0.20733449 -4.4136939 -1.1839479 0
0.22690479 -4.5078001 -1.2093887 0
0.24031241 -4.4752641 -1.2008691 0
0.25820032 -4.5249848 -1.2144364 0
0.27038637 -4.4747124 -1.2011806 0
0.28377393 -4.448482 -1.1943882 0
0.30091527 -4.4806814 -1.2032975 0
0.31537783 -4.4717264 -1.20117 0
0.32928804 -4.4560175 -1.19724 0
0.34423378 -4.4549842 -1.1972659 0
0.36029959 -4.4678297 -1.201036 0
0.37533444 -4.4672761 -1.2012187 0
0.38978261 -4.4599552 -1.1995949 0
0.40526575 -4.4644833 -1.2011714 0
0.42004248 -4.4610863 -1.2006296 0
0.43839955 -4.4945331 -1.2100201 0
0.44782999 -4.437191 -1.1949799 0
0.46405771 -4.448637 -1.1984746 0
0.48292798 -4.4837995 -1.208377 0
0.4920111 -4.4286213 -1.1939443 0
0.50946212 -4.4497027 -1.2000817 0
0.52384651 -4.443459 -1.1988647 0
0.5389114 -4.4430776 -1.1992425 0
0.54635149 -4.3814707 -1.1831019 0
0.5823006 -4.5455904 -1.2279384 0
0.58332771 -4.4355602 -1.1987367 0
0.59528828 -4.4120288 -1.1929098 0
0.61228579 -4.4259701 -1.1972275 0
0.62362933 -4.3992553 -1.1905601 0
0.6421423 -4.4230843 -1.1975847 0
0.65846795 -4.4309969 -1.2003182 0
0.66999781 -4.4069085 -1.1943947 0
0.68646276 -4.4155288 -1.1973481 0
0.70813459 -4.4564447 -1.2090801 0
0.71822912 -4.424212 -1.2009817 0
0.73366553 -4.4254403 -1.2019761 0
0.74183774 -4.3835931 -1.1912791 0
0.75628042 -4.3796301 -1.1908845 0
0.76847643 -4.3629684 -1.1870478 0
0.79245305 -4.4124441 -1.201225 0
0.80936658 -4.4213648 -1.2043855 0
0.82238692 -4.4089808 -1.2017565 0
0.83246595 -4.3814673 -1.1950111 0
0.85590321 -4.4238868 -1.2073566 0
0.86222982 -4.3778296 -1.195569 0
0.8722415 -4.3516574 -1.1892135 0
0.89246422 -4.3763523 -1.1967731 0
0.90897286 -4.3822088 -1.1992013 0
0.9244535 -4.3828964 -1.200231 0
0.93544221 -4.3625116 -1.1955009 0
0.95837992 -4.3975101 -1.2059656 0
0.97489655 -4.4023008 -1.208169 0
0.98941398 -4.397953 -1.2078794 0
0.99809176 -4.3680806 -1.2005874 0
1.0056385 -4.3341398 -1.1921786 0
1.0279294 -4.3637075 -1.2012531 0
1.0440937 -4.3666749 -1.2030268 0
1.0561621 -4.3525729 -1.2001106 0
1.0568647 -4.2926126 -1.1845483 0
1.0898703 -4.3635921 -1.2051368 0
1.1027597 -4.353065 -1.2032439 0
1.1040052 -4.2974038 -1.1888747 0
1.1349247 -4.3570895 -1.2064328 0
1.140661 -4.319685 -1.1971281 0
1.1571891 -4.3235011 -1.199254 0
1.1710806 -4.3173923 -1.198642 0
1.1765605 -4.2807369 -1.1895539 0
1.2112428 -4.3498001 -1.2098672 0
1.2246838 -4.3416862 -1.2087457 0
1.2346951 -4.3216701 -1.2043188 0
1.240815 -4.2886014 -1.1962563 0
1.2604547 -4.3023977 -1.2012767 0
1.2706841 -4.2840257 -1.1973298 0
1.2813842 -4.2675643 -1.1939231 0
1.300197 -4.278089 -1.1980804 0
1.3155146 -4.276896 -1.1989747 0
1.3376503 -4.2975316 -1.2060102 0
1.3586538 -4.3139858 -1.2118993 0
1.3627104 -4.2767673 -1.2027205 0
1.3736663 -4.2617021 -1.1997722 0
1.3774456 -4.2248621 -1.1906945 0
1.407316 -4.2678714 -1.2041389 0
1.3987939 -4.1946864 -1.1848069 0
1.4259541 -4.2288346 -1.1957959 0
1.4354819 -4.2104125 -1.1919409 0
1.4670467 -4.2562199 -1.2062943 0
1.4896462 -4.2752051 -1.2130839 0
1.4863255 -4.2200837 -1.1988506 0
1.4929329 -4.1939144 -1.1928316 0
1.5261688 -4.2422071 -1.2080156 0
1.5353279 -4.2231598 -1.2040508 0
1.5496255 -4.2183881 -1.2041647 0
1.5637463 -4.213131 -1.204154 0
1.5688984 -4.1839566 -1.1973124 0
1.5699004 -4.144309 -1.1874663 0
1.5910524 -4.1580105 -1.1929138 0
1.5934553 -4.1228228 -1.1843446 0
1.6328121 -4.1828914 -1.2031662 0
1.6459862 -4.1752596 -1.2025517 0
1.6504251 -4.1457267 -1.1956328 0
1.6628549 -4.1365366 -1.1945834 0
1.6954819 -4.177175 -1.2079543 0
1.6908106 -4.1259155 -1.1947638 0
1.717275 -4.1507764 -1.2036233 0
1.7344773 -4.152885 -1.2059144 0
1.7382071 -4.12289 -1.19889 0
1.7561927 -4.126843 -1.2017448 0
1.7535628 -4.0826178 -1.1905718 0
1.7810726 -4.1086221 -1.1998899 0
1.7961038 -4.1055207 -1.2007362 0
1.8008232 -4.0790095 -1.1947416 0
1.8273166 -4.1017423 -1.2031877 0
1.8346722 -4.0813851 -1.1990139 0
1.8751523 -4.1343131 -1.216403 0
1.8746032 -4.0965343 -1.2071302 0
1.8707902 -4.0522389 -1.1959193 0
1.8978894 -4.0749798 -1.2045019 0
1.9219252 -4.0906949 -1.2110449 0
1.9298391 -4.07201 -1.207422 0
1.9321681 -4.0418515 -1.2003938 0
1.9532274 -4.0509439 -1.2050322 0
1.9699897 -4.0509348 -1.2069875 0
1.9834565 -4.0440946 -1.2069241 0
1.9775087 -3.9980063 -1.1951414 0
2.0114107 -4.0324693 -1.2074529 0
2.0192831 -4.0144968 -1.2040918 0
2.0267351 -3.9958813 -1.2005398 0
2.0372536 -3.9834569 -1.1988524 0
2.0818462 -4.0372024 -1.2171214 0
2.0526757 -3.948081 -1.1923215 0
2.0831425 -3.9740682 -1.2022722 0
2.09039 -3.955584 -1.1987938 0
2.0911639 -3.9251344 -1.1916838 0
2.1028323 -3.9153454 -1.1908457 0
2.1413713 -3.9552314 -1.2051538 0
2.1379688 -3.9175177 -1.19584 0
2.1553521 -3.9180727 -1.1982086 0
2.1617413 -3.8986771 -1.194487 0
2.1782961 -3.8976619 -1.1964068 0
2.1795735 -3.8694263 -1.1899762 0
2.2322617 -3.9320748 -1.2115376 0
2.2099488 -3.8625495 -1.192392 0
2.2296178 -3.866792 -1.1960026 0
2.2593939 -3.8882477 -1.2049752 0
2.2754245 -3.8857849 -1.2065696 0
2.2609334 -3.8315194 -1.1920668 0
2.2420509 -3.7705789 -1.175439 0
2.3091154 -3.8538923 -1.2038178 0
2.3168113 -3.8374949 -1.2011155 0
2.3226123 -3.8181117 -1.1974794 0
2.3189669 -3.7834909 -1.1890531 0
2.3490608 -3.8039057 -1.1979374 0
2.3616884 -3.7958272 -1.1978801 0
2.3755245 -3.7896783 -1.1984465 0
2.3945124 -3.7916605 -1.2016056 0
2.407639 -3.7842827 -1.2018188 0
2.3964214 -3.7389123 -1.1899551 0
2.4376738 -3.7753522 -1.204147 0
2.4387105 -3.7493124 -1.1984427 0
2.4411848 -3.7257266 -1.1935132 0
2.4635091 -3.7324388 -1.1983026 0
2.4582617 -3.697464 -1.1897135 0
2.5167861 -3.7581 -1.2119323 0
2.5125995 -3.7247758 -1.2038957 0
2.5365984 -3.7332921 -1.2093904 0
2.5137007 -3.6730392 -1.1925951 0
2.530622 -3.6712935 -1.1947764 0
2.5493383 -3.6720376 -1.1977936 0
2.5724077 -3.678875 -1.2028304 0
2.5778751 -3.6604986 -1.1996415 0
2.624752 -3.7006438 -1.2156754 0
2.5917442 -3.6282649 -1.1947464 0
2.6253109 -3.6493247 -1.2045729 0
2.6169205 -3.6120532 -1.1951598 0
2.6338973 -3.6099484 -1.1973786 0
2.6598938 -3.6200254 -1.2036723 0
2.6415813 -3.5699558 -1.1899621 0
2.6708524 -3.5843182 -1.1977277 0
2.6742942 -3.5639346 -1.1939058 0
2.7009294 -3.5744035 -1.2004398 0
2.7009115 -3.5495741 -1.1951357 0
2.7049193 -3.5302169 -1.1916649 0
2.7310135 -3.5396273 -1.1979257 0
2.7464509 -3.5350652 -1.1994914 0
2.7897866 -3.5661011 -1.2131892 0
2.7648232 -3.5098782 -1.1972091 0
2.7903004 -3.5178924 -1.203127 0
2.7816155 -3.4828937 -1.1943405 0
2.8036997 -3.4865086 -1.1987969 0
2.8022149 -3.4608374 -1.1931938 0
2.826571 -3.4670842 -1.1986082 0
2.8232205 -3.4393642 -1.1922908 0
2.8487601 -3.446847 -1.1981891 0
2.8307498 -3.4017646 -1.1858102 0
2.9042923 -3.4664376 -1.211742 0
2.9198055 -3.4613123 -1.2133657 0
2.8778021 -3.3884025 -1.1911827 0
2.9140928 -3.4079082 -1.201468 0
2.9137344 -3.3844495 -1.196635 0
2.9404855 -3.3924515 -1.2029433 0
2.9356503 -3.3640177 -1.1963443 0
2.9545488 -3.3628476 -1.1994443 0
2.9904375 -3.3807678 -1.2094054 0
2.969434 -3.3344278 -1.196383 0
2.9856381 -3.3300757 -1.1984065 0
2.9902797 -3.3128381 -1.1958044 0
3.0344408 -3.3391852 -1.2089803 0
3.0388832 -3.3216298 -1.2063063 0
3.0473201 -3.3085093 -1.2052453 0
3.0537832 -3.2932994 -1.2034274 0
3.0502257 -3.2674217 -1.1977017 0
3.061151 -3.257163 -1.1976968 0
3.0709362 -3.2456996 -1.1972609 0
3.1058185 -3.2605991 -1.2065914 0
3.0832398 -3.2152402 -1.193625 0
3.142833 -3.255465 -1.2124631 0
3.1084902 -3.1983614 -1.1950704 0
3.1458161 -3.2151277 -1.2052693 0
3.161629 -3.2096899 -1.2071979 0
3.1655843 -3.1922259 -1.2046146 0
3.1700368 -3.1753514 -1.202251 0
3.193222 -3.1771986 -1.2069972 0
3.2383859 -3.2006009 -1.2200055 0
3.184972 -3.1267703 -1.1959265 0
3.2026916 -3.123148 -1.1986414 0
3.2181742 -3.117264 -1.2005177 0
3.2291882 -3.1070151 -1.2007334 0
3.260561 -3.1162159 -1.2085072 0
3.2342162 -3.0703552 -1.1949204 0
3.2708962 -3.0843923 -1.2046447 0
3.2265704 -3.0222206 -1.1845813 0
3.306495 -3.0763361 -1.2101307 0
3.2458942 -2.9997132 -1.1842642 0
3.2821262 -3.0128574 -1.193791 0
3.3274655 -3.0339828 -1.2065754 0
3.3099184 -2.9977212 -1.1965613 0
3.3754098 -3.0364978 -1.2165498 0
3.3659103 -3.0075953 -1.2094847 0
3.3506734 -2.9738367 -1.20042 0
3.3720243 -2.9726348 -1.2044917 0
3.4003327 -2.9773891 -1.211031 0
3.3734574 -2.9339325 -1.1979491 0
3.3813889 -2.9209759 -1.1972811 0
3.3945611 -2.9125376 -1.1984807 0
3.4046903 -2.9014664 -1.1986156 0
3.4090002 -2.8854649 -1.1967202 0
3.4449596 -2.8961327 -1.2059282 0
3.440099 -2.872416 -1.2008487 0
3.4318507 -2.8460546 -1.1946317 0
3.4504719 -2.842026 -1.19779 0
3.4426265 -2.8162441 -1.191782 0
3.457727 -2.8092988 -1.1937422 0
3.504133 -2.8275509 -1.2064836 0
3.4760373 -2.7856889 -1.1935877 0
3.5018494 -2.7871447 -1.1992354 0
3.5060315 -2.7713227 -1.1974789 0
3.5524311 -2.7886977 -1.2101263 0
3.510673 -2.7369428 -1.1927688 0
3.5560374 -2.7531898 -1.2050385 0
3.5673921 -2.7428999 -1.2057631 0
3.5634315 -2.7208929 -1.2013344 0
3.5887618 -2.7212348 -1.2067912 0
3.6061614 -2.7154338 -1.2095737 0
3.6057465 -2.6962249 -1.2063956 0
3.6123931 -2.6823583 -1.2056037 0
3.6268961 -2.674309 -1.2074447 0
3.6103761 -2.6434877 -1.1989875 0
3.6050129 -2.6210394 -1.1942812 0
3.6742616 -2.6526015 -1.214269 0
3.6460013 -2.6136487 -1.2020268 0
3.6209428 -2.5773501 -1.1909097 0
3.6389899 -2.5718572 -1.1940026 0
3.6950703 -2.5929587 -1.2095441 0
3.6704917 -2.5573876 -1.1986849 0
3.6246643 -2.5074472 -1.1809667 0
3.7050683 -2.544744 -1.2043769 0
3.7147925 -2.5331342 -1.2047703 0
3.7203062 -2.5186622 -1.203813 0
3.7614379 -2.5281584 -1.2143728 0
3.7189467 -2.4815378 -1.1979616 0
3.7630136 -2.4927487 -1.2094576 0
3.7586479 -2.4717646 -1.205384 0
3.7964067 -2.4784024 -1.2148215 0
3.7425549 -2.4253895 -1.1949804 0
3.7964985 -2.4423122 -1.2095829 0
3.7502744 -2.3948364 -1.1922908 0
3.7987418 -2.4078946 -1.2051262 0
3.8521433 -2.4236777 -1.2194825 0
3.7974241 -2.3715148 -1.1996361 0
3.8384867 -2.3793068 -1.2100811 0
3.8113866 -2.3448565 -1.1990527 0
3.8024845 -2.3218412 -1.1937963 0
3.8150451 -2.3119864 -1.1952994 0
3.8613863 -2.3224046 -1.2073722 0
3.8716207 -2.310919 -1.2081428 0
3.8415318 -2.2755256 -1.1963661 0
3.8480906 -2.2620161 -1.1960399 0
3.8928146 -2.2707789 -1.2075677 0
3.8774619 -2.2444332 -1.200464 0
3.8402889 -2.2057593 -1.186659 0
3.8855505 -2.2144642 -1.1983439 0
3.8867209 -2.1978996 -1.1964254 0
3.9323983 -2.206362 -1.2082021 0
3.8917902 -2.1664538 -1.193487 0
3.9267616 -2.1687081 -1.2019751 0
3.9680498 -2.1741807 -1.2123752 0
3.9649422 -2.155225 -1.2092111 0
1.707232 -0.9205988 -0.51972002 0
1.7459682 -0.93394423 -0.53055596 0
1.7680163 -0.93812776 -0.53629702 0
1.7904521 -0.94235283 -0.54214108 0
1.7540404 -0.91569167 -0.53018314 0
1.7536112 -0.90799874 -0.52913022 0
1.7651833 -0.90649861 -0.53170192 0
1.7624563 -0.89764333 -0.52997094 0
1.7879272 -0.90307921 -0.53671658 0
1.7608685 -0.88201439 -0.52770317 0
1.7880743 -0.88815498 -0.53496087 0
1.8006378 -0.88688117 -0.53782696 0
1.7562628 -0.8577199 -0.52371085 0
1.7981944 -0.87074357 -0.53534108 0
1.8189646 -0.87328464 -0.54064989 0
1.8096898 -0.86137766 -0.53703171 0
1.7828989 -0.84130538 -0.52824134 0
1.815973 -0.84947962 -0.53719378 0
1.8428973 -0.85455507 -0.54430777 0
4.083693 -1.8770063 -1.2042711 0
4.0729446 -1.8555505 -1.19926 0
4.0699267 -1.8377228 -1.1965505 0
4.0912395 -1.8308573 -1.2010049 0
4.0736251 -1.8066059 -1.1940492 0
4.0662808 -1.7870579 -1.1901335 0
4.0912805 -1.781702 -1.1956953 0
4.1384068 -1.7857422 -1.2077116 0
4.1529675 -1.7755324 -1.2102168 0
4.1525464 -1.7589083 -1.2083688 0
4.1392665 -1.7369381 -1.2028029 0
4.1283202 -1.716089 -1.1979436 0
4.1234875 -1.6978883 -1.1948825 0
4.1760955 -1.703197 -1.2084653 0
4.1093268 -1.6599181 -1.1875269 0
4.1673164 -1.6671124 -1.2026629 0
4.1839666 -1.6575217 -1.2058575 0
4.1762538 -1.6382878 -1.2020446 0
4.1479459 -1.6111567 -1.1923354 0
4.171495 -1.6042281 -1.1975517 0
4.2190156 -1.6062863 -1.2096411 0
4.2168808 -1.5893062 -1.2074944 0
4.2104206 -1.5707698 -1.2041297 0
4.2612967 -1.5734943 -1.217164 0
4.1636558 -1.5215964 -1.1878108 0
4.2199993 -1.5261681 -1.202418 0
4.2461085 -1.5195315 -1.2083989 0
4.2205124 -1.4944278 -1.1996819 0
4.2626266 -1.4932752 -1.2102228 0
4.1932807 -1.4532158 -1.1891445 0
4.2728252 -1.4647545 -1.2103024 0
4.2606788 -1.4446449 -1.2054832 0
4.2570105 -1.4275053 -1.2030843 0
4.2290215 -1.4023638 -1.1938387 0
4.2512217 -1.3939221 -1.1987797 0
4.2669086 -1.3832388 -1.2018887 0
4.2569165 -1.3642441 -1.1977789 0
4.2500849 -1.3463581 -1.1945798 0
4.2922907 -1.3439095 -1.2051694 0
4.2754188 -1.3229035 -1.1991801 0
4.2688527 -1.305205 -1.1961044 0
4.296483 -1.2979171 -1.2026201 0
4.2951593 -1.281818 -1.2010399 0
4.2554998 -1.2544591 -1.1887673 0
4.3035827 -1.2529657 -1.2010188 0
4.3351526 -1.2464055 -1.2086562 0
4.3552327 -1.2363845 -1.213092 0
4.3622422 -1.2225848 -1.2138958 0
4.3185935 -1.1947494 -1.2006282 0
4.3229675 -1.1803705 -1.2007371 0
4.3180285 -1.1634791 -1.198275 0
4.3112884 -1.1461724 -1.1953315 0
4.316505 -1.1320777 -1.1957186 0
4.3482637 -1.1248389 -1.2034647 0
4.3333435 -1.1054914 -1.1983026 0
4.3301668 -1.089231 -1.1964076 0
4.3443556 -1.0773257 -1.1993232 0
4.3630786 -1.0664533 -1.203498 0
4.3265605 -1.0421671 -1.1924545 0
4.3645821 -1.0358552 -1.2019697 0
4.3547044 -1.0181001 -1.1983026 0
4.4023952 -1.0136949 -1.2104839 0
4.3473678 -0.98568732 -1.1944381 0
4.3801069 -0.97768134 -1.2025259 0
4.371305 -0.96034169 -1.1992185 0
4.3568501 -0.94186455 -1.19438 0
4.4430203 -0.9449113 -1.2171273 0
4.3800707 -0.9161846 -1.1990345 0
4.4011602 -0.90520483 -1.2039702 0
4.3761106 -0.88477033 -1.1962994 0
4.3440762 -0.86314338 -1.1867442 0
4.3710289 -0.853275 -1.1933192 0
4.3857532 -0.84089434 -1.1965626 0
4.4208817 -0.83227217 -1.2053787 0
4.4409037 -0.82063389 -1.2100807 0
4.456243 -0.80802685 -1.2135155 0
4.3845353 -0.77984965 -1.1932694 0
4.4011989 -0.76759934 -1.1970973 0
4.4034643 -0.75279015 -1.1970202 0
4.483891 -0.75107521 -1.2181917 0
4.3696718 -0.7168895 -1.1865007 0
4.4429951 -0.71362978 -1.2057538 0
4.4042449 -0.69226629 -1.1946011 0
4.4384151 -0.68239635 -1.2032419 0
4.3905201 -0.65997171 -1.1896511 0
4.4115486 -0.6480149 -1.1947536 0
4.4906917 -0.64426643 -1.2155956 0
4.3812709 -0.61358339 -1.1854128 0
4.4222522 -0.60421187 -1.195946 0
4.482152 -0.5970946 -1.211597 0
4.4179945 -0.57347882 -1.1937277 0
4.4786177 -0.56608564 -1.2095883 0
4.4364734 -0.54565269 -1.197705 0
4.4178758 -0.52833509 -1.1921993 0
4.4231372 -0.51392823 -1.1931475 0
4.4538727 -0.5023706 -1.2009773 0
4.4723363 -0.48927316 -1.2055069 0
4.4572797 -0.47250813 -1.2010145 0
4.4425521 -0.45588976 -1.1966277 0
4.4594588 -0.44252065 -1.2007753 0
4.455977 -0.42709288 -1.1994454 0
4.4555621 -0.41198203 -1.1989552 0
4.473412 -0.39851037 -1.2033921 0
4.4399667 -0.3805308 -1.1940451 0
4.4954467 -0.37010694 -1.2086248 0
4.4961162 -0.35498932 -1.208478 0
4.4507546 -0.33639616 -1.1959758 0
4.4722013 -0.3229408 -1.2014412 0
4.3913016 -0.30230245 -1.1794287 0
4.4617729 -0.29212683 -1.1980864 0
4.4109211 -0.27394816 -1.1841781 0
4.4889841 -0.26369068 -1.2048912 0
4.4575019 -0.24684753 -1.1962122 0
4.4651213 -0.23225555 -1.1980413 0
4.4786043 -0.21790288 -1.2014562 0
4.4934769 -0.20352741 -1.205256 0
4.4637494 -0.18718632 -1.1971073 0
4.440022 -0.17128059 -1.1905833 0
4.5082841 -0.15877786 -1.2087382 0
4.4706516 -0.14244632 -1.1985135 0
4.4259377 -0.12616874 -1.1864064 0
4.4621716 -0.11223001 -1.1960115 0
4.5143375 -0.098397955 -1.2098985 0
4.4851794 -0.082718305 -1.2020026 0
4.472796 -0.067489229 -1.1986166 0
4.4619155 -0.052362364 -1.1956471 0
4.4632192 -0.037411772 -1.1959561 0
4.4840794 -0.022551639 -1.2015188 0
4.4650044 -0.0074851792 -1.1963941 0
4.4376526 0.007439327 -1.1890653 0
4.4929686 0.022596346 -1.2039006 0
4.4811578 0.037562139 -1.200763 0
4.5157995 0.052994709 -1.2100862 0
4.4671688 0.067404322 -1.1971087 0
4.4396486 0.081878603 -1.1898007 0
4.4712811 0.097459465 -1.1983589 0
4.4449959 0.11179801 -1.1914078 0
4.4843802 0.12783474 -1.2020723 0
4.5082855 0.14364545 -1.2086027 0
4.5152946 0.15902476 -1.2106178 0
4.4769835 0.17270645 -1.2004945 0
4.5011191 0.18875341 -1.2071294 0
4.4733977 0.20261796 -1.1998703 0
4.4865966 0.21829171 -1.2036 0
4.4819341 0.23313007 -1.2025523 0
4.4503055 0.24644899 -1.194281 0
4.447926 0.2612789 -1.1938709 0
4.4863272 0.27863139 -1.2044221 0
4.4475708 0.29119694 -1.1942728 0
4.5123658 0.31063667 -1.2119445 0
4.4692688 0.32272899 -1.2006532 0
4.502502 0.34030733 -1.2098809 0
4.448204 0.35120642 -1.1956 0
4.4301939 0.36473471 -1.1910812 0
4.4480476 0.38122338 -1.1962183 0
4.4465232 0.39611501 -1.1961588 0
4.470263 0.41334131 -1.202911 0
4.4106169 0.42274529 -1.1872355 0
4.50176 0.44671828 -1.2121655 0
4.4792538 0.45965606 -1.2065135 0
4.4412422 0.47080803 -1.1966933 0
4.4234967 0.48393011 -1.1923423 0
4.4430375 0.50114846 -1.1980556 0
4.4107065 0.51248384 -1.1897943 0
4.4288902 0.5296523 -1.1951717 0
4.432353 0.54514593 -1.1965927 0
4.4493446 0.56238562 -1.2016822 0
4.4261627 0.57453912 -1.1959348 0
4.4804192 0.59686375 -1.2111286 0
4.5111527 0.6163584 -1.2199881 0
4.4174805 0.61865437 -1.1952097 0
4.3964167 0.63074106 -1.1900761 0
4.3917985 0.64511377 -1.1894048 0
4.3624072 0.65574586 -1.1820338 0
4.4047647 0.67722261 -1.1941195 0
4.443779 0.69848031 -1.2053242 0
4.4618492 0.71665812 -1.2108705 0
4.438386 0.72816277 -1.2051587 0
4.4448266 0.74453169 -1.2075785 0
4.4268055 0.75678045 -1.2033652 0
4.4150434 0.77001393 -1.2008629 0
4.3960085 0.78189039 -1.1963918 0
4.3887939 0.79579663 -1.1951478 0
4.4534149 0.82294583 -1.2134899 0
4.4178467 0.83170074 -1.204551 0
4.3840437 0.84056658 -1.1960962 0
4.4278617 0.86436945 -1.2088349 0
4.4273105 0.87968165 -1.2094829 0
4.4214454 0.89393616 -1.2086926 0
4.393352 0.9035989 -1.2018342 0
4.3976145 0.91985434 -1.2038372 0
4.3822351 0.93198389 -1.2004757 0
4.3123331 0.93224096 -1.1821762 0
4.3483696 0.95530307 -1.1929266 0
4.3946972 0.98093808 -1.2065315 0
4.3483629 0.98591292 -1.1947116 0
4.3496947 1.0015601 -1.1959934 0
4.3517227 1.0174031 -1.1974823 0
4.4032421 1.0450305 -1.2126164 0
4.3952422 1.0587108 -1.2113841 0
4.3934002 1.0738647 -1.2118618 0
4.3282695 1.0733366 -1.1948824 0
4.3099709 1.0841509 -1.1908276 0
4.3094416 1.0993937 -1.1916929 0
4.3446383 1.123901 -1.2024612 0
4.351347 1.1412156 -1.2053703 0
4.3269305 1.1503309 -1.1996683 0
4.3198481 1.1639693 -1.1987799 0
4.3076334 1.1761835 -1.196478 0
4.2665596 1.180354 -1.1861619 0
4.3329983 1.2143887 -1.205758 0
4.2994952 1.2205614 -1.1975671 0
4.3227844 1.2428493 -1.2052078 0
4.3006177 1.2521024 -1.2001914 0
4.3070922 1.2696679 -1.2031795 0
4.3145204 1.287596 -1.2064537 0
4.3353915 1.3096708 -1.2135109 0
4.2712326 1.3059328 -1.1967713 0
4.2887425 1.3270262 -1.2029173 0
4.2781367 1.3394779 -1.2011954 0
4.269381 1.3524709 -1.2000035 0
4.2612066 1.3656189 -1.1989861 0
4.2885265 1.3902469 -1.207978 0
4.2297459 1.3868805 -1.1927239 0
4.2196364 1.3992517 -1.1911894 0
4.2528353 1.4261053 -1.2019044 0
4.2618704 1.4450489 -1.2058203 0
4.2581377 1.4597195 -1.2061421 0
4.2109685 1.4593457 -1.1941605 0
4.2031822 1.4724507 -1.1933457 0
4.2039671 1.4885693 -1.1949787 0
4.2134619 1.5078484 -1.199108 0
4.1979938 1.5182097 -1.1961479 0
4.2082701 1.5379004 -1.2005383 0
4.2320142 1.5626818 -1.2088001 0
4.1668262 1.5545061 -1.1916622 0
4.144825 1.562149 -1.1868614 0
4.1776185 1.5905254 -1.197772 0
4.1467113 1.5946971 -1.190437 0
4.2346473 1.6448333 -1.2172579 0
4.1749878 1.6377913 -1.2016803 0
4.1273346 1.6350863 -1.1895355 0
4.1578803 1.6633373 -1.1999397 0
4.1087737 1.6596947 -1.1873671 0
4.190434 1.7090451 -1.2126148 0
4.1187005 1.6959171 -1.1934953 0
4.1146526 1.7104075 -1.1939775 0
4.1066732 1.7232614 -1.193332 0
4.1183529 1.7444247 -1.1984186 0
4.0814376 1.7449509 -1.1893723 0
4.1437092 1.7880304 -1.2092592 0
4.0670438 1.7711474 -1.1886121 0
4.1170845 1.8093853 -1.2050029 0
4.1277733 1.8306199 -1.209921 0
4.0626564 1.8180662 -1.1926142 0
4.0741506 1.8396301 -1.1977923 0
4.1039758 1.8696878 -1.208397 0
4.0679336 1.8697628 -1.1996237 0
4.0633764 1.8841957 -1.2001361 0
4.0740108 1.9057491 -1.2051573 0
4.0860219 1.9280914 -1.2106159 0
4.0237999 1.9152516 -1.1940764 0
4.0597672 1.9490936 -1.2066824 0
3.969161 1.9219954 -1.1816603 0
3.9990497 1.9530475 -1.1925013 0
4.085886 2.0124509 -1.2204007 0
4.0456533 2.0095179 -1.2103895 0
4.0199914 2.0136032 -1.2047249 0
4.0289807 2.0350318 -1.2094568 0
3.9970522 2.035754 -1.2019144 0
3.9873528 2.0476794 -1.2010555 0
4.0053635 2.0739291 -1.2085683 0
3.9577715 2.066143 -1.1962916 0
3.9478812 2.0778534 -1.1954012 0
3.9659708 2.1043851 -1.2030083 0
3.9580042 2.1171949 -1.2027382 0
3.9033654 2.1048303 -1.1882727 0
3.9005499 2.1202233 -1.1895729 0
3.9194648 2.1475599 -1.1975307 0
3.9677701 2.1913564 -1.2145277 0
3.9242094 2.1845007 -1.203429 0
3.9397013 2.2104595 -1.2104459 0
3.9240937 2.2190337 -1.2079296 0
3.8472135 2.192615 -1.1865205 0
3.8870461 2.2326152 -1.201107 0
3.8383176 2.2217748 -1.1883451 0
3.8501277 2.2458785 -1.1943259 0
3.8392689 2.2568305 -1.1932981 0
3.9169824 2.3202186 -1.2198635 0
3.8243322 2.2826934 -1.1933864 0
3.8612704 2.322335 -1.2073359 0
3.8200054 2.3149924 -1.1968535 0
3.8153603 2.3297033 -1.1978387 0
3.8092229 2.3435254 -1.198372 0
3.8745427 2.4016564 -1.2214477 0
3.7992594 2.3726609 -1.2002159 0
3.8145554 2.4000282 -1.2075833 0
3.7743781 2.3924513 -1.1973969 0
3.7933486 2.4223425 -1.205985 0
3.7563901 2.4165103 -1.1968042 0
3.7728791 2.4450412 -1.2046628 0
3.7142649 2.4247777 -1.1885366 0
3.7678063 2.4777875 -1.2083211 0
3.724143 2.4669995 -1.1969644 0
3.7835667 2.5246568 -1.2187773 0
3.7132659 2.4957807 -1.1988205 0
3.7065411 2.5093431 -1.1993589 0
3.716167 2.5340714 -1.2052161 0
3.6611834 2.5146024 -1.1901116 0
3.6682549 2.5376022 -1.1951692 0
3.6482697 2.5419044 -1.1914278 0
3.6579819 2.5669324 -1.1974036 0
3.6832771 2.603157 -1.2085339 0
3.6956139 2.6305003 -1.2154688 0
3.6714604 2.6318989 -1.2104203 0
3.6387463 2.6269617 -1.2025319 0
3.639895 2.6464007 -1.2058371 0
3.6058581 2.6401796 -1.197487 0
3.6088738 2.6610203 -1.2014447 0
3.6092002 2.6799877 -1.2045381 0
3.6229115 2.7090604 -1.2121387 0
3.5920482 2.7048068 -1.2048399 0
3.5722361 2.708704 -1.2012341 0
3.569175 2.7252781 -1.2032706 0
3.5735595 2.7476418 -1.2078477 0
3.5459952 2.7454147 -1.2016356 0
3.5455549 2.7641368 -1.2046201 0
3.5471592 2.784559 -1.2083304 0
3.5092459 2.7738636 -1.1985767 0
3.5499942 2.8254633 -1.2157229 0
3.5125463 2.8149471 -1.2061239 0
3.4907453 2.8167481 -1.2018741 0
3.488023 2.8339133 -1.2042016 0
3.4710746 2.8395162 -1.2016304 0
3.4454823 2.8379161 -1.1960579 0
3.4296329 2.8442154 -1.1938597 0
3.4679861 2.8957009 -1.2105833 0
3.4426839 2.8942196 -1.2051316 0
3.4358687 2.9082072 -1.2061524 0
3.4418972 2.9331741 -1.2117143 0
3.4411311 2.9524949 -1.2149227 0
3.3969891 2.9344521 -1.2028048 0
3.3762686 2.9363775 -1.1989473 0
3.3737659 2.9541268 -1.2015691 0
3.3697767 2.9706535 -1.203689 0
3.343359 2.967345 -1.1977996 0
3.3327944 2.9780045 -1.197585 0
3.3255868 2.9916773 -1.1985927 0
3.3372254 3.0224526 -1.2064331 0
3.33237 3.0384548 -1.2083539 0
3.3031881 3.0321913 -1.2014518 0
3.2697287 3.02174 -1.1929601 0
3.3115888 3.0810754 -1.211995 0
3.282043 3.0741799 -1.2049471 0
3.2994721 3.1113389 -1.215169 0
3.2475958 3.0830567 -1.1998636 0
3.2158043 3.0734406 -1.1919184 0
3.2628219 3.1393762 -1.2132397 0
3.2219551 3.1209261 -1.201928 0
3.2171106 3.1372089 -1.2040379 0
3.1399803 3.0826008 -1.1790326 0
3.2164867 3.178957 -1.2117553 0
3.1625078 3.1466386 -1.1953876 0
3.1791453 3.1844752 -1.2057054 0
3.1656334 3.1922755 -1.2046334 0
3.1550612 3.2030222 -1.2046902 0
3.1336579 3.2027016 -1.2006111 0
3.10113 3.1907885 -1.1922407 0
3.0955877 3.2065265 -1.1942365 0
3.0760293 3.2077212 -1.1908336 0
3.0735917 3.2267663 -1.1940714 0
3.062048 3.2363052 -1.1937956 0
3.0794051 3.2765861 -1.2048389 0
3.0852852 3.3049777 -1.2114682 0
3.0582972 3.2981672 -1.2052064 0
3.0374384 3.2977808 -1.201337 0
3.0424311 3.3255076 -1.2077147 0
3.0141602 3.3168678 -1.2009001 0
2.9932358 3.316113 -1.1969864 0
2.9742637 3.317389 -1.1938407 0
2.9546752 3.3178546 -1.1904366 0
2.9796312 3.3685508 -1.205035 0
2.9709249 3.3814864 -1.2060924 0
2.9697604 3.403105 -1.2102449 0
2.944241 3.3967843 -1.2044797 0
2.4552157 3.7198737 -1.1942686 0
2.4711275 3.771425 -1.2081524 0
2.4653497 3.7902677 -1.2115338 0
2.4303188 3.7639616 -1.2005138 0
2.4449677 3.8146548 -1.214061 0
2.407074 3.7833946 -1.2015368 0
2.3909605 3.7860363 -1.1998231 0
2.3840535 3.8032846 -1.2027494 0
2.3541465 3.7837052 -1.1940547 0
2.3316894 3.7757759 -1.1890786 0
2.3445258 3.8251913 -1.2021583 0
2.3276172 3.8263392 -1.2000598 0
2.328902 3.8575211 -1.2073836 0
2.2893991 3.8209858 -1.193539 0
2.296797 3.8626485 -1.2041408 0
2.26596 3.8400381 -1.194717 0
2.2808595 3.8950665 -1.2094516 0
2.2358 3.8476443 -1.1923921 0
2.248163 3.8989544 -1.2059505 0
2.2481487 3.9293153 -1.2130029 0
2.1768606 3.8344872 -1.1814692 0
2.2259798 3.9518118 -1.2153125 0
2.1851943 3.9100049 -1.2001956 0
2.180707 3.9328816 -1.2049665 0
2.173054 3.9502516 -1.2080494 0
2.1297882 3.902528 -1.1912643 0
2.122591 3.9205432 -1.1945844 0
2.1167598 3.9412775 -1.1987329 0
2.0887425 3.9205894 -1.1903039 0
2.0885854 3.9521697 -1.197759 0
2.0649273 3.9393182 -1.1917592 0
2.0751042 3.9912195 -1.2053493 0
2.0659356 4.0063477 -1.2078193 0
2.046602 4.0017357 -1.2043536 0
2.0223212 3.987179 -1.1979252 0
2.0394127 4.0545163 -1.2160952 0
2.0000367 4.0096669 -1.2006251 0
1.984551 4.0122442 -1.1993977 0
1.9776086 4.0321712 -1.2033657 0
1.9706014 4.0521927 -1.2073623 0
1.9541571 4.0528722 -1.2056059 0
1.9430197 4.0645518 -1.2071354 0
1.8987827 4.0064802 -1.1879913 0
1.9017658 4.0477872 -1.1983421 0
1.9123124 4.105948 -1.2136556 0
1.8755541 4.0625577 -1.1989646 0
1.8502566 4.0433302 -1.1914525 0
1.8606144 4.1022601 -1.2069724 0
1.8305163 4.0721397 -1.1962979 0
1.8021195 4.0451822 -1.1865968 0
1.8229554 4.1291404 -1.2094249 0
1.8080838 4.1329045 -1.208745 0
1.7731612 4.0903716 -1.1945601 0
1.776431 4.135859 -1.2060981 0
1.7673506 4.1530623 -1.2093801 0
1.7440411 4.1367278 -1.2029139 0
1.7046269 4.0814137 -1.1851605 0
1.7069184 4.1257434 -1.1963644 0
1.6715896 4.0790124 -1.1811818 0
1.7023594 4.1941195 -1.2128543 0
1.6798235 4.1787477 -1.2067735 0
1.6619374 4.1746445 -1.2039727 0
1.6481699 4.180799 -1.2041471 0
1.6304742 4.1769023 -1.2014436 0
1.6165684 4.1826243 -1.2015237 0
1.606769 4.1990833 -1.2046975 0
1.5887074 4.1939569 -1.2016917 0
1.5669255 4.1786952 -1.1958069 0
1.5568423 4.1945295 -1.1988376 0
1.5293989 4.1633272 -1.1884474 0
1.5377533 4.2298312 -1.2059529 0
1.502097 4.1752958 -1.1889619 0
1.5037072 4.2241812 -1.20144 0
1.4876652 4.2238874 -1.1999311 0
1.4786029 4.2435117 -1.2040908 0
1.4617275 4.2407875 -1.2019206 0
1.4298337 4.1938453 -1.1872509 0
1.4552178 4.3156195 -1.2203363 0
1.4171017 4.2495875 -1.200314 0
1.3865272 4.2048268 -1.1863514 0
1.3909426 4.2662597 -1.2023615 0
1.3606648 4.2213659 -1.1884167 0
1.3660457 4.2872353 -1.2056643 0
1.3492106 4.2840023 -1.2034762 0
1.3387426 4.3010411 -1.2069951 0
1.3154049 4.2765393 -1.1988747 0
1.3045374 4.2923703 -1.2020799 0
1.3012955 4.3338776 -1.2124754 0
1.2735014 4.2935243 -1.1999846 0
1.2592119 4.2981558 -1.2000922 0
1.2348191 4.2678776 -1.1904756 0
1.2283397 4.2994242 -1.1981196 0
1.2327104 4.370142 -1.2166679 0
1.2006088 4.3116117 -1.1992455 0
1.1893061 4.3271103 -1.2024403 0
1.1698099 4.3127084 -1.1973416 0
1.1504736 4.2984109 -1.1922945 0
1.1406471 4.3196325 -1.1971134 0
1.1271533 4.3272543 -1.1981717 0
1.1223131 4.3686686 -1.2085901 0
1.1011097 4.3465519 -1.2014434 0
1.0887766 4.3592124 -1.2039273 0
1.0764457 4.3721433 -1.2064949 0
1.0445322 4.3046446 -1.1868955 0
1.0526032 4.4022636 -1.2128316 0
1.0170878 4.3176832 -1.1885834 0
1.0115942 4.359808 -1.1992391 0
0.98687786 4.3190036 -1.1870984 0
0.9850651 4.3786225 -1.2025703 0
0.97740728 4.4136386 -1.2112805 0
0.94736975 4.3469901 -1.192111 0
0.94191927 4.3927178 -1.2037785 0
0.93983668 4.4558291 -1.2202032 0
0.90428191 4.3595934 -1.1930126 0
0.89858961 4.4063892 -1.204987 0
0.87520051 4.3664198 -1.1932478 0
0.86887765 4.4115825 -1.2047869 0
0.84939653 4.3902555 -1.1981781 0
0.85138243 4.4810295 -1.2221659 0
0.82259035 4.4100714 -1.2020538 0
0.8071698 4.4093642 -1.2011164 0
0.7889958 4.3931942 -1.1959845 0
0.7805962 4.4317775 -1.2057689 0
0.76150936 4.4099112 -1.1991184 0
0.7472834 4.4157715 -1.2000239 0
0.73303145 4.4216156 -1.2009373 0
0.72022885 4.4365306 -1.2043257 0
0.70421636 4.4317861 -1.2023901 0
0.68966228 4.4361091 -1.2029288 0
0.67089522 4.4128113 -1.1959945 0
0.6596452 4.4389186 -1.2024642 0
0.63884085 4.4003439 -1.1914276 0
0.62918884 4.4384737 -1.2011737 0
0.61525661 4.4474449 -1.2030364 0
0.60218894 4.4631739 -1.2067382 0
0.58992606 4.4857335 -1.2122962 0
0.57525039 4.4905548 -1.2130712 0
0.54826742 4.3968353 -1.1872507 0
0.54032773 4.4547548 -1.2023944 0
0.52115655 4.4206424 -1.1927086 0
0.5116477 4.468792 -1.2052301 0
0.49551538 4.4601636 -1.2024481 0
0.48207051 4.4758377 -1.2062314 0
0.4644168 4.4520793 -1.1994021 0
0.44931954 4.4519501 -1.1989547 0
0.43780285 4.4884157 -1.2083732 0
0.4172529 4.4314594 -1.1926559 0
0.40525571 4.4643726 -1.2011416 0
0.38817257 4.4415331 -1.1946397 0
0.37601221 4.4753432 -1.2033877 0
0.35708016 4.4279084 -1.1903043 0
0.3450163 4.4651113 -1.1999874 0
0.33354059 4.5135641 -1.2127017 0
0.31651875 4.4879036 -1.2055154 0
0.30345365 4.5184784 -1.213448 0
0.2824848 4.4282737 -1.1889623 0
0.27074704 4.4806809 -1.2027828 0
0.25398496 4.4511104 -1.1946096 0
0.24028297 4.4747157 -1.200722 0
0.22620133 4.4938245 -1.2056392 0
0.20750733 4.4173732 -1.184935 0
0.19428882 4.4545741 -1.1947324 0
0.18092075 4.4941592 -1.2051798 0
0.16591416 4.4964342 -1.205634 0
0.1506826 4.4923463 -1.2043955 0
0.13562837 4.4931111 -1.2044719 0
0.11920676 4.4429898 -1.190922 0
0.10372889 4.4186282 -1.1842922 0
0.090599485 4.5027447 -1.2067492 0
0.074432276 4.4392166 -1.1896498 0
0.059907742 4.4662604 -1.1968366 0
0.044329513 4.4064603 -1.1807654 0
0.03014477 4.4944816 -1.2043179 0
0.014904786 4.443676 -1.1906842 0
5.9657273e-06 4.4963446 -1.20479 0
-0.015008691 4.4781966 -1.1999341 0
-0.030098096 4.4892988 -1.2029293 0
-0.045091093 4.483346 -1.2013677 0
-0.060197275 4.4887338 -1.2028589 0
-0.074770756 4.4601097 -1.1952488 0
-0.089824714 4.464828 -1.1965873 0
-0.1055632 4.4972744 -1.2053711 0
-0.11959459 4.4578862 -1.1949148 0
-0.13644628 4.5206051 -1.2118422 0
-0.1497435 4.4647021 -1.1969842 0
-0.16531941 4.480639 -1.2013986 0
-0.17846589 4.4334722 -1.1889055 0
-0.19564657 4.4859772 -1.2031547 0
-0.21024942 4.4759998 -1.2006611 0
-0.22779354 4.5256958 -1.2141898 0
-0.2400163 4.4699712 -1.1994486 0
-0.25374129 4.4470477 -1.193519 0
-0.27216443 4.5043364 -1.2091327 0
-0.2874338 4.506043 -1.2098427 0
-0.30189943 4.4955144 -1.2072808 0
-0.31528074 4.4705191 -1.2008454 0
-0.33040515 4.4712958 -1.2013448 0
-0.34992135 4.5287476 -1.2170893 0
-0.35894775 4.4512143 -1.1965692 0
-0.37477165 4.4607196 -1.1994554 0
-0.38456273 4.400363 -1.183566 0
-0.40209949 4.4297338 -1.1918217 0
-0.41968548 4.4574213 -1.199643 0
-0.43290696 4.4383445 -1.1948925 0
-0.4429279 4.3887367 -1.1819304 0
-0.4692536 4.4985623 -1.2119244 0
-0.48205051 4.4757638 -1.2062111 0
-0.49569604 4.4618974 -1.2029152 0
-0.5097459 4.4522862 -1.2007781 0
-0.52301568 4.4365129 -1.1969903 0
-0.53734708 4.4302788 -1.1957877 0
-0.55754346 4.4713216 -1.2073634 0
-0.56859726 4.4387121 -1.1990662 0
-0.58363974 4.438024 -1.1994021 0
-0.60630131 4.4937425 -1.2150029 0
-0.61811763 4.4682131 -1.2086539 0
-0.62312913 4.3958106 -1.1896274 0
-0.64097553 4.4151297 -1.1954305 0
-0.6605351 4.4449883 -1.2041079 0
-0.67568767 4.4444132 -1.204559 0
-0.69394016 4.4637036 -1.2104111 0
-0.70556623 4.4403572 -1.204715 0
-0.71712935 4.4175119 -1.1991624 0
-0.73156887 4.4128656 -1.1985604 0
-0.74774253 4.4185562 -1.20078 0
-0.76403964 4.424634 -1.2031212 0
-0.776443 4.4082665 -1.1993717 0
-0.79147679 4.4070754 -1.1997629 0
-0.80521572 4.3987556 -1.1982261 0
-0.81988591 4.395637 -1.1981188 0
-0.84091377 4.4259944 -1.207155 0
-0.8548255 4.4183793 -1.2058529 0
-0.86096066 4.3714466 -1.1938252 0
-0.87560123 4.3684797 -1.19381 0
-0.90338671 4.4299726 -1.2114357 0
-0.90259874 4.3515372 -1.1908072 0
-0.92474836 4.3843517 -1.2006289 0
-0.94304025 4.3980026 -1.2052262 0
-0.94460976 4.3343811 -1.1886525 0
-0.96386468 4.3525395 -1.1945118 0
-0.97949803 4.353931 -1.1957881 0
-0.99336529 4.3474488 -1.1949159 0
-1.0196394 4.3945341 -1.2087904 0
-1.0284324 4.3658948 -1.2018543 0
-1.0470163 4.3789492 -1.2064075 0
-1.0538529 4.3431067 -1.1974998 0
-1.0718614 4.3535733 -1.2013696 0
-1.0758286 4.3074203 -1.1896225 0
-1.0978929 4.3339019 -1.1979461 0
-1.1172537 4.3490219 -1.2031541 0
-1.1341147 4.3540273 -1.205584 0
-1.1443502 4.3337026 -1.2010119 0
-1.1693068 4.3688216 -1.2118243 0
-1.1695546 4.3118124 -1.1970919 0
-1.1869379 4.3185387 -1.2000575 0
-1.2080135 4.3382478 -1.2066531 0
-1.2172556 4.3153963 -1.2014256 0
-1.2256789 4.2901545 -1.1955355 0
-1.2417837 4.2919922 -1.1972011 0
-1.2483841 4.2612386 -1.1897836 0
-1.2711968 4.2857966 -1.1978238 0
-1.2807245 4.2654085 -1.1933191 0
-1.3062608 4.2980824 -1.2036785 0
-1.313158 4.2692747 -1.1968373 0
-1.3282646 4.2674179 -1.1975584 0
-1.3317927 4.2287359 -1.1879497 0
-1.3609641 4.2713261 -1.2011893 0
-1.3676655 4.2431235 -1.194541 0
-1.3908261 4.2659407 -1.2022706 0
-1.4020939 4.2520728 -1.1996803 0
-1.4098241 4.2278008 -1.1941593 0
-1.4371461 4.262063 -1.2051909 0
-1.4364676 4.2133403 -1.1927687 0
-1.4571565 4.2275629 -1.1981714 0
-1.4732459 4.2281733 -1.1997374 0
-1.4832505 4.2113891 -1.1963794 0
-1.4935538 4.195694 -1.1933366 0
-1.5050979 4.183672 -1.1913459 0
-1.5428011 4.243751 -1.2099203 0
-1.5495147 4.2181211 -1.2040874 0
-1.5645341 4.2152877 -1.2047693 0
-1.5633359 4.1691561 -1.1930758 0
-1.5897895 4.196847 -1.2025187 0
-1.6103666 4.208519 -1.2074033 0
-1.6205275 4.1929007 -1.2044744 0
-1.6405128 4.202652 -1.208849 0
-1.6460071 4.1753449 -1.2025751 0
-1.6477348 4.1390009 -1.1936917 0
-1.6594412 4.1280761 -1.1921389 0
-1.6774685 4.1328268 -1.1951284 0
-1.6963633 4.1394968 -1.1986952 0
-1.7116746 4.1372709 -1.1997057 0
-1.7157323 4.1080341 -1.1928893 0
-1.7641671 4.1844959 -1.216803 0
-1.763808 4.1447682 -1.2069634 0
-1.7644495 4.1079936 -1.1979706 0
-1.7810019 4.108489 -1.1998496 0
-1.8018588 4.1187048 -1.2045907 0
-1.8119618 4.1042686 -1.2021385 0
-1.8159465 4.0762486 -1.1957082 0
