# .PCD v0.7 - Point Cloud Data file format
VERSION 0.7
FIELDS x y z intensity
SIZE 4 4 4 4
TYPE F F F F
COUNT 1 1 1 1
WIDTH 1405
HEIGHT 1
VIEWPOINT 0 0 0 1 0 0 0
POINTS 1405
DATA ascii
4.673315 5.9737592 -1.2012757 0
4.6696529 6.0104942 -1.2055078 0
4.6177444 5.984992 -1.1972808 0
4.6192837 6.0286722 -1.2029139 0
4.6021914 6.0482616 -1.203737 0
4.5439634 6.0134702 -1.1937739 0
4.5529938 6.0676093 -1.2014842 0
4.5658026 6.1273656 -1.2102787 0
4.5069833 6.0909467 -1.2000939 0
4.5016294 6.126565 -1.2041311 0
4.4552813 6.1062884 -1.1972033 0
4.4550571 6.1491752 -1.2026763 0
4.4498324 6.1855092 -1.2068578 0
4.415915 6.1819792 -1.2032735 0
4.3471494 6.1290555 -1.1901288 0
4.3839121 6.2250128 -1.2059007 0
4.3245792 6.1847062 -1.195277 0
4.3293772 6.2359853 -1.2023752 0
4.2788024 6.2074623 -1.1941028 0
4.284029 6.2598562 -1.2014118 0
4.2450829 6.2477903 -1.1963576 0
4.2386236 6.2835021 -1.2004679 0
4.1983781 6.2690763 -1.1950159 0
4.1814151 6.2892532 -1.1961828 0
4.1548939 6.2950397 -1.1946272 0
4.16889 6.3625431 -1.2047781 0
4.1207051 6.3352375 -1.1969848 0
4.1214094 6.3830414 -1.2033993 0
4.097837 6.3934727 -1.2027688 0
4.0603352 6.3819599 -1.1980352 0
4.0341244 6.3879523 -1.1966144 0
4.0070233 6.3924108 -1.1949261 0
3.9990575 6.4274907 -1.1989704 0
3.987859 6.4576621 -1.2020977 0
3.9483974 6.4419742 -1.1967064 0
3.9489162 6.4915719 -1.2034537 0
3.9090083 6.4747601 -1.1979005 0
3.8896761 6.4918332 -1.1986396 0
3.8489065 6.4729152 -1.1927572 0
3.8427036 6.5120869 -1.1975945 0
3.789701 6.4717436 -1.1878319 0
3.8093727 6.555645 -1.2008803 0
3.8106112 6.6086845 -1.2082491 0
3.7604458 6.5725093 -1.1993233 0
3.7389455 6.586062 -1.1995021 0
3.7408137 6.6411171 -1.2072381 0
3.7186449 6.6538343 -1.2072766 0
3.6909912 6.6566629 -1.2055377 0
3.6707046 6.6727324 -1.2062123 0
3.6558578 6.6988292 -1.2087071 0
3.605423 6.6594157 -1.1994077 0
3.5612845 6.6308947 -1.1921135 0
3.5676751 6.6965599 -1.2017617 0
3.555541 6.7280469 -1.2052662 0
3.5260699 6.7267799 -1.2029146 0
3.5110016 6.7529998 -1.2054914 0
3.4679885 6.725266 -1.1984583 0
3.4465964 6.7391553 -1.1988673 0
3.4049497 6.7131495 -1.1922034 0
3.4219608 6.803133 -1.2061394 0
3.3776722 6.7715454 -1.1985247 0
3.3596115 6.7922578 -1.2001902 0
3.3229382 6.7751808 -1.1951973 0
3.3230748 6.8333144 -1.2034804 0
3.2793896 6.8013706 -1.1959113 0
3.2686501 6.8376031 -1.2003484 0
3.255867 6.8699627 -1.204106 0
3.2132215 6.8391366 -1.1968081 0
3.2084537 6.8889074 -1.2036284 0
3.1950884 6.9207449 -1.2073126 0
3.1474001 6.8779531 -1.198 0
3.1225743 6.884614 -1.1973299 0
3.09677 6.889029 -1.1962852 0
3.1032193 6.9657354 -1.2077919 0
3.0548065 6.9193821 -1.1979719 0
3.0417392 6.9527845 -1.2019826 0
3.0258019 6.9799938 -1.2049259 0
3.0031989 6.9920006 -1.2052536 0
2.9497318 6.9315171 -1.1931162 0
2.9516373 7.0010509 -1.2033747 0
2.9154351 6.9804702 -1.1981503 0
2.8784642 6.9574537 -1.1925365 0
2.8842704 7.0381961 -1.2047117 0
2.8446202 7.0083184 -1.1979584 0
2.8200684 7.0152335 -1.1975174 0
2.7953527 7.0216875 -1.1970125 0
2.7709942 7.0289898 -1.1966668 0
2.7297518 6.993 -1.1889749 0
2.7320397 7.0687361 -1.2002876 0
2.7176197 7.1021485 -1.2044072 0
2.6830018 7.0827351 -1.1995827 0
2.6635637 7.1032224 -1.2015333 0
2.6392777 7.1108866 -1.2013261 0
2.6093531 7.1031761 -1.1985388 0
2.5840688 7.1078854 -1.1978648 0
2.5581141 7.1106477 -1.1968781 0
2.522397 7.0858622 -1.191276 0
2.5131521 7.1355247 -1.1982019 0
2.4858642 7.1342974 -1.1965895 0
2.4723487 7.1728182 -1.2016532 0
2.4498725 7.1857214 -1.202432 0
2.4148674 7.1615729 -1.1970295 0
2.4024193 7.2043462 -1.2028258 0
2.3709044 7.1900811 -1.1991102 0
2.3398495 7.1767201 -1.1955669 0
2.3305957 7.2305079 -1.2032188 0
2.2912564 7.1909423 -1.1953497 0
2.2754254 7.2249117 -1.1997215 0
2.2572746 7.2520518 -1.2029648 0
2.2133172 7.1957598 -1.1923894 0
2.1947105 7.2213421 -1.1954025 0
2.172842 7.236505 -1.1966997 0
2.1423018 7.2226262 -1.1932101 0
2.1199377 7.2361307 -1.1942602 0
2.1093156 7.290381 -1.2020397 0
2.0758798 7.2659774 -1.1968617 0
2.0554924 7.2870264 -1.199187 0
2.030715 7.2926788 -1.1989901 0
2.0147543 7.3303781 -1.2040708 0
1.9718456 7.2695527 -1.1929871 0
1.9657645 7.3445082 -1.2041994 0
1.9362094 7.3324285 -1.2011478 0
1.9052103 7.3142934 -1.1971238 0
1.8936779 7.3712502 -1.2054 0
1.8567365 7.3293347 -1.197521 0
1.8340981 7.3433094 -1.1987928 0
1.8000869 7.3113189 -1.1925783 0
1.7792827 7.3326411 -1.1950765 0
1.7635775 7.3757448 -1.2011311 0
1.7355968 7.3678565 -1.1988921 0
1.7118784 7.3779202 -1.199589 0
1.6769198 7.3389254 -1.1923279 0
1.6723298 7.4335194 -1.2067784 0
1.6402336 7.4067364 -1.2015309 0
1.6103901 7.3892474 -1.1978112 0
1.5978484 7.4516978 -1.2070593 0
1.5614098 7.4027495 -1.1982757 0
1.5383245 7.4163485 -1.1996353 0
1.5085444 7.3974075 -1.1957467 0
1.4902579 7.4349728 -1.2010044 0
1.479234 7.5105662 -1.2124074 0
1.4386153 7.4357367 -1.1995425 0
1.4110721 7.4268107 -1.1973326 0
1.38462 7.4232244 -1.1959993 0
1.3582921 7.4200058 -1.1947403 0
1.3456692 7.4927969 -1.2057276 0
1.3203114 7.4959712 -1.2055192 0
1.2876235 7.4566455 -1.1984937 0
1.2666336 7.484664 -1.2023078 0
1.2432011 7.4989376 -1.2039243 0
1.2164079 7.4929385 -1.2022996 0
1.1901654 7.4899693 -1.2011762 0
1.161971 7.4741364 -1.1980054 0
1.1341507 7.4598732 -1.195103 0
1.1135998 7.4936938 -1.1999164 0
1.0918633 7.5207672 -1.2036585 0
1.0604744 7.4808822 -1.1966994 0
1.0445768 7.5508289 -1.2073215 0
1.0247309 7.5948787 -1.2138085 0
0.98992729 7.5272994 -1.2024709 0
0.95903099 7.4864459 -1.1954243 0
0.94789112 7.6016212 -1.2133009 0
0.90863717 7.4912972 -1.195199 0
0.8852064 7.508647 -1.1974869 0
0.86340165 7.5410528 -1.2021866 0
0.83484495 7.5144887 -1.1974988 0
0.8035149 7.4603248 -1.1884313 0
0.78255647 7.5018892 -1.1946279 0
0.76643872 7.5940318 -1.208885 0
0.74153578 7.6023278 -1.209803 0
0.71123064 7.5536675 -1.2016732 0
0.68408817 7.5360432 -1.1984978 0
0.65745759 7.5227351 -1.1960241 0
0.63228643 7.5255504 -1.1961279 0
0.61113924 7.5783215 -1.204183 0
0.58575374 7.5806727 -1.2042378 0
0.55736268 7.542387 -1.1978523 0
0.53305089 7.5581021 -1.2000575 0
0.50606042 7.5353289 -1.1961654 0
0.48143452 7.5470395 -1.1977614 0
0.45628598 7.5512252 -1.1981761 0
0.43434343 7.6119099 -1.2075673 0
0.40553153 7.5520887 -1.1978549 0
0.38240176 7.5969777 -1.2047646 0
0.35439792 7.5443492 -1.1962234 0
0.33040655 7.5754251 -1.2009684 0
0.30660051 7.6161051 -1.2072479 0
0.27921122 7.5668941 -1.1992921 0
0.25268897 7.5334935 -1.1938574 0
0.22876182 7.5784459 -1.2008529 0
0.20357609 7.5875435 -1.2021794 0
0.17766789 7.5682707 -1.1990248 0
0.15218128 7.5633264 -1.1981539 0
0.12673829 7.5588007 -1.1973629 0
0.10113944 7.5401783 -1.1943526 0
0.076190621 7.5735312 -1.1995884 0
0.050829425 7.5784931 -1.2003405 0
0.025256462 7.5298986 -1.1926237 0
1.0033072e-05 7.5618863 -1.1976833 0
-0.025288017 7.5452762 -1.1950592 0
-0.050292227 7.5013671 -1.1881247 0
-0.076123044 7.5688105 -1.1988406 0
-0.10117475 7.5443039 -1.195006 0
-0.12847278 7.6634598 -1.2139416 0
-0.15247622 7.5789843 -1.2006342 0
-0.17728697 7.5528984 -1.1965894 0
-0.20113847 7.4974322 -1.1879021 0
-0.22811359 7.5576367 -1.1975554 0
-0.2523216 7.5231366 -1.1922159 0
-0.27736065 7.517283 -1.191429 0
-0.30450824 7.5646315 -1.1990885 0
-0.32945645 7.5541015 -1.1975877 0
-0.35684723 7.59692 -1.2045587 0
-0.37882262 7.5262709 -1.1935514 0
-0.40582967 7.5580158 -1.1987947 0
-0.43122518 7.5576148 -1.1989537 0
-0.45456532 7.5230808 -1.1937103 0
-0.48194227 7.5553141 -1.1990745 0
-0.50956172 7.5877647 -1.204489 0
-0.53495407 7.5853739 -1.2043873 0
-0.55395943 7.4966035 -1.1905808 0
-0.58603084 7.5845213 -1.2048489 0
-0.6074701 7.5330729 -1.1969928 0
-0.63678288 7.5793085 -1.204672 0
-0.65948838 7.5462031 -1.199755 0
-0.68335062 7.5281401 -1.1972406 0
-0.71213049 7.5634394 -1.2032274 0
-0.73143446 7.4989738 -1.1933554 0
-0.75477999 7.4787135 -1.1905273 0
-0.785402 7.5293612 -1.1990023 0
-0.81628001 7.5790324 -1.2073412 0
-0.83066225 7.4770212 -1.1915277 0
-0.86511886 7.5562286 -1.2046056 0
-0.88193363 7.4810572 -1.1930865 0
-0.91258657 7.524025 -1.2004203 0
-0.93758154 7.5191064 -1.2001303 0
-0.96512192 7.5341525 -1.2030416 0
-0.99026465 7.5300188 -1.2029049 0
-1.0112984 7.4954724 -1.197921 0
-1.0359267 7.4884472 -1.1973467 0
-1.0607756 7.48315 -1.1970617 0
-1.0949823 7.5423918 -1.207119 0
-1.1085951 7.4601521 -1.194545 0
-1.135918 7.4716315 -1.1969863 0
-1.1518248 7.4090028 -1.187565 0
-1.1893746 7.4851198 -1.200398 0
-1.2110263 7.4599137 -1.197 0
-1.2421303 7.4926019 -1.2029066 0
-1.2659791 7.480917 -1.2017053 0
-1.2929363 7.4875307 -1.2034574 0
-1.3103539 7.4395533 -1.1964455 0
-1.3377458 7.4487925 -1.1986458 0
-1.3591504 7.4248056 -1.1955125 0
-1.3903006 7.4537897 -1.2009232 0
-1.4117464 7.4304667 -1.1979214 0
-1.443584 7.461524 -1.203702 0
-1.4675285 7.4512377 -1.2028296 0
-1.4891629 7.4296126 -1.2001379 0
-1.5127503 7.4181323 -1.1990961 0
-1.5366066 7.4081645 -1.1983109 0
-1.5706706 7.446753 -1.2053978 0
-1.5940182 7.4339314 -1.2041807 0
-1.6119903 7.3966846 -1.1990161 0
-1.6371769 7.3930264 -1.1993061 0
-1.668579 7.4169393 -1.2040861 0
-1.6842378 7.3710423 -1.1975451 0
-1.7011007 7.3315582 -1.1920502 0
-1.7375234 7.3761234 -1.2002366 0
-1.7732086 7.4161119 -1.2077041 0
-1.7881662 7.3693366 -1.2010564 0
-1.8077555 7.3425503 -1.1976718 0
-1.8364106 7.3526516 -1.200317 0
-1.8675523 7.3721113 -1.2045093 0
-1.8954569 7.3782563 -1.2065449 0
-1.9105713 7.3349547 -1.2005047 0
-1.9412488 7.3515911 -1.2042861 0
-1.9695995 7.3589149 -1.2065607 0
-1.9868876 7.3250842 -1.2020994 0
-2.0172043 7.3393683 -1.2055466 0
-2.0305703 7.2922339 -1.1989161 0
-2.0560679 7.2891407 -1.1995342 0
-2.0839148 7.2941751 -1.2015057 0
-2.107059 7.2826538 -1.2007648 0
-2.134305 7.285244 -1.2023649 0
-2.1653979 7.3005638 -1.2060848 0
-2.1566796 7.1827464 -1.1878088 0
-2.2124665 7.2798343 -1.2050842 0
-2.2334547 7.2612987 -1.2032486 0
-2.2689955 7.2897768 -1.2092215 0
-2.2890472 7.2682309 -1.2069138 0
-2.2844057 7.169507 -1.1917855 0
-2.2981944 7.1300497 -1.1865007 0
-2.3595862 7.2373209 -1.2056613 0
-2.3595231 7.1556292 -1.1933635 0
-2.3994253 7.1954312 -1.2013364 0
-2.4235086 7.1872625 -1.2013223 0
-2.4477634 7.1795983 -1.2014064 0
-2.4828622 7.203382 -1.2067724 0
-2.4940727 7.1579165 -1.2005498 0
-2.5202754 7.1558108 -1.2016071 0
-2.5673645 7.2122445 -1.2125221 0
-2.5546813 7.1011648 -1.1952808 0
-2.5902293 7.1248899 -1.2007293 0
-2.6203678 7.1332192 -1.2036068 0
-2.6453092 7.1271949 -1.20408 0
-2.6618993 7.0988417 -1.200791 0
-2.7009327 7.1301274 -1.2076082 0
-2.6995714 7.0550385 -1.1964169 0
-2.7542336 7.1262155 -1.2100465 0
-2.7547231 7.0570259 -1.1998595 0
-2.7877231 7.0714798 -1.2038994 0
-2.8025146 7.0397315 -1.2000873 0
-2.8237441 7.0244308 -1.1990862 0
-2.8522358 7.0271339 -1.2011733 0
-2.8683956 6.9995112 -1.1980888 0
-2.9009297 7.011807 -1.2018515 0
-2.9095027 6.9663181 -1.19572 0
-2.9296064 6.9488468 -1.1944003 0
-2.9735446 6.9875259 -1.2027556 0
-2.979094 6.9359312 -1.1955872 0
-3.0104728 6.9446831 -1.1988289 0
-3.0398774 6.9485793 -1.2012542 0
-3.0497882 6.9080648 -1.1960112 0
-3.0750487 6.9025507 -1.1968348 0
-3.1255338 6.9530659 -1.2074039 0
-3.1379406 6.9185419 -1.203229 0
-3.164741 6.9158959 -1.2046074 0
-3.1818416 6.8920999 -1.202314 0
-3.1939352 6.8577819 -1.1981887 0
-3.2221887 6.8582702 -1.2001549 0
-3.2064145 6.7656631 -1.1858238 0
-3.2570872 6.8134618 -1.1961088 0
-3.2943468 6.832438 -1.2013724 0
-3.2879837 6.7612014 -1.1907784 0
-3.3347204 6.7992492 -1.1994417 0
-3.3637984 6.8007674 -1.2016923 0
-3.380111 6.7764797 -1.1993965 0
-3.4069977 6.7734299 -1.2008718 0
-3.4326046 6.7677178 -1.2018927 0
-3.4333839 6.7133646 -1.1942776 0
-3.4944098 6.7765474 -1.2075951 0
-3.4982834 6.728581 -1.2011307 0
-3.5381553 6.7498794 -1.2070436 0
-3.557991 6.7327266 -1.2061027 0
-3.5595827 6.6814137 -1.1990418 0
-3.5787971 6.6635442 -1.1979816 0
-3.5848126 6.6213899 -1.1925571 0
-3.6437857 6.6767516 -1.2047218 0
-3.6577487 6.6492229 -1.2019607 0
-3.6857226 6.647203 -1.2038226 0
-3.6926587 6.6073775 -1.1988456 0
-3.7278197 6.6180897 -1.2030503 0
-3.7225051 6.5571427 -1.1942333 0
-3.7588491 6.5697589 -1.1988196 0
-3.7835815 6.5618477 -1.199684 0
-3.8135543 6.562881 -1.202204 0
-3.8288357 6.5386143 -1.2001035 0
-3.829227 6.4892879 -1.1933999 0
-3.8670042 6.5033903 -1.1983711 0
-3.8957355 6.5019855 -1.2005123 0
-3.8922451 6.4470329 -1.1927688 0
-3.9365075 6.4712119 -1.1996772 0
-3.9520416 6.4479585 -1.1978161 0
-3.9944575 6.4683852 -1.2040919 0
-4.019311 6.4600816 -1.205048 0
-4.0159469 6.4066849 -1.1975924 0
-4.0568924 6.4240427 -1.203373 0
-4.0790057 6.4113436 -1.2035491 0
-4.0705433 6.3509259 -1.1947627 0
-4.1049757 6.3576269 -1.1986059 0
-4.1207361 6.3353224 -1.1969987 0
-4.1671271 6.3598895 -1.2042735 0
-4.1616507 6.3053131 -1.1965747 0
-4.2055793 6.3256354 -1.2031004 0
-4.2044296 6.2781482 -1.196743 0
-4.2395916 6.2849727 -1.2007468 0
-4.2835755 6.3044786 -1.2072105 0
-4.247067 6.205883 -1.1910509 0
-4.2768283 6.2046332 -1.1935564 0
-4.3379941 6.2484322 -1.2047728 0
-4.3587985 6.2336798 -1.2047395 0
-4.3526764 6.1806936 -1.197313 0
-4.3845983 6.18189 -1.2003858 0
-4.3814807 6.1338081 -1.1938952 0
-4.4479289 6.1828976 -1.2063459 0
-4.4504843 6.1428981 -1.2014463 0
-4.4823103 6.1433678 -1.2044708 0
-4.4729052 6.0875063 -1.196452 0
-4.5227022 6.1122246 -1.2042837 0
-4.5123901 6.0557189 -1.1961248 0
-4.5457306 6.0579634 -1.1995717 0
-4.5724745 6.0512352 -1.2012684 0
-4.5952544 6.0391779 -1.2019267 0
-4.6077375 6.0136366 -1.1999114 0
-4.6143308 5.9806004 -1.1963998 0
-4.6463532 5.9805374 -1.1994969 0
-4.6807346 5.9832764 -1.2031871 0
-4.6696954 5.9281011 -1.1952336 0
-4.7250013 5.9571133 -1.2042704 0
-4.7344518 5.9280958 -1.2016065 0
-4.7415118 5.8962846 -1.1983742 0
-4.7429495 5.8577471 -1.193767 0
-4.775177 5.8572845 -1.1969289 0
-4.8029728 5.8512115 -1.1989719 0
-4.8144555 5.8252649 -1.196956 0
-4.8499241 5.8282747 -1.200909 0
-4.8791714 5.8235989 -1.2033094 0
-4.8887167 5.7954087 -1.2008647 0
-4.9299574 5.804697 -1.2062076 0
-4.9266596 5.7615509 -1.2006676 0
-4.9321046 5.7289186 -1.1973066 0
-5.0080185 5.7778044 -1.2110258 0
-4.955267 5.6783657 -1.1936591 0
-5.0137525 5.7066493 -1.2031317 0
-5.0014386 5.6542869 -1.1956208 0
-5.0335059 5.6522388 -1.1987495 0
-5.0906491 5.6779613 -1.2078179 0
-5.1078534 5.6588621 -1.2073914 0
-5.0975037 5.6094689 -1.2004925 0
-5.1196718 5.5960507 -1.2012877 0
-5.1508646 5.592381 -1.2042005 0
-5.1554561 5.5598416 -1.2009091 0
-5.1651239 5.5329442 -1.1988332 0
-5.2229967 5.5574656 -1.2079339 0
-5.2280202 5.5255699 -1.2048044 0
-5.2338243 5.4946847 -1.2018896 0
-5.2656965 5.4911623 -1.2049741 0
-5.2251 5.412385 -1.1915249 0
-5.2725263 5.4249921 -1.1981853 0
-5.3234096 5.4407287 -1.2055963 0
-5.3297138 5.4107614 -1.2029089 0
-5.3281736 5.3730445 -1.1984886 0
-5.3850036 5.3940601 -1.2071967 0
-5.3942113 5.3671722 -1.2052201 0
-5.3689642 5.3063483 -1.1955973 0
-5.440032 5.3406501 -1.2074288 0
-5.4076581 5.2733788 -1.1963123 0
-5.4244862 5.2544217 -1.1961311 0
-5.4564381 5.2500267 -1.1992885 0
-5.4602399 5.2185431 -1.1962718 0
-5.4619532 5.1852517 -1.1928314 0
-5.4937096 5.1804905 -1.1959667 0
-5.5437956 5.1927156 -1.2030734 0
-5.5916672 5.2024693 -1.2096699 0
-5.5471096 5.1264234 -1.1963056 0
-5.5520601 5.096591 -1.1936812 0
-5.602592 5.10847 -1.2008562 0
-5.6643443 5.1301012 -1.2103987 0
-5.6284685 5.0633626 -1.1990981 0
-5.6633444 5.0604849 -1.2029066 0
-5.6695271 5.0319252 -1.2006296 0
-5.6821237 5.0091481 -1.1997339 0
-5.7265639 5.0143037 -1.2055604 0
-5.709444 4.9655924 -1.1984448 0
-5.7581086 4.9741063 -1.2051523 0
-5.7447238 4.9290066 -1.1988853 0
-5.7472792 4.8978395 -1.1959847 0
-5.817132 4.9237962 -1.2070787 0
-5.7864599 4.8646274 -1.197323 0
-5.8173084 4.8573656 -1.2003295 0
-5.8518267 4.8529816 -1.2040877 0
-5.8477535 4.8166041 -1.1999199 0
-5.8474026 4.7834997 -1.1965503 0
-5.8375826 4.7428851 -1.1912801 0
-5.9031897 4.7634211 -1.2014027 0
-5.9090943 4.7355614 -1.1993663 0
-5.9196954 4.7115498 -1.1983049 0
-5.9750676 4.7229843 -1.2063015 0
-5.961185 4.6796217 -1.2003243 0
-5.9852896 4.6661949 -1.202021 0
-6.0027637 4.6475434 -1.2023941 0
-5.9955888 4.6099195 -1.1978543 0
-6.0365677 4.6093054 -1.202947 0
-6.0388732 4.5790954 -1.2003402 0
-6.0241528 4.5362029 -1.1943845 0
-6.0830178 4.5486488 -1.2030249 0
-6.1096587 4.5367117 -1.2052786 0
-6.0927505 4.4925437 -1.1989648 0
-6.0851111 4.4554935 -1.1945151 0
-6.125598 4.4536657 -1.1995246 0
-6.10882 4.4102349 -1.193337 0
-6.2338753 4.4687996 -1.2148323 0
-6.1388507 4.369596 -1.1934526 0
-6.1957569 4.3788776 -1.2016547 0
-6.2135787 4.3603082 -1.2022691 0
-6.2567482 4.3593669 -1.207787 0
-6.2560663 4.327806 -1.2048476 0
-6.2479796 4.2913103 -1.2005124 0
-6.2900224 4.2892199 -1.2058207 0
-6.277257 4.249752 -1.2006353 0
-6.308217 4.2399383 -1.2038312 0
-6.3078146 4.209033 -1.2010546 0
-6.2950234 4.1700625 -1.19595 0
-6.3069973 4.1476359 -1.1955762 0
-6.3397017 4.1387615 -1.1991385 0
-6.3658671 4.1254697 -1.2014647 0
-6.3834019 4.1065078 -1.2021687 0
-6.4306006 4.1064534 -1.2084578 0
-6.4371476 4.0803156 -1.2071105 0
-6.3625512 4.0031905 -1.1905984 0
-6.3967948 3.9948614 -1.1944931 0
-6.4106393 3.9736931 -1.1945838 0
-6.480998 3.9872892 -1.2051967 0
-6.4816494 3.9577942 -1.2028434 0
-6.4928102 3.9347844 -1.2024597 0
-6.4994726 3.9090874 -1.2012595 0
-6.4926848 3.875421 -1.1975967 0
-6.5268226 3.8661771 -1.2014956 0
-6.5193377 3.8322737 -1.1977458 0
-6.5271549 3.8074803 -1.1968298 0
-6.5348105 3.7826381 -1.1959014 0
-6.5514417 3.762996 -1.1966294 0
-6.6021662 3.7627487 -1.2035832 0
-6.5910935 3.7272172 -1.1992797 0
-6.608892 3.7080929 -1.2002493 0
-6.65695 3.7057662 -1.2067139 0
-6.6226707 3.6576521 -1.1982703 0
-6.6285853 3.6319687 -1.1971304 0
-6.6695089 3.6253703 -1.2023193 0
-6.6973066 3.6114433 -1.2051408 0
-6.7038236 3.5859973 -1.2041432 0
-6.6717587 3.5401268 -1.196245 0
-6.6890497 3.520611 -1.197222 0
-6.6990871 3.4972615 -1.1969131 0
-6.7687035 3.5047758 -1.2072451 0
-6.7390175 3.4608018 -1.199874 0
-6.7501659 3.4379752 -1.1997999 0
-6.8021054 3.4357555 -1.2069775 0
-6.7961164 3.4041791 -1.2038828 0
-6.7679706 3.3617432 -1.1968937 0
-6.8208027 3.3595216 -1.2042381 0
-6.8170609 3.3293242 -1.2015998 0
-6.8303127 3.3074794 -1.2019743 0
-6.79635 3.262949 -1.1940658 0
-6.8988066 3.2837222 -1.2101254 0
-6.8399076 3.2276034 -1.197889 0
-6.8696327 3.2135131 -1.2012011 0
-6.8283134 3.1663241 -1.192113 0
-6.886147 3.165133 -1.2003505 0
-6.9024601 3.1446421 -1.2013495 0
-6.909184 3.1197748 -1.2006924 0
-6.8885479 3.0826936 -1.1953034 0
-6.9385076 3.0771704 -1.2021754 0
-6.953084 3.0557785 -1.202919 0
-6.9268746 3.0165904 -1.1966281 0
-6.9359612 2.9929221 -1.1964575 0
-6.9859204 2.9867363 -1.2033414 0
-7.008431 2.9686069 -1.2054976 0
-6.9586558 2.9200454 -1.1952453 0
-6.979939 2.9014914 -1.1972233 0
-7.0356493 2.8970227 -1.205106 0
-6.9490767 2.8341632 -1.1886431 0
-7.0131235 2.8328972 -1.1979669 0
-7.042273 2.8172445 -1.2013259 0
-7.0556746 2.7952003 -1.2020066 0
-7.0730643 2.7746892 -1.2033775 0
-7.0509558 2.7387733 -1.198047 0
-7.0929403 2.7277474 -1.20362 0
-7.1114869 2.707545 -1.20522 0
-7.1169019 2.6823208 -1.2046068 0
-7.1180534 2.6555338 -1.203288 0
-7.1545997 2.6418753 -1.2079618 0
-7.0497608 2.5763366 -1.1887959 0
-7.0929117 2.5651817 -1.1946155 0
-7.1408157 2.5554659 -1.2012339 0
-7.1223202 2.5219409 -1.1966933 0
-7.1508751 2.5051022 -1.2000731 0
-7.2210608 2.5025394 -1.2104369 0
-7.2375464 2.4811034 -1.2117991 0
-7.1865778 2.4367347 -1.2018907 0
-7.1724629 2.4051664 -1.1981747 0
-7.1407957 2.367943 -1.1915516 0
-7.1929407 2.358496 -1.1989266 0
-7.2333417 2.344913 -1.2043434 0
-7.219749 2.3137851 -1.2007818 0
-7.2193322 2.2869887 -1.1994305 0
-7.2397156 2.2667649 -1.2015475 0
-7.2188358 2.2336791 -1.1968325 0
-7.2185612 2.2071016 -1.1955534 0
-7.215126 2.1796257 -1.1937674 0
-7.2533283 2.1646547 -1.1988806 0
-7.3134041 2.1559057 -1.2076087 0
-7.2579713 2.1131415 -1.197279 0
-7.2760396 2.0919645 -1.1990957 0
-7.3169804 2.0772007 -1.2046882 0
-7.31144 2.0491633 -1.2026381 0
-7.2863584 2.0158095 -1.197394 0
-7.2772017 1.987034 -1.1947877 0
-7.3606105 1.983314 -1.2073834 0
-7.3514705 1.9544374 -1.2048025 0
-7.3122649 1.917788 -1.1973168 0
-7.2907696 1.8860474 -1.192755 0
-7.3247342 1.8686543 -1.1972798 0
-7.315196 1.8401203 -1.1947056 0
-7.378016 1.8296422 -1.2039565 0
-7.3381162 1.7936529 -1.1964576 0
-7.363585 1.7737356 -1.1996337 0
-7.336441 1.7411932 -1.1942538 0
-7.3687854 1.7227924 -1.1985719 0
-7.3946586 1.7027137 -1.201845 0
-7.3360066 1.6633278 -1.1913993 0
-7.3736491 1.6458889 -1.1966097 0
-7.3708038 1.6193289 -1.1952602 0
-7.3541989 1.5898523 -1.1916964 0
-7.4141245 1.5768061 -1.2005434 0
-7.3803468 1.5437765 -1.1942291 0
-7.4190574 1.5259287 -1.1996584 0
-7.4975481 1.5158892 -1.2115216 0
-7.4443789 1.4791766 -1.2021219 0
-7.4007249 1.4447269 -1.1942837 0
-7.4052458 1.4198515 -1.1942383 0
-7.4374814 1.4001955 -1.1986731 0
-7.4738183 1.3811063 -1.2037764 0
-7.4451699 1.3500134 -1.1984262 0
-7.4299431 1.3215375 -1.1952553 0
-7.4173226 1.2936523 -1.1925206 0
-7.4244084 1.2692531 -1.192969 0
-7.4371738 1.2457858 -1.1943423 0
-7.4215512 1.2176019 -1.1911711 0
-7.4813213 1.2016633 -1.2001109 0
-7.4799361 1.1757287 -1.1992496 0
-7.4435658 1.1444517 -1.1927965 0
-7.4446039 1.1190739 -1.1923549 0
-7.474318 1.0979271 -1.1965177 0
-7.5301647 1.0803511 -1.2048712 0
-7.520813 1.0532868 -1.202803 0
-7.4653659 1.0200124 -1.1933818 0
-7.5557165 1.0065631 -1.2072785 0
-7.5425544 0.97908342 -1.2046442 0
-7.5501637 0.95434141 -1.2053417 0
-7.5038147 0.92293274 -1.1974416 0
-7.5180173 0.89910221 -1.1992202 0
-7.4760966 0.86867434 -1.192062 0
-7.5781574 0.85479188 -1.2078718 0
-7.6082735 0.83236486 -1.2122203 0
-7.5416694 0.79949898 -1.2011745 0
-7.5645595 0.77628696 -1.2043989 0
-7.5494485 0.74916643 -1.2015864 0
-7.5559297 0.72423488 -1.2022246 0
-7.5756516 0.70050031 -1.2049822 0
-7.5107255 0.66910708 -1.1942915 0
-7.5399218 0.64623499 -1.1985828 0
-7.557148 0.62219477 -1.2009827 0
-7.5237846 0.59405798 -1.1953574 0
-7.6117702 0.57533181 -1.209023 0
-7.5401421 0.54449904 -1.1973492 0
-7.559659 0.52043617 -1.2001646 0
-7.5408401 0.49374345 -1.1969073 0
-7.5209885 0.46712449 -1.1935011 0
-7.5469975 0.44334382 -1.1973859 0
-7.5403991 0.41759226 -1.1961101 0
-7.5435734 0.39240286 -1.1963983 0
-7.5715489 0.36840773 -1.2006325 0
-7.5625596 0.34255847 -1.1990181 0
-7.5428095 0.31632608 -1.195712 0
-7.5276074 0.29040891 -1.193141 0
-7.5657673 0.26647988 -1.199041 0
-7.497272 0.23890205 -1.1880521 0
-7.5404868 0.21497416 -1.1947793 0
-7.507761 0.18885088 -1.1894869 0
-7.5524726 0.16463952 -1.1964765 0
-7.6098604 0.14036572 -1.2054867 0
-7.5572858 0.11405061 -1.197091 0
-7.5553813 0.088685468 -1.1967354 0
-7.528101 0.063122325 -1.1923741 0
-7.5683599 0.038083397 -1.1987238 0
-7.5252848 0.012635434 -1.1918879 0
-7.6239705 2.0230891e-05 -1.2075164 0
-9.795598 -0.016447436 -1.2027482 0
-9.8141403 -0.04938399 -1.2050383 0
-9.7491169 -0.081745312 -1.1970813 0
-9.785821 -0.11486649 -1.2016287 0
-9.7633219 -0.14734295 -1.1989199 0
-9.7536469 -0.17990837 -1.1977992 0
-9.7854033 -0.21331611 -1.2017801 0
-9.7296524 -0.24474053 -1.1950272 0
-9.7561321 -0.27814072 -1.1983874 0
-9.7655973 -0.31118271 -1.1996714 0
-9.7632895 -0.34388053 -1.1995227 0
-9.7718868 -0.37699136 -1.2007276 0
-9.7331038 -0.4081814 -1.1961236 0
-9.7538691 -0.44181743 -1.1988508 0
-9.8017941 -0.47692445 -1.204931 0
-9.7698727 -0.50821084 -1.2012095 0
-9.7290611 -0.53880179 -1.1964072 0
-9.7500715 -0.57276207 -1.1992203 0
-9.7094059 -0.60304588 -1.1944605 0
-9.7550602 -0.63872159 -1.2003337 0
-9.7035465 -0.66802967 -1.1942641 0
-9.7490835 -0.70401412 -1.2001523 0
-9.7189455 -0.73460156 -1.1967386 0
-9.7328768 -0.76848197 -1.1987644 0
-9.7389917 -0.80183023 -1.1998421 0
-9.7515621 -0.83579129 -1.2017292 0
-9.7019396 -0.86431551 -1.1959643 0
-9.6705685 -0.89421165 -1.1924602 0
-9.7753773 -0.93696868 -1.2057645 0
-9.7109308 -0.96366036 -1.1982071 0
-9.7528906 -1.0008569 -1.2037916 0
-9.6898479 -1.0272293 -1.1964288 0
-9.733305 -1.0648488 -1.2022285 0
-9.772501 -1.1023068 -1.2075197 0
-9.7346144 -1.1310996 -1.2033001 0
-9.6640453 -1.1557521 -1.1950493 0
-9.7331152 -1.1971258 -1.20408 0
-9.714201 -1.2278759 -1.2022426 0
-9.689518 -1.2577764 -1.199703 0
-9.6541338 -1.2861116 -1.1958491 0
-9.658083 -1.319609 -1.1968796 0
-9.6892319 -1.3569729 -1.2012968 0
-9.6703253 -1.3873996 -1.1995227 0
-9.6638556 -1.4195554 -1.1993039 0
-9.6945047 -1.4572793 -1.2037071 0
-9.6393147 -1.482049 -1.1974647 0
-9.6803284 -1.5215958 -1.2031868 0
-9.6579494 -1.5512773 -1.2010449 0
-9.6591864 -1.584715 -1.2018528 0
-9.6010695 -1.6082555 -1.1952857 0
-9.6177301 -1.6442164 -1.1980395 0
-9.6201553 -1.6778474 -1.1990355 0
-9.6215992 -1.7113596 -1.199924 0
-9.6540909 -1.7505513 -1.2047013 0
-9.6313362 -1.7797995 -1.2025996 0
-9.6330004 -1.8135284 -1.2035599 0
-9.6487598 -1.8500137 -1.206297 0
-9.5971413 -1.8734986 -1.2006222 0
-9.6177664 -1.9110224 -1.2039973 0
-9.6128883 -1.9435784 -1.2041956 0
-9.6121302 -1.9769932 -1.2049242 0
-9.5507536 -1.9977691 -1.1980633 0
-9.5550652 -2.0321326 -1.1994522 0
-9.5764294 -2.0702608 -1.2029985 0
-9.5223227 -2.0920069 -1.1970761 0
-9.4910898 -2.1185277 -1.1940359 0
-9.5592175 -2.167407 -1.2035142 0
-9.5113697 -2.1901133 -1.1984079 0
-9.5228271 -2.2263987 -1.2007853 0
-9.4892969 -2.252141 -1.1975027 0
-9.4732475 -2.2819097 -1.196436 0
-9.4972277 -2.3214035 -1.200441 0
-9.5201111 -2.360851 -1.2043272 0
-9.502759 -2.3903966 -1.2031392 0
-9.5242414 -2.4297829 -1.2068837 0
-9.4641876 -2.4482884 -1.2003074 0
-9.3965616 -2.4644368 -1.1927718 0
-9.4738865 -2.5186958 -1.2036524 0
-9.4885368 -2.5566833 -1.206596 0
-9.4305754 -2.575011 -1.2003167 0
-9.4371681 -2.6108422 -1.202263 0
-9.4042091 -2.6356997 -1.1991833 0
-9.4411297 -2.6802204 -1.2050303 0
-9.3967724 -2.7017052 -1.2005181 0
-9.4295034 -2.7453778 -1.2058691 0
-9.3750763 -2.7636626 -1.2000871 0
-9.4058619 -2.8070483 -1.2052258 0
-9.3411903 -2.8218911 -1.1981447 0
-9.4018526 -2.8746512 -1.207155 0
-9.3422222 -2.8907051 -1.2007364 0
-9.3118439 -2.9155509 -1.1980816 0
-9.3510799 -2.9622984 -1.2044009 0
-9.3761721 -3.0048752 -1.2089235 0
-9.2969275 -3.0138886 -1.2000022 0
-9.289731 -3.0460134 -1.2003849 0
-9.2126255 -3.0549781 -1.1917384 0
-9.2609158 -3.1054945 -1.1993253 0
-9.2252932 -3.1279967 -1.1960635 0
-9.2245712 -3.1622753 -1.1973379 0
-9.2086735 -3.1913686 -1.1966565 0
-9.2239952 -3.23136 -1.2000487 0
-9.2284985 -3.2677169 -1.2020531 0
-9.1892815 -3.2885451 -1.1983745 0
-9.1793699 -3.3197582 -1.1985266 0
-9.1603937 -3.3476679 -1.1975077 0
-9.1931667 -3.3946273 -1.2032732 0
-9.1762323 -3.4233787 -1.2025522 0
-9.1817093 -3.4605355 -1.2047838 0
-9.2219505 -3.5110583 -1.2116019 0
-9.1843882 -3.5320599 -1.208216 0
-9.1170874 -3.5413122 -1.2009177 0
-9.1267729 -3.5803378 -1.203768 0
-9.1185236 -3.6124258 -1.2042706 0
-9.062768 -3.6255391 -1.1985058 0
-9.0909224 -3.6722076 -1.2038504 0
-9.036149 -3.6853704 -1.1982267 0
-9.0782452 -3.7380886 -1.205464 0
-8.9865961 -3.7356389 -1.1949507 0
-9.0354137 -3.7915103 -1.2031256 0
-8.9852104 -3.8059244 -1.1981331 0
-8.9600525 -3.83075 -1.1964844 0
-8.9741936 -3.8724356 -1.2000997 0
-8.9539719 -3.8993726 -1.1991372 0
-8.8984423 -3.9107349 -1.1934497 0
-8.9449625 -3.9670165 -1.2014662 0
-8.9108 -3.9876714 -1.1986666 0
-8.9510212 -4.0417466 -1.2058932 0
-8.8794498 -4.0453248 -1.1980715 0
-8.8908091 -4.0865517 -1.2014462 0
-8.8279285 -4.0935559 -1.1947968 0
-8.8068008 -4.1196918 -1.1938001 0
-8.8280144 -4.1657476 -1.1985623 0
-8.8394508 -4.207438 -1.2020235 0
-8.8263092 -4.2375383 -1.2021617 0
-8.7715111 -4.2474766 -1.1966311 0
-8.7816601 -4.2887974 -1.1999705 0
-8.7340574 -4.3018775 -1.19543 0
-8.750165 -4.3463264 -1.1996224 0
-8.7957783 -4.4058113 -1.2078943 0
-8.7298002 -4.4094377 -1.2008573 0
-8.7162123 -4.4393163 -1.2010288 0
-8.6635151 -4.449122 -1.1958164 0
-8.6831303 -4.4960494 -1.2005978 0
-8.7077217 -4.5458703 -1.2060986 0
-8.6098871 -4.5315948 -1.1946454 0
-8.6070709 -4.56703 -1.1963725 0
-8.5959978 -4.598156 -1.1969696 0
-8.6045065 -4.6398778 -1.2003138 0
-8.559309 -4.6526155 -1.1961782 0
-8.5698519 -4.6956377 -1.1998451 0
-8.5124655 -4.7013721 -1.1940107 0
-8.5321617 -4.7496519 -1.1990005 0
-8.5059748 -4.772501 -1.1975623 0
-8.5199051 -4.8179464 -1.2017912 0
-8.4642715 -4.8240118 -1.1962185 0
-8.4801645 -4.8708096 -1.2007657 0
-8.4656887 -4.9003158 -1.2010357 0
-8.4821215 -4.9478693 -1.2057137 0
-8.3951216 -4.9349194 -1.1956923 0
-8.4112663 -4.9824309 -1.2003642 0
-8.3837481 -5.0041785 -1.1988248 0
-8.4216518 -5.065176 -1.2066664 0
-8.367424 -5.0708413 -1.2013259 0
-8.3271465 -5.0846829 -1.1979841 0
-8.3000202 -5.1064019 -1.1965379 0
-8.3226347 -5.1588607 -1.2022847 0
-8.2417822 -5.1470737 -1.193091 0
-8.3036613 -5.2244987 -1.2045778 0
-8.2734003 -5.2442613 -1.2027318 0
-8.2242651 -5.251852 -1.1981421 0
-8.1955519 -5.2722826 -1.1965275 0
-8.223978 -5.3296385 -1.2032797 0
-8.1790199 -5.3395276 -1.1993144 0
-8.2176485 -5.4041271 -1.2076287 0
-8.169858 -5.412024 -1.2032655 0
-8.1481113 -5.4370127 -1.2027407 0
-8.1257925 -5.4615836 -1.2021425 0
-8.0845203 -5.4732838 -1.1987448 0
-8.0791368 -5.5092325 -1.2006786 0
-8.0094748 -5.5011611 -1.1930602 0
-8.0405455 -5.5622692 -1.2004596 0
-7.9800682 -5.5600843 -1.1942068 0
-7.9943137 -5.6099186 -1.1991467 0
-8.017004 -5.6660519 -1.205393 0
-8.0116301 -5.7026286 -1.207453 0
-7.9184213 -5.6763792 -1.1962669 0
-7.9587908 -5.7458129 -1.2052693 0
-7.9240527 -5.7612472 -1.2029271 0
-7.8808441 -5.7703214 -1.199298 0
-7.8760672 -5.807488 -1.2015275 0
-7.836782 -5.8191824 -1.1985041 0
-7.8236804 -5.8502502 -1.1994934 0
-7.8348131 -5.8996348 -1.2042261 0
-7.7631712 -5.886579 -1.1962415 0
-7.7522664 -5.9193511 -1.1976125 0
-7.7527528 -5.9609766 -1.2007686 0
-7.7445645 -5.9961047 -1.2026073 0
-7.6896443 -5.9949279 -1.1971936 0
-7.7162576 -6.0573802 -1.2044921 0
-7.6413808 -6.0401192 -1.1959585 0
-7.6542754 -6.0921206 -1.2011667 0
-7.6265392 -6.1119256 -1.2000232 0
-7.5650101 -6.1043825 -1.1935555 0
-7.6211925 -6.1920223 -1.2056882 0
-7.601233 -6.2182302 -1.2058222 0
-7.5519166 -6.2202682 -1.2013005 0
-7.5210538 -6.237289 -1.199711 0
-7.5116591 -6.2721233 -1.2015601 0
-7.4807806 -6.2890286 -1.1999869 0
-7.4341116 -6.2924562 -1.1958784 0
-7.4307499 -6.3324962 -1.1987463 0
-7.3997154 -6.3489995 -1.197167 0
-7.3745232 -6.3704357 -1.1965401 0
-7.3730655 -6.4124699 -1.1997854 0
-7.3352475 -6.4229016 -1.1971289 0
-7.3462973 -6.4762211 -1.2024692 0
-7.3142247 -6.4916582 -1.2007754 0
-7.3148494 -6.5361881 -1.204469 0
-7.251523 -6.5234594 -1.1976362 0
-7.2562828 -6.5718927 -1.2020547 0
-7.2061615 -6.570612 -1.1973945 0
-7.2133017 -6.6215506 -1.2022632 0
-7.2066302 -6.6600871 -1.2048663 0
-7.1821098 -6.6822119 -1.2045057 0
-7.1473069 -6.6946793 -1.2024267 0
-7.1285987 -6.7221675 -1.2030642 0
-7.0581841 -6.7006178 -1.1949654 0
-7.0439587 -6.7321587 -1.1963718 0
-7.0403242 -6.7739964 -1.1996052 0
-7.0537047 -6.8325629 -1.2057818 0
-6.9680214 -6.7949967 -1.1950226 0
-6.9877286 -6.8600721 -1.2023402 0
-6.9404249 -6.8594813 -1.1981515 0
-6.8863935 -6.8518748 -1.1927831 0
-6.9410939 -6.9527674 -1.2062886 0
-6.8899589 -6.9479818 -1.2014437 0
-6.8567066 -6.9609747 -1.1997082 0
-6.8357387 -6.9863873 -1.2001313 0
-6.8061905 -7.0030055 -1.1990591 0
-6.8263965 -7.0710769 -1.2067888 0
-6.7546606 -7.0438805 -1.1982754 0
-6.7329597 -7.0685391 -1.1986233 0
-6.7246652 -7.1073956 -1.2013822 0
-6.699513 -7.1285353 -1.2011518 0
-6.6896243 -7.1660075 -1.2036799 0
-6.6541581 -7.1760993 -1.2016208 0
-6.639483 -7.2085996 -1.2033285 0
-6.5833883 -7.1959643 -1.197528 0
-6.5751143 -7.2354822 -1.200429 0
-6.5617542 -7.2696023 -1.202433 0
-6.5129561 -7.2643604 -1.1979473 0
-6.5051956 -7.3048334 -1.201018 0
-6.4745345 -7.3196692 -1.1998814 0
-6.457334 -7.3497329 -1.2012539 0
-6.4543333 -7.396183 -1.205302 0
-6.4038329 -7.3881707 -1.2004906 0
-6.3926244 -7.4253955 -1.2030498 0
-6.3381538 -7.4122429 -1.197469 0
-6.3244853 -7.4466615 -1.199597 0
-6.2838736 -7.4493203 -1.1966246 0
-6.2613134 -7.4732728 -1.1970932 0
-6.2805786 -7.5475283 -1.2056079 0
-6.2079883 -7.511374 -1.1965013 0
-6.2202101 -7.5777578 -1.2037468 0
-6.1937327 -7.5973005 -1.2035456 0
-6.1654291 -7.6145701 -1.2029999 0
-6.1381783 -7.6331024 -1.2026696 0
-6.085844 -7.6201987 -1.1974148 0
-6.057621 -7.6372328 -1.1968932 0
-6.0269594 -7.6511254 -1.1958969 0
-6.0410566 -7.7221441 -1.2038248 0
-6.0009193 -7.724062 -1.2009804 0
-5.9593587 -7.7238812 -1.1978389 0
-5.9590282 -7.7772293 -1.203007 0
-5.9359951 -7.8012075 -1.2036306 0
-5.9119492 -7.8239026 -1.2040671 0
-5.875937 -7.8306909 -1.2020732 0
-5.838614 -7.8355379 -1.1998055 0
-5.8250513 -7.8722887 -1.2024356 0
-5.7895384 -7.8794098 -1.2005515 0
-5.7893124 -7.9347191 -1.2060145 0
-5.7181311 -7.892601 -1.1966921 0
-5.7091722 -7.9361038 -1.200379 0
-5.6769428 -7.9473767 -1.1991985 0
-5.6630692 -7.9844189 -1.2019161 0
-5.6667352 -8.0466251 -1.2084132 0
-5.6148548 -8.0300121 -1.2030845 0
-5.5600457 -8.0086718 -1.1970874 0
-5.5598741 -8.0660191 -1.2028663 0
-5.5188861 -8.0642853 -1.1998415 0
-5.5027127 -8.0987797 -1.202222 0
-5.452096 -8.0824471 -1.1970772 0
-5.4045348 -8.0701723 -1.1925687 0
-5.4203954 -8.1528473 -1.2020936 0
-5.3933134 -8.1714039 -1.2021567 0
-5.3576398 -8.176856 -1.2003093 0
-5.2876024 -8.1292915 -1.1907179 0
-5.3055892 -8.2170897 -1.2009659 0
-5.2649045 -8.2143869 -1.197984 0
-5.2168002 -8.1997185 -1.1932873 0
-5.2245016 -8.2729387 -1.2013868 0
-5.2135439 -8.3172245 -1.2052728 0
-5.2077456 -8.3702059 -1.2104133 0
-5.1438088 -8.3295755 -1.2020371 0
-5.1061687 -8.3309765 -1.1997619 0
-5.074192 -8.3414478 -1.1988131 0
-5.0362482 -8.3419361 -1.1964498 0
-5.0140214 -8.3684053 -1.1978283 0
-5.0205197 -8.4433327 -1.2061369 0
-4.9792857 -8.438261 -1.2030209 0
-4.9200244 -8.4020691 -1.1955025 0
-4.9379983 -8.4979773 -1.2067864 0
-4.8807645 -8.4646864 -1.1997283 0
-4.8600979 -8.4945335 -1.2016423 0
-4.8469944 -8.5379162 -1.2054735 0
-4.8118138 -8.542531 -1.2038405 0
-4.7878747 -8.5670776 -1.2050307 0
-4.7474217 -8.5619783 -1.2020677 0
-4.7075934 -8.5576782 -1.1992413 0
-4.6918464 -8.5971823 -1.202566 0
-4.6521316 -8.5927992 -1.1997644 0
-4.6138859 -8.5908289 -1.1973226 0
-4.5903344 -8.6161566 -1.1987008 0
-4.5723505 -8.6521816 -1.2015733 0
-4.5183749 -8.6198835 -1.1949772 0
-4.4843235 -8.6251259 -1.1936129 0
-4.4696574 -8.6677999 -1.1974379 0
-4.4364667 -8.6747122 -1.1963311 0
-4.3954239 -8.6660109 -1.193092 0
-4.3812661 -8.7103672 -1.1971697 0
-4.3784528 -8.7779655 -1.2044361 0
-4.319994 -8.7339582 -1.1964036 0
-4.2995009 -8.766366 -1.1988615 0
-4.2802587 -8.8016529 -1.201718 0
-4.25283 -8.8203211 -1.2023132 0
-4.2443132 -8.8786278 -1.2083144 0
-4.1728568 -8.8048954 -1.1963693 0
-4.1457095 -8.8239393 -1.1970614 0
-4.1261988 -8.8594694 -1.199998 0
-4.0864844 -8.8516226 -1.1970725 0
-4.062119 -8.8769321 -1.1986469 0
-4.0433602 -8.914814 -1.2019247 0
-4.0056005 -8.9108629 -1.1995746 0
-3.9948132 -8.9671431 -1.2053411 0
-3.9524534 -8.9526882 -1.2016101 0
-3.926137 -8.9743986 -1.2027504 0
-3.8890779 -8.9714851 -1.2006056 0
-3.8624654 -8.9925976 -1.2016912 0
-3.8123729 -8.9586868 -1.1954448 0
-3.7884634 -8.9860029 -1.1973882 0
-3.7691174 -9.0245218 -1.2008302 0
-3.7345099 -9.0266457 -1.1994399 0
-3.7191386 -9.07551 -1.2042692 0
-3.6676786 -9.0361643 -1.1974097 0
-3.6618979 -9.1094475 -1.205487 0
-3.6220903 -9.0984526 -1.2024182 0
-3.5771384 -9.0739508 -1.1975884 0
-3.5539293 -9.1044264 -1.2000312 0
-3.5259933 -9.1230421 -1.2009199 0
-3.4882047 -9.116046 -1.1984527 0
-3.4624016 -9.1403112 -1.2001098 0
-3.4371924 -9.166419 -1.2020178 0
-3.3997085 -9.1597557 -1.1996425 0
-3.3678682 -9.1680803 -1.1992472 0
-3.3204224 -9.1334171 -1.1932501 0
-3.3161111 -9.2176867 -1.2028003 0
-3.2785137 -9.2100058 -1.200357 0
-3.24439 -9.2117872 -1.1991646 0
-3.2288513 -9.2667103 -1.2048982 0
-3.1755059 -9.2129087 -1.1965116 0
-3.1550369 -9.2541199 -1.2004834 0
-3.1227119 -9.26085 -1.1999915 0
-3.1031649 -9.3058157 -1.204463 0
-3.0554569 -9.2661591 -1.1979976 0
-3.0258646 -9.2809296 -1.1985888 0
-2.9987566 -9.3035135 -1.2002002 0
-2.9689066 -9.3177834 -1.2007501 0
-2.9178894 -9.2649431 -1.1926734 0
-2.9142225 -9.3627462 -1.203999 0
-2.8668303 -9.3204985 -1.1973233 0
-2.8302677 -9.3126297 -1.1950868 0
-2.8092058 -9.3559628 -1.1994323 0
-2.7793674 -9.3705416 -1.2000999 0
-2.7559736 -9.4072495 -1.2036109 0
-2.7089286 -9.3629026 -1.1967682 0
-2.6734772 -9.3577776 -1.1949606 0
-2.6429083 -9.3695984 -1.1953319 0
-2.6276548 -9.4364986 -1.202736 0
-2.5956712 -9.4440546 -1.202583 0
-2.5572469 -9.4278355 -1.1994191 0
-2.5367014 -9.4777489 -1.2046804 0
-2.4932637 -9.4420948 -1.1990793 0
-2.4663775 -9.4687738 -1.2014104 0
-2.4298527 -9.4584455 -1.1990595 0
-2.4010501 -9.4780788 -1.2005212 0
-2.3651617 -9.4696732 -1.1984453 0
-2.3326919 -9.4746809 -1.1980826 0
-2.3188853 -9.5565205 -1.2074413 0
-2.2570767 -9.4397993 -1.191731 0
-2.2401211 -9.5097475 -1.1996068 0
-2.2152107 -9.5473156 -1.2034022 0
-2.1668334 -9.4831142 -1.1943873 0
-2.1413989 -9.5186539 -1.1979525 0
-2.1180227 -9.5643892 -1.2028079 0
-2.0738108 -9.5157671 -1.1958121 0
-2.0472884 -9.547822 -1.1989709 0
-2.0200675 -9.5774021 -1.2018282 0
-1.976275 -9.5278587 -1.1947731 0
-1.9516352 -9.5703096 -1.1992691 0
-1.9229106 -9.5936317 -1.2013769 0
-1.882008 -9.5557184 -1.1958323 0
-1.8467202 -9.5452347 -1.1937387 0
-1.8235885 -9.5981216 -1.1995815 0
-1.7980274 -9.6397266 -1.2040211 0
-1.7568305 -9.5972633 -1.1979749 0
-1.7318304 -9.6431217 -1.2029675 0
-1.6998676 -9.6510239 -1.2032355 0
-1.6607304 -9.617465 -1.1983507 0
-1.6337245 -9.6539955 -1.2022133 0
-1.6015769 -9.6608047 -1.2023857 0
-1.5617106 -9.6201267 -1.1966645 0
-1.536518 -9.6698065 -1.2021967 0
-1.5087445 -9.704854 -1.2059183 0
-1.4719641 -9.6820126 -1.2024601 0
-1.4305588 -9.6267662 -1.1949962 0
-1.4034714 -9.6673088 -1.199438 0
-1.3736314 -9.6901636 -1.2016956 0
-1.3480849 -9.7449589 -1.2079235 0
-1.3026338 -9.6547718 -1.1961963 0
-1.2684147 -9.6450863 -1.1944627 0
-1.2461938 -9.7283182 -1.2042462 0
-1.2089623 -9.6954937 -1.1996742 0
-1.1780056 -9.7123318 -1.2012622 0
-1.1357801 -9.634326 -1.1911365 0
-1.1089261 -9.6857195 -1.1970241 0
-1.0814897 -9.7347879 -1.2026335 0
-1.0450568 -9.7031898 -1.1982901 0
-1.0186331 -9.7652626 -1.2055273 0
-0.98276204 -9.7376661 -1.201707 0
-0.95312268 -9.7718143 -1.20552 0
-0.91718405 -9.7412853 -1.2013675 0
-0.88026935 -9.6974983 -1.1955967 0
-0.84747821 -9.697279 -1.1952126 0
-0.82073855 -9.7688408 -1.203687 0
-0.78340328 -9.7147722 -1.1966944 0
-0.75541437 -9.7767143 -1.2040057 0
-0.71916473 -9.7322884 -1.1982311 0
-0.68681169 -9.738637 -1.1987225 0
-0.65676445 -9.779727 -1.2035023 0
-0.6222133 -9.7543163 -1.2001119 0
-0.58713418 -9.717103 -1.1952844 0
-0.55561537 -9.7376661 -1.197578 0
-0.52360296 -9.75138 -1.1990418 0
-0.48934636 -9.722105 -1.1952337 0
-0.45735705 -9.7366734 -1.1968296 0
-0.42484149 -9.7411842 -1.1972022 0
-0.39355966 -9.7768583 -1.2014177 0
-0.35988674 -9.7539816 -1.1984514 0
-0.32700777 -9.7499542 -1.1978152 0
-0.29351559 -9.724472 -1.194557 0
-0.26104972 -9.7306232 -1.1951984 0
-0.22994719 -9.7963657 -1.203172 0
-0.19578293 -9.7315884 -1.1951288 0
-0.16391435 -9.777566 -1.200701 0
-0.13154736 -9.8091011 -1.2045126 0
-0.098236166 -9.7674885 -1.1993556 0
-0.065396108 -9.7541952 -1.1976897 0
-0.032545637 -9.7107582 -1.1923361 0
1.2947015e-05 -9.7581129 -1.1981438 0
0.032829575 -9.7877274 -1.2017868 0
0.065158963 -9.7149773 -1.1928743 0
0.098473385 -9.7884912 -1.2019347 0
0.13165632 -9.8152828 -1.2052717 0
0.163664 -9.7610865 -1.1986774 0
0.19606863 -9.744503 -1.1967149 0
0.23074238 -9.8291311 -1.2071962 0
0.26121232 -9.7357206 -1.1958245 0
0.29474109 -9.7642145 -1.199439 0
0.32866949 -9.7987232 -1.2038068 0
0.35873768 -9.7221375 -1.194539 0
0.39471933 -9.8050203 -1.2048784 0
0.42792311 -9.811244 -1.2058128 0
0.45940778 -9.7797775 -1.2021281 0
0.49041951 -9.7429104 -1.1977917 0
0.52262264 -9.7326403 -1.1967379 0
0.55744386 -9.7692556 -1.2014632 0
0.5893538 -9.7534075 -1.1997504 0
0.62148225 -9.7424488 -1.1986519 0
0.65708232 -9.784071 -1.2040372 0
0.69211847 -9.8135128 -1.2079391 0
0.72104049 -9.7573204 -1.2013133 0
0.75106752 -9.7201204 -1.1970365 0
0.78690141 -9.7578297 -1.2019985 0
0.82573932 -9.8280506 -1.2109828 0
0.854864 -9.7814913 -1.2055923 0
0.87929028 -9.6864262 -1.194232 0
0.91212392 -9.6872663 -1.1947058 0
0.94598198 -9.6983385 -1.1964558 0
0.98289168 -9.7386923 -1.2018338 0
1.0140862 -9.7214241 -1.2001157 0
1.041955 -9.6741486 -1.1947041 0
1.0744232 -9.6709471 -1.1947469 0
1.1125373 -9.7170334 -1.2008945 0
1.1429405 -9.6948433 -1.1986189 0
1.1768194 -9.7023363 -1.2000264 0
1.2046748 -9.6609011 -1.1953944 0
1.2405496 -9.6840534 -1.1987671 0
1.2763728 -9.7053995 -1.2019324 0
1.3066152 -9.6840878 -1.1998289 0
1.3387011 -9.6769371 -1.1994923 0
1.3778397 -9.7196655 -1.2053546 0
1.3966241 -9.6199646 -1.1935644 0
1.4313185 -9.6317024 -1.1956095 0
1.4774716 -9.7180653 -1.206938 0
1.5061351 -9.6879005 -1.2038121 0
1.5340135 -9.6538792 -1.200217 0
1.566476 -9.6493196 -1.2002964 0
1.5882988 -9.5805531 -1.1923981 0
1.6337931 -9.6542463 -1.202245 0
1.6657215 -9.6462164 -1.2019337 0
1.6953737 -9.6253595 -1.2000364 0
1.7223456 -9.5901623 -1.1963615 0
1.7625464 -9.6283445 -1.2018552 0
1.7917624 -9.6059961 -1.1998087 0
1.8356606 -9.661521 -1.2075057 0
1.8552727 -9.589304 -1.1992507 0
1.8949776 -9.6214352 -1.204057 0
1.9197392 -9.5776768 -1.1993797 0
1.9558457 -9.590827 -1.2018408 0
1.9890733 -9.5894337 -1.2024951 0
2.0077267 -9.5187674 -1.1944711 0
2.0505769 -9.5630341 -1.200882 0
2.0851493 -9.5676727 -1.2023356 0
2.1203117 -9.5746059 -1.2040936 0
2.1450605 -9.534812 -1.1999867 0
2.1755226 -9.5210257 -1.199163 0
2.2015004 -9.4881124 -1.1959405 0
2.2411714 -9.5140934 -1.2001557 0
2.2777553 -9.5261717 -1.202636 0
2.2964847 -9.4640942 -1.1957643 0
2.3233438 -9.4366035 -1.1932684 0
2.3684301 -9.4826527 -1.2000887 0
2.4066858 -9.5002203 -1.2033266 0
2.4253409 -9.4407797 -1.1968207 0
2.4792788 -9.5181999 -1.2076826 0
2.4907055 -9.4323053 -1.197837 0
2.5186307 -9.4101324 -1.1960868 0
2.548732 -9.3963451 -1.1954138 0
2.5827363 -9.3968945 -1.1965786 0
2.6136823 -9.3862238 -1.196329 0
2.654114 -9.4092293 -1.2003887 0
2.6812096 -9.3847485 -1.1984056 0
2.7112894 -9.3709688 -1.1978002 0
2.7508264 -9.3895874 -1.201352 0
2.7849517 -9.3892775 -1.2025003 0
2.8165629 -9.3803749 -1.2025628 0
2.8405204 -9.3462753 -1.1994056 0
2.8789911 -9.3599463 -1.2023919 0
2.9033418 -9.3277025 -1.1994935 0
2.9392555 -9.3326998 -1.2013967 0
2.9691281 -9.3183928 -1.2008297 0
2.9956605 -9.2938242 -1.1989512 0
3.024591 -9.2769394 -1.1980746 0
3.0603902 -9.2810373 -1.1999222 0
3.09427 -9.2790594 -1.201001 0
3.1254382 -9.2688541 -1.2010297 0
3.1438174 -9.2211323 -1.1962051 0
3.2016664 -9.2887268 -1.2063595 0
3.2149801 -9.2268209 -1.1997129 0
3.237525 -9.1922178 -1.1966182 0
3.2812557 -9.2176313 -1.201352 0
3.3033478 -9.1821327 -1.1981621 0
3.3367534 -9.1782627 -1.1991102 0
3.3684189 -9.1695042 -1.1994346 0
3.4085875 -9.1836033 -1.202767 0
3.4452498 -9.1878319 -1.204827 0
3.4624388 -9.140336 -1.2001143 0
3.5052793 -9.1605959 -1.2043108 0
3.5330076 -9.141118 -1.2033006 0
3.5388463 -9.0657158 -1.19493 0
3.5855808 -9.0952959 -1.2004068 0
3.6251576 -9.1060867 -1.2034284 0
3.6274319 -9.0236397 -1.194133 0
3.6832614 -9.0744867 -1.2024893 0
3.7158482 -9.0674114 -1.2031959 0
3.7419953 -9.0446701 -1.2018363 0
3.7310078 -8.9332085 -1.188681 0
3.7814808 -8.9693737 -1.1951737 0
3.8410385 -9.0259809 -1.2044259 0
3.8524265 -8.9691591 -1.1985605 0
3.9180624 -9.0382824 -1.2095462 0
3.9113319 -8.9404936 -1.1982077 0
3.9538848 -8.9558668 -1.202038 0
3.9806869 -8.9353704 -1.2010717 0
4.009582 -8.9196577 -1.2007599 0
4.035336 -8.8970585 -1.1995323 0
4.0638995 -8.8807611 -1.1991652 0
4.1132898 -8.9096222 -1.2049179 0
4.1045408 -8.8129063 -1.1936926 0
4.1361117 -8.8034496 -1.1942834 0
4.196784 -8.8553219 -1.2032225 0
4.2035861 -8.7933712 -1.1967132 0
4.244647 -8.8032904 -1.1999933 0
4.2731738 -8.7870245 -1.1997223 0
4.3158116 -8.7995634 -1.2034031 0
4.3205442 -8.735013 -1.1965497 0
4.3636837 -8.7482977 -1.200367 0
4.4143429 -8.7760677 -1.2062013 0
4.4024763 -8.6798582 -1.1950001 0
4.4470496 -8.6953487 -1.1991788 0
4.472043 -8.67237 -1.1980709 0
4.5143099 -8.682745 -1.2015884 0
4.5261035 -8.6345711 -1.197015 0
4.568047 -8.6439829 -1.2004362 0
4.6040568 -8.6418581 -1.2022783 0
4.6147561 -8.5923948 -1.1975425 0
4.6792669 -8.6428652 -1.2067565 0
4.6713848 -8.5596352 -1.1973158 0
4.7132235 -8.5678587 -1.2006698 0
4.7247462 -8.5210295 -1.1963204 0
4.7798986 -8.5527534 -1.2030176 0
4.797637 -8.5173092 -1.2002881 0
4.8273582 -8.5032749 -1.2005843 0
4.8428011 -8.4642506 -1.1973602 0
4.8705568 -8.4469318 -1.1972136 0
4.9091659 -8.4483061 -1.1997346 0
4.9470305 -8.4481363 -1.2020593 0
4.9592834 -8.4043121 -1.1981828 0
4.9662342 -8.3519859 -1.19309 0
5.0294685 -8.3941364 -1.2015132 0
5.036767 -8.3427448 -1.1965677 0
5.0884466 -8.364831 -1.2021756 0
5.1056066 -8.3300095 -1.1996247 0
5.1291618 -8.3058081 -1.1986092 0
5.182168 -8.3290462 -1.2044632 0
5.1893034 -8.2785044 -1.1996638 0
5.2176399 -8.2620239 -1.1998038 0
5.2473588 -8.2477016 -1.2002721 0
5.2650709 -8.2145987 -1.1980169 0
5.2995448 -8.2076807 -1.1995927 0
5.3382249 -8.2070723 -1.2021128 0
5.3526621 -8.1692114 -1.1991892 0
5.3803158 -8.1516647 -1.1992548 0
5.4396648 -8.1817827 -1.2063621 0
5.4684243 -8.1655264 -1.2066618 0
5.4759326 -8.1177378 -1.2023062 0
5.4897876 -8.079711 -1.1993934 0
5.5358143 -8.088975 -1.2035171 0
5.560605 -8.0670338 -1.2030197 0
5.6019044 -8.0689192 -1.206095 0
5.6351681 -8.0590172 -1.2074324 0
5.6391726 -8.0074415 -1.202531 0
5.6509848 -7.9673357 -1.1993468 0
5.6674595 -7.9340558 -1.1971908 0
5.7343178 -7.9710131 -1.2056617 0
5.7421947 -7.9257712 -1.2017238 0
5.7596698 -7.8940477 -1.1998351 0
5.8153272 -7.9144635 -1.2058948 0
5.8011947 -7.8400044 -1.1975067 0
5.8039494 -7.7889743 -1.1926779 0
5.8911262 -7.8508892 -1.2051762 0
5.8783283 -7.7793655 -1.1972154 0
5.9257498 -7.7877002 -1.2015491 0
5.9577508 -7.7755189 -1.2027448 0
5.9754386 -7.7446799 -1.2010667 0
6.004487 -7.7286124 -1.2016903 0
6.0144215 -7.6880555 -1.198513 0
6.0414648 -7.6694975 -1.198771 0
6.0614514 -7.6420202 -1.197646 0
6.0950999 -7.6317468 -1.199232 0
6.1180749 -7.6080618 -1.1987268 0
6.1225905 -7.5616221 -1.1946374 0
6.1512289 -7.5451236 -1.1952825 0
6.1899724 -7.5408802 -1.1978912 0
6.2180576 -7.5235167 -1.198438 0
6.278811 -7.5453639 -1.2052648 0
6.2716579 -7.4855795 -1.1990672 0
6.3136334 -7.4845591 -1.2022879 0
6.2877669 -7.403388 -1.1926286 0
6.3593178 -7.4369531 -1.2014638 0
6.3890471 -7.4212008 -1.2023728 0
6.4351716 -7.4242868 -1.2063618 0
6.4501743 -7.3913779 -1.2045218 0
6.4572272 -7.3495722 -1.2012303 0
6.4623995 -7.3059115 -1.197629 0
6.5084 -7.308392 -1.201606 0
6.4972286 -7.2467799 -1.195051 0
6.5446458 -7.2506099 -1.1992943 0
6.5682073 -7.2278428 -1.1991644 0
6.6250863 -7.2415032 -1.2051094 0
6.6102457 -7.1768179 -1.1980262 0
6.6063623 -7.1245165 -1.1929862 0
6.6836967 -7.1596193 -1.2026098 0
6.7066088 -7.1360474 -1.2024207 0
6.6892872 -7.0699663 -1.1950585 0
6.7380314 -7.0738258 -1.1995229 0
6.7894707 -7.0801435 -1.2044474 0
6.7891693 -7.0324783 -1.2002044 0
6.8006129 -6.9972291 -1.1980733 0
6.8132753 -6.9633918 -1.1961843 0
6.8812604 -6.9858646 -1.2040012 0
6.8658414 -6.9236245 -1.1972349 0
6.8770204 -6.8885493 -1.1951501 0
6.888773 -6.8542056 -1.1931921 0
6.9354687 -6.8545465 -1.1972927 0
6.9562221 -6.8291049 -1.1969159 0
6.9966493 -6.8228769 -1.1999291 0
7.0227799 -6.8025713 -1.2004923 0
7.0379229 -6.7716498 -1.199193 0
7.0852222 -6.7715592 -1.203377 0
7.049449 -6.6922894 -1.1934835 0
7.0946684 -6.690136 -1.1973349 0
7.1099496 -6.6596522 -1.1961389 0
7.1551676 -6.6571097 -1.1999843 0
7.2046456 -6.6582179 -1.2045316 0
7.2013397 -6.6105347 -1.2002665 0
7.2029176 -6.5676193 -1.1968527 0
7.2594209 -6.5746999 -1.2025717 0
7.268085 -6.5383239 -1.2003688 0
7.2855763 -6.5099964 -1.199646 0
7.3207674 -6.4974303 -1.2018467 0
7.3088465 -6.4431715 -1.1963364 0
7.341888 -6.4286819 -1.1982099 0
7.3306656 -6.3755598 -1.192883 0
7.3955369 -6.3885541 -1.199947 0
7.3986378 -6.3480406 -1.19699 0
7.4133801 -6.3176594 -1.1959414 0
7.4522943 -6.3078127 -1.1988006 0
7.4828496 -6.2907338 -1.2003162 0
7.5125732 -6.2728529 -1.2017037 0
7.483892 -6.2064371 -1.1937805 0
7.5388455 -6.2094684 -1.1992188 0
7.6107864 -6.2260118 -1.2073351 0
7.5958328 -6.1713848 -1.2016737 0
7.5924749 -6.1265111 -1.1978861 0
7.6294746 -6.1142449 -1.2004826 0
7.6542873 -6.0920968 -1.2011662 0
