# .PCD v0.7 - Point Cloud Data file format
VERSION 0.7
FIELDS x y z intensity
SIZE 4 4 4 4
TYPE F F F F
COUNT 1 1 1 1
WIDTH 1422
HEIGHT 1
VIEWPOINT 0 0 0 1 0 0 0
POINTS 1422
DATA ascii
-11.761727 -19.630331 -1.1993101 0
-11.7011 -19.678495 -1.199849 0
-11.637617 -19.721956 -1.2001131 0
-11.568695 -19.756199 -1.1998297 0
-11.513278 -19.81361 -1.2009654 0
-11.455784 -19.867712 -1.2019098 0
-11.353874 -19.844429 -1.1981916 0
-11.319061 -19.938375 -1.2015659 0
-11.223976 -19.926199 -1.1985574 0
-11.183428 -20.01082 -1.2013853 0
-11.095275 -20.010336 -1.199116 0
-11.035538 -20.060905 -1.1999223 0
-10.953156 -20.070198 -1.1982749 0
-10.932331 -20.192749 -1.2033966 0
-10.837649 -20.179171 -1.200415 0
-10.782282 -20.238575 -1.2017915 0
-10.69066 -20.229755 -1.1991326 0
-10.630502 -20.28023 -1.2000052 0
-10.553533 -20.298615 -1.1989924 0
-10.508218 -20.378101 -1.2015997 0
-10.41983 -20.374104 -1.1992973 0
-10.362606 -20.430899 -1.2005885 0
-10.283832 -20.445217 -1.1993971 0
-10.218429 -20.486006 -1.1997733 0
-10.153024 -20.526901 -1.2001679 0
-10.077787 -20.547867 -1.1994114 0
-10.02284 -20.610332 -1.2010894 0
-9.9449158 -20.625643 -1.2000316 0
-9.8895187 -20.687765 -1.20171 0
-9.7997789 -20.677927 -1.1992233 0
-9.7294674 -20.708693 -1.199109 0
-9.6817741 -20.787992 -1.2018143 0
-9.603406 -20.801674 -1.200737 0
-9.5199976 -20.804012 -1.1990228 0
-9.464015 -20.866291 -1.2007766 0
-9.3701591 -20.844866 -1.197729 0
-9.3385315 -20.962168 -1.2026633 0
-9.2623196 -20.980049 -1.2019007 0
-9.1829224 -20.990406 -1.2007235 0
-9.1108522 -21.01729 -1.2005072 0
-9.0266685 -21.015903 -1.1986924 0
-8.9697399 -21.077972 -1.2005106 0
-8.9084396 -21.130274 -1.2017815 0
-8.828517 -21.138407 -1.2005539 0
-8.754364 -21.160082 -1.2001112 0
-8.6849279 -21.193119 -1.2003266 0
-8.6183786 -21.233343 -1.2009615 0
-8.5486937 -21.265987 -1.20118 0
-8.4722767 -21.281801 -1.2004619 0
-8.3901463 -21.282871 -1.1989287 0
-8.3241415 -21.324715 -1.1997069 0
-8.2587948 -21.368542 -1.200608 0
-8.1757431 -21.366421 -1.1989419 0
-8.129981 -21.462141 -1.2027769 0
-8.0358562 -21.430288 -1.199475 0
-7.9675202 -21.466703 -1.2000114 0
-7.9029417 -21.51355 -1.2011422 0
-7.8303204 -21.5387 -1.2010738 0
-7.7519841 -21.547939 -1.200133 0
-7.6987462 -21.627331 -1.2031102 0
-7.6060243 -21.595764 -1.1999288 0
-7.5491476 -21.665836 -1.2024091 0
-7.4465737 -21.604307 -1.197602 0
-7.3906751 -21.67778 -1.2002945 0
-7.3195348 -21.70713 -1.2005541 0
-7.2403445 -21.71245 -1.1994989 0
-7.1757221 -21.761518 -1.2008739 0
-7.0941639 -21.759214 -1.1994274 0
-7.0315871 -21.815199 -1.201207 0
-6.9388375 -21.777237 -1.197829 0
-6.8661799 -21.801638 -1.1978981 0
-6.8102164 -21.879705 -1.2009263 0
-6.7380509 -21.90642 -1.2011458 0
-6.6435261 -21.859663 -1.197354 0
-6.5779953 -21.907785 -1.1987752 0
-6.5044756 -21.929615 -1.1987696 0
-6.4404502 -21.983854 -1.2005473 0
-6.3732886 -22.028074 -1.2017885 0
-6.2850003 -21.998928 -1.1990421 0
-6.2280507 -22.079592 -1.2022936 0
-6.1486535 -22.081196 -1.2012517 0
-6.0669575 -22.073935 -1.1997433 0
-5.982728 -22.056601 -1.1977042 0
-5.9272265 -22.145596 -1.2014509 0
-5.853251 -22.16651 -1.2015141 0
-5.7788033 -22.185648 -1.2014945 0
-5.6891861 -22.145727 -1.1982927 0
-5.6243634 -22.202019 -1.2003115 0
-5.5516148 -22.227648 -1.2006841 0
-5.4820018 -22.266214 -1.2017678 0
-5.407289 -22.284357 -1.2017617 0
-5.3185205 -22.243713 -1.1986015 0
-5.2497978 -22.286407 -1.1999468 0
-5.1752973 -22.304966 -1.2000049 0
-5.0944762 -22.2959 -1.1985916 0
-5.0167813 -22.299911 -1.1978962 0
-4.954618 -22.373648 -1.2009581 0
-4.8790116 -22.387547 -1.2008194 0
-4.7946091 -22.360342 -1.1984911 0
-4.729351 -22.422468 -1.2009643 0
-4.6441312 -22.389915 -1.19838 0
-4.5800986 -22.459608 -1.2012817 0
-4.5006285 -22.454174 -1.2001771 0
-4.4198751 -22.4415 -1.1987008 0
-4.3552494 -22.511194 -1.2016368 0
-4.2770143 -22.511274 -1.2008688 0
-4.1977124 -22.505106 -1.1997823 0
-4.1331463 -22.578669 -1.2029585 0
-4.042057 -22.506849 -1.1984032 0
-3.9634182 -22.502365 -1.1974502 0
-3.8887143 -22.519955 -1.1976856 0
-3.8290505 -22.626604 -1.2026681 0
-3.7496705 -22.618229 -1.2015479 0
-3.6697662 -22.605736 -1.2002238 0
-3.5954134 -22.627104 -1.2007116 0
-3.5226762 -22.659277 -1.2017853 0
-3.4388862 -22.619667 -1.1990664 0
-3.3662455 -22.652727 -1.2002138 0
-3.286135 -22.635361 -1.1987032 0
-3.2201457 -22.71624 -1.2024078 0
-3.1373332 -22.678974 -1.1998717 0
-3.0612216 -22.688953 -1.1998498 0
-2.9901443 -22.737198 -1.2018642 0
-2.9123552 -22.735083 -1.2012296 0
-2.8370845 -22.752518 -1.2016414 0
-2.7591703 -22.7486 -1.2009392 0
-2.677856 -22.71508 -1.1986889 0
-2.6054161 -22.75655 -1.2004095 0
-2.5311711 -22.783772 -1.2013911 0
-2.4559119 -22.802759 -1.2019513 0
-2.377646 -22.793621 -1.2010428 0
-2.3080115 -22.868858 -1.2045926 0
-2.2228715 -22.789814 -1.2000297 0
-2.1478193 -22.811691 -1.2007958 0
-2.0731142 -22.838486 -1.2018336 0
-1.9949515 -22.827253 -1.2008837 0
-1.9178189 -22.826841 -1.2005169 0
-1.8388494 -22.803076 -1.1989361 0
-1.7640964 -22.831266 -1.2001007 0
-1.684927 -22.801725 -1.1982441 0
-1.6121478 -22.859428 -1.2009857 0
-1.5333974 -22.833466 -1.1993448 0
-1.459157 -22.874918 -1.2012584 0
-1.3820585 -22.873144 -1.2009151 0
-1.3051227 -22.873465 -1.2006955 0
-1.2242755 -22.800434 -1.1966397 0
-1.1542063 -22.931232 -1.2032945 0
-1.0729957 -22.843004 -1.1984693 0
-0.99711591 -22.862856 -1.1993287 0
-0.92224693 -22.910574 -1.2016629 0
-0.84316432 -22.852215 -1.198447 0
-0.76706767 -22.870632 -1.1992712 0
-0.69001877 -22.861027 -1.1986395 0
-0.61401361 -22.887344 -1.1999047 0
-0.53797597 -22.919216 -1.2014743 0
-0.46071401 -22.900255 -1.2003926 0
-0.38397327 -22.904182 -1.2005242 0
-0.30692402 -22.886421 -1.1995325 0
-0.22966452 -22.83523 -1.1968024 0
-0.153552 -22.903137 -1.2003278 0
-0.076646738 -22.869362 -1.1985375 0
3.0352245e-05 -22.876366 -1.1988977 0
0.076779082 -22.890724 -1.199657 0
0.15310806 -22.827887 -1.1963841 0
0.23007399 -22.869907 -1.19862 0
0.30725464 -22.906544 -1.2005873 0
0.38354337 -22.874916 -1.1989903 0
0.46004301 -22.863884 -1.1984862 0
0.53697664 -22.874052 -1.1991068 0
0.61406165 -22.886869 -1.1998799 0
0.68973023 -22.849457 -1.198033 0
0.76709878 -22.869749 -1.1992251 0
0.84276044 -22.839624 -1.1977868 0
0.92058718 -22.867832 -1.1994213 0
0.9981612 -22.885427 -1.2005129 0
1.0728906 -22.839472 -1.1982841 0
1.1509577 -22.86548 -1.1998445 0
1.2295549 -22.897621 -1.2017405 0
1.3062104 -22.89146 -1.2016404 0
1.3817824 -22.867567 -1.2006226 0
1.456555 -22.833174 -1.1990664 0
1.5332137 -22.829823 -1.1991537 0
1.6115354 -22.849882 -1.2004843 0
1.6846784 -22.797537 -1.1980243 0
1.767145 -22.869932 -1.2021333 0
1.840898 -22.827724 -1.2002324 0
1.9199325 -22.851271 -1.201802 0
1.9949087 -22.826067 -1.2008215 0
2.068294 -22.784714 -1.1990042 0
2.1409824 -22.738432 -1.1969397 0
2.2206759 -22.766678 -1.1988118 0
2.300081 -22.789675 -1.200422 0
2.3770363 -22.787191 -1.2007042 0
2.449379 -22.741535 -1.1987245 0
2.5285671 -22.759783 -1.2001264 0
2.6017206 -22.723738 -1.1986791 0
2.6845069 -22.770977 -1.2016391 0
2.7511504 -22.681973 -1.1974223 0
2.8250573 -22.655573 -1.1965218 0
2.9015088 -22.649935 -1.1967311 0
2.9900517 -22.736029 -1.2018028 0
3.0682061 -22.740265 -1.2025638 0
3.1369095 -22.675467 -1.1996866 0
3.2109506 -22.650942 -1.1989518 0
3.3003752 -22.733025 -1.2038757 0
3.3636088 -22.634571 -1.1992522 0
3.4424856 -22.642941 -1.2003005 0
3.5124185 -22.592899 -1.1982654 0
3.5968921 -22.636023 -1.2011853 0
3.6684031 -22.59696 -1.1997584 0
3.7431843 -22.578733 -1.1994504 0
3.8128078 -22.53026 -1.1975477 0
3.8907602 -22.531445 -1.1982973 0
3.970732 -22.543539 -1.1996418 0
4.0614462 -22.614468 -1.2041341 0
4.1113653 -22.459347 -1.1966017 0
4.1906052 -22.466673 -1.1977339 0
4.2802114 -22.527779 -1.2017498 0
4.3472967 -22.46977 -1.1994262 0
4.4223456 -22.45373 -1.1993546 0
4.4952812 -22.427187 -1.1987352 0
4.5728407 -22.423714 -1.1993623 0
4.6421003 -22.379824 -1.1978406 0
4.7308602 -22.429327 -1.2013324 0
4.8056374 -22.411486 -1.201233 0
4.8711686 -22.351274 -1.1988745 0
4.953753 -22.369461 -1.200734 0
5.0388837 -22.397881 -1.2031596 0
5.1095195 -22.361464 -1.2021168 0
5.1706128 -22.284508 -1.1989051 0
5.2423935 -22.254709 -1.1982409 0
5.326458 -22.276648 -1.2003769 0
5.3790855 -22.167868 -1.1954803 0
5.4698367 -22.216551 -1.199088 0
5.5438919 -22.196476 -1.1990011 0
5.6325626 -22.234138 -1.2020488 0
5.6954031 -22.169683 -1.1995898 0
5.7784338 -22.183987 -1.2014054 0
5.8481426 -22.146925 -1.2004534 0
5.9248538 -22.136496 -1.200958 0
5.9903722 -22.084551 -1.1992228 0
6.0732751 -22.096691 -1.200981 0
6.1411719 -22.0541 -1.1997786 0
6.1984739 -21.974514 -1.1965728 0
6.2873211 -22.00683 -1.1994736 0
6.3676376 -22.008324 -1.200712 0
6.4394574 -21.980247 -1.2003514 0
6.5016742 -21.919958 -1.1982425 0
6.5870681 -21.93779 -1.2004179 0
6.680325 -21.980534 -1.2039757 0
6.7264957 -21.868645 -1.1990756 0
6.8044877 -21.861097 -1.1999059 0
6.86132 -21.786007 -1.1970403 0
6.9467769 -21.801954 -1.1991897 0
7.0127873 -21.756676 -1.1979856 0
7.1088805 -21.804155 -1.2019057 0
7.1742935 -21.756992 -1.2006251 0
7.2574363 -21.763512 -1.2023209 0
7.3128557 -21.687132 -1.1994491 0
7.3790927 -21.643618 -1.1984041 0
7.4600101 -21.643103 -1.1997538 0
7.5292253 -21.608475 -1.1992269 0
7.5897603 -21.549402 -1.197354 0
7.6699886 -21.546364 -1.1986072 0
7.7478414 -21.536245 -1.1994827 0
7.8105922 -21.484257 -1.1980389 0
7.8842793 -21.462572 -1.198297 0
7.9730811 -21.481512 -1.2008404 0
8.0434475 -21.450359 -1.2005997 0
8.1078072 -21.403435 -1.199488 0
8.1924467 -21.409904 -1.2013831 0
8.2398853 -21.319447 -1.1978508 0
8.3224421 -21.320194 -1.1994539 0
8.389143 -21.280161 -1.1987773 0
8.4705591 -21.277321 -1.2002105 0
8.5606108 -21.295469 -1.2028465 0
8.6020155 -21.192867 -1.1986735 0
8.6974716 -21.223568 -1.2020525 0
8.7728481 -21.204599 -1.2026373 0
8.8320122 -21.14662 -1.2010217 0
8.8955412 -21.099522 -1.2000339 0
8.9590149 -21.052614 -1.1990677 0
9.0225677 -21.006203 -1.1981405 0
9.1131601 -21.022461 -1.2008039 0
9.1677141 -20.955492 -1.1987276 0
9.24578 -20.942436 -1.1997473 0
9.3133364 -20.905464 -1.1994114 0
9.3883829 -20.88526 -1.2000514 0
9.4450588 -20.82435 -1.1983645 0
9.5270166 -20.819206 -1.1998999 0
9.6110153 -20.818012 -1.2016816 0
9.6725245 -20.767986 -1.2006592 0
9.7239676 -20.696844 -1.1984243 0
9.7878084 -20.652527 -1.1977516 0
9.8572702 -20.620163 -1.1977848 0
9.9569988 -20.650564 -1.2014831 0
10.025672 -20.616018 -1.2014222 0
10.079611 -20.551447 -1.1996219 0
10.136919 -20.494204 -1.1982578 0
10.230124 -20.509317 -1.20114 0
10.284144 -20.445705 -1.1994272 0
10.360069 -20.425762 -1.2002883 0
10.430251 -20.394346 -1.2004905 0
10.485199 -20.33333 -1.1989614 0
10.556089 -20.3034 -1.1992768 0
10.633692 -20.286184 -1.2003591 0
10.713797 -20.273405 -1.2017218 0
10.778979 -20.232246 -1.2014176 0
10.819017 -20.14435 -1.1983453 0
10.913873 -20.158527 -1.2013588 0
10.974938 -20.109983 -1.200652 0
11.044699 -20.077431 -1.2009126 0
11.098532 -20.016085 -1.1994622 0
11.167596 -19.982367 -1.1996788 0
11.233982 -19.94384 -1.1996204 0
11.293304 -19.892883 -1.1988261 0
11.387893 -19.903765 -1.2017761 0
11.433154 -19.828342 -1.19953 0
11.48564 -19.765924 -1.1980768 0
11.561851 -19.744389 -1.1991144 0
11.637609 -19.721823 -1.2001069 0
11.711606 -19.696045 -1.2009209 0
11.775125 -19.652573 -1.2006708 0
11.842392 -19.615372 -1.2008171 0
11.893236 -19.551134 -1.199319 0
11.956187 -19.507015 -1.199065 0
12.007736 -19.444494 -1.1976898 0
12.109137 -19.462425 -1.2012883 0
12.168042 -19.411697 -1.2006687 0
12.214519 -19.341436 -1.1988491 0
12.293155 -19.322153 -1.2002019 0
12.37697 -19.310631 -1.202057 0
12.425367 -19.243813 -1.2004843 0
12.485862 -19.195963 -1.200104 0
12.566542 -19.179005 -1.2016712 0
12.618063 -19.117506 -1.2004619 0
12.670206 -19.057219 -1.199337 0
12.722256 -18.997049 -1.1982281 0
12.824327 -19.011284 -1.2018312 0
12.877865 -18.95327 -1.2008866 0
12.916056 -18.873041 -1.1985404 0
12.986429 -18.840031 -1.1992023 0
13.052456 -18.800606 -1.1994718 0
13.12764 -18.774218 -1.2005897 0
13.204438 -18.749872 -1.2018572 0
13.246661 -18.676497 -1.199994 0
13.313356 -18.637791 -1.2003683 0
13.346252 -18.552015 -1.1977192 0
13.488414 -18.617634 -1.2048684 0
13.467018 -18.457531 -1.1974225 0
13.543388 -18.432093 -1.1987114 0
13.609225 -18.392141 -1.1990738 0
13.684912 -18.365328 -1.2003103 0
13.697639 -18.254345 -1.1960517 0
13.801147 -18.264406 -1.199736 0
13.856266 -18.210091 -1.1992131 0
13.922987 -18.171028 -1.1997081 0
13.990414 -18.132772 -1.2002727 0
14.041911 -18.073896 -1.1994851 0
14.106239 -18.031584 -1.1998091 0
14.173257 -17.992617 -1.2003715 0
14.207952 -17.912783 -1.1982167 0
14.323824 -17.93503 -1.2029107 0
14.353292 -17.848871 -1.2003528 0
14.410772 -17.797827 -1.2001628 0
14.488142 -17.771217 -1.2016371 0
14.524088 -17.693844 -1.1996914 0
14.604111 -17.670191 -1.2014009 0
14.615442 -17.563648 -1.197482 0
14.706063 -17.552519 -1.2000782 0
14.807435 -17.553621 -1.2035412 0
14.842002 -17.475376 -1.2015816 0
14.854551 -17.371769 -1.1978755 0
14.943915 -17.35811 -1.2003819 0
14.976737 -17.278728 -1.1983582 0
15.078822 -17.27911 -1.2018842 0
15.123302 -17.21324 -1.2008226 0
15.187315 -17.169657 -1.2013277 0
15.216572 -17.086946 -1.1991036 0
15.283381 -17.046545 -1.1998576 0
15.323897 -16.97687 -1.1985631 0
15.384302 -16.929325 -1.1988412 0
15.460953 -16.899485 -1.2003922 0
15.540322 -16.872301 -1.2021557 0
15.566014 -16.786898 -1.1997824 0
15.623763 -16.736277 -1.1999017 0
15.691311 -16.69606 -1.2007835 0
15.75047 -16.646811 -1.2010328 0
15.786557 -16.573292 -1.1995405 0
15.823904 -16.50136 -1.1981676 0
15.879967 -16.44907 -1.1982299 0
15.963934 -16.425476 -1.2004035 0
16.036736 -16.390072 -1.2017388 0
16.043644 -16.287529 -1.1981575 0
16.149899 -16.285816 -1.2020081 0
16.227154 -16.254358 -1.2036951 0
16.243637 -16.162128 -1.2008915 0
16.299232 -16.109055 -1.2010018 0
16.393974 -16.094393 -1.2039999 0
16.376816 -15.970073 -1.1988006 0
16.427641 -15.91253 -1.1986089 0
16.483776 -15.860129 -1.1988181 0
16.561548 -15.828368 -1.2006079 0
16.598379 -15.757423 -1.1994411 0
16.651766 -15.702297 -1.1994879 0
16.70442 -15.646472 -1.1994951 0
16.797499 -15.628256 -1.2024094 0
16.814783 -15.539486 -1.1999104 0
16.859699 -15.476513 -1.199406 0
16.896681 -15.406391 -1.1983553 0
16.988026 -15.385686 -1.2011684 0
17.05113 -15.339091 -1.2019873 0
17.079502 -15.261319 -1.2003735 0
17.175375 -15.243731 -1.2035128 0
17.175989 -15.141629 -1.1999917 0
17.20676 -15.066533 -1.1986055 0
17.294214 -15.040967 -1.2011778 0
17.342606 -14.981221 -1.2010434 0
17.387815 -14.918768 -1.2007036 0
17.432022 -14.855515 -1.20031 0
17.491774 -14.805485 -1.2009994 0
17.55381 -14.757258 -1.2018549 0
17.582331 -14.680904 -1.2004308 0
17.637981 -14.627284 -1.2008752 0
17.684738 -14.566265 -1.2007267 0
17.757324 -14.526398 -1.2023413 0
17.764877 -14.433426 -1.1995693 0
17.878138 -14.426207 -1.2039444 0
17.892874 -14.339311 -1.2016925 0
17.914656 -14.258391 -1.1999379 0
17.929321 -14.172131 -1.1977308 0
18.029564 -14.153406 -1.2012504 0
18.034695 -14.059961 -1.1984447 0
18.154657 -14.055875 -1.2032781 0
18.150217 -13.955356 -1.1998758 0
18.149029 -13.857867 -1.1967189 0
18.232145 -13.82481 -1.1991364 0
18.291004 -13.773098 -1.1999636 0
18.335266 -13.710338 -1.199845 0
18.39529 -13.6593 -1.2007692 0
18.455086 -13.607945 -1.2016873 0
18.512913 -13.555003 -1.2024868 0
18.515686 -13.461905 -1.1997284 0
18.568935 -13.405684 -1.2002597 0
18.627773 -13.353383 -1.2011621 0
18.636745 -13.265446 -1.198866 0
18.713913 -13.226064 -1.2009705 0
18.762207 -13.16609 -1.2012302 0
18.789595 -13.091509 -1.2001666 0
18.842724 -13.0349 -1.2007619 0
18.903337 -12.983337 -1.2018437 0
18.912949 -12.896829 -1.199699 0
18.980932 -12.850167 -1.2012717 0
19.030542 -12.790913 -1.2016904 0
19.026222 -12.695607 -1.198723 0
19.053972 -12.622002 -1.1977984 0
19.107725 -12.565636 -1.1985223 0
19.193928 -12.530343 -1.2012874 0
19.202784 -12.444501 -1.1992235 0
1.7330109 -1.1148572 -0.10799335 0
1.7482388 -1.1163839 -0.10870843 0
1.7259464 -1.0940194 -0.10709357 0
1.718122 -1.0810019 -0.10638258 0
1.7548116 -1.0958906 -0.10842621 0
1.6974287 -1.0521604 -0.10466207 0
1.7856201 -1.0985564 -0.10987216 0
1.7099855 -1.044137 -0.10500223 0
1.7720171 -1.0738745 -0.1085896 0
1.7340909 -1.0429572 -0.1060506 0
1.7631253 -1.0523862 -0.10760984 0
1.7203108 -1.0190235 -0.1047876 0
1.7135215 -1.0072563 -0.10416775 0
1.7709409 -1.0330354 -0.10744721 0
1.7672964 -1.0229833 -0.1070174 0
1.7579829 -1.0097383 -0.10624781 0
1.749367 -0.99700427 -0.10552447 0
1.7293934 -0.97795373 -0.10412126 0
1.7038293 -0.95597237 -0.10238858 0
1.737559 -0.96725184 -0.10422003 0
1.7113576 -0.94516426 -0.1024578 0
1.7071137 -0.93536472 -0.10201539 0
1.7592671 -0.95628536 -0.10493983 0
1.6728071 -0.90203571 -0.099601552 0
1.7482599 -0.93517011 -0.10390685 0
1.7071968 -0.90585631 -0.10128521 0
1.7200553 -0.90530151 -0.10186744 0
1.6697391 -0.87168241 -0.09871389 0
1.7269017 -0.89416891 -0.10191549 0
1.7482126 -0.89778334 -0.10299496 0
1.7591743 -0.89597178 -0.1034632 0
1.7175313 -0.86752242 -0.1008424 0
1.7358958 -0.86950558 -0.1017489 0
1.7243731 -0.85651392 -0.10090461 0
1.7639036 -0.86878818 -0.10304677 0
1.7153023 -0.83771574 -0.10004286 0
1.7420045 -0.84353465 -0.10143471 0
1.6731447 -0.80327654 -0.09726771 0
1.7451382 -0.83065236 -0.10129055 0
1.7205982 -0.81190723 -0.099707656 0
1.7287375 -0.80867237 -0.10002164 0
1.7994624 -0.83441424 -0.10395121 0
1.7727995 -0.81483984 -0.10225254 0
1.7614453 -0.80247855 -0.10144189 0
1.767058 -0.79789221 -0.1016105 0
1.7354088 -0.7766071 -0.099640287 0
1.7107611 -0.75870287 -0.098078512 0
1.7617533 -0.77425921 -0.10085252 0
1.6776843 -0.73061085 -0.09589918 0
1.6984342 -0.7328825 -0.096944273 0
5.1764574 -2.2131083 -0.2950398 0
5.0856066 -2.1541276 -0.28944835 0
5.1512051 -2.1615727 -0.29276779 0
5.0792756 -2.1113887 -0.28827572 0
5.1747317 -2.130749 -0.29328626 0
5.0927882 -2.077065 -0.28824565 0
5.1730456 -2.0895958 -0.29238993 0
5.2186208 -2.0876808 -0.29456866 0
5.2484603 -2.079232 -0.29585782 0
5.295361 -2.0772986 -0.29810733 0
5.3783145 -2.0890598 -0.30238125 0
5.4258671 -2.0866208 -0.30465972 0
5.4908018 -2.0904875 -0.30791047 0
21.409788 -8.0691652 -1.1990837 0
21.444324 -8.0001736 -1.1995089 0
21.47681 -7.9303651 -1.199832 0
21.546486 -7.8741031 -1.202243 0
21.486965 -7.7707877 -1.1974612 0
21.534014 -7.7062588 -1.1986365 0
21.548786 -7.6301408 -1.1980282 0
21.622229 -7.5746579 -1.2006927 0
21.70661 -7.5226035 -1.2039709 0
21.63492 -7.4166031 -1.1986086 0
21.666487 -7.3463364 -1.1989862 0
21.681255 -7.2703848 -1.1984477 0
21.74865 -7.2119565 -1.2008296 0
21.737238 -7.1273665 -1.1988734 0
21.796213 -7.0658574 -1.2008128 0
21.769039 -6.9764771 -1.1980202 0
21.81983 -6.912169 -1.1995332 0
21.842171 -6.8387494 -1.1994941 0
21.914711 -6.7808676 -1.2022226 0
21.881725 -6.6903543 -1.1991757 0
21.951054 -6.6311555 -1.2017498 0
21.935881 -6.5463943 -1.1997108 0
21.951174 -6.4708848 -1.1993538 0
21.98011 -6.3993945 -1.1997558 0
22.031614 -6.3343382 -1.2014011 0
22.077188 -6.2673783 -1.2027336 0
22.063601 -6.18366 -1.2008572 0
22.078672 -6.1081185 -1.2005562 0
22.078987 -6.0285864 -1.1994674 0
22.067904 -5.9461265 -1.1977754 0
22.125086 -5.8820386 -1.1998019 0
22.140324 -5.8066812 -1.1995658 0
22.148743 -5.7295899 -1.1989744 0
22.198175 -5.6630392 -1.2006158 0
22.224539 -5.5904675 -1.2010211 0
22.233376 -5.5134954 -1.2004929 0
22.232914 -5.4343195 -1.1994774 0
22.244717 -5.3582306 -1.1991382 0
22.265018 -5.2842026 -1.1992707 0
22.342382 -5.2234969 -1.2024878 0
22.303415 -5.1355815 -1.1994572 0
22.272854 -5.0499687 -1.1968963 0
22.380304 -4.9954958 -1.2017635 0
22.327465 -4.9051704 -1.1980363 0
22.36779 -4.8354726 -1.1993235 0
22.39731 -4.7633076 -1.2000432 0
22.443827 -4.694602 -1.2016854 0
22.440275 -4.6153841 -1.20066 0
22.455656 -4.5401268 -1.2006618 0
22.459089 -4.4624944 -1.2000386 0
22.49798 -4.3918643 -1.201323 0
22.457363 -4.3058214 -1.1983767 0
22.491526 -4.2342391 -1.1994354 0
22.561424 -4.1691222 -1.2024107 0
22.521191 -4.0836473 -1.19953 0
22.54558 -4.0100403 -1.2001061 0
22.55477 -3.9337068 -1.1998866 0
22.568241 -3.8581326 -1.1999083 0
22.538668 -3.7753446 -1.1976562 0
22.588579 -3.705888 -1.1996413 0
22.571163 -3.6253593 -1.1980641 0
22.616434 -3.5548875 -1.1998278 0
22.607811 -3.4758999 -1.1987453 0
22.67276 -3.4081111 -1.2015765 0
22.678841 -3.3313079 -1.2013 0
22.693516 -3.2557724 -1.2014923 0
22.68716 -3.1772661 -1.2005851 0
22.664799 -3.0966892 -1.1988456 0
22.751244 -3.0308306 -1.2028738 0
22.733843 -2.9509718 -1.2014239 0
22.725286 -2.8724172 -1.200456 0
22.741955 -2.7970886 -1.2008344 0
22.807173 -2.7275167 -1.2037885 0
22.743904 -2.6426342 -1.1999747 0
22.781183 -2.5695832 -1.2014802 0
22.768606 -2.4908834 -1.2003696 0
22.793079 -2.4162531 -1.2012261 0
22.794611 -2.3391576 -1.2008867 0
22.808287 -2.26331 -1.2012007 0
22.843578 -2.1894929 -1.2026659 0
22.754482 -2.1039853 -1.197597 0
22.752522 -2.0268903 -1.1971295 0
22.841465 -1.9576454 -1.2014571 0
22.815279 -1.8783656 -1.1997417 0
22.811924 -1.8011078 -1.199241 0
22.864492 -1.72814 -1.2016933 0
22.847557 -1.6498381 -1.2005057 0
22.791487 -1.5689932 -1.1972764 0
22.804268 -1.4930696 -1.1976781 0
22.869862 -1.4203738 -1.2008662 0
22.845516 -1.3419851 -1.1993449 0
22.860733 -1.2659816 -1.1999142 0
22.844055 -1.1882451 -1.1988229 0
22.898388 -1.1141026 -1.2014714 0
22.853334 -1.0351183 -1.1989187 0
22.887827 -0.95979583 -1.2005526 0
22.887825 -0.8829326 -1.2003905 0
22.831238 -0.80409646 -1.1972746 0
22.912968 -0.73006541 -1.2014254 0
22.893425 -0.65261525 -1.2002791 0
22.876392 -0.57537407 -1.1992782 0
22.892603 -0.49898466 -1.2000337 0
22.912554 -0.42256677 -1.2009985 0
22.907478 -0.34564689 -1.2006649 0
22.874115 -0.26843688 -1.1988623 0
22.883387 -0.19181404 -1.1993078 0
22.834372 -0.11484019 -1.1967121 0
22.88723 -0.038368389 -1.1994689 0
22.913733 0.038412817 -1.2008578 0
22.884272 0.11509115 -1.1993272 0
22.920696 0.19212678 -1.2012632 0
22.93611 0.26916441 -1.2021116 0
22.861475 0.34495276 -1.1982538 0
22.896162 0.42226446 -1.2001393 0
22.870874 0.49851105 -1.1988946 0
22.850307 0.574718 -1.1979109 0
22.911312 0.65312511 -1.2012169 0
22.871099 0.72873133 -1.19923 0
22.865473 0.8053022 -1.1990699 0
22.922371 0.8842653 -1.2022023 0
22.89349 0.96003336 -1.2008497 0
22.900566 1.0372577 -1.2013966 0
22.889048 1.1136482 -1.2009814 0
22.875128 1.1898614 -1.2004535 0
22.851814 1.2654877 -1.1994461 0
22.826689 1.3408792 -1.1983564 0
22.84543 1.4188565 -1.1995834 0
22.810518 1.493479 -1.1980064 0
22.858139 1.5735817 -1.2007778 0
22.816425 1.64759 -1.1988699 0
22.832859 1.7257491 -1.2000307 0
22.833164 1.8027849 -1.2003577 0
22.799335 1.8770531 -1.1989034 0
22.861244 1.9593407 -1.2024976 0
22.794867 2.0306625 -1.1993574 0
22.782736 2.1065977 -1.199084 0
22.842176 2.1893585 -1.202592 0
22.751999 2.2577245 -1.1982362 0
22.793423 2.3390357 -1.2008241 0
22.762524 2.4130142 -1.1996158 0
22.727776 2.4864166 -1.198217 0
22.704031 2.5608809 -1.1974112 0
22.686974 2.6360195 -1.1969711 0
22.736301 2.7190409 -1.2000477 0
22.705112 2.7925575 -1.1988891 0
22.695375 2.8686364 -1.198876 0
22.701092 2.9467206 -1.1996932 0
22.712667 3.0256917 -1.2008343 0
22.645639 3.0940716 -1.1978322 0
22.722313 3.1821892 -1.2024454 0
22.672783 3.2527981 -1.2003947 0
22.661587 3.3287735 -1.200386 0
22.650288 3.4047329 -1.2003855 0
22.638699 3.480649 -1.2003831 0
22.556086 3.5454018 -1.1966262 0
22.59227 3.6287496 -1.1991845 0
22.593048 3.7066214 -1.1998787 0
22.595444 3.7848549 -1.2006731 0
22.606546 3.8646812 -1.2019449 0
22.521215 3.9278545 -1.1981014 0
22.575222 4.0153127 -1.201684 0
22.590204 4.0961614 -1.2032058 0
22.493828 4.156631 -1.1988081 0
22.557724 4.2467017 -1.2029655 0
22.475786 4.3093538 -1.1993598 0
22.529793 4.3980742 -1.2030218 0
22.481188 4.4668851 -1.2012193 0
22.468819 4.542788 -1.2013656 0
22.439743 4.6152744 -1.2006315 0
22.419031 4.6894159 -1.2003579 0
22.369329 4.7573566 -1.198544 0
22.345064 4.8305597 -1.1981049 0
22.393456 4.9196682 -1.2015773 0
22.32473 4.9830914 -1.1987793 0
22.397623 5.078258 -1.2036011 0
22.257141 5.1249261 -1.1969684 0
22.299948 5.2135758 -1.2002039 0
22.271755 5.2858014 -1.1996337 0
22.25956 5.3618059 -1.1999383 0
22.24234 5.4366241 -1.199986 0
22.278862 5.5247755 -1.2029489 0
22.208385 5.5864043 -1.2001481 0
22.21093 5.6662927 -1.2013055 0
22.136633 5.7264571 -1.1983188 0
22.10664 5.7978468 -1.1977408 0
22.124027 5.8817573 -1.1997446 0
22.117113 5.9593863 -1.2004465 0
22.131147 6.0428286 -1.202301 0
22.07262 6.1064439 -1.200227 0
22.084347 6.1894741 -1.2019863 0
22.020605 6.2513151 -1.199651 0
22.031101 6.3341904 -1.2013731 0
21.989241 6.4020529 -1.2002542 0
21.952507 6.4712777 -1.1994267 0
21.935337 6.5462317 -1.199681 0
21.986315 6.6418076 -1.2036803 0
21.925785 6.703826 -1.2015903 0
21.921755 6.7830467 -1.2026089 0
21.840858 6.8383393 -1.1994221 0
21.859053 6.9245944 -1.2016895 0
21.81052 6.9897714 -1.2003031 0
21.788965 7.0635076 -1.2004133 0
21.767195 7.1371894 -1.2005256 0
21.750813 7.2126741 -1.2009491 0
21.718159 7.2827601 -1.2004876 0
21.691658 7.3548713 -1.2003791 0
4.7281284 1.6208358 -0.26194578 0
4.6935382 1.6265842 -0.26033008 0
4.6341772 1.6234361 -0.25733805 0
4.6017699 1.629426 -0.25584039 0
4.5390611 1.6243688 -0.25265539 0
4.4922037 1.6246111 -0.25034899 0
4.4799266 1.6371766 -0.2499693 0
4.401372 1.6252176 -0.2458888 0
4.4572549 1.6628555 -0.24932085 0
4.4173565 1.6648638 -0.24739994 0
4.4535728 1.6955881 -0.24974526 0
4.4720416 1.7198089 -0.25110289 0
4.4701691 1.7363154 -0.25132322 0
4.4413328 1.7422749 -0.250029 0
4.448297 1.762239 -0.25075227 0
4.4784889 1.7915951 -0.2527914 0
4.4223132 1.7863456 -0.24995719 0
4.4602165 1.8190743 -0.25244287 0
4.4998369 1.8528539 -0.25503549 0
21.147335 8.7906713 -1.200223 0
21.115883 8.8607445 -1.2001172 0
21.045052 8.9141245 -1.1977835 0
21.037727 8.9943314 -1.1990763 0
21.01737 9.0690956 -1.1996423 0
20.960545 9.1280584 -1.198139 0
20.959028 9.2111197 -1.1998109 0
20.91815 9.2769594 -1.1992446 0
20.921654 9.3625803 -1.2012384 0
20.899143 9.436738 -1.2017558 0
20.882925 9.513835 -1.2026507 0
20.782114 9.5521774 -1.1986827 0
20.845276 9.6659956 -1.2041882 0
20.725086 9.6948233 -1.1991162 0
20.737532 9.7855225 -1.2017277 0
20.675953 9.8413572 -1.2000647 0
20.630678 9.9047861 -1.1993576 0
20.598263 9.9743414 -1.1994106 0
20.576639 10.049176 -1.2001066 0
20.55323 10.123231 -1.2007141 0
20.501518 10.183315 -1.199681 0
20.501602 10.269197 -1.2016939 0
20.463226 10.335944 -1.2014692 0
20.403076 10.391568 -1.1999764 0
20.387995 10.470124 -1.2011473 0
20.34882 10.536374 -1.2009138 0
20.285881 10.590185 -1.1992881 0
20.288582 10.67831 -1.2015578 0
20.234081 10.736413 -1.2004551 0
20.182924 10.796144 -1.1995608 0
20.212908 10.899502 -1.2035081 0
20.12475 10.939217 -1.2004362 0
20.112474 11.020061 -1.2019011 0
20.00458 11.048312 -1.1976603 0
20.018858 11.143953 -1.2007453 0
20.003792 11.223584 -1.2020921 0
19.916645 11.262653 -1.1991177 0
19.955679 11.373198 -1.2037568 0
19.829395 11.389474 -1.1984359 0
19.804457 11.463627 -1.199245 0
19.748823 11.519997 -1.1982082 0
19.722523 11.593455 -1.1989642 0
19.687201 11.661684 -1.1991872 0
19.64724 11.727178 -1.1991413 0
19.605141 11.791379 -1.1989779 0
19.634338 11.898766 -1.2031966 0
19.5714 11.950524 -1.2017884 0
19.515366 12.006321 -1.2008127 0
19.466492 12.06641 -1.2002881 0
19.416079 12.125461 -1.1996796 0
19.386879 12.197766 -1.2003956 0
19.330189 12.252757 -1.1994225 0
19.291533 12.319116 -1.19958 0
19.277601 12.401407 -1.2012925 0
19.179684 12.429531 -1.1977808 0
19.158449 12.507181 -1.1990669 0
19.121992 12.575018 -1.1994172 0
19.087048 12.643911 -1.1998775 0
19.066465 12.72246 -1.2012584 0
19.010332 12.777329 -1.2004143 0
18.981148 12.850312 -1.2012852 0
18.919155 12.90106 -1.2000926 0
18.87561 12.964293 -1.200081 0
18.868124 13.052471 -1.2023807 0
18.780975 13.085505 -1.1996162 0
18.749825 13.157401 -1.2004374 0
18.688192 13.207886 -1.19932 0
18.663031 13.284154 -1.2005568 0
18.545208 13.294195 -1.195838 0
18.565489 13.403195 -1.2000369 0
18.515087 13.46147 -1.1996895 0
18.477039 13.528736 -1.2001566 0
18.490561 13.634103 -1.2039973 0
18.385704 13.652183 -1.2001435 0
18.289915 13.676427 -1.1968772 0
18.30055 13.780287 -1.2005899 0
18.260483 13.846298 -1.2010002 0
18.154652 13.862161 -1.1970898 0
18.152765 13.957316 -1.2000444 0
18.131641 14.038054 -1.2017525 0
18.068586 14.086384 -1.2006969 0
17.9932 14.124862 -1.1988277 0
18.002604 14.230055 -1.2026262 0
17.916767 14.260072 -1.2000794 0
17.88674 14.334395 -1.2012805 0
17.791981 14.356685 -1.1981425 0
17.748787 14.420353 -1.1984829 0
17.684616 14.466919 -1.1974185 0
17.665796 14.550664 -1.1994407 0
17.61216 14.60587 -1.1991171 0
17.622278 14.71426 -1.2031581 0
17.484047 14.69861 -1.1970785 0
17.495451 14.808598 -1.201252 0
17.435175 14.858201 -1.200527 0
17.391399 14.921843 -1.200951 0
17.327049 14.967783 -1.1999661 0
17.321039 15.064296 -1.203041 0
17.216583 15.075133 -1.1992898 0
17.18787 15.152102 -1.2008216 0
17.102612 15.179151 -1.1984141 0
17.083494 15.264885 -1.200654 0
16.973814 15.269537 -1.1965369 0
16.966511 15.3662 -1.1996472 0
16.920231 15.427864 -1.2000256 0
16.866018 15.482313 -1.1998556 0
16.847555 15.569773 -1.2022491 0
16.757765 15.591288 -1.1995652 0
16.717455 15.658682 -1.2004311 0
16.633705 15.685266 -1.1981869 0
16.612907 15.771216 -1.200491 0
16.56834 15.834861 -1.2011002 0
16.517565 15.892639 -1.2012755 0
16.447374 15.931645 -1.2000488 0
16.434591 16.026413 -1.2030299 0
16.334875 16.036375 -1.1996597 0
16.26343 16.073671 -1.1983638 0
16.218975 16.13759 -1.1990683 0
16.179054 16.206179 -1.2001272 0
16.123932 16.259632 -1.2000755 0
16.071106 16.315409 -1.2002084 0
16.035412 16.388718 -1.2016395 0
15.961506 16.422977 -1.2002209 0
15.886646 16.455988 -1.1987339 0
15.858106 16.537027 -1.2007573 0
15.789228 16.576096 -1.1997434 0
15.749949 16.646257 -1.2009928 0
15.699521 16.704796 -1.2014117 0
15.615713 16.727654 -1.1992835 0
15.580874 16.802923 -1.2009279 0
15.503767 16.832613 -1.1993278 0
15.455889 16.89395 -1.1999991 0
15.389409 16.934946 -1.1992393 0
15.337616 16.992069 -1.1996361 0
15.281538 17.044489 -1.199713 0
15.206614 17.075764 -1.1983188 0
15.181331 17.162891 -1.2008543 0
15.09821 17.184681 -1.1988302 0
15.063713 17.261795 -1.2006798 0
14.980158 17.282677 -1.1986319 0
14.937536 17.350702 -1.1998695 0
14.884595 17.406904 -1.2002983 0
14.848899 17.483498 -1.20214 0
14.776282 17.516689 -1.201009 0
14.689009 17.532164 -1.1986866 0
14.644285 17.598309 -1.1998452 0
14.577692 17.638227 -1.1992277 0
14.515815 17.683765 -1.1990081 0
14.46543 17.743361 -1.1997535 0
14.385446 17.766548 -1.1980534 0
14.353247 17.848816 -1.2003491 0
14.296097 17.900312 -1.200582 0
14.243249 17.957283 -1.2011933 0
14.14314 17.954384 -1.1978208 0
14.107626 18.033358 -1.1999271 0
14.085259 18.129692 -1.2031881 0
13.929298 18.053562 -1.1950295 0
13.91838 18.165014 -1.1993111 0
13.846591 18.197376 -1.1983758 0
13.798512 18.260916 -1.1995069 0
13.683634 18.235682 -1.1948287 0
13.68894 18.370731 -1.2006636 0
13.606529 18.388496 -1.1988363 0
13.579545 18.481302 -1.2019116 0
13.498749 18.50102 -1.2002439 0
13.450582 18.565416 -1.2014891 0
13.378881 18.597372 -1.2006474 0
13.31618 18.641743 -1.2006228 0
13.258024 18.692518 -1.2010233 0
13.178689 18.71331 -1.1995136 0
13.121205 18.765017 -1.2000012 0
13.053554 18.802189 -1.1995727 0
12.968773 18.814415 -1.197572 0
12.95882 18.93553 -1.2025088 0
12.863848 18.93264 -1.1995795 0
12.836498 19.029327 -1.2029719 0
12.743687 19.029049 -1.2002465 0
12.68837 19.084538 -1.2010564 0
12.611318 19.107285 -1.1998202 0
12.588017 19.211781 -1.2037247 0
12.457913 19.152994 -1.1974176 0
12.413081 19.224785 -1.1992973 0
12.340094 19.253096 -1.1984756 0
12.298224 19.330122 -1.2006968 0
12.216624 19.34477 -1.1990557 0
12.153383 19.388313 -1.1992222 0
12.065323 19.392006 -1.1969417 0
12.002879 19.436628 -1.1972053 0
11.966045 19.5231 -1.2000536 0
11.924289 19.602182 -1.2024504 0
11.821649 19.581015 -1.1987138 0
11.763795 19.633665 -1.1995156 0
11.698461 19.673937 -1.199573 0
11.625583 19.701443 -1.1988667 0
11.568011 19.75491 -1.1997534 0
11.528297 19.839336 -1.2025265 0
11.455858 19.86772 -1.201912 0
11.364507 19.86289 -1.1993082 0
11.295714 19.897127 -1.1990819 0
11.228688 19.934441 -1.199055 0
11.165399 19.978436 -1.1994427 0
11.109725 20.03627 -1.2006718 0
11.061769 20.108463 -1.2027688 0
10.975036 20.110161 -1.2006626 0
10.877859 20.092009 -1.1973946 0
10.843798 20.190491 -1.2010901 0
10.798828 20.269503 -1.2036299 0
10.696029 20.239784 -1.1997288 0
10.639239 20.296768 -1.2009853 0
10.566748 20.323898 -1.2004876 0
10.506162 20.373981 -1.2013584 0
10.429095 20.392086 -1.2003574 0
10.323484 20.353632 -1.1960497 0
10.290872 20.459078 -1.2002118 0
10.217555 20.484119 -1.1996644 0
10.133592 20.487476 -1.1978644 0
10.085114 20.562666 -1.2002769 0
10.019875 20.604095 -1.2007273 0
9.9572239 20.65103 -1.2015103 0
9.8782167 20.66398 -1.20033 0
9.7901649 20.657499 -1.1980401 0
9.7071333 20.661013 -1.1963496 0
9.6562357 20.733013 -1.1986372 0
9.5870523 20.766106 -1.1986853 0
9.5191336 20.801979 -1.198907 0
9.4775047 20.895885 -1.2024812 0
9.4038229 20.919607 -1.2020251 0
9.3165274 20.912628 -1.1998224 0
9.2422743 20.934494 -1.1992924 0
9.1533365 20.922626 -1.1968477 0
9.105422 21.004612 -1.1997843 0
9.0072422 20.97052 -1.1961054 0
8.9494648 21.030172 -1.1977895 0
8.8877392 21.081017 -1.1989814 0
8.8317442 21.145977 -1.2009852 0
8.7531948 21.157097 -1.1999432 0
8.6803083 21.181686 -1.1996803 0
8.5949163 21.175377 -1.1976842 0
8.5551643 21.281921 -1.2020812 0
8.4642 21.261347 -1.1993095 0
8.4091148 21.33082 -1.2016312 0
8.3158455 21.303297 -1.1985033 0
8.2378235 21.314112 -1.1975511 0
8.1866751 21.394821 -1.2005368 0
8.1130676 21.417322 -1.2002662 0
8.0249968 21.401155 -1.1978456 0
7.9704103 21.474316 -1.2004381 0
7.860661 21.398277 -1.1947074 0
7.8253751 21.52492 -1.2003064 0
7.7557726 21.55829 -1.2007105 0
7.6765862 21.564898 -1.1996382 0
7.6049829 21.592623 -1.1997554 0
7.5503459 21.66909 -1.2025908 0
7.443974 21.596579 -1.1971748 0
7.3940563 21.68751 -1.2008343 0
7.3447948 21.781853 -1.2046877 0
7.2292252 21.678913 -1.1976472 0
7.1628094 21.722166 -1.1987033 0
7.0941553 21.758991 -1.1994162 0
7.0330286 21.819471 -1.2014433 0
6.9321833 21.756153 -1.1966704 0
6.8892698 21.87475 -1.2019165 0
6.805882 21.865576 -1.2001518 0
6.7237186 21.859617 -1.1985806 0
6.6369095 21.837685 -1.1961511 0
6.5951324 21.964647 -1.2018876 0
6.5105295 21.949812 -1.1998745 0
6.4383979 21.976633 -1.2001539 0
6.3685122 22.011347 -1.200877 0
6.2939086 22.029886 -1.2007303 0
6.2127357 22.025074 -1.1993259 0
6.1535025 22.098381 -1.2021875 0
6.0707631 22.087551 -1.2004843 0
5.988131 22.076288 -1.1987741 0
5.9015412 22.049397 -1.1962327 0
5.8565087 22.178608 -1.2021707 0
5.7692075 22.148565 -1.1994871 0
5.6864548 22.134851 -1.1977051 0
5.6248956 22.203873 -1.2004126 0
5.5479002 22.212526 -1.199868 0
5.4617405 22.183666 -1.1973132 0
5.4015441 22.260422 -1.2004716 0
5.3217006 22.256752 -1.1993048 0
5.2578001 22.320112 -1.2017623 0
5.1869168 22.354774 -1.2026855 0
5.1110525 22.368174 -1.2024776 0
5.0202665 22.315126 -1.1987143 0
4.9543099 22.371975 -1.2008691 0
4.8820605 22.401251 -1.2015551 0
4.7959356 22.366241 -1.198808 0
4.7197881 22.376833 -1.1985208 0
4.6433311 22.385757 -1.1981581 0
4.5742412 22.430582 -1.1997297 0
4.4884491 22.393103 -1.1969135 0
4.4294538 22.48982 -1.2012825 0
4.3467627 22.46701 -1.1992788 0
4.2765894 22.508713 -1.2007328 0
4.1967163 22.499435 -1.1994805 0
4.1179342 22.495232 -1.1985136 0
4.0435777 22.514975 -1.1988364 0
3.9707139 22.543436 -1.1996363 0
3.9019883 22.596468 -1.2017554 0
3.8253446 22.60434 -1.2014853 0
3.7343991 22.525742 -1.1966352 0
3.6628234 22.56259 -1.1979336 0
3.5960214 22.630543 -1.2008946 0
3.5170834 22.622906 -1.1998569 0
3.442415 22.642475 -1.2002758 0
3.365082 22.644485 -1.1997775 0
3.2831457 22.614347 -1.1975908 0
3.2108164 22.649994 -1.1989018 0
3.1322708 22.641937 -1.1979127 0
3.067153 22.73246 -1.2021511 0
2.982717 22.680254 -1.1988547 0
2.9100215 22.716389 -1.2002422 0
2.8342967 22.72967 -1.200435 0
2.757827 22.73702 -1.2003282 0
2.6813917 22.744553 -1.2002445 0
2.6097264 22.793661 -1.2023675 0
2.5258195 22.735052 -1.1988224 0
2.4479783 22.728531 -1.1980391 0
2.3735764 22.754023 -1.1989565 0
2.3013616 22.802362 -1.2010903 0
2.2229877 22.790379 -1.2000597 0
2.1443169 22.773846 -1.1988038 0
2.0655484 22.754469 -1.1974126 0
1.9925071 22.798586 -1.1993759 0
1.9178451 22.826426 -1.2004955 0
1.8379856 22.791609 -1.1983335 0
1.7656957 22.851175 -1.2011473 0
1.6860677 22.816338 -1.1990123 0
1.6110804 22.84343 -1.2001454 0
1.5332247 22.829987 -1.1991622 0
1.458203 22.859007 -1.2004231 0
1.3799051 22.8365 -1.1989914 0
1.3054647 22.878393 -1.2009543 0
1.2311559 22.927437 -1.2033054 0
1.1524043 22.89422 -1.2013525 0
1.0722338 22.825491 -1.1975507 0
0.99750572 22.870399 -1.1997246 0
0.92280227 22.922857 -1.2023072 0
0.84622139 22.933418 -1.2027057 0
0.76927274 22.934563 -1.2026237 0
0.69047749 22.874212 -1.1993309 0
0.61406404 22.886959 -1.1998845 0
0.53685224 22.868755 -1.1988291 0
0.46013865 22.868637 -1.1987354 0
0.38421729 22.915108 -1.2010969 0
0.30715933 22.899437 -1.2002149 0
0.23025133 22.887535 -1.1995438 0
0.15364107 22.907358 -1.200549 0
0.076821364 22.903332 -1.2003177 0
3.0328812e-05 22.858704 -1.1979722 0
-0.076743782 22.898317 -1.2000549 0
-0.1532277 22.854767 -1.1977926 0
-0.23035127 22.903513 -1.2003812 0
-0.30754721 22.932892 -1.2019682 0
-0.38232565 22.805899 -1.1953727 0
-0.4615573 22.942171 -1.2025898 0
-0.53679729 22.868999 -1.1988418 0
-0.61409396 22.890341 -1.2000617 0
-0.69276768 22.952101 -1.2034147 0
-0.76787138 22.894596 -1.2005279 0
-0.84480393 22.896652 -1.2007774 0
-0.91926992 22.836618 -1.1977839 0
-0.9986161 22.897253 -1.2011331 0
-1.0736032 22.855934 -1.1991477 0
-1.1518852 22.885117 -1.2008747 0
-1.2224416 22.766281 -1.1948472 0
-1.3074975 22.915087 -1.2028804 0
-1.381619 22.86587 -1.2005332 0
-1.4615699 22.912745 -1.2032448 0
-1.5368328 22.884621 -1.2020317 0
-1.6088496 22.812662 -1.1985286 0
-1.6847429 22.799232 -1.1981132 0
-1.768925 22.893759 -1.2033855 0
-1.8423837 22.846905 -1.2012405 0
-1.9116261 22.753132 -1.1966404 0
-1.9969869 22.850544 -1.202109 0
-2.0689874 22.793024 -1.1994412 0
-2.1450613 22.782398 -1.1992538 0
-2.2227581 22.788651 -1.1999683 0
-2.29825 22.772137 -1.1994978 0
-2.3809488 22.825283 -1.2027111 0
-2.446996 22.719976 -1.1975878 0
-2.5289929 22.764164 -1.2003572 0
-2.6081212 22.780176 -1.2016559 0
-2.6809044 22.740938 -1.2000535 0
-2.7503209 22.675638 -1.1970874 0
-2.8284068 22.682924 -1.197966 0
-2.9090147 22.709005 -1.1998518 0
-2.9803605 22.662802 -1.1979318 0
-3.0562775 22.652309 -1.1979121 0
-3.1378851 22.682962 -1.2000828 0
-3.2086148 22.634897 -1.1981021 0
-3.2948608 22.695465 -1.2018862 0
-3.3663871 22.653681 -1.2002643 0
-3.4433017 22.648712 -1.200606 0
-3.5143156 22.605497 -1.198933 0
-3.595192 22.62571 -1.2006376 0
-3.6682053 22.596119 -1.1997132 0
-3.7434595 22.580765 -1.1995577 0
-3.8209338 22.578642 -1.2001188 0
-3.9063706 22.622204 -1.2031236 0
-3.9702044 22.540894 -1.1995004 0
-4.0431585 22.512985 -1.1987299 0
-4.1223397 22.519634 -1.1998132 0
-4.2015939 22.525915 -1.2008916 0
-4.2772307 22.512417 -1.2009298 0
-4.3485556 22.476597 -1.19979 0
-4.4264631 22.474951 -1.2004876 0
-4.5021787 22.461908 -1.2005905 0
-4.582736 22.472542 -1.2019733 0
-4.6511698 22.423849 -1.2001963 0
-4.7227397 22.391123 -1.1992854 0
-4.8080344 22.422955 -1.2018471 0
-4.8778491 22.382214 -1.2005333 0
-4.9541335 22.371462 -1.2008407 0
-5.0198865 22.313713 -1.1986376 0
-5.10426 22.338718 -1.2008934 0
-5.1722131 22.291672 -1.1992898 0
-5.2379932 22.236296 -1.1972487 0
-5.3377442 22.324114 -1.2029338 0
-5.3908377 22.216558 -1.1981053 0
-5.4781189 22.250444 -1.2009165 0
-5.559783 22.260353 -1.2024508 0
-5.6291862 22.221058 -1.2013409 0
-5.6961031 22.172653 -1.1997497 0
-5.7717981 22.158752 -1.200038 0
-5.8472929 22.143946 -1.200291 0
-5.9224606 22.12779 -1.2004849 0
-5.9880219 22.076118 -1.1987641 0
-6.0725441 22.094261 -1.2008481 0
-6.1410403 22.053854 -1.1997643 0
-6.2094665 22.013706 -1.198706 0
-6.2789326 21.97769 -1.1978844 0
-6.3700581 22.016909 -1.2011794 0
-6.4384928 21.977171 -1.2001824 0
-6.5221 21.989035 -1.2020177 0
-6.5923533 21.955603 -1.2013917 0
-6.6601443 21.914343 -1.2003491 0
-6.7107563 21.817682 -1.1962802 0
-6.8006692 21.849033 -1.1992427 0
-6.8659577 21.800934 -1.1978594 0
-6.9550858 21.828232 -1.2006339 0
-7.0151572 21.764225 -1.1984003 0
-7.1163106 21.827143 -1.2031717 0
-7.1728086 21.752684 -1.2003863 0
-7.239059 21.708593 -1.1992859 0
-7.3114629 21.683193 -1.1992302 0
-7.4042282 21.717531 -1.2024956 0
-7.4697871 21.671656 -1.2013354 0
-7.5225616 21.589535 -1.1981745 0
-7.591197 21.553663 -1.1975896 0
-7.6892209 21.600571 -1.2016217 0
-7.7520022 21.547991 -1.2001357 0
-7.8148165 21.496054 -1.1986957 0
-7.888474 21.474167 -1.1989433 0
-7.962163 21.452271 -1.1992044 0
-8.0321016 21.420275 -1.1989146 0
-8.1076946 21.403309 -1.1994797 0
-8.1857395 21.392546 -1.200408 0
-8.2596846 21.370844 -1.2007374 0
-8.333518 21.348736 -1.2010583 0
-8.4036655 21.317163 -1.2008605 0
-8.474762 21.288044 -1.200814 0
-8.5435591 21.253214 -1.2004585 0
-8.6040955 21.198154 -1.1989712 0
-8.6688128 21.153795 -1.1980994 0
-8.7600546 21.173836 -1.2008913 0
-8.8198671 21.117697 -1.1993777 0
-8.8978806 21.105227 -1.2003571 0
-8.9732971 21.086332 -1.2009867 0
-9.0295734 21.022667 -1.1990782 0
-9.1061926 21.006542 -1.1998932 0
-9.1591654 20.936102 -1.1976172 0
-9.2600651 20.974941 -1.2016082 0
-9.3315678 20.946537 -1.2017665 0
-9.3953152 20.900829 -1.2009447 0
-9.4609737 20.859587 -1.2003908 0
-9.5218163 20.807987 -1.1992519 0
-9.5911522 20.775131 -1.1992048 0
-9.6505117 20.720867 -1.1979336 0
-9.7481337 20.748425 -1.2014095 0
-9.8310385 20.743885 -1.2030486 0
-9.8658285 20.638206 -1.1988313 0
-9.9203205 20.574633 -1.1970638 0
-10.024443 20.613628 -1.2012813 0
-10.083599 20.559715 -1.200103 0
-10.161872 20.544788 -1.2012138 0
-10.218481 20.486113 -1.1997795 0
-10.303192 20.483707 -1.201655 0
-10.355114 20.416128 -1.1997205 0
-10.422238 20.378813 -1.1995745 0
-10.505333 20.372507 -1.2012699 0
-10.54992 20.291666 -1.1985821 0
-10.630527 20.280277 -1.2000079 0
-10.683225 20.215687 -1.1982987 0
-10.782627 20.239223 -1.2018301 0
-10.838461 20.180681 -1.2005049 0
-10.90159 20.135969 -1.2000127 0
-10.974915 20.110065 -1.2006552 0
-11.025072 20.041878 -1.1987844 0
-11.114038 20.044176 -1.2011439 0
-11.174174 19.994263 -1.2003912 0
-11.24812 19.969063 -1.2011358 0
-11.304089 19.912001 -1.1999763 0
-11.366691 19.866829 -1.1995441 0
-11.441244 19.842495 -1.2003843 0
-11.51018 19.808279 -1.2006422 0
-11.544522 19.714916 -1.1973226 0
-11.621241 19.694204 -1.1984243 0
-11.685581 19.652395 -1.1982577 0
-11.746112 19.604269 -1.1977178 0
-11.824205 19.585367 -1.1989783 0
-11.903728 19.568501 -1.2003822 0
-11.962663 19.517698 -1.1997195 0
-12.025961 19.474121 -1.1995127 0
-12.106447 19.45822 -1.2010267 0
-12.149796 19.382706 -1.1988734 0
-12.233288 19.371271 -1.2006963 0
-12.276031 19.295351 -1.1985351 0
-12.362571 19.288277 -1.2006634 0
-12.428181 19.248283 -1.2007611 0
-12.446722 19.1359 -1.1963469 0
-12.558034 19.166132 -1.2008625 0
-12.61474 19.112581 -1.2001506 0
-12.688025 19.084129 -1.2010285 0
-12.735853 19.017462 -1.1995136 0
-12.805033 18.982792 -1.2000279 0
-12.893103 18.975803 -1.2023122 0
-12.974212 18.958128 -1.2039416 0
-13.019188 18.887661 -1.202232 0
-13.075275 18.833584 -1.2015735 0
-13.138746 18.790209 -1.20161 0
-13.204795 18.750484 -1.2018942 0
-13.280918 18.724901 -1.2031018 0
-13.31806 18.644478 -1.2007967 0
-13.378763 18.597313 -1.2006413 0
-13.438159 18.548372 -1.2003838 0
-13.49701 18.498741 -1.2000937 0
-13.530886 18.41518 -1.1976092 0
-13.61841 18.404655 -1.1998874 0
-13.667733 18.342375 -1.1988078 0
-13.743262 18.315247 -1.2000397 0
-13.801556 18.265047 -1.1997757 0
-13.872264 18.231216 -1.2006019 0
-13.920497 18.167877 -1.1994977 0
-13.985398 18.126373 -1.1998465 0
-14.056709 18.093044 -1.2007533 0
-14.109903 18.036367 -1.2001249 0
-14.158869 17.974449 -1.1991569 0
-14.229919 17.940575 -1.2000732 0
-14.302229 17.908089 -1.2011011 0
-14.334481 17.825577 -1.1987836 0
-14.449533 17.845797 -1.2033948 0
-14.471963 17.751469 -1.2002993 0
-14.514726 17.682535 -1.198922 0
-14.583805 17.645718 -1.1997343 0
-14.612435 17.560129 -1.1972395 0
-14.720034 17.569288 -1.2012222 0
-14.798004 17.542536 -1.2027783 0
-14.836154 17.468584 -1.2011119 0
-14.861938 17.380501 -1.1984749 0
-14.914504 17.324041 -1.1980232 0
-14.975458 17.277346 -1.1982595 0
-15.064974 17.263334 -1.200784 0
-15.141677 17.234245 -1.2022852 0
-15.145724 17.122728 -1.1980414 0
-15.230358 17.102518 -1.2001935 0
-15.29029 17.054342 -1.2004036 0
-15.327352 16.980787 -1.1988367 0
-15.380227 16.924932 -1.1985272 0
-15.43175 16.867655 -1.1981283 0
-15.513449 16.843214 -1.2000803 0
-15.561035 16.781618 -1.1994021 0
-15.659294 16.774427 -1.202634 0
-15.694464 16.699503 -1.2010281 0
-15.745996 16.64217 -1.2006949 0
-15.825469 16.614231 -1.2025006 0
-15.8194 16.496752 -1.1978298 0
-15.915006 16.485451 -1.2008771 0
-15.961399 16.422955 -1.2002162 0
-16.020674 16.373743 -1.2005385 0
-16.077564 16.322052 -1.200694 0
-16.123678 16.259462 -1.2000599 0
-16.174984 16.202188 -1.1998285 0
-16.222633 16.141314 -1.1993418 0
-16.304834 16.114677 -1.2014178 0
-16.343824 16.045244 -1.20032 0
-16.34404 15.938195 -1.1964045 0
-16.464386 15.948208 -1.2012931 0
-16.476208 15.852931 -1.1982707 0
-16.553473 15.820734 -1.2000254 0
-16.600368 15.759397 -1.1995879 0
-16.615652 15.668325 -1.1968895 0
-16.710566 15.652312 -1.1999395 0
-16.743113 15.577739 -1.1985193 0
-16.838667 15.561641 -1.2016177 0
-16.876621 15.492128 -1.2006127 0
-16.920082 15.427811 -1.2000179 0
-16.994101 15.39127 -1.2016008 0
-17.031197 15.321239 -1.2005849 0
-17.03145 15.218463 -1.1969991 0
-17.137119 15.209859 -1.200835 0
-17.157221 15.125166 -1.1986833 0
-17.196083 15.057263 -1.1978645 0
-17.268602 15.018772 -1.1994017 0
-17.335892 14.975501 -1.2005812 0
-17.391941 14.922387 -1.2009912 0
-17.470682 14.88854 -1.2029747 0
-17.502157 14.814353 -1.2017151 0
-17.541969 14.747385 -1.2010469 0
-17.583813 14.682221 -1.2005346 0
-17.618589 14.611282 -1.1995575 0
-17.700876 14.579636 -1.201825 0
-17.749807 14.520328 -1.201835 0
-17.75853 14.428347 -1.1991433 0
-17.822994 14.381788 -1.2002336 0
-17.823805 14.284038 -1.1970564 0
-17.895454 14.243186 -1.1986544 0
-18.002247 14.229852 -1.202605 0
-18.023367 14.148619 -1.20084 0
-18.044367 14.067578 -1.1990899 0
-18.097305 14.011548 -1.1994792 0
-18.171457 13.971764 -1.2012824 0
-18.195211 13.893208 -1.1997666 0
-18.32276 13.893597 -1.2050986 0
-18.261505 13.750961 -1.1980307 0
-18.372648 13.738366 -1.2022935 0
-18.393314 13.657908 -1.2006426 0
-18.426695 13.587088 -1.1998411 0
-18.445309 13.505579 -1.1980979 0
-18.517818 13.463531 -1.1998688 0
-18.591841 13.422295 -1.2017424 0
-18.623419 13.350336 -1.2008835 0
-18.680946 13.296982 -1.2017115 0
-18.626682 13.164487 -1.1953747 0
-18.694355 13.11855 -1.1968882 0
-18.846661 13.131343 -1.2038139 0
-18.831408 13.027145 -1.2000431 0
-18.874155 12.963368 -1.1999906 0
-18.983435 12.944965 -1.2041721 0
-18.97893 12.848885 -1.2011471 0
-18.983566 12.759413 -1.1987263 0
-19.038521 12.703887 -1.1995 0
-19.093067 12.647972 -1.2002581 0
-19.205067 12.629723 -1.2046301 0
-19.18886 12.527106 -1.2009722 0
-19.223021 12.457688 -1.2004894 0
-19.304956 12.419076 -1.2029991 0
-19.263914 12.301552 -1.1978647 0
-19.329847 12.252612 -1.1994032 0
-19.381332 12.194348 -1.2000542 0
-19.435127 12.137428 -1.2008586 0
-19.477495 12.073303 -1.2009685 0
-19.509439 12.002747 -1.2004501 0
-19.567692 11.948332 -1.2015626 0
-19.568096 11.858692 -1.1991392 0
-19.622261 11.801746 -1.2000269 0
-19.656549 11.732805 -1.1997114 0
-19.685408 11.660691 -1.1990798 0
-19.709957 11.586139 -1.1982021 0
-19.761459 11.527437 -1.1989768 0
-19.791109 11.455971 -1.1984385 0
-19.827148 11.388253 -1.198302 0
-19.902704 11.343077 -1.2005632 0
-19.960684 11.287626 -1.2017709 0
-20.013699 11.229213 -1.2026893 0
-20.065275 11.169863 -1.2035313 0
-20.03919 11.067497 -1.1997342 0
-20.097517 11.011936 -1.201009 0
-20.132568 10.943536 -1.2009043 0
-20.138601 10.859503 -1.1990855 0
-20.185928 10.797821 -1.1997411 0
-20.242895 10.741158 -1.2009797 0
