# .PCD v0.7 - Point Cloud Data file format
VERSION 0.7
FIELDS x y z intensity
SIZE 4 4 4 4
TYPE F F F F
COUNT 1 1 1 1
WIDTH 1414
HEIGHT 1
VIEWPOINT 0 0 0 1 0 0 0
POINTS 1414
DATA ascii
-9.5070744 -2.2563603 -1.1997461 0
-9.5386934 -2.2976744 -1.2047018 0
-9.4632587 -2.3131006 -1.1961473 0
-9.4972954 -2.3551929 -1.2014408 0
-9.4630146 -2.380399 -1.1981072 0
-9.4632664 -2.4142272 -1.1991571 0
-9.417923 -2.4363201 -1.1944398 0
-9.4851971 -2.4876831 -1.2040229 0
-9.4382029 -2.5092092 -1.1991189 0
-9.3714085 -2.5251229 -1.1917017 0
-9.404521 -2.5678966 -1.1970003 0
-9.4393511 -2.6114464 -1.2025412 0
-9.4482241 -2.6480355 -1.2047958 0
-9.4379959 -2.6793308 -1.2046304 0
-9.4264927 -2.7102504 -1.2043153 0
-9.3726683 -2.7288303 -1.1986008 0
-9.3730383 -2.7630618 -1.1998261 0
-9.3562317 -2.7922368 -1.1988664 0
-9.3653593 -2.8291924 -1.2012447 0
-9.3472013 -2.8579412 -1.200138 0
-9.3340387 -2.8881729 -1.1996845 0
-9.3575621 -2.9298656 -1.2039639 0
-9.334322 -2.9569893 -1.2022425 0
-9.3094816 -2.9835024 -1.2003247 0
-9.3200207 -3.0213747 -1.2029829 0
-9.306879 -3.051636 -1.2026006 0
-9.2289162 -3.0603802 -1.1938457 0
-9.2594681 -3.1050088 -1.1991378 0
-9.2354221 -3.1314311 -1.1973767 0
-9.2201061 -3.1607447 -1.1967583 0
-9.1832256 -3.1825492 -1.1933495 0
-9.2264986 -3.2322366 -1.2003744 0
-9.2241268 -3.2661691 -1.2014837 0
-9.1904383 -3.288959 -1.1985253 0
-9.1849098 -3.3217616 -1.1992499 0
-9.1521721 -3.3446634 -1.1964329 0
-9.1943541 -3.3950658 -1.2034286 0
-9.144208 -3.4114316 -1.1983554 0
-9.1339617 -3.4425397 -1.1985185 0
-9.1062279 -3.4669998 -1.196398 0
-9.1246128 -3.5090721 -1.2003524 0
-9.0689821 -3.5226266 -1.1945812 0
-9.099 -3.5694425 -1.2001048 0
-9.0952654 -3.6032116 -1.2011989 0
-9.0824957 -3.6334307 -1.2011145 0
-9.066082 -3.662174 -1.200561 0
-9.0891609 -3.7069912 -1.2052562 0
-9.0622673 -3.7315097 -1.2033423 0
-9.0431299 -3.7591393 -1.2024679 0
-9.0099955 -3.7808442 -1.199741 0
-8.9982319 -3.8114398 -1.1998694 0
-9.0249004 -3.8584747 -1.2051439 0
-9.0082865 -3.8871469 -1.2046589 0
-9.0038481 -3.921093 -1.2058166 0
-8.9648724 -3.93993 -1.2023593 0
-8.8998899 -3.947027 -1.195412 0
-8.9363623 -3.9991107 -1.2021052 0
-8.9218779 -4.0285873 -1.201967 0
-8.9296379 -4.0681896 -1.2048433 0
-8.8794603 -4.0813351 -1.1999125 0
-8.8676939 -4.1119957 -1.2001789 0
-8.8453369 -4.1377182 -1.1990238 0
-8.8593473 -4.1805329 -1.2028164 0
-8.7874632 -4.1826925 -1.1949539 0
-8.8143845 -4.2318134 -1.2005376 0
-8.783577 -4.2533193 -1.198277 0
-8.7532492 -4.2749219 -1.1960883 0
-8.7360497 -4.3028584 -1.1957027 0
-8.7205753 -4.3316288 -1.1955658 0
-8.7329226 -4.3743262 -1.1992625 0
-8.7540064 -4.4216642 -1.204187 0
-8.6740532 -4.4178443 -1.1952196 0
-8.6957865 -4.4656944 -1.2002707 0
-8.7245483 -4.5174956 -1.2063246 0
-8.6828842 -4.5329037 -1.2026583 0
-8.6312351 -4.5428309 -1.1976075 0
-8.6423178 -4.5857325 -1.2012719 0
-8.6055336 -4.6032567 -1.1982974 0
-8.6117048 -4.6437597 -1.201318 0
-8.623435 -4.6874728 -1.20514 0
-8.5251484 -4.6711435 -1.1935862 0
-8.5179281 -4.7043891 -1.194777 0
-8.4802532 -4.7207561 -1.1917059 0
-8.4794044 -4.7575927 -1.1938214 0
-8.5130854 -4.8140898 -1.2008293 0
-8.4805117 -4.8332677 -1.1985136 0
-8.4730568 -4.8667269 -1.1997594 0
-8.4765549 -4.9066057 -1.2025772 0
-8.453434 -4.9311357 -1.201636 0
-8.4396782 -4.9611111 -1.2020384 0
-8.4070492 -4.9799333 -1.1997625 0
-8.4227791 -5.0274758 -1.204406 0
-8.4086685 -5.0573668 -1.2048061 0
-8.3500528 -5.0603137 -1.1988318 0
-8.3583221 -5.1037192 -1.2024691 0
-8.3214817 -5.119606 -1.1996318 0
-8.2760296 -5.129972 -1.1955521 0
-8.2855148 -5.1743855 -1.1994219 0
-8.2851114 -5.2128267 -1.2018868 0
-8.2569771 -5.233851 -1.2003444 0
-8.2408266 -5.2624278 -1.2005547 0
-8.2780342 -5.3253446 -1.2085698 0
-8.1990261 -5.3134685 -1.1996289 0
-8.187933 -5.3453465 -1.2006214 0
-8.1586285 -5.365314 -1.1989554 0
-8.1108904 -5.3729615 -1.1945807 0
-8.110177 -5.4117007 -1.1971413 0
-8.0833302 -5.4330435 -1.1958605 0
-8.1073647 -5.4887495 -1.202132 0
-8.083169 -5.511982 -1.2012779 0
-8.0664501 -5.5402932 -1.201547 0
-8.0676212 -5.5809999 -1.2045021 0
-8.053443 -5.611208 -1.2051873 0
-8.0178671 -5.6264467 -1.2026796 0
-7.9722438 -5.6344175 -1.1986631 0
-7.9714713 -5.6740437 -1.2014006 0
-7.9789472 -5.7197676 -1.2054108 0
-7.9616294 -5.7478619 -1.2056992 0
-7.920753 -5.7588482 -1.2024262 0
-7.8687506 -5.761467 -1.1974577 0
-7.8575225 -5.7938142 -1.1986984 0
-7.8429284 -5.8237462 -1.1994441 0
-7.8266606 -5.852479 -1.1999503 0
-7.8081398 -5.8795495 -1.2001264 0
-7.8133464 -5.9246249 -1.2039731 0
-7.7495141 -5.9172492 -1.1971874 0
-7.7419 -5.952632 -1.1990876 0
-7.733942 -5.9878802 -1.2009578 0
-7.7305255 -6.0267992 -1.2035583 0
-7.6722541 -6.0228372 -1.1976233 0
-7.6581984 -6.0534124 -1.1985906 0
-7.6312246 -6.0737743 -1.1975495 0
-7.6235805 -6.1095543 -1.1995577 0
-7.6353593 -6.161149 -1.2046547 0
-7.5635662 -6.1452022 -1.1965717 0
-7.563839 -6.1876402 -1.1998903 0
-7.5524583 -6.2207146 -1.2013867 0
-7.5247321 -6.2403398 -1.2002977 0
-7.5206709 -6.2796483 -1.2030016 0
-7.5058651 -6.3101168 -1.2040107 0
-7.4984508 -6.3469148 -1.2062283 0
-7.4667072 -6.3631387 -1.2045469 0
-7.4304161 -6.3753409 -1.202134 0
-7.3566227 -6.3549724 -1.1936358 0
-7.3645601 -6.4050727 -1.1984013 0
-7.3750753 -6.4577761 -1.2036289 0
-7.3366785 -6.4677415 -1.2008948 0
-7.3242078 -6.5005188 -1.2024143 0
-7.2927146 -6.5164099 -1.2008241 0
-7.2855558 -6.5540757 -1.2032571 0
-7.2324104 -6.5502725 -1.1981002 0
-7.1936941 -6.5592442 -1.1953229 0
-7.1792593 -6.590301 -1.1965892 0
-7.2110009 -6.6641269 -1.205597 0
-7.1687722 -6.6698031 -1.202269 0
-7.080627 -6.6322217 -1.1912087 0
-7.105979 -6.7008376 -1.1992468 0
-7.0908012 -6.7315826 -1.2004876 0
-7.04356 -6.7317772 -1.1963041 0
-7.0462956 -6.7797422 -1.2006227 0
-7.0115271 -6.7917075 -1.1985718 0
-7.0221682 -6.8477988 -1.2043087 0
-6.9934187 -6.8656583 -1.2033193 0
-6.9488149 -6.8677735 -1.1995999 0
-6.9552784 -6.920414 -1.2047145 0
-6.9153705 -6.9270005 -1.2018181 0
-6.8791804 -6.9371128 -1.1995641 0
-6.8766785 -6.9812498 -1.2032027 0
-6.8499699 -7.0009322 -1.2026298 0
-6.8141465 -7.0111909 -1.2004608 0
-6.8040252 -7.047904 -1.202834 0
-6.7603312 -7.0497937 -1.1992813 0
-6.7411623 -7.0771508 -1.2000835 0
-6.7117987 -7.0937967 -1.1990836 0
-6.6877208 -7.1159878 -1.1990376 0
-6.6755142 -7.1508923 -1.2011409 0
-6.640749 -7.1616387 -1.1991993 0
-6.6283956 -7.1965613 -1.201319 0
-6.6164522 -7.2321048 -1.2035424 0
-6.5896349 -7.251461 -1.2030799 0
-6.5435839 -7.2494721 -1.1991034 0
-6.4890704 -7.2377191 -1.1935539 0
-6.490901 -7.2887816 -1.1983788 0
-6.4482613 -7.2899666 -1.1950123 0
-6.4512081 -7.3427606 -1.2001143 0
-6.4219313 -7.3590527 -1.1992512 0
-6.3803716 -7.3611026 -1.1960924 0
-6.3744478 -7.4042826 -1.1996291 0
-6.3325443 -7.4056826 -1.1964092 0
-6.2982488 -7.4157696 -1.1946206 0
-6.2926884 -7.4597697 -1.1983031 0
-6.2967772 -7.5156012 -1.2038735 0
-6.2353473 -7.4931731 -1.1969254 0
-6.2401781 -7.5503221 -1.2027054 0
-6.2051935 -7.559464 -1.2008408 0
-6.159358 -7.5551362 -1.196866 0
-6.1623778 -7.6108022 -1.2024046 0
-6.1402593 -7.6356907 -1.2030774 0
-6.1102014 -7.6506972 -1.2022072 0
-6.0562615 -7.6355186 -1.1966246 0
-6.077745 -7.7155967 -1.205974 0
-6.0055952 -7.676815 -1.1967583 0
-5.981667 -7.6992812 -1.1971273 0
-6.0108471 -7.7906146 -1.2081881 0
-5.9117837 -7.7155695 -1.1934692 0
-5.9184237 -7.7781148 -1.2000678 0
-5.9069672 -7.8173094 -1.2030525 0
-5.8497491 -7.7957911 -1.1967158 0
-5.8182216 -7.8081708 -1.1956149 0
-5.814847 -7.8584986 -1.2003292 0
-5.7737613 -7.8579373 -1.1972799 0
-5.7220154 -7.8424835 -1.1919954 0
-5.7357402 -7.9169064 -1.2003773 0
-5.7007461 -7.9243908 -1.1986074 0
-5.6920948 -7.9685884 -1.2023991 0
-5.6930628 -8.0267067 -1.2082819 0
-5.6269784 -7.9901714 -1.1999353 0
-5.5855212 -7.988061 -1.1967992 0
-5.5515337 -7.9964104 -1.1952547 0
-5.5231652 -8.012764 -1.1949244 0
-5.5224442 -8.0694847 -1.200615 0
-5.4866514 -8.075141 -1.1987129 0
-5.4738197 -8.1146517 -1.2018468 0
-5.4342999 -8.1146193 -1.1991367 0
-5.3934369 -8.112299 -1.1961149 0
-5.3721881 -8.1393967 -1.1974479 0
-5.3771315 -8.206604 -1.2046762 0
-5.3513494 -8.2272978 -1.2050732 0
-5.2976389 -8.2047768 -1.1991662 0
-5.2684107 -8.2198572 -1.1987817 0
-5.2585154 -8.2652864 -1.2028291 0
-5.2060595 -8.2437353 -1.1971459 0
-5.2001696 -8.2958879 -1.2021809 0
-5.1675787 -8.3056469 -1.2010775 0
-5.128119 -8.3041687 -1.1983706 0
-5.0983667 -8.3182468 -1.1979287 0
-5.0747705 -8.3423986 -1.1989497 0
-5.0723481 -8.4017315 -1.2050259 0
-5.0086002 -8.3593578 -1.1965332 0
-5.0090737 -8.4240828 -1.203387 0
-4.9635153 -8.4115353 -1.1992106 0
-4.9451251 -8.4449339 -1.2016016 0
-4.9093413 -8.4486599 -1.199783 0
-4.8682957 -8.4430628 -1.1966634 0
-4.868423 -8.5090847 -1.2037007 0
-4.8680534 -8.5750113 -1.210711 0
-4.7760692 -8.4790726 -1.1948977 0
-4.7577496 -8.513175 -1.1974487 0
-4.7309322 -8.532239 -1.1978924 0
-4.6973133 -8.53899 -1.1966225 0
-4.6852255 -8.5850506 -1.2008691 0
-4.6738849 -8.6329784 -1.2053745 0
-4.6066108 -8.5772829 -1.1954347 0
-4.6026359 -8.639246 -1.2019131 0
-4.559947 -8.6287107 -1.1983136 0
-4.5435481 -8.6679068 -1.2016346 0
-4.5102854 -8.6750612 -1.2005234 0
-4.4704857 -8.6694069 -1.1976599 0
-4.4485316 -8.6983032 -1.1995846 0
-4.412148 -8.6989841 -1.1976316 0
-4.3810992 -8.7100353 -1.197124 0
-4.3459654 -8.7128334 -1.1954993 0
-4.3524785 -8.7996349 -1.2054002 0
-4.3203068 -8.8087873 -1.204663 0
-4.2696342 -8.7798052 -1.198735 0
-4.2344551 -8.7822123 -1.1971185 0
-4.22017 -8.8281231 -1.2014412 0
-4.1803365 -8.8206768 -1.1985136 0
-4.1495585 -8.8321304 -1.1981728 0
-4.1159668 -8.8375006 -1.1970223 0
-4.0967617 -8.8738823 -1.200083 0
-4.0911512 -8.9403772 -1.2072138 0
-4.0387392 -8.9046249 -1.200551 0
-4.0241456 -8.9521189 -1.2051283 0
-3.9898586 -8.9560213 -1.2038461 0
-3.9617348 -8.973712 -1.2044318 0
-3.9113336 -8.9405613 -1.1982156 0
-3.9011331 -8.9992943 -1.2043272 0
-3.8496871 -8.9628468 -1.1977156 0
-3.8358305 -9.0138092 -1.2028004 0
-3.7952423 -9.0020819 -1.1995307 0
-3.7766433 -9.0425415 -1.2032279 0
-3.7420268 -9.0448141 -1.2018542 0
-3.7243621 -9.0882559 -1.2059606 0
-3.6719551 -9.0467005 -1.1988059 0
-3.6612177 -9.1077557 -1.2052631 0
-3.5911736 -9.0207911 -1.1921548 0
-3.614608 -9.1689987 -1.2101328 0
-3.551434 -9.0980339 -1.1991886 0
-3.5247433 -9.1198072 -1.2004942 0
-3.4899693 -9.120657 -1.1990589 0
-3.4643638 -9.1454906 -1.2007899 0
-3.4299991 -9.1472349 -1.1995022 0
-3.3932486 -9.1423502 -1.197363 0
-3.3675411 -9.1671896 -1.1991307 0
-3.3395467 -9.1860218 -1.2001227 0
-3.2965717 -9.1633739 -1.1957132 0
-3.2852705 -9.2289877 -1.2028308 0
-3.2559202 -9.244525 -1.2034264 0
-3.1959822 -9.1723776 -1.1926327 0
-3.1699667 -9.1968384 -1.1944246 0
-3.1448472 -9.2242317 -1.1966062 0
-3.1197078 -9.2519407 -1.198837 0
-3.0819213 -9.2421103 -1.1962175 0
-3.0543587 -9.2628288 -1.197567 0
-3.0369053 -9.3147936 -1.2029622 0
-2.9965553 -9.2966843 -1.1993192 0
-2.9630282 -9.2993336 -1.1983727 0
-2.9186392 -9.2673244 -1.1929799 0
-2.9019251 -9.3232374 -1.1989185 0
-2.8907886 -9.3983898 -1.2073294 0
-2.8316321 -9.3171186 -1.195663 0
-2.8151627 -9.3758011 -1.2019756 0
-2.7858005 -9.39223 -1.2028775 0
-2.7433903 -9.3642969 -1.1981153 0
-2.7090528 -9.3633318 -1.196823 0
-2.6999707 -9.45051 -1.2068022 0
-2.6573827 -9.4209137 -1.2018784 0
-2.6225338 -9.418108 -1.2003919 0
-2.5890467 -9.4199524 -1.1995139 0
-2.5522492 -9.4094105 -1.1970751 0
-2.5175862 -9.4063292 -1.1956025 0
-2.5100434 -9.505641 -1.2071493 0
-2.4726689 -9.4929266 -1.204475 0
-2.4287367 -9.4541016 -1.1985089 0
-2.3967724 -9.4611931 -1.1983824 0
-2.3610914 -9.4533768 -1.196383 0
-2.3375428 -9.4943838 -1.200574 0
-2.2977715 -9.4695063 -1.1964474 0
-2.2719572 -9.5020332 -1.1995878 0
-2.2303767 -9.46838 -1.1943885 0
-2.193464 -9.4535904 -1.1915884 0
-2.1808977 -9.5446663 -1.2021397 0
-2.1512425 -9.5624094 -1.2034593 0
-2.1095691 -9.5262156 -1.1980072 0
-2.0809205 -9.5483904 -1.1999118 0
-2.044781 -9.536128 -1.1975025 0
-2.0246582 -9.5991669 -1.2045594 0
-1.9884704 -9.5866547 -1.2021459 0
-1.9668813 -9.645072 -1.2086377 0
-1.9271758 -9.6149111 -1.2040416 0
-1.8919624 -9.6062613 -1.2021574 0
-1.8518066 -9.5715246 -1.1970266 0
-1.8267757 -9.6148968 -1.201678 0
-1.7908932 -9.6014776 -1.1992437 0
-1.7616595 -9.6236439 -1.2012678 0
-1.7187517 -9.5702972 -1.1938828 0
-1.6959113 -9.628561 -1.200435 0
-1.663785 -9.6351547 -1.2005548 0
-1.627854 -9.6193066 -1.1978934 0
-1.6003788 -9.6535778 -1.2014862 0
-1.566813 -9.651557 -1.2005742 0
-1.5318568 -9.6404724 -1.1985496 0
-1.4953457 -9.6186676 -1.1952088 0
-1.4728333 -9.6877298 -1.2031701 0
-1.4433426 -9.7127934 -1.205675 0
-1.3969039 -9.6220713 -1.1938252 0
-1.3702328 -9.6661892 -1.1987225 0
-1.3382959 -9.6741972 -1.1991522 0
-1.3124436 -9.7274799 -1.2052047 0
-1.2704704 -9.6607161 -1.1963984 0
-1.2373936 -9.6596212 -1.1957422 0
-1.2092009 -9.6974068 -1.199911 0
-1.1712899 -9.6569624 -1.194414 0
-1.1449032 -9.7117119 -1.2007041 0
-1.1043389 -9.6456537 -1.1920725 0
-1.0764673 -9.68958 -1.1970484 0
-1.0488079 -9.7380171 -1.2025912 0
-1.0152574 -9.7329006 -1.2015321 0
-0.98371255 -9.7470846 -1.2028693 0
-0.94783521 -9.7176046 -1.1988324 0
-0.92180008 -9.7903109 -1.2074138 0
-0.88746268 -9.7767429 -1.2053667 0
-0.85293251 -9.7596893 -1.2029048 0
-0.81469703 -9.6969318 -1.1948265 0
-0.77969801 -9.6688242 -1.1910343 0
-0.75576651 -9.7812719 -1.2045671 0
-0.71929246 -9.7340174 -1.198444 0
-0.68851197 -9.7627459 -1.2016901 0
-0.65496927 -9.7529955 -1.2002127 0
-0.62289202 -9.7649565 -1.2014209 0
-0.59189814 -9.7959461 -1.2049829 0
-0.55854279 -9.7889719 -1.2038877 0
-0.52435023 -9.7652969 -1.2007531 0
-0.49127507 -9.7604237 -1.1999446 0
-0.46022809 -9.7977943 -1.2043426 0
-0.42527866 -9.7512074 -1.1984341 0
-0.39376268 -9.7819014 -1.2020375 0
-0.36122066 -9.7901335 -1.2028934 0
-0.32629219 -9.7286186 -1.195194 0
-0.29503715 -9.7748823 -1.2007494 0
-0.26265559 -9.7904816 -1.2025506 0
-0.23031855 -9.8121862 -1.205115 0
-0.19665439 -9.7749052 -1.2004485 0
-0.16391639 -9.777688 -1.200716 0
-0.13133679 -9.7933989 -1.2025845 0
-0.097810574 -9.725172 -1.1941595 0
-0.065471977 -9.7655115 -1.1990792 0
-0.032800347 -9.7867565 -1.2016675 0
1.2937188e-05 -9.7507076 -1.1972345 0
0.033006083 -9.8403521 -1.2082483 0
0.065761417 -9.8048019 -1.2039037 0
0.098348558 -9.776083 -1.2004111 0
0.13094246 -9.7620621 -1.1987365 0
0.16447181 -9.8092651 -1.2045938 0
0.19753419 -9.8173409 -1.2056601 0
0.22856964 -9.7365761 -1.1958288 0
0.26181957 -9.7583532 -1.1986046 0
0.29614964 -9.8108768 -1.2051711 0
0.32766011 -9.768631 -1.2001098 0
0.36224094 -9.8170805 -1.2062044 0
0.39014399 -9.6913662 -1.1909122 0
0.42715594 -9.7936554 -1.2036511 0
0.46120057 -9.8179417 -1.2068193 0
0.49240646 -9.7823839 -1.2026446 0
0.52452356 -9.7680397 -1.2010907 0
0.55736846 -9.7679348 -1.2013007 0
0.58927506 -9.7521048 -1.1995901 0
0.61885154 -9.7012081 -1.193578 0
0.65397567 -9.737813 -1.1983447 0
0.68883401 -9.766943 -1.2022069 0
0.72202623 -9.7706594 -1.2029555 0
0.75031573 -9.710391 -1.1958383 0
0.78721446 -9.7617111 -1.2024766 0
0.81607234 -9.7129927 -1.1968057 0
0.85087079 -9.7358007 -1.1999608 0
0.88602215 -9.7605858 -1.203375 0
0.9176631 -9.7460957 -1.2019612 0
0.94226694 -9.6602516 -1.1917572 0
0.98134232 -9.723341 -1.1999394 0
1.0113716 -9.6954002 -1.196903 0
1.0465919 -9.7172003 -1.2000208 0
1.0801585 -9.7225714 -1.2011245 0
1.1085724 -9.6824026 -1.1966146 0
1.142246 -9.6889515 -1.1978904 0
1.1757935 -9.6938791 -1.1989803 0
1.2056315 -9.6685734 -1.1963437 0
1.2469457 -9.733984 -1.2049478 0
1.2802027 -9.7345219 -1.205539 0
1.3053371 -9.674614 -1.1986552 0
1.3461045 -9.7304525 -1.2061257 0
1.3666302 -9.6405907 -1.1955484 0
1.3964323 -9.6186428 -1.1934004 0
1.4389228 -9.6828737 -1.2019614 0
1.4691486 -9.6633205 -1.200139 0
1.5007449 -9.6532288 -1.1995039 0
1.5288866 -9.6216145 -1.1962057 0
1.5684668 -9.6615829 -1.2018218 0
1.6021445 -9.6640692 -1.2027925 0
1.6222252 -9.5858898 -1.1937325 0
1.6656766 -9.645956 -1.2019013 0
1.6975123 -9.6375008 -1.2015502 0
1.7279716 -9.6214886 -1.2002693 0
1.7622766 -9.6268711 -1.2016712 0
1.8038207 -9.6706438 -1.2078832 0
1.8203714 -9.5810499 -1.1974485 0
1.8496261 -9.5601187 -1.1956007 0
1.8892254 -9.5922289 -1.200402 0
1.9155852 -9.5569525 -1.1967843 0
1.9553872 -9.5885782 -1.2015591 0
1.9822404 -9.5564919 -1.1983643 0
2.0218835 -9.585885 -1.2028935 0
2.0530305 -9.5744772 -1.2023189 0
2.0792446 -9.5405788 -1.1989309 0
2.1182592 -9.5653372 -1.2029278 0
2.1438048 -9.5292301 -1.1992843 0
2.1833932 -9.5554714 -1.2035013 0
2.2137074 -9.5407228 -1.2025719 0
2.2441151 -9.5265903 -1.201732 0
2.2740018 -9.5104733 -1.2006541 0
2.3048432 -9.4985399 -1.2001164 0
2.3419807 -9.5123014 -1.2028404 0
2.3652706 -9.4700031 -1.1984879 0
2.4109218 -9.5169411 -1.2054445 0
2.4268272 -9.4465647 -1.1975542 0
2.4571877 -9.4333897 -1.1969217 0
2.4982581 -9.4609079 -1.2014693 0
2.5182636 -9.4087601 -1.1959125 0
2.5554278 -9.4210291 -1.1985542 0
2.6089885 -9.4924097 -1.2087413 0
2.6295331 -9.4431467 -1.2035842 0
2.660229 -9.4309072 -1.2031543 0
2.6820133 -9.3875608 -1.1987648 0
2.7342825 -9.4504395 -1.2079581 0
2.7639976 -9.4345455 -1.2071043 0
2.7950056 -9.423173 -1.2068415 0
2.8040292 -9.3386316 -1.1972114 0
2.8455763 -9.3629112 -1.2015404 0
2.8878512 -9.388752 -1.2060922 0
2.9170814 -9.3718443 -1.2051699 0
2.9256701 -9.2895632 -1.1958438 0
2.9764373 -9.3413324 -1.2037859 0
2.9976819 -9.3000946 -1.1997602 0
3.0245392 -9.2767811 -1.1980541 0
3.06004 -9.2799759 -1.1997849 0
3.0951939 -9.2818298 -1.2013596 0
3.1286986 -9.2785234 -1.2022825 0
3.1485407 -9.2349863 -1.1980023 0
3.1925607 -9.2623091 -1.2029285 0
3.2075553 -9.205512 -1.1969422 0
3.2462265 -9.2169237 -1.1998345 0
3.2876379 -9.2355604 -1.2036886 0
3.2976618 -9.1663275 -1.1960998 0
3.3211713 -9.1354017 -1.1935105 0
3.3550885 -9.1332159 -1.1946878 0
3.3943355 -9.1452045 -1.1977381 0
3.4277852 -9.1412573 -1.1987195 0
3.4552133 -9.1212616 -1.1976099 0
3.4796779 -9.0936899 -1.1955148 0
3.5196693 -9.1066074 -1.1987578 0
3.551671 -9.0985699 -1.1992605 0
3.5983405 -9.1276627 -1.2046785 0
3.6180823 -9.0883141 -1.2010796 0
3.6503339 -9.0806112 -1.2016723 0
3.6846204 -9.0778351 -1.202933 0
3.7185261 -9.073947 -1.2040631 0
3.7406027 -9.0413036 -1.2013891 0
3.764802 -9.014122 -1.1994478 0
3.8064027 -9.0284872 -1.2030506 0
3.8251185 -8.9885712 -1.1994339 0
3.8496075 -8.9625959 -1.1976835 0
3.8762467 -8.9418211 -1.1966372 0
3.9297445 -8.9825802 -1.2038484 0
3.9243608 -8.8889923 -1.1930623 0
3.987674 -8.9510536 -1.2031798 0
4.0275354 -8.9595966 -1.2061365 0
4.0239334 -8.8719196 -1.1961429 0
4.0637836 -8.8805075 -1.199131 0
4.0899487 -8.8590631 -1.1980804 0
4.1406231 -8.890379 -1.2041861 0
4.1630774 -8.8608446 -1.2020695 0
4.1823225 -8.8248072 -1.1990763 0
4.2175779 -8.8226404 -1.2006966 0
4.23983 -8.7932997 -1.1986314 0
4.2775416 -8.7960062 -1.2009485 0
4.3004737 -8.7682905 -1.1991262 0
4.3223348 -8.7386322 -1.1970456 0
4.3472362 -8.7153244 -1.1958425 0
4.3851161 -8.7179632 -1.1982152 0
4.42309 -8.7205009 -1.2005955 0
4.4664073 -8.7331991 -1.2043988 0
4.4541898 -8.6377487 -1.193288 0
4.517766 -8.689393 -1.2025083 0
4.5172906 -8.6177588 -1.1946843 0
4.5585661 -8.6260424 -1.1979448 0
4.5840979 -8.6043949 -1.1970663 0
4.6127825 -8.5887194 -1.1970304 0
4.6240258 -8.5408316 -1.1925101 0
4.7046552 -8.6205988 -1.2058432 0
4.7181807 -8.57687 -1.2019325 0
4.7386274 -8.5460634 -1.1998352 0
4.7663612 -8.5285301 -1.1996105 0
4.7981887 -8.5182886 -1.200426 0
4.8107967 -8.474102 -1.1964654 0
4.8274031 -8.4373379 -1.1935531 0
4.8688769 -8.4440184 -1.1968007 0
4.9156413 -8.4594498 -1.2013172 0
4.9125223 -8.3892069 -1.1936742 0
4.9659281 -8.4155741 -1.1997882 0
4.9925666 -8.3962708 -1.199416 0
5.0169191 -8.3731918 -1.1985153 0
5.0441699 -8.3550072 -1.1983263 0
5.085958 -8.3607397 -1.2015877 0
5.1142669 -8.3441391 -1.2016593 0
5.0950794 -8.250618 -1.1906446 0
5.1893864 -8.3406487 -1.2061411 0
5.2162514 -8.3214951 -1.2058936 0
5.2276945 -8.2779455 -1.202116 0
5.2553453 -8.2602549 -1.202099 0
5.2878418 -8.2501259 -1.2031983 0
5.2880478 -8.1898746 -1.1969903 0
5.3444967 -8.2167139 -1.2035252 0
5.329596 -8.1340075 -1.1940216 0
5.4020123 -8.1845369 -1.2040908 0
5.40171 -8.1246958 -1.1979449 0
5.4401917 -8.1233692 -1.2004321 0
5.4630251 -8.0986023 -1.1994721 0
5.5148511 -8.1165991 -1.2048693 0
5.5386553 -8.0931263 -1.2041347 0
5.5433903 -8.0420599 -1.1992954 0
5.577085 -8.0331688 -1.2007514 0
5.6116867 -8.0254364 -1.2024012 0
5.6296058 -7.9938574 -1.2004911 0
5.6977272 -8.0332384 -1.2092673 0
5.6770811 -7.9475255 -1.1992232 0
5.7109489 -7.9385295 -1.2007483 0
5.6953888 -7.8611665 -1.1919283 0
5.7603059 -7.8949199 -1.1999676 0
5.7760048 -7.8609467 -1.1977408 0
5.8339281 -7.8842421 -1.2042637 0
5.8649778 -7.8708754 -1.2052188 0
5.8738585 -7.8278775 -1.2016437 0
5.9105191 -7.8219666 -1.2037717 0
5.9248972 -7.7865796 -1.2013761 0
5.9488544 -7.7639089 -1.200949 0
5.944654 -7.7047801 -1.1948791 0
5.9841008 -7.7023721 -1.1976104 0
6.0032039 -7.6737165 -1.1962776 0
6.024673 -7.6481814 -1.1954392 0
6.0921454 -7.6807179 -1.2037107 0
6.0882244 -7.6231384 -1.1978792 0
6.1234522 -7.6147485 -1.1997803 0
6.1362567 -7.5785003 -1.1973039 0
6.1824822 -7.5834594 -1.2013555 0
6.2151508 -7.5715542 -1.2027639 0
6.2141547 -7.5187941 -1.1976858 0
6.242373 -7.5015755 -1.1982702 0
6.2955608 -7.5141087 -1.2036371 0
6.2757263 -7.4396214 -1.1950693 0
6.3307815 -7.4540343 -1.2007874 0
6.3683672 -7.447536 -1.2031734 0
6.3869967 -7.4188185 -1.2019869 0
6.4028769 -7.3870282 -1.2003076 0
6.4365554 -7.3757715 -1.2019786 0
6.4400783 -7.3300533 -1.1980401 0
6.4973173 -7.345387 -1.2041 0
6.4936919 -7.2918768 -1.1988906 0
6.512423 -7.2637272 -1.1978457 0
6.5208216 -7.2242155 -1.1949286 0
6.568944 -7.2286539 -1.199299 0
6.6056161 -7.2202215 -1.2015678 0
6.6295452 -7.1977715 -1.2015239 0
6.6511397 -7.1728063 -1.2010723 0
6.6724305 -7.1475515 -1.2005827 0
6.7042809 -7.1335702 -1.2020032 0
6.7109385 -7.0928497 -1.1989264 0
6.7398086 -7.0756917 -1.1998392 0
6.7879014 -7.0785069 -1.204169 0
6.7854509 -7.0286264 -1.1995471 0
6.7924628 -6.9888434 -1.1966374 0
6.8072009 -6.9571834 -1.1951177 0
6.8614073 -6.9657092 -1.2005274 0
6.8810019 -6.9389124 -1.1998785 0
6.9122105 -6.9237986 -1.2012658 0
6.9000859 -6.8654618 -1.1951516 0
6.963552 -6.8823023 -1.2021408 0
6.9946527 -6.8668337 -1.2035285 0
6.9985242 -6.8247051 -1.2002506 0
7.0238576 -6.8036151 -1.2006766 0
7.0505576 -6.7838068 -1.2013458 0
7.0901351 -6.7762551 -1.2042115 0
7.0623903 -6.7045751 -1.1956745 0
7.1212626 -6.7152143 -1.2018231 0
7.1094956 -6.6592269 -1.1960624 0
7.1301808 -6.6338625 -1.1957939 0
7.1824832 -6.6377363 -1.2008263 0
7.2072754 -6.6159835 -1.2012558 0
7.2710757 -6.629766 -1.2081779 0
7.2654147 -6.5801287 -1.2035646 0
7.2733879 -6.5430942 -1.2012445 0
7.2842975 -6.5088539 -1.1994354 0
7.3272076 -6.5031462 -1.202904 0
7.3243213 -6.4568133 -1.1988693 0
7.3105545 -6.4012461 -1.1930963 0
7.3801823 -6.4186249 -1.2009406 0
7.3921232 -6.3856053 -1.1993932 0
7.4214063 -6.3675756 -1.2006736 0
7.425539 -6.328021 -1.1979029 0
7.4711285 -6.3237543 -1.2018303 0
7.4676075 -6.2779198 -1.1978712 0
7.4775076 -6.2435737 -1.1960946 0
7.4774661 -6.201108 -1.1927556 0
7.5716124 -6.2364573 -1.2044309 0
7.5995169 -6.2167931 -1.2055473 0
7.6059966 -6.1796427 -1.2032816 0
7.596766 -6.1299739 -1.1985631 0
7.602325 -6.0924869 -1.1962106 0
7.6441741 -6.0840478 -1.199579 0
7.6322651 -6.0328808 -1.1945293 0
7.6841335 -6.0321298 -1.1994752 0
7.702559 -6.0049634 -1.1992018 0
7.7076554 -5.9674959 -1.1968735 0
7.7445455 -5.9546337 -1.199495 0
7.7272887 -5.9002466 -1.1937515 0
7.7556257 -5.8808246 -1.1950763 0
7.8211102 -5.8892841 -1.2021176 0
7.8303537 -5.8552079 -1.2005142 0
7.8231659 -5.8090396 -1.1964194 0
7.8628097 -5.7976804 -1.1995027 0
7.9217973 -5.8002748 -1.2055279 0
7.9109802 -5.7517109 -1.2009404 0
7.9125557 -5.7124019 -1.1982652 0
7.9421263 -5.6933398 -1.1998458 0
8.015769 -5.7055426 -1.2080746 0
7.9798808 -5.6397834 -1.1998092 0
8.0291834 -5.634356 -1.2043748 0
8.0232477 -5.5901375 -1.2006663 0
8.0230598 -5.5501413 -1.1978468 0
8.0538893 -5.5316353 -1.1996739 0
8.0301399 -5.47579 -1.1933948 0
8.137085 -5.5088391 -1.2065367 0
8.1229887 -5.4596682 -1.2017255 0
8.1349354 -5.4281902 -1.2007937 0
8.1672955 -5.410295 -1.202886 0
8.1874886 -5.3842616 -1.2031944 0
8.1797123 -5.3399487 -1.1994139 0
8.2053156 -5.3175135 -1.2005472 0
8.2306013 -5.2947998 -1.2016426 0
8.2340174 -5.258049 -1.1995608 0
8.2542648 -5.232101 -1.1999481 0
8.2723074 -5.2047405 -1.2000273 0
8.3226194 -5.1975269 -1.2047912 0
8.2824354 -5.133913 -1.1964756 0
8.3185539 -5.117774 -1.1992077 0
8.3337469 -5.0886827 -1.1989317 0
8.3460951 -5.0578852 -1.1982617 0
8.370327 -5.0342765 -1.1993107 0
8.379446 -5.0015802 -1.1982076 0
8.3747864 -4.9607921 -1.1951563 0
8.3987293 -4.9370103 -1.1962043 0
8.4122753 -4.9070969 -1.1957835 0
8.4552774 -4.8942595 -1.1995568 0
8.4491882 -4.8529878 -1.1963779 0
8.44524 -4.8131351 -1.193527 0
8.5595016 -4.8403077 -1.2073747 0
8.5381594 -4.7905293 -1.2020919 0
8.581768 -4.7772369 -1.2059697 0
8.545866 -4.7197895 -1.198694 0
8.5498333 -4.6846395 -1.1970406 0
8.6065969 -4.6782908 -1.2027851 0
8.5511112 -4.6110563 -1.1928636 0
8.6321211 -4.6174493 -1.201998 0
8.6143494 -4.5708628 -1.1973826 0
8.6730042 -4.5647855 -1.2034013 0
8.6776419 -4.5301375 -1.2019306 0
8.7049141 -4.5072999 -1.2036082 0
8.6716566 -4.4532733 -1.1969384 0
8.7436752 -4.4532743 -1.2048115 0
8.7073593 -4.3980737 -1.1977687 0
8.7666731 -4.3912034 -1.2038958 0
8.7295942 -4.3360796 -1.1968007 0
8.7683401 -4.3187337 -1.2001207 0
8.8093557 -4.3022947 -1.2037535 0
8.842515 -4.2818303 -1.206316 0
8.8328886 -4.2406683 -1.2030562 0
8.7737017 -4.1761141 -1.1930811 0
8.8632393 -4.1823411 -1.2033433 0
8.8847609 -4.1561317 -1.2043664 0
8.8798113 -4.1175857 -1.2018174 0
8.8805437 -4.0818048 -1.2000575 0
8.8754234 -4.0434623 -1.1975269 0
8.9348602 -4.0344205 -1.2037146 0
5.1342397 -2.2976067 -0.69064891 0
5.0982828 -2.2610297 -0.68478841 0
5.10463 -2.2433939 -0.68462688 0
5.1359611 -2.2366476 -0.6878193 0
5.0693603 -2.187453 -0.6779139 0
5.1111379 -2.1851821 -0.68251717 0
5.1260338 -2.1712515 -0.68353033 0
5.1441855 -2.158627 -0.68498182 0
5.114923 -2.1262069 -0.68013227 0
5.1682482 -2.1280792 -0.6862703 0
5.1068377 -2.0827951 -0.67718482 0
5.1582131 -2.0836043 -0.68306714 0
5.2420506 -2.0970538 -0.69323426 0
5.2876883 -2.0947723 -0.69833678 0
5.2773356 -2.0702274 -0.69604897 0
5.3634567 -2.0832887 -0.70648259 0
5.371068 -2.065547 -0.70656896 0
5.4584308 -2.0781631 -0.71714097 0
9.0607996 -3.4149377 -1.1889173 0
9.2171078 -3.4386003 -1.2079078 0
9.1176577 -3.3667176 -1.1933887 0
9.1435461 -3.3414831 -1.1953042 0
9.2256413 -3.3364646 -1.2045671 0
9.2280006 -3.3023736 -1.2034227 0
9.1826305 -3.2514484 -1.1960776 0
9.246232 -3.2391222 -1.2029405 0
9.2154703 -3.1936967 -1.1975386 0
9.2285929 -3.1636267 -1.1978588 0
9.2774477 -3.145653 -1.2028242 0
9.2875643 -3.1144032 -1.2027754 0
9.3187971 -3.090158 -1.2054716 0
9.2475424 -3.0321529 -1.1949323 0
9.310997 -3.0184224 -1.2018172 0
9.2945595 -2.978693 -1.1983998 0
9.3350248 -2.957185 -1.202332 0
9.3185406 -2.9176207 -1.1989422 0
9.3500471 -2.8930991 -1.2017411 0
9.3622589 -2.8625178 -1.2020704 0
9.3332815 -2.8194749 -1.1971294 0
9.3661432 -2.7951677 -1.2001355 0
9.3287754 -2.7499866 -1.1941592 0
9.3919449 -2.7344158 -1.2010651 0
9.4477654 -2.7163393 -1.2070321 0
9.4001532 -2.6685607 -1.1997994 0
9.4097652 -2.6372299 -1.1998909 0
9.412674 -2.6040392 -1.1991417 0
9.4523144 -2.5809197 -1.2030826 0
9.4329662 -2.5416827 -1.1995286 0
9.4037981 -2.5000358 -1.194747 0
9.5180855 -2.4962816 -1.2081969 0
9.424058 -2.4378803 -1.195217 0
9.4884577 -2.4206271 -1.2023485 0
9.5225859 -2.3953574 -1.2056488 0
9.5102854 -2.3583877 -1.2030834 0
9.4722805 -2.3152792 -1.197287 0
9.4612484 -2.2789929 -1.1949199 0
9.4867039 -2.2514989 -1.1971747 0
9.5242453 -2.2267036 -1.2009634 0
9.4949007 -2.1862946 -1.1963321 0
9.5032644 -2.1546941 -1.1964689 0
9.5318127 -2.1275909 -1.1991584 0
9.5389605 -2.0956354 -1.1991669 0
9.5307627 -2.0603619 -1.1972612 0
9.6090593 -2.0435891 -1.2062293 0
9.60392 -2.0088637 -1.2047321 0
9.5594492 -1.9661314 -1.1983198 0
9.5553102 -1.9319106 -1.1969823 0
9.6110268 -1.9096569 -1.203153 0
9.6075735 -1.8755088 -1.2019268 0
9.6126862 -1.8430707 -1.2017865 0
9.6297483 -1.8128897 -1.2031529 0
9.6075125 -1.7753707 -1.1996243 0
9.5871487 -1.7383865 -1.1963471 0
9.65207 -1.7167529 -1.2037234 0
9.5778294 -1.6704392 -1.1937596 0
9.6555748 -1.6506598 -1.2027531 0
9.5864334 -1.6057777 -1.1934631 0
9.6017799 -1.5752705 -1.1947094 0
9.6209431 -1.545307 -1.1964424 0
9.6196737 -1.5120357 -1.1956474 0
9.6471729 -1.4832312 -1.1984404 0
9.7483063 -1.4653404 -1.2103869 0
9.6566639 -1.4184729 -1.198411 0
9.6649933 -1.3866084 -1.1988609 0
9.6908112 -1.357168 -1.2014922 0
9.6993523 -1.3252217 -1.2019936 0
9.6921358 -1.2911479 -1.2005559 0
9.6547575 -1.2532381 -1.1953988 0
9.6693134 -1.2221761 -1.1966869 0
9.6896353 -1.191752 -1.1987008 0
9.6504335 -1.1540983 -1.1933657 0
9.7172976 -1.1290613 -1.2011591 0
9.7745352 -1.10251 -1.2077706 0
9.7012386 -1.0613146 -1.1982675 0
9.7378654 -1.0322936 -1.2023573 0
9.7277002 -0.99824578 -1.200682 0
9.7359457 -0.96611655 -1.2012932 0
9.7163038 -0.93128049 -1.1984776 0
9.7525606 -0.90176713 -1.2025702 0
9.7485323 -0.86844021 -1.2017076 0
9.7161655 -0.83273149 -1.1973668 0
9.6817484 -0.79709148 -1.1927894 0
9.7118263 -0.76679397 -1.1961715 0
9.7537251 -0.73720437 -1.201021 0
9.7772999 -0.70602566 -1.2036256 0
9.7531176 -0.67141634 -1.2003647 0
9.70819 -0.63562679 -1.1945662 0
9.7292023 -0.60424954 -1.1968957 0
9.7748251 -0.5741902 -1.2022648 0
9.7705641 -0.54107428 -1.2015108 0
9.7163687 -0.50540185 -1.1946311 0
9.775053 -0.47559729 -1.2016436 0
9.7174797 -0.44014329 -1.194378 0
9.7191925 -0.40757215 -1.1944139 0
9.8045225 -0.37822437 -1.2047377 0
9.8017282 -0.34520838 -1.2042452 0
9.7360325 -0.31021476 -1.1960393 0
9.8008766 -0.27939034 -1.2038834 0
9.7325249 -0.24478695 -1.1953799 0
9.8003387 -0.21361569 -1.2036144 0
9.7864809 -0.18048804 -1.2018313 0
9.7682819 -0.14739187 -1.1995289 0
9.7747221 -0.11471028 -1.2002659 0
9.7641048 -0.081845075 -1.1989217 0
9.7775993 -0.049174175 -1.2005516 0
9.7682047 -0.016375519 -1.1993847 0
9.7689304 0.016376736 -1.1994736 0
9.7275372 0.048922397 -1.1944047 0
9.7533827 0.081755191 -1.197605 0
9.7228165 0.11410114 -1.1938921 0
9.759058 0.14725271 -1.1983962 0
9.7952089 0.180649 -1.2029032 0
9.8152618 0.21394095 -1.2054471 0
9.7615833 0.24551782 -1.198949 0
9.7778406 0.27873364 -1.2010537 0
9.7833319 0.31172183 -1.2018499 0
9.7965879 0.34502736 -1.2036138 0
9.7749348 0.37708297 -1.201102 0
9.7927065 0.4106549 -1.2034481 0
9.7259922 0.44052881 -1.1954242 0
9.7429314 0.47403446 -1.1976949 0
9.7717066 0.50828028 -1.201435 0
9.8018866 0.54280883 -1.2053626 0
9.7351151 0.57185751 -1.1973805 0
9.8047018 0.60893857 -1.2061838 0
9.6970692 0.63489872 -1.1931978 0
9.7248287 0.66946888 -1.1968831 0
9.780736 0.70627373 -1.2040485 0
9.7197676 0.73463774 -1.1968396 0
9.7232103 0.7676928 -1.1975737 0
9.7551546 0.80313498 -1.2018331 0
9.7723856 0.83754992 -1.2042952 0
9.7137156 0.86533862 -1.1974157 0
9.6954298 0.89648461 -1.1955255 0
9.6897039 0.92873091 -1.1951966 0
9.7262402 0.96515346 -1.2000957 0
9.7167444 0.99712151 -1.1993299 0
9.7186251 1.0302539 -1.1999816 0
9.7314939 1.0646245 -1.2020046 0
9.7296143 1.0974432 -1.2022201 0
9.7083569 1.1280226 -1.2000539 0
9.7128696 1.1615649 -1.2010864 0
9.7458563 1.1986667 -1.2056558 0
9.7156315 1.2280306 -1.2024193 0
9.7281275 1.2627618 -1.204483 0
9.7363405 1.2970368 -1.2060316 0
9.6816292 1.3228 -1.1997973 0
9.6145992 1.3464947 -1.1920433 0
9.710372 1.3931186 -1.2044897 0
9.6604977 1.419036 -1.1988866 0
9.6819973 1.4553729 -1.2021537 0
9.649889 1.4836487 -1.1987778 0
9.666379 1.519377 -1.2014524 0
9.6490326 1.5498188 -1.1999356 0
9.6162786 1.5776492 -1.1965134 0
9.5833139 1.6052551 -1.1930747 0
9.6109972 1.6430391 -1.1972002 0
9.6097345 1.6760037 -1.1977361 0
9.6483498 1.7160913 -1.2032595 0
9.6404467 1.7480508 -1.202998 0
9.6479845 1.7828496 -1.2046778 0
9.6556988 1.8177752 -1.2063953 0
9.6133013 1.8431886 -1.2018634 0
9.5835915 1.8708271 -1.1989266 0
9.5423861 1.8960184 -1.1945603 0
9.6253223 1.9460659 -1.2057526 0
9.6112738 1.9767903 -1.2048162 0
9.5911798 2.0061986 -1.2031338 0
9.5140095 2.0233748 -1.1942978 0
9.5088177 2.0556178 -1.1945045 0
9.5212975 2.0917552 -1.1969465 0
9.4758759 2.1151052 -1.1921211 0
9.5295868 2.1606622 -1.199783 0
9.4961519 2.1865826 -1.1964898 0
9.5472307 2.2320776 -1.2038618 0
9.5001822 2.2546978 -1.1988757 0
9.5204296 2.2932484 -1.2023942 0
9.4900837 2.3196306 -1.1995373 0
9.4894781 2.3532279 -1.2004513 0
9.4729862 2.3828807 -1.1993688 0
9.4717016 2.4163523 -1.2002252 0
9.4215593 2.4372342 -1.1949002 0
9.496151 2.4905291 -1.2054126 0
9.4152832 2.503089 -1.196206 0
9.4188051 2.5378673 -1.1977279 0
9.4135313 2.5703301 -1.1981463 0
9.4197645 2.6060007 -1.2000451 0
9.4551916 2.6499612 -1.2056834 0
9.3711901 2.6603386 -1.1961026 0
9.4046297 2.7039373 -1.201521 0
9.3586817 2.7247314 -1.1968113 0
9.4185009 2.7764363 -1.2056448 0
9.3317928 2.7849166 -1.195734 0
9.3396749 2.8214061 -1.1979493 0
9.3148403 2.8480196 -1.195982 0
9.3212509 2.8841889 -1.19804 0
9.3555555 2.9292099 -1.2037046 0
9.3274956 2.9547997 -1.2013623 0
9.2366076 2.9601207 -1.1909276 0
9.2638025 3.0031228 -1.1957256 0
9.257843 3.0355303 -1.1962633 0
9.3244314 3.0920262 -1.2062004 0
9.2548313 3.1034269 -1.1985364 0
9.2518473 3.1369729 -1.1995051 0
4.6927776 1.6087173 -0.60911614 0
4.6506629 1.6117253 -0.60434771 0
4.6379485 1.6247572 -0.60339999 0
4.5995526 1.6286409 -0.59911174 0
4.5640855 1.6333241 -0.59520191 0
4.5256681 1.6367135 -0.59090424 0
4.4572649 1.628895 -0.58268285 0
4.4802966 1.6543607 -0.58641547 0
4.4659357 1.6660941 -0.58526373 0
4.446651 1.6759046 -0.58346951 0
4.4417839 1.6910998 -0.58357155 0
4.4334178 1.7049555 -0.58322018 0
4.4551477 1.7304809 -0.58683878 0
4.4685283 1.7529432 -0.5893721 0
4.426168 1.7534723 -0.58455718 0
4.4131765 1.7654672 -0.58361983 0
4.4162159 1.7838826 -0.58480948 0
4.4687605 1.8225589 -0.59257352 0
4.4005351 1.8119656 -0.58432889 0
9.0435266 3.7592762 -1.2025194 0
9.039916 3.7933714 -1.2037238 0
9.0128288 3.8175945 -1.2018145 0
9.0347662 3.8626645 -1.20646 0
8.9535999 3.8635211 -1.1973444 0
8.9144249 3.8821218 -1.1938396 0
8.9539337 3.9350941 -1.2008908 0
8.9167557 3.9544787 -1.1976761 0
8.9287395 3.995671 -1.2010784 0
8.9374199 4.0355763 -1.2040594 0
8.917099 4.0624485 -1.2031499 0
8.9038115 4.0924993 -1.2032018 0
8.8883448 4.1215425 -1.2029723 0
8.8401709 4.1352735 -1.1983221 0
8.8238754 4.1637659 -1.1979988 0
8.7831049 4.1805897 -1.1943598 0
8.8304548 4.2395 -1.2027248 0
8.7848959 4.2539291 -1.1984555 0
8.7726669 4.2843766 -1.1987401 0
8.7289524 4.299334 -1.1947297 0
8.7046623 4.3236957 -1.1933826 0
8.7785864 4.3971705 -1.2055318 0
8.7415085 4.4153223 -1.2024662 0
8.7168026 4.4395881 -1.2011086 0
8.7083378 4.4721107 -1.2020015 0
8.6746168 4.491612 -1.199419 0
8.650342 4.5158858 -1.1981493 0
8.6087332 4.5309582 -1.1944835 0
8.6682119 4.599443 -1.2048693 0
8.5678711 4.5830812 -1.1930513 0
8.5805464 4.6269288 -1.1969697 0
8.5925951 4.67068 -1.2008283 0
8.5324297 4.6751037 -1.194604 0
8.5819817 4.7397356 -1.2037598 0
8.5751438 4.7735496 -1.2050389 0
8.5090637 4.7742047 -1.1979955 0
8.4770174 4.793664 -1.1957397 0
8.5175867 4.8543677 -1.2037514 0
8.4389868 4.8471279 -1.1949333 0
8.4834223 4.9105506 -1.2035497 0
8.406003 4.9034381 -1.1948919 0
8.4320469 4.9565949 -1.2009494 0
8.402688 4.9773197 -1.1991382 0
8.378686 5.0011268 -1.198099 0
8.3945417 5.0488405 -1.2027801 0
8.3557148 5.0637145 -1.1996428 0
8.3732119 5.112781 -1.2046093 0
8.3087072 5.1117163 -1.1977882 0
8.3369341 5.1676936 -1.2043484 0
8.2775459 5.1693788 -1.1982664 0
8.271534 5.2042537 -1.1999152 0
8.2504988 5.2297139 -1.1994005 0
8.2464552 5.2659912 -1.2013727 0
8.2327099 5.2961559 -1.2019504 0
8.2188282 5.3262701 -1.2025242 0
8.2287397 5.3719554 -1.2066028 0
8.1291857 5.3459206 -1.1946266 0
8.1367483 5.3900599 -1.198387 0
8.1792994 5.4577928 -1.2073423 0
8.1023445 5.4457922 -1.1986713 0
8.0777035 5.468637 -1.1977317 0
8.0780907 5.5084877 -1.200521 0
8.0247583 5.5116267 -1.1953346 0
8.0487728 5.5679293 -1.2016858 0
7.9926558 5.5688233 -1.1960883 0
7.9726553 5.5946884 -1.1958957 0
7.9651556 5.6293759 -1.1975951 0
7.9544148 5.661871 -1.1988277 0
7.9538574 5.7017498 -1.2016181 0
7.9179282 5.71628 -1.1990788 0
7.9631457 5.7896376 -1.2088593 0
7.8573031 5.7530527 -1.1957133 0
7.8381166 5.7794728 -1.1957356 0
7.8289394 5.8133268 -1.1973023 0
7.8126431 5.8419647 -1.1977988 0
7.7987208 5.8724246 -1.1986762 0
7.7881494 5.9054861 -1.200088 0
7.7595897 5.9249101 -1.1987414 0
7.7458377 5.9556274 -1.1996951 0
7.7235966 5.9798379 -1.1993488 0
7.7035446 6.0057321 -1.1993552 0
7.6742339 6.0243583 -1.1979299 0
7.6465998 6.0442114 -1.1967728 0
7.6766315 6.1098809 -1.2046726 0
7.6397786 6.1225023 -1.2021039 0
7.6373167 6.1626949 -1.2049609 0
7.5304079 6.1182289 -1.1913234 0
7.5297713 6.1597376 -1.1944833 0
7.6008186 6.2605133 -1.2090769 0
7.4780383 6.2015824 -1.1928468 0
7.4696751 6.2370334 -1.1948417 0
7.4909048 6.2975063 -1.2016083 0
7.4620562 6.3160753 -1.2003709 0
7.4156709 6.3196115 -1.196311 0
7.3965983 6.3462906 -1.19666 0
7.388555 6.3825231 -1.1988142 0
7.3451247 6.388135 -1.195236 0
7.3439889 6.4305215 -1.1985527 0
7.3600512 6.4883113 -1.2047178 0
7.334609 6.5097151 -1.204119 0
7.2585602 6.4858561 -1.1951975 0
7.2648993 6.5354581 -1.1998426 0
7.283915 6.5968838 -1.2066294 0
7.2292175 6.5915999 -1.2012227 0
7.256712 6.6613646 -1.2094955 0
7.1698112 6.6260257 -1.1987077 0
7.126821 6.6307364 -1.1952304 0
7.1585021 6.7051296 -1.2043071 0
7.1249738 6.7187138 -1.2024494 0
7.0996733 6.7399693 -1.2019866 0
7.0852375 6.7715745 -1.2033796 0
7.0525579 6.7857318 -1.2016866 0
6.999455 6.7799778 -1.1965051 0
6.9720726 6.7989111 -1.1957142 0
6.9767842 6.8492918 -1.200454 0
6.9529309 6.8718052 -1.2003073 0
6.9168134 6.8821054 -1.1980488 0
6.8469939 6.8584728 -1.1899319 0
6.8968611 6.954905 -1.202644 0
6.8424163 6.9464297 -1.1972046 0
6.8276711 6.9781046 -1.1987116 0
6.8175898 7.0146971 -1.2010641 0
6.7937531 7.0372262 -1.2010148 0
6.7305927 7.0187445 -1.1940025 0
6.7250195 7.0601654 -1.1972064 0
6.6996951 7.0809669 -1.1969179 0
6.7020502 7.131197 -1.2016034 0
6.6565642 7.1305552 -1.1977278 0
6.6425748 7.1635695 -1.1995256 0
6.6274967 7.1955476 -1.2011527 0
6.5750794 7.1868439 -1.1960131 0
6.5809636 7.2418804 -1.2014934 0
6.5599313 7.2675438 -1.2020954 0
6.5413299 7.295969 -1.2031627 0
6.5136991 7.3143425 -1.2025843 0
6.4541101 7.2965403 -1.1960927 0
6.4448328 7.335465 -1.1989245 0
6.4304256 7.3687477 -1.2008338 0
6.4245834 7.4120712 -1.2043769 0
6.3597746 7.3871989 -1.1968639 0
6.3439245 7.418951 -1.1985555 0
6.2874532 7.4030185 -1.1925691 0
6.2775741 7.441812 -1.1954212 0
6.2897906 7.5072217 -1.202534 0
6.2434182 7.5028315 -1.1984708 0
6.2201595 7.5260601 -1.1988431 0
6.2369599 7.5981226 -1.2069844 0
6.1906157 7.5934358 -1.2029359 0
6.1605268 7.6084743 -1.2020395 0
6.0830936 7.5645614 -1.1918728 0
6.0656762 7.5949054 -1.1934428 0
6.0342913 7.6077781 -1.1922797 0
6.0517788 7.682591 -1.2008176 0
6.0129385 7.6861596 -1.1982175 0
5.9863601 7.7052803 -1.1980625 0
5.9620008 7.7272635 -1.1983658 0
5.959125 7.7773128 -1.2030222 0
5.9220586 7.7828488 -1.2008005 0
5.8849449 7.7881222 -1.1985631 0
5.861268 7.8110986 -1.1990681 0
5.836915 7.8332143 -1.199452 0
5.7924004 7.8281193 -1.1956913 0
5.8141623 7.912878 -1.2056533 0
5.7789941 7.9205337 -1.2038608 0
5.6950288 7.8606691 -1.1918529 0
5.7142963 7.9431825 -1.201452 0
5.6870108 7.9614267 -1.2013208 0
5.6687908 7.9924407 -1.2031258 0
5.6131034 7.9704242 -1.1969719 0
5.5810943 7.9816847 -1.1958461 0
5.5757413 8.0312338 -1.2004621 0
5.5364633 8.032011 -1.1977968 0
5.5183883 8.0635118 -1.1997286 0
5.4905767 8.0808725 -1.1995659 0
5.4761381 8.118042 -1.2023512 0
5.4499326 8.1379147 -1.2025814 0
5.4410324 8.1838398 -1.2066654 0
5.3721561 8.1393023 -1.1974361 0
5.3583097 8.1778307 -1.2004546 0
5.3483276 8.2226038 -1.2043879 0
5.3203921 8.2399683 -1.2043116 0
5.2480907 8.1881056 -1.1941532 0
5.2536502 8.2575912 -1.2017113 0
5.1979265 8.2308083 -1.1952707 0
5.1906748 8.2806921 -1.1999807 0
5.169136 8.3081007 -1.2014344 0
5.1337953 8.3133106 -1.1996919 0
5.1121559 8.3406954 -1.2011634 0
5.0739274 8.3409624 -1.1987454 0
5.0555358 8.3738337 -1.2010266 0
5.0000362 8.3450136 -1.194482 0
4.9966984 8.4032192 -1.2004086 0
4.9836674 8.4456348 -1.204074 0
4.9359322 8.429183 -1.1993624 0
4.9131193 8.4551105 -1.2007009 0
4.8705325 8.4468899 -1.1972077 0
4.8250713 8.4332619 -1.1929766 0
4.8349433 8.5166349 -1.2024707 0
4.8008604 8.5230322 -1.2010945 0
4.777987 8.5493326 -1.2025365 0
4.7380524 8.5450268 -1.1996896 0
4.7141185 8.5694857 -1.2008977 0
4.6802707 8.5759182 -1.1995933 0
4.6269393 8.5462132 -1.1932615 0
4.6309619 8.6225691 -1.201748 0
4.6168532 8.6658773 -1.2056198 0
4.5840974 8.6743546 -1.2046541 0
4.5342731 8.650157 -1.1991757 0
4.5166421 8.6872301 -1.2022091 0
4.5089989 8.7440367 -1.2079715 0
4.4448895 8.6911249 -1.1985962 0
4.4330268 8.7400913 -1.2032927 0
4.3914542 8.7305632 -1.1999471 0
4.3552232 8.7313356 -1.1980395 0
4.3299937 8.754117 -1.1991665 0
4.2850223 8.7367859 -1.1948178 0
4.2750783 8.7909412 -1.2002569 0
4.2276058 8.7679472 -1.1951755 0
4.2073278 8.801198 -1.1977785 0
4.1852927 8.8310747 -1.1999279 0
4.1512065 8.835578 -1.1986419 0
4.136147 8.8807688 -1.2028844 0
4.1142187 8.9116344 -1.2051899 0
4.0560579 8.8636255 -1.1968515 0
4.0336084 8.8932505 -1.1990188 0
3.9955001 8.8883305 -1.1965427 0
4.0037179 8.9870672 -1.2080207 0
3.9624853 8.9753475 -1.2046528 0
3.9151008 8.9491081 -1.1993623 0
3.8927741 8.9799471 -1.2017394 0
3.8511887 8.9662771 -1.1981753 0
3.8410974 9.0261192 -1.2044444 0
3.7924476 8.9953861 -1.1986399 0
3.766016 9.0170288 -1.1998345 0
3.7260764 9.0061932 -1.1967236 0
3.693445 9.012743 -1.1959418 0
3.6763225 9.0573912 -1.2002239 0
3.6397243 9.0542183 -1.1981797 0
3.6184185 9.0891581 -1.2011912 0
3.5893004 9.1047306 -1.2016521 0
3.5498695 9.0939541 -1.1986521 0
3.5369549 9.1513309 -1.2046449 0
3.499424 9.1452932 -1.202299 0
3.4647362 9.1464005 -1.2009106 0
3.4225755 9.1273642 -1.1968976 0
3.3956084 9.148634 -1.1981872 0
3.3710675 9.1767139 -1.2003778 0
3.3451116 9.2012529 -1.2021139 0
3.2961442 9.1621094 -1.1955492 0
3.2683322 9.1813269 -1.1966203 0
3.2620742 9.261919 -1.2056918 0
3.2272248 9.2619629 -1.2042822 0
3.1746409 9.2103195 -1.1961765 0
3.1452119 9.2252216 -1.1967356 0
3.1215413 9.2572975 -1.1995322 0
3.0947187 9.280405 -1.2011752 0
3.0568268 9.2702312 -1.1985251 0
3.0307782 9.2959166 -1.2005254 0
2.9921863 9.2830448 -1.1975607 0
2.9520006 9.2646399 -1.1939027 0
2.9355907 9.321063 -1.1998987 0
2.9182639 9.3756437 -1.2056586 0
2.8811681 9.3670235 -1.2033011 0
2.845876 9.3638973 -1.201667 0
2.8010437 9.3286886 -1.1959367 0
2.7767067 9.3614798 -1.1989403 0
2.7458611 9.3726387 -1.1991836 0
2.7194111 9.3990402 -1.2013882 0
2.6783381 9.3746967 -1.1971221 0
2.6559587 9.4157686 -1.201223 0
2.6140313 9.3874769 -1.1964887 0
2.5899019 9.422966 -1.1998986 0
2.5570362 9.426959 -1.1993086 0
2.523629 9.4288063 -1.1984605 0
2.4882519 9.4230146 -1.1966571 0
2.4564223 9.4304514 -1.1965489 0
2.4227371 9.430644 -1.1955359 0
2.4111218 9.5177317 -1.2055446 0
2.3711476 9.4935341 -1.2014658 0
2.3429401 9.5161972 -1.2033331 0
2.3024068 9.4884996 -1.1988479 0
2.271735 9.5009928 -1.1994572 0
2.2407105 9.5121365 -1.1999089 0
2.2095945 9.5229969 -1.2003375 0
2.1640539 9.4708347 -1.1928414 0
2.1448011 9.533658 -1.1998416 0
2.11549 9.5528326 -1.2013552 0
2.0928211 9.6028748 -1.2067593 0
2.0453196 9.538516 -1.1978031 0
2.0204844 9.5792532 -1.2020612 0
1.9930351 9.6085329 -1.2048901 0
1.9474672 9.5497408 -1.1966922 0
1.9211835 9.5848827 -1.200282 0
1.8858304 9.5749922 -1.1982448 0
1.8557175 9.5916033 -1.1995382 0
1.8199885 9.5790358 -1.1971966 0
1.7858777 9.5744476 -1.1958681 0
1.7602521 9.6158113 -1.2002907 0
1.7357595 9.6648521 -1.2056791 0
1.6957927 9.627738 -1.200333 0
1.6573542 9.5977612 -1.1958961 0
1.6292938 9.6276588 -1.1989341 0
1.6042001 9.6764688 -1.2043358 0
1.5676686 9.6566658 -1.2012101 0
1.530863 9.6340532 -1.1977522 0
1.5069656 9.6932421 -1.2044759 0
1.468744 9.6606598 -1.1998086 0
1.4396393 9.6876955 -1.2025601 0
1.4076186 9.6956949 -1.2029604 0
1.3668686 9.642272 -1.1957568 0
1.3418552 9.6997366 -1.2023183 0
1.3096794 9.7067976 -1.2026427 0
1.2796031 9.7299623 -1.2049744 0
1.2411164 9.6884794 -1.1993148 0
1.2018441 9.6381998 -1.1925855 0
1.1753025 9.6898308 -1.1984797 0
1.1432649 9.6975937 -1.198959 0
1.1047581 9.6490889 -1.1924975 0
1.0780702 9.7037735 -1.1988024 0
1.0446911 9.6995525 -1.1978414 0
1.0216786 9.7942057 -1.2091007 0
0.97660518 9.676404 -1.194147 0
0.94935048 9.732873 -1.2007163 0
0.91572708 9.7255344 -1.1994253 0
0.88430697 9.7416906 -1.2010455 0
0.85075068 9.7344255 -1.1997914 0
0.8202498 9.7627134 -1.2029321 0
0.78472209 9.7308044 -1.1986696 0
0.75413686 9.7598429 -1.2019284 0
0.72545862 9.8171072 -1.2086742 0
0.68875319 9.7657967 -1.2020657 0
0.65288919 9.7216349 -1.1963537 0
0.62173688 9.7464399 -1.1991429 0
0.58779204 9.727561 -1.1965711 0
0.55672514 9.7566605 -1.1999142 0
0.5227735 9.7354498 -1.1970834 0
0.49236953 9.7816505 -1.2025545 0
0.45811784 9.7523174 -1.1987528 0
0.4250389 9.7451162 -1.1976856 0
0.39279735 9.7572775 -1.1990116 0
0.35951629 9.7432394 -1.1971316 0
0.32825851 9.7864704 -1.2023015 0
0.29410121 9.7430162 -1.196835 0
0.26253965 9.7851915 -1.2019011 0
0.22853069 9.7349176 -1.1956251 0
0.19632868 9.7574282 -1.1983023 0
0.16384794 9.7720575 -1.2000246 0
0.13112721 9.775836 -1.2004279 0
0.098409593 9.7821503 -1.201156 0
0.065849319 9.8179073 -1.2055128 0
0.032780685 9.7731514 -1.1999971 0
1.2959231e-05 9.7673206 -1.1992743 0
-0.032762028 9.7753239 -1.2002639 0
-0.065205485 9.7257624 -1.1941985 0
-0.098444186 9.7881718 -1.2018954 0
-0.13030009 9.716095 -1.193092 0
-0.16339217 9.746418 -1.1968759 0
-0.19742934 9.8134251 -1.2051791 0
-0.22925921 9.7670546 -1.1995721 0
-0.26259467 9.7882118 -1.2022719 0
-0.29376745 9.7328167 -1.195582 0
-0.32749137 9.7643738 -1.1995866 0
-0.36229023 9.8191223 -1.2064552 0
-0.3903693 9.6976032 -1.1916785 0
-0.42733493 9.7983561 -1.2042286 0
-0.4583956 9.7587833 -1.1995473 0
-0.49112433 9.7574282 -1.1995765 0
-0.52387506 9.7564478 -1.1996651 0
-0.55668032 9.7563305 -1.1998734 0
-0.59016228 9.7672176 -1.2014489 0
-0.62297672 9.766284 -1.2015842 0
-0.65789253 9.796524 -1.2055695 0
-0.68689823 9.7398643 -1.1988735 0
-0.71772432 9.7127962 -1.1958312 0
-0.75388157 9.756876 -1.2015628 0
-0.78442127 9.727397 -1.1982495 0
-0.81897062 9.7477989 -1.2010942 0
-0.84959179 9.7214632 -1.1981934 0
-0.88398367 9.7384167 -1.2006415 0
-0.91763026 9.7460241 -1.201952 0
-0.94788033 9.7180681 -1.1988895 0
-0.98223239 9.7324181 -1.2010593 0
-1.0094742 9.6774588 -1.1946878 0
-1.0457362 9.7094975 -1.1990691 0
-1.0768764 9.6932621 -1.1975033 0
-1.1185706 9.7699585 -1.2074349 0
-1.141915 9.6863651 -1.1975703 0
-1.1708663 9.6534691 -1.1939819 0
-1.2167368 9.757843 -1.2073891 0
-1.2340844 9.6337872 -1.1925443 0
-1.2802118 9.7347908 -1.2055719 0
-1.3077538 9.6927195 -1.2008979 0
-1.3375849 9.6690569 -1.1985151 0
-1.3687937 9.6560373 -1.1974634 0
-1.4014609 9.6534605 -1.1977198 0
-1.4346516 9.6543083 -1.1984152 0
-1.4657375 9.6410561 -1.1973734 0
-1.4946089 9.6139278 -1.1946199 0
-1.5305977 9.6325483 -1.1975645 0
-1.5636907 9.6323233 -1.1981816 0
-1.5996853 9.649394 -1.2009655 0
-1.6262954 9.6100969 -1.1967465 0
-1.6605333 9.6163235 -1.1982085 0
-1.6944269 9.6201334 -1.1993843 0
-1.7309998 9.6384974 -1.2023907 0
-1.7629281 9.6305742 -1.2021329 0
-1.7849429 9.5695763 -1.1952592 0
-1.8244631 9.602725 -1.2001568 0
-1.8495238 9.5597258 -1.1955509 0
-1.8912197 9.6024904 -1.2016854 0
-1.9182849 9.5705538 -1.1984869 0
-1.9466752 9.5459871 -1.1962211 0
-1.9805098 9.548275 -1.1973332 0
-2.0155098 9.5557938 -1.1991167 0
-2.0502949 9.5618429 -1.2007318 0
-2.0831923 9.558815 -1.2012218 0
-2.1084476 9.5211515 -1.1973704 0
-2.1522908 9.5670681 -1.2040457 0
-2.1666884 9.48248 -1.1943074 0
-2.2176998 9.5580444 -1.2047544 0
-2.242852 9.5213404 -1.2010691 0
-2.2580659 9.4439363 -1.1922534 0
-2.3078632 9.511096 -1.2017021 0
-2.3377051 9.4950428 -1.2006574 0
-2.363266 9.4620838 -1.1974849 0
-2.3814774 9.400816 -1.1907349 0
-2.4319336 9.4665461 -1.2000865 0
-2.4593971 9.4419746 -1.1980102 0
-2.4976807 9.4588223 -1.2012036 0
