# .PCD v0.7 - Point Cloud Data file format
VERSION 0.7
FIELDS x y z intensity
SIZE 4 4 4 4
TYPE F F F F
COUNT 1 1 1 1
WIDTH 1404
HEIGHT 1
VIEWPOINT 0 0 0 1 0 0 0
POINTS 1404
DATA ascii
-4.8367066 12.89869 -1.2052158 0
-4.8611302 12.832782 -1.2005737 0
-4.8985238 12.801763 -1.1992016 0
-4.940731 12.783489 -1.1990348 0
-4.9906573 12.785023 -1.2007414 0
-5.0133777 12.717188 -1.1959424 0
-5.0735378 12.744392 -1.2000937 0
-5.1234446 12.745234 -1.2017839 0
-5.1511483 12.691031 -1.1982945 0
-5.2046666 12.700522 -1.2008317 0
-5.2512236 12.692678 -1.201748 0
-5.2951031 12.67824 -1.2020551 0
-5.340765 12.667967 -1.2027721 0
-5.3761764 12.633465 -1.201201 0
-5.4064732 12.587359 -1.198534 0
-5.461154 12.598016 -1.2012855 0
-5.4973669 12.56593 -1.1999768 0
-5.5348682 12.537011 -1.1989805 0
-5.590919 12.549916 -1.2020006 0
-5.6299114 12.524307 -1.201349 0
-5.6717453 12.505082 -1.2013223 0
-5.6870093 12.427799 -1.1957231 0
-5.7369065 12.426556 -1.1974473 0
-5.7877975 12.427132 -1.199366 0
-5.8280592 12.404738 -1.1990839 0
-5.8611927 12.367352 -1.1973628 0
-5.9253383 12.395144 -1.2019702 0
-5.9585023 12.357866 -1.2002859 0
-5.9979796 12.333866 -1.1999013 0
-6.0444016 12.32409 -1.2009151 0
-6.0777936 12.287794 -1.1993573 0
-6.1091919 12.247768 -1.197443 0
-6.1572924 12.241273 -1.1988196 0
-6.2011504 12.226178 -1.1993709 0
-6.2403126 12.201809 -1.199026 0
-6.2911744 12.200185 -1.2009323 0
-6.3275743 12.170425 -1.2000846 0
-6.3726788 12.157412 -1.2009014 0
-6.3865151 12.085094 -1.1958665 0
-6.4625945 12.130429 -1.2024899 0
-6.5127711 12.12646 -1.2042543 0
-6.5333328 12.067504 -1.2005681 0
-6.5662694 12.031813 -1.1992007 0
-6.6479025 12.08486 -1.2067027 0
-6.6474833 11.98874 -1.1993237 0
-6.6982431 11.985353 -1.2012248 0
-6.7146025 11.920598 -1.1969843 0
-6.7921219 11.964231 -1.2036456 0
-6.8120179 11.906121 -1.2000905 0
-6.8455448 11.872195 -1.1989776 0
-6.8959966 11.867565 -1.2008383 0
-6.9133768 11.806174 -1.1969651 0
-6.9712129 11.813927 -1.200114 0
-7.0226774 11.81049 -1.20215 0
-7.0570431 11.778211 -1.2012659 0
-7.0907564 11.74498 -1.2002949 0
-7.1588268 11.768372 -1.2051315 0
-7.1844125 11.721737 -1.2028159 0
-7.185369 11.635556 -1.196438 0
-7.2460761 11.646335 -1.2000376 0
-7.2818422 11.616804 -1.1995037 0
-7.3580427 11.651377 -1.2056141 0
-7.359375 11.567398 -1.199471 0
-7.4038153 11.551549 -1.2003949 0
-7.4250493 11.499627 -1.1975796 0
-7.4487343 11.451869 -1.1952001 0
-7.5039344 11.45254 -1.1978893 0
-7.5350714 11.41638 -1.1967428 0
-7.5945449 11.422997 -1.200099 0
-7.6105309 11.364216 -1.1965975 0
-7.6639748 11.361442 -1.1990043 0
-7.7332158 11.381589 -1.20386 0
-7.7596359 11.338506 -1.2020481 0
-7.7847252 11.293735 -1.200062 0
-7.834796 11.285213 -1.2019411 0
-7.8179188 11.180696 -1.1935945 0
-7.9140763 11.237795 -1.202516 0
-7.9110293 11.15384 -1.1963638 0
-7.9705343 11.158266 -1.1996982 0
-8.0289879 11.160791 -1.2028573 0
-8.0369301 11.093184 -1.1984683 0
-8.0838509 11.07957 -1.199919 0
-8.136117 11.073041 -1.2021594 0
-8.1707096 11.042338 -1.2017936 0
-8.2148886 11.024547 -1.2028481 0
-8.2088184 10.939654 -1.196582 0
-8.2649727 10.937905 -1.199415 0
-8.3292809 10.946512 -1.2034144 0
-8.3306837 10.872517 -1.1983435 0
-8.3916922 10.87641 -1.201867 0
-8.4209995 10.83906 -1.2008529 0
-8.4426584 10.792057 -1.1987748 0
-8.4873915 10.774603 -1.1999903 0
-8.4984703 10.714569 -1.1964709 0
-8.5109816 10.656759 -1.1931952 0
-8.5945683 10.687736 -1.1998831 0
-8.6337051 10.662998 -1.2003491 0
-8.6670027 10.631041 -1.200016 0
-8.6550922 10.544049 -1.1934655 0
-8.7225447 10.553869 -1.1978805 0
-8.7893667 10.562402 -1.2021871 0
-8.8347998 10.54489 -1.2035586 0
-8.8319283 10.469953 -1.1983786 0
-8.8520861 10.422743 -1.1963652 0
-8.9261446 10.438804 -1.2016374 0
-8.9756193 10.425691 -1.2035851 0
-8.9864349 10.367746 -1.2003675 0
-9.0056677 10.319821 -1.198308 0
-9.0671244 10.320195 -1.2018745 0
-9.0840931 10.269859 -1.1995528 0
-9.0904369 10.20786 -1.1958644 0
-9.182519 10.241913 -1.2034538 0
-9.1866798 10.177691 -1.1995201 0
-9.2225914 10.148857 -1.1997594 0
-9.2499628 10.110661 -1.1989034 0
-9.2600555 10.0538 -1.1958358 0
-9.3196135 10.050629 -1.1991686 0
-9.340744 10.005919 -1.197564 0
-9.4002037 10.002172 -1.200881 0
-9.4174118 9.9533978 -1.1988093 0
-9.4582825 9.9296951 -1.1997672 0
-9.4717598 9.8773203 -1.1972693 0
-9.5170717 9.8581953 -1.1988121 0
-9.5215406 9.796875 -1.1952307 0
-9.6251183 9.8372402 -1.2040857 0
-9.5867491 9.7325315 -1.1951969 0
-9.6404428 9.7216282 -1.1978205 0
-9.6823921 9.6986761 -1.1989857 0
-9.7068529 9.6581955 -1.197998 0
-9.7027197 9.5895605 -1.193513 0
-9.7684107 9.5899553 -1.1976317 0
-9.8029423 9.5595226 -1.197929 0
-9.8460388 9.5373535 -1.1992811 0
-9.8565683 9.4837055 -1.1966839 0
-9.9375658 9.4976807 -1.2026448 0
-9.9447079 9.4409113 -1.1996717 0
-9.9474983 9.3803501 -1.1962075 0
-9.9999571 9.3666754 -1.1987326 0
-10.055529 9.3556318 -1.2016273 0
-10.07852 9.3141756 -1.200636 0
-10.151047 9.3182945 -1.2055475 0
-10.116273 9.2240658 -1.1977381 0
-10.185826 9.225131 -1.2023041 0
-10.200303 9.176178 -1.2003747 0
-10.261649 9.1693029 -1.2039692 0
-10.251467 9.0985737 -1.1991886 0
-10.301554 9.0814648 -1.2014791 0
-10.367549 9.0780506 -1.2056196 0
-10.356757 9.0074329 -1.2008458 0
-10.415649 8.9974937 -1.2041698 0
-10.421382 8.9416065 -1.2013597 0
-10.41542 8.8760357 -1.197235 0
-10.477559 8.8685217 -1.2009531 0
-10.429635 8.7681055 -1.1920837 0
-10.575235 8.830164 -1.2053348 0
-10.571953 8.7674313 -1.2016034 0
-10.612573 8.741231 -1.2028824 0
-10.602105 8.67311 -1.1983932 0
-10.647099 8.6504927 -1.2001939 0
-10.693002 8.6284313 -1.2021005 0
-10.685176 8.5631237 -1.1979862 0
-10.766618 8.5692673 -1.2038893 0
-10.739735 8.4892082 -1.1976939 0
-10.791805 8.4717321 -1.2003264 0
-10.833529 8.4459343 -1.2018108 0
-10.851834 8.4018583 -1.2007097 0
-10.886448 8.3704281 -1.2014276 0
-10.929757 8.3455677 -1.2031124 0
-10.897005 8.2628708 -1.1964509 0
-10.932261 8.2320204 -1.1972846 0
-11.01471 8.2363806 -1.2032832 0
-10.989997 8.160594 -1.1975877 0
-11.027051 8.1308937 -1.1986481 0
-11.01166 8.0626917 -1.1940298 0
-11.095953 8.0674028 -1.2002304 0
-11.145117 8.0461664 -1.2026234 0
-11.184197 8.0174742 -1.203933 0
-11.1688 7.949883 -1.1993997 0
-11.226786 7.9345789 -1.202763 0
-11.241733 7.8887577 -1.2015239 0
-11.308707 7.8793015 -1.2058518 0
-11.267293 7.7944608 -1.1986424 0
-11.338596 7.7877078 -1.2034434 0
-11.31982 7.7190824 -1.1986969 0
-11.38555 7.7081065 -1.2029138 0
-11.428683 7.6815538 -1.204743 0
-11.440734 7.6340909 -1.2033085 0
-11.459253 7.5910439 -1.2025726 0
-11.421041 7.5107565 -1.1959131 0
-11.454775 7.4780464 -1.1968132 0
-11.549574 7.484827 -1.2040892 0
-11.50559 7.4016643 -1.1969098 0
-11.555221 7.3789334 -1.1994923 0
-11.584991 7.3433795 -1.2000201 0
-11.601753 7.2995925 -1.1992146 0
-11.605509 7.2477546 -1.1970842 0
-11.645867 7.2187967 -1.1987438 0
-11.681067 7.1865153 -1.19988 0
-11.723004 7.1582456 -1.2017158 0
-11.719425 7.1022263 -1.1989012 0
-11.704462 7.0396118 -1.1949492 0
-11.8153 7.0524387 -1.2038442 0
-11.793427 6.9858613 -1.1992224 0
-11.823285 6.9501028 -1.1998821 0
-11.8053 6.8863764 -1.195707 0
-11.8303 6.8479018 -1.195907 0
-11.89036 6.8295469 -1.199657 0
-11.905797 6.7854276 -1.1989123 0
-11.976867 6.7728343 -1.2037755 0
-11.940718 6.6996541 -1.1978778 0
-11.990814 6.6750016 -1.2006515 0
-11.994052 6.6242266 -1.198745 0
-11.996309 6.5730801 -1.1967614 0
-12.055045 6.5528064 -1.2004223 0
-12.07609 6.5118885 -1.2003371 0
-12.074275 6.4587498 -1.1979975 0
-12.127199 6.4348583 -1.2011011 0
-12.145453 6.3924503 -1.2007796 0
-12.143342 6.339437 -1.1984626 0
-12.172714 6.3029256 -1.1992691 0
-12.210555 6.2706933 -1.2009192 0
-12.178644 6.2027922 -1.1957285 0
-12.271321 6.198266 -1.2027806 0
-12.245119 6.1335883 -1.19819 0
-12.285545 6.1023979 -1.2001369 0
-12.333843 6.0749173 -1.2028586 0
-12.351777 6.0323753 -1.2026283 0
-12.365776 5.987947 -1.2020298 0
-12.39003 5.9484921 -1.2024419 0
-12.409761 5.9068494 -1.2024281 0
-12.407511 5.8548341 -1.2003013 0
-12.427316 5.8133154 -1.2003248 0
-12.415174 5.7569809 -1.1972811 0
-12.523096 5.7560873 -1.2058208 0
-12.432802 5.6641712 -1.1952913 0
-12.500634 5.6445398 -1.1999865 0
-12.558231 5.6199331 -1.2036998 0
-12.547318 5.564631 -1.2008587 0
-12.620459 5.5465069 -1.2060722 0
-12.605285 5.4894857 -1.2028564 0
-12.596097 5.4353156 -1.2002339 0
-12.615694 5.3936701 -1.2003714 0
-12.640791 5.3543425 -1.2010444 0
-12.609871 5.2914519 -1.1964142 0
-12.655623 5.2608171 -1.1990749 0
-12.689445 5.225049 -1.2006129 0
-12.675041 5.1694837 -1.1976035 0
-12.774924 5.1603322 -1.2053994 0
-12.75108 5.1010394 -1.2015289 0
-12.760298 5.0551634 -1.2007937 0
-12.769995 5.0095353 -1.2001189 0
-12.828245 4.9828215 -1.2040163 0
-12.82207 4.9310112 -1.2018783 0
-12.81613 4.8794646 -1.1997813 0
-12.832857 4.8366327 -1.1998223 0
-12.840513 4.7904129 -1.1990297 0
-12.899884 4.7633533 -1.2030756 0
-12.893166 4.7118101 -1.200969 0
-12.91018 4.6690216 -1.2010889 0
-12.887691 4.6120853 -1.1975513 0
-12.948571 4.5849566 -1.2017732 0
-12.979647 4.5470438 -1.2032356 0
-12.915796 4.4761133 -1.1959186 0
-12.991428 4.4535918 -1.2015322 0
-12.993275 4.4055967 -1.2003301 0
-13.066531 4.3816447 -1.2057338 0
-13.009416 4.314023 -1.1991218 0
-13.033582 4.2735858 -1.2000219 0
-13.053203 4.2316022 -1.2005154 0
-13.056625 4.1843872 -1.1995331 0
-13.049525 4.1339164 -1.1976006 0
-13.117584 4.1071334 -1.2025762 0
-13.134632 4.0641665 -1.2028831 0
-13.126651 4.0135217 -1.2009131 0
-13.077306 3.9505384 -1.1951801 0
-13.147288 3.9236248 -1.200367 0
-13.144434 3.8748248 -1.1989135 0
-13.148128 3.8280468 -1.198073 0
-13.160436 3.7838118 -1.1980318 0
-13.203826 3.7484035 -1.2008308 0
-13.187713 3.696095 -1.1982317 0
-13.245476 3.6644306 -1.2023569 0
-13.231343 3.6128073 -1.1999677 0
-13.204165 3.5578578 -1.1964142 0
-13.328934 3.5435858 -1.2066362 0
-13.283659 3.4839058 -1.2014734 0
-13.28119 3.4357076 -1.2002014 0
-13.292136 3.3910317 -1.2001563 0
-13.281391 3.3409028 -1.1981682 0
-13.333447 3.3065038 -1.2018574 0
-13.315434 3.2546861 -1.1992433 0
-13.348966 3.2154903 -1.2012856 0
-13.32477 3.1624324 -1.1981473 0
-13.341087 3.1190925 -1.1986674 0
-13.361119 3.0765669 -1.1995338 0
-13.375819 3.0327635 -1.1999338 0
-13.423836 2.9963648 -1.2033334 0
-13.459226 2.9569249 -1.2056103 0
-13.437029 2.9048567 -1.2027428 0
-13.450157 2.8605251 -1.2030526 0
-13.473545 2.818315 -1.2042927 0
-13.481396 2.7728117 -1.2041566 0
-13.426392 2.7146103 -1.198424 0
-13.401201 2.66278 -1.1953719 0
-13.457309 2.6270583 -1.1995842 0
-13.485603 2.5856745 -1.2013268 0
-13.484218 2.5385666 -1.2004384 0
-13.482554 2.4914761 -1.19954 0
-13.480552 2.4443934 -1.1986259 0
-13.499943 2.4011867 -1.1996275 0
-13.428162 2.3420002 -1.1925443 0
-13.549385 2.3163595 -1.2026137 0
-13.51353 2.2636237 -1.1987509 0
-13.447968 2.2063138 -1.1922722 0
-13.53449 2.1739342 -1.19929 0
-13.578477 2.1343236 -1.2025468 0
-13.557102 2.0844107 -1.2000282 0
-13.581668 2.0415983 -1.2015901 0
-13.581122 1.9949756 -1.2009432 0
-13.57574 1.9477085 -1.1998831 0
-13.593003 1.9036945 -1.200838 0
-13.629944 1.8622947 -1.2035431 0
-13.648788 1.8182745 -1.204662 0
-13.571311 1.7616638 -1.1972957 0
-13.58628 1.717307 -1.1981015 0
-13.613131 1.674349 -1.1999676 0
-13.610435 1.6277126 -1.1992421 0
-13.618382 1.5823683 -1.1994681 0
-13.635689 1.5380621 -1.2005316 0
-13.653787 1.4937596 -1.2016772 0
-13.64874 1.4469149 -1.2007993 0
-13.590909 1.3947204 -1.1952934 0
-13.649961 1.3545485 -1.2000808 0
-13.649708 1.3083228 -1.199666 0
-13.620393 1.2594413 -1.1967117 0
-13.650924 1.2161182 -1.1990292 0
-13.642789 1.1693023 -1.1979636 0
-13.686832 1.1268637 -1.2014925 0
-13.652942 1.0779999 -1.1981934 0
-13.647961 1.0315742 -1.197446 0
-13.644984 0.98535019 -1.1968882 0
-13.744974 0.94625711 -1.2053739 0
-13.698638 0.89693093 -1.2010399 0
-13.725299 0.85247087 -1.2031201 0
-13.719808 0.80596179 -1.2023952 0
-13.699018 0.75866055 -1.2003435 0
-13.653543 0.71023232 -1.1961435 0
-13.710677 0.66711837 -1.2009461 0
-13.729592 0.62190431 -1.2024136 0
-13.734962 0.57600909 -1.202708 0
-13.743739 0.53022212 -1.2033141 0
-13.746099 0.48416224 -1.2033719 0
-13.681248 0.43595567 -1.1975598 0
-13.70785 0.39080152 -1.199767 0
-13.713323 0.34494612 -1.200138 0
-13.720034 0.29908878 -1.2006308 0
-13.718122 0.25303406 -1.2003825 0
-13.664814 0.20622224 -1.1956507 0
-13.687997 0.16067044 -1.1976253 0
-13.702635 0.11489514 -1.1988655 0
-13.721831 0.06904719 -1.2005181 0
-13.720815 0.023038125 -1.2004157 0
-13.68777 3.6321726e-05 -1.1975229 0
-22.900892 -0.038452059 -1.2001848 0
-22.852297 -0.11499099 -1.1976515 0
-22.896521 -0.19198489 -1.1999962 0
-22.882715 -0.26859856 -1.1993132 0
-22.909395 -0.34573662 -1.2007655 0
-22.884478 -0.42210972 -1.1995269 0
-22.932886 -0.49992362 -1.2021453 0
-22.902903 -0.5761016 -1.2006681 0
-22.835983 -0.65103841 -1.1972677 0
-22.868481 -0.72870868 -1.1990927 0
-22.872068 -0.80559522 -1.1994158 0
-22.870415 -0.88232177 -1.1994774 0
-22.857157 -0.95857048 -1.198944 0
-22.907019 -1.0376108 -1.2017351 0
-22.820551 -1.1103761 -1.1973875 0
-22.880411 -1.1901971 -1.200731 0
-22.816339 -1.2635839 -1.1975843 0
-22.862165 -1.3430241 -1.2002192 0
-22.879009 -1.4210029 -1.2013468 0
-22.878614 -1.4979984 -1.2015829 0
-22.807505 -1.5701567 -1.1981181 0
-22.826656 -1.6483896 -1.1994077 0
-22.806175 -1.7237933 -1.1986285 0
-22.807436 -1.8008144 -1.1990054 0
-22.760172 -1.8738896 -1.1968442 0
-22.88508 -1.9614447 -1.2037516 0
-22.902128 -2.0402792 -1.2050014 0
-22.809778 -2.1091592 -1.2005076 0
-22.807152 -2.1860626 -1.2007484 0
-22.775379 -2.2601056 -1.1994679 0
-22.81131 -2.3409324 -1.2017668 0
-22.7575 -2.4125426 -1.1993513 0
-22.724516 -2.4861209 -1.1980456 0
-22.742002 -2.5652251 -1.1994143 0
-22.732113 -2.6413255 -1.199353 0
-22.75913 -2.7218325 -1.2012532 0
-22.702932 -2.7923503 -1.1987743 0
-22.736197 -2.8738575 -1.2010329 0
-22.656485 -2.9409914 -1.1973362 0
-22.701094 -3.0242112 -1.2002227 0
-22.687702 -3.0998797 -1.2000575 0
-22.719294 -3.1818278 -1.202286 0
-22.674959 -3.2531717 -1.2005104 0
-22.660528 -3.3286793 -1.2003305 0
-22.620613 -3.4003336 -1.1988133 0
-22.643091 -3.4813857 -1.2006165 0
-22.632299 -3.5574427 -1.20067 0
-22.588243 -3.6281643 -1.1989713 0
-22.585238 -3.7054014 -1.1994644 0
-22.620365 -3.7890913 -1.201998 0
-22.597681 -3.8632274 -1.2014741 0
-22.520609 -3.9278104 -1.1980698 0
-22.550608 -4.0109963 -1.2003744 0
-22.500057 -4.0798769 -1.1984049 0
-22.537138 -4.1646962 -1.2011169 0
-22.51701 -4.2390985 -1.2007949 0
-22.495365 -4.3131695 -1.2004051 0
-22.450888 -4.3827329 -1.198809 0
-22.459246 -4.4625874 -1.2000476 0
-22.431145 -4.535233 -1.1993518 0
-22.447578 -4.6169481 -1.2010514 0
-22.379627 -4.6812358 -1.1982487 0
-22.424257 -4.7691007 -1.2014878 0
-22.443697 -4.8519444 -1.2033941 0
-22.324215 -4.9045186 -1.1978626 0
-22.391434 -4.9980426 -1.2023619 0
-22.351656 -5.0678978 -1.2011316 0
-22.361183 -5.1489453 -1.2025645 0
-22.290953 -5.211535 -1.1997205 0
-22.303125 -5.2933092 -1.2013241 0
-22.251011 -5.3598094 -1.1994783 0
-22.260448 -5.4411125 -1.2009636 0
-22.224232 -5.511291 -1.2 0
-22.183756 -5.5802717 -1.198818 0
-22.1106 -5.6407595 -1.1958798 0
-22.173836 -5.7361441 -1.2003336 0
-22.114628 -5.8000045 -1.1981744 0
-22.14234 -5.8866882 -1.2007384 0
-22.089113 -5.9519043 -1.1989275 0
-22.069439 -6.026042 -1.1989496 0
-22.103846 -6.1151457 -1.2019259 0
-22.008757 -6.1683517 -1.197873 0
-22.024809 -6.2525721 -1.199881 0
-22.03948 -6.3366632 -1.201831 0
-22.03054 -6.4141407 -1.2025094 0
-22.013107 -6.4892054 -1.2027386 0
-21.937038 -6.5468035 -1.1997751 0
-21.92058 -6.6220136 -1.2000825 0
-21.865929 -6.6855884 -1.198311 0
-21.817682 -6.7509079 -1.1969006 0
-21.866268 -6.8463583 -1.2008184 0
-21.848896 -6.9214411 -1.2011322 0
-21.796062 -6.9852018 -1.1995084 0
-21.779539 -7.0605159 -1.1998951 0
-21.755386 -7.1333814 -1.1998754 0
-21.778631 -7.2219629 -1.2024862 0
-21.693281 -7.2744823 -1.1991136 0
-21.654427 -7.3423114 -1.1983199 0
-21.705912 -7.4410038 -1.2025428 0
-21.601238 -7.4861503 -1.1981275 0
-21.602045 -7.5676513 -1.1995729 0
-21.578007 -7.640552 -1.1996539 0
-21.542173 -7.7092438 -1.199092 0
-21.511808 -7.7798371 -1.1988469 0
-21.530426 -7.8682985 -1.2013479 0
-21.493698 -7.9366665 -1.2007767 0
-21.406239 -7.9860296 -1.1973797 0
-21.42371 -8.0744772 -1.1998646 0
-21.413912 -8.1528845 -1.20084 0
-21.377316 -8.2211199 -1.2003268 0
-21.326925 -8.2839289 -1.1990502 0
-21.326609 -8.3662062 -1.2006028 0
-21.261461 -8.4230137 -1.1985183 0
-21.238146 -8.4962702 -1.1988031 0
-21.252773 -8.5848942 -1.2012467 0
-21.181559 -8.6388454 -1.1988518 0
-21.17705 -8.7199326 -1.2002447 0
-21.115997 -8.7777109 -1.1984457 0
-21.092508 -8.8510027 -1.1987902 0
-21.067017 -8.9234934 -1.1990349 0
-21.040869 -8.9957399 -1.1992567 0
-21.058521 -9.0869188 -1.2019925 0
-20.977304 -9.1354237 -1.1990983 0
-20.980627 -9.2206783 -1.2010487 0
-20.964638 -9.2976427 -1.2019112 0
-20.907923 -9.3565035 -1.2004515 0
-20.84927 -9.4142847 -1.1988895 0
-20.843954 -9.4961472 -1.2004079 0
-20.795578 -9.5584326 -1.1994607 0
-20.779232 -9.635437 -1.2003745 0
-20.744261 -9.7038593 -1.200227 0
-20.67676 -9.7569122 -1.1982075 0
-20.697054 -9.8514681 -1.2012908 0
-20.650335 -9.9142904 -1.2005019 0
-20.602879 -9.9766436 -1.1996809 0
-20.546465 -10.034507 -1.1983484 0
-20.516119 -10.105021 -1.1985477 0
-20.488634 -10.176984 -1.1989287 0
-20.463699 -10.25028 -1.1994739 0
-20.463209 -10.336003 -1.2014698 0
-20.430006 -10.405352 -1.2015618 0
-20.362082 -10.456884 -1.1996223 0
-20.357475 -10.540924 -1.2014263 0
-20.271839 -10.582923 -1.1984596 0
-20.281336 -10.674565 -1.2011303 0
-20.212009 -10.72477 -1.1991472 0
-20.198107 -10.804336 -1.200465 0
-20.137358 -10.858831 -1.1990114 0
-20.120218 -10.936823 -1.2001675 0
-20.115231 -11.021642 -1.2020676 0
-20.046284 -11.071415 -1.200159 0
-20.008049 -11.138007 -1.2000989 0
-19.950638 -11.19383 -1.1988996 0
-19.90098 -11.253863 -1.1981763 0
-19.87635 -11.328056 -1.1989734 0
-19.829462 -11.389583 -1.1984419 0
-19.789312 -11.454931 -1.1983298 0
-19.794949 -11.546973 -1.2010087 0
-19.737906 -11.602568 -1.1999011 0
-19.724827 -11.684042 -1.2014809 0
-19.693863 -11.755077 -1.2019888 0
-19.603912 -11.79071 -1.1989048 0
-19.627733 -11.894834 -1.2027938 0
-19.527962 -11.924071 -1.1991229 0
-19.505116 -12.000087 -1.200184 0
-19.457491 -12.060904 -1.199735 0
-19.425653 -12.131513 -1.2002733 0
-19.327055 -12.160199 -1.1966935 0
-19.350828 -12.265912 -1.2007051 0
-19.307161 -12.329168 -1.2005538 0
-19.256912 -12.388169 -1.2000052 0
-19.219505 -12.455411 -1.2002698 0
-19.158714 -12.507426 -1.1990855 0
-19.16991 -12.606603 -1.2024249 0
-19.087427 -12.644236 -1.1999036 0
-19.056341 -12.715778 -1.2006227 0
-19.0135 -12.779531 -1.2006164 0
-18.997118 -12.861197 -1.2022982 0
-18.946615 -12.919859 -1.2018367 0
-18.908276 -12.986803 -1.20216 0
-18.840508 -13.033441 -1.2006229 0
-18.764822 -13.074323 -1.1985865 0
-18.73811 -13.149254 -1.1996896 0
-18.706104 -13.220619 -1.2004718 0
-18.625626 -13.257605 -1.1981528 0
-18.620981 -13.348588 -1.2007264 0
-18.58234 -13.415436 -1.2011284 0
-18.49057 -13.44372 -1.1981033 0
-18.464167 -13.519386 -1.1993228 0
-18.456253 -13.608882 -1.2017658 0
-18.359152 -13.632542 -1.1984127 0
-18.33783 -13.712331 -1.2000151 0
-18.284616 -13.768364 -1.1995469 0
-18.242945 -13.833076 -1.1998491 0
-18.175262 -13.877975 -1.1984513 0
-18.156584 -13.960329 -1.2002993 0
-18.136806 -14.04213 -1.2020974 0
-18.064289 -14.08311 -1.2004138 0
-18.036026 -14.158557 -1.2016835 0
-17.975338 -14.208582 -1.2008075 0
-17.920712 -14.263288 -1.2003461 0
-17.921894 -14.362647 -1.203644 0
-17.802143 -14.364963 -1.1988294 0
-17.796535 -14.459226 -1.2017096 0
-17.768675 -14.535762 -1.2031126 0
-17.668249 -14.552762 -1.1996098 0
-17.651556 -14.638621 -1.201802 0
-17.589729 -14.687162 -1.2009386 0
-17.565258 -14.766963 -1.2026414 0
-17.464722 -14.782667 -1.1991447 0
-17.408171 -14.835269 -1.1986704 0
-17.404314 -14.933003 -1.2018455 0
-17.301147 -14.945489 -1.1981751 0
-17.281269 -15.029788 -1.2002814 0
-17.220522 -15.078663 -1.199567 0
-17.183727 -15.148531 -1.2005351 0
-17.10289 -15.179478 -1.1984364 0
-17.076767 -15.258956 -1.2001841 0
-16.964632 -15.261358 -1.1958925 0
-16.991436 -15.388857 -1.2014124 0
-16.92964 -15.436526 -1.2006959 0
-16.880981 -15.496132 -1.200923 0
-16.773827 -15.501718 -1.1969906 0
-16.758795 -15.592329 -1.1996418 0
-16.691006 -15.63399 -1.1985348 0
-16.657412 -15.707704 -1.1998975 0
-16.603842 -15.762694 -1.199839 0
-16.523777 -15.792355 -1.1978728 0
-16.495813 -15.871795 -1.1996965 0
-16.419304 -15.904538 -1.1980036 0
-16.401663 -15.994388 -1.2006226 0
-16.36482 -16.065857 -1.201862 0
-16.309908 -16.119692 -1.2017916 0
-16.189262 -16.108112 -1.1968747 0
-16.170507 -16.197702 -1.1994964 0
-16.144754 -16.280716 -1.2016284 0
-16.057737 -16.301924 -1.1992133 0
-16.006157 -16.358906 -1.1994506 0
-15.959279 -16.420774 -1.2000567 0
-15.894359 -16.464064 -1.1993191 0
-15.868786 -16.548252 -1.2015693 0
-15.788196 -16.5751 -1.1996683 0
-15.757703 -16.654543 -1.2015876 0
-15.687078 -16.691643 -1.2004628 0
-15.638129 -16.751755 -1.2010084 0
-15.578979 -16.80097 -1.2007852 0
-15.512199 -16.841858 -1.1999836 0
-15.488848 -16.930065 -1.2025615 0
-15.408674 -16.956236 -1.200744 0
-15.325159 -16.978359 -1.1986653 0
-15.303577 -17.069162 -1.2014468 0
-15.247713 -17.122005 -1.2015611 0
-15.157859 -17.136446 -1.1990013 0
-15.100303 -17.187153 -1.199 0
-15.02206 -17.214157 -1.1973635 0
-14.987827 -17.291616 -1.1992491 0
-14.918362 -17.328522 -1.198333 0
-14.864594 -17.383608 -1.1986891 0
-14.809604 -17.437325 -1.1989625 0
-14.749557 -17.485102 -1.1988406 0
-14.704738 -17.551033 -1.1999739 0
-14.65344 -17.609406 -1.2005991 0
-14.587145 -17.649759 -1.2000091 0
-14.543732 -17.717871 -1.2013179 0
-14.474154 -17.754156 -1.2004811 0
-14.400449 -17.785173 -1.1993068 0
-14.34781 -17.842152 -1.1998984 0
-14.256547 -17.850889 -1.1972647 0
-14.227551 -17.93759 -1.1998734 0
-14.180034 -18.001318 -1.2009494 0
-14.077209 -17.994576 -1.1973441 0
-14.040504 -18.072186 -1.1993691 0
-13.997073 -18.141504 -1.2008481 0
-13.937698 -18.190329 -1.2009799 0
-13.848414 -18.199873 -1.1985378 0
-13.820079 -18.28956 -1.201386 0
-13.731434 -18.299482 -1.1990068 0
-13.679611 -18.358315 -1.1998497 0
-13.587977 -18.363527 -1.197206 0
-13.573434 -18.473087 -1.201375 0
-13.506079 -18.511169 -1.2009001 0
-13.41588 -18.517622 -1.1983937 0
-13.351726 -18.559727 -1.1982148 0
-13.298735 -18.617426 -1.1990544 0
-13.223057 -18.643322 -1.1978602 0
-13.181702 -18.717693 -1.1997923 0
-13.149529 -18.805628 -1.2025961 0
-13.040151 -18.78299 -1.1983455 0
-12.974216 -18.822418 -1.1980791 0
-12.945117 -18.915615 -1.2012419 0
-12.871152 -18.943497 -1.2002653 0
-12.800038 -18.975388 -1.1995598 0
-12.750259 -19.038973 -1.2008703 0
-12.684234 -19.078426 -1.2006696 0
-12.62627 -19.130051 -1.2012476 0
-12.556203 -19.163338 -1.2006874 0
-12.483179 -19.19195 -1.199851 0
-12.423558 -19.241123 -1.2003144 0
-12.353887 -19.274729 -1.1998202 0
-12.304317 -19.339811 -1.2012967 0
-12.226973 -19.361271 -1.2000765 0
-12.178485 -19.428473 -1.2017043 0
-12.115997 -19.473568 -1.201974 0
-12.015614 -19.457365 -1.1984807 0
-11.97586 -19.53923 -1.2010431 0
-11.914028 -19.585432 -1.2014209 0
-11.8248 -19.586351 -1.1990385 0
-11.780253 -19.661251 -1.2011991 0
-11.717979 -19.706882 -1.2015798 0
-11.642033 -19.729439 -1.2005684 0
-11.550288 -19.724764 -1.1979207 0
-11.508435 -19.805277 -1.2004602 0
-11.435654 -19.8328 -1.1997977 0
-11.376963 -19.884783 -1.2006282 0
-11.302979 -19.910046 -1.1998585 0
-11.243372 -19.960632 -1.2006286 0
-11.174386 -19.994642 -1.2004139 0
-11.104417 -20.026823 -1.200104 0
-11.00596 -20.007137 -1.1967063 0
-10.965406 -20.092644 -1.199615 0
-10.909889 -20.151297 -1.2009262 0
-10.842607 -20.1884 -1.2009641 0
-10.774493 -20.223955 -1.2009234 0
-10.719091 -20.283556 -1.2023218 0
-10.651034 -20.319401 -1.202323 0
-10.55241 -20.296453 -1.1988648 0
-10.49085 -20.344421 -1.1996138 0
-10.395961 -20.327433 -1.19655 0
-10.359895 -20.425552 -1.2002743 0
-10.308699 -20.494658 -1.2022973 0
-10.227197 -20.503584 -1.2008027 0
-10.14844 -20.517633 -1.1996261 0
-10.088314 -20.56933 -1.2006643 0
-10.012176 -20.588404 -1.1998115 0
-9.9294643 -20.593596 -1.1981671 0
-9.880496 -20.66889 -1.2006136 0
-9.8175116 -20.715343 -1.2013932 0
-9.7527113 -20.758167 -1.2019737 0
-9.6444302 -20.707809 -1.1971786 0
-9.5943556 -20.78207 -1.1996055 0
-9.5434237 -20.855206 -1.2019733 0
-9.4664679 -20.8717 -1.2010878 0
-9.3982115 -20.907272 -1.2013149 0
-9.3147326 -20.908747 -1.1995984 0
-9.2516794 -20.955948 -1.20052 0
-9.1695824 -20.959913 -1.1989791 0
-9.137351 -21.078419 -1.2039988 0
-9.0325823 -21.029671 -1.1994778 0
-8.9654074 -21.067791 -1.1999308 0
-8.8957968 -21.100285 -1.200076 0
-8.8278913 -21.136909 -1.2004689 0
-8.7387857 -21.122427 -1.1979755 0
-8.6878462 -21.200241 -1.20073 0
-8.6031885 -21.195919 -1.1988448 0
-8.5244579 -21.205698 -1.1977745 0
-8.4691105 -21.273846 -1.2000132 0
-8.3890333 -21.280046 -1.1987697 0
-8.3318605 -21.34449 -1.2008195 0
-8.2439346 -21.330093 -1.1984477 0
-8.1689978 -21.348793 -1.1979529 0
-8.0963583 -21.373383 -1.1978027 0
-8.0285788 -21.410881 -1.1983888 0
-7.9557023 -21.434864 -1.1982315 0
-7.8908663 -21.480679 -1.1993068 0
-7.8266258 -21.528538 -1.200507 0
-7.7408042 -21.516863 -1.198402 0
-7.693387 -21.612274 -1.2022727 0
-7.5837927 -21.53264 -1.1964215 0
-7.5304918 -21.612293 -1.1994376 0
-7.4650025 -21.657774 -1.2005658 0
-7.3897982 -21.675207 -1.200152 0
-7.3183007 -21.70347 -1.2003517 0
-7.2353325 -21.69742 -1.1986686 0
-7.1741724 -21.756819 -1.2006145 0
-7.1157746 -21.825499 -1.2030811 0
-7.0160379 -21.766958 -1.1985507 0
-6.9500475 -21.81242 -1.1997643 0
-6.8806543 -21.847599 -1.2004235 0
-6.804111 -21.86009 -1.1998497 0
-6.7165298 -21.836452 -1.1973095 0
-6.6539793 -21.894058 -1.1992381 0
-6.5856166 -21.933167 -1.200164 0
-6.5185127 -21.97694 -1.2013566 0
-6.425334 -21.932257 -1.1977296 0
-6.3637557 -21.995127 -1.199991 0
-6.2975683 -22.042917 -1.2014396 0
-6.1956344 -21.96467 -1.1960359 0
-6.1374922 -22.041113 -1.199071 0
-6.0507007 -22.014786 -1.1965286 0
-6.0056591 -22.141142 -1.2022949 0
-5.9101205 -22.081684 -1.1979835 0
-5.8397236 -22.115282 -1.1987373 0
-5.7772293 -22.179604 -1.2011672 0
-5.6901431 -22.149454 -1.1984943 0
-5.6131477 -22.157747 -1.1979181 0
-5.5503788 -22.222698 -1.2004168 0
-5.4737287 -22.232613 -1.1999542 0
-5.4056587 -22.277637 -1.2013993 0
-5.3296075 -22.290083 -1.2011 0
-5.2411523 -22.249704 -1.1979706 0
-5.1869645 -22.355251 -1.2027103 0
-5.1022325 -22.329845 -1.2004164 0
-5.0332875 -22.373281 -1.2018374 0
-4.9448433 -22.329508 -1.1985888 0
-4.8784566 -22.385 -1.2006828 0
-4.8049269 -22.408463 -1.2010703 0
-4.735724 -22.452681 -1.2025826 0
-4.6564012 -22.449068 -1.2015461 0
-4.5891347 -22.50392 -1.2036515 0
-4.492507 -22.413654 -1.1980113 0
-4.4305964 -22.495935 -1.2016085 0
-4.3491473 -22.479654 -1.1999532 0
-4.27561 -22.503883 -1.2004746 0
-4.19455 -22.488152 -1.1988784 0
-4.1261816 -22.540623 -1.2009314 0
-4.0602665 -22.608244 -1.2038021 0
-3.9606369 -22.486574 -1.1966099 0
-3.8884411 -22.518372 -1.1976016 0
-3.8231306 -22.591623 -1.2008088 0
-3.7475739 -22.605581 -1.2008761 0
-3.6660187 -22.582651 -1.1989982 0
-3.5947418 -22.622877 -1.2004874 0
-3.512141 -22.591511 -1.1981912 0
-3.4394801 -22.623575 -1.1992735 0
-3.3717935 -22.690063 -1.2021919 0
-3.291101 -22.669567 -1.2005146 0
-3.2218711 -22.728413 -1.203052 0
-3.1419549 -22.712383 -1.2016393 0
-3.0616081 -22.691818 -1.2000014 0
-2.9820979 -22.676012 -1.1986301 0
-2.9053681 -22.68054 -1.1983478 0
-2.8304389 -22.699221 -1.1988267 0
-2.7607484 -22.76161 -1.2016261 0
-2.6786201 -22.721561 -1.1990309 0
-2.6026311 -22.732224 -1.1991264 0
-2.5276468 -22.75205 -1.1997184 0
-2.4427395 -22.680454 -1.1955045 0
-2.3724415 -22.743729 -1.1984137 0
-2.300492 -22.794352 -1.2006681 0
-2.2235048 -22.796307 -1.2003716 0
-2.14573 -22.789501 -1.1996276 0
-2.0754619 -22.864349 -1.2031946 0
-1.9907067 -22.778683 -1.1983286 0
-1.917648 -22.824806 -1.20041 0
-1.8397096 -22.813744 -1.199497 0
-1.7645484 -22.837116 -1.2004081 0
-1.6842684 -22.792812 -1.1977757 0
-1.6097907 -22.826006 -1.1992297 0
-1.5320004 -22.812662 -1.1982521 0
-1.4583329 -22.862 -1.20058 0
-1.3757627 -22.768948 -1.1954446 0
-1.3075578 -22.916143 -1.2029358 0
-1.2276018 -22.862381 -1.1998909 0
-1.1524009 -22.895361 -1.2014122 0
-1.0766513 -22.920828 -1.2025524 0
-0.99890184 -22.903805 -1.2014768 0
-0.92212796 -22.907618 -1.2015079 0
-0.84587091 -22.92557 -1.202294 0
-0.7668997 -22.865625 -1.1990087 0
-0.68916267 -22.832664 -1.1971524 0
-0.61612529 -22.966057 -1.2040313 0
-0.53708166 -22.881113 -1.1994768 0
-0.46040741 -22.885015 -1.1995937 0
-0.38357279 -22.880293 -1.199272 0
-0.3066743 -22.8678 -1.1985567 0
-0.23010403 -22.878929 -1.1990927 0
-0.15338163 -22.877728 -1.1989961 0
-0.076826349 -22.922951 -1.2013459 0
3.0484638e-05 -22.976149 -1.2041272 0
0.076806985 -22.899044 -1.200093 0
0.1539285 -22.950212 -1.2027949 0
0.23007721 -22.870228 -1.1986368 0
0.30682692 -22.874655 -1.198916 0
0.38370198 -22.884377 -1.1994861 0
0.46065399 -22.894251 -1.2000779 0
0.53817964 -22.925297 -1.2017932 0
0.61470389 -22.910807 -1.2011348 0
0.69134498 -22.90295 -1.2008377 0
0.76901442 -22.926861 -1.2022198 0
0.84479475 -22.894754 -1.200678 0
0.92007524 -22.855116 -1.1987542 0
0.99677885 -22.853735 -1.1988504 0
1.0746336 -22.876577 -1.200231 0
1.152071 -22.887598 -1.2010051 0
1.2252955 -22.8183 -1.1975776 0
1.3023421 -22.823668 -1.1980817 0
1.3816187 -22.864859 -1.2004803 0
1.4539114 -22.791733 -1.1968901 0
1.5326916 -22.822048 -1.1987454 0
1.6071564 -22.78779 -1.1972222 0
1.6858398 -22.813253 -1.1988502 0
1.765182 -22.844528 -1.2007979 0
1.8422009 -22.84388 -1.2010818 0
1.9133642 -22.773094 -1.1976906 0
1.9955947 -22.833916 -1.2012345 0
2.0727582 -22.833891 -1.2015921 0
2.1493742 -22.827557 -1.2016312 0
2.2215836 -22.775986 -1.1993018 0
2.3024147 -22.812796 -1.2016399 0
2.3736908 -22.755119 -1.1990143 0
2.4531362 -22.776419 -1.2005633 0
2.5296433 -22.76947 -1.2006372 0
2.6053367 -22.755322 -1.200345 0
2.6762908 -22.701284 -1.1979612 0
2.7534816 -22.701193 -1.1984369 0
2.8417783 -22.789667 -1.2036037 0
2.9100554 -22.716652 -1.2002561 0
2.9899032 -22.7349 -1.2017431 0
3.0608177 -22.685505 -1.1996679 0
3.137836 -22.682165 -1.2000409 0
3.216861 -22.692635 -1.2011588 0
3.2930107 -22.682297 -1.2011893 0
3.3604038 -22.613003 -1.1981095 0
3.441051 -22.633503 -1.1998003 0
3.5164938 -22.619114 -1.1996557 0
3.5903933 -22.595123 -1.1990151 0
3.6685898 -22.598108 -1.1998194 0
3.7488155 -22.6127 -1.2012547 0
3.8237517 -22.594929 -1.200985 0
3.8945255 -22.553251 -1.199457 0
3.9660733 -22.51709 -1.1982343 0
4.0468583 -22.533241 -1.1998091 0
4.1151385 -22.479959 -1.1976999 0
4.2016163 -22.525705 -1.200881 0
4.2763753 -22.507587 -1.2006727 0
4.342061 -22.442709 -1.1979817 0
4.4154725 -22.418833 -1.1974907 0
4.4980392 -22.440948 -1.1994709 0
4.565073 -22.385622 -1.197325 0
4.6565208 -22.449347 -1.2015617 0
4.7173162 -22.365114 -1.1978931 0
4.8066001 -22.415976 -1.2014736 0
4.8876762 -22.427021 -1.2029372 0
4.9510984 -22.357475 -1.2000906 0
5.0240707 -22.332037 -1.1996226 0
5.1051521 -22.34235 -1.2010894 0
5.1719918 -22.290451 -1.1992248 0
5.2575474 -22.31904 -1.2017045 0
5.3286304 -22.285734 -1.2008665 0
5.3876581 -22.203197 -1.1973855 0
5.4733138 -22.230673 -1.1998502 0
5.5512829 -22.226068 -1.2005996 0
5.621736 -22.191401 -1.1997383 0
5.6945362 -22.166309 -1.1994072 0
5.7798853 -22.18956 -1.2017071 0
5.8346019 -22.095648 -1.1976739 0
5.9227953 -22.128805 -1.2005408 0
5.9889441 -22.079285 -1.1989369 0
6.0627832 -22.058517 -1.1989063 0
6.1318083 -22.020475 -1.1979493 0
6.212368 -22.023771 -1.199255 0
6.2849054 -21.998375 -1.1990128 0
6.3657875 -22.00193 -1.200363 0
6.4301105 -21.948343 -1.198609 0
6.4973187 -21.905272 -1.1974398 0
6.5987654 -21.976748 -1.2025496 0
6.6535306 -21.892372 -1.1991466 0
6.7329049 -21.889482 -1.2002181 0
6.8145161 -21.893314 -1.2016742 0
6.8749599 -21.829315 -1.1994199 0
6.9535332 -21.823158 -1.2003559 0
7.0185704 -21.774616 -1.1989735 0
7.0904994 -21.747778 -1.1987981 0
7.1548729 -21.698097 -1.1973751 0
7.196661 -21.581261 -1.1922524 0
7.3193812 -21.706486 -1.2005194 0
7.3713908 -21.621027 -1.1971532 0
7.4695177 -21.670687 -1.2012827 0
7.5401969 -21.639963 -1.2009743 0
7.6155949 -21.622755 -1.2014296 0
7.6757712 -21.562609 -1.1995109 0
7.7523718 -21.548838 -1.2001841 0
7.8235569 -21.519918 -1.2000276 0
7.9210858 -21.562767 -1.2038912 0
7.9452562 -21.406546 -1.1966496 0
8.05515 -21.481567 -1.2023464 0
8.1203213 -21.43647 -1.2013394 0
8.1918879 -21.408443 -1.2013012 0
8.2441168 -21.330395 -1.1984659 0
8.3143845 -21.299553 -1.1982926 0
8.3757782 -21.246258 -1.1968675 0
8.4792271 -21.299095 -1.2014387 0
8.563921 -21.303703 -1.2033116 0
8.6123486 -21.218325 -1.2001133 0
8.6798487 -21.180565 -1.1996169 0
8.7479601 -21.144445 -1.1992255 0
8.8214598 -21.121355 -1.1995867 0
8.9033546 -21.118055 -1.201088 0
8.9625778 -21.060986 -1.1995445 0
9.0583448 -21.089497 -1.2028915 0
9.0789337 -20.943506 -1.1962941 0
9.1353245 -20.881456 -1.1944926 0
9.2364693 -20.921347 -1.1985391 0
9.3223209 -20.925632 -1.2005686 0
9.4012232 -20.913822 -1.2016927 0
9.4636602 -20.865362 -1.2007246 0
9.5336771 -20.833759 -1.2007387 0
9.5907812 -20.774183 -1.1991516 0
9.6638622 -20.74939 -1.199584 0
9.7481527 -20.748322 -1.201405 0
9.799305 -20.676785 -1.1991585 0
9.8847704 -20.677691 -1.2011263 0
9.9624147 -20.661795 -1.2021365 0
10.0416 -20.648771 -1.2033309 0
10.082108 -20.55654 -1.1999192 0
10.138093 -20.496576 -1.1983964 0
10.229295 -20.507654 -1.2010427 0
10.268642 -20.414886 -1.1976193 0
10.366362 -20.438168 -1.2010173 0
10.414207 -20.362974 -1.1986437 0
10.477109 -20.31764 -1.1980363 0
10.555883 -20.303003 -1.1992533 0
10.646892 -20.311365 -1.2018491 0
10.682462 -20.214113 -1.1982071 0
10.786621 -20.246592 -1.2022693 0
10.845984 -20.194561 -1.2013322 0
10.884089 -20.103516 -1.1980804 0
10.964947 -20.091675 -1.199559 0
11.052298 -20.091244 -1.2017388 0
11.113729 -20.043489 -1.2011045 0
11.147593 -19.946575 -1.1975299 0
11.246072 -19.965302 -1.2009113 0
11.319175 -19.938452 -1.2015722 0
11.383464 -19.896025 -1.2013087 0
11.444845 -19.848619 -1.2007565 0
11.514119 -19.814936 -1.2010475 0
11.549864 -19.723919 -1.1978712 0
11.648378 -19.740074 -1.2012175 0
11.71707 -19.705233 -1.2014812 0
11.769786 -19.643663 -1.2001265 0
11.83884 -19.609489 -1.200457 0
11.907359 -19.57435 -1.2007432 0
11.963899 -19.519598 -1.1998383 0
12.044796 -19.504505 -1.2013862 0
12.108034 -19.460653 -1.201179 0
12.186884 -19.441757 -1.2025279 0
12.241423 -19.384037 -1.2014897 0
12.31678 -19.359289 -1.2025086 0
12.32336 -19.22699 -1.1968504 0
12.447082 -19.277443 -1.2025822 0
12.501528 -19.220049 -1.2016098 0
12.556236 -19.163279 -1.2006859 0
12.593008 -19.079546 -1.1980783 0
12.685786 -19.080652 -1.2008119 0
12.73009 -19.008747 -1.1989659 0
12.811871 -18.992819 -1.2006639 0
12.848779 -18.910461 -1.1981742 0
12.955853 -18.931192 -1.2022333 0
13.010301 -18.874662 -1.2014067 0
13.08931 -18.853691 -1.2028586 0
13.111848 -18.751635 -1.1991454 0
13.182665 -18.718956 -1.1998754 0
13.264533 -18.701694 -1.2016129 0
13.296137 -18.613684 -1.1988157 0
13.371343 -18.586891 -1.1999708 0
13.439585 -18.550238 -1.2005068 0
13.482531 -18.478792 -1.1988019 0
13.573783 -18.473457 -1.2014015 0
13.685913 -18.495779 -1.2058306 0
13.658994 -18.330544 -1.198037 0
13.74707 -18.320221 -1.2003679 0
13.813358 -18.280565 -1.2007974 0
13.877584 -18.238106 -1.2010581 0
13.917928 -18.164425 -1.1992722 0
14.003023 -18.149117 -1.2013545 0
14.023597 -18.050325 -1.1979207 0
14.090225 -18.011114 -1.198447 0
14.179471 -18.000505 -1.2008978 0
14.217333 -17.92461 -1.1990077 0
14.30405 -17.910273 -1.2012501 0
14.337805 -17.829613 -1.1990577 0
14.420363 -17.809673 -1.2009615 0
14.458006 -17.734253 -1.1991378 0
14.529572 -17.700525 -1.2001444 0
14.608589 -17.67561 -1.2017694 0
14.649553 -17.604639 -1.2002769 0
14.702073 -17.547758 -1.1997527 0
14.779935 -17.521021 -1.201306 0
14.800536 -17.426554 -1.1982247 0
14.891024 -17.414423 -1.2008166 0
14.960431 -17.377295 -1.2017086 0
15.01503 -17.322908 -1.2014221 0
15.02744 -17.22023 -1.1977886 0
15.142087 -17.234621 -1.2023141 0
15.166298 -17.145897 -1.1996652 0
15.234569 -17.107155 -1.2005217 0
15.286034 -17.049503 -1.2000659 0
15.349268 -17.004978 -1.2005475 0
15.395994 -16.942192 -1.1997524 0
15.471314 -16.91081 -1.2011967 0
15.520485 -16.850765 -1.2006211 0
15.562502 -16.78311 -1.1995118 0
15.604241 -16.715366 -1.1984024 0
15.694653 -16.699615 -1.2010391 0
15.733912 -16.629311 -1.1997701 0
15.759226 -16.544598 -1.1974636 0
15.875443 -16.555107 -1.2020701 0
15.888121 -16.457516 -1.1988451 0
15.930905 -16.391493 -1.1979198 0
16.013927 -16.366762 -1.2000297 0
16.035444 -16.279203 -1.1975451 0
16.135015 -16.270809 -1.2009004 0
16.194263 -16.221413 -1.2012554 0
16.217714 -16.136335 -1.1989751 0
16.277901 -16.087973 -1.1994301 0
16.312246 -16.01416 -1.1979978 0
16.395418 -15.988214 -1.2001624 0
16.48563 -15.968701 -1.20284 0
16.510817 -15.886147 -1.2007847 0
16.520485 -15.789123 -1.197631 0
16.569305 -15.729824 -1.1973403 0
16.612148 -15.664938 -1.1966342 0
16.679987 -15.623586 -1.1977406 0
16.757614 -15.591147 -1.1995543 0
16.769991 -15.498091 -1.196714 0
16.866953 -15.483171 -1.199922 0
16.921368 -15.428902 -1.2001063 0
16.953419 -15.354343 -1.1987215 0
16.970161 -15.266252 -1.1962795 0
17.07091 -15.25364 -1.1997696 0
17.113159 -15.188511 -1.1991531 0
17.173218 -15.139187 -1.1997981 0
17.232159 -15.088772 -1.2003747 0
17.280354 -15.028913 -1.2002151 0
17.380917 -15.014316 -1.2036966 0
17.380602 -14.912578 -1.2002053 0
17.448406 -14.869476 -1.2014381 0
17.477531 -14.793429 -1.2000215 0
17.521345 -14.729966 -1.199632 0
17.54829 -14.652481 -1.1981066 0
17.589939 -14.587443 -1.1976042 0
17.670719 -14.554717 -1.1997749 0
17.720188 -14.496018 -1.199827 0
17.766449 -14.434703 -1.1996756 0
17.827763 -14.385558 -1.2005521 0
17.900795 -14.345659 -1.2022245 0
17.868551 -14.221695 -1.1968497 0
17.953651 -14.191362 -1.1993562 0
17.992207 -14.124082 -1.1987616 0
18.059202 -14.079067 -1.2000734 0
18.096334 -14.010719 -1.1994125 0
18.156626 -13.960283 -1.2002995 0
18.181299 -13.882508 -1.1988468 0
18.26351 -13.848593 -1.2011993 0
18.296289 -13.777078 -1.2003103 0
18.319044 -13.698208 -1.1987834 0
18.382204 -13.649583 -1.1999149 0
18.426281 -13.586706 -1.1998118 0
18.488644 -13.537233 -1.2009104 0
18.517666 -13.463345 -1.1998566 0
18.554644 -13.395365 -1.1993358 0
18.621752 -13.349066 -1.2007737 0
18.669971 -13.289095 -1.2010032 0
18.668741 -13.194139 -1.1980716 0
18.728258 -13.142267 -1.1990566 0
18.814009 -13.10852 -1.2017261 0
18.825203 -13.022779 -1.1996454 0
18.834387 -12.935981 -1.1974601 0
18.925638 -12.90548 -1.2005038 0
18.961916 -12.837293 -1.2000681 0
19.051914 -12.805277 -1.2030399 0
19.049145 -12.710904 -1.2001673 0
19.101486 -12.653477 -1.2007853 0
19.167341 -12.60484 -1.2022617 0
19.195898 -12.531629 -1.2014107 0
1.6972581 -1.0999203 -0.10599462 0
1.6851448 -1.0840646 -0.10501056 0
1.7422332 -1.1125489 -0.10833499 0
1.7002286 -1.0777178 -0.10549779 0
1.7531897 -1.1030656 -0.10855389 0
1.7473912 -1.0912566 -0.10796771 0
1.7889221 -1.1088731 -0.11030348 0
1.7383336 -1.0694646 -0.10696254 0
1.7668602 -1.0788654 -0.10849465 0
1.7826818 -1.0803375 -0.10924314 0
1.7612247 -1.0592767 -0.10771 0
1.7573738 -1.0489532 -0.1072588 0
1.7055701 -1.0102919 -0.10388972 0
1.8181829 -1.0687792 -0.11053029 0
1.7718049 -1.0335393 -0.10749964 0
1.7416711 -1.0081502 -0.10546567 0
1.7202152 -0.98804557 -0.10396523 0
1.8320687 -1.0441378 -0.11051316 0
1.7757955 -1.0041935 -0.10691497 0
1.7810796 -0.99931544 -0.10703079 0
1.7867548 -0.99463785 -0.10717084 0
1.8006543 -0.99448186 -0.10780393 0
1.8047551 -0.98886454 -0.10785034 0
1.8219329 -0.99034864 -0.10867783 0
1.8346533 -0.98930877 -0.10923812 0
1.833583 -0.98081064 -0.10897798 0
1.7980307 -0.9540537 -0.10667424 0
1.8126342 -0.95402777 -0.10735026 0
1.7952036 -0.93718082 -0.10613127 0
1.8176167 -0.94114 -0.10726917 0
1.8328017 -0.94122356 -0.10797849 0
1.8292532 -0.93166393 -0.10758479 0
1.8787873 -0.94897252 -0.11031032 0
1.8964167 -0.9499101 -0.11115777 0
1.8788007 -0.93321973 -0.10994121 0
1.8743439 -0.92318416 -0.10949866 0
1.8865478 -0.92134827 -0.11003053 0
1.8781462 -0.90945882 -0.10936206 0
1.9195694 -0.92158496 -0.11159352 0
1.8795954 -0.89465141 -0.10909466 0
1.9490712 -0.91971791 -0.11294753 0
1.8765601 -0.87782115 -0.10857439 0
1.9394214 -0.89931351 -0.11203635 0
1.8995235 -0.87308657 -0.1095618 0
1.9017425 -0.86639512 -0.10952163 0
1.9800111 -0.89404839 -0.11385585 0
1.9315995 -0.86440378 -0.11090478 0
1.9330823 -0.85729975 -0.11082426 0
1.944297 -0.85448384 -0.11130233 0
1.9745553 -0.85989445 -0.1128688 0
1.9413844 -0.8377167 -0.11081153 0
5.1485653 -2.2011838 -0.29345006 0
5.1135473 -2.1659627 -0.2910386 0
5.1721225 -2.1703501 -0.29395664 0
5.1517358 -2.1415093 -0.2923882 0
5.1027274 -2.1011004 -0.28920528 0
5.1425028 -2.0973408 -0.29105943 0
5.1643519 -2.0860841 -0.29189855 0
5.1983128 -2.0795567 -0.29342237 0
5.2329664 -2.0730939 -0.2949844 0
5.3375411 -2.0938451 -0.30048189 0
5.3874893 -2.0926235 -0.30289707 0
5.4316797 -2.0888562 -0.30498612 0
5.4254632 -2.0656116 -0.30424649 0
21.397133 -8.0643959 -1.1983749 0
21.427692 -7.9939685 -1.1985786 0
21.539684 -7.9535818 -1.2033446 0
21.465933 -7.8446655 -1.1977483 0
21.497524 -7.7746062 -1.1980498 0
21.542629 -7.709342 -1.1991162 0
21.549294 -7.6303205 -1.1980565 0
21.667536 -7.5905294 -1.2032084 0
21.665546 -7.5083728 -1.2016934 0
21.665583 -7.4271145 -1.2003075 0
21.713949 -7.3624291 -1.2016126 0
21.693617 -7.2745304 -1.199131 0
21.733444 -7.2069144 -1.1999902 0
21.771454 -7.138586 -1.2007605 0
21.849171 -7.083025 -1.2037302 0
21.775793 -6.978642 -1.1983919 0
21.858591 -6.924448 -1.2016641 0
21.822924 -6.8327236 -1.1984372 0
21.792282 -6.7429852 -1.1955061 0
21.849922 -6.6806307 -1.1974328 0
21.856815 -6.6026874 -1.1965905 0
21.878925 -6.529397 -1.1965958 0
22.002441 -6.4859982 -1.202155 0
21.956022 -6.3923817 -1.198441 0
22.026487 -6.3328643 -1.2011216 0
22.006516 -6.2473159 -1.1988835 0
22.028622 -6.1738563 -1.1989534 0
22.019651 -6.0917902 -1.1973468 0
22.111744 -6.0375304 -1.201247 0
22.102285 -5.9553905 -1.1996416 0
22.127808 -5.882762 -1.1999495 0
22.107292 -5.798018 -1.1977762 0
22.14411 -5.7283912 -1.1987236 0
22.179667 -5.6583171 -1.1996146 0
22.171024 -5.5770063 -1.1981291 0
22.261419 -5.5204506 -1.2020072 0
22.246161 -5.4375572 -1.200192 0
22.282804 -5.3674054 -1.2011914 0
22.298985 -5.292264 -1.2011003 0
22.259878 -5.2042079 -1.1980474 0
22.321583 -5.1397643 -1.2004341 0
22.311869 -5.058814 -1.1989927 0
22.351665 -4.9891033 -1.2002257 0
22.405624 -4.9223413 -1.2022302 0
22.343649 -4.8302541 -1.198029 0
22.409779 -4.7659593 -1.2007113 0
22.434656 -4.6926842 -1.2011944 0
22.451378 -4.6176682 -1.2012541 0
22.459097 -4.5408225 -1.2008457 0
22.456055 -4.4618917 -1.1998764 0
22.523134 -4.3967743 -1.2026662 0
22.503195 -4.3146091 -1.2008224 0
22.445765 -4.2256241 -1.196995 0
22.50256 -4.1582446 -1.1992735 0
22.535307 -4.0862069 -1.2002819 0
22.535101 -4.0081768 -1.1995484 0
22.605663 -3.9425828 -1.2025939 0
22.537758 -3.8529215 -1.1982876 0
22.534563 -3.7746572 -1.1974381 0
22.583055 -3.7049818 -1.199348 0
22.556253 -3.6229649 -1.1972728 0
22.587828 -3.5503912 -1.1983101 0
22.650457 -3.4824567 -1.2010065 0
22.625919 -3.4010701 -1.1990941 0
22.64802 -3.3267806 -1.1996675 0
22.699072 -3.2565696 -1.2017865 0
22.714638 -3.1811142 -1.2020392 0
22.635603 -3.0927002 -1.1973013 0
22.731396 -3.0281868 -1.2018244 0
22.760059 -2.9543748 -1.2028095 0
22.763277 -2.877219 -1.2024629 0
22.701611 -2.7921264 -1.1987041 0
22.743319 -2.7198803 -1.2004182 0
22.785141 -2.6474257 -1.2021503 0
22.765141 -2.5677738 -1.2006341 0
22.781124 -2.4922528 -1.2010297 0
22.809631 -2.4180079 -1.2020984 0
22.816761 -2.3414307 -1.2020537 0
22.847734 -2.2672246 -1.2032782 0
22.834375 -2.1886108 -1.2021813 0
22.768911 -2.1053195 -1.1983565 0
22.860334 -2.0364947 -1.2028021 0
22.788675 -1.9531212 -1.1986804 0
22.84292 -1.8806415 -1.2011954 0
22.799097 -1.8000951 -1.1985668 0
22.830439 -1.7255661 -1.1999035 0
22.825657 -1.6482567 -1.199355 0
22.802681 -1.5697639 -1.1978644 0
22.838522 -1.4953125 -1.1994772 0
22.841259 -1.4185975 -1.1993644 0
22.870182 -1.3434341 -1.2006398 0
22.807892 -1.2630553 -1.1971407 0
22.81955 -1.1869704 -1.1975368 0
22.882256 -1.1133176 -1.2006249 0
22.889015 -1.0367343 -1.2007905 0
22.877966 -0.95938236 -1.2000353 0
22.841007 -0.88112658 -1.197935 0
22.877621 -0.80572999 -1.1997069 0
22.885883 -0.72920245 -1.2000052 0
22.897024 -0.65271783 -1.2004679 0
22.852161 -0.57476461 -1.1980079 0
22.904459 -0.49924311 -1.2006552 0
22.930225 -0.42289269 -1.2019248 0
22.922443 -0.3458727 -1.2014493 0
22.866747 -0.26835042 -1.1984762 0
22.854832 -0.19157469 -1.1978114 0
22.867201 -0.1150053 -1.1984327 0
22.897249 -0.038385186 -1.1999938 0
22.83107 0.038274243 -1.1965256 0
22.89852 0.11516281 -1.200074 0
22.916822 0.1920943 -1.2010602 0
22.859734 0.26826811 -1.1981086 0
22.897398 0.34549481 -1.2001367 0
22.867989 0.42174485 -1.1986625 0
22.896723 0.49907446 -1.2002496 0
22.868956 0.57518697 -1.1988884 0
22.857285 0.65158504 -1.1983844 0
22.905128 0.7298156 -1.2010143 0
22.913157 0.8069815 -1.2015704 0
22.900433 0.88341898 -1.2010517 0
22.910345 0.96074015 -1.2017338 0
22.903807 1.0374043 -1.2015665 0
22.850969 1.1117954 -1.1989834 0
22.854565 1.1887918 -1.1993744 0
22.849642 1.2653674 -1.199332 0
22.820002 1.3404863 -1.1980053 0
22.83926 1.4184732 -1.1992594 0
22.796755 1.4925778 -1.1972835 0
22.824905 1.5712938 -1.1990319 0
22.829664 1.648546 -1.1995655 0
22.810104 1.7240293 -1.1988348 0
22.840509 1.8033648 -1.2007438 0
22.805906 1.877594 -1.1992489 0
22.74189 1.9491112 -1.1962194 0
22.826925 2.0335186 -1.2010442 0
22.824839 2.1104908 -1.2013 0
22.801781 2.1854868 -1.2004653 0
22.771235 2.2596331 -1.1992493 0
22.765524 2.3361726 -1.1993543 0
22.817957 2.4188905 -1.2025372 0
22.727131 2.486346 -1.1981832 0
22.751196 2.566201 -1.1998987 0
22.703878 2.6379836 -1.1978629 0
22.733095 2.7186575 -1.1998785 0
22.681932 2.7897062 -1.1976651 0
22.751308 2.8757062 -1.2018306 0
22.697992 2.9463181 -1.1995293 0
22.722502 3.0270019 -1.2013541 0
22.692396 3.1004598 -1.2003053 0
22.651161 3.1722245 -1.19868 0
22.683826 3.2543824 -1.2009794 0
22.704739 3.3351121 -1.2026719 0
22.654274 3.4053323 -1.2005967 0
22.607946 3.4759209 -1.1987525 0
22.605099 3.5531058 -1.1992264 0
22.628574 3.6345806 -1.2011116 0
22.64612 3.7153282 -1.2026973 0
22.576412 3.781667 -1.1996619 0
22.589367 3.8617442 -1.2010314 0
22.63917 3.9484267 -1.2043765 0
22.521034 4.0056744 -1.1987995 0
22.51893 4.0832376 -1.1994096 0
22.531805 4.1636486 -1.2008321 0
22.501812 4.2361755 -1.1999838 0
22.485411 4.3111992 -1.1998733 0
22.490864 4.3904748 -1.2009431 0
22.447842 4.4602594 -1.1994376 0
22.394348 4.5277314 -1.1973838 0
22.401571 4.6074238 -1.1985892 0
22.445501 4.6949525 -1.2017751 0
22.359812 4.7553325 -1.198034 0
22.335546 4.8285022 -1.1975946 0
22.355835 4.9114032 -1.1995586 0
22.346146 4.9878716 -1.1999294 0
22.333904 5.0638103 -1.200177 0
22.260794 5.1257672 -1.1971649 0
22.34626 5.2244034 -1.2026964 0
22.33083 5.2998219 -1.2028157 0
22.200779 5.3476472 -1.1967696 0
22.246153 5.4375558 -1.2001917 0
22.259335 5.5199327 -1.2018945 0
22.232149 5.592382 -1.2014323 0
22.143421 5.6490707 -1.1976542 0
22.133152 5.7255569 -1.1981304 0
22.118057 5.8008413 -1.1983594 0
22.108549 5.8776422 -1.1989052 0
22.115477 5.9589453 -1.2003576 0
22.084183 6.030005 -1.1997496 0
22.068956 6.1054301 -1.2000278 0
22.035435 6.175766 -1.1993241 0
22.058933 6.2621961 -1.2017392 0
21.999552 6.32512 -1.1996528 0
21.971966 6.3970232 -1.1993113 0
21.97764 6.4786868 -1.2007999 0
21.930344 6.5447416 -1.1994079 0
21.926342 6.6236906 -1.2003969 0
21.898165 6.6953807 -1.2000766 0
21.86484 6.7654362 -1.1994866 0
21.819458 6.8316383 -1.1982468 0
21.790552 6.9028945 -1.1979237 0
21.820883 6.9930921 -1.2008734 0
21.763327 7.0551963 -1.199001 0
21.80546 7.1497359 -1.2026361 0
21.77911 7.2220573 -1.2025115 0
21.724159 7.2847719 -1.2008193 0
21.671068 7.3478904 -1.1992397 0
4.7543511 1.6298251 -0.26339856 0
4.7137833 1.6336001 -0.26145297 0
4.6900506 1.6430095 -0.26044074 0
4.6336737 1.6407228 -0.25761414 0
4.5251627 1.619395 -0.25188178 0
4.5522528 1.646328 -0.25369552 0
