# This PCD file was generated using the MATLAB® pcwrite function
# from Computer Vision Toolbox®.
# .PCD v.7 - Point Cloud Data file format
VERSION .7
FIELDS x y z intensity
SIZE 4 4 4 4
TYPE F F F F
COUNT 1 1 1 1
WIDTH 1290
HEIGHT 1
VIEWPOINT 0 0 0 1 0 0 0
POINTS 1290
DATA ascii
1.150774 4.887164 -0.439265 3.000000
1.542315 6.544877 1.307042 6.000000
1.311170 5.559642 -0.299362 1.000000
1.499050 6.346367 -0.113825 2.000000
1.559920 6.598931 1.816910 20.000000
0.728597 3.065453 -0.844268 7.000000
1.678382 7.056027 0.126600 2.000000
0.787493 3.308112 -0.785079 6.000000
1.690365 7.095418 0.382262 24.000000
0.865371 3.632452 -0.725837 7.000000
1.689331 7.085575 0.637283 54.000000
0.941218 3.944715 -0.642320 6.000000
1.680072 7.035868 0.888184 9.000000
1.053813 4.409784 -0.556699 3.000000
1.579183 6.603161 1.075331 47.000000
1.170606 4.894743 -0.440311 3.000000
1.649695 6.892678 1.377641 2.000000
1.324987 5.531723 -0.298106 1.000000
1.519324 6.333320 -0.113685 2.000000
1.696594 7.066821 1.947355 2.000000
0.738387 3.059135 -0.843232 7.000000
1.707693 7.069565 0.126949 2.000000
0.797204 3.297766 -0.783280 6.000000
1.722638 7.120534 0.383937 19.000000
0.878970 3.633226 -0.726601 7.000000
1.726238 7.129984 0.641815 56.000000
0.955448 3.943325 -0.642633 7.000000
1.728948 7.130278 0.900858 20.000000
1.065454 4.390646 -0.554749 3.000000
1.182984 4.871266 -0.438568 3.000000
1.689510 6.951740 1.390616 2.000000
1.341455 5.515420 -0.297478 1.000000
1.534798 6.300777 -0.113196 2.000000
1.687393 6.921966 1.909049 2.000000
0.749980 3.060292 -0.844268 7.000000
1.757130 7.164552 0.128764 2.000000
0.811499 3.306319 -0.785979 7.000000
1.758916 7.161028 0.386449 17.000000
0.888368 3.616789 -0.723929 8.000000
1.763959 7.176155 0.646521 63.000000
0.968264 3.936129 -0.642007 7.000000
1.767586 7.180099 0.907927 16.000000
1.071276 4.348351 -0.549874 3.000000
1.676316 6.799112 1.109120 2.000000
1.199028 4.863238 -0.438219 3.000000
1.714705 6.949613 1.391379 2.000000
1.363571 5.522338 -0.298106 1.000000
1.554861 6.287616 -0.113057 2.000000
1.759344 7.109188 1.962366 5.000000
0.757394 3.044532 -0.840644 9.000000
1.790822 7.193304 0.129392 2.000000
0.821148 3.295903 -0.784179 7.000000
1.797916 7.211045 0.389484 20.000000
0.898139 3.602237 -0.721640 8.000000
1.800090 7.214415 0.650530 56.000000
0.981997 3.932725 -0.642007 7.000000
1.806116 7.227808 0.914751 15.000000
1.092228 4.367694 -0.552799 3.000000
1.730730 6.915862 1.129144 2.000000
1.210191 4.835830 -0.436127 3.000000
1.747064 6.975960 1.397867 5.000000
1.379927 5.505921 -0.297478 1.000000
1.573880 6.270513 -0.112847 2.000000
1.783680 7.101130 1.961848 5.000000
0.766598 3.036251 -0.839091 9.000000
1.828659 7.237416 0.130300 2.000000
0.834082 3.298684 -0.785529 9.000000
1.835813 7.255067 0.392206 16.000000
0.909262 3.593370 -0.720495 7.000000
1.835046 7.246716 0.654017 60.000000
0.992806 3.917784 -0.640130 7.000000
1.842068 7.263793 0.920114 16.000000
1.106001 4.358083 -0.552068 3.000000
1.778685 7.003593 1.144475 5.000000
1.230006 4.843163 -0.437173 3.000000
1.779623 7.002166 1.404354 2.000000
1.399137 5.501071 -0.297478 1.000000
1.589838 6.241726 -0.112428 2.000000
1.800343 7.063036 1.953049 7.000000
0.777672 3.035428 -0.839609 9.000000
1.862852 7.265855 0.130928 2.000000
0.840748 3.276876 -0.781030 10.000000
1.875036 7.302780 0.395137 16.000000
0.922289 3.592075 -0.720876 8.000000
1.875207 7.298157 0.659246 60.000000
1.004999 3.908556 -0.639191 6.000000
1.878297 7.299613 0.925476 15.000000
1.117743 4.340738 -0.550362 3.000000
1.837131 7.129332 1.166063 2.000000
1.240937 4.815688 -0.435081 3.000000
1.826607 7.083360 1.421909 5.000000
1.407353 5.453607 -0.295175 1.000000
1.615617 6.251627 -0.112708 2.000000
1.820636 7.039876 1.948390 5.000000
0.788262 3.032695 -0.839609 9.000000
1.895249 7.286403 0.131417 5.000000
0.850219 3.266378 -0.779230 10.000000
1.911087 7.336780 0.397335 17.000000
0.933831 3.585035 -0.720113 8.000000
1.915244 7.347478 0.664301 65.000000
1.019635 3.908847 -0.639817 6.000000
1.916299 7.341030 0.931569 15.000000
1.131884 4.332969 -0.549874 3.000000
1.862008 7.122875 1.166063 2.000000
1.261772 4.826747 -0.436476 3.000000
1.872685 7.158613 1.438318 5.000000
1.419299 5.421612 -0.293709 1.000000
1.635400 6.238213 -0.112568 2.000000
1.844707 7.031610 1.947872 7.000000
0.798350 3.028057 -0.839091 13.000000
1.926796 7.302945 0.131835 2.000000
0.863606 3.270927 -0.781030 10.000000
1.946888 7.368685 0.399428 17.000000
0.944333 3.574161 -0.718587 8.000000
1.955141 7.394681 0.669182 70.000000
1.033274 3.905263 -0.639817 7.000000
1.954613 7.382270 0.937663 15.000000
1.140394 4.304046 -0.546706 3.000000
1.902556 7.175523 1.175762 5.000000
1.276571 4.814610 -0.435779 3.000000
1.880038 7.085617 1.424962 5.000000
1.441291 5.428206 -0.294337 1.000000
1.649970 6.205411 -0.112079 2.000000
1.863778 7.004591 1.942178 2.000000
0.808417 3.023385 -0.838574 13.000000
1.952271 7.296175 0.131835 2.000000
0.874010 3.264128 -0.780130 10.000000
1.987846 7.423925 0.402778 17.000000
0.953755 3.559464 -0.716297 8.000000
1.990224 7.422452 0.672319 56.000000
1.045363 3.895909 -0.638878 7.000000
1.996845 7.436752 0.945462 13.000000
1.154659 4.300241 -0.546706 3.000000
1.935053 7.201606 1.181080 2.000000
1.286126 4.783187 -0.433338 3.000000
1.919045 7.132094 1.435647 5.000000
1.460232 5.423141 -0.294337 1.000000
1.666378 6.184458 -0.111800 2.000000
1.872912 6.946146 1.927684 7.000000
0.817429 3.016958 -0.837538 13.000000
1.976457 7.289661 0.131835 2.000000
0.883808 3.257450 -0.779230 10.000000
2.026573 7.469337 0.405604 15.000000
0.965555 3.556282 -0.716297 8.000000
2.029456 7.469646 0.677200 68.000000
1.055166 3.880984 -0.637001 7.000000
2.037132 7.487553 0.952775 13.000000
1.170999 4.304050 -0.547681 3.000000
1.956847 7.187525 1.179829 2.000000
1.303027 4.782742 -0.433687 3.000000
1.932876 7.089703 1.428396 5.000000
1.467691 5.379734 -0.292244 1.000000
1.905963 6.986193 1.671836 9.000000
1.685823 6.175040 -0.111730 2.000000
2.053764 7.517600 2.088152 52.000000
0.827940 3.016094 -0.838056 14.000000
2.000618 7.283067 0.131835 2.000000
0.893573 3.250743 -0.778331 10.000000
2.069586 7.523840 0.408953 15.000000
0.977960 3.552890 -0.716297 8.000000
2.070076 7.520504 0.682429 70.000000
1.065933 3.869846 -0.635750 7.000000
2.075136 7.528600 0.958868 15.000000
1.189180 4.311419 -0.549143 3.000000
1.980875 7.176843 1.179203 2.000000
1.321837 4.785845 -0.434384 3.000000
1.942963 7.029928 1.417711 10.000000
1.496045 5.409227 -0.294128 1.000000
2.092413 7.565505 1.812206 21.000000
1.709503 6.176827 -0.111870 2.000000
2.098549 7.577410 2.106787 76.000000
0.837952 3.009317 -0.837021 13.000000
1.995099 7.160106 0.129741 2.000000
0.900770 3.230552 -0.774282 11.000000
2.111639 7.568146 0.411779 16.000000
0.990450 3.547390 -0.715915 8.000000
2.110491 7.558921 0.686613 46.000000
1.082235 3.873523 -0.637001 7.000000
2.114473 7.563003 0.964230 12.000000
1.195350 4.272620 -0.544756 3.000000
2.008229 7.173339 1.179829 2.000000
1.327543 4.738761 -0.430549 1.000000
1.971371 7.032210 1.419619 2.000000
1.506150 5.369093 -0.292244 1.000000
2.134864 7.610322 1.824803 39.000000
1.728887 6.158968 -0.111661 2.000000
2.142509 7.627322 2.122834 76.000000
0.847400 3.000648 -0.835468 13.000000
2.043079 7.229719 0.131137 2.000000
0.914727 3.234729 -0.776081 11.000000
2.148372 7.597245 0.413768 15.000000
0.997479 3.525021 -0.712099 7.000000
2.136551 7.545383 0.686090 8.000000
1.094810 3.863828 -0.636063 6.000000
2.157339 7.608677 0.971055 12.000000
1.209171 4.264602 -0.544268 3.000000
2.012770 7.094071 1.167940 5.000000
1.346255 4.741765 -0.431247 3.000000
2.171883 7.644722 1.544790 63.000000
1.524884 5.363803 -0.292244 1.000000
2.175806 7.653434 1.836950 49.000000
1.752565 6.160589 -0.111800 2.000000
2.183396 7.669966 2.136810 65.000000
0.854160 2.986677 -0.832362 13.000000
2.063740 7.211369 0.130928 2.000000
0.927594 3.239172 -0.777881 11.000000
2.188948 7.643842 0.416699 15.000000
1.009164 3.521694 -0.712099 7.000000
2.178584 7.597630 0.691494 8.000000
1.108706 3.863975 -0.636688 6.000000
2.204473 7.677801 0.980805 12.000000
1.224403 4.264385 -0.544756 4.000000
2.200472 7.658827 1.262113 24.000000
1.361973 4.737274 -0.431247 3.000000
2.216222 7.703512 1.558146 71.000000
1.545976 5.370233 -0.292872 1.000000
2.217885 7.704230 1.850897 47.000000
1.761916 6.116312 -0.111102 2.000000
2.223803 7.714657 2.151304 73.000000
0.862984 2.980118 -0.831327 13.000000
2.084305 7.192961 0.130719 2.000000
0.937244 3.232335 -0.776981 12.000000
2.235094 7.703290 0.420362 16.000000
1.019742 3.514557 -0.711336 7.000000
1.115451 3.839411 -0.633247 7.000000
2.243220 7.716197 0.986654 12.000000
1.235955 4.248648 -0.543294 4.000000
2.243203 7.706102 1.271187 27.000000
1.371811 4.709537 -0.429155 3.000000
2.254931 7.741360 1.567305 69.000000
1.554835 5.334396 -0.291197 1.000000
2.262768 7.758178 1.865744 42.000000
1.783251 6.110126 -0.111102 2.000000
2.267509 7.764333 2.167351 78.000000
0.877166 2.988056 -0.834433 13.000000
2.099261 7.151105 0.130090 2.000000
0.943579 3.212216 -0.772932 10.000000
2.280559 7.758676 0.423817 15.000000
1.034833 3.518330 -0.712862 7.000000
2.281075 7.750432 0.706833 4.000000
1.130632 3.839086 -0.633873 7.000000
2.284163 7.755925 0.992748 11.000000
1.247411 4.232883 -0.541831 4.000000
2.292439 7.774013 1.283701 27.000000
1.388243 4.704719 -0.429155 1.000000
2.294967 7.772583 1.575319 66.000000
1.567584 5.305677 -0.289941 1.000000
2.308870 7.809632 1.880141 47.000000
1.796633 6.077016 -0.110613 2.000000
2.312133 7.815652 2.183915 70.000000
0.885388 2.977569 -0.832362 10.000000
2.119756 7.124196 0.129741 2.000000
0.957014 3.214339 -0.774282 11.000000
2.320954 7.790461 0.426015 15.000000
1.047107 3.514696 -0.712862 7.000000
2.329747 7.814977 0.713457 66.000000
1.142896 3.831331 -0.633247 7.000000
2.330174 7.806468 1.000304 12.000000
1.261781 4.224479 -0.541344 4.000000
2.336754 7.818553 1.292462 28.000000
1.398951 4.680756 -0.427412 3.000000
2.343462 7.835999 1.589821 83.000000
1.584951 5.296346 -0.289732 1.000000
2.351208 7.851931 1.892288 47.000000
1.816600 6.062727 -0.110474 2.000000
2.359629 7.870040 2.201515 75.000000
0.895776 2.974461 -0.832362 9.000000
2.150379 7.135900 0.130090 2.000000
0.965978 3.203516 -0.772482 11.000000
2.360829 7.824378 0.428317 8.000000
1.051431 3.484706 -0.707520 7.000000
2.376014 7.869740 0.719209 64.000000
1.155121 3.823535 -0.632621 7.000000
2.378091 7.866693 1.009078 12.000000
1.271921 4.204848 -0.539394 3.000000
2.378340 7.857615 1.300283 25.000000
1.417592 4.683471 -0.428109 3.000000
2.387871 7.884140 1.601269 71.000000
1.602269 5.286959 -0.289523 1.000000
2.393308 7.892162 1.903986 47.000000
1.837750 6.056350 -0.110474 2.000000
2.405045 7.920908 2.218079 72.000000
0.902773 2.960228 -0.829256 9.000000
2.160098 7.078623 0.129183 2.000000
0.976016 3.196397 -0.771582 11.000000
2.401548 7.860022 0.430725 1.000000
1.064735 3.484770 -0.708283 7.000000
2.417449 7.907127 0.723393 64.000000
1.171928 3.830814 -0.634498 7.000000
2.425871 7.924779 1.017609 11.000000
1.290080 4.211771 -0.540856 4.000000
2.421964 7.902147 1.309044 25.000000
1.424591 4.648015 -0.425320 3.000000
2.436674 7.945206 1.615389 63.000000
1.621888 5.285152 -0.289732 1.000000
2.439722 7.945235 1.918833 47.000000
1.857704 6.046075 -0.110404 2.000000
2.450849 7.971555 2.234644 65.000000
0.910821 2.949676 -0.827186 9.000000
2.178890 7.051934 0.128834 2.000000
0.987168 3.192971 -0.771582 12.000000
2.452583 7.927912 0.434912 1.000000
1.073412 3.469778 -0.705993 7.000000
2.462709 7.955740 0.728622 60.000000
1.178280 3.804056 -0.630744 7.000000
2.471739 7.975042 1.025165 12.000000
1.300067 4.192075 -0.538906 4.000000
2.471779 7.965337 1.320933 25.000000
1.440806 4.643014 -0.425320 3.000000
2.483608 7.998524 1.627982 71.000000
1.635582 5.264201 -0.288895 1.000000
2.490581 8.011106 1.936829 47.000000
1.879987 6.043373 -0.110474 2.000000
2.494735 8.014599 2.249138 67.000000
0.923993 2.955697 -0.829774 9.000000
2.209464 7.063370 0.129183 2.000000
0.997145 3.185785 -0.770682 12.000000
2.487214 7.946420 0.436377 1.000000
1.087864 3.473504 -0.707520 7.000000
2.511320 8.013636 0.734723 68.000000
1.188006 3.788610 -0.628867 7.000000
2.514418 8.013718 1.031259 12.000000
1.313504 4.183722 -0.538419 4.000000
2.517704 8.019292 1.331257 26.000000
1.457005 4.637956 -0.425320 3.000000
2.526818 8.038503 1.637905 66.000000
1.655148 5.262269 -0.289104 1.000000
2.539592 8.069282 1.953025 42.000000
1.892815 6.014215 -0.110055 2.000000
2.542186 8.072617 2.267772 65.000000
0.931392 2.943245 -0.827186 11.000000
2.232877 7.056004 0.129183 2.000000
1.004173 3.171314 -0.767983 12.000000
2.552333 8.055738 0.442867 1.000000
1.102356 3.477171 -0.709046 7.000000
2.559762 8.069390 0.740649 68.000000
1.202951 3.792182 -0.630118 7.000000
2.560194 8.065881 1.039058 12.000000
1.323767 4.167992 -0.536956 4.000000
2.567819 8.080110 1.342834 26.000000
1.476805 4.644236 -0.426366 1.000000
2.574876 8.097432 1.651643 66.000000
1.668957 5.245332 -0.288476 1.000000
2.581706 8.109095 1.964723 40.000000
1.915007 6.011383 -0.110125 2.000000
2.590886 8.128115 2.285890 62.000000
0.945269 2.953019 -0.830809 13.000000
2.251389 7.029124 0.128834 2.000000
1.016426 3.171502 -0.768883 12.000000
2.596296 8.096227 0.445588 1.000000
1.104288 3.443585 -0.702940 7.000000
2.605381 8.119669 0.746053 62.000000
1.212557 3.776675 -0.628241 7.000000
2.610194 8.124934 1.047833 13.000000
1.337094 4.159566 -0.536469 4.000000
2.614152 8.127512 1.352220 26.000000
1.487319 4.624139 -0.424971 3.000000
2.621773 8.146330 1.663473 63.000000
1.681136 5.220462 -0.287429 1.000000
2.632108 8.168664 1.981369 50.000000
1.913890 5.936146 -0.108868 2.000000
2.641191 8.187046 2.305043 67.000000
0.950807 2.934999 -0.826668 7.000000
2.261114 6.975567 0.127996 2.000000
1.028694 3.171641 -0.769782 13.000000
2.655366 8.182101 0.450822 1.000000
1.121149 3.454649 -0.705993 7.000000
2.655854 8.178744 0.752328 60.000000
1.229396 3.783692 -0.630118 7.000000
2.659405 8.179959 1.056120 12.000000
1.351602 4.154874 -0.536469 4.000000
2.662074 8.178444 1.362231 26.000000
1.498519 4.603762 -0.423577 3.000000
2.676339 8.217398 1.679883 68.000000
1.703058 5.225958 -0.288057 1.000000
2.680545 8.220565 1.996216 40.000000
1.939563 5.944636 -0.109147 2.000000
2.691331 8.243892 2.323678 65.000000
0.953224 2.907798 -0.819939 3.000000
2.275480 6.937231 0.127437 2.000000
1.036110 3.156923 -0.767083 12.000000
2.694939 8.211205 0.452915 1.000000
1.133815 3.452579 -0.706375 6.000000
2.705536 8.233781 0.758255 60.000000
1.235190 3.756859 -0.626364 7.000000
2.710277 8.238510 1.064894 12.000000
1.367340 4.153902 -0.536956 5.000000
2.711413 8.237122 1.373495 27.000000
1.509591 4.583365 -0.422182 3.000000
2.724669 8.267673 1.692094 60.000000
1.717538 5.208600 -0.287429 1.000000
2.734867 8.288883 2.015111 45.000000
1.952998 5.919182 -0.108798 2.000000
2.739853 8.299128 2.341795 59.000000
0.967018 2.915454 -0.823045 3.000000
2.288401 6.899278 0.126879 2.000000
1.045346 3.149770 -0.766183 13.000000
2.739953 8.251030 0.455637 1.000000
1.141527 3.435558 -0.703704 7.000000
2.755630 8.288568 0.764182 60.000000
1.243903 3.741495 -0.624486 7.000000
2.757631 8.289753 1.072694 12.000000
1.383616 4.156878 -0.537931 4.000000
2.766988 8.308196 1.386948 27.000000
1.524322 4.574287 -0.421834 3.000000
2.771310 8.316333 1.703924 63.000000
1.729748 5.187717 -0.286592 1.000000
2.785773 8.350016 2.032208 47.000000
1.977446 5.923710 -0.109008 2.000000
2.790841 8.355476 2.360430 59.000000
0.979138 2.919558 -0.825115 3.000000
2.321372 6.917790 0.127368 2.000000
1.054475 3.140559 -0.764834 13.000000
2.790365 8.305785 0.459196 1.000000
1.152913 3.431754 -0.703704 7.000000
2.807223 8.351150 0.770805 58.000000
1.258217 3.740875 -0.625112 7.000000
2.810613 8.351569 1.081956 12.000000
1.393049 4.136973 -0.535981 5.000000
2.814896 8.354646 1.396334 23.000000
1.536939 4.561654 -0.421137 3.000000
2.823530 8.375442 1.718044 60.000000
1.741462 5.162724 -0.285545 1.000000
2.833601 8.395633 2.045705 42.000000
2.004511 5.935717 -0.109357 2.000000
2.842251 8.411572 2.379065 59.000000
0.985598 2.905146 -0.822009 5.000000
2.336508 6.883134 0.126879 2.000000
1.066057 3.138705 -0.765283 13.000000
2.797489 8.231700 0.455637 1.000000
1.159831 3.412838 -0.700651 7.000000
2.859450 8.409206 0.777081 48.000000
1.269995 3.732719 -0.624486 7.000000
2.864057 8.413117 1.091218 13.000000
1.403640 4.120811 -0.534519 6.000000
2.868259 8.415820 1.408223 24.000000
1.554140 4.560033 -0.421485 3.000000
2.879994 8.445436 1.734454 63.000000
1.763341 5.167955 -0.286173 1.000000
2.884299 8.448394 2.061002 40.000000
2.008410 5.879483 -0.108449 2.000000
2.897211 8.476548 2.400288 57.000000
0.995107 2.899861 -0.821492 6.000000
2.355324 6.859806 0.126600 2.000000
1.078907 3.140493 -0.766633 14.000000
2.815820 8.191665 0.453962 1.000000
1.173608 3.412278 -0.701414 7.000000
2.916001 8.478305 0.784402 58.000000
1.284302 3.732000 -0.625112 7.000000
2.920553 8.481899 1.101455 13.000000
1.415428 4.108379 -0.533544 5.000000
2.920792 8.472987 1.419487 24.000000
1.572141 4.558074 -0.421834 3.000000
2.939112 8.516481 1.751245 65.000000
1.775753 5.142579 -0.285126 1.000000
2.943665 8.524849 2.082147 42.000000
2.026311 5.864876 -0.108310 2.000000
2.946981 8.524809 2.416852 57.000000
1.000658 2.881595 -0.817351 4.000000
2.367326 6.813348 0.125902 2.000000
1.089770 3.134677 -0.766183 12.000000
2.845823 8.181290 0.453962 1.000000
1.184817 3.404245 -0.700651 8.000000
2.968015 8.527774 0.789980 58.000000
1.295373 3.719805 -0.623861 7.000000
2.975785 8.540498 1.110474 13.000000
1.431785 4.106912 -0.534032 5.000000
2.975248 8.529372 1.430750 24.000000
1.582270 4.533470 -0.420091 3.000000
2.989075 8.559403 1.762312 55.000000
1.791953 5.128493 -0.284708 1.000000
2.997386 8.578391 2.097893 33.000000
2.041193 5.838534 -0.107961 2.000000
3.005633 8.592362 2.439111 59.000000
1.013134 2.883375 -0.818903 4.000000
2.385651 6.785760 0.125553 2.000000
1.095432 3.114117 -0.762134 10.000000
2.880993 8.190145 0.455009 1.000000
1.199299 3.407496 -0.702177 7.000000
3.023077 8.584492 0.796255 48.000000
1.305060 3.703854 -0.621983 7.000000
3.028187 8.589443 1.118273 12.000000
1.449470 4.109125 -0.535006 4.000000
3.030633 8.591585 1.442952 21.000000
1.600739 4.535434 -0.420788 3.000000
3.041814 8.613711 1.775669 60.000000
1.803191 5.103375 -0.283661 1.000000
3.058688 8.651863 2.118589 42.000000
2.066894 5.846455 -0.108240 2.000000
3.060087 8.651027 2.458781 51.000000
1.021253 2.874360 -0.817351 4.000000
2.404123 6.766507 0.125343 2.000000
1.101836 3.099450 -0.759435 2.000000
2.902870 8.161222 0.453962 1.000000
1.209870 3.399590 -0.701414 7.000000
3.081762 8.654595 0.803750 65.000000
1.317334 3.699506 -0.621983 7.000000
3.083972 8.656021 1.128266 13.000000
1.453756 4.078118 -0.531594 5.000000
3.092457 8.670262 1.457969 21.000000
1.615220 4.526066 -0.420439 3.000000
3.100718 8.688632 1.793223 60.000000
1.820104 5.097368 -0.283661 1.000000
3.110967 8.707737 2.134786 38.000000
2.081903 5.824142 -0.107961 2.000000
3.120195 8.723966 2.482592 54.000000
1.032738 2.876412 -0.818903 5.000000
2.441247 6.795712 0.126041 2.000000
1.112648 3.095586 -0.759435 3.000000
2.931343 8.151039 0.453962 1.000000
1.215823 3.380779 -0.698361 7.000000
3.140128 8.726815 0.811420 52.000000
1.331578 3.698603 -0.622609 7.000000
3.141081 8.719908 1.138016 13.000000
1.462599 4.058078 -0.529644 6.000000
3.138113 8.702155 1.465165 25.000000
1.633715 4.527896 -0.421137 3.000000
3.156350 8.747929 1.807724 55.000000
1.835175 5.083468 -0.283242 1.000000
3.167819 8.770141 2.152782 38.000000
2.099504 5.809316 -0.107821 2.000000
3.180849 8.796590 2.506404 51.000000
1.039976 2.863528 -0.816315 7.000000
2.455399 6.760835 0.125553 2.000000
1.124779 3.095346 -0.760335 5.000000
2.959771 8.140759 0.453962 1.000000
1.229548 3.379991 -0.699124 7.000000
3.197985 8.786393 0.818044 69.000000
1.343772 3.689985 -0.621983 7.000000
3.202740 8.794694 1.149228 14.000000
1.476755 4.052948 -0.529644 6.000000
3.202979 8.785798 1.481122 21.000000
1.639953 4.495961 -0.418696 3.000000
3.219351 8.821138 1.825279 55.000000
1.863384 5.102974 -0.284708 1.000000
3.226698 8.831685 2.170778 40.000000
2.119771 5.801951 -0.107821 2.000000
3.238065 8.858011 2.527109 54.000000
1.050632 2.861694 -0.816833 13.000000
2.476023 6.740529 0.125343 2.000000
1.138132 3.096690 -0.761684 6.000000
2.970258 8.081636 0.451241 1.000000
1.239984 3.371992 -0.698361 7.000000
3.255465 8.848102 0.824842 56.000000
1.349821 3.666734 -0.618855 7.000000
3.263775 8.861130 1.159465 13.000000
1.499127 4.070122 -0.532569 5.000000
3.260948 8.848704 1.493636 22.000000
1.654256 4.486472 -0.418348 3.000000
3.277307 8.883524 1.840544 49.000000
1.877035 5.085197 -0.284080 1.000000
3.287003 8.905034 2.191473 33.000000
2.121994 5.745746 -0.106913 2.000000
3.291064 8.906452 2.544191 49.000000
1.063474 2.867251 -0.819421 13.000000
2.488621 6.706035 0.124855 2.000000
1.147039 3.089245 -0.760784 7.000000
2.990092 8.053017 0.450194 1.000000
1.251159 3.367862 -0.698361 7.000000
3.313941 8.915695 0.832163 46.000000
1.358531 3.652980 -0.617290 8.000000
3.320139 8.922817 1.168971 13.000000
1.511231 4.061407 -0.532082 5.000000
3.323354 8.926703 1.508654 22.000000
1.671907 4.488429 -0.419045 3.000000
3.336227 8.951712 1.856953 54.000000
1.878534 5.037774 -0.281777 1.000000
3.349195 8.981730 2.213068 38.000000
2.153620 5.772400 -0.107542 2.000000
3.356386 8.991414 2.571626 54.000000
1.069588 2.854663 -0.816833 9.000000
2.510847 6.697744 0.124855 2.000000
1.151117 3.069003 -0.756735 6.000000
3.008362 8.016352 0.448729 1.000000
1.260941 3.360018 -0.697598 8.000000
3.375007 8.988591 0.840007 64.000000
1.366468 3.637360 -0.615413 8.000000
3.377650 8.986083 1.178720 13.000000
1.517012 4.033811 -0.529157 7.000000
3.381626 8.987151 1.520856 22.000000
1.683354 4.471377 -0.417999 3.000000
3.394256 9.015930 1.872599 52.000000
1.899455 5.042731 -0.282405 1.000000
3.403895 9.031983 2.228365 31.000000
2.169524 5.753621 -0.107332 2.000000
3.415708 9.053751 2.592849 46.000000
1.081412 2.854337 -0.817868 10.000000
2.534213 6.688939 0.124855 2.000000
1.165967 3.075900 -0.759435 6.000000
3.046236 8.031947 0.450194 1.000000
1.271854 3.351703 -0.696835 7.000000
3.438341 9.056254 0.847502 52.000000
1.383999 3.643407 -0.617290 8.000000
3.443531 9.065170 1.190664 15.000000
1.524032 4.009934 -0.526719 5.000000
3.445979 9.062073 1.535561 23.000000
1.696115 4.458026 -0.417302 3.000000
3.460803 9.091501 1.890917 49.000000
1.910818 5.017070 -0.281358 1.000000
3.466813 9.097752 2.247711 33.000000
2.175350 5.708642 -0.106634 2.000000
3.481016 9.130221 2.618213 48.000000
1.089296 2.845133 -0.816315 13.000000
2.573017 6.716953 0.125553 2.000000
1.173746 3.062507 -0.757185 6.000000
3.483264 9.083694 0.509857 1.000000
1.282140 3.343577 -0.696071 10.000000
3.499191 9.120465 0.854649 61.000000
1.398125 3.642242 -0.617916 8.000000
3.508763 9.135879 1.201632 14.000000
1.542991 4.015440 -0.528182 6.000000
3.506814 9.121290 1.547763 15.000000
1.710237 4.448359 -0.416953 3.000000
3.528466 9.172814 1.910380 45.000000
1.931188 5.017826 -0.281777 1.000000
3.535666 9.181978 2.271556 33.000000
2.196262 5.700629 -0.106634 2.000000
3.544332 9.194914 2.640472 46.000000
1.092947 2.825098 -0.811657 11.000000
2.582013 6.670633 0.124855 2.000000
1.185133 3.060208 -0.757635 5.000000
3.562575 9.194394 0.516765 1.000000
1.290256 3.329928 -0.694163 8.000000
3.548292 9.152779 0.858833 22.000000
1.402972 3.617081 -0.614475 8.000000
3.577975 9.219809 1.214306 14.000000
1.555562 4.006329 -0.527694 6.000000
3.574396 9.201060 1.563406 20.000000
1.724310 4.438648 -0.416604 3.000000
3.591045 9.239128 1.926789 42.000000
1.941454 4.992439 -0.280730 1.000000
3.600904 9.254938 2.292701 33.000000
2.200188 5.651932 -0.105866 2.000000
3.612166 9.274291 2.666872 42.000000
1.109836 2.839258 -0.816833 9.000000
2.586344 6.613159 0.123947 2.000000
1.193678 3.050608 -0.756285 4.000000
3.636715 9.294126 0.523046 1.000000
1.304020 3.330889 -0.695308 5.000000
3.615098 9.229385 0.867200 5.000000
1.415590 3.612162 -0.614475 8.000000
3.639125 9.281186 1.224056 14.000000
1.572436 4.008266 -0.528669 5.000000
3.648175 9.299491 1.582178 20.000000
1.736883 4.425183 -0.415907 3.000000
3.655565 9.308771 1.943962 45.000000
1.953025 4.970760 -0.279893 1.000000
3.669550 9.334806 2.315646 29.000000
2.214528 5.633438 -0.105657 2.000000
3.676839 9.348557 2.691718 42.000000
1.118320 2.831773 -0.815798 9.000000
2.608258 6.604547 0.123947 2.000000
1.202355 3.043009 -0.755386 4.000000
3.125779 7.906905 0.445588 1.000000
1.319970 3.337270 -0.697598 5.000000
3.678081 9.294519 0.874521 3.000000
1.431921 3.618468 -0.616352 8.000000
3.703500 9.353968 1.235268 14.000000
1.581332 3.991957 -0.527207 6.000000
3.712641 9.367501 1.595945 24.000000
1.753789 4.422797 -0.416256 3.000000
3.721876 9.386022 1.962661 40.000000
1.965078 4.953119 -0.279265 1.000000
3.732123 9.402282 2.335442 34.000000
2.243037 5.647975 -0.106076 2.000000
3.742262 9.418250 2.715529 42.000000
1.127705 2.828049 -0.815798 9.000000
2.637227 6.610260 0.124226 2.000000
1.208634 3.027934 -0.752686 4.000000
3.137168 7.859399 0.443495 1.000000
1.323021 3.312819 -0.693400 3.000000
3.744370 9.371078 0.882888 1.000000
1.440145 3.602442 -0.614475 7.000000
3.773723 9.434983 1.247699 15.000000
1.586408 3.964296 -0.524282 5.000000
3.778910 9.443170 1.610962 20.000000
1.761040 4.398461 -0.414513 3.000000
3.793307 9.469564 1.982887 40.000000
1.985328 4.953644 -0.279683 1.000000
3.798281 9.472401 2.356138 29.000000
2.258776 5.633082 -0.105936 2.000000
3.811599 9.500814 2.742964 44.000000
1.136847 2.822304 -0.815280 7.000000
2.651659 6.582930 0.123877 2.000000
1.220855 3.029332 -0.754036 3.000000
3.185499 7.900267 0.446426 1.000000
1.330171 3.297256 -0.691110 3.000000
3.815834 9.454025 0.891952 1.000000
1.453561 3.601310 -0.615100 8.000000
3.843641 9.518134 1.260373 15.000000
1.604008 3.970056 -0.525744 4.000000
3.844421 9.510505 1.624729 16.000000
1.773394 4.384899 -0.413815 3.000000
3.865907 9.558856 2.004258 36.000000
2.006241 4.958141 -0.280311 1.000000
3.866238 9.550067 2.378632 29.000000
2.261908 5.584388 -0.105168 2.000000
3.874490 9.560858 2.764188 20.000000
1.137468 2.797043 -0.809068 7.000000
2.671606 6.566226 0.123738 2.000000
1.233627 3.030466 -0.755386 4.000000
3.945320 9.687036 0.548167 1.000000
1.343319 3.298282 -0.692255 3.000000
3.877235 9.515124 0.898924 1.000000
1.463141 3.588898 -0.613849 8.000000
3.918829 9.607589 1.274022 15.000000
1.611853 3.949731 -0.523794 6.000000
3.917920 9.595782 1.641623 17.000000
1.787183 4.374993 -0.413467 3.000000
3.932662 9.627089 2.021431 38.000000
2.015976 4.932621 -0.279265 1.000000
3.943802 9.644741 2.405627 21.000000
2.284418 5.583861 -0.105308 2.000000
2.254688 5.508457 1.594843 54.000000
1.153586 2.807151 -0.813209 7.000000
2.686911 6.538363 0.123389 2.000000
1.246421 3.031548 -0.756735 5.000000
3.998863 9.721230 0.550888 1.000000
1.354651 3.291521 -0.691873 3.000000
3.972779 9.648232 0.912869 1.000000
1.471770 3.572552 -0.611972 7.000000
3.985610 9.674611 1.284747 15.000000
1.625632 3.944080 -0.523794 7.000000
3.989048 9.673357 1.657267 17.000000
1.802443 4.368728 -0.413467 3.000000
4.002378 9.696088 2.038985 25.000000
2.037095 4.932582 -0.279683 1.000000
2.306210 5.581459 1.394247 50.000000
2.302367 5.572157 -0.105238 2.000000
2.280547 5.516621 1.599502 85.000000
1.163378 2.803107 -0.813209 7.000000
2.712390 6.532166 0.123458 2.000000
1.248552 3.005364 -0.751337 6.000000
3.226679 7.766875 0.440773 1.000000
1.364626 3.283146 -0.691110 3.000000
4.036262 9.706055 0.919667 4.000000
1.488785 3.578336 -0.613849 7.000000
4.060714 9.755237 1.297421 16.000000
1.638549 3.934431 -0.523307 5.000000
4.066831 9.765141 1.675413 8.000000
1.817683 4.362410 -0.413467 3.000000
2.334243 5.599393 1.179200 43.000000
2.051222 4.918069 -0.279265 1.000000
2.321928 5.564382 1.391997 94.000000
2.332586 5.589922 -0.105727 2.000000
2.299047 5.506844 1.598984 92.000000
1.168675 2.788338 -0.810104 7.000000
2.726308 6.504692 0.123109 2.000000
1.260018 3.004802 -0.752236 11.000000
3.235221 7.711365 0.438261 1.000000
1.376837 3.280173 -0.691492 3.000000
4.063178 9.675374 0.918099 3.000000
1.502172 3.577022 -0.614475 8.000000
4.130722 9.831391 1.309364 14.000000
1.648511 3.921655 -0.522332 6.000000
2.375533 5.648412 0.970520 61.000000
1.829810 4.348691 -0.412770 3.000000
2.355846 5.598859 1.180726 87.000000
2.061321 4.896513 -0.278427 1.000000
2.331289 5.535100 1.386598 84.000000
2.333449 5.537519 -0.104889 2.000000
2.314501 5.489884 1.596396 99.000000
1.174904 2.777331 -0.808033 7.000000
2.730293 6.450937 0.122272 2.000000
1.271258 3.002180 -0.752686 18.000000
3.273029 7.725771 0.439727 1.000000
1.382345 3.262936 -0.688820 3.000000
2.434442 5.743542 0.545769 1.000000
1.507707 3.555389 -0.611659 8.000000
2.417441 5.697904 0.759977 49.000000
1.660640 3.912221 -0.521845 6.000000
2.392917 5.634632 0.969581 90.000000
1.837987 4.327930 -0.411375 3.000000
2.372300 5.583375 1.179200 86.000000
2.076839 4.885611 -0.278218 1.000000
2.349835 5.525135 1.386148 85.000000
2.357458 5.540382 -0.105098 2.000000
2.326842 5.465774 1.591737 94.000000
1.184592 2.773213 -0.808033 7.000000
2.763792 6.467113 0.122760 2.000000
1.282497 2.999516 -0.753136 13.000000
2.465754 5.764147 0.328565 1.000000
1.397588 3.267115 -0.690729 3.000000
2.444280 5.711199 0.543503 56.000000
1.519332 3.548289 -0.611346 7.000000
2.434972 5.683956 0.759246 80.000000
1.677413 3.913700 -0.522820 5.000000
2.408680 5.617166 0.968017 87.000000
1.842092 4.295852 -0.408935 3.000000
2.385585 5.560627 1.176147 89.000000
2.097030 4.885673 -0.278637 1.000000
2.370644 5.520481 1.387048 85.000000
2.368891 5.513746 -0.104749 2.000000
2.344380 5.454069 1.590702 96.000000
1.192734 2.765513 -0.806998 7.000000
2.746738 6.365622 0.121015 2.000000
1.286781 2.980707 -0.749537 10.000000
2.494570 5.775674 0.329717 80.000000
1.405870 3.255008 -0.689202 3.000000
2.468155 5.711776 0.544375 85.000000
1.527006 3.532084 -0.609469 8.000000
2.446128 5.655381 0.756565 80.000000
1.686334 3.896890 -0.521357 4.000000
2.430629 5.614161 0.968955 100.000000
1.863409 4.304021 -0.410329 3.000000
2.400297 5.541457 1.173857 86.000000
2.098187 4.841672 -0.276543 3.000000
2.386025 5.503232 1.384799 89.000000
2.396080 5.523789 -0.105098 2.000000
2.357250 5.431675 1.586561 92.000000
1.203924 2.764875 -0.808033 7.000000
2.526152 5.798677 0.110404 68.000000
1.299513 2.981557 -0.750887 7.000000
2.509129 5.754115 0.328984 82.000000
1.413300 3.241082 -0.687294 7.000000
2.484095 5.693995 0.543503 78.000000
1.540906 3.530353 -0.610094 7.000000
2.461089 5.635892 0.755103 84.000000
1.699927 3.890980 -0.521357 4.000000
2.442299 5.587543 0.965827 99.000000
1.872037 4.282887 -0.408935 3.000000
2.419627 5.533044 1.173857 89.000000
2.115076 4.834318 -0.276543 1.000000
2.401312 5.485944 1.382549 80.000000
2.416953 5.519054 -0.105168 2.000000
2.383174 5.439339 1.591220 99.000000
1.218232 2.771267 -0.811139 7.000000
2.545571 5.787993 0.110369 95.000000
1.311482 2.980570 -0.751786 7.000000
2.522760 5.730698 0.328146 88.000000
1.426978 3.241520 -0.688439 11.000000
2.505561 5.688936 0.543852 82.000000
1.551626 3.521338 -0.609469 7.000000
2.481550 5.629083 0.755346 77.000000
1.705487 3.866859 -0.518920 5.000000
2.458597 5.571755 0.964575 97.000000
1.890192 4.283617 -0.409632 3.000000
2.438928 5.524563 1.173857 89.000000
2.131938 4.826906 -0.276543 1.000000
2.412569 5.459704 1.378050 78.000000
2.426502 5.488636 -0.104749 2.000000
2.391987 5.408020 1.584490 91.000000
1.223197 2.756403 -0.808033 9.000000
2.564950 5.777244 0.110334 100.000000
1.321877 2.975974 -0.751786 6.000000
2.537884 5.710906 0.327518 90.000000
1.435096 3.229342 -0.686912 11.000000
2.517311 5.661949 0.542109 82.000000
1.567119 3.523120 -0.610720 7.000000
2.497147 5.611319 0.754128 82.000000
1.720590 3.864509 -0.519407 5.000000
2.472404 5.550508 0.962385 100.000000
1.901890 4.269714 -0.408935 3.000000
2.455799 5.510637 1.172712 92.000000
2.145521 4.812138 -0.276125 1.000000
2.431614 5.451249 1.378050 85.000000
2.445645 5.480133 -0.104749 2.000000
2.413214 5.404928 1.586043 100.000000
1.232021 2.750353 -0.807515 9.000000
2.572832 5.740884 0.109811 100.000000
1.332258 2.971342 -0.751786 6.000000
2.560075 5.709749 0.327937 86.000000
1.439930 3.209983 -0.683859 10.000000
2.532164 5.642222 0.541063 83.000000
1.574554 3.506816 -0.608843 7.000000
2.519971 5.609811 0.755103 78.000000
1.730814 3.851237 -0.518432 5.000000
2.487559 5.535071 0.961133 100.000000
1.916783 4.263049 -0.408935 3.000000
2.462937 5.475175 1.166988 76.000000
2.159026 4.797334 -0.275706 1.000000
2.452226 5.446282 1.378950 78.000000
2.453951 5.450113 -0.104330 2.000000
2.419224 5.370475 1.578279 92.000000
1.243205 2.749557 -0.808551 9.000000
2.590206 5.728677 0.109741 99.000000
1.337286 2.956254 -0.749087 6.000000
2.575051 5.689859 0.327309 91.000000
1.458414 3.221034 -0.687294 11.000000
2.551845 5.633348 0.541063 78.000000
1.579654 3.487180 -0.606340 7.000000
2.529548 5.581534 0.752421 75.000000
1.745214 3.849093 -0.518920 5.000000
2.505234 5.522756 0.960508 92.000000
1.928360 4.249074 -0.408237 3.000000
2.485138 5.475915 1.168896 92.000000
2.169968 4.779237 -0.275078 1.000000
2.466245 5.429248 1.376701 80.000000
2.479581 5.456077 -0.104610 2.000000
2.445148 5.377826 1.582937 99.000000
1.249912 2.740146 -0.806998 7.000000
2.606868 5.712322 0.109601 100.000000
1.341121 2.937386 -0.745488 6.000000
2.593236 5.677204 0.327100 84.000000
1.471535 3.221537 -0.688439 10.000000
2.568855 5.621231 0.540714 78.000000
1.596745 3.492424 -0.608217 7.000000
2.546538 5.567255 0.751690 78.000000
1.752032 3.828537 -0.516970 4.000000
2.526140 5.517570 0.961133 100.000000
1.947415 4.253526 -0.409283 3.000000
2.496878 5.451143 1.165461 82.000000
2.186638 4.771633 -0.275078 3.000000
2.480310 5.409977 1.374001 84.000000
2.495275 5.440118 -0.104470 4.000000
2.461490 5.363990 1.581384 99.000000
1.257854 2.732256 -0.805963 9.000000
2.625118 5.699557 0.109531 100.000000
1.357890 2.946846 -0.749087 6.000000
2.606349 5.653605 0.326262 88.000000
1.471265 3.191420 -0.683096 7.000000
2.585121 5.604993 0.540017 82.000000
1.608925 3.486830 -0.608217 7.000000
2.563461 5.552925 0.750959 73.000000
1.763722 3.818793 -0.516482 4.000000
2.537926 5.492580 0.958318 99.000000
1.955564 4.232233 -0.407889 3.000000
2.520835 5.453086 1.167751 86.000000
2.198252 4.753094 -0.274450 1.000000
2.494266 5.390676 1.371302 80.000000
2.497450 5.395081 -0.103772 2.000000
2.475329 5.344847 1.578279 92.000000
1.262498 2.717338 -0.802857 7.000000
2.644155 5.688544 0.109496 90.000000
1.366526 2.938554 -0.748187 6.000000
2.626064 5.644475 0.326262 91.000000
1.480738 3.182705 -0.682333 7.000000
2.596265 5.577871 0.538274 78.000000
1.621087 3.481191 -0.608217 7.000000
2.583663 5.545744 0.751203 78.000000
1.777040 3.812613 -0.516482 4.000000
2.551241 5.471155 0.956128 95.000000
1.965275 4.214546 -0.406843 3.000000
2.538191 5.440697 1.166988 89.000000
2.218208 4.752632 -0.274868 1.000000
2.513069 5.381936 1.371302 80.000000
2.524732 5.404447 -0.104121 2.000000
2.494788 5.337925 1.578796 99.000000
1.273616 2.716412 -0.803892 7.000000
2.660601 5.672037 0.109357 99.000000
1.371807 2.923182 -0.745488 6.000000
2.644055 5.631658 0.326053 86.000000
1.496846 3.188179 -0.684623 7.000000
2.614027 5.565168 0.537925 78.000000
1.626507 3.461210 -0.605714 7.000000
2.601318 5.533098 0.750715 82.000000
1.786959 3.799201 -0.515507 4.000000
2.570322 5.462217 0.956128 100.000000
1.978277 4.204055 -0.406494 3.000000
2.552151 5.421145 1.164698 89.000000
2.227977 4.730403 -0.274031 1.000000
2.529347 5.367843 1.369952 78.000000
2.533346 5.373898 -0.103702 4.000000
2.506814 5.315205 1.574655 98.000000
1.280613 2.706711 -0.802339 9.000000
2.674391 5.650065 0.109112 92.000000
1.382837 2.920136 -0.745938 6.000000
2.665409 5.626003 0.326262 90.000000
1.508807 3.184709 -0.685004 5.000000
2.631726 5.552410 0.537577 77.000000
1.636887 3.451941 -0.605089 7.000000
2.614661 5.511429 0.749009 77.000000
1.801910 3.796529 -0.515995 4.000000
2.591069 5.456779 0.956753 95.000000
2.001487 4.215122 -0.408237 3.000000
2.562636 5.394470 1.160882 89.000000
2.239329 4.711777 -0.273403 1.000000
2.550581 5.364261 1.371302 84.000000
2.550372 5.361409 -0.103632 4.000000
2.522858 5.301191 1.573102 96.000000
1.294214 2.710941 -0.804927 7.000000
2.693237 5.638890 0.109078 95.000000
1.391342 2.911775 -0.745038 6.000000
2.676415 5.598646 0.325216 88.000000
1.523301 3.186509 -0.686531 6.000000
2.652813 5.546784 0.537925 85.000000
1.650633 3.449769 -0.605714 7.000000
2.627026 5.487945 0.747059 77.000000
1.810008 3.779473 -0.514532 4.000000
2.611810 5.451264 0.957379 100.000000
2.004137 4.182954 -0.405797 3.000000
2.578904 5.380181 1.159737 84.000000
2.248855 4.689523 -0.272566 1.000000
2.562548 5.341268 1.367702 84.000000
2.569071 5.352475 -0.103632 4.000000
2.538004 5.285385 1.571032 89.000000
1.306185 2.711628 -0.806480 9.000000
2.712903 5.629456 0.109078 99.000000
1.403188 2.910412 -0.745938 7.000000
2.689002 5.574877 0.324378 90.000000
1.525886 3.163488 -0.682715 5.000000
2.672157 5.537490 0.537925 77.000000
1.660945 3.440430 -0.605089 7.000000
2.647032 5.480528 0.747303 78.000000
1.821463 3.769557 -0.514045 3.000000
2.622221 5.424331 0.954250 95.000000
2.027395 4.193871 -0.407540 4.000000
2.600234 5.376448 1.160882 86.000000
2.268691 4.688836 -0.272984 1.000000
2.576079 5.321768 1.365003 84.000000
2.580767 5.329076 -0.103353 2.000000
2.561493 5.286924 1.574137 92.000000
1.312264 2.700102 -0.804410 9.000000
2.729915 5.614556 0.108973 78.000000
1.412488 2.903743 -0.745488 7.000000
2.710192 5.569049 0.324588 82.000000
1.528328 3.140490 -0.678898 5.000000
2.684494 5.513798 0.536531 81.000000
1.676405 3.441714 -0.606340 7.000000
2.665275 5.469471 0.747059 77.000000
1.834610 3.763176 -0.514045 3.000000
2.635080 5.402716 0.952060 97.000000
2.029795 4.161698 -0.405100 3.000000
2.618985 5.367339 1.160882 86.000000
2.283291 4.677299 -0.272775 1.000000
2.596351 5.316245 1.365903 89.000000
2.589698 5.300270 -0.102969 4.000000
2.571448 5.260596 1.568961 96.000000
1.316577 2.685098 -0.801304 9.000000
2.741572 5.588834 0.108659 95.000000
1.428624 2.911041 -0.748637 9.000000
2.726884 5.556446 0.324378 88.000000
1.541876 3.140423 -0.680043 3.000000
2.698456 5.493662 0.535485 75.000000
1.679696 3.418113 -0.603211 7.000000
2.681722 5.454790 0.746328 80.000000
1.852333 3.767760 -0.515507 4.000000
2.653854 5.395720 0.952373 95.000000
2.044309 4.154588 -0.405100 3.000000
2.632503 5.347596 1.158592 81.000000
2.296076 4.662132 -0.272356 1.000000
2.608802 5.297116 1.363203 82.000000
2.603722 5.284480 -0.102830 4.000000
2.585463 5.245108 1.566891 91.000000
1.323763 2.677254 -0.800269 9.000000
2.754769 5.568957 0.108449 95.000000
1.427034 2.883582 -0.742788 7.000000
2.743525 5.543792 0.324169 82.000000
1.558380 3.147608 -0.682715 5.000000
2.714889 5.481114 0.535136 85.000000
1.692777 3.416063 -0.603837 7.000000
2.694508 5.435195 0.744866 82.000000
1.864818 3.761596 -0.515507 3.000000
2.669099 5.381581 0.951435 99.000000
2.056305 4.144216 -0.404751 3.000000
2.644110 5.326527 1.155921 79.000000
2.306192 4.643760 -0.271728 1.000000
2.629819 5.295417 1.365003 84.000000
2.622123 5.277607 -0.102864 2.000000
2.600261 5.231316 1.565338 91.000000
1.336081 2.679765 -0.802339 9.000000
2.770542 5.554424 0.108345 100.000000
1.434847 2.875347 -0.741889 9.000000
2.756541 5.523941 0.323541 88.000000
1.566178 3.137154 -0.681570 7.000000
2.734832 5.475645 0.535485 77.000000
1.698797 3.399829 -0.601960 8.000000
2.708968 5.419127 0.743891 78.000000
1.868407 3.737635 -0.513070 4.000000
2.686931 5.372700 0.951435 97.000000
2.069144 4.135593 -0.404577 4.000000
2.659125 5.312462 1.154776 81.000000
2.307271 4.607513 -0.270054 1.000000
2.641258 5.274469 1.361854 92.000000
2.638712 5.267095 -0.102830 4.000000
2.620193 5.227845 1.566891 92.000000
1.348431 2.682223 -0.804410 9.000000
2.792539 5.552352 0.108484 100.000000
1.445251 2.872313 -0.742338 9.000000
2.771255 5.507632 0.323122 86.000000
1.568628 3.116160 -0.678135 8.000000
2.747594 5.455871 0.534439 81.000000
1.709174 3.392412 -0.601647 8.000000
2.725135 5.406570 0.743403 82.000000
1.880790 3.731419 -0.513070 4.000000
2.698503 5.351415 0.949244 100.000000
2.083745 4.130487 -0.404751 4.000000
2.675841 5.301863 1.154395 84.000000
2.329738 4.614100 -0.270891 1.000000
2.649950 5.248286 1.357355 91.000000
2.647150 5.240467 -0.102481 4.000000
2.635772 5.215679 1.565855 92.000000
1.349978 2.659799 -0.799233 9.000000
2.812934 5.539805 0.108449 95.000000
1.460682 2.875430 -0.744588 7.000000
2.790572 5.493390 0.322913 84.000000
1.581472 3.111864 -0.678517 7.000000
2.766718 5.441728 0.534090 81.000000
1.724874 3.391107 -0.602586 7.000000
2.745876 5.396065 0.743403 84.000000
1.899355 3.730916 -0.514045 4.000000
2.713655 5.330451 0.947367 100.000000
2.097780 4.118906 -0.404403 4.000000
2.697072 5.293298 1.154776 86.000000
2.345623 4.601562 -0.270682 3.000000
2.670996 5.237607 1.357355 89.000000
2.669976 5.235609 -0.102585 4.000000
2.647001 5.188311 1.560679 96.000000
1.359252 2.655071 -0.799233 9.000000
2.823087 5.514427 0.108135 78.000000
1.471098 2.872305 -0.745038 9.000000
2.813375 5.490726 0.323332 86.000000
1.587845 3.097590 -0.676609 8.000000
2.776607 5.414308 0.532347 82.000000
1.736110 3.385368 -0.602586 7.000000
2.763754 5.386931 0.743403 82.000000
1.908090 3.717533 -0.513070 4.000000
2.734052 5.324461 0.947993 100.000000
2.106683 4.100924 -0.403357 3.000000
2.712815 5.280833 1.154013 81.000000
2.359043 4.590206 -0.270472 1.000000
2.686568 5.225254 1.356455 87.000000
2.689152 5.228034 -0.102620 4.000000
2.663324 5.175606 1.559644 92.000000
1.373366 2.660849 -0.802339 10.000000
2.835898 5.492101 0.107891 73.000000
1.473961 2.853301 -0.741439 9.000000
2.828855 5.473774 0.322913 84.000000
1.602616 3.101028 -0.678517 7.000000
2.796375 5.408611 0.532696 78.000000
1.741565 3.367005 -0.600396 8.000000
2.775241 5.363146 0.741453 78.000000
1.921056 3.710850 -0.513070 5.000000
2.752623 5.314884 0.947993 100.000000
2.115485 4.082931 -0.402311 3.000000
2.722199 5.253900 1.150197 89.000000
2.375052 4.581943 -0.270472 1.000000
2.706588 5.219304 1.357355 89.000000
2.698174 5.200865 -0.102271 4.000000
2.680485 5.164562 1.559126 89.000000
1.375970 2.642091 -0.798198 9.000000
2.858745 5.489263 0.108030 83.000000
1.483010 2.846411 -0.740989 7.000000
2.840561 5.449697 0.322076 90.000000
1.613064 3.093392 -0.678135 8.000000
2.818022 5.401859 0.533045 82.000000
1.757549 3.367604 -0.601647 8.000000
2.787518 5.341107 0.739747 85.000000
1.924811 3.686523 -0.510633 5.000000
2.769325 5.301743 0.947367 100.000000
2.143567 4.102009 -0.404926 4.000000
2.738710 5.238667 1.149052 84.000000
2.388126 4.566128 -0.270054 1.000000
2.716663 5.192083 1.352856 85.000000
2.724658 5.207361 -0.102585 2.000000
2.702081 5.162020 1.561196 89.000000
1.392372 2.650953 -0.802339 10.000000
2.876056 5.473438 0.107926 87.000000
1.492525 2.839232 -0.740539 9.000000
2.856797 5.432179 0.321657 86.000000
1.628421 3.096431 -0.680043 7.000000
2.836862 5.391989 0.533045 82.000000
1.770211 3.363199 -0.601960 8.000000
2.811698 5.339637 0.740966 82.000000
1.936459 3.675932 -0.510145 4.000000
2.783216 5.281070 0.945490 100.000000
2.148585 4.076875 -0.403182 4.000000
2.759725 5.234286 1.150197 86.000000
2.398461 4.547164 -0.269426 1.000000
2.734772 5.182568 1.352856 85.000000
2.739990 5.190267 -0.102446 2.000000
2.717373 5.145249 1.559126 91.000000
1.394383 2.632419 -0.798198 11.000000
2.897016 5.466899 0.107995 76.000000
1.504253 2.837448 -0.741439 9.000000
2.875742 5.422173 0.321657 86.000000
1.632781 3.078586 -0.677372 8.000000
2.846326 5.364454 0.531301 81.000000
1.782867 3.358743 -0.602273 8.000000
2.828460 5.326283 0.740478 82.000000
1.953003 3.676163 -0.511120 4.000000
2.797922 5.264347 0.944239 100.000000
2.155319 4.055276 -0.401788 4.000000
2.777981 5.224620 1.150197 86.000000
2.419946 4.549345 -0.270054 1.000000
2.752842 5.172991 1.352856 89.000000
2.743056 5.152427 -0.101887 2.000000
2.731686 5.128911 1.557055 91.000000
1.398100 2.617313 -0.795092 11.000000
2.909485 5.444407 0.107751 85.000000
1.514149 2.832179 -0.741439 9.000000
2.892767 5.408580 0.321447 88.000000
1.640739 3.067675 -0.676227 7.000000
2.863156 5.350972 0.530953 75.000000
1.792717 3.349015 -0.601647 8.000000
2.846096 5.314628 0.740234 85.000000
1.967699 3.672822 -0.511608 5.000000
2.816282 5.254548 0.944239 100.000000
2.168521 4.045972 -0.401614 3.000000
2.793417 5.209702 1.149052 92.000000
2.435812 4.540869 -0.270054 1.000000
2.765355 5.153047 1.350156 89.000000
2.762916 5.146345 -0.101957 2.000000
2.744087 5.109134 1.553950 91.000000
1.412726 2.622621 -0.798198 10.000000
2.925627 5.428936 0.107646 76.000000
1.523100 2.825161 -0.740989 7.000000
2.910679 5.396692 0.321343 91.000000
1.652369 3.063657 -0.676609 8.000000
2.878980 5.335683 0.530430 78.000000
1.795012 3.325355 -0.598518 8.000000
2.858970 5.294181 0.738772 87.000000
1.978622 3.662438 -0.511120 4.000000
2.834606 5.244685 0.944239 100.000000
2.179789 4.033120 -0.401091 4.000000
2.805048 5.187831 1.146381 89.000000
2.438346 4.507744 -0.268588 1.000000
2.784252 5.145077 1.350606 85.000000
2.790382 5.154256 -0.102306 2.000000
2.759145 5.094427 1.552397 89.000000
1.420027 2.614279 -0.797163 10.000000
2.943604 5.416934 0.107612 83.000000
1.523646 2.802706 -0.736490 9.000000
2.925699 5.381745 0.321029 91.000000
1.661177 3.054421 -0.675846 8.000000
2.896634 5.323852 0.530255 82.000000
1.808499 3.322538 -0.599144 8.000000
2.873636 5.277195 0.737797 85.000000
1.979997 3.634591 -0.508195 5.000000
2.848204 5.228317 0.942987 100.000000
2.199575 4.035983 -0.402137 4.000000
2.824080 5.179730 1.146762 92.000000
2.452152 4.495699 -0.268379 1.000000
2.806864 5.143879 1.352856 92.000000
2.811292 5.151995 -0.102446 2.000000
2.777874 5.088642 1.553432 91.000000
1.434713 2.619472 -0.800269 9.000000
2.960589 5.405390 0.107577 87.000000
1.537613 2.806184 -0.738739 9.000000
2.936786 5.357490 0.320191 91.000000
1.671828 3.048604 -0.675846 8.000000
2.917116 5.317203 0.530604 82.000000
1.821406 3.319987 -0.599770 8.000000
2.889209 5.264157 0.737310 85.000000
1.992038 3.628005 -0.508195 4.000000
2.861680 5.209687 0.941423 99.000000
2.210772 4.023041 -0.401614 3.000000
2.835570 5.160013 1.144472 79.000000
2.467046 4.487543 -0.268379 1.000000
2.811697 5.112347 1.347007 84.000000
2.813836 5.114117 -0.101887 2.000000
2.796551 5.080607 1.553950 91.000000
1.439658 2.607934 -0.798198 10.000000
2.980408 5.396772 0.107612 95.000000
1.548341 2.802505 -0.739189 9.000000
2.955470 5.347205 0.320191 91.000000
1.680030 3.039606 -0.675082 8.000000
2.928949 5.297038 0.529558 81.000000
1.836808 3.320524 -0.601021 8.000000
2.906607 5.252302 0.737066 82.000000
2.006615 3.624503 -0.508683 4.000000
2.874105 5.189299 0.939546 100.000000
2.206722 3.984316 -0.398476 4.000000
2.856418 5.155236 1.145617 86.000000
2.482697 4.478903 -0.268379 3.000000
2.827633 5.099092 1.346107 79.000000
2.827789 5.097270 -0.101748 4.000000
2.803957 5.052233 1.548256 89.000000
1.443114 2.592765 -0.795092 9.000000
2.991444 5.372359 0.107332 95.000000
1.562857 2.805595 -0.741439 10.000000
2.978005 5.343835 0.320610 88.000000
1.690630 3.033724 -0.675082 8.000000
2.943540 5.279821 0.528861 81.000000
1.837804 3.295114 -0.597580 8.000000
2.924922 5.242125 0.737066 84.000000
2.019253 3.617476 -0.508683 4.000000
2.896055 5.186132 0.940797 97.000000
2.224504 3.983547 -0.399173 4.000000
2.870564 5.138378 1.144091 82.000000
2.502212 4.477184 -0.268797 1.000000
2.853025 5.102798 1.349706 89.000000
2.847518 5.090858 -0.101817 2.000000
2.822518 5.044101 1.548773 43.000000
1.448374 2.580974 -0.793022 9.000000
3.009202 5.360140 0.107297 87.000000
1.565007 2.786530 -0.737839 10.000000
2.995661 5.331666 0.320505 91.000000
1.703132 3.031227 -0.675846 8.000000
2.958048 5.262566 0.528164 81.000000
1.846392 3.283513 -0.596641 8.000000
2.934442 5.216312 0.734872 77.000000
2.037711 3.620785 -0.510145 5.000000
2.914142 5.175991 0.940797 100.000000
2.238396 3.975757 -0.399173 4.000000
2.885592 5.123196 1.142946 78.000000
2.515866 4.464942 -0.268588 1.000000
2.878476 5.106388 1.353306 24.000000
2.871161 5.091340 -0.102027 2.000000
2.884723 5.113297 1.573102 19.000000
