# This PCD file was generated using the MATLAB® pcwrite function
# from Computer Vision Toolbox®.
# .PCD v.7 - Point Cloud Data file format
VERSION .7
FIELDS x y z intensity
SIZE 4 4 4 4
TYPE F F F F
COUNT 1 1 1 1
WIDTH 1277
HEIGHT 1
VIEWPOINT 0 0 0 1 0 0 0
POINTS 1277
DATA ascii
2.300700 1.805927 -0.783704 13.000000
1.312049 1.029517 0.029111 100.000000
1.401456 1.099278 -0.411211 1.000000
1.339099 1.049989 0.089180 90.000000
1.178799 0.924297 -0.291175 8.000000
1.367380 1.071777 0.152000 91.000000
1.200397 0.940556 -0.241535 100.000000
1.395562 1.093082 0.217659 86.000000
1.220698 0.955774 -0.190360 100.000000
1.406223 1.100640 0.282834 90.000000
1.236335 0.967670 -0.137357 100.000000
1.454994 1.138403 0.359103 83.000000
1.274306 0.996672 -0.084784 100.000000
8.047565 6.291976 2.358387 14.000000
1.271482 0.993749 -0.028168 97.000000
8.010448 6.258446 2.723812 18.000000
2.310038 1.800259 -0.784739 11.000000
1.309324 1.020016 0.028971 100.000000
2.484618 1.934919 -0.727042 9.000000
1.347485 1.048988 0.089494 87.000000
1.392706 1.084192 -0.343075 1.000000
1.361678 1.059657 0.150954 87.000000
1.194318 0.929082 -0.239658 100.000000
1.399369 1.088203 0.217659 82.000000
1.224026 0.951508 -0.190360 100.000000
1.413176 1.098148 0.283459 85.000000
1.227120 0.953568 -0.135963 100.000000
1.449657 1.126091 0.356813 81.000000
1.276200 0.990993 -0.084680 100.000000
7.935554 6.159885 2.319245 14.000000
1.281263 0.994208 -0.028308 95.000000
7.894862 6.123884 2.677224 17.000000
2.316308 1.792185 -0.784739 11.000000
1.312876 1.015439 0.028971 100.000000
2.488273 1.923850 -0.726142 10.000000
1.347795 1.042071 0.089285 87.000000
1.523859 1.177772 -0.374367 1.000000
1.370098 1.058551 0.151477 83.000000
1.197554 0.924907 -0.239658 100.000000
1.390589 1.073607 0.215709 80.000000
1.227175 0.947443 -0.190360 100.000000
1.426192 1.100698 0.285336 83.000000
1.238328 0.955363 -0.136835 100.000000
1.447360 1.116228 0.355286 83.000000
1.270161 0.979216 -0.084052 100.000000
7.804688 6.016935 2.275155 15.000000
1.287721 0.992394 -0.028378 100.000000
7.769740 5.985669 2.628049 19.000000
2.322238 1.784494 -0.784739 11.000000
1.314651 1.009861 0.028936 98.000000
2.491547 1.913215 -0.725242 9.000000
1.344907 1.032730 0.088866 87.000000
1.527756 1.172713 -0.374367 1.000000
1.378343 1.057640 0.152000 91.000000
1.203749 0.923336 -0.240283 100.000000
1.390991 1.066574 0.215221 80.000000
1.224009 0.938537 -0.189385 100.000000
1.426699 1.093558 0.284711 90.000000
1.243070 0.952464 -0.137009 100.000000
1.446378 1.107841 0.354142 78.000000
1.267058 0.970141 -0.083633 100.000000
7.688439 5.886765 2.235564 15.000000
1.291004 0.988119 -0.028378 100.000000
7.663737 5.863610 2.585603 19.000000
2.334286 1.781471 -0.786810 12.000000
1.317992 1.005496 0.028936 98.000000
2.497879 1.904942 -0.725242 9.000000
1.343739 1.024397 0.088552 90.000000
1.544127 1.177162 -0.377420 1.000000
1.381843 1.053064 0.152000 87.000000
1.206804 0.919339 -0.240283 100.000000
1.400837 1.066766 0.216196 82.000000
1.225698 0.933056 -0.189141 100.000000
1.424219 1.083787 0.283459 87.000000
1.246222 0.948337 -0.137009 100.000000
1.459419 1.110170 0.356431 89.000000
1.273448 0.968352 -0.083842 100.000000
7.556902 5.744323 2.191473 15.000000
1.288077 0.978767 -0.028238 95.000000
7.556472 5.739835 2.542638 18.000000
2.337411 1.770978 -0.785775 11.000000
1.323088 1.002097 0.028971 100.000000
2.507620 1.898564 -0.726142 10.000000
1.350492 1.022110 0.088762 90.000000
1.535703 1.162286 -0.374367 1.000000
1.377566 1.042223 0.151128 83.000000
1.210006 0.915120 -0.240283 100.000000
1.401386 1.059475 0.215709 80.000000
1.227364 0.927575 -0.188898 100.000000
1.415385 1.069283 0.280956 87.000000
1.239987 0.936774 -0.135963 100.000000
1.464852 1.106252 0.356813 81.000000
1.276820 0.963902 -0.083842 100.000000
7.455579 5.626346 2.156381 16.000000
1.285100 0.969448 -0.028098 97.000000
7.440726 5.611067 2.497086 20.000000
2.337403 1.758164 -0.783704 11.000000
1.320185 0.992665 0.028831 100.000000
2.526694 1.899166 -0.729741 10.000000
1.358663 1.021226 0.089076 94.000000
1.558586 1.171070 -0.378947 1.000000
1.379603 1.036212 0.150954 87.000000
1.206874 0.906147 -0.239032 100.000000
1.414601 1.061727 0.217171 82.000000
1.233770 0.925668 -0.189385 100.000000
1.425243 1.069325 0.282208 90.000000
1.244843 0.933636 -0.136137 100.000000
1.460850 1.095244 0.354905 78.000000
1.286570 0.964230 -0.084261 100.000000
7.355083 5.510320 2.121738 19.000000
1.291508 0.967579 -0.028168 100.000000
7.321674 5.483295 2.451016 21.000000
2.346622 1.752305 -0.784739 11.000000
1.318663 0.984692 0.028727 100.000000
2.523608 1.883783 -0.727042 9.000000
1.362220 1.016478 0.089076 92.000000
1.540633 1.149189 -0.373604 2.000000
1.384808 1.032581 0.151128 83.000000
1.208289 0.900959 -0.238719 100.000000
1.408565 1.049912 0.215709 80.000000
1.243200 0.926315 -0.190360 100.000000
1.428968 1.064343 0.282208 83.000000
1.244898 0.926906 -0.135789 100.000000
1.453451 1.082186 0.352233 40.000000
1.280147 0.952803 -0.083633 100.000000
7.252930 5.396326 2.087096 16.000000
1.298087 0.965452 -0.028238 100.000000
7.227597 5.373560 2.413229 21.000000
2.355523 1.746816 -0.785775 11.000000
1.320485 0.978893 0.028692 100.000000
2.523906 1.870320 -0.725242 9.000000
1.362550 1.009338 0.088866 94.000000
1.550745 1.148748 -0.375131 2.000000
1.389826 1.029169 0.151302 85.000000
1.213014 0.897911 -0.239032 100.000000
1.405838 1.040266 0.214734 75.000000
1.236850 0.914888 -0.188898 100.000000
1.437439 1.062873 0.283146 93.000000
1.255975 0.928695 -0.136660 100.000000
7.177164 5.305009 1.734835 18.000000
1.283465 0.948329 -0.083633 100.000000
7.147888 5.279513 2.051554 17.000000
1.301449 0.960914 -0.028238 97.000000
7.128180 5.261112 2.373888 21.000000
2.364718 1.740874 -0.786810 12.000000
1.330337 0.979018 0.028831 100.000000
2.533559 1.863808 -0.726142 9.000000
1.353193 0.995110 0.088029 94.000000
2.756787 2.027285 -0.665160 7.000000
1.390199 1.021951 0.150954 87.000000
1.216142 0.893671 -0.239032 95.000000
1.409461 1.035352 0.214734 82.000000
1.227236 0.901165 -0.186948 100.000000
1.429994 1.049666 0.280956 87.000000
1.259210 0.924305 -0.136660 100.000000
7.086421 5.199786 1.708504 23.000000
1.280326 0.939118 -0.083214 100.000000
7.043693 5.164647 2.016461 17.000000
1.295118 0.949273 -0.028029 97.000000
7.046767 5.163126 2.340760 21.000000
2.373900 1.734888 -0.787845 11.000000
1.333746 0.974368 0.028831 100.000000
2.546344 1.859552 -0.727942 9.000000
1.359885 0.992736 0.088238 94.000000
2.763847 2.017649 -0.665160 7.000000
1.390540 1.014742 0.150605 85.000000
1.214465 0.885929 -0.238093 46.000000
1.422690 1.037443 0.216196 78.000000
1.243207 0.906230 -0.188898 100.000000
1.427262 1.040016 0.279705 90.000000
1.251156 0.911691 -0.135440 100.000000
7.009316 5.105661 1.685607 23.000000
1.290054 0.939345 -0.083633 100.000000
6.960838 5.066637 1.987668 17.000000
1.293573 0.941217 -0.027924 100.000000
6.939764 5.047587 2.299349 22.000000
2.373685 1.722055 -0.785775 10.000000
1.333902 0.967359 0.028762 100.000000
2.565442 1.859802 -0.731541 9.000000
1.373045 0.995014 0.088866 96.000000
2.775643 2.011445 -0.666305 9.000000
1.387619 1.005207 0.149908 85.000000
1.223950 0.886318 -0.239345 10.000000
1.423087 1.030143 0.215709 80.000000
1.243147 0.899558 -0.188410 100.000000
1.438887 1.040815 0.281269 93.000000
1.251103 0.904982 -0.135091 100.000000
6.896641 4.986832 1.654314 22.000000
1.296563 0.937177 -0.083842 100.000000
6.871073 4.964697 1.957074 17.000000
1.301714 0.940208 -0.028029 100.000000
6.844569 4.941911 2.262079 22.000000
2.385953 1.718274 -0.787845 11.000000
1.332402 0.959192 0.028657 100.000000
2.565591 1.846283 -0.729741 9.000000
1.373267 0.987884 0.088657 96.000000
2.784240 2.002892 -0.666687 7.000000
1.394355 1.002684 0.150256 89.000000
3.001027 2.157253 -0.585378 7.000000
1.420225 1.020536 0.214734 82.000000
1.249504 0.897529 -0.188898 100.000000
1.440907 1.034634 0.280956 87.000000
1.257648 0.902715 -0.135440 100.000000
6.792789 4.875727 1.625311 24.000000
1.293335 0.927987 -0.083424 100.000000
6.780682 4.863447 1.926481 21.000000
1.304988 0.935659 -0.028029 100.000000
6.764426 4.848213 2.229985 22.000000
2.398521 1.714011 -0.789916 11.000000
1.334114 0.953373 0.028622 100.000000
2.565677 1.832784 -0.727942 9.000000
1.370206 0.978441 0.088238 92.000000
2.794758 1.994954 -0.667450 7.000000
1.398020 0.997567 0.150256 89.000000
3.010522 2.147385 -0.585691 7.000000
1.414083 1.008656 0.213271 76.000000
1.246164 0.888552 -0.187923 100.000000
1.447726 1.031891 0.281582 87.000000
1.268905 0.904099 -0.136312 100.000000
6.717866 4.784737 1.603177 22.000000
1.290220 0.918607 -0.083005 100.000000
6.703200 4.770765 1.899487 18.000000
1.308246 0.931098 -0.028029 100.000000
6.678992 4.751775 2.196338 23.000000
2.407642 1.707863 -0.790951 11.000000
1.340863 0.950789 0.028692 100.000000
2.578737 1.827876 -0.729741 9.000000
1.376871 0.975962 0.088448 96.000000
2.808112 1.989727 -0.668976 8.000000
1.404746 0.994983 0.150605 89.000000
3.027672 2.143713 -0.587568 7.000000
1.427492 1.010347 0.214734 82.000000
1.239689 0.877099 -0.186460 100.000000
1.448095 1.024549 0.280956 87.000000
1.268800 0.897364 -0.135963 100.000000
6.636739 4.692124 1.579899 25.000000
1.296681 0.916403 -0.083214 100.000000
6.621132 4.677625 1.871593 18.000000
1.304955 0.921910 -0.027889 97.000000
6.602432 4.662686 2.165798 26.000000
2.410430 1.697223 -0.789916 11.000000
1.347278 0.948641 0.028762 100.000000
2.581597 1.817071 -0.728841 9.000000
1.373736 0.966553 0.088029 98.000000
2.798982 1.968618 -0.665160 7.000000
1.398431 0.983199 0.149559 85.000000
3.037997 2.135932 -0.588194 7.000000
1.430835 1.005607 0.214734 82.000000
1.249088 0.877548 -0.187435 100.000000
1.438730 1.010406 0.278453 85.000000
1.262141 0.886060 -0.134917 100.000000
6.563887 4.608045 1.558910 25.000000
1.302982 0.914393 -0.083424 100.000000
6.520148 4.573943 1.838750 21.000000
1.304891 0.915053 -0.027819 100.000000
6.517427 4.568640 2.132669 23.000000
2.406545 1.682579 -0.786810 10.000000
1.340747 0.937059 0.028552 100.000000
2.597509 1.814745 -0.731541 9.000000
1.383651 0.966326 0.088448 94.000000
2.815153 1.966069 -0.667450 7.000000
1.398416 0.976275 0.149211 89.000000
3.051913 2.129837 -0.589445 7.000000
1.434336 1.000606 0.214734 86.000000
1.258657 0.877725 -0.188410 100.000000
1.442248 1.005378 0.278453 85.000000
1.265072 0.881870 -0.134917 100.000000
6.476846 4.513269 1.534486 25.000000
1.309443 0.912123 -0.083633 100.000000
6.467306 4.503273 1.819404 18.000000
1.313001 0.913919 -0.027924 100.000000
6.428674 4.473042 2.098505 23.000000
2.418752 1.678573 -0.788880 10.000000
1.337438 0.927813 0.028413 100.000000
2.600625 1.803447 -0.730641 9.000000
1.387016 0.961490 0.088448 98.000000
2.825225 1.958468 -0.668213 8.000000
1.405091 0.973657 0.149559 85.000000
3.049586 2.112423 -0.587568 7.000000
1.428028 0.988813 0.213271 82.000000
1.264977 0.875585 -0.188898 100.000000
1.450622 1.003709 0.279392 93.000000
1.261589 0.872914 -0.134220 100.000000
6.387606 4.418043 1.509681 25.000000
1.306048 0.903003 -0.083214 100.000000
6.381991 4.410866 1.791060 21.000000
1.316183 0.909331 -0.027924 100.000000
6.371128 4.400073 2.074694 26.000000
2.430960 1.674504 -0.790951 11.000000
1.343962 0.925408 0.028482 100.000000
2.603694 1.792148 -0.729741 9.000000
1.387073 0.954379 0.088238 94.000000
2.838514 1.953046 -0.669740 8.000000
1.411764 0.971005 0.149908 87.000000
3.066708 2.108479 -0.589445 7.000000
1.424927 0.979325 0.212296 82.000000
1.254937 0.862172 -0.186948 100.000000
1.460630 1.003113 0.280643 93.000000
1.276124 0.876401 -0.135440 100.000000
6.328537 4.344604 1.492126 25.000000
1.302605 0.893918 -0.082795 100.000000
6.308965 4.327932 1.766316 21.000000
1.324297 0.908123 -0.028029 97.000000
6.290843 4.312269 2.043635 26.000000
2.436790 1.666009 -0.790951 11.000000
1.350486 0.922967 0.028552 100.000000
2.613152 1.785246 -0.730641 9.000000
1.377201 0.940521 0.087401 92.000000
2.843692 1.942019 -0.669358 10.000000
1.415145 0.966070 0.149908 87.000000
3.087103 2.106668 -0.591948 7.000000
1.431616 0.976583 0.212784 84.000000
1.257939 0.857786 -0.186948 93.000000
1.455962 0.992445 0.279079 90.000000
1.275884 0.869696 -0.135091 100.000000
6.259295 4.265006 1.472282 24.000000
1.305718 0.889365 -0.082795 100.000000
6.230608 4.242270 1.740221 20.000000
1.320846 0.898996 -0.027889 97.000000
6.235579 4.242470 2.020859 28.000000
2.439105 1.655748 -0.789916 10.000000
1.360158 0.922975 0.028692 100.000000
2.631959 1.785323 -0.734240 9.000000
1.393537 0.944915 0.088238 96.000000
2.845242 1.929273 -0.668213 8.000000
1.415042 0.959137 0.149559 85.000000
3.087530 2.091988 -0.590697 7.000000
1.441421 0.976283 0.213759 82.000000
1.254201 0.849158 -0.185973 79.000000
1.444522 0.977646 0.276263 63.000000
1.277111 0.864343 -0.134917 100.000000
6.198606 4.193618 1.454728 23.000000
1.315277 0.889506 -0.083214 100.000000
6.170379 4.171379 1.719526 22.000000
1.317193 0.890131 -0.027749 100.000000
6.150362 4.154723 1.988766 22.000000
2.444870 1.647224 -0.789916 11.000000
1.353420 0.911520 0.028482 100.000000
2.638175 1.776125 -0.734240 9.000000
1.393513 0.937815 0.088029 98.000000
2.856846 1.922617 -0.669358 10.000000
1.411770 0.949743 0.148862 87.000000
3.088256 2.076789 -0.589445 7.000000
1.448116 0.973460 0.214246 80.000000
1.285168 0.863597 -0.190116 38.000000
1.449565 0.973701 0.276576 13.000000
1.276812 0.857659 -0.134568 100.000000
6.108893 4.101911 1.430304 23.000000
1.321691 0.887135 -0.083424 100.000000
6.102369 4.094444 1.696581 20.000000
1.323613 0.887756 -0.027819 100.000000
6.074971 4.072983 1.959778 25.000000
2.457028 1.642976 -0.791986 11.000000
1.351606 0.903456 0.028378 98.000000
2.634637 1.760409 -0.731541 9.000000
1.403421 0.937383 0.088448 94.000000
2.866804 1.914816 -0.670121 10.000000
1.415076 0.944809 0.148862 87.000000
3.102060 2.070382 -0.590697 7.000000
1.444899 0.963993 0.213271 84.000000
1.291477 0.861309 -0.190604 7.000000
6.079728 4.053143 1.157302 11.000000
1.278140 0.852092 -0.134394 100.000000
6.052926 4.033744 1.413895 22.000000
1.314806 0.875873 -0.082795 100.000000
6.050123 4.028832 1.678135 19.000000
1.326705 0.883130 -0.027819 100.000000
6.015167 4.002525 1.935967 23.000000
2.456310 1.630116 -0.789916 11.000000
1.354752 0.898732 0.028378 98.000000
2.644014 1.753356 -0.732441 9.000000
1.393367 0.923650 0.087610 98.000000
2.878380 1.908050 -0.671266 8.000000
1.426670 0.945366 0.149734 83.000000
3.115855 2.063905 -0.591948 7.000000
1.441635 0.954560 0.212296 76.000000
3.418278 2.262508 -0.503320 3.000000
6.021351 3.983938 1.143536 13.000000
1.284430 0.849824 -0.134743 100.000000
5.990004 3.961694 1.395959 22.000000
1.316190 0.870176 -0.082691 100.000000
5.974730 3.948595 1.653390 19.000000
1.333115 0.880699 -0.027889 97.000000
5.964621 3.938919 1.915261 21.000000
2.474892 1.630032 -0.794057 11.000000
1.362891 0.897297 0.028482 100.000000
2.656630 1.748401 -0.734240 10.000000
1.391577 0.915487 0.087296 100.000000
2.881743 1.895833 -0.670503 8.000000
1.426631 0.938192 0.149385 83.000000
3.129643 2.057356 -0.593200 7.000000
1.448276 0.951701 0.212784 76.000000
3.427813 2.251655 -0.503564 4.000000
5.937800 3.898923 1.125077 15.000000
1.295716 0.850803 -0.135614 100.000000
5.936504 3.896589 1.380312 21.000000
1.325898 0.869960 -0.083110 100.000000
5.916780 3.880688 1.633595 21.000000
1.326148 0.869461 -0.027680 100.000000
5.900776 3.867247 1.890414 23.000000
2.470865 1.615042 -0.790951 11.000000
1.371037 0.895815 0.028587 98.000000
2.662718 1.739116 -0.734240 9.000000
1.399781 0.913900 0.087610 98.000000
2.878479 1.879323 -0.668213 8.000000
1.423223 0.928851 0.148688 83.000000
3.136806 2.046418 -0.593200 7.000000
1.454915 0.948809 0.213271 84.000000
3.433989 2.238590 -0.503320 3.000000
5.881865 3.832875 1.111936 15.000000
1.285324 0.837572 -0.134220 100.000000
5.874397 3.826553 1.362758 21.000000
1.325580 0.863147 -0.082900 100.000000
5.850262 3.807919 1.611549 20.000000
1.332527 0.867008 -0.027749 97.000000
5.839744 3.798175 1.866603 20.000000
2.466763 1.600099 -0.787845 11.000000
1.365766 0.885585 0.028413 100.000000
2.665500 1.727692 -0.733340 9.000000
1.406156 0.911426 0.087820 96.000000
2.891613 1.873533 -0.669740 8.000000
1.418096 0.918461 0.147816 87.000000
3.143929 2.035458 -0.593200 7.000000
1.458218 0.943725 0.213271 82.000000
3.450117 2.231981 -0.504539 3.000000
5.831517 3.772577 1.100047 15.000000
1.289912 0.834163 -0.134394 100.000000
5.813526 3.758061 1.345585 20.000000
1.328585 0.858514 -0.082900 100.000000
5.807861 3.751525 1.596253 18.000000
1.332035 0.860414 -0.027680 100.000000
5.772783 3.727440 1.841239 20.000000
2.488577 1.601935 -0.793022 11.000000
1.365333 0.878886 0.028343 100.000000
2.674493 1.720952 -0.734240 9.000000
1.412689 0.908672 0.088029 96.000000
2.908042 1.869799 -0.672029 8.000000
1.421293 0.913506 0.147816 87.000000
3.140692 2.018612 -0.591322 7.000000
1.461339 0.938884 0.213271 75.000000
3.457499 2.220528 -0.504539 3.000000
5.758209 3.696707 1.083778 15.000000
1.297847 0.832884 -0.134917 100.000000
5.740037 3.683625 1.325741 20.000000
1.331425 0.854103 -0.082900 100.000000
5.741529 3.681754 1.574657 19.000000
1.340081 0.858997 -0.027784 100.000000
5.732083 3.672871 1.824157 20.000000
2.506898 1.601997 -0.797163 11.000000
1.365022 0.871962 0.028273 100.000000
2.677199 1.709508 -0.733340 9.000000
1.405751 0.897288 0.087401 96.000000
2.915882 1.861202 -0.672411 10.000000
1.436072 0.916289 0.149036 83.000000
3.161043 2.016134 -0.593825 7.000000
1.454564 0.927374 0.211809 78.000000
3.458533 2.204177 -0.503564 3.000000
5.716101 3.641557 1.073453 18.000000
1.298922 0.827504 -0.134743 100.000000
5.696556 3.627712 1.312766 19.000000
1.327659 0.845160 -0.082481 100.000000
5.683650 3.616702 1.555312 19.000000
1.348133 0.857534 -0.027889 100.000000
5.663358 3.601013 1.798275 21.000000
2.502686 1.587028 -0.794057 11.000000
1.371435 0.869332 0.028343 100.000000
2.693027 1.706411 -0.736040 9.000000
1.405500 0.890238 0.087192 98.000000
2.910752 1.843658 -0.669740 8.000000
1.440945 0.912337 0.149211 85.000000
3.166392 2.004032 -0.593512 7.000000
1.464503 0.926536 0.212784 78.000000
3.462850 2.189970 -0.503077 3.000000
5.655309 3.575140 1.059687 17.000000
1.298434 0.820836 -0.134394 100.000000
5.642799 3.565853 1.297501 19.000000
1.330600 0.840521 -0.082481 100.000000
5.627034 3.553142 1.536416 19.000000
1.335899 0.843216 -0.027575 100.000000
5.613807 3.542050 1.778605 21.000000
2.504941 1.576224 -0.793022 11.000000
1.382925 0.869864 0.028517 100.000000
2.698967 1.696999 -0.736040 9.000000
1.411981 0.887452 0.087401 96.000000
2.922156 1.836620 -0.670884 10.000000
1.433998 0.900942 0.148165 87.000000
3.180060 1.997168 -0.594764 7.000000
1.467729 0.921418 0.212784 75.000000
3.485606 2.187366 -0.505270 3.000000
5.600820 3.513387 1.047172 17.000000
1.292994 0.810779 -0.133523 91.000000
5.585355 3.502328 1.281473 18.000000
1.336911 0.837993 -0.082691 100.000000
5.570046 3.490020 1.517520 18.000000
1.335445 0.836425 -0.027505 100.000000
5.555727 3.478353 1.756346 21.000000
2.500868 1.560896 -0.789916 10.000000
1.370685 0.855502 0.028203 100.000000
2.708180 1.689633 -0.736940 9.000000
1.418459 0.884632 0.087610 96.000000
2.935532 1.830053 -0.672411 10.000000
1.427145 0.889357 0.147119 87.000000
3.185681 1.984456 -0.594451 7.000000
1.470936 0.916290 0.212784 73.000000
3.499961 2.179382 -0.506245 3.000000
5.535905 3.445798 1.032780 20.000000
1.287358 0.800998 -0.132651 50.000000
5.541471 3.446580 1.268498 18.000000
1.343366 0.835196 -0.082900 100.000000
5.534801 3.439752 1.504473 18.000000
1.345150 0.835980 -0.027645 100.000000
5.493992 3.413062 1.733052 20.000000
2.526010 1.564363 -0.796127 10.000000
1.372111 0.849420 0.028168 98.000000
2.704413 1.673541 -0.734240 9.000000
1.421539 0.879675 0.087610 94.000000
2.940232 1.818762 -0.672029 8.000000
1.433630 0.886466 0.147468 91.000000
3.199311 1.977477 -0.595703 7.000000
1.460774 0.902545 0.210834 76.000000
3.514681 2.170712 -0.507220 3.000000
5.499159 3.396353 1.023707 20.000000
1.310490 0.809059 -0.134743 7.000000
5.474946 3.378755 1.250562 20.000000
1.339473 0.826308 -0.082481 100.000000
5.470473 3.373358 1.483777 18.000000
1.348060 0.831279 -0.027645 100.000000
5.461472 3.366492 1.719076 20.000000
2.531456 1.555535 -0.796127 10.000000
1.385143 0.851146 0.028378 100.000000
2.716589 1.668644 -0.736040 9.000000
1.417792 0.870528 0.087192 98.000000
2.953256 1.812595 -0.673556 8.000000
1.443509 0.885623 0.148165 87.000000
3.197432 1.961692 -0.594138 6.000000
1.463759 0.897697 0.210834 51.000000
3.530323 2.164232 -0.508439 3.000000
5.455401 3.343074 1.013383 17.000000
3.897443 2.387424 -0.399871 3.000000
5.430871 3.326742 1.237969 18.000000
1.335393 0.817689 -0.082063 100.000000
5.420131 3.317559 1.467131 18.000000
1.354365 0.828657 -0.027714 100.000000
5.412211 3.310115 1.699924 20.000000
2.526704 1.541097 -0.793022 10.000000
1.386398 0.845265 0.028343 100.000000
2.720733 1.658137 -0.735590 9.000000
1.407177 0.857260 0.086354 94.000000
2.955897 1.800750 -0.672793 8.000000
1.439631 0.876686 0.147468 89.000000
3.211009 1.954628 -0.595390 6.000000
1.465188 0.891549 0.210590 9.000000
3.525984 2.144674 -0.506733 3.000000
5.391082 3.277831 0.999304 19.000000
3.891719 2.366204 -0.398476 3.000000
5.385409 3.273095 1.224994 18.000000
1.341653 0.815096 -0.082272 100.000000
5.363387 3.257147 1.448685 18.000000
1.346993 0.817698 -0.027505 100.000000
5.354368 3.249109 1.678183 18.000000
2.538680 1.536268 -0.795092 9.000000
1.389340 0.840421 0.028343 100.000000
2.738178 1.655688 -0.738739 9.000000
1.420417 0.858542 0.086982 96.000000
2.965526 1.792451 -0.673556 8.000000
1.452914 0.877839 0.148513 85.000000
3.233031 1.952598 -0.598205 7.000000
5.365041 3.238954 0.769483 14.000000
3.535147 2.133381 -0.506977 3.000000
5.338217 3.220218 0.987414 19.000000
3.906780 2.356720 -0.399173 3.000000
5.339641 3.219806 1.212019 17.000000
1.347911 0.812471 -0.082481 100.000000
5.312964 3.201192 1.432038 18.000000
1.351552 0.814022 -0.027540 100.000000
5.306092 3.194531 1.659548 18.000000
2.547339 1.529386 -0.796127 9.000000
1.381978 0.829392 0.028133 100.000000
2.743940 1.646122 -0.738739 9.000000
1.430257 0.857687 0.087401 92.000000
2.973448 1.783099 -0.673937 7.000000
1.442299 0.864566 0.147119 89.000000
3.238133 1.940285 -0.597893 6.000000
5.325224 3.189608 0.762171 15.000000
3.552792 2.127145 -0.508439 3.000000
5.298576 3.171130 0.978028 19.000000
3.914984 2.343068 -0.399173 3.000000
5.286826 3.162848 1.197517 15.000000
1.349025 0.806736 -0.082377 100.000000
5.278945 3.155629 1.419891 18.000000
1.352669 0.808274 -0.027505 100.000000
5.250871 3.136363 1.638842 18.000000
2.555982 1.522462 -0.797163 10.000000
1.379710 0.821494 0.028029 98.000000
2.739622 1.630553 -0.736040 9.000000
1.436675 0.854732 0.087610 96.000000
2.984716 1.775719 -0.675082 8.000000
1.448732 0.861564 0.147468 89.000000
3.241489 1.926953 -0.597267 6.000000
5.262946 3.127393 0.751690 15.000000
3.568728 2.119800 -0.509658 3.000000
5.251861 3.118330 0.967391 19.000000
3.929990 2.333459 -0.399871 3.000000
5.228614 3.103290 1.181871 19.000000
1.353551 0.803041 -0.082481 100.000000
5.239642 3.107365 1.406394 18.000000
1.360643 0.806606 -0.027610 100.000000
5.211929 3.088468 1.623313 18.000000
2.564607 1.515496 -0.798198 10.000000
1.389456 0.820740 0.028168 96.000000
2.755366 1.626924 -0.738739 9.000000
1.429329 0.843621 0.086982 94.000000
2.987514 1.763295 -0.674319 8.000000
1.458595 0.860551 0.148165 87.000000
3.241390 1.911612 -0.596015 6.000000
5.224238 3.079769 0.744622 15.000000
3.557294 2.096243 -0.506977 3.000000
5.208249 3.067894 0.957379 19.000000
3.948412 2.325793 -0.400916 3.000000
5.200504 3.062110 1.173094 17.000000
1.349460 0.794259 -0.082063 98.000000
5.178234 3.046563 1.387048 17.000000
1.365173 0.802866 -0.027645 100.000000
5.169384 3.038928 1.606749 19.000000
2.569881 1.506535 -0.798198 10.000000
1.392313 0.815885 0.028168 98.000000
2.757665 1.615327 -0.737839 9.000000
1.428818 0.836608 0.086773 94.000000
2.988569 1.749880 -0.673174 8.000000
1.465030 0.857466 0.148513 87.000000
3.271913 1.914252 -0.600396 6.000000
5.173267 3.025439 0.735847 15.000000
3.585155 2.095834 -0.509901 3.000000
5.162643 3.016807 0.947054 21.000000
3.949625 2.307976 -0.400219 3.000000
5.155218 3.011262 1.160500 17.000000
1.353949 0.790550 -0.082167 99.000000
5.138345 2.999001 1.373551 17.000000
1.357604 0.792050 -0.027435 100.000000
5.129898 2.991668 1.591220 19.000000
2.568444 1.493670 -0.796127 9.000000
1.407254 0.818055 0.028413 100.000000
2.775081 1.612543 -0.740989 9.000000
1.431730 0.831615 0.086773 92.000000
2.998054 1.741409 -0.673937 8.000000
1.454229 0.844344 0.147119 87.000000
3.271741 1.898852 -0.599144 6.000000
5.135720 2.979469 0.729023 17.000000
3.571842 2.071357 -0.506977 3.000000
5.111619 2.963102 0.935791 20.000000
3.961105 2.296173 -0.400568 3.000000
5.124930 2.969624 1.151342 17.000000
1.356700 0.785819 -0.082167 96.000000
5.096503 2.950776 1.359604 19.000000
1.356899 0.785302 -0.027365 100.000000
5.086799 2.942787 1.574655 19.000000
2.570295 1.482765 -0.795092 9.000000
1.397974 0.806146 0.028168 98.000000
2.777316 1.600901 -0.740089 9.000000
1.441546 0.830601 0.087192 96.000000
3.010919 1.734854 -0.675464 7.000000
1.457168 0.839263 0.147119 87.000000
3.271502 1.883476 -0.597893 6.000000
5.091032 2.929840 0.721223 17.000000
3.604860 2.073725 -0.510633 3.000000
5.072270 2.916684 0.926718 20.000000
3.979460 2.288290 -0.401614 3.000000
5.070584 2.914540 1.136840 16.000000
1.366363 0.785059 -0.082586 71.000000
5.057766 2.904821 1.346557 17.000000
1.363101 0.782552 -0.027435 100.000000
5.040072 2.892319 1.557055 19.000000
2.585516 1.479541 -0.798198 9.000000
1.397308 0.799275 0.028098 98.000000
2.772738 1.585392 -0.737390 7.000000
1.437501 0.821599 0.086773 91.000000
3.016956 1.724333 -0.675464 7.000000
1.460088 0.834172 0.147119 87.000000
3.286633 1.876944 -0.599457 6.000000
5.042614 2.878590 0.712936 17.000000
3.613801 2.062114 -0.510876 3.000000
5.042955 2.876451 0.919522 20.000000
4.004729 2.284257 -0.403357 3.000000
5.019329 2.861814 1.123102 16.000000
1.367359 0.779296 -0.082481 25.000000
5.015384 2.857246 1.332610 17.000000
1.374513 0.782737 -0.027610 100.000000
4.999770 2.846039 1.541526 19.000000
2.590665 1.470507 -0.798198 9.000000
1.396611 0.792419 0.028029 94.000000
2.778255 1.575704 -0.737390 7.000000
1.436885 0.814607 0.086564 92.000000
3.026373 1.715728 -0.676227 7.000000
1.462991 0.829070 0.147119 89.000000
3.305196 1.872276 -0.601647 6.000000
5.000808 2.831628 0.705624 17.000000
3.600246 2.037752 -0.507951 3.000000
4.994510 2.825757 0.908884 20.000000
4.005743 2.266339 -0.402660 3.000000
4.988274 2.821082 1.113943 16.000000
4.971037 2.809041 1.318213 19.000000
1.378977 0.778918 -0.027645 100.000000
4.965935 2.803875 1.528068 19.000000
2.602516 1.465245 -0.800269 9.000000
1.406340 0.791462 0.028168 98.000000
2.787134 1.567908 -0.738289 7.000000
1.432756 0.805670 0.086145 96.000000
3.028921 1.703228 -0.675464 7.000000
1.469350 0.825910 0.147468 89.000000
3.304822 1.856858 -0.600396 6.000000
4.974316 2.793739 0.700505 17.000000
3.612532 2.028087 -0.508683 3.000000
4.954385 2.780274 0.899811 22.000000
4.024053 2.258196 -0.403705 3.000000
4.951860 2.777718 1.103639 21.000000
4.477170 2.510416 -0.269007 1.000000
4.923012 2.759280 1.302917 19.000000
1.371221 0.768235 -0.027435 100.000000
4.933555 2.762923 1.515127 17.000000
2.604241 1.454269 -0.799233 10.000000
1.412586 0.788497 0.028238 98.000000
2.809608 1.567664 -0.742788 7.000000
1.439049 0.802609 0.086354 94.000000
3.041707 1.696469 -0.676990 7.000000
1.467003 0.817866 0.146945 81.000000
3.318187 1.849156 -0.601647 6.000000
4.925076 2.743513 0.692218 17.000000
3.631729 2.022226 -0.510389 3.000000
4.910553 2.733180 0.890112 22.000000
4.017984 2.236382 -0.402311 3.000000
4.915205 2.734643 1.093336 19.000000
4.499869 2.502539 -0.269844 1.000000
4.893440 2.720300 1.292569 17.000000
1.366903 0.759558 -0.027296 100.000000
4.878994 2.710040 1.495457 19.000000
2.609301 1.445170 -0.799233 9.000000
1.406582 0.778719 0.028063 100.000000
2.815063 1.557848 -0.742788 7.000000
1.452187 0.803636 0.086982 91.000000
3.040737 1.682042 -0.675464 7.000000
1.462875 0.808883 0.146247 40.000000
3.324621 1.837561 -0.601647 6.000000
4.896395 2.705188 0.686856 19.000000
3.648839 2.015932 -0.511851 3.000000
4.879818 2.694915 0.882916 23.000000
4.025767 2.222342 -0.402311 3.000000
4.867995 2.686172 1.080742 16.000000
4.610012 2.542764 -0.275915 1.000000
4.858068 2.679585 1.280871 17.000000
1.376418 0.758884 -0.027435 100.000000
4.843963 2.669604 1.481998 19.000000
2.610694 1.434648 -0.798198 9.000000
1.405651 0.772125 0.027994 100.000000
2.816797 1.546629 -0.741889 7.000000
1.456594 0.799778 0.087087 100.000000
3.058346 1.678561 -0.678135 8.000000
4.852558 2.662205 0.484237 11.000000
3.322036 1.821779 -0.600083 6.000000
4.840933 2.653630 0.677837 17.000000
3.655505 2.003819 -0.511851 3.000000
4.838490 2.651192 0.873843 19.000000
4.064567 2.226211 -0.405449 3.000000
4.821771 2.639843 1.068530 21.000000
4.551840 2.491028 -0.271938 1.000000
4.825899 2.641009 1.270074 19.000000
1.380682 0.755274 -0.027470 100.000000
4.798550 2.623866 1.465433 17.000000
2.625613 1.431532 -0.801304 9.000000
1.408204 0.767459 0.027994 100.000000
2.818488 1.535415 -0.740989 7.000000
1.450607 0.789912 0.086564 98.000000
3.065912 1.668813 -0.678517 7.000000
4.815862 2.621332 0.479705 17.000000
3.335000 1.814528 -0.601334 6.000000
4.813085 2.617646 0.672719 16.000000
3.657246 1.988202 -0.511120 3.000000
4.807794 2.612594 0.866647 21.000000
4.075815 2.213910 -0.405797 3.000000
4.789548 2.600512 1.059372 22.000000
4.556997 2.473220 -0.271728 1.000000
4.783706 2.596262 1.256577 19.000000
1.385067 0.751405 -0.027505 100.000000
4.777112 2.590522 1.456116 17.000000
2.630842 1.421899 -0.801304 9.000000
1.416286 0.765144 0.028098 98.000000
2.827526 1.526925 -0.741889 7.000000
1.446462 0.780796 0.086145 96.000000
3.065096 1.653836 -0.676990 7.000000
4.788614 2.583796 0.476045 24.000000
3.353799 1.808856 -0.603524 6.000000
4.768478 2.570786 0.665163 19.000000
3.659266 1.971960 -0.510389 3.000000
4.770381 2.569660 0.858200 23.000000
4.069868 2.191401 -0.404403 3.000000
4.761014 2.562471 1.050976 22.000000
4.601209 2.475425 -0.273822 1.000000
4.741705 2.551012 1.243080 19.000000
1.377245 0.740640 -0.027296 100.000000
4.752542 2.554703 1.445763 21.000000
2.625820 1.406771 -0.798198 9.000000
1.427895 0.764668 0.028273 100.000000
2.843412 1.522070 -0.744588 7.000000
1.456223 0.779512 0.086564 94.000000
3.077775 1.646831 -0.678517 7.000000
4.748859 2.539918 0.471164 24.000000
3.358663 1.795621 -0.603211 6.000000
4.739353 2.532704 0.659801 19.000000
3.669629 1.961045 -0.510876 3.000000
4.734020 2.528795 0.850065 23.000000
4.077493 2.177180 -0.404403 3.000000
4.724899 2.521800 1.041054 21.000000
4.645064 2.478152 -0.275915 1.000000
4.711036 2.513348 1.232732 19.000000
1.378057 0.734888 -0.027261 97.000000
4.703469 2.507200 1.428164 21.000000
2.627058 1.396245 -0.797163 9.000000
1.419827 0.754300 0.028063 100.000000
2.851887 1.514460 -0.745488 7.000000
1.462328 0.776551 0.086773 94.000000
3.079750 1.634777 -0.677754 8.000000
4.702695 2.495209 0.465760 22.000000
3.352384 1.777994 -0.601021 6.000000
4.714402 2.499309 0.655170 19.000000
3.686634 1.954445 -0.512339 3.000000
4.695253 2.488108 0.841618 23.000000
4.074127 2.158050 -0.403357 3.000000
4.688123 2.482234 1.031132 22.000000
4.681502 2.477682 -0.277590 1.000000
4.679730 2.476744 1.222384 19.000000
1.380487 0.730313 -0.027261 78.000000
4.662231 2.465400 1.413152 19.000000
2.645345 1.394733 -0.801304 9.000000
1.422320 0.749587 0.028063 100.000000
2.853444 1.503178 -0.744588 7.000000
1.461495 0.769581 0.086564 98.000000
3.095577 1.630043 -0.680043 8.000000
4.665105 2.455471 0.461228 22.000000
3.354765 1.765028 -0.600396 6.000000
4.664685 2.453171 0.647126 19.000000
3.682891 1.936023 -0.510876 3.000000
4.674182 2.456084 0.836299 23.000000
4.091843 2.150089 -0.404403 3.000000
4.649400 2.442026 1.020828 24.000000
4.603042 2.416652 -0.272461 7.000000
4.653835 2.442284 1.213386 22.000000
1.386569 0.727348 -0.027330 39.000000
4.626325 2.425787 1.399693 22.000000
2.653621 1.387281 -0.802339 9.000000
1.423156 0.743692 0.028029 94.000000
2.858674 1.493209 -0.744588 7.000000
1.457091 0.760777 0.086145 94.000000
3.111691 1.624678 -0.682333 7.000000
4.643620 2.423499 0.458265 24.000000
3.380170 1.763358 -0.603837 6.000000
4.630976 2.414844 0.641277 22.000000
3.694908 1.925907 -0.511608 3.000000
4.630171 2.412371 0.826913 22.000000
4.124060 2.148682 -0.406843 3.000000
4.617847 2.404924 1.012051 25.000000
4.584877 2.386735 -0.270891 3.000000
4.601827 2.394542 1.197639 21.000000
4.640977 2.413881 -0.091311 16.000000
4.605626 2.394473 1.390894 24.000000
2.658448 1.378009 -0.802339 9.000000
1.425743 0.738720 0.028029 96.000000
2.856947 1.479636 -0.742788 7.000000
1.456190 0.753850 0.085936 94.000000
3.110368 1.610197 -0.680807 7.000000
4.627278 2.394457 0.455824 26.000000
3.389815 1.753362 -0.604463 5.000000
4.604110 2.380431 0.636402 24.000000
3.708662 1.916644 -0.512583 3.000000
4.596443 2.374434 0.819404 22.000000
4.145697 2.141587 -0.408237 3.000000
4.587836 2.368974 1.003655 25.000000
4.600278 2.374382 -0.271310 1.000000
4.568594 2.357018 1.186842 21.000000
4.596056 2.370171 -0.090264 26.000000
4.569310 2.355369 1.377435 21.000000
2.666678 1.370487 -0.803374 9.000000
1.428313 0.733738 0.028029 98.000000
2.879431 1.478555 -0.747287 7.000000
1.465920 0.752411 0.086354 92.000000
3.115970 1.599330 -0.680807 8.000000
4.570019 2.344638 0.449375 22.000000
3.397673 1.742419 -0.604776 6.000000
4.575294 2.345330 0.631283 22.000000
3.710030 1.900970 -0.511851 3.000000
4.562507 2.336762 0.811895 26.000000
4.138961 2.119836 -0.406843 3.000000
4.559378 2.334158 0.995641 24.000000
4.565867 2.336472 -0.268797 1.000000
4.536890 2.320644 1.176494 24.000000
4.566911 2.334997 -0.089531 30.000000
4.531059 2.315667 1.363459 22.000000
2.668003 1.359416 -0.802339 9.000000
1.427302 0.726934 0.027959 98.000000
2.881100 1.466728 -0.746388 7.000000
1.464977 0.745477 0.086145 96.000000
3.125034 1.590224 -0.681570 7.000000
4.533778 2.306093 0.445017 23.000000
3.400212 1.728759 -0.604150 6.000000
4.539211 2.306859 0.625190 21.000000
3.732572 1.896100 -0.514045 3.000000
4.535409 2.302936 0.805638 28.000000
4.135676 2.099964 -0.405797 3.000000
4.523732 2.296014 0.986101 27.000000
4.538372 2.302448 -0.266704 1.000000
4.504988 2.284523 1.166146 22.000000
4.535794 2.299150 -0.088763 31.000000
4.499479 2.279753 1.351553 21.000000
2.676181 1.351837 -0.803374 9.000000
1.420905 0.717440 0.027784 100.000000
2.882724 1.454905 -0.745488 7.000000
1.481836 0.747556 0.086982 92.000000
3.148094 1.588149 -0.685386 7.000000
4.509778 2.274104 0.441880 24.000000
3.406226 1.716879 -0.604150 6.000000
4.506461 2.270459 0.619584 22.000000
3.755123 1.891096 -0.516239 3.000000
4.506368 2.268437 0.799067 22.000000
4.224845 2.126723 -0.413815 1.000000
4.484367 2.256384 0.975797 27.000000
4.503558 2.265055 -0.264192 1.000000
4.478113 2.251276 1.157148 24.000000
4.509844 2.266242 -0.088100 37.000000
4.467703 2.244092 1.339647 24.000000
2.691248 1.347676 -0.806480 9.000000
1.426978 0.714266 0.027854 100.000000
2.887784 1.444836 -0.745488 7.000000
1.473719 0.737018 0.086354 77.000000
3.146595 1.573637 -0.683859 7.000000
4.485611 2.242311 0.438742 30.000000
3.413964 1.705863 -0.604463 5.000000
4.475289 2.235199 0.614222 25.000000
3.745718 1.869996 -0.514045 3.000000
4.471837 2.231528 0.791559 24.000000
4.189456 2.090614 -0.409632 1.000000
4.448296 2.218808 0.966257 25.000000
4.461390 2.224367 -0.261261 1.000000
4.444084 2.214773 1.146351 22.000000
4.474769 2.229088 -0.087262 39.000000
4.444382 2.212983 1.330330 24.000000
2.685554 1.333119 -0.803374 9.000000
1.434836 0.711947 0.027959 98.000000
2.892810 1.434746 -0.745488 7.000000
1.453020 0.720337 0.084994 22.000000
3.141515 1.557411 -0.681570 7.000000
4.450564 2.205409 0.434559 28.000000
3.426979 1.697442 -0.605714 5.000000
4.443927 2.200186 0.608859 27.000000
3.754001 1.857790 -0.514289 3.000000
4.438876 2.195759 0.784363 30.000000
4.218158 2.086577 -0.411724 1.000000
4.427856 2.189343 0.960151 28.000000
4.444059 2.196393 -0.259796 1.000000
4.413351 2.180257 1.136453 27.000000
4.439491 2.192204 -0.086424 33.000000
4.422630 2.182921 1.321530 25.000000
2.693656 1.325445 -0.804410 10.000000
1.448079 0.712229 0.028168 96.000000
2.897801 1.424638 -0.745488 7.000000
4.425728 2.174853 0.258435 22.000000
3.150455 1.548169 -0.682333 7.000000
4.411740 2.167021 0.430026 24.000000
3.432884 1.685469 -0.605714 5.000000
4.419502 2.168921 0.604472 28.000000
3.769374 1.849045 -0.515507 3.000000
4.400399 2.157638 0.776228 30.000000
4.239728 2.078857 -0.413118 1.000000
4.401975 2.157461 0.952900 31.000000
4.401480 2.156262 -0.256865 1.000000
4.387681 2.148554 1.127905 29.000000
4.407601 2.157357 -0.085656 43.000000
4.386841 2.146244 1.308589 24.000000
2.701740 1.317727 -0.805445 9.000000
1.439771 0.701913 0.027959 96.000000
2.916770 1.421344 -0.749087 7.000000
4.397382 2.141898 0.256342 27.000000
3.169961 1.544040 -0.685386 7.000000
4.381660 2.133294 0.426366 26.000000
3.438746 1.673476 -0.605714 5.000000
4.385989 2.133508 0.598866 24.000000
3.793659 1.844556 -0.517945 3.000000
4.377701 2.127587 0.770909 31.000000
4.254126 2.067529 -0.413815 1.000000
4.367098 2.121492 0.943741 31.000000
4.365860 2.119946 -0.254353 13.000000
4.361844 2.117059 1.119357 27.000000
4.382720 2.126246 -0.085028 43.000000
4.343897 2.106472 1.293578 28.000000
2.709801 1.309970 -0.806480 9.000000
1.447614 0.699493 0.028063 78.000000
2.914696 1.407763 -0.747287 7.000000
4.377852 2.113511 0.254771 30.000000
3.175331 1.532966 -0.685386 7.000000
4.358574 2.103266 0.423403 30.000000
3.449905 1.664036 -0.606653 6.000000
4.346919 2.095772 0.592529 30.000000
3.794708 1.828719 -0.517214 3.000000
4.353067 2.096861 0.765278 28.000000
4.239778 2.042290 -0.411724 1.000000
4.328485 2.084092 0.933819 28.000000
4.355235 2.096035 -0.253306 26.000000
4.341110 2.088302 1.112158 25.000000
4.354073 2.093602 -0.084330 35.000000
4.325104 2.078746 1.285813 28.000000
2.714358 1.300503 -0.806480 9.000000
1.450047 0.694435 0.028063 45.000000
2.916076 1.395898 -0.746388 7.000000
4.343765 2.078388 0.252364 32.000000
3.198373 1.530345 -0.689202 7.000000
4.331739 2.071705 0.420091 30.000000
3.464603 1.656244 -0.608217 6.000000
4.314804 2.061755 0.587167 30.000000
3.795696 1.812895 -0.516482 3.000000
4.322924 2.063782 0.758707 30.000000
4.254072 2.030912 -0.412421 1.000000
4.305612 2.054595 0.927332 30.000000
4.331880 2.066201 -0.251527 22.000000
4.302638 2.051332 1.100461 24.000000
4.336081 2.066348 -0.083841 39.000000
4.299197 2.047850 1.275978 27.000000
2.722372 1.292676 -0.807515 9.000000
4.324869 2.052675 0.083562 21.000000
2.920930 1.385711 -0.746388 7.000000
4.300107 2.040004 0.249433 25.000000
3.193052 1.514124 -0.686912 7.000000
4.313739 2.044626 0.417650 31.000000
3.468578 1.643295 -0.607904 6.000000
4.291475 2.032237 0.583023 26.000000
3.793029 1.795388 -0.515264 3.000000
4.294034 2.032534 0.752450 33.000000
4.243125 2.007530 -0.410678 8.000000
4.284361 2.026123 0.921226 28.000000
4.308369 2.036559 -0.249747 18.000000
4.272770 2.018819 1.091013 30.000000
4.295900 2.029747 -0.082934 38.000000
4.281509 2.022031 1.268731 28.000000
2.730363 1.284811 -0.808551 9.000000
4.290037 2.018738 0.082759 31.000000
2.939617 1.382652 -0.749987 7.000000
4.276476 2.010534 0.247654 27.000000
3.187656 1.497959 -0.684623 7.000000
4.268552 2.004990 0.412595 28.000000
3.470433 1.630103 -0.607279 6.000000
4.265845 2.002810 0.578636 27.000000
3.820527 1.792920 -0.518189 3.000000
4.263546 1.999915 0.745880 35.000000
4.224853 1.980865 -0.408237 4.000000
4.257283 1.996070 0.913975 33.000000
4.287971 2.009546 -0.248177 19.000000
4.251206 1.991411 1.083814 30.000000
4.273983 2.001171 -0.082375 36.000000
4.239549 1.984146 1.254237 27.000000
2.724104 1.270850 -0.805445 9.000000
4.257186 1.985159 0.081991 35.000000
2.951491 1.375677 -0.751786 7.000000
4.254155 1.982842 0.245979 27.000000
3.203284 1.492356 -0.686912 7.000000
4.237248 1.973162 0.408935 30.000000
3.476101 1.617980 -0.607279 6.000000
4.244013 1.974510 0.574736 24.000000
3.850162 1.790455 -0.521357 3.000000
4.234332 1.969107 0.739622 37.000000
4.216944 1.960124 -0.406843 3.000000
4.223274 1.962172 0.905198 33.000000
4.262354 1.979422 -0.246293 22.000000
4.224548 1.960969 1.075266 28.000000
4.242507 1.969305 -0.081642 35.000000
4.211056 1.953815 1.243884 31.000000
2.732031 1.262954 -0.806480 9.000000
4.221998 1.951731 0.081189 36.000000
2.952498 1.364247 -0.750887 7.000000
4.232039 1.954580 0.244304 28.000000
3.212039 1.482810 -0.687676 7.000000
4.216973 1.945839 0.406320 33.000000
3.481447 1.606445 -0.607279 6.000000
4.214486 1.943796 0.569861 28.000000
3.852473 1.776014 -0.520870 3.000000
4.210680 1.940261 0.734303 31.000000
4.194806 1.932057 -0.404054 1.000000
4.188744 1.929265 0.896421 33.000000
4.238053 1.951079 -0.244514 27.000000
4.199161 1.932289 1.067168 27.000000
4.223920 1.942786 -0.081154 33.000000
4.184502 1.923771 1.234049 33.000000
2.750693 1.259366 -0.810621 9.000000
4.200366 1.922192 0.080630 35.000000
2.954170 1.351278 -0.749987 7.000000
4.206818 1.923369 0.242420 31.000000
3.231736 1.477558 -0.690729 7.000000
4.198709 1.918773 0.403880 34.000000
3.509152 1.602913 -0.611033 6.000000
4.187608 1.911936 0.565230 31.000000
3.861070 1.762032 -0.521113 2.000000
4.194735 1.913421 0.730236 37.000000
4.180106 1.906748 -0.401962 1.000000
4.172898 1.902580 0.891460 33.000000
4.205530 1.916569 -0.242211 25.000000
4.162214 1.895954 1.055920 27.000000
4.196769 1.910810 -0.080490 36.000000
4.170758 1.898086 1.227838 33.000000
2.751554 1.248160 -0.809586 9.000000
4.177911 1.894307 0.080072 35.000000
2.962420 1.342566 -0.750887 7.000000
4.169843 1.888892 0.239908 33.000000
3.226144 1.461407 -0.688439 7.000000
4.178154 1.891781 0.401265 35.000000
3.518325 1.592282 -0.611659 6.000000
4.163510 1.883397 0.561086 30.000000
3.870814 1.750182 -0.521601 1.000000
4.163588 1.881682 0.723666 36.000000
4.150425 1.875733 -0.398476 3.000000
4.140152 1.870220 0.883064 33.000000
4.181248 1.887908 -0.240431 21.000000
4.129730 1.863777 1.046022 31.000000
4.161489 1.877236 -0.079688 40.000000
4.149179 1.870814 1.219555 33.000000
2.748846 1.235381 -0.807515 9.000000
4.162609 1.869878 0.079653 35.000000
2.974200 1.335409 -0.752686 7.000000
4.146931 1.861964 0.238233 31.000000
3.241972 1.454961 -0.690729 7.000000
4.142921 1.858428 0.397256 34.000000
3.511245 1.574333 -0.609469 6.000000
4.141075 1.855864 0.557187 30.000000
3.898639 1.746397 -0.524526 1.000000
4.124735 1.847677 0.715844 36.000000
4.138763 1.853091 -0.396733 1.000000
4.130527 1.848540 0.879629 36.000000
4.164112 1.862698 -0.239071 25.000000
4.113084 1.839009 1.040174 33.000000
4.140309 1.851181 -0.079164 42.000000
4.105976 1.834973 1.205062 27.000000
2.756671 1.227349 -0.808551 10.000000
4.123117 1.835729 0.078780 39.000000
2.978611 1.325541 -0.752686 7.000000
4.127856 1.836115 0.236768 31.000000
3.239856 1.440444 -0.689202 7.000000
4.100224 1.822110 0.392549 31.000000
3.520056 1.564287 -0.610094 5.000000
4.118179 1.829229 0.553287 33.000000
3.889895 1.727014 -0.522576 1.000000
4.095048 1.817241 0.709587 36.000000
4.072355 1.806322 -0.389760 1.000000
4.098947 1.818117 0.871616 39.000000
4.139227 1.835117 -0.237291 28.000000
4.087090 1.811149 1.032075 34.000000
4.124804 1.827002 -0.078745 40.000000
4.080560 1.806551 1.195744 30.000000
2.760726 1.218201 -0.808551 9.000000
4.094735 1.805996 0.078117 37.000000
2.986786 1.316707 -0.753586 7.000000
4.101343 1.807198 0.234884 33.000000
3.258987 1.436026 -0.692255 7.000000
4.088010 1.800474 0.390806 35.000000
3.530919 1.554377 -0.611033 6.000000
4.079115 1.794854 0.547193 31.000000
3.899533 1.715026 -0.523063 1.000000
4.083283 1.794987 0.706458 38.000000
4.060083 1.784789 -0.388017 1.000000
4.060333 1.784053 0.862075 37.000000
4.105375 1.802991 -0.234988 27.000000
4.068406 1.785906 1.025777 34.000000
4.094533 1.796523 -0.078047 42.000000
4.063842 1.782209 1.189015 33.000000
2.775582 1.213200 -0.811657 10.000000
4.075360 1.780482 0.077628 37.000000
2.987793 1.304713 -0.752686 7.000000
4.078338 1.780088 0.233209 36.000000
3.260381 1.423071 -0.691492 7.000000
4.076008 1.778225 0.389063 35.000000
3.543566 1.545200 -0.612285 6.000000
4.054419 1.767122 0.543050 34.000000
3.905496 1.701403 -0.523063 1.000000
4.060546 1.768104 0.701452 36.000000
4.040715 1.759469 -0.385577 1.000000
4.044934 1.760468 0.857496 37.000000
4.080509 1.775105 -0.233209 28.000000
4.040660 1.756928 1.017229 31.000000
4.078771 1.772655 -0.077628 42.000000
4.038143 1.754161 1.179697 33.000000
2.776255 1.201968 -0.810621 10.000000
4.055858 1.755126 0.077140 37.000000
2.995905 1.295825 -0.753586 9.000000
4.042362 1.747611 0.230802 34.000000
3.261724 1.410123 -0.690729 7.000000
4.054757 1.752130 0.386449 37.000000
3.538057 1.528124 -0.610407 6.000000
4.042338 1.745090 0.540612 34.000000
3.918702 1.690904 -0.524038 1.000000
4.034043 1.739838 0.695821 38.000000
4.015731 1.731940 -0.382614 10.000000
4.029420 1.737011 0.852916 40.000000
4.062836 1.750575 -0.231848 31.000000
4.009182 1.726627 1.007781 33.000000
4.040853 1.739430 -0.076791 37.000000
4.024722 1.731654 1.174003 33.000000
2.780433 1.192270 -0.810621 9.000000
4.034389 1.729143 0.076616 35.000000
3.007576 1.288428 -0.755386 7.000000
4.024570 1.723269 0.229441 33.000000
3.266627 1.398728 -0.690729 7.000000
4.016888 1.719152 0.382265 33.000000
3.565164 1.525087 -0.614162 6.000000
4.019201 1.718481 0.536713 34.000000
3.930057 1.679556 -0.524769 2.000000
4.012843 1.714108 0.691128 40.000000
4.012590 1.714000 -0.381742 19.000000
4.008376 1.711370 0.847192 36.000000
4.037693 1.723056 -0.230069 33.000000
3.988297 1.701154 1.001032 36.000000
4.017468 1.712766 -0.076232 39.000000
3.989866 1.700178 1.162098 34.000000
2.788134 1.184068 -0.811657 9.000000
4.005427 1.700203 0.075953 39.000000
3.015642 1.279445 -0.756285 9.000000
4.006656 1.699074 0.228080 34.000000
3.278720 1.390383 -0.692255 8.000000
3.984342 1.688791 0.378605 31.000000
3.570465 1.512634 -0.614162 6.000000
4.003240 1.695153 0.533788 33.000000
3.950521 1.672016 -0.526719 7.000000
3.993332 1.689314 0.686747 40.000000
3.994695 1.689891 -0.379476 21.000000
3.974544 1.680548 0.838796 37.000000
4.016088 1.697288 -0.228499 30.000000
3.974464 1.678880 0.996083 37.000000
3.999472 1.688621 -0.075778 40.000000
3.961959 1.671968 1.152262 28.000000
2.792251 1.174328 -0.811657 9.000000
3.985529 1.675363 0.075464 39.000000
3.009311 1.264380 -0.753586 9.000000
3.983099 1.672706 0.226405 31.000000
3.287173 1.380451 -0.693018 7.000000
3.970004 1.666391 0.376687 34.000000
3.557508 1.492518 -0.611033 6.000000
3.968858 1.664281 0.528426 26.000000
3.954502 1.657450 -0.526476 4.000000
3.970052 1.663153 0.681741 40.000000
3.980355 1.667469 -0.377559 26.000000
3.947788 1.653016 0.831927 39.000000
3.972242 1.662441 -0.225673 27.000000
3.951536 1.652964 0.988885 37.000000
3.985048 1.666166 -0.075394 42.000000
3.937470 1.645464 1.143463 31.000000
2.803466 1.167545 -0.813727 9.000000
3.963661 1.649912 0.074941 42.000000
3.011907 1.253119 -0.753136 9.000000
3.957562 1.645755 0.224626 33.000000
3.295597 1.370476 -0.693782 7.000000
3.953720 1.643346 0.374595 35.000000
3.595533 1.493731 -0.616665 7.000000
3.932476 1.632909 0.522820 28.000000
3.947430 1.638308 -0.524769 3.000000
3.946640 1.637173 0.676736 42.000000
3.954866 1.640586 -0.374595 27.000000
3.928145 1.628699 0.826585 42.000000
3.957726 1.640153 -0.224521 28.000000
3.917673 1.622753 0.978987 37.000000
3.959430 1.639242 -0.074801 40.000000
3.925339 1.624323 1.138286 31.000000
2.814669 1.160698 -0.815798 9.000000
3.926873 1.618541 0.074138 36.000000
3.030677 1.248537 -0.756735 9.000000
3.931887 1.619002 0.222847 35.000000
3.303992 1.360458 -0.694545 7.000000
3.937322 1.620436 0.372504 41.000000
3.587937 1.475912 -0.614475 7.000000
3.919793 1.611622 0.520382 32.000000
3.910894 1.607166 -0.519163 1.000000
3.919441 1.609878 0.671104 35.000000
3.942138 1.619201 -0.372852 30.000000
3.902932 1.602301 0.820097 37.000000
3.939406 1.616472 -0.223161 33.000000
3.896268 1.597977 0.972238 36.000000
