# This PCD file was generated using the MATLAB® pcwrite function
# from Computer Vision Toolbox®.
# .PCD v.7 - Point Cloud Data file format
VERSION .7
FIELDS x y z intensity
SIZE 4 4 4 4
TYPE F F F F
COUNT 1 1 1 1
WIDTH 1290
HEIGHT 1
VIEWPOINT 0 0 0 1 0 0 0
POINTS 1290
DATA ascii
11.665126 12.991876 2.765449 18.000000
2.967021 3.304480 -0.388540 3.000000
3.313154 3.687386 -0.259796 1.000000
3.738306 4.157645 -0.097594 2.000000
30.976112 34.438690 12.411409 100.000000
1.963780 2.177940 -0.785775 11.000000
4.355577 4.828881 0.113510 2.000000
2.095292 2.322162 -0.722093 9.000000
5.179324 5.740121 0.405185 1.000000
2.278369 2.524176 -0.660962 9.000000
6.274266 6.948748 0.819090 1.000000
2.465455 2.729530 -0.582562 8.000000
8.138202 9.006725 1.490462 2.000000
2.703495 2.990970 -0.495033 4.000000
11.708142 12.953124 2.765449 18.000000
2.983884 3.300013 -0.389238 3.000000
3.320642 3.669877 -0.259377 1.000000
3.765493 4.160050 -0.097943 2.000000
31.092735 34.338657 12.412445 100.000000
1.955787 2.153909 -0.779563 11.000000
4.366190 4.808487 0.113371 2.000000
2.105601 2.318086 -0.722993 9.000000
5.183208 5.704273 0.403929 1.000000
2.284524 2.513302 -0.660199 9.000000
6.274358 6.900269 0.815952 1.000000
2.474492 2.721340 -0.582562 8.000000
8.168022 8.979691 1.490462 2.000000
2.710727 2.979051 -0.494546 4.000000
11.751960 12.910712 2.765136 18.000000
2.979289 3.271899 -0.387146 4.000000
3.327415 3.652938 -0.258958 1.000000
3.774604 4.140968 -0.097803 2.000000
31.208496 34.225636 12.410892 65.000000
1.962918 2.147412 -0.779563 10.000000
4.369455 4.778459 0.113022 2.000000
2.116310 2.313598 -0.723893 9.000000
5.178820 5.659621 0.402045 1.000000
2.295496 2.508610 -0.660962 9.000000
6.305279 6.888241 0.816998 1.000000
2.487978 2.717057 -0.583501 8.000000
8.199316 8.951125 1.490462 2.000000
2.726475 2.975425 -0.495521 5.000000
11.800957 12.873981 2.766075 18.000000
2.985303 3.255607 -0.386449 3.000000
3.361748 3.664849 -0.260633 1.000000
3.789033 4.127769 -0.097803 2.000000
31.326475 34.115055 12.410374 49.000000
1.976011 2.145887 -0.781634 11.000000
4.372562 4.748468 0.112673 2.000000
2.111170 2.291863 -0.719393 10.000000
5.239149 5.685571 0.405185 1.000000
2.308668 2.504509 -0.662107 9.000000
6.341288 6.876803 0.818392 1.000000
2.495241 2.705015 -0.582875 8.000000
8.230514 8.922448 1.490462 2.000000
2.736844 2.965890 -0.495521 5.000000
11.856545 12.844318 2.768577 18.000000
3.010167 3.259804 -0.388192 3.000000
3.369735 3.646637 -0.260214 1.000000
3.800705 4.111580 -0.097733 2.000000
31.446676 34.006924 12.410892 32.000000
1.978235 2.133311 -0.779563 11.000000
4.400817 4.744137 0.112952 2.000000
2.119556 2.284111 -0.719393 9.000000
5.207337 5.611616 0.401207 1.000000
2.320067 2.499314 -0.662870 9.000000
6.362544 6.851705 0.818044 1.000000
2.501979 2.693394 -0.582249 7.000000
8.263159 8.892223 1.490462 2.000000
2.747697 2.955838 -0.495521 4.000000
11.905346 12.807191 2.769516 18.000000
3.018813 3.246359 -0.387843 3.000000
3.382445 3.634851 -0.260214 1.000000
3.823208 4.107072 -0.097943 2.000000
31.523052 33.851711 12.394326 16.000000
1.998854 2.140512 -0.784739 11.000000
4.408333 4.720751 0.112743 2.000000
2.132440 2.282765 -0.721193 9.000000
5.226895 5.593403 0.401207 1.000000
2.326096 2.488331 -0.662107 9.000000
6.370090 6.811991 0.815952 1.000000
2.508199 2.682196 -0.581623 7.000000
8.292603 8.864771 1.490462 2.000000
2.743919 2.932216 -0.493083 5.000000
11.940527 12.755465 2.767326 18.000000
3.039660 3.245981 -0.389063 4.000000
3.378094 3.606124 -0.258958 1.000000
3.829316 4.084946 -0.097733 2.000000
31.535316 33.628727 12.352916 16.000000
1.992710 2.119796 -0.779563 11.000000
4.433006 4.714074 0.112952 2.000000
2.143065 2.278147 -0.722093 10.000000
5.246387 5.575125 0.401207 1.000000
2.331644 2.477745 -0.661344 9.000000
6.400837 6.799536 0.816998 1.000000
2.527026 2.683492 -0.583813 8.000000
8.323495 8.835773 1.490462 2.000000
2.762306 2.931289 -0.494546 4.000000
11.990396 12.719458 2.768577 18.000000
3.033204 3.216506 -0.386797 4.000000
3.412588 3.617556 -0.260633 1.000000
3.838063 4.065737 -0.097594 2.000000
1.997810 2.109672 -0.778528 12.000000
4.471435 4.721801 0.113510 2.000000
2.161726 2.281971 -0.725692 9.000000
5.315274 5.608967 0.404976 1.000000
2.342061 2.470606 -0.661726 7.000000
6.425714 6.776031 0.816998 1.000000
2.530047 2.667046 -0.582249 7.000000
8.354289 8.806662 1.490462 2.000000
2.780720 2.930268 -0.496008 5.000000
12.044239 12.687557 2.770767 18.000000
3.052644 3.214568 -0.387843 3.000000
3.414817 3.593442 -0.259796 1.000000
3.854986 4.055214 -0.097664 2.000000
2.010494 2.108278 -0.780598 12.000000
4.488710 4.705382 0.113510 2.000000
2.162004 2.265573 -0.722993 10.000000
5.285180 5.538363 0.401207 1.000000
2.349314 2.460996 -0.661344 9.000000
6.443825 6.747794 0.816301 1.000000
2.539342 2.658197 -0.582249 7.000000
8.386509 8.775984 1.490462 2.000000
2.785954 2.914317 -0.495033 5.000000
12.084364 12.641151 2.769829 18.000000
3.055585 3.195252 -0.386797 3.000000
3.421817 3.575728 -0.259377 1.000000
3.874650 4.047511 -0.097803 2.000000
2.023194 2.106820 -0.782669 11.000000
4.498750 4.684700 0.113371 2.000000
2.158705 2.247148 -0.719393 10.000000
5.304479 5.519882 0.401207 1.000000
2.360612 2.455611 -0.662107 9.000000
6.483915 6.742492 0.818392 1.000000
2.545404 2.646915 -0.581623 7.000000
8.415564 8.748127 1.490462 2.000000
2.792851 2.902201 -0.494546 3.000000
12.139378 12.610272 2.772332 18.000000
3.076392 3.194614 -0.388017 4.000000
3.433657 3.564360 -0.259377 1.000000
3.888752 4.033963 -0.097803 2.000000
32.001778 33.185143 12.352916 16.000000
2.032854 2.102878 -0.783704 12.000000
4.498390 4.651721 0.112952 2.000000
2.174665 2.248003 -0.722093 10.000000
5.359828 5.538647 0.403929 1.000000
2.357820 2.436483 -0.659054 9.000000
6.495154 6.709500 0.816998 1.000000
2.557376 2.640852 -0.582249 7.000000
8.446052 8.718696 1.490462 2.000000
2.800202 2.889583 -0.494058 5.000000
12.180570 12.564988 2.771706 18.000000
3.094460 3.191007 -0.388889 3.000000
3.446079 3.552352 -0.259377 1.000000
3.900025 4.017494 -0.097733 2.000000
2.035156 2.089877 -0.781634 13.000000
4.517392 4.638855 0.113022 2.000000
2.185219 2.243189 -0.722993 10.000000
5.342886 5.482715 0.401207 1.000000
2.369474 2.430637 -0.659818 10.000000
6.514135 6.679944 0.816301 1.000000
2.572555 2.637118 -0.583501 7.000000
8.476432 8.689162 1.490462 2.000000
2.810270 2.879793 -0.494058 4.000000
12.218841 12.516737 2.770455 18.000000
3.094445 3.168782 -0.387494 3.000000
3.478618 3.559696 -0.260842 1.000000
3.905639 3.995275 -0.097524 2.000000
2.038382 2.078622 -0.780081 13.000000
4.537164 4.625123 0.113092 2.000000
2.196155 2.237947 -0.723893 10.000000
2.383446 2.427955 -0.661344 11.000000
6.523449 6.642954 0.814558 1.000000
2.578977 2.625303 -0.582875 7.000000
8.508224 8.658033 1.490462 2.000000
2.823089 2.872797 -0.494546 3.000000
12.262448 12.474017 2.770455 18.000000
3.099899 3.152279 -0.386797 3.000000
3.491019 3.547534 -0.260842 1.000000
3.927977 3.990169 -0.097733 2.000000
2.041193 2.067726 -0.778528 13.000000
4.538427 4.595822 0.112743 2.000000
2.198086 2.225107 -0.722093 10.000000
5.380082 5.446219 0.401207 1.000000
2.391485 2.420037 -0.661344 9.000000
6.559450 6.635452 0.816301 1.000000
2.579334 2.608309 -0.580998 7.000000
8.536891 8.629769 1.490462 2.000000
2.838185 2.869063 -0.495521 4.000000
12.317645 12.447323 2.773583 18.000000
3.113138 3.144814 -0.387146 3.000000
3.488709 3.521748 -0.259796 1.000000
3.941187 3.977122 -0.097733 2.000000
2.054847 2.067798 -0.781116 13.000000
4.564919 4.592093 0.113022 2.000000
2.199957 2.212278 -0.720293 9.000000
5.466673 5.495371 0.406232 1.000000
2.405035 2.417661 -0.662870 9.000000
6.581417 6.613665 0.816301 1.000000
2.593544 2.605340 -0.582249 7.000000
8.565460 8.601415 1.490462 2.000000
2.836972 2.847890 -0.493571 3.000000
12.341500 12.384657 2.769203 18.000000
3.132537 3.142394 -0.388192 3.000000
3.500370 3.510159 -0.259796 1.000000
3.949397 3.957678 -0.097594 2.000000
2.069245 2.067080 -0.783704 11.000000
4.606387 4.601568 0.113650 2.000000
2.213181 2.210093 -0.722093 10.000000
5.417973 5.408527 0.401207 1.000000
2.411100 2.406057 -0.662107 9.000000
6.622545 6.606380 0.818392 1.000000
2.605873 2.598607 -0.582875 7.000000
8.595430 8.571465 1.490462 2.000000
2.849709 2.840772 -0.494058 4.000000
12.400050 12.356835 2.772645 18.000000
3.143486 3.131441 -0.388192 3.000000
3.513213 3.497305 -0.259796 1.000000
3.968856 3.949510 -0.097733 2.000000
2.072333 2.055763 -0.782151 13.000000
4.611862 4.573390 0.113371 2.000000
2.226803 2.207454 -0.723893 10.000000
5.504905 5.457073 0.406232 1.000000
2.412511 2.390717 -0.660199 10.000000
6.631407 6.569205 0.816649 1.000000
2.620543 2.595054 -0.584126 7.000000
8.626786 8.539905 1.490462 2.000000
2.865746 2.835892 -0.495033 5.000000
12.444510 12.314869 2.772958 18.000000
3.145900 3.112041 -0.387146 3.000000
3.525398 3.485021 -0.259796 1.000000
3.991154 3.944065 -0.097943 2.000000
2.078120 2.047160 -0.781634 13.000000
4.615607 4.546844 0.113092 2.000000
2.236887 2.202793 -0.724792 10.000000
5.492606 5.407001 0.403929 1.000000
2.427839 2.389166 -0.662107 9.000000
6.657139 6.548810 0.816998 1.000000
2.617868 2.575268 -0.581623 7.000000
8.655061 8.511249 1.490462 2.000000
2.877965 2.829157 -0.495521 5.000000
12.486010 12.269972 2.772645 18.000000
3.170957 3.115004 -0.388889 3.000000
3.551185 3.487306 -0.260842 1.000000
3.993478 3.918905 -0.097664 2.000000
2.084897 2.040258 -0.781634 13.000000
4.628593 4.527906 0.113022 2.000000
2.236202 2.186797 -0.722093 10.000000
5.473377 5.352451 0.401207 1.000000
2.434345 2.379729 -0.661726 10.000000
6.678821 6.526696 0.816998 1.000000
2.626841 2.566115 -0.581623 7.000000
2.890665 2.821867 -0.496008 4.000000
12.537942 12.239536 2.775148 19.000000
3.175564 3.098906 -0.388192 3.000000
3.549039 3.460943 -0.259796 1.000000
4.006451 3.905642 -0.097664 2.000000
2.092007 2.032968 -0.781634 13.000000
4.646450 4.515321 0.113092 2.000000
2.235056 2.171221 -0.719393 10.000000
5.529283 5.369488 0.403929 1.000000
2.449680 2.378054 -0.663634 9.000000
6.707280 6.508894 0.817695 1.000000
2.638172 2.560141 -0.582249 7.000000
8.712795 8.452138 1.490462 2.000000
2.882905 2.795682 -0.493083 5.000000
12.566403 12.181948 2.772019 18.000000
3.189224 3.090575 -0.388540 3.000000
12.560481 12.171957 3.399835 4.000000
3.560495 3.449156 -0.259796 1.000000
4.034428 3.905540 -0.098013 2.000000
2.103261 2.029678 -0.783186 13.000000
4.648577 4.484375 0.112743 2.000000
2.254220 2.173837 -0.722993 10.000000
5.511539 5.313147 0.401207 1.000000
2.449485 2.361314 -0.661344 10.000000
6.729961 6.485440 0.817695 1.000000
2.653229 2.555935 -0.583501 7.000000
8.743712 8.420149 1.490462 2.000000
2.890274 2.782343 -0.492596 5.000000
12.618089 12.142655 2.773583 18.000000
3.202865 3.082186 -0.388889 3.000000
3.584631 3.447157 -0.260633 1.000000
4.022762 3.865788 -0.097384 2.000000
2.093596 2.006284 -0.776975 13.000000
4.684416 4.487492 0.113231 2.000000
2.261796 2.165955 -0.722993 11.000000
5.530053 5.293874 0.401207 1.000000
2.452040 2.347318 -0.659818 9.000000
6.746797 6.456403 0.816998 1.000000
2.659279 2.543928 -0.582875 7.000000
8.773053 8.389574 1.490462 2.000000
2.914315 2.785957 -0.495033 5.000000
12.596129 12.037124 2.759504 9.000000
3.202080 3.059975 -0.387494 3.000000
12.539371 11.978698 3.370832 34.000000
3.579308 3.418072 -0.259377 1.000000
12.432493 11.868303 3.968137 42.000000
4.065166 3.879331 -0.098083 2.000000
12.328860 11.761140 4.565568 48.000000
2.110382 2.008286 -0.780598 13.000000
4.700053 4.471111 0.113231 2.000000
2.272167 2.160732 -0.723893 10.000000
5.586134 5.310318 0.403929 1.000000
2.468756 2.346861 -0.662107 9.000000
6.760628 6.424576 0.815952 1.000000
2.668144 2.534629 -0.582875 7.000000
12.829886 12.183629 2.172443 4.000000
2.926902 2.778499 -0.495521 5.000000
12.600817 11.957724 2.751370 9.000000
3.224305 3.059750 -0.388889 3.000000
12.581104 11.934857 3.370832 81.000000
3.608607 3.422049 -0.260633 1.000000
12.479506 11.830194 3.969936 56.000000
4.069973 3.856866 -0.097873 2.000000
12.374039 11.722026 4.567121 77.000000
2.125804 2.008868 -0.783704 13.000000
4.715632 4.454677 0.113231 2.000000
2.268359 2.142085 -0.720293 10.000000
5.604638 5.290785 0.403929 1.000000
2.482644 2.343619 -0.663634 9.000000
6.788812 6.406407 0.816649 1.000000
2.674099 2.522591 -0.582249 7.000000
12.872341 12.138766 2.172443 4.000000
2.942362 2.773712 -0.496496 4.000000
12.570591 11.845938 2.735726 9.000000
3.232064 3.045746 -0.388540 3.000000
12.615547 11.884135 3.368924 81.000000
3.591451 3.382046 -0.258540 1.000000
12.527812 11.793246 3.972186 72.000000
4.086325 3.845375 -0.097943 2.000000
12.421919 11.685376 4.569709 71.000000
2.125760 1.994825 -0.781116 13.000000
4.736986 4.443662 0.113371 2.000000
2.275823 2.134153 -0.720293 10.000000
13.153533 12.330400 0.944873 4.000000
2.487946 2.332253 -0.662870 9.000000
6.831485 6.401744 0.819090 1.000000
2.682889 2.513241 -0.582249 7.000000
12.914638 12.093757 2.172443 4.000000
2.940432 2.752571 -0.494546 5.000000
3.239767 3.031722 -0.388192 3.000000
12.665559 11.848070 3.371214 81.000000
3.628034 3.392681 -0.260319 3.000000
12.564634 11.745448 3.970836 66.000000
4.096801 3.828356 -0.097873 2.000000
12.469688 11.648540 4.572297 69.000000
2.135536 1.990028 -0.782151 13.000000
4.746617 4.421647 0.113231 2.000000
2.291816 2.134165 -0.722993 10.000000
13.249114 12.333409 0.948642 4.000000
2.488885 2.316868 -0.660962 9.000000
6.845040 6.369713 0.818044 1.000000
2.703217 2.514623 -0.584752 7.000000
12.956765 12.048612 2.172443 4.000000
2.947115 2.739587 -0.494058 5.000000
3.256169 3.025819 -0.388889 4.000000
12.725531 11.821166 3.376174 89.000000
3.644245 3.384072 -0.260633 1.000000
12.615558 11.710795 3.973985 72.000000
4.098411 3.803153 -0.097594 2.000000
12.518776 11.612823 4.575403 74.000000
2.145306 1.985185 -0.783186 13.000000
4.779636 4.421347 0.113650 2.000000
2.296390 2.123505 -0.722093 10.000000
13.237153 12.240586 0.944873 4.000000
2.501283 2.312163 -0.662107 9.000000
6.878937 6.356600 0.819438 1.000000
2.703271 2.497130 -0.582875 7.000000
12.997289 12.001959 2.172199 4.000000
2.959100 2.732493 -0.494546 5.000000
3.269639 3.017137 -0.389238 3.000000
12.766720 11.776670 3.376174 89.000000
3.658973 3.374038 -0.260842 1.000000
12.658624 11.672856 3.975335 68.000000
4.119823 3.797672 -0.097803 2.000000
12.557214 11.571247 4.575403 77.000000
2.139077 1.966293 -0.778528 13.000000
4.782492 4.394649 0.113371 2.000000
2.309160 2.121152 -0.723893 10.000000
13.248250 12.169601 0.942780 4.000000
2.508938 2.303855 -0.662107 9.000000
6.882364 6.317587 0.817347 1.000000
2.705715 2.482810 -0.581623 7.000000
13.037021 11.958789 2.172199 4.000000
2.979849 2.733399 -0.496496 5.000000
12.838428 11.772507 2.758879 9.000000
3.263470 2.991469 -0.387320 4.000000
12.810048 11.738245 3.377319 100.000000
3.655412 3.348397 -0.259796 1.000000
12.710187 11.642670 3.979384 76.000000
4.138292 3.789393 -0.097943 2.000000
12.595520 11.529540 4.575403 92.000000
2.151292 1.964400 -0.780598 13.000000
4.758640 4.343713 0.112463 2.000000
2.310423 2.108228 -0.722093 10.000000
5.709064 5.207613 0.404976 1.000000
2.519464 2.298169 -0.662870 9.000000
6.920945 6.310837 0.819438 1.000000
2.711015 2.471162 -0.580998 7.000000
8.971090 8.174521 1.490219 2.000000
2.989372 2.722982 -0.496496 5.000000
12.599013 11.472263 2.698808 8.000000
3.280738 2.987337 -0.388192 4.000000
12.828575 11.677201 3.371977 34.000000
3.672405 3.341633 -0.260214 1.000000
12.734898 11.583805 3.974435 29.000000
4.151495 3.774923 -0.097943 2.000000
12.621390 11.472510 4.570227 31.000000
2.165291 1.963367 -0.783186 13.000000
4.806368 4.356622 0.113231 2.000000
2.311993 2.094916 -0.720293 10.000000
5.712403 5.174246 0.403929 1.000000
2.524560 2.286725 -0.662107 9.000000
6.945884 6.289316 0.819787 1.000000
2.731341 2.472288 -0.583501 7.000000
8.999568 8.143159 1.490219 2.000000
2.992969 2.707204 -0.495521 5.000000
3.297058 2.981211 -0.388889 4.000000
12.439601 11.243994 3.259399 3.000000
3.698866 3.342184 -0.261261 1.000000
12.345752 11.151327 3.840814 3.000000
4.161677 3.757729 -0.097873 2.000000
12.248352 11.055589 4.421147 5.000000
2.169261 1.953211 -0.782151 13.000000
4.827490 4.345170 0.113371 2.000000
2.327983 2.094654 -0.722993 10.000000
5.691823 5.119546 0.401207 1.000000
2.538366 2.283150 -0.663634 9.000000
6.967794 6.265033 0.819787 1.000000
2.734077 2.457457 -0.582249 7.000000
9.027941 8.111692 1.490219 2.000000
2.999447 2.694087 -0.495033 4.000000
3.298549 2.961698 -0.387843 3.000000
12.113515 10.872654 3.163995 3.000000
3.689699 3.310578 -0.259796 1.000000
11.998713 10.762053 3.721141 3.000000
4.171793 3.740508 -0.097803 2.000000
11.940169 10.702024 4.296396 5.000000
2.171744 1.941764 -0.780598 13.000000
4.842629 4.328291 0.113371 2.000000
2.332373 2.083919 -0.722093 10.000000
5.709657 5.099648 0.401207 1.000000
2.537534 2.266429 -0.661344 9.000000
7.001512 6.251287 0.821181 1.000000
2.754428 2.458422 -0.584752 7.000000
3.014758 2.688886 -0.496008 4.000000
11.789563 10.511507 2.501700 7.000000
3.311841 2.952818 -0.388192 3.000000
11.796715 10.514189 3.071644 6.000000
3.707197 3.302994 -0.260214 1.000000
11.691320 10.412923 3.614514 6.000000
4.184824 3.725922 -0.097803 2.000000
11.616686 10.339190 4.166986 5.000000
2.181399 1.936736 -0.781634 12.000000
4.842754 4.298086 0.113022 2.000000
2.345464 2.080938 -0.723893 10.000000
5.766275 5.114141 0.403929 1.000000
2.551306 2.262768 -0.662870 9.000000
7.008384 6.213589 0.819438 1.000000
2.762992 2.448793 -0.584752 7.000000
9.084351 8.048468 1.490219 2.000000
3.033043 2.686242 -0.497471 5.000000
11.530378 10.208405 2.439126 7.000000
3.322127 2.941241 -0.388192 4.000000
11.499619 10.177583 2.985016 5.000000
3.727679 3.297972 -0.260842 1.000000
11.402066 10.084160 3.514185 5.000000
4.200801 3.713941 -0.097873 2.000000
11.322669 10.006888 4.048965 5.000000
2.186697 1.927833 -0.781116 13.000000
4.884730 4.304955 0.113650 2.000000
2.349790 2.070161 -0.722993 10.000000
5.799079 5.107183 0.404976 1.000000
2.556242 2.251253 -0.662107 9.000000
7.021057 6.181190 0.818392 1.000000
2.759661 2.428692 -0.582249 7.000000
9.112391 8.016706 1.490219 2.000000
3.048363 2.680883 -0.498446 5.000000
11.275165 9.912454 2.377804 6.000000
3.326389 2.924363 -0.387494 3.000000
11.216544 9.857439 2.902587 5.000000
3.757174 3.300759 -0.262098 1.000000
11.151672 9.793541 3.426454 5.000000
4.222757 3.707170 -0.098083 2.000000
11.065677 9.711179 3.944920 7.000000
2.194866 1.921461 -0.781634 13.000000
4.902739 4.290511 0.113720 2.000000
2.354069 2.059380 -0.722093 10.000000
5.815985 5.087924 0.404976 1.000000
2.572951 2.250072 -0.664397 9.000000
7.051592 6.164511 0.819438 1.000000
2.768122 2.419044 -0.582249 7.000000
3.042751 2.657168 -0.496008 4.000000
10.965761 9.576158 2.305844 6.000000
3.351587 2.925836 -0.389238 3.000000
10.965390 9.569098 2.828934 7.000000
3.741583 3.263990 -0.260214 1.000000
10.865612 9.475337 3.328376 5.000000
4.244069 3.701033 -0.098292 2.000000
10.797837 9.412927 3.838287 6.000000
2.204476 1.916322 -0.782669 13.000000
4.925994 4.282102 0.113929 2.000000
2.360883 2.051564 -0.722093 10.000000
5.779427 5.020440 0.401207 1.000000
2.571896 2.233353 -0.662107 9.000000
7.100145 6.163373 0.822576 1.000000
2.782094 2.415032 -0.583501 7.000000
3.054545 2.649665 -0.496496 4.000000
10.733473 9.307462 2.250154 6.000000
3.361779 2.914120 -0.389238 3.000000
10.691467 9.267776 2.750321 7.000000
3.752385 3.251565 -0.260214 1.000000
10.609749 9.190447 3.240645 7.000000
4.253938 3.683579 -0.098222 2.000000
10.556030 9.137477 3.740971 6.000000
2.207895 1.906476 -0.781634 11.000000
4.928800 4.254428 0.113650 2.000000
2.376883 2.050948 -0.724792 10.000000
5.890685 5.081114 0.407697 1.000000
2.576316 2.222246 -0.661344 9.000000
7.108475 6.129383 0.821181 1.000000
2.802478 2.415623 -0.586004 7.000000
9.194458 7.922449 1.490219 2.000000
3.066783 2.641578 -0.496983 4.000000
10.499438 9.040518 2.194463 6.000000
3.365384 2.897756 -0.388540 3.000000
10.452945 8.997299 2.680866 7.000000
3.775824 3.248870 -0.261052 1.000000
10.372869 8.922083 3.158763 7.000000
4.251609 3.655669 -0.097873 2.000000
10.312437 8.863832 3.643655 6.000000
2.214535 1.898759 -0.781634 13.000000
4.937549 4.231991 0.113510 2.000000
2.389948 2.047710 -0.726592 10.000000
5.871976 5.029343 0.405185 1.000000
2.595984 2.223459 -0.664397 9.000000
7.120749 6.096756 0.820136 1.000000
2.798887 2.395550 -0.583501 7.000000
9.222051 7.890313 1.490219 2.000000
3.069951 2.625695 -0.496008 4.000000
10.242661 8.757340 2.134392 5.000000
3.357307 2.870454 -0.386449 3.000000
10.203707 8.720961 2.609122 6.000000
3.796253 3.243453 -0.261680 1.000000
10.143150 8.663072 3.079580 6.000000
4.264341 3.640809 -0.097873 2.000000
10.097918 8.618344 3.557209 8.000000
2.227034 1.896026 -0.783704 11.000000
4.982749 4.240649 0.114209 2.000000
2.391144 2.034304 -0.724792 10.000000
5.889498 5.008814 0.405185 1.000000
2.600739 2.211839 -0.663634 9.000000
7.157168 6.084765 0.821879 1.000000
2.801211 2.380649 -0.582249 7.000000
9.249539 7.858071 1.490219 2.000000
3.088177 2.622673 -0.497471 3.000000
10.017166 8.504201 2.081204 5.000000
3.388570 2.876770 -0.388889 3.000000
9.985608 8.474412 2.545774 8.000000
3.786230 3.212092 -0.260214 1.000000
9.928097 8.419644 3.005346 9.000000
4.286176 3.633659 -0.098083 2.000000
9.886240 8.378207 3.472316 10.000000
2.236589 1.890735 -0.784739 13.000000
4.973080 4.202583 0.113650 2.000000
2.386321 2.015884 -0.721193 10.000000
5.906947 4.988224 0.405185 1.000000
2.608445 2.202746 -0.663634 9.000000
7.184450 6.064891 0.822576 1.000000
2.812524 2.373403 -0.582875 7.000000
3.097311 2.611879 -0.497471 3.000000
9.835343 8.290935 2.037403 5.000000
3.416872 2.880333 -0.390981 3.000000
9.777926 8.239614 2.485478 8.000000
3.818804 3.216871 -0.261680 1.000000
9.729362 8.192884 2.936511 8.000000
4.311074 3.628976 -0.098362 2.000000
9.673006 8.139660 3.387424 11.000000
2.247615 1.886642 -0.786292 13.000000
4.996912 4.192909 0.113859 2.000000
2.402301 2.015057 -0.723893 10.000000
5.939627 4.980408 0.406232 1.000000
2.613109 2.191105 -0.662870 9.000000
7.211686 6.044893 0.823273 1.000000
2.826848 2.368647 -0.584126 7.000000
9.365044 7.844292 1.499968 2.000000
3.109454 2.603599 -0.497958 4.000000
9.640039 8.068901 1.991098 5.000000
3.417739 2.860714 -0.389935 3.000000
9.585288 8.020236 2.429380 11.000000
3.836137 3.208648 -0.262098 1.000000
9.530663 7.968867 2.868126 10.000000
4.314508 3.606212 -0.098152 2.000000
9.505671 7.942342 3.319096 11.000000
2.240831 1.867652 -0.781634 12.000000
5.011517 4.175441 0.113859 2.000000
2.418305 2.014142 -0.726592 10.000000
5.938557 4.944308 0.404976 1.000000
2.619233 2.180714 -0.662489 9.000000
7.238867 6.024782 0.823970 1.000000
2.844210 2.366344 -0.586004 7.000000
9.337427 7.765856 1.491193 2.000000
3.112417 2.587653 -0.496983 5.000000
9.449382 7.853389 1.946045 5.000000
3.433833 2.853862 -0.390632 3.000000
9.413897 7.821120 2.379007 9.000000
3.853459 3.200343 -0.262517 1.000000
9.357505 7.768750 2.807839 10.000000
4.320916 3.586020 -0.098013 2.000000
9.295451 7.711753 3.236274 10.000000
2.244360 1.857356 -0.780598 13.000000
5.041471 4.170668 0.114209 2.000000
2.431328 2.010655 -0.728392 10.000000
5.995802 4.956636 0.407697 1.000000
2.635908 2.179064 -0.664779 7.000000
7.247568 5.989323 0.822576 1.000000
2.852453 2.356402 -0.586004 7.000000
3.124494 2.579300 -0.497471 5.000000
9.257339 7.639308 1.900992 5.000000
3.422259 2.824105 -0.388192 3.000000
9.220027 7.605814 2.323290 8.000000
3.864608 3.186871 -0.262517 1.000000
9.181565 7.568701 2.747102 11.000000
4.336493 3.573460 -0.098083 2.000000
9.122506 7.514670 3.166910 12.000000
2.265756 1.861775 -0.785775 11.000000
5.055999 4.153043 0.114209 2.000000
2.423271 1.989790 -0.723893 10.000000
5.972930 4.902728 0.404976 1.000000
2.640463 2.167357 -0.664015 7.000000
7.293076 5.984207 0.825365 1.000000
2.848442 2.336410 -0.583501 7.000000
3.142690 2.575927 -0.498933 4.000000
9.094478 7.451705 1.862196 4.000000
3.447507 2.824769 -0.389935 3.000000
9.043002 7.406883 2.272154 10.000000
3.869528 3.168300 -0.262098 1.000000
9.014901 7.378618 2.689515 11.000000
4.370608 3.576027 -0.098571 2.000000
8.949799 7.320109 3.098064 12.000000
2.270420 1.853030 -0.785257 13.000000
5.069741 4.136258 0.114209 2.000000
2.420795 1.974353 -0.721193 10.000000
6.085130 4.961143 0.411465 1.000000
2.650679 2.161071 -0.664779 7.000000
7.309790 5.957472 0.825016 1.000000
2.862300 2.331941 -0.584752 7.000000
3.145056 2.560479 -0.497958 3.000000
8.932224 7.269383 1.824026 9.000000
3.450675 2.808290 -0.389238 3.000000
8.884761 7.228179 2.226359 10.000000
3.867616 3.145370 -0.261261 1.000000
8.841237 7.187643 2.630578 9.000000
4.373131 3.553948 -0.098362 2.000000
8.800091 7.149092 3.038018 12.000000
2.278375 1.846310 -0.785775 12.000000
5.115226 4.143709 0.114907 2.000000
2.445846 1.980606 -0.726592 10.000000
6.046524 4.894634 0.407697 1.000000
2.655154 2.149335 -0.664015 9.000000
7.330540 5.931922 0.825016 1.000000
2.882710 2.331873 -0.587255 7.000000
8.721215 7.052229 1.377124 6.000000
3.157062 2.551982 -0.498446 4.000000
8.773170 7.089172 1.786482 9.000000
3.485253 2.816263 -0.392027 3.000000
8.732780 7.054016 2.182092 11.000000
3.897218 3.146908 -0.262517 1.000000
8.688859 7.013528 2.577939 11.000000
4.376173 3.531126 -0.098152 2.000000
8.650565 6.977639 2.977972 12.000000
2.287817 1.840767 -0.786810 11.000000
5.129660 4.125826 0.114907 2.000000
2.452744 1.972059 -0.726592 9.000000
6.041779 4.855979 0.406232 1.000000
2.659580 2.137593 -0.663252 7.000000
7.363629 5.916279 0.826411 1.000000
2.887750 2.319325 -0.586629 7.000000
8.615755 6.917348 1.356650 6.000000
3.172144 2.545915 -0.499421 3.000000
8.612965 6.910171 1.748937 9.000000
3.476411 2.789120 -0.389935 3.000000
8.578158 6.879779 2.137443 13.000000
3.905064 3.130785 -0.262308 1.000000
8.527765 6.834480 2.523051 12.000000
4.400957 3.525832 -0.098432 2.000000
8.493925 6.802485 2.915856 13.000000
2.279135 1.820712 -0.781634 12.000000
5.112778 4.082940 0.114209 2.000000
2.465705 1.968347 -0.728392 9.000000
6.096160 4.864757 0.408744 1.000000
2.670095 2.130745 -0.664015 7.000000
7.387349 5.893025 0.826759 1.000000
2.877296 2.294451 -0.582875 7.000000
8.483072 6.762253 1.332032 6.000000
3.174802 2.529879 -0.498446 4.000000
8.451625 6.732368 1.711393 4.000000
3.479893 2.772002 -0.389238 3.000000
8.414753 6.700590 2.090885 14.000000
3.928469 3.127087 -0.263145 1.000000
8.392983 6.678476 2.476261 12.000000
4.416368 3.512937 -0.098501 2.000000
8.357334 6.645347 2.860986 13.000000
2.291530 1.817549 -0.783704 11.000000
5.158339 4.089914 0.114907 2.000000
2.466452 1.954886 -0.726592 9.000000
2.680593 2.123852 -0.664779 7.000000
7.389134 5.852357 0.824668 1.000000
2.897678 2.294202 -0.585378 7.000000
8.312051 6.578613 1.301565 6.000000
3.189841 2.523707 -0.499421 4.000000
8.329434 6.587638 1.681984 4.000000
3.486423 2.757365 -0.388889 3.000000
8.271757 6.539683 2.049670 14.000000
3.929960 3.105923 -0.262517 1.000000
8.244985 6.513834 2.425872 12.000000
4.425463 3.495024 -0.098432 2.000000
8.213692 6.484456 2.804046 14.000000
2.310003 1.819100 -0.787845 11.000000
5.141156 4.047149 0.114209 2.000000
2.464072 1.939034 -0.723893 9.000000
6.114275 4.809733 0.407697 1.000000
2.689534 2.115695 -0.665160 9.000000
7.443975 5.853621 0.828502 1.000000
2.905668 2.284074 -0.585378 7.000000
8.185123 6.431812 1.278166 11.000000
3.195509 2.510104 -0.498933 4.000000
8.201674 6.440188 1.651635 8.000000
3.496027 2.745180 -0.388889 3.000000
8.130838 6.382273 2.009219 14.000000
3.934493 3.087254 -0.262098 1.000000
8.100538 6.353920 2.376833 14.000000
4.450226 3.489425 -0.098711 2.000000
8.078152 6.331800 2.750211 14.000000
2.316338 1.811026 -0.787845 12.000000
5.215125 4.075971 0.115535 2.000000
2.483111 1.940019 -0.727492 9.000000
6.187692 4.832620 0.411465 1.000000
2.686071 2.097836 -0.662489 7.000000
7.458076 5.822701 0.827805 1.000000
2.910509 2.271486 -0.584752 7.000000
8.057271 6.285982 1.254767 5.000000
3.197989 2.494053 -0.497958 4.000000
8.040276 6.268203 1.614717 8.000000
3.515016 2.740308 -0.389935 3.000000
8.005959 6.239202 1.972965 18.000000
3.951546 3.078413 -0.262517 1.000000
7.970457 6.207066 2.332292 14.000000
4.471848 3.481238 -0.098920 2.000000
7.953839 6.189672 2.700518 17.000000
2.313490 1.795821 -0.784739 11.000000
5.194565 4.030770 0.114767 2.000000
2.492947 1.933728 -0.728392 10.000000
6.204525 4.810990 0.411465 1.000000
2.696481 2.090852 -0.663252 7.000000
7.481508 5.799071 0.828154 1.000000
2.927789 2.268572 -0.586629 7.000000
7.928505 6.141120 1.231368 5.000000
3.209815 2.485305 -0.498446 3.000000
7.905893 6.119192 1.583430 8.000000
3.515106 2.720706 -0.388889 3.000000
7.887940 6.103095 1.938620 18.000000
3.946470 3.052381 -0.261470 1.000000
7.854864 6.073121 2.292251 15.000000
4.483972 3.465609 -0.098920 2.000000
7.822524 6.043756 2.648754 17.000000
2.325866 1.792451 -0.786810 11.000000
5.214939 4.017496 0.114907 2.000000
2.508945 1.932149 -0.731091 9.000000
6.172971 4.753830 0.408325 1.000000
2.716209 2.091007 -0.666305 7.000000
7.504861 5.775352 0.828502 1.000000
2.940387 2.261952 -0.587568 7.000000
7.814564 6.009336 1.210406 5.000000
3.234208 2.486184 -0.500883 4.000000
7.800851 5.996631 1.558400 7.000000
3.534060 2.715704 -0.389935 3.000000
7.762846 5.963100 1.902747 19.000000
3.982445 3.058050 -0.263145 1.000000
7.743073 5.943621 2.253560 15.000000
4.485921 3.443415 -0.098711 2.000000
7.704587 5.911937 2.602167 17.000000
2.332108 1.784322 -0.786810 11.000000
5.234587 4.005040 0.115046 2.000000
2.502956 1.914347 -0.727492 9.000000
6.237128 4.768645 0.411465 1.000000
2.720371 2.079129 -0.665542 7.000000
7.542392 5.762424 0.830420 3.000000
2.944732 2.249790 -0.586942 7.000000
7.689307 5.872543 1.187982 4.000000
3.232969 2.468217 -0.499421 4.000000
7.686690 5.866297 1.531494 7.000000
3.553023 2.710601 -0.390981 3.000000
7.638974 5.827773 1.867638 19.000000
3.998918 3.049670 -0.263564 1.000000
7.629462 5.816304 2.214868 15.000000
4.507457 3.435007 -0.098920 2.000000
7.593016 5.784329 2.557650 18.000000
2.338012 1.776579 -0.786810 11.000000
5.235795 3.977067 0.114767 2.000000
2.503414 1.900885 -0.725692 9.000000
6.253735 4.746846 0.411465 1.000000
2.735070 2.076032 -0.667450 6.000000
7.539237 5.720521 0.827980 5.000000
2.960438 2.245465 -0.588507 7.000000
7.575304 5.743722 1.167265 6.000000
3.235236 2.452121 -0.498446 4.000000
7.574865 5.739222 1.505213 7.000000
3.571522 2.706022 -0.392027 3.000000
7.540327 5.710988 1.838636 19.000000
3.998392 3.027254 -0.262831 3.000000
7.503655 5.679087 2.172577 16.000000
4.519420 3.419253 -0.098920 2.000000
7.480652 5.657571 2.513133 20.000000
2.353453 1.775386 -0.789916 10.000000
5.262417 3.968400 0.115046 2.000000
2.516260 1.896826 -0.727492 9.000000
6.270268 4.724986 0.411465 1.000000
2.731325 2.058201 -0.664779 7.000000
7.516190 5.661804 0.823273 1.000000
2.968257 2.235118 -0.588507 7.000000
7.479531 5.630094 1.149472 6.000000
3.248534 2.444395 -0.499177 3.000000
7.468560 5.617753 1.480183 7.000000
3.577761 2.691144 -0.391678 3.000000
7.431547 5.587881 1.807343 20.000000
4.036077 3.033678 -0.264611 1.000000
7.394121 5.555701 2.135236 16.000000
4.553713 3.420268 -0.099409 2.000000
7.367494 5.531672 2.468616 20.000000
2.350358 1.760213 -0.786810 10.000000
5.285843 3.957196 0.115256 2.000000
2.522865 1.888032 -0.727492 9.000000
6.285901 4.704168 0.411465 1.000000
2.741636 2.051007 -0.665542 7.000000
7.347631 5.494733 0.802704 1.000000
2.977623 2.225927 -0.588819 7.000000
7.387827 5.520772 1.132410 7.000000
3.274114 2.446679 -0.501858 4.000000
7.347880 5.488923 1.452651 7.000000
3.587134 2.678638 -0.391678 3.000000
7.328290 5.470304 1.777577 20.000000
4.040238 3.014794 -0.264192 1.000000
7.301612 5.448406 2.103292 16.000000
4.529768 3.378844 -0.098641 2.000000
7.271192 5.421758 2.430311 21.000000
2.346881 1.745492 -0.783704 11.000000
5.311776 3.949189 0.115535 2.000000
2.538497 1.886629 -0.730191 9.000000
6.269407 4.659468 0.409372 1.000000
2.745270 2.039563 -0.664779 7.000000
7.250648 5.384806 0.790154 1.000000
2.981817 2.213685 -0.588194 6.000000
7.270597 5.395689 1.111692 4.000000
3.272645 2.428711 -0.500396 3.000000
7.239124 5.370369 1.427621 7.000000
3.589594 2.661982 -0.390981 3.000000
7.229680 5.359457 1.749337 21.000000
4.059842 3.008514 -0.264820 1.000000
7.191254 5.329021 2.066401 16.000000
4.553802 3.373327 -0.098920 2.000000
7.171139 5.310244 2.390970 19.000000
2.365088 1.746881 -0.787845 12.000000
5.311972 3.922051 0.115256 2.000000
2.541603 1.875887 -0.729291 9.000000
6.317776 4.661272 0.411465 1.000000
2.761853 2.036959 -0.667068 7.000000
7.116136 5.248386 0.773594 3.000000
2.981192 2.197923 -0.586629 7.000000
7.168600 5.283219 1.093412 4.000000
3.297086 2.429046 -0.502833 4.000000
7.151259 5.266582 1.406659 6.000000
3.598864 2.649436 -0.390981 3.000000
7.123428 5.242257 1.719189 23.000000
4.051014 2.980120 -0.263564 1.000000
7.115628 5.234598 2.039406 17.000000
4.594546 3.378736 -0.099549 2.000000
7.076005 5.201649 2.353183 21.000000
2.365242 1.733634 -0.785775 10.000000
5.339215 3.912012 0.115535 2.000000
2.542174 1.861952 -0.727492 9.000000
6.334817 4.638086 0.411465 1.000000
2.769300 2.026823 -0.667068 7.000000
7.062973 5.169319 0.765750 18.000000
2.995604 2.191648 -0.587881 7.000000
7.062939 5.165504 1.074400 5.000000
3.280326 2.398201 -0.498933 4.000000
7.050898 5.152921 1.383194 6.000000
3.631074 2.652681 -0.393421 3.000000
7.030024 5.133907 1.692094 21.000000
4.055457 2.960543 -0.263145 1.000000
7.007275 5.115414 2.002964 17.000000
4.606900 3.361872 -0.099549 2.000000
6.984211 5.094846 2.316431 22.000000
2.377830 1.729498 -0.787845 10.000000
5.353517 3.892418 0.115535 2.000000
2.555286 1.857206 -0.729291 9.000000
6.351775 4.614835 0.411465 1.000000
2.770006 2.012527 -0.665542 7.000000
6.980310 5.069637 0.754769 12.000000
3.006813 2.182975 -0.588507 7.000000
6.979001 5.064961 1.058801 6.000000
3.301947 2.395488 -0.500883 3.000000
6.967392 5.052824 1.363170 6.000000
3.617731 2.623615 -0.390981 3.000000
6.927101 5.021760 1.663091 22.000000
4.094877 2.967463 -0.265029 1.000000
6.901300 4.999382 1.967422 20.000000
4.635386 3.356694 -0.099898 2.000000
6.901124 4.995578 2.282784 22.000000
2.393250 1.727973 -0.790951 10.000000
5.386530 3.887749 0.115954 2.000000
2.564914 1.850554 -0.730191 9.000000
6.345165 4.576280 0.410000 1.000000
2.783383 2.007440 -0.667068 7.000000
6.904228 4.977657 0.744659 16.000000
3.033646 2.186325 -0.592261 7.000000
6.899999 4.970950 1.044177 5.000000
3.311900 2.385107 -0.501127 3.000000
6.863147 4.940758 1.339392 6.000000
3.639803 2.620283 -0.392375 3.000000
6.852161 4.931038 1.640957 22.000000
4.092237 2.943824 -0.264192 1.000000
6.823782 4.906997 1.940428 17.000000
4.621095 3.321819 -0.099339 2.000000
6.799285 4.885786 2.243443 22.000000
2.383565 1.708354 -0.785775 10.000000
5.374060 3.850287 0.115395 2.000000
2.580863 1.848400 -0.732891 9.000000
6.383038 4.571496 0.411465 1.000000
2.787181 1.995426 -0.666305 7.000000
6.798425 4.865400 0.731411 22.000000
3.021979 2.161932 -0.588507 7.000000
6.813970 4.872930 1.028577 6.000000
3.325051 2.376994 -0.501858 3.000000
6.773432 4.842153 1.318743 6.000000
3.645684 2.605247 -0.392027 3.000000
6.763897 4.831770 1.615771 22.000000
4.115492 2.938805 -0.265029 1.000000
6.742530 4.812953 1.912534 18.000000
4.632086 3.306476 -0.099339 2.000000
6.708518 4.786907 2.208244 22.000000
2.398959 1.706742 -0.788880 11.000000
5.412870 3.850991 0.115954 2.000000
2.577451 1.833054 -0.730191 9.000000
6.398957 4.549186 0.411465 1.000000
2.805332 1.993645 -0.668976 8.000000
6.717912 4.772409 0.720952 24.000000
3.029132 2.151898 -0.588507 7.000000
6.707085 4.762957 1.010053 6.000000
3.339391 2.370550 -0.502833 3.000000
6.692022 4.748747 1.299658 6.000000
3.661256 2.597115 -0.392724 3.000000
6.654981 4.720716 1.586004 23.000000
4.118699 2.920520 -0.264611 1.000000
6.650342 4.713937 1.881940 18.000000
4.653389 3.297224 -0.099549 2.000000
6.629024 4.695346 2.176668 23.000000
2.417227 1.707696 -0.793022 10.000000
5.409943 3.820542 0.115605 2.000000
2.577466 1.819550 -0.728392 9.000000
6.414009 4.527939 0.411465 1.000000
2.816739 1.987729 -0.670121 8.000000
6.639271 4.683496 0.710842 22.000000
3.039855 2.143587 -0.589132 7.000000
6.629565 4.673179 0.995916 6.000000
3.357380 2.365740 -0.504295 3.000000
6.609233 4.657121 1.280573 9.000000
3.676365 2.589548 -0.393421 3.000000
6.578315 4.631899 1.563871 25.000000
4.119069 2.899228 -0.263983 1.000000
6.571131 4.623411 1.854946 18.000000
4.674110 3.288677 -0.099758 2.000000
6.546586 4.604433 2.144575 23.000000
2.416847 1.694811 -0.790951 11.000000
5.478250 3.841616 0.116792 2.000000
2.589868 1.815467 -0.730191 9.000000
6.429774 4.505524 0.411465 1.000000
2.814013 1.971126 -0.667832 7.000000
6.565816 4.597436 0.701255 22.000000
3.048564 2.134628 -0.589445 6.000000
6.552326 4.586286 0.982023 7.000000
3.345689 2.340938 -0.501371 3.000000
6.531563 4.568357 1.262426 9.000000
3.701710 2.588117 -0.395164 3.000000
6.503535 4.547063 1.542500 23.000000
4.161401 2.908437 -0.266076 1.000000
6.493772 4.536863 1.828852 18.000000
4.665889 3.258601 -0.099339 2.000000
6.473913 4.519627 2.115587 26.000000
2.416112 1.682372 -0.788880 9.000000
5.481780 3.815614 0.116582 2.000000
2.605787 1.813095 -0.732891 9.000000
6.395496 4.449957 0.408325 2.000000
2.820534 1.961782 -0.667832 7.000000
6.477969 4.503982 0.690273 24.000000
3.067351 2.131866 -0.591635 7.000000
6.480263 4.502222 0.968861 7.000000
3.363624 2.336038 -0.502833 3.000000
6.452574 4.481315 1.244280 8.000000
3.693905 2.564466 -0.393421 3.000000
6.435498 4.466127 1.522656 25.000000
4.135426 2.868846 -0.263773 1.000000
6.408682 4.444209 1.800508 21.000000
4.686527 3.249951 -0.099549 2.000000
6.396780 4.434298 2.085564 23.000000
2.418792 1.671730 -0.787845 10.000000
5.464791 3.776950 0.115954 2.000000
2.611785 1.804443 -0.732891 9.000000
6.427426 4.438953 0.409372 1.000000
2.830595 1.954156 -0.668595 8.000000
6.410020 4.423629 0.681384 40.000000
3.074404 2.121682 -0.591635 7.000000
6.413456 4.424348 0.956674 7.000000
3.381156 2.331633 -0.504295 3.000000
6.386857 4.402709 1.228637 8.000000
3.683148 2.537989 -0.391329 3.000000
6.353275 4.377924 1.499759 25.000000
4.187681 2.884576 -0.266495 1.000000
6.331897 4.359935 1.774864 18.000000
4.687960 3.226768 -0.099339 2.000000
6.318319 4.347335 2.055023 23.000000
2.427798 1.665463 -0.788880 11.000000
5.518179 3.784036 0.116792 2.000000
2.608738 1.788246 -0.730191 9.000000
6.475830 4.439074 0.411465 1.000000
2.837399 1.944264 -0.668595 8.000000
6.348167 4.348307 0.673191 24.000000
3.065861 2.099238 -0.588507 7.000000
6.334617 4.335782 0.942538 7.000000
3.402786 2.328192 -0.506245 3.000000
6.302739 4.312343 1.209551 11.000000
3.721586 2.545362 -0.394467 3.000000
6.278519 4.292560 1.478388 24.000000
4.181736 2.857937 -0.265448 1.000000
6.270600 4.283931 1.753268 21.000000
4.715707 3.221663 -0.099688 2.000000
6.242521 4.263154 2.025518 23.000000
2.439985 1.661327 -0.790951 10.000000
5.520779 3.758965 0.116582 2.000000
2.621096 1.783973 -0.731991 9.000000
2.847416 1.936555 -0.669358 8.000000
6.267739 4.261155 0.663081 20.000000
3.087507 2.099058 -0.591322 7.000000
6.255377 4.251151 0.928644 8.000000
3.394068 2.305741 -0.503808 3.000000
6.245849 4.241488 1.195785 11.000000
3.746933 2.543547 -0.396210 3.000000
6.219625 4.222095 1.461215 24.000000
4.191190 2.844055 -0.265448 1.000000
6.204134 4.208416 1.730773 20.000000
4.760026 3.227629 -0.100386 2.000000
6.177410 4.187140 1.999636 22.000000
2.451883 1.657553 -0.793022 10.000000
5.533866 3.739672 0.116582 2.000000
2.624079 1.772631 -0.731091 9.000000
6.178929 4.172447 0.390740 1.000000
2.854158 1.926605 -0.669358 8.000000
6.199267 4.184610 0.654365 18.000000
3.103003 2.093791 -0.592887 7.000000
6.189539 4.174895 0.916701 8.000000
3.402095 2.293880 -0.503808 3.000000
6.162332 4.153419 1.177013 11.000000
3.762399 2.534904 -0.396907 3.000000
6.143868 4.137856 1.439845 23.000000
4.201585 2.828675 -0.265448 1.000000
6.121795 4.121437 1.703779 20.000000
4.774582 3.213226 -0.100456 2.000000
6.123064 4.119183 1.977378 22.000000
2.448315 1.642100 -0.789916 11.000000
5.547536 3.719363 0.116582 2.000000
2.633795 1.765172 -0.731991 9.000000
6.137763 4.111978 0.387181 1.000000
2.862832 1.917223 -0.669740 10.000000
6.133447 4.107535 0.645824 20.000000
3.117222 2.086800 -0.594138 7.000000
6.123960 4.098086 0.904758 9.000000
3.407180 2.279186 -0.503320 3.000000
6.095408 4.075905 1.161370 16.000000
3.755100 2.510026 -0.395164 3.000000
6.088801 4.068408 1.423435 21.000000
4.228532 2.824351 -0.266495 1.000000
6.073659 4.056761 1.686233 19.000000
4.746412 3.169056 -0.099618 2.000000
6.040102 4.031295 1.945802 22.000000
2.454317 1.633116 -0.789916 11.000000
5.554470 3.694576 0.116442 2.000000
2.653230 1.764136 -0.735590 9.000000
6.040648 4.016434 0.380168 4.000000
2.864601 1.903958 -0.668595 8.000000
6.062165 4.027695 0.636760 17.000000
3.105104 2.062244 -0.590384 7.000000
6.069478 4.029500 0.894521 9.000000
3.426692 2.274966 -0.505027 3.000000
6.033888 4.004355 1.146978 11.000000
3.763839 2.496902 -0.395164 3.000000
6.017883 3.990709 1.403591 22.000000
4.251684 2.818401 -0.267332 1.000000
5.996824 3.975237 1.661039 19.000000
4.807455 3.185605 -0.100665 2.000000
5.980051 3.961114 1.921990 23.000000
2.462942 1.627098 -0.790951 11.000000
5.593391 3.693766 0.117001 2.000000
2.650934 1.749961 -0.733340 9.000000
6.010595 3.967774 0.377447 10.000000
2.884008 1.903099 -0.671648 8.000000
5.998984 3.957103 0.628742 19.000000
3.121820 2.058461 -0.592261 7.000000
5.993304 3.950359 0.881359 9.000000
3.427587 2.259221 -0.504052 3.000000
5.982804 3.941936 1.134776 16.000000
3.778754 2.488791 -0.395861 3.000000
5.945815 3.914593 1.383747 19.000000
4.261008 2.804285 -0.267332 1.000000
5.948117 3.914617 1.643942 19.000000
4.797944 3.156458 -0.100247 2.000000
5.915676 3.890312 1.897144 23.000000
2.474787 1.623159 -0.793022 10.000000
5.639055 3.697127 0.117699 2.000000
2.651832 1.737956 -0.731991 9.000000
5.954239 3.900801 0.373051 13.000000
2.893919 1.895171 -0.672411 8.000000
5.950403 3.896802 0.622292 17.000000
3.122018 2.043770 -0.591009 7.000000
5.923319 3.876113 0.869172 10.000000
3.432130 2.245068 -0.503564 3.000000
5.902290 3.859406 1.116942 13.000000
3.797424 2.482127 -0.396907 3.000000
5.893703 3.850859 1.368482 21.000000
4.264082 2.785024 -0.266913 1.000000
5.875273 3.837350 1.620097 20.000000
4.859165 3.172487 -0.101294 2.000000
5.866126 3.828460 1.876956 21.000000
2.480719 1.614078 -0.793022 10.000000
5.652567 3.676435 0.117699 2.000000
2.664720 1.732473 -0.733790 9.000000
5.888113 3.826711 0.368026 16.000000
2.890967 1.878135 -0.670121 8.000000
5.882776 3.821783 0.613751 15.000000
3.142742 2.040920 -0.593512 7.000000
5.865890 3.807901 0.858692 10.000000
3.443666 2.234636 -0.504052 3.000000
5.851762 3.795824 1.104740 15.000000
3.799809 2.463857 -0.396210 3.000000
5.835288 3.782248 1.351691 20.000000
4.284318 2.775894 -0.267541 1.000000
5.818973 3.770227 1.600752 18.000000
4.857333 3.145958 -0.101015 2.000000
5.807144 3.759689 1.853662 20.000000
2.486618 1.604975 -0.793022 11.000000
5.666005 3.655692 0.117699 2.000000
2.684153 1.731145 -0.737390 9.000000
5.844368 3.769327 0.364468 16.000000
2.894206 1.865904 -0.669358 8.000000
5.818033 3.749467 0.605558 16.000000
3.140237 2.022969 -0.591635 7.000000
5.804704 3.738010 0.847723 10.000000
3.458510 2.226296 -0.505027 3.000000
5.788570 3.726192 1.090348 15.000000
3.801685 2.446265 -0.395513 3.000000
5.787363 3.722558 1.337571 20.000000
4.287261 2.756602 -0.267123 1.000000
5.749145 3.695139 1.577807 18.000000
4.851463 3.118173 -0.100665 2.000000
5.750345 3.694493 1.831404 20.000000
2.492205 1.596285 -0.793022 10.000000
5.678095 3.636883 0.117699 2.000000
2.689878 1.722235 -0.737390 9.000000
5.776744 3.697222 0.359443 16.000000
2.900701 1.855790 -0.669358 8.000000
5.757231 3.681905 0.597888 16.000000
3.143599 2.010417 -0.591009 7.000000
5.761875 3.683455 0.839680 10.000000
3.472564 2.219091 -0.506002 3.000000
5.728293 3.659175 1.076582 15.000000
3.823635 2.441557 -0.396907 3.000000
5.718596 3.651572 1.318872 20.000000
4.296378 2.742371 -0.267123 1.000000
5.708796 3.642513 1.563410 17.000000
4.889294 3.118423 -0.101224 2.000000
5.691532 3.628702 1.808628 21.000000
2.500746 1.590084 -0.794057 10.000000
5.618188 3.570915 0.116198 7.000000
2.682716 1.704474 -0.733790 9.000000
5.725547 3.636347 0.355466 16.000000
2.920098 1.854581 -0.672411 8.000000
5.695400 3.615806 0.590219 16.000000
3.173949 2.014249 -0.595390 7.000000
5.690884 3.610152 0.827493 11.000000
3.490348 2.213334 -0.507464 3.000000
5.684306 3.603197 1.065945 18.000000
3.838441 2.433131 -0.397604 3.000000
5.653365 3.582201 1.300936 19.000000
4.305925 2.727355 -0.267123 1.000000
5.653972 3.579821 1.544964 19.000000
4.890010 3.094922 -0.101015 2.000000
5.630700 3.562333 1.785334 19.000000
2.512816 1.585470 -0.796127 10.000000
5.649223 3.563018 0.116582 2.000000
2.691946 1.697179 -0.734690 9.000000
5.660479 3.567356 0.350651 14.000000
2.936519 1.850657 -0.674701 8.000000
5.650671 3.559797 0.584292 16.000000
3.180960 2.003159 -0.595390 7.000000
5.636252 3.547966 0.817743 11.000000
3.487972 2.194793 -0.506002 3.000000
5.628292 3.540213 1.053117 17.000000
3.850283 2.421840 -0.397953 3.000000
5.601017 3.521688 1.286053 19.000000
4.315420 2.712307 -0.267123 1.000000
5.593828 3.514449 1.525168 19.000000
4.917719 3.088468 -0.101364 2.000000
5.590744 3.509786 1.768769 19.000000
2.521609 1.578739 -0.797163 11.000000
5.590432 3.498719 0.115116 2.000000
2.701158 1.689838 -0.735590 9.000000
5.605160 3.505217 0.346464 17.000000
2.929644 1.832069 -0.671648 8.000000
5.609000 3.506253 0.578714 15.000000
3.197984 1.998322 -0.597267 7.000000
5.581256 3.486206 0.807994 11.000000
3.502347 2.186810 -0.506977 3.000000
5.576937 3.480798 1.041228 17.000000
3.885758 2.425263 -0.400742 3.000000
5.563303 3.470943 1.274604 18.000000
4.331640 2.701456 -0.267541 1.000000
5.549837 3.459848 1.509871 18.000000
4.931864 3.073399 -0.101433 2.000000
5.524253 3.441222 1.743923 20.000000
2.520541 1.565849 -0.795092 10.000000
5.558442 3.451756 0.114209 2.000000
2.710351 1.682455 -0.736490 9.000000
5.556267 3.447719 0.342696 15.000000
2.936022 1.821831 -0.671648 10.000000
5.543322 3.438343 0.570696 15.000000
3.196546 1.981943 -0.595703 6.000000
5.536024 3.431145 0.799707 11.000000
3.506585 2.172479 -0.506489 3.000000
5.508441 3.411389 1.026210 17.000000
3.880648 2.403293 -0.399348 3.000000
5.510284 3.411199 1.259721 18.000000
4.361424 2.698930 -0.268797 1.000000
5.490616 3.396373 1.490526 20.000000
4.935758 3.051959 -0.101294 2.000000
5.477074 3.385350 1.725288 18.000000
2.519414 1.552986 -0.793022 10.000000
5.485333 3.379884 0.112463 2.000000
2.724505 1.678093 -0.738739 9.000000
5.500239 3.386416 0.338509 19.000000
2.945707 1.813629 -0.672411 8.000000
5.484023 3.375116 0.563375 15.000000
3.200080 1.968702 -0.595077 6.000000
5.498931 3.381642 0.792638 13.000000
3.527675 2.168545 -0.508439 3.000000
5.463094 3.356976 1.015573 17.000000
3.875434 2.381387 -0.397953 3.000000
5.463608 3.355978 1.246364 18.000000
4.353796 2.673242 -0.267751 1.000000
5.442648 3.340488 1.474329 18.000000
4.953200 3.038893 -0.101433 2.000000
5.422983 3.325816 1.704582 22.000000
2.531412 1.548214 -0.795092 10.000000
5.439091 3.325250 0.111277 2.000000
2.725358 1.665523 -0.737390 9.000000
5.454076 3.331797 0.334950 17.000000
2.952020 1.803336 -0.672411 8.000000
5.439657 3.321685 0.557622 16.000000
3.203561 1.955461 -0.594451 6.000000
5.427668 3.311764 0.780695 13.000000
3.525055 2.150015 -0.506977 3.000000
5.424181 3.307035 1.006187 17.000000
3.890528 2.371992 -0.398650 3.000000
5.399848 3.290911 1.229192 16.000000
4.363102 2.658027 -0.267751 1.000000
5.404344 3.291061 1.460832 16.000000
4.963777 3.021586 -0.101433 2.000000
5.371847 3.268705 1.684912 20.000000
2.546710 1.545381 -0.798198 10.000000
5.406211 3.279281 0.110369 2.000000
2.724488 1.651960 -0.735590 9.000000
5.403611 3.276414 0.331182 16.000000
2.968371 1.799125 -0.674701 8.000000
5.394985 3.268609 0.551870 13.000000
3.223884 1.952455 -0.596954 7.000000
5.386552 3.260927 0.773139 14.000000
3.538958 2.142425 -0.507951 3.000000
5.369206 3.249145 0.993985 19.000000
3.926059 2.374899 -0.401439 3.000000
5.350824 3.235470 1.215453 18.000000
