# .PCD v0.7 - Point Cloud Data file format
VERSION 0.7
FIELDS x y z intensity ring time
SIZE 4 4 4 4 2 4
TYPE F F F F U F
COUNT 1 1 1 1 1 1
WIDTH 977
HEIGHT 1
VIEWPOINT 0 0 0 1 0 0 0
POINTS 977
DATA ascii
11.14788 5.2481771 1.5128862 26 11 -0.027948143
6.06565 2.8542781 -0.82310557 27 4 -0.027945839
8.9876566 4.2273545 1.5731052 39 12 -0.027943535
6.0992646 2.8687963 -0.58969575 31 5 -0.027941231
6.2664118 2.9460783 1.3459667 13 13 -0.027938927
6.1242137 2.8779206 -0.35462847 37 6 -0.027936623
5.6407976 2.6495497 1.438787 22 14 -0.027934318
6.4313598 3.0195162 -0.12401681 13 7 -0.027932014
5.601573 2.6287394 1.6579949 46 15 -0.02792971
3.6361952 1.7009977 -1.075652 9 0 -0.027905226
6.503118 3.04075 0.12530828 77 8 -0.027902922
4.2564731 1.9893509 -1.0847139 11 1 -0.027900618
6.2026029 2.8989151 0.35881534 23 9 -0.027898313
5.2027941 2.4305272 -1.1162328 9 2 -0.027896009
6.3383274 2.9596531 0.61200762 100 10 -0.027893705
5.3646531 2.5038605 -0.93766832 29 3 -0.027891401
11.187719 5.2192993 1.5158111 8 11 -0.027889097
6.0647812 2.8280554 -0.82164317 31 4 -0.027886793
8.9926729 4.1933546 1.5715408 30 12 -0.027884489
6.1002116 2.843281 -0.58882421 36 5 -0.027882185
7.5045815 3.4962573 1.6092831 26 13 -0.027879883
6.1287894 2.8539975 -0.35431448 30 6 -0.027877579
5.6800456 2.6438243 1.4464353 3 14 -0.027875274
6.3670063 2.9635761 -0.1225857 10 7 -0.02787297
4.9761925 2.3151536 1.4706099 11 15 -0.027870666
3.6386058 1.686669 -1.0746168 11 0 -0.027849929
6.6147647 3.0662618 0.12726295 77 8 -0.027847625
4.266583 1.9768643 -1.0856137 8 1 -0.027845321
6.3812323 2.9553025 0.36854982 17 9 -0.027843017
5.1863046 2.4008038 -1.11089 9 2 -0.027840713
6.3576603 2.941695 0.61287922 100 10 -0.027838409
5.3585839 2.4794216 -0.93516535 34 3 -0.027836105
6.2177753 2.8756492 0.8411423 16 11 -0.027833803
6.0669193 2.804595 -0.82066822 27 4 -0.027831499
9.0054617 4.1611118 1.571228 13 12 -0.027829194
6.0956297 2.8152852 -0.5874297 31 5 -0.02782689
6.2453256 2.8844228 1.3371896 34 13 -0.027824586
6.121901 2.8261223 -0.35337242 34 6 -0.027822282
6.502728 3.000555 1.6533903 45 14 -0.027819978
6.3936558 2.948869 -0.12289985 4 7 -0.027817674
4.943893 2.279166 1.4587041 39 15 -0.02781537
3.6301355 1.6681411 -1.0704756 12 0 -0.027794633
6.603621 3.0331388 0.12684409 67 8 -0.027792329
4.2734575 1.9619581 -1.0856137 9 1 -0.027790025
18.691669 8.5774555 1.0778068 38 9 -0.027787723
5.2085114 2.3901434 -1.113943 11 2 -0.027785419
6.3492708 2.9122877 0.61113608 100 10 -0.027783114
5.3492503 2.4524674 -0.93203664 34 3 -0.02778081
11.226597 5.1446805 1.5162985 10 11 -0.027778506
6.0730619 2.7817483 -0.82018077 33 4 -0.027776202
9.025321 4.1321163 1.5721666 13 12 -0.027773898
6.0818672 2.7832136 -0.58516365 33 5 -0.027771594
6.2589264 2.8642404 1.3379527 30 13 -0.02776929
6.1244626 2.8014138 -0.35295373 33 6 -0.027766986
6.5220246 2.9818878 1.6556398 53 14 -0.027764682
6.3948178 2.9223754 -0.12272533 2 7 -0.027762378
4.9658766 2.2683172 1.4628453 26 15 -0.027760074
3.6467757 1.6596252 -1.0735815 10 0 -0.027739339
6.2920156 2.8634574 0.12066595 100 8 -0.027737034
4.2678633 1.9413817 -1.0824645 11 1 -0.02773473
18.706947 8.5055466 1.0769694 63 9 -0.027732426
5.2279615 2.3759098 -1.1162328 9 2 -0.027730122
6.3762293 2.8964114 0.61270487 100 10 -0.027727818
5.3384175 2.4238629 -0.92859513 36 3 -0.027725514
11.248101 5.1071048 1.516786 5 11 -0.02772321
6.0628514 2.7515066 -0.81749964 26 4 -0.027720906
9.0702734 4.1144571 1.5774853 27 12 -0.027718602
6.0879159 2.760323 -0.58481503 30 5 -0.027716298
6.2461367 2.830744 1.3329917 43 13 -0.027713994
6.116497 2.7707047 -0.35190701 33 6 -0.027711689
6.5417852 2.9619839 1.6578892 58 14 -0.027709385
6.3904037 2.8934414 -0.12244608 1 7 -0.027707081
5.6390452 2.5520527 1.6585126 45 15 -0.027704777
3.6507845 1.646094 -1.0730639 11 0 -0.027684042
6.2915292 2.8354483 0.12045651 100 8 -0.027681738
4.2785044 1.9273258 -1.0833644 11 1 -0.027679434
18.716496 8.4311676 1.0758181 14 9 -0.02767713
5.2326407 2.3560376 -1.1154695 11 2 -0.027674826
6.3699484 2.8667789 0.61113608 99 10 -0.027672522
5.3450451 2.404402 -0.92828226 34 3 -0.027670218
6.2951093 2.8304591 0.84747952 43 11 -0.027667914
6.0565996 2.7219448 -0.81530601 33 4 -0.027665609
6.226954 2.7985051 1.0812751 31 12 -0.027663305
6.0829749 2.732522 -0.58342052 33 5 -0.027661001
6.257771 2.8097262 1.3333733 36 13 -0.027658697
6.1133757 2.7436144 -0.35117432 31 6 -0.027656393
6.3019414 2.8269193 -0.12056123 2 7 -0.027651785
5.6567335 2.5363035 1.6611006 50 15 -0.027649481
3.6600358 1.634915 -1.0740991 11 0 -0.027628746
6.2972445 2.8129394 0.1203867 62 8 -0.027626442
4.2902102 1.9155093 -1.0847139 9 1 -0.027624138
6.3069677 2.8146422 0.36195552 51 9 -0.027621834
5.2336621 2.3345575 -1.113943 9 2 -0.02761953
6.3089485 2.8128824 0.60433793 64 10 -0.027617225
5.3529897 2.3866625 -0.92828226 32 3 -0.027614921
6.2935829 2.8047185 0.84601706 74 11 -0.027612617
6.0456452 2.6929615 -0.81262481 24 4 -0.027610313
9.0987768 4.0510345 1.5774853 18 12 -0.027608009
6.0888352 2.7096534 -0.58307195 28 5 -0.027605705
6.1114902 2.7184575 -0.35054627 31 6 -0.027601099
5.7088523 2.5381632 1.4423862 35 14 -0.027598795
6.2898412 2.7951603 -0.12014236 59 7 -0.02759649
5.6761436 2.5212517 1.6642065 52 15 -0.027594186
3.6513064 1.6165115 -1.069958 8 0 -0.02757345
6.3088541 2.7917483 0.1204216 67 8 -0.027571145
4.2933049 1.8989486 -1.0838141 9 1 -0.027568841
6.3094482 2.7893779 0.36153683 65 9 -0.027566537
5.2162371 2.3060744 -1.1086004 13 2 -0.027564233
6.3018398 2.7846994 0.60276914 59 10 -0.027561929
5.3432169 2.3599851 -0.92515355 30 3 -0.027559625
6.3087835 2.7851362 0.84674829 74 11 -0.027557321
6.045929 2.6678331 -0.8114062 31 4 -0.027555019
9.1182804 4.0216465 1.5784239 36 12 -0.027552715
6.075911 2.6798 -0.58098018 30 5 -0.02755041
6.2551932 2.7575653 1.3287939 6 13 -0.027548106
6.1136322 2.6938848 -0.35012761 32 6 -0.027545802
5.7141094 2.5166531 1.4414864 67 14 -0.027543498
6.2721076 2.7611008 -0.11961879 49 7 -0.027541194
5.0624881 2.2275486 1.481998 35 15 -0.02753889
3.662235 1.6060829 -1.0715109 12 0 -0.027518153
6.2947521 2.7592742 0.11996785 62 8 -0.027515849
4.2945533 1.8816032 -1.0824645 9 1 -0.027513545
6.309999 2.7633288 0.36101347 70 9 -0.027511241
5.2386427 2.2941513 -1.1116532 9 2 -0.027508937
6.2932692 2.7546971 0.601026 61 10 -0.027506635
5.3333249 2.3334 -0.92202479 30 3 -0.027504331
6.3093734 2.7591186 0.84552956 73 11 -0.027502026
6.0552039 2.646714 -0.8114062 27 4 -0.027499722
9.1376953 3.9921637 1.5793626 28 12 -0.027497418
6.0742745 2.6537871 -0.5799343 27 5 -0.027495114
7.6339655 3.3336089 1.6192051 33 13 -0.02749281
6.1156754 2.6693332 -0.34970888 31 6 -0.027490506
5.7353625 2.5021451 1.4446357 15 14 -0.027488202
6.2853742 2.7407873 -0.1196886 50 7 -0.027485898
5.063149 2.2067773 1.4799274 43 15 -0.027483594
3.6713614 1.5948313 -1.0725461 11 0 -0.027462857
6.2768316 2.7253363 0.11944427 60 8 -0.027460555
4.2885809 1.8611711 -1.0793152 8 1 -0.027458251
6.2701321 2.7198305 0.35818732 74 9 -0.027455946
5.2394128 2.2727294 -1.1101269 11 2 -0.027453642
6.2809114 2.7232003 0.59893423 61 10 -0.027451338
5.3251257 2.3076985 -0.91920906 29 3 -0.027449034
6.2479234 2.7063107 0.83602375 74 11 -0.02744673
6.0571194 2.6224048 -0.81043118 31 4 -0.027444426
6.2110343 2.6877544 1.071889 7 12 -0.027442122
6.0688739 2.6262362 -0.57853985 31 5 -0.027439818
7.6329389 3.3014905 1.6165339 26 13 -0.027437514
6.1011243 2.6376643 -0.34834814 34 6 -0.02743521
5.806673 2.5091631 1.4603822 1 14 -0.027432906
6.2802153 2.7124918 -0.11940937 51 7 -0.027430601
5.698688 2.4601407 1.6631712 46 15 -0.027428297
3.675132 1.5812418 -1.0720285 9 0 -0.027407562
6.2587504 2.691561 0.1189207 82 8 -0.027405258
4.2950521 1.8461888 -1.0793152 9 1 -0.027402954
6.2887645 2.7018673 0.35871068 63 9 -0.02740065
5.2653527 2.2621748 -1.113943 9 2 -0.027398346
6.2830553 2.6981161 0.59823698 61 10 -0.027396042
5.3313327 2.2883182 -0.91889614 31 3 -0.027393738
6.2901707 2.6985712 0.84041107 81 11 -0.027391434
6.0406938 2.5902944 -0.80701888 24 4 -0.02738913
6.3674445 2.7290916 1.0972315 18 12 -0.027386826
6.0780034 2.605037 -0.57853985 31 5 -0.027384521
7.6624646 3.2825558 1.6203501 27 13 -0.027382217
6.102951 2.613205 -0.34792948 34 6 -0.027379913
6.4908128 2.7779458 1.6299953 21 14 -0.027377609
6.2730994 2.6834731 -0.11909522 56 7 -0.027375305
3.6824059 1.5691617 -1.0725461 12 0 -0.027352266
6.2828255 2.6759675 0.11919994 65 8 -0.027349962
4.3086429 1.8342371 -1.0811148 8 1 -0.027347658
6.2797785 2.6720803 0.35766396 57 9 -0.027345354
5.2551517 2.2360961 -1.1101269 13 2 -0.02734305
6.2924352 2.6761689 0.59823698 61 10 -0.027340746
5.3301992 2.2658291 -0.91733181 29 3 -0.027338441
6.2867618 2.6711652 0.83870488 79 11 -0.027336137
6.0332541 2.5622101 -0.80482519 28 4 -0.027333833
6.3496571 2.6952689 1.0925384 53 12 -0.027331529
6.0760565 2.5791323 -0.57749397 31 5 -0.027329225
7.679297 3.2580903 1.6214949 29 13 -0.027326921
6.0973248 2.585649 -0.34709209 37 6 -0.027324617
6.4071708 2.7157242 1.6066004 69 14 -0.027322315
6.2713795 2.6568804 -0.11888579 55 7 -0.027320011
5.1927171 2.1988316 1.5109856 22 15 -0.027317706
3.6718428 1.5495372 -1.0678874 13 0 -0.02729697
6.2866015 2.6516867 0.11909522 60 8 -0.027294666
4.3186102 1.8207009 -1.0820146 9 1 -0.027292361
6.2817059 2.6470397 0.35724527 63 9 -0.027290057
5.2448335 2.2101133 -1.1063106 11 2 -0.027287753
6.2778683 2.6441324 0.59597093 64 10 -0.027285449
5.3362551 2.2464442 -0.91701895 30 3 -0.027283145
6.2905593 2.6468928 0.83797371 81 11 -0.027280841
6.0366721 2.5388243 -0.80409402 28 4 -0.027278537
6.3717732 2.678448 1.0947285 91 12 -0.027276233
6.0703278 2.5517318 -0.57609946 33 5 -0.027273931
7.6978645 3.2343047 1.6230214 19 13 -0.027271627
6.1026301 2.5628042 -0.34688276 34 6 -0.027269322
5.8362236 2.4497287 1.461282 13 14 -0.027267018
6.2603326 2.6264615 -0.11850184 54 7 -0.027264714
5.1843262 2.1739695 1.5063269 41 15 -0.02726241
3.6718824 1.5344751 -1.0663346 9 0 -0.027241673
6.2681403 2.6181664 0.11857165 57 8 -0.027239369
4.3321323 1.8086191 -1.0838141 9 1 -0.027237065
6.2793903 2.6215787 0.35661724 57 9 -0.027234761
5.2706356 2.1993511 -1.1101269 13 2 -0.027232457
6.2594762 2.6106992 0.59335625 59 10 -0.027230153
5.3313007 2.2224813 -0.91482884 29 3 -0.027227851
6.268611 2.6119373 0.83383012 79 11 -0.027225547
6.0395622 2.5164998 -0.80336279 28 4 -0.027223242
6.2839713 2.6170542 1.0781465 67 12 -0.027220938
6.0608044 2.5228686 -0.57435632 32 5 -0.027218634
7.7127328 3.2089207 1.6237847 12 13 -0.02721633
6.109694 2.5407209 -0.34677809 38 6 -0.027214026
5.8281198 2.4236283 1.457233 48 14 -0.027211722
6.2616229 2.6026154 -0.11836223 51 7 -0.027209418
5.7302823 2.3805935 1.6626536 39 15 -0.027207114
3.6840894 1.5252485 -1.068405 12 0 -0.027186377
6.249073 2.5858955 0.11804808 60 8 -0.027184073
4.3218994 1.7875389 -1.0797651 8 1 -0.027181771
6.265903 2.5915792 0.35536119 63 9 -0.027179467
5.2670126 2.1773643 -1.1078371 13 2 -0.027177162
6.2607346 2.5868828 0.59265906 61 10 -0.027174858
5.325861 2.1995127 -0.91263872 32 3 -0.027172554
6.2240243 2.5691717 0.82676172 78 11 -0.02717025
6.0386982 2.4926722 -0.80214405 31 4 -0.027167946
6.4186144 2.6481841 1.0997344 63 12 -0.027165642
6.0617695 2.4997194 -0.57365906 35 5 -0.027163338
7.7432976 3.1915579 1.6279825 4 13 -0.027161034
6.0903854 2.509033 -0.34520799 36 6 -0.02715873
5.8163056 2.3961213 1.452284 75 14 -0.027156426
6.2498784 2.5734627 -0.11797827 55 7 -0.027154122
5.4255128 2.232913 1.572067 54 15 -0.027151817
3.6962767 1.5159544 -1.0704756 12 0 -0.027131082
6.2668643 2.5689523 0.1182226 62 8 -0.027128778
4.3187866 1.7695038 -1.0775156 9 1 -0.027126474
6.2619724 2.5643942 0.35462847 59 9 -0.02712417
5.2778382 2.1613729 -1.1086004 11 2 -0.027121866
6.271122 2.5668633 0.59283334 64 10 -0.027119562
5.3258128 2.1788461 -0.91138726 34 3 -0.027117258
6.2214851 2.5440111 0.82529926 84 11 -0.027114954
6.0308242 2.4648199 -0.79995042 30 4 -0.02711265
6.4296489 2.6265082 1.1000473 65 12 -0.027110346
6.0626483 2.4765887 -0.57296187 31 5 -0.027108042
7.8120008 3.1896119 1.6401943 5 13 -0.027105737
6.0838785 2.4827869 -0.34437063 37 6 -0.027103433
5.8877892 2.4015625 1.4680306 26 14 -0.027101129
6.24401 2.5455899 -0.11769903 56 7 -0.027098825
5.501256 2.2416637 1.5917372 46 15 -0.027096521
3.6979661 1.501588 -1.0694402 9 0 -0.027075786
6.2646766 2.5425472 0.11801317 62 8 -0.027073482
4.3231311 1.7536861 -1.0770656 9 1 -0.027071178
6.2634826 2.5395167 0.35420978 65 9 -0.027068874
5.2671576 2.1355586 -1.1047841 11 2 -0.02706657
6.2689652 2.5404658 0.59178752 57 10 -0.027064266
5.3480315 2.1661789 -0.9138903 50 3 -0.027061962
6.2119279 2.514828 0.82286185 78 11 -0.027059657
6.0283513 2.4392846 -0.79848802 38 4 -0.027057353
6.2300105 2.5196211 1.0643803 68 12 -0.027055049
6.0694079 2.4546683 -0.57278752 41 5 -0.027052745
6.1940365 2.5038111 1.2986461 37 13 -0.027050441
6.0869536 2.4592893 -0.34405661 40 6 -0.027048137
5.8979421 2.3817296 1.4684805 31 14 -0.027045833
6.2250419 2.5125535 -0.11717546 47 7 -0.027043529
5.7867398 2.3344712 1.6719712 24 15 -0.027041227
3.6960158 1.4857874 -1.0673697 11 0 -0.02702049
6.2623801 2.5161922 0.11780374 65 8 -0.027018186
4.3346515 1.7407622 -1.0784154 8 1 -0.027015882
6.2663088 2.5165007 0.35389575 70 9 -0.027013578
5.278224 2.1186211 -1.1055473 9 2 -0.027011273
6.2445097 2.5052156 0.58864987 52 10 -0.027008969
5.3922305 2.1621997 -0.92014766 29 3 -0.027006665
6.2206688 2.4931271 0.82286185 78 11 -0.027004361
6.033143 2.4167514 -0.79800051 28 4 -0.027002057
6.1961565 2.4820514 1.0571842 71 12 -0.026999753
6.0501947 2.4223571 -0.57017285 28 5 -0.026997449
7.7866888 3.1160278 1.6302722 25 13 -0.026995147
6.0862279 2.434319 -0.34353325 36 6 -0.026992843
5.9315534 2.371253 1.4747791 66 14 -0.026990538
6.2314825 2.4911554 -0.11714055 42 7 -0.026988234
5.3692842 2.1453855 1.5492908 9 15 -0.02698593
3.6957941 1.4707365 -1.0658169 13 0 -0.026965193
6.2446771 2.4850614 0.11731508 72 8 -0.026962889
4.3458333 1.7285379 -1.0797651 11 1 -0.026960585
6.2602077 2.4887075 0.3530584 70 9 -0.026958281
5.2782879 2.0972874 -1.104021 9 2 -0.026955977
6.2421069 2.4789889 0.58760399 57 10 -0.026953673
5.4177303 2.1515963 -0.92327636 25 3 -0.026951369
6.2086062 2.4644301 0.82018077 82 11 -0.026949067
6.0374331 2.3952689 -0.79751301 38 4 -0.026946763
6.5059328 2.5798218 1.1084948 26 12 -0.026944458
6.0437965 2.3953488 -0.5687784 38 5 -0.026942154
7.7878528 3.0865738 1.6283641 14 13 -0.02693985
6.0886955 2.4119177 -0.34321922 41 6 -0.026937546
5.9520679 2.3565903 1.4779284 14 14 -0.026935242
6.1973748 2.4524632 -0.11633775 45 7 -0.026932938
5.7863274 2.2886362 1.6673124 20 15 -0.026930634
3.7006512 1.4584717 -1.0658169 11 0 -0.026909897
6.2421513 2.4588494 0.11710566 65 8 -0.026907593
4.3445864 1.710505 -1.0779655 8 1 -0.026905289
6.268856 2.4668415 0.3530584 63 9 -0.026902985
5.2961755 2.0840843 -1.1063106 9 2 -0.026900683
6.2465849 2.4568186 0.58725542 57 10 -0.026898379
5.45646 2.1449614 -0.92859513 25 3 -0.026896074
6.2504272 2.455811 0.82456803 73 11 -0.02689377
6.0365195 2.3705499 -0.79629439 30 4 -0.026891466
6.5663857 2.5773029 1.1172551 31 12 -0.026889162
6.05583 2.3756938 -0.56912696 30 5 -0.026886858
7.7967515 3.0586548 1.6279825 20 13 -0.026884554
6.0729065 2.38117 -0.34185851 37 6 -0.02688225
6.0310192 2.3635287 1.4954746 21 14 -0.026879946
6.1761055 2.4191475 -0.11577927 38 7 -0.026877642
5.7996783 2.2705355 1.6688653 39 15 -0.026875338
3.7077718 1.4456011 -1.0663346 12 0 -0.026854603
6.2469692 2.4355936 0.11703584 62 8 -0.026852299
4.3341894 1.6889598 -1.0739163 9 1 -0.026849994
6.2644019 2.4398682 0.35232571 74 9 -0.02684769
5.2818236 2.0561137 -1.1017312 9 2 -0.026845386
6.255547 2.4339087 0.58725542 57 10 -0.026843082
5.4900613 2.1349671 -0.93297523 28 3 -0.026840778
6.2460113 2.4289401 0.82286185 74 11 -0.026838474
6.0188537 2.3393974 -0.79288203 33 4 -0.02683617
6.5808644 2.5565166 1.1181936 41 12 -0.026833866
6.0603724 2.3530967 -0.5687784 38 5 -0.026831562
7.8170605 3.0336113 1.6298906 6 13 -0.026829258
6.0648332 2.3523967 -0.34091645 38 6 -0.026826954
6.421207 2.4893324 1.589954 13 14 -0.026824649
6.2068872 2.4062464 -0.11619812 37 7 -0.026822345
5.8111715 2.2516713 1.6699005 39 15 -0.026820041
3.7127957 1.4326487 -1.0663346 14 0 -0.026799306
6.2558551 2.4126794 0.11703584 65 8 -0.026797002
4.349442 1.6765686 -1.0761659 8 1 -0.026794698
6.246789 2.4079342 0.3508603 65 9 -0.026792394
5.2962971 2.0404861 -1.1032577 6 2 -0.02679009
6.2454128 2.4048967 0.58551228 57 10 -0.026787786
5.5454111 2.1342418 -0.94110984 27 3 -0.026785482
6.2548714 2.4060323 0.82286185 78 11 -0.026783178
6.0144181 2.3123333 -0.79117584 26 4 -0.026780874
6.1933312 2.3811193 1.0509269 32 12 -0.026778569
6.0611091 2.3290706 -0.56808108 28 5 -0.026776265
7.8495946 3.0147502 1.6344699 26 13 -0.026773961
6.0711441 2.3304946 -0.34081176 33 6 -0.026771657
6.1023598 2.3412554 1.5089717 5 14 -0.026769353
6.1555042 2.361645 -0.11508117 42 7 -0.026767049
5.8226027 2.2327571 1.6709359 39 15 -0.026764745
3.7069457 1.4155438 -1.0632287 9 0 -0.02674401
6.2414045 2.3833587 0.11661698 72 8 -0.026741706
4.3604403 1.6642195 -1.0775156 8 1 -0.026739402
6.2234335 2.374011 0.34908086 76 9 -0.026737098
5.2887125 2.0163894 -1.1002047 9 2 -0.026734794
6.2128091 2.3674748 0.58167744 73 10 -0.026732489
5.5893764 2.1299074 -0.94736725 25 3 -0.026730185
6.2368441 2.3753867 0.81944954 78 11 -0.026727881
6.0201979 2.2916682 -0.79093212 31 4 -0.026725577
6.6280923 2.5217505 1.1231996 41 12 -0.026723273
6.0356808 2.2951534 -0.56494349 32 5 -0.026720969
7.8485394 2.9845188 1.6321803 24 13 -0.026718665
6.0620365 2.3039613 -0.33986974 43 6 -0.026716363
6.0791197 2.3092434 1.5013233 3 14 -0.026714059
6.1337976 2.3287888 -0.11452269 38 7 -0.026711755
5.8267498 2.2110467 1.6699005 39 15 -0.02670945
3.7206535 1.4066617 -1.0658169 12 0 -0.026688714
6.2365899 2.3566141 0.11637264 67 8 -0.026686409
4.3698688 1.6503643 -1.0784154 9 1 -0.026684105
6.2499561 2.3604152 0.35012761 70 9 -0.026681801
5.2990432 2.0002279 -1.100968 6 2 -0.026679497
6.231811 2.3510771 0.58272326 64 10 -0.026677193
5.6245031 2.1208365 -0.95206028 23 3 -0.026674889
6.2469559 2.3543 0.81969327 76 11 -0.026672585
6.0225873 2.2685418 -0.79020089 28 4 -0.026670281
6.0358009 2.2723162 -0.5642463 28 5 -0.026665675
7.8552346 2.955719 1.6314169 9 13 -0.02666337
6.0737801 2.2841942 -0.34007907 29 6 -0.026661066
6.134572 2.3058345 1.5130208 10 14 -0.026658762
6.1733084 2.3203945 -0.11511607 36 7 -0.026656458
5.6767144 2.1326065 1.624866 54 15 -0.026654154
3.7219226 1.392311 -1.0647817 12 0 -0.026633417
6.2218962 2.3275106 0.1159538 60 8 -0.026631113
4.3570642 1.6290405 -1.0739163 8 1 -0.026628809
6.2488027 2.3350899 0.34960422 65 9 -0.026626505
5.298636 1.9789721 -1.0994414 9 2 -0.026624203
6.2231808 2.32304 0.58115447 66 10 -0.026621897
5.6703682 2.1166818 -0.9586305 27 3 -0.026619595
6.2342691 2.3259399 0.81701219 78 11 -0.02661729
6.0226369 2.2457848 -0.78922594 30 4 -0.026614986
6.6710172 2.4862337 1.1275797 51 12 -0.026612682
6.0324936 2.2470591 -0.56320041 32 5 -0.026610378
7.8870702 2.937875 1.6359965 12 13 -0.026608074
6.051373 2.252892 -0.33840433 38 6 -0.02660577
6.1348786 2.2827618 1.5112212 8 14 -0.026603466
6.1195197 2.2758276 -0.11396421 41 7 -0.026601162
5.8633933 2.1794136 1.6761122 45 15 -0.026598858
3.7267604 1.3793095 -1.0647817 11 0 -0.026582003
6.2247581 2.3026106 0.11584908 62 8 -0.026579699
4.3556948 1.610356 -1.0721167 9 1 -0.026577394
6.232965 2.3031702 0.34824347 63 9 -0.02657509
5.309195 1.9618239 -1.1002047 9 2 -0.026572786
6.2275133 2.2999239 0.5808059 65 10 -0.026570482
5.8782301 2.169759 -0.99242038 52 3 -0.026568178
6.1943312 2.2852089 0.81067497 84 11 -0.026565874
6.0140638 2.2175159 -0.78703225 31 4 -0.02656357
6.7282772 2.4795244 1.1357143 66 12 -0.026561266
6.04217 2.2266781 -0.5633747 26 5 -0.026558962
7.9014692 2.9103067 1.6367596 14 13 -0.026556659
6.0520921 2.2279389 -0.33798563 32 6 -0.026554355
6.1139426 2.2494931 1.5040227 5 14 -0.026552051
6.1071749 2.2457931 -0.11358026 28 7 -0.026549747
5.8713427 2.157907 1.6761122 46 15 -0.026547443
3.7297378 1.3656288 -1.0642639 10 0 -0.026526706
6.2177348 2.2753687 0.11556984 65 8 -0.026524402
4.361289 1.5951427 -1.0721167 9 1 -0.026522098
6.207201 2.2690573 0.3463594 70 9 -0.026519794
5.3123226 1.9419324 -1.0994414 9 2 -0.02651749
6.2317615 2.2768025 0.58045721 70 10 -0.026515186
5.8616457 2.14042 -0.98835307 51 3 -0.026512882
6.2227821 2.2710605 0.81335604 79 11 -0.02651058
6.0012546 2.1890254 -0.78435117 26 4 -0.026508275
6.7368908 2.4560249 1.1357143 62 12 -0.026505971
6.0405455 2.2021627 -0.56250316 27 5 -0.026503667
6.1850147 2.253608 1.2795652 52 13 -0.026501363
6.0542026 2.2047479 -0.33767161 37 6 -0.026499059
6.1089392 2.2234735 1.5008734 12 14 -0.026496755
6.1318898 2.2306151 -0.11389441 24 7 -0.026494451
5.3668461 1.9512526 1.5301383 28 15 -0.026492147
3.7290337 1.3506268 -1.0627111 13 0 -0.02647141
6.2256403 2.2536492 0.11556984 62 8 -0.026469106
4.3833232 1.5858774 -1.0761659 8 1 -0.026466802
6.2222028 2.2511804 0.34677809 63 9 -0.0264645
5.3153772 1.9220407 -1.0986782 9 2 -0.026462195
6.2228074 2.2489395 0.57888842 67 10 -0.026459891
5.8635073 2.1179338 -0.98741448 46 3 -0.026457587
6.2007976 2.2385385 0.80945623 89 11 -0.026455283
6.0032582 2.1660409 -0.78361994 27 4 -0.026452979
6.7561479 2.4376917 1.1375916 62 12 -0.026450675
6.0257044 2.1729546 -0.56041139 31 5 -0.026448371
7.9271359 2.8570702 1.6379045 28 13 -0.026446067
6.061862 2.1835995 -0.33767161 33 6 -0.026443763
6.1074944 2.1988363 1.4986238 10 14 -0.026441459
6.0809264 2.1892712 -0.11281236 28 7 -0.026439155
5.3005776 1.9072802 1.5094327 20 15 -0.02643685
3.7209935 1.3330436 -1.0590875 9 0 -0.026416115
6.2086043 2.2242286 0.11511607 60 8 -0.026413811
4.3848886 1.5700178 -1.075266 11 1 -0.026411507
6.2206211 2.2260807 0.34625471 59 9 -0.026409203
5.318356 1.9021536 -1.0979151 6 2 -0.026406899
6.2137341 2.2211697 0.57731962 65 10 -0.026404595
5.8816595 2.1024659 -0.98929167 25 3 -0.026402291
6.1876235 2.2106183 0.80677515 91 11 -0.026399987
6.0029297 2.1434526 -0.78264499 24 4 -0.026397683
6.7869411 2.4220622 1.141346 60 12 -0.026395379
6.0182409 2.1465516 -0.55901694 30 5 -0.026393075
7.9458122 2.8340666 1.6398127 29 13 -0.02639077
6.0615454 2.1608014 -0.33725294 37 6 -0.026388466
6.1147532 2.1785693 1.4986238 10 14 -0.026386162
6.0602746 2.1579678 -0.11228879 31 7 -0.026383858
5.8823323 2.0934458 1.6730064 37 15 -0.026381554
3.7344983 1.3239235 -1.0616758 9 0 -0.026360819
6.1974831 2.195863 0.11476702 60 8 -0.026358515
4.3774838 1.5501474 -1.0721167 9 1 -0.026356211
6.2227049 2.2023551 0.34594071 57 9 -0.026353907
5.3246341 1.8845079 -1.0979151 11 2 -0.026351603
6.209795 2.1965668 0.5762738 65 10 -0.026349299
5.8945508 2.0838962 -0.99023032 15 3 -0.026346995
6.1709695 2.1804099 0.80360651 85 11 -0.02634469
6.0103745 2.1224868 -0.78264499 27 4 -0.026342386
6.1918201 2.1853433 1.0399765 87 12 -0.026340082
6.0215688 2.1252546 -0.55866832 32 5 -0.026337778
7.9556575 2.8063111 1.6398127 18 13 -0.026335474
6.0483298 2.132329 -0.33610156 38 6 -0.02633317
6.1039414 2.1507339 1.4941249 10 14 -0.026330866
6.1017218 2.1487548 -0.11291707 24 7 -0.026328562
5.3520303 1.8836999 1.5203031 11 15 -0.026326258
3.7372742 1.3102394 -1.0611582 12 0 -0.026305523
6.2051105 2.1742148 0.11476702 57 8 -0.026303219
4.3718319 1.5309962 -1.0694174 11 1 -0.026300915
6.1983085 2.1694024 0.34416127 59 9 -0.02629861
5.3293276 1.86526 -1.0975335 6 2 -0.026296306
6.2004991 2.1689548 0.57470495 67 10 -0.026294002
5.9111109 2.066571 -0.99179459 20 3 -0.026291698
6.1598039 2.1523066 0.80116916 85 11 -0.026289394
6.0065031 2.0975652 -0.78118259 27 4 -0.02628709
6.2553601 2.1832488 1.0493625 40 12 -0.026284786
6.0327115 2.1055398 -0.55901694 27 5 -0.026282482
7.9616961 2.7772319 1.6390493 24 13 -0.026280178
6.0463071 2.1079142 -0.33557817 34 6 -0.026277876
6.0948486 2.1236477 1.4900758 14 14 -0.026275571
6.0751925 2.1156065 -0.11228879 30 7 -0.026273267
5.9059258 2.055506 1.6755946 39 15 -0.026270963
3.7381747 1.2959194 -1.0601228 9 0 -0.026250226
6.2126617 2.1525428 0.11476702 65 8 -0.026247922
4.3863578 1.5189136 -1.0716668 11 1 -0.026245618
6.200181 2.1457918 0.34384724 63 9 -0.026243314
5.3376617 1.8472865 -1.0979151 6 2 -0.02624101
6.2136807 2.1492529 0.57522792 70 10 -0.026238706
5.9220233 2.0472143 -0.99242038 22 3 -0.026236402
6.1654038 2.1301417 0.80092543 84 11 -0.026234098
5.9931479 2.0694602 -0.77850145 30 4 -0.026231796
6.2218637 2.1472211 1.0424794 68 12 -0.026229491
6.0249577 2.0792673 -0.55762243 33 5 -0.026227187
7.984334 2.753902 1.6417207 25 13 -0.026224883
6.0441871 2.0835428 -0.33505484 43 6 -0.026222579
6.1114368 2.1055319 1.4923253 8 14 -0.026220275
6.0503979 2.083318 -0.1116954 29 7 -0.026217971
5.9112377 2.0342505 1.6750768 43 15 -0.026215667
3.7353647 1.2803599 -1.0580523 9 0 -0.02619493
6.2106795 2.1276019 0.11459251 60 8 -0.026192626
4.3897891 1.5029606 -1.0712169 9 1 -0.026190322
6.2076321 2.1241403 0.34384724 63 9 -0.026188018
5.3366461 1.8261044 -1.0963886 8 2 -0.026185714
6.2022943 2.1211011 0.57348478 62 10 -0.026183411
5.9384799 2.0297227 -0.9939847 24 3 -0.026181107
6.1746788 2.1092534 0.80116916 85 11 -0.026178803
6.0059719 2.0504498 -0.77923268 27 4 -0.026176499
6.1956692 2.1140058 1.0368477 53 12 -0.026174195
6.0170946 2.0530748 -0.55622798 28 5 -0.026171891
6.1468639 2.096159 1.2623924 31 13 -0.026169587
6.045752 2.0604973 -0.33474082 33 6 -0.026167283
6.1187496 2.0841844 1.4923253 5 14 -0.026164979
6.0652037 2.0647676 -0.11183503 23 7 -0.026162675
5.4427905 1.8518175 1.540491 58 15 -0.026160371
3.7324932 1.2648321 -1.0559818 15 0 -0.026139634
6.2010221 2.1001377 0.11427836 62 8 -0.026137332
4.3987002 1.4888787 -1.0721167 9 1 -0.026135027
6.2131181 2.1018171 0.34374261 65 9 -0.026132723
5.3429885 1.8074635 -1.0963886 10 2 -0.026130419
6.1907868 2.0930555 0.5717417 62 10 -0.026128115
5.9324284 2.0045559 -0.99179459 23 3 -0.026125811
6.1744814 2.0851448 0.8001942 82 11 -0.026123507
6.0018077 2.0256622 -0.77777022 28 4 -0.026121203
6.1768055 2.083528 1.0324676 68 12 -0.026118899
6.0166721 2.0295126 -0.55553067 31 5 -0.026116595
8.0256891 2.7056239 1.6463001 12 13 -0.026114291
6.0453377 2.036829 -0.33432212 37 6 -0.026111986
6.1167536 2.0597053 1.4900758 1 14 -0.026109682
6.0799561 2.046133 -0.11197464 23 7 -0.026107378
5.8612094 1.9713749 1.6569597 54 15 -0.026105074
3.7442124 1.2542509 -1.0580523 9 0 -0.026084339
6.1912479 2.0727668 0.11396421 67 8 -0.026082035
4.3964787 1.4710407 -1.0703171 9 1 -0.026079731
6.1995807 2.0731502 0.34259123 70 9 -0.026077427
5.3492651 1.7888032 -1.0963886 12 2 -0.026075123
6.167819 2.0613325 0.56895268 70 10 -0.026072819
5.9375162 1.9832084 -0.99148178 28 3 -0.026070515
6.1591263 2.0560377 0.79726928 85 11 -0.026068211
6.0069575 2.0040755 -0.77752644 30 4 -0.026065907
6.214025 2.07195 1.0374736 77 12 -0.026063602
6.0123801 2.0047154 -0.55448484 32 5 -0.026061298
8.0052843 2.6676598 1.6401943 25 13 -0.026058994
6.0334601 2.0094075 -0.33327541 37 6 -0.02605669
6.1405468 2.0438786 1.4941249 3 14 -0.026054386
6.0756769 2.0211086 -0.11176521 27 7 -0.026052082
5.9505482 1.9783306 1.6802533 46 15 -0.026049778
3.7412324 1.2387437 -1.0559818 10 0 -0.026029043
6.1927505 2.0492563 0.1138595 82 8 -0.026026739
4.3904858 1.4520148 -1.0676178 9 1 -0.026024435
6.1988368 2.05007 0.3421725 70 9 -0.026022131
5.3592052 1.7713507 -1.0971519 8 2 -0.026019827
6.1957874 2.0466628 0.5708701 60 10 -0.026017522
5.9481544 1.9637104 -0.99210751 24 3 -0.026015218
6.1813469 2.0394998 0.79921919 75 11 -0.026012914
5.9950638 1.9768769 -0.77508909 26 4 -0.02601061
6.2058525 2.0463846 1.0349705 87 12 -0.026008306
6.0477247 1.9930714 -0.55709946 22 5 -0.026006002
8.0294638 2.6446147 1.6432471 26 13 -0.026003698
6.0461283 1.9902061 -0.3335894 31 6 -0.026001394
6.1069183 2.0090353 1.4842271 3 14 -0.025999092
6.0937424 2.0047007 -0.11197464 22 7 -0.025996787
5.9662514 1.9616052 1.6828415 46 15 -0.025994483
3.7583861 1.2298815 -1.0596052 12 0 -0.025973747
6.1995125 2.0287075 0.1138595 65 8 -0.025971442
4.3878675 1.4350255 -1.0658182 9 1 -0.025969138
6.1945639 2.0246978 0.34154451 70 9 -0.025966834
5.3560247 1.7495832 -1.0952437 12 2 -0.02596453
6.1934233 2.0219326 0.56999856 62 10 -0.025962226
5.9658995 1.9476541 -0.9939847 25 3 -0.025959922
6.182415 2.0171447 0.79848802 80 11 -0.025957618
6.0129113 1.9606764 -0.77655149 30 4 -0.025955314
6.1979322 2.0198143 1.0324676 61 12 -0.02595301
6.0470681 1.9694792 -0.55640227 31 5 -0.025950707
8.068059 2.6276989 1.649353 7 13 -0.025948403
6.0564942 1.9713804 -0.33379877 43 6 -0.025946099
6.1376381 1.9966112 1.4900758 3 14 -0.025943795
6.0721779 1.9741414 -0.11145107 30 7 -0.025941491
5.9859242 1.9449443 1.6864649 48 15 -0.025939187
3.7459013 1.2120596 -1.0549464 11 0 -0.02591845
6.1932378 2.0027492 0.11361516 67 8 -0.025916146
4.3984132 1.4214969 -1.0671679 8 1 -0.025913842
6.1901913 1.9993777 0.34091645 70 9 -0.025911538
5.3599286 1.7312102 -1.0948621 8 2 -0.025909234
6.1849265 1.9964854 0.56860405 62 10 -0.02590693
5.9726624 1.9268159 -0.9939847 25 3 -0.025904628
6.1931968 1.9967684 0.79897547 80 11 -0.025902323
6.0178289 1.939068 -0.77630776 27 4 -0.025900019
6.2011847 1.9969544 1.0318419 77 12 -0.025897715
6.0289111 1.9414775 -0.55413622 33 5 -0.025895411
6.1672139 1.9848272 1.2593395 5 13 -0.025893107
6.0557332 1.9477823 -0.33338007 43 6 -0.025890803
6.1464257 1.9757693 1.4905257 3 14 -0.025888499
6.086647 1.9553815 -0.11159069 20 7 -0.025886195
5.9669256 1.9157712 1.6792181 11 15 -0.025883891
3.7372284 1.1948591 -1.0513231 8 0 -0.025863154
6.1868567 1.9768592 0.11337084 72 8 -0.02586085
4.4014916 1.4055429 -1.0667179 8 1 -0.025858548
6.1895213 1.97533 0.34049776 70 9 -0.025856243
5.3584576 1.7101034 -1.0933356 10 2 -0.025853939
6.1728754 1.9688307 0.56686091 65 10 -0.025851635
5.9680605 1.9023546 -0.99210751 29 3 -0.025849331
6.1585174 1.9618833 0.7936132 94 11 -0.025847027
6.0151033 1.9150372 -0.77508909 24 4 -0.025844723
6.2043538 1.9740968 1.0312161 95 12 -0.025842419
6.0280571 1.9180027 -0.55343896 28 5 -0.025840115
8.1591721 2.5945156 1.6642361 3 13 -0.025837811
6.0567856 1.9248157 -0.33306605 33 6 -0.025835507
6.1737161 1.9607894 1.4954746 1 14 -0.025833203
6.0762815 1.9286798 -0.11127654 23 7 -0.025830898
5.4929647 1.7424705 1.5441145 22 15 -0.025828594
3.7450609 1.1829692 -1.0523583 13 0 -0.025807859
6.1689291 1.9474267 0.11291707 77 8 -0.025805555
4.4045134 1.3895828 -1.066268 11 1 -0.025803251
6.1979427 1.9553931 0.34060243 85 9 -0.025800947
5.3606501 1.6902064 -1.0925723 8 2 -0.025798643
6.1607075 1.9412849 0.56511784 80 10 -0.025796339
5.9558225 1.8755784 -0.98897886 34 3 -0.025794035
6.1823702 1.9457358 0.79580688 82 11 -0.025791731
6.023314 1.8956772 -0.77533287 33 4 -0.025789427
6.212749 1.9541082 1.0315289 91 12 -0.025787123
6.027113 1.8945608 -0.55274171 35 5 -0.025784818
8.22437 2.5836689 1.6756847 3 13 -0.025782514
6.050128 1.8994752 -0.33233336 45 6 -0.02578021
6.1337023 1.9257139 1.4842271 8 14 -0.025777906
6.061656 1.9019325 -0.11089259 31 7 -0.025775602
6.0259109 1.8895617 1.6921589 7 15 -0.025773298
3.7563396 1.1728476 -1.0544289 11 0 -0.025752563
6.1734447 1.9263617 0.11288217 65 8 -0.025750259
4.405376 1.3738098 -1.0653682 9 1 -0.025747955
6.1796055 1.9271007 0.33924171 70 9 -0.025745651
5.3662262 1.6724191 -1.0925723 8 2 -0.025743347
6.1556978 1.9172879 0.56407195 75 10 -0.025741043
5.9676671 1.8575802 -0.9899174 25 3 -0.025738738
6.1755209 1.9210945 0.7941007 84 11 -0.025736434
6.0011353 1.8668462 -0.77167672 19 4 -0.02573413
6.2210813 1.93408 1.0318419 95 12 -0.025731826
6.0276537 1.8727914 -0.55221879 25 5 -0.025729522
8.1053972 2.5167909 1.6497347 8 13 -0.025727218
6.0506711 1.8776274 -0.33201933 30 6 -0.025724914
6.8826675 2.1358101 1.663738 39 14 -0.02572261
6.0602894 1.8794527 -0.11075297 24 7 -0.025720306
5.5431514 1.7180114 1.5549849 1 15 -0.025718004
3.7583623 1.1598139 -1.0539112 9 0 -0.025697267
6.1702433 1.9029337 0.11270764 60 8 -0.025694963
4.3968716 1.3551743 -1.0622189 9 1 -0.025692658
6.1672072 1.899637 0.338195 70 9 -0.025690354
5.3567314 1.6499923 -1.0895194 12 2 -0.02568805
6.1467886 1.8921763 0.56267744 70 10 -0.025685746
5.9813466 1.8401021 -0.99116892 20 3 -0.025683442
6.178062 1.8994395 0.7936132 87 11 -0.025681138
6.0019217 1.8441421 -0.77094555 17 4 -0.025678834
6.2089124 1.9065526 1.0287131 76 12 -0.02567653
6.0243082 1.8498669 -0.5513472 38 5 -0.025674226
6.0396781 1.8522828 -0.33107728 38 6 -0.025669619
6.8919444 2.1123412 1.6641879 48 14 -0.025667315
6.0974059 1.8676558 -0.11131145 24 7 -0.025665011
5.9795208 1.8304088 1.6755946 33 15 -0.025662707
3.7513003 1.1433095 -1.0508054 12 0 -0.02564197
6.1749363 1.8807997 0.11267274 62 8 -0.025639666
4.4164901 1.3443569 -1.0658182 11 1 -0.025637362
6.1680684 1.8763555 0.33788097 59 9 -0.025635058
5.3662148 1.6324278 -1.0902827 8 2 -0.025632754
6.1285748 1.8631729 0.56041139 92 10 -0.02563045
6.0217552 1.829547 -0.99680054 12 3 -0.025628146
6.1428661 1.8651757 0.78825098 94 11 -0.025625844
6.0083227 1.8231785 -0.77094555 17 4 -0.025623539
6.1928453 1.877987 1.0249587 72 12 -0.025621235
5.9868765 1.8155266 -0.54733807 46 5 -0.025618931
8.1768265 2.4780774 1.6608016 38 13 -0.025616627
6.0556655 1.8340825 -0.33160067 20 6 -0.025614323
6.9216585 2.0950439 1.6695868 56 14 -0.025612019
6.1230288 1.8521516 -0.1116605 42 7 -0.025609715
5.9803262 1.8078467 1.6740416 43 15 -0.025607411
3.7497189 1.1285367 -1.0492525 13 0 -0.025586674
6.1546545 1.8511715 0.11218407 82 8 -0.02558437
4.4174223 1.3278134 -1.0649183 8 1 -0.025582066
6.1707549 1.8536625 0.33767161 74 9 -0.025579762
5.3756413 1.6148145 -1.091046 12 2 -0.025577459
6.1503067 1.8463529 0.5618059 67 10 -0.025575155
6.0432405 1.8130615 -0.99930352 48 3 -0.025572851
6.1702561 1.8499911 0.79093212 82 11 -0.025570547
6.0545835 1.8141582 -0.7760641 61 4 -0.025568243
6.1823306 1.8512628 1.0221429 70 12 -0.025565939
5.9969935 1.7957647 -0.5476867 72 5 -0.025563635
8.1590958 2.4416378 1.6554589 14 13 -0.025561331
5.6735864 1.6967617 -0.31035227 39 6 -0.025559027
6.9363966 2.073107 1.6713864 56 14 -0.025556723
6.1486168 1.8364881 -0.11200955 45 7 -0.025554419
5.5034518 1.6427422 1.538938 67 15 -0.025552114
3.7554865 1.1159937 -1.0497701 9 0 -0.02553138
6.1572447 1.8285362 0.11211426 65 8 -0.025529075
4.4145579 1.3101666 -1.0631187 11 1 -0.025526771
6.175272 1.8315475 0.33756694 63 9 -0.025524467
5.3774796 1.5949273 -1.0902827 8 2 -0.025522163
6.1567144 1.8248715 0.5618059 67 10 -0.025519859
5.7616396 1.7066761 -0.95174736 52 3 -0.025517555
6.159544 1.8233747 0.78873843 87 11 -0.025515251
6.0266151 1.7828776 -0.77167672 75 4 -0.025512947
6.1622353 1.821829 1.0177628 71 12 -0.025510643
5.7949662 1.7132481 -0.52868676 23 5 -0.025508339
8.15627 2.4098101 1.6531693 10 13 -0.025506034
5.6641502 1.6724235 -0.30951488 30 6 -0.02550373
6.9249005 2.0433648 1.6668873 56 14 -0.025501426
6.1089582 1.8014383 -0.11117183 49 7 -0.025499122
5.5110054 1.6240689 1.5394558 41 15 -0.025496818
3.7667742 1.1050521 -1.0518407 14 0 -0.025476083
6.1539965 1.8042178 0.11193974 60 8 -0.025473779
4.4041429 1.2903664 -1.0595194 9 1 -0.025471475
6.1624603 1.8043667 0.33652022 57 9 -0.025469171
5.3717098 1.5728352 -1.0879929 12 2 -0.025466867
6.1649599 1.8039273 0.56198025 65 10 -0.025464563
5.6139879 1.6416469 -0.92640501 34 3 -0.025462259
6.1487236 1.7968498 0.7865448 85 11 -0.025459955
6.0061255 1.7540375 -0.76826441 77 4 -0.02545765
6.1628675 1.7986487 1.0168241 78 12 -0.025455346
5.6768808 1.655737 -0.51735646 24 5 -0.025453042
6.1121664 1.7826939 1.2375872 12 13 -0.025450738
5.6335225 1.6420213 -0.30752611 27 6 -0.025448434
6.9563136 2.0262661 1.672736 50 14 -0.02544613
6.069128 1.7666937 -0.11033412 37 7 -0.025443826
5.4962368 1.5988847 1.5337617 56 15 -0.025441522
3.7726543 1.0917766 -1.0523583 13 0 -0.025420787
6.1372046 1.7760589 0.11152088 30 8 -0.025418483
4.4104929 1.2755256 -1.0599694 8 1 -0.025416179
6.1418595 1.7750796 0.33505484 57 9 -0.025413875
5.3774381 1.5531375 -1.0879929 8 2 -0.02541157
6.1581306 1.7774533 0.56076008 67 10 -0.025409266
5.6009874 1.6155834 -0.92327636 34 3 -0.025406962
6.1301632 1.7682221 0.78337622 84 11 -0.025404658
5.9835997 1.7248154 -0.76460832 33 4 -0.025402354
6.1292467 1.7656406 1.0102539 81 12 -0.02540005
5.6500778 1.6265396 -0.51439321 24 5 -0.025397746
8.1940613 2.3573506 1.6573671 9 13 -0.025395442
5.5742388 1.6026003 -0.30396727 41 6 -0.02539314
6.958075 1.9991401 1.6713864 53 14 -0.025390835
5.7581372 1.6543834 -0.10457481 29 7 -0.025388531
5.4943566 1.5775582 1.5316912 58 15 -0.025386227
3.7522943 1.0717027 -1.0456289 8 0 -0.02536549
5.5687265 1.5894448 0.10108434 28 8 -0.025363186
4.4188857 1.2604218 -1.0608691 11 1 -0.025360882
6.1310372 1.7476305 0.33411276 74 9 -0.025358578
5.390379 1.5365086 -1.0895194 12 2 -0.025356274
6.1470528 1.7510325 0.55919123 75 10 -0.02535397
5.5856934 1.5900743 -0.91983473 36 3 -0.025351666
6.1595144 1.7522614 0.78630108 84 11 -0.025349362
5.4819732 1.5584773 -0.69977379 45 4 -0.025347058
6.1451778 1.7458645 1.0118183 78 12 -0.025344756
5.6061687 1.591673 -0.50986111 26 5 -0.025342451
8.2097931 2.3308799 1.6588935 9 13 -0.025340147
5.5701928 1.5804056 -0.30344391 45 6 -0.025337843
6.9762597 1.9780308 1.6740857 56 14 -0.025335539
5.6217899 1.5929281 -0.10199186 28 7 -0.025333235
5.490809 1.5547767 1.529103 41 15 -0.025330931
3.754338 1.057418 -1.0451113 9 0 -0.025310194
5.5549927 1.5645766 0.10073529 28 8 -0.02530789
4.4401417 1.2497398 -1.0649183 9 1 -0.025305586
6.1370997 1.7262199 0.33411276 59 9 -0.025303282
5.3770747 1.5114276 -1.0857033 12 2 -0.02530098
6.1380825 1.7241814 0.55779672 62 10 -0.025298674
5.5629568 1.5615815 -0.91514176 34 3 -0.025296371
6.1617718 1.7296753 0.78581363 84 11 -0.025294067
5.4950252 1.541478 -0.7007488 57 4 -0.025291763
6.1417246 1.7217356 1.0102539 75 12 -0.025289459
5.5886683 1.565643 -0.50776935 28 5 -0.025287155
8.2145004 2.2997134 1.6581303 9 13 -0.025284851
5.5797939 1.5610566 -0.30365324 46 6 -0.025282547
6.992847 1.95507 1.6763352 47 14 -0.025280243
5.6196127 1.5711393 -0.10185225 36 7 -0.025277939
5.481317 1.5314431 1.5249618 31 15 -0.025275635
3.7667642 1.0488659 -1.0476996 15 0 -0.024994373
5.5598803 1.5471184 0.10073529 28 8 -0.024992069
4.4252706 1.2305645 -1.0604193 9 1 -0.024989765
6.1405687 1.7063944 0.33400813 70 9 -0.024987461
5.3928847 1.4986216 -1.0879929 8 2 -0.024985157
6.1431713 1.7059629 0.55779672 65 10 -0.024982853
5.546627 1.5392594 -0.91170013 38 3 -0.024980549
6.1480455 1.7050052 0.78337622 87 11 -0.024978245
5.4960141 1.5231478 -0.70026129 72 4 -0.024975941
6.1451993 1.7019063 1.009941 78 12 -0.024973636
5.5779281 1.5448011 -0.5063749 28 5 -0.024971332
8.2288561 2.2774262 1.6596566 11 13 -0.02496903
5.5728512 1.5413009 -0.30302522 45 6 -0.024966726
5.6225929 1.5529456 -0.10181734 40 7 -0.024962118
5.9088259 1.6308895 1.6424657 50 15 -0.024959814
3.772265 1.0362234 -1.0482172 9 0 -0.024939077
5.5633187 1.5271705 0.10070039 30 8 -0.024936773
4.4163847 1.2115002 -1.0572699 11 1 -0.024934469
6.1291513 1.6801986 0.33306605 74 9 -0.024932165
5.4094434 1.4829034 -1.0902827 10 2 -0.024929861
6.1433249 1.6829282 0.55727381 62 10 -0.024927557
5.5481563 1.5188441 -0.91107446 38 3 -0.024925252
6.1309824 1.6772498 0.78045136 80 11 -0.02492295
5.489809 1.5008117 -0.69879889 75 4 -0.024920646
6.1320477 1.6752377 1.0068123 63 12 -0.024918342
5.5775213 1.5237445 -0.50585192 28 5 -0.024916038
6.0833426 1.660794 1.225757 24 13 -0.024913734
5.5685635 1.5192087 -0.30250186 49 6 -0.02491143
5.9073367 1.6105249 1.4135925 1 14 -0.024909126
5.6086855 1.5280544 -0.10146829 45 7 -0.024906822
6.0896988 1.6579589 1.6911237 46 15 -0.024904517
3.7814534 1.0245643 -1.0497701 9 0 -0.024883781
5.5801959 1.5108783 0.10090981 30 8 -0.024881477
4.4243479 1.1970955 -1.0581697 8 1 -0.024879172
6.1231222 1.6567328 0.33243802 80 9 -0.02487687
5.384264 1.4558115 -1.0841768 10 2 -0.024874566
6.141468 1.6593962 0.55657655 75 10 -0.024872262
5.538167 1.4953499 -0.90857148 41 3 -0.024869958
6.1291342 1.6537683 0.7794764 84 11 -0.024867654
5.4950142 1.4816407 -0.69879889 73 4 -0.02486535
6.1261253 1.6518096 1.0049351 45 12 -0.024863046
5.5693388 1.5006385 -0.50463176 31 5 -0.024860742
8.2654076 2.2255375 1.6638545 21 13 -0.024858437
5.5699749 1.4987248 -0.30229253 49 6 -0.024856133
5.9166861 1.5909077 1.4144921 15 14 -0.024853829
5.605998 1.5073684 -0.10132867 46 7 -0.024851525
6.1119542 1.6422688 1.6957825 50 15 -0.024849221
3.7644763 1.0058733 -1.0440761 13 0 -0.024828486
5.5890393 1.493399 0.10097963 28 8 -0.024826182
4.4207621 1.1804073 -1.0563701 11 1 -0.024823878
6.1327281 1.6363771 0.33264738 74 9 -0.024821574
5.3893132 1.4370066 -1.0841768 12 2 -0.02481927
6.1356711 1.6348716 0.55553067 62 10 -0.024816966
5.5316429 1.4739261 -0.90669429 41 3 -0.024814662
6.1365032 1.6339433 0.77972013 78 11 -0.024812358
5.4998975 1.4634089 -0.69879889 75 4 -0.024810053
6.1184902 1.6268634 1.002745 15 12 -0.024807749
5.5418086 1.4724895 -0.50166845 30 5 -0.024805445
8.297411 2.204668 1.6688155 27 13 -0.024803141
5.5787754 1.4812694 -0.30250186 52 6 -0.024800837
5.5957627 1.4836892 -0.10104944 45 7 -0.024796229
6.1064453 1.6179538 1.6926767 48 15 -0.024793925
3.7659228 0.99289256 -1.0435584 14 0 -0.02477319
5.5787492 1.4698035 0.10070039 35 8 -0.024770886
4.432394 1.1669521 -1.0581697 11 1 -0.024768582
6.1248813 1.6114069 0.33191466 70 9 -0.024766278
5.399744 1.4206293 -1.0853217 12 2 -0.024763973
6.129498 1.6114749 0.55448484 62 10 -0.024761669
5.5138278 1.4485835 -0.90293986 45 3 -0.024759365
6.1364079 1.6110049 0.7789889 80 11 -0.024757061
5.5068922 1.4447067 -0.69904256 72 4 -0.024754757
6.1394186 1.6095017 1.005248 35 12 -0.024752453
5.5237865 1.4470781 -0.49957672 28 5 -0.024750149
8.2974586 2.173703 1.6672891 39 13 -0.024747845
5.5839119 1.4617879 -0.30250186 54 6 -0.024745541
5.9292631 1.5510904 1.4149421 9 14 -0.024743237
5.6009083 1.4641458 -0.10104944 42 7 -0.024740933
6.1157937 1.5976061 1.6937119 46 15 -0.024738628
3.7676675 0.9785946 -1.0430408 13 0 -0.024717893
5.591588 1.4523304 0.10084001 35 8 -0.024715589
4.4232364 1.148047 -1.0550205 9 1 -0.024713285
6.1266022 1.5890127 0.33170533 70 9 -0.024710981
5.4087167 1.4018098 -1.0860848 12 2 -0.024708677
6.1276474 1.5870014 0.55378759 60 10 -0.024706373
5.4904137 1.4209417 -0.89824677 38 3 -0.024704069
6.1246982 1.5850971 0.77679521 78 11 -0.024701765
5.5253553 1.4289529 -0.7007488 78 4 -0.024699461
6.1430864 1.5875684 1.0049351 61 12 -0.024697157
5.5133705 1.4238034 -0.49818221 26 5 -0.024694853
6.0660191 1.5653901 1.2177432 13 13 -0.024692548
5.5795617 1.4388198 -0.3019785 50 6 -0.024690246
5.9424562 1.5312946 1.4167417 5 14 -0.024687942
5.6098566 1.4455879 -0.10111924 41 7 -0.024685638
5.5002203 1.4163096 1.521856 20 15 -0.024683334
3.7804172 0.96783525 -1.0456289 18 0 -0.024662597
5.5929985 1.4308364 0.10077019 35 8 -0.024660293
4.4179749 1.129413 -1.052771 11 1 -0.024657989
6.114697 1.5631636 0.33076328 80 9 -0.024655685
5.4249887 1.3858405 -1.0883746 12 2 -0.024653381
6.1312199 1.5651078 0.55361325 60 10 -0.024651077
5.4876847 1.3998134 -0.89699531 38 3 -0.024648773
6.0977659 1.5543044 0.77265167 84 11 -0.024646468
5.5132418 1.4042833 -0.69855517 72 4 -0.024644166
6.1294489 1.5612379 1.0018064 77 12 -0.024641862
5.5009308 1.4001251 -0.49661341 34 5 -0.024639558
6.0771532 1.5456622 1.2188879 31 13 -0.024637254
5.5826144 1.4188412 -0.3018738 52 6 -0.02463495
6.0743141 1.5426797 1.4468851 15 14 -0.024632646
5.6032395 1.4230421 -0.10090981 41 7 -0.024630342
6.1324143 1.5562994 1.6952648 50 15 -0.024628038
3.7744074 0.95226926 -1.0430408 12 0 -0.024607301
5.5996513 1.4127718 0.1008051 45 8 -0.024604997
4.4368134 1.1185662 -1.0563701 11 1 -0.024602693
6.1123691 1.5398595 0.33034459 85 9 -0.024600388
5.4107552 1.3621013 -1.0845585 12 2 -0.024598084
6.1269855 1.5412645 0.55274171 65 10 -0.024595782
5.480803 1.378715 -0.89511812 38 3 -0.024593478
6.1163635 1.5374607 0.77435786 78 11 -0.024591174
5.5159426 1.3855106 -0.69831145 76 4 -0.02458887
6.119534 1.5359839 0.99930352 65 12 -0.024586566
5.5193119 1.3843088 -0.49783361 59 5 -0.024584262
6.0803409 1.5250216 1.2185063 13 13 -0.024581958
5.5872889 1.4003218 -0.3018738 54 6 -0.024579654
7.0737257 1.7715466 1.6835337 3 14 -0.024577349
5.5848947 1.3976501 -0.10049096 41 7 -0.024575045
6.1509295 1.5381628 1.6988882 46 15 -0.024572741
3.7737949 0.93881387 -1.0420054 9 0 -0.024552004
5.6123114 1.3951477 0.10094472 59 8 -0.024549702
4.4425812 1.1035448 -1.0568202 9 1 -0.024547398
6.1174412 1.519583 0.33034459 74 9 -0.024545094
5.3961883 1.33942 -1.0807421 12 2 -0.02454279
6.1243272 1.5190208 0.55204445 62 10 -0.024540486
5.470242 1.3557773 -0.8926152 40 3 -0.024538182
6.1216936 1.5160996 0.77435786 75 11 -0.024535878
5.5188189 1.3657695 -0.69806767 70 4 -0.024533574
6.1092529 1.5118872 0.99680054 60 12 -0.024531269
5.5083981 1.3621731 -0.4964391 50 5 -0.024528965
8.3289051 2.0581105 1.6676707 23 13 -0.024526661
5.5998993 1.3827238 -0.30229253 56 6 -0.024524357
7.1309495 1.7594531 1.6956811 4 14 -0.024522053
5.5953226 1.3805605 -0.10059568 54 7 -0.024519749
6.1466184 1.5154432 1.6963001 16 15 -0.024517445
3.77142 0.9242565 -1.0404526 14 0 -0.02449671
5.6071954 1.3741474 0.10077019 85 8 -0.024494406
4.4348598 1.0860243 -1.0541207 12 1 -0.024492102
6.1227088 1.4982182 0.33034459 74 9 -0.024489798
5.417994 1.3247733 -1.0841768 12 2 -0.024487494
6.1179795 1.4947978 0.55099863 62 10 -0.024485189
5.5073299 1.3455986 -0.89793396 47 3 -0.024482885
6.1228304 1.4948508 0.77387041 78 11 -0.024480581
5.5329599 1.3498144 -0.69928634 72 4 -0.024478277
6.1144934 1.490554 0.99680054 57 12 -0.024475973
5.5208635 1.3448218 -0.49713635 57 5 -0.024473669
8.3261471 2.0281579 1.6657627 25 13 -0.024471365
5.6044545 1.3641447 -0.30229253 56 6 -0.024469061
7.1613612 1.7417814 1.7015297 1 14 -0.024466757
5.6098237 1.3633804 -0.10077019 29 7 -0.024464453
6.1556258 1.4948884 1.6973354 7 15 -0.024462149
3.7707083 0.91083848 -1.0394174 14 0 -0.024441414
5.6100144 1.3540983 0.10073529 85 8 -0.024439109
4.4139967 1.0645962 -1.0482719 10 1 -0.024436805
6.1259594 1.4763701 0.33023992 70 9 -0.024434501
5.40518 1.3026607 -1.0807421 12 2 -0.024432197
6.1074066 1.4707711 0.54960412 65 10 -0.024429893
5.4678211 1.3157353 -0.89073795 38 3 -0.024427589
6.1145 1.4702215 0.77216423 80 11 -0.024425285
5.5395679 1.3309574 -0.69953007 73 4 -0.024422981
6.0966101 1.4636661 0.99304616 62 12 -0.024420677
5.5601645 1.334877 -0.50027394 57 5 -0.024418373
8.3465385 2.0022895 1.6684339 12 13 -0.024416069
5.5955849 1.3413179 -0.30155981 51 6 -0.024413764
7.0972776 1.6999755 1.6848834 40 14 -0.024411462
5.6456647 1.3512388 -0.10132867 21 7 -0.024409158
6.1645632 1.4742951 1.6983706 16 15 -0.024406854
3.7701061 0.8967756 -1.0383821 8 0 -0.024386117
5.618598 1.3354307 0.1008051 95 8 -0.024383813
4.408205 1.0469313 -1.0460224 7 1 -0.024381509
6.105813 1.4489808 0.32887918 85 9 -0.024379205
5.4039645 1.2824239 -1.0795974 12 2 -0.024376901
6.1125031 1.4494417 0.54960412 75 10 -0.024374597
5.4954467 1.3021077 -0.89449239 29 3 -0.024372293
6.1060734 1.445666 0.7704581 85 11 -0.024369989
5.5287266 1.3079551 -0.69758022 69 4 -0.024367684
6.1209059 1.4469216 0.99617481 62 12 -0.02436538
5.5803022 1.3191283 -0.50166845 60 5 -0.024363078
8.3515673 1.9726892 1.6680523 13 13 -0.024360774
5.6021776 1.3222349 -0.3016645 52 6 -0.02435847
7.1012716 1.6747452 1.6844335 47 14 -0.024356166
5.6951137 1.3420715 -0.10213149 22 7 -0.024353862
5.5228057 1.3004493 1.5203031 16 15 -0.024351558
3.7863805 0.88669235 -1.0420054 9 0 -0.024330821
5.6349072 1.3185447 0.10101452 85 8 -0.024328517
4.4402962 1.0381935 -1.052771 12 1 -0.024326213
6.0972195 1.4244764 0.32814649 76 9 -0.024323909
5.3969369 1.2608713 -1.0773077 10 2 -0.024321605
6.1233459 1.4294564 0.55012703 67 10 -0.0243193
5.5115004 1.2856106 -0.89636964 25 3 -0.024316998
6.1072164 1.4234402 0.7699706 85 11 -0.024314694
5.5313244 1.2881991 -0.69733644 72 4 -0.02431239
6.1124506 1.4224141 0.9939847 66 12 -0.024310086
5.6139803 1.3064162 -0.50428313 61 5 -0.024307782
8.3641386 1.9448563 1.6691971 11 13 -0.024305478
5.6028676 1.3017688 -0.30145514 52 6 -0.024303174
7.1070747 1.649945 1.6844335 47 14 -0.02430087
5.7309318 1.3294121 -0.10268996 23 7 -0.024298565
