# .PCD v0.7 - Point Cloud Data file format
VERSION 0.7
FIELDS x y z intensity ring time
SIZE 4 4 4 4 2 4
TYPE F F F F U F
COUNT 1 1 1 1 1 1
WIDTH 944
HEIGHT 1
VIEWPOINT 0 0 0 1 0 0 0
POINTS 944
DATA ascii
1.8432074 -2.9531877 0.93278384 42 15 -0.022034094
1.6364456 -2.6290598 -0.8297739 39 0 -0.022013359
1.9966328 -3.2089729 0.0659701 20 8 -0.022011055
1.6333587 -2.6261432 -0.71399468 39 1 -0.022008751
1.9941356 -3.2074549 0.1979346 31 9 -0.022006446
1.6315864 -2.624315 -0.60066676 43 2 -0.022004142
2.0949345 -3.3708959 0.34722847 79 10 -0.022001838
1.6334424 -2.6293464 -0.49026567 48 3 -0.021999534
2.0253499 -3.2614682 0.47139066 1 11 -0.02199723
2.074712 -3.3435619 0.62323499 79 12 -0.021992622
1.6188084 -2.6088374 -0.26861399 41 5 -0.021990318
2.068644 -3.3350816 0.7628544 13 13 -0.021988014
1.618695 -2.610687 -0.16098543 34 6 -0.02198571
1.8263407 -2.9467342 0.80037582 40 14 -0.021983407
1.6039593 -2.588939 -0.05316003 49 7 -0.021981103
1.8196645 -2.9382524 0.92605454 43 15 -0.021978799
1.622183 -2.6265383 -0.82718569 42 0 -0.021958062
1.9833184 -3.2125196 0.065900289 35 8 -0.021955758
1.6241817 -2.6318288 -0.71399468 43 1 -0.021953454
1.9787329 -3.2075973 0.19751592 19 9 -0.02195115
1.6172621 -2.62164 -0.5987587 39 2 -0.021948846
2.0726974 -3.3612297 0.34548536 79 10 -0.021946542
1.6128525 -2.6165349 -0.48682413 42 3 -0.021944238
1.9931258 -3.2347174 0.46651587 1 11 -0.021941934
2.0599217 -3.345737 0.62229639 78 12 -0.021937326
1.5950682 -2.5907195 -0.26617363 39 5 -0.021935023
2.0497873 -3.3305783 0.7601831 15 13 -0.021932719
1.6085255 -2.6146204 -0.16088074 38 6 -0.021930415
1.8150227 -2.9514315 0.79992598 38 14 -0.021928111
1.5991013 -2.6013365 -0.053299651 49 7 -0.021925807
1.8063629 -2.9396489 0.92450172 40 15 -0.021923503
1.6099763 -2.627243 -0.82563275 42 0 -0.021902766
1.9616472 -3.2023711 0.065551244 35 8 -0.021900462
1.5987029 -2.6108916 -0.70679623 36 1 -0.021898158
1.9696096 -3.2178917 0.19772527 19 9 -0.021895854
1.5958019 -2.6071754 -0.59417921 36 2 -0.02189355
2.055753 -3.3599463 0.34461379 78 10 -0.021891246
1.5789731 -2.5817046 -0.47931525 43 3 -0.021888943
1.9631846 -3.2111695 0.46212861 1 11 -0.021886639
2.0461707 -3.3495359 0.62167066 82 12 -0.021882031
1.577706 -2.5826695 -0.26477915 43 5 -0.021879727
2.0340559 -3.3310106 0.75865656 22 13 -0.021877423
1.5889829 -2.6031718 -0.15983403 32 6 -0.021875119
1.7986193 -2.947768 0.79722655 36 14 -0.021872815
1.5858464 -2.6000736 -0.05316003 49 7 -0.021870511
1.7920682 -2.9393382 0.92243111 42 15 -0.021868207
1.5987889 -2.6295455 -0.82459748 43 0 -0.02184747
1.9514954 -3.2109079 0.065586142 34 8 -0.021845166
1.5824969 -2.6047976 -0.7036469 42 1 -0.021842863
1.9479982 -3.2076759 0.19667853 19 9 -0.021840559
1.5836345 -2.6076958 -0.59303439 38 2 -0.021838255
2.042978 -3.3653986 0.34443948 79 10 -0.021835951
1.5740508 -2.5939553 -0.48056671 43 3 -0.021833647
1.9396092 -3.1976354 0.45920372 1 11 -0.021831343
2.0334423 -3.3549683 0.62135774 83 12 -0.021826735
1.5666157 -2.5847533 -0.26443052 45 5 -0.021824431
2.021399 -3.336412 0.75827497 24 13 -0.021822127
1.5705746 -2.593327 -0.15889199 34 6 -0.021819822
1.7822634 -2.9440258 0.79452711 36 14 -0.021817518
1.5746901 -2.6021717 -0.053090218 50 7 -0.021815214
1.7817971 -2.9455757 0.92243111 42 15 -0.02181291
1.5975831 -2.6483438 -0.82873863 38 0 -0.021792175
1.9371773 -3.212563 0.065481432 35 8 -0.021789871
1.5693705 -2.6036296 -0.70184726 47 1 -0.021787567
1.9229155 -3.1901708 0.19521314 25 9 -0.021785263
1.563377 -2.5947101 -0.58883661 42 2 -0.021782959
2.0271065 -3.3656826 0.34374225 81 10 -0.021780655
1.5609113 -2.5926647 -0.47931525 46 3 -0.021778351
1.9151293 -3.1822753 0.45603511 5 11 -0.021776047
1.557446 -2.5889535 -0.37097031 28 4 -0.021773743
2.0131412 -3.3464587 0.61854196 82 12 -0.021771438
1.5575836 -2.5902061 -0.26443052 45 5 -0.021769134
2.0097404 -3.3434477 0.75827497 28 13 -0.02176683
1.56357 -2.6022174 -0.15910132 33 6 -0.021764526
1.7659557 -2.9402061 0.79182774 36 14 -0.021762222
1.5557561 -2.5902369 -0.05274117 51 7 -0.021759918
1.7670473 -2.943187 0.9198429 43 15 -0.021757614
1.578408 -2.6373277 -0.82356226 33 0 -0.021736879
1.9254864 -3.2172537 0.065446526 39 8 -0.021734575
1.5557258 -2.6004579 -0.69959778 40 1 -0.021732271
1.9148432 -3.2020059 0.19552715 36 9 -0.021729967
1.5492736 -2.5917261 -0.58692849 43 2 -0.021727663
2.0061476 -3.3573453 0.34217343 84 10 -0.021725358
1.548252 -2.5910439 -0.47806379 48 3 -0.021723054
1.9055839 -3.1903131 0.45627886 11 11 -0.02172075
1.5498698 -2.5958085 -0.37121406 48 4 -0.021718446
1.9903115 -3.3348069 0.61510038 86 12 -0.021716142
1.5403662 -2.581939 -0.26303601 41 5 -0.021713838
1.9916006 -3.3382916 0.75560367 33 13 -0.021711534
1.5477716 -2.5953805 -0.15836863 32 6 -0.02170923
1.7542005 -2.942698 0.79092795 36 14 -0.021706926
1.5405631 -2.5853446 -0.052531745 51 7 -0.021704622
1.7478656 -2.9343998 0.9151842 39 15 -0.021702319
1.5627477 -2.6309209 -0.81993878 36 0 -0.021681583
1.9050564 -3.2084799 0.06513238 37 8 -0.021679278
1.5466391 -2.6058724 -0.69959778 46 1 -0.021676974
1.9107879 -3.2206945 0.19625986 36 9 -0.02167467
1.5396687 -2.595161 -0.5865469 43 2 -0.021672366
1.9878891 -3.3519835 0.34095326 87 10 -0.021670062
1.5331541 -2.5862372 -0.47618657 48 3 -0.021667758
1.895448 -3.1986532 0.45652261 15 11 -0.021665454
1.5327058 -2.5875392 -0.36926416 42 4 -0.02166315
1.9766457 -3.3383348 0.61447465 86 12 -0.021660846
1.5236751 -2.5733175 -0.26164153 46 5 -0.021658542
1.9729363 -3.3333964 0.75293231 35 13 -0.021656239
1.5407364 -2.6042054 -0.15857796 32 6 -0.021653935
1.7419337 -2.9454484 0.7900281 36 14 -0.021651631
1.5315291 -2.5907066 -0.052531745 51 7 -0.021649327
1.7297494 -2.9271777 0.91104311 39 15 -0.021647023
1.5486507 -2.6280382 -0.81735063 39 0 -0.021626286
1.8989195 -3.2237253 0.065306902 39 8 -0.021623982
1.5286344 -2.5961423 -0.69554865 47 1 -0.021621678
1.9035861 -3.2342296 0.19667853 39 9 -0.021619374
1.5246252 -2.5903676 -0.58425713 43 2 -0.02161707
1.974156 -3.3554676 0.34060463 87 10 -0.021614766
1.518109 -2.5813563 -0.47430936 46 3 -0.021612462
1.8651564 -3.1727355 0.45189157 33 11 -0.021610159
1.5236641 -2.5928736 -0.36926416 43 4 -0.021607855
1.9639801 -3.3435109 0.61416179 89 12 -0.021605551
1.5146831 -2.5786207 -0.26164153 45 5 -0.021603247
1.9513478 -3.3233333 0.74911612 37 13 -0.021600943
1.5235487 -2.5957878 -0.15774059 31 6 -0.021598639
1.7286831 -2.9464688 0.78867841 35 14 -0.021596335
1.5164071 -2.5856869 -0.052322313 52 7 -0.021594031
1.7214751 -2.9365308 0.91207838 40 15 -0.021591727
1.5238682 -2.6067433 -0.80906838 40 0 -0.02157099
1.8926994 -3.2389669 0.065481432 49 8 -0.021568686
1.5126826 -2.5896833 -0.69239932 46 1 -0.021566382
1.8912785 -3.23913 0.19657388 37 9 -0.021564078
1.5135945 -2.592283 -0.58349395 47 2 -0.021561775
1.9594182 -3.3571761 0.34008169 90 10 -0.021559471
1.509089 -2.5866399 -0.47430936 50 3 -0.021557167
1.8570701 -3.184371 0.45262277 37 11 -0.021554863
1.5096054 -2.5896013 -0.36804545 47 4 -0.021552559
1.9493134 -3.345226 0.61322314 96 12 -0.021550255
1.5036665 -2.5804491 -0.2612929 35 5 -0.021547951
1.9377589 -3.3267317 0.74835294 42 13 -0.021545647
1.504429 -2.5838299 -0.15669388 30 6 -0.021543343
1.713486 -2.9440639 0.78642887 35 14 -0.021541039
1.5073721 -2.5909646 -0.052322313 52 7 -0.021538734
1.7034447 -2.929162 0.90793723 40 15 -0.02153643
1.5176671 -2.6170604 -0.81062132 42 0 -0.021515695
1.8984307 -3.2749646 0.066074811 22 8 -0.021513391
1.5026566 -2.593262 -0.69194949 47 1 -0.021511087
1.8989799 -3.2785492 0.19856264 21 9 -0.021508783
1.5006003 -2.5907552 -0.58196747 47 2 -0.021506479
1.9456908 -3.3605468 0.33973309 90 10 -0.021504175
1.4960928 -2.5850532 -0.4730579 51 3 -0.021501871
1.8360033 -3.1736515 0.45018539 44 11 -0.021499567
1.4926069 -2.5811076 -0.36609554 47 4 -0.021497263
1.9237846 -3.3280671 0.60884303 93 12 -0.021494959
1.4886675 -2.5753326 -0.26024702 25 5 -0.021492654
1.9241703 -3.3300757 0.74758971 45 13 -0.02149035
1.5013942 -2.5994425 -0.1573219 29 6 -0.021488046
1.6954039 -2.9365261 0.7828297 37 14 -0.021485742
1.4903222 -2.5823545 -0.052043077 53 7 -0.021483438
1.6951401 -2.9384372 0.9089725 42 15 -0.021481134
1.4902197 -2.5905256 -0.80078614 42 0 -0.021460399
1.9019399 -3.3075743 0.066598386 33 8 -0.021458095
1.4906821 -2.5934224 -0.69059974 46 1 -0.021455791
1.9004591 -3.3076711 0.19992337 37 9 -0.021453487
1.4856794 -2.5857639 -0.57967776 47 2 -0.021451183
1.9250178 -3.3517685 0.33816427 93 10 -0.021448879
1.4860766 -2.5885465 -0.472745 46 3 -0.021446574
1.8239257 -3.1783192 0.44994166 45 11 -0.02144427
1.483588 -2.586302 -0.36609554 47 4 -0.021441966
1.9013469 -3.3159118 0.60540146 89 12 -0.021439662
1.4766957 -2.5753284 -0.25972411 24 5 -0.021437358
1.9125346 -3.336772 0.74758971 46 13 -0.021435054
1.4843681 -2.5908041 -0.15648453 29 6 -0.02143275
1.6832066 -2.9390438 0.78192985 37 14 -0.021430446
1.4753383 -2.5771284 -0.051833645 52 7 -0.021428142
1.6723996 -2.9225388 0.9022432 34 15 -0.021425838
1.471594 -2.5789325 -0.79560977 43 0 -0.021405103
1.8943456 -3.321141 0.066738002 49 8 -0.021402799
1.4825854 -2.6003029 -0.69104964 47 1 -0.021400495
1.9047247 -3.3420484 0.20159812 75 9 -0.02139819
1.4756721 -2.5892286 -0.57929617 49 2 -0.021395886
1.9073892 -3.3480806 0.33711842 93 10 -0.021393582
1.4682341 -2.5782692 -0.46992919 50 3 -0.021391278
1.8128201 -3.1846664 0.44994166 52 11 -0.021388974
1.4706243 -2.5845633 -0.36512056 42 4 -0.02138667
1.8897606 -3.3225284 0.60540146 89 12 -0.021384366
1.4617869 -2.5700758 -0.25867823 23 5 -0.021382062
1.8892313 -3.3229473 0.74301028 46 13 -0.021379758
1.4763021 -2.5977058 -0.1565892 33 6 -0.021377455
1.6690868 -2.9381237 0.78013027 38 14 -0.021375151
1.4643586 -2.5787847 -0.051763836 54 7 -0.021372847
1.6574196 -2.9199586 0.89965498 37 15 -0.021370543
1.4644859 -2.5874162 -0.79664505 43 0 -0.021349806
1.882741 -3.3277333 0.066738002 94 8 -0.021347502
1.4658251 -2.5918925 -0.68745047 47 1 -0.021345198
1.8950132 -3.3521538 0.20180747 100 9 -0.021342894
1.4608283 -2.5841093 -0.57700646 50 2 -0.02134059
1.8947103 -3.3529837 0.3369441 96 10 -0.021338286
1.454368 -2.5747788 -0.46836486 41 3 -0.021335982
1.7909567 -3.1719604 0.44726053 48 11 -0.021333678
1.4615935 -2.5896809 -0.36512056 42 4 -0.021331374
1.8762101 -3.325664 0.60477573 89 12 -0.021329071
1.4479117 -2.5664866 -0.25780669 20 5 -0.021326767
1.8708698 -3.3175509 0.74033892 50 13 -0.021324463
1.4603601 -2.5906644 -0.15585649 31 6 -0.021322159
1.6588205 -2.9439321 0.78013027 38 14 -0.021319855
1.4533852 -2.5803959 -0.051694028 52 7 -0.021317551
1.6472168 -2.9257262 0.89965498 35 15 -0.021315247
1.4554452 -2.5925124 -0.79664505 41 0 -0.02129451
1.8779643 -3.3464923 0.066982336 64 8 -0.021292206
1.4491417 -2.5833964 -0.68385124 47 1 -0.021289902
1.8881844 -3.3674588 0.20233083 100 9 -0.021287598
1.4508389 -2.5874805 -0.57662481 47 2 -0.021285295
1.8781238 -3.3508868 0.33607253 99 10 -0.02128299
1.4415094 -2.5729465 -0.46711335 43 3 -0.021280687
1.7730839 -3.166069 0.44555435 41 11 -0.021278383
1.4428482 -2.5774457 -0.36268318 43 4 -0.021276079
1.8616959 -3.3270211 0.60383707 86 12 -0.021273775
1.4321337 -2.5593541 -0.25658652 27 5 -0.021271471
1.8564031 -3.3189209 0.7391941 56 13 -0.021269167
1.4454602 -2.5852864 -0.15522847 29 6 -0.021266863
1.639027 -2.9326935 0.77563125 38 14 -0.021264559
1.4424186 -2.5819623 -0.05162422 53 7 -0.021262255
1.6388779 -2.9348316 0.90069032 34 15 -0.02125995
1.4407477 -2.5874503 -0.79353923 44 0 -0.021230221
1.8594636 -3.340796 0.066738002 61 8 -0.021227917
1.4363252 -2.5816274 -0.6820516 49 1 -0.021225613
1.8647695 -3.3530836 0.20107476 100 9 -0.021223309
1.4303476 -2.5719397 -0.57204539 41 2 -0.021221004
1.8596392 -3.345233 0.33485237 96 10 -0.0212187
1.4315597 -2.576236 -0.46680051 46 3 -0.021216396
1.7581658 -3.1652975 0.44457942 41 11 -0.021214092
1.4280609 -2.5720534 -0.36122078 44 4 -0.021211788
1.8424028 -3.3196819 0.60133415 96 12 -0.021209484
1.4270588 -2.571306 -0.25728375 27 5 -0.02120718
1.8448066 -3.3253808 0.7391941 67 13 -0.021204878
1.4344898 -2.5868227 -0.15501912 29 6 -0.021202574
1.6231112 -2.9281707 0.77293181 38 14 -0.021200269
1.4275821 -2.5764863 -0.051414788 54 7 -0.021197965
1.6211354 -2.9270151 0.89654922 37 15 -0.021195661
1.4242359 -2.5789347 -0.78939813 43 0 -0.021174924
1.8439251 -3.3402641 0.066598386 59 8 -0.02117262
1.4282467 -2.5883317 -0.68250149 50 1 -0.021170316
1.8482308 -3.3508279 0.20055141 90 9 -0.021168012
1.414724 -2.5648832 -0.56937408 39 2 -0.021165708
1.8421792 -3.3412349 0.33380648 90 10 -0.021163404
1.4244651 -2.5846775 -0.46742624 46 3 -0.0211611
1.7480638 -3.1731539 0.44482315 43 11 -0.021158798
1.4190739 -2.5770226 -0.36122078 43 4 -0.021156494
1.821278 -3.3087873 0.59820545 86 12 -0.021154189
1.4151921 -2.5710351 -0.25676081 37 5 -0.021151885
1.8265626 -3.3197596 0.73652273 72 13 -0.021149581
1.4235264 -2.5883143 -0.15480977 30 6 -0.021147277
1.614758 -2.9372337 0.77383161 36 14 -0.021144973
1.4108753 -2.5674336 -0.051135551 53 7 -0.021142669
1.6053281 -2.9224963 0.89344335 35 15 -0.021140365
1.4078008 -2.5703354 -0.78525704 40 0 -0.021119628
1.825532 -3.3344018 0.066354051 55 8 -0.021117324
1.4173319 -2.5898824 -0.6816017 50 1 -0.02111502
1.8342323 -3.3516822 0.20023739 73 9 -0.021112718
1.4114152 -2.5801401 -0.57166374 43 2 -0.021110414
1.8228579 -3.3336601 0.332412 96 10 -0.02110811
1.4097496 -2.5792336 -0.46554902 46 3 -0.021105805
1.7312665 -3.1687839 0.44336072 40 11 -0.021103501
1.4053128 -2.5732493 -0.36000207 45 4 -0.021101197
1.8065088 -3.3078742 0.59695399 86 12 -0.021098893
1.3957076 -2.5567226 -0.25484338 45 5 -0.021096589
1.8074403 -3.3123283 0.73346978 85 13 -0.021094285
1.41257 -2.589761 -0.15460044 31 6 -0.021091981
1.6035625 -2.9411416 0.77338171 32 14 -0.021089677
1.4023535 -2.5720983 -0.051135551 54 7 -0.021087373
1.5891565 -2.9159298 0.88981992 39 15 -0.021085069
1.3969759 -2.5718389 -0.78422177 41 0 -0.021064334
1.8049195 -3.3228652 0.066004999 53 8 -0.02106203
1.3957175 -2.5705922 -0.67530304 43 1 -0.021059725
1.8158526 -3.3457768 0.19950469 39 9 -0.021057421
1.395847 -2.5729716 -0.56899244 42 2 -0.021055117
1.8074108 -3.3329971 0.33171475 96 10 -0.021052813
1.3908309 -2.5647931 -0.46210748 43 3 -0.021050509
1.715073 -3.1640365 0.44189829 43 11 -0.021048205
1.3996086 -2.5831313 -0.36073327 44 4 -0.021045901
1.7968324 -3.3176336 0.59757972 83 12 -0.021043597
1.3858259 -2.5598271 -0.25466907 44 5 -0.021041293
1.7945766 -3.3148508 0.73270655 100 13 -0.021038989
1.3982711 -2.5838916 -0.1539724 29 6 -0.021036685
1.5900917 -2.9395866 0.77158207 33 14 -0.02103438
1.3914646 -2.5734599 -0.051065743 53 7 -0.021032076
1.5780497 -2.9197598 0.88930225 38 15 -0.021029772
1.3866067 -2.5730562 -0.7831865 39 0 -0.021009037
1.7933099 -3.3291452 0.066004999 55 8 -0.021006733
1.3821169 -2.566869 -0.67305356 42 1 -0.021004429
1.7738723 -3.2958164 0.19615518 19 9 -0.021002125
1.3873069 -2.5775864 -0.56899244 42 2 -0.020999821
1.7972921 -3.3407266 0.33188906 93 10 -0.020997517
1.3809338 -2.5678926 -0.46179458 47 3 -0.020995213
1.6927392 -3.1490223 0.43897343 43 11 -0.020992909
1.3793083 -2.5670176 -0.35780841 42 4 -0.020990605
1.7815021 -3.3169248 0.59632826 86 12 -0.0209883
1.3773298 -2.5644085 -0.25466907 42 5 -0.020985996
1.7811378 -3.3176353 0.73194337 100 13 -0.020983692
1.3835765 -2.5781975 -0.15334436 28 6 -0.020981388
1.5706093 -2.9279466 0.76708305 33 14 -0.020979084
1.380583 -2.5747769 -0.050995931 51 7 -0.02097678
1.5641981 -2.9184396 0.88723171 38 15 -0.020974476
1.3776169 -2.5778806 -0.7831865 40 0 -0.020953741
1.7779093 -3.3283296 0.065865383 57 8 -0.020951437
1.3722305 -2.5699589 -0.67260367 45 1 -0.020949133
1.7369654 -3.2544143 0.19332905 19 9 -0.020946829
1.3690569 -2.5650933 -0.56517625 40 2 -0.020944525
1.7790555 -3.3346751 0.33066887 96 10 -0.02094222
1.3719617 -2.5726974 -0.46179458 47 3 -0.020939916
1.6817367 -3.154912 0.43897343 48 11 -0.020937612
1.3647383 -2.5613048 -0.35634598 42 4 -0.020935308
1.7652699 -3.3144054 0.59476393 89 12 -0.020933004
1.3664967 -2.5656838 -0.25432047 39 5 -0.0209307
1.7658558 -3.3169005 0.73041683 100 13 -0.020928396
1.3745683 -2.5830114 -0.15334436 29 6 -0.020926094
1.5576336 -2.9282496 0.76573336 35 14 -0.02092379
1.3659543 -2.5689862 -0.050786503 53 7 -0.020921485
1.5530946 -2.9221759 0.8867141 39 15 -0.020919181
1.3595641 -2.5656035 -0.77801007 42 0 -0.020898445
1.7653443 -3.3327482 0.065830477 59 8 -0.02089614
1.3632512 -2.5747335 -0.67260367 45 1 -0.020893836
1.7162524 -3.2428048 0.19228233 19 9 -0.020891532
1.3545847 -2.5594449 -0.56288654 42 2 -0.020889228
1.7590193 -3.3250148 0.32910007 93 10 -0.020886924
1.3629732 -2.5774705 -0.46179458 46 3 -0.02088462
1.6725688 -3.164273 0.4394609 48 11 -0.020882316
1.3557897 -2.5660529 -0.35634598 43 4 -0.020880014
1.7463096 -3.3065736 0.59226096 100 12 -0.02087771
1.3463669 -2.5492966 -0.25222871 41 5 -0.020875406
1.7478509 -3.3108909 0.72774553 125 13 -0.020873101
1.3636794 -2.5842612 -0.15313502 28 6 -0.020870797
1.543766 -2.9267745 0.76393378 31 14 -0.020868493
1.3513827 -2.5631254 -0.050577074 52 7 -0.020866189
1.5356791 -2.9139071 0.88257295 41 15 -0.020863885
1.3470057 -2.5634933 -0.77593952 41 0 -0.020843148
1.7462614 -3.3247275 0.065551244 59 8 -0.020840844
1.3533494 -2.5777509 -0.67215377 44 1 -0.02083854
1.6910008 -3.2222481 0.19071224 30 9 -0.020836236
1.3483791 -2.5693731 -0.56403142 38 2 -0.020833932
1.7418487 -3.3205483 0.32805422 100 10 -0.02083163
1.3447945 -2.564718 -0.45866591 46 3 -0.020829326
1.656906 -3.1613011 0.4382422 47 11 -0.020827021
1.3449818 -2.5672534 -0.3558585 44 4 -0.020824717
1.7329242 -3.3091488 0.59163523 129 12 -0.020822413
1.333763 -2.5469208 -0.25153148 40 5 -0.020820109
1.7353725 -3.3152328 0.72736394 101 13 -0.020817805
1.3546505 -2.5890052 -0.15313502 27 6 -0.020815501
1.5317339 -2.9286919 0.76303399 31 14 -0.020813197
1.3387216 -2.5607383 -0.050437454 51 7 -0.020810893
1.5183405 -2.9055524 0.87843186 42 15 -0.020808589
1.336264 -2.5647533 -0.77490425 41 0 -0.020787852
1.7300271 -3.3219347 0.065376714 82 8 -0.02078555
1.3308457 -2.5565312 -0.66540521 41 1 -0.020783246
1.7110878 -3.2883704 0.19427109 66 9 -0.020780941
1.3348709 -2.5653565 -0.5621233 42 2 -0.020778637
1.7265697 -3.3195381 0.32735696 116 10 -0.020776333
1.3258104 -2.5501173 -0.45522434 43 3 -0.020774029
1.6367071 -3.149451 0.43580481 41 11 -0.020771725
1.335097 -2.5701709 -0.35561478 45 4 -0.020769421
1.7131699 -3.2993996 0.58881938 85 12 -0.020767117
1.3211919 -2.544488 -0.25083423 42 5 -0.020764813
1.7138416 -3.3021021 0.72316611 70 13 -0.020762509
1.3364073 -2.5759895 -0.1520883 29 6 -0.020760205
1.5197073 -2.9305608 0.76213419 31 14 -0.020757901
1.3279346 -2.5618451 -0.050367646 51 7 -0.020755596
1.5081893 -2.9108348 0.87843186 41 15 -0.020753292
1.3255302 -2.5659692 -0.77386898 41 0 -0.020732557
1.7156683 -3.3226233 0.065272003 99 8 -0.020730253
1.3156574 -2.5490391 -0.66225594 38 1 -0.020727949
1.7197452 -3.3333726 0.19657388 84 9 -0.020725645
1.3250079 -2.5682557 -0.56174171 43 2 -0.020723341
1.7094929 -3.3149199 0.32631108 78 10 -0.020721037
1.3178059 -2.5564857 -0.45553723 45 3 -0.020718733
1.6211571 -3.146322 0.43458611 40 11 -0.020716429
1.3179369 -2.5589328 -0.35342112 44 4 -0.020714125
1.3123019 -2.5490844 -0.25083423 41 5 -0.020709516
1.3219258 -2.5699821 -0.15146028 29 6 -0.020704908
1.501449 -2.9202499 0.75808507 31 14 -0.020702604
1.3171558 -2.5629077 -0.050297838 52 7 -0.0207003
1.4944882 -2.9092081 0.87636131 42 15 -0.020697996
1.3165652 -2.5705807 -0.77386898 41 0 -0.020677261
1.6976808 -3.3161316 0.065027662 38 8 -0.020674957
1.3094146 -2.5588202 -0.66360557 45 1 -0.020672653
1.6889991 -3.3020141 0.19437577 22 9 -0.020670349
1.3062006 -2.5536385 -0.55754393 42 2 -0.020668045
1.6906551 -3.306675 0.3249166 12 10 -0.020665741
1.3115709 -2.5663471 -0.45647582 41 3 -0.020663437
1.6056491 -3.1431229 0.43336743 38 11 -0.020661132
1.3017747 -2.5493739 -0.35147122 41 4 -0.020658828
1.631722 -3.1969154 0.56848288 6 12 -0.020656524
1.3015844 -2.5501006 -0.2504856 39 5 -0.02065422
1.6309683 -3.1968167 0.69759774 3 13 -0.020651916
1.3147616 -2.5781395 -0.15166962 29 6 -0.020649612
1.4877063 -2.9185283 0.75628549 29 14 -0.02064731
1.3009387 -2.553236 -0.050018597 52 7 -0.020645006
1.4816939 -2.9092429 0.87480837 56 15 -0.020642702
1.2988375 -2.5579352 -0.76869255 44 0 -0.020621965
1.6616588 -3.2738922 0.064085238 9 8 -0.020619661
1.2987113 -2.5598998 -0.66270578 41 1 -0.020617357
1.6512662 -3.2562315 0.19134027 7 9 -0.020615052
1.293727 -2.5511785 -0.5560174 40 2 -0.020612748
1.6286571 -3.2130377 0.31515515 2 10 -0.020610444
1.2963551 -2.5585747 -0.45428574 45 3 -0.02060814
1.595565 -3.1504791 0.43361115 16 11 -0.020605836
1.2982472 -2.5645289 -0.35293365 44 4 -0.020603532
1.5893366 -3.1409018 0.55753249 16 12 -0.020601228
1.2836791 -2.5368509 -0.24874248 41 5 -0.020598926
1.5914444 -3.1464291 0.68538594 1 13 -0.020596622
1.3039517 -2.5791483 -0.15146028 29 6 -0.020594317
1.4757518 -2.9202254 0.7553857 31 14 -0.020592013
1.2866086 -2.5470521 -0.049809169 51 7 -0.020589709
1.4645638 -2.9006014 0.87066728 68 15 -0.020587405
1.2864262 -2.5555513 -0.76662207 46 0 -0.020566668
1.607078 -3.1939292 0.062409807 8 8 -0.020564364
1.288892 -2.5626767 -0.66225594 38 1 -0.02056206
1.5914465 -3.1656156 0.18568799 13 9 -0.020559756
1.2830502 -2.5521708 -0.55525422 39 2 -0.020557452
1.5807531 -3.1457126 0.3080084 22 10 -0.020555148
1.2812096 -2.5507278 -0.45209566 43 3 -0.020552846
1.5801044 -3.1471593 0.43239245 37 11 -0.020550542
1.2857258 -2.5619483 -0.35195872 43 4 -0.020548237
1.5703921 -3.1305392 0.55471671 44 12 -0.020545933
1.2676694 -2.5270689 -0.24734798 40 5 -0.020543629
1.5707717 -3.1326602 0.68118817 2 13 -0.020541325
1.2949411 -2.5836842 -0.15146028 29 6 -0.020539021
1.4699135 -2.9340706 0.75763518 33 14 -0.020536717
1.2777101 -2.5515275 -0.049809169 50 7 -0.020534413
1.4509711 -2.8987861 0.86859673 75 15 -0.020532109
1.2766354 -2.5582974 -0.7661044 45 0 -0.020511372
1.5736048 -3.1547837 0.061537188 45 8 -0.020509068
1.273852 -2.5549521 -0.65910655 41 1 -0.020506766
1.5794959 -3.1693642 0.18558332 43 9 -0.020504462
1.2723821 -2.5531197 -0.55449098 42 2 -0.020502158
1.5626558 -3.1369443 0.30661389 41 10 -0.020499853
1.2670151 -2.544575 -0.45021844 41 3 -0.020497549
1.5620329 -3.1384385 0.43044254 45 11 -0.020495245
1.2750067 -2.562866 -0.35147122 42 4 -0.020492941
1.5620934 -3.1413083 0.5556553 45 12 -0.020490637
1.2606149 -2.5350468 -0.24769662 40 5 -0.020488333
1.5572056 -3.1328499 0.68004328 15 13 -0.020486029
1.2752503 -2.5667248 -0.15020421 31 6 -0.020483725
1.4570626 -2.9339473 0.75628549 31 14 -0.020481421
1.2670176 -2.5523899 -0.049739357 51 7 -0.020479117
1.4365505 -2.8951802 0.86600858 67 15 -0.020476812
1.2702671 -2.5679331 -0.76765728 46 0 -0.020456078
1.5670145 -3.16922 0.06171171 57 8 -0.020453773
1.2606089 -2.550648 -0.65685707 42 1 -0.020451469
1.5610131 -3.1584694 0.18464127 46 9 -0.020449165
1.2617234 -2.5540249 -0.55372775 40 2 -0.020446861
1.554343 -3.1477392 0.30713683 41 10 -0.020444557
1.2589993 -2.5507534 -0.4505313 45 3 -0.020442253
1.5466771 -3.1349707 0.42922387 43 11 -0.020439949
1.2581509 -2.5512779 -0.34927759 40 4 -0.020437645
1.5516678 -3.1464713 0.5556553 55 12 -0.020435341
1.2517581 -2.5394318 -0.24769662 40 5 -0.020433037
1.5488633 -3.1435499 0.68118817 23 13 -0.020430733
1.2609884 -2.56041 -0.14957617 32 6 -0.020428428
1.4390659 -2.92328 0.75223631 31 14 -0.020426124
1.2550137 -2.549401 -0.049599741 51 7 -0.02042382
1.4243829 -2.8947282 0.86445564 66 15 -0.020421516
1.2578936 -2.5654132 -0.76558679 46 0 -0.020400781
1.5538551 -3.1690125 0.061606996 55 8 -0.020398477
1.2521436 -2.5548143 -0.65685707 42 1 -0.020396173
1.5473424 -3.1585186 0.18432724 63 9 -0.020393869
1.24762 -2.5478344 -0.55143803 40 2 -0.020391565
1.5389663 -3.1441982 0.30626526 55 10 -0.020389261
1.246192 -2.5460432 -0.44896698 43 3 -0.020386957
1.5388896 -3.1454318 0.42995507 45 11 -0.020384653
1.2461956 -2.5483024 -0.3483026 40 4 -0.020382348
1.5406754 -3.1518681 0.5556553 49 12 -0.020380044
1.2411368 -2.5402052 -0.24734798 41 5 -0.02037774
1.5418777 -3.1557248 0.68271458 15 13 -0.020375436
1.2559971 -2.5717564 -0.14999487 31 6 -0.020373132
1.4267994 -2.9227824 0.75088662 29 14 -0.020370828
1.2425991 -2.5465777 -0.04946012 50 7 -0.020368524
1.4151165 -2.9014189 0.86497331 67 15 -0.020366222
1.2417767 -2.5539341 -0.76092798 45 0 -0.020345485
1.5445318 -3.1780143 0.061676804 61 8 -0.020343181
1.2432182 -2.5591693 -0.65685707 42 1 -0.020340877
1.5389248 -3.1692905 0.18464127 60 9 -0.020338573
1.2340188 -2.5413613 -0.54914832 40 2 -0.020336268
1.533751 -3.1600389 0.30731115 50 10 -0.020333964
1.2390217 -2.553932 -0.44959271 41 3 -0.02033166
1.5270345 -3.1489985 0.42971134 40 11 -0.020329356
1.2329634 -2.5437055 -0.3470839 41 4 -0.020327052
1.5227731 -3.1430054 0.55315232 59 12 -0.020324748
1.2274941 -2.5335491 -0.24630213 41 5 -0.020322444
1.5317088 -3.1628547 0.68309623 26 13 -0.020320142
1.2435312 -2.568934 -0.14957617 28 6 -0.020317838
1.4106468 -2.9154658 0.74773729 34 14 -0.020315534
1.2267374 -2.5364978 -0.04918088 51 7 -0.020313229
1.3990947 -2.8941658 0.86134982 66 15 -0.020310925
1.2261449 -2.5443306 -0.75678688 45 0 -0.020290188
1.5299581 -3.1761801 0.061537188 71 8 -0.020287884
1.2342771 -2.5634935 -0.65685707 44 1 -0.02028558
1.5313174 -3.1818416 0.18505996 60 9 -0.020283276
1.2251406 -2.5456533 -0.54914832 40 2 -0.020280972
1.5166653 -3.1528051 0.30609095 55 10 -0.020278668
1.2223947 -2.5422194 -0.4467769 46 3 -0.020276364
1.5160331 -3.1543095 0.42971134 40 11 -0.020274062
1.225796 -2.5515728 -0.3475714 44 4 -0.020271758
1.5169234 -3.1589859 0.55502951 55 12 -0.020269454
1.2134683 -2.5270419 -0.24525626 42 5 -0.020267149
1.5172609 -3.1611021 0.68156981 46 13 -0.020264845
1.2345563 -2.5732591 -0.14957617 28 6 -0.020262541
1.4013042 -2.9221292 0.74818724 39 14 -0.020260237
1.2161472 -2.5371583 -0.049111072 51 7 -0.020257933
1.3848096 -2.890321 0.85876161 68 15 -0.020255629
1.2189214 -2.5520818 -0.75782222 45 0 -0.020234892
1.5136926 -3.1706736 0.061327755 64 8 -0.020232588
1.220286 -2.5572338 -0.6541577 44 1 -0.020230284
1.5236405 -3.1943784 0.18547864 57 9 -0.02022798
1.2179374 -2.5534585 -0.54991156 40 2 -0.020225678
1.5116524 -3.1706696 0.30731115 60 10 -0.020223374
1.2101142 -2.5393376 -0.44552541 45 3 -0.020221069
1.5033058 -3.1559978 0.42922387 43 11 -0.020218765
1.2168818 -2.5558362 -0.3475714 42 4 -0.020216461
1.5075854 -3.167829 0.5556553 55 12 -0.020214157
1.2037839 -2.5294631 -0.24508193 45 5 -0.020211853
1.5045304 -3.1628332 0.68080652 51 13 -0.020209549
1.2247088 -2.5757492 -0.14947151 33 6 -0.020207245
1.3894227 -2.9234829 0.74728745 39 14 -0.020204941
1.2072834 -2.541388 -0.049111072 51 7 -0.020202637
1.3738837 -2.8933921 0.858244 66 15 -0.020200333
1.2091788 -2.5545747 -0.75730455 44 0 -0.020179598
1.5077471 -3.1867836 0.061537188 60 8 -0.020177294
1.2071868 -2.5526695 -0.65190816 45 1 -0.020174989
1.5090666 -3.1924548 0.18505996 60 9 -0.020172685
1.2056606 -2.5505946 -0.54838508 40 2 -0.020170381
1.502278 -3.1795294 0.30765978 70 10 -0.020168077
1.1995554 -2.539974 -0.44489968 46 3 -0.020165773
1.4905856 -3.1576359 0.42873639 40 11 -0.020163469
1.2011763 -2.545706 -0.3456215 42 4 -0.020161165
1.4982033 -3.1766458 0.55628103 55 12 -0.020158861
1.1940969 -2.531848 -0.24490763 42 5 -0.020156557
1.4968296 -3.1751692 0.68233299 51 13 -0.020154253
1.2114538 -2.5709746 -0.14894815 38 6 -0.020151949
1.3758878 -2.921263 0.74548781 36 14 -0.020149644
1.1984049 -2.5455866 -0.049111072 52 7 -0.02014734
1.3604856 -2.8911781 0.8561734 64 15 -0.020145036
1.2010751 -2.5605292 -0.75782222 45 0 -0.020124301
1.5000098 -3.1992693 0.061676804 71 8 -0.020121997
1.1974417 -2.5551033 -0.65145826 47 1 -0.020119693
1.1942515 -2.5494537 -0.5472402 43 2 -0.020115085
1.4945496 -3.1919718 0.308357 89 10 -0.020112781
1.1923568 -2.547724 -0.44552541 46 3 -0.020110477
1.4837599 -3.1718099 0.42995507 38 11 -0.020108173
1.1872377 -2.5390937 -0.34415907 43 4 -0.020105869
1.4871057 -3.1818559 0.55628103 55 12 -0.020103564
1.1844084 -2.5341957 -0.24473332 45 5 -0.02010126
1.4873992 -3.1839321 0.68309623 52 13 -0.020098956
1.2066967 -2.5842364 -0.14947151 34 6 -0.020096652
1.3574407 -2.9083891 0.74098879 39 14 -0.020094348
1.1844391 -2.5388811 -0.048901644 52 7 -0.020092044
1.347119 -2.8889062 0.85410291 66 15 -0.02008974
1.1807295 -2.54018 -0.75057524 45 0 -0.020069005
1.489675 -3.2062995 0.06171171 59 8 -0.020066701
1.1876948 -2.5574999 -0.65100831 45 1 -0.020064397
1.479174 -3.1866081 0.18411791 70 9 -0.020062093
1.177079 -2.5357997 -0.54342401 45 2 -0.020059789
1.4808826 -3.1917472 0.30783406 74 10 -0.020057485
1.1801323 -2.5447023 -0.44427395 46 3 -0.02005518
1.4801929 -3.1931794 0.43214872 33 11 -0.020052876
1.1733601 -2.5324156 -0.34269661 44 4 -0.020050572
1.4710089 -3.1762724 0.55440378 55 12 -0.020048268
1.1713687 -2.5292752 -0.24386176 46 5 -0.020045964
1.4812245 -3.1997945 0.68538594 52 13 -0.02004366
1.1892821 -2.5703065 -0.14842479 19 6 -0.020041358
1.3472798 -2.91311 0.74098879 37 14 -0.020039054
1.1671789 -2.5248487 -0.048552595 54 7 -0.02003675
1.3354064 -2.8900836 0.85306764 66 15 -0.020034445
1.1710472 -2.5425317 -0.75005764 44 0 -0.020013709
1.4701118 -3.1933155 0.061362665 28 8 -0.020011405
1.1722429 -2.5474679 -0.64740908 46 1 -0.0200091
1.4663727 -3.1881225 0.18390857 36 9 -0.020006796
1.1674 -2.5381093 -0.54304242 42 2 -0.020004492
1.4647392 -3.1860356 0.30678821 61 10 -0.020002188
1.1629939 -2.5308571 -0.44114524 49 3 -0.019999884
1.471523 -3.2037385 0.43287995 35 11 -0.01999758
1.1661699 -2.5401042 -0.34318411 42 4 -0.019995276
1.464856 -3.1921604 0.55628103 55 12 -0.019992974
1.1608707 -2.5297267 -0.24351314 46 5 -0.01999067
1.463498 -3.1906695 0.68233299 51 13 -0.019988365
1.1852971 -2.5853353 -0.14905281 22 6 -0.019986061
1.3371031 -2.9177952 0.74098879 37 14 -0.019983757
1.1616894 -2.5361798 -0.048692215 52 7 -0.019981453
1.3212885 -2.8859451 0.85047942 67 15 -0.019979149
1.1613629 -2.5448463 -0.74953997 45 0 -0.019958412
1.4241005 -3.1220148 0.059896659 5 8 -0.019956108
1.1568762 -2.5373592 -0.64380991 46 1 -0.019953804
1.4469526 -3.1750476 0.18286185 54 9 -0.0199515
1.1593473 -2.5439553 -0.54342401 48 2 -0.019949198
1.4593899 -3.2038212 0.3080084 67 10 -0.019946892
1.1525156 -2.5313056 -0.44051951 45 3 -0.01994459
1.459509 -3.2070487 0.4326362 33 11 -0.019942285
1.1614056 -2.5531945 -0.34440279 38 4 -0.019939981
1.4586102 -3.2080431 0.55815822 55 12 -0.019937677
1.1528581 -2.5355773 -0.24368747 42 5 -0.019935373
1.4556007 -3.2029076 0.68385947 50 13 -0.019933069
1.2068281 -2.6567395 -0.15292569 35 6 -0.019930765
1.3252987 -2.918896 0.740089 37 14 -0.019928461
1.1528293 -2.5402195 -0.048692215 53 7 -0.019926157
1.3112069 -2.8905394 0.85047942 70 15 -0.019923853
1.1532686 -2.5506451 -0.75005764 44 0 -0.019902229
1.418135 -3.1379004 0.060106091 8 8 -0.019899925
1.1415943 -2.5271745 -0.64021069 35 1 -0.019897621
1.4331272 -3.1725476 0.18244316 18 9 -0.019895317
1.152076 -2.5515654 -0.54418731 37 2 -0.019893013
1.4531153 -3.2197917 0.30905426 56 10 -0.019890709
1.1509831 -2.5515189 -0.44333532 41 3 -0.019888405
1.4474893 -3.2103138 0.43239245 35 11 -0.019886101
1.147221 -2.5443637 -0.34269661 41 4 -0.019883797
1.4479638 -3.2128625 0.55815822 49 12 -0.019881492
1.1415451 -2.5341363 -0.24316452 40 5 -0.019879188
1.4476355 -3.2151303 0.68538594 51 13 -0.019876886
1.2106621 -2.6900768 -0.15460044 58 6 -0.019874582
1.3076146 -2.905504 0.73558998 37 14 -0.019872278
1.1443992 -2.5440285 -0.048692215 53 7 -0.019869974
1.2984453 -2.8878238 0.84840888 68 15 -0.01986767
1.1495441 -2.5650327 -0.75316346 39 0 -0.019846933
1.407722 -3.1425858 0.060106091 13 8 -0.019844629
1.138782 -2.5433962 -0.64336002 41 1 -0.019842325
1.4225986 -3.1772823 0.18244316 25 9 -0.019840021
1.1363904 -2.5392437 -0.54075271 43 2 -0.019837717
1.4342945 -3.2064056 0.30731115 48 10 -0.019835413
1.1280025 -2.5228617 -0.43770367 50 3 -0.019833108
1.4246863 -3.1879113 0.42873639 15 11 -0.019830806
1.1233883 -2.5137198 -0.33806559 48 4 -0.019828502
1.4348847 -3.2122359 0.55721962 52 12 -0.019826198
1.1290743 -2.5288115 -0.24229297 47 5 -0.019823894
1.4417665 -3.2306697 0.68767565 50 13 -0.01982159
1.1976665 -2.6849566 -0.15407708 61 6 -0.019819286
1.2947967 -2.9027052 0.73379034 40 14 -0.019816982
1.1310706 -2.5368512 -0.048482787 52 7 -0.019814678
1.288862 -2.8921137 0.84840888 68 15 -0.019812373
1.1237793 -2.5299892 -0.74177545 46 0 -0.019791637
1.3916126 -3.1344428 0.059861753 41 8 -0.019789333
1.1248083 -2.5346901 -0.64021069 47 1 -0.019787028
1.3880142 -3.1292834 0.17940767 37 9 -0.019784726
1.1168194 -2.5178735 -0.53541011 48 2 -0.019782422
1.3776256 -3.1073239 0.29737538 32 10 -0.019780118
1.1196301 -2.5265884 -0.43770367 50 3 -0.019777814
1.3988323 -3.1581328 0.42410538 15 11 -0.01977551
1.1162143 -2.521256 -0.33855307 48 4 -0.019773206
1.4236634 -3.2172248 0.55721962 52 12 -0.019770902
1.1118135 -2.5124998 -0.24037553 49 5 -0.019768598
1.4342219 -3.2426155 0.68920213 51 13 -0.019766293
1.1855259 -2.6816065 -0.15365838 68 6 -0.019763989
1.2846564 -2.9072075 0.73379034 39 14 -0.019761685
1.1157453 -2.52615 -0.048203547 54 7 -0.019759381
1.2740775 -2.8859913 0.84530306 68 15 -0.019757077
1.1102728 -2.5232868 -0.73866957 43 0 -0.019736342
1.3798579 -3.1374507 0.059826851 42 8 -0.019734038
1.1120325 -2.5296812 -0.63796121 47 1 -0.019731734
1.375476 -3.1304522 0.17919834 9 9 -0.01972943
1.1088135 -2.5235538 -0.5357917 46 2 -0.019727126
1.3651682 -3.1084654 0.29702678 42 10 -0.019724822
1.1076279 -2.5232463 -0.43645221 50 3 -0.019722518
1.3838123 -3.1539073 0.42288667 17 11 -0.019720213
1.1090009 -2.5287728 -0.33904055 46 4 -0.019717909
1.414803 -3.2276022 0.55815822 45 12 -0.019715605
1.0982367 -2.5054169 -0.23932965 49 5 -0.019713301
1.4213188 -3.2440054 0.68843889 40 13 -0.019710997
1.1753569 -2.6838992 -0.15355371 77 6 -0.019708693
1.2729377 -2.9081037 0.73289055 39 14 -0.019706389
1.1093255 -2.5355253 -0.048308261 56 7 -0.019704085
1.2554814 -2.8709512 0.83960903 66 15 -0.019701781
1.1006866 -2.5253763 -0.73815197 47 0 -0.019681046
1.365703 -3.1349151 0.059687231 8 8 -0.019678742
1.0985274 -2.5228271 -0.63526177 49 1 -0.019676438
1.3597584 -3.1242464 0.1785703 1 9 -0.019674134
1.0992148 -2.5256088 -0.53541011 48 2 -0.019671829
1.3495405 -3.1022496 0.2959809 62 10 -0.019669525
1.091724 -2.5107932 -0.43363637 49 3 -0.019667221
1.3577607 -3.1241276 0.41825563 18 11 -0.019664917
1.0993766 -2.530808 -0.33879682 49 4 -0.019662613
1.4090354 -3.2452049 0.56034833 52 12 -0.019660309
1.0894847 -2.5092349 -0.23932965 49 5 -0.019658005
1.4084227 -3.2453449 0.68767565 61 13 -0.019655701
1.1604177 -2.6751592 -0.152821 74 6 -0.019653397
1.2612287 -2.9089534 0.73199075 39 14 -0.019651093
1.0972872 -2.532043 -0.048168644 56 7 -0.019648788
1.2454522 -2.8753161 0.83960903 68 15 -0.019646484
1.0933957 -2.5327506 -0.73918724 47 0 -0.019625749
1.3563366 -3.1433356 0.059757043 8 8 -0.019623445
1.0850841 -2.5159097 -0.63256234 47 1 -0.019621141
1.3377748 -3.1032963 0.17710489 1 9 -0.019618837
1.08806 -2.5240219 -0.53426522 47 2 -0.019616533
1.3379152 -3.1051116 0.29580659 16 10 -0.019614229
1.0852975 -2.5200317 -0.43457499 51 3 -0.019611925
1.3405684 -3.1142612 0.41630572 21 11 -0.019609621
1.0819055 -2.5145719 -0.33611569 47 4 -0.019607317
1.4070637 -3.2718799 0.56410277 100 12 -0.019605013
1.0822935 -2.5166838 -0.23967829 49 5 -0.019602709
1.4032884 -3.2646708 0.6907286 73 13 -0.019600404
1.1479189 -2.6718533 -0.15240233 66 6 -0.019598102
1.2456838 -2.900804 0.72884142 41 14 -0.019595798
1.0852872 -2.5285072 -0.048029024 58 7 -0.019593494
1.2354081 -2.8796461 0.83960903 70 15 -0.01959119
1.0792319 -2.5241175 -0.73556381 41 0 -0.019570453
1.3406409 -3.1370182 0.059547611 7 8 -0.019568149
1.0747643 -2.516098 -0.63166255 45 1 -0.019565845
1.3332083 -3.1226418 0.17794226 1 9 -0.019563541
1.0761596 -2.5205822 -0.53273875 47 2 -0.019561237
1.3270681 -3.1097629 0.29580659 23 10 -0.019558933
1.0764939 -2.5238049 -0.43457499 50 3 -0.019556629
1.3242402 -3.1061392 0.41459954 26 11 -0.019554324
1.0700085 -2.5110285 -0.33514073 48 4 -0.019552022
1.3886675 -3.2604146 0.56128693 100 12 -0.019549718
1.0750635 -2.5241122 -0.24002692 49 5 -0.019547414
1.3941914 -3.2749686 0.69187343 95 13 -0.01954511
1.1362394 -2.6703308 -0.1520883 77 6 -0.019542806
1.230212 -2.8925812 0.72569209 40 14 -0.019540502
1.0748899 -2.5285997 -0.047959212 59 7 -0.019538198
1.2238377 -2.8803847 0.83857375 70 15 -0.019535894
1.0674016 -2.5207536 -0.73349321 43 0 -0.019515157
1.3343589 -3.1527278 0.059757043 5 8 -0.019512853
1.0659748 -2.5198343 -0.63166255 45 1 -0.019510549
1.3215219 -3.1254373 0.1778376 6 9 -0.019508244
1.0620022 -2.5116656 -0.53006744 44 2 -0.01950594
1.3123268 -3.1052003 0.29493502 15 10 -0.019503638
1.0653718 -2.5220878 -0.43363637 49 3 -0.019501334
1.3103007 -3.1034276 0.41362458 40 11 -0.01949903
1.0643243 -2.5220637 -0.33611569 46 4 -0.019496726
1.3719044 -3.2525015 0.55909681 100 12 -0.019494422
1.0569544 -2.5058203 -0.23793517 47 5 -0.019492118
1.3850387 -3.2852428 0.69301832 90 13 -0.019489814
1.1369936 -2.6982074 -0.15344904 52 6 -0.01948751
1.2201077 -2.8968577 0.72569209 36 14 -0.019485205
1.0598497 -2.5175922 -0.047679976 57 7 -0.019482901
1.2047848 -2.8632715 0.83236206 73 15 -0.019480597
1.052619 -2.5102117 -0.72935206 44 0 -0.01945986
1.3163887 -3.1407681 0.059442896 6 8 -0.019457558
1.0579258 -2.5253372 -0.6321125 46 1 -0.019455254
1.3036618 -3.1134505 0.17689554 1 9 -0.01945295
1.0539869 -2.5171685 -0.53044903 47 2 -0.019450646
1.2945569 -3.0932209 0.29336622 52 10 -0.019448342
1.0519876 -2.5148573 -0.43175918 49 3 -0.019446038
1.2887397 -3.0823419 0.41021225 17 11 -0.019443734
1.0547485 -2.5239317 -0.33587193 49 4 -0.01944143
1.3597808 -3.2554481 0.55878401 96 12 -0.019439125
1.043593 -2.4984639 -0.2368893 49 5 -0.019436821
1.3629737 -3.264693 0.68767565 90 13 -0.019434517
1.1283376 -2.7040031 -0.15355371 34 6 -0.019432213
1.215239 -2.9136896 0.72884142 24 14 -0.019429909
1.0510554 -2.5212762 -0.047679976 58 7 -0.019427605
1.1932967 -2.863893 0.83132678 71 15 -0.019425301
1.046814 -2.5210073 -0.73142266 42 0 -0.019404566
1.300052 -3.1324153 0.059198562 7 8 -0.019402262
1.043877 -2.5164149 -0.62896317 45 1 -0.019399958
1.2989058 -3.1327419 0.17773293 1 9 -0.019397654
1.0451941 -2.5208321 -0.53044903 46 2 -0.01939535
1.2807004 -3.090359 0.292669 33 10 -0.019393045
1.0401789 -2.511214 -0.43050769 49 3 -0.019390741
1.2734163 -3.0758171 0.40874982 38 11 -0.019388437
1.045173 -2.5257642 -0.33562821 48 4 -0.019386133
1.3476543 -3.2583494 0.55847108 89 12 -0.019383829
1.0379118 -2.5094559 -0.23758654 49 5 -0.019381525
1.3470693 -3.2585452 0.68538594 90 13 -0.019379221
1.1028751 -2.6691613 -0.15135561 24 6 -0.019376917
1.2080367 -2.9251182 0.73064101 13 14 -0.019374613
1.0437738 -2.5286264 -0.047749784 59 7 -0.019372309
1.1832925 -2.868041 0.83132678 53 15 -0.019370005
1.0335996 -2.5139258 -0.72831684 42 0 -0.01934927
1.2898699 -3.1387839 0.059233464 7 8 -0.019346965
1.0276829 -2.502017 -0.62446409 45 1 -0.019344661
1.281894 -3.1224759 0.17689554 1 9 -0.019342357
1.0341512 -2.5190165 -0.52930421 45 2 -0.019340053
1.2767125 -3.1113994 0.29423779 11 10 -0.019337749
1.0336558 -2.5203125 -0.43144631 50 3 -0.019335445
1.2558955 -3.0637126 0.40655616 47 11 -0.019333141
1.0303291 -2.5147021 -0.33367831 47 4 -0.019330837
1.335524 -3.2612054 0.55815822 96 12 -0.019328533
1.029146 -2.5130637 -0.23758654 49 5 -0.019326229
1.3341991 -3.2595932 0.6846227 90 13 -0.019323925
1.0822073 -2.645267 -0.14978553 29 6 -0.01932162
1.2037189 -2.9437475 0.73424023 9 14 -0.019319318
1.0334281 -2.5285525 -0.047679976 58 7 -0.019317014
1.1732742 -2.872154 0.83132678 46 15 -0.01931471
1.0270034 -2.5228863 -0.72986972 45 0 -0.019293973
1.2766447 -3.1377106 0.059128754 8 8 -0.019291669
1.0226134 -2.5146151 -0.62671363 46 1 -0.019289365
1.2589539 -3.0973272 0.17522079 33 9 -0.019287061
1.0209166 -2.5116985 -0.52701449 49 2 -0.019284757
1.2605946 -3.1029162 0.2930176 33 10 -0.019282453
1.0211357 -2.5147543 -0.42988196 49 3 -0.019280149
1.2511659 -3.082793 0.4085061 47 11 -0.019277845
1.0185603 -2.5109248 -0.33270332 48 4 -0.01927554
1.318936 -3.2530332 0.55596817 100 12 -0.019273236
1.0173726 -2.5092552 -0.2368893 47 5 -0.019270934
1.3213384 -3.2605915 0.68385947 95 13 -0.01926863
1.0797151 -2.6656888 -0.15072757 46 6 -0.019266326
1.211718 -2.9930894 0.74548781 6 14 -0.019264022
1.0215951 -2.5247297 -0.047540355 55 7 -0.019261718
1.1617926 -2.8726501 0.83029151 47 15 -0.019259414
1.013136 -2.5139129 -0.7262463 43 0 -0.019238677
1.2619483 -3.1328735 0.058954231 7 8 -0.019236373
1.0123739 -2.5145538 -0.62581384 44 1 -0.019234069
1.2548449 -3.1183789 0.17616285 9 9 -0.019231765
1.0077455 -2.5043192 -0.52472478 44 2 -0.019229461
1.2482687 -3.1036007 0.292669 22 10 -0.019227156
1.0123515 -2.5183034 -0.42988196 49 3 -0.019224854
1.2418774 -3.0908256 0.40899354 45 11 -0.01922255
1.010529 -2.5163071 -0.33294708 49 4 -0.019220246
1.3024223 -3.2447848 0.55377805 100 12 -0.019217942
1.0066853 -2.509269 -0.23654069 49 5 -0.019215638
1.3084863 -3.2615402 0.68309623 95 13 -0.019213334
1.0711468 -2.6712954 -0.15083225 52 6 -0.01921103
1.2164873 -3.0352871 0.75493574 5 14 -0.019208726
1.00534 -2.5097175 -0.047191311 56 7 -0.019206421
1.1474497 -2.8659272 0.82718569 46 15 -0.019204117
0.99962163 -2.5068429 -0.72314042 43 0 -0.019183381
1.2465608 -3.1261148 0.058744799 6 8 -0.019181076
1.004312 -2.5198827 -0.62626374 45 1 -0.019178774
1.2424738 -3.1190293 0.17595351 9 9 -0.01917647
1.0014646 -2.5152917 -0.52625126 45 2 -0.019174166
1.2287819 -3.0877914 0.29075155 23 10 -0.019171862
0.99727404 -2.5073125 -0.42737901 49 3 -0.019169558
1.2296134 -3.0914526 0.4085061 41 11 -0.019167254
1.0010059 -2.5179746 -0.33270332 48 4 -0.01916495
1.2925463 -3.2529829 0.55440378 100 12 -0.019162646
0.9920373 -2.4979539 -0.23514619 45 5 -0.019160341
1.2907293 -3.2517159 0.68004328 95 13 -0.019158037
1.0650315 -2.6844859 -0.15135561 55 6 -0.019155733
1.2082274 -3.0469716 0.75673532 4 14 -0.019153429
0.99952191 -2.520647 -0.047330927 56 7 -0.019151125
1.1353036 -2.8645272 0.82563275 48 15 -0.019148821
0.99370235 -2.5175045 -0.72521096 42 0 -0.019128086
1.2299576 -3.1176414 0.058500469 5 8 -0.019125782
0.98863572 -2.5072305 -0.62221462 44 1 -0.019123478
1.2251754 -3.1086969 0.17511612 10 9 -0.019121174
0.99051923 -2.5132926 -0.52510637 46 2 -0.01911887
1.2216467 -3.101331 0.29162312 10 10 -0.019116566
0.98634475 -2.5052645 -0.42644039 50 3 -0.019114261
1.2139134 -3.0848551 0.40704364 45 11 -0.019111957
0.988864 -2.5142372 -0.33172837 47 4 -0.019109653
1.2806151 -3.2576983 0.55440378 100 12 -0.019107349
0.98331171 -2.5014017 -0.23514619 46 5 -0.019105045
1.273627 -3.2415833 0.67699033 92 13 -0.019102741
1.0490842 -2.6714556 -0.15041354 53 6 -0.019100437
1.2025682 -3.0638688 0.75988466 3 14 -0.019098133
0.98881567 -2.5205703 -0.047261119 58 7 -0.019095829
1.1226815 -2.8632736 0.82407987 47 15 -0.019093525
0.98069054 -2.5101614 -0.72210521 44 0 -0.01907279
1.2183403 -3.1200528 0.058465563 11 8 -0.019070486
0.97846073 -2.5070355 -0.62131482 46 1 -0.019068182
1.2085098 -3.098069 0.17427875 10 9 -0.019065877
0.98316705 -2.5203927 -0.52586961 47 2 -0.019063573
1.2086426 -3.1000073 0.29110017 15 10 -0.019061269
0.97400749 -2.4994893 -0.42487606 49 3 -0.019058965
1.1944921 -3.0668769 0.40411878 46 11 -0.019056661
0.97432089 -2.5028746 -0.32977846 48 4 -0.019054357
1.2692357 -3.2621489 0.55440378 100 12 -0.019052053
0.97457409 -2.5048189 -0.23514619 48 5 -0.019049749
1.2637272 -3.2496688 0.67775363 97 13 -0.019047445
1.0448176 -2.6881325 -0.15114626 47 6 -0.019045141
1.1586996 -2.9826727 0.73873925 1 14 -0.019042837
0.9800114 -2.5240066 -0.047261119 58 7 -0.019040532
1.1119808 -2.8653738 0.82356226 51 15 -0.01903823
0.97192234 -2.5135696 -0.72210521 44 0 -0.019017493
1.2103256 -3.1317477 0.058605183 10 8 -0.019015189
0.96900141 -2.5086181 -0.62086493 45 1 -0.019012885
1.1982294 -3.1020596 0.17427875 10 9 -0.019010581
0.96870655 -2.5091574 -0.52281672 47 2 -0.019008277
1.1999655 -3.1097839 0.29162312 26 10 -0.019005973
0.9659878 -2.5047171 -0.42518893 50 3 -0.019003669
1.1880635 -3.0821409 0.40558121 51 11 -0.019001365
0.9655779 -2.5062606 -0.32977846 48 4 -0.018999061
1.2505991 -3.2460635 0.55096221 100 12 -0.018996757
0.9658249 -2.5082054 -0.23514619 46 5 -0.018994452
1.250966 -3.2503958 0.67699033 92 13 -0.01899215
1.0318424 -2.6824427 -0.15062289 41 6 -0.018989846
1.1077205 -2.8812008 0.71264493 4 14 -0.018987542
0.96876556 -2.5197763 -0.047121495 55 7 -0.018985238
1.1017801 -2.8672421 0.8230446 47 15 -0.018982934
0.95969057 -2.5079255 -0.71951699 47 0 -0.018962197
1.1956456 -3.1245384 0.058395755 12 8 -0.018959893
0.95998096 -2.5099974 -0.62041503 44 1 -0.018957589
1.1802623 -3.0875673 0.17323203 15 9 -0.018955285
0.95503747 -2.4996858 -0.52014536 45 2 -0.018952981
1.1876818 -3.1102309 0.29127449 42 10 -0.018950677
0.95838112 -2.509752 -0.42550179 49 3 -0.018948372
1.1735891 -3.0749362 0.40411878 58 11 -0.01894607
0.95443171 -2.5020297 -0.32880351 46 4 -0.018943766
1.2350386 -3.2393346 0.54908502 100 12 -0.018941462
0.95280689 -2.5003905 -0.23410031 46 5 -0.018939158
1.2387822 -3.2508571 0.67622709 97 13 -0.018936854
1.0222305 -2.6839833 -0.15051822 25 6 -0.01893455
1.0946939 -2.875752 0.71039546 3 14 -0.018932246
0.95072013 -2.4988456 -0.046667732 53 7 -0.018929942
1.0862712 -2.8566253 0.81890345 46 15 -0.018927637
0.94999969 -2.5074809 -0.71848166 48 0 -0.018906901
1.1755252 -3.1043816 0.057941992 11 8 -0.018904597
0.94914442 -2.5078652 -0.61906528 47 1 -0.018902292
1.1737173 -3.1028769 0.17386007 12 9 -0.018899988
0.94882631 -2.508348 -0.52129018 46 2 -0.018897686
1.1794749 -3.1197431 0.2917974 13 10 -0.018895382
0.94402891 -2.4982994 -0.42299888 50 3 -0.018893078
1.1642511 -3.0827281 0.40460625 58 11 -0.018890774
0.94709414 -2.5090604 -0.32929099 45 4 -0.01888847
1.2244209 -3.2454739 0.54939789 100 12 -0.018886166
0.94029027 -2.4923515 -0.23305444 48 5 -0.018883862
1.2218853 -3.2404656 0.67317414 87 13 -0.018881558
1.053708 -2.7959335 -0.1565892 12 6 -0.018879253
1.0887704 -2.8904974 0.71309483 3 14 -0.018876949
0.94269633 -2.5040207 -0.046702638 56 7 -0.018874645
1.073572 -2.8531671 0.81683296 40 15 -0.018872341
0.94056296 -2.5089731 -0.71796405 46 0 -0.018851606
1.1618756 -3.1009755 0.057802372 15 8 -0.018849302
0.93696707 -2.5020385 -0.61681581 46 1 -0.018846998
1.1621792 -3.1050844 0.17375539 4 9 -0.018844694
0.9373123 -2.5042899 -0.51976377 47 2 -0.01884239
1.1692761 -3.1257074 0.29197174 10 10 -0.018840086
0.9304595 -2.4886274 -0.42080876 49 3 -0.018837782
1.1486192 -3.0737572 0.4029001 57 11 -0.018835478
0.93971944 -2.5160701 -0.32977846 48 4 -0.018833173
1.2110121 -3.2441766 0.54845929 100 12 -0.018830869
0.93158448 -2.4956188 -0.23305444 47 5 -0.018828565
1.206449 -3.233675 0.67088449 95 13 -0.018826261
1.0585965 -2.8388937 -0.15878731 24 6 -0.018823957
1.0929655 -2.9326274 0.72254276 1 14 -0.018821653
0.93394989 -2.5072961 -0.046702638 56 7 -0.018819349
1.0615836 -2.8514662 0.81528002 26 15 -0.018817045
0.92978376 -2.5068071 -0.71641117 47 0 -0.01879631
1.1538246 -3.1125121 0.057941992 27 8 -0.018794006
0.92619669 -2.4998114 -0.61546606 49 1 -0.018791702
1.142855 -3.0845742 0.17239466 24 9 -0.018789398
0.9292466 -2.5093875 -0.52014536 45 2 -0.018787093
1.1438355 -3.0905311 0.28831118 31 10 -0.018784789
0.92382312 -2.4974182 -0.42174736 51 3 -0.018782485
1.1323761 -3.0628524 0.40095019 57 11 -0.018780181
0.92405021 -2.500715 -0.32734108 47 4 -0.018777877
1.1988778 -3.2444685 0.54783356 100 12 -0.018775573
0.92562878 -2.5063312 -0.2337517 47 5 -0.018773269
1.1965139 -3.2415495 0.67164773 95 13 -0.018770965
1.043841 -2.8294549 -0.15805461 33 6 -0.018768661
1.0746319 -2.9144838 0.71714395 1 14 -0.018766357
0.93116444 -2.525389 -0.046981879 56 7 -0.018764053
1.0501182 -2.8495326 0.81372708 21 15 -0.018761748
0.92102766 -2.5100374 -0.71641117 45 0 -0.018741013
1.1393632 -3.1050577 0.05773256 50 8 -0.018738709
0.91924387 -2.5065286 -0.61636591 47 1 -0.018736405
1.1341435 -3.0941706 0.17270868 21 9 -0.018734101
0.91710484 -2.5033989 -0.51823723 46 2 -0.018731797
1.1344106 -3.0982471 0.28865981 40 10 -0.018729493
