# .PCD v0.7 - Point Cloud Data file format
VERSION 0.7
FIELDS x y z intensity ring time
SIZE 4 4 4 4 2 4
TYPE F F F F U F
COUNT 1 1 1 1 1 1
WIDTH 872
HEIGHT 1
VIEWPOINT 0 0 0 1 0 0 0
POINTS 872
DATA ascii
-0.15369339 0.72431272 0.09091454 100 11 -0.0063270838
-0.15492953 0.7301383 -0.091645755 100 4 -0.0063247797
-0.15363441 0.72465938 0.11732586 67 12 -0.0063224761
-0.14409512 0.68024975 -0.060834706 40 5 -0.006320172
-0.15772514 0.74523467 0.14806779 55 13 -0.0063178679
-0.13966401 0.66046828 -0.035379112 17 6 -0.0063155638
-0.15683281 0.74165922 0.17501192 100 14 -0.0063132597
-0.16000555 0.75796819 0.20757288 100 15 -0.006308652
-0.17018686 0.81110227 -0.22206675 96 0 -0.0062879156
-0.15098898 0.72023153 0.012844971 33 8 -0.006285612
-0.15700711 0.74958825 -0.17681152 100 1 -0.0062833079
-0.15178126 0.72527128 0.038833283 28 9 -0.0062810038
-0.15228716 0.72832263 -0.14463322 99 2 -0.0062786997
-0.14883827 0.71182811 0.063623689 100 10 -0.0062763956
-0.15188807 0.72704554 -0.11763873 97 3 -0.006274092
-0.15088482 0.72287524 0.090670794 100 11 -0.0062717879
-0.15197447 0.72873145 -0.091402017 100 4 -0.0062694838
-0.14788088 0.70972037 0.11482291 85 12 -0.0062671797
-0.13928343 0.66904521 -0.059788838 10 5 -0.0062648756
-0.15032503 0.72271538 0.14348838 46 13 -0.006262572
-0.13166875 0.63357496 -0.033913702 9 6 -0.0062602679
-0.15265745 0.73457015 0.17321232 100 14 -0.0062579638
-0.15892823 0.76608843 0.20964344 78 15 -0.0062533556
-0.16565394 0.80415201 -0.2199962 100 0 -0.0062326198
-0.14955771 0.7266559 0.012949686 34 8 -0.0062303157
-0.15504317 0.75397635 -0.17771132 100 1 -0.006228012
-0.14791632 0.71995354 0.038519271 27 9 -0.0062257079
-0.15119593 0.73656851 -0.14615969 91 2 -0.0062234038
-0.14582781 0.71041715 0.063449383 100 10 -0.0062210998
-0.15001549 0.73146766 -0.11826447 95 3 -0.0062187957
-0.14783601 0.72147864 0.090427063 100 11 -0.006216492
-0.15248778 0.74484158 -0.093351923 100 4 -0.0062141879
-0.14606981 0.71412832 0.11544865 100 12 -0.0062118839
-0.12805416 0.62660617 -0.055953983 11 5 -0.0062095798
-0.14924631 0.73095572 0.14501485 58 13 -0.0062072757
-0.13653108 0.66927856 -0.035797797 8 6 -0.006204972
-0.15074259 0.7389437 0.17411213 92 14 -0.006202668
-0.15342113 0.75341475 0.20601997 75 15 -0.0061980598
-0.1607911 0.79528612 -0.217408 100 0 -0.0061773239
-0.14610165 0.72327894 0.012879876 34 8 -0.0061750198
-0.15189332 0.75262934 -0.17726143 100 1 -0.0061727157
-0.14777279 0.73221219 0.039147299 25 9 -0.0061704121
-0.14901176 0.73901635 -0.14654131 98 2 -0.006168108
-0.14204279 0.70508736 0.062926449 100 10 -0.0061658039
-0.14577459 0.72426641 -0.11701299 100 3 -0.0061634998
-0.14753859 0.73369253 0.091889486 100 11 -0.0061611957
-0.15027802 0.74731547 -0.093595661 100 4 -0.0061588921
-0.14124206 0.70301372 0.11357144 100 12 -0.006156588
-0.12821859 0.63876998 -0.056999855 11 5 -0.0061542839
-0.14244729 0.71029806 0.14081705 84 13 -0.0061519798
-0.13497926 0.67366767 -0.03600714 8 6 -0.0061496757
-0.14471713 0.7222684 0.170063 78 14 -0.0061473716
-0.14851686 0.74257976 0.20291413 99 15 -0.0061427639
-0.16003627 0.80528879 -0.2199962 100 0 -0.006122028
-0.14292331 0.71983677 0.012810066 34 8 -0.0061197239
-0.14636338 0.7378369 -0.17366222 100 1 -0.0061174198
-0.14573266 0.73465729 0.039251972 27 9 -0.0061151157
-0.14656007 0.73950648 -0.14654131 98 2 -0.0061128121
-0.14163862 0.71532679 0.063798003 100 10 -0.006110508
-0.14260548 0.72087014 -0.11638726 100 3 -0.0061082039
-0.14241031 0.72054577 0.090183318 100 11 -0.0061058998
-0.15049307 0.76144171 -0.095301837 100 4 -0.0061035957
-0.14235386 0.72091985 0.11638726 100 12 -0.0061012916
-0.14009088 0.71076655 0.14081705 84 13 -0.0060966839
-0.1319726 0.6701923 -0.035797797 16 6 -0.0060943798
-0.14345054 0.7284804 0.17141271 100 14 -0.0060920757
-0.14605336 0.74306816 0.20291413 71 15 -0.006087468
-0.15921608 0.81529534 -0.22258438 22 0 -0.0060667321
-0.14168438 0.72619468 0.012914781 33 8 -0.006064428
-0.1427971 0.73258001 -0.17231251 100 1 -0.0060621239
-0.14011325 0.71947801 0.038414594 24 9 -0.0060598198
-0.14635916 0.75155067 -0.14883102 92 2 -0.0060575157
-0.13926587 0.71579254 0.063798003 100 10 -0.0060552116
-0.140214 0.72133911 -0.11638726 100 3 -0.006052908
-0.13964216 0.71906537 0.089939587 100 11 -0.0060506039
-0.14745663 0.76001352 -0.095058098 100 4 -0.0060482998
-0.1390845 0.71753383 0.11576151 100 12 -0.0060459957
-0.13959958 0.72086442 0.14272514 87 13 -0.006041388
-0.1289908 0.66670448 -0.035588451 8 6 -0.0060390839
-0.13757809 0.71175683 0.16736358 100 14 -0.0060367798
-0.14016548 0.72650158 0.19825539 61 15 -0.0060321717
-0.15549996 0.81207871 -0.22154912 21 0 -0.0060114358
-0.14027667 0.73257703 0.013019496 31 8 -0.0060091317
-0.1417042 0.74072999 -0.17411213 100 1 -0.006006828
-0.13835062 0.72388625 0.03862394 100 9 -0.006004524
-0.14102592 0.73858309 -0.14615969 98 2 -0.0060022199
-0.13776159 0.72216946 0.064320937 100 10 -0.0059999158
-0.13941844 0.73155046 -0.11795159 99 3 -0.0059976117
-0.13787438 0.72344846 0.090427063 100 11 -0.005995308
-0.14294617 0.75077337 -0.0938394 46 4 -0.005993004
-0.13510297 0.71025258 0.11451004 100 12 -0.0059906999
-0.13695669 0.72137123 0.14272514 81 13 -0.0059860917
-0.13250127 0.69856918 -0.037263203 7 6 -0.0059837876
-0.13388015 0.70651221 0.16601388 100 14 -0.005981484
-0.13887005 0.73284489 -0.013019496 9 7 -0.0059791799
-0.13870649 0.7326808 0.1998083 75 15 -0.0059768758
-0.15123774 0.80502194 -0.21947856 22 0 -0.0059561399
-0.13832861 0.73701698 0.013089306 100 8 -0.0059538358
-0.14006521 0.74699062 -0.17546181 100 1 -0.0059515317
-0.13790312 0.73616713 0.039251972 100 9 -0.0059492281
-0.1380856 0.73714125 -0.14577809 84 2 -0.005946924
-0.13414021 0.71677077 0.063798003 100 10 -0.0059446199
-0.13831595 0.73979956 -0.11920308 99 3 -0.0059423158
-0.13485755 0.7219975 0.090183318 96 11 -0.0059400117
-0.14310674 0.7669034 -0.095789306 47 4 -0.0059377076
-0.13177429 0.70685923 0.11388431 100 12 -0.005935404
-0.13300012 0.71412462 0.14119866 89 13 -0.0059307958
-0.13298491 0.71473587 -0.038100582 7 6 -0.0059284917
-0.13212523 0.71080714 0.16691369 100 14 -0.0059261881
-0.13326244 0.71762031 -0.012740256 9 7 -0.005923884
-0.13179171 0.71039099 0.19359665 81 15 -0.0059215799
-0.14842655 0.80554503 -0.21947856 23 0 -0.005900844
-0.13539289 0.73552865 0.0130544 100 8 -0.0058985399
-0.13780986 0.7493915 -0.17591172 100 1 -0.0058962358
-0.13713682 0.74646598 0.039775331 100 9 -0.0058939317
-0.13622093 0.74148059 -0.14654131 98 2 -0.0058916276
-0.13271619 0.72311366 0.064320937 94 10 -0.005889324
-0.13502036 0.73639184 -0.11857734 100 3 -0.0058870199
-0.13376695 0.73027432 0.091158278 85 11 -0.0058847158
-0.14042868 0.76739836 -0.095789306 48 4 -0.0058824117
-0.12966147 0.70925802 0.11419717 100 12 -0.0058801081
-0.13085908 0.71651584 0.14158028 82 13 -0.0058754999
-0.11614955 0.63660282 -0.033913702 9 6 -0.0058731958
-0.13034227 0.71509832 0.16781349 100 14 -0.0058708917
-0.12860706 0.70627707 -0.012530828 20 7 -0.0058685876
-0.12931098 0.71084672 0.19359665 97 15 -0.005866284
-0.14630079 0.80986035 -0.22051384 27 0 -0.0058455477
-0.13282473 0.73599678 0.0130544 100 8 -0.005843244
-0.13311838 0.73836106 -0.17321232 100 1 -0.0058409399
-0.1399764 0.77640021 0.04134541 100 9 -0.0058386358
-0.13363165 0.74195164 -0.14654131 98 2 -0.0058363318
-0.13407244 0.7451424 0.066238366 100 10 -0.0058340277
-0.13140081 0.73102605 -0.11763873 97 3 -0.005831724
-0.13156767 0.73269075 0.091402017 93 11 -0.0058294199
-0.14068969 0.7834906 -0.09773922 49 4 -0.0058271158
-0.13184321 0.7349605 0.11826447 100 12 -0.0058248118
-0.14304148 0.79818678 -0.070944771 6 5 -0.0058225077
-0.12974089 0.72469842 0.14310676 87 13 -0.005820204
-0.12517884 0.69991839 -0.037263203 7 6 -0.0058178999
-0.12728418 0.71169001 0.16691369 100 14 -0.0058155959
-0.12591268 0.70473111 -0.012495923 41 7 -0.0058132918
-0.12797116 0.716977 0.19514956 80 15 -0.0058109877
-0.14327742 0.80843878 -0.2199962 24 0 -0.0057902518
-0.13421796 0.75809306 0.013438353 100 8 -0.0057879477
-0.13134775 0.74263638 -0.17411213 100 1 -0.0057856441
-0.13635722 0.77095985 0.041031394 29 9 -0.00578334
-0.13253739 0.75012386 -0.14806779 100 2 -0.0057810359
-0.13437106 0.7612794 0.067632854 100 10 -0.0057787318
-0.13069081 0.74118459 -0.11920308 100 3 -0.0057764277
-0.13017085 0.7389878 0.092133231 100 11 -0.0057741236
-0.13464762 0.76440281 -0.095301837 48 4 -0.00577182
-0.13077444 0.74317569 0.11951595 100 12 -0.0057695159
-0.13349463 0.75941074 -0.067458548 7 5 -0.0057672118
-0.13073279 0.7444613 0.14692293 100 13 -0.0057649077
-0.11871572 0.67672306 -0.03600714 8 6 -0.0057626041
-0.12694356 0.72362471 0.16961309 21 14 -0.0057603
-0.12633628 0.72090226 -0.012775162 69 7 -0.0057579959
-0.12692557 0.72500902 0.19722012 93 15 -0.0057556918
-0.14291123 0.82223272 -0.22361965 25 0 -0.0057349559
-0.13478222 0.77626592 0.013752497 100 8 -0.0057326518
-0.12855147 0.74114776 -0.17366222 100 1 -0.0057303477
-0.13366541 0.77143109 0.041031394 59 9 -0.0057280436
-0.12837307 0.74088711 -0.14615969 100 2 -0.00572574
-0.13252558 0.76564711 0.067981474 51 10 -0.0057234359
-0.12957866 0.7493999 -0.12045455 99 3 -0.0057211318
-0.12771936 0.73941547 0.092133231 46 11 -0.0057188277
-0.13197835 0.7648682 -0.095301837 49 4 -0.0057165241
-0.1258308 0.73000091 0.11732586 55 12 -0.00571422
-0.12826824 0.7441417 -0.066064052 8 5 -0.0057119159
-0.12859663 0.74682552 0.14730455 45 13 -0.0057096118
-0.10969953 0.63774592 -0.033913702 9 6 -0.0057073077
-0.12441701 0.7240634 0.16961309 39 14 -0.0057050036
-0.1217894 0.70951355 -0.012565733 81 7 -0.0057027
-0.12537368 0.73115981 0.19877303 100 15 -0.0057003959
-0.13809501 0.81129986 -0.22051384 27 0 -0.00567966
-0.13274193 0.78067446 0.013822306 33 8 -0.0056773559
-0.12759541 0.75119811 -0.17591172 100 1 -0.0056750518
-0.13230805 0.7797696 0.041450083 56 9 -0.0056727477
-0.1257859 0.74133074 -0.14615969 100 2 -0.0056704441
-0.12985197 0.76610512 0.067981474 55 10 -0.00566814
-0.12630259 0.74595231 -0.11982881 100 3 -0.0056658359
-0.12613049 0.74572873 0.092864446 42 11 -0.0056635318
-0.13129169 0.77706832 -0.096764266 48 4 -0.0056612277
-0.12459699 0.73822695 0.11857734 52 12 -0.0056589236
-0.12533849 0.74262023 -0.065889739 16 5 -0.00565662
-0.12729433 0.75501359 0.14883102 49 13 -0.0056543159
-0.11543348 0.68539357 -0.036425829 8 6 -0.0056520118
-0.12221228 0.72641504 0.170063 52 14 -0.0056497077
-0.11898039 0.70796239 -0.012530828 92 7 -0.0056474037
-0.12218081 0.72778273 0.19773777 28 15 -0.0056451
-0.1339923 0.80415463 -0.21844329 27 0 -0.0056243641
-0.12870292 0.77324283 0.013682687 29 8 -0.00562206
-0.12657036 0.76125067 -0.17816123 100 1 -0.0056197559
-0.13089444 0.78810763 0.041868769 51 9 -0.0056174519
-0.12319757 0.74176526 -0.14615969 100 2 -0.0056151478
-0.12652496 0.76262271 0.067632854 51 10 -0.0056128437
-0.12369775 0.74638861 -0.11982881 100 3 -0.0056105396
-0.12547211 0.75791502 0.094326884 37 11 -0.005608236
-0.12793083 0.77360493 -0.09627679 49 4 -0.0056059319
-0.12266305 0.74255532 0.11920308 100 12 -0.0056036278
-0.12469364 0.75484771 -0.066935606 48 5 -0.0056013237
-0.12082259 0.73220861 0.14425161 42 13 -0.00559902
-0.11304044 0.68579227 -0.036425829 8 6 -0.005596716
-0.11935906 0.72491437 0.16961309 56 14 -0.0055944119
-0.1158595 0.704427 -0.012461019 93 7 -0.0055921078
-0.11838701 0.7205795 0.19566721 43 15 -0.0055898037
-0.13149549 0.8065241 -0.21896091 28 0 -0.0055690678
-0.12535995 0.76973999 0.013612877 29 8 -0.0055667637
-0.12172212 0.74822366 -0.17501192 100 1 -0.0055644596
-0.12910388 0.79447401 0.042182785 50 9 -0.005562156
-0.12186734 0.74994212 -0.14768617 100 2 -0.0055598519
-0.12481962 0.7689597 0.068155795 42 10 -0.0055575478
-0.12172376 0.75071573 -0.12045455 100 3 -0.0055552437
-0.12219113 0.75442928 0.0938394 100 11 -0.0055529401
-0.1280828 0.79168332 -0.098470435 50 4 -0.005550636
-0.1207004 0.74687922 0.11982881 100 12 -0.0055483319
-0.12237564 0.75724536 -0.06710992 48 5 -0.0055460278
-0.11826612 0.7326259 0.14425161 32 13 -0.0055437237
-0.1106457 0.68618274 -0.036425829 16 6 -0.0055414196
-0.1174475 0.72917449 0.1705129 47 14 -0.005539116
-0.1159412 0.72062153 -0.012740256 98 7 -0.0055368119
-0.11617734 0.7228958 0.19618484 46 15 -0.0055345078
-0.13141705 0.82414794 -0.22361965 25 0 -0.0055137719
-0.11921281 0.74844998 0.013228924 100 8 -0.0055114678
-0.11757842 0.7390213 -0.17276241 100 1 -0.0055091637
-0.12444881 0.78308475 0.041554753 46 9 -0.0055068601
-0.12109742 0.76199645 -0.14997588 100 2 -0.005504556
-0.12338468 0.77726156 0.068853036 100 10 -0.0055022519
-0.11972139 0.75503802 -0.12108029 100 3 -0.0054999478
-0.11831459 0.74700862 0.092864446 100 11 -0.0054976437
-0.12345789 0.78036124 -0.097008012 50 4 -0.0054953396
-0.11840105 0.74924713 0.12014168 100 12 -0.005493036
-0.11910978 0.75373197 -0.0667613 56 5 -0.0054907319
-0.11632009 0.73691273 0.14501485 100 13 -0.0054884278
-0.10887175 0.69051057 -0.036635175 64 6 -0.0054861237
-0.11459848 0.72765499 0.170063 31 14 -0.0054838201
-0.11311411 0.71904653 -0.012705352 100 7 -0.005481516
-0.11395294 0.72520548 0.19670248 40 15 -0.0054792119
-0.12883715 0.82651049 -0.22413731 28 0 -0.005458476
-0.11659931 0.74886155 0.013228924 100 8 -0.0054561719
-0.11679468 0.75098085 -0.17546181 100 1 -0.0054538678
-0.12232791 0.78746158 0.041764095 45 9 -0.0054515637
-0.11753289 0.7565946 -0.14883102 100 2 -0.0054492597
-0.12067058 0.77768755 0.068853036 38 10 -0.0054469556
-0.11768997 0.75935549 -0.12170603 100 3 -0.0054446519
-0.11631386 0.75134051 0.093351923 100 11 -0.0054423478
-0.12012627 0.77686387 -0.096520528 51 4 -0.0054400438
-0.11397564 0.73794246 0.11826447 100 12 -0.0054377401
-0.1204314 0.77974069 -0.069027349 59 5 -0.005435436
-0.1170399 0.75865757 0.14921264 100 13 -0.0054331319
-0.1055487 0.68496442 -0.036321156 81 6 -0.0054308278
-0.10998245 0.71456826 0.16691369 25 14 -0.0054285238
-0.10938821 0.71153098 -0.012565733 100 7 -0.0054262197
-0.11259416 0.73323655 0.19877303 30 15 -0.0054239156
-0.12391493 0.81358635 -0.22051384 25 0 -0.0054031797
-0.1103754 0.7255407 0.012810066 82 8 -0.0054008756
-0.11622234 0.76487023 -0.17861113 81 1 -0.005398572
-0.11987788 0.78985846 0.041868769 43 9 -0.0053962679
-0.11430178 0.75311822 -0.14806779 100 2 -0.0053939638
-0.11735775 0.77416432 0.068504408 100 10 -0.0053916597
-0.1165178 0.7695272 -0.12327038 100 3 -0.0053893561
-0.11487765 0.75959301 0.094326884 100 11 -0.005387052
-0.11800656 0.78120416 -0.097008012 54 4 -0.0053847479
-0.11139955 0.73833579 0.11826447 100 12 -0.0053824438
-0.11533143 0.76439553 -0.067632854 69 5 -0.0053801397
-0.11292797 0.74935484 0.14730455 100 13 -0.0053778356
-0.10464332 0.69520378 -0.036844518 100 6 -0.005375532
-0.10922631 0.72651017 0.16961309 23 14 -0.0053732279
-0.10690364 0.71190852 -0.012565733 100 7 -0.0053709238
-0.10974726 0.73171473 0.19825539 100 15 -0.0053686197
-0.12192664 0.81974649 -0.22206675 24 0 -0.0053478838
-0.10372838 0.69822967 0.012321399 97 8 -0.0053455797
-0.11355153 0.76527131 -0.17861113 81 1 -0.0053432761
-0.11711983 0.79027212 0.041868769 42 9 -0.005340972
-0.11167201 0.75351268 -0.14806779 100 2 -0.0053386679
-0.1134879 0.76668561 0.067807168 100 10 -0.0053363638
-0.11209726 0.7582044 -0.12139316 100 3 -0.0053340597
-0.1116453 0.75606185 0.0938394 100 11 -0.0053317556
-0.11585838 0.78553897 -0.097495481 54 4 -0.005329452
-0.10997296 0.74653739 0.11951595 100 12 -0.0053271479
-0.11469486 0.77859133 -0.068853036 73 5 -0.0053248438
-0.11059714 0.75168681 0.14768617 100 13 -0.0053225397
-0.10279688 0.69951683 -0.037053861 93 6 -0.0053202361
-0.10697246 0.72881514 0.170063 23 14 -0.005317932
-0.10441778 0.71227741 -0.012565733 100 7 -0.0053156279
-0.10607307 0.72444737 0.19618484 100 15 -0.0053133238
-0.11878747 0.81825519 -0.22154912 25 0 -0.0052759652
-0.10157722 0.70056647 0.012356304 97 8 -0.0052736611
-0.10948323 0.75601989 -0.17636162 75 1 -0.005271357
-0.11564407 0.79856265 0.042287458 40 9 -0.0052690534
-0.11044677 0.76361293 -0.14997588 100 2 -0.0052667493
-0.11109563 0.76904899 0.067981474 100 10 -0.0052644452
-0.10944975 0.75859112 -0.12139316 100 3 -0.0052621411
-0.10900598 0.75644696 0.0938394 100 11 -0.005259837
-0.11481216 0.7977277 -0.098957919 52 4 -0.0052575334
-0.10665231 0.74103218 0.11857734 100 12 -0.0052552293
-0.11225964 0.78095907 -0.069027349 81 5 -0.0052529252
-0.10629909 0.74040824 0.14539646 100 13 -0.0052506211
-0.10120476 0.70580256 -0.037367877 100 6 -0.005248317
-0.10525636 0.73497134 0.17141271 23 14 -0.0052460134
-0.1031893 0.72053778 -0.012705352 100 7 -0.0052437093
-0.10476444 0.7324447 0.19825539 100 15 -0.0052414052
-0.11593029 0.81866491 -0.22154912 23 0 -0.0052206693
-0.099534035 0.70287943 0.012391209 96 8 -0.0052183652
-0.10724826 0.75830835 -0.17681152 83 1 -0.0052160611
-0.11257631 0.79698384 0.042182785 38 9 -0.005213757
-0.10860315 0.76982594 -0.15112074 100 2 -0.0052114534
-0.10924455 0.77535075 0.068504408 100 10 -0.0052091493
-0.10803613 0.76677418 -0.12264463 100 3 -0.0052068452
-0.10677332 0.75876999 0.094083138 100 11 -0.0052045411
-0.10995617 0.7823779 -0.097008012 51 4 -0.0052022371
-0.10488889 0.74726862 0.11951595 100 12 -0.0051999334
-0.11202245 0.79910403 -0.070596151 89 5 -0.0051976293
-0.10438813 0.74464518 0.14615969 100 13 -0.0051953252
-0.098033026 0.70020032 -0.037053861 93 6 -0.0051930211
-0.10254847 0.7333864 0.17096281 100 14 -0.0051907171
-0.10067368 0.7208935 -0.012705352 100 7 -0.0051884134
-0.10274061 0.73663265 0.19929068 100 15 -0.0051861093
-0.11506628 0.8324405 -0.22517258 24 0 -0.005165373
-0.098173931 0.71114624 0.012530828 100 8 -0.0051630693
-0.10593159 0.76833045 -0.17906104 80 1 -0.0051607653
-0.10870367 0.78945762 0.041764095 34 9 -0.0051584612
-0.10471049 0.76045734 -0.14921264 100 2 -0.0051561571
-0.10830156 0.78755164 0.069550283 100 10 -0.005153853
-0.10589665 0.77106059 -0.12327038 100 3 -0.0051515494
-0.10520288 0.76700479 0.095058098 42 11 -0.0051492453
-0.10776346 0.78669035 -0.097495481 51 4 -0.0051469412
-0.10254769 0.7495873 0.11982881 100 12 -0.0051446371
-0.10923216 0.79949027 -0.070596151 96 5 -0.005142333
-0.10417989 0.76251179 0.14959426 31 13 -0.0051400294
-0.094778359 0.69460154 -0.036739845 80 6 -0.0051377253
-0.098935835 0.72601622 0.1691632 21 14 -0.0051354212
-0.097347513 0.71529627 -0.012600638 91 7 -0.0051331171
-0.10120952 0.74464381 0.20136122 100 15 -0.005130813
-0.10943958 0.81371039 -0.2199962 21 0 -0.0051100771
-0.094891123 0.70553899 0.012426113 100 8 -0.005107773
-0.10480528 0.78028393 -0.18176045 76 1 -0.0051054694
-0.10700957 0.79775035 0.042182785 39 9 -0.0051031653
-0.10192274 0.76083601 -0.14921264 100 2 -0.0051008612
-0.10435732 0.7800442 0.068853036 100 10 -0.0050985571
-0.10359284 0.77535951 -0.12389611 100 3 -0.005096253
-0.10305081 0.77130258 0.095545575 54 11 -0.0050939494
-0.10580416 0.79296476 -0.098226704 49 4 -0.0050916453
-0.10097397 0.75777298 0.12108029 100 12 -0.0050893412
-0.10670374 0.80184156 -0.070770465 100 5 -0.0050870371
-0.10035008 0.75510383 0.14806779 44 13 -0.005084733
-0.094071083 0.70880353 -0.037472546 91 6 -0.0050824294
-0.097810291 0.73796511 0.17186262 27 14 -0.0050801253
-0.093799241 0.70770228 -0.012461019 93 7 -0.0050778212
-0.096327968 0.7277562 0.19670248 94 15 -0.0050755171
-0.10684915 0.81600302 -0.22051384 23 0 -0.0050547812
-0.092823274 0.70984775 0.012495923 100 8 -0.0050524771
-0.10396357 0.79612154 -0.18535967 85 1 -0.005050173
-0.10408475 0.79813725 0.042182785 45 9 -0.0050478694
-0.099773847 0.76508063 -0.14997588 100 2 -0.0050455653
-0.10137669 0.77842796 0.068678722 41 10 -0.0050432612
-0.10012159 0.7698397 -0.1229575 100 3 -0.0050409571
-0.10073431 0.77561224 0.096033052 72 11 -0.005038653
-0.10264193 0.79137856 -0.097982958 100 4 -0.0050363494
-0.10022561 0.77381015 0.12358324 97 12 -0.0050340453
-0.10364801 0.80023336 -0.070596151 100 5 -0.0050317412
-0.098217137 0.75934362 0.14883102 51 13 -0.0050294371
-0.091340624 0.70714676 -0.037367877 76 6 -0.005027133
-0.096729331 0.74989837 0.17456202 42 14 -0.0050248294
-0.092226468 0.71597457 -0.012600638 91 7 -0.0050225253
-0.093906589 0.7300204 0.19722012 100 15 -0.0050202212
-0.10351203 0.81253833 -0.21947856 22 0 -0.0049994853
-0.088830546 0.69826514 0.012286494 100 8 -0.0049971812
-0.10044734 0.79067993 -0.18400995 87 1 -0.0049948771
-0.10205234 0.80443978 0.0424968 47 9 -0.0049925731
-0.09784402 0.77126724 -0.15112074 100 2 -0.0049902694
-0.10041145 0.79261333 0.069898903 56 10 -0.0049879653
-0.09743353 0.77018452 -0.1229575 100 3 -0.0049856612
-0.096533671 0.76414245 0.094570614 59 11 -0.0049833572
-0.10037559 0.79567105 -0.098470435 100 4 -0.0049810531
-0.097770959 0.77611512 0.12389611 87 12 -0.004978749
-0.10035616 0.79663664 -0.070247531 100 5 -0.0049764453
-0.095811144 0.7616297 0.14921264 49 13 -0.0049741413
-0.087875709 0.6995346 -0.036949188 86 6 -0.0049718372
-0.094838932 0.75603223 0.17591172 55 14 -0.0049695331
-0.089726843 0.71629208 -0.012600638 91 7 -0.0049672294
-0.093275853 0.74567914 0.20136122 100 15 -0.0049649253
-0.10162504 0.8205635 -0.22154912 23 0 -0.004944189
-0.08811079 0.71246302 0.012530828 100 8 -0.0049418854
-0.097925372 0.79295981 -0.18445987 100 1 -0.0049395813
-0.098160379 0.79486275 0.041973442 45 9 -0.0049372772
-0.095391266 0.77355254 -0.15150236 100 2 -0.0049349731
-0.097887769 0.79493636 0.070073217 68 10 -0.004932669
-0.095226817 0.77444118 -0.12358324 99 3 -0.0049303654
-0.09313976 0.75856394 0.0938394 40 11 -0.0049280613
-0.097597726 0.79601651 -0.098470435 100 4 -0.0049257572
-0.094956495 0.77447438 0.12358324 84 12 -0.0049234531
-0.098059185 0.80093735 -0.070596151 100 5 -0.004921149
-0.094104722 0.76975453 0.15073912 36 13 -0.0049188454
-0.085191146 0.69785458 -0.036844518 70 6 -0.0049165413
-0.091020443 0.74668652 0.17366222 69 14 -0.0049142372
-0.088803001 0.72849572 -0.012810066 87 7 -0.0049119331
-0.091035791 0.74790204 0.20187886 33 15 -0.004909629
-0.10037553 0.83433938 -0.22517258 100 0 -0.0048888931
-0.08479242 0.70480978 0.012391209 100 8 -0.004886589
-0.095992342 0.79908466 -0.18580957 100 1 -0.0048842854
-0.095147103 0.79321754 0.041868769 40 9 -0.0048819813
-0.092691012 0.77388078 -0.15150236 100 2 -0.0048796772
-0.095585316 0.7992298 0.070421837 78 10 -0.0048773731
-0.093127087 0.7786755 -0.12420898 92 3 -0.004875069
-0.092977777 0.77857947 0.09627679 100 11 -0.0048727654
-0.094017483 0.78845125 -0.097495481 100 4 -0.0048704613
-0.090150341 0.75714743 0.12076741 73 12 -0.0048681572
-0.096203439 0.8091886 -0.071293391 100 5 -0.0048658531
-0.091783546 0.77201188 0.15112074 100 13 -0.004863549
-0.083818756 0.70606649 -0.037263203 69 6 -0.0048612454
-0.088543639 0.7469843 0.17366222 70 14 -0.0048589413
-0.084379032 0.71291465 -0.012530828 92 7 -0.0048566372
-0.08887855 0.75205219 0.20291413 35 15 -0.0048543331
-0.095588505 0.81739867 -0.22051384 100 0 -0.0048335972
-0.083491065 0.71503246 0.012565733 100 8 -0.0048312931
-0.09455625 0.81102872 -0.18850899 100 1 -0.004828989
-0.09283974 0.79751253 0.042078111 100 9 -0.0048266854
-0.089215957 0.76638353 -0.14997588 100 2 -0.0048243813
-0.091784425 0.78964704 0.069550283 82 10 -0.0048220772
-0.091774605 0.79076916 -0.12608619 92 3 -0.0048197731
-0.090716638 0.78284299 0.096764266 100 11 -0.004817469
-0.093546115 0.80849403 -0.099932872 100 4 -0.0048151654
-0.085693032 0.74175888 0.11826447 100 12 -0.0048128613
-0.092008576 0.7976439 -0.070247531 100 5 -0.0048105572
-0.087738499 0.7606256 0.14883102 100 13 -0.0048082531
-0.081353426 0.70635474 -0.037263203 69 6 -0.0048059491
-0.086603336 0.75309682 0.17501192 60 14 -0.0048036454
-0.081890136 0.7132048 -0.012530828 92 7 -0.0048013413
-0.085152492 0.74276143 0.20032595 33 15 -0.0047990372
-0.093026437 0.82158267 -0.22154912 100 0 -0.0047783013
-0.080094501 0.70737153 0.012426113 100 8 -0.0047759973
-0.092381954 0.81716299 -0.18985869 100 1 -0.0047736932
-0.090951197 0.80577046 0.0424968 100 9 -0.0047713891
-0.087725408 0.77841085 -0.15226559 100 2 -0.004769085
-0.087553091 0.7780987 0.068504408 68 10 -0.0047667813
-0.088434778 0.78717411 -0.12546046 100 3 -0.0047644773
-0.089756206 0.79893643 0.09871418 100 11 -0.0047621732
-0.090944432 0.81078839 -0.10017661 100 4 -0.0047598691
-0.083103806 0.74205345 0.11826447 100 12 -0.0047575654
-0.089444906 0.79994029 -0.070421837 100 5 -0.0047552614
-0.084514245 0.75703984 0.14806779 100 13 -0.0047529573
-0.078985363 0.70863318 -0.037367877 61 6 -0.0047506532
-0.083627142 0.75147235 0.17456202 54 14 -0.0047483491
-0.079842232 0.71746117 -0.012600638 91 7 -0.004746045
-0.082345724 0.74113417 0.1998083 39 15 -0.0047437414
-0.090158187 0.82190239 -0.22154912 21 0 -0.004723005
-0.077501476 0.70766038 0.012426113 100 8 -0.0047207014
-0.088539198 0.80974728 -0.18805908 100 1 -0.0047183973
-0.087563984 0.80212736 0.042287458 82 9 -0.0047160932
-0.085220933 0.78066397 -0.1526472 100 2 -0.0047137891
-0.085268021 0.78236097 0.068853036 65 10 -0.004711485
-0.084404193 0.77569532 -0.12358324 100 3 -0.0047091814
-0.08253976 0.75979036 0.0938394 100 11 -0.0047068773
-0.087330177 0.80519569 -0.099445395 100 4 -0.0047045732
-0.08059559 0.744317 0.11857734 53 12 -0.0047022691
-0.087724254 0.81015164 -0.071293391 100 5 -0.004699965
-0.079550229 0.73585951 0.14386998 100 13 -0.0046976614
-0.0765111 0.70890462 -0.037367877 61 6 -0.0046953573
-0.081838392 0.7595098 0.17636162 33 14 -0.0046930532
-0.07763999 0.72172534 -0.012670447 90 7 -0.0046907491
-0.079835236 0.74335176 0.20032595 45 15 -0.004688445
-0.088104218 0.82989633 -0.22361965 22 0 -0.0046677091
-0.075030953 0.70792651 0.012426113 100 8 -0.004665405
-0.084481589 0.79842395 -0.18535967 28 1 -0.0046631014
-0.08266519 0.78256613 0.041240737 75 9 -0.0046607973
-0.082701415 0.7829091 -0.15302883 100 2 -0.0046584932
-0.083372533 0.79057944 0.069550283 51 10 -0.0046561891
-0.08252383 0.78384322 -0.12483472 99 3 -0.004653885
-0.079471894 0.75612545 0.093351923 100 11 -0.0046515814
-0.084311992 0.80352134 -0.099201649 100 4 -0.0046492773
-0.078203261 0.74655843 0.11889021 53 12 -0.0046469732
-0.085311465 0.81441599 -0.071642019 100 5 -0.0046446691
-0.077797696 0.74394315 0.14539646 29 13 -0.004642365
-0.073621146 0.70519441 -0.037158534 62 6 -0.0046400614
-0.077167153 0.74040836 0.17186262 23 14 -0.0046377573
-0.075326979 0.72398102 -0.012705352 80 7 -0.0046354532
-0.077838525 0.74939048 0.20187886 41 15 -0.0046331491
-0.084615655 0.82443351 -0.22206675 21 0 -0.0046124132
-0.073578276 0.71813059 0.012600638 100 8 -0.0046101091
-0.082883552 0.81034571 -0.18805908 32 1 -0.0046078051
-0.078240797 0.76495385 0.040298689 66 9 -0.004605501
-0.079968594 0.78319299 -0.15302883 100 2 -0.0046031973
-0.081420317 0.79879415 0.070247531 100 10 -0.0046008932
-0.080986798 0.79591787 -0.12671193 100 3 -0.0045985891
-0.076029763 0.74849844 0.09237697 97 11 -0.0045962851
-0.081906982 0.80776072 -0.099689126 100 4 -0.0045939814
-0.074531257 0.73502183 0.11701299 53 12 -0.0045916773
-0.08226724 0.81272668 -0.071467713 97 5 -0.0045893732
-0.07638479 0.75593001 0.14768617 36 13 -0.0045870692
-0.071961045 0.71339583 -0.037577223 61 6 -0.0045847651
-0.074972451 0.74455112 0.17276241 23 14 -0.004582461
-0.071122788 0.70632011 -0.012391209 94 7 -0.0045801573
-0.076512463 0.76117748 0.20498469 29 15 -0.0045778533
-0.081546582 0.82280141 -0.22154912 100 0 -0.0045571174
-0.070802167 0.71439075 0.012530828 100 8 -0.0045548133
-0.080579385 0.81449467 -0.18895888 31 1 -0.0045525092
-0.073803715 0.747334 0.039356641 63 9 -0.0045502051
-0.077041432 0.78151357 -0.1526472 100 2 -0.0045479015
-0.078045949 0.79312503 0.06972459 100 10 -0.0045455974
-0.078346774 0.7961821 -0.12671193 100 3 -0.0045432933
-0.074517667 0.75862443 0.093595661 87 11 -0.0045409892
-0.079615489 0.81197912 -0.10017661 100 4 -0.0045386851
-0.072157331 0.73724359 0.11732586 50 12 -0.004536381
-0.079817422 0.8169747 -0.071816333 97 5 -0.0045340774
-0.074832261 0.76594889 0.14959426 100 13 -0.0045317733
-0.069788948 0.71561831 -0.037681893 60 6 -0.0045294692
-0.072125204 0.74091655 0.17186262 100 14 -0.0045271651
-0.070010789 0.7204963 -0.012635542 81 7 -0.0045248615
-0.072549634 0.74798018 0.20136122 100 15 -0.0045225574
-0.078264937 0.81729817 -0.2199962 24 0 -0.004501821
-0.06735649 0.70468038 0.012356304 23 8 -0.0044995174
-0.078106508 0.81865078 -0.18985869 32 1 -0.0044972133
-0.071135521 0.7455864 0.039251972 72 9 -0.0044949092
-0.075565949 0.79349124 -0.15493691 100 2 -0.0044926051
-0.074472889 0.78346229 0.068853036 67 10 -0.004490301
-0.075940438 0.80038381 -0.12733766 95 3 -0.0044879974
-0.072617553 0.76678491 0.094570614 100 11 -0.0044856933
-0.076967269 0.81422842 -0.10042035 100 4 -0.0044833892
-0.069712296 0.73747879 0.11732586 100 12 -0.0044810851
-0.077107571 0.81723493 -0.071816333 91 5 -0.004478781
-0.070133097 0.74470478 0.14539646 100 13 -0.0044764774
-0.068038031 0.72381157 -0.038100582 51 6 -0.0044741733
-0.070084751 0.74698442 0.17321232 100 14 -0.0044718692
-0.068741746 0.73267025 -0.012844971 78 7 -0.0044695651
-0.069348134 0.74052286 0.19929068 100 15 -0.004467261
-0.075944059 0.82333744 -0.22154912 27 0 -0.0044465251
-0.06520313 0.70689112 0.012391209 100 8 -0.004444221
-0.074855156 0.81308377 -0.18850899 33 1 -0.0044419169
-0.067801289 0.73787463 0.038833283 73 9 -0.0044396133
-0.073154449 0.79766029 -0.15570015 100 2 -0.0044373092
-0.070829734 0.77379698 0.067981474 58 10 -0.0044350051
-0.072565764 0.79276264 -0.12608619 100 3 -0.004432701
-0.06917154 0.75713724 0.093351923 100 11 -0.0044303974
-0.076069124 0.83424807 -0.10285773 100 4 -0.0044280933
-0.067137741 0.73771763 0.11732586 100 12 -0.0044257892
-0.075696431 0.83337283 -0.073210821 84 5 -0.0044234851
-0.067663334 0.74493325 0.14539646 100 13 -0.004421181
-0.065276563 0.72005504 -0.037891235 51 6 -0.004418877
-0.067431815 0.74527186 0.17276241 100 14 -0.0044165733
-0.065824285 0.72892255 -0.012775162 69 7 -0.0044142692
-0.067456245 0.74845672 0.20136122 100 15 -0.0044119651
-0.073213518 0.82358474 -0.22154912 27 0 -0.0043912292
-0.06326519 0.71309006 0.012495923 23 8 -0.0043889252
-0.071844414 0.81139892 -0.18805908 41 1 -0.0043866211
-0.06522537 0.73810679 0.038833283 73 9 -0.0043843174
-0.07137315 0.80767667 -0.15760824 100 2 -0.0043820133
-0.067387961 0.76410419 0.06710992 67 10 -0.0043797093
-0.070663832 0.80284995 -0.12765054 97 3 -0.0043774052
-0.065833561 0.74946409 0.09237697 100 11 -0.0043751011
-0.072116621 0.8226434 -0.1013953 100 4 -0.004372797
-0.064734183 0.73991537 0.11763873 100 12 -0.0043704933
-0.072613828 0.83164716 -0.073036514 100 5 -0.0043681893
-0.064892016 0.74320912 0.14501485 100 13 -0.0043658852
-0.063976496 0.7342065 -0.03862394 42 6 -0.0043635811
-0.06331028 0.72803003 0.1687133 100 14 -0.0043612774
-0.063970849 0.73711663 -0.012914781 77 7 -0.0043589734
-0.064676695 0.74676287 0.20084359 100 15 -0.0043566693
-0.070850246 0.83154702 -0.22361965 27 0 -0.0043359334
-0.061624628 0.72326887 0.012670447 100 8 -0.0043336293
-0.070167534 0.82523686 -0.19120839 47 1 -0.0043313252
-0.062141713 0.73235971 0.038519271 92 9 -0.0043290211
-0.0674183 0.79619533 -0.15531853 100 2 -0.004326717
-0.065090373 0.77030194 0.067632854 72 10 -0.0043244134
-0.068550855 0.81294554 -0.12921488 95 3 -0.0043221093
-0.062716447 0.74375522 0.091645755 100 11 -0.0043198052
-0.069744155 0.82882446 -0.10212652 63 4 -0.0043175011
-0.061985862 0.73816836 0.11732586 100 12 -0.004315197
-0.069876544 0.83388102 -0.073210821 100 5 -0.0043128934
-0.062985376 0.75322407 0.14692293 93 13 -0.0043105893
-0.0616174 0.73841673 -0.038833283 42 6 -0.0043082852
-0.059994806 0.72048908 0.16691369 100 14 -0.0043059811
-0.061065726 0.73334998 -0.012844971 78 7 -0.004303677
-0.06302961 0.75853539 0.20394942 100 15 -0.0043013734
-0.06810464 0.83371478 -0.22413731 28 0 -0.004280637
-0.058323275 0.71551764 0.012530828 100 8 -0.0042783329
-0.066036336 0.81189227 -0.18805908 42 1 -0.0042760293
-0.059260901 0.72859079 0.038309924 92 9 -0.0042737252
-0.064638816 0.79642582 -0.15531853 100 2 -0.0042714211
-0.060470987 0.74669385 0.065541118 100 10 -0.0042691175
-0.066189833 0.81908667 -0.13015349 97 3 -0.0042668134
-0.060149737 0.74595869 0.091889486 100 11 -0.0042645093
-0.067342483 0.83698928 -0.10310147 64 4 -0.0042622052
-0.057982795 0.72065914 0.11451004 100 12 -0.0042599011
-0.066327341 0.82617581 -0.072513573 41 5 -0.004257597
-0.059728831 0.74561137 0.14539646 89 13 -0.0042552929
-0.060153224 0.75256371 -0.039565988 39 6 -0.0042529893
-0.058098998 0.72846442 0.1687133 100 14 -0.0042506852
-0.058187321 0.72957188 -0.012775162 69 7 -0.0042483811
-0.05961534 0.74912202 0.20136122 100 15 -0.004246077
-0.064591534 0.82624346 -0.22206675 32 0 -0.0042253411
-0.055638656 0.71171987 0.012461019 100 8 -0.004223037
-0.064253047 0.82376379 -0.1907585 45 1 -0.0042207334
-0.058112122 0.74671435 0.039251972 96 9 -0.0042184293
-0.062314127 0.80251867 -0.15646338 100 2 -0.0042161252
-0.057710435 0.74491394 0.065366805 100 10 -0.0042138211
-0.062557973 0.80748487 -0.12827627 100 3 -0.0042115171
-0.058440443 0.75605005 0.093108192 100 11 -0.004209213
-0.065177292 0.84512484 -0.10407643 68 4 -0.0042069093
-0.055770122 0.72479624 0.11513578 100 12 -0.0042046052
-0.064358264 0.83832163 -0.073559448 43 5 -0.0042023011
-0.056654647 0.73797536 0.14386998 99 13 -0.0041999971
-0.05979291 0.78063893 -0.041031394 36 6 -0.0041976934
-0.055682801 0.72865307 0.1687133 100 14 -0.0041953893
-0.055944487 0.73375839 -0.012844971 68 7 -0.0041930852
-0.056853324 0.74739921 0.20084359 100 15 -0.0041907812
-0.061851032 0.82645321 -0.22206675 25 0 -0.0041700453
-0.052707426 0.70592719 0.012356304 100 8 -0.0041677412
-0.060653567 0.81426632 -0.18850899 46 1 -0.0041654371
-0.055357035 0.74492085 0.039147299 100 9 -0.004163133
-0.060234286 0.81055236 -0.15798986 100 2 -0.0041608294
-0.055534653 0.74907506 0.065715425 100 10 -0.0041585253
-0.059739109 0.80769831 -0.12827627 100 3 -0.0041562212
-0.055070397 0.74635088 0.091889486 100 11 -0.0041539171
-0.062663816 0.85128647 -0.10480764 75 4 -0.0041516135
-0.05410796 0.73680687 0.11701299 100 12 -0.0041493094
-0.061431359 0.83854115 -0.073559448 43 5 -0.0041470053
-0.05379121 0.73425269 0.14310676 100 13 -0.0041447012
-0.058377627 0.79877049 -0.041973442 45 6 -0.0041423971
-0.053139489 0.72884303 0.1687133 100 14 -0.004140093
-0.054543149 0.74990457 -0.01312421 65 7 -0.0041377894
-0.054243863 0.7475931 0.20084359 100 15 -0.0041354853
-0.059644375 0.83823621 -0.22517258 32 0 -0.0041147494
-0.051236272 0.72006953 0.012600638 100 8 -0.0041124453
-0.05794863 0.81641692 -0.18895888 45 1 -0.0041101412
-0.052051648 0.73514813 0.03862394 100 9 -0.0041078371
-0.057816502 0.81860113 -0.15951632 100 2 -0.0041055335
-0.052928615 0.751261 0.065889739 100 10 -0.0041032294
-0.057055496 0.81185287 -0.12890202 100 3 -0.0041009253
-0.051769495 0.73663741 0.090670794 100 11 -0.0040986212
-0.0598309 0.85348028 -0.10505138 73 4 -0.0040963171
-0.051811095 0.7409324 0.11763873 100 12 -0.004094013
-0.058504507 0.83875042 -0.073559448 45 5 -0.0040917089
-0.051508639 0.74032044 0.14425161 100 13 -0.0040894053
-0.056002889 0.80694902 -0.042392131 53 6 -0.0040871012
-0.050332673 0.72708881 0.16826339 20 14 -0.0040847971
-0.051786866 0.74809551 -0.013089306 65 7 -0.0040824935
-0.052033339 0.75355971 0.20239651 100 15 -0.0040801894
-0.056587413 0.83651179 -0.22465494 28 0 -0.004059453
-0.048731517 0.7222476 0.012635542 100 8 -0.0040571494
-0.055086955 0.81856817 -0.18940879 43 1 -0.0040548453
-0.048553765 0.72337741 0.037995908 100 9 -0.0040525412
-0.054169606 0.80704492 -0.15722662 100 2 -0.0040502371
-0.050838403 0.75939304 0.066586986 100 10 -0.004047933
-0.055010658 0.82387298 -0.13077922 100 3 -0.0040456289
-0.048409171 0.72691882 0.089452103 100 11 -0.0040433253
-0.05538692 0.8338865 -0.102614 70 4 -0.0040410212
-0.048311815 0.7292909 0.11576151 100 12 -0.0040387171
-0.055954725 0.84691155 -0.074256696 51 5 -0.004036413
-0.049182784 0.74441373 0.14501485 100 13 -0.0040341094
-0.054499168 0.82706887 -0.043438848 68 6 -0.0040318053
-0.047028095 0.7155928 0.16556399 20 14 -0.0040295012
-0.048521627 0.74029863 -0.012949686 67 7 -0.0040271971
-0.048767168 0.74603438 0.20032595 100 15 -0.004024893
-0.052904647 0.82707405 -0.22206675 25 0 -0.0040041571
-0.046848174 0.73239148 0.012810066 100 8 -0.0040018531
-0.051980942 0.81486589 -0.18850899 43 1 -0.003999549
-0.04704332 0.7394883 0.038833283 100 9 -0.0039972453
-0.051211454 0.80723804 -0.15722662 100 2 -0.0039949412
-0.047048174 0.74366689 0.065192491 100 10 -0.0039926372
-0.052239586 0.82801199 -0.13140497 97 3 -0.0039903331
-0.046871893 0.74293256 0.091402017 100 11 -0.0039880294
-0.052974127 0.84199947 -0.10358895 70 4 -0.0039857253
-0.045518253 0.72551227 0.11513578 100 12 -0.0039834213
-0.053496335 0.85505563 -0.074953936 54 5 -0.0039811172
-0.046943195 0.75242674 0.14654131 100 13 -0.0039788131
-0.052831423 0.84919053 -0.044590238 100 6 -0.003976509
-0.044887818 0.72354031 0.16736358 20 14 -0.0039742053
-0.045442432 0.73247999 -0.012810066 58 7 -0.0039719013
-0.046281811 0.74812824 0.20084359 25 15 -0.0039695972
-0.050658002 0.83302099 -0.22361965 28 0 -0.003966331
-0.043209027 0.71258247 0.012461019 100 8 -0.0039640269
-0.049866285 0.82475972 -0.1907585 45 1 -0.0039617228
-0.045071386 0.7476148 0.039251972 100 9 -0.0039594192
-0.048675343 0.80739492 -0.15722662 100 2 -0.0039571151
-0.044592239 0.74182224 0.065018184 100 10 -0.003954811
-0.048928317 0.81634104 -0.12952776 100 3 -0.0039525069
-0.044999879 0.75299168 0.092620708 100 11 -0.0039502028
-0.050890286 0.85405999 -0.10505138 78 4 -0.0039478992
-0.043697674 0.73551863 0.11670013 100 12 -0.0039455951
-0.050809186 0.85521948 -0.074953936 56 5 -0.003943291
-0.0430701 0.72709286 0.14158028 100 13 -0.0039409869
-0.050516777 0.85533369 -0.044904254 100 6 -0.0039386828
-0.043301303 0.73535001 0.170063 100 14 -0.0039363792
-0.043012988 0.73262674 -0.012810066 58 7 -0.0039340751
-0.043349266 0.74056333 0.19877303 24 15 -0.003931771
-0.047860224 0.83512157 -0.22413731 31 0 -0.0039110351
-0.040379338 0.7067396 0.012356304 100 8 -0.003908731
-0.046655141 0.81909204 -0.18940879 43 1 -0.003906427
-0.042121559 0.74178541 0.038937956 25 9 -0.0039041231
-0.046301704 0.8154003 -0.15875308 100 2 -0.003901819
-0.041890074 0.73998415 0.064843871 100 10 -0.0038995149
-0.045967717 0.8145346 -0.12921488 100 3 -0.003897211
-0.041144442 0.73134261 0.089939587 100 11 -0.003894907
-0.04835315 0.86216038 -0.10602634 74 4 -0.0038926031
-0.041351017 0.73961133 0.11732586 100 12 -0.003890299
-0.04804663 0.85937023 -0.075302556 56 5 -0.0038879949
-0.041077863 0.73703986 0.14348838 100 13 -0.0038856911
-0.046976604 0.84553391 -0.044380896 100 6 -0.003883387
-0.040519167 0.73160511 0.1691632 21 14 -0.0038810831
-0.040785879 0.73876226 -0.012914781 57 7 -0.003878779
-0.041294537 0.75035489 0.20136122 26 15 -0.0038764749
-0.045360181 0.84299964 -0.22620785 40 0 -0.003855739
-0.038661592 0.72085404 0.012600638 100 8 -0.0038534349
-0.043587416 0.81535798 -0.18850899 44 1 -0.0038511311
-0.039107069 0.73395026 0.038519271 25 9 -0.003848827
-0.043873157 0.82339883 -0.16027956 100 2 -0.0038465231
-0.039623581 0.74609464 0.065366805 35 10 -0.003844219
-0.043123964 0.81469011 -0.12921488 100 3 -0.0038419149
-0.039218992 0.74337584 0.091402017 100 11 -0.0038396111
-0.044301152 0.84250033 -0.10358895 70 4 -0.003837307
-0.038665451 0.73777843 0.11701299 100 12 -0.0038350031
-0.045671985 0.87147063 -0.076348431 48 5 -0.003832699
-0.038505018 0.73717874 0.14348838 100 13 -0.0038303949
-0.043921195 0.84369814 -0.044276223 46 6 -0.0038280911
-0.037763003 0.7278499 0.16826339 20 14 -0.003825787
-0.039858855 0.77085268 -0.013473257 52 7 -0.0038234829
-0.03887406 0.75435305 0.20239651 25 15 -0.003821179
-0.042514529 0.84508228 -0.22672549 39 0 -0.0038004429
-0.03644529 0.72697622 0.012705352 100 8 -0.003798139
-0.04064396 0.81355882 -0.18805908 42 1 -0.003795835
-0.036644325 0.73607701 0.03862394 28 9 -0.0037935311
-0.040510785 0.81374282 -0.15837148 100 2 -0.003791227
-0.037413649 0.75418818 0.066064052 100 10 -0.0037889229
-0.040767726 0.82470047 -0.13077922 100 3 -0.0037866191
-0.036917031 0.74945623 0.092133231 100 11 -0.003784315
-0.040970519 0.83471906 -0.102614 65 4 -0.0037820111
-0.035704054 0.73001677 0.11576151 100 12 -0.003779707
-0.042824551 0.87560481 -0.076697052 46 5 -0.0037774029
-0.03621804 0.74319142 0.14463322 100 13 -0.0037750991
-0.041556865 0.85581577 -0.044904254 100 6 -0.003772795
-0.035222258 0.72797728 0.16826339 20 14 -0.0037704911
-0.035242192 0.73103958 -0.012775162 59 7 -0.003768187
-0.03642581 0.75834334 0.20343177 27 15 -0.0037658829
-0.039202843 0.83750659 -0.22465494 45 0 -0.003745147
-0.034373362 0.73708659 0.012879876 100 8 -0.0037428429
-0.038617596 0.8312155 -0.1921082 42 1 -0.0037405391
-0.034388382 0.74018472 0.038833283 27 9 -0.003738235
-0.037397519 0.8079958 -0.15722662 100 2 -0.0037359311
-0.034413893 0.74635309 0.065366805 35 10 -0.003733627
-0.038160443 0.83075768 -0.13171785 100 3 -0.0037313229
-0.034754228 0.75949562 0.093351923 100 11 -0.0037290191
-0.038746879 0.84674835 -0.10407643 64 4 -0.003726715
-0.03310293 0.72618461 0.11513578 100 12 -0.0037244111
-0.039315723 0.86579722 -0.075825498 48 5 -0.003722107
-0.033801187 0.74723583 0.14539646 100 13 -0.0037198029
-0.038659338 0.85795087 -0.045008924 49 6 -0.0037174991
-0.032807801 0.72809011 0.16826339 20 14 -0.003715195
-0.034073263 0.75911999 -0.013263829 54 7 -0.0037128911
-0.033565857 0.75074035 0.20136122 25 15 -0.003710587
-0.036509454 0.83956206 -0.22517258 40 0 -0.0036898511
-0.031669471 0.73120308 0.012775162 100 8 -0.0036875471
-0.036281064 0.84107363 -0.19435771 41 1 -0.003685243
-0.032105953 0.74428552 0.039042629 27 9 -0.0036829391
-0.034970473 0.81399977 -0.15837148 100 2 -0.003680635
-0.031513005 0.73651028 0.064495243 33 10 -0.0036783309
-0.035489608 0.83285326 -0.13203071 100 3 -0.0036760271
-0.031477764 0.74175698 0.091158278 100 11 -0.003673723
-0.036527671 0.86075538 -0.1057826 100 4 -0.0036714191
-0.031195235 0.738132 0.11701299 100 12 -0.003669115
-0.03610906 0.85796034 -0.07512825 38 5 -0.0036668109
-0.031569507 0.75322843 0.14654131 100 13 -0.0036645071
-0.03623068 0.86805201 -0.045532286 51 6 -0.003662203
-0.030718397 0.73598307 0.170063 100 14 -0.0036598991
-0.030974245 0.74524307 -0.013019496 47 7 -0.003657595
-0.030836258 0.74505693 0.1998083 100 15 -0.0036552909
-0.033957921 0.84546936 -0.22672549 37 0 -0.003634555
-0.029084532 0.72730786 0.012705352 100 8 -0.0036322509
-0.032716263 0.82171732 -0.18985869 41 1 -0.0036299471
-0.029745201 0.7503801 0.039356641 27 9 -0.003627643
-0.032115988 0.81018782 -0.15760824 100 2 -0.0036253389
-0.029148839 0.73860157 0.064669557 100 10 -0.003623035
-0.032572236 0.82901859 -0.13140497 100 3 -0.0036207309
-0.028397623 0.72598869 0.089208372 100 11 -0.0036184271
-0.033832002 0.86881202 -0.10675755 100 4 -0.003616123
-0.028465249 0.73428863 0.11638726 100 12 -0.0036138189
-0.033572648 0.86603898 -0.075825498 100 5 -0.003611515
-0.028314617 0.733711 0.14272514 100 13 -0.003609211
-0.033428345 0.87016314 -0.045636959 52 6 -0.0036069071
-0.028595762 0.74776965 0.17276241 100 14 -0.003604603
-0.02928563 0.76932561 -0.013438353 53 7 -0.0036022989
-0.028162343 0.74322957 0.19929068 100 15 -0.003599995
-0.030864669 0.84172165 -0.22569022 37 0 -0.0035792589
-0.02683744 0.73539847 0.012844971 100 8 -0.0035769551
-0.029706446 0.81793165 -0.18895888 39 1 -0.003574651
-0.026692647 0.73850363 0.03872861 27 9 -0.0035723471
-0.029712977 0.82206684 -0.15989795 100 2 -0.003570043
-0.026856737 0.74666321 0.065366805 100 10 -0.0035677389
-0.029537071 0.82517904 -0.13077922 100 3 -0.0035654351
-0.02593375 0.72806722 0.089452103 100 11 -0.003563131
-0.030306626 0.85503793 -0.10505138 65 4 -0.0035608271
-0.026250228 0.74425429 0.11795159 100 12 -0.003558523
-0.030830499 0.87411547 -0.076522738 100 5 -0.0035562189
-0.026235482 0.74753964 0.14539646 100 13 -0.0035539151
-0.029972253 0.85829824 -0.045008924 55 6 -0.003551611
-0.025579518 0.73617959 0.170063 100 14 -0.0035493071
-0.02729108 0.78940815 -0.013787401 49 7 -0.003547003
-0.025899664 0.75297683 0.20187886 79 15 -0.0035446989
-0.0281823 0.84954739 -0.22776078 31 0 -0.003523963
-0.024402315 0.73948479 0.012914781 25 8 -0.0035216589
-0.027170587 0.82776874 -0.19120839 38 1 -0.0035193551
-0.024244778 0.74258465 0.038937956 27 9 -0.003517051
-0.026714899 0.81824112 -0.15913472 100 2 -0.0035147471
-0.024315413 0.74874377 0.065541118 100 10 -0.003512443
-0.027038883 0.83712322 -0.13265644 100 3 -0.003510139
-0.023774398 0.74005765 0.09091454 100 11 -0.0035078351
-0.027132211 0.84918624 -0.10432017 100 4 -0.003505531
-0.02315004 0.72854626 0.11544865 100 12 -0.0035032271
-0.027905401 0.87820047 -0.076871365 100 5 -0.003500923
-0.023625722 0.74762666 0.14539646 100 13 -0.003498619
-0.027353061 0.87037528 -0.045636959 57 6 -0.0034963151
-0.022705063 0.72652543 0.16781349 100 14 -0.003494011
-0.024162468 0.77750617 -0.013577973 60 7 -0.0034917071
-0.023032963 0.74533898 0.1998083 75 15 -0.0034894031
-0.024987591 0.84191668 -0.22569022 29 0 -0.0034686672
-0.02199761 0.74556202 0.013019496 26 8 -0.0034663631
-0.024337882 0.82980657 -0.1916583 36 1 -0.003464059
-0.021885509 0.75065047 0.039356641 27 9 -0.0034617549
-0.02368707 0.81244212 -0.15798986 100 2 -0.003459451
-0.021355163 0.7368747 0.064495243 100 10 -0.0034571469
-0.024116389 0.8372125 -0.13265644 100 3 -0.0034548431
-0.021077501 0.73616761 0.090427063 100 11 -0.003452539
-0.024562869 0.8631658 -0.10602634 67 4 -0.0034502349
-0.020774137 0.73454642 0.11638726 100 12 -0.003447931
-0.024445228 0.86435139 -0.075651184 40 5 -0.0034456269
-0.021071194 0.74966717 0.14577809 100 13 -0.0034433231
-0.02420295 0.86647248 -0.045427613 57 6 -0.003441019
-0.020330897 0.73244423 0.1691632 100 14 -0.0034387149
-0.021062519 0.76359326 -0.013333639 63 7 -0.003436411
-0.020166256 0.73575914 0.19722012 85 15 -0.0034341069
-0.021744959 0.83041155 -0.22258438 28 0 -0.003413371
-0.019187145 0.73763812 0.012879876 26 8 -0.003411067
-0.021743735 0.84157491 -0.19435771 39 1 -0.0034087631
-0.019316154 0.75271887 0.039461315 28 9 -0.003406459
-0.021102577 0.82233292 -0.15989795 100 2 -0.0034041549
-0.018833427 0.73893654 0.064669557 100 10 -0.003401851
-0.021094428 0.83334213 -0.13203071 100 3 -0.003399547
-0.018906554 0.75211239 0.09237697 100 11 -0.0033972431
-0.021747636 0.87118417 -0.10700129 61 4 -0.003394939
-0.018112563 0.73066491 0.11576151 100 12 -0.0033926349
-0.021132277 0.85248089 -0.074605316 46 5 -0.0033903311
-0.018357422 0.74581081 0.14501485 100 13 -0.003388027
-0.021422004 0.876535 -0.045950972 49 6 -0.0033857231
-0.017963661 0.7403034 0.17096281 100 14 -0.003383419
-0.018733863 0.77765596 -0.013577973 51 7 -0.0033811149
-0.017643847 0.73775643 0.19773777 69 15 -0.0033788111
-0.01897821 0.83627653 -0.22413731 33 0 -0.0033580749
-0.016521957 0.7337023 0.012810066 26 8 -0.0033557711
-0.018544544 0.82995623 -0.1916583 41 1 -0.003353467
-0.016777609 0.7567752 0.039670657 27 9 -0.0033511631
-0.018276051 0.82436424 -0.16027956 99 2 -0.003348859
-0.016122663 0.73302203 0.06414663 100 10 -0.0033465549
-0.01818517 0.83341062 -0.13203071 100 3 -0.0033442511
-0.016195675 0.74820459 0.091889486 100 11 -0.003341947
-0.018621461 0.86728543 -0.10651381 70 4 -0.0033396431
-0.015982352 0.75047302 0.11889021 100 12 -0.003337339
-0.018325893 0.8605172 -0.075302556 49 5 -0.0033350349
-0.015629373 0.73998183 0.14386998 100 13 -0.0033327311
-0.018111417 0.86462349 -0.045322943 56 6 -0.003330427
-0.015622043 0.75205147 0.17366222 100 14 -0.0033281231
-0.017048515 0.82769835 -0.014450593 43 7 -0.003325819
-0.015147537 0.74167633 0.19877303 68 15 -0.0033235149
-0.016169982 0.84213215 -0.22569022 30 0 -0.003302779
-0.014188802 0.74575144 0.013019496 26 8 -0.003300475
-0.015684249 0.83196419 -0.1921082 42 1 -0.0032981711
-0.014154813 0.75083596 0.039356641 27 9 -0.003295867
-0.015508138 0.83031178 -0.16142441 100 2 -0.0032935631
-0.013637361 0.73705798 0.064495243 100 10 -0.0032912591
-0.01527609 0.83346909 -0.13203071 100 3 -0.003288955
-0.013547625 0.74627179 0.091645755 100 11 -0.0032866511
-0.015450993 0.85940611 -0.10553886 70 4 -0.003284347
-0.013386871 0.74459672 0.11795159 100 12 -0.0032820432
