# .PCD v0.7 - Point Cloud Data file format
VERSION 0.7
FIELDS x y z intensity ring time
SIZE 4 4 4 4 2 4
TYPE F F F F U F
COUNT 1 1 1 1 1 1
WIDTH 896
HEIGHT 1
VIEWPOINT 0 0 0 1 0 0 0
POINTS 896
DATA ascii
-0.48496792 -0.57755274 -0.17411213 87 1 -0.024533637
-0.81684494 -0.97278804 0.06657134 12 9 -0.024531333
-1.1781391 -1.4025594 -0.3560496 1 2 -0.024529029
-0.82031906 -0.97623324 0.11155935 24 10 -0.024526725
-1.2024301 -1.4304636 -0.29597405 1 3 -0.024524422
-0.86875743 -1.0331457 0.16574231 10 11 -0.024522118
-0.56480956 -0.6714462 -0.10773251 20 4 -0.024519814
-0.85832691 -1.02038 0.21118654 8 12 -0.02451751
-0.57341743 -0.68143779 -0.077917233 36 5 -0.024515206
-0.91410071 -1.0859143 0.27590984 5 13 -0.024512902
-0.56733841 -0.6737361 -0.046160318 7 6 -0.024510598
-0.93533987 -1.1103586 0.33517709 6 14 -0.024508294
-1.0046076 -1.1921653 0.41773397 5 15 -0.024503686
-0.51498157 -0.60939825 -0.21378455 34 0 -0.024482949
-0.68924397 -0.81560999 0.018639171 76 8 -0.024480645
-0.49317083 -0.58338255 -0.17636162 92 1 -0.024478342
-0.822815 -0.97298086 0.066780686 12 9 -0.024476038
-0.50592506 -0.598046 -0.15226559 6 2 -0.024473734
-0.79154491 -0.93534195 0.10720156 38 10 -0.02447143
-0.53084713 -0.62728417 -0.13015349 1 3 -0.024469126
-0.87602657 -1.0348043 0.16647354 10 11 -0.024466822
-0.59140778 -0.69835186 -0.11236355 47 4 -0.024464518
-0.85549915 -1.0098416 0.2096222 7 12 -0.024462214
-0.56677574 -0.66879219 -0.076697052 29 5 -0.02445991
-0.91008091 -1.0738904 0.2736201 4 13 -0.024457606
-0.54890484 -0.64747548 -0.044485565 27 6 -0.024455301
-0.9364959 -1.1042782 0.33427727 5 14 -0.024452997
-0.98876268 -1.1650845 0.40945172 6 15 -0.024448389
-0.52075499 -0.61210132 -0.21533746 33 0 -0.024427654
-0.68431026 -0.80406207 0.018429741 76 8 -0.02442535
-0.48888797 -0.5742383 -0.17411213 35 1 -0.024423046
-0.8249113 -0.96858221 0.066676013 13 9 -0.024420742
-0.49772194 -0.58440781 -0.14921264 46 2 -0.024418438
-0.78818172 -0.92512894 0.10633 36 10 -0.024416134
-0.53431505 -0.62693071 -0.13046636 8 3 -0.02441383
-0.86289072 -1.0121022 0.16330492 13 11 -0.024411526
-0.60157067 -0.70534557 -0.11382597 62 4 -0.024409221
-0.85132629 -0.99783248 0.207745 7 12 -0.024406917
-0.53407514 -0.62598503 -0.071990639 19 5 -0.024404613
-0.89980441 -1.0542806 0.26942232 3 13 -0.024402309
-0.54597408 -0.63947982 -0.04406688 55 6 -0.024400005
-0.94414175 -1.105448 0.33562699 7 14 -0.024397701
-0.98403788 -1.1513458 0.40582827 5 15 -0.024393093
-0.52917308 -0.61761504 -0.21792565 42 0 -0.024372358
-0.69101685 -0.80622339 0.018534455 89 8 -0.024370054
-1.1872675 -1.3847194 -0.42110837 12 1 -0.02436775
-0.82178569 -0.95811695 0.066152655 12 9 -0.024365446
-0.50231504 -0.58564734 -0.14997588 58 2 -0.024363142
-0.81735414 -0.95261383 0.10981624 16 10 -0.024360837
-0.51205534 -0.59658176 -0.12452185 21 3 -0.024358533
-0.84055495 -0.97896236 0.15843016 30 11 -0.024356229
-0.59497529 -0.69270015 -0.1121198 67 4 -0.024353925
-0.85480422 -0.99485475 0.207745 7 12 -0.024351621
-0.55703205 -0.64829582 -0.074779622 16 5 -0.024349317
-0.8919614 -1.0377338 0.26598775 4 13 -0.024347013
-0.54169244 -0.62999791 -0.043543518 53 6 -0.024344709
-0.93401623 -1.085894 0.33067805 10 14 -0.024342405
-0.65082693 -0.75638944 -0.017417502 2 7 -0.024340101
-0.98300946 -1.1420473 0.40375772 5 15 -0.024337798
-0.53637391 -0.62161458 -0.2199962 30 0 -0.024317062
-0.6990537 -0.8098613 0.018674076 89 8 -0.024314757
-1.1806313 -1.3672922 -0.41705924 21 1 -0.024312453
-0.81712657 -0.94631642 0.065524623 12 9 -0.024310149
-0.50820637 -0.58834755 -0.15112074 51 2 -0.024307845
-0.83891183 -0.97086036 0.1122566 12 10 -0.024305541
-0.52188534 -0.6037575 -0.12639906 57 3 -0.024303237
-0.82578939 -0.95500034 0.15501782 53 11 -0.024300933
-0.58050698 -0.67110163 -0.1089512 68 4 -0.024298629
-0.85163707 -0.98454463 0.20618065 6 12 -0.024296325
-0.5736323 -0.66292059 -0.076697052 34 5 -0.024294021
-0.88272935 -1.0197701 0.26217157 3 13 -0.024291718
-0.53996593 -0.62357354 -0.043229505 35 6 -0.024289414
-0.91100651 -1.0516951 0.32123011 15 14 -0.02428711
-0.60881609 -0.70283687 -0.016230738 4 7 -0.024284806
-0.98299581 -1.1344012 0.40220481 5 15 -0.024282502
-0.53727341 -0.61828029 -0.21947856 30 0 -0.024261765
-0.70435858 -0.8105576 0.018743884 89 8 -0.024259461
-1.1889943 -1.3677816 -0.41840896 30 1 -0.024257157
-0.81387192 -0.93592274 0.065001264 13 9 -0.024254853
-0.49350625 -0.56731379 -0.14615969 7 2 -0.024252549
-0.83706379 -0.96191424 0.11155935 12 10 -0.024250245
-0.52129114 -0.59904319 -0.12577333 68 3 -0.024247941
-0.82634497 -0.94926208 0.15453033 65 11 -0.024245638
-0.54361993 -0.62426192 -0.10163904 76 4 -0.024243334
-0.84079558 -0.96518171 0.20273907 7 12 -0.02424103
-0.57332492 -0.65790993 -0.076348431 50 5 -0.024238726
-0.89642477 -1.0286782 0.26522452 3 13 -0.024236422
-0.54990542 -0.6308127 -0.043857537 4 6 -0.024234118
-0.90424275 -1.0369185 0.31763089 16 14 -0.024231814
-0.58891839 -0.67509013 -0.015637357 16 7 -0.02422951
-0.99203056 -1.1367853 0.40427536 6 15 -0.024227206
-0.52787292 -0.60340923 -0.21481982 11 0 -0.024206469
-0.7124514 -0.81411332 0.018883504 94 8 -0.024204165
-1.1911943 -1.3606905 -0.41750914 32 1 -0.024201861
-0.81581813 -0.93157345 0.064896591 13 9 -0.024199557
-0.83762324 -0.95613581 0.11121072 13 10 -0.02419495
-0.52468097 -0.59870553 -0.12608619 45 3 -0.024192646
-0.83096206 -0.94786447 0.15477408 61 11 -0.024190342
-0.53139806 -0.60594344 -0.098957919 92 4 -0.024188038
-0.84025151 -0.95778614 0.20180048 8 12 -0.024185734
-0.53882068 -0.61397457 -0.071467713 45 5 -0.02418343
-0.88188064 -1.0048841 0.25988188 5 13 -0.024181126
-0.5600099 -0.63789499 -0.044485565 4 6 -0.024178822
-0.92071593 -1.0483983 0.32212991 7 14 -0.024176518
-0.61106861 -0.69556463 -0.01616093 4 7 -0.024174213
-0.9755882 -1.1100978 0.39599317 6 15 -0.024171909
-0.53519017 -0.6072678 -0.21689038 10 0 -0.024151174
-0.70471156 -0.79961973 0.018604266 89 8 -0.02414887
-1.1894932 -1.3492153 -0.41525963 29 1 -0.024146566
-0.81510174 -0.92422628 0.064582579 23 9 -0.024144262
-1.1806432 -1.3382349 -0.34689078 23 2 -0.024141958
-0.8226648 -0.93214583 0.10877036 12 10 -0.024139654
-0.84083474 -0.95239872 0.15599278 30 11 -0.024135046
-0.54139435 -0.61301219 -0.10042035 81 4 -0.024132742
-0.83966607 -0.95040613 0.20086187 11 12 -0.024130438
-0.55019635 -0.62254047 -0.072687887 49 5 -0.024128133
-0.87515461 -0.98987854 0.25682893 4 13 -0.024125829
-0.9142223 -1.0333402 0.31853068 7 14 -0.024121221
-0.59494233 -0.67245984 -0.015672261 5 7 -0.024118917
-0.97177505 -1.0980059 0.39288735 5 15 -0.024116613
-0.55269492 -0.62273413 -0.22310203 9 0 -0.024095878
-0.7063098 -0.79553622 0.01856936 85 8 -0.024093574
-1.1763133 -1.3244479 -0.40896103 30 1 -0.02409127
-0.82230181 -0.92585528 0.064896591 25 9 -0.024088966
-1.1892192 -1.3385086 -0.34803563 32 2 -0.024086662
-0.81929553 -0.92182261 0.10789881 11 10 -0.024084358
-1.1799693 -1.3271642 -0.28126919 26 3 -0.024082053
-0.84827757 -0.95376039 0.15672398 23 11 -0.024079749
-0.54495704 -0.61250681 -0.10066409 93 4 -0.024077445
-0.85216987 -0.95779997 0.20305197 20 12 -0.024075141
-0.57620919 -0.64740527 -0.075825498 46 5 -0.024072837
-0.88252109 -0.99121654 0.25797379 5 13 -0.024070533
-0.56456035 -0.63387114 -0.044485565 4 6 -0.024068229
-0.92041636 -1.0330528 0.3194305 7 14 -0.024065925
-0.623891 -0.70024002 -0.016370358 13 7 -0.024063621
-0.97431648 -1.0931649 0.39236969 5 15 -0.024061317
-0.57031387 -0.63808572 -0.22931369 16 0 -0.024040582
-0.71560699 -0.8006444 0.018743884 94 8 -0.024038278
-1.1716067 -1.3103706 -0.40581173 32 1 -0.024035973
-0.82020271 -0.91702467 0.064477906 23 9 -0.024033669
-1.193884 -1.3343495 -0.34803563 35 2 -0.024031365
-0.82782352 -0.92489517 0.10859605 13 10 -0.024029061
-1.1856812 -1.3247157 -0.28158206 33 3 -0.024026757
-0.83686996 -0.93467402 0.15404287 30 11 -0.024024453
-0.54301178 -0.60626036 -0.099932872 100 4 -0.024022149
-0.8594625 -0.95923311 0.20399056 23 12 -0.024019845
-0.57181656 -0.6379717 -0.074953936 71 5 -0.024017541
-0.88056183 -0.98243666 0.25644732 5 13 -0.024015237
-0.56665897 -0.6319958 -0.044485565 4 6 -0.024012934
-0.90301818 -1.0067837 0.31223205 8 14 -0.02401063
-0.62366056 -0.69508117 -0.016300548 31 7 -0.024008326
-0.97941709 -1.0911946 0.39288735 6 15 -0.024006022
-0.56855023 -0.63188267 -0.22776078 25 0 -0.023985285
-0.71839738 -0.79814148 0.018743884 94 8 -0.023982981
-1.1748697 -1.3048247 -0.4053618 30 1 -0.023980677
-0.82457566 -0.91578394 0.064582579 22 9 -0.023978373
-1.1825351 -1.3128779 -0.34345621 38 2 -0.023976069
-0.83355355 -0.92510521 0.10894467 14 10 -0.023973765
-1.1876532 -1.3176343 -0.28095633 37 3 -0.023971461
-0.84677386 -0.93911868 0.15526156 16 11 -0.023969157
-0.56905723 -0.63089406 -0.10432017 74 4 -0.023966853
-0.86131579 -0.95491093 0.2036777 24 12 -0.02396455
-0.54856932 -0.60796642 -0.071642019 100 5 -0.023962246
-0.87083113 -0.96478337 0.25263113 6 13 -0.023959942
-0.56886178 -0.63001376 -0.044485565 4 6 -0.023957638
-0.89738339 -0.99350244 0.30908275 6 14 -0.023955334
-0.61255825 -0.67816961 -0.015951499 45 7 -0.02395303
-0.96878326 -1.0721737 0.38719329 9 15 -0.023950726
-0.56556386 -0.62416786 -0.22569022 44 0 -0.023929989
-0.72238296 -0.79723668 0.01877879 85 8 -0.023927685
-1.1831164 -1.305253 -0.40671152 32 1 -0.023925381
-0.83179188 -0.91733885 0.064896591 19 9 -0.023923077
-1.1765587 -1.2971088 -0.34040326 37 2 -0.023920774
-0.82874465 -0.91333693 0.10789881 23 10 -0.023918469
-1.1920161 -1.3136886 -0.28095633 37 3 -0.023916166
-0.85922289 -0.94659466 0.15696773 13 11 -0.023913862
-0.5844906 -0.64369994 -0.10675755 66 4 -0.023911558
-0.86065924 -0.94751179 0.20273907 27 12 -0.023909254
-0.53594941 -0.58982772 -0.06972459 100 5 -0.02390695
-0.8740257 -0.96189028 0.25263113 13 13 -0.023904646
-0.57094789 -0.62812388 -0.044485565 4 6 -0.023902342
-0.88625187 -0.97466129 0.30413383 8 14 -0.023900038
-0.60953951 -0.67011011 -0.015811879 47 7 -0.023897734
-0.97121972 -1.0673566 0.38667569 6 15 -0.023895429
-0.57294774 -0.62789804 -0.22776078 34 0 -0.023888826
-0.72260392 -0.79162985 0.01870898 85 8 -0.023886522
-1.1786938 -1.2908348 -0.40356219 30 1 -0.023884218
-0.83633572 -0.9159047 0.065001264 21 9 -0.023881914
-1.1810795 -1.2929937 -0.34040326 38 2 -0.02387961
-0.82923955 -0.90749705 0.10755019 21 10 -0.023877306
-1.1754984 -1.2859825 -0.27595043 36 3 -0.023875002
-0.85598892 -0.93611407 0.15574904 13 11 -0.023872698
-0.59086543 -0.64594752 -0.10748877 69 4 -0.023870394
-0.86129463 -0.94158685 0.20211335 21 12 -0.02386809
-0.53935009 -0.58942318 -0.069898903 100 5 -0.023865785
-0.87224317 -0.95288754 0.25110465 15 13 -0.023863483
-0.55571169 -0.60687798 -0.043124832 15 6 -0.023861179
-0.89245057 -0.97428066 0.30503362 8 14 -0.023858875
-0.61322552 -0.66945308 -0.015846785 41 7 -0.023856571
-0.96580362 -1.0539896 0.3830522 5 15 -0.023854267
-0.58036458 -0.63158423 -0.22983132 48 0 -0.02383353
-0.72387201 -0.78775674 0.018674076 80 8 -0.023831226
-1.1671424 -1.2697028 -0.39816338 29 1 -0.023828922
-0.84358341 -0.91739023 0.065315276 19 9 -0.023826618
-1.1815982 -1.2845286 -0.33925843 39 2 -0.023824314
-0.83914781 -0.91192752 0.10842174 21 10 -0.02382201
-1.1770813 -1.2791702 -0.2753247 39 3 -0.023819705
-0.84967726 -0.92304677 0.15404287 18 11 -0.023817403
-0.59165978 -0.64252418 -0.10724504 66 4 -0.023815099
-0.87126797 -0.94583923 0.2036777 20 12 -0.023812795
-0.5522055 -0.59925818 -0.071293391 99 5 -0.023810491
-0.87140715 -0.9456585 0.2499598 13 13 -0.023808187
-0.53876942 -0.58447254 -0.041659426 46 6 -0.023805883
-0.8930344 -0.96845061 0.30413383 8 14 -0.023803579
-0.62776154 -0.68053687 -0.01616093 18 7 -0.023801275
-0.96554667 -1.0463527 0.38149929 5 15 -0.023798971
-0.5785203 -0.62540168 -0.2282784 58 0 -0.023778234
-0.7252593 -0.78375745 0.018639171 76 8 -0.02377593
-1.167596 -1.2613306 -0.39681366 31 1 -0.023773625
-0.83185339 -0.89832008 0.064163886 14 9 -0.023771323
-1.1845175 -1.2791626 -0.33887681 37 2 -0.023769019
-0.84352124 -0.91060138 0.10859605 21 10 -0.023766715
-1.1721407 -1.2649111 -0.27313459 36 3 -0.023764411
-0.84884572 -0.91570759 0.15331164 20 11 -0.023762107
-0.59119928 -0.63754398 -0.10675755 66 4 -0.023759803
-0.88665503 -0.95582604 0.20649351 23 12 -0.023757499
-0.56920171 -0.613392 -0.073210821 84 5 -0.023755195
-0.87603819 -0.94404995 0.25034142 14 13 -0.023752891
-0.53401214 -0.5752694 -0.041136064 100 6 -0.023750586
-0.88977927 -0.95818728 0.30188429 9 14 -0.023748282
-0.66007477 -0.71057361 -0.016928835 3 7 -0.023745978
-0.98234349 -1.0571278 0.38667569 5 15 -0.023743674
-0.58871084 -0.63175702 -0.23138423 62 0 -0.023722939
-0.7334438 -0.78707284 0.01877879 73 8 -0.023720635
-1.1680051 -1.2529712 -0.39546397 33 1 -0.023718331
-0.83089763 -0.8910287 0.063849874 14 9 -0.023716027
-1.1677709 -1.2518429 -0.33277091 37 2 -0.023713723
-0.84957194 -0.91041672 0.10894467 20 10 -0.023711419
-1.1740731 -1.2577186 -0.27250886 36 3 -0.023709115
-0.85339147 -0.91419029 0.15355539 23 11 -0.023706811
-0.58529204 -0.62677115 -0.10529512 68 4 -0.023704506
-0.87919861 -0.94117683 0.20399056 31 12 -0.023702202
-0.58494252 -0.62595862 -0.074953936 66 5 -0.023699898
-0.88619566 -0.94800395 0.25224951 20 13 -0.023697594
-0.53611714 -0.57330817 -0.041136064 72 6 -0.02369529
-0.87730998 -0.93784213 0.29648548 13 14 -0.023692986
-0.63522929 -0.67905849 -0.016230738 9 7 -0.023690682
-0.96490782 -1.0311233 0.37839344 6 15 -0.023688378
-0.58298063 -0.62124604 -0.2282784 67 0 -0.023667643
-0.73906088 -0.78729522 0.0188486 67 8 -0.023665339
-1.175258 -1.2515225 -0.39636377 33 1 -0.023663035
-0.83810461 -0.89249074 0.064163886 13 9 -0.023660731
-1.1667565 -1.2420355 -0.33124444 37 2 -0.023658426
-0.85138023 -0.90599394 0.10877036 19 10 -0.023656122
-1.1703383 -1.2449768 -0.27063167 36 3 -0.023653818
-0.85809612 -0.91250265 0.15379913 23 11 -0.023651514
-0.59302598 -0.63040531 -0.10627007 63 4 -0.02364921
-0.8757109 -0.93090826 0.20242621 43 12 -0.023646906
-0.58575857 -0.62246203 -0.074779622 49 5 -0.023644602
-0.89891946 -0.95491111 0.25492084 16 13 -0.023642298
-0.5408535 -0.57434142 -0.04134541 35 6 -0.023639994
-0.89260441 -0.94754028 0.30053461 16 14 -0.02363769
-0.62525523 -0.66373694 -0.015916595 15 7 -0.023635386
-0.95260274 -1.0108773 0.3721818 7 15 -0.023633081
-0.58912623 -0.62341958 -0.22983132 72 0 -0.023612347
-0.72930628 -0.77175957 0.018534455 60 8 -0.023610042
-1.1660147 -1.2334571 -0.39186475 33 1 -0.023607738
-0.84807611 -0.89681578 0.064687252 11 9 -0.023605434
-1.1683869 -1.2351027 -0.3304812 37 2 -0.02360313
-0.85316807 -0.90156937 0.10859605 16 10 -0.023600826
-1.1744604 -1.241089 -0.27063167 26 3 -0.023598522
-0.8638469 -0.91253501 0.15428659 23 11 -0.023596218
-0.58555877 -0.61834574 -0.10456391 71 4 -0.023593914
-0.87216252 -0.9206754 0.20086187 47 12 -0.02359161
-0.58107549 -0.61318266 -0.073908068 40 5 -0.023589306
-0.89667922 -0.94622499 0.25339437 13 13 -0.023587001
-0.56199199 -0.59283745 -0.042810816 31 6 -0.023584699
-0.89976448 -0.94881713 0.30188429 16 14 -0.023582395
-0.62481576 -0.65864879 -0.015846785 30 7 -0.023580091
-0.95080614 -1.0019408 0.37011126 10 15 -0.023577787
-0.59119034 -0.62146246 -0.22983132 72 0 -0.02355705
-0.71683228 -0.75327426 0.018150503 40 8 -0.023554746
-1.1662819 -1.2251452 -0.39051503 35 1 -0.023552442
-0.85120147 -0.89384991 0.064687252 12 9 -0.023550138
-1.1711222 -1.2297999 -0.33009958 34 2 -0.023547834
-0.86302435 -0.9059481 0.10946761 21 10 -0.02354553
-1.1665207 -1.2241114 -0.26781586 20 3 -0.023543226
-0.86291772 -0.90520382 0.15355539 23 11 -0.023540922
-0.59456336 -0.62348086 -0.1057826 75 4 -0.023538619
-0.88082504 -0.92334265 0.20211335 44 12 -0.023536315
-0.58585626 -0.61413562 -0.074256696 33 5 -0.023534011
-0.89455521 -0.93740785 0.25186789 13 13 -0.023531707
-0.5681954 -0.59520614 -0.043124832 30 6 -0.023529403
-0.90441686 -0.94707996 0.30233422 16 14 -0.023527099
-0.62711114 -0.65646368 -0.015846785 35 7 -0.023524795
-0.95296323 -0.9972192 0.36959362 11 15 -0.023522491
-0.59068346 -0.6166048 -0.22879605 74 0 -0.023501754
-0.71945715 -0.75076765 0.018150503 28 8 -0.02349945
-1.1651571 -1.2154396 -0.38871542 36 1 -0.023497146
-0.84049273 -0.87645757 0.063640527 12 9 -0.023494842
-1.1686137 -1.2186189 -0.32819149 38 2 -0.023492537
-0.87031937 -0.90724349 0.10999054 21 10 -0.023490235
-1.1680506 -1.2171817 -0.2671901 15 3 -0.023487931
-0.86332297 -0.89932173 0.1530679 22 11 -0.023485627
-0.57886159 -0.60278833 -0.102614 73 4 -0.023483323
-0.88951653 -0.92596078 0.20336483 24 12 -0.023481019
-0.57971466 -0.60346603 -0.073210821 36 5 -0.023478715
-0.90870464 -0.94560421 0.25492084 14 13 -0.023476411
-0.56058055 -0.58314019 -0.042392131 37 6 -0.023474107
-0.90366483 -0.93970346 0.3009845 16 14 -0.023471802
-0.61830807 -0.64274168 -0.015567547 33 7 -0.023469498
-0.96313608 -1.0008465 0.3721818 11 15 -0.023467194
-0.60490352 -0.62705243 -0.23345479 79 0 -0.023446457
-0.74012536 -0.766958 0.018604266 22 8 -0.023444155
-1.1693928 -1.211365 -0.38871542 35 1 -0.023441851
-0.83645862 -0.86648107 0.063117169 10 9 -0.023439547
-1.1619502 -1.2032343 -0.32513854 37 2 -0.023437243
-0.87901777 -0.90993196 0.11068779 21 10 -0.023434939
-0.59850073 -0.61933273 -0.13641086 1 3 -0.023432635
-0.86921644 -0.89915717 0.15355539 22 11 -0.023430331
-0.57809794 -0.5980109 -0.10212652 65 4 -0.023428027
-0.90494108 -0.93578595 0.20618065 19 12 -0.023425722
-0.58597356 -0.60573459 -0.073733754 35 5 -0.023423418
-0.91882628 -0.94948059 0.25682893 13 13 -0.023421114
-0.55427754 -0.57256985 -0.041764095 40 6 -0.02341881
-0.90406525 -0.93390131 0.30008471 16 14 -0.023416506
-0.61069834 -0.6306321 -0.015323212 18 7 -0.023414202
-0.98257953 -1.0142976 0.37839344 11 15 -0.023411898
-0.59755862 -0.61534172 -0.22983132 96 0 -0.023391163
-0.76077831 -0.78314573 0.019058026 27 8 -0.023388859
-1.1652547 -1.1990951 -0.38601601 35 1 -0.023386555
-0.8170566 -0.84078491 0.061442416 10 9 -0.023384251
-1.16046 -1.1937437 -0.32361206 38 2 -0.023381947
-0.87786335 -0.90272689 0.11016486 22 10 -0.023379643
-0.58402216 -0.60035366 -0.13265644 1 3 -0.023377338
-0.87911564 -0.90338302 0.15477408 21 11 -0.023375034
-0.58146226 -0.5975132 -0.10237025 76 4 -0.02337273
-0.90941727 -0.9341954 0.20649351 25 12 -0.023370426
-0.57963884 -0.59522384 -0.072687887 36 5 -0.023368122
-0.92059988 -0.94502205 0.25644732 13 13 -0.023365818
-0.56593066 -0.58074141 -0.0424968 43 6 -0.023363514
-0.91395754 -0.9378764 0.30233422 16 14 -0.02336121
-0.60720277 -0.62287587 -0.015183594 6 7 -0.023358906
-0.96975279 -0.99443668 0.3721818 11 15 -0.023356602
-0.59824508 -0.61197555 -0.22931369 97 0 -0.023335867
-0.77735239 -0.79491562 0.019407077 57 8 -0.023333563
-1.1678621 -1.1938314 -0.38556612 38 1 -0.023331258
-0.8395431 -0.85791254 0.062907822 10 9 -0.023328954
-1.1616654 -1.1870831 -0.32284883 38 2 -0.02332665
-0.88085216 -0.89981085 0.11016486 22 10 -0.023324346
-0.57357091 -0.58571142 -0.12984063 9 3 -0.023322042
-0.895998 -0.91464335 0.15721147 26 11 -0.023319738
-0.58354431 -0.59547997 -0.10237025 72 4 -0.023317434
-0.90990704 -0.92819399 0.20586778 25 12 -0.02331513
-0.57184625 -0.58333898 -0.071467713 26 5 -0.023312826
-0.9223541 -0.94056225 0.25606567 13 13 -0.023310522
-0.56785333 -0.57886153 -0.0424968 43 6 -0.023308218
-0.92268538 -0.9402439 0.30413383 16 14 -0.023305915
-0.97321784 -0.99104583 0.3721818 10 15 -0.023301307
-0.59902257 -0.60850668 -0.22879605 90 0 -0.02328057
-0.77591318 -0.7879228 0.019302363 76 8 -0.023278266
-1.1610812 -1.1786416 -0.38196689 38 1 -0.023275962
-0.85374796 -0.86635727 0.063745201 10 9 -0.023273658
-1.1658024 -1.1830205 -0.32284883 38 2 -0.023271354
-0.88818383 -0.90098715 0.11068779 21 10 -0.02326905
-0.58254707 -0.5907383 -0.13140497 13 3 -0.023266746
-0.88245589 -0.89455193 0.15428659 17 11 -0.023264442
-0.58840805 -0.59626532 -0.10285773 73 4 -0.023262138
-0.92146802 -0.93344682 0.207745 23 12 -0.023259833
-0.56408107 -0.57141399 -0.070247531 14 5 -0.023257531
-0.91597503 -0.92755866 0.25339437 13 13 -0.023255227
-0.56706327 -0.57403404 -0.042287458 44 6 -0.023252923
-0.92870164 -0.93978941 0.30503362 16 14 -0.023250619
-0.98482162 -0.9958843 0.37528762 10 15 -0.023246011
-0.60386312 -0.60915595 -0.22983132 80 0 -0.023225274
-0.78147495 -0.78804934 0.019372171 60 8 -0.02322297
-1.1569542 -1.1662803 -0.37926748 38 1 -0.023220666
-0.8539533 -0.86053646 0.063535862 10 9 -0.023218362
-1.1630104 -1.1719761 -0.32094073 39 2 -0.023216058
-0.89553446 -0.90212327 0.11121072 23 10 -0.023213753
-0.5790379 -0.58309454 -0.13015349 16 3 -0.023211451
-0.88977027 -0.8956911 0.15501782 23 11 -0.023209147
-0.58069104 -0.58435118 -0.10115156 71 4 -0.023206843
-0.9247207 -0.9302246 0.207745 27 12 -0.023204539
-0.58573729 -0.58922356 -0.072687887 12 5 -0.023202235
-0.93028212 -0.93549246 0.25644732 13 13 -0.023199931
-0.5606122 -0.5635553 -0.041659426 46 6 -0.023197627
-0.92647785 -0.93101668 0.30323401 16 14 -0.023195323
-1.0019236 -1.0061295 0.38046399 10 15 -0.023190714
-0.61963421 -0.62071651 -0.2350077 70 0 -0.023169978
-0.79128581 -0.79239178 0.019546695 53 8 -0.023167673
-1.1596409 -1.160856 -0.37881759 39 1 -0.023165371
-0.87248152 -0.8730908 0.064687252 11 9 -0.023163067
-1.1615433 -1.1623544 -0.31941426 39 2 -0.023160763
-0.89726925 -0.89758289 0.11103641 18 10 -0.023158459
-0.57827616 -0.57827616 -0.12952776 19 3 -0.023156155
-0.89991099 -0.89959693 0.15623651 23 11 -0.023153851
-0.57851481 -0.57811111 -0.10042035 77 4 -0.023151547
-0.93075722 -0.92978311 0.20837073 28 12 -0.023149243
-0.56382781 -0.56323767 -0.06972459 7 5 -0.023146939
-0.93909872 -0.93778849 0.25797379 15 13 -0.023144634
-0.55833542 -0.55736184 -0.04134541 41 6 -0.02314233
-0.93799847 -0.93603611 0.30593342 16 14 -0.023140026
-1.0013258 -0.99853361 0.37891111 10 15 -0.023135418
-0.6122098 -0.60901278 -0.23138423 77 0 -0.023114683
-0.80113685 -0.79667485 0.019721219 45 8 -0.023112379
-1.1581579 -1.1513054 -0.37701797 39 1 -0.023110075
-0.89677423 -0.89115757 0.066257328 13 9 -0.023107771
-1.1572378 -1.1499898 -0.31712458 45 2 -0.023105467
-0.90463769 -0.89865756 0.11155935 18 10 -0.023103163
-0.58449626 -0.58042985 -0.13046636 24 3 -0.023100859
-0.91008943 -0.90344286 0.15745521 25 11 -0.023098554
-0.58052933 -0.57608819 -0.10042035 69 4 -0.02309625
-0.9311924 -0.92374611 0.207745 26 12 -0.023093946
-0.55032641 -0.54573542 -0.067807168 7 5 -0.023091642
-0.95491266 -0.9469465 0.26140836 14 13 -0.023089338
-0.57729864 -0.57228261 -0.04260147 37 6 -0.023087034
-0.93849182 -0.93001282 0.30503362 16 14 -0.02308473
-1.0006872 -0.99095416 0.37735817 10 15 -0.023080122
-0.61031425 -0.60269248 -0.22983132 72 0 -0.023059387
-0.8067587 -0.79668367 0.019791029 49 8 -0.023057083
-1.1635562 -1.1486249 -0.37746787 42 1 -0.023054779
-0.89987952 -0.88802177 0.066257328 13 9 -0.023052474
-1.1558546 -1.1402253 -0.3155981 47 2 -0.02305017
-0.900832 -0.88834131 0.11068779 18 10 -0.023047866
-0.58099264 -0.57273656 -0.12921488 34 3 -0.023045562
-0.92030615 -0.90722829 0.1586739 20 11 -0.023043258
-0.58253676 -0.57405823 -0.10042035 81 4 -0.023040954
-0.94144726 -0.92742163 0.20930934 23 12 -0.02303865
-0.54371047 -0.53542316 -0.0667613 8 5 -0.023036346
-0.94298714 -0.92828983 0.25721052 13 13 -0.023034042
-0.57085079 -0.56175768 -0.041973442 45 6 -0.023031738
-0.94745111 -0.9320333 0.30683324 16 14 -0.023029434
-1.0124047 -0.99558228 0.38046399 10 15 -0.023024827
-0.61517274 -0.60326368 -0.2308666 70 0 -0.02300409
-0.81252903 -0.79652125 0.019860838 52 8 -0.023001786
-1.1580157 -1.1348046 -0.37431854 41 1 -0.022999482
-0.91026193 -0.89170593 0.066780686 12 9 -0.022997178
-1.1612301 -1.1375579 -0.31597972 48 2 -0.022994874
-0.90819794 -0.88937336 0.11121072 18 10 -0.02299257
-0.57310718 -0.561032 -0.1270248 40 3 -0.022990266
-0.91936857 -0.89968407 0.15794268 20 11 -0.022987962
-0.58463669 -0.57191938 -0.10042035 77 4 -0.022985658
-0.94625258 -0.92534566 0.2096222 14 12 -0.022983354
-0.57976371 -0.56695414 -0.070944771 6 5 -0.022981049
-0.95043319 -0.92910993 0.25835541 13 13 -0.022978747
-0.56709456 -0.55417782 -0.041554753 40 6 -0.022976443
-0.95348674 -0.93144381 0.30773303 16 14 -0.022974139
-1.0188116 -0.99456388 0.38149929 10 15 -0.022969531
-0.61589086 -0.59976494 -0.23034896 63 0 -0.022948794
-0.82103622 -0.79925942 0.020000458 64 8 -0.02294649
-1.1549866 -1.1239603 -0.37206903 42 1 -0.022944186
-0.89618975 -0.87181103 0.065524623 12 9 -0.022941882
-1.1623793 -1.1307596 -0.31521648 48 2 -0.022939578
-0.92272395 -0.89730966 0.11260521 16 10 -0.022937274
-0.57789481 -0.56178206 -0.12765054 42 3 -0.02293497
-0.92535079 -0.89923632 0.15843016 16 11 -0.022932667
-0.57523876 -0.55880946 -0.098470435 86 4 -0.022930363
-0.95231104 -0.92478967 0.21024795 13 12 -0.022928059
-0.58173907 -0.56492704 -0.070944771 6 5 -0.022925755
-0.95789665 -0.92988902 0.25950024 14 13 -0.022923451
-0.5718922 -0.5549767 -0.041764095 40 6 -0.022921147
-0.95393461 -0.92539632 0.30683324 16 14 -0.022918843
-1.0222771 -0.99100149 0.38149929 11 15 -0.022914235
-0.63464528 -0.61372674 -0.23656061 53 0 -0.022893498
-0.82813418 -0.80055839 0.020105172 58 8 -0.022891194
-1.1518962 -1.1131507 -0.36981952 39 1 -0.02288889
-0.89333093 -0.86328262 0.065105937 15 9 -0.022886585
-1.1521993 -1.1130548 -0.31140029 49 2 -0.022884283
-0.93301642 -0.90100372 0.11347678 15 10 -0.022881979
-0.57558864 -0.55564547 -0.12671193 52 3 -0.022879675
-0.96133834 -0.92770517 0.16403615 16 11 -0.022877371
-0.57861441 -0.5581764 -0.09871418 86 4 -0.022875067
-0.95963746 -0.92574084 0.21118654 13 12 -0.022872763
-0.95972359 -0.92517692 0.25911862 21 13 -0.022868155
-0.5810166 -0.55990672 -0.042287458 33 6 -0.02286585
-0.96277291 -0.92746878 0.30863285 16 14 -0.022863546
-1.0394732 -1.0010064 0.38667569 10 15 -0.022858938
-0.62563652 -0.6008029 -0.23241952 60 0 -0.022838203
-0.82934213 -0.79642272 0.020070268 51 8 -0.022835899
-1.149958 -1.1039267 -0.36801991 39 1 -0.022833595
-0.896339 -0.86015904 0.065105937 15 9 -0.022831291
-1.147577 -1.1008714 -0.30911061 49 2 -0.022828987
-0.93327981 -0.89498329 0.11312816 18 10 -0.022826683
-0.58027953 -0.55646813 -0.12733766 53 3 -0.022824379
-0.97157431 -0.93138093 0.16525485 14 11 -0.022822075
-0.57616252 -0.55213416 -0.097982958 86 4 -0.022819771
-0.96286315 -0.92238545 0.21118654 12 12 -0.022817466
-0.96703994 -0.92606306 0.26026347 30 13 -0.022812858
-0.58864117 -0.56350142 -0.042706143 26 6 -0.022810554
-0.97569871 -0.93370229 0.31178215 24 14 -0.02280825
-1.0317913 -0.98669046 0.38253456 10 15 -0.022803642
-0.6262275 -0.59739161 -0.23190187 53 0 -0.022782907
-0.82632846 -0.78800267 0.01993065 44 8 -0.022780603
-1.1566256 -1.1025951 -0.36891973 39 1 -0.022778299
-0.90930587 -0.86682862 0.065838635 11 9 -0.022775995
-1.1483785 -1.0943513 -0.30834734 48 2 -0.022773691
-0.93335736 -0.88913494 0.11277953 19 10 -0.022771386
-0.5736354 -0.54626566 -0.12546046 59 3 -0.022769082
-0.97481948 -0.92798382 0.16525485 14 11 -0.022766778
-0.58374143 -0.5556953 -0.098957919 80 4 -0.022764474
-0.96877867 -0.92191094 0.2118123 11 12 -0.02276217
-0.96315348 -0.91591704 0.25835541 48 13 -0.022757562
-0.58481431 -0.5559389 -0.042287458 22 6 -0.022755258
-0.98867655 -0.93986022 0.31493148 38 14 -0.022752954
-1.0308559 -0.97927183 0.38098165 9 15 -0.022748346
-0.62960732 -0.59664047 -0.23241952 45 0 -0.022727611
-0.83329213 -0.78938371 0.020035362 48 8 -0.022725306
-1.1432959 -1.0826741 -0.36352089 41 1 -0.022723002
-0.9150759 -0.86655515 0.066047981 11 9 -0.022720698
-1.1462983 -1.0851383 -0.30682087 49 2 -0.022718394
-0.93774784 -0.88740432 0.11295383 16 10 -0.02271609
-0.56970364 -0.53893036 -0.12420898 57 3 -0.022713786
-0.97500664 -0.92201847 0.16476737 13 11 -0.022711482
-0.58413857 -0.55239272 -0.09871418 78 4 -0.022709178
-0.97757256 -0.92412126 0.21306378 10 12 -0.022706874
-0.96190357 -0.90867394 0.25721052 50 13 -0.022702266
-0.57213354 -0.54028374 -0.041240737 17 6 -0.022699963
-1.0045394 -0.94861817 0.3189806 52 14 -0.022697659
-1.0439328 -0.98512906 0.38460511 9 15 -0.022693051
-0.63580233 -0.59852177 -0.23397243 28 0 -0.022672314
-0.8475554 -0.79757965 0.0203146 37 8 -0.02267001
-1.1412023 -1.0735358 -0.36172128 39 1 -0.022667706
-0.89466852 -0.84161997 0.064373232 15 9 -0.022665402
-1.152751 -1.084021 -0.30758414 48 2 -0.022663098
-0.9493956 -0.89247763 0.11399971 13 10 -0.022660794
-0.57148772 -0.53703815 -0.12420898 63 3 -0.02265849
-0.97661197 -0.91742092 0.16452362 12 11 -0.022656186
-0.5758394 -0.54093856 -0.097008012 89 4 -0.022653881
-0.97631168 -0.91681767 0.21212517 9 12 -0.022651579
-0.97063816 -0.91085291 0.258737 39 13 -0.022646971
-0.57537872 -0.53974992 -0.04134541 11 6 -0.022644667
-1.004837 -0.94261521 0.31808078 56 14 -0.022642363
-1.0486029 -0.98298359 0.38512275 9 15 -0.022637755
-0.64483881 -0.6030075 -0.23656061 19 0 -0.022617018
-0.85603893 -0.80022693 0.02045422 9 8 -0.022614714
-1.1419084 -1.0670844 -0.36082149 41 1 -0.02261241
-0.88140249 -0.82364827 0.063221842 79 9 -0.022610106
-1.1434275 -1.0681307 -0.30414957 47 2 -0.022607803
-0.94943732 -0.88660491 0.11365108 10 10 -0.022605497
-0.57615346 -0.53783602 -0.12483472 63 3 -0.022603195
-0.97964889 -0.91417724 0.16452362 7 11 -0.022600891
-0.57472736 -0.53631729 -0.096520528 87 4 -0.022598587
-0.97501302 -0.90953279 0.21118654 5 12 -0.022596283
-0.98226964 -0.91566116 0.26102671 11 13 -0.022591675
-0.57716542 -0.53783894 -0.04134541 11 6 -0.022589371
-1.0136601 -0.944592 0.3198804 36 14 -0.022587067
-0.7301361 -0.68014848 -0.017417502 2 7 -0.022584762
-1.0617533 -0.9887166 0.38874623 7 15 -0.022582458
-0.63440466 -0.58870047 -0.23190187 22 0 -0.022562265
-0.87083369 -0.8078137 0.020733459 15 8 -0.022559961
-1.1417105 -1.0587168 -0.35947177 42 1 -0.022557657
-0.88470161 -0.8201037 0.063221842 56 9 -0.022555353
-1.1432009 -1.0597283 -0.30300471 49 2 -0.022553049
-0.94991189 -0.88024449 0.11330246 2 10 -0.022550745
-0.58111268 -0.53830457 -0.12546046 59 3 -0.022548441
-0.57833242 -0.53535438 -0.096764266 78 4 -0.022543833
-0.97140712 -0.89890313 0.2096222 1 12 -0.022541529
-0.99874932 -0.92388099 0.26446128 2 13 -0.022536922
-0.56749499 -0.52477092 -0.040508036 12 6 -0.022534618
-1.0331849 -0.95506614 0.32482934 10 14 -0.022532314
-1.0557805 -0.97527033 0.38512275 1 15 -0.022527706
-0.63361442 -0.58386421 -0.2308666 23 0 -0.022506969
-0.86188185 -0.79393035 0.02045422 48 8 -0.022504665
-1.1496997 -1.0586854 -0.36082149 41 1 -0.022502361
-0.903723 -0.83188981 0.064373232 29 9 -0.022500057
-1.1440042 -1.053072 -0.30224147 48 2 -0.022497753
-0.57135737 -0.52557421 -0.1229575 64 3 -0.022493144
-0.58165926 -0.53467566 -0.097008012 85 4 -0.022488538
-0.56638128 -0.52008492 -0.040298689 12 6 -0.022479322
-1.026463 -0.94222915 0.32168001 1 14 -0.022477018
-0.63849914 -0.58425719 -0.23190187 22 0 -0.022451673
-0.85579497 -0.78281885 0.020244792 69 8 -0.022449369
-1.1404449 -1.0428303 -0.35677236 38 1 -0.022447065
-0.9066214 -0.82873011 0.064373232 19 9 -0.022444762
-1.1476732 -1.0490723 -0.30224147 49 2 -0.022442458
-0.56589603 -0.51691532 -0.12139316 63 3 -0.02243785
-0.58498818 -0.53398031 -0.097251743 80 4 -0.022433242
-0.57704824 -0.52617908 -0.040926725 12 6 -0.022424025
-0.68435901 -0.62359262 -0.01616093 4 7 -0.022419417
-0.65197271 -0.59241831 -0.23604298 13 0 -0.022396378
-0.86148268 -0.78251588 0.0203146 45 8 -0.022394074
-1.1267655 -1.0231229 -0.35137355 38 1 -0.02239177
-0.93169206 -0.84569579 0.065943316 5 9 -0.022389466
-1.1426061 -1.0371423 -0.29995176 48 2 -0.022387162
-0.57354951 -0.52024543 -0.12264463 63 3 -0.022382554
-0.57949448 -0.52526933 -0.096033052 90 4 -0.022377945
-0.55519307 -0.50271261 -0.039251972 20 6 -0.022368729
-0.6657725 -0.60241634 -0.015672261 5 7 -0.022364121
-0.64686537 -0.58366793 -0.23345479 14 0 -0.022341082
-0.88648242 -0.79959422 0.020838173 13 8 -0.022338778
-1.1361189 -1.0244036 -0.35317314 38 1 -0.022336474
-0.98047394 -0.8840633 0.06918814 7 9 -0.02233417
-1.1374695 -1.0252612 -0.29766205 48 2 -0.022331866
-0.5782975 -0.52088445 -0.12327038 63 3 -0.022327257
-0.57689822 -0.51925921 -0.095301837 85 4 -0.022322649
-0.4551487 -0.40967396 0.096989378 5 12 -0.022320345
-0.56734073 -0.51011932 -0.039984677 19 6 -0.022313433
-0.62314969 -0.5601024 -0.014625117 7 7 -0.022308825
-0.65321517 -0.5852738 -0.2350077 14 0 -0.022285786
-0.88466108 -0.79264683 0.020733459 10 8 -0.022283481
-1.1380581 -1.0193303 -0.35272324 39 1 -0.022281177
-1.0103377 -0.90461618 0.071072236 10 9 -0.022278873
-1.1337271 -1.0147376 -0.29575396 46 2 -0.022276569
-0.49444324 -0.44239414 0.058045723 8 10 -0.022274265
-0.57707733 -0.51632947 -0.12264463 59 3 -0.022271961
-0.47643375 -0.42613059 0.078483865 10 11 -0.022269657
-0.57121778 -0.51072764 -0.094083138 85 4 -0.022267353
-0.4521575 -0.4041335 0.096050769 5 12 -0.022265049
-0.57051891 -0.50956553 -0.040089346 13 6 -0.022258138
-0.61614954 -0.54993463 -0.014415688 7 7 -0.02225353
-0.64649403 -0.57539815 -0.23190187 15 0 -0.022230489
-0.87547064 -0.77892047 0.02045422 9 8 -0.022228185
-1.1386971 -1.0127614 -0.35182345 39 1 -0.022225881
-1.0105041 -0.89842981 0.070862897 10 9 -0.022223577
-1.1326842 -1.007059 -0.2946091 50 2 -0.022221273
-0.49590757 -0.44075209 0.058045723 8 10 -0.022218969
-0.57001579 -0.50643986 -0.12076741 67 3 -0.022216665
-0.45713925 -0.40600991 0.075071529 11 11 -0.022214361
-0.57893485 -0.51400238 -0.095058098 83 4 -0.022212058
-0.44617841 -0.39599651 0.09448643 10 12 -0.022209754
-0.57827109 -0.51287192 -0.040508036 12 6 -0.022202842
-0.62405151 -0.5530858 -0.014555307 14 7 -0.022198234
-0.65139359 -0.57569677 -0.23293714 14 0 -0.022175193
-0.88567722 -0.78247958 0.020628745 8 8 -0.022172889
-1.1349223 -1.0023301 -0.34957394 38 1 -0.022170585
-1.0076451 -0.88960952 0.070444204 9 9 -0.022168281
-1.1391362 -1.0056977 -0.29537234 49 2 -0.022165976
-0.56289244 -0.49660575 -0.11889021 63 3 -0.02216137
-0.47641942 -0.42016801 0.077996388 21 11 -0.022159066
-0.58221447 -0.5132913 -0.095301837 81 4 -0.022156762
-0.44014806 -0.38790619 0.092922084 16 12 -0.022154458
-0.4802345 -0.42308581 0.12440747 8 13 -0.02214985
-0.55307829 -0.4870899 -0.03862394 21 6 -0.022147546
-0.61096686 -0.53769296 -0.014206259 30 7 -0.022142937
-0.66065919 -0.57979077 -0.23552534 13 0 -0.022119896
-0.89591932 -0.78597701 0.020803269 7 8 -0.022117594
-1.1266931 -0.98808318 -0.34597474 42 1 -0.02211529
-0.94301671 -0.8270033 0.065733969 9 9 -0.022112986
-1.1411635 -1.0004214 -0.29499072 47 2 -0.022110682
-0.56759423 -0.4972412 -0.11951595 61 3 -0.022106074
-0.45398897 -0.39757743 0.074096568 11 11 -0.02210377
-0.57056022 -0.4994877 -0.093108192 87 4 -0.022101466
-0.441432 -0.38644448 0.092922084 16 12 -0.022099162
-0.51421624 -0.44984552 0.13280307 7 13 -0.022094553
-0.55778223 -0.48778579 -0.038833283 42 6 -0.022092249
-0.62780184 -0.5488252 -0.014555307 28 7 -0.022087641
-0.66850477 -0.58255786 -0.23759589 13 0 -0.022064602
-0.88646019 -0.77249157 0.020524029 7 8 -0.022062298
-1.1284941 -0.98306137 -0.34552482 41 1 -0.022059994
-0.90824246 -0.79091591 0.063117169 13 9 -0.02205769
-1.1313214 -0.98483044 -0.29155618 50 2 -0.022055386
-0.57222033 -0.49794972 -0.12014168 63 3 -0.022050777
-0.45230943 -0.393464 0.073609091 11 11 -0.022048473
-0.57071543 -0.49629039 -0.092864446 87 4 -0.022046169
-0.42936075 -0.37323752 0.090106264 11 12 -0.022043865
-0.47124785 -0.40950528 0.12135453 9 13 -0.022039257
-0.55487335 -0.48200405 -0.038519271 57 6 -0.022036953
-0.62065303 -0.53876537 -0.014345878 30 7 -0.022032345
-0.64414144 -0.5575794 -0.2282784 16 0 -0.022009306
-0.88612682 -0.76677579 0.02045422 7 8 -0.022007002
-1.1333926 -0.98039138 -0.34597474 42 1 -0.022004697
-0.91250849 -0.789047 0.063221842 2 9 -0.022002393
-1.1286409 -0.97593683 -0.2900297 50 2 -0.022000089
-0.57694429 -0.49853244 -0.12076741 63 3 -0.021995481
-0.46870267 -0.40485895 0.076046474 10 11 -0.021993177
-0.57394695 -0.49559242 -0.093108192 82 4 -0.021990873
-0.43514693 -0.37560886 0.091044866 5 12 -0.021988569
-0.49645677 -0.42837897 0.12746042 8 13 -0.021983961
-0.56260192 -0.4852823 -0.038937956 56 6 -0.021981657
-0.4412801 -0.38049984 0.13452074 15 14 -0.021979354
-0.61798584 -0.53267884 -0.014241164 38 7 -0.02197705
-0.64325023 -0.55269682 -0.22724313 17 0 -0.021954009
-0.84329653 -0.7245816 0.019407077 7 8 -0.021951705
-1.1412427 -0.98023832 -0.34732443 39 1 -0.021949401
-0.89555806 -0.76894277 0.061861105 1 9 -0.021947097
-1.1381694 -0.97690839 -0.29155618 48 2 -0.021944793
-0.56677246 -0.48612607 -0.11826447 60 3 -0.021940185
-0.46107242 -0.39546615 0.074584045 11 11 -0.021937881
-0.57567328 -0.49358609 -0.093108192 87 4 -0.021935577
-0.43645543 -0.3740876 0.091044866 5 12 -0.021933272
-0.44434437 -0.38058031 0.11372217 10 13 -0.021928666
-0.57044524 -0.48841298 -0.039356641 27 6 -0.021926362
-0.44267184 -0.37887982 0.13452074 15 14 -0.021924058
-0.6228801 -0.53311884 -0.014310974 37 7 -0.021921754
-0.66575068 -0.56800216 -0.23449005 14 0 -0.021898713
-0.75313598 -0.64233005 0.017277883 10 8 -0.021896409
-1.1314814 -0.96466994 -0.34327531 44 1 -0.021894105
-0.90735584 -0.77358669 0.062489137 1 9 -0.021891801
-1.1355957 -0.96783555 -0.2900297 49 2 -0.021889497
-0.56245041 -0.47902149 -0.11701299 66 3 -0.02188489
-0.46251875 -0.39377359 0.074584045 11 11 -0.021882586
-0.57899022 -0.49275935 -0.093351923 71 4 -0.021880282
-0.44377592 -0.37768295 0.092296347 5 12 -0.021877978
-0.55388671 -0.47089478 -0.038100582 22 6 -0.021871066
-0.62321335 -0.52964646 -0.014276069 37 7 -0.021866458
-0.65151519 -0.55193877 -0.22879605 16 0 -0.021843417
-0.70491105 -0.59717369 0.016126024 24 8 -0.021841113
-1.1287255 -0.95587528 -0.34147573 44 1 -0.02183881
-0.88566071 -0.74976712 0.060814388 1 9 -0.021836506
-1.1359698 -0.96132904 -0.28926644 50 2 -0.021834202
-0.56705207 -0.4797053 -0.11763873 60 3 -0.021829594
-0.56849325 -0.4805842 -0.091402017 71 4 -0.021824986
-0.42396858 -0.35828125 0.08791618 5 12 -0.021822682
-0.55697119 -0.47034401 -0.038205251 21 6 -0.021815769
-0.63117146 -0.53262639 -0.014415688 36 7 -0.021811161
-0.66221082 -0.55723822 -0.23190187 15 0 -0.021788122
-0.68709749 -0.57797545 0.015672261 42 8 -0.021785818
-1.1290724 -0.94942081 -0.3405759 44 1 -0.021783514
-0.87604159 -0.73638982 0.05997701 1 9 -0.02178121
-1.1271288 -0.9474507 -0.28621352 50 2 -0.021778906
-0.56872308 -0.477723 -0.11763873 60 3 -0.021774298
-0.5716877 -0.47987324 -0.091645755 80 4 -0.021769689
-0.44640183 -0.37457561 0.092296347 5 12 -0.021767385
-0.56779218 -0.47609663 -0.038833283 14 6 -0.021760473
-0.61769933 -0.51757687 -0.01406664 47 7 -0.021755865
-0.65822184 -0.54996878 -0.22983132 16 0 -0.021732826
-0.6937151 -0.57941914 0.015776975 39 8 -0.021730522
-1.1323797 -0.94547379 -0.3405759 42 1 -0.021728218
-0.89700669 -0.74868518 0.061233077 1 9 -0.021725914
-1.1228927 -0.93722063 -0.28430542 52 2 -0.021723609
-0.57342118 -0.47826535 -0.11826447 63 3 -0.021719001
-0.57335937 -0.47787458 -0.091645755 80 4 -0.021714393
-0.42645952 -0.35531265 0.08791618 5 12 -0.021712089
-0.57712513 -0.48050138 -0.039356641 20 6 -0.021705177
-0.61642766 -0.51285976 -0.01399683 48 7 -0.021700568
-0.67351872 -0.55876917 -0.23449005 14 0 -0.021677529
-0.6834197 -0.56678164 0.015497738 43 8 -0.021675225
-1.1386734 -0.94400305 -0.34147573 44 1 -0.021672921
-0.88423663 -0.73280507 0.060186356 1 9 -0.021670617
-1.1306922 -0.9370535 -0.28545028 48 2 -0.021668313
-0.56595868 -0.46870121 -0.11638726 66 3 -0.021663705
-0.57655334 -0.47713584 -0.091889486 65 4 -0.021659097
-0.57572025 -0.47593877 -0.039147299 20 6 -0.021649882
-0.62592262 -0.51707262 -0.014171354 46 7 -0.021645274
-0.66353655 -0.54658824 -0.23034896 15 0 -0.021622233
-0.68539387 -0.56439275 0.015497738 43 8 -0.021619929
-1.1284206 -0.92887604 -0.3374266 50 1 -0.021617625
-0.89604282 -0.73732823 0.060814388 1 9 -0.021615321
-1.1309246 -0.93060571 -0.28468704 43 2 -0.021613017
-0.55843663 -0.45919505 -0.11451004 64 3 -0.021608409
-0.57668155 -0.47386026 -0.091645755 60 4 -0.021603802
-0.56657141 -0.46505606 -0.038414594 14 6 -0.021594586
-0.64782333 -0.53137106 -0.014625117 42 7 -0.021589978
-0.6699264 -0.54793811 -0.23190187 15 0 -0.021566937
-0.68890792 -0.56326258 0.015532642 43 8 -0.021564633
-1.1150584 -0.91136569 -0.33247766 49 1 -0.021562329
-0.86458445 -0.70639521 0.058511604 1 9 -0.021560024
-1.1326456 -0.92541045 -0.28430542 31 2 -0.021557722
-0.5661568 -0.46223992 -0.11576151 64 3 -0.021553114
-0.56756526 -0.46306002 -0.089939587 73 4 -0.021548506
-0.57283592 -0.46686086 -0.03872861 28 6 -0.02153929
-0.63882035 -0.52026713 -0.014380784 36 7 -0.021534681
-0.68833101 -0.55899256 -0.23759589 13 0 -0.021511642
-0.69552743 -0.5646354 0.015637357 42 8 -0.021509338
-1.1167197 -0.90623993 -0.33202776 50 1 -0.021507034
-0.8763513 -0.71092254 0.059139632 1 9 -0.02150473
-1.1251963 -0.91279316 -0.28163409 31 2 -0.021502426
-0.5600943 -0.45404127 -0.11419717 62 3 -0.021497818
-0.55992323 -0.45357883 -0.08847715 82 4 -0.02149321
-0.58843565 -0.47616568 -0.039670657 19 6 -0.021483993
-0.62508321 -0.50546038 -0.014031734 31 7 -0.021479385
-0.68275869 -0.55052346 -0.2350077 14 0 -0.021456346
-0.69749403 -0.5622043 0.015637357 63 8 -0.021454042
-1.1244287 -0.90600431 -0.33337748 56 1 -0.021451738
-0.89749295 -0.72289336 0.060395699 1 9 -0.021449434
-1.1084993 -0.89285016 -0.27667305 22 2 -0.02144713
-0.57090884 -0.45951492 -0.11607439 62 3 -0.021442521
-0.57387787 -0.46157464 -0.090427063 73 4 -0.021437913
-0.5838663 -0.46910498 -0.039251972 13 6 -0.021428697
-0.63464028 -0.50953496 -0.014206259 30 7 -0.021424089
-0.6786437 -0.54330754 -0.23293714 14 0 -0.02140105
-0.68540084 -0.54852068 0.015323212 81 8 -0.021398745
-1.1230193 -0.89842159 -0.33202776 55 1 -0.021396441
-0.89689112 -0.71726149 0.060186356 1 9 -0.021394137
-1.1146755 -0.89142799 -0.27743632 13 2 -0.021391833
-0.5539915 -0.44272077 -0.11231996 61 3 -0.021387225
-0.57703674 -0.46080735 -0.090670794 61 4 -0.021382617
-0.58550012 -0.46706414 -0.039251972 13 6 -0.021373402
-0.66299766 -0.52850652 -0.014799641 20 7 -0.021368794
-0.67297471 -0.53492475 -0.23034896 15 0 -0.021345753
-0.68261451 -0.54239279 0.015218498 99 8 -0.021343449
-1.1124148 -0.88358778 -0.32797864 51 1 -0.021341145
-0.89938962 -0.71412617 0.060186356 1 9 -0.021338841
-1.1085554 -0.88020635 -0.27514657 10 2 -0.021336537
-0.55862838 -0.44324002 -0.1129457 58 3 -0.021331929
-0.57241988 -0.45385709 -0.089695849 68 4 -0.02132732
-0.58086425 -0.46005732 -0.038833283 14 6 -0.021318106
-0.67424643 -0.53363526 -0.015009069 19 7 -0.021313498
-0.68545324 -0.54094988 -0.23397243 14 0 -0.021290457
-0.68607354 -0.5412454 0.015253403 100 8 -0.021288153
-1.1139623 -0.87849271 -0.32752874 52 1 -0.021285849
-0.88619196 -0.69861734 0.059139632 1 9 -0.021283545
-0.59666771 -0.47037482 -0.14768617 40 2 -0.021281242
-0.55862051 -0.44006479 -0.11263283 64 3 -0.021276634
-0.57088095 -0.44940057 -0.089208372 69 4 -0.021272026
-0.5761866 -0.45308861 -0.038414594 14 6 -0.02126281
-0.67610508 -0.53127843 -0.015009069 19 7 -0.021258201
-0.68429589 -0.53617108 -0.23293714 14 0 -0.020842552
-0.69110721 -0.54131335 0.015323212 100 8 -0.020840248
-1.1062816 -0.86618888 -0.32437941 48 1 -0.020837944
-0.90749854 -0.71029204 0.060395699 1 9 -0.02083564
-0.56429362 -0.44166824 -0.13929057 7 2 -0.020833336
-0.56482118 -0.44176307 -0.11357144 58 3 -0.020828728
-0.55993372 -0.43762571 -0.087258458 67 4 -0.020824119
-0.58248752 -0.4547618 -0.03872861 28 6 -0.020814905
-0.73156124 -0.57073623 -0.016195834 27 7 -0.020810297
-0.67853934 -0.5278483 -0.23034896 15 0 -0.020787256
-0.68509966 -0.53275979 0.015148689 99 8 -0.020784952
-1.1123754 -0.86471426 -0.32527924 49 1 -0.020782648
-0.90997237 -0.70711988 0.060395699 1 9 -0.020780344
-0.55343014 -0.4300586 -0.13623764 8 2 -0.020778039
-0.56323928 -0.43736586 -0.1129457 58 3 -0.020773431
-0.57400453 -0.44540402 -0.089208372 64 4 -0.020768825
-0.59827858 -0.46373799 -0.039670657 13 6 -0.020759609
-0.73038709 -0.56573027 -0.016126024 28 7 -0.020755
-0.67273307 -0.51957226 -0.22776078 17 0 -0.020731959
-0.68695515 -0.53036505 0.015148689 90 8 -0.020729655
-1.104588 -0.85249168 -0.32212991 50 1 -0.020727351
-0.89345902 -0.68929917 0.059139632 1 9 -0.020725049
-0.5580368 -0.43052259 -0.13700087 16 2 -0.020722745
-0.55850482 -0.43057275 -0.11169422 59 3 -0.020718137
-0.57870096 -0.44582057 -0.089695849 63 4 -0.020713529
-0.60305941 -0.46408293 -0.039880004 6 6 -0.020704312
-0.75772053 -0.58268106 -0.016684501 23 7 -0.020699704
-0.68527395 -0.52544934 -0.23138423 23 0 -0.020676665
-0.68880236 -0.52796394 0.015148689 82 8 -0.020674361
-1.0812603 -0.82848167 -0.31448159 46 1 -0.020672057
-0.87683284 -0.67160243 0.057883576 1 9 -0.020669753
-0.55641913 -0.42618436 -0.13623764 8 2 -0.020667449
-0.55059248 -0.42141682 -0.10981701 65 3 -0.02066284
-0.58025354 -0.44379792 -0.089695849 63 4 -0.020658232
-0.60467553 -0.46197516 -0.039880004 6 6 -0.020649016
-0.78200197 -0.59702092 -0.017173167 18 7 -0.020644408
-0.69017822 -0.52539432 -0.23241952 22 0 -0.020621369
-0.69223249 -0.52676725 0.015183594 66 8 -0.020619065
-1.0453706 -0.79520667 -0.30323401 50 1 -0.02061676
-0.89824951 -0.68304491 0.059139632 1 9 -0.020614456
-0.56102884 -0.42661631 -0.13700087 24 2 -0.020612152
-0.55520594 -0.42188245 -0.11044274 59 3 -0.020607544
-0.56124645 -0.4261637 -0.086527243 63 4 -0.020602936
-0.60628444 -0.45986161 -0.039880004 6 6 -0.02059372
-0.80001765 -0.60636681 -0.017522216 21 7 -0.020589111
-0.69200808 -0.52298194 -0.23241952 22 0 -0.020566072
-0.6956625 -0.52555329 0.015218498 61 8 -0.020563768
-1.0154831 -0.76688993 -0.29378608 52 1 -0.020561464
-0.88150001 -0.66546482 0.057883576 1 9 -0.02055916
-0.53744429 -0.40572917 -0.13089497 17 2 -0.020556856
-0.55352116 -0.41756269 -0.10981701 59 3 -0.020552248
-0.56590092 -0.42659187 -0.08701472 67 4 -0.02054764
-0.59831315 -0.45053381 -0.039251972 6 6 -0.020538425
-0.79573798 -0.5987612 -0.017382598 22 7 -0.020533817
-0.70001036 -0.5252009 -0.23449005 21 0 -0.020510776
-0.70549148 -0.5291208 0.015393022 62 8 -0.020508472
-0.95266765 -0.71424359 -0.27489018 37 1 -0.020506168
-0.90299618 -0.67675728 0.059139632 1 9 -0.020503864
-0.54671234 -0.40973768 -0.13280307 34 2 -0.02050156
-0.56129986 -0.4203645 -0.11106849 61 3 -0.020496951
-0.56420797 -0.4222351 -0.086527243 69 4 -0.020492345
-0.61267954 -0.45800942 -0.040089346 6 6 -0.020483129
-0.78660887 -0.58760267 -0.017138263 28 7 -0.020478521
-0.69719148 -0.51929218 -0.23293714 14 0 -0.02045548
-0.70091861 -0.52187788 0.015253403 52 8 -0.020453176
-0.902004 -0.67135394 -0.25959352 52 1 -0.020450871
-0.89253378 -0.66406357 0.058302261 1 9 -0.020448567
-0.54813921 -0.4078269 -0.13280307 43 2 -0.020446263
-0.55325228 -0.41133103 -0.10919127 59 3 -0.020441657
-0.5688653 -0.42263073 -0.08701472 61 4 -0.020437049
-0.61427456 -0.45586798 -0.040089346 6 6 -0.020427832
-0.787049 -0.58366215 -0.017103357 26 7 -0.020423224
-0.69278669 -0.51226091 -0.2308666 15 0 -0.020400183
-0.69951987 -0.5170508 0.015183594 49 8 -0.020397881
-0.84008187 -0.62072098 -0.24114752 27 1 -0.020395577
-0.87235487 -0.64433128 0.056836855 1 9 -0.020393273
-0.5511387 -0.40707734 -0.13318469 51 2 -0.020390969
-0.54673785 -0.40353215 -0.10762692 55 3 -0.020386361
-0.57992256 -0.42771202 -0.08847715 60 4 -0.020381752
-0.59013414 -0.43476659 -0.038414594 7 6 -0.020372536
-0.79230231 -0.58328229 -0.017173167 25 7 -0.020367928
-0.71014392 -0.52127093 -0.23604298 13 0 -0.020344889
-0.70776922 -0.51933801 0.015323212 46 8 -0.020342585
-0.81553048 -0.59819078 -0.23349921 39 1 -0.020340281
-0.87459868 -0.64128214 0.056836855 1 9 -0.020337977
-0.54622334 -0.40050745 -0.13165821 53 2 -0.020335672
-0.55451703 -0.4062911 -0.1088784 53 3 -0.020331064
-0.56859851 -0.41630375 -0.086527243 51 4 -0.020326456
-0.60454506 -0.44213632 -0.039251972 6 6 -0.02031724
-0.80724949 -0.58995229 -0.017452406 19 7 -0.020312632
-0.71039778 -0.51765126 -0.23552534 13 0 -0.020289592
-0.71281046 -0.51921898 0.015393022 46 8 -0.020287288
-0.78610647 -0.57239836 -0.22450115 30 1 -0.020284984
-0.87037259 -0.63352406 0.056418166 1 9 -0.02028268
-0.54603064 -0.39744309 -0.13127659 53 2 -0.020280376
-0.55113941 -0.40086716 -0.10793979 59 3 -0.020275768
-0.55559629 -0.40381265 -0.084333591 48 4 -0.02027116
-0.60608488 -0.44002324 -0.039251972 6 6 -0.020261943
