# .PCD v0.7 - Point Cloud Data file format
VERSION 0.7
FIELDS x y z intensity ring time
SIZE 4 4 4 4 2 4
TYPE F F F F U F
COUNT 1 1 1 1 1 1
WIDTH 981
HEIGHT 1
VIEWPOINT 0 0 0 1 0 0 0
POINTS 981
DATA ascii
0.66964823 6.7328062 1.5620601 36 14 -0.092837915
0.75974154 7.6250772 -0.13375525 13 7 -0.092835613
0.59192055 5.930295 1.5969136 37 15 -0.09283331
0.084290944 0.83417577 -0.22465494 63 0 -0.092812575
2.0315983 20.070366 0.35211974 29 8 -0.092810266
0.083945774 0.82786691 -0.1921082 100 1 -0.092807963
0.7794863 7.6739278 0.40424296 19 9 -0.092805661
0.080748186 0.794954 -0.15531853 41 2 -0.092803359
0.78295922 7.6947246 0.67667717 42 10 -0.092801049
0.59952909 5.8818269 -0.9364168 12 3 -0.092798747
0.78901476 7.7274895 0.95374954 31 11 -0.092796445
0.65463316 6.4002929 -0.78995717 1 4 -0.092794143
0.94367743 9.2103748 1.4664168 12 12 -0.092791833
0.7525897 7.3453417 -0.64599836 77 5 -0.092789531
1.6439098 15.989658 -0.84239966 18 6 -0.092784926
0.69334739 6.7323656 1.56251 43 14 -0.092782624
0.61083192 5.9108982 1.5922549 18 15 -0.092778012
0.087604329 0.8377192 -0.22569022 71 0 -0.092757277
2.0987141 20.035311 0.35163108 65 8 -0.092754975
0.086428158 0.82369268 -0.19120839 37 1 -0.092752665
0.80814958 7.6890373 0.40518501 31 9 -0.092750363
0.56967896 5.4201384 -1.0593716 12 2 -0.092748061
0.80751413 7.6701493 0.67475975 27 10 -0.092745759
0.61798394 5.860054 -0.9332881 23 3 -0.092743449
0.81306648 7.6970506 0.95033723 37 11 -0.092741147
0.6798963 6.4256058 -0.79336947 1 4 -0.092738844
0.97665256 9.21488 1.4676683 19 12 -0.092736542
0.78326339 7.3902211 -0.65018183 88 5 -0.09273424
0.73598087 6.9325585 1.3551255 15 13 -0.09273193
0.81775719 7.6900296 -0.40528968 7 6 -0.092729628
0.71725494 6.7337804 1.5634098 42 14 -0.092727326
0.63269436 5.9202552 1.5953608 41 15 -0.092722714
0.089074373 0.82396364 -0.22206675 28 0 -0.092701979
2.167136 20.013945 0.35138676 35 8 -0.092699677
0.57532197 5.304543 -1.231832 1 1 -0.092697375
0.83778685 7.7119818 0.40654576 10 9 -0.092695065
0.5879581 5.412262 -1.0582268 25 2 -0.092692763
1.5543435 14.284798 1.2571344 7 10 -0.09269046
0.61960298 5.6850514 -0.9057557 10 3 -0.092688158
0.84057391 7.7000861 0.95106846 30 11 -0.092685856
0.70102274 6.4113536 -0.79190701 1 4 -0.092683546
0.84408426 7.7072706 1.2280107 28 12 -0.092681244
0.81231087 7.41715 -0.65279651 109 5 -0.092678942
0.76188672 6.9455605 1.3581785 2 13 -0.09267664
0.84851635 7.7228642 -0.40717378 18 6 -0.09267433
0.65335202 5.9180107 1.5953608 41 15 -0.092667423
0.48032737 4.3025517 -1.160027 1 0 -0.092646681
2.238101 20.016197 0.35156128 68 8 -0.092644379
0.59014404 5.2695799 -1.2241837 3 1 -0.092642076
2.1989386 19.603989 1.0338446 31 9 -0.092639774
0.60684824 5.4101768 -1.0582268 46 2 -0.092637472
1.6035337 14.273343 1.2566115 26 10 -0.092635162
0.66130942 5.8771896 -0.93672973 74 3 -0.09263286
0.86922759 7.7128859 0.95301831 64 11 -0.092630558
0.72339994 6.4088674 -0.79190701 1 4 -0.092628255
1.0407389 9.2058754 1.4673554 24 12 -0.092625946
0.84065706 7.4360471 -0.65471393 104 5 -0.092623644
0.86556858 7.6325355 -0.40256822 30 6 -0.092619039
0.76402825 6.7266731 1.5629599 43 14 -0.092616729
0.67444468 5.9195328 1.596396 39 15 -0.092612125
0.49622843 4.3085251 -1.1620976 4 0 -0.09259139
0.87785608 7.6103702 0.13372034 22 8 -0.092589088
0.60943073 5.2752309 -1.2259833 3 1 -0.092586778
2.265295 19.578335 1.0329025 25 9 -0.092584476
0.6248284 5.4002237 -1.0567002 59 2 -0.092582174
1.6540322 14.273598 1.2571344 14 10 -0.092579871
0.68204713 5.8768077 -0.93704253 70 3 -0.092577562
0.89523059 7.7019167 0.95204335 21 11 -0.09257526
0.74897885 6.4339085 -0.79531944 1 4 -0.092572957
1.0717214 9.1923761 1.4657912 26 12 -0.092570655
0.86729914 7.4390039 -0.65523684 110 5 -0.092568345
0.91327792 7.8214741 1.5306698 112 13 -0.092566043
0.88385284 7.558053 -0.39880002 7 6 -0.092563741
0.78704923 6.7200937 1.5620601 31 14 -0.092561439
0.83422822 7.1121511 -0.12499414 1 7 -0.092559129
0.69848323 5.9459229 1.6041605 1 15 -0.092556827
0.51035315 4.2990937 -1.160027 4 0 -0.092536092
0.90536225 7.6152024 0.13385996 22 8 -0.09253379
0.62484717 5.2479157 -1.2201345 4 1 -0.092531487
0.90715045 7.6075916 0.4015215 14 9 -0.092529178
0.642744 5.3902125 -1.0551738 59 2 -0.092526875
0.91027939 7.6225166 0.67162216 24 10 -0.092524573
0.70185471 5.8685064 -0.93610394 30 3 -0.092522271
0.91903925 7.6731219 0.94887477 40 11 -0.092519961
0.77521724 6.4627895 -0.79921919 1 4 -0.092517659
0.91861999 7.647016 1.2198761 8 12 -0.092515357
0.89231229 7.4280186 -0.65453959 113 5 -0.092513055
0.94104171 7.8221374 1.531433 130 13 -0.092510745
0.9145323 7.5906143 -0.40068412 5 6 -0.092508443
0.85281044 7.0575786 -0.12408661 1 7 -0.092503838
0.71505809 5.9089265 1.594843 37 15 -0.092501536
0.52535576 4.297286 -1.160027 4 0 -0.092480794
0.9363113 7.6477237 0.13448824 67 8 -0.092478491
0.64482099 5.2592421 -1.2232838 3 1 -0.092476189
0.9385668 7.6440263 0.40361494 23 9 -0.092473887
0.66275054 5.3976793 -1.0570819 65 2 -0.092471577
0.94004077 7.6450005 0.67388821 36 10 -0.092469275
0.72305834 5.8719029 -0.93704253 70 3 -0.092466973
1.3828888 11.214202 1.3873608 17 11 -0.092464671
0.80069309 6.483686 -0.80214405 1 4 -0.092462361
1.1319909 9.1533031 1.4607852 1 12 -0.092460059
0.91823387 7.4248586 -0.65453959 110 5 -0.092457756
0.96737361 7.8110113 1.5299066 149 13 -0.092455454
0.94249988 7.5992675 -0.40131214 21 6 -0.092453152
0.7438733 5.9892302 1.3933468 1 14 -0.092450842
0.87398392 7.0267777 -0.12359794 1 7 -0.09244854
0.73305476 5.8853068 1.589149 20 15 -0.092446238
0.5379408 4.2762585 -1.1548507 8 0 -0.092425503
1.977993 15.701491 0.27623668 2 8 -0.092423193
0.65829849 5.2182908 -1.2142857 3 1 -0.092420891
2.4791901 19.624876 1.0366707 43 9 -0.092418589
0.6820789 5.3992286 -1.0578451 68 2 -0.092416286
1.8001655 14.229797 1.2548684 16 10 -0.092413977
0.74156618 5.8536654 -0.93453962 66 3 -0.092411675
1.4215232 11.205367 1.3868732 39 11 -0.092409372
0.82582092 6.5005441 -0.80458146 1 4 -0.09240707
1.1701698 9.1982851 1.4686069 33 12 -0.092404768
0.94465077 7.425561 -0.65488827 116 5 -0.092402458
0.99612021 7.819273 1.5321964 146 13 -0.092400156
0.75094795 5.8783469 1.3681523 16 14 -0.092395552
0.89597112 7.0038486 -0.1232489 2 7 -0.092393242
0.75604731 5.9018741 1.5943254 39 15 -0.09239094
0.55410457 4.2839336 -1.1574388 28 0 -0.092370205
2.0353546 15.714323 0.27658573 2 8 -0.092367902
0.67776203 5.2256241 -1.2165353 3 1 -0.092365593
2.5486279 19.650219 1.0384501 75 9 -0.09236329
0.70067012 5.3948679 -1.0574635 70 2 -0.092360988
1.849566 14.221452 1.2546941 19 10 -0.092358686
0.76148331 5.8471231 -0.93391389 74 3 -0.092356384
1.0029329 7.6906362 0.95228714 28 11 -0.092354074
0.84788513 6.5017071 -0.80506897 1 4 -0.092351772
1.1991295 9.1826019 1.4667298 24 12 -0.09234947
0.97288853 7.4399996 -0.65645707 134 5 -0.092347167
0.76967877 5.8700275 1.3668026 7 14 -0.092340253
0.91971099 7.0048041 -0.12331871 4 7 -0.092337951
0.77611697 5.9031658 1.5953608 41 15 -0.092335641
0.56830871 4.2820725 -1.1574388 18 0 -0.092314906
2.0858777 15.695593 0.27637631 2 8 -0.092312604
0.69611424 5.2310748 -1.2183349 3 1 -0.092310302
2.5948033 19.499113 1.0309138 12 9 -0.092308
0.71777987 5.3866758 -1.0563186 68 2 -0.09230569
1.8969831 14.217215 1.2548684 11 10 -0.092303388
0.78139091 5.8484826 -0.93453962 69 3 -0.092301086
1.0271164 7.6774292 0.95106846 36 11 -0.092298783
0.92524701 6.9159822 -0.85674155 1 4 -0.092296474
1.2301004 9.1824903 1.4673554 5 12 -0.092294171
0.99649411 7.428833 -0.65575975 123 5 -0.092291869
0.91708124 6.827745 1.3390976 50 13 -0.092289567
0.93790507 6.9735551 -0.36875919 0 6 -0.092287257
0.78602201 5.8442674 1.3614038 13 14 -0.092284955
0.94533527 7.0195527 -0.12363284 6 7 -0.092282653
0.79698074 5.9101319 1.5979488 43 15 -0.092280351
0.58146262 4.2725077 -1.1553683 6 0 -0.092259616
2.1470842 15.755958 0.27756307 2 8 -0.092257306
0.7176742 5.2596316 -1.2255334 4 1 -0.092255004
2.668535 19.531492 1.0331119 9 9 -0.092252702
0.73510623 5.3803759 -1.0555553 65 2 -0.092250399
1.0480781 7.6611052 0.67650288 38 10 -0.09224809
0.8007825 5.8458591 -0.93453962 72 3 -0.092245787
1.5348831 11.190403 1.3868732 35 11 -0.092243485
0.96991169 7.0621743 -0.87526566 49 4 -0.092241183
1.2572999 9.1429157 1.4617239 5 12 -0.092238873
1.0224215 7.4253092 -0.65575975 102 5 -0.092236571
0.95529842 6.9288568 -0.36656106 39 6 -0.092231967
0.80721575 5.8472786 1.3627534 22 14 -0.092229657
0.96709603 6.9964008 -0.1232838 6 7 -0.092227355
0.81495917 5.8881774 1.5927725 46 15 -0.092225052
0.59898996 4.283741 -1.1589917 4 0 -0.092204317
2.1943202 15.692915 0.27658573 2 8 -0.092202015
0.73657107 5.2609534 -1.2264332 4 1 -0.092199706
2.7430694 19.567553 1.0355194 46 9 -0.092197403
0.75563872 5.3834782 -1.0567002 70 2 -0.092195101
1.9942508 14.189814 1.2536482 28 10 -0.092192799
0.82165146 5.8389721 -0.93391389 69 3 -0.092190489
1.5744866 11.188909 1.3873608 39 11 -0.092188187
0.99510646 7.0626779 -0.87575316 55 4 -0.092185885
1.2916929 9.1560745 1.4645396 15 12 -0.092183582
1.0466644 7.4098582 -0.65471393 122 5 -0.092181273
0.97984588 6.9193764 -0.36624706 61 6 -0.092176668
0.82727528 5.8346338 1.360504 46 14 -0.092174366
0.9920755 6.9969425 -0.12335361 7 7 -0.092172064
0.83387452 5.8738213 1.5896666 37 15 -0.092169754
0.61394054 4.2816238 -1.1589917 4 0 -0.092149019
2.2597764 15.74019 0.27756307 2 8 -0.092146717
0.75501543 5.2524319 -1.2250834 3 1 -0.092144415
0.7747072 5.382751 -1.0570819 38 2 -0.092139803
2.0457499 14.196571 1.2548684 28 10 -0.092137501
0.84090143 5.828248 -0.93266243 72 3 -0.092135198
1.6152045 11.181098 1.387117 40 11 -0.092132889
1.0218368 7.064878 -0.87648439 64 4 -0.092130587
1.3250532 9.1612864 1.466104 28 12 -0.092128284
1.074235 7.4179902 -0.65575975 134 5 -0.092125982
1.1316385 7.80478 1.5329596 210 13 -0.09212368
1.5724082 10.831442 -0.57360214 100 6 -0.09212137
0.84791601 5.8336391 1.3609538 46 14 -0.092119068
1.0164919 6.9934368 -0.12335361 6 7 -0.092116766
0.85576552 5.8804336 1.5922549 39 15 -0.092114463
0.63028592 4.2890115 -1.16158 5 0 -0.092093721
2.3119645 15.73261 0.27756307 2 8 -0.092091419
0.76732194 5.2151957 -1.2169852 3 1 -0.092089117
0.79291767 5.3761296 -1.0563186 68 2 -0.092084512
2.0958786 14.193285 1.255217 28 10 -0.092082202
0.86022288 5.8254275 -0.93266243 69 3 -0.0920799
1.6508249 11.165861 1.3858984 39 11 -0.092077598
1.0452611 7.06145 -0.87648439 66 4 -0.092075296
1.3576057 9.1605129 1.4667298 28 12 -0.092072986
1.1007088 7.4181371 -0.65610844 125 5 -0.092070684
1.1560751 7.7912736 1.5310514 150 13 -0.092068382
1.6092013 10.832093 -0.57391614 138 6 -0.092066079
0.86553508 5.8192301 1.3582544 48 14 -0.09206377
1.0406047 6.9878678 -0.12331871 6 7 -0.092061467
0.8785646 5.8926959 1.596396 41 15 -0.092059165
0.64306837 4.2773457 -1.1589917 3 0 -0.09203843
2.3442509 15.574161 0.2749103 46 8 -0.092036128
0.77971518 5.1739459 -1.2079872 3 1 -0.092033818
2.9207077 19.358038 1.0259942 28 9 -0.092031516
0.81015432 5.3695884 -1.0555553 65 2 -0.092029214
2.1423423 14.182317 1.2548684 28 10 -0.092026912
0.88173521 5.8302016 -0.93391389 69 3 -0.092024602
1.6894861 11.15807 1.3856546 37 11 -0.0920223
1.0678228 7.0440192 -0.87477821 67 4 -0.092019998
1.3886868 9.1498594 1.4657912 27 12 -0.092017695
1.1258987 7.4183865 -0.65645707 129 5 -0.092015386
1.1841444 7.793015 1.5321964 150 13 -0.092013083
0.88320351 5.7988348 1.3542054 60 14 -0.092008479
1.0619714 6.9644251 -0.12296966 7 7 -0.092006169
0.89942175 5.8915029 1.5969136 43 15 -0.092003867
0.65858412 4.2788939 -1.160027 3 0 -0.091983132
2.4004245 15.577741 0.27511975 17 8 -0.09198083
0.78172517 5.0671906 -1.1836925 11 1 -0.091978528
3.0166197 19.531292 1.0357287 12 9 -0.091976218
0.82769555 5.3589664 -1.054029 65 2 -0.091973916
2.1894028 14.158999 1.2534739 28 10 -0.091971613
0.90207982 5.8270888 -0.93391389 69 3 -0.091969311
1.73086 11.167797 1.3876045 43 11 -0.091967002
1.093624 7.0480947 -0.87575316 67 4 -0.091964699
1.4181895 9.1293402 1.4632881 30 12 -0.091962397
1.1511736 7.4104733 -0.65610844 126 5 -0.091960095
1.2122469 7.7946534 1.5333412 151 13 -0.091957785
0.90764058 5.8226738 1.360504 65 14 -0.091953181
1.0853522 6.9547486 -0.12286495 9 7 -0.091950879
0.91610622 5.8635139 1.5901842 41 15 -0.091948569
0.67171204 4.2651186 -1.1569211 3 0 -0.091927834
3.1368403 19.895163 0.35156128 3 8 -0.091925532
0.80366343 5.0913796 -1.1899911 6 1 -0.091923229
3.0641985 19.390442 1.0288203 15 9 -0.091920927
0.85007292 5.3793154 -1.0586084 17 2 -0.091918617
2.2375586 14.1434 1.2527766 28 10 -0.091916315
0.91963506 5.806344 -0.93109804 49 3 -0.091914013
1.7704515 11.165607 1.3880919 40 11 -0.091911711
1.1188375 7.0481567 -0.87624067 64 4 -0.091909401
1.4512907 9.1321373 1.4645396 30 12 -0.091907099
1.1777024 7.4022684 -0.65575975 130 5 -0.091904797
1.240067 7.7942514 1.5341043 141 13 -0.091902494
0.9301095 5.8329401 1.3636533 56 14 -0.091897883
1.1108849 6.9588156 -0.12300456 10 7 -0.09189558
0.85608065 5.3566632 1.4535278 50 15 -0.091893278
0.68672597 4.2588134 -1.1558858 3 0 -0.091872543
3.205637 19.88014 0.35149148 35 8 -0.091870233
0.82174027 5.0904679 -1.190441 1 1 -0.091867931
3.1261351 19.344137 1.0269363 25 9 -0.091865629
0.95945984 5.9304471 -1.1677511 28 2 -0.091863327
2.2938449 14.162639 1.255217 2 10 -0.091861017
1.8068774 11.143684 1.386142 37 11 -0.091856413
1.1389823 7.0167751 -0.8728283 60 4 -0.09185411
1.4844247 9.1348152 1.4657912 27 12 -0.091851801
1.2028927 7.3941798 -0.65541118 125 5 -0.091849498
1.2673621 7.7819042 1.532578 136 13 -0.091847196
0.95148081 5.8294921 1.3636533 58 14 -0.091842592
1.1361338 6.9608164 -0.12310927 11 7 -0.091840282
0.95608157 5.8512568 1.5886314 33 15 -0.09183798
0.70441467 4.2735457 -1.1605446 3 0 -0.091817245
3.2794518 19.874178 0.35159621 87 8 -0.091814943
0.83753496 5.070117 -1.1863918 2 1 -0.091812633
3.1939702 19.335075 1.0270408 25 9 -0.091810331
0.98047417 5.9289985 -1.1681327 21 2 -0.091808029
2.3517325 14.205651 1.2597491 2 10 -0.091805726
1.1504216 6.9416094 -1.1144392 4 3 -0.091803417
1.8412083 11.09782 1.3812673 9 11 -0.091801114
1.1676906 7.0382152 -0.87599689 64 4 -0.091798812
1.5159806 9.1276283 1.4654782 28 12 -0.09179651
1.2300049 7.3977971 -0.65610844 121 5 -0.091794208
0.96728534 5.8051605 1.3587044 50 14 -0.091787294
1.1597685 6.9528627 -0.12303946 12 7 -0.091784991
0.97745371 5.8535995 1.5901842 39 15 -0.091782682
0.7166605 4.2597556 -1.1574388 3 0 -0.091761947
3.346673 19.87108 0.3517358 84 8 -0.091759644
0.86244214 5.1153526 -1.1976395 1 1 -0.091757342
3.2567377 19.3165 1.0266222 21 9 -0.09175504
0.99457723 5.8928046 -1.1616452 38 2 -0.09175273
2.3862109 14.123122 1.2531252 28 10 -0.091750428
1.1688211 6.9104886 -1.110059 11 3 -0.091748126
1.8753519 11.075995 1.3793174 3 11 -0.091745824
1.1913571 7.0362616 -0.87624067 67 4 -0.091743514
1.543928 9.1089182 1.4632881 17 12 -0.091741212
1.2561951 7.4035001 -0.65697998 124 5 -0.091738909
1.3097821 7.7111597 1.5203662 24 13 -0.091736607
2.6013849 15.299116 -0.81330085 6 6 -0.091734298
0.98783612 5.8096056 1.360504 48 14 -0.091731995
1.1814752 6.9410939 -0.12289985 12 7 -0.091729693
1.0001062 5.8693705 1.5953608 41 15 -0.091727391
0.73110837 4.2592597 -1.1579564 3 0 -0.091706656
3.4152546 19.875641 0.35201502 100 8 -0.091704346
0.88072091 5.1201468 -1.199439 1 1 -0.091702044
3.3211105 19.307562 1.0267268 25 9 -0.091699742
1.0147781 5.8933434 -1.1624085 19 2 -0.09169744
2.4310052 14.103351 1.2520794 28 10 -0.09169513
1.1793046 6.8345494 -1.098483 2 3 -0.091692828
1.2136687 7.0264044 -0.87550944 63 4 -0.091688223
1.5731187 9.097909 1.4623495 8 12 -0.091685914
1.2790421 7.3894768 -0.65610844 126 5 -0.091683611
1.336015 7.7106438 1.5211295 25 13 -0.091681309
2.6469884 15.260887 -0.8117308 1 6 -0.091679007
1.0064315 5.8024573 1.3596041 15 14 -0.091676697
1.2024355 6.9253159 -0.12269042 12 7 -0.091674395
0.99938351 5.7499199 1.5637847 24 15 -0.091672093
0.74423033 4.2511029 -1.1564035 3 0 -0.091651358
3.4794257 19.854357 0.35184053 94 8 -0.091649055
0.89095968 5.0788097 -1.190441 1 1 -0.091646746
3.3861501 19.302347 1.0270408 25 9 -0.091644444
1.0373732 5.9073486 -1.165843 21 2 -0.091642141
2.4756877 14.083439 1.2510335 28 10 -0.091639839
1.198192 6.8092017 -1.0950414 3 3 -0.091637529
1.9511803 11.077 1.3810235 19 11 -0.091635227
1.2376529 7.0262504 -0.87599689 66 4 -0.091632925
1.3285185 7.5344038 1.2117414 1 12 -0.091630623
1.3035345 7.3851957 -0.65610844 108 5 -0.091628313
1.3602127 7.6984367 1.5196029 26 13 -0.091626011
2.6165287 14.793777 -0.78734219 6 6 -0.091623709
1.0260059 5.8010073 1.3600541 1 14 -0.091621406
1.2264385 6.9271979 -0.12279513 6 7 -0.091619104
0.95338237 5.379447 1.4638805 76 15 -0.091616794
0.76218629 4.2616587 -1.160027 3 0 -0.091598272
3.5507579 19.833597 0.3517009 94 8 -0.09159597
0.90475965 5.048655 -1.1841424 1 1 -0.091593668
3.4588346 19.281338 1.0266222 21 9 -0.091591358
1.0628297 5.9247637 -1.1700408 19 2 -0.091589056
2.5304556 14.09192 1.2526023 28 10 -0.091586754
1.2252429 6.8164291 -1.0969186 21 3 -0.091584451
1.9896548 11.058052 1.3795611 29 11 -0.091582142
1.2667322 7.0331678 -0.87745935 66 4 -0.09157984
1.6791887 9.3138714 1.4989552 1 12 -0.091577537
1.2800478 7.0999765 -0.6311819 28 5 -0.091575235
2.6558175 14.701539 -0.78294599 70 6 -0.091570623
1.203972 6.6580448 1.5620601 43 14 -0.091568321
2.5772879 14.23842 -0.25257123 18 7 -0.091566019
1.058069 5.8395667 1.5901842 41 15 -0.091563709
0.77636528 4.2551713 -1.1589917 3 0 -0.091542974
3.6214108 19.828949 0.35184053 94 8 -0.091540672
0.90204787 4.9342823 -1.158048 9 1 -0.09153837
3.5272019 19.27504 1.0269363 9 9 -0.091536067
1.0838594 5.9229484 -1.1704224 16 2 -0.091533758
2.5774798 14.071241 1.2515564 28 10 -0.091531456
1.2447493 6.7887955 -1.0931642 12 3 -0.091529153
2.0278871 11.049086 1.3793174 29 11 -0.091526851
1.289842 7.0208941 -0.87648439 66 4 -0.091524541
1.6745275 9.1059036 1.4664168 11 12 -0.091522239
1.2965306 7.0503964 -0.62717271 14 5 -0.091519937
1.2229866 6.6439352 1.3131475 7 13 -0.091517635
2.7045896 14.67843 -0.78221327 15 6 -0.091515325
1.2236664 6.6346383 1.557561 40 14 -0.091513023
2.6277034 14.23327 -0.25264105 80 7 -0.091510721
1.0791502 5.8396373 1.5912195 39 15 -0.091508418
0.79474872 4.2714276 -1.1641681 4 0 -0.091487683
3.6913331 19.82012 0.35191032 84 8 -0.091485374
0.91998184 4.9349351 -1.1589478 9 1 -0.091483071
3.5930023 19.254755 1.0265175 21 9 -0.091480769
1.1095712 5.9461474 -1.175765 7 2 -0.091478467
2.6273105 14.066075 1.2519051 26 10 -0.091476157
1.2560978 6.7183905 -1.0825267 43 3 -0.091473855
2.0686371 11.053646 1.3807799 30 11 -0.091471553
1.3132436 7.0104952 -0.87575316 67 4 -0.091469251
1.7041208 9.0883522 1.4645396 24 12 -0.091466941
1.2505183 6.6627798 1.317727 1 13 -0.091462336
2.7606013 14.694417 -0.78357404 39 6 -0.091460034
1.0773499 5.7181306 1.559126 13 15 -0.09145312
0.80713099 4.2553415 -1.1605446 5 0 -0.091432385
3.7619925 19.81497 0.35204995 94 8 -0.091430083
0.93720132 4.9316936 -1.1589478 9 1 -0.091427773
3.6601787 19.242098 1.0265175 21 9 -0.091425471
1.1449909 6.0193858 -1.1910298 4 2 -0.091423169
2.6749077 14.04899 1.2512078 23 10 -0.091420867
1.3069093 6.8575578 -1.1056789 22 3 -0.091418557
2.1060853 11.040509 1.3800485 30 11 -0.091416255
1.3388257 7.0117183 -0.87648439 64 4 -0.091413952
1.735837 9.0823479 1.4645396 22 12 -0.09141165
1.2719193 6.6487336 1.3158189 2 13 -0.091407038
2.9181817 15.239829 -0.81319618 9 6 -0.091404736
1.2714255 6.6335888 1.5593606 5 14 -0.091402434
2.9357252 15.302569 -0.27197829 2 7 -0.091400132
1.1198922 5.8319612 1.5912195 39 15 -0.091397822
0.80438292 4.1614542 -1.135698 11 0 -0.091377087
3.830364 19.797796 0.35198015 84 8 -0.091374785
0.95218879 4.9169126 -1.1562485 8 1 -0.091372482
3.7303696 19.24489 1.027355 18 9 -0.091370173
1.1697332 6.0346255 -1.1948459 2 2 -0.091367871
2.7231627 14.035657 1.2508591 23 10 -0.091365568
1.3097488 6.7443614 -1.0881582 4 3 -0.091363266
2.144614 11.03309 1.3800485 30 11 -0.091360964
1.364808 7.0147963 -0.87745935 64 4 -0.091358654
1.7690384 9.0839901 1.4657912 24 12 -0.091356352
2.9736598 15.255514 -1.3598039 1 5 -0.09135405
1.2932435 6.6346178 1.3139107 5 13 -0.091351748
2.9717472 15.231509 -0.81330085 7 6 -0.091349438
1.3136207 6.7266536 1.5823058 1 14 -0.091347136
2.9921963 15.307928 -0.27225754 2 7 -0.091344833
1.1383896 5.8185363 1.5886314 37 15 -0.091342531
0.81701404 4.1452103 -1.1320745 21 0 -0.091321789
3.9009995 19.79215 0.35211974 84 8 -0.091319486
0.96934748 4.913559 -1.1562485 9 1 -0.091317184
3.7967463 19.227835 1.0271456 18 9 -0.091314882
1.2032617 6.0880785 -1.2062945 2 2 -0.09131258
2.7749848 14.027535 1.2510335 26 10 -0.09131027
1.3321557 6.7278895 -1.0862811 48 3 -0.091307968
2.1823404 11.021644 1.3795611 30 11 -0.091305666
1.3885126 7.0060959 -0.8769719 64 4 -0.091303363
1.803045 9.0893841 1.4676683 22 12 -0.091301054
3.0237858 15.229407 -1.3584094 48 5 -0.091298752
1.3137237 6.6105781 1.3100946 10 13 -0.091296449
1.4451975 7.2654943 -0.38822815 0 6 -0.091294147
1.3397869 6.7294388 1.5841054 1 14 -0.091291837
3.0510759 15.324847 -0.27274621 2 7 -0.091289535
1.0371194 5.2044668 1.4219519 18 15 -0.091287233
0.83147967 4.142333 -1.1320745 16 0 -0.091266498
3.9739144 19.77968 0.35215467 71 8 -0.091264196
0.98734903 4.9099731 -1.1562485 9 1 -0.091261886
3.8644407 19.200083 1.0264128 21 9 -0.091259584
2.8239303 14.017763 1.2510335 16 10 -0.091254979
1.352901 6.7096434 -1.0840909 46 3 -0.09125267
2.2211537 11.005786 1.3785861 29 11 -0.091250367
1.4141836 7.0009589 -0.8769719 64 4 -0.091248065
1.8347796 9.0749712 1.4664168 15 12 -0.091245763
3.022445 14.949263 -1.3343544 11 5 -0.091243453
1.3371823 6.6078758 1.3104763 15 13 -0.091241151
1.4649976 7.2330003 -0.38676277 45 6 -0.091238849
1.3392653 6.6063075 1.5562114 19 14 -0.091236547
3.1040466 15.297883 -0.27246696 2 7 -0.091234237
1.056958 5.2044168 1.4229871 43 15 -0.091231935
0.84748048 4.1469774 -1.1341451 11 0 -0.0912112
3.2290542 15.786691 0.28126299 75 8 -0.091208898
1.0029199 4.89886 -1.1544489 8 1 -0.091206595
3.9322355 19.19039 1.0266222 21 9 -0.091204286
2.874042 14.013677 1.2515564 28 10 -0.091199681
1.3779043 6.7126193 -1.0853424 37 3 -0.091197379
2.2603545 11.001856 1.3790736 30 11 -0.091195069
1.4378117 6.9920917 -0.87648439 66 4 -0.091192767
1.8648555 9.060771 1.4651654 13 12 -0.091190465
3.0529244 14.83324 -1.3249415 1 5 -0.091188163
1.358654 6.5954762 1.3089497 17 13 -0.091185853
1.3619254 6.5996838 1.5557615 40 14 -0.091181248
3.1549971 15.275206 -0.27225754 2 7 -0.091178946
0.85801786 4.1250792 -1.1289687 14 0 -0.091155902
3.28862 15.796857 0.28164694 78 8 -0.091153599
1.0220004 4.9048681 -1.1566983 11 1 -0.091151297
3.9938197 19.167465 1.0260988 3 9 -0.091148995
2.9209094 13.993806 1.2506849 26 10 -0.091144383
1.4057695 6.7290397 -1.088784 32 3 -0.091142081
2.3011847 11.005556 1.380536 29 11 -0.091139778
1.4638382 6.994801 -0.87745935 64 4 -0.091137469
1.8944854 9.0526047 1.4648525 12 12 -0.091135167
3.0895674 14.75034 -1.3184921 88 5 -0.091132864
1.3820728 6.5926156 1.3093314 26 13 -0.091130562
3.1871779 15.189933 -0.81340551 9 6 -0.09112826
1.3853533 6.5967965 1.5562114 33 14 -0.09112595
3.2023504 15.249002 -0.27197829 2 7 -0.091123648
1.2258738 5.832324 1.5969136 1 15 -0.091121346
0.87161106 4.1182795 -1.1279335 11 0 -0.091100611
3.3405771 15.78391 0.28161204 99 8 -0.091098301
1.0402782 4.9109845 -1.1589478 9 1 -0.091095999
4.0648408 19.172947 1.0271456 21 9 -0.091093697
2.9684947 13.977679 1.250162 23 10 -0.091089085
1.4239712 6.7050185 -1.0856553 5 3 -0.091086783
2.3372531 10.995923 1.3802923 27 11 -0.09108448
1.4878507 6.9937921 -0.87794685 63 4 -0.091082178
1.9252486 9.0420723 1.4642268 12 12 -0.091079876
3.1468475 14.766749 -1.3209324 35 5 -0.091077566
1.4006522 6.5726347 1.3062785 31 13 -0.091075264
3.2367032 15.175373 -0.81319618 9 6 -0.091072962
1.4055929 6.5845437 1.5544118 40 14 -0.091070659
3.2622492 15.269019 -0.27253678 2 7 -0.09106835
1.1052433 5.1686978 1.4162579 13 15 -0.091066048
0.88810599 4.1285872 -1.1315569 12 0 -0.091045313
4.2500424 19.740601 0.35246882 94 8 -0.09104301
1.0545422 4.8939872 -1.1557984 9 1 -0.091040701
4.1284037 19.159361 1.0271456 18 9 -0.091038398
3.015254 13.969705 1.2503363 26 10 -0.091033794
1.5750045 7.2908425 -1.1813933 1 3 -0.091031492
2.3722637 10.972177 1.3783424 24 11 -0.091029182
1.5130959 6.9924355 -0.8784343 66 4 -0.09102688
1.9568962 9.0433598 1.4654782 12 12 -0.091024578
1.6046487 7.4092712 -0.66325516 1 5 -0.091022275
1.4223374 6.5619502 1.3051336 48 13 -0.091019966
3.0639625 14.123642 -0.75740606 113 6 -0.091017663
1.4298109 6.58531 1.5557615 42 14 -0.091015361
3.3285608 15.330421 -0.27382827 17 7 -0.091013059
1.2606194 5.8011918 1.5907019 37 15 -0.091010749
0.90292591 4.1273484 -1.1320745 10 0 -0.090990014
4.3188963 19.742029 0.35274807 100 8 -0.090987712
1.0686805 4.8809462 -1.153549 9 1 -0.09098541
4.1961079 19.148737 1.027355 21 9 -0.090983108
1.3479455 6.1461539 -1.2230858 2 2 -0.090980798
3.0648506 13.962987 1.2506849 26 10 -0.090978496
1.54708 7.0482583 -1.1429104 5 3 -0.090976194
2.4039533 10.942921 1.3756613 11 11 -0.090973891
1.5349951 6.9815636 -0.87770307 75 4 -0.090971582
1.9884539 9.0364733 1.4654782 11 12 -0.090969279
1.5649378 7.1059237 -0.63658553 3 5 -0.090966977
1.4436694 6.5552797 1.304752 61 13 -0.090964675
3.0927222 14.031487 -0.7530098 100 6 -0.090962365
1.4508029 6.576726 1.5548617 42 14 -0.090960063
3.7290933 16.890612 -0.30192664 68 7 -0.090957761
1.2821138 5.8024149 1.5922549 39 15 -0.090955459
0.91577077 4.1205602 -1.1310393 14 0 -0.090934724
4.3899584 19.736589 0.35292256 87 8 -0.090932414
1.0895216 4.8943057 -1.1575981 9 1 -0.090930112
4.260015 19.136669 1.0274596 21 9 -0.090927809
1.3794214 6.191473 -1.2330078 2 2 -0.090925507
3.1120079 13.956636 1.2510335 26 10 -0.090923198
1.5015428 6.728559 -1.0919127 6 3 -0.090920895
2.4477644 10.959647 1.3788298 24 11 -0.090918593
2.0149601 9.0144081 1.4629753 9 12 -0.090913981
1.524987 6.8168235 -0.61113608 6 5 -0.090911679
1.4751233 6.5885158 1.3123844 57 13 -0.090909377
3.1395028 14.010859 -0.75248641 100 6 -0.090907075
1.472041 6.5640168 1.5530621 42 14 -0.090904765
3.7872686 16.887911 -0.30210117 99 7 -0.090902463
1.3017728 5.8000159 1.5927725 37 15 -0.09090016
0.92929441 4.1135702 -1.130004 11 0 -0.090879425
4.4549298 19.719978 0.35288766 84 8 -0.090877123
1.1057471 4.8906655 -1.1575981 8 1 -0.090874813
4.3259115 19.117783 1.0272502 21 9 -0.090872511
1.4010209 6.1866207 -1.2330078 2 2 -0.090870209
3.1571803 13.930143 1.249639 26 10 -0.090867907
1.507257 6.6503344 -1.0800236 43 3 -0.090865597
2.4840922 10.95147 1.3788298 22 11 -0.090863295
1.5099746 6.6515398 -0.83748621 45 4 -0.090860993
2.0455365 9.0034676 1.4623495 9 12 -0.09085869
1.5107841 6.6443772 -0.59614527 42 5 -0.090856381
1.4969622 6.5835886 1.3123844 48 13 -0.090854079
3.1868372 14.004266 -0.7526958 100 6 -0.090851776
3.8408673 16.851189 -0.30168229 99 7 -0.090847172
1.3198639 5.7860179 1.5901842 39 15 -0.090844862
0.94249964 4.108583 -1.1294864 15 0 -0.090824127
4.5232954 19.702358 0.35285276 78 8 -0.090821825
1.1267407 4.9038687 -1.1616472 9 1 -0.090819523
4.3953004 19.114246 1.0278783 21 9 -0.090817213
1.4215306 6.1819406 -1.2330078 2 2 -0.090814911
3.2033544 13.919598 1.249639 26 10 -0.090812609
2.5231943 10.946603 1.3793174 22 11 -0.090807997
2.0756214 8.9904976 1.4614109 8 12 -0.090803392
1.517723 6.5687594 1.3104763 32 13 -0.090798788
3.2365923 13.996949 -0.75290513 100 6 -0.090796478
1.3062336 5.6444311 1.337559 5 14 -0.090794176
3.9023769 16.849367 -0.30189171 100 7 -0.090791874
1.3374318 5.7700858 1.5870785 39 15 -0.090789571
0.95755303 4.1051006 -1.1294864 12 0 -0.090768829
4.5920472 19.686447 0.35285276 78 8 -0.090766527
1.138975 4.8790317 -1.1566983 8 1 -0.090764225
4.4560928 19.073503 1.0265175 3 9 -0.090761922
1.4325591 6.1269846 -1.2230858 2 2 -0.09075962
3.257525 13.921344 1.2508591 23 10 -0.09075731
1.9421576 8.2934532 -1.3490911 1 3 -0.090755008
2.5595822 10.929996 1.3783424 26 11 -0.090752706
2.1096919 8.9947386 1.4632881 8 12 -0.090748094
1.9987772 8.5151472 -0.76522744 18 5 -0.090745792
1.5390962 6.5516849 1.3081865 27 13 -0.09074349
3.2846692 13.971385 -0.75217241 100 6 -0.090741187
1.327358 5.6415033 1.3380089 22 14 -0.090738878
3.9657445 16.855108 -0.30224079 97 7 -0.090736575
1.3611088 5.7804246 1.5912195 39 15 -0.090734273
0.97365737 4.1092525 -1.1315569 17 0 -0.090713538
4.666935 19.68116 0.35306218 87 8 -0.090711236
1.1546038 4.8653436 -1.1544489 9 1 -0.090708926
4.5398121 19.115341 1.0296577 6 9 -0.090706624
1.4657311 6.1716099 -1.2330078 2 2 -0.090704322
3.3051822 13.906011 1.2505106 19 10 -0.09070202
1.9710976 8.286623 -1.3490911 1 3 -0.09069971
2.5964053 10.907023 1.3766363 24 11 -0.090697408
2.1449423 8.9965515 1.4648525 5 12 -0.090692803
2.0298767 8.5139313 -0.76575035 49 5 -0.090690494
1.5633221 6.5520015 1.3093314 12 13 -0.090688191
1.346138 5.6330447 1.3371091 45 14 -0.090683587
4.7005229 19.654659 -0.35274807 84 7 -0.090681277
1.2141081 5.0727305 1.3976228 18 15 -0.090678975
0.98844838 4.1077065 -1.1320745 10 0 -0.09065824
4.7388892 19.678358 0.35330653 84 8 -0.090655938
1.1770555 4.8840179 -1.1598476 9 1 -0.090653636
4.5966806 19.058603 1.0274596 21 9 -0.090651326
1.4752986 6.1168342 -1.2230858 2 2 -0.090649024
3.3551092 13.900199 1.2510335 26 10 -0.090646721
2.0000057 8.2796936 -1.3490911 1 3 -0.090644419
2.6367972 10.907542 1.3778549 24 11 -0.09064211
2.1730728 8.9755716 1.4626625 8 12 -0.090637505
2.0544209 8.4854956 -0.76383299 55 5 -0.090635203
1.5847981 6.5407801 1.3081865 1 13 -0.090632893
1.3667108 5.6320996 1.3380089 48 14 -0.090628289
4.7091742 19.39134 -0.34831512 13 7 -0.090625986
1.2322655 5.0703387 1.3981405 15 15 -0.090623677
0.99911207 4.0892186 -1.1279335 12 0 -0.090602942
4.8103962 19.673349 0.35351595 84 8 -0.09060064
1.1936349 4.8779864 -1.1593977 6 1 -0.090598337
4.660326 19.045193 1.0275643 18 9 -0.090596035
1.4966401 6.1116476 -1.2230858 2 2 -0.090593725
3.402184 13.882597 1.2505106 26 10 -0.090591423
1.9564364 7.9772081 -1.3009092 2 3 -0.090589121
2.6758049 10.902126 1.3783424 22 11 -0.090586819
2.196702 8.9433765 1.4585952 11 12 -0.090582207
2.0754697 8.4434452 -0.76069534 55 5 -0.090579905
1.9180785 7.7972579 1.5608176 24 13 -0.090577602
2.9252024 11.882442 -0.64132488 1 6 -0.090575293
1.3868271 5.6291866 1.3384588 30 14 -0.09057299
4.1028032 16.653442 -0.2993786 100 7 -0.090570688
1.2467616 5.0568452 1.3955523 50 15 -0.090568386
1.0147743 4.0913315 -1.1294864 15 0 -0.090547651
4.875124 19.655352 0.35348105 91 8 -0.090545341
1.2107446 4.8777838 -1.1602976 8 1 -0.090543039
4.7287002 19.036566 1.027983 18 9 -0.090540737
1.520805 6.1178174 -1.2253754 2 2 -0.090538435
3.4491832 13.864837 1.2499877 26 10 -0.090536125
1.9800202 7.9591756 -1.299032 1 3 -0.090533823
2.7104969 10.887416 1.3776112 24 11 -0.090531521
2.2312543 8.94907 1.4607852 11 12 -0.090526909
2.0981758 8.4090862 -0.758255 49 5 -0.090524606
1.9410675 7.7794261 1.5585279 29 13 -0.090522304
3.4881265 13.969334 -0.75457984 10 6 -0.090520002
1.4059604 5.6264467 1.3389087 26 14 -0.0905177
4.1560626 16.619617 -0.29902953 100 7 -0.09051539
1.2639357 5.0505886 1.3950348 43 15 -0.090513088
1.0292797 4.0916901 -1.1305215 15 0 -0.090492353
4.9437094 19.638212 0.35348105 81 8 -0.090490051
1.2291909 4.8791971 -1.1616472 9 1 -0.090487741
4.7941494 19.016068 1.0277736 18 9 -0.090485439
1.5391661 6.1051264 -1.2238491 2 2 -0.090483136
3.4961138 13.857186 1.2503363 26 10 -0.090480834
2.0725875 8.2088614 -1.3409564 1 3 -0.090478525
2.7499461 10.883661 1.3783424 24 11 -0.090476222
2.2619925 8.9393129 1.4604723 12 12 -0.090471618
2.1108892 8.3360405 -0.75232834 46 5 -0.090469316
1.9643576 7.7573771 1.555475 19 13 -0.090467006
2.1631346 8.5360994 -0.46149853 37 6 -0.090464704
1.4351712 5.6592841 1.3479067 1 14 -0.090462402
4.0566416 15.984771 -0.28786001 100 7 -0.090460099
1.4503706 5.7108521 1.5787963 24 15 -0.09045779
1.0423561 4.0804033 -1.1284511 12 0 -0.090437055
5.0176687 19.642147 0.353865 84 8 -0.090434752
1.2433182 4.8635488 -1.1589478 8 1 -0.09043245
4.8600097 18.997282 1.027669 21 9 -0.090430148
1.5615308 6.0994439 -1.2238491 2 2 -0.090427838
3.5473773 13.846209 1.2505106 23 10 -0.090425536
2.115418 8.2509604 -1.3490911 1 3 -0.090423234
2.7859514 10.866303 1.3773675 27 11 -0.090420932
2.2946589 8.9371014 1.4614109 15 12 -0.09041632
2.0884113 8.1279316 -0.7342 45 5 -0.090414017
1.6573863 6.4457622 1.2936851 10 13 -0.090411715
2.186445 8.4971657 -0.45982376 47 6 -0.090409406
1.6779844 6.5164256 1.553512 40 14 -0.090407103
4.1134157 15.974385 -0.2879298 100 7 -0.090404801
1.4823465 5.7525229 1.5917372 37 15 -0.090402499
1.0590175 4.0860901 -1.1310393 14 0 -0.090381764
5.0926447 19.635239 0.35407442 97 8 -0.090379454
1.2611369 4.8589592 -1.1589478 9 1 -0.090377152
4.9245796 18.960011 1.0266222 21 9 -0.09037485
1.5798526 6.0825543 -1.2215593 2 2 -0.090372548
3.5966873 13.837598 1.2508591 23 10 -0.090370238
2.1442049 8.2435265 -1.3490911 1 3 -0.090367936
2.8267574 10.859862 1.3778549 27 11 -0.090365633
2.3268995 8.9267206 1.4610981 20 12 -0.090361021
4.1775327 16.014885 -1.4480054 14 5 -0.090358719
1.6878064 6.4703321 1.299791 1 13 -0.090356417
2.2060013 8.4508314 -0.45773032 39 6 -0.090354115
1.6992419 6.5048728 1.5521622 36 14 -0.090351805
4.1719337 15.959203 -0.2879298 100 7 -0.090349503
1.5034221 5.7470512 1.5917372 37 15 -0.090347201
1.0730027 4.078445 -1.130004 14 0 -0.090326466
5.163693 19.627012 0.35424894 91 8 -0.090324163
1.2810683 4.8658338 -1.1616472 8 1 -0.090321854
4.9953079 18.960089 1.0275643 9 9 -0.090319552
1.6171497 6.1336746 -1.2330078 2 2 -0.090317249
3.6468759 13.822395 1.2506849 26 10 -0.090314947
2.1693635 8.2165117 -1.3459623 1 3 -0.090312637
2.8626239 10.842251 1.3768799 14 11 -0.090310335
3.0876274 11.686215 -1.484125 1 4 -0.090308033
2.3570375 8.9147234 1.4604723 23 12 -0.090305731
3.1601543 11.943813 -1.0809054 1 5 -0.090303421
1.7079912 6.4508181 1.2971196 1 13 -0.090301119
2.2282665 8.4098682 -0.45595092 27 6 -0.090298817
1.7255708 6.508019 1.5544118 26 14 -0.090296514
4.2276206 15.944541 -0.2879298 100 7 -0.090294212
1.3411514 5.0546231 1.4012463 15 15 -0.090291902
1.0843173 4.0694537 -1.1284511 14 0 -0.09027195
5.2277255 19.605915 0.35417914 91 8 -0.090269648
1.2966934 4.8596759 -1.1611973 8 1 -0.090267345
5.0560904 18.935701 1.0271456 18 9 -0.090265036
1.6212159 6.0716605 -1.2215593 2 2 -0.090262733
3.6882226 13.803172 1.2499877 26 10 -0.090260431
2.1982257 8.2211065 -1.3478395 1 3 -0.090258129
2.9031732 10.849959 1.3790736 24 11 -0.090255819
2.3860741 8.9049511 1.4601595 27 12 -0.090251215
1.7196038 6.4131842 1.2906321 2 13 -0.090246603
2.2360406 8.3333826 -0.45218271 20 6 -0.090244301
1.7455013 6.5006847 1.5539619 21 14 -0.090241998
4.2846184 15.945882 -0.28820902 100 7 -0.090239696
1.5384933 5.7217598 1.5875961 37 15 -0.090237387
1.1005324 4.0731034 -1.1305215 15 0 -0.090216652
5.2977023 19.593338 0.35428387 84 8 -0.090214349
1.3100853 4.8419533 -1.158048 9 1 -0.090212047
5.1232061 18.921793 1.027355 18 9 -0.090209745
1.6444541 6.073544 -1.2230858 2 2 -0.090207435
3.7353437 13.786366 1.249639 16 10 -0.090205133
2.2289755 8.2210102 -1.3490911 1 3 -0.090202831
2.9368732 10.824431 1.3771237 29 11 -0.090200529
2.4202495 8.9080057 1.4620367 34 12 -0.090195917
3.677573 13.535729 -1.2271528 3 5 -0.090193614
1.7430112 6.4109306 1.2913953 5 13 -0.090191312
2.2205496 8.1617126 -0.44328558 34 6 -0.090189002
1.5198983 5.5826068 1.3357594 1 14 -0.0901867
4.3449821 15.948196 -0.2885232 100 7 -0.090184398
1.5604906 5.7238092 1.5896666 37 15 -0.090182096
1.1152551 4.0711002 -1.1310393 16 0 -0.090161361
5.3702798 19.59016 0.35456312 87 8 -0.090159051
1.3321356 4.856143 -1.162547 8 1 -0.090156749
5.1871147 18.896088 1.0269363 18 9 -0.090154447
1.6708432 6.0866981 -1.2269019 2 2 -0.090152144
2.2576609 8.2131786 -1.3490911 1 3 -0.090147533
2.9767485 10.821769 1.3780986 37 11 -0.09014523
2.4518561 8.9014072 1.4623495 34 12 -0.090140618
3.8501971 13.978052 -1.2684647 1 5 -0.090138316
1.7659024 6.4067001 1.291777 41 13 -0.090136014
3.8400629 13.922302 -0.75688267 12 6 -0.090133712
1.7851386 6.4676762 1.5490129 3 14 -0.090131409
4.4032912 15.942569 -0.28869772 100 7 -0.0901291
1.5814862 5.7220526 1.5907019 37 15 -0.090126798
1.130492 4.0709052 -1.1320745 12 0 -0.090106063
5.4413109 19.580923 0.35473761 81 8 -0.09010376
1.3459471 4.840198 -1.1598476 8 1 -0.090101451
5.2557163 18.887489 1.0274596 21 9 -0.090099148
1.6920784 6.0808291 -1.2269019 2 2 -0.090096846
3.8346994 13.77147 1.2506849 21 10 -0.090094544
2.2863188 8.2052479 -1.3490911 1 3 -0.090092234
3.0155692 10.815137 1.3785861 37 11 -0.090089932
2.4813216 8.8870859 1.4614109 35 12 -0.090085328
3.7296591 13.358123 -1.2133822 3 5 -0.090083025
1.7914236 6.4118423 1.2940667 30 13 -0.090080716
3.9252098 14.039611 -0.76400036 3 6 -0.090078413
1.8129563 6.4801717 1.553512 7 14 -0.090076111
4.4599891 15.930954 -0.28876752 100 7 -0.090073809
1.6024941 5.7202172 1.5917372 37 15 -0.090071499
1.1436495 4.0632153 -1.1310393 10 0 -0.090050764
5.5139613 19.577213 0.35501686 81 8 -0.090048462
1.3638884 4.8392229 -1.1607474 9 1 -0.09004616
5.3166904 18.864191 1.0271456 21 9 -0.09004385
1.7037034 6.040874 -1.2200328 2 2 -0.090041548
3.8811214 13.75225 1.250162 23 10 -0.090039246
2.3095717 8.1782074 -1.3459623 1 3 -0.090036944
3.0543857 10.808365 1.3790736 37 11 -0.090034641
2.5091641 8.873107 1.4604723 37 12 -0.090030029
3.7426214 13.226164 -1.2025748 3 5 -0.090027727
1.8154004 6.4112158 1.2952114 33 13 -0.090025425
3.9404387 13.906682 -0.75751072 9 6 -0.090023115
1.8328402 6.4684997 1.5521622 10 14 -0.090020813
4.5149722 15.923771 -0.28890714 100 7 -0.090018511
1.6182921 5.7037206 1.5886314 37 15 -0.090016209
1.1544687 4.0501113 -1.1284511 13 0 -0.089995466
5.580493 19.564589 0.35512158 87 8 -0.089993164
1.3799297 4.8346729 -1.1607474 8 1 -0.089990862
5.3803186 18.850294 1.027355 21 9 -0.089988559
1.723725 6.0351911 -1.2200328 2 2 -0.089986257
3.9256129 13.735472 1.2498133 28 10 -0.089983948
2.3421133 8.189496 -1.3490911 1 3 -0.089981645
3.0923929 10.805811 1.3800485 34 11 -0.089979343
2.5440116 8.883729 1.4636011 34 12 -0.089974731
3.8193944 13.328597 -1.2130336 7 5 -0.089972429
1.8355671 6.4013872 1.2944483 46 13 -0.089970127
3.9595385 13.799469 -0.75238174 9 6 -0.089967825
1.8548167 6.4642596 1.5526122 14 14 -0.089965515
4.5694127 15.914478 -0.28901187 100 7 -0.089963213
1.6366628 5.696466 1.5881137 39 15 -0.08996091
1.1705728 4.0555406 -1.1310393 10 0 -0.089940175
5.6453462 19.545975 0.35512158 84 8 -0.089937873
1.3975767 4.8356872 -1.1620972 8 1 -0.089935564
5.4444265 18.825642 1.0270408 9 9 -0.089933261
1.7459124 6.0369854 -1.2215593 2 2 -0.089930959
3.9716911 13.724293 1.2499877 26 10 -0.089928657
2.3505747 8.1171732 -1.3384535 1 3 -0.089926347
3.1260026 10.78787 1.3790736 34 11 -0.089924045
2.5761046 8.8785887 1.4642268 34 12 -0.08991944
3.868567 13.333081 -1.2146025 10 5 -0.089917131
1.8595238 6.4046912 1.2963563 62 13 -0.089914829
4.0024891 13.776674 -0.75185847 9 6 -0.089912526
1.8790007 6.4633603 1.5539619 21 14 -0.089910224
4.6221485 15.888829 -0.28883734 87 7 -0.089907914
1.4454194 4.9654675 1.3857172 1 15 -0.089905612
1.1868901 4.0588474 -1.1331098 9 0 -0.089884877
5.7180371 19.541502 0.3554008 70 8 -0.089882575
1.4117111 4.8214273 -1.1598476 9 1 -0.089880273
5.5168414 18.829523 1.0282969 21 9 -0.089877963
1.7724935 6.049695 -1.2253754 2 2 -0.089875661
4.0240612 13.725639 1.2513821 28 10 -0.089873359
2.3978031 8.1733646 -1.3490911 1 3 -0.089871056
3.1625195 10.773083 1.3785861 37 11 -0.089868747
2.6048553 8.8619614 1.4629753 5 12 -0.089864142
3.9089072 13.298469 -1.212685 10 5 -0.08986184
1.8796517 6.3906279 1.2948298 68 13 -0.08985953
4.0499935 13.760701 -0.75175375 7 6 -0.089857228
1.6615185 5.6417217 1.3578045 5 14 -0.089854926
4.678709 15.876434 -0.28890714 76 7 -0.089852624
1.680763 5.6997256 1.5922549 11 15 -0.089850321
1.1999526 4.0509748 -1.1320745 10 0 -0.089829579
4.6451082 15.671591 0.28531197 63 8 -0.089827277
1.4301939 4.8220754 -1.1611973 6 1 -0.089824975
5.5745759 18.783346 1.0268315 21 9 -0.089822672
1.7935989 6.0434713 -1.2253754 2 2 -0.089820363
4.0708175 13.707688 1.2510335 26 10 -0.08981806
2.4263172 8.1649456 -1.3490911 1 3 -0.089815758
3.2018003 10.767687 1.3793174 35 11 -0.089813456
2.6346443 8.8490276 1.4623495 35 12 -0.089808844
3.9632607 13.311477 -1.2151253 10 5 -0.089806542
1.9053096 6.3953171 1.2971196 61 13 -0.08980424
4.0734711 13.664178 -0.74725288 13 6 -0.089801937
1.9229634 6.4463501 1.5530621 49 14 -0.089799628
4.7329531 15.856175 -0.28883734 71 7 -0.089797325
1.6995443 5.6901212 1.5912195 11 15 -0.089795023
1.2135298 4.0449114 -1.1315569 13 0 -0.089774288
4.7026629 15.664855 0.28548649 81 8 -0.089771979
1.4458973 4.8133211 -1.1602976 8 1 -0.089769676
5.6412544 18.767601 1.0270408 21 9 -0.089767374
1.8146822 6.0371737 -1.2253754 2 2 -0.089765072
4.1174908 13.689579 1.2506849 26 10 -0.089762762
3.9907668 13.259865 -2.1932113 1 3 -0.08976046
3.2387927 10.754546 1.3790736 34 11 -0.089758158
2.6660895 8.8416681 1.4626625 33 12 -0.089753553
4.0114317 13.303284 -1.2156483 5 5 -0.089751244
1.9315933 6.4017835 1.299791 61 13 -0.089748941
4.120563 13.647964 -0.74714822 9 6 -0.089746639
1.9437647 6.4340014 1.5517124 50 14 -0.089744337
4.7836471 15.824243 -0.2885581 28 7 -0.089742027
1.4928644 4.935266 1.3815762 1 15 -0.089739725
1.2270814 4.0388021 -1.1310393 9 0 -0.08971899
4.7584753 15.652172 0.28555629 78 8 -0.089716688
1.4683607 4.8268886 -1.1647966 8 1 -0.089714378
5.7073178 18.749704 1.0271456 21 9 -0.089712076
1.8300296 6.0120206 -1.2215593 2 2 -0.089709774
4.163507 13.669407 1.250162 26 10 -0.089707471
4.0364494 13.243966 -2.1928985 1 3 -0.089705169
3.2774742 10.746971 1.3795611 30 11 -0.08970286
2.6969347 8.8323078 1.4626625 33 12 -0.089698255
4.0549321 13.279674 -1.2147768 7 5 -0.089695953
1.9539266 6.3950024 1.299791 60 13 -0.089693643
4.4764962 14.641973 -0.80241495 43 6 -0.089691341
1.9690609 6.4364953 1.5539619 56 14 -0.089689039
4.6257944 15.11144 -0.27585274 53 7 -0.089686736
1.5004656 4.898623 1.3727763 22 15 -0.089684427
1.2411729 4.0344939 -1.1310393 11 0 -0.089663692
4.8142552 15.639288 0.28562608 72 8 -0.08966139
1.4829073 4.8142834 -1.1629969 5 1 -0.089659087
5.6433158 18.309761 1.0041177 18 9 -0.089656785
1.8510058 6.0055957 -1.2215593 2 2 -0.089654475
4.213542 13.662406 1.2508591 23 10 -0.089652173
2.511106 8.1372013 -1.3487781 1 3 -0.089649871
3.3137999 10.731671 1.3790736 30 11 -0.089647569
2.7295017 8.8285017 1.4636011 31 12 -0.089642957
4.1124473 13.301603 -1.2180886 3 5 -0.089640655
1.9715973 6.3731389 1.296738 57 13 -0.089638352
4.4224482 14.286646 -0.78378338 43 6 -0.089636043
1.9967073 6.4463353 1.5580109 64 14 -0.08963374
4.6897674 15.131491 -0.27651593 23 7 -0.089631438
1.5204135 4.9025822 1.3753644 54 15 -0.089629136
1.2569711 4.0356708 -1.1325922 11 0 -0.089608401
6.0772505 19.499825 0.35651776 70 8 -0.089606091
1.495061 4.7941952 -1.1593977 8 1 -0.089603789
5.8365951 18.716143 1.0274596 21 9 -0.089601487
1.8778046 6.0178394 -1.2253754 2 2 -0.089599185
4.2612109 13.647614 1.2508591 23 10 -0.089596875
2.5394931 8.1283875 -1.3487781 1 3 -0.089594573
2.7605302 8.825058 1.4645396 33 12 -0.089587659
4.1582618 13.285265 -1.2179143 3 5 -0.089585356
1.9950039 6.3699646 1.2975012 71 13 -0.089583054
4.460947 14.234908 -0.78179461 15 6 -0.089580752
2.0168662 6.4318881 1.5562114 54 14 -0.089578442
4.9798512 15.880996 -0.29051274 59 7 -0.08957614
1.541291 4.9122591 1.3795056 18 15 -0.089573838
1.2739561 4.0404701 -1.1351804 11 0 -0.089553103
6.1460958 19.492912 0.35676211 87 8 -0.089550801
1.5150543 4.8022208 -1.162547 8 1 -0.089548491
5.8976774 18.682322 1.0267268 12 9 -0.089546189
1.8905224 5.9850388 -1.2200328 2 2 -0.089543886
4.3070264 13.626957 1.2503363 21 10 -0.089541584
2.5664361 8.1199207 -1.3487781 1 3 -0.089539275
3.404125 10.763756 1.386142 1 11 -0.089536972
4.0899653 12.924498 -1.6644917 1 4 -0.08953467
2.7877433 8.8040676 1.4626625 35 12 -0.089532368
4.202796 13.264973 -1.2173914 3 5 -0.089530058
2.0244169 6.3895164 1.3028439 53 13 -0.089527756
4.52986 14.288575 -0.78556281 19 6 -0.089525454
1.7388488 5.481544 1.3276612 13 14 -0.089523152
5.0388751 15.874956 -0.29072219 38 7 -0.089520849
1.5590146 4.90869 1.3800232 22 15 -0.08951854
1.2814767 4.0178185 -1.130004 10 0 -0.089497805
6.2201681 19.490395 0.35711116 87 8 -0.089495502
1.5288452 4.7876205 -1.1602976 6 1 -0.0894932
5.9920392 18.752939 1.0317512 3 9 -0.089490891
1.9055774 5.9637756 -1.2169799 2 2 -0.089488588
4.3515759 13.610703 1.250162 23 10 -0.089486286
2.5947626 8.1109133 -1.3487781 1 3 -0.089483984
3.430181 10.715885 1.381511 19 11 -0.089481674
4.1241469 12.876116 -1.6601044 1 4 -0.089479372
2.8184562 8.7942839 1.4626625 33 12 -0.08947707
4.2504134 13.262345 -1.2184372 3 5 -0.089474767
2.0461102 6.3805408 1.3024622 48 13 -0.089472465
4.5754409 14.259362 -0.78483003 16 6 -0.089470156
1.7573754 5.4735861 1.3272111 5 14 -0.089467853
6.2239428 19.373703 -0.35519138 24 7 -0.089465551
1.8149859 5.6462407 1.589149 39 15 -0.089463249
1.295493 4.0133209 -1.130004 14 0 -0.089442506
6.2906275 19.476173 0.35725078 87 8 -0.089440204
1.5479462 4.7896714 -1.1620972 8 1 -0.089437902
6.0384078 18.672998 1.0285063 21 9 -0.0894356
1.9360472 5.9869766 -1.2230858 2 2 -0.089433298
4.3978362 13.59164 1.2498133 23 10 -0.089430988
2.6230612 8.1018057 -1.3487781 1 3 -0.089428686
3.4663398 10.70007 1.3810235 19 11 -0.089426383
4.16295 12.842757 -1.6576669 1 4 -0.089424081
2.8497488 8.7862711 1.4629753 34 12 -0.089421771
4.3016028 13.262589 -1.2198317 3 5 -0.089419469
2.071399 6.3826976 1.3043704 33 13 -0.089417167
4.894743 15.073439 -0.83057171 3 6 -0.089414865
1.7794836 5.4766846 1.3294607 7 14 -0.089412555
6.3162584 19.427929 -0.35658759 79 7 -0.089410253
1.8334848 5.636198 1.5881137 39 15 -0.089407951
1.3118945 4.0161195 -1.1320745 11 0 -0.089387216
6.3623066 19.4655 0.35746017 91 8 -0.089384913
1.5616237 4.7749786 -1.1598476 8 1 -0.089382604
6.1035571 18.651804 1.0285063 21 9 -0.089380302
1.947166 5.9503269 -1.2169799 2 2 -0.089377999
4.4471164 13.581883 1.2503363 28 10 -0.089375697
2.6513202 8.0926018 -1.3487781 1 3 -0.089373387
3.5005796 10.678473 1.3798048 19 11 -0.089371085
4.2114701 12.839463 -1.6591294 1 4 -0.089368783
2.8840911 8.7875338 1.4648525 37 12 -0.089366481
4.3453774 13.239924 -1.2191346 3 5 -0.089364171
2.090605 6.3661008 1.3024622 28 13 -0.089361869
5.1561999 15.691904 -0.86563683 64 6 -0.089359567
1.7991948 5.4722924 1.3299106 11 14 -0.089357264
6.38904 19.420958 -0.35686684 83 7 -0.089354955
1.8543572 5.6334329 1.589149 41 15 -0.089352652
1.3271192 4.0151844 -1.1331098 11 0 -0.089331917
6.4327226 19.450768 0.35759982 91 8 -0.089329615
1.5782833 4.7694983 -1.1598476 8 1 -0.089327313
6.166121 18.622801 1.0280876 21 9 -0.089325003
1.9790341 5.9770412 -1.2238491 2 2 -0.089322701
4.4951229 13.56817 1.2505106 47 10 -0.089320399
2.6795549 8.0832968 -1.3487781 1 3 -0.089318097
3.5340865 10.654882 1.3783424 17 11 -0.089315787
4.2525082 12.813381 -1.6576669 1 4 -0.089313485
2.9153726 8.7792864 1.4651654 35 12 -0.089311182
4.2917337 12.924027 -1.191419 1 5 -0.08930888
2.1097205 6.3494487 1.3005542 38 13 -0.089306571
5.2027488 15.649172 -0.86427605 69 6 -0.089304268
1.817672 5.464129 1.3294607 13 14 -0.089301966
6.4618506 19.413713 -0.35714605 83 7 -0.089299664
1.8752298 5.6305914 1.5901842 41 15 -0.089297354
1.3417367 4.0123601 -1.1336274 12 0 -0.089276619
6.5088329 19.452845 0.35805357 87 8 -0.089274317
1.5961586 4.7676563 -1.1607474 8 1 -0.089272015
6.2298074 18.597382 1.0278783 21 9 -0.089269713
1.983668 5.9216967 -1.2139269 2 2 -0.089267403
4.5462599 13.563729 1.2515564 28 10 -0.089265101
3.5737762 10.650011 1.3793174 29 11 -0.089260496
2.9422281 8.7578201 1.4632881 35 12 -0.089255884
4.3520517 12.954293 -1.1956024 1 5 -0.089253582
2.1425014 6.373683 1.3070416 26 13 -0.08925128
5.2541642 15.62145 -0.86375272 63 6 -0.08924897
1.8361144 5.4559035 1.3290108 16 14 -0.089246668
6.5295734 19.391041 -0.35714605 83 7 -0.089244366
1.8967249 5.6295037 1.5917372 43 15 -0.089242063
1.3544971 4.0039916 -1.1325922 12 0 -0.089221328
6.5798979 19.439478 0.35822809 84 8 -0.089219019
1.6127926 4.7620554 -1.1607474 8 1 -0.089216717
6.292768 18.569845 1.0275643 25 9 -0.089214414
2.0005476 5.9035797 -1.2116373 2 2 -0.089212112
4.5954947 13.55344 1.2520794 83 10 -0.089209802
