# .PCD v0.7 - Point Cloud Data file format
VERSION 0.7
FIELDS x y z intensity ring time
SIZE 4 4 4 4 2 4
TYPE F F F F U F
COUNT 1 1 1 1 1 1
WIDTH 974
HEIGHT 1
VIEWPOINT 0 0 0 1 0 0 0
POINTS 974
DATA ascii
4.8999505 3.907382 1.4468851 30 14 -0.09378396
6.6706328 5.3174734 -0.14890394 9 7 -0.093781658
4.7107754 3.7538388 1.6139956 35 15 -0.093779355
3.218179 2.5580235 -1.1015339 12 0 -0.09375862
12.006814 9.5403881 0.267685 8 8 -0.093756311
3.7996058 3.0180166 -1.1202562 11 1 -0.093754008
6.547554 5.1988411 0.43815669 87 9 -0.093751706
4.6556239 3.6966245 -1.1555393 14 2 -0.093749404
6.5293765 5.1825452 0.72931921 54 10 -0.093747094
5.8230443 4.6202536 -1.177326 7 3 -0.093744792
6.5274801 5.1773324 1.0229713 15 11 -0.09374249
4.5560265 3.6123564 -0.7139107 48 4 -0.093740188
7.5252652 5.9644508 1.520856 30 12 -0.093737878
4.8934989 3.8785388 -0.54629219 31 5 -0.093735576
6.2752342 4.9719105 1.5562382 33 13 -0.093733273
6.4114265 5.0779905 -0.42863154 1 6 -0.093730971
5.18399 4.104362 1.5265179 66 14 -0.093728669
6.6577897 5.2693405 -0.14820585 20 7 -0.093726359
4.2163181 3.3358257 1.4405869 18 15 -0.093724057
3.2225397 2.5431828 -1.099981 11 0 -0.093703322
12.085567 9.5343456 0.26869726 23 8 -0.09370102
3.8009377 2.9974937 -1.1175569 9 1 -0.09369871
6.5860534 5.1920271 0.43951741 31 9 -0.093696408
4.6499987 3.6657641 -1.1509598 11 2 -0.093694106
6.538034 5.1523271 0.72827333 83 10 -0.093691804
5.8298249 4.592566 -1.1754488 7 3 -0.093689494
9.305953 7.3283267 1.454389 16 11 -0.093687192
4.5873232 3.6111686 -0.71683556 51 4 -0.093684889
6.3002677 4.9560428 1.5581464 35 13 -0.093677975
6.4259744 5.0531087 -0.42842221 0 6 -0.093675673
5.4173698 4.25846 1.5908539 45 14 -0.093673371
6.7013011 5.2658348 -0.14876431 31 7 -0.093671069
4.2127457 3.3091531 1.4354105 71 15 -0.093668759
3.2207525 2.5235791 -1.0963575 12 0 -0.093648024
12.175449 9.5364876 0.26995382 2 8 -0.093645722
3.8236532 2.9938178 -1.1211561 9 1 -0.093643419
12.756716 9.9881659 0.84909862 100 9 -0.09364111
4.6581278 3.6458814 -1.1498151 2 2 -0.093638808
6.532443 5.1110554 0.72565866 72 10 -0.093636505
5.8271503 4.5575824 -1.1716943 7 3 -0.093634203
9.3361673 7.2994676 1.4551201 27 11 -0.093631901
4.6117849 3.6057167 -0.71878546 55 4 -0.093629591
6.5182257 5.0944319 1.3102952 5 12 -0.093627289
6.2942286 4.9175892 -0.69881475 1 5 -0.093624987
6.3066969 4.9255633 1.555475 32 13 -0.093622684
6.4152331 5.0085282 -0.42653811 1 6 -0.093620375
4.9614301 3.8735089 1.4531839 22 14 -0.093618073
6.7880907 5.2977157 -0.15030013 12 7 -0.09361577
4.2236934 3.2951679 1.4354105 41 15 -0.093613468
3.2367258 2.5188177 -1.0989457 12 0 -0.093592726
12.214902 9.5021954 0.27012834 40 8 -0.093590423
3.8304825 2.9787297 -1.1202562 9 1 -0.093588121
6.4973645 5.0525994 0.431353 56 9 -0.093585819
4.5833912 3.5629399 -1.1284446 4 2 -0.093583517
6.5163198 5.0636902 0.72199816 83 10 -0.093581207
5.8219504 4.5224814 -1.167627 11 3 -0.093578905
9.3681631 7.2745533 1.4563388 11 11 -0.093576603
4.6378288 3.6013603 -0.72097909 60 4 -0.0935743
6.5460086 5.0812664 1.3124853 1 12 -0.093571991
6.2916112 4.8820338 -0.69672298 1 5 -0.093569688
5.8281407 4.5207705 1.4337388 8 13 -0.093567386
6.3970838 4.9603 -0.42423528 0 6 -0.093565084
5.4562736 4.2307959 1.5940032 58 14 -0.093562774
6.559063 5.0840654 -0.14485498 11 7 -0.093560472
4.5781913 3.5473723 1.551879 7 15 -0.09355817
3.2420042 2.5057068 -1.0979104 10 0 -0.093537435
6.5686216 5.0749793 0.14488988 10 8 -0.093535133
3.8249171 2.9540985 -1.1157572 9 1 -0.093532823
6.4865041 5.0079193 0.4294689 24 9 -0.093530521
4.6480179 3.5885122 -1.1414195 2 2 -0.093528219
6.5267653 5.0371861 0.7213009 69 10 -0.093525916
5.8775816 4.5345216 -1.1757616 10 3 -0.093523607
9.3796587 7.2337503 1.454389 26 11 -0.093521304
4.6440821 3.580302 -0.72000414 60 4 -0.093519002
7.6182809 5.8711014 1.5233591 33 12 -0.0935167
6.2762046 4.8368173 -0.69323677 1 5 -0.09351439
5.8213263 4.4846463 1.4283962 27 13 -0.093512088
6.3818488 4.9146881 -0.42214185 0 6 -0.093509786
5.4710097 4.2117224 1.5940032 45 14 -0.093507484
6.5181322 5.016017 -0.14356351 10 7 -0.093505174
4.6854801 3.6044011 1.5839727 9 15 -0.093502872
3.2568619 2.4990778 -1.099981 9 0 -0.093482137
6.8258843 5.2357969 0.15016051 2 8 -0.093479834
3.8382981 2.9431014 -1.116657 8 1 -0.093477532
6.4865098 4.97188 0.42831749 24 9 -0.093475223
4.6916804 3.5961514 -1.1490518 2 2 -0.09347292
6.5316563 5.0046797 0.71990639 83 10 -0.093470618
5.9482608 4.5560193 -1.186712 11 3 -0.093468316
9.4127331 7.206996 1.4556075 21 11 -0.093466006
4.6786213 3.5809593 -0.72341651 58 4 -0.093463704
7.6450024 5.8492756 1.5246104 30 12 -0.093461402
6.2803903 4.8051958 -0.69184226 1 5 -0.0934591
5.840065 4.4666824 1.4291594 43 13 -0.09345679
6.395793 4.8899531 -0.42193252 1 6 -0.093454488
5.4841285 4.1914172 1.5935532 13 14 -0.093452185
6.4974666 4.9640956 -0.14272578 16 7 -0.093449883
4.7302756 3.6126463 1.594843 3 15 -0.093447581
3.2609553 2.4841828 -1.0984281 13 0 -0.093426839
6.6054835 5.03021 0.14492479 2 8 -0.093424536
3.8563004 2.9355876 -1.1189066 9 1 -0.093422234
6.4799833 4.9310665 0.42674741 56 9 -0.093419932
4.7151399 3.5880754 -1.1517231 11 2 -0.093417622
6.5189576 4.9589281 0.71659446 92 10 -0.09341532
5.9452586 4.5208817 -1.1829575 6 3 -0.093413018
6.4983869 4.9397006 1.0022535 13 11 -0.093410715
4.7132192 3.5814214 -0.72682881 52 4 -0.093408406
7.6559343 5.8153863 1.5227332 33 12 -0.093406104
6.249527 4.7470908 -0.6866129 1 5 -0.093403801
5.875946 4.4617047 1.4341204 7 13 -0.093401499
6.3905506 4.8506942 -0.42046711 1 6 -0.093399197
5.5406413 4.2040539 1.6057006 16 14 -0.093396887
6.4876714 4.9208403 -0.14213239 31 7 -0.093394585
4.8413773 3.6708138 1.6279719 39 15 -0.093392283
3.2619035 2.4669576 -1.0958399 12 0 -0.093371548
6.4587045 4.8829069 0.14132959 23 8 -0.093369238
3.8665233 2.9221098 -1.1189066 8 1 -0.093366936
13.155271 9.9384279 0.86406672 100 9 -0.093364634
4.7339029 3.5763273 -1.1532496 11 2 -0.093362331
6.509201 4.915729 0.71363121 83 10 -0.093360022
5.664607 4.2763467 -1.1241382 12 3 -0.093357719
9.4929247 7.1638269 1.4602386 26 11 -0.093355417
4.7526336 3.5852692 -0.73097235 25 4 -0.093353115
7.6872258 5.7969537 1.5249233 31 12 -0.093350813
6.2342429 4.7012558 -0.68312669 1 5 -0.093348503
6.4104004 4.8323379 1.560436 8 13 -0.093346201
6.4010639 4.8235474 -0.42004842 1 6 -0.093343899
5.0540767 3.8071406 1.4608321 18 14 -0.093341596
6.4952221 4.8909473 -0.14192297 13 7 -0.093339287
4.8603363 3.6585381 1.6300424 46 15 -0.093336985
3.2735841 2.4578769 -1.0968752 11 0 -0.09331625
6.4469204 4.8387265 0.14070129 15 8 -0.093313947
3.8626716 2.8980684 -1.1148574 9 1 -0.093311638
13.220239 9.9152184 0.86605549 63 9 -0.093309335
4.7369332 3.5527139 -1.1509598 9 2 -0.093307033
6.4800892 4.8583193 0.70857614 67 10 -0.093304731
5.6384025 4.2257447 -1.1160036 12 3 -0.093302429
9.5003958 7.1175566 1.4575576 14 11 -0.093300119
6.1347537 4.5943952 -0.94107521 1 4 -0.093297817
7.7089977 5.7712669 1.5252361 30 12 -0.093295515
6.2410469 4.6722999 -0.68208081 1 5 -0.093293212
6.422513 4.8064036 1.5592911 25 13 -0.093290903
6.3730817 4.7676764 -0.4171176 0 6 -0.0932886
5.0361238 3.7661326 1.4518342 37 14 -0.093286298
6.5138564 4.8694444 -0.14195788 10 7 -0.093283996
4.289669 3.2055824 1.4348928 35 15 -0.093281686
3.2852409 2.4487445 -1.0979104 11 0 -0.093260951
6.4830151 4.8305287 0.14112017 34 8 -0.093258649
3.8790164 2.8892229 -1.116657 9 1 -0.093256347
13.320448 9.9179173 0.87034708 100 9 -0.093254045
4.7556043 3.5408485 -1.1524864 11 2 -0.093251735
6.5018048 4.8392372 0.70909911 83 10 -0.093249433
5.65312 4.2060356 -1.1160036 12 3 -0.093247131
9.5395174 7.0950146 1.4597511 31 11 -0.093244828
6.1029634 4.5374193 -0.93376297 1 4 -0.093242519
7.7227564 5.7396073 1.5239848 19 12 -0.093240216
6.2573195 4.6504841 -0.68208081 1 5 -0.093237914
6.4439783 4.7874694 1.560436 33 13 -0.093235612
6.3576183 4.7215834 -0.41502416 0 6 -0.093233302
5.0680161 3.7624683 1.457233 33 14 -0.093231
6.4537344 4.7894759 -0.14028244 23 7 -0.093228698
4.3023853 3.1917391 1.4354105 61 15 -0.093226396
3.2953224 2.4384105 -1.0984281 11 0 -0.093205661
6.543241 4.8399816 0.14206259 15 8 -0.093203351
3.8843763 2.87219 -1.1153073 8 1 -0.093201049
13.382173 9.8950605 0.87223113 63 9 -0.093198746
4.7647781 3.5218914 -1.1517231 9 2 -0.093196444
5.6645885 4.1839309 -1.1153778 13 3 -0.093191832
9.5642271 7.0616698 1.4597511 33 11 -0.09318953
6.0995975 4.5019441 -0.93083817 1 4 -0.093187228
7.7465129 5.7174869 1.5249233 13 12 -0.093184918
6.2414484 4.6049576 -0.67859459 1 5 -0.093182616
5.9171295 4.3640795 1.4291594 40 13 -0.093180314
6.3612013 4.6898789 -0.41418681 0 6 -0.093178011
5.5501685 4.0904436 1.5917536 14 14 -0.093175702
6.5355825 4.8166885 -0.14171354 25 7 -0.0931734
4.3098345 3.1751635 1.4343752 60 15 -0.093171097
3.2944717 2.4200313 -1.0953223 11 0 -0.093150362
6.5012388 4.7756371 0.14080602 52 8 -0.09314806
3.8938792 2.8592937 -1.1153073 8 1 -0.09314575
13.474596 9.890831 0.87599933 89 9 -0.093143448
4.7707109 3.5005932 -1.1501967 9 2 -0.093141146
6.4245768 4.7124219 0.69707161 36 10 -0.093138844
5.6863952 4.1709661 -1.1169422 18 3 -0.093136534
6.4611006 4.737473 0.98372942 18 11 -0.093134232
6.0984817 4.4699578 -0.92840075 1 4 -0.09313193
7.7743897 5.6962509 1.5264877 16 12 -0.093129627
5.929986 4.3432717 1.4287778 19 13 -0.093125015
6.3734927 4.6664033 -0.41397744 0 6 -0.093122713
5.5841446 4.0869794 1.5976024 16 14 -0.093120411
6.5636549 4.8021088 -0.14195788 69 7 -0.093118109
4.3583164 3.1874688 1.4467984 11 15 -0.093115799
3.3009171 2.4079549 -1.0948045 11 0 -0.093095064
6.4968657 4.737596 0.14035226 31 8 -0.093092762
3.9132855 2.8525705 -1.1180067 8 1 -0.09309046
13.557458 9.8790312 0.87913948 63 9 -0.09308815
4.7965727 3.4951606 -1.1536313 7 2 -0.093085848
6.4144025 4.6723199 0.69428265 20 10 -0.093083546
5.6833553 4.1382999 -1.1135007 20 3 -0.093081243
9.6313295 7.0104275 1.462676 35 11 -0.093078934
6.1076279 4.4439697 -0.92742574 1 4 -0.093076631
6.4587135 4.6976995 1.2649293 10 12 -0.093074329
5.9593987 4.3329406 1.4322125 48 13 -0.093069725
6.367125 4.627686 -0.41251206 0 6 -0.093067415
5.3524342 3.8887718 1.5274177 17 14 -0.093065113
6.619205 4.807375 -0.14279559 70 7 -0.093062811
4.9353285 3.5830953 1.6341835 13 15 -0.093060508
3.306174 2.3941512 -1.0937693 12 0 -0.093039766
6.468009 4.682055 0.13937493 77 8 -0.093037464
3.9090095 2.8286126 -1.1139576 9 1 -0.093035161
13.64203 9.8679314 0.8823843 46 9 -0.093032859
4.8055634 3.4760933 -1.152868 7 2 -0.093030557
6.4209867 4.6428952 0.69323677 27 10 -0.093028247
5.6865582 4.1103368 -1.1113106 25 3 -0.093025945
9.6460896 6.9697866 1.4612136 14 11 -0.093023643
6.1166668 4.4179721 -0.92645079 1 4 -0.093021341
6.4862823 4.6832218 1.2671193 21 12 -0.093019031
1.7171111 1.2397875 -0.18529311 13 5 -0.093016729
6.1368647 4.429306 1.4711374 27 13 -0.093014427
6.3411293 4.575047 -0.40979058 1 6 -0.093012124
5.6346688 4.0638537 1.6039009 1 14 -0.093009815
6.5272679 4.7058854 -0.14045697 54 7 -0.093007512
4.9556432 3.5714927 1.6367717 5 15 -0.09300521
3.3176472 2.3848515 -1.0948045 11 0 -0.092984475
6.4989257 4.6699553 0.13968907 94 8 -0.092982173
3.9141119 2.8115385 -1.1126078 8 1 -0.092979863
13.729931 9.8586903 0.88583845 100 9 -0.092977561
4.8240476 3.4638767 -1.1543945 7 2 -0.092975259
6.4711418 4.6448555 0.69689733 13 10 -0.092972957
5.7056875 4.0939145 -1.1122491 37 3 -0.092970647
9.6816521 6.944169 1.4629197 15 11 -0.092968345
6.0739708 4.3549571 -0.91767621 1 4 -0.092966042
7.868938 5.6398401 1.5333707 13 12 -0.09296374
1.7100925 1.2256608 -0.18407291 61 5 -0.092961431
6.5321198 4.6799879 1.5619626 31 13 -0.092959128
6.3667998 4.5598664 -0.41041863 1 6 -0.092956826
5.6329761 4.032815 1.599402 14 14 -0.092954524
6.5940671 4.7191482 -0.14153902 57 7 -0.092952214
4.9837894 3.5654161 1.6419481 15 15 -0.092949912
3.3228076 2.3710113 -1.0937693 12 0 -0.092929177
6.4907684 4.6298213 0.13916549 85 8 -0.092926875
3.9191415 2.7944655 -1.1112581 9 1 -0.092924573
13.814677 9.8466434 0.88908333 34 9 -0.092922263
4.823319 3.4379015 -1.1513416 4 2 -0.092919961
6.4435062 4.5910211 0.69219089 15 10 -0.092917658
5.710288 4.0670986 -1.1103719 36 3 -0.092915356
9.7171516 6.9183931 1.464626 12 11 -0.092913046
6.0632596 4.31531 -0.9137764 1 4 -0.092910744
7.9046741 5.6237879 1.5364995 15 12 -0.092908442
1.7338423 1.2335438 -0.18616466 86 5 -0.09290614
6.5436153 4.6537461 1.5608176 24 13 -0.09290383
6.3436112 4.5098386 -0.40790647 1 6 -0.092901528
5.6517854 4.0165129 1.6007516 9 14 -0.092899226
6.7083116 4.7655892 -0.14363331 56 7 -0.092896923
5.0151067 3.561419 1.6481597 15 15 -0.092894614
3.3279114 2.3571641 -1.092734 10 0 -0.092873879
6.4807763 4.5886488 0.13860701 95 8 -0.092871577
3.9384155 2.7875237 -1.1139576 9 1 -0.092869274
13.904403 9.8375788 0.8926422 100 9 -0.092866972
4.830483 3.4176407 -1.1501967 7 2 -0.092864662
6.4529848 4.5639009 0.69149363 15 10 -0.09286236
5.7179976 4.0425811 -1.1091205 40 3 -0.092860058
6.452014 4.5598316 0.97008008 16 11 -0.092857756
6.123682 4.3261919 -0.92060113 1 4 -0.092855446
1.7234896 1.2171412 -0.18459585 93 5 -0.092850842
6.0048828 4.2391186 1.4287778 32 13 -0.092848539
6.3364682 4.4715471 -0.40644106 1 6 -0.09284623
5.1036501 3.6002328 1.4419363 1 14 -0.092843927
6.6938558 4.7202463 -0.14297011 51 7 -0.092841625
4.3738065 3.0830948 1.4338576 9 15 -0.092839323
3.3329582 2.3433118 -1.0916989 11 0 -0.092818588
6.4820309 4.5556483 0.13829286 100 8 -0.092816278
3.9433386 2.7703974 -1.1126078 9 1 -0.092813976
13.97788 9.816534 0.89515424 25 9 -0.092811674
4.8439889 3.4018879 -1.1505783 7 2 -0.092809372
6.4590936 4.5344772 0.69044781 9 10 -0.092807062
5.7159057 4.0112481 -1.1059917 36 3 -0.09280476
9.7700891 6.853806 1.4653571 3 11 -0.092802458
6.0932384 4.2728753 -0.9137764 1 4 -0.092800155
1.7228334 1.2076862 -0.18407291 95 5 -0.092795543
5.9842706 4.193347 1.4203823 5 13 -0.092793241
6.3324094 4.4356499 -0.40518501 0 6 -0.092790939
5.1161871 3.5823941 1.4419363 1 14 -0.092788637
4.3877068 3.0700247 1.4348928 54 15 -0.092784025
3.3427012 2.3327694 -1.0922165 12 0 -0.09276329
6.4683743 4.5123982 0.13766459 100 8 -0.092760988
3.9497876 2.7543871 -1.1117082 9 1 -0.092758678
14.072683 9.8099451 0.89902717 37 9 -0.092756376
4.8622756 3.3894501 -1.1521047 4 2 -0.092754073
6.4013243 4.4606433 0.68260378 27 10 -0.092751771
5.7169046 3.9822402 -1.1034888 38 3 -0.092749462
9.7955828 6.8207974 1.4656008 3 11 -0.092747159
6.1016006 4.2470422 -0.91280144 1 4 -0.092744857
6.5881066 4.5839748 1.2711866 43 12 -0.092742555
1.7303095 1.2039415 -0.18442155 95 5 -0.092740253
6.0536723 4.2105455 1.4333572 6 13 -0.092737943
6.3347363 4.4043956 -0.40434763 1 6 -0.092735641
5.1126585 3.5533929 1.4374373 1 14 -0.092733338
6.5689902 4.5638661 -0.13961925 7 7 -0.092731036
4.3952236 3.0524848 1.4338576 13 15 -0.092728727
3.3539989 2.3232875 -1.0932516 11 0 -0.092707992
6.4561367 4.4704413 0.13707121 100 8 -0.092705689
3.9465601 2.731709 -1.1081089 8 1 -0.092703387
14.172542 9.8062172 0.90321404 100 9 -0.092701085
4.8708496 3.3702219 -1.1513416 4 2 -0.092698775
6.4037457 4.4292054 0.68120927 36 10 -0.092696473
5.729147 3.9611356 -1.103176 46 3 -0.092694171
6.4373541 4.4491301 0.96081799 28 11 -0.092691869
6.0935225 4.2099218 -0.90938914 1 4 -0.092689559
6.5943165 4.5542126 1.2693094 32 12 -0.092687257
1.7377806 1.2001581 -0.18477017 93 5 -0.092684954
6.0651002 4.1871591 1.4325941 33 13 -0.092682652
6.3303447 4.3686442 -0.40309155 1 6 -0.092680342
5.1474886 3.5510156 1.4437358 1 14 -0.09267804
6.4548292 4.4512272 -0.13686177 15 7 -0.092675738
4.4106236 3.0404143 1.4354105 18 15 -0.092673436
3.3589056 2.3093762 -1.0922165 11 0 -0.092652701
6.4667568 4.4444809 0.1369665 100 8 -0.092650391
3.9657083 2.7245383 -1.1108083 9 1 -0.092648089
14.249489 9.7860851 0.90593553 100 9 -0.092645787
4.8583083 3.3365281 -1.1456172 7 2 -0.092643484
6.4438071 4.423738 0.68382394 13 10 -0.092641175
5.7380519 3.9377606 -1.1022373 47 3 -0.092638873
6.4659405 4.4356174 0.9627679 82 11 -0.09263657
6.5775876 4.5088272 1.263052 12 12 -0.092631958
1.738673 1.1918315 -0.18442155 93 5 -0.092629656
6.094254 4.175951 1.4360286 53 13 -0.092627354
5.1566381 3.5308225 1.4428362 1 14 -0.092622742
6.4653759 4.425281 -0.13675706 12 7 -0.09262044
4.4435315 3.040271 1.4426575 46 15 -0.092618138
3.3589685 2.2921917 -1.0896282 11 0 -0.092597403
6.4574509 4.4049788 0.13644291 87 8 -0.0925951
3.9735856 2.7095799 -1.1103585 8 1 -0.092592791
4.861815 3.3140192 -1.1437092 6 2 -0.092588186
6.4131045 4.3698096 0.67894322 13 10 -0.092585884
5.7550282 3.9199295 -1.1028631 47 3 -0.092583574
6.4731812 4.4074321 0.96154922 76 11 -0.092581272
6.5312238 4.4436159 1.251163 15 12 -0.092576668
1.7362331 1.1812723 -0.1837243 98 5 -0.092574358
6.1023011 4.1502347 1.434502 43 13 -0.092572056
5.2108364 3.5412812 1.4545335 1 14 -0.092567451
6.4427404 4.3768387 -0.13595425 23 7 -0.092565149
5.0486379 3.4284756 1.6352189 43 15 -0.092562839
3.3669488 2.2804534 -1.0896282 11 0 -0.092247486
6.4578862 4.3723197 0.13612877 80 8 -0.092245184
3.9862475 2.6978765 -1.1112581 8 1 -0.092242882
6.4358964 4.3557887 0.40727845 12 9 -0.092240572
4.8896136 3.3080301 -1.1475254 4 2 -0.09223827
6.4118161 4.3362336 0.67720014 24 10 -0.092235968
5.7555857 3.890965 -1.1003602 49 3 -0.092233665
6.4474063 4.3570237 0.95545572 78 11 -0.092231356
1.771601 1.1967609 -0.26250657 6 4 -0.092229053
6.583571 4.4473672 1.2583591 15 12 -0.092226751
1.7403462 1.175204 -0.1837243 89 5 -0.092224449
6.1330228 4.139894 1.4383184 17 13 -0.092222139
1.7582552 1.1864054 -0.11116158 11 6 -0.092219837
5.2587094 3.5470428 1.4644314 1 14 -0.092217535
6.6893153 4.5119982 -0.14084093 1 7 -0.092215233
5.0583768 3.4106359 1.6347013 31 15 -0.092212923
3.373286 2.2676082 -1.0891106 11 0 -0.092192188
6.4391599 4.3285666 0.13543068 57 8 -0.092189886
3.990319 2.6813827 -1.1099085 9 1 -0.092187583
6.4427686 4.3277326 0.40675509 78 9 -0.092185281
4.897872 3.2887518 -1.1467621 7 2 -0.092182972
6.4318781 4.3171554 0.67772305 27 10 -0.092180669
5.7602553 3.866354 -1.0987958 50 3 -0.092178367
6.5178652 4.3732257 0.96374285 46 11 -0.092176065
1.7607226 1.1809274 -0.26031294 67 4 -0.092173755
6.4546709 4.3275537 1.2308265 42 12 -0.092171453
1.744437 1.1691232 -0.1837243 91 5 -0.092169151
6.5234451 4.3720183 1.526472 45 13 -0.092166848
1.7406092 1.1661164 -0.10980085 59 6 -0.092164539
5.2785387 3.5350082 1.4666809 7 14 -0.092162237
6.8180184 4.5642705 -0.14321445 6 7 -0.092159934
5.0574079 3.3843615 1.63056 37 15 -0.092157632
3.3823934 2.2574825 -1.0896282 12 0 -0.092136897
6.4242849 4.2860909 0.13480239 47 8 -0.092134587
3.9931691 2.6631131 -1.1081089 8 1 -0.092132285
6.4462047 4.2974596 0.4060224 100 9 -0.092129983
4.892415 3.2616026 -1.1429459 4 2 -0.092127681
6.4146585 4.2748079 0.67441112 27 10 -0.092125371
5.7770033 3.8484147 -1.0994215 50 3 -0.092123069
6.4620442 4.303134 0.95326209 52 11 -0.092120767
1.7615296 1.1725737 -0.25982547 94 4 -0.092118464
6.5601878 4.3651848 1.2480342 12 12 -0.092116155
1.7483047 1.1633315 -0.1837243 93 5 -0.092113853
6.2101002 4.130671 1.4497669 14 13 -0.09211155
1.7380167 1.1556096 -0.10938216 90 6 -0.092109248
5.302206 3.5241127 1.4698302 7 14 -0.092106946
6.4391656 4.2781739 -0.13494201 9 7 -0.092104636
4.4946833 2.9851282 1.4457633 46 15 -0.092102334
3.3934736 2.2477963 -1.0906636 12 0 -0.092081599
6.4442101 4.2669501 0.13490711 22 8 -0.092079297
4.0008168 2.648082 -1.107659 9 1 -0.092076987
6.4878163 4.2925668 0.40769714 48 9 -0.092074685
4.9103184 3.2488391 -1.1444724 4 2 -0.092072383
6.4444947 4.2622867 0.67597991 18 10 -0.09207008
5.7772202 3.8195093 -1.0969186 55 3 -0.092067771
10.009495 6.6151013 1.4731567 100 11 -0.092065468
1.7589859 1.162042 -0.25885051 91 4 -0.092063166
6.53088 4.3128657 1.2395868 18 12 -0.092060864
1.7590058 1.1616131 -0.18442155 93 5 -0.092058562
6.1900744 4.0862536 1.4417528 36 13 -0.092056252
1.7453731 1.151737 -0.10959151 94 6 -0.09205395
5.3063421 3.5002167 1.4675807 21 14 -0.092051648
6.7495522 4.4505095 -0.14112017 1 7 -0.092049345
3.3932278 2.2306302 -1.0880753 13 0 -0.092026301
6.3989043 4.2048936 0.13365053 22 8 -0.092023998
4.0035191 2.6298234 -1.1058594 9 1 -0.092021696
6.5227957 4.2830472 0.40895322 23 9 -0.092019387
4.9150662 3.2273679 -1.1429459 4 2 -0.092017084
6.4476752 4.2321105 0.67475975 20 10 -0.092014782
5.7905149 3.7993236 -1.0969186 59 3 -0.09201248
10.047466 6.5899167 1.4753504 68 11 -0.092010178
1.7563913 1.151541 -0.25787556 91 4 -0.092007868
6.4318943 4.2153311 1.2179989 51 12 -0.092005566
1.753051 1.1489135 -0.18337567 93 5 -0.092003264
6.179666 4.0484843 1.4360286 25 13 -0.092000961
1.7493832 1.1456369 -0.10959151 87 6 -0.091998652
5.3332014 3.4912801 1.4716297 80 14 -0.091996349
6.4839354 4.24297 -0.13525616 10 7 -0.091994047
5.1168208 3.3470798 1.6383246 41 15 -0.091991745
3.3961406 2.2156048 -1.0865225 12 0 -0.091971003
6.4018173 4.1748872 0.13340619 72 8 -0.0919687
4.0094099 2.613703 -1.1049596 9 1 -0.091966398
14.892654 9.7046919 0.93158013 30 9 -0.091964096
4.9180789 3.2048309 -1.1410379 6 2 -0.091961794
6.4173322 4.1802177 0.6700533 36 10 -0.091959484
5.8004317 3.7769306 -1.0962929 67 3 -0.091957182
1.7604001 1.1454034 -0.25787556 89 4 -0.091952577
1.7570505 1.1427875 -0.18337567 89 5 -0.091947965
6.2793517 4.0825338 1.4558728 45 13 -0.091945663
1.7567207 1.1417006 -0.10980085 89 6 -0.091943361
5.364965 3.4853835 1.4770286 21 14 -0.091941051
6.6194582 4.2987251 -0.1377693 3 7 -0.091938749
5.1317124 3.3313026 1.6393598 45 15 -0.091936447
3.4038525 2.2037389 -1.0865225 12 0 -0.091915712
6.4398556 4.1677237 0.13389486 2 8 -0.09191341
4.0136008 2.5965149 -1.1036098 9 1 -0.0919111
15.000226 9.7003784 0.93618566 100 9 -0.091908798
4.9226389 3.1833825 -1.1395113 6 2 -0.091906495
6.456985 4.1740146 0.67266804 27 10 -0.091904193
5.7986493 3.7470098 -1.093477 66 3 -0.091901883
1.7777292 1.1478654 -0.25982547 94 4 -0.091897279
6.5806642 4.2474542 1.2405255 10 12 -0.091894977
1.7610292 1.1366469 -0.18337567 91 5 -0.091892667
6.2589197 4.0382395 1.4478587 45 13 -0.091890365
1.7573386 1.133396 -0.10959151 89 6 -0.091888063
5.5277829 3.5637791 1.5184196 89 14 -0.09188576
6.5957623 4.2506795 -0.1369665 13 7 -0.091883451
5.1433105 3.3133681 1.6393598 45 15 -0.091881149
3.4196513 2.1970642 -1.0891106 11 0 -0.091860414
6.3416314 4.0728197 0.13155624 12 8 -0.091858111
4.0242796 2.5835431 -1.1040598 9 1 -0.091855809
15.069297 9.6706085 0.93838376 36 9 -0.091853499
4.9469404 3.1746619 -1.1425643 6 2 -0.091851197
6.4480386 4.1363873 0.67022765 31 10 -0.091848895
5.81003 3.7256806 -1.0931642 54 3 -0.091846593
1.7700253 1.1341555 -0.25811929 97 4 -0.091841981
6.5505371 4.1956925 1.232078 32 12 -0.091839679
1.7683412 1.1326424 -0.1837243 91 5 -0.091837376
6.2729769 4.0163679 1.4478587 42 13 -0.091835067
1.7511911 1.1207944 -0.10896347 94 6 -0.091832764
5.8274574 3.7282503 1.5971525 21 14 -0.091830462
6.5633883 4.1974645 -0.13598914 33 7 -0.09182816
4.5705113 2.9218392 1.4535278 13 15 -0.091825858
3.4354439 2.1903074 -1.0916989 12 0 -0.091805115
4.0349174 2.5705256 -1.1045097 8 1 -0.091800511
15.173714 9.6630087 0.94277996 93 9 -0.091798209
4.9447432 3.1489387 -1.1395113 6 2 -0.091795899
6.4473104 4.1042261 0.66865885 27 10 -0.091793597
5.8346667 3.7127988 -1.0953542 11 3 -0.091791295
1.7722983 1.1269053 -0.25787556 91 4 -0.091786683
6.421771 4.0816717 1.2051712 37 12 -0.09178438
1.7722844 1.1264622 -0.1837243 93 5 -0.091782078
6.8520241 4.3534613 1.5779905 32 13 -0.091779776
1.7618365 1.1189585 -0.10938216 92 6 -0.091777474
5.3271365 3.3820086 1.4567831 16 14 -0.091775164
6.5915084 4.1830993 -0.13626839 9 7 -0.091772862
4.5986261 2.9172516 1.4592218 35 15 -0.09177056
3.428376 2.1690052 -1.0870401 12 0 -0.091749825
6.303997 3.986763 0.13019496 20 8 -0.091747515
4.0306873 2.5480957 -1.1009104 8 1 -0.091745213
15.264761 9.6462564 0.94633883 66 9 -0.09174291
4.9573655 3.1327066 -1.1398931 4 2 -0.091740608
6.4110627 4.0497761 0.6634295 29 10 -0.091738299
1.8322784 1.1569765 -0.34321725 1 3 -0.091735996
1.7728629 1.1185938 -0.25738806 91 4 -0.091731392
8.2153969 5.1815276 1.5383767 24 12 -0.09172909
1.7660946 1.1138923 -0.18267845 91 5 -0.09172678
6.8704987 4.3316121 1.5787537 27 13 -0.091724478
1.7691108 1.1149317 -0.10959151 89 6 -0.091722175
5.500494 3.465189 1.5008734 10 14 -0.091719873
1.7801191 1.1210015 -0.036719862 8 7 -0.091717564
4.580987 2.8836865 1.4504219 43 15 -0.091715261
3.4293826 2.1529152 -1.0849695 11 0 -0.091694526
4.0527649 2.5422938 -1.1045097 8 1 -0.091689914
15.369421 9.6412172 0.95083976 100 9 -0.091687612
4.9732614 3.118511 -1.1410379 6 2 -0.09168531
6.3947725 4.008327 0.66029191 47 10 -0.091683008
1.8061752 1.1316941 -0.3375856 39 3 -0.091680706
6.3693824 3.9893119 0.92279476 16 11 -0.091678396
1.7851694 1.117666 -0.25860679 97 4 -0.091676094
8.2626705 5.1731257 1.5440084 13 12 -0.091673791
1.7665943 1.1056062 -0.1823298 89 5 -0.091671489
1.7729917 1.10875 -0.10959151 94 6 -0.091666877
5.3390503 3.3375046 1.4536338 7 14 -0.091664575
1.7787399 1.1119118 -0.036615148 75 7 -0.091662273
5.1852298 3.2400911 1.6383246 46 15 -0.091659963
3.4417953 2.1439967 -1.0865225 9 0 -0.091639228
6.249517 3.8930099 0.12851952 32 8 -0.091636926
4.0512471 2.5226607 -1.1018102 8 1 -0.091634624
15.470802 9.6297293 0.95502663 81 9 -0.091632321
4.9724469 3.0938725 -1.1383665 6 2 -0.091630012
6.3918076 3.9754558 0.65854877 33 10 -0.09162771
1.7931437 1.1152657 -0.33445692 93 3 -0.091625407
10.21448 6.3505383 1.4768128 12 11 -0.091623105
1.7905521 1.1127874 -0.25885051 93 4 -0.091620795
8.2924252 5.151547 1.5461985 22 12 -0.091618493
1.7738279 1.1015354 -0.18267845 84 5 -0.091616191
6.3294253 3.9305315 1.4482403 2 13 -0.091613889
1.7698715 1.0986505 -0.10917282 94 6 -0.091611579
5.6067467 3.4790418 1.5233686 43 14 -0.091609277
1.7758135 1.1014794 -0.036475532 100 7 -0.091606975
5.1997905 3.2240083 1.6393598 46 15 -0.091604672
3.442313 2.1285079 -1.0844518 10 0 -0.091583937
6.2953877 3.8911457 0.12918271 22 8 -0.091581628
4.0517383 2.5033834 -1.0995607 8 1 -0.091579325
4.9943719 3.084589 -1.1410379 6 2 -0.091574721
6.3540969 3.922837 0.65331942 40 10 -0.091572411
1.7919832 1.1058872 -0.33351833 92 3 -0.091570109
10.251791 6.3242269 1.4790065 14 11 -0.091567807
1.7825981 1.0992362 -0.25714433 97 4 -0.091565505
8.2767267 5.1018367 1.5399411 15 12 -0.091563195
1.7808634 1.0977376 -0.18302706 89 5 -0.091560893
6.319706 3.8939967 1.4428977 3 13 -0.091558591
1.7668935 1.0882756 -0.10875413 97 6 -0.091556288
5.655365 3.481925 1.5332664 15 14 -0.091553979
1.7745378 1.0921308 -0.036370814 100 7 -0.091551676
5.2208867 3.2119105 1.6424657 45 15 -0.091549374
3.4596021 2.1225395 -1.0875577 10 0 -0.091528639
6.2663131 3.8430152 0.12831008 57 8 -0.091526337
4.0587912 2.4882052 -1.0991108 8 1 -0.091524027
6.2038221 3.8017075 0.38131982 25 9 -0.091521725
5.0017614 3.0650835 -1.1402746 6 2 -0.091519423
6.3677487 3.9006374 0.65331942 29 10 -0.091517121
1.7924631 1.0975624 -0.33289257 93 3 -0.091514811
10.297508 6.3029084 1.4824188 15 11 -0.091512509
1.7813438 1.0899005 -0.25641313 94 4 -0.091510206
8.3062801 5.0801306 1.5421312 34 12 -0.091507904
1.7846841 1.0915149 -0.18302706 86 5 -0.091505595
6.3198609 3.8637192 1.4398447 3 13 -0.091503292
1.7740902 1.0841838 -0.10896347 92 6 -0.09150099
5.3997421 3.2986052 1.4608321 20 14 -0.091498688
1.7680994 1.0796764 -0.036161385 100 7 -0.091496386
5.2353654 3.1956785 1.643501 43 15 -0.091494076
3.4554391 2.1034195 -1.0839342 12 0 -0.091473341
6.3326478 3.8533404 0.12939215 35 8 -0.091471039
4.0907617 2.488199 -1.1054094 8 1 -0.091468737
15.439388 9.3873005 0.94696695 27 9 -0.091466427
4.9990091 3.0394468 -1.1372217 6 2 -0.091464125
6.3030071 3.8307841 0.6453011 60 10 -0.091461822
1.7996602 1.0933498 -0.33351833 93 3 -0.09145952
10.339807 6.2792916 1.4853437 5 11 -0.09145721
1.7919252 1.0877956 -0.25738806 91 4 -0.091454908
6.3700528 3.8654416 1.1801417 31 12 -0.091452606
1.7816703 1.0811437 -0.1823298 91 5 -0.091450304
6.3114872 3.8284001 1.4348837 2 13 -0.091448002
1.781279 1.0800569 -0.10917282 94 6 -0.091445692
5.3862262 3.2645838 1.4540836 80 14 -0.09144339
1.7650162 1.0693538 -0.036021769 100 7 -0.091441087
5.238224 3.1723838 1.6409128 46 15 -0.091438785
3.4611073 2.0903456 -1.0834166 12 0 -0.091418043
6.3135343 3.8115737 0.12872896 27 8 -0.091415741
4.0894103 2.4678659 -1.1027101 9 1 -0.091413438
6.1925883 3.7356081 0.37901706 2 9 -0.091411136
5.001184 3.0169067 -1.1353136 4 2 -0.091408834
6.2600374 3.774806 0.63954884 36 10 -0.091406524
1.7933141 1.0809438 -0.33164111 93 3 -0.091404222
6.3438411 3.8223207 0.90938914 40 11 -0.09140192
1.7991128 1.0835819 -0.25787556 100 4 -0.091399617
8.3381557 5.0199842 1.5415053 18 12 -0.091397308
1.7820185 1.0728637 -0.18198119 84 5 -0.091395006
6.3147202 3.8002696 1.4325941 2 13 -0.091392703
1.7850386 1.073832 -0.10917282 92 6 -0.091390401
5.4009271 3.2477748 1.4549835 50 14 -0.091388091
1.775594 1.0673065 -0.036161385 100 7 -0.091385789
5.2476106 3.1530828 1.6403952 46 15 -0.091383487
3.4716973 2.0802362 -1.0844518 11 0 -0.091362752
6.302783 3.7751284 0.12824029 62 8 -0.09136045
4.0779366 2.4415627 -1.0973113 8 1 -0.09135814
6.8122687 4.0770564 0.41607088 2 9 -0.091355838
5.0201082 3.0044711 -1.1372217 6 2 -0.091353536
6.2406893 3.7334981 0.63623691 49 10 -0.091351233
1.7936859 1.0726492 -0.33101538 96 3 -0.091348924
6.3332925 3.7858925 0.90597677 57 11 -0.091346622
1.7994758 1.0752591 -0.25738806 98 4 -0.091344319
6.4002728 3.8229048 1.1807675 11 12 -0.091342017
1.7925951 1.0707232 -0.18267845 93 5 -0.091339707
6.306035 3.7651186 1.4276329 2 13 -0.091337405
1.7784855 1.0614533 -0.10854478 97 6 -0.091335103
5.4021907 3.2229104 1.452284 15 14 -0.091332801
1.779309 1.0611016 -0.036161385 100 7 -0.091330491
4.6695032 2.7835846 1.4566337 46 15 -0.091328189
3.4888995 2.0740304 -1.0875577 12 0 -0.091307454
6.2574739 3.7183707 0.12705351 30 8 -0.091305152
4.0914607 2.4302995 -1.0986609 8 1 -0.091302849
6.835043 4.0583553 0.41659427 10 9 -0.09130054
5.0187464 2.9799163 -1.1345503 2 2 -0.091298237
6.2296977 3.697453 0.63379657 71 10 -0.091295935
1.8008174 1.0683969 -0.33164111 96 3 -0.091293633
6.2969503 3.7344017 0.89890838 49 11 -0.091291323
1.792973 1.0628971 -0.25592566 93 4 -0.091289021
6.3829908 3.7824121 1.1751359 62 12 -0.091286719
1.7928939 1.0624273 -0.1823298 93 5 -0.091284417
6.3090014 3.7370844 1.4253433 2 13 -0.091282107
1.7821802 1.0552384 -0.10854478 97 6 -0.091279805
6.0037184 3.5534182 1.6106496 45 14 -0.091277502
1.7898855 1.0589582 -0.036301006 100 7 -0.0912752
4.6775293 2.7662833 1.4561161 56 15 -0.091272891
3.4961185 2.0618382 -1.0875577 14 0 -0.091252156
6.2635245 3.6924446 0.12691391 15 8 -0.091249853
4.1015983 2.4169912 -1.0991108 9 1 -0.091247551
6.1676927 3.6330502 0.37514415 23 9 -0.091245249
6.2597342 3.6857953 0.63553965 64 10 -0.091240637
1.8079402 1.0641087 -0.33226684 99 3 -0.091238335
6.316793 3.716423 0.89988333 66 11 -0.091236033
1.7983831 1.0576386 -0.25616938 97 4 -0.091233723
6.4216971 3.7751257 1.1798289 60 12 -0.091231421
1.7965913 1.0561628 -0.1823298 93 5 -0.091229118
6.3084679 3.7070804 1.4222903 2 13 -0.091226816
1.7892973 1.0510336 -0.10875413 92 6 -0.091224506
1.7797748 1.0446059 -0.036021769 100 7 -0.091219902
4.6954885 2.7548256 1.4587041 13 15 -0.0912176
3.4882872 2.0408428 -1.0828989 13 0 -0.091196865
4.1116929 2.4036415 -1.0995607 8 1 -0.091192253
15.756065 9.2071085 0.95638734 42 9 -0.091189951
6.2347126 3.6418152 0.63170481 54 10 -0.091185339
1.8150557 1.059783 -0.33289257 93 3 -0.091183037
6.3057237 3.6803432 0.89647096 75 11 -0.091180734
1.7969201 1.048354 -0.25543818 98 4 -0.091178432
6.445075 3.7586563 1.1817061 16 12 -0.091176122
1.7968249 1.0478772 -0.18198119 91 5 -0.09117382
6.3349371 3.6929481 1.4253433 2 13 -0.091171518
1.7964063 1.0467929 -0.10896347 92 6 -0.091169216
5.4339609 3.1651804 1.4518342 5 14 -0.091166914
1.7799537 1.0363748 -0.035951961 100 7 -0.091164604
5.2994719 3.0843661 1.6429834 43 15 -0.091162302
3.4953904 2.0286531 -1.0828989 14 0 -0.091141567
1.7798501 1.0325733 0.035917051 15 8 -0.091139264
4.1251149 2.3922079 -1.1009104 8 1 -0.091136955
15.855499 9.1911135 0.9604696 51 9 -0.091134652
1.810614 1.0495764 -0.40680483 11 2 -0.09113235
6.2163577 3.6020479 0.62856722 57 10 -0.091130048
1.8084877 1.0475006 -0.33101538 93 3 -0.091127738
6.3374305 3.6692491 0.8991521 49 11 -0.091125436
1.8143135 1.0500295 -0.25738806 95 4 -0.091123134
8.4757948 4.9033709 1.5508915 13 12 -0.091120832
1.7970225 1.0396037 -0.18163256 89 5 -0.091118529
6.3324947 3.6619658 1.4219086 1 13 -0.09111622
1.8035076 1.0425154 -0.10917282 89 6 -0.091113918
5.4804096 3.1666684 1.461282 22 14 -0.091111615
1.7904872 1.0341554 -0.036091577 100 7 -0.091109313
5.3085322 3.0648839 1.6424657 45 15 -0.091107003
3.5024509 2.0164387 -1.0828989 15 0 -0.091086268
1.769578 1.0183753 0.035637815 66 8 -0.091083966
4.1165481 2.3680778 -1.0964113 8 1 -0.091081664
15.960207 9.1775227 0.9648658 21 9 -0.091079362
1.8108631 1.0412921 -0.40604156 61 2 -0.091077052
6.2755318 3.6071362 0.6332736 21 10 -0.09107475
1.8052824 1.0372447 -0.32976389 93 3 -0.091072448
6.315773 3.6273303 0.89427733 43 11 -0.091070145
1.8179674 1.0436903 -0.25738806 94 4 -0.091067836
6.3443742 3.6408124 1.1585537 28 12 -0.091065533
1.8006408 1.0333242 -0.18163256 91 5 -0.091063231
6.3486457 3.6417909 1.4226719 1 13 -0.091060929
1.7967396 1.0302531 -0.10854478 94 6 -0.091058619
5.9445415 3.4072263 1.5818559 66 14 -0.091056317
1.7975568 1.0298868 -0.036161385 100 7 -0.091054015
5.3175211 3.0453761 1.6419481 31 15 -0.091051713
3.5128231 2.0061173 -1.0839342 15 0 -0.091030978
1.7887522 1.021114 0.035951961 100 8 -0.091028668
4.1180182 2.3498316 -1.0946118 9 1 -0.091026366
16.068478 9.1652985 0.96947134 30 9 -0.091024064
1.821308 1.0388559 -0.40756804 91 2 -0.091021761
6.3330874 3.6108646 0.6378057 33 10 -0.091019452
1.8054593 1.0289809 -0.32913816 87 3 -0.091017149
6.3007984 3.5895414 0.89037746 56 11 -0.091014847
1.81125 1.0314437 -0.25592566 89 4 -0.091012545
8.5235538 4.8518972 1.5533944 21 12 -0.091010235
1.8076994 1.0290041 -0.18198119 95 5 -0.091007933
6.374969 3.6273766 1.4257249 2 13 -0.091005631
1.7968529 1.0219996 -0.10833544 97 6 -0.091003329
5.4837484 3.1177359 1.4563332 22 14 -0.091001019
1.8046178 1.0255824 -0.036231197 100 7 -0.090998717
5.3650742 3.0477872 1.6533362 15 15 -0.090996414
3.514761 1.9909871 -1.0823812 12 0 -0.090975679
1.7975255 1.01782 0.036056671 100 8 -0.090973377
4.127892 2.3364015 -1.0950617 9 1 -0.090971068
16.162954 9.1445551 0.97323954 33 9 -0.090968765
1.8197974 1.0295913 -0.40642318 93 2 -0.090966463
6.2884212 3.556371 0.63205343 71 10 -0.090964161
1.8227968 1.0304496 -0.33164111 93 3 -0.090961851
6.2908235 3.5548279 0.88720888 50 11 -0.090959549
1.8044685 1.0192575 -0.2544632 89 4 -0.090957247
8.545598 4.8250303 1.5543331 16 12 -0.090954944
1.8182201 1.0266067 -0.18267845 89 5 -0.090952635
6.3875928 3.6050999 1.4257249 1 13 -0.090950333
1.8073677 1.0196462 -0.10875413 94 6 -0.09094803
5.458951 3.0784743 1.4468851 39 14 -0.090945728
1.7907668 1.0094568 -0.035882145 100 7 -0.090943426
5.3891454 3.0366263 1.6574773 18 15 -0.090941116
3.5196605 1.9783734 -1.0818636 15 0 -0.090916872
1.806121 1.0147927 0.036161385 100 8 -0.09091457
4.1424146 2.3265162 -1.0968614 8 1 -0.090912268
16.27519 9.1406813 0.9782638 21 9 -0.090909958
1.8180656 1.020668 -0.40527833 90 2 -0.090907656
6.3609924 3.5696263 0.63815433 23 10 -0.090905353
1.8193127 1.0205332 -0.33038962 93 3 -0.090903051
6.2748728 3.5184147 0.88330907 53 11 -0.090900742
1.8182284 1.0190918 -0.25592566 94 4 -0.090898439
8.5572662 4.7962298 1.5537072 16 12 -0.090896137
1.8146619 1.0166756 -0.18198119 91 5 -0.090893835
7.1394987 3.9983118 1.5905839 22 13 -0.090891525
1.8072529 1.0116972 -0.10854478 94 6 -0.090889223
5.4640284 3.0574985 1.4455354 45 14 -0.090886921
1.7904389 1.0018733 -0.035812337 100 7 -0.090884618
4.7478518 2.6556604 1.457669 33 15 -0.090882309
3.5197954 1.9623134 -1.0797932 15 0 -0.090861574
1.7972502 1.001981 0.035917051 100 8 -0.090859272
4.1467018 2.3108702 -1.0959616 9 1 -0.090856969
6.2132707 3.4611008 0.37273672 2 9 -0.090854667
1.826763 1.0171814 -0.40642318 93 2 -0.090852357
1.8192348 1.0125736 -0.32976389 93 3 -0.090847753
10.65098 5.9258208 1.4965557 10 11 -0.090845451
1.8268027 1.0159508 -0.25665686 97 4 -0.090843141
6.4606829 3.591542 1.1707556 35 12 -0.090840839
1.8147168 1.0083991 -0.18163256 89 5 -0.090838537
7.1441388 3.9698443 1.5886757 26 13 -0.090836234
1.817582 1.0095773 -0.10896347 94 6 -0.090833925
5.4741368 3.0393631 1.4455354 46 14 -0.090831622
1.8009195 0.99949849 -0.035951961 100 7 -0.09082932
4.7689176 2.6456325 1.4612924 13 15 -0.090827018
3.5347347 1.9553066 -1.0823812 12 0 -0.090806283
1.795487 0.99279797 0.035812337 100 8 -0.090803973
4.1445103 2.290724 -1.0932621 9 1 -0.090801671
1.8301258 1.0111183 -0.40642318 96 2 -0.090797067
2.0528038 1.1336758 0.20516461 6 10 -0.090794757
1.8227586 1.0062166 -0.32976389 93 3 -0.090792455
1.8268616 1.0076498 -0.25616938 97 4 -0.09078785
6.459342 3.5613365 1.1682527 68 12 -0.090785541
1.818225 1.0020597 -0.18163256 89 5 -0.090783238
7.1579504 3.9448874 1.5886757 26 13 -0.090780936
1.8105992 0.99744385 -0.10833544 97 6 -0.090778634
5.4898348 3.0230551 1.4468851 11 14 -0.090776332
1.8079005 0.9951359 -0.036021769 100 7 -0.090774022
4.7527356 2.6149993 1.4535278 43 15 -0.09077172
3.5384893 1.9404809 -1.0813459 14 0 -0.090750985
1.804201 0.98941028 0.035917051 100 8 -0.090748683
4.1439362 2.2715604 -1.0910126 8 1 -0.090746373
1.8338193 1.0044042 -0.40642318 96 2 -0.090741768
2.0604401 1.1280583 0.20551322 44 10 -0.090739466
1.826434 0.99952954 -0.32976389 96 3 -0.090737157
2.1349347 1.1683588 0.29882365 1 11 -0.090734854
1.8251436 0.99840826 -0.25543818 100 4 -0.090732552
6.4838657 3.5454028 1.1704428 75 12 -0.09073025
1.8252085 0.99761736 -0.18198119 91 5 -0.090727948
7.1792555 3.9223859 1.5902023 25 13 -0.090725638
1.8037252 0.98505753 -0.10770741 100 6 -0.090723336
5.5504808 3.0299933 1.4599323 1 14 -0.090721034
1.8183841 0.99265116 -0.036161385 100 7 -0.090718731
4.7533565 2.593765 1.4509397 52 15 -0.090716422
3.5486362 1.9299626 -1.0823812 14 0 -0.090695687
1.8130867 0.98565495 0.036021769 100 8 -0.090693384
4.1573706 2.2591493 -1.0923624 1 1 -0.090691082
2.0235827 1.099174 0.12068672 1 9 -0.090688772
1.8269631 0.9923737 -0.40413347 93 2 -0.09068647
2.0608637 1.1189573 0.20516461 45 10 -0.090684168
1.8333839 0.99503285 -0.33038962 96 3 -0.090681866
2.0816221 1.1292889 0.29078028 23 11 -0.090679564
1.8218101 0.9879272 -0.2544632 100 4 -0.090677254
6.4464531 3.4943166 1.1613696 75 12 -0.090674952
1.8286797 0.9912405 -0.18198119 89 5 -0.090672649
7.203258 3.9029186 1.592492 25 13 -0.090670347
1.8106654 0.98065722 -0.10791675 97 6 -0.090668038
6.2465129 3.3817048 1.6398932 6 14 -0.090665735
1.8044227 0.97646296 -0.035812337 100 7 -0.090663433
4.773025 2.5818415 1.4540454 16 15 -0.090661131
3.5485508 1.9138947 -1.0803107 12 0 -0.090640388
1.8112348 0.9764744 0.035917051 100 8 -0.090638086
1.950039 1.0504271 0.11608116 8 9 -0.090633482
1.8373303 0.98971426 -0.40565994 93 2 -0.09063118
2.0419507 1.0994787 0.20289856 51 10 -0.09062887
1.8438042 0.99237144 -0.33164111 99 3 -0.090626568
2.0768106 1.1173127 0.2895616 45 11 -0.090624265
1.8287439 0.98344266 -0.25495067 100 4 -0.090621963
6.4325137 3.4577622 1.1566767 72 12 -0.090619653
1.8215995 0.97919083 -0.18093532 93 5 -0.090617351
7.2306733 3.8851821 1.5955449 25 13 -0.090615049
1.8211156 0.97811145 -0.10833544 97 6 -0.090612747
6.1981854 3.3276188 1.6241466 24 14 -0.090610437
1.8078206 0.97015792 -0.035812337 100 7 -0.090608135
3.5483959 1.8978528 -1.0782403 16 0 -0.090585098
1.8022882 0.96354598 0.035672721 100 8 -0.090582795
1.8527757 0.99012089 -0.48499447 11 1 -0.090580486
1.8460602 0.98653209 0.10969618 41 9 -0.090578184
1.8373102 0.98144507 -0.40489674 93 2 -0.090575881
2.0422616 1.090467 0.20254995 49 10 -0.090573579
1.8298303 0.97662765 -0.32851243 93 3 -0.090571269
2.0684381 1.1035162 0.28785542 43 11 -0.090568967
1.8426751 0.98265809 -0.25641313 100 4 -0.090566665
6.4143119 3.4206111 1.1513578 57 12 -0.090564363
1.8214902 0.97095126 -0.1805867 93 5 -0.090562053
7.2337952 3.8543813 1.5932552 26 13 -0.090559751
1.8315697 0.97550452 -0.10875413 97 6 -0.090557449
6.2149243 3.3087084 1.6254963 39 14 -0.090555146
1.811028 0.9641571 -0.035812337 100 7 -0.090552837
5.4300156 2.8896248 1.6481597 43 15 -0.090550534
3.561826 1.8890744 -1.0803107 16 0 -0.090529799
1.8019408 0.95568973 0.035602912 100 8 -0.090527497
1.8474399 0.97940797 -0.48274496 68 1 -0.090525195
1.8177263 0.96324909 0.10781208 91 9 -0.090522885
1.8441949 0.97686315 -0.40565994 93 2 -0.090520583
2.0372517 1.0786693 0.20167838 53 10 -0.090518281
1.8330588 0.97055471 -0.32851243 96 3 -0.090515979
2.0580502 1.0892217 0.28590551 60 11 -0.090513669
1.8389052 0.97282857 -0.25543818 98 4 -0.090511367
6.4262137 3.3981986 1.1513578 12 12 -0.090509064
1.8319139 0.96831185 -0.18128395 89 5 -0.090506762
7.2500091 3.8322051 1.5940183 25 13 -0.090504453
1.8206674 0.96196061 -0.10791675 100 6 -0.09050215
5.5452046 2.9286046 1.447785 15 14 -0.090499848
1.8214561 0.96156424 -0.035951961 100 7 -0.090497546
4.7908149 2.5280485 1.4514573 13 15 -0.090495244
3.5663607 1.876354 -1.0797932 13 0 -0.090474501
1.8105749 0.95218652 0.035707623 100 8 -0.090472199
1.8422227 0.96841979 -0.48049545 88 1 -0.090469897
1.8279817 0.96093363 0.10823077 100 9 -0.090467595
1.8526378 0.97348219 -0.40680483 90 2 -0.090465285
2.0408173 1.071908 0.20167838 63 10 -0.090462983
1.839933 0.96598703 -0.32913816 96 3 -0.09046068
2.0530508 1.0774194 0.28468683 74 11 -0.090458378
1.8387741 0.96455884 -0.25495067 98 4 -0.090456069
2.1149118 1.1094114 0.37825859 1 12 -0.090453766
1.8386438 0.96408248 -0.18163256 95 5 -0.090451464
7.263341 3.8068759 1.5940183 25 13 -0.090449162
1.8169378 0.95189154 -0.10749806 100 6 -0.09044686
5.5588455 2.9110398 1.4486848 26 14 -0.09044455
1.8317204 0.95922989 -0.036091577 100 7 -0.090442248
5.4615397 2.8588681 1.6517832 45 15 -0.090439945
3.5763135 1.8656812 -1.0808283 12 0 -0.09041921
1.8208143 0.94987726 0.035847243 100 8 -0.090416901
1.847152 0.96320587 -0.48094535 99 1 -0.090414599
1.8136141 0.94531482 0.10718405 100 9 -0.090412296
1.8420955 0.95975256 -0.40375188 90 2 -0.090409994
2.0427797 1.0638568 0.20150407 70 10 -0.090407684
1.8466306 0.96170467 -0.32976389 93 3 -0.090405382
2.0601344 1.0724379 0.28517428 74 11 -0.09040308
1.8384401 0.95662457 -0.2544632 98 4 -0.090400778
2.0924838 1.0883498 0.37356552 19 12 -0.090398476
1.8455336 0.95949608 -0.18198119 89 5 -0.090396166
7.2933455 3.7918227 1.5978346 25 13 -0.090393864
1.8342617 0.95323032 -0.10833544 97 6 -0.090391561
5.5459881 2.8809102 1.4428362 37 14 -0.090389259
1.8173107 0.94361472 -0.035742529 100 7 -0.090386949
5.474915 2.8415647 1.6528184 46 15 -0.090384647
3.5687556 1.8467081 -1.0766873 14 0 -0.090363912
1.8241192 0.94351518 0.035847243 100 8 -0.09036161
1.855696 0.95943767 -0.48229504 89 1 -0.0903593
1.8222255 0.94172966 0.10749806 100 9 -0.090356998
1.8471788 0.95421714 -0.40413347 93 2 -0.090354696
2.0374453 1.0525053 0.20063251 73 10 -0.090352394
1.8569969 0.95887846 -0.33101538 96 3 -0.090350091
2.072685 1.069793 0.28639299 76 11 -0.090347782
1.8488251 0.95384163 -0.25543818 91 4 -0.09034548
2.0892472 1.077418 0.37231407 38 12 -0.090343177
1.838246 0.94757134 -0.18093532 91 5 -0.090340875
7.312429 3.7677653 1.5989794 24 13 -0.090338565
1.8377434 0.94650054 -0.10833544 97 6 -0.090336263
5.5438824 2.8552887 1.4396867 50 14 -0.090333961
1.824149 0.93909627 -0.035812337 100 7 -0.090331659
5.4813647 2.8206697 1.6517832 45 15 -0.090329349
3.5806577 1.8362592 -1.0782403 14 0 -0.090308614
1.8151083 0.93043822 0.035602912 100 8 -0.090306312
1.8609347 0.95351797 -0.48274496 98 1 -0.09030401
1.8203322 0.93231273 0.10718405 100 9 -0.090301707
1.8541589 0.94923031 -0.40489674 93 2 -0.090299398
2.0288746 1.0386754 0.19941233 71 10 -0.090297095
1.849948 0.94666606 -0.32913816 93 3 -0.090294793
2.0730577 1.0603805 0.28590551 69 11 -0.090292491
1.8523084 0.94705933 -0.25543818 91 4 -0.090290181
2.0931823 1.0697528 0.37231407 45 12 -0.090287879
1.8381581 0.9390142 -0.1805867 91 5 -0.090285577
7.3209429 3.7382617 1.5978346 4 13 -0.090283275
1.8412004 0.93975806 -0.10833544 100 6 -0.090280965
5.5543108 2.8349488 1.4396867 24 14 -0.090278663
1.8240166 0.93058616 -0.035742529 100 7 -0.090276361
5.4486413 2.7786207 1.6388422 15 15 -0.090274058
3.5804744 1.8196229 -1.0761696 12 0 -0.090253323
1.8095922 0.91925043 0.035428386 97 8 -0.090251014
1.8574663 0.94316208 -0.48094535 98 1 -0.090248711
1.8271368 0.92776173 0.10739339 100 9 -0.090246409
1.8592118 0.94364029 -0.40527833 90 2 -0.090244107
2.0379989 1.0339361 0.19993527 74 10 -0.090241797
1.8498816 0.93809295 -0.32851243 90 3 -0.090239495
2.0663061 1.0473906 0.28444308 69 11 -0.090237193
1.8628509 0.94385129 -0.25641313 91 4 -0.090234891
2.0986662 1.0633318 0.37262696 40 12 -0.090232581
1.852089 0.93799359 -0.18163256 89 5 -0.090230279
7.3392034 3.7153423 1.5989794 14 13 -0.090227976
1.8337771 0.92791426 -0.10770741 100 6 -0.090225674
5.5490131 2.8066573 1.4356377 3 14 -0.090223365
1.8379602 0.92962915 -0.035951961 100 7 -0.090221062
5.5031328 2.7822454 1.6523008 48 15 -0.09021876
3.5937052 1.8105912 -1.0782403 11 0 -0.090198025
1.8251313 0.91954309 0.035672721 100 8 -0.090195723
1.8588432 0.93612123 -0.48049545 100 1 -0.090193413
1.8232287 0.9177857 0.10697471 100 9 -0.090191111
1.8695092 0.94067484 -0.40680483 90 2 -0.090188809
2.045155 1.0286068 0.20028389 72 10 -0.090186507
1.8494526 0.93017858 -0.3278867 93 3 -0.090184197
2.0679948 1.0396405 0.28419933 74 11 -0.090181895
1.8517803 0.93053842 -0.2544632 94 4 -0.090179592
2.1094251 1.0595477 0.37387842 43 12 -0.09017729
1.8517913 0.92973441 -0.18128395 95 5 -0.09017498
6.2970114 3.1615596 1.3696271 3 13 -0.090172678
1.8368438 0.92182851 -0.10770741 100 6 -0.090170376
5.5652566 2.7917368 1.4374373 5 14 -0.090168074
1.8358315 0.9205184 -0.035847243 100 7 -0.090165772
5.5128117 2.7630174 1.6523008 52 15 -0.090163462
3.6031451 1.8003917 -1.0792755 12 0 -0.090142727
1.8301191 0.91405958 0.035707623 100 8 -0.090140425
1.8638432 0.93049687 -0.48094535 95 1 -0.090138122
1.8209009 0.90905851 0.10666069 100 9 -0.090135813
1.8673483 0.93184072 -0.40565994 93 2 -0.090133511
2.0485551 1.0218185 0.20028389 64 10 -0.090131208
1.8632956 0.92900503 -0.32976389 96 3 -0.090128906
2.0716105 1.0324169 0.28419933 71 11 -0.090126596
1.8496866 0.9214139 -0.253732 97 4 -0.090124294
2.1076229 1.0499039 0.3729398 51 12 -0.090121992
1.8584309 0.92536509 -0.18163256 98 5 -0.09011969
7.3818965 3.6740508 1.6027957 22 13 -0.090117387
1.8400502 0.91541147 -0.10770741 100 6 -0.090115078
5.5749683 2.7722921 1.4374373 1 14 -0.090112776
1.8335022 0.91175473 -0.035742529 100 7 -0.090110473
4.8541908 2.4128082 1.4524926 48 15 -0.090108171
3.5938282 1.7800854 -1.0746168 6 0 -0.090087429
1.8367242 0.90976137 0.035777435 100 8 -0.090085126
1.8669189 0.92431051 -0.48094535 98 1 -0.090082824
1.8240628 0.90269727 0.10666069 100 9 -0.090080522
1.8635508 0.92183429 -0.40413347 93 2 -0.09007822
2.0342498 1.0058302 0.19854078 66 10 -0.09007591
1.8699075 0.92457151 -0.33038962 99 3 -0.090073608
2.0785823 1.0273001 0.28468683 71 11 -0.090071306
1.8634105 0.92055082 -0.25519443 100 4 -0.090069003
2.109504 1.0416653 0.37262696 70 12 -0.090066694
1.8509299 0.91358167 -0.1805867 93 5 -0.090064391
7.4134059 3.6591079 1.6069933 6 13 -0.090062089
1.8466578 0.91107231 -0.10791675 100 6 -0.090059787
1.8330861 0.90358108 -0.035672721 100 7 -0.090055175
4.8539171 2.3915832 1.4499043 56 15 -0.090052873
1.890022 0.92836761 -0.56422555 4 0 -0.090032138
1.8327086 0.89981866 0.035637815 100 8 -0.090029836
1.8753817 0.92036504 -0.48229504 92 1 -0.090027526
1.8415481 0.90336102 0.10749806 100 9 -0.090025224
1.8665977 0.91564894 -0.40413347 93 2 -0.090022922
1.8676268 0.91574943 0.18198119 83 10 -0.090020619
1.8624804 0.91282392 -0.32851243 96 3 -0.09001831
2.0892866 1.023531 0.28566176 74 11 -0.090016007
1.8683954 0.91491324 -0.25543818 100 4 -0.090013705
2.1095779 1.03256 0.3720012 58 12 -0.090011403
1.8539491 0.90743911 -0.1805867 93 5 -0.090009093
1.8570039 0.90812993 -0.10833544 100 6 -0.090004489
2.1692035 1.0603371 0.55742872 36 14 -0.090002187
1.8344327 0.89629865 -0.035637815 100 7 -0.089999877
