# .PCD v0.7 - Point Cloud Data file format
VERSION 0.7
FIELDS x y z intensity ring time
SIZE 4 4 4 4 2 4
TYPE F F F F U F
COUNT 1 1 1 1 1 1
WIDTH 970
HEIGHT 1
VIEWPOINT 0 0 0 1 0 0 0
POINTS 970
DATA ascii
4.401485 1.4309782 -1.0685174 9 1 -0.021383805
6.1999888 2.0144982 0.34164914 70 9 -0.021381501
5.3494306 1.738135 -1.0933356 12 2 -0.021379197
6.1871166 2.0091255 0.56912696 60 10 -0.021376893
5.9805636 1.9408952 -0.99586189 29 3 -0.021374589
6.1953678 2.0094113 0.7997067 80 11 -0.021372285
6.0182114 1.9507943 -0.77679521 28 4 -0.021369981
6.1958113 2.0071652 1.0315289 81 12 -0.021367677
6.0255136 1.9519963 -0.55413622 35 5 -0.021365372
6.1263847 1.9834927 1.2517071 11 13 -0.021363068
6.0637264 1.9620372 -0.33400813 43 6 -0.021360766
6.1689267 1.9948876 1.4968243 3 14 -0.021358462
6.0661001 1.9604666 -0.11127654 28 7 -0.021356158
5.9837947 1.9327134 1.6849121 39 15 -0.021353854
3.7406547 1.2031543 -1.052876 9 0 -0.021333117
6.1814938 1.9870418 0.11333593 67 8 -0.021330813
4.41573 1.4185867 -1.070767 8 1 -0.021328509
6.197474 1.9897923 0.34112579 65 9 -0.021326205
5.3666801 1.7230536 -1.0956253 8 2 -0.021323901
6.1770186 1.9820359 0.56755817 62 10 -0.021321597
5.9572058 1.9103572 -0.99085599 24 3 -0.021319292
6.1872211 1.9829277 0.79775679 80 11 -0.021316988
6.0230942 1.929168 -0.77655149 22 4 -0.021314684
6.1632714 1.9728801 1.0249587 85 12 -0.021312382
6.026597 1.9291303 -0.55361325 26 5 -0.021310078
8.1228437 2.598582 1.6577487 3 13 -0.021307774
6.0610256 1.9378189 -0.33348474 33 6 -0.02130547
6.1387267 1.9614805 1.4878262 1 14 -0.021303166
6.0938606 1.9459726 -0.1116605 24 7 -0.021300862
5.4880743 1.7514695 1.5435969 35 15 -0.021298558
3.7411497 1.1889184 -1.0518407 12 0 -0.021277821
6.1712399 1.9600029 0.11302178 65 8 -0.021275517
4.4095101 1.3996279 -1.0680676 11 1 -0.021273213
6.1815372 1.9608985 0.33986974 74 9 -0.021270908
5.3689198 1.7031212 -1.0948621 10 2 -0.021268606
6.157311 1.9520308 0.56511784 75 10 -0.0212663
5.9638376 1.8895524 -0.99085599 32 3 -0.021263998
6.1713953 1.9541256 0.79483193 87 11 -0.021261694
6.0278997 1.9075314 -0.77630776 28 4 -0.02125939
6.209672 1.9638644 1.0315289 91 12 -0.021257086
6.027595 1.9062809 -0.55309033 32 5 -0.021254782
8.201128 2.5921016 1.6718684 3 13 -0.021252478
6.046804 1.9100312 -0.33233336 40 6 -0.021250173
6.1381025 1.9376953 1.4860266 7 14 -0.021247869
6.0701036 1.915061 -0.11110201 29 7 -0.021245565
5.5420585 1.7474043 1.5570555 7 15 -0.021243261
3.7651384 1.1835325 -1.0575346 15 0 -0.021219254
6.169735 1.9382095 0.11288217 65 8 -0.021216949
4.393434 1.3793458 -1.0631187 11 1 -0.021214645
6.1873279 1.9425499 0.33986974 74 9 -0.021212341
5.3779898 1.6874223 -1.0956253 8 2 -0.021210037
6.169116 1.9344668 0.56564075 67 10 -0.021207733
5.9678602 1.8702146 -0.99054313 27 3 -0.021205429
6.1718206 1.9329493 0.7941007 85 11 -0.021203125
6.009234 1.8808774 -0.77313918 22 4 -0.021200821
6.221128 1.9471996 1.0324676 97 12 -0.021198517
6.0297518 1.8861439 -0.55274171 31 5 -0.021196213
8.1773758 2.5563676 1.6653811 2 13 -0.02119391
6.0356164 1.8856659 -0.3313913 37 6 -0.021191606
6.0623965 1.8928715 -0.11085769 28 7 -0.021186998
3.7507973 1.1646526 -1.0523583 9 0 -0.021163957
6.1684904 1.9153657 0.11274255 62 8 -0.021161653
4.4072895 1.3676578 -1.0653682 8 1 -0.021159349
6.1749945 1.9150257 0.33882302 65 9 -0.021157045
5.3688464 1.6639884 -1.0925723 12 2 -0.021154741
6.1548958 1.9064379 0.56372333 75 10 -0.021152437
5.9721417 1.849831 -0.99023032 32 3 -0.021150133
6.1725073 1.9107122 0.79336947 84 11 -0.02114783
6.0059566 1.8580046 -0.77192044 24 4 -0.021145526
6.2127891 1.9208024 1.0299646 85 12 -0.021143222
6.0324912 1.8639096 -0.55239308 27 5 -0.021140918
8.1126537 2.5066347 1.6504979 82 13 -0.021138614
6.0380206 1.8644606 -0.33118194 34 6 -0.02113631
6.8804283 2.1232696 1.6623883 39 14 -0.021134006
6.0575013 1.8681636 -0.11064825 28 7 -0.021131702
5.780304 1.7815666 1.6207249 3 15 -0.021129398
3.7564859 1.1527758 -1.052876 10 0 -0.021108661
6.180872 1.8955851 0.11284725 67 8 -0.021106357
4.4194903 1.3545482 -1.0671679 11 1 -0.021104053
6.1759129 1.8917027 0.33850899 63 9 -0.02110175
5.3705797 1.6450264 -1.0918092 8 2 -0.021099446
6.1345119 1.8778536 0.56128299 75 10 -0.021097142
5.999341 1.835328 -0.99367183 28 3 -0.021094838
6.1734443 1.8874117 0.79263824 85 11 -0.021092534
6.0067091 1.8352923 -0.77118921 23 4 -0.02109023
6.1514421 1.8783374 1.0187013 85 12 -0.021087926
6.0138679 1.8363291 -0.55012703 41 5 -0.021085622
8.1457653 2.4857481 1.6554589 78 13 -0.021083318
6.0349383 1.8404638 -0.33065861 41 6 -0.021081014
6.9045744 2.1043544 1.6664374 48 14 -0.02107871
6.1290259 1.866816 -0.11183503 29 7 -0.021076405
5.9786935 1.8198837 1.6745592 46 15 -0.021074101
3.7549403 1.1379761 -1.0513231 15 0 -0.021053366
6.1644864 1.867041 0.1124284 60 8 -0.021051062
4.4335175 1.3419346 -1.0694174 9 1 -0.021048758
6.1671844 1.8655082 0.33767161 76 9 -0.021046454
5.3687725 1.6239971 -1.0902827 10 2 -0.02104415
6.1334009 1.854121 0.56058574 80 10 -0.021041846
6.0529861 1.8286556 -1.0014936 14 3 -0.021039542
6.1704936 1.8629836 0.79141963 87 11 -0.021037238
6.0301838 1.8194731 -0.7733829 46 4 -0.021034934
6.1938963 1.8676872 1.0246458 71 12 -0.02103263
5.9611073 1.7974929 -0.54472339 58 5 -0.021030325
8.1374741 2.4522026 1.6520243 13 13 -0.021028021
5.7563767 1.7335705 -0.31506249 18 6 -0.021025717
6.9268069 2.0847311 1.6700366 58 14 -0.021023413
6.1431646 1.8477157 -0.11197464 59 7 -0.021021109
5.4984374 1.652751 1.5384204 33 15 -0.021018805
3.7551882 1.1237532 -1.0502877 9 0 -0.02099807
6.1556392 1.8409262 0.11214916 77 8 -0.020995766
4.4213696 1.3214314 -1.0653682 8 1 -0.020993462
6.1774864 1.845111 0.33788097 70 9 -0.020991158
5.3856959 1.6086165 -1.0925723 10 2 -0.020988854
6.1512909 1.8361176 0.56163162 62 10 -0.02098655
5.9760408 1.782674 -0.98772728 94 3 -0.020984245
6.1693501 1.8391632 0.79044467 87 11 -0.020981941
6.0403037 1.7995449 -0.77387041 75 4 -0.020979637
6.1776581 1.8392954 1.0208914 70 12 -0.020977333
6.0494552 1.801125 -0.55221879 60 5 -0.020975029
8.1459846 2.4237802 1.6520243 10 13 -0.020972725
5.6590147 1.6827248 -0.30941018 34 6 -0.020970421
6.9415121 2.0627644 1.6718361 58 14 -0.020968117
6.1399922 1.8234127 -0.11180011 45 7 -0.020965813
5.56529 1.6516845 1.5555025 86 15 -0.020963509
3.7683511 1.1133778 -1.052876 11 0 -0.020942774
6.1524382 1.8165977 0.11197464 55 8 -0.02094047
4.4072647 1.3004736 -1.0608691 11 1 -0.020938165
6.1647329 1.8178855 0.33683425 63 9 -0.020935861
5.3988104 1.5920266 -1.0940988 8 2 -0.020933557
6.1576624 1.8146358 0.56163162 62 10 -0.020931253
5.6354599 1.659676 -0.93047231 27 3 -0.020928949
6.1604981 1.8131315 0.78849471 87 11 -0.020926645
6.016077 1.7694883 -0.7699706 77 4 -0.020924341
6.1669841 1.8127047 1.0180756 76 12 -0.020922037
5.6829581 1.6704316 -0.51822799 22 5 -0.020919733
8.1788836 2.4025216 1.6569853 4 13 -0.020917429
5.6514387 1.6590241 -0.30867749 29 6 -0.020915126
6.9449315 2.0374227 1.6709365 52 14 -0.020912822
6.0849152 1.7839646 -0.11068317 49 7 -0.020910518
5.5024266 1.6121517 1.5363499 45 15 -0.020908214
3.7777781 1.1018388 -1.0544289 15 0 -0.020887477
6.1587424 1.7951089 0.11197464 57 8 -0.020885173
4.4192615 1.2872623 -1.0626688 8 1 -0.020882869
6.1518636 1.7907777 0.33578753 55 9 -0.020880565
5.3798285 1.5660421 -1.0891378 12 2 -0.020878261
6.1601338 1.7920159 0.56128299 75 10 -0.020875957
5.6108694 1.6311727 -0.92546642 37 3 -0.020873653
6.1591635 1.7894052 0.78751975 84 11 -0.020871349
6.0031538 1.742941 -0.76753318 74 4 -0.020869046
6.1505089 1.7845598 1.0143212 76 12 -0.020866742
5.6737337 1.6451539 -0.51683354 24 5 -0.020864438
8.1834478 2.3728697 1.6562221 7 13 -0.020862134
5.5919724 1.6203855 -0.30511865 32 6 -0.02085983
6.9520016 2.013166 1.6709365 53 14 -0.020857526
6.0085063 1.7388146 -0.10918226 37 7 -0.020855222
5.4987411 1.5902497 1.5337617 65 15 -0.020852918
3.7557998 1.0805066 -1.0471818 9 0 -0.020832181
5.5749936 1.6038706 0.10125886 16 8 -0.020829877
4.4143634 1.2691348 -1.0604193 9 1 -0.020827573
6.1350422 1.7626728 0.33453146 63 9 -0.020825269
5.3798714 1.5446867 -1.0879929 10 2 -0.020822965
6.1341033 1.7600855 0.55831969 77 10 -0.020820662
5.5978217 1.6051505 -0.92233771 37 3 -0.020818358
6.1520147 1.764063 0.78581363 85 11 -0.020816054
5.5054126 1.5776128 -0.70318621 21 4 -0.02081375
6.1453061 1.7598181 1.0124439 76 12 -0.020811446
5.6258082 1.6099883 -0.51195282 24 5 -0.020809142
8.1939783 2.3433976 1.6566037 9 13 -0.020806838
5.5825105 1.5954895 -0.30428126 48 6 -0.020804534
6.9705758 1.9908848 1.6736358 53 14 -0.02080223
5.6415153 1.6112882 -0.10241073 23 7 -0.020799926
5.4893985 1.5668026 1.5296206 48 15 -0.020797621
3.7502565 1.0647526 -1.0445937 7 0 -0.020776885
5.5519791 1.5752379 0.10073529 28 8 -0.020774582
4.4246101 1.2545426 -1.061769 11 1 -0.020772278
6.1373143 1.7401584 0.33432212 63 9 -0.020769974
5.3852305 1.5258992 -1.0879929 12 2 -0.02076767
6.1497951 1.7413752 0.55919123 65 10 -0.020765366
5.5653753 1.5748447 -0.91608036 36 3 -0.020763062
6.1584387 1.7415042 0.78581363 85 11 -0.020760758
5.497786 1.5536436 -0.70147997 45 4 -0.020758454
6.1400065 1.7351315 1.0105668 72 12 -0.02075615
5.6083856 1.5838443 -0.50986111 30 5 -0.020753846
8.2096653 2.3169155 1.6581303 9 13 -0.020751541
5.5803571 1.5738231 -0.3038626 45 6 -0.020749237
6.9849849 1.9686567 1.6754354 52 14 -0.020746933
5.6143847 1.5823649 -0.10181734 31 7 -0.020744629
5.4873953 1.5455377 1.5275501 24 15 -0.020742325
3.7651122 1.0547811 -1.0476996 14 0 -0.02072159
5.5571718 1.5568193 0.10073529 28 8 -0.020719286
4.4249926 1.2388111 -1.0608691 8 1 -0.020716982
6.1452746 1.7192611 0.33442679 59 9 -0.020714678
5.3943062 1.5081477 -1.0887562 10 2 -0.020712374
6.1481605 1.7177546 0.55849403 62 10 -0.02071007
5.5515423 1.5510635 -0.91295165 36 3 -0.020707766
6.1527085 1.7178677 0.78435117 85 11 -0.020705462
5.5105562 1.5375389 -0.70245498 61 4 -0.020703157
6.1479282 1.7142202 1.0108796 75 12 -0.020700853
5.5985255 1.5599778 -0.5084666 31 5 -0.020698549
8.2229776 2.2912574 1.6592751 10 13 -0.020696245
5.5663047 1.5499529 -0.30281588 42 6 -0.020693941
5.6237273 1.5638274 -0.10188715 40 7 -0.020689333
5.4890342 1.5253403 1.5265148 39 15 -0.020687029
3.7741747 1.0438353 -1.0492525 12 0 -0.020666294
5.5683541 1.539011 0.10084001 28 8 -0.02066399
4.4105058 1.2181703 -1.0563701 11 1 -0.020661686
6.133615 1.6940886 0.33348474 76 9 -0.020659382
5.3879232 1.4871157 -1.0864664 12 2 -0.020657077
6.1480598 1.6957691 0.55797106 67 10 -0.020654773
5.5454965 1.5285273 -0.91107446 38 3 -0.020652469
6.1337886 1.6895257 0.78118259 84 11 -0.020650165
5.4967508 1.5130272 -0.70001757 72 4 -0.020647861
6.1440558 1.6912034 1.0093153 72 12 -0.020645557
5.5844584 1.536118 -0.50672346 34 5 -0.020643253
8.2328186 2.2630579 1.6596566 13 13 -0.020640949
5.5639772 1.5283983 -0.30239719 48 6 -0.020638645
6.9437265 1.9061024 1.6623883 1 14 -0.020636342
5.6250262 1.5441097 -0.10181734 40 7 -0.020634038
6.0902309 1.6706687 1.6921589 46 15 -0.020631734
3.7759316 1.030145 -1.0487348 10 0 -0.020610997
5.5772853 1.5215881 0.10090981 28 8 -0.020608693
4.4258022 1.2066122 -1.0590695 11 1 -0.020606389
6.1221476 1.6679443 0.33254269 74 9 -0.020604085
5.3930812 1.4683003 -1.0864664 12 2 -0.020601781
6.1251054 1.6664504 0.55535638 80 10 -0.020599477
5.5390987 1.5070163 -0.90919721 38 3 -0.020597173
6.1316943 1.6670971 0.78020763 80 11 -0.020594869
5.4979067 1.4937483 -0.69953007 75 4 -0.020592565
6.0984507 1.6557698 1.0008678 70 12 -0.020590261
5.5744033 1.5124428 -0.50532901 33 5 -0.020587958
8.2592258 2.2408869 1.6634729 11 13 -0.020585654
5.5728703 1.510983 -0.30260652 48 6 -0.02058335
5.900454 1.598696 1.4113429 18 14 -0.020581046
5.6033587 1.5171498 -0.10132867 45 7 -0.020578742
6.1053491 1.6519239 1.6947472 50 15 -0.020576438
3.7681341 1.014605 -1.0456289 12 0 -0.020555701
5.5864244 1.5031509 0.10097963 30 8 -0.020553397
4.4356327 1.1926748 -1.0604193 9 1 -0.020551093
6.1334319 1.6491876 0.33285671 76 9 -0.020548789
5.3941278 1.4493904 -1.0857033 12 2 -0.020546485
6.1325221 1.6466446 0.55553067 67 10 -0.020544181
5.5366936 1.4856255 -0.90794575 40 3 -0.020541878
6.1432285 1.6472238 0.78093886 85 11 -0.020539574
5.5030875 1.4745466 -0.69953007 76 4 -0.02053727
6.119173 1.6396261 1.0033708 30 12 -0.020534966
5.548594 1.485705 -0.50253999 31 5 -0.020532662
8.2840652 2.2166121 1.6669074 19 13 -0.020530358
5.5800405 1.4920352 -0.30271122 51 6 -0.020528054
5.9059982 1.5780909 1.4113429 3 14 -0.02052575
5.6006308 1.4964963 -0.10118905 46 7 -0.020523446
6.1033273 1.6296765 1.6926767 46 15 -0.020521142
3.7679191 1.0004531 -1.0445937 14 0 -0.020500405
5.5836482 1.4825631 0.10084001 33 8 -0.020498101
4.4357953 1.1769605 -1.0595194 12 1 -0.020495798
6.129499 1.6252067 0.33233336 74 9 -0.020493494
5.3915639 1.4285399 -1.0841768 12 2 -0.02049119
6.1208978 1.6206428 0.55396187 62 10 -0.020488886
5.5224934 1.4622021 -0.90481704 43 3 -0.020486582
6.1409812 1.6248105 0.77996385 82 11 -0.020484278
5.5060277 1.4557831 -0.69928634 72 4 -0.020481974
6.1133986 1.6152326 1.0014936 15 12 -0.02047967
5.5325565 1.4607315 -0.50062257 28 5 -0.020477366
8.2932711 2.1896281 1.6672891 33 13 -0.020475062
5.579164 1.4719955 -0.30239719 50 6 -0.020472758
5.6058211 1.476936 -0.10118905 45 7 -0.020468149
6.1164517 1.6103276 1.6947472 46 15 -0.020465845
3.7656095 0.98648477 -1.0430408 13 0 -0.02044511
5.5810509 1.4610391 0.10070039 33 8 -0.020442806
4.4134831 1.1545635 -1.0532209 9 1 -0.020440502
6.1274061 1.6017787 0.33191466 65 9 -0.020438198
5.4133668 1.4151201 -1.0876113 12 2 -0.020435894
6.1243105 1.5998309 0.55378759 57 10 -0.02043359
5.502717 1.4364284 -0.9007498 40 3 -0.020431286
6.1312494 1.5993544 0.77801394 82 11 -0.020428982
5.5072336 1.4355544 -0.69879889 73 4 -0.020426678
6.1400275 1.5993586 1.0049351 46 12 -0.020424373
5.5258012 1.4393646 -0.49957672 28 5 -0.020422069
8.2837629 2.1562126 1.6638545 30 13 -0.020419765
5.582335 1.45201 -0.30229253 52 6 -0.020417461
5.9298058 1.5412852 1.4144921 16 14 -0.020415157
5.6032009 1.4553466 -0.10104944 42 7 -0.020412853
6.1182957 1.587998 1.6937119 35 15 -0.020410549
3.7802527 0.97623342 -1.0461466 12 0 -0.020389814
5.5919261 1.4430462 0.1008051 38 8 -0.02038751
4.425034 1.1410979 -1.0550205 9 1 -0.020385206
6.117486 1.5763974 0.33107728 80 9 -0.020382902
5.4068656 1.3932797 -1.0853217 12 2 -0.020380598
6.1259995 1.577448 0.55343896 60 10 -0.020378293
5.492393 1.413272 -0.89824677 39 3 -0.020375989
6.1175685 1.5730034 0.77557659 78 11 -0.020373685
5.5141339 1.4168144 -0.69904256 75 4 -0.020371381
6.1168737 1.5705458 1.0002421 81 12 -0.020369077
5.5076346 1.4141198 -0.49748495 28 5 -0.020366773
6.0662961 1.5564343 1.2173615 56 13 -0.020364469
5.5776968 1.4300336 -0.30176917 50 6 -0.020362165
6.0370898 1.5466921 1.438787 5 14 -0.020359861
5.6043715 1.4347908 -0.10097963 42 7 -0.020357557
5.5099249 1.4095839 1.5239266 24 15 -0.020355254
3.7705326 0.95969534 -1.0425231 14 0 -0.020334518
5.6008043 1.4245076 0.10087491 38 8 -0.020332213
4.4289908 1.1256436 -1.0550205 12 1 -0.020329909
6.1033235 1.5511812 0.33003056 93 9 -0.020327605
5.4155025 1.3753629 -1.0860848 12 2 -0.020325301
6.1198802 1.5531183 0.55239308 67 10 -0.020322997
5.4896336 1.3921503 -0.89699531 38 3 -0.020320693
6.1095524 1.5482246 0.77387041 80 11 -0.020318389
5.5053315 1.3951087 -0.69733644 70 4 -0.020316085
6.114387 1.5483173 0.9989906 66 12 -0.020313781
5.5144687 1.3953758 -0.49765927 48 5 -0.020311477
6.0907254 1.5400605 1.2211776 19 13 -0.020309174
5.5845909 1.4110428 -0.3018738 52 6 -0.02030687
6.078084 1.5357324 1.4473351 7 14 -0.020304566
5.5897102 1.4113014 -0.10063057 41 7 -0.020302262
6.1458216 1.5505686 1.6983706 46 15 -0.020299958
3.7718205 0.94671512 -1.0420054 9 0 -0.020279221
5.6151958 1.4083577 0.10104944 52 8 -0.020276917
4.425138 1.1090562 -1.0532209 9 1 -0.020274613
6.1103706 1.53142 0.33013523 82 9 -0.020272309
5.412416 1.3554876 -1.0845585 12 2 -0.020270005
6.1211319 1.5318465 0.55204445 60 10 -0.020267701
5.478889 1.3701057 -0.89449239 37 3 -0.020265397
6.1242824 1.5303605 0.77508909 75 11 -0.020263094
5.5311131 1.3821371 -0.70001757 78 4 -0.02026079
6.1175718 1.5275526 0.99867773 68 12 -0.020258486
5.4997339 1.3722593 -0.49591616 44 5 -0.020256182
8.3169565 2.0736489 1.6661443 14 13 -0.020253878
5.5931149 1.3934854 -0.30208316 56 6 -0.020251574
7.1155939 1.7728004 1.6929817 3 14 -0.02024927
5.5827165 1.38986 -0.10042115 42 7 -0.020246966
6.1378069 1.5269134 1.6947472 35 15 -0.020244662
3.7618122 0.93095434 -1.0383821 10 0 -0.020223925
5.6043048 1.38589 0.10077019 73 8 -0.020221621
4.4363589 1.0962445 -1.0550205 9 1 -0.020219317
6.1137404 1.5096011 0.33003056 72 9 -0.020217013
5.3959146 1.332356 -1.0803605 12 2 -0.02021471
6.1087685 1.5072455 0.55047566 65 10 -0.020212406
5.4776487 1.3505094 -0.89355379 47 3 -0.020210102
6.1254687 1.5090948 0.77460164 78 11 -0.020207798
5.5243378 1.359978 -0.69855517 69 4 -0.020205494
6.1113582 1.5033561 0.99680054 57 12 -0.02020319
5.5139284 1.3563921 -0.49678773 57 5 -0.020200886
8.3295078 2.0474653 1.6672891 27 13 -0.020198582
5.6054635 1.3768344 -0.30250186 56 6 -0.020196278
7.1728382 1.7604915 1.705129 4 14 -0.020193974
5.5991869 1.3732207 -0.10063057 42 7 -0.020191669
6.141223 1.5050207 1.6942296 13 15 -0.020189365
3.766916 0.91827583 -1.0388998 15 0 -0.02016863
5.5974517 1.3634778 0.10056076 80 8 -0.020166326
4.4231181 1.0766032 -1.0509714 12 1 -0.020164022
6.1306162 1.4910843 0.33065861 65 9 -0.020161718
5.4081626 1.3153696 -1.081887 12 2 -0.020159414
6.1159291 1.4863815 0.55065 60 10 -0.02015711
5.4650536 1.3271835 -0.89073795 51 3 -0.020154806
6.1171951 1.4844283 0.77289546 80 11 -0.020152502
5.5367684 1.3425559 -0.69953007 72 4 -0.020150198
6.116569 1.4820126 0.99680054 56 12 -0.020147894
5.5457387 1.3437035 -0.49922809 56 5 -0.020145589
6.0334945 1.4607725 1.2066761 11 13 -0.020143285
5.5947051 1.3535033 -0.3016645 54 6 -0.020140981
7.1069617 1.7180407 1.6880326 4 14 -0.020138677
5.6136651 1.3560164 -0.1008051 24 7 -0.020136373
6.1652184 1.4881088 1.6994059 11 15 -0.020134069
3.7776124 0.90692419 -1.0409703 9 0 -0.020113334
5.6216216 1.3485967 0.10090981 90 8 -0.02011103
4.4173727 1.0588887 -1.0487218 7 1 -0.020108726
6.0969381 1.4603691 0.32856518 85 9 -0.020106422
5.4108124 1.2960248 -1.0815054 12 2 -0.020104118
6.0997653 1.4599239 0.54873258 85 10 -0.020101814
5.4869432 1.3122379 -0.89355379 31 3 -0.02009951
6.0837255 1.4538367 0.76802069 87 11 -0.020097205
5.5336981 1.3213751 -0.69855517 72 4 -0.020094901
6.1005688 1.4556111 0.99335897 61 12 -0.020092597
5.5736513 1.3298873 -0.50131983 60 5 -0.020090293
8.3455076 1.9897197 1.6676707 20 13 -0.020087989
5.59551 1.3330387 -0.30145514 52 6 -0.020085685
7.0996442 1.6900648 1.6848834 53 14 -0.020083381
5.6728363 1.3493681 -0.10178243 21 7 -0.020081077
6.1778932 1.4683642 1.7014765 28 15 -0.020078773
3.780755 0.89373314 -1.0409703 8 0 -0.020058038
5.628242 1.3294237 0.10094472 85 8 -0.020055734
4.4248357 1.0443568 -1.0496217 8 1 -0.02005343
6.105886 1.439996 0.32877451 74 9 -0.020051125
5.4133921 1.2766801 -1.0811238 10 2 -0.020048821
6.1125822 1.4404491 0.54942977 65 10 -0.020046517
5.5030274 1.295792 -0.89543104 27 3 -0.020044213
6.1100183 1.4375941 0.77070183 82 11 -0.020041909
5.5305471 1.3002348 -0.69758022 72 4 -0.020039605
6.1075349 1.4347602 0.99367183 65 12 -0.020037301
5.6015344 1.3158923 -0.50341159 60 5 -0.020034997
8.3619585 1.9628214 1.6695787 11 13 -0.020032693
5.6001291 1.3134998 -0.30145514 54 6 -0.02003039
7.0941162 1.6626055 1.682184 47 14 -0.020028086
5.7184 1.3391315 -0.10251543 21 7 -0.020025782
5.5302596 1.2940577 1.521856 18 15 -0.020023478
3.7838516 0.88053119 -1.0409703 12 0 -0.020002741
5.6386914 1.3111266 0.10104944 57 8 -0.020000437
4.4341488 1.030229 -1.0509714 11 1 -0.019998133
6.1011477 1.4164138 0.32825115 76 9 -0.019995829
5.4025168 1.2542229 -1.0780709 12 2 -0.019993525
6.1059275 1.4164004 0.54838395 70 10 -0.019991221
5.5344577 1.2828207 -0.89981115 29 3 -0.019988917
6.1130657 1.4158078 0.7704581 84 11 -0.019986613
5.5427885 1.2827104 -0.69855517 72 4 -0.019984309
6.1048079 1.4116535 0.99242038 68 12 -0.019982006
5.6177397 1.2990257 -0.50445741 63 5 -0.019979702
8.3706722 1.9340605 1.6699605 13 13 -0.019977398
5.6163568 1.296638 -0.30208316 52 6 -0.019975094
7.118865 1.6422142 1.6866829 50 14 -0.01997279
5.7522678 1.3259009 -0.10303901 23 7 -0.019970486
6.1823459 1.4238979 1.6999235 48 15 -0.019968182
3.7680714 0.86300385 -1.0357939 13 0 -0.019947445
5.6432338 1.291437 0.10104944 40 8 -0.019945141
4.4282193 1.0125713 -1.0487218 8 1 -0.019942837
6.0943723 1.3924403 0.32762313 65 9 -0.019940533
5.389637 1.2314225 -1.0746363 12 2 -0.019938231
6.0952954 1.3915319 0.54698944 70 10 -0.019935925
5.5562353 1.2674464 -0.90262699 34 3 -0.019933622
6.112164 1.3931385 0.76972687 85 11 -0.019931318
5.5491672 1.2637967 -0.69879889 73 4 -0.019929014
6.0981417 1.3877035 0.99054313 68 12 -0.01992671
5.6416678 1.2838275 -0.50620055 59 5 -0.019924406
8.3716288 1.9035256 1.6688155 9 13 -0.019922102
5.6169529 1.2761414 -0.3018738 54 6 -0.019919798
7.1264553 1.6177844 1.687133 53 14 -0.019917494
5.8056149 1.3168737 -0.10391163 19 7 -0.01991519
6.1853948 1.4018831 1.6994059 46 15 -0.019912886
3.7767146 0.85112053 -1.0373468 7 0 -0.019895077
5.6340513 1.2686541 0.1008051 45 8 -0.019892773
4.4298263 0.99667901 -1.0482719 10 1 -0.019890469
6.093111 1.370906 0.3273091 63 9 -0.019888164
5.3958173 1.2130333 -1.0750179 10 2 -0.01988586
6.0884523 1.3676254 0.54594356 62 10 -0.019883556
5.5799003 1.2523685 -0.9057557 31 3 -0.019881252
6.0763125 1.3626738 0.76460832 94 11 -0.019878948
5.553545 1.2444172 -0.69879889 54 4 -0.019876644
6.0834346 1.3631527 0.98741448 75 12 -0.01987434
5.6616693 1.2676077 -0.50759506 53 5 -0.019872036
6.1040511 1.365538 1.215835 2 13 -0.019869734
5.6915431 1.2722101 -0.30564201 12 6 -0.01986743
7.1377649 1.5941709 1.6884826 46 14 -0.019865125
5.8763056 1.3124325 -0.1050984 13 7 -0.019862821
6.1975508 1.3830482 1.7014765 46 15 -0.019860517
3.7834344 0.83876729 -1.0383821 10 0 -0.01983978
5.6714163 1.2573228 0.10139848 21 8 -0.019837476
4.4312034 0.98156512 -1.047822 11 1 -0.019835172
6.084208 1.3466088 0.32657638 80 9 -0.019832868
5.3866005 1.1912222 -1.0723467 12 2 -0.019830564
6.0931883 1.3463686 0.54594356 47 10 -0.01982826
5.6052389 1.2385498 -0.90919721 28 3 -0.019825956
6.0807981 1.3425148 0.76460832 80 11 -0.019823654
5.9026914 1.3021122 -0.74218434 99 4 -0.01982135
6.09973 1.3444618 0.98929167 72 12 -0.019819045
5.6894078 1.2529802 -0.50968677 53 5 -0.019816741
6.1181331 1.3473985 1.2177432 2 13 -0.019814437
5.7659516 1.2687825 -0.30941018 66 6 -0.019812133
7.141108 1.5700754 1.6880326 52 14 -0.019809829
5.9999909 1.3180866 -0.10722758 21 7 -0.019807525
5.5494633 1.2180989 1.5223737 11 15 -0.019805221
3.7918577 0.82745093 -1.039935 12 0 -0.019784484
6.0626216 1.3218666 0.10830963 30 8 -0.01978218
4.4288912 0.9648459 -1.0464723 10 1 -0.019779876
6.0810661 1.3236619 0.32615772 53 9 -0.019777574
5.3886027 1.1729339 -1.071965 10 2 -0.01977527
6.09762 1.3261536 0.54594356 67 10 -0.019772965
5.6326923 1.2240084 -0.91295165 25 3 -0.019770661
6.0932074 1.3229638 0.76558328 87 11 -0.019768357
6.0022588 1.3021231 -0.75412756 60 4 -0.019766053
6.0889411 1.3198152 0.98678869 76 12 -0.019763749
5.7091093 1.2374843 -0.51108128 60 5 -0.019761445
6.1995502 1.3426545 1.2330078 1 13 -0.019759141
6.0865817 1.3170797 -0.32636705 55 6 -0.019756837
7.1465449 1.5451403 1.6880326 49 14 -0.019754533
6.0768762 1.3127562 -0.10851907 31 7 -0.019752229
5.5385747 1.1954579 1.5182326 39 15 -0.019749925
3.7758338 0.81015962 -1.0347586 10 0 -0.01972919
6.1023936 1.3082396 0.10893792 65 8 -0.019726885
4.4265156 0.94815457 -1.0451226 8 1 -0.019724581
6.070024 1.2990873 0.32532033 59 9 -0.019722277
5.4022632 1.1561751 -1.073873 12 2 -0.019719973
6.0963674 1.3036095 0.54542065 72 10 -0.019717669
5.6620445 1.2097033 -0.91701895 24 3 -0.019715365
6.0919633 1.3004473 0.76485211 85 11 -0.019713061
5.6165419 1.1979318 -0.70513606 13 4 -0.019710757
6.0799875 1.2956691 0.98459864 75 12 -0.019708453
5.721189 1.2192078 -0.51177853 55 5 -0.019706149
6.2118788 1.3226455 1.2345343 8 13 -0.019703845
6.0891895 1.2954084 -0.32626238 52 6 -0.01970154
7.1557078 1.5209932 1.6889325 49 14 -0.019699236
6.0872889 1.2927864 -0.10862378 59 7 -0.019696932
5.5143671 1.1701038 1.510468 58 15 -0.019694628
3.7748585 0.7961762 -1.0337234 9 0 -0.019673893
6.09127 1.28363 0.10865869 65 8 -0.019671589
4.439333 0.93470585 -1.0473721 10 1 -0.019669285
6.074522 1.2778895 0.32532033 59 9 -0.019666981
5.3774481 1.1312468 -1.0681487 10 2 -0.019664677
6.0735836 1.2765821 0.54298031 75 10 -0.019662373
5.6816978 1.1931807 -0.91952187 22 3 -0.019660069
6.0886946 1.2775422 0.76387709 85 11 -0.019657765
5.9626327 1.2500024 -0.74803412 17 4 -0.01965546
6.0864062 1.2748444 0.98491156 78 12 -0.019653156
5.7585611 1.2061747 -0.51474178 38 5 -0.019650852
6.2049279 1.2985393 1.2322445 16 13 -0.019648548
6.0878096 1.2729173 -0.32594836 55 6 -0.019646244
7.1666961 1.4972029 1.6902822 36 14 -0.01964394
6.0702319 1.2670337 -0.10823982 46 7 -0.019641636
5.5165267 1.150452 1.5099503 58 15 -0.019639332
3.7813978 0.78377962 -1.0347586 15 0 -0.019618597
6.06634 1.256281 0.1081351 62 8 -0.019616293
4.4387522 0.91841316 -1.0464723 7 1 -0.019613989
6.0652552 1.2538457 0.32458761 76 9 -0.019611685
5.4044352 1.1172371 -1.0727283 10 2 -0.019609381
6.0701966 1.2537657 0.542283 75 10 -0.019607076
5.7051744 1.1773313 -0.92265058 24 3 -0.019604772
6.0736752 1.2522709 0.76143968 89 11 -0.019602468
6.0175095 1.2395988 -0.75437129 71 4 -0.019600164
6.0792108 1.2512002 0.98303431 78 12 -0.01959786
5.9656911 1.227836 -0.53287023 96 5 -0.019595556
6.0594287 1.2460264 1.2024784 61 13 -0.019593252
6.0843892 1.2500556 -0.32552966 55 6 -0.01959095
7.1776061 1.473351 1.6916319 12 14 -0.019588646
6.0707006 1.245032 -0.10817002 46 7 -0.019586341
5.5413265 1.1354584 1.5156444 18 15 -0.019584037
3.7935762 0.77250177 -1.0373468 12 0 -0.019563301
6.0765672 1.2362924 0.10823982 67 8 -0.019560996
4.4247437 0.89942062 -1.0424232 11 1 -0.019558692
6.0558934 1.2298851 0.32385492 65 9 -0.019556388
5.394834 1.0956312 -1.0700569 12 2 -0.019554084
6.0862522 1.2349446 0.54332888 70 10 -0.01955178
5.7382894 1.1632979 -0.92734367 23 3 -0.019549476
6.0702271 1.2294872 0.76046479 85 11 -0.019547172
6.0159636 1.2174034 -0.75364012 72 4 -0.01954487
6.0757971 1.2284048 0.98178285 78 12 -0.019542566
6.0363388 1.220427 -0.53879678 77 5 -0.019540261
6.2042212 1.2532456 1.2303365 17 13 -0.019537957
6.0691381 1.2248566 -0.32448295 63 6 -0.019535653
6.0250669 1.2148651 1.4189912 11 14 -0.019533349
6.0750093 1.2238349 -0.10817002 49 7 -0.019531045
5.5566196 1.1183941 1.5187503 1 15 -0.019528741
3.7848835 0.75698072 -1.034241 9 0 -0.019508004
6.0808458 1.2150749 0.10823982 67 8 -0.0195057
4.4297671 0.88435239 -1.042873 10 1 -0.019503396
6.0601501 1.208737 0.32385492 65 9 -0.019501092
5.3774476 1.0725675 -1.0658592 8 2 -0.019498788
6.0827098 1.2121359 0.54263163 75 10 -0.019496486
5.9147391 1.1775903 -0.95518899 94 3 -0.019494181
6.072535 1.2079018 0.76022106 87 11 -0.019491877
6.031858 1.1987193 -0.75510252 72 4 -0.019489573
6.0626087 1.2037306 0.97896701 75 12 -0.019487269
6.0640125 1.2040092 -0.54088855 63 5 -0.019484965
6.212409 1.2323434 1.2310997 9 13 -0.019482661
6.0733762 1.2036651 -0.32448295 57 6 -0.019480357
6.0330935 1.1945873 1.419891 80 14 -0.019478053
6.0713973 1.2010677 -0.10803039 49 7 -0.019475749
6.3318324 1.2514397 1.7294289 7 15 -0.019473445
3.7837112 0.74302065 -1.0332056 12 0 -0.019452708
6.0772014 1.1923 0.10810021 65 8 -0.019450406
4.4194407 0.86625916 -1.0397238 8 1 -0.019448102
6.0623722 1.1871933 0.32375026 63 9 -0.019445797
5.3850117 1.0545459 -1.0666224 12 2 -0.019443493
6.0751724 1.188599 0.54158574 75 10 -0.019441189
6.0409513 1.1808091 -0.97489971 70 3 -0.019438885
6.0708694 1.1855571 0.75948983 82 11 -0.019436581
6.0399022 1.1784154 -0.75559002 64 4 -0.019434277
6.0532017 1.1799138 0.97677696 76 12 -0.019431973
6.0623112 1.1816893 -0.54036558 62 5 -0.019429669
6.2166724 1.2106519 1.2310997 9 13 -0.019427365
6.0755811 1.1820748 -0.32437828 59 6 -0.019425061
6.0257497 1.1712881 1.4171916 48 14 -0.019422757
6.069664 1.178725 -0.10792568 55 7 -0.019420452
6.3247833 1.2271235 1.7263231 19 15 -0.019418148
3.7786942 0.72834682 -1.0311351 16 0 -0.019397413
6.073472 1.1695651 0.10796059 65 8 -0.019395109
4.435833 0.85340518 -1.042873 10 1 -0.019392805
6.0704017 1.1667795 0.32395959 57 9 -0.019390501
5.3905883 1.036114 -1.067004 12 2 -0.019388197
6.065588 1.1647537 0.54036558 67 10 -0.019385893
6.0586157 1.1623216 -0.97708976 57 3 -0.019383589
6.0496264 1.1595023 0.75632119 84 11 -0.019381285
6.0751743 1.1632968 -0.75948983 57 4 -0.019378981
6.0572834 1.1587782 0.97677696 72 12 -0.019376677
6.0624852 1.1597732 -0.54001695 60 5 -0.019374372
6.2112193 1.1871029 1.2291917 8 13 -0.019372068
6.0796704 1.1608583 -0.32437828 60 6 -0.019369764
6.0278864 1.1498833 1.4167417 15 14 -0.01936746
6.0737419 1.1575291 -0.10792568 54 7 -0.019365156
3.7869079 0.71623009 -1.032688 10 0 -0.019342117
6.0480433 1.1427897 0.10743701 72 8 -0.019339813
4.4311256 0.83646899 -1.0410734 10 1 -0.019337509
6.0624623 1.1444185 0.32333156 70 9 -0.019335205
5.3768086 1.014015 -1.0635694 10 2 -0.019332901
6.0598269 1.1417304 0.53949404 85 10 -0.019330597
6.0587535 1.1404334 -0.97646403 55 3 -0.019328292
6.0555873 1.1387433 0.75656492 82 11 -0.019325988
6.0791979 1.1420846 -0.75948983 57 4 -0.019323684
6.0610933 1.1386834 0.97677696 76 12 -0.01932138
6.0586638 1.1371324 -0.53931969 61 5 -0.019319076
6.1419992 1.1516637 1.2146901 35 13 -0.019316772
6.0679798 1.1366885 -0.3235409 58 6 -0.019314468
6.0261178 1.127758 1.415392 67 14 -0.019312166
6.0657535 1.1351756 -0.10771625 57 7 -0.019309862
3.7931838 0.70371068 -1.0337234 10 0 -0.019286821
6.0635962 1.1249171 0.10764644 62 8 -0.019284517
4.4127975 0.81786466 -1.0361246 7 1 -0.019282212
6.0526733 1.1207054 0.32259887 65 9 -0.019279908
5.386107 0.99631268 -1.0647143 12 2 -0.019277604
6.0696526 1.1216582 0.54001695 67 10 -0.0192753
6.0586176 1.119619 -0.9758383 52 3 -0.019272996
6.0456653 1.1161344 0.75485879 80 11 -0.019270692
6.0692863 1.1193999 -0.75778365 52 4 -0.019268388
6.0572596 1.1160886 0.97552538 78 12 -0.019266084
6.0625968 1.1159753 -0.53931969 61 5 -0.019263782
6.2095017 1.1430168 1.2272835 30 13 -0.019261478
6.0658231 1.1154776 -0.3232269 65 6 -0.019259173
6.0736127 1.1147156 -0.10778606 55 7 -0.019254565
5.6169171 1.0298858 1.5301383 31 15 -0.019252261
3.8011985 0.69216532 -1.0352762 15 0 -0.019231524
6.0556817 1.1015954 0.10743701 57 8 -0.01922922
4.4252124 0.80419928 -1.0383741 7 1 -0.019226916
6.0604782 1.1002827 0.32280821 65 9 -0.019224612
5.3681326 0.97458702 -1.0605165 12 2 -0.019222308
6.0654974 1.1001005 0.53931969 67 10 -0.019220004
6.0663753 1.0991691 -0.97646403 51 3 -0.019217702
6.0495248 1.0950227 0.75485879 84 11 -0.019215398
6.0614367 1.0960863 -0.75632119 50 4 -0.019213093
6.0475111 1.0924813 0.97333533 71 12 -0.019210789
6.0584211 1.0944521 -0.5386225 57 5 -0.019208485
6.2289104 1.1241255 1.2303365 24 13 -0.019206181
6.0598526 1.0925237 -0.32270354 58 6 -0.019203877
7.2361655 1.3032994 1.6974807 46 14 -0.019201573
6.0558176 1.0896139 -0.10740211 54 7 -0.019199269
5.652801 1.0160813 1.538938 16 15 -0.019196965
3.7883773 0.67617774 -1.0311351 12 0 -0.019176228
6.0653958 1.0815048 0.10754173 60 8 -0.019173924
4.4299107 0.78908801 -1.038824 11 1 -0.019171622
6.0642815 1.0791222 0.32280821 65 9 -0.019169318
5.3676362 0.95515609 -1.0597532 12 2 -0.019167013
6.0477228 1.0750867 0.53740233 65 10 -0.019164709
6.058506 1.075913 -0.97458684 51 3 -0.019162405
6.0474467 1.0728574 0.75412756 78 11 -0.019160101
6.061316 1.0742296 -0.75583369 52 4 -0.019157797
6.0357275 1.0686083 0.97083241 71 12 -0.019155493
6.0504336 1.0712119 -0.53757662 56 5 -0.019153189
6.21733 1.0996385 1.2272835 12 13 -0.019150885
6.0616627 1.071018 -0.32259887 57 6 -0.019148581
7.2368326 1.277353 1.6965809 4 14 -0.019146277
6.0497379 1.0667307 -0.10722758 54 7 -0.019143973
5.6201653 0.989977 1.529103 30 15 -0.019141668
3.7850051 0.66195208 -1.0295821 9 0 -0.019120933
6.0533762 1.0575712 0.10726249 60 8 -0.019118629
4.4326382 0.77361876 -1.038824 8 1 -0.019116325
6.0522709 1.0552043 0.32197085 65 9 -0.019114021
5.3806076 0.93810081 -1.0616612 12 2 -0.019111717
6.0357356 1.0512331 0.53600776 75 10 -0.019109413
6.0427642 1.0513706 -0.9714582 59 3 -0.019107109
6.0433311 1.0503857 0.75315261 82 11 -0.019104805
6.0572057 1.0517052 -0.75485879 55 4 -0.019102501
6.043314 1.0482067 0.9714582 75 12 -0.019100197
6.0384316 1.0473599 -0.53618211 57 5 -0.019097893
6.2172613 1.0772631 1.2265203 6 13 -0.019095588
6.0594602 1.0488288 -0.32228485 59 6 -0.019093284
6.0218921 1.0412437 1.410893 18 14 -0.01909098
6.0534239 1.0456109 -0.10722758 55 7 -0.019088676
5.6216831 0.97002298 1.5285853 61 15 -0.019086372
3.7853887 0.64840871 -1.0290645 13 0 -0.019065637
6.0373197 1.033066 0.10691345 77 8 -0.019063333
4.427628 0.75682884 -1.0370244 8 1 -0.019061029
6.0539489 1.0337337 0.32186615 70 9 -0.019058725
5.3838501 0.91931188 -1.0616612 12 2 -0.019056421
6.0491896 1.0318316 0.53687936 60 10 -0.019054117
6.0425019 1.0296087 -0.97083241 55 3 -0.019051813
6.0430474 1.0286163 0.7526651 75 11 -0.019049508
6.0588832 1.0302209 -0.75461507 57 4 -0.019047204
6.0410933 1.0261141 0.97051954 72 12 -0.0190449
6.022408 1.0229403 -0.53443903 60 5 -0.019042596
6.0390387 1.0246809 1.1906482 12 13 -0.019040292
6.0414233 1.0239978 -0.32113346 55 6 -0.019037988
7.2686305 1.2307034 1.7019798 42 14 -0.019035684
6.04915 1.0231384 -0.10708796 57 7 -0.01903338
5.6269403 0.95071405 1.529103 33 15 -0.019031078
3.7952502 0.6364702 -1.0311351 13 0 -0.019010341
6.0468059 1.0129751 0.10701816 65 8 -0.019008037
4.4206338 0.73975968 -1.0347749 7 1 -0.019005733
6.0535808 1.011938 0.32165682 70 9 -0.019003429
5.3850899 0.90019059 -1.0612797 10 2 -0.019001124
6.0507884 1.0103858 0.53670508 62 10 -0.01899882
6.0382662 1.0072085 -0.96958095 52 3 -0.018996516
6.0309367 1.004907 0.7507152 75 11 -0.018994212
6.0448189 1.0061359 -0.75242138 55 4 -0.018991908
6.0426888 1.0046948 0.97020662 71 12 -0.018989604
6.037734 1.003871 -0.53548485 56 5 -0.0189873
6.2265677 1.034151 1.2269019 1 13 -0.018984998
6.0410204 1.0022535 -0.32092413 54 6 -0.018982694
6.0566306 1.0026684 -0.10715777 54 7 -0.018978085
5.6416593 0.93296152 1.5322088 9 15 -0.018975781
3.7955422 0.62290454 -1.0306175 8 0 -0.018955044
6.0483313 0.99153644 0.10698325 67 8 -0.01895274
4.4289575 0.72527206 -1.0361246 8 1 -0.018950436
6.0413074 0.9882198 0.32081944 70 9 -0.018948132
5.3630114 0.87726605 -1.0563186 6 2 -0.018945828
6.0483794 0.98829275 0.53618211 60 10 -0.018943524
6.0378447 0.98549259 -0.96895516 55 3 -0.01894122
6.030489 0.98320848 0.75022775 75 11 -0.018938918
6.0247827 0.98119879 -0.74949652 55 4 -0.018936614
6.0383601 0.98233128 0.96895516 71 12 -0.018934309
6.0412011 0.98279345 -0.53548485 57 5 -0.018932005
8.5942984 1.3965923 1.6924759 33 13 -0.018929701
6.0484247 0.98179865 -0.32113346 53 6 -0.018927397
7.2731977 1.1793084 1.7010798 39 14 -0.018925093
6.0482502 0.97960371 -0.10694835 54 7 -0.018922789
5.641068 0.91264427 1.5311736 1 15 -0.018920485
3.7938788 0.60903835 -1.0295821 9 0 -0.018899748
6.0497813 0.97010249 0.10694835 65 8 -0.018897444
4.4353108 0.71042287 -1.0370244 8 1 -0.01889514
6.0447206 0.96712404 0.32081944 70 9 -0.018892836
5.3020673 0.84830338 -1.0437253 6 2 -0.018890534
6.026216 0.9630878 0.53391606 62 10 -0.01888823
6.0412483 0.96440893 -0.96895516 55 3 -0.018885925
6.0338845 0.96215057 0.75022775 75 11 -0.018883621
6.0262103 0.95985144 -0.7492528 60 4 -0.018881317
6.0261459 0.95876282 0.96645224 70 12 -0.018879013
6.0445948 0.96169806 -0.53548485 56 5 -0.018876709
8.6010609 1.3668897 1.6928575 30 13 -0.018874405
6.0419521 0.95911539 -0.32061011 53 6 -0.018872101
7.2830443 1.1548266 1.7024295 43 14 -0.018869797
6.0299072 0.95504278 -0.1065644 54 7 -0.018867493
5.6728406 0.89747697 1.538938 11 15 -0.018865189
3.7940729 0.59549463 -1.0290645 13 0 -0.018844454
6.0313997 0.94557047 0.1065644 67 8 -0.01884215
4.4416142 0.69553822 -1.0379242 10 1 -0.018839845
6.0401664 0.94478768 0.32040074 70 9 -0.018837541
5.2991772 0.82888401 -1.0425804 12 2 -0.018835237
5.9941077 0.93650877 0.53077847 80 10 -0.018832933
6.0328679 0.94148612 -0.96707797 57 3 -0.018830629
6.0313215 0.94016945 0.74949652 80 11 -0.018828325
6.0295243 0.93880856 -0.7492528 56 4 -0.018826021
6.0294561 0.93772018 0.96645224 71 12 -0.018823717
6.032166 0.93814158 -0.5340904 55 5 -0.018821413
8.6057787 1.3368598 1.6928575 28 13 -0.018819109
6.0413165 0.93740511 -0.32040074 54 6 -0.018816805
7.2889571 1.1296935 1.7028794 42 14 -0.0188145
6.0391326 0.93490767 -0.10666911 54 7 -0.018812196
5.7141223 0.88357234 1.5492908 52 15 -0.018809892
3.7923095 0.58166045 -1.0280293 11 0 -0.018789157
6.0148969 0.92148411 0.10621535 85 8 -0.018786853
4.4363098 0.67885172 -1.0361246 8 1 -0.018784549
6.0513248 0.92490327 0.32081944 70 9 -0.018782245
6.0288539 0.92038912 0.53356743 65 10 -0.018777637
6.0243998 0.9186362 -0.96520072 43 3 -0.018775333
6.0286794 0.91821218 0.74876529 82 11 -0.018773029
6.0308022 0.91745573 -0.74900907 59 4 -0.018770725
6.0287862 0.91607541 0.96582651 70 12 -0.01876842
6.0314641 0.91648233 -0.53374171 53 5 -0.018766116
8.6298027 1.3097596 1.6966736 14 13 -0.018763812
6.0169058 0.91211879 -0.31893536 52 6 -0.018761508
6.001915 0.90877765 1.4014452 16 14 -0.018759204
6.0423589 0.91382283 -0.10666911 57 7 -0.0187569
5.7209926 0.86419648 1.5503261 65 15 -0.018754596
3.8038692 0.5698511 -1.0306175 9 0 -0.018733861
6.0220323 0.90107572 0.10628515 67 8 -0.018731557
4.4367251 0.66307276 -1.0356746 7 1 -0.018729253
6.0288358 0.89994252 0.31945869 65 9 -0.018726949
6.0359707 0.89992774 0.53391606 65 10 -0.01872234
4.5934582 0.6840381 -0.73555493 18 3 -0.018720036
6.0259576 0.89628774 0.74803412 80 11 -0.018717732
6.0241504 0.89494145 -0.74779034 63 4 -0.018715428
6.0339017 0.89531386 0.96613932 72 12 -0.018713124
6.0267439 0.8942517 -0.53304452 52 5 -0.01871082
8.6323805 1.279338 1.696292 29 13 -0.018708516
6.0161014 0.89052665 -0.318726 52 6 -0.018706214
7.3082333 1.0804895 1.7055789 37 14 -0.01870391
6.0455122 0.89272386 -0.10666911 56 7 -0.018701605
5.7927766 0.85437006 1.5689611 52 15 -0.018699301
3.8039238 0.55628914 -1.0300999 11 0 -0.018678565
6.0231624 0.87975889 0.10625025 65 8 -0.01867626
4.4409413 0.64786392 -1.0361246 11 1 -0.018673956
6.0299649 0.87860292 0.31935403 70 9 -0.018671652
4.4527607 0.64879459 -0.87466848 1 2 -0.018669348
6.0331607 0.87799329 0.53339314 67 10 -0.018667044
4.5547662 0.66203398 -0.72898471 23 3 -0.01866474
6.0310135 0.87553132 0.74827784 82 11 -0.018662436
6.0272374 0.87390906 -0.74779034 55 4 -0.018660132
6.0233049 0.87226558 0.96394926 71 12 -0.01865783
6.0396872 0.87463802 -0.53391606 56 5 -0.018655526
8.6406784 1.2497613 1.6970552 25 13 -0.018653221
6.0171967 0.86923683 -0.31862134 50 6 -0.018650917
7.3100314 1.0546958 1.705129 43 14 -0.018648613
6.022861 0.86790913 -0.10621535 52 7 -0.018646309
5.8397026 0.8404752 1.5808668 35 15 -0.018644005
3.7943678 0.54136938 -1.026994 12 0 -0.018623268
6.0261965 0.85873008 0.10625025 62 8 -0.018620964
4.4296703 0.63043493 -1.0329752 12 1 -0.01861866
6.0310178 0.85726643 0.31924936 74 9 -0.018616356
6.0263252 0.85552937 0.53252155 70 10 -0.018611748
4.5746522 0.64862537 -0.73180056 2 3 -0.018609446
6.0261717 0.85335892 0.74730289 82 11 -0.018607141
6.0204234 0.85147607 -0.74657166 57 4 -0.018604837
6.0145774 0.84957576 0.96207207 75 12 -0.018602533
6.0170569 0.84992605 -0.53165001 51 5 -0.018600229
8.6488781 1.2201384 1.6978186 15 13 -0.018597925
6.0182161 0.84795022 -0.31851667 52 6 -0.018595621
5.9647889 0.83935791 1.3906474 43 14 -0.018593317
6.0179329 0.84576523 -0.10607573 52 7 -0.018591013
5.8177304 0.81659609 1.5741374 50 15 -0.018588709
3.7981477 0.52838826 -1.0275117 9 0 -0.018566132
6.0152926 0.83576143 0.10600592 67 8 -0.018563827
4.4183321 0.61309469 -1.0298259 16 1 -0.018561523
6.0122113 0.83319443 0.31809795 76 9 -0.018559219
6.0055923 0.83120883 0.53042984 75 10 -0.018554611
4.6414618 0.64157975 -0.74212521 1 3 -0.018552307
6.0055165 0.82906216 0.74437803 85 11 -0.018550003
6.0135264 0.82909846 -0.74535298 64 4 -0.018547699
6.0135927 0.8280381 0.96144634 71 12 -0.018545395
6.0081449 0.82728797 -0.53060412 52 5 -0.018543091
5.9962816 0.82458824 1.1765283 5 13 -0.018540788
6.0211396 0.82693595 -0.31851667 52 6 -0.018538484
7.3365226 1.0062846 1.709628 37 14 -0.01853618
6.0208483 0.82475483 -0.10607573 52 7 -0.018533876
5.8320298 0.79785293 1.5772433 30 15 -0.018531572
3.8018837 0.51538551 -1.0280293 12 0 -0.018510835
6.0122285 0.81395549 0.1059012 82 8 -0.018508531
4.3856845 0.59296912 -1.0217277 12 1 -0.018506227
6.0309181 0.81433928 0.31893536 70 9 -0.018503923
4.3347931 0.58531594 -0.85024494 1 2 -0.018501619
6.016355 0.81130385 0.5311271 75 10 -0.018499315
6.0103412 0.80835682 0.74462175 84 11 -0.018494708
6.0242538 0.80915773 -0.74632788 55 4 -0.018492404
6.0125299 0.80651778 0.96082056 71 12 -0.0184901
6.0070457 0.80578214 -0.5302555 52 5 -0.018487796
8.6649675 1.1607708 1.699345 12 13 -0.018485492
5.9962749 0.80220377 -0.31705123 52 6 -0.018483188
5.9801612 0.79898858 1.392897 5 14 -0.018480884
6.0217085 0.80346709 -0.10604082 54 7 -0.01847858
5.9477601 0.79254371 1.607784 9 15 -0.018476276
3.8017437 0.5018611 -1.0275117 13 0 -0.018455539
6.0090857 0.79217833 0.10579649 67 8 -0.018453235
4.3703394 0.5753662 -1.0176786 5 1 -0.018450931
6.0157638 0.79199052 0.31799328 65 9 -0.018448628
4.3601665 0.573255 -0.8548243 3 2 -0.018446324
6.0191503 0.79029918 0.5311271 65 10 -0.01844402
4.5949035 0.60248339 -0.73399061 1 3 -0.018441716
6.0052524 0.78634512 0.7436468 84 11 -0.018439412
6.0152316 0.78658122 -0.74486554 50 4 -0.018437108
6.015172 0.78657341 0.96082056 71 12 -0.018434804
6.0256271 0.78687096 -0.53165001 26 5 -0.0184325
8.6825943 1.132292 1.7020162 25 13 -0.018430196
5.9990387 0.78126925 -0.31705123 51 6 -0.018427892
7.3414369 0.95479012 1.7091781 34 14 -0.018425588
6.0263228 0.78375304 -0.10607573 52 7 -0.018423283
6.1764159 0.80217427 1.6688653 1 15 -0.018420979
3.8073051 0.48907879 -1.0285469 9 0 -0.018400244
6.0136623 0.77250308 0.10583139 65 8 -0.01839794
4.3354979 0.55615813 -1.0091304 1 1 -0.018395636
6.0165105 0.77073425 0.31788865 70 9 -0.018393332
4.3192992 0.5525499 -0.84642875 13 2 -0.018391028
6.0198965 0.76902956 0.53095281 67 10 -0.018388724
4.6243091 0.5907461 -0.73837078 1 3 -0.01838642
6.0058584 0.7661739 0.74340308 85 11 -0.018384116
6.0099301 0.76562738 -0.74389052 53 4 -0.018381812
6.0120025 0.76482224 0.95988196 76 12 -0.018379508
8.6921444 1.1042416 1.7031612 27 13 -0.018374899
6.0035777 0.76162404 -0.31715593 50 6 -0.018372595
7.3426294 0.93019277 1.7087282 39 14 -0.018370291
6.0171189 0.76120794 -0.1058663 50 7 -0.018367987
6.3900056 0.8072477 1.7258054 29 15 -0.018365683
3.7993214 0.47525063 -1.0259588 9 0 -0.018344948
6.0163221 0.75150514 0.10583139 62 8 -0.018342644
4.3374124 0.54102403 -1.0091304 1 1 -0.01834034
6.0132179 0.74898583 0.31757462 65 9 -0.018338036
4.3464341 0.54137695 -0.85138983 31 2 -0.018335732
6.0046191 0.74685055 0.52938396 65 10 -0.018333428
4.5283265 0.56242996 -0.72272736 1 3 -0.018331124
6.0144067 0.74593621 0.74413431 84 11 -0.018328819
6.0125661 0.7446425 -0.74389052 53 4 -0.018326515
5.9950309 0.74141139 0.95675331 76 12 -0.018324211
8.6998434 1.0743725 1.7039244 25 13 -0.018319603
6.0081816 0.74090582 -0.31726059 51 6 -0.018317299
5.9513221 0.73284256 1.3843488 7 14 -0.018314995
6.0078311 0.73873377 -0.10565687 52 7 -0.018312691
6.3601885 0.7809335 1.7170056 18 15 -0.018310387
3.7932861 0.46105221 -1.0238881 14 0 -0.018289652
6.0069985 0.7290554 0.10562197 65 8 -0.018287348
4.2870412 0.51954895 -0.99698305 10 1 -0.018285044
6.0058823 0.72678989 0.31705123 63 9 -0.018282739
4.3619413 0.52785164 -0.85406113 37 2 -0.018280435
5.991365 0.72397512 0.52798945 70 10 -0.018278131
4.5126119 0.54448879 -0.71991152 3 3 -0.018275827
5.987411 0.72137409 0.74047816 89 11 -0.018273523
6.0151286 0.72365147 -0.74389052 61 4 -0.018271219
5.9662018 0.71670902 0.95174736 85 12 -0.018268915
1.8594774 0.22337566 -0.1638528 9 5 -0.018266611
5.953105 0.71407896 1.1654614 27 13 -0.018264307
6.0107312 0.71993011 -0.31726059 51 6 -0.018262004
5.9615841 0.7129882 1.3861483 5 14 -0.0182597
6.0103731 0.71775645 -0.10565687 52 7 -0.018257396
5.9140019 0.70520377 1.5958784 11 15 -0.018255092
3.7987096 0.44826382 -1.0249234 14 0 -0.018234355
5.9856753 0.70527297 0.10520311 72 8 -0.018232051
4.2849574 0.50412673 -0.9960832 16 1 -0.018229747
6.010366 0.7060582 0.31715593 65 9 -0.018227443
4.3520575 0.51125103 -0.85177141 37 2 -0.018225139
6.0057287 0.70444798 0.52903533 70 10 -0.018222835
4.526257 0.53011101 -0.7217887 11 3 -0.018220531
5.9977784 0.70139617 0.74145311 89 11 -0.018218227
6.0176182 0.70264876 -0.74389052 50 4 -0.018215925
6.0039849 0.6999948 0.95737904 76 12 -0.01821362
1.8582668 0.21665229 -0.16367848 84 5 -0.018211316
5.9854341 0.69571441 -0.31579518 53 6 -0.018206708
7.3732605 0.8557238 1.7136772 34 14 -0.018204404
6.0048962 0.69585526 -0.10551725 54 7 -0.0182021
5.8933988 0.68188965 1.5896666 15 15 -0.018199796
3.8136864 0.43653798 -1.0285469 9 0 -0.018179059
5.9881005 0.68437606 0.10520311 62 8 -0.018176755
4.2576485 0.48585111 -0.98933476 12 1 -0.018174451
6.0008869 0.68371558 0.3165279 63 9 -0.018172147
4.3304081 0.49338827 -0.84719193 27 2 -0.018169843
6.0041924 0.68303066 0.52868676 75 10 -0.01816754
4.4907875 0.51007348 -0.71584421 1 3 -0.018165236
5.9863834 0.67888832 0.73974699 84 11 -0.018162932
6.0042543 0.67985362 -0.74194062 48 4 -0.018160628
5.9946146 0.67770249 0.95550185 76 12 -0.018158324
1.8451532 0.20859806 -0.1624583 91 5 -0.01815602
8.7203712 0.98431307 1.7058325 2 13 -0.018153716
6.0056882 0.67682856 -0.31673726 29 6 -0.018151412
7.3781395 0.83020055 1.7141271 37 14 -0.018149108
6.0152373 0.67578149 -0.10565687 52 7 -0.018146804
5.8861446 0.66023552 1.5870785 15 15 -0.0181445
3.8075063 0.42237186 -1.0264764 10 0 -0.018123763
5.9944282 0.66391104 0.10527291 62 8 -0.01812146
4.2476969 0.46969992 -0.98663533 7 1 -0.018119156
5.9992666 0.66232735 0.31631854 63 9 -0.018116852
4.296979 0.47439238 -0.84032285 13 2 -0.018114548
5.9966373 0.66097778 0.52781516 67 10 -0.018112244
4.535738 0.49914715 -0.72272736 1 3 -0.01810994
5.9906902 0.65820587 0.73999077 85 11 -0.018107636
6.0026441 0.65845907 -0.74145311 45 4 -0.018105332
5.9930167 0.65634161 0.95487607 76 12 -0.018103028
1.8379481 0.2012879 -0.16176106 79 5 -0.018100724
6.0910144 0.66600126 1.1910298 4 13 -0.01809842
7.3887415 0.80528355 1.7159266 16 14 -0.018093811
6.005631 0.65348357 -0.10544744 52 7 -0.018091507
5.8922544 0.64010352 1.5881137 15 15 -0.018089203
3.7993536 0.40804613 -1.0238881 13 0 -0.018068468
5.9967093 0.64298093 0.10527291 62 8 -0.018066164
4.24156 0.45404106 -0.98483574 1 1 -0.01806386
6.0015421 0.64138037 0.31631854 63 9 -0.018061556
4.2790875 0.45730287 -0.83650672 1 2 -0.018059252
5.987021 0.63877165 0.52676928 65 10 -0.018056948
4.5374527 0.48331237 -0.72272736 1 3 -0.018054644
5.9929509 0.63728887 0.73999077 85 11 -0.01805234
6.0029325 0.63729078 -0.74120939 27 4 -0.018050035
5.9795566 0.63375378 0.95237315 76 12 -0.018047731
1.8267517 0.19361149 -0.16071519 79 5 -0.018045427
8.6860304 0.91907132 1.6978186 1 13 -0.018043123
1.8352563 0.19386512 -0.096716851 8 6 -0.018040819
5.9806485 0.63070321 1.3883979 1 14 -0.018038515
5.9860005 0.63021135 -0.10506349 55 7 -0.018036211
5.882925 0.61832148 1.5850078 15 15 -0.018033907
3.7911475 0.3937825 -1.0213 13 0 -0.018013172
5.9909611 0.62122089 0.1051333 65 8 -0.018010868
4.2353654 0.43843076 -0.98303616 1 1 -0.018008564
6.0077181 0.62083614 0.3165279 63 9 -0.01800626
4.3509607 0.44962725 -0.85024494 1 2 -0.018003955
5.981287 0.61705261 0.52607203 65 10 -0.018001651
4.5391121 0.46747172 -0.72272736 1 3 -0.017999347
5.9892154 0.61575502 0.73925954 84 11 -0.017997043
5.9912972 0.61491531 -0.73950326 2 4 -0.017994739
5.9738712 0.61207324 0.95112169 72 12 -0.017992435
1.8155243 0.18601571 -0.15966932 81 5 -0.017990131
8.7575436 0.8957352 1.7111752 4 13 -0.017987827
1.8200265 0.18583508 -0.09587948 39 6 -0.017985523
