# .PCD v0.7 - Point Cloud Data file format
VERSION 0.7
FIELDS x y z intensity ring time
SIZE 4 4 4 4 2 4
TYPE F F F F U F
COUNT 1 1 1 1 1 1
WIDTH 907
HEIGHT 1
VIEWPOINT 0 0 0 1 0 0 0
POINTS 907
DATA ascii
-1.3506707 -2.1606865 0.68276465 47 15 -0.022302706
-1.0157518 -1.6205035 -0.51246172 34 0 -0.022281971
-0.6979571 -1.1130705 0.022932461 1 8 -0.022279667
-1.2136738 -1.9347619 -0.52728528 24 1 -0.022277363
-0.82170618 -1.3094041 0.081016071 1 9 -0.022275059
-1.363934 -2.1734543 -0.49877474 51 2 -0.022272754
-0.89196599 -1.4208138 0.14677027 1 10 -0.02227045
-1.3615625 -2.1679943 -0.40547815 41 3 -0.022268146
-1.3517426 -2.1515245 0.31198555 48 11 -0.022265842
-1.3500799 -2.1472139 0.40172374 54 12 -0.022261234
-0.6341908 -1.008639 -0.10423827 30 5 -0.02225893
-1.3557562 -2.1554065 0.49495855 49 13 -0.022256626
-0.63077521 -1.0024301 -0.062070452 34 6 -0.022254324
-1.3475181 -2.1406515 0.58397293 49 14 -0.022252019
-0.52320474 -0.83083528 -0.017138263 50 7 -0.022249715
-1.3551155 -2.1510549 0.68121177 49 15 -0.022247411
-1.0203706 -1.6153145 -0.51194406 39 0 -0.022226674
-0.7467047 -1.1816266 0.024398465 1 8 -0.02222437
-1.2162548 -1.9239247 -0.52548569 24 1 -0.022222066
-0.83481216 -1.3200321 0.081853449 1 9 -0.022219762
-1.3568217 -2.1454504 -0.4934321 52 2 -0.022217458
-0.8670938 -1.3705473 0.14188954 5 10 -0.022215154
-1.3680657 -2.1615593 -0.40516531 52 3 -0.02221285
-1.3518112 -2.1350522 0.31027937 49 11 -0.022210546
-1.357495 -2.1432018 -0.31149808 45 4 -0.022208244
-1.3448794 -2.1224649 0.39796934 54 12 -0.02220594
-0.6259774 -0.9879064 -0.10232083 31 5 -0.022203635
-1.3506587 -2.1307628 0.49037915 49 13 -0.022201331
-0.62999213 -0.99347526 -0.061651766 34 6 -0.022199027
-1.3487186 -2.126061 0.5812735 48 14 -0.022196723
-0.52288729 -0.82393867 -0.017033549 87 7 -0.022194419
-1.3460492 -2.1202164 0.67292953 50 15 -0.022192115
-1.02704 -1.613373 -0.51246172 46 0 -0.022171378
-0.72074884 -1.1317848 0.023421129 2 8 -0.022169074
-1.1967866 -1.8785785 -0.51423806 15 1 -0.02216677
-0.78144985 -1.2261589 0.076201163 1 9 -0.022164466
-1.3558607 -2.1274564 -0.49037915 54 2 -0.022162162
-0.86865944 -1.3624723 0.14136662 9 10 -0.02215986
-1.351171 -2.1184649 -0.39796934 52 3 -0.022157555
-1.349646 -2.1152596 0.30808574 50 11 -0.022155251
-1.3606956 -2.1317568 -0.31052312 49 4 -0.022152947
-1.3395227 -2.0977786 0.39421493 54 12 -0.022150643
-0.62191617 -0.97396064 -0.10110066 36 5 -0.022148339
-1.3432919 -2.1028719 0.48503649 48 13 -0.022146035
-0.63130522 -0.98790413 -0.061442416 34 6 -0.022143731
-1.341437 -2.0983536 0.57497489 50 14 -0.022141427
-0.5289923 -0.82716233 -0.017138263 100 7 -0.022139123
-1.3388664 -2.0927224 0.66568261 51 15 -0.022136819
-1.0368382 -1.6162819 -0.51453227 48 0 -0.022116082
-0.70633447 -1.100652 0.022827748 6 8 -0.02211378
-1.1454332 -1.7841963 -0.48949349 9 1 -0.022111475
-0.78356689 -1.2200623 0.075991817 4 9 -0.022109171
-1.3569136 -2.1127985 -0.48808944 52 2 -0.022106867
-0.88094842 -1.3711656 0.14258678 2 10 -0.022104563
-1.3436046 -2.0904715 -0.39358914 51 3 -0.022102259
-1.3452119 -2.0921686 0.3054046 51 11 -0.022099955
-1.3616853 -2.1169767 -0.30906066 51 4 -0.022097651
-1.3446993 -2.0897675 0.39358914 56 12 -0.022095347
-0.62746835 -0.97513467 -0.10144928 36 5 -0.022093043
-1.3378724 -2.0783606 0.48045707 48 13 -0.022090739
-0.62609911 -0.97226083 -0.060605045 34 6 -0.022088435
-1.344532 -2.0871053 0.57317531 50 14 -0.02208613
-0.53079319 -0.82362986 -0.017103357 100 7 -0.022083826
-1.3377891 -2.075047 0.66154152 51 15 -0.022081522
-1.0435222 -1.6142755 -0.51504993 51 0 -0.022060787
-0.74817842 -1.1569507 0.024049416 10 8 -0.022058483
-1.0881438 -1.6820148 -0.46249935 7 1 -0.022056179
-0.80301279 -1.2407943 0.077457219 5 9 -0.022053875
-1.3525465 -2.0899193 -0.48389161 50 2 -0.022051571
-0.92037922 -1.4216011 0.14816476 16 10 -0.022049267
-1.3444511 -2.0758207 -0.39171195 51 3 -0.022046963
-1.338474 -2.0658028 0.30223599 54 11 -0.022044659
-1.349632 -2.0822265 -0.30467337 49 4 -0.022042355
-1.3466122 -2.0767736 0.39202482 57 12 -0.02204005
-0.62436461 -0.96290821 -0.10040341 36 5 -0.022037746
-1.340845 -2.06709 0.47893062 47 13 -0.022035442
-0.62079155 -0.95666599 -0.059767671 33 6 -0.022033138
-1.3380153 -2.0611503 0.56732655 48 14 -0.022030834
-0.5347541 -0.82344908 -0.017138263 100 7 -0.02202853
-1.3387095 -2.0606444 0.6584357 50 15 -0.022026226
-1.0544229 -1.6187165 -0.51763809 55 0 -0.022005491
-0.74893713 -1.1493059 0.023944702 18 8 -0.022003187
-1.0940086 -1.6782062 -0.46249935 6 1 -0.022000883
-0.822393 -1.2615486 0.078922629 6 9 -0.021998579
-1.3469648 -2.0654514 -0.47931221 48 2 -0.021996275
-1.3444582 -2.0608225 0.21527468 34 10 -0.02199397
-1.3430513 -2.0578811 -0.389209 46 3 -0.021991666
-1.3369957 -2.0478203 0.30028611 50 11 -0.021989362
-1.3460366 -2.0608833 -0.30223599 47 4 -0.021987058
-1.3318874 -2.0392196 0.38576743 51 12 -0.021984754
-0.62990135 -0.96405876 -0.10075203 37 5 -0.02198245
-1.3416079 -2.0525365 0.47664091 47 13 -0.021980146
-0.620848 -0.94947827 -0.059453651 29 6 -0.021977842
-1.3345337 -2.0401592 0.56282753 49 14 -0.02197554
-0.53419763 -0.81665105 -0.017033549 100 7 -0.021973236
-1.3370732 -2.0432618 0.65429455 50 15 -0.021970931
-1.0537064 -1.605336 -0.51453227 48 0 -0.021950195
-0.73738217 -1.1234117 0.023456035 26 8 -0.021947891
-1.1936942 -1.8179175 -0.50209075 1 1 -0.021945586
-0.80157119 -1.2202758 0.076515175 13 9 -0.021943282
-1.3487753 -2.0525339 -0.47740412 46 2 -0.021940978
-1.3396049 -2.0378034 0.21335725 38 10 -0.021938674
-1.3401021 -2.0385599 -0.38639316 42 3 -0.02193637
-1.3506813 -2.0530913 -0.30174851 46 4 -0.021931762
-1.3303096 -2.0213571 0.38326448 53 12 -0.021929458
-0.62230688 -0.94521296 -0.099008918 34 5 -0.021927156
-1.3397704 -2.0349579 0.47358796 48 13 -0.021924851
-0.62179583 -0.94407845 -0.059244309 23 6 -0.021922547
-1.3305701 -2.0194497 0.55832851 48 14 -0.021920243
-0.53704524 -0.81478119 -0.017033549 100 7 -0.021917939
-1.3335625 -2.0224545 0.64911819 49 15 -0.021915635
-1.0707438 -1.6195593 -0.5202263 10 0 -0.021894898
-0.68173051 -1.030764 0.021571174 12 8 -0.021892594
-1.2731531 -1.9242541 -0.53268409 3 1 -0.02189029
-0.80692828 -1.2191359 0.076619849 34 9 -0.021887986
-1.356658 -2.0496869 -0.47778577 9 2 -0.021885682
-1.3373923 -2.0190482 -0.38357735 9 3 -0.021881076
-0.83663893 -1.2625868 0.18597263 16 11 -0.021878771
-1.3457751 -2.0301638 -0.29906741 37 4 -0.021876467
-1.3275322 -2.0018847 0.38044867 48 12 -0.021874163
-0.61883104 -0.93318146 -0.097963057 34 5 -0.021871859
-1.3381827 -2.0171812 0.47053501 49 13 -0.021869555
-0.61514801 -0.926925 -0.058302261 22 6 -0.021867251
-1.3332999 -2.0082989 0.55652893 48 14 -0.021864947
-0.53767329 -0.80957013 -0.016963739 100 7 -0.021862643
-1.3277857 -1.9984778 0.64290655 44 15 -0.021860339
-1.0731776 -1.6109886 -0.51867342 11 0 -0.021839602
-0.63209534 -0.94850409 0.019895744 18 8 -0.021837298
-1.2366235 -1.8549403 -0.51468801 2 1 -0.021834996
-0.81117904 -1.2163117 0.076619849 28 9 -0.021832692
-1.3670726 -2.0498388 -0.47893062 1 2 -0.021830387
-0.82268202 -1.2330935 0.12968774 32 10 -0.021828083
-1.3433354 -2.0127242 -0.38326448 5 3 -0.021825779
-0.81127954 -1.2150838 0.1793917 43 11 -0.021823475
-0.61876392 -0.92604572 -0.097440116 30 5 -0.021816563
-1.3288507 -1.9880148 0.46481073 50 13 -0.021814259
-0.58951467 -0.88160497 -0.055580791 27 6 -0.021811955
-1.335968 -1.9971534 0.55472928 48 14 -0.021809651
-0.54049617 -0.8076883 -0.016963739 100 7 -0.021807346
-1.328305 -1.9841989 0.63980073 44 15 -0.021805042
-0.54908687 -0.81805271 -0.26399544 2 0 -0.021784307
-0.6342876 -0.94463158 0.019860838 33 8 -0.021782003
-0.52809638 -0.78618664 -0.21865243 4 1 -0.021779699
-0.86888993 -1.2930446 0.081644095 5 9 -0.021777395
-1.3417178 -1.9959342 -0.46748206 7 2 -0.021775091
-0.83253896 -1.2384818 0.1305593 51 10 -0.021772787
-0.55226684 -0.82124043 -0.15674736 1 3 -0.021770483
-0.83546072 -1.2418916 0.18377897 6 11 -0.021768179
-1.3920567 -2.0684783 -0.3061358 1 4 -0.021765875
-0.82408071 -1.2240529 0.23371312 26 12 -0.021763571
-0.62215388 -0.92377162 -0.097440116 28 5 -0.021761267
-1.3295463 -1.9733618 0.46252102 51 13 -0.021758962
-0.57934672 -0.85956407 -0.054324731 27 6 -0.021756658
-1.3255047 -1.9666224 0.54753083 50 14 -0.021754354
-0.54107618 -0.8024807 -0.016893929 98 7 -0.02175205
-1.326581 -1.9667375 0.63565958 44 15 -0.021749746
-0.53476125 -0.79043353 -0.25571322 5 0 -0.021729011
-0.63998723 -0.94561261 0.01993065 40 8 -0.021726707
-1.3001224 -1.9202727 -0.53538352 1 1 -0.021724403
-0.94642532 -1.397339 0.088447772 7 9 -0.021722099
-0.5120787 -0.7557686 -0.17745239 6 2 -0.021719795
-0.82701451 -1.2205772 0.12899049 12 10 -0.021717491
-0.52313155 -0.77179134 -0.14767416 11 3 -0.021715187
-1.3212841 -1.9485967 0.28907412 1 11 -0.021712882
-1.3205097 -1.9467233 -0.28883037 3 4 -0.021710578
-0.8185789 -1.206313 0.23089729 45 12 -0.021708274
-0.61882138 -0.91159445 -0.096394248 21 5 -0.02170597
-1.3257407 -1.952234 0.45870483 51 13 -0.021703666
-0.5791263 -0.85247862 -0.054010712 25 6 -0.021701362
-1.319563 -1.9424076 0.54213202 51 14 -0.021699058
-0.54513782 -0.80214608 -0.016928835 45 7 -0.021696754
-1.3272637 -1.9522765 0.63255376 45 15 -0.021694452
-1.0981656 -1.6104542 -0.52229685 10 0 -0.021673715
-0.64119482 -0.93995678 0.019860838 15 8 -0.021671411
-0.50858092 -0.74527228 -0.20830467 7 1 -0.021669107
-0.90964288 -1.3329866 0.084574915 12 9 -0.021666802
-0.50696534 -0.74262631 -0.17478105 33 2 -0.021664498
-0.83035868 -1.2158928 0.12881619 38 10 -0.021662194
-0.5292998 -0.77476203 -0.14861277 43 3 -0.02165989
-0.53777659 -0.78658032 -0.11699458 6 4 -0.021655282
-0.61412627 -0.89791697 -0.095174067 9 5 -0.021650674
-1.33033 -1.9443537 0.45794162 54 13 -0.021648372
-0.58209854 -0.85045189 -0.054010712 21 6 -0.021646068
-1.3222697 -1.9311264 0.54033244 51 14 -0.021643763
-0.56149167 -0.82003796 -0.017347692 54 7 -0.021641459
-1.3220617 -1.9300997 0.62685978 47 15 -0.021639155
-1.1169075 -1.6257186 -0.52850848 2 0 -0.021618418
-0.62619078 -0.9114542 0.019302363 7 8 -0.021616114
-0.52208734 -0.75964165 -0.21280369 39 1 -0.02161381
-0.85658109 -1.2458677 0.079236642 53 9 -0.021611506
-0.51511711 -0.74894017 -0.17668915 59 2 -0.021609202
-0.83798629 -1.2179108 0.12933911 51 10 -0.021606898
-0.52402812 -0.76161087 -0.14642268 71 3 -0.021604594
-1.2830822 -1.8641067 0.27786213 1 11 -0.021602292
-0.52462095 -0.76190293 -0.11358224 40 4 -0.021599988
-1.3110669 -1.9033409 0.36605671 43 12 -0.021597683
-0.58334172 -0.84654987 -0.089944728 1 5 -0.021595379
-1.3234028 -1.9205322 0.4533622 49 13 -0.021593075
-0.59511757 -0.86331654 -0.054952759 9 6 -0.021590771
-1.3220285 -1.9171052 0.537633 52 14 -0.021588467
-0.55526662 -0.80490482 -0.017068453 84 7 -0.021586163
-1.3167208 -1.9079832 0.62116575 48 15 -0.021583859
-1.1266893 -1.6283604 -0.53057909 4 0 -0.021563122
-0.61684942 -0.89117622 0.01891841 6 8 -0.021560818
-0.50920439 -0.7353847 -0.20650508 84 1 -0.021558514
-0.87116033 -1.2576466 0.080178693 52 9 -0.02155621
-0.51424414 -0.74238616 -0.17554428 26 2 -0.021553908
-0.84882891 -1.2249513 0.13038498 51 10 -0.021551603
-0.51542932 -0.74354261 -0.14329399 22 3 -0.021549299
-1.3269113 -1.9134474 0.28590551 11 11 -0.021546995
-0.53406632 -0.76985329 -0.11504468 84 4 -0.021544691
-1.3199549 -1.901999 0.36668244 53 12 -0.021542387
-0.60886437 -0.87734777 -0.093430951 10 5 -0.021540083
-0.59584886 -0.85795301 -0.054743413 2 6 -0.021535475
-1.3175936 -1.8964747 0.53313398 52 14 -0.021533171
-0.56263793 -0.8095299 -0.017208073 78 7 -0.021530867
-1.3189617 -1.8970306 0.61909521 48 15 -0.021528563
-0.52696466 -0.75594848 -0.24691339 9 0 -0.021507828
-0.61538112 -0.88245654 0.01877879 6 8 -0.021505523
-0.50507849 -0.72401315 -0.20380566 35 1 -0.021503219
-0.91097844 -1.3053716 0.083423525 21 9 -0.021500915
-1.324664 -1.8981557 -0.44992763 22 2 -0.021498611
-1.3312482 -1.9061712 -0.36824676 39 3 -0.021494003
-1.3153917 -1.8827678 0.2820057 23 11 -0.021491699
-0.51741803 -0.74032396 -0.11090111 49 4 -0.021489395
-1.319795 -1.8876659 0.36480519 48 12 -0.021487091
-0.59251541 -0.84745818 -0.090467662 21 5 -0.021484787
-0.82929742 -1.1856807 0.28125247 3 13 -0.021482483
-0.59883988 -0.85586798 -0.054743413 1 6 -0.021480178
-1.304091 -1.8631268 0.52503574 51 14 -0.021477874
-0.56660724 -0.80919898 -0.017242977 66 7 -0.02147557
-1.3034083 -1.8607695 0.60874242 48 15 -0.021473266
-0.53404135 -0.76042813 -0.24898393 37 0 -0.021452531
-0.62880373 -0.89502937 0.019092934 7 8 -0.021450227
-1.3211116 -1.879752 -0.53043455 37 1 -0.021447923
-0.92357051 -1.3136207 0.084156223 39 9 -0.021445619
-1.3188611 -1.8758537 -0.44572985 48 2 -0.021443315
-1.0098051 -1.4357419 0.15356842 1 10 -0.021441011
-1.3322101 -1.8934352 -0.36668244 51 3 -0.021438707
-1.3116724 -1.8635546 0.27981204 48 11 -0.021436403
-0.53028476 -0.75312126 -0.11309476 2 4 -0.021434098
-0.55187082 -0.78348768 -0.083843827 39 5 -0.02142949
-0.83003867 -1.1779642 0.28010762 40 13 -0.021427186
-0.60182399 -0.85377228 -0.054743413 1 6 -0.021424882
-1.3038478 -1.8490078 0.5223363 52 14 -0.021422578
-0.56481749 -0.80068016 -0.017103357 39 7 -0.021420274
-1.3132379 -1.8609434 0.6102953 51 15 -0.02141797
-0.52330309 -0.73963475 -0.24277227 59 0 -0.021397235
-0.6296137 -0.88956451 0.019023122 8 8 -0.021394931
-1.3254131 -1.8719481 -0.52953476 53 1 -0.021392627
-0.93045914 -1.3136486 0.084365569 38 9 -0.021390323
-1.3140534 -1.8552177 -0.44191366 50 2 -0.021388019
-1.3228188 -1.8662114 -0.36230227 53 3 -0.02138341
-1.3181696 -1.8589647 0.27981204 58 11 -0.021381106
-1.3311278 -1.8765451 -0.28249314 52 4 -0.021378802
-1.3032185 -1.836521 0.35667065 8 12 -0.021376498
-0.53846008 -0.75880849 -0.081403457 77 5 -0.021374194
-0.8295998 -1.168656 0.27858114 54 13 -0.02137189
-0.60480034 -0.85166645 -0.054743413 1 6 -0.021369588
-1.3102946 -1.844445 0.5223363 51 14 -0.021367284
-0.60236055 -0.84760392 -0.018150503 21 7 -0.021364979
-1.3130093 -1.8469014 0.60718954 51 15 -0.021362675
-0.52476043 -0.73623043 -0.24225464 11 0 -0.021341939
-0.63619787 -0.89224583 0.019127838 17 8 -0.021339634
-1.324018 -1.8562047 -0.52638549 55 1 -0.02133733
-0.92575818 -1.2973862 0.083528191 35 9 -0.021335026
-1.3125387 -1.8394325 -0.43924233 52 2 -0.021332722
-1.3155495 -1.8422914 -0.35854784 49 3 -0.021328114
-1.3084964 -1.8317381 0.2763997 48 11 -0.02132581
-1.3295909 -1.8605813 -0.28078699 53 4 -0.021323506
-1.3153652 -1.8399955 0.35823497 26 12 -0.021321204
-0.56080323 -0.78447831 -0.084366761 30 5 -0.021318899
-0.58452791 -0.81706256 -0.052649979 1 6 -0.021314291
-1.3099198 -1.8303519 0.51963693 52 14 -0.021311987
-0.61113596 -0.85362595 -0.018325027 15 7 -0.021309683
-1.3082001 -1.8266006 0.60201317 50 15 -0.021307379
-1.1549367 -1.6084489 -0.53057909 48 0 -0.021286642
-0.63580847 -0.88514739 0.019023122 25 8 -0.021284338
-1.3168433 -1.8325813 -0.52098668 59 1 -0.021282034
-0.88481647 -1.230899 0.079445995 96 9 -0.02127973
-1.314368 -1.8284632 -0.43771586 52 2 -0.021277428
-1.3127438 -1.8248594 -0.35604486 50 3 -0.021272819
-1.3244797 -1.8398185 -0.27834961 53 4 -0.021268211
-1.3090817 -1.81776 0.3547934 49 12 -0.021265907
-0.60079694 -0.83425254 -0.089944728 21 5 -0.021263603
-1.3185771 -1.8302716 0.4384791 4 13 -0.021261299
-0.56168604 -0.77937025 -0.050347198 1 6 -0.021258995
-1.3117424 -1.8194453 0.51783729 50 14 -0.021256691
-0.63048834 -0.87419379 -0.018813694 5 7 -0.021254387
-1.3066555 -1.8110565 0.59838963 48 15 -0.021252083
-1.1684699 -1.6153644 -0.53420252 68 0 -0.021235704
-0.62951618 -0.8699621 0.018743884 19 8 -0.0212334
-1.3175182 -1.8200806 -0.51873708 66 1 -0.021231096
-0.77763516 -1.0742612 0.06950216 30 9 -0.021228792
-1.3161367 -1.8175035 -0.43618938 54 2 -0.021226488
-1.3121511 -1.8106689 -0.35416767 51 3 -0.02122188
-0.89132112 -1.2295038 0.18646011 37 11 -0.021219576
-1.3192399 -1.819114 -0.27591223 53 4 -0.021217272
-1.3127831 -1.8102107 0.35416767 60 12 -0.021214968
-0.60487533 -0.83376288 -0.090119034 25 5 -0.021212664
-1.3088142 -1.8034133 0.43313646 9 13 -0.021210361
-0.55032241 -0.75801015 -0.04909113 21 6 -0.021208057
-1.3135048 -1.8085483 0.5160377 41 14 -0.021205753
-0.63103354 -0.86886209 -0.018743884 2 7 -0.021203449
-1.3103828 -1.8035876 0.59735435 48 15 -0.021201145
-1.1763765 -1.6143987 -0.53523779 71 0 -0.021180408
-0.63710809 -0.87433451 0.018883504 19 8 -0.021178104
-1.3074758 -1.793655 -0.51243848 63 1 -0.0211758
-0.70018286 -0.96019018 0.062279794 30 9 -0.021173496
-1.3143739 -1.8017957 -0.43351805 55 2 -0.021171192
-0.96893787 -1.3277723 0.14380698 3 10 -0.021168888
-1.3088323 -1.7935424 -0.35166472 52 3 -0.021166584
-0.88602984 -1.2137146 0.1845102 50 11 -0.021164281
-1.3147284 -1.8003011 -0.27371857 52 4 -0.021161977
-1.2957879 -1.7737161 0.34791031 54 12 -0.021159673
-0.61483556 -0.84129804 -0.091164902 24 5 -0.021157369
-0.54340309 -0.74328238 -0.048253756 77 6 -0.021152761
-0.64587021 -0.88279295 -0.019092934 2 7 -0.021148153
-1.3075429 -1.7865311 0.59321326 48 15 -0.021145849
-1.1748664 -1.6011435 -0.53213197 66 0 -0.021125112
-0.64843929 -0.88338941 0.019127838 26 8 -0.021122808
-1.3091158 -1.782797 -0.51063889 63 1 -0.021120504
-0.71890134 -0.97866583 0.063640527 31 9 -0.021118201
-1.3168544 -1.7926805 -0.4323732 57 2 -0.021115897
-0.95327914 -1.2972581 0.14084367 2 10 -0.021113593
-1.3104054 -1.782596 -0.35041323 52 3 -0.021111289
-0.85968381 -1.1690347 0.17817299 43 11 -0.021108985
-1.3104173 -1.7813098 -0.27152494 53 4 -0.021106681
-1.2914343 -1.7548629 0.34509447 48 12 -0.021104377
-0.60359412 -0.81989288 -0.089073166 25 5 -0.021102073
-1.3047643 -1.7723283 0.4277938 51 13 -0.021099769
-0.55428493 -0.75263846 -0.048986461 100 6 -0.021097464
-0.86459208 -1.1735615 0.33652678 1 14 -0.02109516
-1.3057466 -1.7710716 0.58958983 49 15 -0.021090552
-1.1818756 -1.5983801 -0.53264964 62 0 -0.021069817
-0.64319658 -0.86986536 0.018883504 29 8 -0.021067513
-1.3095361 -1.770383 -0.50838935 62 1 -0.021065209
-0.77933788 -1.0532149 0.068664782 13 9 -0.021062905
-1.3093994 -1.7689065 -0.4277938 61 2 -0.021060601
-0.9023006 -1.2184998 0.13265103 3 10 -0.021058297
-1.3063475 -1.7634958 -0.34759742 53 3 -0.021055993
-0.86848581 -1.1724072 0.17914794 18 11 -0.021053689
-1.3213552 -1.7831041 -0.27249986 49 4 -0.021051385
-0.60170525 -0.81137949 -0.088375926 25 5 -0.021046776
-1.292536 -1.742306 0.4216879 49 13 -0.021044472
-0.55108827 -0.74258268 -0.048463102 97 6 -0.021042168
-1.2882304 -1.7352362 0.49894145 21 14 -0.021039864
-0.65201747 -0.87826234 -0.019092934 2 7 -0.02103756
-1.3130727 -1.7680538 0.5901075 52 15 -0.021035256
-1.1966796 -1.6066393 -0.53679073 66 0 -0.021014521
-0.64040655 -0.85948449 0.01870898 31 8 -0.021012217
-1.2950531 -1.7374474 -0.50029117 56 1 -0.021009913
-0.85840809 -1.1512237 0.075259112 12 9 -0.021007609
-1.3096983 -1.7564555 -0.42588571 64 2 -0.021005305
-0.88034075 -1.180208 0.12881619 10 10 -0.021003
-1.3030443 -1.7462596 -0.34509447 55 3 -0.021000696
-1.3219432 -1.7702962 -0.27128118 41 4 -0.020996088
-0.91619921 -1.2264934 0.24247345 7 12 -0.020993784
-0.60691833 -0.81246668 -0.088724539 22 5 -0.02099148
-1.2880327 -1.7236301 0.41825336 55 13 -0.020989176
-0.56085229 -0.75025249 -0.04909113 49 6 -0.020986872
-1.2966138 -1.73385 0.49984124 48 14 -0.020984568
-0.63367033 -0.84704494 -0.018464647 2 7 -0.020982264
-1.3091266 -1.7493089 0.58544868 64 15 -0.02097996
-1.2243088 -1.6318123 -0.54662579 62 0 -0.020959225
-0.64700395 -0.86204183 0.018813694 33 8 -0.02095692
-1.3022801 -1.7344745 -0.50074106 66 1 -0.020954616
-0.86002237 -1.1450262 0.075049765 12 9 -0.020952312
-1.3111054 -1.7455941 -0.42435926 64 2 -0.020950008
-0.88325828 -1.175535 0.12864187 11 10 -0.020947704
-1.2996368 -1.7290678 -0.34259152 57 3 -0.0209454
-0.91980106 -1.2232805 0.18792254 2 11 -0.020943096
-1.3090218 -1.7402887 -0.26738134 36 4 -0.020940792
-0.92285031 -1.2264446 0.24309918 7 12 -0.020938488
-0.60495895 -0.80397505 -0.088027291 25 5 -0.020936184
-1.2916801 -1.7159865 0.41749012 54 13 -0.02093388
-0.56466907 -0.7498858 -0.049195804 11 6 -0.020931577
-1.2909328 -1.7137485 0.49534222 53 14 -0.020929273
-0.64865792 -0.860798 -0.018813694 2 7 -0.020926969
-1.3057077 -1.7277083 -0.58027232 52 0 -0.020903928
-0.65362704 -0.86456347 0.01891841 38 8 -0.020901624
-1.2942207 -1.7112666 -0.49534222 58 1 -0.02089932
-0.8555789 -1.1308678 0.074317068 13 9 -0.020897016
-1.304161 -1.7237846 -0.42016143 61 2 -0.020894712
-0.87893957 -1.1613238 0.12742169 13 10 -0.020892408
-1.3056645 -1.7245207 -0.34259152 57 3 -0.020890104
-0.92286694 -1.21848 0.1876788 3 11 -0.0208878
-1.2995043 -1.7151399 -0.26421279 19 4 -0.020885497
-0.90684128 -1.196453 0.23778042 6 12 -0.020883193
-0.60535473 -0.79868275 -0.087678678 25 5 -0.020880889
-1.2976621 -1.7114671 0.41749012 51 13 -0.020878585
-1.2780601 -1.6843928 0.48814377 48 14 -0.020873977
-0.64924043 -0.85534292 -0.018743884 2 7 -0.020871673
-1.3236436 -1.743204 0.58648396 36 15 -0.020869369
-1.300029 -1.7077684 -0.57509595 49 0 -0.020848632
-0.65906399 -0.86545837 0.018988218 47 8 -0.020846328
-1.2907389 -1.6943371 -0.491743 53 1 -0.020844024
-0.85588932 -1.1231086 0.074003048 13 9 -0.02084172
-1.2970802 -1.7020448 -0.41596362 58 2 -0.020839415
-0.87815648 -1.1519109 0.12672445 13 10 -0.020837113
-1.3068849 -1.7136697 -0.34134007 57 3 -0.020834809
-0.910258 -1.1931556 0.18426646 9 11 -0.020832505
-0.90022391 -1.1791493 0.23496459 7 12 -0.020827897
-0.60088485 -0.78706306 -0.086632803 26 5 -0.020825593
-0.85201013 -1.1147864 0.32392952 28 14 -0.020818681
-0.60849786 -0.7958824 -0.017487312 5 7 -0.020816376
-1.333241 -1.7431766 0.58803689 8 15 -0.020814072
-1.2907006 -1.6832907 -0.56836665 45 0 -0.020793336
-0.65234452 -0.85045916 0.01870898 48 8 -0.020791033
-1.2990181 -1.6929133 -0.49264279 58 1 -0.020788729
-0.8585884 -1.1185298 0.073898375 13 9 -0.020786425
-1.3030136 -1.6975068 -0.41596362 62 2 -0.020784121
-0.87125111 -1.1346161 0.12515564 14 10 -0.020781817
-1.2936052 -1.6840327 -0.33633414 59 3 -0.020779513
-0.91078883 -1.1852489 0.18353525 12 11 -0.020777209
-0.61458933 -0.79950285 -0.12381926 1 4 -0.020774905
-0.88386345 -1.1493793 0.22964582 8 12 -0.020772601
-0.60119951 -0.781802 -0.086284183 31 5 -0.020770296
-0.9420827 -1.2246454 0.30033338 7 13 -0.020767992
-0.85233003 -1.107173 0.3225798 60 14 -0.020763384
-0.60029137 -0.77949435 -0.017173167 12 7 -0.02076108
-1.329886 -1.7262691 0.5838958 8 15 -0.020758776
-1.3001115 -1.6833616 -0.56991959 25 0 -0.020738041
-0.65408641 -0.84659457 0.018674076 49 8 -0.020735737
-1.2930026 -1.6729498 -0.48814377 56 1 -0.020733433
-0.84294122 -1.090245 0.072223626 16 9 -0.020731129
-1.2969228 -1.6774167 -0.41214746 58 2 -0.020728825
-0.87520611 -1.1315682 0.12515564 14 10 -0.020726521
-1.2898052 -1.667008 -0.33383119 57 3 -0.020724216
-0.91370553 -1.1804925 0.18329151 14 11 -0.020721912
-0.60157746 -0.77694803 -0.12065066 3 4 -0.020719608
-0.88303167 -1.14004 0.22839434 14 12 -0.020717304
-0.59904468 -0.77339804 -0.085586935 31 5 -0.020715
-0.94514924 -1.2197974 0.29995176 6 13 -0.020712696
-0.86574268 -1.1165111 0.32617903 62 14 -0.020708088
-0.60055739 -0.77423406 -0.017103357 22 7 -0.020705784
-1.3228763 -1.7048277 0.57820177 10 15 -0.02070348
-1.297676 -1.6681397 -0.5662961 34 0 -0.020682745
-0.66563463 -0.85535312 0.01891841 56 8 -0.020680441
-1.2892573 -1.6561246 -0.48454455 50 1 -0.020678136
-0.80729133 -1.0370117 0.068874128 27 9 -0.020675832
-1.2967384 -1.6651347 -0.41023937 59 2 -0.020673528
-0.86445767 -1.1096452 0.12306391 13 10 -0.020671224
-1.2871165 -1.651589 -0.33164111 55 3 -0.02066892
-0.90683585 -1.1632061 0.18109787 16 11 -0.020666616
-0.59940273 -0.76858193 -0.1196757 8 4 -0.020664312
-0.88923699 -1.140221 0.22902009 23 12 -0.020662008
-0.60419184 -0.77444398 -0.085935563 32 5 -0.020659704
-0.93853021 -1.2025617 0.29651719 5 13 -0.0206574
-0.88162977 -1.1288407 0.33067805 23 14 -0.020652793
-0.59573644 -0.76278228 -0.016893929 28 7 -0.020650489
-1.323765 -1.6943421 0.57613122 9 15 -0.020648185
-1.2403425 -1.5830045 -0.53886127 17 0 -0.020627448
-0.6697008 -0.85471511 0.018953314 60 8 -0.020625144
-1.2526661 -1.5981592 -0.46879801 8 1 -0.02062284
-0.75791389 -0.96660364 0.064373232 46 9 -0.020620536
-1.274675 -1.6250687 -0.40146214 36 2 -0.020618232
-0.8265081 -1.0533278 0.11713732 19 10 -0.020615928
-1.237712 -1.5773789 -0.31756201 24 3 -0.020613624
-0.90455979 -1.152385 0.17987917 12 11 -0.02061132
-0.59827024 -0.76190621 -0.1189445 12 4 -0.020609016
-0.87124723 -1.1091485 0.22338845 10 12 -0.020606712
-0.60442942 -0.76919705 -0.085586935 31 5 -0.020604409
-0.9364481 -1.1917242 0.2946091 4 13 -0.020602105
-0.95282465 -1.2116947 0.35587254 8 14 -0.020597497
-0.58974099 -0.74969625 -0.016649596 34 7 -0.020595193
-1.327282 -1.6866746 0.57509595 5 15 -0.020592889
-0.66276944 -0.83981431 0.018674076 56 8 -0.020569848
-1.2111437 -1.5341247 -0.4512518 6 1 -0.020567544
-0.74024004 -0.93730617 0.06259381 63 9 -0.02056524
-1.211917 -1.5345527 -0.38009155 16 2 -0.020562936
-0.79047292 -1.0005535 0.11155935 28 10 -0.020560632
-1.2174889 -1.5405028 -0.31099173 10 3 -0.020558329
-0.89749694 -1.1352054 0.17768551 10 11 -0.020556025
-0.59846318 -0.75669938 -0.11845701 15 4 -0.020553721
-0.87021101 -1.0999038 0.22213697 6 12 -0.020551417
-0.59337842 -0.75000107 -0.083669513 36 5 -0.020549113
-0.93572873 -1.1822903 0.29308262 5 13 -0.020546809
-0.98003703 -1.2373865 0.36442071 7 14 -0.020542201
-0.5836615 -0.73666155 -0.016405262 34 7 -0.020539897
-1.0271702 -1.2959666 0.44309825 1 15 -0.020537592
-0.51557827 -0.64886785 -0.22206675 9 0 -0.020516856
-0.66569692 -0.83749568 0.018674076 60 8 -0.020514552
-0.54093242 -0.68028903 -0.20065634 4 1 -0.020512249
-0.74350715 -0.9347167 0.06259381 60 9 -0.020509945
-1.209933 -1.5210944 -0.37780184 3 2 -0.020507641
-0.77287114 -0.97128433 0.10859605 41 10 -0.020505337
-1.2130175 -1.5238793 -0.30848882 1 3 -0.020503033
-0.89279795 -1.1211956 0.17597936 10 11 -0.020500729
-0.59739041 -0.74994761 -0.11772579 24 4 -0.020498425
-0.87404537 -1.0968592 0.22213697 7 12 -0.020496121
-0.59226805 -0.74325055 -0.08314658 46 5 -0.020493817
-0.93373096 -1.1713411 0.29117453 3 13 -0.020491512
-0.98435062 -1.2339578 0.36442071 7 14 -0.020486904
-0.58997113 -0.73930889 -0.016509976 24 7 -0.0204846
-1.0208404 -1.2787852 0.43843949 6 15 -0.020482296
-0.57819444 -0.72247958 -0.24794866 4 0 -0.020461561
-0.66611683 -0.83204478 0.018604266 60 8 -0.020459257
-0.52746761 -0.6586228 -0.19480762 45 1 -0.020456953
-0.75675553 -0.94458538 0.063431181 45 9 -0.020454649
-0.54624212 -0.68182164 -0.16982001 8 2 -0.020452345
-0.77874893 -0.97169 0.10894467 51 10 -0.020450041
-0.55603248 -0.69354582 -0.14079103 8 3 -0.020447737
-0.88677037 -1.1056837 0.17402944 10 11 -0.020445433
-0.60248905 -0.75095445 -0.11821327 27 4 -0.020443128
-0.87539566 -1.0907205 0.22151121 6 12 -0.020440824
-0.5936116 -0.7396248 -0.082972266 37 5 -0.02043852
-0.93043935 -1.1588893 0.28888482 3 13 -0.020436216
-0.98621058 -1.227476 0.36352089 7 14 -0.020431608
-0.62386686 -0.77621138 -0.017382598 11 7 -0.020429304
-1.0204564 -1.2691915 0.43636894 6 15 -0.020427
-0.58071285 -0.7204569 -0.24794866 4 0 -0.020406265
-0.66901696 -0.82971466 0.018604266 63 8 -0.020403961
-0.52119917 -0.64615995 -0.1916583 67 1 -0.020401657
-0.80896223 -1.002558 0.067513391 16 9 -0.020399353
-0.52519464 -0.65088087 -0.16256927 39 2 -0.020397048
-0.78839314 -0.97671753 0.10981624 30 10 -0.020394744
-0.53238904 -0.65932596 -0.13422079 27 3 -0.02039244
-0.88438767 -1.0948603 0.17281075 10 11 -0.020390136
-0.59387797 -0.73495066 -0.11601962 43 4 -0.020387832
-0.8742305 -1.0815133 0.22025976 6 12 -0.020385528
-0.59243226 -0.73289984 -0.082449332 43 5 -0.020383224
-0.91966558 -1.1373152 0.28430542 4 13 -0.02038092
-0.97455317 -1.2043325 0.35767215 7 14 -0.020376312
-0.63915426 -0.7895717 -0.017731644 7 7 -0.020374008
-1.0224488 -1.2626193 0.43533364 6 15 -0.020371705
-0.50286335 -0.61943585 -0.21378455 11 0 -0.020350968
-0.67695177 -0.83358324 0.018743884 63 8 -0.020348664
-0.50870639 -0.62618631 -0.18625948 7 1 -0.02034636
-0.82253361 -1.012128 0.06835077 13 9 -0.020344056
-0.52127242 -0.64142591 -0.16066119 92 2 -0.020341752
-0.84709781 -1.0419819 0.11748594 10 10 -0.020339448
-0.54216546 -0.66665888 -0.136098 78 3 -0.020337144
-0.87692904 -1.0779078 0.1706171 9 11 -0.02033484
-0.58015054 -0.71285766 -0.11285102 63 4 -0.020332536
-0.86927027 -1.0677317 0.21806967 7 12 -0.020330232
-0.59876066 -0.73546267 -0.082972266 37 5 -0.020327928
-0.90627313 -1.1127861 0.27896276 7 13 -0.020325625
-0.96028417 -1.1782644 0.35092363 5 14 -0.020321017
-0.62800717 -0.77028704 -0.017347692 2 7 -0.020318713
-1.0244079 -1.2560484 0.43429837 6 15 -0.020316409
-0.50257701 -0.61468542 -0.21274926 11 0 -0.020295672
-0.67985743 -0.83121514 0.018743884 60 8 -0.020293368
-0.52569735 -0.64250565 -0.1916583 6 1 -0.020291064
-0.82859188 -1.0123414 0.068560109 12 9 -0.02028876
-0.52599537 -0.64264071 -0.16142441 45 2 -0.020286456
-0.84820551 -1.0359356 0.11713732 10 10 -0.020284152
-0.52571362 -0.64183962 -0.13140497 58 3 -0.020281848
-0.88320279 -1.0779109 0.17110457 9 11 -0.020279545
-0.55243397 -0.67398185 -0.10700129 84 4 -0.020277241
-0.86672932 -1.0570534 0.21650532 6 12 -0.020274937
-0.58616471 -0.71487999 -0.08088053 47 5 -0.020272633
-0.8952111 -1.0914005 0.27438337 19 13 -0.020270329
-0.97180939 -1.1839432 0.35362303 5 14 -0.020265721
-0.63069195 -0.76809031 -0.017347692 2 7 -0.020263417
-1.0116192 -1.2315656 0.42705145 6 15 -0.020261113
-0.4948954 -0.60099685 -0.20860817 74 0 -0.020240376
-0.67639744 -0.82111979 0.01856936 65 8 -0.020238072
-0.49075827 -0.59554929 -0.17816123 8 1 -0.020235768
-0.83466148 -1.0125252 0.068769448 12 9 -0.020233463
-0.53822571 -0.65291989 -0.16447736 4 2 -0.020231161
-0.84801346 -1.0283571 0.11661438 11 10 -0.020228857
-0.52292293 -0.63390517 -0.13015349 11 3 -0.020226553
-0.88190621 -1.0686971 0.17012961 9 11 -0.020224249
-0.54340935 -0.65827173 -0.10480764 78 4 -0.020221945
-0.86412501 -1.0464056 0.21494098 7 12 -0.020219641
-0.57089549 -0.69132155 -0.078440167 52 5 -0.020217337
-0.89526433 -1.0837282 0.27323848 14 13 -0.020215033
-0.95482856 -1.1550101 0.34597474 3 14 -0.020210424
-0.9962092 -1.2042108 0.41876921 6 15 -0.020205816
-0.49575686 -0.59777874 -0.20809051 87 0 -0.020185081
-0.67925966 -0.81875372 0.01856936 69 8 -0.020182777
-0.48536709 -0.58483505 -0.17546181 8 1 -0.020180473
-0.835639 -1.0065323 0.068560109 12 9 -0.020178169
-0.54050142 -0.65103728 -0.16447736 4 2 -0.020175865
-0.84014148 -1.0115962 0.11504558 12 10 -0.020173561
-0.50619745 -0.60928476 -0.12546046 5 3 -0.020171257
-0.87548059 -1.0533991 0.16817972 10 11 -0.020168953
-0.87282491 -1.0494578 0.21619245 7 12 -0.020164344
-0.55292106 -0.66481525 -0.075651184 63 5 -0.02016204
-0.90783107 -1.0911613 0.27590984 5 13 -0.020159736
-0.94887942 -1.1396891 0.34237552 3 14 -0.020155128
-1.0028802 -1.2036942 0.41980451 6 15 -0.02015052
-0.50774783 -0.60790622 -0.21223164 69 0 -0.020129785
-0.68724215 -0.82251585 0.01870898 84 8 -0.020127481
-0.48115668 -0.57566124 -0.17321232 35 1 -0.020125177
-0.82121134 -0.98215795 0.067094706 12 9 -0.020122873
-1.1913249 -1.424809 -0.36101064 5 2 -0.020120569
-0.82577175 -0.98726153 0.11260521 18 10 -0.020118264
-0.52480024 -0.62720919 -0.12952776 1 3 -0.02011596
-0.87150747 -1.0412031 0.16671728 9 11 -0.020113656
-0.54416871 -0.64989579 -0.10407643 27 4 -0.020111352
-0.8637985 -1.0312616 0.21306378 7 12 -0.020109048
-0.54628271 -0.65218961 -0.074431002 50 5 -0.020106744
-0.91037351 -1.0864809 0.27552822 6 13 -0.02010444
-0.56452537 -0.67349088 -0.046055648 3 6 -0.020102136
-0.94659138 -1.1289036 0.34012601 6 14 -0.020099832
-0.9971416 -1.1883471 0.41566339 5 15 -0.020095224
-0.51484108 -0.61204362 -0.21430218 33 0 -0.020074489
-0.68495905 -0.81399167 0.01856936 76 8 -0.020072185
-0.48567313 -0.57695985 -0.17411213 87 1 -0.02006988
-0.82206178 -0.97622991 0.06688536 11 9 -0.020067576
-0.54503334 -0.64724797 -0.16447736 4 2 -0.020065272
-0.81124216 -0.96303999 0.11016486 28 10 -0.020062968
-0.87001896 -1.0320836 0.16574231 9 11 -0.02005836
-0.588664 -0.69807148 -0.1121198 24 4 -0.020056056
-0.85975075 -1.0191807 0.21118654 7 12 -0.020053752
-0.57938826 -0.68682843 -0.078614481 34 5 -0.020051448
-0.90149921 -1.068292 0.27171201 4 13 -0.020049144
-0.54368263 -0.64404511 -0.044171553 9 6 -0.020046841
-0.93795288 -1.1107039 0.33562699 6 14 -0.020044537
-1.0012836 -1.184859 0.41566339 6 15 -0.020039929
-0.52571547 -0.62056088 -0.21792565 31 0 -0.020019192
-0.69296765 -0.817698 0.01870898 76 8 -0.020016888
-0.493985 -0.58269328 -0.17636162 75 1 -0.020014584
-0.82029724 -0.96726143 0.066466674 12 9 -0.02001228
-0.50538552 -0.59593022 -0.15188397 31 2 -0.020009976
-0.7901094 -0.93133557 0.10685294 41 10 -0.020007672
-0.54961711 -0.64762789 -0.13453366 1 3 -0.020005368
-0.86462319 -1.0184474 0.16403615 11 11 -0.020003064
-0.59366721 -0.69903857 -0.11260728 63 4 -0.02000076
-0.8581872 -1.0101515 0.20993507 7 12 -0.019998457
-0.54050267 -0.63621271 -0.073036514 30 5 -0.019996153
-0.9064942 -1.0666347 0.27209365 3 13 -0.019993849
-0.54463369 -0.6406219 -0.04406688 41 6 -0.019991545
-0.93803674 -1.1029696 0.33427727 6 14 -0.019989241
-0.99038839 -1.1637027 0.40945172 5 15 -0.019984633
-0.51910138 -0.60843438 -0.21430218 33 0 -0.019963896
-0.69062507 -0.80918992 0.01856936 85 8 -0.019961592
-0.48589304 -0.56910902 -0.17276241 9 1 -0.019959288
-0.82496578 -0.96591079 0.06657134 12 9 -0.019956984
-0.49726239 -0.58221942 -0.14883102 53 2 -0.019954681
-0.79594392 -0.93160141 0.10720156 25 10 -0.019952375
-0.52107221 -0.60966587 -0.1270248 14 3 -0.019950073
-0.85398304 -0.99882632 0.16135503 22 11 -0.019947769
-0.59223294 -0.69243628 -0.11187606 63 4 -0.019945465
-0.85913998 -1.0041476 0.20930934 7 12 -0.019943161
-0.55178732 -0.64491928 -0.074256696 22 5 -0.019940857
-0.90255219 -1.0545149 0.26980394 3 13 -0.019938553
-0.55206239 -0.64478534 -0.044485565 63 6 -0.019936249
-0.93174005 -1.0878477 0.33067805 7 14 -0.019933945
-0.9856441 -1.149971 0.40582827 4 15 -0.019929336
-0.51618612 -0.60075766 -0.21223164 34 0 -0.019912481
-0.69214177 -0.80525786 0.018534455 89 8 -0.019910177
-1.1853882 -1.3786275 -0.41975865 16 1 -0.019907873
-0.81791312 -0.9509117 0.065733969 12 9 -0.019905569
-0.49161026 -0.57154965 -0.14654131 56 2 -0.019903265
-0.83167821 -0.96657443 0.11155935 12 10 -0.019900961
-0.51546508 -0.5988605 -0.12514758 36 3 -0.019898657
-0.82508278 -0.95823193 0.15526156 33 11 -0.019896353
-0.59075963 -0.68585277 -0.11114486 61 4 -0.019894049
-0.85232407 -0.98917085 0.20680638 7 12 -0.019891744
-0.56443942 -0.65506423 -0.075651184 21 5 -0.01988944
-0.8844372 -1.0260777 0.26331642 4 13 -0.019887138
-0.54518008 -0.63226604 -0.043752864 42 6 -0.019884834
-0.92153031 -1.068357 0.32572913 12 14 -0.01988253
-0.6231423 -0.7221722 -0.016649596 3 7 -0.019880226
-0.98586559 -1.142136 0.40427536 6 15 -0.019877922
-0.5321849 -0.61502171 -0.21792565 31 0 -0.019857185
-0.70018351 -0.80888468 0.018674076 89 8 -0.019854881
-1.1889176 -1.373008 -0.41930875 25 1 -0.019852577
-0.8146888 -0.94050288 0.065210611 13 9 -0.019850273
-0.50388563 -0.5817017 -0.14959426 39 2 -0.019847969
-0.83635211 -0.96517086 0.11173366 12 10 -0.019845665
-0.51884627 -0.5985502 -0.12546046 61 3 -0.01984336
-0.81671774 -0.94184828 0.1530679 56 11 -0.019841058
-0.56193179 -0.64779747 -0.10529512 59 4 -0.019838754
-0.85059303 -0.98022169 0.2055549 7 12 -0.01983645
-0.58369815 -0.67265254 -0.077917233 36 5 -0.019834146
-0.89187431 -1.027432 0.26446128 3 13 -0.019831842
-0.53690749 -0.61829501 -0.04291549 15 6 -0.019829538
-0.90352839 -1.0401237 0.31808078 18 14 -0.019827234
-0.60204953 -0.69282305 -0.016021309 4 7 -0.01982493
-0.98477644 -1.1328559 0.40220481 6 15 -0.019822625
-0.52798253 -0.60587806 -0.21533746 22 0 -0.019801889
-0.70563108 -0.80945015 0.018743884 89 8 -0.019799585
-1.1885797 -1.362975 -0.41750914 32 1 -0.01979728
-0.81255245 -0.93177485 0.064791918 14 9 -0.019794978
-0.55624628 -0.63763732 -0.16447736 4 2 -0.019792674
-0.84102613 -0.96374667 0.11190797 13 10 -0.01979037
-0.51963317 -0.59524739 -0.12514758 63 3 -0.019788066
-0.82261199 -0.94198215 0.15355539 67 11 -0.019785762
-0.52621055 -0.60256958 -0.098226704 94 4 -0.019783458
-0.84994018 -0.97293276 0.20461631 8 12 -0.019781154
-0.56506568 -0.64660698 -0.07512825 48 5 -0.01977885
-0.88253397 -1.0095316 0.26064509 3 13 -0.019776545
-0.5732469 -0.65550691 -0.045636959 4 6 -0.019774241
-0.91210401 -1.0429895 0.3198804 11 14 -0.019771937
-0.60171044 -0.68781263 -0.015951499 10 7 -0.019769633
-0.98343897 -1.1237689 0.40013427 6 15 -0.019767329
-0.5261668 -0.59976721 -0.21378455 11 0 -0.019746594
-0.71094954 -0.8101117 0.018813694 94 8 -0.01974429
-1.189236 -1.3546327 -0.41615945 30 1 -0.019741986
-0.81168497 -0.92457253 0.064477906 14 9 -0.019739682
-1.1788992 -1.3423855 -0.3472724 19 2 -0.019737378
-0.82054788 -0.93400991 0.10877036 12 10 -0.019735074
-0.52030039 -0.59203702 -0.12483472 24 3 -0.01973277
-0.82704192 -0.94073993 0.15379913 48 11 -0.019730465
-0.53344858 -0.6067847 -0.099201649 92 4 -0.019728161
-0.83620304 -0.95082533 0.20054901 9 12 -0.019725857
-0.53430623 -0.60733229 -0.070770465 54 5 -0.019723553
-0.89365882 -1.0154424 0.2629348 4 13 -0.019721249
-0.92328393 -1.048735 0.3225798 7 14 -0.019716641
-0.61191785 -0.6948176 -0.01616093 4 7 -0.019714337
-0.97183514 -1.1031072 0.3939226 6 15 -0.019712033
-0.53326809 -0.60381097 -0.21585509 10 0 -0.019691298
-0.70701194 -0.80025685 0.018639171 85 8 -0.019688994
-1.1872691 -1.3433805 -0.41390994 31 1 -0.01968669
-0.8162303 -0.92322987 0.064582579 23 9 -0.019684386
-1.185945 -1.3414105 -0.34803563 27 2 -0.019682081
-0.82232046 -0.92979133 0.10859605 12 10 -0.019679777
-0.54189473 -0.61250043 -0.12952776 1 3 -0.019677473
-0.8512069 -0.96177638 0.15769894 21 11 -0.019675169
-0.54740649 -0.61829537 -0.1013953 60 4 -0.019672865
-0.85523337 -0.96564609 0.20430344 21 12 -0.019670561
-0.55084801 -0.6219638 -0.072687887 49 5 -0.019668257
-0.87228483 -0.98455316 0.25568405 4 13 -0.019665953
-0.92435354 -1.0425894 0.32168001 8 14 -0.019661345
-0.63026172 -0.7106303 -0.016579786 4 7 -0.01965904
-0.96798754 -1.0910374 0.39081678 5 15 -0.019656736
-0.55591446 -0.62504208 -0.22413731 9 0 -0.019636001
-0.70448422 -0.79180807 0.018499551 85 8 -0.019633697
-1.1789951 -1.3246711 -0.40941092 31 1 -0.019631393
-0.82476044 -0.92634177 0.065001264 22 9 -0.019629089
-1.1893147 -1.3357962 -0.34765401 30 2 -0.019626785
-0.82026076 -0.92096382 0.10789881 11 10 -0.019624481
-1.1813583 -1.3259279 -0.28126919 28 3 -0.019622177
-0.83474696 -0.93657053 0.15404287 23 11 -0.019619873
-0.54691935 -0.61341739 -0.10090782 100 4 -0.019617569
-0.85465413 -0.95823234 0.20336483 24 12 -0.019615265
-0.57821298 -0.64828843 -0.075999804 61 5 -0.019612961
-0.87048811 -0.97564256 0.25415757 6 13 -0.019610656
-0.56389391 -0.63178962 -0.044380896 4 6 -0.019608354
-0.91500819 -1.0248203 0.31718099 6 14 -0.01960605
-0.6234141 -0.69798583 -0.016335452 21 7 -0.019603746
-0.97693861 -1.0934142 0.39288735 6 15 -0.019601442
-0.56067055 -0.62597597 -0.22517258 18 0 -0.019580705
-0.71658474 -0.79976934 0.018743884 94 8 -0.019578401
-1.1719059 -1.3074871 -0.4053618 30 1 -0.019576097
-0.82532209 -0.92048323 0.064791918 27 9 -0.019573793
-1.1874168 -1.3243282 -0.34574592 37 2 -0.019571489
-0.81947941 -0.91364557 0.10737588 13 10 -0.019569185
-1.1820219 -1.3173851 -0.2803306 36 3 -0.019566881
-0.83535945 -0.93069619 0.15355539 23 11 -0.019564576
-0.5556882 -0.61889005 -0.10212652 87 4 -0.019562274
-0.86063379 -0.95818233 0.20399056 24 12 -0.01955997
-0.55917072 -0.62254995 -0.073210821 84 5 -0.019557666
-0.87388873 -0.97259778 0.25415757 5 13 -0.019555362
-0.56609571 -0.62981755 -0.044380896 4 6 -0.019553058
-0.91206515 -1.0143745 0.31493148 5 14 -0.019550754
-0.61514843 -0.6839112 -0.016056214 39 7 -0.01954845
-0.97816491 -1.0871254 0.39185205 6 15 -0.019546146
-0.56414628 -0.62544942 -0.22569022 26 0 -0.019525409
-0.71937215 -0.79726309 0.018743884 89 8 -0.019523105
-1.1751567 -1.3019421 -0.40491191 32 1 -0.019520801
-0.82719189 -0.91611415 0.064687252 19 9 -0.019518496
-1.1815071 -1.3085178 -0.34269297 37 2 -0.019516192
-0.83067656 -0.91965061 0.10842174 19 10 -0.01951389
-1.1839646 -1.3103197 -0.27970487 36 3 -0.019511586
-0.84126514 -0.93072003 0.15404287 12 11 -0.019509282
-0.58314127 -0.64492261 -0.10675755 63 4 -0.019506978
-0.86264819 -0.95370746 0.2036777 27 12 -0.019504674
-0.53995603 -0.59695262 -0.070421837 100 5 -0.01950237
-0.86805761 -0.9593513 0.25148627 9 13 -0.019500066
-0.56829071 -0.62783766 -0.044380896 4 6 -0.019497762
-0.89074874 -0.98373795 0.30638334 6 14 -0.019495457
-0.60544974 -0.66842121 -0.015742071 48 7 -0.019493153
-0.97676504 -1.0779779 0.3897815 7 15 -0.019490849
-0.56892395 -0.62633634 -0.22672549 34 0 -0.019470112
-0.72887456 -0.80214727 0.01891841 85 8 -0.01946781
-1.1744515 -1.2920637 -0.40311229 31 1 -0.019465506
-0.83038473 -0.91322106 0.064687252 20 9 -0.019463202
-1.1781427 -1.2956702 -0.34040326 38 2 -0.019460898
-0.83254111 -0.91527158 0.10824744 23 10 -0.019458594
-1.1858723 -1.3032568 -0.27907911 37 3 -0.01945629
-0.85119015 -0.93511784 0.15526156 13 11 -0.019453986
-0.58538896 -0.64288312 -0.10675755 69 4 -0.019451682
-0.86464179 -0.94922996 0.20336483 26 12 -0.019449377
-0.53811455 -0.59055144 -0.069898903 100 5 -0.019447073
-0.87140113 -0.95631534 0.25148627 13 13 -0.019444769
-0.55029678 -0.6037091 -0.042810816 5 6 -0.019442465
-0.89417696 -0.98062289 0.30638334 8 14 -0.019440161
-0.60508406 -0.66334891 -0.015672261 48 7 -0.019437857
-0.96489608 -1.0574373 0.38356987 4 15 -0.019435553
-0.56599897 -0.61854613 -0.22465494 54 0 -0.019414818
-0.72222048 -0.78927118 0.018674076 80 8 -0.019412514
-1.181586 -1.2908311 -0.40401211 32 1 -0.01941021
-0.83221865 -0.90884387 0.064582579 23 9 -0.019407906
-1.1802312 -1.2884483 -0.33964002 38 2 -0.019405602
-0.83319807 -0.90927613 0.10789881 22 10 -0.019403297
-1.1786278 -1.285796 -0.2762633 37 3 -0.019400993
-0.8557905 -0.93360424 0.15550528 13 11 -0.019398689
-0.5916543 -0.64522505 -0.10748877 80 4 -0.019396385
-0.86527926 -0.94329458 0.20273907 20 12 -0.019394081
-0.5401727 -0.58866942 -0.069898903 98 5 -0.019391777
-0.87224501 -0.95022237 0.25072303 14 13 -0.019389473
-0.54980403 -0.59874588 -0.04260147 37 6 -0.019387169
-0.89644676 -0.97590375 0.30593342 8 14 -0.019384865
-0.61415982 -0.66859609 -0.015846785 30 7 -0.019382561
-0.95551008 -1.0398378 0.37839344 5 15 -0.019380257
-0.57862777 -0.62793183 -0.22879605 41 0 -0.019359522
-0.71562123 -0.77632642 0.018429741 76 8 -0.019357217
-1.1730984 -1.2721658 -0.3995131 31 1 -0.019354913
-0.84502357 -0.9160639 0.065315276 19 9 -0.019352609
-1.176735 -1.2756621 -0.33735034 37 2 -0.019350305
-0.83501589 -0.90489793 0.1077245 21 10 -0.019348001
-1.1750695 -1.2729652 -0.27438608 35 3 -0.019345697
-0.84439272 -0.91441894 0.15282416 15 11 -0.019343393
-0.59266829 -0.64159405 -0.10724504 63 4 -0.019341089
-0.87543386 -0.94737118 0.20430344 21 12 -0.019338785
-0.55574584 -0.60141337 -0.071642019 97 5 -0.019336481
-0.87289143 -0.94428855 0.2499598 13 13 -0.019334177
-0.54239881 -0.58655828 -0.041868769 67 6 -0.019331872
-0.88926148 -0.96132433 0.30233422 8 14 -0.01932957
-0.63154602 -0.6824854 -0.016230738 9 7 -0.019327266
-0.96456426 -1.0419995 0.38046399 4 15 -0.019324962
-0.57950211 -0.62449205 -0.2282784 58 0 -0.019304225
-0.72648948 -0.78261733 0.018639171 74 8 -0.019301921
-1.1669236 -1.2566391 -0.39591387 31 1 -0.019299617
-0.82918561 -0.89262223 0.063849874 14 9 -0.019297313
-1.1811808 -1.2715467 -0.33735034 38 2 -0.019295009
-0.85173184 -0.91657287 0.10946761 19 10 -0.019292705
-1.1714365 -1.2601745 -0.27250886 37 3 -0.019290401
-0.8435241 -0.90710479 0.15209295 22 11 -0.019288097
-0.58679175 -0.63080066 -0.1057826 68 4 -0.019285792
-0.88411838 -0.95009363 0.2055549 27 12 -0.019283488
-0.56734294 -0.60967958 -0.0728622 79 5 -0.019281186
-0.88287061 -0.94842076 0.25186789 15 13 -0.019278882
-0.53627616 -0.57589161 -0.041240737 94 6 -0.019276578
-0.88464195 -0.94965875 0.29963478 12 14 -0.019274274
-0.6448307 -0.69198036 -0.016509976 4 7 -0.01927197
-0.9681955 -1.0386264 0.38046399 6 15 -0.019269666
-0.5869543 -0.62811154 -0.23034896 63 0 -0.019248929
-0.73741031 -0.78884149 0.0188486 74 8 -0.019246625
-1.1686412 -1.2497112 -0.39501405 31 1 -0.019244321
-0.83638948 -0.89409822 0.064163886 13 9 -0.019242017
-1.1695175 -1.2502112 -0.33277091 38 2 -0.019239713
-0.85764891 -0.91650385 0.10981624 19 10 -0.019237408
-1.1731284 -1.2531935 -0.27188313 33 3 -0.019235106
-0.86025375 -0.91864455 0.15453033 23 11 -0.019232802
-0.58084738 -0.62005621 -0.10432017 77 4 -0.019230498
-0.87662375 -0.93547058 0.20305197 36 12 -0.019228194
-0.58854079 -0.6280489 -0.075302556 53 5 -0.01922589
-0.89154643 -0.95106274 0.25339437 18 13 -0.019223586
-0.54511428 -0.5813005 -0.041764095 51 6 -0.019221282
-0.88795149 -0.94656503 0.29963478 16 14 -0.019218978
-0.62534809 -0.66639435 -0.015951499 10 7 -0.019216673
-0.96123779 -1.0239723 0.37632293 6 15 -0.019214369
-0.57855189 -0.61480379 -0.22620785 70 0 -0.019193633
-0.73878896 -0.78480643 0.018813694 68 8 -0.019191328
-1.1689882 -1.2413683 -0.39366436 33 1 -0.019189026
-0.8381359 -0.88971949 0.06405922 12 9 -0.019186722
-1.1671436 -1.2389761 -0.33086282 39 2 -0.019184418
-0.85674375 -0.90915418 0.1092933 20 10 -0.019182114
-1.1761403 -1.2476537 -0.27157027 30 3 -0.01917981
-0.86073136 -0.91274768 0.15404287 23 11 -0.019177506
-0.59390575 -0.62957656 -0.10627007 66 4 -0.019175202
-0.87988359 -0.93240505 0.20305197 46 12 -0.019172898
-0.58662707 -0.62164366 -0.074779622 44 5 -0.019170593
-0.89216554 -0.94508964 0.25263113 13 13 -0.019168289
-0.54302627 -0.57503778 -0.041450083 29 6 -0.019165985
-0.88857365 -0.94062668 0.29873499 16 14 -0.019163681
-0.61942965 -0.655487 -0.015742071 26 7 -0.019161377
-0.95153517 -1.006572 0.3711465 7 15 -0.019159073
-0.58335209 -0.61558503 -0.22724313 77 0 -0.019138338
-0.72363913 -0.76335669 0.018359931 51 8 -0.019136034
-1.1719733 -1.2358661 -0.39321443 32 1 -0.01913373
-0.84673476 -0.89258438 0.064477906 13 9 -0.019131426
-1.1674078 -1.2306215 -0.32971796 35 2 -0.019129122
-0.85854042 -0.90471298 0.10911899 18 10 -0.019126818
-1.1668882 -1.2292142 -0.26844159 24 3 -0.019124513
-0.86664635 -0.91261625 0.15453033 22 11 -0.019122209
-0.5947324 -0.62606055 -0.10602634 62 4 -0.019119905
-0.87496829 -0.92073631 0.20117474 47 12 -0.019117601
-0.57644111 -0.60659373 -0.073210821 36 5 -0.019115297
-0.89545935 -0.94196945 0.25263113 13 13 -0.019112993
-0.55741715 -0.58616477 -0.042392131 32 6 -0.019110689
-0.89185166 -0.93751925 0.29873499 16 14 -0.019108385
-0.62447119 -0.65621775 -0.015811879 31 7 -0.019106081
-0.95504272 -1.0032446 0.3711465 11 15 -0.019103777
-0.58683109 -0.61494255 -0.22776078 76 0 -0.019083042
-0.70558739 -0.73912948 0.01783636 33 8 -0.019080738
-1.168205 -1.2233115 -0.39051503 32 1 -0.019078434
-0.84432691 -0.88384646 0.06405922 12 9 -0.019076129
-1.1662719 -1.2208604 -0.32819149 35 2 -0.019073825
-0.87132883 -0.91179365 0.11033916 22 10 -0.019071521
-1.1629819 -1.2165661 -0.26656437 20 3 -0.019069217
-0.8643387 -0.90384704 0.15355539 23 11 -0.019066913
-0.59142536 -0.61824298 -0.10505138 71 4 -0.019064609
-0.88363999 -0.92338514 0.20242621 34 12 -0.019062305
-0.57993257 -0.60601729 -0.073385134 36 5 -0.019060001
-0.89874184 -0.93883806 0.25263113 13 13 -0.019057697
-0.57465506 -0.60008299 -0.043543518 29 6 -0.019055393
-0.90725166 -0.94706517 0.30278412 16 14 -0.019053089
-0.61430573 -0.64104009 -0.015497738 40 7 -0.019050784
-0.96121269 -1.0026939 0.3721818 11 15 -0.019048482
-0.5943284 -0.61846215 -0.22983132 80 0 -0.019027745
-0.7247932 -0.75396132 0.018255217 26 8 -0.019025441
-1.1643633 -1.2107987 -0.38781562 35 1 -0.019023137
-0.84048373 -0.87369698 0.063535862 10 9 -0.019020833
-1.1732486 -1.2196118 -0.32895473 38 2 -0.019018529
-0.87588775 -0.91018212 0.11051348 21 10 -0.019016225
-0.86473453 -0.8979646 0.1530679 22 11 -0.019011617
-0.57843047 -0.60044867 -0.10237025 76 4 -0.019009313
-0.89782363 -0.93167424 0.20492917 20 12 -0.019007009
-0.57927936 -0.60111994 -0.073036514 36 5 -0.019004704
-0.90610105 -0.93993545 0.25377598 13 13 -0.019002402
