# .PCD v0.7 - Point Cloud Data file format
VERSION 0.7
FIELDS x y z intensity ring time
SIZE 4 4 4 4 2 4
TYPE F F F F U F
COUNT 1 1 1 1 1 1
WIDTH 955
HEIGHT 1
VIEWPOINT 0 0 0 1 0 0 0
POINTS 955
DATA ascii
5.4582038 -2.8948505 1.2009518 68 13 -0.082940236
5.4534287 -2.8935375 -0.3235409 68 6 -0.082937934
5.3927507 -2.8625488 1.4095433 90 14 -0.082935624
4.9349899 -2.6195629 -0.097524047 2 7 -0.082933322
6.3863015 -3.3913684 1.9375196 14 15 -0.082931019
3.0535328 -1.6270117 -0.92708987 10 0 -0.082910284
5.2520638 -2.7984533 0.10387672 2 8 -0.082907982
3.5150187 -1.8736929 -0.91959995 8 1 -0.082905672
4.8657885 -2.594816 0.28899917 1 9 -0.08290337
5.4295483 -2.897891 0.53844815 22 10 -0.082898766
4.9823661 -2.6592183 -0.89449239 2 3 -0.082896456
5.4529357 -2.9115965 0.75900233 100 11 -0.082894154
5.4174089 -2.8938417 -0.75412756 50 4 -0.082891852
5.4583383 -2.9169297 0.98021847 97 12 -0.082889549
5.4503655 -2.9138925 -0.5407142 63 5 -0.08288724
5.4399176 -2.9083071 1.1990438 64 13 -0.082884938
5.4508481 -2.9153738 -0.32395959 63 6 -0.082882635
5.3866649 -2.8822551 1.4104432 71 14 -0.082880333
5.4511895 -2.918004 -0.10792568 10 7 -0.082878031
6.3625021 -3.4072559 1.9338959 100 15 -0.082875721
3.0515244 -1.6389569 -0.92812514 10 0 -0.082854986
3.5015912 -1.8822604 -0.91780037 8 1 -0.082850382
4.8567009 -2.6117847 0.28899917 1 9 -0.082848072
5.416399 -2.9139919 0.53809953 17 10 -0.082843468
4.9713135 -2.6756573 -0.89417946 3 3 -0.082841165
5.4357481 -2.9268486 0.75802737 94 11 -0.082838856
5.4446445 -2.9340911 0.97959268 95 12 -0.082834251
5.4556541 -2.9412529 1.2047681 71 13 -0.082829647
5.3834314 -2.9047415 1.4122428 56 14 -0.082825035
4.9764118 -2.6862473 -0.098710813 1 7 -0.082822733
6.3420711 -3.4248548 1.9313078 100 15 -0.08282043
3.0440862 -1.6486787 -0.92760748 9 0 -0.082799688
5.017899 -2.7188294 0.099618338 2 8 -0.082797386
3.5087054 -1.9019011 -0.92139953 8 1 -0.082795084
4.8896918 -2.651572 0.2915113 1 9 -0.082792781
4.3646283 -2.3668418 -0.96511191 1 2 -0.082790479
5.4342151 -2.9480824 0.54088855 30 10 -0.082788169
4.965416 -2.6948788 -0.89480525 4 3 -0.082785867
5.4411988 -2.95433 0.76022106 98 11 -0.082783565
5.0743661 -2.7563028 -0.70903593 6 4 -0.082781263
5.4031281 -2.9361014 0.97396111 76 12 -0.082778953
5.0382676 -2.7378333 -0.50166845 8 5 -0.082776651
5.4591532 -2.9677801 1.207821 71 13 -0.082774349
5.0987506 -2.7730064 -0.3041766 5 6 -0.082772046
5.3698354 -2.921653 1.4113429 78 14 -0.082769737
4.9951057 -2.7188981 -0.099269286 1 7 -0.082767434
3.033226 -1.6565166 -0.92605454 11 0 -0.082744397
5.3207431 -2.9069896 0.10583139 15 8 -0.082742095
3.498625 -1.9122678 -0.92049968 8 1 -0.082739785
5.4151511 -2.9622524 0.54001695 32 10 -0.082732879
4.9317188 -2.6989183 -0.89042509 3 3 -0.082730569
5.4413009 -2.9790249 0.76168346 98 11 -0.082728267
5.419888 -2.9685316 -0.7587586 19 4 -0.082725964
5.434422 -2.9777253 0.98146993 95 12 -0.082723662
5.4370241 -2.9803848 -0.54245734 58 5 -0.082721353
5.441874 -2.9830434 1.2062945 71 13 -0.08271905
5.4515424 -2.9895804 -0.32584369 57 6 -0.082716748
5.4347787 -2.9816217 1.4311386 45 14 -0.082714446
5.4150748 -2.9720414 -0.10782097 18 7 -0.082712136
5.4763961 -3.0069416 1.6740416 1 15 -0.082709834
3.0271342 -1.6676227 -0.92605454 12 0 -0.082689099
5.300055 -2.9197557 0.10562197 20 8 -0.082686797
3.4799817 -1.9178843 -0.91735035 10 1 -0.082684495
4.9165368 -2.710716 0.29423279 2 9 -0.082682185
5.4251909 -2.9936309 0.54210871 30 10 -0.08267758
4.9338999 -2.7236588 -0.8926152 1 3 -0.082675278
5.4187036 -2.9912848 0.75997728 94 11 -0.082672969
5.4112306 -2.9883919 -0.75900233 28 4 -0.082670666
5.4447436 -3.0081403 0.98522437 97 12 -0.082668364
5.4318185 -3.0022368 -0.54298031 65 5 -0.082666062
5.4257498 -3.000119 1.2051498 67 13 -0.082663752
5.4405479 -3.0095415 -0.32584369 61 6 -0.08266145
5.4528008 -3.0175619 1.438787 22 14 -0.082659148
5.4379106 -3.0093219 -0.10848416 28 7 -0.082656845
5.4472752 -3.0157464 1.6683476 18 15 -0.082654536
3.0280499 -1.6819316 -0.92812514 8 0 -0.082633801
5.0760665 -2.8206627 0.10136358 2 8 -0.082631499
3.4678192 -1.9277856 -0.91600066 8 1 -0.082629196
4.9938426 -2.7772541 0.29946637 2 9 -0.082626894
4.3391833 -2.4131746 -0.96511191 1 2 -0.082624584
5.3920741 -2.9999576 0.53984267 17 10 -0.082622282
4.9105539 -2.7331789 -0.89011216 1 3 -0.08261998
5.4215784 -3.0188513 0.76192719 94 11 -0.082617678
5.4071779 -3.012069 -0.75997728 24 4 -0.082615368
5.4405837 -3.0319223 0.98647583 97 12 -0.082613066
5.4369688 -3.0299077 -0.54454905 63 5 -0.082610764
5.4341068 -3.0295558 1.2093475 71 13 -0.082608461
5.402101 -3.0129485 -0.32416895 69 6 -0.082606152
5.4490409 -3.0403755 1.4405866 16 14 -0.082603849
5.3325558 -2.9766014 -0.1065993 16 7 -0.082601547
6.264348 -3.4981563 1.922508 8 15 -0.082599245
3.0204749 -1.6915474 -0.92760748 10 0 -0.08257851
4.9022017 -2.746489 0.098082528 6 8 -0.0825762
3.4678688 -1.9436901 -0.91780037 8 1 -0.082573898
4.8447509 -2.7165239 0.2910926 1 9 -0.082571596
4.2314129 -2.3726163 -0.94297814 1 2 -0.082569294
4.82899 -2.7087946 0.4844116 2 10 -0.082566984
4.9044285 -2.7522368 -0.89073795 1 3 -0.082564682
5.4248552 -3.0455315 0.76387709 94 11 -0.08256238
5.3931694 -3.0289814 -0.75948983 24 4 -0.082560077
5.4265232 -3.04896 0.98585016 95 12 -0.082557768
5.4194117 -3.0449643 -0.54385179 63 5 -0.082555465
5.4371896 -3.0562017 1.2124004 71 13 -0.082553163
5.4333324 -3.0552814 -0.32668105 69 6 -0.082550861
5.440093 -3.0603328 1.4410365 22 14 -0.082548559
5.3360744 -3.0030429 -0.10687853 21 7 -0.082546249
6.3076506 -3.5512784 1.93959 16 15 -0.082543947
3.007823 -1.6982812 -0.92553693 13 0 -0.082523212
5.3922906 -3.0458434 0.10810021 22 8 -0.08252091
3.4695456 -1.960577 -0.92004979 10 1 -0.0825186
5.1834836 -2.9290922 0.31202701 2 9 -0.082516298
4.1957598 -2.3719134 -0.93687224 1 2 -0.082513995
5.4247618 -3.0679328 0.54524636 47 10 -0.082511693
4.905107 -2.7751763 -0.8926152 1 3 -0.082509384
5.4314666 -3.0742278 0.76631445 99 11 -0.082507081
5.4119291 -3.0644164 -0.76363337 12 4 -0.082504779
5.4060688 -3.0610983 0.98397291 95 12 -0.082502477
5.38448 -3.0501149 -0.54141146 61 5 -0.082500175
5.4264884 -3.0751622 1.2124004 70 13 -0.082497865
5.4261088 -3.0761988 -0.32689041 71 6 -0.082495563
5.4446335 -3.0879564 1.4450855 43 14 -0.082493261
5.327826 -3.0217085 -0.10691345 18 7 -0.082490958
6.2689557 -3.556922 1.9313078 78 15 -0.082488649
2.99684 -1.7059029 -0.92398405 7 0 -0.082467914
5.3682575 -3.055794 0.10782097 15 8 -0.082465611
3.4613318 -1.9711075 -0.91959995 8 1 -0.082463309
5.3932495 -3.0750077 0.5431546 25 10 -0.082456395
4.9301982 -2.8109951 -0.89887255 1 3 -0.082454093
5.3781347 -3.0676336 0.76022106 100 11 -0.082451791
5.4155307 -3.0902166 -0.76558328 6 4 -0.082449481
5.4022131 -3.0838678 0.98522437 85 12 -0.082447179
5.3703399 -3.0669155 -0.54106283 75 5 -0.082444876
5.3804598 -3.072695 1.2043865 61 13 -0.082442574
5.4054732 -3.0882308 -0.32626238 69 6 -0.082440265
5.4682012 -3.1253343 1.4540836 86 14 -0.082437962
5.3398132 -3.0531914 -0.10736721 27 7 -0.08243566
2.9928424 -1.7167928 -0.92450172 9 0 -0.082412623
5.373167 -3.0834718 0.1081351 12 8 -0.082410313
3.4426 -1.976386 -0.91645062 10 1 -0.082408011
5.408936 -3.107764 0.54576921 30 10 -0.082401097
4.8998046 -2.8163748 -0.89511812 1 3 -0.082398795
5.4207406 -3.1170642 0.76777691 100 11 -0.082396492
5.3737378 -3.0912843 -0.76119596 1 4 -0.08239419
5.4227772 -3.1194947 0.99085599 97 12 -0.08239188
5.3808622 -3.0966327 -0.5431546 58 5 -0.082389578
5.3850141 -3.1002731 1.207821 37 13 -0.082387276
5.3565841 -3.0851505 -0.32395959 53 6 -0.082384974
5.4842744 -3.1599696 1.461282 78 14 -0.082382664
5.334857 -3.0738769 -0.10747192 18 7 -0.082380362
2.9901762 -1.7291633 -0.92553693 10 0 -0.082357325
5.366375 -3.1032751 0.10820492 12 8 -0.082355022
3.4326537 -1.9858395 -0.91555077 11 1 -0.082352713
5.377769 -3.1123698 0.32563433 2 9 -0.082350411
4.8773866 -2.825048 0.4931272 2 10 -0.082345806
4.8904381 -2.8326077 -0.89511812 1 3 -0.082343496
5.3983517 -3.128056 0.76607072 68 11 -0.082341194
5.3771968 -3.1170516 -0.76314586 1 4 -0.082338892
5.3998938 -3.1314683 0.98866594 25 12 -0.08233659
5.3803601 -3.1213953 -0.54420048 45 5 -0.08233428
5.3848925 -3.1240249 1.2101108 37 13 -0.082331978
5.3549614 -3.1079097 -0.32448295 54 6 -0.082329676
5.50073 -3.1937945 1.4684805 75 14 -0.082327373
5.3310113 -3.0964978 -0.10761154 14 7 -0.082325071
2.9877636 -1.7410151 -0.9265722 9 0 -0.082298756
5.3434167 -3.1149387 0.10796059 15 8 -0.082296453
3.4374843 -2.0046816 -0.9187001 11 1 -0.082294151
5.3823986 -3.1401808 0.32657638 8 9 -0.082291842
4.2037797 -2.4525552 -0.94603103 1 2 -0.082289539
5.3842158 -3.1425009 0.54542065 2 10 -0.082287237
5.3891139 -3.1478822 0.76631445 28 11 -0.082282625
4.9326615 -2.8824146 -0.70147997 12 4 -0.082280323
5.3514123 -3.128366 0.98178285 58 12 -0.082278021
5.369432 -3.1401572 -0.54420048 48 5 -0.082275718
5.3959866 -3.1556869 1.2150718 17 13 -0.082273409
5.3578706 -3.1346517 -0.32532033 53 6 -0.082271107
5.5147758 -3.2277415 1.4752289 47 14 -0.082268804
5.2459674 -3.0716398 -0.10611063 6 7 -0.082266502
5.4325271 -3.1821485 1.6869825 11 15 -0.082264192
2.9730349 -1.7470603 -0.92398405 8 0 -0.082243457
5.2756171 -3.1001389 0.10680873 2 8 -0.082241155
3.4808645 -2.0462964 -0.93219715 3 1 -0.082238853
4.1947622 -2.4679463 -0.94603103 1 2 -0.082234241
5.3486228 -3.1480651 0.54298031 2 10 -0.082231939
4.2402234 -2.4966855 -0.7793566 1 3 -0.082229637
5.3780928 -3.1666741 0.76631445 22 11 -0.082227334
4.9619093 -2.9227881 -0.70708597 3 4 -0.082225025
5.3983231 -3.1811247 0.99242038 66 12 -0.082222722
5.3601542 -3.1598928 -0.54437476 78 5 -0.08222042
5.3708549 -3.1674643 1.2120188 57 13 -0.082218118
5.3463459 -3.1542678 -0.32532033 52 6 -0.082215808
5.5163341 -3.2558565 1.4788282 45 14 -0.082213506
5.3264847 -3.1438036 -0.10796059 65 7 -0.082211204
6.1866016 -3.6529186 1.9250962 14 15 -0.082208902
2.9619317 -1.7544737 -0.92243111 10 0 -0.082188167
5.2900238 -3.1347454 0.1073323 7 8 -0.082185857
3.5135732 -2.0828905 -0.94299489 2 1 -0.082183555
5.2521076 -3.1135156 0.31998208 2 9 -0.082181253
4.1354632 -2.4525306 -0.93458253 1 2 -0.08217895
5.3667316 -3.1839983 0.54594356 10 10 -0.082176641
4.1907129 -2.4872742 -0.77184772 13 3 -0.082174338
5.4005876 -3.2066343 0.77118921 85 11 -0.082172036
5.3922811 -3.202975 0.99335897 85 12 -0.082167424
5.3730707 -3.1928329 -0.5468151 53 5 -0.082165122
5.4019556 -3.2112734 1.2215593 67 13 -0.08216282
5.3507528 -3.1820991 -0.32626238 50 6 -0.082160518
5.4178481 -3.2232809 1.4554334 71 14 -0.082158215
5.3996878 -3.2124767 -0.10967092 24 7 -0.082155906
6.1754732 -3.6754799 1.9256139 6 15 -0.082153603
2.9607656 -1.7677734 -0.92398405 11 0 -0.082132868
5.3225236 -3.1778994 0.10820492 10 8 -0.082130566
3.494935 -2.0875351 -0.93984544 2 1 -0.082128257
4.9531722 -2.9597175 0.30239719 2 9 -0.082125954
4.1605797 -2.4870977 -0.94221485 3 2 -0.082123652
5.3658442 -3.208848 0.54698944 15 10 -0.08212135
4.1790514 -2.4991298 -0.771222 16 3 -0.08211904
5.3916283 -3.2255447 0.771433 87 11 -0.082116738
5.3963208 -3.230911 0.99617481 81 12 -0.082112134
5.3943686 -3.2310209 -0.55012703 43 5 -0.082109831
5.3996983 -3.2342131 1.2234674 72 13 -0.082107522
5.3333182 -3.1957192 -0.32584369 69 6 -0.082105219
5.348629 -3.2061617 1.4396867 86 14 -0.082102917
5.4296007 -3.2559876 -0.11050864 69 7 -0.082100615
6.1675754 -3.6999953 1.9271667 24 15 -0.082098305
2.941644 -1.7696149 -0.9198429 9 0 -0.08207757
5.349092 -3.2191436 0.10897283 7 8 -0.082075268
3.4876268 -2.0997221 -0.93984544 2 1 -0.082072966
4.9257016 -2.9666851 0.30135047 2 9 -0.082070656
4.1708088 -2.512023 -0.94641262 10 2 -0.082068354
5.3875976 -3.2461605 0.55030131 10 10 -0.082066052
4.1770697 -2.5177813 -0.77247345 20 3 -0.082063749
5.3905358 -3.2504961 0.77289546 89 11 -0.082061447
5.37148 -3.2415624 0.99367183 81 12 -0.082056835
5.4222879 -3.273515 -0.55413622 65 5 -0.082054533
5.3950982 -3.2571003 1.2249938 71 13 -0.082052231
5.3529043 -3.2329016 -0.32772776 65 6 -0.082049921
5.3707638 -3.2449677 1.4486848 18 14 -0.082047619
5.4164906 -3.273886 -0.11047374 63 7 -0.082045317
6.1513162 -3.7195022 1.9261314 34 15 -0.082043014
2.9516556 -1.7904038 -0.92501926 10 0 -0.082022272
5.3754368 -3.2606115 0.10974073 15 8 -0.08201997
3.4886065 -2.1169384 -0.94209504 1 1 -0.082017668
4.9289742 -2.992152 0.30218783 2 9 -0.082015365
4.143115 -2.516083 -0.94221485 10 2 -0.082013063
5.3807721 -3.2689888 0.55082428 15 10 -0.082010753
4.1695013 -2.5340998 -0.77278632 18 3 -0.082008451
5.3927279 -3.2775407 0.77484536 89 11 -0.082006149
5.3753219 -3.2695317 0.99648768 78 12 -0.082001537
5.4125299 -3.2934582 -0.5543105 65 5 -0.081999235
5.3378458 -3.2492902 1.2146901 64 13 -0.081996933
5.3836656 -3.27847 -0.33034459 58 6 -0.08199463
6.3440609 -3.8648362 1.7150269 61 14 -0.081992321
5.3913674 -3.2844501 -0.11019449 57 7 -0.081990018
6.1349955 -3.7389407 1.9250962 34 15 -0.081987716
2.9354985 -1.7946501 -0.9219135 13 0 -0.081966981
5.3498025 -3.2719445 0.10946149 15 8 -0.081964679
3.4741752 -2.1256423 -0.94029546 1 1 -0.081962369
4.9491658 -3.0281019 0.30407193 2 9 -0.081960067
4.1008172 -2.5100315 -0.93458253 12 2 -0.081957765
5.3778243 -3.2929533 0.55169582 22 10 -0.081955463
4.1673684 -2.5527661 -0.77403784 19 3 -0.081953153
5.385756 -3.3003955 0.77557659 87 11 -0.081950851
5.3807168 -3.2985992 0.99961638 85 12 -0.081946246
5.401001 -3.3123312 -0.5543105 30 5 -0.081943937
5.398428 -3.3120496 1.2310997 70 13 -0.081941634
5.4011264 -3.3150034 -0.33212399 66 6 -0.081939332
6.2956567 -3.8655443 1.7055789 66 14 -0.08193703
5.3952069 -3.3126667 -0.11050864 60 7 -0.08193472
6.1795216 -3.7957222 1.9432135 1 15 -0.081932418
2.9242821 -1.8018458 -0.92036057 8 0 -0.081911683
5.3780794 -3.3137944 0.11026431 17 8 -0.081909381
3.4737427 -2.1412418 -0.94209504 1 1 -0.081907079
5.1323676 -3.1648674 0.31600451 2 9 -0.081904769
4.1338034 -2.5500996 -0.94412297 5 2 -0.081902467
4.1521554 -2.5624218 -0.77278632 18 3 -0.081897862
5.395052 -3.3307509 0.77850145 94 11 -0.081895553
4.2476807 -2.623421 -0.61300284 1 4 -0.08189325
5.3574066 -3.3100939 0.99742627 81 12 -0.081890948
5.3840756 -3.3278694 1.2303365 68 13 -0.081886336
5.4104886 -3.3455007 -0.33338007 66 6 -0.081884034
6.2297702 -3.8535948 1.691182 67 14 -0.081881732
5.3887119 -3.3346362 -0.11061335 29 7 -0.08187943
2.9150081 -1.8094954 -0.91932529 10 0 -0.081856385
5.2492628 -3.2597563 0.10785587 2 8 -0.081854083
3.4430728 -2.1389575 -0.93579644 1 1 -0.08185178
5.3780217 -3.3410156 0.33181 25 9 -0.081849478
4.1069818 -2.5523946 -0.93992513 3 2 -0.081847169
4.1398315 -2.5748138 -0.77216065 18 3 -0.081842564
5.3800211 -3.3474655 0.77801394 94 11 -0.081840262
4.2351265 -2.6361341 -0.61251533 3 4 -0.081837952
5.3380151 -3.3226218 0.99586189 85 12 -0.08183565
5.3935509 -3.3584957 -0.55587929 32 5 -0.081833348
5.2841077 -3.2916272 1.2101108 78 13 -0.081831045
5.3733516 -3.3485212 -0.33181 59 6 -0.081828743
6.1815524 -3.853668 1.6817341 71 14 -0.081826434
5.2367778 -3.2646818 -0.10771625 3 7 -0.081824131
6.2355013 -3.8888113 1.9690953 1 15 -0.081821829
2.9135873 -1.8227333 -0.92087817 12 0 -0.081801094
5.2943683 -3.3121443 0.10900773 5 8 -0.081798784
3.4458718 -2.1565661 -0.93849587 1 1 -0.081796482
5.3544765 -3.352349 0.33107728 12 9 -0.08179418
4.0947199 -2.5646307 -0.93916196 3 2 -0.081791878
5.3318129 -3.3407507 0.55047566 25 10 -0.081789568
4.1362925 -2.5916743 -0.77309924 16 3 -0.081787266
5.3318872 -3.3420935 0.77265167 87 11 -0.081784964
4.2078619 -2.6385634 -0.60983425 12 4 -0.081782661
5.384953 -3.3779743 1.0068123 91 12 -0.081780359
5.3746018 -3.3727887 1.2333894 67 13 -0.081775747
5.3689847 -3.3705697 -0.33222869 59 6 -0.081773445
6.1175809 -3.8420167 1.6677872 78 14 -0.081771143
5.2118039 -3.2744308 -0.10743701 2 7 -0.081768833
2.9091613 -1.8334152 -0.92139584 9 0 -0.081745796
5.3775024 -3.3903275 0.1109624 30 8 -0.081743494
3.425137 -2.1602647 -0.93489659 1 1 -0.081741184
4.9643755 -3.1322877 0.30763078 2 9 -0.081738882
4.1061172 -2.5907669 -0.94374132 1 2 -0.08173658
5.3813591 -3.3966978 0.55675089 67 10 -0.081734277
4.1372418 -2.6124246 -0.77497649 16 3 -0.081731975
5.3386502 -3.3723469 0.77533287 85 11 -0.081729665
4.2086949 -2.6595984 -0.61129665 31 4 -0.081727363
5.3664503 -3.3925285 1.0055609 91 12 -0.081725061
5.0769734 -3.2107694 -0.52554911 1 5 -0.081722759
5.3495221 -3.3831341 1.2303365 70 13 -0.081720449
5.3926301 -3.4117148 -0.33442679 69 6 -0.081718147
6.0530868 -3.8310394 1.6538402 78 14 -0.081715845
5.2949553 -3.3525078 -0.10939168 6 7 -0.081713542
2.8877466 -1.8347415 -0.91673708 9 0 -0.081690498
5.3639479 -3.4080057 0.1109275 27 8 -0.081688195
3.4340219 -2.1826606 -0.93939561 1 1 -0.081685893
4.9871197 -3.1710305 0.30972421 48 9 -0.081683591
4.0634632 -2.5847251 -0.93610895 1 2 -0.081681281
5.3503833 -3.4046326 0.55483341 27 10 -0.081678979
4.1309719 -2.6296923 -0.77560216 16 3 -0.081676677
5.3335443 -3.3952253 0.77630776 87 11 -0.081674375
4.2378964 -2.6987977 -0.61690265 84 4 -0.081672065
5.3595729 -3.4144249 1.0064995 87 12 -0.081669763
4.7280192 -3.0132406 -0.49051252 11 5 -0.081667461
5.3768163 -3.4280486 1.2394953 71 13 -0.081665158
5.3868251 -3.4357526 -0.33484548 68 6 -0.081662849
6.0012193 -3.8290911 1.6434923 53 14 -0.081660546
5.3506522 -3.4139953 -0.11078788 10 7 -0.081658244
5.969717 -3.810457 1.8976613 5 15 -0.081655942
2.8845787 -1.8468941 -0.91777241 11 0 -0.081635207
5.3699436 -3.4395065 0.11131145 45 8 -0.081632897
3.409591 -2.1847188 -0.93489659 1 1 -0.081630595
5.0006857 -3.2054555 0.31129432 58 9 -0.081628293
4.0610275 -2.6031315 -0.93763542 1 2 -0.081625991
5.356915 -3.4351184 0.55675089 37 10 -0.081623681
4.1184421 -2.6419632 -0.77497649 15 3 -0.081621379
5.3711843 -3.4469151 0.78361994 94 11 -0.081619076
4.2329879 -2.7175303 -0.61763388 100 4 -0.081616774
5.2838621 -3.3934815 0.99461043 78 12 -0.081614465
4.7577066 -3.0555658 -0.49469596 8 5 -0.081612162
5.3714242 -3.4510412 1.2410218 66 13 -0.08160986
5.3613582 -3.4458966 -0.33400813 65 6 -0.081607558
5.3616614 -3.4474137 1.4716297 21 14 -0.081605248
5.3599663 -3.4476459 -0.11124164 13 7 -0.081602946
5.2051549 -3.3493526 1.6585126 1 15 -0.081600644
2.8813608 -1.8590462 -0.91880763 10 0 -0.081579909
5.3579044 -3.4582305 0.11131145 45 8 -0.081577606
3.4052184 -2.1987216 -0.93579644 2 1 -0.081575297
4.9894667 -3.2228913 0.31129432 42 9 -0.081572995
4.0519161 -2.617291 -0.93763542 1 2 -0.081570692
4.9901276 -3.2245529 0.51979685 92 10 -0.08156839
4.1191483 -2.6627574 -0.77685362 15 3 -0.08156608
5.3741217 -3.4753451 0.78581363 98 11 -0.081563778
4.2284765 -2.7355237 -0.61836511 75 4 -0.081561476
5.3565621 -3.4666417 1.0105668 91 12 -0.081559174
4.9795117 -3.2226236 -0.51892531 1 5 -0.081556864
5.3626413 -3.4719038 1.241785 66 13 -0.081554562
5.3727665 -3.4797907 -0.33547351 65 6 -0.08155226
5.3937526 -3.4947188 1.4837772 5 14 -0.081549957
5.8466635 -3.7910669 1.8671206 43 15 -0.081545345
2.8764737 -1.8701459 -0.91932529 9 0 -0.081524611
4.9669504 -3.2305079 0.10342296 61 8 -0.081522308
3.3942556 -2.2084689 -0.93489659 1 1 -0.081520006
4.9820991 -3.2415977 0.31150365 46 9 -0.081517696
4.0559187 -2.639987 -0.94068843 1 2 -0.081515394
4.9671535 -3.2343419 0.51857668 100 10 -0.081513092
4.1131387 -2.679276 -0.77747941 15 3 -0.08151079
5.330358 -3.473491 0.78118259 91 11 -0.08150848
4.1856427 -2.728586 -0.61349034 24 4 -0.081506178
5.3648944 -3.4973304 1.0143212 91 12 -0.081503876
4.5810533 -2.9874909 -0.47848502 5 5 -0.081501573
5.3636432 -3.4991837 1.2448379 67 13 -0.081499271
4.5610991 -2.976747 -0.28544036 20 6 -0.081496961
5.8335161 -3.8086271 1.6084001 61 14 -0.081494659
4.6029792 -3.0052254 -0.09595333 40 7 -0.081492357
5.8065629 -3.7924755 1.8583208 45 15 -0.081490055
2.8683121 -1.8791167 -0.91880763 9 0 -0.081469312
4.9612288 -3.2502487 0.10352767 54 8 -0.08146701
3.3706148 -2.2090304 -0.93039757 1 1 -0.081464708
4.9757648 -3.2622542 0.31181765 44 9 -0.081462406
4.0335455 -2.6455147 -0.93763542 1 2 -0.081460103
4.9808207 -3.2680559 0.52119136 70 10 -0.081457794
4.3932614 -2.8825417 -0.83223146 9 3 -0.081455491
5.3520007 -3.5129333 0.78605735 100 11 -0.081453189
4.2296705 -2.7773175 -0.62128997 21 4 -0.081450887
5.3576069 -3.5192897 1.0152597 97 12 -0.081448577
4.547287 -2.9881451 -0.47604465 16 5 -0.081446275
5.3684173 -3.5277324 1.2486541 65 13 -0.081443973
4.5244989 -2.9743016 -0.28376558 24 6 -0.081441671
5.7752643 -3.7979696 1.5958028 73 14 -0.081439361
4.5757551 -3.0102842 -0.095604278 42 7 -0.081437059
5.7400365 -3.7776735 1.8412387 24 15 -0.081434757
2.8556151 -1.8843617 -0.91673708 11 0 -0.081414022
4.9665418 -3.278563 0.10387672 38 8 -0.081411719
3.3791447 -2.2315216 -0.93489659 1 1 -0.08140941
4.9660134 -3.280704 0.31192234 34 9 -0.081407107
3.9788842 -2.6285756 -0.92695016 1 2 -0.081404805
4.9882407 -3.2966387 0.52310878 100 10 -0.081402503
4.6056275 -3.0449312 -0.87446874 43 3 -0.081400193
4.9638567 -3.2830138 0.73072863 89 11 -0.081397891
4.5146351 -2.9870386 -0.66467547 15 4 -0.081395589
5.2958722 -3.5052614 1.0058737 78 12 -0.081393287
4.4941554 -2.9746168 -0.47151256 17 5 -0.081390977
5.3658924 -3.5529532 1.2509438 61 13 -0.081388675
4.4924426 -2.9757388 -0.28240484 23 6 -0.081386372
5.7262335 -3.7944245 1.585905 76 14 -0.08138407
4.5652189 -3.0262382 -0.095604278 42 7 -0.081381761
5.6398749 -3.7400334 1.8132863 15 15 -0.081379458
2.8522377 -1.8964576 -0.91777241 11 0 -0.081358723
4.9267621 -3.2770526 0.10328334 9 8 -0.081356421
3.3908033 -2.2562582 -0.94029546 1 1 -0.081354119
4.5471959 -3.0268729 0.28627771 11 9 -0.081351809
4.0513988 -2.6968422 -0.94603103 1 2 -0.081349507
4.953486 -3.2985704 0.52066839 65 10 -0.081347205
4.5900383 -3.057704 -0.87353015 50 3 -0.081344903
4.9771447 -3.3168337 0.73438478 73 11 -0.081342593
4.4843597 -2.9895658 -0.66175061 15 4 -0.081340291
5.3476977 -3.5664713 1.0180756 91 12 -0.081337988
4.447278 -2.965966 -0.46767771 17 5 -0.081335686
5.3877535 -3.5945439 1.2589579 52 13 -0.081333376
4.4504647 -2.9703357 -0.28041607 24 6 -0.081331074
5.6772985 -3.7905834 1.5760071 78 14 -0.081328772
5.4356375 -3.6319771 1.7516873 8 15 -0.08132416
2.8359706 -1.8999506 -0.91466653 10 0 -0.081303425
4.5348935 -3.0392864 0.095290139 42 8 -0.081301123
3.3375857 -2.2376947 -0.92769814 1 1 -0.081298821
4.5537224 -3.0530574 0.28732443 46 9 -0.081296518
5.0147386 -3.3646851 0.52833807 100 10 -0.081291907
4.5596552 -3.0604968 -0.86977577 10 3 -0.081289604
4.9984975 -3.356319 0.73925954 100 11 -0.081287302
4.4310536 -2.9764216 -0.65541339 16 4 -0.081284992
5.3243637 -3.5764749 1.0158856 78 12 -0.08128269
4.4137464 -2.9659142 -0.46523735 17 5 -0.081280388
5.4419761 -3.6582351 1.2746042 77 13 -0.081278086
4.3986354 -2.9579892 -0.27779928 21 6 -0.081275776
5.6381617 -3.792974 1.5688087 21 14 -0.081273474
4.4847841 -3.0170593 -0.094347708 7 7 -0.081271172
5.3850989 -3.6240957 1.739264 8 15 -0.081268869
2.8405297 -1.9174045 -0.91829002 14 0 -0.081248134
4.5281053 -3.0565457 0.095359951 44 8 -0.081245825
3.3527567 -2.2640181 -0.93399686 1 1 -0.081243522
4.5893779 -3.1002386 0.29025525 1 9 -0.08124122
3.9511402 -2.6700974 -0.92695016 1 2 -0.081238918
5.0112166 -3.3877485 0.52920967 100 10 -0.081236608
4.4365625 -2.9992633 -0.8481878 1 3 -0.081234306
4.954453 -3.3506348 0.73438478 94 11 -0.081232004
4.3784108 -2.9621782 -0.64907616 15 4 -0.081229702
4.9764824 -3.3680651 0.95174736 100 12 -0.081227392
4.3769693 -2.9634309 -0.46244836 17 5 -0.08122509
5.5094738 -3.7301941 1.2933035 57 13 -0.081222787
4.3557286 -2.9501591 -0.27570584 22 6 -0.081220485
5.5803804 -3.7810428 1.5562114 80 14 -0.081218183
4.9261169 -3.3389952 -0.10387672 59 7 -0.081215873
5.3532281 -3.6298611 1.7330524 8 15 -0.081213571
2.8405461 -1.9311579 -0.92036057 20 0 -0.081192836
3.331944 -2.266938 -0.93039757 1 1 -0.081188224
3.9422641 -2.6831851 -0.92695016 1 2 -0.08118362
5.0114827 -3.4121971 0.53042984 100 10 -0.081181318
4.452188 -3.0325241 -0.8531937 1 3 -0.081179008
4.9361649 -3.3634374 0.73340976 82 11 -0.081176706
4.3352385 -2.9550819 -0.6442014 16 4 -0.081174403
5.0022321 -3.4110124 0.95894337 78 12 -0.081172101
4.3341956 -2.9554799 -0.45896214 16 5 -0.081169799
4.3140593 -2.9439547 -0.27371708 25 6 -0.081165187
5.5188637 -3.7675376 1.5427144 52 14 -0.081162885
4.9193859 -3.3595533 -0.10398144 29 7 -0.081160583
5.3038368 -3.6234603 1.7211467 13 15 -0.081158273
2.8242249 -1.9345114 -0.91725475 10 0 -0.081137538
5.2852583 -3.6216021 0.11183503 2 8 -0.081135236
3.3175814 -2.2741477 -0.92859799 1 1 -0.081132933
3.932874 -2.6969297 -0.92695016 1 2 -0.081128322
4.9896832 -3.4229074 0.52938396 52 10 -0.081126019
4.4546051 -3.0569885 -0.85569662 2 3 -0.081123717
4.9538527 -3.4008706 0.73779708 91 11 -0.081121415
4.3118062 -2.9612067 -0.64225149 15 4 -0.081119105
4.9691296 -3.4139109 0.95487607 100 12 -0.081116803
4.2975779 -2.952539 -0.45617315 16 5 -0.081114501
5.0027618 -3.438303 1.1799629 61 13 -0.081112199
4.2774243 -2.9408913 -0.27204233 25 6 -0.081109889
4.912571 -3.3801048 -0.10408615 90 7 -0.081105284
5.276835 -3.6320949 1.716488 9 15 -0.081102982
2.8762846 -1.9849567 -0.93640739 5 0 -0.081082247
5.3548665 -3.6968341 0.11358026 2 8 -0.081079938
3.3256576 -2.2967887 -0.933097 1 1 -0.081077635
3.9234359 -2.7106416 -0.92695016 1 2 -0.081073031
5.0072074 -3.4606936 0.53252155 35 10 -0.081070721
4.5072756 -3.1163325 -0.86789852 68 3 -0.081068419
4.9990921 -3.4576645 0.74632788 85 11 -0.081066117
4.2753243 -2.9581676 -0.63835168 18 4 -0.081063814
4.9295697 -3.4121232 0.9495573 53 12 -0.081061505
4.2544813 -2.944844 -0.45268691 16 5 -0.081059203
4.9875007 -3.4535096 1.1791997 71 13 -0.0810569
4.2408628 -2.937608 -0.27036759 24 6 -0.081054598
5.2185273 -3.6161747 1.4657811 3 14 -0.081052288
4.3041735 -2.9836862 -0.091415711 65 7 -0.081049986
5.1815743 -3.5932465 1.6895708 1 15 -0.081047684
2.8851998 -2.0060129 -0.94158375 4 0 -0.081026949
5.2598462 -3.658412 0.11183503 2 8 -0.081024647
3.3176205 -2.308383 -0.933097 1 1 -0.081022337
3.9139502 -2.7243204 -0.92695016 1 2 -0.081017733
5.0179877 -3.4940903 0.53496194 30 10 -0.08101543
4.2921371 -2.989784 -0.82847708 21 3 -0.081013121
5.0049081 -3.4875774 0.74900907 80 11 -0.081010818
4.2356596 -2.9526396 -0.63396436 18 4 -0.081008516
4.9775805 -3.471117 0.96113342 100 12 -0.081006214
4.2147593 -2.9391632 -0.44954932 16 5 -0.081003904
4.9786358 -3.4731448 1.1799629 55 13 -0.081001602
4.1929121 -2.9261041 -0.26796013 22 6 -0.0809993
5.1851001 -3.6198671 1.4599323 13 14 -0.080996998
5.2038403 -3.635653 1.7009588 3 15 -0.080992386
2.8797619 -2.0171802 -0.94210136 4 0 -0.080973625
3.2903936 -2.3065267 -0.92769814 1 1 -0.080969021
3.9044166 -2.7379663 -0.92695016 1 2 -0.080964409
5.0073915 -3.5127292 0.53513628 15 10 -0.080962107
4.2040615 -2.9502807 -0.81345934 20 3 -0.080959804
5.0121999 -3.5187137 0.75193387 84 11 -0.080957495
4.1895885 -2.9423077 -0.62860215 16 4 -0.080955192
4.9848299 -3.5020978 0.96488786 47 12 -0.08095289
4.1718678 -2.9309504 -0.44606307 16 5 -0.080950588
4.9680886 -3.4916308 1.1803445 79 13 -0.080948278
4.1548972 -2.9211943 -0.26618072 24 6 -0.080945976
4.9779682 -3.5011711 1.4050443 95 14 -0.080943674
4.1769342 -2.9388676 -0.089146897 4 7 -0.080941372
5.0552578 -3.5581694 1.6564419 43 15 -0.080939062
2.8742816 -2.0283339 -0.94261903 5 0 -0.080918327
4.2245893 -2.9823289 0.090263851 2 8 -0.080916025
3.275955 -2.3135016 -0.92589855 2 1 -0.080913723
4.2281895 -2.9870825 0.27130961 7 9 -0.08091142
3.8948357 -2.7515783 -0.92695016 1 2 -0.080909111
5.0910964 -3.5980308 0.54542065 2 10 -0.080906808
4.1630902 -2.9432707 -0.80751479 21 3 -0.080904506
5.0112319 -3.5442123 0.75364012 100 11 -0.080902204
4.1420207 -2.9305441 -0.62299615 18 4 -0.080899894
5.0064359 -3.5434422 0.9714582 85 12 -0.080897592
4.148602 -2.9362869 -0.44466859 33 5 -0.08089529
4.9895177 -3.5327754 1.1883584 46 13 -0.080892988
4.1300068 -2.9252896 -0.26523864 46 6 -0.080890678
4.951406 -3.5083864 1.4009951 100 14 -0.080888376
4.138916 -2.9337707 -0.088553511 6 7 -0.080886073
4.9908023 -3.5389187 1.6393598 60 15 -0.080883771
2.8577368 -2.0316386 -0.93951315 4 0 -0.080863036
4.2141533 -2.9970572 0.090263851 10 8 -0.080860727
3.2932653 -2.3429983 -0.933097 1 1 -0.080858424
4.207974 -2.9948747 0.27068159 17 9 -0.080856122
3.9107993 -2.7833714 -0.93305606 1 2 -0.08085382
4.1656632 -2.966953 -0.81001776 43 3 -0.080849208
5.0376306 -3.5893288 0.75948983 98 11 -0.080846906
4.1446981 -2.9542017 -0.62494606 40 4 -0.080844603
4.9908195 -3.5586021 0.97083241 85 12 -0.080842294
4.1253495 -2.9414964 -0.44327411 37 5 -0.080839992
5.0011306 -3.5672717 1.1940827 41 13 -0.080837689
4.1262732 -2.944329 -0.26565734 46 6 -0.080835387
4.9359574 -3.5233846 1.4000953 60 14 -0.080833085
4.0912204 -2.9214725 -0.087750703 6 7 -0.080830775
4.9737029 -3.5529494 1.6378069 43 15 -0.080828473
2.8443453 -2.0371025 -0.93744266 5 0 -0.080807738
4.1792827 -2.9942796 0.089740276 14 8 -0.080805436
3.2660596 -2.3408566 -0.92769814 1 1 -0.080803126
3.9202061 -2.8107336 -0.93763542 1 2 -0.080798522
4.1440463 -2.9734147 -0.80782765 46 3 -0.08079391
5.0170074 -3.6011033 0.7582711 96 11 -0.080791607
4.1375852 -2.9709671 -0.62543356 40 4 -0.080789305
4.9735537 -3.5725448 0.96989381 47 12 -0.080787003
4.1134377 -2.9547164 -0.44309977 39 5 -0.080784701
4.6649995 -3.3521423 1.1166143 16 13 -0.080782391
4.1289444 -2.96804 -0.26649469 48 6 -0.080780089
4.5882144 -3.2993953 1.3047161 15 14 -0.080777787
4.0680113 -2.9263935 -0.087471463 1 7 -0.080775484
4.9095254 -3.5330513 1.6207249 16 15 -0.080773175
2.834084 -2.0447578 -0.93640739 5 0 -0.08075244
3.2610288 -2.3545244 -0.92859799 1 1 -0.080747835
3.865808 -2.7922137 -0.92695016 1 2 -0.080743223
4.1288395 -2.9843905 -0.80688912 45 3 -0.080738619
5.0027981 -3.6174312 0.75802737 73 11 -0.080736317
4.1368399 -2.9923728 -0.6268959 42 4 -0.080734007
4.5657692 -3.3038516 0.8926152 38 12 -0.080731705
4.1208544 -2.9819055 -0.44501722 42 5 -0.080729403
4.5467191 -3.2912753 1.091046 18 13 -0.0807271
4.1379704 -2.9964919 -0.26775077 18 6 -0.080724791
4.5372152 -3.2868104 1.2934686 18 14 -0.080722488
5.0848541 -3.686233 1.6828415 39 15 -0.080717884
2.8363054 -2.0614526 -0.93951315 3 0 -0.080697142
4.1566596 -3.0222073 0.08970537 2 8 -0.080694839
3.23703 -2.3544302 -0.92409897 1 1 -0.080692537
3.836988 -2.7918298 -0.92237073 1 2 -0.080687933
4.1279778 -3.0057609 -0.80876625 46 3 -0.080683321
4.9660721 -3.6173406 0.75437129 45 11 -0.080681019
4.1263695 -3.0067947 -0.6268959 45 4 -0.080678716
4.5286679 -3.3011508 0.88760924 39 12 -0.080676407
4.1233006 -3.0056603 -0.4464117 42 5 -0.080674104
4.506649 -3.2863047 1.0841768 18 13 -0.080671802
4.4926567 -3.2785046 1.2840205 16 14 -0.08066719
5.0563545 -3.6925666 1.6776651 3 15 -0.080662586
2.8353271 -2.0759058 -0.94158375 5 0 -0.080641851
3.2413673 -2.3749297 -0.92769814 1 1 -0.080637239
3.8113849 -2.7935998 -0.91855454 1 2 -0.080632634
4.1302037 -3.0294991 -0.81126922 49 3 -0.080628023
4.919805 -3.6099918 0.7492528 45 11 -0.08062572
4.1222501 -3.0258787 -0.62787092 43 4 -0.080623418
4.4677587 -3.2806947 0.87791038 34 12 -0.080621116
4.1256309 -3.0294688 -0.44780618 45 5 -0.080618806
4.477746 -3.2892313 1.0799789 18 13 -0.080616504
4.454493 -3.274545 1.2763723 20 14 -0.080611899
5.0325408 -3.7021809 1.6740416 5 15 -0.080607288
2.8125162 -2.0743237 -0.93640739 4 0 -0.080586553
3.2361939 -2.3885443 -0.92859799 1 1 -0.080581948
3.867945 -2.855865 -0.93458253 1 2 -0.080577336
4.1386681 -3.0579841 -0.8150236 47 3 -0.080572732
4.7283835 -3.4949896 0.72195405 100 11 -0.080570422
4.1212392 -3.0473306 -0.62933332 42 4 -0.08056812
4.437222 -3.2821729 0.87415588 34 12 -0.080565818
4.1150312 -3.0438514 -0.44780618 44 5 -0.080563515
4.4409862 -3.2861571 1.073873 18 13 -0.080561206
4.4211102 -3.2738385 1.2700737 20 14 -0.080556601
4.9792318 -3.6898205 1.660583 58 15 -0.080551997
2.8037076 -2.0829766 -0.93588972 4 0 -0.080531254
3.2278364 -2.3998263 -0.92859799 1 1 -0.08052665
3.8768563 -2.883409 -0.93916196 1 2 -0.080522038
4.1232147 -3.0688739 -0.81408507 36 3 -0.080517434
4.9183664 -3.6620328 0.75290889 45 11 -0.080515131
4.123313 -3.0711844 -0.63128328 42 4 -0.080512822
4.4083138 -3.2846591 0.87071437 35 12 -0.080510519
4.3917098 -3.2734797 1.0647143 19 13 -0.080505915
4.3784146 -3.2659476 1.2610756 22 14 -0.080501303
4.9492931 -3.6944666 1.6548891 22 15 -0.080496699
2.7886863 -2.0869627 -0.93330151 4 0 -0.080475964
4.1396704 -3.0991237 0.090263851 2 8 -0.080473654
3.1882434 -2.3877156 -0.91959995 1 1 -0.080471352
3.8667674 -2.8969243 -0.93916196 1 2 -0.080466747
4.9801931 -3.7351589 0.7643646 96 11 -0.080459833
4.1268582 -3.0962813 -0.63347691 39 4 -0.080457531
4.3747029 -3.283426 0.86633414 37 12 -0.080455229
4.3519969 -3.2675712 1.0578451 18 13 -0.080450617
4.3467345 -3.2659934 1.255227 22 14 -0.080446012
4.9085732 -3.6908224 1.6455716 52 15 -0.0804414
2.8029814 -2.1129651 -0.94054842 5 0 -0.080420665
4.1416001 -3.1231868 0.090543084 2 8 -0.080418363
3.1705551 -2.3917885 -0.91690052 1 1 -0.080416054
3.8691685 -2.9198649 -0.94221485 1 2 -0.080411449
4.929111 -3.7238019 0.75851488 98 11 -0.080404535
4.1181517 -3.1111455 -0.63372064 40 4 -0.080402233
4.3306961 -3.2729039 0.85976392 37 12 -0.08039993
4.3123789 -3.2614267 1.050976 18 13 -0.080395319
4.2985816 -3.2521713 1.2444292 22 14 -0.080390714
2.7913427 -2.1187444 -0.93899554 4 0 -0.080365367
3.1905391 -2.4235065 -0.9249987 1 1 -0.080360763
3.8407068 -2.9184258 -0.93763542 1 2 -0.080356151
4.8851371 -3.7160897 0.75364012 85 11 -0.080349244
4.1141319 -3.1295917 -0.63469559 42 4 -0.080346934
4.2868071 -3.2621262 0.8531937 38 12 -0.080344632
4.2827964 -3.2614357 1.0463966 18 13 -0.080340028
4.2660713 -3.2498753 1.2381306 22 14 -0.080335416
4.4215522 -3.3707595 1.4897624 1 15 -0.080330811
2.7720222 -2.1186044 -0.93485445 4 0 -0.080310076
3.1731975 -2.4269705 -0.92229939 1 1 -0.080305465
3.8310077 -2.9311459 -0.93763542 1 2 -0.08030086
4.8459959 -3.7117491 0.74949652 84 11 -0.080293946
4.1031828 -3.1439338 -0.63469559 42 4 -0.080291644
4.2393351 -3.2494307 0.84599775 33 12 -0.080289334
3.7044992 -2.8405082 -0.4084118 1 5 -0.080287032
4.2579365 -3.2648685 1.042962 18 13 -0.08028473
4.2315102 -3.2469521 1.2313821 22 14 -0.080280118
4.4281454 -3.4002924 1.4959742 1 15 -0.080275513
2.7565856 -2.1228566 -0.93226624 4 0 -0.080254778
3.1832316 -2.4523034 -0.92769814 1 1 -0.080250166
3.7767034 -2.9116044 -0.92695016 1 2 -0.080245562
4.5528574 -3.5125055 -0.91076159 1 3 -0.08024095
4.8094344 -3.7104533 0.74584043 85 11 -0.080238648
4.1126127 -3.1740043 -0.63786417 39 4 -0.080236346
4.2201481 -3.2581728 0.84443337 38 12 -0.080234043
4.2133164 -3.2552462 1.034948 18 13 -0.080229431
4.1995397 -3.246944 1.2255334 22 14 -0.080224827
4.4223623 -3.4204559 1.4980446 1 15 -0.080220215
2.7567911 -2.1383862 -0.93485445 4 0 -0.08019948
3.1557493 -2.449615 -0.92229939 1 1 -0.080194876
3.7665169 -2.9247696 -0.92695016 1 2 -0.080190264
4.5231004 -3.5160689 0.70342994 59 11 -0.08018335
4.116622 -3.2012424 -0.64030159 36 4 -0.080181047
4.1900368 -3.2583325 0.84067887 35 12 -0.080178745
4.1709399 -3.2458191 1.0273157 18 13 -0.080174141
4.1697297 -3.247215 1.2201345 22 14 -0.080169529
3.5672102 -2.7779975 -0.078919783 6 7 -0.080167226
4.3951559 -3.424 1.4928683 1 15 -0.080164924
2.7523544 -2.1503749 -0.93588972 5 0 -0.080144182
3.1322546 -2.448066 -0.91780037 1 1 -0.080139577
3.7562847 -2.9378996 -0.92695016 1 2 -0.080134973
3.95632 -3.0954666 -0.79562581 1 3 -0.080130361
4.5082889 -3.5286014 0.70294243 78 11 -0.080128059
4.0997319 -3.209981 -0.63932663 37 4 -0.080125757
4.158421 -3.2571037 0.83661157 31 12 -0.080123447
4.1385183 -3.2426805 1.021973 19 13 -0.080118842
4.1282682 -3.2369757 1.2111365 22 14 -0.080114231
3.562212 -2.7941349 -0.079024501 4 7 -0.080111928
4.4226923 -3.4703274 1.5063269 1 15 -0.080109626
2.74369 -2.1582959 -0.93537205 4 0 -0.080088891
3.1298149 -2.4638062 -0.91959995 1 1 -0.080084279
3.7465217 -2.9503396 -0.92695016 1 2 -0.080079675
3.973418 -3.1312656 -0.80125743 1 3 -0.080075063
4.4912677 -3.5406299 0.7022112 84 11 -0.080072761
4.0947366 -3.2291889 -0.64030159 36 4 -0.080070458
4.1212287 -3.2500811 0.83129281 35 12 -0.080068156
4.105598 -3.2400794 1.0166303 18 13 -0.080063544
4.0863576 -3.2272103 1.2021384 22 14 -0.08005894
3.5497878 -2.8034532 -0.078954689 2 7 -0.08005663
4.438446 -3.5065312 1.5156444 1 15 -0.080054328
2.7315969 -2.1642611 -0.93381917 4 0 -0.080033593
3.1155188 -2.4693296 -0.91780037 1 1 -0.080028988
3.7362001 -2.9633996 -0.92695016 1 2 -0.080024377
3.9165888 -3.1075907 -0.79187137 1 3 -0.080019772
4.4763923 -3.5530355 0.70172375 84 11 -0.080017462
4.0933337 -3.2501564 -0.64176404 39 4 -0.08001516
4.0773754 -3.2386458 0.82472259 34 12 -0.080012858
3.6704671 -2.9164848 -0.41015494 1 5 -0.080010556
4.076386 -3.2390201 1.012051 18 13 -0.080008246
4.052753 -3.2225504 1.1953899 19 14 -0.080003642
3.5900598 -2.8556626 -0.080071643 7 7 -0.080001339
4.4171085 -3.5147858 1.5125386 1 15 -0.07999903
2.7198744 -2.169693 -0.93226624 4 0 -0.079978295
3.1190639 -2.4899158 -0.92139953 1 1 -0.07997369
3.8378191 -3.0669818 -0.77810514 1 3 -0.079964474
4.4701648 -3.5735979 0.70269871 84 11 -0.079962172
4.0974669 -3.2768233 -0.6442014 37 4 -0.079959862
4.049078 -3.239285 0.82128108 35 12 -0.07995756
4.0973806 -3.2790995 -0.45913643 11 5 -0.079955257
4.0374637 -3.2311485 1.0051818 18 13 -0.079952955
4.026269 -3.2244961 1.1908909 19 14 -0.079948343
3.5675843 -2.8581743 -0.079792403 22 7 -0.079946041
4.4078274 -3.5325987 1.5135738 1 15 -0.079943739
2.710398 -2.178437 -0.93174857 4 0 -0.079923004
3.0890913 -2.4836931 -0.91510093 1 1 -0.079918392
3.7927022 -3.0537727 -0.771222 3 3 -0.079909176
4.4437475 -3.5779753 0.70050502 82 11 -0.079906873
4.0937333 -3.2973325 -0.64542013 43 4 -0.079904571
4.0146737 -3.2348082 0.81658798 28 12 -0.079902261
4.0657434 -3.277128 -0.45687038 2 5 -0.079899959
3.9965558 -3.2225108 0.99793106 24 13 -0.079897657
4.0854154 -3.2953377 -0.27507779 28 6 -0.079895355
3.9947081 -3.2233226 1.1850421 21 14 -0.079893053
3.5357988 -2.8530295 -0.079303734 22 7 -0.079890743
4.4014826 -3.5528173 1.5156444 1 15 -0.079888441
2.7012761 -2.1866693 -0.93123102 3 0 -0.079867706
3.0708818 -2.4876385 -0.9124015 1 1 -0.079863094
3.7789509 -3.0645051 -0.77059627 6 3 -0.079853877
4.4213538 -3.5867348 0.69904256 85 11 -0.079851575
4.0862446 -3.3160665 -0.6461513 18 4 -0.079849273
3.9859207 -3.235806 0.81314647 35 12 -0.079846971
4.0790286 -3.3113921 -0.45965937 30 5 -0.079844669
3.9700422 -3.2240655 0.99411488 19 13 -0.079842359
4.09094 -3.323431 -0.2762292 20 6 -0.079840057
3.9607472 -3.218812 1.1782937 21 14 -0.079837754
3.5098014 -2.8533556 -0.078954689 22 7 -0.079835452
3.9717703 -3.2300727 1.3717409 1 15 -0.079833142
2.6966212 -2.1985269 -0.93226624 3 0 -0.079812407
3.9857073 -3.2506635 0.089775175 2 8 -0.079810105
3.0712395 -2.5057344 -0.91510093 1 1 -0.079807803
3.9905493 -3.2569325 0.2699489 10 9 -0.079805501
3.542362 -2.8911393 -0.88878828 1 2 -0.079803191
3.7345729 -3.0501869 -0.76371318 1 3 -0.079798587
4.4118814 -3.6046584 0.69953007 85 11 -0.079796284
3.9394279 -3.2209415 0.80595046 31 12 -0.079791673
4.0797844 -3.3356996 -0.46105388 8 5 -0.07978937
3.9283707 -3.2130449 0.9864825 21 13 -0.079787068
4.0870428 -3.3440149 -0.27675256 6 6 -0.079784758
3.917819 -3.2066979 1.1688457 21 14 -0.079782456
3.4750643 -2.84532 -0.078396209 21 7 -0.079780154
3.9529984 -3.2377965 1.3691529 18 15 -0.079777852
2.6799722 -2.2005706 -0.92916042 5 0 -0.079757117
3.0715079 -2.5238631 -0.91780037 1 1 -0.079752505
3.9652698 -3.2594283 0.26900685 57 9 -0.079750203
3.7040703 -3.0468907 -0.75964588 11 3 -0.079743288
4.4008045 -3.6212983 0.69977379 84 11 -0.079740986
3.7166209 -3.0593905 -0.59106636 1 4 -0.079738684
3.9083371 -3.2183485 0.80188316 35 12 -0.079736374
3.6959107 -3.0434244 -0.41887048 1 5 -0.079734072
3.9080393 -3.2192485 0.98419291 19 13 -0.07973177
4.153954 -3.423038 -0.28209084 1 6 -0.079729468
3.8870535 -3.2042398 1.1629969 21 14 -0.079727158
3.4435122 -2.8396215 -0.07790754 23 7 -0.079724856
3.9148479 -3.2294476 1.3598353 20 15 -0.079722553
2.6707854 -2.2086811 -0.92864275 4 0 -0.079701819
3.9475088 -3.2656634 0.08942613 126 8 -0.079699516
3.0506685 -2.5246296 -0.91420108 1 1 -0.079697207
3.9523299 -3.2719758 0.26890215 100 9 -0.079694904
4.1845746 -3.4654729 0.47534743 15 10 -0.0796903
3.6629887 -3.0345976 -0.75338852 25 3 -0.07968799
4.3896661 -3.6379044 0.70001757 85 11 -0.079685688
3.8833942 -3.2206225 0.79906738 37 12 -0.079681084
4.0594649 -3.3666439 -0.46140248 17 5 -0.079678774
3.8665583 -3.2077994 0.97656047 18 13 -0.079676472
3.8593526 -3.2040963 1.158048 21 14 -0.079671867
3.4135809 -2.8350158 -0.077453777 24 7 -0.079669565
3.8515434 -3.1998849 1.341718 18 15 -0.079667255
2.6675129 -2.2216992 -0.93019569 5 0 -0.079647303
3.9176495 -3.2640626 0.089007273 48 8 -0.079645
3.0358498 -2.530272 -0.9124015 1 1 -0.079642698
3.9475951 -3.290179 0.26932088 38 9 -0.079640388
3.6626823 -3.0537984 -0.92695016 1 2 -0.079638086
4.2061133 -3.5081341 0.47918224 58 10 -0.079635784
3.6569235 -3.0511615 -0.75432706 1 3 -0.079633482
4.3754163 -3.6519327 0.69977379 100 11 -0.079631172
4.079165 -3.4058754 -0.65248853 16 4 -0.07962887
3.8514643 -3.2157583 0.79468721 37 12 -0.079626568
4.0782719 -3.4063375 -0.46488872 38 5 -0.079624265
3.8342459 -3.2036533 0.97121781 18 13 -0.079621956
3.8302045 -3.2025478 1.1526492 21 14 -0.079617351
3.3918881 -2.8360586 -0.077174544 27 7 -0.079615049
3.808311 -3.1853716 1.33033 20 15 -0.079612739
2.6627018 -2.2334802 -0.93123102 5 0 -0.079592004
4.3618312 -3.6587141 0.099374004 24 8 -0.079589702
3.0363991 -2.5478413 -0.91510093 1 1 -0.0795874
4.3751283 -3.6724699 0.29936171 60 9 -0.079585098
3.6520004 -3.066565 -0.92695016 1 2 -0.079582788
4.1953678 -3.5240767 0.47935659 60 10 -0.079580486
4.3404856 -3.6472666 0.69611776 100 11 -0.079575881
4.0754461 -3.4257705 -0.65370721 45 4 -0.079573572
3.8281205 -3.2190118 0.79218423 37 12 -0.079571269
4.0831289 -3.4346609 -0.46680617 63 5 -0.079568967
3.80407 -3.1999214 0.9662568 18 13 -0.079566665
3.7957094 -3.195152 1.1454507 21 14 -0.079562053
3.3651419 -2.8337123 -0.076790586 22 7 -0.079559751
3.7838709 -3.1874442 1.3256712 20 15 -0.079557449
2.6626606 -2.2485301 -0.93381917 4 0 -0.079536714
4.3383408 -3.6648843 0.099129669 13 8 -0.079534404
3.0215335 -2.5533938 -0.91330135 1 1 -0.079532102
4.3439789 -3.6722465 0.29810563 84 9 -0.0795298
3.5878363 -3.03303 -0.91321188 1 2 -0.079527497
4.2003932 -3.5521209 0.48127401 28 10 -0.079525188
4.2989368 -3.6380305 0.69148672 94 11 -0.079520583
4.0695238 -3.4451063 -0.65468216 78 4 -0.079518281
3.7806821 -3.2017164 0.78467536 34 12 -0.079515971
4.0717163 -3.4481823 -0.46680617 60 5 -0.079513669
3.7838886 -3.2055664 0.96396708 18 13 -0.079511367
3.7577772 -3.1856995 1.1373526 21 14 -0.079506762
3.3338785 -2.8273344 -0.076301925 28 7 -0.079504453
3.7653565 -3.1943841 1.323083 18 15 -0.07950215
2.6386077 -2.2440431 -0.92812514 5 0 -0.079481415
2.9947934 -2.5487688 -0.90790248 1 1 -0.079476804
4.3083224 -3.6679671 0.29653555 80 9 -0.079474501
4.1379128 -3.5241308 0.47552174 67 10 -0.079469897
3.7335739 -3.1808932 -0.77685362 1 3 -0.079467587
4.2635489 -3.6337004 0.68783063 89 11 -0.079465285
4.0499201 -3.4528513 -0.65346348 27 4 -0.079462983
3.7439322 -3.1931026 0.7793566 30 12 -0.07946068
4.0414639 -3.4468594 -0.46471441 30 5 -0.079458378
3.7517669 -3.2009153 0.95862442 19 13 -0.079456069
3.7288494 -3.1836126 1.1319537 21 14 -0.079451464
3.3057415 -2.82337 -0.075883061 28 7 -0.079449162
3.7262759 -3.183665 1.3132479 20 15 -0.079446852
2.6278238 -2.2507267 -0.92708987 4 0 -0.079426117
3.003634 -2.5744255 -0.91330135 1 1 -0.079421513
4.2809711 -3.6692357 0.29548883 80 9 -0.079419203
3.6202295 -3.1040082 -0.92695016 1 2 -0.079416901
4.1119747 -3.5268791 0.47395292 100 10 -0.079414599
3.7644253 -3.229923 -0.78561401 1 3 -0.079412296
4.2433076 -3.642096 0.68661195 91 11 -0.079409994
4.0152516 -3.4475689 -0.64980739 24 4 -0.079407685
3.7198348 -3.1939185 0.77654076 28 12 -0.079405382
3.9991794 -3.4349823 -0.46122819 27 5 -0.07940308
3.7122779 -3.1896825 0.9513737 19 13 -0.079400778
3.697027 -3.1788223 1.1256551 21 14 -0.079396166
3.2721007 -2.813457 -0.07532458 29 7 -0.079393864
3.6922643 -3.1758485 1.3049657 20 15 -0.079391561
2.6184886 -2.2586241 -0.9265722 4 0 -0.079370819
2.9832766 -2.574187 -0.90970206 1 1 -0.079366215
4.2454581 -3.6645808 0.29391876 72 9 -0.079363912
3.6093724 -3.1166263 -0.92695016 1 2 -0.07936161
4.0875769 -3.5307922 0.47255844 22 10 -0.0793593
4.19666 -3.6262956 0.68100595 85 11 -0.079354696
3.9932842 -3.4517782 -0.64810121 21 4 -0.079352394
3.6967092 -3.1965475 0.77403784 31 12 -0.079350084
3.9781229 -3.4411004 -0.46018231 26 5 -0.079347782
3.677923 -3.1814256 0.94526786 18 13 -0.07934548
3.9887543 -3.4515133 -0.27643853 1 6 -0.079343177
3.6746783 -3.1808612 1.1220559 21 14 -0.079340868
3.2531898 -2.8170078 -0.075115159 29 7 -0.079338565
3.6621737 -3.1722744 1.2982364 22 15 -0.079336263
2.6168187 -2.2723613 -0.92864275 5 0 -0.079315528
2.9742732 -2.5845847 -0.90970206 1 1 -0.079310916
4.2009864 -3.6518617 0.29172066 65 9 -0.079308614
3.5249333 -3.0641778 -0.90786928 1 2 -0.079306312
4.1269631 -3.5887787 0.47848502 2 10 -0.07930401
4.1615138 -3.6213758 0.67734987 84 11 -0.079299398
3.9497681 -3.4383252 -0.64298266 18 4 -0.079297096
3.6646724 -3.1912704 0.76965761 31 12 -0.079294793
3.9426496 -3.4333384 -0.45739332 26 5 -0.079292484
3.6475515 -3.17748 0.94030684 19 13 -0.079290181
3.9284983 -3.4234269 -0.27308905 1 6 -0.079287879
3.6385803 -3.1718998 1.1144075 21 14 -0.079285577
3.2312796 -2.8178322 -0.074835919 28 7 -0.079283267
3.632153 -3.1685288 1.2915071 26 15 -0.079280965
2.6103253 -2.2827535 -0.92916042 4 0 -0.07926023
2.9535012 -2.5846846 -0.9061029 1 1 -0.079255626
4.1686769 -3.6494012 0.29035991 67 9 -0.079253316
3.5880747 -3.1411221 -0.92695016 1 2 -0.079251014
3.991503 -3.495527 0.46419147 2 10 -0.079248711
4.1339183 -3.622797 0.67491245 87 11 -0.0792441
3.9168444 -3.4337711 -0.63957036 18 4 -0.079241797
3.6267776 -3.1805985 0.76402605 34 12 -0.079239495
3.9126658 -3.4313157 -0.45530161 27 5 -0.079237193
3.6231551 -3.1785405 0.93687224 18 13 -0.079234883
3.8925059 -3.4160407 -0.27141431 1 6 -0.079232581
3.6011255 -3.1614394 1.1063093 21 14 -0.079230279
3.1958809 -2.8066616 -0.07424254 29 7 -0.079227977
3.6036546 -3.1658878 1.2852954 24 15 -0.079225674
2.5965419 -2.2867444 -0.92708987 4 0 -0.079204932
2.9678531 -2.6155939 -0.91330135 1 1 -0.079200327
4.1394339 -3.6494012 0.28920853 75 9 -0.079198025
3.5770886 -3.1536274 -0.92695016 1 2 -0.079195715
3.9284713 -3.464632 0.45826489 6 10 -0.079193413
4.1063633 -3.6240695 0.6724751 87 11 -0.079188809
3.8869772 -3.4316571 -0.63664556 19 4 -0.079186499
3.5919631 -3.1723168 0.75902009 28 12 -0.079184197
3.8707967 -3.4185743 -0.45181534 28 5 -0.079181895
3.5914395 -3.1729703 0.93152958 18 13 -0.079179592
3.8685853 -3.4190257 -0.27057692 1 6 -0.07917729
3.5769286 -3.1623735 1.1022601 21 14 -0.079174981
3.1635957 -2.7979286 -0.073718965 28 7 -0.079172678
3.5650911 -3.1541264 1.2754604 22 15 -0.079170376
2.5813174 -2.2893851 -0.92450172 3 0 -0.079149641
2.9587049 -2.6259377 -0.91330135 1 1 -0.079145029
4.1117334 -3.6505675 0.28816178 71 9 -0.079142727
3.5660584 -3.1660945 -0.92695016 1 2 -0.079140425
3.9074156 -3.4703856 0.45721903 2 10 -0.079138115
4.0714321 -3.6186001 0.66881901 89 11 -0.079133511
3.8601398 -3.4320145 -0.63420814 19 4 -0.079131208
3.5572517 -3.1638312 0.75401419 13 12 -0.079128906
3.8379979 -3.4135277 -0.449375 27 5 -0.079126596
3.5583403 -3.1659124 0.92580527 18 13 -0.079124294
3.8357403 -3.4139185 -0.26911151 1 6 -0.079121992
3.5469468 -3.157994 1.0964113 29 14 -0.07911969
3.1433566 -2.7996447 -0.073474631 29 7 -0.07911738
3.5367506 -3.15113 1.2692486 28 15 -0.079115078
2.5761917 -2.3009551 -0.92553693 4 0 -0.079094343
2.9349906 -2.6232629 -0.90880221 1 1 -0.079089731
4.0787573 -3.6455493 0.2866964 75 9 -0.079087429
3.481807 -3.1130948 -0.90786928 1 2 -0.079085127
3.9130983 -3.499943 0.45931077 2 10 -0.079082824
4.0291934 -3.6063125 0.66394424 89 11 -0.079078212
3.2373443 -2.8985894 -0.53354406 1 4 -0.07907591
3.5570419 -3.1848338 0.75620425 30 12 -0.079073608
3.1552372 -2.8260663 -0.37058622 8 5 -0.079071306
3.5326462 -3.1652129 0.92198914 25 13 -0.079068996
3.1381636 -2.8127484 -0.22085775 26 6 -0.079066694
