# .PCD v0.7 - Point Cloud Data file format
VERSION 0.7
FIELDS x y z intensity ring time
SIZE 4 4 4 4 2 4
TYPE F F F F U F
COUNT 1 1 1 1 1 1
WIDTH 906
HEIGHT 1
VIEWPOINT 0 0 0 1 0 0 0
POINTS 906
DATA ascii
-0.46311718 0.29220518 -0.12642249 47 1 -0.014427635
-0.73836756 0.46659619 0.10724504 4 11 -0.014416115
-0.73960018 0.46773648 0.13860095 2 12 -0.014411507
-0.91708302 0.58065224 0.25059548 1 14 -0.014402291
-0.92688417 0.58731145 0.29401845 1 15 -0.014397684
-0.47123599 0.29940155 -0.14959741 73 0 -0.014376947
-0.65480828 0.41619557 0.013543067 6 8 -0.014374644
-0.45222756 0.28754628 -0.12372307 48 1 -0.014372339
-0.73796296 0.47031534 0.13860095 2 12 -0.014356211
-0.93804997 0.59852475 0.25689411 1 14 -0.014346995
-0.92808515 0.59262258 0.29505375 1 15 -0.014342387
-0.4734419 0.303128 -0.15063269 48 0 -0.014321651
-0.65671927 0.42063585 0.013612877 6 8 -0.014319347
-0.44465798 0.28491756 -0.12192348 49 1 -0.014317043
-0.77851975 0.49903339 0.048463102 3 9 -0.014314739
-0.7350921 0.47173956 0.10724504 4 11 -0.014305524
-0.73631686 0.47288826 0.13860095 2 12 -0.014300915
-0.90645051 0.58282453 0.24879587 1 14 -0.014291699
-0.94550568 0.60840291 0.30126539 1 15 -0.014287091
-0.47887403 0.30896834 -0.15270324 47 0 -0.014266355
-0.68212897 0.44027632 0.014171354 5 8 -0.014264051
-0.43711221 0.28223971 -0.12012386 50 1 -0.014261747
-0.77677292 0.50174814 0.048463102 3 9 -0.014259444
-0.73344094 0.47430268 0.10724504 4 11 -0.014250227
-0.7346617 0.47545561 0.13860095 2 12 -0.014245619
-0.91095215 0.59022391 0.25059548 1 14 -0.014236404
-0.94013435 0.60959762 0.30023012 1 15 -0.014231795
-0.47455338 0.30853188 -0.15166797 48 0 -0.01421106
-0.66382474 0.43175191 0.013822306 6 8 -0.014208755
-0.45245856 0.2943916 -0.12462288 48 1 -0.014206451
-0.77501684 0.50445634 0.048463102 3 9 -0.014204147
-0.73178089 0.47685984 0.10724504 4 11 -0.014194931
-0.73299742 0.47801739 0.13860095 2 12 -0.014190324
-0.89256889 0.58274662 0.24609646 1 14 -0.014181107
-0.94770432 0.61921549 0.30333593 1 15 -0.014176499
-0.47024161 0.3080692 -0.15063269 73 0 -0.014155763
-0.6790387 0.44502774 0.014171354 5 8 -0.014153459
-0.4546876 0.29810619 -0.12552269 48 1 -0.014151155
-0.77325124 0.50715858 0.048463102 3 9 -0.014148851
-0.71797121 0.47108084 0.07512825 4 10 -0.014144243
-0.7301119 0.47941133 0.10724504 4 11 -0.014139635
-0.73132437 0.48057315 0.13860095 2 12 -0.014135027
-0.93936992 0.61798996 0.25959352 1 14 -0.014125811
-0.93585569 0.61614615 0.30023012 1 15 -0.014121203
-0.46432665 0.30651593 -0.14907978 49 0 -0.014100467
-0.6641317 0.43857965 0.013892116 6 8 -0.014098163
-0.45201829 0.29861739 -0.12507279 48 1 -0.01409586
-0.72843403 0.48195702 0.10724504 4 11 -0.014084339
-0.72964245 0.48312286 0.13860095 2 12 -0.014079731
-0.96969259 0.64279926 0.26859155 1 14 -0.014070516
-0.97555465 0.64717579 0.3136887 1 15 -0.014065907
-0.4600369 0.30599493 -0.1480445 49 0 -0.014045171
-0.68923384 0.45861974 0.014450593 5 8 -0.014042867
-0.45097318 0.30019343 -0.12507279 48 1 -0.014040563
-0.7267471 0.48449698 0.10724504 4 11 -0.014029043
-0.72795159 0.48566684 0.13860095 2 12 -0.014024436
-0.96744287 0.64618027 0.26859155 1 14 -0.014015219
-0.97328979 0.65057695 0.3136887 1 15 -0.014010611
-0.47019929 0.31512764 -0.15166797 48 0 -0.013989875
-0.6743412 0.45211414 0.014171354 5 8 -0.013987571
-0.44183043 0.29633823 -0.12282327 49 1 -0.013985267
-0.76789796 0.51522821 0.048463102 3 9 -0.013982963
-0.72505152 0.48703068 0.10724504 4 11 -0.013973747
-0.72625202 0.48820478 0.13860095 2 12 -0.013969139
-0.91667974 0.61691272 0.2550945 1 14 -0.013959923
-0.88128233 0.59353751 0.28470096 1 15 -0.013955316
-0.46429342 0.31352371 -0.15011506 73 0 -0.013934579
-0.68601531 0.46342012 0.014450593 5 8 -0.013932276
-0.45209572 0.3055166 -0.12597258 47 1 -0.013929971
-0.70661145 0.47751293 0.044694912 5 9 -0.013927667
-0.72334707 0.48955864 0.10724504 4 11 -0.013918451
-0.72462887 0.49061063 0.13860095 2 12 -0.013913843
-0.89516586 0.60698462 0.24969566 1 14 -0.013904627
-0.89849412 0.60947031 0.29091263 1 15 -0.013900019
-0.46319625 0.31514239 -0.15011506 73 0 -0.013879283
-0.67124826 0.45669362 0.014171354 5 8 -0.013876979
-0.45913512 0.3124966 -0.12822211 46 1 -0.013874675
-0.76437306 0.52044314 0.048463102 3 9 -0.013872371
-0.72171962 0.49195468 0.10724504 4 11 -0.013863156
-0.72291207 0.49313691 0.13860095 2 12 -0.013858547
-0.91567796 0.62533587 0.25599429 1 14 -0.013849331
-0.9186905 0.62786359 0.29815957 1 15 -0.013844723
-0.47171029 0.3232286 -0.15322088 71 0 -0.013823987
-0.66964996 0.45903394 0.014171354 5 8 -0.013821683
-0.44196978 0.30307651 -0.12372307 65 1 -0.013819379
-0.76255184 0.52310801 0.048463102 3 9 -0.013817076
-0.72118616 0.49565753 0.13860095 2 12 -0.013803251
-0.964194 0.66292 0.22744434 1 13 -0.013798643
-0.92954391 0.63957465 0.26049334 3 14 -0.013794035
-0.93081367 0.64092678 0.3028183 5 15 -0.013789427
-0.46580976 0.32158062 -0.15166797 48 0 -0.013768692
-0.70095211 0.48409623 0.014869451 4 8 -0.013766387
-0.44411573 0.30683282 -0.12462288 48 1 -0.013764083
-0.76072121 0.52576661 0.048463102 3 9 -0.013761779
-0.70633262 0.48835856 0.07512825 4 10 -0.013757171
-0.78441334 0.54315358 0.1511157 1 12 -0.013747955
-0.9037745 0.62603629 0.21370608 1 13 -0.013743347
-0.92890722 0.64392573 0.26094323 18 14 -0.013738739
-0.93968153 0.65188032 0.30644175 29 15 -0.013734131
-0.48371583 0.33644167 -0.15787962 68 0 -0.013713395
-0.66642886 0.46369797 0.014171354 5 8 -0.013711091
-0.44144267 0.30726784 -0.12417299 48 1 -0.013708787
-0.75888133 0.5284189 0.048463102 3 9 -0.013706483
-0.81491494 0.56849235 0.15737309 1 12 -0.013692659
-0.92895323 0.64828759 0.22019359 2 13 -0.013688051
-0.92345858 0.64493239 0.26004341 64 14 -0.013683443
-0.92948318 0.64962304 0.30385357 60 15 -0.013678835
-0.4619714 0.32371601 -0.15115033 48 0 -0.013658099
-0.68118083 0.47749957 0.014520402 5 8 -0.013655795
-0.44834507 0.31440124 -0.12642249 63 1 -0.013653491
-0.75703228 0.53106451 0.048463102 3 9 -0.013651188
-0.83878404 0.5895071 0.162379 1 12 -0.013637363
-0.96683544 0.67975557 0.22973405 12 13 -0.013632755
-0.9243893 0.6503948 0.26094323 84 14 -0.013628148
-0.9208917 0.64841455 0.301783 74 15 -0.013623539
-0.47188598 0.33312568 -0.1547738 47 0 -0.013602803
-0.66317552 0.46833906 0.014171354 5 8 -0.013600499
-0.46156949 0.32608408 -0.13047162 45 1 -0.013598195
-0.75517374 0.53370398 0.048463102 3 9 -0.013595891
-0.88508648 0.62667602 0.17176506 2 12 -0.013582068
-0.94523185 0.66950893 0.22515462 33 13 -0.013577459
-0.92211318 0.6536178 0.26094323 90 14 -0.013572851
-0.91704702 0.65050745 0.30126539 76 15 -0.013568243
-0.46599731 0.3314119 -0.15322088 71 0 -0.013547507
-0.66153669 0.47065112 0.014171354 5 8 -0.013545203
-0.43978843 0.31300369 -0.12462288 48 1 -0.013542899
-0.75330615 0.53633678 0.048463102 3 9 -0.013540595
-0.69944519 0.49817294 0.07512825 4 10 -0.013535988
-0.81148142 0.57839674 0.12235683 1 11 -0.013531379
-0.97456014 0.69514686 0.18959859 9 12 -0.013526771
-0.94129097 0.67166406 0.22477302 50 13 -0.013522163
-0.92141205 0.65796489 0.26139313 91 14 -0.013517555
-0.92577314 0.66156709 0.30488884 77 15 -0.013512947
-0.46954882 0.33641192 -0.1547738 47 0 -0.013492212
-0.68589538 0.49159604 0.014729831 4 8 -0.013489908
-0.43394199 0.3111304 -0.12327318 49 1 -0.013487604
-0.75142938 0.53896308 0.048463102 3 9 -0.013485299
-0.84493178 0.60669786 0.12771909 1 11 -0.013476083
-0.97854424 0.70315528 0.19085006 38 12 -0.013471475
-0.94691122 0.68067527 0.2266811 56 13 -0.013466867
-0.91278189 0.65662515 0.25959352 91 14 -0.013462259
-0.92032248 0.66253722 0.30385357 78 15 -0.013457651
-0.47777048 0.34483239 -0.15787962 68 0 -0.013436915
-0.68417507 0.49398744 0.014729831 4 8 -0.013434611
-0.44233182 0.31948945 -0.12597258 47 1 -0.013432307
-0.74954361 0.54158258 0.048463102 3 9 -0.013430003
-0.91036236 0.65850794 0.13795611 1 11 -0.013420787
-0.96488291 0.69845867 0.18866 79 12 -0.013416179
-0.94452959 0.68397629 0.2266811 56 13 -0.013411571
-0.91048425 0.65980738 0.25959352 96 14 -0.013406963
-0.9273876 0.67255074 0.30695942 78 15 -0.013402355
-0.46250132 0.33627349 -0.15322088 71 0 -0.013381619
-0.71478999 0.51989746 0.015427927 3 8 -0.013379315
-0.45854738 0.33364341 -0.13092151 45 1 -0.013377011
-0.9626056 0.70142955 0.14624323 3 11 -0.013365491
-0.96084309 0.70065844 0.18834713 100 12 -0.013360883
-0.93579173 0.68264127 0.22515462 60 13 -0.013356275
-0.91132367 0.66527945 0.26049334 94 14 -0.013351668
-0.9219144 0.67350459 0.30592412 77 15 -0.013347059
-0.46911734 0.3435936 -0.15580907 69 0 -0.013326323
-0.69684035 0.51057041 0.015078879 4 8 -0.013324019
-0.44480592 0.32602575 -0.1273223 47 1 -0.013321715
-0.74574429 0.5468024 0.048463102 3 9 -0.013319411
-0.79202735 0.58095092 0.085935563 1 10 -0.013314803
-0.98575538 0.7235797 0.15014306 18 11 -0.013310195
-0.96316743 0.70751649 0.18928573 100 12 -0.013305588
-0.93023908 0.68357861 0.22439139 60 13 -0.01330098
-0.91841531 0.67538375 0.26319274 91 14 -0.013296371
-0.91333419 0.67213821 0.30385357 78 15 -0.013291763
-0.45081523 0.33261257 -0.15011506 73 0 -0.01327467
-0.66931111 0.49399978 0.014520402 5 8 -0.013272366
-0.44680053 0.32989156 -0.12822211 46 1 -0.013270061
-0.7438311 0.54940206 0.048463102 3 9 -0.013267757
-0.87332058 0.64528 0.094999753 1 10 -0.013263149
-0.95608926 0.70695227 0.14599949 56 11 -0.013258542
-0.95433998 0.70617449 0.18803425 100 12 -0.013253934
-0.92153561 0.68214911 0.22286493 60 13 -0.013249326
-0.91605216 0.67858553 0.26319274 91 14 -0.013244717
-0.91408628 0.67762321 0.30488884 78 15 -0.013240109
-0.45895454 0.34109834 -0.15322088 71 0 -0.013219373
-0.68363041 0.50826418 0.014869451 4 8 -0.013217069
-0.43626431 0.32447121 -0.12552269 48 1 -0.013214766
-0.78677589 0.58537716 0.051393915 1 9 -0.013212462
-0.95417333 0.71018302 0.10406395 4 10 -0.013207854
-0.95202374 0.70909959 0.14575575 100 11 -0.013203246
-0.95503694 0.71186239 0.18866 100 12 -0.013198637
-0.92701834 0.69122964 0.22477302 64 13 -0.013194029
-0.91367799 0.68177885 0.26319274 99 14 -0.013189422
-0.92409837 0.69005698 0.30902994 79 15 -0.013184814
-0.45621467 0.34154055 -0.15270324 71 0 -0.013164078
-0.69145554 0.51783961 0.015078879 4 8 -0.013161774
-0.44136745 0.33066583 -0.1273223 63 1 -0.01315947
-0.8390674 0.62884527 0.054952759 1 9 -0.013157166
-0.97560036 0.73143691 0.10667863 20 10 -0.013152557
-0.96542138 0.72433192 0.14819314 100 11 -0.013147949
-0.94622761 0.71044755 0.18740851 100 12 -0.013143342
-0.92773926 0.69681937 0.22553624 64 13 -0.013138734
-0.90817702 0.68262219 0.26229292 96 14 -0.013134126
-0.92477179 0.69560117 0.31006524 79 15 -0.013129517
-0.45501974 0.34313089 -0.15270324 71 0 -0.013108782
-0.70560771 0.53229302 0.015427927 3 8 -0.013106477
-0.44643253 0.33689994 -0.1291219 62 1 -0.013104173
-0.83049113 0.62695664 0.054534074 1 9 -0.013101869
-0.96668142 0.73003507 0.10598138 56 10 -0.013097262
-0.95655221 0.72290993 0.14721818 100 11 -0.013092654
-0.93901521 0.71017146 0.1864699 100 12 -0.013088046
-0.92999804 0.70360738 0.2266811 69 13 -0.013083437
-0.90889603 0.68814087 0.26319274 94 14 -0.013078829
-0.91617894 0.69415808 0.30799466 79 15 -0.013074222
-0.45381913 0.3447172 -0.15270324 71 0 -0.013053485
-0.66871732 0.50813615 0.014660021 4 8 -0.013051182
-0.45456234 0.34553188 -0.13182132 60 1 -0.013048878
-0.99218082 0.75419825 0.065315276 4 9 -0.013046574
-0.95461285 0.72616738 0.10493552 97 10 -0.013041966
-0.95876157 0.72985172 0.1479494 100 11 -0.013037357
-0.9602285 0.73123318 0.19116293 100 12 -0.013032749
-0.92753649 0.70684916 0.2266811 81 13 -0.013028142
-0.90958732 0.69367301 0.26409253 99 14 -0.013023534
-0.90772831 0.69250548 0.30592412 78 15 -0.013018926
-0.46028444 0.35216874 -0.15529144 70 0 -0.01299819
-0.68608648 0.52493238 0.015078879 4 8 -0.012995886
-0.43793914 0.3351931 -0.1273223 47 1 -0.012993582
-0.9831987 0.75280046 0.064896591 18 9 -0.012991278
-0.96314299 0.7379775 0.10615569 100 10 -0.012986669
-0.95476037 0.73181945 0.14770564 100 11 -0.012982062
-0.9545356 0.73217589 0.1905372 100 12 -0.012977454
-0.92207223 0.7075308 0.22591786 83 13 -0.012972846
-0.91655618 0.70380622 0.26679197 96 14 -0.012968238
-0.91449636 0.7027325 0.30902994 79 15 -0.012963629
-0.46523562 0.35840911 -0.15736198 69 0 -0.012942893
-0.72226399 0.5566197 0.015916595 3 8 -0.012940589
-0.43367973 0.3343401 -0.12642249 63 1 -0.012938285
-0.97265714 0.75012928 0.064373232 73 9 -0.012935982
-0.95753545 0.73873335 0.10580707 100 10 -0.012931374
-0.94748622 0.73150849 0.14697444 100 11 -0.012926766
-0.95353699 0.73671126 0.19085006 100 12 -0.012922158
-0.92581034 0.71554756 0.22744434 81 13 -0.012917549
-0.91101062 0.70461708 0.26589215 91 14 -0.012912942
-0.91814852 0.71065015 0.31110048 79 15 -0.012908334
-0.45323661 0.35181969 -0.15373853 70 0 -0.012887598
-0.43558833 0.33824244 -0.1273223 63 1 -0.01288299
-0.96056926 0.74616832 0.063745201 100 9 -0.012880686
-0.95796722 0.74468368 0.10615569 100 10 -0.012876078
-0.95432943 0.74212271 0.14843687 100 11 -0.012871469
-0.94628274 0.73639584 0.18991147 100 12 -0.012866862
-0.92627966 0.72134835 0.22820757 81 13 -0.012862254
-0.90227354 0.70315987 0.26409253 94 14 -0.012857646
-0.91566229 0.7138508 0.31110048 78 15 -0.012853038
-0.44896191 0.35101986 -0.15270324 47 0 -0.012832302
-0.76551658 0.59873271 0.016963739 1 8 -0.012829998
-0.43741533 0.34223825 -0.12822211 46 1 -0.012827693
-0.95953178 0.75074756 0.063849874 100 9 -0.012825389
-0.94751841 0.74188149 0.10528414 100 10 -0.012820781
-0.95629048 0.74928874 0.14916809 100 11 -0.012816174
-0.9374876 0.73482007 0.18866 100 12 -0.012811566
-0.92375582 0.72457755 0.22820757 78 13 -0.012806958
-0.90913552 0.71336591 0.26679197 91 14 -0.012802349
-0.91468441 0.71823597 0.31161815 84 15 -0.012797741
-0.45083132 0.35489663 -0.15373853 70 0 -0.012777005
-0.75724262 0.59631926 0.016824121 9 8 -0.012774701
-0.44546279 0.35092241 -0.13092151 45 1 -0.012772398
-0.96174371 0.75763321 0.064163886 100 9 -0.012770094
-0.94661772 0.74625307 0.10545845 100 10 -0.012765486
-0.95224208 0.75122601 0.14892435 100 11 -0.012760878
-0.93969768 0.74159616 0.18959859 100 12 -0.012756269
-0.92442948 0.73007017 0.22897081 83 13 -0.012751661
-0.91593957 0.72362518 0.26949137 99 14 -0.012747054
-0.90775126 0.71767086 0.31006524 82 15 -0.012742446
-0.45419389 0.35998961 -0.15529144 70 0 -0.01272171
-0.75682807 0.60006928 0.016859025 12 8 -0.012719406
-0.4320823 0.34270981 -0.1273223 47 1 -0.012717102
-0.96535152 0.76595145 0.064582579 100 9 -0.012714798
-0.95194036 0.75558156 0.10633 100 10 -0.012710189
-0.94819123 0.75314498 0.14868061 100 11 -0.012705581
-0.94947439 0.75470489 0.19210154 100 12 -0.012700974
-0.91585672 0.72824419 0.22744434 83 13 -0.012696366
-0.9195078 0.73167133 0.27129099 81 14 -0.012691758
-0.90977436 0.7244454 0.31161815 86 15 -0.012687149
-0.45740008 0.36526841 -0.15684435 69 0 -0.012666414
-0.76566672 0.61144257 0.017103357 9 8 -0.012664109
-0.43392849 0.3466486 -0.12822211 78 1 -0.012661805
-0.95643109 0.76432878 0.064163886 100 9 -0.012659501
-0.95383286 0.76279849 0.10685294 100 10 -0.012654894
-0.94555664 0.75645006 0.14868061 100 11 -0.012650286
-0.94991839 0.76048374 0.1927273 100 12 -0.012645678
-0.91931015 0.73650616 0.22897081 85 13 -0.012641069
-0.90769708 0.72772294 0.26859155 96 14 -0.012636461
-0.77541268 0.62166733 -0.017347692 2 7 -0.012634158
-0.91628242 0.73486841 0.31472397 84 15 -0.012631854
-0.47117585 0.37897053 -0.16202073 66 0 -0.012611117
-0.75563067 0.60797679 0.016928835 11 8 -0.012608814
-0.43569115 0.35068044 -0.1291219 62 1 -0.01260651
-0.95051169 0.76532418 0.06395454 100 9 -0.012604206
-0.95581955 0.76987249 0.10737588 100 10 -0.012599598
-0.94586873 0.76240236 0.14916809 100 11 -0.01259499
-0.44968802 0.36259335 -0.070927963 7 4 -0.012592685
-0.93789935 0.75651902 0.19085006 100 12 -0.012590381
-0.92284518 0.74464208 0.23049729 83 13 -0.012585774
-0.90666771 0.7321111 0.26904148 100 14 -0.012581166
-0.77312905 0.62450498 -0.017347692 2 7 -0.012578862
-0.9180904 0.74186456 0.31627688 78 15 -0.012576558
-0.45934236 0.37210071 -0.15839727 68 0 -0.012555822
-0.75661105 0.61312872 0.016998643 11 8 -0.012553518
-0.43749201 0.35465354 -0.13002171 46 1 -0.012551214
-0.95403975 0.77366924 0.064373232 100 9 -0.01254891
-0.94538987 0.76692826 0.10650431 100 10 -0.012544301
-0.94782513 0.76945281 0.1498993 100 11 -0.012539694
-0.93678612 0.76103389 0.19116293 100 12 -0.012535086
-0.92024028 0.74785888 0.23049729 83 13 -0.012530478
-0.91317791 0.74264884 0.27174088 92 14 -0.01252587
-0.77094442 0.62719995 -0.017347692 2 7 -0.012523565
-0.91100031 0.74140638 0.31472397 84 15 -0.012521261
-0.45504695 0.37125939 -0.15736198 69 0 -0.012500525
-0.76376134 0.62335277 0.017208073 8 8 -0.012498221
-0.45134664 0.36850303 -0.13452074 87 1 -0.012495917
-0.96061468 0.78457528 0.065001264 100 9 -0.012493614
-0.94270682 0.77022386 0.10650431 100 10 -0.012489006
-0.95589131 0.78155214 0.15160547 100 11 -0.012484398
-0.93871039 0.76805198 0.19210154 100 12 -0.01247979
-0.91458583 0.74857938 0.22973405 85 13 -0.012475181
-0.75876129 0.62126005 -0.051393915 1 6 -0.012472877
-0.91208756 0.74706674 0.27219078 90 14 -0.012470573
-0.79349881 0.65016532 -0.017906168 2 7 -0.01246827
-0.90392447 0.74090797 0.31317106 79 15 -0.012465966
-0.45971861 0.37775141 -0.15943255 67 0 -0.01244523
-0.75076729 0.61712635 0.016963739 11 8 -0.012442926
-0.43500549 0.35769904 -0.13002171 61 1 -0.012440622
-0.96095484 0.79046148 0.065210611 100 9 -0.012438318
-0.95078194 0.7823717 0.1077245 100 10 -0.01243371
-0.9470275 0.77983677 0.15063052 100 11 -0.012429101
-0.44586632 0.36728251 -0.070927963 7 4 -0.012426797
-0.94212174 0.77634877 0.19335303 100 12 -0.012424493
-0.90590739 0.74677247 0.22820757 85 13 -0.012419886
-0.73501527 0.60611534 -0.049928509 6 6 -0.012417582
-0.91248095 0.75272602 0.2730906 90 14 -0.012415278
-0.79122448 0.65293121 -0.017906168 2 7 -0.012412974
-0.90431225 0.74651837 0.31420633 79 15 -0.01241067
-0.45839709 0.37935394 -0.15943255 67 0 -0.012389934
-0.75322968 0.62356859 0.017068453 10 8 -0.01238763
-0.42775074 0.35424352 -0.12822211 62 1 -0.012385326
-0.95203763 0.78871429 0.064791918 100 9 -0.012383021
-0.94651115 0.78441423 0.10755019 100 10 -0.012378413
-0.94429952 0.78313786 0.15063052 100 11 -0.012373806
-0.44458166 0.36883658 -0.070927963 7 4 -0.012371502
-0.94548619 0.78467911 0.1946045 100 12 -0.012369198
-0.91840047 0.76247078 0.23202376 81 13 -0.01236459
-0.7267493 0.60357296 -0.04950982 4 6 -0.012362286
-0.90834874 0.75466138 0.27264068 92 14 -0.012359981
-0.79509217 0.66080177 -0.018045789 2 7 -0.012357677
-0.91061407 0.7570805 0.31731215 79 15 -0.012355373
-0.46003819 0.38342533 -0.1604678 66 0 -0.012334637
-0.76026374 0.63387752 0.017277883 7 8 -0.012332333
-0.43249759 0.36072734 -0.13002171 61 1 -0.012330029
-0.94621176 0.78947347 0.064582579 100 9 -0.012327726
-0.94988573 0.79282016 0.10824744 100 10 -0.012323118
-0.94613105 0.79024673 0.15136175 100 11 -0.01231851
-0.44329143 0.37038618 -0.070927963 7 4 -0.012316206
-0.93516308 0.78164053 0.19304016 100 12 -0.012313901
-0.91573346 0.76567179 0.23202376 85 13 -0.012309293
-0.73383003 0.61379457 -0.050137851 3 6 -0.01230699
-0.90122527 0.754076 0.27129099 90 14 -0.012304686
-0.76211226 0.6379028 -0.017347692 2 7 -0.012302382
-0.91389048 0.76521575 0.31938273 82 15 -0.012300078
-0.45573762 0.38254482 -0.15943255 67 0 -0.012279342
-0.76110923 0.63909924 0.017347692 7 8 -0.012277038
-0.44018891 0.36975518 -0.13272113 59 1 -0.012274734
-0.95415378 0.80176574 0.065315276 100 9 -0.01227243
-0.9471125 0.79613107 0.10824744 100 10 -0.012267821
-0.94336677 0.79354459 0.15136175 100 11 -0.012263213
-0.93545145 0.787444 0.19366589 100 12 -0.012258606
-0.91906214 0.77392197 0.23355024 85 13 -0.012253998
-0.75917822 0.63951403 -0.052021943 1 6 -0.012251694
-0.90752882 0.76475155 0.27399039 90 14 -0.01224939
-0.75988096 0.6405592 -0.017347692 2 7 -0.012247086
-0.90530634 0.76341957 0.31731215 82 15 -0.012244781
-0.44849822 0.37914458 -0.15736198 69 0 -0.012224046
-0.75581998 0.63916969 0.017277883 7 8 -0.012221741
-0.43591994 0.36877227 -0.13182132 60 1 -0.012219437
-0.94982469 0.80380136 0.065210611 100 9 -0.012217133
-0.93672442 0.79299563 0.10737588 100 10 -0.012212526
-0.95119339 0.80581462 0.1530679 100 11 -0.012207918
-0.92968357 0.78814995 0.19304016 100 12 -0.01220331
-0.90737116 0.76950651 0.23126051 85 13 -0.012198702
-0.75998747 0.6447441 -0.052231289 1 6 -0.012196397
-0.90931123 0.77169764 0.27534011 94 14 -0.012194093
-0.78203094 0.66391486 -0.017906168 2 7 -0.012191789
-0.90263611 0.76657486 0.31731215 79 15 -0.012189485
-0.44423014 0.378203 -0.15632671 69 0 -0.01216875
-0.73988265 0.630135 0.016963739 9 8 -0.012166446
-0.43463004 0.37029168 -0.13182132 60 1 -0.012164142
-0.95323521 0.81212765 0.065629296 100 9 -0.012161838
-0.93849903 0.80013847 0.10789881 100 10 -0.01215723
-0.94233423 0.80397642 0.15209295 100 11 -0.012152622
-0.43938851 0.37500799 -0.070927963 7 4 -0.012150317
-0.9405877 0.80276996 0.19585598 100 12 -0.012148013
-0.90766525 0.77521926 0.23202376 85 13 -0.012143405
-0.76988029 0.65777212 -0.053068664 1 6 -0.012141102
-0.91253752 0.77993155 0.27713972 94 14 -0.012138798
-0.77070451 0.65870905 -0.01769674 2 7 -0.012136494
-0.90596253 0.77458566 0.31938273 82 15 -0.01213419
-0.46343935 0.39735588 -0.16357364 64 0 -0.012113454
-0.74386126 0.63779145 0.017103357 6 8 -0.01211115
-0.41860792 0.35904393 -0.1273223 94 1 -0.012108846
-0.94584733 0.81154829 0.065315276 100 9 -0.012106542
-0.94628173 0.81249505 0.10911899 100 10 -0.012101933
-0.94116896 0.80839014 0.15233669 100 11 -0.012097325
-0.43814251 0.376463 -0.070927963 7 4 -0.012095022
-0.93927771 0.80733597 0.19616884 100 12 -0.012092718
-0.90806681 0.7807849 0.23278698 83 13 -0.01208811
-0.74952447 0.64469266 -0.051812604 1 6 -0.012085806
-0.90403742 0.77786922 0.27534011 96 14 -0.012083502
-0.78355622 0.67444056 -0.018045789 2 7 -0.012081197
-0.91203684 0.78530645 0.32248855 78 15 -0.012078893
-0.46504399 0.40141505 -0.16460893 64 0 -0.012058157
-0.75676566 0.65345323 0.017452406 5 8 -0.012055853
-0.42620054 0.368146 -0.13002171 61 1 -0.012053549
-0.94315088 0.8146804 0.065315276 100 9 -0.012051245
-0.95111883 0.82214326 0.10999054 100 10 -0.012046638
-0.94284523 0.81556666 0.1530679 100 11 -0.01204203
-0.43682572 0.37799016 -0.070927963 7 4 -0.012039726
-0.93659532 0.81044632 0.19616884 100 12 -0.012037422
-0.91127241 0.78909057 0.23431346 83 13 -0.012032813
-0.73821163 0.63945889 -0.051184569 1 6 -0.012030509
-0.90426224 0.78357232 0.2762399 92 14 -0.012028206
-0.75109053 0.6508441 -0.017347692 2 7 -0.012025902
-0.90650803 0.78579587 0.32145327 82 15 -0.012023598
-0.447602 0.38909453 -0.15891489 100 0 -0.012002861
-0.75006706 0.65202343 0.017347692 6 8 -0.012000558
-0.43968251 0.38234481 -0.13452074 58 1 -0.011998254
-0.94934285 0.82583278 0.065943316 100 9 -0.01199595
-0.9452377 0.82284158 0.10964192 100 10 -0.011991342
-0.94462681 0.82259959 0.15379913 100 11 -0.011986733
-0.43556982 0.37943664 -0.070927963 7 4 -0.011984429
-0.92780375 0.8085193 0.19491737 100 12 -0.011982126
-0.9086507 0.79210818 0.23431346 85 13 -0.011977518
-0.75113994 0.65503031 -0.052231289 1 6 -0.011975214
-0.90753281 0.79169089 0.27803952 94 14 -0.01197291
-0.74881393 0.65346217 -0.017347692 2 7 -0.011970606
-0.9037596 0.78895539 0.32145327 82 15 -0.011968302
-0.44035962 0.3856414 -0.15684435 46 0 -0.011927366
-0.75056618 0.65753406 0.017417502 6 8 -0.011925062
-0.44553912 0.39045212 -0.13677025 86 1 -0.011922758
-0.95217216 0.83473831 0.066361994 100 9 -0.011920454
-0.93921947 0.82367349 0.1092933 100 10 -0.011915846
-0.94593734 0.83014876 0.15453033 100 11 -0.011911239
-0.43410969 0.38110632 -0.070927963 7 4 -0.011908934
-0.93211365 0.81859332 0.1964817 100 12 -0.01190663
-0.90560269 0.79559106 0.23431346 85 13 -0.011902022
-0.73961788 0.6499989 -0.051603258 1 6 -0.011899718
-0.9074133 0.79774302 0.27893931 94 14 -0.011897414
-0.90072358 0.79241979 0.32145327 79 15 -0.011892806
-0.4404597 0.38845402 -0.15736198 69 0 -0.01187207
-0.74076891 0.65353519 0.017242977 6 8 -0.011869766
-0.43686798 0.38555753 -0.13452074 58 1 -0.011867463
-0.95374405 0.84202278 0.066676013 100 9 -0.011865159
-0.94231224 0.83222234 0.10999054 100 10 -0.01186055
-0.93857127 0.82950217 0.15379913 100 11 -0.011855942
-0.43277684 0.38261923 -0.070927963 7 4 -0.011853638
-0.94552732 0.83623743 0.19992328 100 12 -0.011851334
-0.90576059 0.80134934 0.23507671 85 13 -0.011846726
-0.91045946 0.80607283 0.28073892 92 14 -0.011842119
-0.90373582 0.80068332 0.32352382 79 15 -0.01183751
-0.46221161 0.41051489 -0.1656442 63 0 -0.011816774
-0.75492704 0.67072684 0.01762693 4 8 -0.01181447
-0.42095354 0.37413433 -0.13002171 61 1 -0.011812166
-0.94497538 0.83987343 0.066257328 100 9 -0.011809862
-0.94386762 0.83947879 0.11051348 100 10 -0.011805254
-0.93270457 0.83013356 0.15331164 100 11 -0.011800646
-0.43150562 0.38405225 -0.070927963 7 4 -0.011798343
-0.94127363 0.83805478 0.1996104 100 12 -0.011796039
-0.90295804 0.804506 0.23507671 85 13 -0.01179143
-0.90050751 0.80260456 0.27848941 90 14 -0.011786822
-0.90395916 0.80624771 0.32455909 82 15 -0.011782214
-0.45652735 0.40818232 -0.16409127 64 0 -0.011761478
-0.74673676 0.66789418 0.017487312 5 8 -0.011759174
-0.4255197 0.38072586 -0.13182132 60 1 -0.01175687
-0.93920815 0.84033906 0.066047981 100 9 -0.011754566
-0.94404733 0.84526229 0.11086211 100 10 -0.011749959
-0.93881738 0.84117013 0.15477408 100 11 -0.01174535
-0.93407649 0.83721632 0.1986718 100 12 -0.011740742
-0.90905404 0.81536138 0.23736641 81 13 -0.011736134
-0.8934896 0.80168211 0.27713972 94 14 -0.011731526
-0.9099052 0.81698483 0.32766491 79 15 -0.011726919
-0.44512016 0.40064716 -0.1604678 66 0 -0.011706182
-0.75640625 0.68107128 0.017766548 5 8 -0.011703879
-0.43294266 0.38996014 -0.13452074 43 1 -0.011701575
-0.94220448 0.84895998 0.066466674 100 9 -0.01169927
-0.93975919 0.84705436 0.11068779 100 10 -0.011694662
-0.94191915 0.84959686 0.15574904 100 11 -0.011690054
-0.42888144 0.38698053 -0.070927963 7 4 -0.01168775
-0.93114835 0.8404718 0.1986718 100 12 -0.011685446
-0.91217381 0.82363433 0.23889288 83 13 -0.011680839
-0.90225303 0.81524801 0.28073892 94 14 -0.01167623
-0.89845043 0.81238186 0.32455909 79 15 -0.011671622
-0.44221753 0.40097839 -0.15995018 67 0 -0.011650886
-0.73772907 0.6689319 0.017382598 4 8 -0.011648582
-0.43446571 0.39408746 -0.13542055 58 1 -0.011646278
-0.94810969 0.86029661 0.067094706 100 9 -0.011643974
-0.93369842 0.84781408 0.11033916 100 10 -0.011639366
-0.94188637 0.85554928 0.15623651 100 11 -0.011634759
-0.93113238 0.84637403 0.19929753 100 12 -0.01163015
-0.9033398 0.82168764 0.23736641 83 13 -0.011625542
-0.90214121 0.82117307 0.28163874 92 14 -0.011620934
-0.90417963 0.82331711 0.32766491 78 15 -0.011616326
-0.43368232 0.3960062 -0.15736198 69 0 -0.01159559
-0.73674887 0.67297971 0.017417502 4 8 -0.011593286
-0.42726389 0.39041913 -0.13362093 59 1 -0.011590982
-0.94789875 0.86646068 0.067304045 100 9 -0.011588679
-0.93808484 0.85779089 0.11121072 100 10 -0.011584071
-0.93288642 0.85363507 0.15526156 100 11 -0.011579462
-0.42610133 0.39003962 -0.070927963 7 4 -0.011577158
-0.93676502 0.85778558 0.20117474 100 12 -0.011574854
-0.9004662 0.82483572 0.23736641 85 13 -0.011570246
-0.90070581 0.82563394 0.28208864 90 14 -0.011565639
-0.89830869 0.82401383 0.32662967 79 15 -0.011561031
-0.45362779 0.41713199 -0.16512655 85 0 -0.011540295
-0.74028206 0.6809628 0.017557122 4 8 -0.011537991
-0.42016253 0.38662985 -0.13182132 75 1 -0.011535686
-0.94192946 0.86705893 0.067094706 100 9 -0.011533382
-0.9365505 0.86240995 0.11138504 100 10 -0.011528774
-0.92698139 0.85419595 0.15477408 100 11 -0.011524166
-0.42473722 0.39152464 -0.070927963 7 4 -0.011521862
-0.93812168 0.86506766 0.20211335 100 12 -0.011519559
-0.90335357 0.8332988 0.23889288 81 13 -0.011514951
-0.76766717 0.70838284 -0.054743413 1 6 -0.011512646
-0.89495432 0.82612932 0.28118882 90 14 -0.011510342
-0.90394121 0.83500957 0.32973549 78 15 -0.011505734
-0.45075148 0.41740036 -0.16460893 64 0 -0.011484998
-0.73790067 0.68354261 0.017557122 3 8 -0.011482694
-0.43024546 0.39869061 -0.13542055 58 1 -0.01148039
-0.93743217 0.86898398 0.066990033 100 9 -0.011478086
-0.94083929 0.87244725 0.1122566 100 10 -0.011473478
-0.93999994 0.87227976 0.15745521 100 11 -0.011468871
-0.42336792 0.39300489 -0.070927963 7 4 -0.011466566
-0.92930651 0.86296022 0.20086187 100 12 -0.011464262
-0.90619284 0.84179175 0.24041936 81 13 -0.011459654
-0.76518977 0.7110582 -0.054743413 1 6 -0.01145735
-0.89206535 0.82924807 0.28118882 90 14 -0.011455046
-0.90102088 0.8381598 0.32973549 79 15 -0.011450438
-0.46059462 0.42951134 -0.16875002 61 0 -0.011429702
-0.74135917 0.6915704 0.01769674 3 8 -0.011427398
-0.43455014 0.40550816 -0.13722014 57 1 -0.011425095
-0.93731308 0.87497675 0.067199372 100 9 -0.011422791
-0.92759478 0.8662073 0.11103641 100 10 -0.011418182
-0.94275087 0.88097715 0.15843016 100 11 -0.011413574
-0.92917395 0.8688975 0.20148762 100 12 -0.011408966
-0.91185123 0.85299689 0.24270906 78 13 -0.011404358
-0.76270324 0.71372473 -0.054743413 1 6 -0.011402055
-0.89343309 0.83635247 0.28253853 94 14 -0.011399751
-0.89527023 0.83865827 0.32870021 79 15 -0.011395142
-0.43796867 0.41127992 -0.16098545 44 0 -0.011374407
-0.74185556 0.69689232 0.017766548 3 8 -0.011372102
-0.4331319 0.40702266 -0.13722014 57 1 -0.011369798
-0.9429847 0.88645095 0.067827404 100 9 -0.011367494
-0.47347802 0.44509211 -0.12631556 9 2 -0.01136519
-0.9318226 0.87626445 0.11190797 100 10 -0.011362886
-0.93677878 0.88154149 0.15794268 100 11 -0.011358278
-0.420614 0.39595085 -0.070927963 7 4 -0.011355974
-0.9290114 0.87484407 0.20211335 100 12 -0.011353671
-0.90029418 0.84809738 0.24041936 83 13 -0.011349062
-0.76020718 0.71638274 -0.054743413 1 6 -0.011346758
-0.89476228 0.8434763 0.28388825 88 14 -0.011344454
-0.89514744 0.84442967 0.32973549 77 15 -0.011339846
-0.44775945 0.42342502 -0.16512655 64 0 -0.01131911
-0.73360783 0.69398052 0.01762693 3 8 -0.011316806
-0.42887768 0.40585309 -0.13632034 71 1 -0.011314502
-0.94568646 0.89522952 0.068246089 100 9 -0.011312198
-0.47192147 0.44674221 -0.12631556 9 2 -0.011309894
-0.92875791 0.87951201 0.11190797 100 10 -0.011307591
-0.93369591 0.8848061 0.15794268 100 11 -0.011302982
-0.41922921 0.39741677 -0.070927963 7 4 -0.011300678
-0.9359858 0.88759637 0.20430344 100 12 -0.011298374
-0.89447957 0.84853244 0.23965611 83 13 -0.011293766
-0.75770175 0.71903217 -0.054743413 1 6 -0.011291462
-0.89605272 0.8506192 0.28523794 92 14 -0.011289158
-0.90059805 0.85553235 0.33284131 79 15 -0.011284551
-0.44627878 0.42498532 -0.16512655 64 0 -0.011263814
-0.76158625 0.72550219 0.018359931 2 8 -0.011261511
-0.41617236 0.39659265 -0.13272113 74 1 -0.011259207
-0.93388212 0.89025623 0.067618065 100 9 -0.011256902
-0.4703593 0.44838667 -0.12631556 9 2 -0.011254598
-0.93289173 0.8896234 0.11277953 100 10 -0.011252294
-0.93060166 0.88805997 0.15794268 100 11 -0.011247686
-0.41783953 0.39887768 -0.070927963 7 4 -0.011245382
-0.93859607 0.89631498 0.2055549 100 12 -0.011243078
-0.89719033 0.85707438 0.24118258 81 13 -0.011238471
-0.75518733 0.72167253 -0.054743413 1 6 -0.011236167
-0.89307797 0.85374188 0.28523794 92 14 -0.011233862
-0.89760643 0.85867071 0.33284131 78 15 -0.011229254
-0.45315856 0.43456322 -0.16823238 62 0 -0.011208518
-0.7691505 0.73784661 0.018604266 3 8 -0.011206214
-0.42322177 0.40613875 -0.13542055 58 1 -0.01120391
-0.92932785 0.89212781 0.067513391 100 9 -0.011201606
-0.45462823 0.43642995 -0.12249938 10 2 -0.011199302
-0.93265492 0.89563459 0.11312816 100 10 -0.011196998
-0.92749608 0.891303 0.15794268 100 11 -0.011192391
-0.4164446 0.40033376 -0.070927963 7 4 -0.011190087
-0.93119019 0.89547831 0.20461631 100 12 -0.011187783
-0.89985275 0.86564505 0.24270906 81 13 -0.011183174
-0.88868845 0.85550267 0.28478804 88 14 -0.011178566
-0.89460355 0.8617987 0.33284131 78 15 -0.011173958
-0.44191119 0.42674869 -0.16460893 64 0 -0.011153222
-0.79245812 0.7655353 0.019232551 3 8 -0.011150918
-0.42740691 0.4130303 -0.13722014 71 1 -0.011148614
-0.93482387 0.90369534 0.068141423 100 9 -0.011146311
-0.43898672 0.42436898 -0.1186832 10 2 -0.011144007
-0.92665827 0.89611453 0.11277953 100 10 -0.011141703
-0.93293828 0.90281796 0.15940511 100 11 -0.011137094
-0.92380148 0.89460075 0.2036777 100 12 -0.011132486
-0.89823568 0.87014693 0.24309067 76 13 -0.011127878
-0.89409208 0.86673802 0.28748745 86 14 -0.01112327
-0.92879969 0.90069824 -0.022583414 2 7 -0.011120967
-0.89436316 0.86760658 0.33387658 77 15 -0.011118663
-0.43072405 0.41886091 -0.16098545 89 0 -0.011097927
-0.91448361 0.88960665 0.022269269 6 8 -0.011095623
-0.42316923 0.41180164 -0.13632034 71 1 -0.011093318
-0.93738818 0.91252565 0.068560109 100 9 -0.011091014
-0.44312978 0.43137655 -0.12020968 10 2 -0.01108871
-0.92637968 0.90212369 0.11312816 100 10 -0.011086406
-0.93831128 0.91438156 0.16086754 100 11 -0.011081798
-0.92491579 0.90195745 0.20461631 100 12 -0.01107719
-0.89097685 0.86916429 0.2419458 83 13 -0.011072583
-0.94484943 0.92203945 -0.06918814 1 6 -0.011070278
-0.89106113 0.86985368 0.28748745 88 14 -0.011067974
-0.94138747 0.91930324 -0.022967368 17 7 -0.01106567
-0.89132923 0.87072325 0.33387658 77 15 -0.011063366
-0.44030151 0.43117496 -0.16512655 64 0 -0.01104263
-0.93422842 0.91518325 0.022827748 29 8 -0.011040326
-0.42172921 0.41327626 -0.13632034 57 1 -0.011038022
-0.94132864 0.92278272 0.069083467 100 9 -0.011035718
-0.45003319 0.4411667 -0.12249938 10 2 -0.011033414
-0.92322481 0.90535212 0.11312816 100 10 -0.01103111
-0.92519611 0.90791857 0.15916139 100 11 -0.011026503
-0.93021828 0.91348487 0.20649351 100 12 -0.011021894
-0.89073873 0.8750205 0.24270906 78 13 -0.011017286
-0.91740769 0.90153402 -0.067408718 4 6 -0.011014982
-0.89079869 0.875691 0.28838724 88 14 -0.011012678
-0.93817306 0.92258346 -0.022967368 12 7 -0.011010374
-0.89379311 0.87924826 0.33594716 77 15 -0.01100807
-0.44704688 0.44084799 -0.16823238 62 0 -0.010987334
-0.93956941 0.92686498 0.023037177 60 8 -0.01098503
-0.41751 0.41200823 -0.13542055 72 1 -0.010982726
-0.93099493 0.91904742 0.068560109 100 9 -0.010980423
-0.43451881 0.42894262 -0.1186832 10 2 -0.010978119
-0.93281776 0.9211688 0.11469696 100 10 -0.010975814
-0.92202121 0.91114253 0.15916139 100 11 -0.010971206
-0.93123788 0.92089313 0.20743214 100 12 -0.010966598
-0.89326161 0.88364756 0.24423553 78 13 -0.01096199
-0.92135334 0.9117552 -0.067932077 7 6 -0.010959687
-0.89050651 0.8815369 0.28928703 90 14 -0.010957383
-0.93778837 0.92866707 -0.023037177 17 7 -0.010955079
-0.89209086 0.88372242 0.33646476 76 15 -0.010952774
-0.44824693 0.44512832 -0.16926767 61 0 -0.010932039
-0.9405846 0.93436682 0.023141891 84 8 -0.010929734
-0.4215984 0.41895762 -0.13722014 57 1 -0.01092743
-0.92778099 0.92229182 0.068560109 100 9 -0.010925126
-0.43301877 0.43045685 -0.1186832 10 2 -0.010922822
-0.93383497 0.92863375 0.11521988 100 10 -0.010920518
-0.92587036 0.92135686 0.16038008 100 11 -0.01091591
-0.92381853 0.91995662 0.20649351 100 12 -0.010911303
-0.89017165 0.88676018 0.24423553 81 13 -0.010906694
-0.93655694 0.93329304 -0.069292814 15 6 -0.01090439
-0.8846637 0.88188839 0.28838724 86 14 -0.010902086
-0.94728476 0.94464314 -0.023351319 19 7 -0.010899782
-0.89036858 0.88819528 0.3369824 78 15 -0.010897478
-0.43576217 0.43576208 -0.16512655 85 0 -0.010876742
-0.94014472 0.9404729 0.023211701 100 8 -0.010874438
-0.42013335 0.4204267 -0.13722014 57 1 -0.010872134
-0.93020225 0.93117666 0.068978801 100 9 -0.01086983
-0.45371369 0.45418897 -0.12478909 9 2 -0.010867527
-0.9263643 0.92765844 0.11469696 100 10 -0.010865223
-0.93246412 0.93441886 0.16208623 100 11 -0.010860614
-0.9192065 0.92177719 0.20618065 100 12 -0.010856006
-0.8926152 0.89542353 0.24576201 83 13 -0.010851398
-0.92765421 0.93089759 -0.068874128 25 6 -0.010849094
-0.88433033 0.88773257 0.28928703 90 14 -0.01084679
-0.94680375 0.95077771 -0.023421129 68 7 -0.010844486
-0.88862562 0.89266688 0.33750004 73 15 -0.010842182
-0.44512841 0.44824684 -0.16926767 61 0 -0.010821447
-0.93403858 0.94091058 0.023141891 100 8 -0.010819143
-0.42689925 0.43019021 -0.13991956 69 1 -0.010816839
-0.93273658 0.93992704 0.069397487 100 9 -0.010814535
-0.45212549 0.45576999 -0.12478909 9 2 -0.01081223
-0.92171746 0.92947167 0.11452264 100 10 -0.010809926
-0.93618315 0.9447183 0.16330492 100 11 -0.010805318
-0.92587632 0.93464363 0.20837073 100 12 -0.01080071
-0.88395941 0.89295298 0.24423553 83 13 -0.010796102
-0.94406712 0.95400524 -0.070339531 10 6 -0.010793799
-0.88396734 0.89358467 0.29018685 88 14 -0.010791495
-0.93942666 0.94964737 -0.023316415 76 7 -0.01078919
-0.87343508 0.88324612 0.33284131 72 15 -0.010786886
-0.43542227 0.44154474 -0.16616184 63 0 -0.01076615
-0.92389286 0.93688369 0.022967368 100 8 -0.010763846
-0.42136621 0.42744005 -0.13856986 84 1 -0.010761542
-0.9350574 0.94886756 0.069816172 100 9 -0.010759238
-0.43399855 0.44056213 -0.12020968 10 2 -0.010756934
-0.92405921 0.93836176 0.11521988 100 10 -0.01075463
-0.92608213 0.94074434 0.16208623 100 11 -0.010750022
-0.92399353 0.93927819 0.20868361 100 12 -0.010745415
-0.59371668 0.60374862 -0.074082382 5 5 -0.01074311
-0.88374645 0.89867902 0.24499875 83 13 -0.010740806
-0.90029401 0.91582584 -0.067304045 1 6 -0.010738502
-0.88919461 0.90485072 0.29288626 90 14 -0.010736198
-0.94311279 0.96005344 -0.023490939 95 7 -0.010733894
-0.88252884 0.89869487 0.33750004 73 15 -0.01073159
-0.43936315 0.4485063 -0.16823238 41 0 -0.010710854
-0.92061704 0.94010276 0.022967368 87 8 -0.01070855
-0.41032898 0.41916049 -0.13542055 58 1 -0.010706246
-0.93190575 0.95196313 0.069816172 100 9 -0.010703942
-0.43253517 0.4419989 -0.12020968 10 2 -0.010701639
-0.92233604 0.94284511 0.1153942 100 10 -0.010699335
-0.91862977 0.93971282 0.16135503 100 11 -0.010694726
-0.92501563 0.94657522 0.2096222 100 12 -0.010690118
-0.62094873 0.6356436 -0.077742919 4 5 -0.010687814
-0.88334739 0.90456766 0.24576201 85 13 -0.01068551
-0.88058645 0.90237033 0.29108664 90 14 -0.010680903
-0.93852735 0.96174455 -0.023456035 48 7 -0.010678599
-0.87819481 0.90023375 0.3369824 76 15 -0.010676295
-0.4512656 0.46388441 -0.17340876 58 0 -0.010655558
-0.92586058 0.95175052 0.023176797 64 8 -0.010653255
-0.41437116 0.42610705 -0.13722014 71 1 -0.01065095
-0.92579269 0.95234609 0.069606826 100 9 -0.010648646
-0.42551687 0.43787414 -0.1186832 21 2 -0.010646342
-0.92320377 0.95034635 0.11591713 100 10 -0.010644038
-0.92104018 0.94845027 0.16232997 100 11 -0.01063943
-0.91757864 0.94554591 0.20868361 100 12 -0.010634823
-0.61872613 0.63780725 -0.077742919 4 5 -0.010632519
-0.88581067 0.91312855 0.24728847 83 13 -0.010630215
-0.91350543 0.94200569 -0.068769448 1 6 -0.01062791
-0.87894565 0.9066847 0.29153654 92 14 -0.010625606
-0.95464706 0.98511922 -0.023944702 24 7 -0.010623302
-0.8844564 0.91300642 0.34060588 73 15 -0.010620998
-0.44435498 0.45982161 -0.17133822 60 0 -0.010596991
-0.91975409 0.95210034 0.023106987 36 8 -0.010594686
-0.4210034 0.43596184 -0.13991956 55 1 -0.010592382
-0.92801154 0.96131945 0.070025519 100 9 -0.010590078
-0.42951667 0.44493276 -0.12020968 10 2 -0.010587774
-0.91589689 0.94910139 0.1153942 100 10 -0.01058547
-0.92461389 0.95880395 0.16354866 100 11 -0.010580863
-0.91564316 0.95016545 0.20899647 100 12 -0.010576255
-0.62478983 0.64857239 -0.078788787 4 5 -0.010573951
-0.88806635 0.92187047 0.24881494 81 13 -0.010571647
-0.89635736 0.93080252 -0.06772273 1 6 -0.010569342
-0.87712687 0.91115129 0.29198647 90 14 -0.010567038
-0.93872344 0.9754774 -0.023630559 53 7 -0.010564734
-0.87590659 0.91051948 0.33853534 81 15 -0.01056243
-0.42795557 0.44611219 -0.1656442 63 0 -0.010541694
-0.9219619 0.96107745 0.023246605 26 8 -0.01053939
-0.41678151 0.43461564 -0.13901976 70 1 -0.010537087
-0.92879671 0.96887839 0.070339531 100 9 -0.010534783
-0.4441832 0.46351379 -0.12478909 19 2 -0.010532479
-0.91103375 0.95101315 0.11521988 100 10 -0.010530175
-0.92675322 0.9677605 0.16452362 100 11 -0.010525567
-0.91641831 0.95763725 0.20993507 84 12 -0.010520958
-0.63078564 0.65938765 -0.079834662 3 5 -0.010518654
-0.88196772 0.92228168 0.2480517 81 13 -0.01051635
-0.99782932 1.0438035 -0.075677805 1 6 -0.010514047
-0.87782061 0.91858637 0.29333615 94 14 -0.010511743
-0.94498342 0.98886818 -0.023874892 90 7 -0.010509439
-0.87806064 0.91915905 0.34060588 74 15 -0.010507135
-0.4317258 0.45319822 -0.16771474 62 0 -0.010486399
-0.91015929 0.95576119 0.023037177 36 8 -0.010484095
-0.40981117 0.43049443 -0.13722014 57 1 -0.010481791
-0.93350035 0.98095709 0.070967562 100 9 -0.010479487
-0.43714899 0.45937252 -0.12326261 19 2 -0.010477182
-0.91457468 0.96140522 0.11609145 100 10 -0.010474878
-0.92183226 0.96971208 0.16427989 100 11 -0.01047027
-0.91698349 0.96528637 0.21087368 70 12 -0.010465663
-0.64494663 0.67891979 -0.081926398 3 5 -0.010463359
-0.87333524 0.91966027 0.24652523 83 13 -0.010461055
-0.9309262 0.98064828 -0.070862897 6 6 -0.010458751
-0.88533998 0.93295377 0.29693538 94 14 -0.010456447
-0.94548124 0.9966777 -0.023979606 98 7 -0.010454142
-0.87867397 0.9265762 0.34215879 77 15 -0.010451838
-0.43677917 0.46171951 -0.17030294 60 0 -0.010431102
-0.91643536 0.96910298 0.023281511 57 8 -0.010428798
-0.41098338 0.43475464 -0.13811995 70 1 -0.010426494
-0.92595506 0.97985476 0.070653543 100 9 -0.01042419
-0.43284595 0.45804182 -0.12249938 20 2 -0.010421887
-0.92079049 0.97473025 0.11731163 100 10 -0.010419583
-0.91571641 0.97003698 0.16379242 100 11 -0.010414975
-0.92445242 0.97997665 0.21337664 65 12 -0.010410367
-0.72460341 0.7681244 -0.092385083 1 5 -0.010408062
-0.88089538 0.93412971 0.24957818 81 13 -0.010405758
-0.92749721 0.98389208 -0.070862897 13 6 -0.010403454
-0.87673205 0.9303655 0.29513577 92 14 -0.01040115
-0.93651193 0.99414951 -0.023839988 100 7 -0.010398846
-0.88073164 0.93526357 0.34422934 79 15 -0.010396543
-0.44045556 0.46887344 -0.17237349 59 0 -0.010375806
-0.92399812 0.98395753 0.023560748 68 8 -0.010373503
-0.42280084 0.45039463 -0.14261897 81 1 -0.010371199
-0.91996676 0.98000771 0.070444204 100 9 -0.010368895
-0.42855754 0.45668671 -0.12173614 20 2 -0.010366591
-0.9201085 0.98084497 0.11766025 100 10 -0.010364287
-0.91775531 0.9790206 0.16476737 100 11 -0.010359678
-0.91714543 0.97871274 0.21243803 63 12 -0.01035507
-0.89354366 0.95385981 -0.11434833 1 5 -0.010352766
-0.8829971 0.942931 0.25110465 85 13 -0.010350463
-0.92269212 0.98566562 -0.070758224 15 6 -0.010348159
-0.86948484 0.92915136 0.29378608 90 14 -0.010345855
-0.93457633 0.99870968 -0.023874892 100 7 -0.010343551
-0.87498611 0.93535739 0.34319407 79 15 -0.010341247
-0.42695636 0.45769423 -0.16771474 62 0 -0.010320511
-0.92755038 0.99432749 0.023735272 78 8 -0.010318207
-0.42130494 0.45179421 -0.14261897 67 1 -0.010315903
-0.92607337 0.9934395 0.071176901 100 9 -0.010313598
-0.42294562 0.45387089 -0.12059129 30 2 -0.010311294
-0.91396314 0.98113483 0.11731163 100 10 -0.01030899
-0.92397326 0.99222773 0.16647354 100 11 -0.010304383
-0.91237801 0.9804619 0.21212517 60 12 -0.010299775
-0.89156562 0.95843184 -0.11452264 2 5 -0.010297471
-0.88521403 0.95160389 0.25263113 83 13 -0.010295167
-0.92077857 0.99018264 -0.070862897 7 6 -0.010292863
-0.87568629 0.94202077 0.29693538 92 14 -0.010290558
-0.92700088 0.99757147 -0.023770178 100 7 -0.010288254
-0.87434506 0.94123691 0.34422934 82 15 -0.01028595
-0.43200162 0.4661926 -0.17030294 60 0 -0.010265214
-0.91863793 0.99169153 0.023595655 100 8 -0.01026291
-0.41442913 0.44754273 -0.14081937 68 1 -0.010260606
-0.92667043 1.001063 0.071490921 100 9 -0.010258303
-0.4241055 0.45815241 -0.12135453 30 2 -0.010255999
-0.91070449 0.98416024 0.11731163 100 10 -0.010253695
-0.92050433 0.9954468 0.16647354 100 11 -0.010249087
-0.91029054 0.98509151 0.21243803 54 12 -0.010244478
-0.85322577 0.92333758 -0.10999054 2 5 -0.010242174
-0.87922257 0.95180374 0.25186789 78 13 -0.01023987
-0.93222147 1.0095313 -0.07201428 24 6 -0.010237566
-0.87767994 0.95079947 0.29873499 96 14 -0.010235263
-0.92622524 1.0037404 -0.023839988 100 7 -0.010232959
-0.87105441 0.94428301 0.34422934 77 15 -0.010230655
-0.44476098 0.48333502 -0.17599694 57 0 -0.010209919
-0.91652441 0.99636382 0.023630559 100 8 -0.010207615
-0.41022635 0.44611761 -0.13991956 69 1 -0.010205311
-0.9312802 1.013114 0.072118953 100 9 -0.010203007
-0.43180403 0.46974769 -0.12402585 29 2 -0.010200703
-0.91535211 0.99613559 0.11835749 100 10 -0.010198398
-0.91433853 0.99572998 0.16598606 100 11 -0.01019379
-0.90551084 0.98680764 0.21212517 53 12 -0.010189183
-0.8809799 0.96007431 -0.11399971 2 5 -0.010186879
-0.87058622 0.94907993 0.25034142 85 13 -0.010184575
-0.9286918 1.0127791 -0.07201428 47 6 -0.010182271
-0.87698919 0.95673037 0.29963478 92 14 -0.010179967
-0.93622553 1.0217106 -0.024189034 100 7 -0.010177663
-0.87558222 0.95586503 0.34733516 78 15 -0.010175359
-0.43394896 0.4749018 -0.17237349 59 0 -0.010154623
-0.91843575 1.0054626 0.023770178 100 8 -0.010152319
-0.41260871 0.45186403 -0.14126927 81 1 -0.010150014
-0.9196589 1.0075082 0.071490921 100 9 -0.01014771
-0.43677941 0.47850224 -0.12593395 28 2 -0.010145406
-0.91186935 0.99932468 0.11835749 100 10 -0.010143102
-0.9108572 0.99891555 0.16598606 100 11 -0.010138495
-0.89940006 0.98704207 0.21149944 53 12 -0.010133887
-0.85749453 0.94105309 -0.11138504 2 5 -0.010131583
-0.87520039 0.96082157 0.25263113 83 13 -0.010129279
-0.91708273 1.0071541 -0.071386255 45 6 -0.010126974
-0.86839718 0.95402139 0.2978352 94 14 -0.01012467
-0.93399918 1.0264516 -0.024223939 100 7 -0.010122366
-0.87484014 0.96177375 0.34837046 77 15 -0.010120062
-0.44007769 0.48499763 -0.17547932 57 0 -0.010099326
-0.92163783 1.0160682 0.023944702 100 8 -0.010097022
-0.42150095 0.46485066 -0.14486848 91 1 -0.010094719
-0.91613638 1.0107123 0.071490921 100 9 -0.010092415
-0.42192143 0.46547779 -0.12211777 40 2 -0.010090111
-0.91774046 1.0128366 0.11957768 100 10 -0.010087807
-0.90869701 1.0035604 0.1662298 100 11 -0.010083199
-0.89329809 0.98724622 0.21087368 53 12 -0.01007859
-0.82613176 0.91301596 -0.1077245 1 5 -0.010076286
-0.87974298 0.97260666 0.25492084 81 13 -0.010073982
-0.91088259 1.0073861 -0.071176901 10 6 -0.010071679
-0.86767519 0.95993823 0.29873499 96 14 -0.010069375
-0.9263885 1.0252545 -0.024119226 100 7 -0.010067071
-0.87147784 0.96482158 0.34837046 78 15 -0.010064767
-0.43708885 0.48509565 -0.17496169 96 0 -0.010044031
-0.92210042 1.0237366 0.024049416 100 8 -0.010041727
-0.406836 0.45183724 -0.14036946 96 1 -0.010039423
-0.91661149 1.0183573 0.071804941 100 9 -0.010037119
-0.41504043 0.4611108 -0.12059129 41 2 -0.010034814
-0.90620339 1.0071472 0.1185318 100 10 -0.01003251
-0.91713399 1.0200113 0.16842344 100 11 -0.010027902
-0.88456547 0.98448086 0.2096222 53 12 -0.010023295
-0.87634277 0.97567141 0.25492084 83 13 -0.010018687
-0.91136342 1.0150182 -0.071490921 1 6 -0.010016383
-0.86952579 0.96876216 0.30053461 96 14 -0.010014079
-0.9228043 1.0284817 -0.024119226 100 7 -0.010011774
-0.86810434 0.9678579 0.34837046 79 15 -0.01000947
-0.43539289 0.48661843 -0.17496169 96 0 -0.0099887345
-0.91452163 1.022478 0.023944702 100 8 -0.0099864304
-0.41304982 0.46197101 -0.14306886 80 1 -0.0099841263
-0.91438216 1.0230398 0.071909614 100 9 -0.0099818222
-0.41866162 0.46841192 -0.12211777 40 2 -0.0099795181
-0.90533698 1.0132762 0.11888044 100 10 -0.009977215
-0.91224581 1.0217258 0.16817972 100 11 -0.0099726068
-0.88243896 0.98903644 0.20993507 55 12 -0.0099679986
-0.87293172 0.97872454 0.25492084 81 13 -0.0099633904
-0.86613911 0.97179133 0.30053461 96 14 -0.0099587822
-0.9218691 1.0346828 -0.024189034 100 7 -0.0099564791
-0.8634358 0.96943974 0.34785283 76 15 -0.009954175
-0.4324086 0.48669094 -0.17444403 58 0 -0.0099334382
-0.91227514 1.0271589 0.023979606 100 8 -0.009931135
-0.41143471 0.46340999 -0.14306886 93 1 -0.0099288309
-0.91876036 1.0351878 0.072537638 100 9 -0.0099265268
-0.4274497 0.48161712 -0.12517071 38 2 -0.0099242227
-0.90708387 1.0223914 0.11957768 100 10 -0.0099219186
-0.90999031 1.0263895 0.16842344 100 11 -0.0099173104
-0.87898117 0.99211067 0.20993507 55 12 -0.0099127023
-0.86950976 0.98176587 0.25492084 85 13 -0.009908095
