# .PCD v0.7 - Point Cloud Data file format
VERSION 0.7
FIELDS x y z intensity ring time
SIZE 4 4 4 4 2 4
TYPE F F F F U F
COUNT 1 1 1 1 1 1
WIDTH 914
HEIGHT 1
VIEWPOINT 0 0 0 1 0 0 0
POINTS 914
DATA ascii
-1.0447049 0.19155063 0.20645534 45 13 -0.058259927
-1.0407486 0.19120073 0.24429685 100 14 -0.058255319
-1.0698942 0.19674824 -0.018988218 10 7 -0.058253016
-1.0012639 0.18430811 0.27279529 86 15 -0.05825071
-0.5109663 0.094701998 -0.13924466 53 0 -0.058229975
-1.0499225 0.19478117 0.018639171 100 8 -0.058227669
-1.0387572 0.19308485 0.055371448 100 9 -0.058223061
-1.0401084 0.19352382 0.092559397 100 10 -0.058218453
-1.0362316 0.19317675 0.12942526 100 11 -0.058213845
-1.0291511 0.1922285 0.16582055 100 12 -0.05820924
-0.9635908 0.17998292 -0.085761249 4 5 -0.058206934
-1.0633281 0.19880427 0.21027151 9 13 -0.058204632
-1.0419902 0.19519153 0.24474674 100 14 -0.058200024
-1.0534774 0.19753344 -0.01870898 20 7 -0.058197718
-1.0044119 0.18851481 0.27383056 90 15 -0.058195416
-0.49544641 0.093615592 -0.13510354 55 0 -0.058174677
-1.0354822 0.19584332 0.018394835 100 8 -0.058172375
-0.49591526 0.09388347 -0.11652464 52 1 -0.058170069
-1.0380769 0.19670965 0.055371448 100 9 -0.058167767
-1.0315965 0.19566792 0.09186215 100 10 -0.058163159
-0.52593237 0.09985137 -0.084787495 2 3 -0.058160856
-1.035551 0.19679272 0.12942526 100 11 -0.05815855
-1.0245928 0.1950808 0.16519481 100 12 -0.058153942
-0.85530907 0.16284947 -0.076174118 5 5 -0.05815164
-1.0645564 0.20288236 0.21065316 47 13 -0.058149334
-1.0336459 0.19736539 0.24294713 100 14 -0.058144726
-1.0488533 0.20045882 -0.018639171 31 7 -0.058142424
-0.99615782 0.19056803 0.27176002 90 15 -0.058140118
-0.4837347 0.093152538 -0.13199772 56 0 -0.058119383
-1.0289016 0.19832124 0.018290123 100 8 -0.058117077
-0.48984414 0.094506472 -0.11517494 52 1 -0.058114775
-1.0393449 0.20071049 0.055476118 100 9 -0.058112472
-1.0191702 0.19699925 0.090816282 100 10 -0.058107864
-1.0387557 0.20116089 0.12991273 100 11 -0.058103256
-1.018088 0.19752744 0.16425622 100 12 -0.058098648
-1.0291512 0.19986002 0.20378402 92 13 -0.05809404
-1.0406021 0.20246099 0.24474674 100 14 -0.058089431
-1.05011 0.20450079 -0.018674076 49 7 -0.058087125
-0.98979801 0.19293506 0.27020708 82 15 -0.058084823
-0.50994658 0.10004745 -0.13924466 53 0 -0.058064088
-1.0321274 0.2026825 0.018359931 100 8 -0.058061782
-0.48377484 0.095088147 -0.11382524 35 1 -0.05805948
-1.0484364 0.20626499 0.05599948 100 9 -0.058057174
-1.0262958 0.20209543 0.091513529 100 10 -0.058052566
-0.50584155 0.099700555 -0.081658795 2 3 -0.058050264
-1.0341519 0.20401719 0.12942526 100 11 -0.058047958
-1.0290196 0.20337784 0.16613342 100 12 -0.05804335
-1.0245954 0.2026895 0.20302078 100 13 -0.058038741
-1.0418006 0.20647077 0.24519664 99 14 -0.058034133
-1.0395823 0.20621994 -0.018499551 70 7 -0.058031831
-0.99859285 0.19827008 0.27279529 86 15 -0.058029525
-0.50580537 0.10106994 -0.13820937 53 0 -0.05800879
-1.0353353 0.20706819 0.018429741 100 8 -0.058006488
-0.48535079 0.097158775 -0.11427514 52 1 -0.058004182
-1.03596 0.20756948 0.055371448 100 9 -0.05800188
-1.0275375 0.20606819 0.091687836 100 10 -0.057997271
-1.01981 0.20488901 0.12771909 100 11 -0.057992663
-1.0263668 0.20657884 0.16582055 100 12 -0.057988055
-1.0373538 0.20897882 0.20569211 100 13 -0.057983447
-1.0315225 0.20817852 0.24294713 81 14 -0.057978839
-1.0662975 0.21539065 -0.018988218 95 7 -0.057976536
-0.99600124 0.20137182 0.27227765 82 15 -0.05797423
-0.4884119 0.099368468 -0.13355063 55 0 -0.057953496
-1.0306872 0.20988292 0.018359931 100 8 -0.05795119
-1.0352292 0.21118416 0.055371448 100 9 -0.057946581
-1.0385246 0.21204522 0.092733704 100 10 -0.057941973
-1.0327024 0.21123195 0.12942526 100 11 -0.057937365
-1.0159637 0.20817789 0.16425622 100 12 -0.057932757
-1.0423876 0.21378191 0.20683697 100 13 -0.057928152
-1.0307894 0.21177821 0.24294713 19 14 -0.057923544
-1.0420346 0.2142781 -0.01856936 100 7 -0.057921238
-1.0104297 0.2079626 0.27641875 79 15 -0.057918936
-0.50508744 0.10459855 -0.13820937 53 0 -0.057898197
-1.0377806 0.21510287 0.018499551 100 8 -0.057895895
-1.0403522 0.21601464 0.055685461 100 9 -0.057891287
-1.0241232 0.21283135 0.091513529 100 10 -0.057886679
-0.53571349 0.11142863 -0.086664706 2 3 -0.057884373
-1.0358456 0.21564469 0.12991273 100 11 -0.057882071
-1.0171645 0.2121263 0.16456908 100 12 -0.057877462
-1.0454787 0.21822129 0.20760021 100 13 -0.057872854
-1.0472113 0.21896465 0.24699625 13 14 -0.057868246
-1.0510669 0.21996202 -0.018743884 100 7 -0.057865944
-0.99646187 0.20871635 0.27279529 84 15 -0.057863638
-0.49715796 0.10476759 -0.13613883 54 0 -0.057842903
-1.0311537 0.2174858 0.018394835 100 8 -0.057840597
-0.49384034 0.10424851 -0.11652464 52 1 -0.057838295
-1.0415461 0.22005774 0.055790137 100 9 -0.057835989
-1.0155768 0.21475635 0.090816282 100 10 -0.057831384
-0.48507455 0.10266338 -0.07853011 2 3 -0.057829078
-1.0409126 0.22049327 0.13064395 100 11 -0.057826776
-1.0086884 0.21403523 0.16331759 100 12 -0.057822168
-1.0370289 0.220238 0.20607373 100 13 -0.05781756
-1.052159 0.22383507 0.24834597 61 14 -0.057812952
-1.0385575 0.22113095 -0.018534455 100 7 -0.057810646
-0.99383789 0.21179077 0.27227765 68 15 -0.057808343
-0.49490029 0.1060973 -0.13562119 54 0 -0.057787608
-1.0245225 0.2198256 0.018290123 100 8 -0.057785302
-0.47823101 0.10269845 -0.11292543 35 1 -0.057783
-1.0407717 0.22369187 0.055790137 100 9 -0.057780694
-1.0187167 0.21913788 0.091164902 100 10 -0.057776086
-0.48857549 0.10518751 -0.079155855 2 3 -0.057773784
-1.0246122 0.22078 0.12869403 100 11 -0.057771478
-1.013728 0.21880527 0.16425622 100 12 -0.05776687
-1.0324157 0.22302772 0.20531049 100 13 -0.057762261
-1.0399432 0.22503354 0.24564654 84 14 -0.057757653
-1.0455968 0.22644821 -0.018674076 100 7 -0.057755351
-0.51340199 0.11193974 -0.14079757 52 0 -0.05773231
-1.0257027 0.22382689 0.018325027 100 8 -0.057730008
-0.48167738 0.10519867 -0.11382524 35 1 -0.057727702
-1.036082 0.22647074 0.055580791 100 9 -0.0577254
-1.0335164 0.22609894 0.092559397 100 10 -0.057720792
-0.53451729 0.11703219 -0.086664706 2 3 -0.057718486
-1.0277134 0.22520535 0.12918152 100 11 -0.057716183
-1.0245346 0.22488359 0.16613342 100 12 -0.057711575
-1.0354661 0.22747245 0.20607373 100 13 -0.057706967
-1.025829 0.22573072 0.24249724 84 14 -0.057702359
-1.0448 0.23009643 -0.018674076 100 7 -0.057700053
-1.0112008 0.2228819 0.27745402 13 15 -0.057697751
-0.51300812 0.11373118 -0.14079757 52 0 -0.057677016
-1.0307717 0.22870512 0.018429741 100 8 -0.05767471
-0.48130721 0.10687941 -0.11382524 35 1 -0.057672407
-1.0274863 0.22835276 0.055162102 100 9 -0.057670102
-1.0366106 0.23057042 0.092908025 100 10 -0.057665493
-0.52639276 0.1171805 -0.085413225 2 3 -0.057663191
-1.026921 0.2287914 0.12918152 100 11 -0.057660885
-1.0198874 0.22759804 0.16550769 100 12 -0.057656277
-1.0423299 0.23279729 0.20760021 100 13 -0.057651669
-1.0250348 0.22931018 0.24249724 61 14 -0.057647064
-1.0361849 0.23199446 -0.018534455 100 7 -0.057644758
-1.0028762 0.2247207 0.27538347 57 15 -0.057642456
-0.4768008 0.10745163 -0.13096245 56 0 -0.057621717
-1.0397207 0.23450166 0.018604266 100 8 -0.057619415
-1.0305793 0.23281822 0.055371448 100 9 -0.057614807
-1.0163661 0.22979347 0.091164902 100 10 -0.057610199
-0.50286049 0.11378571 -0.081658795 2 3 -0.057607893
-1.0241801 0.2319362 0.12893778 100 11 -0.057605591
-1.0036753 0.22766101 0.16300473 100 12 -0.057600982
-1.0472547 0.23773819 0.20874506 86 13 -0.057596374
-1.03943 0.23634344 0.24609646 10 14 -0.057591766
-1.0275694 0.23383522 -0.018394835 100 7 -0.057589464
-0.9738313 0.22178526 0.26761889 50 15 -0.057587158
-0.49148756 0.11256561 -0.13510354 55 0 -0.057566423
-1.0213535 0.23410863 0.018290123 100 8 -0.057564117
-0.48624751 0.11154424 -0.11517494 35 1 -0.057561815
-1.0336536 0.23730779 0.055580791 100 9 -0.057559509
-1.0155578 0.23334013 0.091164902 100 10 -0.057554904
-0.52556187 0.12085255 -0.085413225 2 3 -0.057552598
-1.0330369 0.23773564 0.13015647 100 11 -0.057550296
-1.0047992 0.23160681 0.16331759 100 12 -0.057545688
-1.0234622 0.23609649 0.20416564 24 13 -0.05754108
-1.0325918 0.238772 -0.018499551 100 7 -0.057534166
-0.98434389 0.2277966 0.27072471 42 15 -0.057531863
-0.50426269 0.11734555 -0.13872701 53 0 -0.057511125
-1.0166347 0.23676549 0.018220313 100 8 -0.057508823
-0.48585519 0.11324078 -0.11517494 35 1 -0.05750652
-1.0406415 0.24254768 0.05599948 100 9 -0.057504214
-1.0224979 0.23869541 0.09186215 100 10 -0.057499606
-1.0264019 0.23998432 0.12942526 100 11 -0.057494998
-1.0040257 0.23493761 0.16331759 43 12 -0.05749039
-1.0473686 0.2458507 -0.01877879 100 7 -0.057478871
-0.98922509 0.23238498 0.27227765 32 15 -0.057476565
-0.50949013 0.12043845 -0.14027993 53 0 -0.05745583
-1.0236282 0.24197564 0.018359931 100 8 -0.057453528
-1.0320144 0.24433815 0.055580791 100 9 -0.05744892
-1.023597 0.24272262 0.092036456 100 10 -0.057444312
-0.51703876 0.12260392 -0.084161758 2 3 -0.057442006
-1.0082172 0.23926151 0.1272316 87 11 -0.057439703
-1.0523396 0.25089651 -0.018883504 100 7 -0.057423573
-0.99780333 0.2380784 0.27486584 28 15 -0.057421271
-0.49593803 0.1189725 -0.13665645 54 0 -0.057400536
-1.0266663 0.24648072 0.018429741 100 8 -0.05739823
-0.47370422 0.11381374 -0.11247552 36 1 -0.057395928
-1.0195037 0.24513753 0.054952759 100 9 -0.057393622
-1.0131012 0.24378508 0.091164902 87 10 -0.057389013
-0.50124383 0.12070812 -0.081658795 2 3 -0.057386711
-0.7481693 0.18100108 0.17771132 8 14 -0.057370581
-1.0359089 0.25080422 -0.018604266 100 7 -0.057368279
-1.0063539 0.24383432 0.27745402 28 15 -0.057365976
-0.4955197 0.12070305 -0.13665645 54 0 -0.057345238
-1.0277425 0.25053659 0.018464647 100 8 -0.057342935
-1.0205822 0.2491685 0.055057433 100 9 -0.057338327
-1.0045023 0.24542846 0.090467662 28 10 -0.057333719
-0.50081944 0.12245706 -0.081658795 2 3 -0.057331413
-0.7475329 0.18361178 0.17771132 8 14 -0.057315286
-1.0330852 0.25394112 -0.01856936 100 7 -0.057312984
-0.99048913 0.24365394 0.2733129 28 15 -0.057310678
-0.4688403 0.11593942 -0.12940952 57 0 -0.057289943
-1.0229794 0.25316182 0.018394835 100 8 -0.057287637
-1.0313377 0.25561234 0.055685461 46 9 -0.057283029
-0.52339536 0.12991507 -0.085413225 2 3 -0.057276119
-0.73035783 0.18169247 0.11920308 3 12 -0.057269208
-0.75061065 0.1868699 0.1503575 5 13 -0.0572646
-0.74688745 0.18621989 0.17771132 8 14 -0.057259992
-1.0457741 0.26093453 -0.018813694 92 7 -0.057257686
-0.97838682 0.24430187 0.27020708 28 15 -0.057255384
-0.4946433 0.1242457 -0.13665645 54 0 -0.057234645
-1.0123922 0.25429511 0.018220313 69 8 -0.057232343
-0.65249979 0.16462304 -0.082627423 6 4 -0.057216216
-0.70673585 0.17843793 0.11544865 3 12 -0.05721391
-0.74992067 0.18961979 0.1503575 5 13 -0.057209302
-0.74619991 0.18895613 0.17771132 8 14 -0.057204694
-1.0409797 0.2636016 -0.018743884 30 7 -0.057202391
-0.97752804 0.24771562 0.27020708 31 15 -0.057200085
-0.47735867 0.12167723 -0.13199772 56 0 -0.05717935
-0.49948737 0.12778193 -0.081658795 2 3 -0.057165526
-0.77307463 0.19791663 0.097982958 6 11 -0.057163224
-0.65189201 0.16701363 -0.082627423 6 4 -0.057160918
-0.70225018 0.18004574 0.11482291 7 12 -0.057158615
-0.74925423 0.19223636 0.1503575 5 13 -0.057154007
-0.74553585 0.19155954 0.17771132 8 14 -0.057149399
-1.0555003 0.27139911 -0.019023122 2 7 -0.057147093
-0.98409724 0.25322247 0.27227765 9 15 -0.057144791
-0.49374154 0.12778211 -0.13665645 54 0 -0.057124056
-0.48482999 0.12556604 -0.11562484 35 1 -0.057119448
-0.49901563 0.12961191 -0.081658795 2 3 -0.057110231
-0.68399733 0.17765816 0.086770974 8 11 -0.057107925
-0.55524236 0.14431927 -0.070440486 7 4 -0.057105623
-0.71117616 0.18498245 0.11638726 7 12 -0.057103317
-0.72954601 0.1900323 0.14654131 6 13 -0.057098709
-0.7448287 0.19429097 0.17771132 8 14 -0.057094101
-0.49333763 0.12933275 -0.13665645 54 0 -0.057069063
-0.66863751 0.17578788 0.060486082 7 10 -0.057057545
-0.49860603 0.13117887 -0.081658795 2 3 -0.057055239
-0.69876188 0.18396871 0.088720888 8 11 -0.057052936
-0.62002671 0.16335501 -0.078727603 6 4 -0.05705063
-0.70100838 0.18482164 0.11482291 7 12 -0.057048328
-0.74792832 0.19733195 0.1503575 5 13 -0.05704372
-0.74421459 0.19663 0.17771132 8 14 -0.057039112
-0.4891493 0.1300611 -0.13562119 54 0 -0.057013769
-0.48396406 0.12886328 -0.11562484 52 1 -0.057009161
-0.69670266 0.18563858 0.037786566 8 9 -0.057006855
-0.68534595 0.18274067 0.062054887 7 10 -0.057002246
-0.70578712 0.188455 0.089695849 8 11 -0.056997638
-0.59260339 0.15834415 -0.075315259 7 4 -0.056995336
-0.68700051 0.18369581 0.11263283 8 12 -0.05699303
-0.72826964 0.19486667 0.14654131 6 13 -0.056988422
-0.74352372 0.1992266 0.17771132 8 14 -0.056983814
-0.47936609 0.12925312 -0.13303299 56 0 -0.05695847
-0.68345052 0.18440907 0.012356304 8 8 -0.056956168
-0.6767692 0.18285973 0.036739845 9 9 -0.05695156
-0.66547066 0.17993155 0.060311772 7 10 -0.056946952
-0.47860998 0.12949735 -0.07853011 2 3 -0.056944646
-0.68404788 0.18521073 0.08701472 17 11 -0.056942344
-0.60737509 0.16456483 -0.077265166 7 4 -0.056940038
-0.71114028 0.19281265 0.11670013 7 12 -0.056937736
-0.76547998 0.20768929 0.15417367 5 13 -0.056933127
-0.74282372 0.20182079 0.17771132 8 14 -0.056928519
-0.50686413 0.13856722 -0.14079757 52 0 -0.056903176
-0.63458216 0.17360201 0.011483684 18 8 -0.05690087
-0.48869136 0.13378248 -0.11697455 51 1 -0.056898568
-0.65493757 0.17941634 0.035588451 19 9 -0.056896262
-0.63793755 0.17487898 0.057871412 8 10 -0.056891654
-0.49720499 0.13639301 -0.081658795 2 3 -0.056889351
-0.69296855 0.19022483 0.088233411 8 11 -0.056887046
-0.57999837 0.15932256 -0.073852822 7 4 -0.056884743
-0.69712985 0.1916288 0.11451004 8 12 -0.056882441
-0.55520666 0.15261661 -0.050376017 13 5 -0.056880135
-0.73446327 0.20202899 0.14806779 6 13 -0.056877833
-0.74211472 0.20441234 0.17771132 8 14 -0.056873225
-0.4989306 0.13827181 -0.13872701 53 0 -0.056847878
-0.64360714 0.17848803 0.011658208 36 8 -0.056845576
-0.47695473 0.13236088 -0.11427514 35 1 -0.05684327
-0.65238291 0.18116687 0.035483781 19 9 -0.056840967
-0.66803759 0.18563992 0.060660396 15 10 -0.056836359
-0.48150057 0.13389397 -0.079155855 2 3 -0.056834057
-0.69995004 0.19477141 0.089208372 8 11 -0.056831751
-0.60238677 0.16773613 -0.076777697 7 4 -0.056829449
-0.6831364 0.19034953 0.11231996 8 12 -0.056827143
-0.60073322 0.16738866 -0.054559495 12 5 -0.056824841
-0.72618902 0.20248251 0.14654131 6 13 -0.056822535
-0.74139673 0.20700158 0.17771132 8 14 -0.056817926
-0.93769497 0.26216185 0.26088959 1 15 -0.056813318
-0.49100533 0.13792293 -0.13665645 54 0 -0.056792583
-0.63527983 0.17856912 0.011518588 46 8 -0.056790277
-0.64405632 0.18127866 0.035065092 30 9 -0.056785673
-0.66163218 0.18635027 0.060137462 15 10 -0.056781065
-0.47722769 0.13450208 -0.07853011 2 3 -0.056778759
-0.69162369 0.19505802 0.088233411 8 11 -0.056776457
-0.59033477 0.16660284 -0.075315259 7 4 -0.056774151
-0.67486376 0.19058539 0.11106849 8 12 -0.056771848
-0.55796254 0.15757181 -0.05072464 26 5 -0.056769542
-0.74437052 0.21035495 0.1503575 5 13 -0.05676724
-0.74066955 0.20958848 0.17771132 8 14 -0.056762632
-0.93677413 0.26543346 0.26088959 1 15 -0.056758024
-0.48866293 0.13910712 -0.13613883 54 0 -0.056737289
-0.63657594 0.18133329 0.011553493 37 8 -0.056734983
-0.47976726 0.13675572 -0.11517494 35 1 -0.056732681
-0.67607075 0.19283901 0.036844518 27 9 -0.056730375
-0.66289353 0.18920533 0.060311772 7 10 -0.056725767
-0.51854253 0.14810219 -0.085413225 2 3 -0.056723464
-0.69284719 0.19801657 0.08847715 16 11 -0.056721158
-0.57829821 0.16538733 -0.073852822 7 4 -0.056718856
-0.68938738 0.19728805 0.11357144 8 12 -0.05671655
-0.54591608 0.1562296 -0.049678776 54 5 -0.056714248
-0.72098309 0.2064662 0.14577809 6 13 -0.056711942
-0.76990545 0.2207668 0.18490976 7 14 -0.056707334
-0.90984619 0.26123789 0.25364268 1 15 -0.056702726
-0.4826059 0.13920571 -0.13458592 55 0 -0.056681991
-0.63593906 0.18355425 0.011553493 46 8 -0.056679688
-0.47554252 0.13734823 -0.11427514 35 1 -0.056677382
-0.66196239 0.19131584 0.036111813 19 9 -0.05667508
-0.69285238 0.20037447 0.063100755 7 10 -0.056670472
-0.49525216 0.14332184 -0.081658795 2 3 -0.056668166
-0.69024509 0.19988152 0.088233411 8 11 -0.056665864
-0.61203718 0.17734984 -0.078240126 6 4 -0.056663558
-0.70007789 0.20299399 0.11544865 7 12 -0.056661256
-0.56067598 0.16257313 -0.051073264 39 5 -0.05665895
-0.72779989 0.21116993 0.14730455 6 13 -0.056656647
-0.73918837 0.21475405 0.17771132 8 14 -0.056652039
-0.94231802 0.27412537 0.26296017 2 15 -0.056647431
-0.50065994 0.1463083 -0.13976228 53 0 -0.056626696
-0.61993974 0.18128315 0.011274255 38 8 -0.05662439
-0.66132432 0.19350997 0.036111813 19 9 -0.056619782
-0.66155648 0.19382876 0.060311772 7 10 -0.056615174
-0.50991356 0.14949571 -0.084161758 2 3 -0.056612872
-0.67811424 0.19893688 0.086770974 8 11 -0.056610566
-0.57712948 0.16942073 -0.073852822 7 4 -0.056608263
-0.6937148 0.20364524 0.11451004 8 12 -0.056605957
-0.55819345 0.16396774 -0.050898954 26 5 -0.056603655
-0.74212694 0.21813819 0.1503575 5 13 -0.056601353
-0.73843426 0.217333 0.17771132 8 14 -0.056596745
-0.92843187 0.27342817 0.25933671 2 15 -0.056592137
-0.50385106 0.14915177 -0.14079757 52 0 -0.056571398
-0.63850969 0.18901391 0.011623302 36 8 -0.056569096
-0.64149565 0.19014139 0.035065092 20 9 -0.056564488
-0.67997622 0.20180555 0.062054887 7 10 -0.056559879
-0.53971487 0.16017832 -0.089167662 2 3 -0.056557573
-0.69077146 0.20514038 0.08847715 16 11 -0.056555271
-0.54992449 0.16341724 -0.070440486 7 4 -0.056552969
-0.70057338 0.20831759 0.11576151 7 12 -0.056550663
-0.59008181 0.17557454 -0.053862248 12 5 -0.056548361
-0.74139947 0.22059801 0.1503575 5 13 -0.056546055
-0.73770946 0.21978056 0.17771132 8 14 -0.056541447
-0.91266167 0.27224973 0.25519559 4 15 -0.056536838
-0.47744572 0.14305891 -0.13355063 55 0 -0.056516103
-0.6340152 0.19009301 0.011553493 37 8 -0.056513797
-0.4778361 0.14335765 -0.11517494 35 1 -0.056511495
-0.65039265 0.19525081 0.035588451 19 9 -0.056509189
-0.66403812 0.19947375 0.060660396 7 10 -0.056504585
-0.5315854 0.15978663 -0.08791618 2 3 -0.056502279
-0.69575417 0.20926571 0.089208372 8 11 -0.056499977
-0.54935068 0.16533585 -0.070440486 7 4 -0.056497671
-0.68092734 0.20506538 0.11263283 8 12 -0.056495368
-0.54752564 0.16489066 -0.050027393 13 5 -0.056493063
-0.76318204 0.22998214 0.15493691 5 13 -0.05649076
-0.73693782 0.22235416 0.17771132 8 14 -0.056486152
-0.91170579 0.27543387 0.25519559 4 15 -0.056481544
-0.48803511 0.1480902 -0.13665645 54 0 -0.056460809
-0.64100146 0.19462891 0.011693113 36 8 -0.056458503
-0.48665568 0.14785728 -0.11742445 51 1 -0.056456201
-0.66308349 0.20158635 0.036321156 9 9 -0.056453895
-0.68621153 0.20874862 0.062752135 7 10 -0.056449287
-0.49322903 0.15013653 -0.081658795 2 3 -0.056446984
-0.71021104 0.21632043 0.091158278 7 11 -0.056444678
-0.57155663 0.17419708 -0.073365353 7 4 -0.056442376
-0.69154423 0.21089838 0.11451004 8 12 -0.05644007
-0.57743859 0.17609988 -0.052816376 12 5 -0.056437768
-0.73984128 0.22576874 0.1503575 5 13 -0.056435462
-0.76597619 0.23403612 0.18490976 7 14 -0.056430854
-0.9144336 0.27974474 0.25623086 6 15 -0.056426246
-0.47828197 0.146956 -0.13406827 55 0 -0.056405511
-0.64031821 0.19686526 0.011693113 36 8 -0.056403209
-0.48241144 0.14840901 -0.11652464 34 1 -0.056400903
-0.65474033 0.20154949 0.03590247 19 9 -0.0563986
-0.67405403 0.20762365 0.061706264 7 10 -0.056393992
-0.49270198 0.15185721 -0.081658795 2 3 -0.056391686
-0.70186388 0.21645795 0.090183318 8 11 -0.056389384
-0.57853228 0.17853253 -0.074340306 7 4 -0.056387078
-0.70212847 0.21680795 0.11638726 7 12 -0.056384776
-0.73904872 0.22834976 0.1503575 5 13 -0.056380168
-0.73536748 0.22749372 0.17771132 8 14 -0.056375559
-0.92267823 0.28579295 0.25881904 3 15 -0.056370951
-0.50174665 0.15608458 -0.14079757 52 0 -0.056350216
-0.64153653 0.19969338 0.011728018 36 8 -0.05634791
-0.65784639 0.20502229 0.036111813 9 9 -0.056343302
-0.67332518 0.20997527 0.061706264 7 10 -0.056338694
-0.47708327 0.14886895 -0.079155855 2 3 -0.056336392
-0.68594503 0.21417351 0.088233411 8 11 -0.056334086
-0.54001021 0.16871153 -0.069465533 8 4 -0.056331784
-0.70325279 0.21984696 0.11670013 3 12 -0.056329478
-0.73824716 0.23092814 0.1503575 5 13 -0.056324869
-0.73456895 0.23005909 0.17771132 8 14 -0.056320265
-0.91614497 0.28727791 0.25726613 5 15 -0.056315657
-0.48277235 0.15203218 -0.13562119 54 0 -0.056294918
-0.63511372 0.20012859 0.011623302 27 8 -0.056292616
-0.48508066 0.15294535 -0.11742445 34 1 -0.05629031
-0.64569837 0.20371184 0.035483781 9 9 -0.056288008
-0.68398798 0.21592292 0.062752135 7 10 -0.056283399
-0.50669891 0.16005328 -0.084161758 2 3 -0.056281094
-0.70033562 0.22135262 0.090183318 8 11 -0.056278791
-0.50913489 0.16101819 -0.065565713 8 4 -0.056276485
-0.68364781 0.21634063 0.11357144 8 12 -0.056274183
-0.73743659 0.23350371 0.1503575 5 13 -0.056269575
-0.73376143 0.23262182 0.17771132 8 14 -0.056264967
-0.90224731 0.28638294 0.25364268 7 15 -0.056260359
-0.49696353 0.15841009 -0.13976228 53 0 -0.056239624
-0.64012671 0.20416743 0.011728018 36 8 -0.056237318
-0.49011329 0.15641512 -0.11877415 51 1 -0.056235015
-0.65639907 0.20960976 0.036111813 9 9 -0.056232709
-0.68702573 0.21952216 0.063100755 7 10 -0.056228105
-0.49108469 0.1570085 -0.081658795 2 3 -0.056225799
-0.69199604 0.22137634 0.089208372 8 11 -0.056223497
-0.58041221 0.18579142 -0.074827783 7 4 -0.056221191
-0.69417584 0.22234103 0.11544865 7 12 -0.056218889
-0.73661703 0.23607628 0.1503575 5 13 -0.05621428
-0.73294497 0.23518175 0.17771132 8 14 -0.056209672
-0.92699194 0.29780295 0.26088959 4 15 -0.056205064
-0.48353776 0.15599199 -0.13613883 54 0 -0.056184325
-0.62037998 0.20025779 0.011378969 38 8 -0.056182023
-0.48400113 0.15632802 -0.11742445 34 1 -0.056179721
-0.65566337 0.21189977 0.036111813 9 9 -0.056177415
-0.66729796 0.21578868 0.061357643 7 10 -0.056172807
-0.69121897 0.22379071 0.089208372 8 11 -0.056168199
-0.57220632 0.18536921 -0.073852822 7 4 -0.056165896
-0.69715381 0.22598086 0.11607439 3 12 -0.05616359
-0.73578846 0.2386463 0.1503575 5 13 -0.056158982
-0.73211962 0.23773861 0.17771132 8 14 -0.056154374
-0.90757483 0.29506403 0.25571322 4 15 -0.056149766
-0.48115382 0.1570795 -0.13562119 54 0 -0.056129031
-0.63298321 0.20676845 0.011623302 27 8 -0.056126729
-0.46492937 0.15196228 -0.11292543 35 1 -0.056124423
-0.68529272 0.22412068 0.037786566 8 9 -0.05612212
-0.67411494 0.22059511 0.062054887 7 10 -0.056117512
-0.47871286 0.15674487 -0.079781592 2 3 -0.056115206
-0.69043362 0.22620216 0.089208372 8 11 -0.056112904
-0.57532841 0.18860205 -0.074340306 7 4 -0.056110598
-0.70386875 0.23087573 0.11732586 3 12 -0.056108296
-0.73495096 0.24121325 0.1503575 5 13 -0.056103688
-0.73128521 0.24029294 0.17771132 8 14 -0.05609908
-0.90837455 0.29883379 0.25623086 6 15 -0.056094471
-0.50444925 0.16663526 -0.14235048 52 0 -0.056073736
-0.63795364 0.2108594 0.011728018 27 8 -0.05607143
-0.473647 0.15664384 -0.11517494 52 1 -0.056069128
-0.65037578 0.21521708 0.03590247 9 9 -0.056066822
-0.67712367 0.22419938 0.062403511 7 10 -0.056062214
-0.47441244 0.15717259 -0.079155855 2 3 -0.056059912
-0.68963981 0.22861069 0.089208372 8 11 -0.056057606
-0.54452008 0.18061002 -0.070440486 7 4 -0.056055304
-0.70305848 0.23333146 0.11732586 3 12 -0.056052998
-0.73410445 0.24377708 0.1503575 5 13 -0.05604839
-0.73044199 0.24284413 0.17771132 8 14 -0.056043781
-0.92748863 0.30871397 0.26192489 4 15 -0.056039177
-0.49287114 0.16472107 -0.13924466 53 0 -0.056018438
-0.63152426 0.21118246 0.011623302 27 8 -0.056016136
-0.46755326 0.15644109 -0.11382524 53 1 -0.05601383
-0.65340847 0.21875416 0.036111813 9 9 -0.056011528
-0.69145066 0.2316245 0.063798003 6 10 -0.05600692
-0.47760692 0.1600831 -0.079781592 2 3 -0.056004614
-0.71142244 0.23859091 0.092133231 7 11 -0.056002311
-0.5438863 0.18250981 -0.070440486 7 4 -0.056000005
-0.70598501 0.23704153 0.11795159 3 12 -0.055997703
-0.7630257 0.2563417 0.15646338 5 13 -0.055993095
-0.72958988 0.24539225 0.17771132 8 14 -0.055988487
-0.91725111 0.30886737 0.25933671 4 15 -0.055983879
-0.48497277 0.16396555 -0.1371741 54 0 -0.055963144
-0.64214873 0.21723042 0.011832732 26 8 -0.055960838
-0.47623369 0.16119617 -0.11607475 52 1 -0.055958536
-0.67534143 0.2287218 0.037367877 8 9 -0.05595623
-0.68308991 0.23147891 0.063100755 7 10 -0.055951621
-0.48826975 0.16555513 -0.081658795 2 3 -0.055949319
-0.70306587 0.23852178 0.091158278 7 11 -0.055947017
-0.54324597 0.1844071 -0.070440486 7 4 -0.055944711
-0.71637583 0.2433162 0.11982881 3 12 -0.055942409
-0.73238474 0.24889615 0.1503575 5 13 -0.055937801
-0.72872883 0.2479375 0.17771132 8 14 -0.055933192
-0.91250998 0.31082129 0.25830141 5 15 -0.055928584
-0.48622543 0.16628245 -0.13769174 54 0 -0.055907845
-0.64706248 0.22141284 0.011937446 25 8 -0.055905543
-0.49041748 0.1679074 -0.11967396 50 1 -0.055903241
-0.69343358 0.23755039 0.038414594 8 9 -0.055900935
-0.65212184 0.22352551 0.060311772 7 10 -0.055896327
-0.72851557 0.24999493 0.094570614 7 11 -0.055891719
-0.5425989 0.18630227 -0.070440486 7 4 -0.055889416
-0.69310367 0.23811357 0.11607439 3 12 -0.055887111
-0.73151147 0.25145116 0.1503575 5 13 -0.055882502
-0.91872549 0.31652176 0.26037198 4 15 -0.055873286
-0.48199049 0.16671579 -0.13665645 54 0 -0.055852551
-0.64061654 0.22170816 0.011832732 17 8 -0.055850249
-0.47325525 0.16387922 -0.11562484 52 1 -0.055847943
-0.68127698 0.23604648 0.037786566 8 9 -0.055845641
-0.67769235 0.23493697 0.062752135 7 10 -0.055841032
-0.47590441 0.16507564 -0.079781592 2 3 -0.055838726
-0.6788792 0.2356139 0.088233411 8 11 -0.055836424
-0.51569194 0.17907846 -0.067028143 8 4 -0.055834118
-0.69600028 0.24182802 0.11670013 3 12 -0.055831816
-0.73062921 0.25400311 0.1503575 5 13 -0.055827208
-0.92491215 0.32226941 0.26244253 4 15 -0.055817991
-0.47775868 0.16712153 -0.13562119 54 0 -0.055797257
-0.63606387 0.22262165 0.011762922 17 8 -0.055794951
-0.65406018 0.22917682 0.036321156 9 9 -0.055790342
-0.66934735 0.23466428 0.062054887 7 10 -0.055785734
-0.48650929 0.17065917 -0.081658795 2 3 -0.055783432
-0.69303715 0.24324147 0.090183318 8 11 -0.055781126
-0.5412851 0.19008565 -0.070440486 7 4 -0.055778824
-0.6839698 0.24032716 0.11482291 3 12 -0.055776518
-0.72973818 0.25655195 0.1503575 5 13 -0.05577191
-0.91831547 0.32356977 0.26088959 4 15 -0.055762693
-0.48266596 0.17063667 -0.1371741 54 0 -0.055741549
-0.63155168 0.223396 0.011693113 18 8 -0.055739246
-0.46845466 0.1657964 -0.11472505 52 1 -0.05573694
-0.63823509 0.22601095 0.035483781 9 9 -0.055734638
-0.67607749 0.23954427 0.062752135 7 10 -0.05573003
-0.71093559 0.25217453 0.092620708 7 11 -0.055725422
-0.52942723 0.18789595 -0.068978056 8 4 -0.055723116
-0.69061506 0.24523808 0.11607439 3 12 -0.055720814
-0.7954818 0.28263271 0.16409574 4 13 -0.055716205
-0.72524107 0.25796151 0.17771132 8 14 -0.055711597
-0.93179673 0.3317976 0.26503071 4 15 -0.055706989
-0.47842917 0.17101982 -0.13613883 54 0 -0.055686254
-0.64959699 0.2323335 0.012042161 17 8 -0.055683948
-0.4660382 0.16677414 -0.11427514 35 1 -0.055681646
-0.67128879 0.24035607 0.037367877 8 9 -0.05567934
-0.67523718 0.24190277 0.062752135 7 10 -0.055674732
-0.50021261 0.17929912 -0.084161758 2 3 -0.05567243
-0.68389136 0.24527249 0.089208372 8 11 -0.055670124
-0.48392561 0.17365161 -0.063128322 8 4 -0.055667821
-0.68975478 0.2476473 0.11607439 3 12 -0.055665515
-0.72797501 0.26151302 0.1503575 5 13 -0.055660907
-0.72433621 0.26049152 0.17771132 8 14 -0.055656299
-0.92154461 0.33177644 0.26244253 4 15 -0.055651691
-0.47964606 0.1733454 -0.13665645 54 0 -0.055630956
-0.64125985 0.23187961 0.011902542 17 8 -0.055628654
-0.47644824 0.17237775 -0.11697455 34 1 -0.055626348
-0.67795771 0.24541718 0.037786566 8 9 -0.055624045
-0.65940231 0.23883037 0.061357643 7 10 -0.055619437
-0.48472619 0.17565976 -0.081658795 2 3 -0.055617131
-0.72408748 0.26254475 0.094570614 7 11 -0.055614829
-0.50197726 0.18210976 -0.065565713 8 4 -0.055612523
-0.70374084 0.2554453 0.11857734 3 12 -0.055610221
-0.56746686 0.20598029 -0.052816376 12 5 -0.055607915
-0.7270577 0.26405257 0.1503575 5 13 -0.055605613
-0.92038083 0.33499125 0.26244253 4 15 -0.055596396
-0.46270728 0.16905214 -0.13199772 56 0 -0.055575661
-0.64044654 0.23411664 0.011902542 17 8 -0.055573355
-0.46486259 0.17002352 -0.11427514 35 1 -0.055571053
-0.6770969 0.24778222 0.037786566 8 9 -0.055568747
-0.68101567 0.24935104 0.063449383 7 10 -0.055564139
-0.49894872 0.18278676 -0.084161758 2 3 -0.055561837
-0.72316658 0.26507074 0.094570614 7 11 -0.055559531
-0.50879341 0.18659475 -0.066540666 8 4 -0.055557229
-0.6991359 0.25653934 0.11795159 3 12 -0.055554926
-0.72613162 0.26658887 0.1503575 5 13 -0.055550318
-0.92464501 0.34020317 0.26399544 5 15 -0.055541102
-0.47117546 0.17401254 -0.13458592 55 0 -0.055520363
-0.63962537 0.2363508 0.011902542 17 8 -0.055518061
-0.46609408 0.17232093 -0.11472505 35 1 -0.055515755
-0.66873503 0.24737255 0.037367877 8 9 -0.055513453
-0.68761522 0.25449297 0.06414663 6 10 -0.055508845
-0.48348805 0.17903951 -0.081658795 2 3 -0.055506542
-0.68873101 0.25517949 0.090183318 8 11 -0.055504236
-0.49324846 0.18284968 -0.06459076 8 4 -0.055501934
-0.71305287 0.26447383 0.12045455 3 12 -0.055499628
-0.72519654 0.26912212 0.1503575 5 13 -0.05549502
-0.9053449 0.3366946 0.25881904 6 15 -0.055485804
-0.49771306 0.18579032 -0.14235048 52 0 -0.055465069
-0.64066976 0.23928174 0.011937446 17 8 -0.055462763
-0.46183887 0.17258248 -0.11382524 53 1 -0.05546046
-0.67535055 0.25250322 0.037786566 8 9 -0.055458158
-0.69045478 0.25828782 0.064495243 6 10 -0.05545355
-0.7212984 0.27011293 0.094570614 7 11 -0.055448942
-0.7121253 0.26696143 0.12045455 3 12 -0.055444334
-0.72425276 0.27165172 0.1503575 5 13 -0.055439726
-0.92948073 0.34936866 0.26606598 4 15 -0.055430509
-0.47175655 0.17797974 -0.13510354 55 0 -0.055409774
-0.66228086 0.24999076 0.012356304 8 8 -0.055407468
-0.45941049 0.17350514 -0.11337533 53 1 -0.055405166
-0.66699171 0.25203517 0.037367877 8 9 -0.05540286
-0.67463988 0.25505954 0.063100755 7 10 -0.055398252
-0.47114074 0.1782172 -0.079781592 5 3 -0.05539595
-0.70178545 0.26560259 0.092133231 7 11 -0.055393644
-0.48082125 0.18207076 -0.063128322 8 4 -0.055391341
-0.70010561 0.26524624 0.11857734 3 12 -0.055389035
-0.92644954 0.35192528 0.26554835 4 15 -0.055375211
-0.46932739 0.17893709 -0.13458592 55 0 -0.055354476
-0.62777352 0.2394722 0.011728018 9 8 -0.055352174
-0.46972594 0.17927699 -0.11607475 52 1 -0.055349868
-0.67357135 0.25721171 0.037786566 8 9 -0.055347566
-0.68863487 0.26310164 0.064495243 6 10 -0.055342957
-0.47236091 0.18056604 -0.080094457 14 3 -0.055340651
-0.71939516 0.27514178 0.094570614 7 11 -0.055338349
-0.48759866 0.18658598 -0.064103283 8 4 -0.055336043
-0.68441713 0.26203808 0.11607439 3 12 -0.055333741
-0.78833902 0.30198365 0.16409574 4 13 -0.055329133
-0.9125908 0.35031068 0.26192489 4 15 -0.055319916
-0.47951606 0.18474136 -0.13769174 54 0 -0.055299181
-0.64186066 0.24741611 0.012007256 8 8 -0.055296876
-0.45636988 0.17600688 -0.11292543 53 1 -0.055294573
-0.67266941 0.25956139 0.037786566 8 9 -0.055292267
-0.68771219 0.26550397 0.064495243 6 10 -0.055287659
-0.46988508 0.18150204 -0.079781592 20 3 -0.055285357
-0.70732063 0.27335772 0.093108192 7 11 -0.055283051
-0.53508335 0.20690079 -0.070440486 7 4 -0.055280749
-0.70929068 0.27440387 0.12045455 3 12 -0.055278443
-0.72136837 0.27922094 0.1503575 5 13 -0.055273838
-0.91676563 0.3555899 0.2634778 4 15 -0.055264622
-0.49687085 0.19342212 -0.14286812 51 0 -0.055243883
-0.64099318 0.24965496 0.012007256 8 8 -0.055241581
-0.4557527 0.17759885 -0.11292543 35 1 -0.055239275
-0.68664575 0.26771206 0.03862394 8 9 -0.055236973
-0.70348674 0.27441952 0.066064052 6 10 -0.055232365
-0.46372807 0.18098643 -0.078842975 23 3 -0.055230059
-0.71745676 0.28015757 0.094570614 7 11 -0.055227757
-0.53435785 0.20876732 -0.070440486 7 4 -0.055225454
-0.70096934 0.27400127 0.11920308 3 12 -0.055223148
-0.90652555 0.35526344 0.26088959 3 15 -0.055209324
-0.49799037 0.19586256 -0.14338575 51 0 -0.055188589
-0.64383948 0.25335544 0.012077065 8 8 -0.055186283
-0.46782288 0.18418597 -0.11607475 34 1 -0.055183981
-0.65597457 0.25839534 0.036949188 9 9 -0.055181675
-0.7025246 0.27687332 0.066064052 6 10 -0.05517707
-0.47411954 0.18695179 -0.080720194 23 3 -0.055174764
-0.71647435 0.28266028 0.094570614 7 11 -0.055172462
-0.7073577 0.279349 0.12045455 3 12 -0.055167854
-0.81069601 0.32032278 0.16943841 3 13 -0.055163246
-0.94299996 0.37335986 0.27176002 4 15 -0.055154029
-0.4649879 0.18475917 -0.13406827 55 0 -0.055133294
-0.63923466 0.25412387 0.012007256 8 8 -0.055130988
-0.47260931 0.18797863 -0.11742445 34 1 -0.055128686
-0.66991442 0.26659125 0.037786566 8 9 -0.05512638
-0.70155382 0.27932394 0.066064052 6 10 -0.055121772
-0.46245322 0.18421957 -0.078842975 23 3 -0.05511947
-0.71548343 0.28515938 0.094570614 7 11 -0.055117164
-0.69170028 0.27596051 0.11795159 3 12 -0.055112556
-0.78404588 0.31296107 0.16409574 4 13 -0.055107947
-0.90402323 0.36158353 0.26088959 3 15 -0.055098731
-0.47688991 0.1914185 -0.13769174 54 0 -0.055077996
-0.6494776 0.2608248 0.012216684 8 8 -0.055075694
-0.46652564 0.18744749 -0.11607475 34 1 -0.055073388
-0.66902673 0.26881132 0.037786566 8 9 -0.055071086
-0.64512002 0.25946733 0.060834706 7 10 -0.055066478
-0.68133748 0.27431032 0.090183318 8 11 -0.055061869
-0.68345213 0.2753005 0.11670013 3 12 -0.055057261
-0.91894108 0.37108955 0.26554835 4 15 -0.055043437
-0.49236625 0.1995289 -0.14235048 52 0 -0.055022702
-0.6486091 0.26297715 0.012216684 8 8 -0.055020396
-0.45506647 0.18459831 -0.11337533 35 1 -0.055018093
-0.69774395 0.28304076 0.039461315 7 9 -0.055015787
-0.4820722 0.19565119 -0.10112877 12 2 -0.055013485
-0.68117625 0.27659693 0.064320937 6 10 -0.055011179
-0.75030553 0.30497256 0.099445395 6 11 -0.055006571
-0.73011166 0.29691297 0.12483472 3 12 -0.055001963
-0.90518314 0.36902973 0.26192489 3 15 -0.054988142
-0.4917019 0.20116057 -0.14235048 52 0 -0.054967403
-0.64773345 0.26512673 0.012216684 8 8 -0.054965101
-0.69675177 0.28547463 0.039461315 7 9 -0.054960493
-0.71343839 0.29245695 0.067458548 6 10 -0.054955885
-0.68317622 0.28033027 0.090670794 7 11 -0.054951277
-0.7436887 0.30546394 0.12733766 3 12 -0.054946668
-0.92889833 0.38248485 0.26917183 3 15 -0.054932844
-0.47132286 0.19484283 -0.13665645 27 0 -0.054912109
-0.65419608 0.27044183 0.012356304 8 8 -0.054909803
-0.70313299 0.29095972 0.039880004 7 9 -0.054905195
-0.48069459 0.19901182 -0.10112877 12 2 -0.054902893
-0.7418133 0.30726916 0.070247531 5 10 -0.05490059
-0.47081864 0.19511575 -0.080720194 8 3 -0.054898284
-0.71153516 0.29487303 0.094570614 7 11 -0.054895982
-0.72802109 0.30200285 0.12483472 3 12 -0.054891374
-0.92042243 0.3827579 0.26710126 3 15 -0.054877549
-0.47777081 0.19946398 -0.13872701 26 0 -0.054856811
-0.66427159 0.2774623 0.012565733 7 8 -0.054854508
-0.66525686 0.27801001 0.037786566 8 9 -0.0548499
-0.69662297 0.29140371 0.066064052 6 10 -0.054845292
-0.73242229 0.30667934 0.097495481 6 11 -0.054840684
-0.71238679 0.29843622 0.12233177 3 12 -0.054836076
-0.92086184 0.38671646 0.26761889 4 15 -0.054822251
-0.65229207 0.27500254 0.012356304 8 8 -0.054799214
-0.73788702 0.31139207 0.041973442 6 9 -0.054794606
-0.73965019 0.31244034 0.070247531 5 10 -0.054789998
-0.73505837 0.31065184 0.097982958 6 11 -0.054785389
-0.76591933 0.32400951 0.13171785 2 12 -0.054780781
-0.90705663 0.38464907 0.26399544 3 15 -0.054766957
-0.46218106 0.19666049 -0.13458592 27 0 -0.054746222
-0.62188971 0.26474535 0.011797828 8 8 -0.054743916
-0.71107191 0.30300465 0.040508036 7 9 -0.054739308
-0.71661669 0.30551502 0.068155795 5 10 -0.054734699
-0.47423545 0.20227849 -0.081658795 2 3 -0.054732397
-0.73031783 0.31165767 0.097495481 6 11 -0.054730091
-0.52761537 0.22526464 -0.070440486 7 4 -0.054727789
-0.72845185 0.31116182 0.12546046 3 12 -0.054725483
-0.90926027 0.38933358 0.26503071 3 15 -0.054711662
-0.44729203 0.1921718 -0.13044479 28 0 -0.054690924
-0.6430077 0.27639079 0.012216684 8 8 -0.054688621
-0.45292485 0.19477914 -0.11382524 35 1 -0.054686315
-0.69166344 0.29759109 0.039461315 7 9 -0.054684013
-0.71920592 0.3095901 0.068504408 5 10 -0.054679405
-0.47352645 0.20393276 -0.081658795 2 3 -0.054677099
-0.73287171 0.31577596 0.097982958 6 11 -0.054674797
-0.7092225 0.30587986 0.12233177 3 12 -0.054670189
-0.94336033 0.40783733 0.27538347 4 15 -0.054656364
-0.46079689 0.19988221 -0.13458592 27 0 -0.054635629
-0.64937657 0.28181803 0.012356304 8 8 -0.054633323
-0.69062042 0.30000365 0.039461315 7 9 -0.054628715
-0.73639369 0.3200402 0.070247531 5 10 -0.054624107
-0.47281173 0.20558435 -0.081658795 2 3 -0.054621805
-0.72812432 0.3167485 0.097495481 6 11 -0.054619502
-0.72626179 0.31623977 0.12546046 3 12 -0.054614894
-0.94016027 0.41035521 0.27486584 3 15 -0.05460107
-0.47425315 0.20768915 -0.13872701 26 0 -0.054580331
-0.66304183 0.29050288 0.012635542 7 8 -0.054578029
-0.46047804 0.20184821 -0.11607475 34 1 -0.054575726
-0.689569 0.30241254 0.039461315 7 9 -0.05457342
-0.73527199 0.32260877 0.070247531 5 10 -0.054568812
-0.51550198 0.2262895 -0.089167662 2 3 -0.05456651
-0.79608059 0.34962061 0.10675755 4 11 -0.054564204
-0.70706987 0.31082356 0.12233177 3 12 -0.054559596
-0.77276474 0.33986357 0.16409574 4 13 -0.054554988
-0.93518656 0.41207665 0.27383056 3 15 -0.054545771
-0.45762333 0.20231305 -0.13406827 55 0 -0.054525036
-0.63642061 0.2814914 0.012146875 8 8 -0.054522734
-0.45798856 0.20266576 -0.11562484 35 1 -0.054520428
-0.65928876 0.29188108 0.037786566 8 9 -0.054518126
-0.78150541 0.34615234 0.074779622 4 10 -0.054513518
-0.47136495 0.20888019 -0.081658795 2 3 -0.054511212
-0.72952479 0.32343298 0.097982958 6 11 -0.05450891
-0.75292552 0.33412239 0.13046636 2 12 -0.054504301
-0.90726578 0.4035612 0.26606598 3 15 -0.054490477
-0.45515019 0.20312205 -0.13355063 55 0 -0.054469742
-0.68290901 0.30490804 0.0130544 7 8 -0.054467436
-0.44660261 0.19949433 -0.11292543 53 1 -0.054465134
-0.72026312 0.32188761 0.04134541 6 9 -0.054462828
-0.71481323 0.31960171 0.068504408 5 10 -0.05445822
-0.67765754 0.30327281 0.091158278 7 11 -0.054453611
-0.71930486 0.32221249 0.12483472 3 12 -0.054449003
-0.91818815 0.41226482 0.26968947 3 15 -0.054435179
-0.45799723 0.20621647 -0.13458592 55 0 -0.054413557
-0.64542919 0.29074472 0.012356304 8 8 -0.054411255
-0.68641847 0.30949712 0.039461315 7 9 -0.054406647
-0.71374941 0.32197037 0.068504408 5 10 -0.054402038
-0.49513942 0.22345987 -0.086038962 2 3 -0.054399733
-0.74539852 0.33656037 0.10042035 5 11 -0.05439743
-0.75063384 0.33923945 0.13046636 2 12 -0.054392822
-0.92913395 0.42088732 0.2733129 3 15 -0.054378998
-0.46782699 0.21260975 -0.13769174 54 0 -0.054358263
-0.64441043 0.29299575 0.012356304 8 8 -0.054355957
-0.45055586 0.2049503 -0.11427514 35 1 -0.054353654
-0.72169113 0.32843745 0.041554753 6 9 -0.054351348
-0.77789962 0.35418123 0.074779622 4 10 -0.05434674
-0.79118443 0.36056358 0.10675755 4 11 -0.054342132
-0.72428393 0.33038041 0.12608619 3 12 -0.054337524
-0.92063153 0.42091501 0.27124238 3 15 -0.054323699
-0.44952258 0.20618717 -0.13251536 56 0 -0.054302964
-0.69427294 0.31859604 0.013333639 6 8 -0.054300662
-0.44806668 0.20570873 -0.11382524 35 1 -0.054298356
-0.70602065 0.32428533 0.040717378 7 9 -0.054296054
-0.77665854 0.35689446 0.074779622 4 10 -0.054291446
-0.55817974 0.256616 -0.097302251 2 3 -0.05428914
-0.74303085 0.34175584 0.10042035 5 11 -0.054286838
-0.737481 0.33951536 0.12858914 3 12 -0.054282229
-0.91564834 0.42250705 0.27020708 3 15 -0.054268405
-0.47685015 0.22073977 -0.14079757 79 0 -0.05424767
-0.67138195 0.31093323 0.012914781 7 8 -0.054245364
-0.46502757 0.21546409 -0.11832426 34 1 -0.054243062
-0.74474931 0.34522718 0.043020159 6 9 -0.054240756
-0.71033877 0.32942683 0.068504408 5 10 -0.054236148
-0.5572806 0.25856274 -0.097302251 2 3 -0.054233845
-0.69681913 0.32345256 0.094326884 7 11 -0.054231539
-0.7255426 0.33709362 0.12671193 3 12 -0.054226935
-0.92292428 0.42977852 0.27279529 3 15 -0.05421311
-0.47257608 0.22076762 -0.13976228 53 0 -0.054192372
-0.64130694 0.29972774 0.012356304 8 8 -0.054190069
-0.44132376 0.20635553 -0.11247552 36 1 -0.054187763
-0.72544873 0.33936188 0.041973442 6 9 -0.054185461
-0.77414799 0.36230788 0.074779622 4 10 -0.054180853
-0.7855677 0.36798668 0.10651381 4 11 -0.054176245
-0.75297838 0.35304129 0.13171785 2 12 -0.054171637
-0.9196701 0.43217593 0.27227765 2 15 -0.054157812
-0.48403457 0.22818211 -0.14338575 51 0 -0.054137077
-0.65834314 0.31049475 0.012705352 7 8 -0.054134771
-0.44765034 0.21122111 -0.11427514 35 1 -0.054132469
-0.68091249 0.32142955 0.039461315 7 9 -0.054130167
-0.77287859 0.365008 0.074779622 4 10 -0.054125559
-0.71966976 0.34018606 0.09773922 6 11 -0.05412095
-0.75174141 0.35566756 0.13171785 2 12 -0.054116342
-0.93910253 0.44531605 0.27848932 3 15 -0.054102518
-0.47451246 0.22572118 -0.14079757 52 0 -0.054081783
-0.66447794 0.31622821 0.012844971 7 8 -0.054079477
-0.45746738 0.21780871 -0.11697455 34 1 -0.054077175
-0.70142406 0.33411139 0.040717378 7 9 -0.054074869
-0.68166971 0.32484773 0.066064052 6 10 -0.05407026
-0.78297955 0.37346202 0.10651381 4 11 -0.054065652
-0.73979944 0.353183 0.12984063 2 12 -0.054061044
-0.92882913 0.44442239 0.27590114 3 15 -0.054047219
-0.48242971 0.23155586 -0.14338575 51 0 -0.054026484
-0.65255421 0.3133519 0.012635542 7 8 -0.054024182
-0.44967803 0.21602878 -0.11517494 35 1 -0.054021876
-0.71465462 0.34347931 0.041554753 6 9 -0.054019574
-0.78167111 0.3761929 0.10651381 4 11 -0.054010358
-0.69585007 0.33518916 0.12233177 3 12 -0.05400575
-0.93597072 0.45186141 0.27848932 3 15 -0.053991925
-0.46423158 0.22481818 -0.13820937 53 0 -0.05397119
-0.68384928 0.33132204 0.013263829 6 8 -0.053968884
-0.46996433 0.22779712 -0.12057376 50 1 -0.053966582
-0.69907451 0.33899993 0.040717378 7 9 -0.053964276
-0.769014 0.37308124 0.074779622 4 10 -0.053959668
-0.78035319 0.37891915 0.10651381 4 11 -0.053955059
-0.73731565 0.35833934 0.12984063 2 12 -0.053950451
-0.91354632 0.4449743 0.27227765 2 15 -0.05393663
-0.46861124 0.22906333 -0.13976228 53 0 -0.053915892
-0.67190927 0.32843807 0.0130544 7 8 -0.05391359
-0.44990951 0.22001897 -0.11562484 52 1 -0.053911284
-0.6476534 0.3168616 0.037786566 8 9 -0.053908981
-0.77902585 0.38164064 0.10651381 4 11 -0.053899765
-0.74670219 0.36612892 0.13171785 2 12 -0.053895157
-0.9223904 0.45327255 0.27538347 2 15 -0.053881332
-0.48860025 0.24095105 -0.14597395 50 0 -0.053860597
-0.63483459 0.31320342 0.012356304 8 8 -0.053858291
-0.44036272 0.21735391 -0.11337533 53 1 -0.053855989
-0.71812063 0.35460553 0.041973442 6 9 -0.053853683
-0.77762169 0.38449353 0.10651381 4 11 -0.053844471
-0.75951874 0.37587252 0.13422079 2 12 -0.053839862
-0.93629915 0.46437532 0.2800422 3 15 -0.053826038
-0.50159329 0.24953884 -0.15011506 48 0 -0.053805303
-0.69460487 0.34571186 0.013543067 6 8 -0.053802997
-0.45181245 0.22497015 -0.11652464 34 1 -0.053800695
-0.71687847 0.35710993 0.041973442 6 9 -0.053798389
-0.76499844 0.38124734 0.074779622 4 10 -0.053793781
-0.77627498 0.38720542 0.10651381 4 11 -0.053789172
-0.72638941 0.36263946 0.12858914 3 12 -0.053784564
-0.9346723 0.46764103 0.2800422 3 15 -0.05377074
-0.46964011 0.23569106 -0.14079757 52 0 -0.053750005
-0.6683746 0.33557269 0.0130544 7 8 -0.053747702
-0.4614729 0.23179397 -0.11922406 50 1 -0.053745396
-0.70855123 0.35589936 0.041554753 6 9 -0.053743094
-0.76366287 0.38391557 0.074779622 4 10 -0.053738486
-0.77491862 0.38991281 0.10651381 4 11 -0.053733878
-0.74282724 0.37392822 0.13171785 2 12 -0.05372927
-0.94831693 0.47819844 0.24519664 1 14 -0.053720053
-0.92449248 0.46638712 0.27745402 2 15 -0.053715445
-0.48949751 0.24779922 -0.14700922 50 0 -0.05369471
-0.69223565 0.35043171 0.013543067 6 8 -0.053692404
-0.45896319 0.23244254 -0.11877415 51 1 -0.053690102
-0.70730466 0.35837051 0.041554753 6 9 -0.053687796
-0.76231819 0.38657874 0.074779622 4 10 -0.053683188
-0.77362132 0.3924804 0.10651381 4 11 -0.05367858
-0.75208539 0.38188475 0.13359505 2 12 -0.053673971
-0.90850943 0.46191031 0.2352988 1 14 -0.053664759
-0.91252822 0.46435475 0.2743482 2 15 -0.053660151
-0.4766283 0.24327354 -0.14338575 51 0 -0.053639412
-0.69100821 0.35284594 0.013543067 6 8 -0.05363711
-0.45641363 0.2331567 -0.11832426 51 1 -0.053634804
-0.6420247 0.32811654 0.037786566 8 9 -0.053632502
-0.76103204 0.38910457 0.074779622 4 10 -0.053627893
-0.7722466 0.3951785 0.10651381 4 11 -0.053623285
-0.77536243 0.39711452 0.13797522 2 12 -0.053618677
-0.91382766 0.46863583 0.23709841 1 14 -0.053609461
-0.93840075 0.48165137 0.28263038 2 15 -0.053604852
-0.48775554 0.25121063 -0.14700922 50 0 -0.053584117
-0.66488355 0.34243757 0.0130544 7 8 -0.053581811
-0.45386466 0.23385589 -0.11787436 34 1 -0.053579509
-0.69058335 0.35597864 0.040717378 7 9 -0.053577203
-0.75960076 0.3918913 0.074779622 4 10 -0.053572599
-0.77086252 0.39787155 0.10651381 4 11 -0.053567991
-0.77397156 0.39981866 0.13797522 2 12 -0.053563382
-0.91902685 0.47556445 0.23889802 1 14 -0.053554166
-0.92642021 0.47959527 0.27952456 2 15 -0.053549558
-0.50230485 0.26092651 -0.15166797 48 0 -0.053528819
-0.6884656 0.35778168 0.013543067 6 8 -0.053526517
-0.4443593 0.23102319 -0.11562484 52 1 -0.053524215
-0.63971841 0.33259073 0.037786566 8 9 -0.053521909
-0.7582283 0.39454028 0.074779622 4 10 -0.053517301
-0.76939899 0.40069443 0.10651381 4 11 -0.053512692
-0.74804521 0.38973939 0.13359505 2 12 -0.053508084
-0.91053379 0.47500393 0.23709841 1 14 -0.053498868
-0.92645299 0.48372033 0.2800422 1 15 -0.05349426
-0.47576603 0.24914761 -0.1439034 51 0 -0.053473525
-0.68373269 0.35820678 0.013473257 6 8 -0.053471223
-0.46602929 0.24425586 -0.12147357 49 1 -0.053468917
-0.63861203 0.33471015 0.037786566 8 9 -0.053466614
-0.75691575 0.3970525 0.074779622 4 10 -0.053462006
-0.76806599 0.40324366 0.10651381 4 11 -0.053457398
-0.77123225 0.40507746 0.13797522 2 12 -0.05345279
-0.91585267 0.48164904 0.23889802 1 14 -0.053443573
-0.93851978 0.49398828 0.28418332 2 15 -0.053438965
-0.46981195 0.24801828 -0.14235048 52 0 -0.05341823
-0.69668704 0.36794311 0.013752497 6 8 -0.053415924
-0.46521673 0.24579994 -0.12147357 49 1 -0.053413622
-0.75044835 0.3966715 0.044485565 5 9 -0.053411316
-0.76672453 0.40578848 0.10651381 4 11 -0.0534021
-0.76981354 0.40776712 0.13797522 2 12 -0.053397492
-0.92105204 0.48849556 0.24069762 1 14 -0.053388275
-0.91972637 0.48820356 0.27900696 1 15 -0.053383671
-0.47235391 0.25147229 -0.14338575 51 0 -0.053362932
-0.66009903 0.35157213 0.0130544 7 8 -0.05336063
-0.46091619 0.24558961 -0.12057376 50 1 -0.053358324
-0.72438437 0.38613546 0.043020159 6 9 -0.053356022
-0.75419557 0.40219545 0.074779622 4 10 -0.053351413
-0.7670548 0.40939692 0.10675755 4 11 -0.053346805
-0.76838535 0.41045198 0.13797522 2 12 -0.053342197
-0.90559411 0.48435503 0.23709841 1 14 -0.053332981
-0.931642 0.4987047 0.28314805 1 15 -0.053328373
-0.48849389 0.26225749 -0.14856213 49 0 -0.053307638
-0.65886772 0.35387418 0.0130544 7 8 -0.053305332
-0.44803974 0.24074039 -0.11742445 51 1 -0.053303029
-0.6984033 0.37542263 0.041554753 6 9 -0.053300723
-0.76562107 0.41207197 0.10675755 4 11 -0.053291511
-0.76694798 0.41313148 0.13797522 2 12 -0.053286903
-0.91418916 0.49306348 0.23979783 1 14 -0.053277686
-0.91289544 0.49277744 0.27797166 2 15 -0.053273078
-0.48413202 0.26220614 -0.14752688 50 0 -0.053252339
-0.67872888 0.3675999 0.013473257 6 8 -0.053250037
-0.44891009 0.24323127 -0.11787436 51 1 -0.053247735
-0.69708854 0.37785825 0.041554753 6 9 -0.053245429
-0.75129825 0.40758204 0.074779622 4 10 -0.053240821
-0.76417798 0.41474199 0.10675755 4 11 -0.053236213
-0.7655012 0.41580614 0.13797522 2 12 -0.053231604
-0.90210509 0.4908227 0.23709841 1 14 -0.053222388
-0.91116977 0.49596104 0.27797166 1 15 -0.05321778
-0.4679544 0.25556096 -0.14286812 51 0 -0.053197045
-0.67737699 0.37008509 0.013473257 6 8 -0.053194743
-0.46853542 0.25609049 -0.12327318 49 1 -0.053192437
-0.74476582 0.40724063 0.044485565 5 9 -0.053190134
-0.7626527 0.41754007 0.10675755 4 11 -0.053180918
-0.76397198 0.41860926 0.13797522 2 12 -0.05317631
-0.91063726 0.49959287 0.23979783 1 14 -0.053167094
