# .PCD v0.7 - Point Cloud Data file format
VERSION 0.7
FIELDS x y z intensity ring time
SIZE 4 4 4 4 2 4
TYPE F F F F U F
COUNT 1 1 1 1 1 1
WIDTH 954
HEIGHT 1
VIEWPOINT 0 0 0 1 0 0 0
POINTS 954
DATA ascii
6.1466355 1.9687377 1.4900758 1 14 -0.092011817
2.8167579 0.90165192 -0.05162422 111 7 -0.092009507
5.4960504 1.7582436 1.5461851 15 15 -0.092007205
3.7532032 1.1956363 -1.055464 11 0 -0.09198647
6.1755862 1.9661304 0.1131265 67 8 -0.091984168
4.3973904 1.3991585 -1.0653682 9 1 -0.091981865
6.189683 1.9682424 0.3403931 70 9 -0.091979556
5.3546329 1.7027068 -1.0921907 8 2 -0.091977254
6.161643 1.9581389 0.56564075 65 10 -0.091974951
5.973814 1.8973 -0.99273324 33 3 -0.091972649
6.1643529 1.9566346 0.7941007 87 11 -0.091970339
2.8571789 0.90635031 -0.36804545 100 4 -0.091968037
6.2083006 1.9681959 1.0315289 97 12 -0.091965735
2.8336546 0.89834362 -0.26007274 85 5 -0.091963433
8.1787291 2.5913074 1.6676707 3 13 -0.091961123
2.8237576 0.89412147 -0.15522847 85 6 -0.091958821
6.1423235 1.9437407 1.4873765 3 14 -0.091956519
2.8275139 0.89422661 -0.051763836 111 7 -0.091954216
5.5205755 1.7448686 1.5513614 15 15 -0.091951907
3.764725 1.1848465 -1.0575346 15 0 -0.091931172
6.1747799 1.9421657 0.11298689 77 8 -0.091928869
4.4152608 1.3878918 -1.0685174 11 1 -0.091926567
6.1866498 1.9447095 0.33986974 74 9 -0.091924265
5.3680353 1.6863573 -1.0937172 8 2 -0.091921955
6.164639 1.9354266 0.56529218 70 10 -0.091919653
5.9615521 1.8705235 -0.98960453 28 3 -0.091917351
6.1749339 1.9362912 0.79458821 84 11 -0.091915049
2.8546426 0.89459103 -0.36731425 85 4 -0.091912739
6.2185631 1.9487802 1.0321548 95 12 -0.091910437
2.8424771 0.89023381 -0.26059568 81 5 -0.091908135
8.2458076 2.58092 1.6795008 2 13 -0.091905832
2.8268614 0.88425988 -0.15522847 87 6 -0.091903523
6.1713896 1.9292668 1.4927752 28 14 -0.09190122
2.8342814 0.88603789 -0.051833645 114 7 -0.091898918
6.0684528 1.8959247 1.703547 5 15 -0.091896616
3.7540798 1.1671107 -1.0533936 9 0 -0.091875881
6.1754584 1.9198961 0.11288217 62 8 -0.091873571
4.4086728 1.3697742 -1.0658182 8 1 -0.091871269
6.1743264 1.9171778 0.33882302 65 9 -0.091868967
5.3776388 1.6687739 -1.0944804 12 2 -0.091866665
6.150424 1.9074057 0.5633747 77 10 -0.091864355
5.9733825 1.8525006 -0.99054313 31 3 -0.091862053
6.1718407 1.9128636 0.79336947 85 11 -0.09185975
2.846216 0.88159633 -0.36585179 85 4 -0.091857448
6.214005 1.9235581 1.0302775 85 12 -0.091855139
2.8455675 0.88030553 -0.26059568 81 5 -0.091852836
8.1267834 2.5141041 1.6535509 54 13 -0.091850534
2.8297784 0.87488002 -0.15522847 87 6 -0.091848232
6.8796854 2.1256742 1.6623883 40 14 -0.09184593
2.8201611 0.87082833 -0.051519506 118 7 -0.09184362
5.8129091 1.793838 1.6300424 1 15 -0.091841318
3.7486963 1.1518192 -1.0508054 9 0 -0.091820583
6.1763883 1.8965656 0.11277745 60 8 -0.091818281
4.4171534 1.3555188 -1.0667179 11 1 -0.091815971
6.1691933 1.893178 0.338195 59 9 -0.091813669
5.3568654 1.642874 -1.0891378 10 2 -0.091811366
6.1395712 1.8817432 0.5618059 75 10 -0.091809064
5.9835901 1.8327936 -0.99116892 25 3 -0.091806754
6.1784787 1.8913125 0.79336947 85 11 -0.091804452
2.8586144 0.87505895 -0.3670705 83 4 -0.09180215
6.1731262 1.8884925 1.0224558 81 12 -0.091799848
2.8370388 0.86736995 -0.2595498 83 5 -0.091797546
8.1392632 2.4868739 1.654314 126 13 -0.091795236
2.8366351 0.86616397 -0.1554378 89 6 -0.091792934
6.8978801 2.1062615 1.6650877 52 14 -0.091790631
2.8230331 0.86147201 -0.051519506 118 7 -0.091788329
5.9758906 1.822456 1.6740416 41 15 -0.09178602
3.7543437 1.1399419 -1.0513231 13 0 -0.091765285
4.4123006 1.338035 -1.0644684 9 1 -0.09176068
6.16397 1.8692305 0.33756694 59 9 -0.091758378
5.373558 1.628516 -1.0914276 10 2 -0.091756068
6.1267085 1.8555994 0.56006277 85 10 -0.091753766
6.0425744 1.8289632 -0.99992919 10 3 -0.091751464
6.173317 1.8673633 0.79190701 85 11 -0.091749161
2.8615007 0.86557382 -0.3670705 83 4 -0.091746852
6.1982622 1.8737285 1.0255845 75 12 -0.09174455
2.8398998 0.85795647 -0.2595498 83 5 -0.091742247
8.1625013 2.4644067 1.6573671 22 13 -0.091739945
2.8471403 0.859061 -0.15585649 87 6 -0.091737635
6.9272141 2.0901322 1.6704865 56 14 -0.091735333
2.8354475 0.85499156 -0.051694028 114 7 -0.091733031
5.6508064 1.7028531 1.5813844 20 15 -0.091730729
3.756253 1.1269314 -1.0508054 12 0 -0.091709994
2.8138015 0.84364527 0.051275171 30 8 -0.091707684
4.4129796 1.322278 -1.0635686 9 1 -0.091705382
6.1720471 1.8493543 0.33767161 46 9 -0.09170308
5.3714056 1.608436 -1.0899011 10 2 -0.091700777
6.1557341 1.8421249 0.56215453 65 10 -0.091698468
6.0145397 1.7987286 -0.99429762 68 3 -0.091696166
6.1642594 1.8423355 0.78995717 85 11 -0.091693863
2.8757668 0.85949123 -0.36853293 79 4 -0.091691561
6.1855149 1.847509 1.0224558 70 12 -0.091689251
2.8465474 0.84967458 -0.25989842 79 5 -0.091686949
8.1424084 2.4289088 1.6516427 12 13 -0.091684647
2.8384895 0.84619045 -0.15522847 85 6 -0.091682345
6.9378433 2.0682609 1.6713864 56 14 -0.091680035
2.8401835 0.84615582 -0.051728934 118 7 -0.091677733
5.5323696 1.6471715 1.5467027 61 15 -0.091675431
3.7581172 1.113919 -1.0502877 9 0 -0.091654696
2.8204181 0.83544624 0.05134498 83 8 -0.091652393
4.4005218 1.3026613 -1.0595194 11 1 -0.091650084
5.4030666 1.5984106 -1.0952437 8 2 -0.091645479
5.6510587 1.669633 -0.9332881 23 3 -0.091640867
6.1551046 1.817385 0.7880072 85 11 -0.091638565
2.8614666 0.84489006 -0.36633927 88 4 -0.091636263
6.1707668 1.8208388 1.0190142 72 12 -0.091633961
2.8493495 0.84022957 -0.25989842 83 5 -0.091631651
8.1636009 2.405777 1.654314 9 13 -0.091629349
2.8336163 0.83451658 -0.15480977 92 6 -0.091627046
6.9409242 2.044143 1.6704865 52 14 -0.091624744
2.8429742 0.83673197 -0.051728934 118 7 -0.091622442
5.5007353 1.6179125 1.5363499 43 15 -0.091620132
3.7732997 1.1033913 -1.0533936 13 0 -0.091588974
2.8272998 0.82622564 0.051414788 90 8 -0.091586672
4.4108796 1.2881596 -1.0608691 9 1 -0.09158437
3.1385756 0.91600132 0.17134793 33 9 -0.09158206
5.3693109 1.5670471 -1.0872297 12 2 -0.091579758
3.173162 0.92549449 0.28918275 8 10 -0.091577455
5.6154189 1.6367447 -0.92640501 36 3 -0.091575153
6.152195 1.7920388 0.78678852 84 11 -0.091572843
2.8646896 0.83389729 -0.36633927 88 4 -0.091570541
6.1530552 1.7899567 1.0149469 81 12 -0.091568239
2.8600621 0.83200735 -0.26059568 83 5 -0.091565937
8.1931009 2.3818703 1.6585119 5 13 -0.091563627
2.8404915 0.82524043 -0.15501912 92 6 -0.091561325
6.9524655 2.0185618 1.6713864 52 14 -0.091559023
2.8404043 0.82413858 -0.05162422 120 7 -0.09155672
5.5050511 1.5962427 1.5358323 61 15 -0.091554411
3.7567117 1.0843194 -1.0476996 10 0 -0.091533676
2.8340096 0.81745923 0.051484596 81 8 -0.091531374
4.4284563 1.2765341 -1.0640185 8 1 -0.091529071
3.12832 0.90116924 0.17061524 55 9 -0.091526769
5.3653159 1.5455766 -1.0853217 8 2 -0.091524459
3.1476543 0.90614396 0.28656808 33 10 -0.091522157
5.5964189 1.6100346 -0.92233771 32 3 -0.091519855
6.135519 1.7639691 0.78386366 84 11 -0.091517553
2.8694913 0.82444 -0.36658302 83 4 -0.091515243
6.1345825 1.761382 1.0108796 85 12 -0.091512941
2.8457134 0.81707078 -0.25902686 85 5 -0.091510639
8.2070265 2.3548784 1.6596566 9 13 -0.091508336
2.8471947 0.81642044 -0.15522847 92 6 -0.091506027
6.9613423 1.994819 1.6718361 50 14 -0.091503724
2.8336515 0.81146663 -0.051449694 118 7 -0.091501422
5.4864454 1.5701056 1.529103 54 15 -0.09149912
3.7567582 1.0701399 -1.0466642 8 0 -0.091478385
2.8310759 0.80591983 0.051379886 87 8 -0.091476075
4.421639 1.2578698 -1.0613191 11 1 -0.091473773
3.1178434 0.88696551 0.16988252 57 9 -0.091471471
5.3838973 1.5305952 -1.0879929 12 2 -0.091469169
3.1450481 0.89351821 0.28604513 51 10 -0.091466859
5.5887022 1.5867141 -0.92014766 9 3 -0.091464557
6.1550078 1.7463325 0.78556985 89 11 -0.091462255
2.8742614 0.81496072 -0.36682677 88 4 -0.091459952
6.1441908 1.7421081 1.0115054 76 12 -0.091457643
2.8447144 0.80604666 -0.25867823 85 5 -0.09145534
8.2000856 2.3219352 1.6566037 9 13 -0.091453038
2.8538706 0.80756515 -0.1554378 92 6 -0.091450736
6.981389 1.9742209 1.6749856 53 14 -0.091448434
2.8459477 0.80478674 -0.05162422 120 7 -0.091446124
5.4897628 1.5513762 1.5285853 31 15 -0.091443822
3.7679093 1.0591116 -1.0487348 12 0 -0.091423087
2.8260326 0.79436195 0.051240265 90 8 -0.091420785
4.4220338 1.2421449 -1.0604193 8 1 -0.091418475
3.1209207 0.87607592 0.16988252 72 9 -0.091416173
5.3873167 1.5112634 -1.0876113 10 2 -0.09141387
3.1443114 0.8814581 0.28569651 60 10 -0.091411568
2.868294 0.80408096 -0.47180638 28 3 -0.091409259
6.1473842 1.722165 0.78386366 87 11 -0.091406956
2.8845944 0.80756468 -0.3678017 85 4 -0.091404654
6.1502347 1.7206486 1.0115054 72 12 -0.091402352
2.8532672 0.79772049 -0.25920117 83 5 -0.09140005
8.2115211 2.2957888 1.6573671 9 13 -0.09139774
2.8565331 0.79809612 -0.1554378 94 6 -0.091395438
7.0029135 1.9552493 1.6785848 17 14 -0.091393135
2.8468137 0.79430938 -0.051589314 118 7 -0.091390833
5.4821181 1.528573 1.5249618 35 15 -0.091388524
3.7788472 1.048678 -1.0508054 14 0 -0.091367789
2.8307149 0.78502733 0.051275171 95 8 -0.091365486
4.4188309 1.2246207 -1.0586197 11 1 -0.091363184
3.0989375 0.8582474 0.16852181 72 9 -0.091360874
5.4036508 1.4965353 -1.0899011 12 2 -0.091358572
3.1433766 0.86996406 0.28534791 66 10 -0.09135627
2.8939297 0.80038321 -0.47556084 100 3 -0.091353968
6.1380515 1.6964669 0.78191376 84 11 -0.091351666
2.8682611 0.79220629 -0.36536431 79 4 -0.091349356
6.1428742 1.695489 1.0093153 71 12 -0.091347054
2.8597383 0.78931373 -0.2595498 83 5 -0.091344751
8.2346258 2.2712893 1.6604201 13 13 -0.091342449
2.847749 0.78493637 -0.15480977 85 6 -0.09134014
6.9796362 1.9225107 1.6713864 3 14 -0.091337837
2.8534248 0.7854293 -0.051659122 118 7 -0.091335535
6.0704365 1.6697962 1.6869825 48 15 -0.091333233
3.776895 1.0339497 -1.0492525 9 0 -0.09131249
2.8372955 0.77619755 0.05134498 95 8 -0.091310188
4.4343576 1.212271 -1.0613191 11 1 -0.091307886
3.0903547 0.84426588 0.16789377 69 9 -0.091305584
5.3974791 1.4745581 -1.0876113 8 2 -0.091303281
3.1483161 0.85951173 0.28552222 75 10 -0.091300972
2.8833663 0.78663647 -0.47337076 91 3 -0.09129867
6.1401048 1.6739848 0.78142631 84 11 -0.091296367
2.8710089 0.78219002 -0.36536431 79 4 -0.091294065
6.0991993 1.6605455 1.0011806 70 12 -0.091291755
2.8643985 0.77985054 -0.25972411 85 5 -0.091289453
6.0980515 1.6590899 1.2284284 17 13 -0.091287151
2.8504713 0.77499175 -0.15480977 89 6 -0.091284849
5.9030981 1.6038364 1.4122428 16 14 -0.091282539
2.8465002 0.77284366 -0.051484596 120 7 -0.091280237
6.1060586 1.6566912 1.6952648 50 15 -0.091277935
3.7711554 1.0182425 -1.0466642 11 0 -0.0912572
2.8457799 0.76785076 0.051449694 90 8 -0.091254897
4.4159837 1.1906978 -1.0559202 8 1 -0.091252588
3.0584261 0.82465464 0.16600966 75 9 -0.091250286
5.3874283 1.4516233 -1.0845585 10 2 -0.091247983
3.1493733 0.84799796 0.28534791 82 10 -0.091245681
2.8803718 0.77502763 -0.47243217 82 3 -0.091243371
6.1363263 1.6499656 0.78020763 68 11 -0.091241069
2.8775561 0.77319306 -0.36585179 85 4 -0.091238767
6.1180263 1.6439003 1.0033708 30 12 -0.091236465
2.8594062 0.76777971 -0.25902686 85 5 -0.091234155
8.2787247 2.2213771 1.6661443 20 13 -0.091231853
2.8608758 0.76710522 -0.15522847 89 6 -0.091229551
5.925602 1.5877589 1.4162918 7 14 -0.091227248
2.8529108 0.76443446 -0.051554412 120 7 -0.091224939
6.1003222 1.633437 1.6921589 48 15 -0.091222636
3.7616193 1.001592 -1.0430408 13 0 -0.091201901
2.8444462 0.75737983 0.051379886 100 8 -0.091199599
4.4387403 1.1810569 -1.0604193 11 1 -0.091197297
2.8489645 0.75751954 0.15449576 90 9 -0.091194987
5.3981552 1.4343199 -1.0857033 12 2 -0.091192685
3.1407607 0.83393073 0.28430203 77 10 -0.091190383
2.8771985 0.76395011 -0.47149354 86 3 -0.091188081
6.1379256 1.6285908 0.77972013 17 11 -0.091185771
2.8820236 0.76415443 -0.36609554 83 4 -0.091183469
6.1141801 1.6200031 1.0018064 15 12 -0.091181166
2.8639944 0.75830573 -0.25920117 83 5 -0.091178864
8.2974319 2.1969283 1.6684339 29 13 -0.091176555
2.8672657 0.75863498 -0.1554378 87 6 -0.091174252
2.8516943 0.75345153 -0.051484596 121 7 -0.091169648
6.0985155 1.6101586 1.6900884 52 15 -0.091167346
3.7761307 0.99205858 -1.0461466 13 0 -0.091146603
2.8393352 0.74541706 0.051240265 90 8 -0.091144301
4.4258709 1.161106 -1.0563701 9 1 -0.091141999
2.8515916 0.74756944 0.15449576 100 9 -0.091139697
5.3857894 1.4119314 -1.0822687 8 2 -0.091137387
3.145436 0.82401657 0.28447634 75 10 -0.091135085
2.8779364 0.75340247 -0.47118065 91 3 -0.091132782
3.2436688 0.84854108 0.41167468 11 11 -0.09113048
2.8923557 0.75609708 -0.3670705 83 4 -0.09112817
6.135087 1.602646 1.0043093 18 12 -0.091125868
2.862638 0.7477963 -0.25885254 83 5 -0.091123566
8.289854 2.1639824 1.6653811 37 13 -0.091121264
2.8583012 0.74559623 -0.15480977 85 6 -0.091118962
5.9287286 1.5454242 1.4144921 15 14 -0.091116652
2.8620479 0.74550819 -0.05162422 121 7 -0.09111435
6.1209254 1.5932392 1.6947472 46 15 -0.091112047
3.7702196 0.97645038 -1.0435584 14 0 -0.091091312
2.8457918 0.73650265 0.051310074 90 8 -0.091089003
4.4185772 1.1427209 -1.0536706 1 1 -0.091086701
2.8406477 0.73411345 0.15376306 100 9 -0.091084398
3.1579385 0.81552351 0.28534791 82 10 -0.091079786
2.8882 0.74532568 -0.47243217 97 3 -0.091077484
3.248533 0.83770978 0.4119184 36 11 -0.091075182
2.8872876 0.74401689 -0.36609554 81 4 -0.09107288
3.2367508 0.83346498 0.5293743 6 12 -0.091070578
2.8729491 0.73978591 -0.2595498 83 5 -0.091068268
6.072814 1.5626228 1.2188879 50 13 -0.091065966
2.8608859 0.73561639 -0.15480977 87 6 -0.091063663
5.9850483 1.5378121 1.4266397 3 14 -0.091061361
2.8685064 0.73650706 -0.051694028 123 7 -0.091059051
5.5145516 1.4148729 1.5254794 33 15 -0.091056749
3.7417843 0.95515996 -1.0347586 20 0 -0.091036014
2.8560965 0.72854078 0.051449694 100 8 -0.091033712
3.1497841 0.80287158 -0.75043672 31 1 -0.091031402
2.8430665 0.72469008 0.15376306 100 9 -0.0910291
3.1771898 0.8092652 -0.6373021 36 2 -0.091026798
3.1684895 0.80646026 0.28604513 77 10 -0.091024496
2.8946123 0.73621523 -0.4730579 97 3 -0.091022193
3.2379701 0.82294148 0.41021225 26 11 -0.091019884
2.8917911 0.73442167 -0.36633927 85 4 -0.091017582
3.1935465 0.81105775 0.52186543 50 12 -0.091015279
2.8774445 0.73024505 -0.25972411 85 5 -0.091012977
2.8634365 0.72562474 -0.15480977 87 6 -0.091008365
6.0791669 1.5393987 1.447785 15 14 -0.091006063
2.8593016 0.72404742 -0.051484596 123 7 -0.091003761
6.1409917 1.5539107 1.6973354 48 15 -0.091001451
3.1849239 0.80117869 -0.8799848 29 0 -0.090980716
2.8604362 0.7195527 0.051484596 95 8 -0.090978414
3.1354198 0.78814554 -0.7463876 52 1 -0.090976112
2.8513901 0.71622044 0.15407708 106 9 -0.090973809
3.1590495 0.79291153 -0.63310426 55 2 -0.0909715
3.1577573 0.79200298 0.28482497 75 10 -0.090969197
2.897038 0.7266115 -0.4730579 93 3 -0.090966895
3.2503088 0.8146131 0.41143093 43 11 -0.090964593
2.8903596 0.72386283 -0.36585179 88 4 -0.090962283
3.1714466 0.79367173 0.51779813 66 12 -0.090959981
2.8703117 0.7177788 -0.25885254 83 5 -0.090957679
3.2244966 0.80634987 0.6460793 11 13 -0.090955377
2.8735776 0.71806121 -0.15522847 94 6 -0.090953067
7.1014299 1.773221 1.6898323 3 14 -0.090950765
2.8540511 0.71212494 -0.05134498 121 7 -0.090948462
6.1426301 1.5315288 1.6963001 43 15 -0.09094616
3.1575627 0.78317231 -0.87170261 44 0 -0.090925425
2.8532248 0.70716017 0.051310074 100 8 -0.090923116
3.1362605 0.77672684 -0.74593771 74 1 -0.090920813
2.8596892 0.7077015 0.15439108 102 9 -0.090918511
3.1502268 0.77960229 -0.63081461 58 2 -0.090916209
3.1526299 0.77961463 0.28412771 80 10 -0.090913899
2.8957217 0.71554601 -0.47243217 100 3 -0.090911597
3.2126613 0.79326838 0.40631241 68 11 -0.090909295
2.896723 0.71472222 -0.36633927 88 4 -0.090906993
3.1952953 0.78779715 0.5212397 58 12 -0.090904683
2.8668733 0.70682502 -0.25832963 85 5 -0.090902381
3.1872604 0.78522617 0.63806528 33 13 -0.090900078
2.8760662 0.70802814 -0.15522847 87 6 -0.090897776
7.170023 1.7637812 1.7046791 6 14 -0.090895467
2.8642871 0.70406669 -0.051484596 124 7 -0.090893164
6.1404343 1.5082358 1.6942296 15 15 -0.090890862
3.15277 0.77031213 -0.86963201 65 0 -0.090870127
2.8479056 0.69529837 0.051170457 100 8 -0.090867825
3.1351662 0.76485145 -0.74503791 79 1 -0.090865515
2.8563209 0.69629651 0.15407708 106 9 -0.090863213
3.1491141 0.76767188 -0.63005131 58 2 -0.090860911
3.1650109 0.770962 0.28499928 72 10 -0.090858608
2.8905244 0.70356423 -0.47118065 100 3 -0.090856299
3.2134817 0.78158081 0.40606871 69 11 -0.090853997
2.9030585 0.70554328 -0.36682677 88 4 -0.090851694
3.1903474 0.77477312 0.51998824 63 12 -0.090849392
2.8751314 0.69822317 -0.25885254 89 5 -0.090847082
3.1899819 0.77409643 0.63806528 56 13 -0.09084478
2.8707564 0.69610119 -0.15480977 89 6 -0.090842478
7.106061 1.7217613 1.6880326 1 14 -0.090840176
2.8667271 0.6940648 -0.051484596 121 7 -0.090837874
6.16256 1.490882 1.6988882 11 15 -0.090835564
3.1516838 0.75839752 -0.86859673 71 0 -0.090814829
2.8580923 0.68722361 0.051310074 100 8 -0.090812527
3.124553 0.75071681 -0.74188858 65 1 -0.090810224
2.8509655 0.68445605 0.15365838 110 9 -0.090807915
3.1479566 0.75575727 -0.62928808 57 2 -0.090805613
3.1599331 0.75805092 0.28430203 66 10 -0.09080331
2.8929622 0.69347209 -0.47118065 100 3 -0.090801008
3.221982 0.77174526 0.40679988 70 11 -0.090798698
2.8939199 0.69263363 -0.36536431 79 4 -0.090796396
3.1834259 0.76133686 0.51842386 75 12 -0.090794094
2.8853018 0.69003856 -0.2595498 89 5 -0.090791792
3.2060313 0.76614994 0.64073664 27 13 -0.090789489
2.8653982 0.68421984 -0.15439108 83 6 -0.09078718
7.0968633 1.6933295 1.6844335 53 14 -0.090784878
2.8808036 0.68683565 -0.051694028 121 7 -0.090782575
6.1696067 1.4698077 1.6994059 18 15 -0.090780273
3.159951 0.74872833 -0.87014967 73 0 -0.090759531
2.8604739 0.6772421 0.051310074 100 8 -0.090757228
3.1423256 0.74339384 -0.74548781 70 1 -0.090754926
2.8533373 0.67450076 0.15365838 110 9 -0.090752624
3.0282974 0.71585953 -0.60486454 60 2 -0.090750322
2.9259982 0.69113791 0.26303601 49 10 -0.090748012
2.9069006 0.68609136 -0.4730579 97 3 -0.09074571
3.2014711 0.75502646 0.40387502 56 11 -0.090743408
2.8982525 0.68298233 -0.36560807 83 4 -0.090741105
3.1668363 0.7456916 0.51529521 78 12 -0.090738796
2.8838141 0.67904866 -0.25920117 89 5 -0.090736493
3.1953082 0.75180727 0.63806528 27 13 -0.090734191
2.8755462 0.67604256 -0.15480977 87 6 -0.090731889
7.0894504 1.6654283 1.6812842 52 14 -0.090729579
2.8715029 0.6740343 -0.051484596 120 7 -0.090727277
5.5314627 1.2973942 1.5223737 16 15 -0.090724975
3.151257 0.73506105 -0.86704385 78 0 -0.09070424
2.8686631 0.66861403 0.051414788 95 8 -0.090701938
3.1543911 0.73463124 -0.74773729 67 1 -0.090699628
2.8595648 0.66544259 0.15386772 116 9 -0.090697326
2.9083991 0.67680675 -0.580441 76 2 -0.090695024
2.8371837 0.659711 0.25484338 100 10 -0.090692721
2.913126 0.67683494 -0.47368363 91 3 -0.090690412
3.2079544 0.74474365 0.4043625 76 11 -0.090688109
2.9044864 0.67375773 -0.36609554 81 4 -0.090685807
3.1444032 0.72883481 0.51122791 58 12 -0.090683505
2.8784032 0.66717917 -0.25850391 84 5 -0.090681195
3.2017386 0.74153405 0.63882852 25 13 -0.090678893
2.8817801 0.66690069 -0.15501912 89 6 -0.090676591
7.1161056 1.6455023 1.686233 50 14 -0.090674289
2.8738382 0.66400605 -0.051484596 120 7 -0.090671979
6.1665411 1.423658 1.6957825 46 15 -0.090669677
3.1538038 0.72405583 -0.86704385 78 0 -0.090648942
2.857336 0.65546727 0.051170457 100 8 -0.090646639
3.1797302 0.72883976 -0.7531361 67 1 -0.090644337
2.8657641 0.65634787 0.15407708 125 9 -0.090642028
2.9222264 0.6692794 -0.58273071 92 2 -0.090639725
2.8394692 0.649804 0.25484338 114 10 -0.090637423
2.9039171 0.66401935 -0.47180638 93 3 -0.090635121
3.2144053 0.73442626 0.40485001 75 11 -0.090632811
2.916497 0.66582477 -0.36731425 85 4 -0.090630509
3.1661873 0.72224677 0.51435655 66 12 -0.090628207
2.8845994 0.65801305 -0.25885254 86 5 -0.090625905
3.1947365 0.72817266 0.63692045 20 13 -0.090623595
2.8879852 0.65772498 -0.15522847 89 6 -0.090621293
7.1275067 1.6219476 1.6875829 48 14 -0.09061899
2.8722386 0.65308428 -0.051414788 124 7 -0.090616688
6.188427 1.4059774 1.7004411 50 15 -0.090614378
3.1657336 0.71517169 -0.86963201 71 0 -0.090593643
2.8654587 0.64680952 0.051275171 100 8 -0.090591341
3.1689479 0.71473533 -0.74998683 65 1 -0.090589039
2.8659766 0.64640218 0.1539724 121 9 -0.090586737
2.9149687 0.65691745 -0.58082259 95 2 -0.090584427
2.8456082 0.6407631 0.25519201 118 10 -0.090582125
2.9023631 0.65301073 -0.47118065 93 3 -0.090579823
3.2208226 0.72407287 0.40533748 65 11 -0.09057752
2.9167521 0.65571481 -0.3670705 83 4 -0.090575211
3.1820564 0.714773 0.51654667 77 12 -0.090572909
2.8907673 0.64881188 -0.25920117 84 5 -0.090570606
3.2030056 0.71830601 0.63806528 27 13 -0.090568304
2.882468 0.64589244 -0.15480977 85 6 -0.090565994
7.1385517 1.5995795 1.6889325 46 14 -0.090563692
2.8821943 0.64530289 -0.051554412 123 7 -0.09056139
6.1968255 1.3862927 1.7014765 46 15 -0.090559088
3.1794028 0.70718563 -0.87273788 58 0 -0.090538353
2.8656356 0.63687044 0.051240265 100 8 -0.090536043
3.1808124 0.70633566 -0.75223631 61 1 -0.090533741
2.8603053 0.63516343 0.15355371 118 9 -0.090531439
2.9171312 0.6472466 -0.58082259 97 2 -0.090529136
2.8496623 0.63175499 0.25536633 113 10 -0.090526827
2.9083693 0.64423901 -0.47180638 93 3 -0.090524524
3.2484024 0.7189641 0.4085061 68 11 -0.090522222
2.9053431 0.64303529 -0.36536431 79 4 -0.09051992
3.188267 0.70507073 0.5171724 95 12 -0.09051761
2.8967934 0.64008385 -0.2595498 86 5 -0.090515308
3.2130387 0.7093727 0.63959181 39 13 -0.090513006
2.8806932 0.63547039 -0.15460044 89 6 -0.090510704
7.1304955 1.5729612 1.6857833 56 14 -0.090508401
2.8843181 0.63574219 -0.051554412 120 7 -0.090506092
6.1712031 1.3590862 1.6931943 33 15 -0.090503789
3.1968274 0.69994462 -0.87687898 45 0 -0.090483055
2.8755462 0.62907284 0.051379886 100 8 -0.090480752
3.2021751 0.69994438 -0.75673532 50 1 -0.090478443
2.8586023 0.62432212 0.15334436 127 9 -0.09047614
2.9115891 0.63589448 -0.57929617 93 2 -0.090473838
2.8556352 0.62315047 0.25571495 117 10 -0.090471536
2.91435 0.63543177 -0.47243217 91 3 -0.090469226
3.2488289 0.70776612 0.40826234 62 11 -0.090466924
2.897872 0.63077801 -0.36414564 72 4 -0.090464622
3.179127 0.69141912 0.51529521 87 12 -0.09046232
2.8990104 0.62996751 -0.2595498 84 5 -0.090460017
3.2211287 0.69996524 0.64073664 33 13 -0.090457708
2.8866885 0.6267609 -0.15480977 89 6 -0.090455405
7.1435599 1.5497156 1.6875829 48 14 -0.090453103
2.8865197 0.62567079 -0.051554412 123 7 -0.090450801
5.5434031 1.2005508 1.5197855 35 15 -0.090448491
3.769743 0.81091756 -1.0332056 12 0 -0.090427756
2.8796787 0.61945391 0.051414788 100 8 -0.090425454
3.2217464 0.69244701 -0.76078445 12 1 -0.090423152
2.8685756 0.61601657 0.15376306 121 9 -0.09042085
2.9139001 0.62521935 -0.57929617 93 2 -0.09041854
2.8501072 0.6110099 0.2550177 117 10 -0.090416238
2.9205225 0.62557256 -0.4730579 93 3 -0.090413935
3.2415745 0.69434154 0.40704364 57 11 -0.090411633
2.9175258 0.6243996 -0.36633927 88 4 -0.090409324
3.1660676 0.67701232 0.51279223 63 12 -0.090407021
2.8972948 0.61901087 -0.25920117 93 5 -0.090404719
3.2236726 0.68815523 0.64073664 27 13 -0.090402417
2.8928726 0.6170103 -0.15501912 92 6 -0.090400107
7.1606283 1.5259579 1.6902822 52 14 -0.090397805
2.880863 0.61392319 -0.051414788 121 7 -0.090395503
5.5173268 1.1747602 1.5115032 52 15 -0.090393201
3.7801111 0.79935151 -1.0352762 11 0 -0.090372466
2.8741043 0.60723966 0.051275171 100 8 -0.090370156
4.4331222 0.93582243 -1.0460224 10 1 -0.090367854
2.8747225 0.60632354 0.1539724 127 9 -0.090365551
2.9218278 0.6162588 -0.580441 84 2 -0.090363249
2.8483236 0.60023499 0.25466907 117 10 -0.09036094
2.9149566 0.61374694 -0.47180638 97 3 -0.090358637
3.2169018 0.67673546 0.4036313 60 11 -0.090356335
2.9275661 0.61533332 -0.36731425 85 4 -0.090354033
3.1975255 0.67149401 0.51748526 71 12 -0.090351723
2.8897946 0.60634255 -0.25832963 95 5 -0.090349421
3.2106838 0.6736722 0.63768369 46 13 -0.090347119
2.8989184 0.60772735 -0.15522847 92 6 -0.090344816
7.1659107 1.5009549 1.6902822 42 14 -0.090342507
2.8830936 0.60336077 -0.051414788 124 7 -0.090340205
5.5121417 1.1525493 1.5089152 61 15 -0.090337902
3.7830155 0.78549212 -1.0352762 16 0 -0.090317167
2.8762062 0.5972054 0.051275171 100 8 -0.090314865
4.4210973 0.91717428 -1.0424232 7 1 -0.090312555
2.8768213 0.59628582 0.1539724 129 9 -0.090310253
2.8544064 0.59059936 0.2550177 117 10 -0.090305649
2.9133174 0.60225832 -0.47118065 97 3 -0.090303339
3.2114685 0.66389394 0.40265635 34 11 -0.090301037
2.9296954 0.60511249 -0.36731425 88 4 -0.090298735
3.2075889 0.66192454 0.51873678 81 12 -0.090296432
2.8996987 0.59786016 -0.25902686 91 5 -0.090294123
3.2265913 0.66467339 0.64035505 24 13 -0.09029182
2.8893888 0.59468311 -0.15460044 92 6 -0.090289518
7.1751819 1.4754636 1.691182 18 14 -0.090287216
2.8930173 0.59490365 -0.051554412 124 7 -0.090284914
5.5369458 1.1375817 1.5146091 22 15 -0.090282604
3.7969563 0.77526075 -1.0383821 15 0 -0.090262413
2.8841517 0.58836037 0.051379886 103 8 -0.090260111
4.4204526 0.90096086 -1.0415233 10 1 -0.090257809
2.8729115 0.58554661 0.15365838 133 9 -0.090255499
5.3904119 1.0976721 -1.0692936 12 2 -0.090253197
2.8622062 0.58232278 0.25554064 106 10 -0.090250894
2.9230418 0.59416866 -0.47243217 97 3 -0.090248592
2.8888879 0.58670121 0.36195198 75 11 -0.090246283
2.9142809 0.59132874 -0.36512056 74 4 -0.09024398
3.2252536 0.65442729 0.5212397 60 12 -0.090241678
2.9055707 0.58903342 -0.25937548 91 5 -0.090239376
6.2131844 1.2584423 1.2322445 11 13 -0.090237066
2.8874297 0.58430654 -0.15439108 92 6 -0.090234764
6.0435314 1.2218813 1.4234902 3 14 -0.090232462
2.9067345 0.58768362 -0.051763836 121 7 -0.090230159
5.5577307 1.1226553 1.5192679 7 15 -0.09022785
3.7958517 0.76124144 -1.0373468 9 0 -0.090207115
2.8841262 0.57839888 0.05134498 100 8 -0.090204813
4.4272375 0.88706166 -1.0424232 10 1 -0.09020251
2.874938 0.5755139 0.15365838 131 9 -0.090200208
5.3634086 1.0726875 -1.0631877 8 2 -0.090197898
2.8720362 0.57389045 0.25623786 106 10 -0.090195596
2.9327443 0.58602113 -0.47368363 97 3 -0.090193294
2.8518836 0.56934601 0.35707721 93 11 -0.090190992
2.9181728 0.58204883 -0.36536431 76 4 -0.090188682
3.206208 0.63891917 0.51779813 65 12 -0.09018638
2.907609 0.57888812 -0.25937548 89 5 -0.090184078
6.2096214 1.2362996 1.2307181 17 13 -0.090181775
2.8932695 0.57550681 -0.15460044 85 6 -0.090179466
6.0265236 1.1976591 1.4185413 76 14 -0.090177163
2.8969994 0.57519901 -0.051554412 123 7 -0.090174861
3.7812963 0.74528831 -1.032688 11 0 -0.090151824
2.8900514 0.56910115 0.051414788 100 8 -0.090149514
4.424571 0.87047267 -1.0410734 8 1 -0.090147212
2.8828089 0.56662989 0.1539724 127 9 -0.09014491
5.3746424 1.0564116 -1.0647143 10 2 -0.090142608
2.8700137 0.56359464 0.25588927 106 10 -0.090140298
2.934772 0.57577962 -0.47368363 97 3 -0.090137996
2.8655422 0.56167787 0.35853964 88 11 -0.090135694
2.9240828 0.5726226 -0.36585179 85 4 -0.090133391
3.2471912 0.63530838 0.52405554 50 12 -0.090131082
2.9096122 0.56873435 -0.25937548 91 5 -0.090128779
6.2081194 1.213485 1.2295732 16 13 -0.090126477
2.9109423 0.5684669 -0.1554378 85 6 -0.090124175
6.0249305 1.1754943 1.4171916 58 14 -0.090121873
2.8950641 0.56431717 -0.051484596 121 7 -0.090119563
6.3296127 1.2326462 1.7278759 17 15 -0.090117261
3.7745187 0.72959185 -1.0300999 14 0 -0.090096526
2.8900571 0.5586307 0.051379886 103 8 -0.090094224
4.4314103 0.85576051 -1.0419734 8 1 -0.090091914
2.8847692 0.55656415 0.1539724 123 9 -0.090089612
5.3804059 1.0370783 -1.0650959 12 2 -0.090087309
2.8564086 0.55005699 0.25449476 110 10 -0.090085007
2.9252238 0.56278068 -0.47180638 100 3 -0.090082698
2.8713839 0.55242246 0.35902712 88 11 -0.090080395
2.9319122 0.56353682 -0.36658302 83 4 -0.090078093
6.0739326 1.1663561 0.97959268 75 12 -0.090075791
2.9115796 0.55857509 -0.25937548 91 5 -0.090073489
6.2067404 1.1896156 1.2284284 4 13 -0.090071179
2.9090831 0.557042 -0.15522847 89 6 -0.090068877
6.0349398 1.1545037 1.4185413 18 14 -0.090066575
2.9009445 0.55496013 -0.051554412 123 7 -0.090064272
6.3490577 1.2134469 1.7320172 100 15 -0.090061963
3.7884302 0.71857268 -1.0332056 11 0 -0.090041228
2.8842263 0.54654437 0.051240265 103 8 -0.090038925
4.4287724 0.83842635 -1.0406237 10 1 -0.090036623
2.8866947 0.54649025 0.1539724 121 9 -0.090034313
5.4071417 1.0226701 -1.0696753 2 2 -0.090032011
2.8661425 0.54156327 0.25519201 100 10 -0.090029709
2.9271705 0.55256557 -0.47180638 97 3 -0.090027407
2.8616853 0.53968662 0.35756469 88 11 -0.090025105
2.9377627 0.55403411 -0.3670705 83 4 -0.090022795
6.076026 1.1447825 0.97927988 81 12 -0.090020493
2.9135118 0.54840755 -0.25937548 86 5 -0.09001819
6.0970182 1.1465343 1.2059129 41 13 -0.090015888
2.9110098 0.5468846 -0.15522847 87 6 -0.090013579
6.0234137 1.1316047 1.4149421 46 14 -0.090011276
2.902864 0.54482979 -0.051554412 123 7 -0.090008974
6.3741412 1.1951917 1.7377111 100 15 -0.090006672
3.7945912 0.70671225 -1.034241 9 0 -0.089985929
2.8879886 0.53734326 0.051275171 103 8 -0.089983627
3.4103413 0.63391721 -0.80082577 12 1 -0.089981325
2.8806365 0.53545523 0.15355371 115 9 -0.089979023
3.3547821 0.62298411 -0.66325212 13 2 -0.089976721
2.8737993 0.53314662 0.25571495 93 10 -0.089974411
2.9367557 0.54429615 -0.4730579 97 3 -0.089972109
2.867363 0.53091735 0.35805216 88 11 -0.089969806
2.9259202 0.54175973 -0.36536431 76 4 -0.089967504
6.0661912 1.1221135 0.97708976 76 12 -0.089965194
2.9153142 0.53874356 -0.25937548 86 5 -0.089962892
6.2069716 1.1459143 1.2269019 28 13 -0.08996059
2.908879 0.53650439 -0.15501912 89 6 -0.089958288
6.0347986 1.113039 1.4167417 15 14 -0.089955978
2.9125211 0.53665054 -0.051694028 126 7 -0.089953676
5.6066976 1.0320554 1.5275501 28 15 -0.089951374
3.7931125 0.69343096 -1.0332056 14 0 -0.089930639
2.9015577 0.52991819 0.051484596 103 8 -0.089928336
3.3798344 0.6166575 -0.79317743 41 1 -0.089926027
2.8785579 0.52468097 0.15334436 115 9 -0.089923725
3.3298957 0.60634518 -0.65790945 36 2 -0.089921422
2.8794718 0.52432692 0.25606358 86 10 -0.08991912
2.9385448 0.53455371 -0.4730579 93 3 -0.08991681
2.8652015 0.52069664 0.35756469 88 11 -0.089914508
2.9258406 0.53118771 -0.36512056 74 4 -0.089912206
6.0486913 1.0970523 0.97364825 71 12 -0.089909904
2.9250188 0.52998543 -0.26007274 93 5 -0.089907594
6.2167296 1.1252882 1.2280468 26 13 -0.089905292
2.9068034 0.52563566 -0.15480977 94 6 -0.08990299
7.2352543 1.3083471 1.6974807 46 14 -0.089900687
2.8986337 0.52363741 -0.051414788 121 7 -0.089898378
5.638783 1.0176257 1.5353146 18 15 -0.089896075
3.5674348 0.63866979 -0.97108907 21 0 -0.08987534
2.9034803 0.51928055 0.051484596 103 8 -0.089873038
3.3801532 0.60392362 -0.79272753 63 1 -0.089870736
2.8942251 0.51658285 0.15407708 106 9 -0.089868426
3.3166335 0.59138018 -0.6548565 48 2 -0.089866124
2.871567 0.51202154 0.25519201 90 10 -0.089863822
2.9793797 0.53070879 -0.47931525 81 3 -0.08986152
2.8788171 0.51227754 0.35902712 58 11 -0.08985921
2.9355857 0.52185082 -0.36609554 83 4 -0.089856908
6.0429463 1.0731497 0.97208387 72 12 -0.089854605
2.911248 0.51647472 -0.25867823 86 5 -0.089852303
6.2343435 1.1048949 1.2307181 16 13 -0.089849994
2.9205103 0.51706797 -0.1554378 97 6 -0.089847691
7.2400012 1.2818215 1.6974807 12 14 -0.089845389
2.9044721 0.5137043 -0.051484596 123 7 -0.089843087
5.6272559 0.99426389 1.5311736 20 15 -0.089840785
3.4898324 0.61158359 -0.94934833 28 0 -0.089820042
2.9014246 0.50794488 0.051414788 103 8 -0.08981774
3.3593087 0.5875029 -0.78732872 32 1 -0.089815438
2.8999453 0.50716573 0.15428641 106 9 -0.089813136
3.2954702 0.57574391 -0.65027708 42 2 -0.089810826
2.8714616 0.50115001 0.2550177 86 10 -0.089808524
3.1914749 0.55642879 -0.51310509 65 3 -0.089806221
6.0410094 1.0521516 0.75290889 73 11 -0.089803919
2.9393449 0.51194036 -0.36633927 85 4 -0.08980161
6.0447102 1.0517092 0.971771 75 12 -0.089799307
2.9130325 0.50631148 -0.25867823 91 5 -0.089797005
6.2188196 1.079766 1.2269019 9 13 -0.089794703
2.9222975 0.50686955 -0.1554378 94 6 -0.089792401
5.9963846 1.040067 1.4050443 35 14 -0.089790091
2.9062471 0.50356466 -0.051484596 121 7 -0.089787789
5.6173673 0.97230721 1.5275501 58 15 -0.089785486
3.4594738 0.59444648 -0.94054842 35 0 -0.089764751
2.8912678 0.49629277 0.051205363 103 8 -0.089762442
3.3554764 0.57537079 -0.78597897 52 1 -0.08976014
2.9094853 0.49889573 0.15470509 103 9 -0.089757837
3.2973611 0.56481326 -0.65027708 49 2 -0.089755535
2.8770351 0.49229914 0.25536633 86 10 -0.089753225
3.2108266 0.54883701 -0.51592094 66 3 -0.089750923
6.0464215 1.0324484 0.75315261 84 11 -0.089748621
2.9547238 0.50452977 -0.36804545 83 4 -0.089746319
6.0325866 1.0289996 0.96926802 70 12 -0.089744017
2.9186237 0.49731725 -0.25902686 89 5 -0.089741707
5.9959221 1.0205948 1.1822525 33 13 -0.089739405
2.9200244 0.49650568 -0.15522847 92 6 -0.089737102
7.2639279 1.2351203 1.7010798 42 14 -0.0897348
2.9197302 0.49593279 -0.051694028 121 7 -0.08973249
5.6224656 0.95399833 1.5280677 39 15 -0.089730188
3.4385657 0.57912016 -0.93433678 42 0 -0.089709453
2.9027576 0.48836032 0.051379886 107 8 -0.089707151
3.3554442 0.56391811 -0.78552908 66 1 -0.089704841
2.8915124 0.48542917 0.15365838 100 9 -0.089702539
3.2934077 0.55289966 -0.64913225 45 2 -0.089700237
2.8884766 0.48440263 0.25623786 78 10 -0.089697935
3.220422 0.53949267 -0.5171724 71 3 -0.089695632
6.0321913 1.0094416 0.75095892 75 11 -0.089693323
2.9388454 0.4912678 -0.36585179 91 4 -0.089691021
6.0458832 1.0095665 0.97083241 72 12 -0.089688718
2.9321339 0.48909241 -0.26007274 84 5 -0.089686416
2.9137743 0.48550874 -0.15480977 87 6 -0.089681804
2.9253886 0.48639315 -0.051763836 121 7 -0.0896772
5.6410069 0.93689698 1.5322088 11 15 -0.08967489
3.4216032 0.56337541 -0.92916042 42 0 -0.089654155
2.9064176 0.47854885 0.051414788 100 8 -0.089651853
3.3631611 0.55314994 -0.78687876 63 1 -0.089649551
2.8971305 0.47598252 0.15386772 100 9 -0.089647248
3.2779758 0.53796422 -0.64569765 38 2 -0.089644939
2.894165 0.47445652 0.25658652 76 10 -0.089642636
3.2243268 0.52800554 -0.51748526 75 3 -0.089640334
6.0395961 0.98902506 0.75144643 75 11 -0.089638032
2.9366243 0.48036462 -0.36536431 79 4 -0.089635722
6.0318251 0.98558778 0.96801656 70 12 -0.08963342
2.9298902 0.4782145 -0.25972411 89 5 -0.089631118
8.5916271 1.4007756 1.6920942 29 13 -0.089628816
2.9194767 0.47546729 -0.15501912 87 6 -0.089626506
7.2725792 1.1831163 1.7010798 37 14 -0.089624204
2.9191735 0.4748964 -0.05162422 123 7 -0.089621902
5.6232677 0.91379321 1.5265148 3 15 -0.089619599
3.4178276 0.55050588 -0.92760748 50 0 -0.089598864
2.9101267 0.46821141 0.051449694 100 8 -0.089596555
3.3690135 0.54143882 -0.78777856 48 1 -0.089594252
2.908716 0.46694154 0.15439108 100 9 -0.08959195
3.2953413 0.5290072 -0.6487506 48 2 -0.089589648
2.8820329 0.46214351 0.25536633 86 10 -0.089587338
3.232002 0.51768374 -0.51842386 68 3 -0.089585036
6.0373006 0.9659369 0.7507152 80 11 -0.089582734
2.9462061 0.47085187 -0.36633927 88 4 -0.089580432
6.0275936 0.96222913 0.96676511 71 12 -0.089578122
2.9197366 0.46609905 -0.25867823 84 5 -0.08957582
8.5964651 1.3707744 1.6920942 32 13 -0.089573517
2.929008 0.4665308 -0.1554378 85 6 -0.089571215
7.2882123 1.1595582 1.7037793 45 14 -0.089568906
2.9208949 0.46419176 -0.05162422 126 7 -0.089566603
6.4374628 1.0218997 1.746511 63 15 -0.089564301
3.4159112 0.53797328 -0.9265722 54 0 -0.089543566
2.9097676 0.45773876 0.051414788 100 8 -0.089541264
3.3670332 0.52906954 -0.78687876 38 1 -0.089538954
2.9024358 0.45554867 0.1539724 100 9 -0.089536652
3.3029859 0.51841664 -0.64989549 51 2 -0.08953435
2.8796918 0.45146263 0.2550177 82 10 -0.089532048
3.2337894 0.5063979 -0.51842386 53 3 -0.089529738
6.0347509 0.94394064 0.74998403 82 11 -0.089527436
2.955677 0.46178976 -0.36731425 85 4 -0.089525133
6.0289645 0.94087696 0.96645224 67 12 -0.089522831
2.9252832 0.45651808 -0.25902686 86 5 -0.089520521
8.603138 1.3410672 1.6924759 30 13 -0.089518219
2.934566 0.45691758 -0.15564716 89 6 -0.089515917
7.2999182 1.1353065 1.7055789 49 14 -0.089513615
2.9185452 0.45337975 -0.051554412 124 7 -0.089511313
5.7022052 0.88478673 1.5461851 50 15 -0.089509003
3.4234965 0.52692705 -0.92812514 50 0 -0.089488268
2.9093716 0.44727582 0.051379886 100 8 -0.089485966
3.3650072 0.51672238 -0.78597897 37 1 -0.089483663
2.9158533 0.44723052 0.15460044 100 9 -0.089481354
3.302835 0.50658536 -0.64951384 54 2 -0.089479052
2.8851888 0.44201186 0.25536633 86 10 -0.089476749
3.2667799 0.49988824 -0.52342981 30 3 -0.089474447
6.0242734 0.92076862 0.74827784 84 11 -0.089472137
2.9592335 0.45176852 -0.36755794 83 4 -0.089469835
6.0146365 0.9171474 0.9636364 70 12 -0.089467533
2.9327676 0.44720581 -0.2595498 89 5 -0.089465231
5.9798255 0.91077143 1.175765 22 13 -0.089462928
2.9282448 0.44546893 -0.15522847 87 6 -0.089460619
6.005291 0.91250533 1.4023448 37 14 -0.089458317
2.931972 0.44499034 -0.051763836 127 7 -0.089456014
5.7205391 0.86719173 1.5503261 67 15 -0.089453712
3.4329562 0.51612312 -0.93019569 45 0 -0.08943297
2.9128923 0.43741497 0.051414788 100 8 -0.089430667
3.3822079 0.50728464 -0.7895782 7 1 -0.089428365
2.9035699 0.43497881 0.15386772 100 9 -0.089426063
3.3084664 0.49563566 -0.65027708 56 2 -0.089423761
2.8965664 0.43341276 0.25623786 78 10 -0.089421451
3.3095324 0.49461275 -0.53000003 36 3 -0.089419149
6.0176334 0.89827031 0.74705911 82 11 -0.089416847
2.9549022 0.44055852 -0.36682677 85 4 -0.089414544
6.0256166 0.89730901 0.96488786 71 12 -0.089412235
2.946135 0.4387258 -0.26059568 89 5 -0.089409932
8.6355925 1.2844391 1.6970552 30 13 -0.08940763
2.9258308 0.43465835 -0.15501912 89 6 -0.089405328
7.3057389 1.0840298 1.705129 43 14 -0.089403018
2.9335077 0.43475237 -0.051763836 126 7 -0.089400716
5.7693958 0.85400832 1.5627494 58 15 -0.089398414
3.4347372 0.50413579 -0.93019569 35 0 -0.089377679
2.9144015 0.42724365 0.051414788 100 8 -0.089375377
4.4348168 0.649342 -1.0347749 11 1 -0.089373067
2.907047 0.42512912 0.1539724 100 9 -0.089370765
3.2926929 0.48152629 -0.64684254 31 2 -0.089368463
2.9020047 0.42387441 0.25658652 78 10 -0.08936616
3.3386042 0.48705021 -0.5343802 18 3 -0.089363851
6.0246615 0.87783021 0.74754661 82 11 -0.089361548
2.966244 0.43167129 -0.36804545 74 4 -0.089359246
6.0248022 0.87570322 0.96426219 75 12 -0.089356944
2.9476483 0.42843983 -0.26059568 93 5 -0.089354634
8.6380806 1.2540032 1.6966736 28 13 -0.089352332
2.9312832 0.42501643 -0.15522847 87 6 -0.08935003
7.3133354 1.0590816 1.7060288 45 14 -0.089347728
2.9270911 0.4233655 -0.05162422 127 7 -0.089345418
5.8449979 0.84436125 1.5824198 37 15 -0.089343116
3.5741646 0.51186097 -0.96746564 13 0 -0.089322381
2.9277525 0.41876742 0.05162422 100 8 -0.089320078
4.4370565 0.63385648 -1.0347749 12 1 -0.089317776
2.920377 0.41667089 0.15460044 100 9 -0.089315467
2.8955767 0.41261825 0.25588927 78 10 -0.089310862
4.5821342 0.65213376 -0.73305202 6 3 -0.08930856
6.0296545 0.85707265 0.74779034 84 11 -0.08930625
6.0101495 0.85323298 -0.74535298 45 4 -0.089303948
6.0180435 0.85327929 0.9626978 76 12 -0.089301646
2.9451804 0.41758779 -0.26024702 93 5 -0.089299344
8.6521254 1.2252171 1.6985818 20 13 -0.089297034
2.9327488 0.41478238 -0.15522847 92 6 -0.089294732
5.9643483 0.84248072 1.3906474 26 14 -0.089292429
2.9245911 0.412586 -0.051554412 124 7 -0.089290127
5.8211284 0.82018107 1.5751728 54 15 -0.089287817
3.7940438 0.52984232 -1.0264764 10 0 -0.089267083
2.9232547 0.40771559 0.051519506 95 8 -0.08926478
4.4295912 0.61702102 -1.0325253 16 1 -0.089262478
2.9177859 0.40643373 0.15439108 100 9 -0.089260176
2.895026 0.40223333 0.25571495 64 10 -0.089255564
4.6391683 0.64373827 -0.74181229 1 3 -0.089253262
6.024744 0.83493131 0.74681538 84 11 -0.089250959
6.020957 0.8333354 -0.74632788 59 4 -0.08924865
6.0208402 0.83331925 0.9626978 76 12 -0.089246348
2.9387259 0.40621409 -0.2595498 91 5 -0.089244045
8.6641293 1.1960838 1.7001083 6 13 -0.089241743
2.9460504 0.40617862 -0.15585649 94 6 -0.089239433
7.3302035 1.009328 1.7082783 34 14 -0.089237131
2.933867 0.4039771 -0.051694028 124 7 -0.089234829
5.8199887 0.800345 1.5741374 39 15 -0.089232527
3.8035276 0.51763654 -1.0285469 9 0 -0.089211792
2.9166656 0.39694008 0.051379886 95 8 -0.089209482
4.3949242 0.59734285 -1.0239772 15 1 -0.08920718
2.9271035 0.39732149 0.15480977 100 9 -0.089204878
4.33254 0.58732158 -0.84986329 1 2 -0.089202575
5.9981599 0.81205082 0.5295583 72 10 -0.089200266
6.0117426 0.81282133 0.74486554 84 11 -0.089195661
6.0177865 0.81256616 -0.74559671 53 4 -0.089193359
6.0100088 0.81044799 0.96050775 75 12 -0.089191049
2.9480238 0.39701778 -0.26024702 89 5 -0.089188747
5.9615927 0.80286258 1.1692775 12 13 -0.089186445
2.9355044 0.39480874 -0.15522847 81 6 -0.089184143
5.9815331 0.80341965 1.3933468 11 14 -0.08918184
2.9392228 0.39426586 -0.051763836 121 7 -0.089179531
5.956779 0.79797816 1.6103721 11 15 -0.089177229
3.7994776 0.50425893 -1.026994 14 0 -0.089156494
2.9219975 0.38728404 0.051449694 85 8 -0.089154191
4.3738003 0.57892841 -1.0185784 7 1 -0.089151882
2.9165251 0.38603938 0.15418173 100 9 -0.089149579
4.3656049 0.57706839 -0.85596919 1 2 -0.089147277
6.0185966 0.79450375 0.5311271 65 10 -0.089144975
4.6199417 0.60904729 -0.73805791 1 3 -0.089142665
6.0106072 0.79131168 0.74437803 84 11 -0.089140363
6.0166488 0.79104185 -0.74510926 53 4 -0.089138061
6.018538 0.79129022 0.96144634 72 12 -0.089135759
2.9572263 0.38827628 -0.26094431 91 5 -0.089133456
8.6779089 1.1378467 1.7012531 23 13 -0.089131147
2.9368644 0.38456154 -0.15522847 85 6 -0.089128844
7.3369036 0.95940953 1.7082783 34 14 -0.089126542
2.9405143 0.38451606 -0.051763836 120 7 -0.08912424
5.9440675 0.77622032 1.6062311 1 15 -0.08912193
3.8088782 0.49198395 -1.0290645 10 0 -0.089101195
2.927232 0.37810376 0.051519506 85 8 -0.089098893
4.3872924 0.56591785 -1.0212778 1 1 -0.089096591
2.9138932 0.37534535 0.1539724 100 9 -0.089094289
4.318912 0.555565 -0.84642875 12 2 -0.089091979
6.0134292 0.7724731 0.53042984 65 10 -0.089089677
6.0092602 0.77086854 0.74389052 84 11 -0.089085072
6.0113635 0.7700749 -0.74413431 50 4 -0.089082763
6.0134268 0.76927257 0.96019489 76 12 -0.08908046
2.9585636 0.37795049 -0.26094431 89 5 -0.089078158
8.6913719 1.1103052 1.7031612 27 13 -0.089075856
2.9420862 0.37532511 -0.1554378 87 6 -0.089073546
7.3477769 0.93606073 1.7100779 40 14 -0.089071244
2.9418387 0.37424862 -0.051763836 124 7 -0.089068942
6.3913574 0.81195182 1.7263231 28 15 -0.08906664
3.8028219 0.47838682 -1.026994 9 0 -0.089045905
2.9325025 0.3683812 0.051589314 85 8 -0.089043595
4.3351007 0.54380721 -1.0086806 1 1 -0.089041293
2.9230485 0.36667544 0.15439108 100 9 -0.08903899
4.3441067 0.54416901 -0.85100812 28 2 -0.089036688
6.004096 0.75104213 0.52938396 70 10 -0.089034379
4.5259724 0.56534398 -0.72241443 1 3 -0.089032076
6.0079746 0.74940044 0.74340308 84 11 -0.089029774
6.0140152 0.74908507 -0.74413431 55 4 -0.089027472
5.9963422 0.74688381 0.95706618 76 12 -0.089025162
2.9518919 0.36715436 -0.26024702 89 5 -0.08902286
8.6912975 1.0794818 1.7023981 25 13 -0.089020558
2.9513068 0.36603558 -0.15585649 89 6 -0.089018255
7.3819437 0.91423678 1.7172763 19 14 -0.089015946
2.9390945 0.36400011 -0.051694028 121 7 -0.089013644
6.3633389 0.78696042 1.7180409 18 15 -0.089011341
3.7891281 0.46323314 -1.0228529 12 0 -0.088990606
2.933708 0.35865524 0.051589314 95 8 -0.088988304
4.271111 0.5214026 -0.99338388 7 1 -0.088985994
2.9362061 0.35792053 0.15501912 100 9 -0.088983692
4.353776 0.52994972 -0.85253465 36 2 -0.08898139
6.0027256 0.72959691 0.52903533 70 10 -0.088979088
4.5023303 0.54723245 -0.71834713 2 3 -0.088976778
6.0005732 0.72827554 0.74218434 82 11 -0.088974476
6.0066123 0.72794479 -0.74291557 56 4 -0.088972174
5.9832244 0.72404796 0.9545632 76 12 -0.088969871
2.9491994 0.35637072 -0.25989842 84 5 -0.088967562
8.7104225 1.0525362 1.7054509 10 13 -0.088965259
2.9604356 0.35720423 -0.15627518 87 6 -0.088962957
5.9590259 0.71795416 1.3856986 15 14 -0.088960655
2.9482887 0.35469458 -0.051833645 123 7 -0.088958353
5.9536633 0.71520281 1.6067487 11 15 -0.088956043
3.7983956 0.45091552 -1.0249234 14 0 -0.088946819
2.931031 0.34743011 0.051519506 95 8 -0.088944517
4.2807345 0.50665778 -0.99518347 15 1 -0.088942215
2.9414651 0.34762585 0.15522847 100 9 -0.088939905
4.3536491 0.51451945 -0.852153 37 2 -0.088937603
5.991385 0.70700878 0.52781516 77 10 -0.088935301
4.5082293 0.53119028 -0.71897286 9 3 -0.088932998
5.995316 0.705351 0.74120939 85 11 -0.088930689
6.0112119 0.70615757 -0.74315935 55 4 -0.088928387
6.0015335 0.70395583 0.95706618 72 12 -0.088926084
2.9622986 0.34746575 -0.26094431 86 5 -0.088923782
5.9940743 0.70202041 1.1730938 2 13 -0.088921472
2.9498227 0.34496009 -0.15564716 92 6 -0.08891917
7.3745975 0.86109674 1.7141271 36 14 -0.088916868
2.9495687 0.34388539 -0.051833645 124 7 -0.088914566
5.8948398 0.68622983 1.5901842 13 15 -0.088912256
3.8057039 0.43831599 -1.0264764 9 0 -0.088891521
2.9381859 0.33788142 0.05162422 90 8 -0.088889219
4.2573085 0.48882321 -0.98933476 15 1 -0.088886917
2.9228179 0.3350805 0.15418173 100 9 -0.088884614
4.3359141 0.497082 -0.84833682 28 2 -0.088882305
6.0037141 0.687222 0.52868676 70 10 -0.088880002
4.5257568 0.51724571 -0.72147578 5 3 -0.0888777
5.9918251 0.6837424 0.74047816 84 11 -0.088875398
6.0018058 0.68382025 -0.74169689 48 4 -0.088873088
6.0000281 0.68255699 0.95644045 78 12 -0.088870786
2.9654729 0.33734912 -0.26111859 71 5 -0.088868484
8.7430906 0.9930594 1.710412 2 13 -0.088866182
2.9510088 0.33466038 -0.15564716 92 6 -0.088863872
7.3814311 0.8357895 1.7150269 36 14 -0.08886157
2.9626734 0.33493584 -0.052043077 126 7 -0.088859268
5.8876014 0.66456383 1.5875961 15 15 -0.088856965
3.8052909 0.42481357 -1.0259588 12 0 -0.08883623
2.9453096 0.32828832 0.051728934 85 8 -0.088833921
4.2493048 0.47288266 -0.98708516 8 1 -0.088831618
2.9319105 0.32575735 0.15460044 100 9 -0.088829316
4.3083549 0.47869071 -0.84261262 15 2 -0.088827014
5.9981546 0.66538346 0.52798945 65 10 -0.088824704
4.5334244 0.50209802 -0.72241443 1 3 -0.088822402
5.9902291 0.66238487 0.73999077 80 11 -0.0888201
5.9962635 0.66199571 -0.74072188 48 4 -0.088817798
5.9827394 0.65944582 0.95331174 76 12 -0.088815488
6.0065398 0.6620692 -0.52868676 52 5 -0.088813186
6.0924997 0.67046511 1.1914115 4 13 -0.088810883
2.9521592 0.32435805 -0.15564716 97 6 -0.088808581
7.38624 0.81023234 1.7154768 34 14 -0.088806279
2.9518979 0.32328516 -0.051833645 120 7 -0.088803969
5.8937263 0.6444295 1.5886314 15 15 -0.088801667
3.7971473 0.41049069 -1.0233705 13 0 -0.088780932
2.942461 0.31757531 0.051659122 85 8 -0.08877863
4.2354298 0.45637563 -0.983486 1 1 -0.08877632
2.9330297 0.31552172 0.15460044 100 9 -0.088774018
4.2846236 0.46091992 -0.83765155 3 2 -0.088771716
5.9885554 0.6431638 0.52694362 65 10 -0.088769414
4.5351501 0.48626918 -0.72241443 1 3 -0.088767104
5.9925051 0.64147228 0.73999077 84 11 -0.088764802
5.9945903 0.6406374 -0.74023443 48 4 -0.088762499
5.9751835 0.63750869 0.95174736 75 12 -0.088760197
5.9810777 0.63813758 -0.52624637 48 5 -0.088757895
6.1084685 0.65065104 1.1940827 1 13 -0.088755585
2.9651895 0.31531748 -0.15627518 92 6 -0.088753283
5.9511385 0.63179213 1.3816494 13 14 -0.088750981
2.9450541 0.31213674 -0.051694028 120 7 -0.088748679
5.8767285 0.6218183 1.5834551 15 15 -0.088746369
3.7966354 0.39703354 -1.0228529 13 0 -0.088725634
2.9435518 0.30730289 0.051659122 85 8 -0.088723332
4.2757616 0.44562951 -0.99248403 1 1 -0.088721029
2.942059 0.30610898 0.15501912 100 9 -0.08871872
4.3486924 0.45246336 -0.84986329 1 2 -0.088716418
5.9768915 0.62081343 0.5257234 67 10 -0.088714115
4.5368195 0.47043657 -0.72241443 1 3 -0.088711813
5.992733 0.6203475 0.73974699 85 11 -0.088709511
5.9888921 0.6188907 -0.73925954 53 4 -0.088707201
5.9773722 0.61664879 0.95174736 70 12 -0.088704899
5.9793053 0.61684817 -0.52589774 48 5 -0.088702597
8.7354336 0.89964032 1.7069772 3 13 -0.088700294
2.9662724 0.3049643 -0.15627518 89 6 -0.088697985
7.3994703 0.75944281 1.7172763 39 14 -0.088695683
2.9620399 0.30348584 -0.051973268 120 7 -0.08869338
5.8846288 0.60188901 1.5850078 16 15 -0.088691078
3.7979982 0.38377917 -1.0228529 8 0 -0.088670336
2.9446065 0.29702532 0.051659122 83 8 -0.088668033
4.2152452 0.42445275 -0.97808713 1 1 -0.088665731
2.9530456 0.29683682 0.15554248 70 9 -0.088663429
4.3502455 0.43728176 -0.84986329 1 2 -0.088661127
