# .PCD v0.7 - Point Cloud Data file format
VERSION 0.7
FIELDS x y z intensity ring time
SIZE 4 4 4 4 2 4
TYPE F F F F U F
COUNT 1 1 1 1 1 1
WIDTH 935
HEIGHT 1
VIEWPOINT 0 0 0 1 0 0 0
POINTS 935
DATA ascii
2.6582918 -2.7383583 -0.6044628 28 3 -0.0068708374
3.4243193 -3.5286906 0.60374081 76 11 -0.0068685338
2.6648767 -2.7470598 -0.46992823 34 4 -0.0068662297
3.3719542 -3.4771569 0.76715469 8 12 -0.0068639256
2.6445878 -2.72805 -0.332412 37 5 -0.0068616215
3.0030262 -3.0988824 0.83879644 43 13 -0.0068593174
2.6639931 -2.7499881 -0.20065607 33 6 -0.0068570133
3.0033383 -3.1002874 0.99653322 39 14 -0.0068547097
2.658416 -2.745189 -0.066703096 33 7 -0.0068524056
2.9963923 -3.0952785 1.154333 28 15 -0.0068501015
2.3923125 -2.4781775 -0.92294878 5 0 -0.0068293656
3.2298906 -3.346987 0.081188597 5 8 -0.0068270615
2.6829484 -2.7811871 -0.89215589 1 1 -0.0068247574
3.4216585 -3.5481846 0.25833032 50 9 -0.0068224538
2.6533811 -2.751498 -0.74301028 26 2 -0.0068201497
3.407167 -3.5343921 0.4295035 76 10 -0.0068178456
2.6468666 -2.7466609 -0.60415 37 3 -0.0068155415
3.3934591 -3.5226319 0.60057223 81 11 -0.0068132374
2.6492827 -2.7510891 -0.46895328 57 4 -0.0068109334
3.3523369 -3.4823766 0.76559031 9 12 -0.0068086297
2.6433396 -2.7458768 -0.33345786 35 5 -0.0068063256
2.9826615 -3.0994442 0.83612514 46 13 -0.0068040215
2.6446853 -2.7491949 -0.19992337 36 6 -0.0068017174
2.9730446 -3.0916092 0.99023461 39 14 -0.0067994138
2.6344779 -2.7404981 -0.066354051 37 7 -0.0067971097
2.974319 -3.0950963 1.1501919 28 15 -0.0067948056
2.3863213 -2.4893024 -0.92398405 5 0 -0.0067740697
2.6597433 -2.776463 -0.88765687 1 1 -0.0067694616
3.3595223 -3.5081768 0.25456211 10 9 -0.0067671575
2.6369712 -2.7536535 -0.74110222 27 2 -0.0067648534
3.3824091 -3.5333107 0.42793471 70 10 -0.0067625493
2.6427259 -2.7615919 -0.60540146 40 3 -0.0067602457
3.3742807 -3.5272834 0.59935349 82 11 -0.0067579416
2.6451511 -2.7660587 -0.46992823 57 4 -0.0067556375
3.3210509 -3.4740667 0.7612102 9 12 -0.0067533338
2.6364923 -2.7579672 -0.33380648 37 5 -0.0067510298
2.9650424 -3.1027393 0.83421695 54 13 -0.0067487257
2.6419709 -2.7656305 -0.20044672 42 6 -0.0067464216
2.948776 -3.0878751 0.9857356 40 14 -0.0067441175
2.6055644 -2.7294271 -0.065865383 34 7 -0.0067418134
2.9541612 -3.0956769 1.1465684 31 15 -0.0067395093
2.3682935 -2.4878223 -0.92036057 4 0 -0.0067187734
2.9210916 -3.0695927 0.073963299 9 8 -0.0067164693
2.6661532 -2.8026738 -0.89305568 2 1 -0.0067141657
3.3362451 -3.5083036 0.25372472 10 9 -0.0067118616
2.6259899 -2.7614188 -0.74072057 33 2 -0.0067095575
3.3535819 -3.5277674 0.42584294 80 10 -0.0067072534
2.6480384 -2.7865515 -0.60884303 51 3 -0.0067049498
3.3510103 -3.5275273 0.59740359 82 11 -0.0067026457
2.6450481 -2.7853513 -0.47163439 28 4 -0.0067003416
3.0953822 -3.2607119 0.71208972 8 12 -0.0066980375
2.6295924 -2.7700434 -0.33415511 34 5 -0.0066957334
2.936625 -3.094557 0.82925594 51 13 -0.0066934293
2.6432972 -2.786428 -0.20128411 45 6 -0.0066911257
2.923229 -3.0825951 0.98078656 43 14 -0.0066888216
2.5877666 -2.7297981 -0.065655954 37 7 -0.0066865175
2.922076 -3.0835338 1.1382862 31 15 -0.0066842134
2.3516321 -2.4876509 -0.91725475 4 0 -0.0066634775
2.9460688 -3.1175594 0.074870825 9 8 -0.0066611734
2.6670597 -2.8232961 -0.8966549 1 1 -0.0066588698
3.3280926 -3.5242841 0.25403875 21 9 -0.0066565657
2.6257703 -2.78056 -0.74339187 31 2 -0.0066542616
3.3289382 -3.5264127 0.42427412 96 10 -0.0066519575
2.6450741 -2.8029613 -0.61040735 25 3 -0.0066496534
3.3264167 -3.5262067 0.59520996 87 11 -0.0066473493
2.9227362 -3.1004479 0.67485833 38 12 -0.0066427416
2.9123409 -3.0905013 0.82543975 49 13 -0.0066381334
2.6513581 -2.8145373 -0.20264484 27 6 -0.0066358298
2.9057715 -3.0856867 0.97853714 40 14 -0.0066335257
2.5672569 -2.7271664 -0.065376714 40 7 -0.0066312216
2.8967316 -3.0782394 1.1325922 31 15 -0.0066289175
2.3367579 -2.4883943 -0.91466653 5 0 -0.0066101551
2.9452946 -3.1375172 0.075115159 1 8 -0.006607851
2.653682 -2.8278618 -0.89530522 5 1 -0.0066055469
3.1797421 -3.3896358 0.24357156 1 9 -0.0066032433
2.6219082 -2.7949796 -0.74491841 7 2 -0.0066009392
3.3117747 -3.5316193 0.42357689 100 10 -0.0065986351
2.6060433 -2.7800117 -0.60352427 1 3 -0.006596331
3.2957022 -3.5169399 0.59179759 84 11 -0.0065940269
2.9070382 -3.1043553 0.67360687 42 12 -0.0065894192
2.8913431 -3.0886757 0.82238686 48 13 -0.006584811
2.8875351 -3.0867667 0.97583771 42 14 -0.0065802033
2.5527358 -2.7298222 -0.065237097 38 7 -0.0065778992
2.8746347 -3.0751274 1.1279335 31 15 -0.0065755951
2.33201 -2.5007744 -0.91621947 4 0 -0.0065548592
2.9343247 -3.1477792 0.075115159 1 8 -0.0065525551
2.6398091 -2.8328304 -0.89395547 3 1 -0.006550251
3.2836063 -3.524935 0.25246868 17 9 -0.0065479469
3.2885647 -3.5314934 0.42218241 100 10 -0.0065433392
3.2671781 -3.5109835 0.58887273 84 11 -0.006538731
2.8840775 -3.101465 0.67079103 37 12 -0.0065341233
2.8725238 -3.090122 0.82009715 43 13 -0.0065295151
2.8581743 -3.0768387 0.96953911 47 14 -0.006524907
2.5350268 -2.7299242 -0.065027662 38 7 -0.0065226033
2.8546829 -3.0752318 1.12431 31 15 -0.0065202992
2.3206413 -2.5060647 -0.9151842 4 0 -0.0064995629
2.8757744 -3.1066411 0.073893487 10 8 -0.0064972593
2.7013767 -2.9192646 -0.9182502 1 1 -0.0064949552
3.2610469 -3.5240767 0.25163129 42 9 -0.0064926511
3.2586322 -3.5239344 0.41991636 100 10 -0.0064880429
3.229305 -3.4946656 0.58424169 76 11 -0.0064834352
2.8952224 -3.1342282 0.67579699 33 12 -0.006478827
2.8563936 -3.0943599 0.81857067 43 13 -0.0064742193
2.8373828 -3.0748425 0.96593982 47 14 -0.0064696111
2.5110459 -2.7221475 -0.064643718 25 7 -0.006467307
2.8392308 -3.0790009 1.1222395 29 15 -0.0064650029
2.3031628 -2.5037937 -0.91156071 4 0 -0.006444267
2.8911743 -3.1441281 0.074556686 9 8 -0.0064419629
3.2182548 -3.5010521 0.24922384 34 9 -0.0064373552
3.1296668 -3.4070661 0.40475124 35 10 -0.006432747
2.5505569 -2.7775989 -0.59726685 1 3 -0.0064304429
3.063324 -3.3371801 0.55621171 36 11 -0.0064281393
1.5960965 -1.7387849 -0.28980532 1 4 -0.0064258352
3.0010073 -3.270438 0.70301658 48 12 -0.0064235311
2.8355012 -3.0922389 0.81551766 46 13 -0.0064189229
2.8192699 -3.0756152 0.96324039 48 14 -0.0064143152
2.8081269 -3.0656066 1.1139573 31 15 -0.006409707
2.2948475 -2.5114174 -0.91156071 4 0 -0.0063889711
2.8874748 -3.1610801 0.074731201 35 8 -0.006386667
3.0592461 -3.3514764 0.23781461 22 9 -0.0063820593
3.0404599 -3.3320637 0.39464122 35 10 -0.0063774511
2.5413322 -2.7860417 -0.59726685 1 3 -0.006375147
3.0455532 -3.3399858 0.55499303 40 11 -0.0063728429
3.0254953 -3.3203166 0.71146405 49 12 -0.0063682352
1.6143435 -1.7716542 -0.20969671 1 5 -0.0063659311
2.8027565 -3.0769508 0.80903018 54 13 -0.006363627
2.8032699 -3.0796733 0.9614408 47 14 -0.0063590193
2.7883093 -3.0653863 1.1103338 26 15 -0.0063544111
2.2886634 -2.522274 -0.91259599 4 0 -0.0063336752
2.8858278 -3.1815081 0.074975535 68 8 -0.0063313711
3.0448458 -3.359175 0.23760527 39 9 -0.006326763
3.0194459 -3.3323216 0.39342102 60 10 -0.0063221552
3.0232167 -3.338825 0.55304313 48 11 -0.0063175471
3.0138869 -3.330857 0.71146405 52 12 -0.0063129393
2.776195 -3.0692437 0.80445075 54 13 -0.0063083312
2.7833557 -3.07932 0.95829147 52 14 -0.006303723
1.6007352 -1.7715684 -0.041676346 1 7 -0.0063014189
2.7659376 -3.0621982 1.105675 29 15 -0.0062991153
2.279845 -2.5302477 -0.91259599 4 0 -0.0062783789
2.8800578 -3.1975055 0.075115159 47 8 -0.0062760753
3.0290935 -3.36533 0.23729126 40 9 -0.0062714671
3.0157909 -3.3517272 0.39446688 52 10 -0.0062668589
3.000926 -3.3375483 0.55109322 58 11 -0.0062622512
3.0075231 -3.347235 0.71271551 57 12 -0.006257643
1.6016247 -1.7831607 -0.20969671 1 5 -0.0062553389
2.7589052 -3.0716128 0.80254269 51 13 -0.0062530353
2.7543662 -3.0687139 0.95199287 42 14 -0.0062484271
2.7526517 -3.068958 1.1046398 28 15 -0.0062438189
2.2679801 -2.5357068 -0.91156071 4 0 -0.006223083
2.8608801 -3.1985967 0.074905731 32 8 -0.0062207789
3.0120034 -3.369926 0.23687255 56 9 -0.0062161712
2.5232515 -2.8240864 -0.73614115 1 2 -0.0062138671
3.0021589 -3.3612726 0.39429256 69 10 -0.006211563
2.9932237 -3.3524454 0.55182445 61 11 -0.0062069553
1.5716637 -1.7609005 -0.28980532 1 4 -0.0062046512
2.9958205 -3.3577127 0.71271551 57 12 -0.0062023471
1.5953906 -1.7887406 -0.20969671 1 5 -0.006200043
2.7410958 -3.0743768 0.80063456 37 13 -0.0061977389
1.5561392 -1.7459586 -0.12257081 1 6 -0.0061954353
2.7301369 -3.0642383 0.94749385 26 14 -0.0061931312
1.540439 -1.7289509 -0.040419776 1 7 -0.0061908271
2.7329285 -3.0684493 1.1010163 31 15 -0.006188523
2.2616806 -2.5464969 -0.91259599 4 0 -0.0061677871
2.8252399 -3.1821442 0.074277438 16 8 -0.006165483
2.9864416 -3.3672597 0.39376962 84 10 -0.0061562671
2.9901323 -3.3737929 0.55353063 70 11 -0.0061516589
2.9730165 -3.3568401 0.71021259 57 12 -0.0061470512
1.5891371 -1.7942986 -0.20969671 1 5 -0.0061447471
2.7212377 -3.0736372 0.79796326 18 13 -0.006142443
1.5487115 -1.7498842 -0.12246615 1 6 -0.006140139
2.7026374 -3.0547757 0.94164515 30 14 -0.0061378349
1.5155449 -1.7136145 -0.039931107 1 7 -0.0061355312
2.6999109 -3.0538414 1.0922165 33 15 -0.0061332271
2.245111 -2.5456829 -0.90949017 4 0 -0.0061124912
2.7532833 -3.1229868 0.072671816 12 8 -0.0061101872
2.9666877 -3.3674152 0.23519783 11 9 -0.006105579
2.9746697 -3.3776636 0.39376962 78 10 -0.0061009713
2.9796491 -3.3856997 0.55377436 69 11 -0.0060963631
2.9612808 -3.3671975 0.71021259 63 12 -0.0060917549
1.5828642 -1.7998348 -0.20969671 1 5 -0.0060894513
2.6936405 -3.0639493 0.79300219 40 13 -0.0060871472
1.6085166 -1.8302914 -0.12769975 1 6 -0.0060848431
2.6880994 -3.0597992 0.94029546 30 14 -0.006082539
1.4884413 -1.6948537 -0.039372627 1 7 -0.0060802354
2.6777635 -3.0501809 1.0875577 33 15 -0.0060779313
2.2260294 -2.5418775 -0.90534908 4 0 -0.0060571954
2.7805636 -3.1762123 0.073684059 18 8 -0.0060548913
2.9726036 -3.3967731 0.23655853 16 9 -0.0060502831
2.969419 -3.3955257 0.39464122 76 10 -0.0060456749
2.9547501 -3.3811324 0.55133694 72 11 -0.0060410672
2.9578955 -3.3859246 0.71208972 70 12 -0.006036459
1.5293926 -1.7513236 -0.2034215 1 5 -0.0060341549
2.6661451 -3.054106 0.78804117 37 13 -0.0060318513
2.6722779 -3.0632894 0.93849587 34 14 -0.0060272431
1.514362 -1.7359456 -0.040210344 1 7 -0.006024939
2.6676342 -3.0590441 1.0875577 33 15 -0.0060226349
2.2272844 -2.5612943 -0.90949017 4 0 -0.006001899
2.7687037 -3.1839063 0.073649161 18 8 -0.0059995949
2.9581082 -3.4041138 0.23634921 76 9 -0.0059949872
2.9601612 -3.408879 0.39498982 82 10 -0.005990379
2.9435215 -3.3909121 0.55133694 72 11 -0.0059857713
2.9486477 -3.3992138 0.71271551 70 12 -0.0059811631
1.536323 -1.7717042 -0.20516461 1 5 -0.005978859
2.6547163 -3.0614476 0.78765959 33 13 -0.0059765549
2.6404097 -3.0470977 0.93084741 32 14 -0.0059719472
1.4978189 -1.7291296 -0.039931107 1 7 -0.0059696431
2.6442938 -3.0537329 1.0823812 33 15 -0.005967339
2.2162528 -2.5657425 -0.9084549 5 0 -0.0059466031
2.7510381 -3.1859837 0.073474631 18 8 -0.005944299
2.9331598 -3.3992977 0.23530249 68 9 -0.0059396913
2.4740806 -2.8672614 -0.73614115 1 2 -0.0059373872
2.9475393 -3.4171677 0.3948155 84 10 -0.0059350831
2.9368513 -3.4071805 0.5523119 72 11 -0.005930475
1.5406923 -1.7880616 -0.28980532 1 4 -0.0059281709
2.9290292 -3.4005053 0.71083826 78 12 -0.0059258672
1.4992324 -1.7405589 -0.20098113 1 5 -0.0059235631
2.6350462 -3.0602813 0.78498828 31 13 -0.0059212591
2.6234026 -3.0489101 0.92859799 35 14 -0.0059166513
1.4526541 -1.6888661 -0.038883962 1 7 -0.0059143472
2.6210234 -3.0482965 1.0772049 33 15 -0.0059120432
2.2085409 -2.5749292 -0.9089725 4 0 -0.0058913073
2.7359951 -3.1910129 0.073369913 18 8 -0.0058890032
2.4006836 -2.8009255 -0.85166472 1 1 -0.0058866991
2.9199769 -3.407999 0.23519783 78 9 -0.005884395
2.9252248 -3.4153302 0.39342102 84 10 -0.0058797873
2.9249399 -3.4174116 0.5523119 72 11 -0.0058751791
1.5344415 -1.7934287 -0.28980532 1 4 -0.005872875
2.9145734 -3.4077067 0.71021259 78 12 -0.0058705714
1.5035076 -1.7578946 -0.20237562 1 5 -0.0058682673
2.6141412 -3.0575228 0.78193527 33 13 -0.0058659632
1.5182459 -1.7763816 -0.12246615 1 6 -0.0058636591
2.6026168 -3.0461957 0.9249987 34 14 -0.005861355
1.4389578 -1.6848031 -0.038674533 1 7 -0.0058590509
2.5940599 -3.0383272 1.0704756 31 15 -0.0058567473
2.1982868 -2.5811522 -0.9084549 5 0 -0.0058360109
2.7118766 -3.185318 0.073020868 12 8 -0.0058337073
2.9345489 -3.4480829 0.23729126 100 9 -0.0058290991
2.9107034 -3.4224846 0.3930724 84 10 -0.0058244909
2.9181356 -3.4336512 0.55328691 72 11 -0.0058198832
1.5281719 -1.7987738 -0.28980532 1 4 -0.0058175791
2.9083726 -3.4233744 0.71146405 67 12 -0.005815275
1.4664091 -1.7266852 -0.19819216 1 5 -0.0058129709
2.5932879 -3.0546565 0.77888238 31 13 -0.0058106673
1.447419 -1.7055306 -0.11723255 1 6 -0.0058083632
2.5881858 -3.0508041 0.92364907 32 14 -0.0058060591
1.4359502 -1.6926153 -0.038744342 1 7 -0.005803755
2.5777225 -3.0395463 1.0678874 33 15 -0.0058014509
2.1880157 -2.5873346 -0.90793723 4 0 -0.005780715
2.6896775 -3.1805511 0.072706729 19 8 -0.0057784109
2.9147596 -3.4491522 0.23666322 89 9 -0.0057738032
1.5570643 -1.843189 -0.46900854 1 2 -0.0057714991
2.9064517 -3.4417574 0.39411828 75 10 -0.005769195
1.543414 -1.8276775 -0.37888432 1 3 -0.0057668909
2.9003308 -3.435725 0.55206817 64 11 -0.0057645869
2.8989522 -3.4365256 0.71208972 70 12 -0.0057599791
2.5679564 -3.0452287 0.7743029 31 13 -0.0057553709
2.5680087 -3.0474484 0.92004979 34 14 -0.0057507632
1.4738359 -1.7496165 -0.039931107 1 7 -0.0057484591
2.5596309 -3.039659 1.0647817 33 15 -0.005746155
2.1806667 -2.5960555 -0.9084549 4 0 -0.0057254191
2.6772733 -3.1883888 0.072671816 24 8 -0.0057231151
2.3366337 -2.7837045 -0.83906746 1 1 -0.005720811
2.8962831 -3.4516556 0.23613985 79 9 -0.0057185069
1.5509435 -1.8483424 -0.46900854 1 2 -0.0057162032
2.9001441 -3.4574826 0.3948155 78 10 -0.0057138992
2.8857694 -3.4427853 0.55158067 84 11 -0.005709291
2.8958182 -3.4572241 0.71427983 96 12 -0.0057046833
2.5484886 -3.0436373 0.7716316 33 13 -0.0057000751
1.4357764 -1.7153434 -0.11723255 1 6 -0.005697771
2.5448499 -3.0414481 0.91555077 32 14 -0.0056954669
1.4420601 -1.7240731 -0.03923301 1 7 -0.0056931633
2.5403306 -3.0382011 1.0611582 29 15 -0.0056908592
2.172374 -2.6055143 -0.9089725 4 0 -0.0056701233
2.6635661 -3.1946433 0.072602011 19 8 -0.0056678192
2.354351 -2.8247771 -0.84896529 1 1 -0.0056655151
2.8586473 -3.4310555 0.23404641 50 9 -0.005663211
1.5114913 -1.814792 -0.45908648 1 2 -0.0056609074
2.8951015 -3.4772761 0.39586139 99 10 -0.0056586033
2.8864326 -3.4680951 0.55401808 90 11 -0.0056539951
2.8812065 -3.4642739 0.7136541 86 12 -0.0056493869
1.4406047 -1.7327538 -0.19714628 1 5 -0.0056470833
2.5385704 -3.0544674 0.77201319 31 13 -0.0056447792
1.4550062 -1.7513192 -0.119326 1 6 -0.0056424751
2.5174997 -3.031266 0.90970206 35 14 -0.005640171
1.4334782 -1.7260196 -0.039163202 1 7 -0.0056378669
2.5235395 -3.039618 1.0585699 31 15 -0.0056355633
2.1571062 -2.6056409 -0.90638429 4 0 -0.0056148274
2.6480145 -3.1997628 0.072497301 18 8 -0.0056125233
2.3402555 -2.8288825 -0.84761554 10 1 -0.0056102192
2.7906375 -3.3733006 0.22944085 45 9 -0.0056079151
1.5376774 -1.8593932 -0.46900854 1 2 -0.005605611
2.8702512 -3.4720044 0.39411828 90 10 -0.0056033069
2.8597953 -3.4618163 0.55133694 96 11 -0.0055986992
1.5029081 -1.8199353 -0.28980532 1 4 -0.0055963951
2.8464553 -3.4468937 0.70802242 83 12 -0.005594091
1.4370843 -1.7408451 -0.19749491 1 5 -0.0055917869
2.5216455 -3.0557389 0.77010518 33 13 -0.0055894833
1.4438002 -1.7502246 -0.1189073 1 6 -0.0055871792
2.4982245 -3.029511 0.90655273 39 14 -0.0055848751
1.4045442 -1.7032427 -0.038534917 1 7 -0.005582571
2.4957108 -3.027539 1.0513231 31 15 -0.0055802669
2.1590383 -2.6265862 -0.91104311 4 0 -0.005559531
2.6145327 -3.1807199 0.071869008 13 8 -0.0055572269
2.325913 -2.8306053 -0.84581596 29 1 -0.0055549229
2.802932 -3.4123454 0.23142964 50 9 -0.0055526192
2.3086021 -2.8115385 -0.70713818 1 2 -0.0055503151
2.8429451 -3.4635222 0.39202651 84 10 -0.005548011
1.4676131 -1.7879736 -0.36636955 1 3 -0.005545707
2.8344488 -3.4544001 0.54865587 63 11 -0.0055434033
1.4716862 -1.7942123 -0.28493056 1 4 -0.0055410992
2.8293962 -3.4506981 0.70677096 86 12 -0.0055387951
1.4208946 -1.7335235 -0.19610041 1 5 -0.0055364911
2.4978082 -3.0473824 0.76590741 33 13 -0.005534187
1.4379884 -1.7550027 -0.1189073 1 6 -0.0055318829
2.4893992 -3.0392864 0.90700263 35 14 -0.0055295792
1.4061912 -1.7174182 -0.038744342 2 7 -0.0055272751
2.4777856 -3.0272629 1.0482172 33 15 -0.0055249711
2.1515379 -2.6352282 -0.91156071 5 0 -0.0055042352
2.5857124 -3.1681378 0.07138034 13 8 -0.0055019311
2.3049309 -2.8251173 -0.84176683 28 1 -0.005499627
2.8478079 -3.4917576 0.23613985 81 9 -0.0054973233
2.2880986 -2.805486 -0.70370364 5 2 -0.0054950193
2.827667 -3.468298 0.39150357 80 10 -0.0054927152
1.4713467 -1.8053355 -0.36887249 1 3 -0.0054904111
2.803566 -3.4411883 0.54499972 45 11 -0.005488107
1.4403431 -1.7685546 -0.28005576 1 4 -0.0054858029
2.8011208 -3.4406388 0.70270365 82 12 -0.0054834993
1.4101069 -1.7320454 -0.19540317 1 5 -0.0054811952
2.4735236 -3.0393324 0.76170951 26 13 -0.0054788911
1.4116864 -1.7352227 -0.11723255 1 6 -0.005476587
2.4677093 -3.0343509 0.90295357 39 14 -0.0054742834
1.4001877 -1.7223163 -0.038744342 4 7 -0.0054719793
2.4586751 -3.025399 1.0445937 33 15 -0.0054696752
2.1447594 -2.6457236 -0.91259599 5 0 -0.0054489393
2.3593502 -2.9114761 0.06541162 1 8 -0.0054466352
2.2840154 -2.8195176 -0.83771771 29 1 -0.0054443311
2.8154914 -3.4768426 0.23446509 78 9 -0.005442027
2.8092756 -3.4704046 0.39063203 84 10 -0.0054374188
1.4352133 -1.7736063 -0.36136368 1 3 -0.0054351152
2.7877915 -3.4463236 0.54426849 58 11 -0.0054328111
1.4067011 -1.7396128 -0.27469352 1 4 -0.005430507
2.7816424 -3.4411781 0.70082647 78 12 -0.0054282034
1.3990421 -1.7307591 -0.19470593 1 5 -0.0054258993
2.4616659 -3.0464215 0.76132792 28 13 -0.0054235952
1.3980908 -1.7308177 -0.11660452 1 6 -0.0054212911
2.4460843 -3.0293005 0.89890444 34 14 -0.005418987
1.4004474 -1.7349735 -0.038918864 3 7 -0.0054166829
2.4432468 -3.0279491 1.0425231 35 15 -0.0054143788
2.1379337 -2.6562037 -0.91363126 5 0 -0.0053936429
2.5509961 -3.1705322 0.071031295 15 8 -0.0053913388
2.2704954 -2.8229177 -0.83636802 30 1 -0.0053890352
2.7870686 -3.4664142 0.23310436 76 9 -0.0053867311
2.7884073 -3.4693186 0.38941187 89 10 -0.0053821229
1.4215901 -1.7693659 -0.35948643 1 3 -0.0053798193
2.7720153 -3.4513907 0.54353732 54 11 -0.0053775152
1.4080765 -1.7537998 -0.27615595 1 4 -0.0053752111
2.7498307 -3.426218 0.69582063 77 12 -0.005372907
1.4029688 -1.7480627 -0.19610041 1 5 -0.0053706029
2.4461024 -3.0488703 0.75980145 28 13 -0.0053682989
1.382044 -1.7232229 -0.11576715 2 6 -0.0053659952
2.4269619 -3.0271776 0.89575505 36 14 -0.0053636911
1.3743737 -1.714885 -0.038360391 5 7 -0.005361387
2.4278309 -3.0304284 1.0404526 35 15 -0.0053590829
2.1214125 -2.6545954 -0.91052544 5 0 -0.0053383471
2.2965312 -2.8747559 0.064224854 4 8 -0.005336043
2.7687213 -3.468317 0.23258102 78 9 -0.0053314352
2.7613671 -3.4603434 0.38732013 85 10 -0.0053268271
1.4301876 -1.792848 -0.36324087 1 3 -0.005324523
2.7512875 -3.4501817 0.54183114 48 11 -0.0053222189
1.4093704 -1.7680179 -0.27761838 1 4 -0.0053199152
2.7267749 -3.4218922 0.69300479 74 12 -0.0053176112
1.3844419 -1.7373676 -0.19435729 1 5 -0.0053153071
2.4281058 -3.0481765 0.75751179 30 13 -0.005313003
1.3859736 -1.7405359 -0.11660452 3 6 -0.0053106993
2.4030302 -3.0188596 0.8908062 34 14 -0.0053083953
1.3658888 -1.7165425 -0.038290579 11 7 -0.0053060912
2.4016042 -3.0192301 1.0337234 34 15 -0.0053037871
2.1025271 -2.6498775 -0.90638429 5 0 -0.0052978988
2.2529306 -2.8404534 0.063282423 9 8 -0.0052955947
2.7503948 -3.4701343 0.23205765 76 9 -0.005290987
2.7356608 -3.4527831 0.38540271 84 10 -0.0052863788
1.416562 -1.7885383 -0.36136368 1 3 -0.0052840747
2.7108862 -3.4239686 0.53622514 22 11 -0.0052817706
1.3834791 -1.7480218 -0.27371857 1 4 -0.005279467
2.7197165 -3.4375861 0.69425625 82 12 -0.0052771629
1.3746604 -1.7375023 -0.19383438 2 5 -0.0052748588
2.4040542 -3.039695 0.75331396 27 13 -0.0052725547
1.36998 -1.7328292 -0.11576715 2 6 -0.0052702506
2.3888528 -3.0226424 0.88945645 36 14 -0.005267947
1.3710455 -1.7354217 -0.038604725 6 7 -0.0052656429
2.3754852 -3.0078857 1.026994 32 15 -0.0052633388
2.0920691 -2.6556833 -0.90586674 5 0 -0.0052426029
2.2331045 -2.835732 0.06300319 11 8 -0.0052402988
2.725914 -3.4640183 0.23101093 73 9 -0.0052356906
2.717433 -3.4544814 0.38453114 85 10 -0.0052310829
1.4005417 -1.7810501 -0.3588607 1 3 -0.0052287788
2.6952376 -3.4287283 0.53549391 31 11 -0.0052264747
1.3969932 -1.777814 -0.27761838 1 4 -0.0052241706
2.6906173 -3.4253109 0.68987608 74 12 -0.005221867
1.3710485 -1.7454237 -0.19418299 2 5 -0.0052195629
2.3825169 -3.0341716 0.74987942 28 13 -0.0052172588
1.3811877 -1.7595958 -0.11723255 1 6 -0.0052149547
2.3722725 -3.0232971 0.88720697 34 14 -0.0052126506
1.3538719 -1.7260363 -0.038290579 6 7 -0.005210347
2.3637793 -3.0146394 1.0264764 34 15 -0.0052080429
2.0899274 -2.6720998 -0.9089725 4 0 -0.0051873066
2.2182655 -2.8372085 0.062863566 13 8 -0.0051850029
2.7015092 -3.4577737 0.22996421 64 9 -0.0051803947
2.6955471 -3.4513843 0.38313666 89 10 -0.0051757866
1.3967474 -1.789042 -0.35948643 1 3 -0.0051734829
2.6820314 -3.4365509 0.53525019 82 11 -0.0051711788
1.3834525 -1.7732887 -0.27615595 1 4 -0.0051688747
2.6835034 -3.4409125 0.69112754 85 12 -0.0051665707
1.3759748 -1.7643387 -0.19575179 1 5 -0.0051642666
2.3767395 -3.0486629 0.75140589 28 13 -0.0051619629
1.3603046 -1.745502 -0.11597649 2 6 -0.0051596588
2.3461359 -3.0115743 0.88135827 36 14 -0.0051573548
1.3539819 -1.7386401 -0.038465101 6 7 -0.0051550507
2.348495 -3.0167747 1.0244058 34 15 -0.0051527466
2.0722933 -2.6686978 -0.90534908 4 0 -0.0051320107
2.1973126 -2.8307176 0.062549427 11 8 -0.0051297066
2.6747336 -3.4482453 0.22870816 64 9 -0.0051250989
2.6785994 -3.4544742 0.38243937 85 10 -0.0051204907
1.4050162 -1.8126417 -0.36324087 1 3 -0.0051181866
2.6651559 -3.4396152 0.53427523 87 11 -0.005115883
1.3772541 -1.778107 -0.27615595 1 4 -0.0051135789
2.6484978 -3.4205825 0.68518305 77 12 -0.0051112748
1.3649285 -1.7628297 -0.19505455 1 5 -0.0051089707
2.3588731 -3.0476253 0.74911612 23 13 -0.0051066666
1.3566477 -1.7533989 -0.11618583 3 6 -0.005104363
2.3272631 -3.0089555 0.87820894 33 14 -0.0051020589
1.3405659 -1.7338641 -0.038255677 6 7 -0.0050997548
2.3355875 -3.0218968 1.0233705 35 15 -0.0050974507
2.1935215 -2.8462896 0.06272395 12 8 -0.0050744107
2.6507246 -3.4432793 0.38017333 84 10 -0.0050651948
1.4589163 -1.8958098 -0.37888432 1 3 -0.0050628907
2.6398187 -3.4315901 0.5315941 76 11 -0.0050605866
1.3519844 -1.7574903 -0.27225614 1 4 -0.005058283
2.627507 -3.4168193 0.68268013 78 12 -0.0050559789
1.3648382 -1.7754815 -0.19592611 2 5 -0.0050536748
2.3458281 -3.0527275 0.74835294 24 13 -0.0050513707
1.3371356 -1.740701 -0.11503445 3 6 -0.0050490666
2.3172724 -3.0166564 0.87820894 33 14 -0.005046763
1.3275014 -1.7287838 -0.038046245 6 7 -0.0050444589
2.3079093 -3.006639 1.015606 32 15 -0.0050421548
1.5455517 -2.0185752 -0.68121177 1 0 -0.0050214189
2.1621935 -2.824965 0.062095661 8 8 -0.0050191148
1.5903244 -2.0785537 -0.60421854 1 1 -0.0050168107
2.4988861 -3.2660439 0.21551949 9 9 -0.0050145066
1.43721 -1.879113 -0.45984969 1 2 -0.005012203
2.6247706 -3.4330571 0.37808162 78 10 -0.0050098989
1.4526215 -1.9006374 -0.37888432 1 3 -0.0050075948
2.6296299 -3.4419024 0.53183788 72 11 -0.0050052907
1.3485591 -1.7651187 -0.27274361 1 4 -0.0050029866
2.610167 -3.4176638 0.68111575 79 12 -0.0050006825
1.3516889 -1.7704958 -0.19488023 2 5 -0.0049983789
2.321399 -3.0417614 0.74377352 31 13 -0.0049960748
1.3362014 -1.7514771 -0.11545313 5 6 -0.0049937707
2.2954361 -3.0088305 0.87370992 33 14 -0.0049914666
1.3302497 -1.7443068 -0.038290579 6 7 -0.004989163
2.2908986 -3.0050578 1.0125002 32 15 -0.0049868589
1.524817 -2.0052361 -0.67500007 1 0 -0.0049661226
2.1697557 -2.8544071 0.062584333 8 8 -0.0049638189
2.4669325 -3.247709 0.21374007 10 9 -0.0049592108
1.4202831 -1.8697982 -0.45641515 3 2 -0.0049569067
2.6085525 -3.4353952 0.37738436 78 10 -0.0049546026
1.4463108 -1.905444 -0.37888432 1 3 -0.0049522989
2.5894039 -3.4126499 0.5259881 39 11 -0.0049499949
1.3471879 -1.7761418 -0.27371857 1 4 -0.0049476908
2.5898671 -3.4157357 0.67892563 78 12 -0.0049453867
1.3346691 -1.760913 -0.19331144 3 5 -0.0049430826
2.3006263 -3.0353611 0.74033892 31 13 -0.0049407789
1.3303859 -1.7558985 -0.11545313 3 6 -0.0049384749
2.2825661 -3.0137181 0.87281007 33 14 -0.0049361708
1.3265669 -1.7521282 -0.038360391 6 7 -0.0049338667
2.2710686 -3.0007126 1.0083591 32 15 -0.0049315626
1.5174572 -2.0108113 -0.67500007 1 0 -0.0049108267
2.1983247 -2.9130418 0.063701279 1 8 -0.0049085226
1.5057236 -1.9959874 -0.57722443 1 1 -0.004906219
2.4014671 -3.1845407 0.20902982 1 9 -0.0049039149
1.4807826 -1.9643513 -0.47816736 1 2 -0.0049016108
2.5851517 -3.4306123 0.37581557 80 10 -0.0048993067
1.4393172 -1.9107322 -0.37888432 1 3 -0.0048970026
2.5404499 -3.3725152 0.5184322 19 11 -0.004894699
1.3553091 -1.7998627 -0.27664346 1 4 -0.0048923949
2.5719883 -3.4168644 0.67736137 79 12 -0.0048900908
1.3345039 -1.7735212 -0.19418299 2 5 -0.0048877867
2.2835851 -3.0359282 0.73843086 30 13 -0.0048854826
1.3263421 -1.7639554 -0.11566247 4 6 -0.004883179
2.2597961 -3.0064859 0.86831105 33 14 -0.0048808749
1.3264502 -1.7647407 -0.038534917 6 7 -0.0048785708
2.2536175 -2.9993553 1.0052532 32 15 -0.0048762667
1.4872628 -1.9851744 -0.66464734 3 0 -0.0048555308
2.1900308 -2.9242806 0.063771099 1 8 -0.0048532267
1.4820473 -1.9796525 -0.57092577 3 1 -0.0048509226
2.3580182 -3.1497352 0.2062037 16 9 -0.004848619
1.5045005 -2.0103757 -0.48808944 1 2 -0.0048463149
2.5707741 -3.4364243 0.37546691 80 10 -0.0048440108
1.4326389 -1.9157448 -0.37888432 1 3 -0.0048417067
2.4947925 -3.3372855 0.51160759 13 11 -0.0048394026
1.339197 -1.7920971 -0.27469352 1 4 -0.004837099
2.5458558 -3.4068329 0.67360687 79 12 -0.0048347949
1.3402287 -1.7941307 -0.19592611 2 5 -0.0048324908
2.2647512 -3.0328696 0.7357595 31 13 -0.0048301867
1.3285398 -1.7797784 -0.11639518 3 6 -0.0048278826
2.2387989 -3.0002995 0.86426198 36 14 -0.004825579
1.3190862 -1.7677574 -0.038500007 7 7 -0.0048232749
2.240824 -3.0041065 1.0042179 30 15 -0.0048209708
1.494159 -2.0089552 -0.67085898 2 0 -0.0048002349
2.1731608 -2.9218996 0.063561663 11 8 -0.0047979308
1.4801253 -1.9908118 -0.57272536 1 1 -0.0047956267
2.3446264 -3.1547408 0.20599434 34 9 -0.0047933226
1.5138655 -2.0376785 -0.4934321 1 2 -0.0047910186
2.5492599 -3.4325809 0.37407246 85 10 -0.0047887149
1.4027227 -1.8887676 -0.37262696 1 3 -0.0047864108
2.4884448 -3.3519158 0.51258254 27 11 -0.0047841067
1.3403448 -1.8060924 -0.27615595 1 4 -0.0047818027
2.5198245 -3.3966608 0.66985244 79 12 -0.004779499
1.3292105 -1.7923963 -0.19522884 3 5 -0.0047771949
2.2500036 -3.0340552 0.73423308 31 13 -0.0047748908
1.3238198 -1.7857784 -0.11649985 4 6 -0.0047725867
2.2241962 -3.0014441 0.86246234 36 14 -0.0047702827
1.3021948 -1.7578893 -0.038185868 8 7 -0.0047679786
2.2165282 -2.9932799 0.99800628 30 15 -0.0047656749
1.4943756 -2.0232224 -0.6739648 1 0 -0.0047449386
2.2009575 -2.9809463 0.064678617 1 8 -0.0047426349
1.4963119 -2.0273247 -0.58172345 1 1 -0.0047403309
2.3288569 -3.1564772 0.20557566 34 9 -0.0047380268
2.5284019 -3.4281876 0.37267792 85 10 -0.0047334186
1.3914322 -1.8872927 -0.37137547 1 3 -0.004731115
2.4708407 -3.3525918 0.5113638 43 11 -0.0047288109
1.3340321 -1.8107601 -0.27615595 1 4 -0.0047265068
2.5032675 -3.3990738 0.66860098 83 12 -0.0047242027
1.3079003 -1.7759386 -0.1929628 2 5 -0.0047218986
2.2300875 -3.0292425 0.73118013 31 13 -0.004719595
1.3152106 -1.7871714 -0.11629051 4 6 -0.0047172909
2.2090867 -3.0029109 0.86066276 36 14 -0.0047149868
1.2984201 -1.7656462 -0.038255677 8 7 -0.0047126827
2.1946237 -2.9854333 0.99282992 32 15 -0.0047103786
1.5010118 -2.0471218 -0.68017644 1 0 -0.0046896427
2.1905384 -2.988611 0.064678617 1 8 -0.0046873386
1.546814 -2.1111333 -0.60421854 1 1 -0.004685035
2.3166444 -3.1629755 0.20547098 33 9 -0.0046827309
1.5417228 -2.1049545 -0.50717038 1 2 -0.0046804268
2.507004 -3.4241321 0.37128347 89 10 -0.0046781227
1.3848358 -1.8921381 -0.37137547 1 3 -0.0046758186
2.456779 -3.3579917 0.51087636 9 11 -0.004673515
1.3277032 -1.8154056 -0.27615595 1 4 -0.0046712109
2.4843922 -3.3982232 0.66672373 79 12 -0.0046689068
1.3169794 -1.8014023 -0.19522884 2 5 -0.0046666027
2.2067575 -3.0195727 0.7269823 34 13 -0.0046642986
1.2995387 -1.7788495 -0.11545313 4 6 -0.004661995
2.1962926 -3.0074561 0.85976297 36 14 -0.0046596909
1.3028603 -1.7847037 -0.038569819 6 7 -0.0046573868
2.1819117 -2.9899547 0.99179465 32 15 -0.0046550827
2.2059762 -3.0318127 0.065446526 1 8 -0.0046320427
1.985333 -2.7295697 -0.77923048 27 1 -0.0046297386
2.2844481 -3.1419659 0.20358689 3 9 -0.0046274345
2.4950361 -3.4328625 0.37128347 96 10 -0.0046228268
1.3782226 -1.8969607 -0.37137547 1 3 -0.0046205227
2.4252114 -3.339242 0.50673276 10 11 -0.0046182186
1.314361 -1.8103911 -0.27469352 1 4 -0.004615915
2.4655535 -3.3972824 0.66484654 86 12 -0.0046136109
1.3115383 -1.8078301 -0.19540317 2 5 -0.0046113068
2.1915927 -3.0209007 0.72545588 35 13 -0.0046090027
1.2980115 -1.7898421 -0.11587181 4 6 -0.0046066986
2.1674807 -2.9898601 0.85256451 34 14 -0.0046043945
1.2966225 -1.7892407 -0.038569819 2 7 -0.0046020909
2.1703284 -2.9959884 0.99127698 34 15 -0.0045997868
1.9795041 -2.7406151 -0.90586674 11 0 -0.0045790509
2.1473744 -2.9730308 0.064015426 12 8 -0.0045767468
1.9769336 -2.7380629 -0.77968031 36 1 -0.0045744427
2.2758043 -3.1531601 0.20379624 1 9 -0.0045721387
1.4117506 -1.9567206 -0.46900854 1 2 -0.004569835
2.4672866 -3.4209769 0.36901742 86 10 -0.0045675309
1.3712606 -1.9019992 -0.37137547 1 3 -0.0045652268
2.3868392 -3.3106518 0.50112677 19 11 -0.0045629228
1.3080335 -1.8149681 -0.27469352 1 4 -0.0045606187
2.438669 -3.3850319 0.66077924 77 12 -0.0045583146
1.3040553 -1.8107803 -0.19522884 2 5 -0.0045560109
2.1782112 -3.0257263 0.72469258 34 13 -0.0045537069
1.2984425 -1.8043144 -0.11649985 4 6 -0.0045514028
2.1474037 -2.9851286 0.84896529 34 14 -0.0045490987
1.3090533 -1.819729 -0.039128296 1 7 -0.004546795
2.15309 -2.9941354 0.9881711 34 15 -0.0045444909
1.9687997 -2.7459383 -0.90534908 13 0 -0.0045237546
2.1294734 -2.9711292 0.063805997 2 8 -0.004521451
1.9521304 -2.7246966 -0.77383161 32 1 -0.0045191469
2.2438462 -3.1318605 0.20191215 1 9 -0.0045168428
1.3614728 -1.9009839 -0.45450708 2 2 -0.0045145387
2.4448915 -3.414988 0.3674486 91 10 -0.0045122346
1.3922043 -1.9453276 -0.37888432 1 3 -0.004509931
2.3585188 -3.2967749 0.49771443 57 11 -0.0045076269
1.3224802 -1.8485835 -0.27908084 1 4 -0.0045053228
2.4210927 -3.3854902 0.65921491 79 12 -0.0045030187
1.2907746 -1.8055966 -0.19418299 2 5 -0.0045007146
2.1664948 -3.031714 0.72431099 31 13 -0.004498411
1.2828488 -1.7958343 -0.11566247 4 6 -0.0044961069
2.132962 -2.9858906 0.8471657 34 14 -0.0044938028
2.1336462 -2.9890542 0.98403007 35 15 -0.0044891946
1.9518397 -2.7414358 -0.90172559 15 0 -0.0044684587
2.1184499 -2.9765453 0.063771099 1 8 -0.0044661546
1.9464731 -2.735919 -0.77518129 34 1 -0.0044638505
2.2427104 -3.1523037 0.20274951 1 9 -0.0044615469
1.364264 -1.9182873 -0.45755997 1 2 -0.0044592428
2.4208548 -3.405215 0.36553118 82 10 -0.0044569387
1.3674368 -1.9241705 -0.37387842 1 3 -0.0044546346
2.3521717 -3.3110511 0.49868938 78 11 -0.004452331
1.3140432 -1.8497223 -0.27859333 1 4 -0.0044500269
2.4041338 -3.3854468 0.65765053 78 12 -0.0044477228
1.2790134 -1.8017439 -0.19331144 2 5 -0.0044454187
2.1405232 -3.0164664 0.71896833 19 13 -0.0044431146
1.2907532 -1.8196269 -0.11691854 4 6 -0.0044408105
2.1185386 -2.9865892 0.84536606 33 14 -0.0044385069
2.1147852 -2.9835043 0.97988898 34 15 -0.0044338987
1.9416229 -2.7463155 -0.90120792 16 0 -0.0044131628
2.1154919 -2.9933522 0.06398052 8 8 -0.0044108587
1.9227725 -2.7216675 -0.76933259 30 1 -0.0044085546
2.2247808 -3.1503243 0.20212148 1 9 -0.004406251
1.9667066 -2.7859192 -0.66287047 22 2 -0.0044039469
1.3792717 -1.9545181 -0.37888432 1 3 -0.0043993387
2.3354583 -3.3107228 0.49747071 96 11 -0.0043970346
1.2961386 -1.8380746 -0.27615595 1 4 -0.0043947306
2.3877494 -3.3873603 0.65639907 78 12 -0.0043924269
1.2876354 -1.8273702 -0.19557749 2 5 -0.0043901228
2.1356335 -3.031945 0.7208764 9 13 -0.0043878187
1.2809442 -1.8192223 -0.11660452 3 6 -0.0043855147
2.1069787 -2.9923728 0.84491616 5 14 -0.004383211
1.8588285 -2.6409242 -0.056371275 6 7 -0.0043809069
2.0976877 -2.9813886 0.9767831 34 15 -0.0043786028
1.9326537 -2.7549949 -0.90172559 25 0 -0.0043578669
2.2043934 -3.1435266 0.067017242 20 8 -0.0043555629
1.9015982 -2.7127392 -0.76483357 27 1 -0.0043532588
2.1948805 -3.1322868 0.20044672 1 9 -0.0043509547
1.9542298 -2.7898924 -0.66210729 33 2 -0.0043486506
2.2621408 -3.2294714 0.34496242 1 10 -0.0043463469
1.3720989 -1.9595603 -0.37888432 1 3 -0.0043440429
2.3073714 -3.2964921 0.49405837 84 11 -0.0043417388
1.2689085 -1.8135362 -0.27176866 1 4 -0.0043394347
2.3719218 -3.391233 0.65546048 79 12 -0.0043371306
1.2717961 -1.8190142 -0.19418299 2 5 -0.004334827
2.1807401 -3.1202116 0.73995733 4 13 -0.0043325229
1.2674046 -1.8140814 -0.11597649 2 6 -0.0043302188
2.0870683 -2.9872954 0.84131694 38 14 -0.0043279147
1.8411217 -2.6362431 -0.056126937 38 7 -0.0043256106
2.0823233 -2.9827209 0.97471261 34 15 -0.004323307
1.9148175 -2.7509613 -0.89810216 33 0 -0.0043025706
2.2019939 -3.1647167 0.067296483 55 8 -0.0043002665
1.89053 -2.718091 -0.76438367 31 1 -0.0042979629
2.1725292 -3.1235325 0.19940001 1 9 -0.0042956588
1.9399964 -2.7902493 -0.66058075 43 2 -0.0042933547
2.2389181 -3.2213807 0.34321931 1 10 -0.0042910511
1.3649075 -1.9645761 -0.37888432 1 3 -0.004288747
2.2884798 -3.2951441 0.49259594 72 11 -0.0042864429
1.2848943 -1.8507878 -0.27664346 1 4 -0.0042841388
2.349931 -3.3848882 0.65264469 82 12 -0.0042818347
1.280206 -1.8447216 -0.19644904 1 5 -0.0042795306
2.2347403 -3.2213645 0.76209116 4 13 -0.0042772265
1.2701696 -1.8316244 -0.11681387 2 6 -0.0042749229
2.0594518 -2.9709013 0.83456844 34 14 -0.0042726188
1.8170978 -2.621289 -0.055673175 45 7 -0.0042703147
2.0718989 -2.9899714 0.97471261 34 15 -0.0042680106
1.8898298 -2.7353768 -0.89085519 36 0 -0.0042472747
1.8748616 -2.7147243 -0.7616843 31 1 -0.004242667
2.1525354 -3.1179483 0.19856264 1 9 -0.0042403629
1.9213238 -2.7840776 -0.6575278 47 2 -0.0042380588
2.2118204 -3.2062159 0.34077895 1 10 -0.0042357547
1.3583852 -1.9690914 -0.37888432 1 3 -0.0042334506
2.275286 -3.2994463 0.49210843 76 11 -0.0042311465
1.2742434 -1.8485007 -0.27566847 2 4 -0.0042288429
2.3280134 -3.3784306 0.64982885 83 12 -0.0042265388
1.2760192 -1.8524606 -0.19679767 1 5 -0.0042242347
2.2530015 -3.2707944 0.77201319 4 13 -0.0042219306
1.2686195 -1.8424062 -0.11723255 1 6 -0.004219627
2.0429592 -2.9680829 0.83186901 34 14 -0.0042173229
1.8056699 -2.624321 -0.055603366 49 7 -0.0042150188
2.0395536 -2.9653509 0.96435976 36 15 -0.0042127147
1.8720059 -2.7288842 -0.8867141 36 0 -0.0041919788
2.1430814 -3.1252086 0.066144623 4 8 -0.0041896747
1.8631705 -2.7180376 -0.76078445 36 1 -0.0041873707
2.1444423 -3.1283638 0.19877198 9 9 -0.0041850666
1.9143003 -2.7936728 -0.65829104 43 2 -0.0041827629
2.1831613 -3.1872332 0.33798996 4 10 -0.0041804588
1.3515036 -1.9738212 -0.37888432 1 3 -0.0041781547
2.2491789 -3.2860732 0.48893982 40 11 -0.0041758507
1.2801135 -1.8709592 -0.27834961 4 4 -0.004173547
2.3112202 -3.3779807 0.64826447 82 12 -0.0041712429
1.2541223 -1.8336582 -0.19435729 1 5 -0.0041689388
2.252651 -3.2948456 0.77582937 6 13 -0.0041666348
1.2621806 -1.8468233 -0.11723255 1 6 -0.0041643307
2.0281892 -2.9687598 0.83006936 35 14 -0.0041620266
1.7901894 -2.6203878 -0.055393942 51 7 -0.0041597229
2.0199039 -2.9577403 0.95970106 37 15 -0.0041574189
1.85812 -2.7290146 -0.88464355 36 0 -0.004136683
2.1259534 -3.1223807 0.065935194 5 8 -0.0041343789
2.1301389 -3.1308768 0.19845797 36 9 -0.0041297707
1.9001206 -2.7938445 -0.65676457 43 2 -0.0041274671
2.1585805 -3.1750622 0.33589822 16 10 -0.004125163
1.3449508 -1.978292 -0.37888432 1 3 -0.0041228589
2.1925225 -3.2261984 0.47894657 12 11 -0.0041205548
1.2727865 -1.8735516 -0.27810585 4 4 -0.0041182507
2.3005245 -3.3876622 0.64857739 86 12 -0.0041159466
1.2577854 -1.852861 -0.19592611 2 5 -0.0041136425
2.2373018 -3.2958002 0.7743029 4 13 -0.0041113389
2.0117698 -2.9657929 0.82736999 35 14 -0.0041067307
1.783276 -2.6299307 -0.05546375 51 7 -0.0041044271
2.0073993 -2.9615748 0.95866579 33 15 -0.004102123
1.8436503 -2.727159 -0.88205534 33 0 -0.0040813866
2.1217594 -3.1397233 0.066144623 2 8 -0.004079083
1.2882931 -1.9070998 -0.5313344 1 1 -0.0040767789
2.1085646 -3.1213727 0.19741124 36 9 -0.0040744748
1.8842534 -2.7903676 -0.65447485 43 2 -0.0040721707
2.1603014 -3.2003679 0.33781564 58 10 -0.0040698666
1.338037 -1.9829746 -0.37888432 1 3 -0.0040675625
2.1768072 -3.2272494 0.47797161 22 11 -0.0040652589
1.2640193 -1.8746914 -0.27761838 3 4 -0.0040629548
2.2826519 -3.3854454 0.64670014 83 12 -0.0040606507
1.2638834 -1.8751955 -0.19784354 2 5 -0.0040583466
2.2246869 -3.3019619 0.77392131 7 13 -0.004056043
1.9916099 -2.9582484 0.82332087 37 14 -0.0040514348
1.7700779 -2.6291945 -0.055324126 51 7 -0.0040491307
1.9964887 -2.9666123 0.95814812 37 15 -0.0040468266
1.8308903 -2.7287655 -0.88050246 36 0 -0.0040260907
2.1057651 -3.1384399 0.0659701 8 8 -0.0040237866
1.2732781 -1.8984141 -0.52773517 1 1 -0.0040214825
2.0943193 -3.1237376 0.19709724 36 9 -0.0040191789
1.8668509 -2.785512 -0.65180355 39 2 -0.0040168748
2.146899 -3.2045791 0.33746704 24 10 -0.0040145707
2.1605704 -3.2262032 0.47675291 39 11 -0.004009963
1.2489612 -1.8656759 -0.27566847 1 4 -0.0040076589
2.2587361 -3.3753333 0.64325857 89 12 -0.0040053548
1.2440366 -1.8597234 -0.19575179 1 5 -0.0040030507
2.2191827 -3.3174798 0.77582937 7 13 -0.0040007466
2.1293585 -3.1844034 -0.20076075 23 6 -0.0039984426
1.9807063 -2.9632165 0.82287097 38 14 -0.0039961389
1.7520016 -2.6220558 -0.055044889 51 7 -0.0039938348
1.980756 -2.9655313 0.95555997 34 15 -0.0039915307
1.8117172 -2.7206681 -0.87584364 33 0 -0.00385356
2.1008964 -3.1561244 0.066179529 2 8 -0.0038512559
1.7898928 -2.689929 -0.74593771 11 1 -0.003848952
2.0756578 -3.1193893 0.19636452 31 9 -0.0038466479
1.8418938 -2.7691262 -0.64646095 14 2 -0.0038443441
2.1412156 -3.2203491 0.33833858 6 10 -0.00384204
2.1597166 -3.2506347 0.47919029 35 11 -0.003837432
1.2662762 -1.9066207 -0.28103071 1 4 -0.0038351279
2.2338257 -3.3634512 0.63950419 89 12 -0.0038328241
2.1950669 -3.3075976 0.7716316 9 13 -0.0038282159
2.1110482 -3.1822004 -0.20013271 35 6 -0.003825912
1.9698323 -2.9704561 0.82287097 39 14 -0.0038236079
1.7317868 -2.6114898 -0.054695841 51 7 -0.0038213041
1.9650555 -2.9643762 0.95297176 34 15 -0.003819
1.7872975 -2.7044122 -0.86859673 33 0 -0.0037982638
2.0738807 -3.1380494 0.065655954 1 8 -0.00379596
1.7809628 -2.6958499 -0.74593771 27 1 -0.0037936559
2.0680585 -3.1316154 0.19667853 3 9 -0.003791352
1.8419508 -2.7902846 -0.64989549 1 2 -0.0037890479
2.1573951 -3.2693777 0.34269637 4 10 -0.0037867439
2.1489253 -3.2577789 0.47919029 26 11 -0.0037821359
2.219897 -3.3679297 0.63887841 89 12 -0.0037775279
2.1862469 -3.3181374 0.7723949 9 13 -0.00377292
2.0960898 -3.1825113 -0.19971403 35 6 -0.0037706159
1.9578278 -2.973717 0.82197118 41 14 -0.003768312
1.7226604 -2.6175191 -0.054695841 52 7 -0.003766008
1.9451401 -2.9566922 0.94831306 37 15 -0.0037637039
1.7677215 -2.6941721 -0.86342037 33 0 -0.003742968
2.0497537 -3.1252038 0.065237097 1 8 -0.0037406639
1.7694048 -2.6987906 -0.74503791 32 1 -0.00373836
2.063683 -3.1488383 0.19730657 1 9 -0.0037360559
1.3225914 -2.0180552 -0.46900854 1 2 -0.0037337521
2.1585517 -3.2948465 0.34461379 4 10 -0.003731448
2.1473258 -3.2802079 0.48138395 12 11 -0.00372684
2.205965 -3.3723516 0.63825274 89 12 -0.0037222321
2.0853579 -3.1879747 -0.33328354 12 5 -0.003719928
2.1639071 -3.3093169 0.76857871 9 13 -0.0037176239
2.0784113 -3.1797779 -0.199086 38 6 -0.00371532
1.9431717 -2.9740074 0.82017154 41 14 -0.0037130159
1.7091392 -2.6168194 -0.054556224 51 7 -0.0037107118
1.932695 -2.9602289 0.94727772 37 15 -0.003708408
1.7551441 -2.6954694 -0.86186743 34 0 -0.0036876719
2.0344687 -3.1256361 0.065097481 1 8 -0.003685368
1.7493457 -2.6886163 -0.74053884 34 1 -0.0036830639
2.0123875 -3.0940742 0.1934337 3 9 -0.00368076
2.1774461 -3.3491318 0.34949452 9 10 -0.0036761519
2.1445141 -3.3010004 0.48333386 20 11 -0.0036715439
2.1844995 -3.3651195 0.63543689 86 12 -0.003666936
2.0644534 -3.1801941 -0.33171475 33 5 -0.0036646319
2.1587541 -3.3267314 0.77086836 9 13 -0.003662328
2.0553432 -3.1685817 -0.1979346 40 6 -0.0036600239
1.9211165 -2.9627857 0.81522262 31 14 -0.0036577201
1.6956437 -2.6160574 -0.054416601 51 7 -0.003655416
1.9181485 -2.9604719 0.94520718 39 15 -0.0036531119
1.7352396 -2.6853538 -0.85669106 36 0 -0.003632376
2.0257158 -3.1360781 0.065167286 9 8 -0.0036300719
1.7367786 -2.689795 -0.73918921 38 1 -0.003627768
2.0004921 -3.099402 0.19332905 4 9 -0.0036254639
2.1743834 -3.3701057 0.350889 74 10 -0.003620856
2.0921047 -3.2450664 0.47407177 12 11 -0.003616248
2.164181 -3.3594391 0.63293391 83 12 -0.0036116401
2.0490236 -3.1806815 -0.33101749 38 5 -0.003609336
2.139688 -3.3226922 0.768197 10 13 -0.0036070319
2.0431893 -3.1740577 -0.19782993 41 6 -0.003604728
1.8970543 -2.9481697 0.80937392 12 14 -0.0036024239
1.6778475 -2.608506 -0.054137368 50 7 -0.0036001201
1.901534 -2.9573998 0.94210136 40 15 -0.003597816
1.7185556 -2.680011 -0.85306764 39 0 -0.0035770801
2.0298643 -3.1666994 0.065655954 1 8 -0.003574776
1.7210708 -2.6859961 -0.73648977 36 1 -0.0035724719
2.017669 -3.1500943 0.19605052 1 9 -0.003570168
1.3310354 -2.0780847 -0.47969386 1 2 -0.003567864
2.171201 -3.3910985 0.35228351 99 10 -0.0035655599
2.0893226 -3.2657268 0.47602168 9 11 -0.0035609519
2.1428657 -3.3519943 0.63011813 82 12 -0.003556344
2.0293233 -3.1743848 -0.32962301 38 5 -0.0035540399
2.1217339 -3.3202155 0.76590741 10 13 -0.003551736
2.0267212 -3.1727548 -0.19730657 32 6 -0.0035494319
1.8720685 -2.9317794 0.80307525 23 14 -0.0035471281
1.6622764 -2.604233 -0.053927936 50 7 -0.003544824
1.8849645 -2.954248 0.93899554 40 15 -0.0035425199
1.7050414 -2.6794741 -0.85099703 44 0 -0.003521784
2.0187981 -3.1737657 0.065655954 4 8 -0.0035194799
1.7106386 -2.6903429 -0.73603982 37 1 -0.003517176
2.0163033 -3.1722882 0.19699256 3 9 -0.0035148719
1.7471282 -2.7487898 -0.63310426 1 2 -0.0035125678
2.1411867 -3.3700686 0.34932023 94 10 -0.003510264
2.0651431 -3.2528892 0.47309685 6 11 -0.003505656
2.1300933 -3.3577855 0.62980521 83 12 -0.0035010478
1.8544257 -2.9243634 -0.30295336 7 5 -0.003498744
2.1143365 -3.3342335 0.76743382 10 13 -0.0034964399
1.6616952 -2.6214449 -0.16266017 26 6 -0.003494136
1.8712106 -2.9531112 0.80712438 28 14 -0.0034918319
1.6531757 -2.6100197 -0.053927936 49 7 -0.0034895279
1.86844 -2.9510164 0.93588972 40 15 -0.003487224
1.6910852 -2.6791708 -0.84892654 41 0 -0.0034664879
2.0151794 -3.1926303 0.065900289 4 8 -0.003464184
1.686679 -2.6732244 -0.72974122 37 1 -0.0034618799
2.0105448 -3.1877537 0.19751592 9 9 -0.0034595761
1.7318065 -2.7468712 -0.6311962 23 2 -0.003457272
2.1235089 -3.3694658 0.34844866 84 10 -0.0034549679
1.6573011 -2.6307311 -0.49245578 35 3 -0.003452664
2.0474269 -3.2500007 0.47163439 20 11 -0.0034503599
2.1088889 -3.3501551 0.62698942 82 12 -0.003445752
1.6553295 -2.6306543 -0.2719259 41 5 -0.0034434479
2.0791054 -3.3053997 0.75903821 9 13 -0.003441144
1.6393182 -2.6072285 -0.1614041 31 6 -0.0034388399
1.8603743 -2.9599497 0.80712438 37 14 -0.0034365361
1.6419268 -2.6123886 -0.053858127 51 7 -0.003434232
1.852989 -2.9493418 0.93330151 43 15 -0.0034319279
1.6765953 -2.6768715 -0.84633833 33 0 -0.003411192
2.0066473 -3.2050793 0.066004999 13 8 -0.0034088879
1.644821 -2.6281796 -0.71579427 36 1 -0.003406584
1.9999075 -3.1967943 0.1976206 19 9 -0.0034042799
1.6514038 -2.6397212 -0.60524619 38 2 -0.0034019761
2.1064525 -3.3684115 0.3475771 81 10 -0.003399672
1.6428727 -2.628125 -0.49089143 46 3 -0.0033973679
2.0165665 -3.227181 0.4672471 4 11 -0.003395064
2.0924108 -3.3511593 0.62573791 85 12 -0.0033904561
1.6376948 -2.6228964 -0.27053142 48 5 -0.003388152
2.074831 -3.3242953 0.76170951 11 13 -0.0033858479
1.6270361 -2.6078513 -0.16109009 34 6 -0.003383544
1.8428124 -2.9548509 0.80397505 37 14 -0.0033812399
1.6238779 -2.6048131 -0.053578887 51 7 -0.0033789361
1.8411448 -2.954474 0.93278384 42 15 -0.003376632
1.6417483 -2.6416876 -0.83339739 40 0 -0.0033558961
1.9912264 -3.2052701 0.065865383 22 8 -0.003353592
1.6294688 -2.6239717 -0.71309483 39 1 -0.0033512879
1.9866295 -3.200362 0.19741124 31 9 -0.0033489838
1.631825 -2.6287897 -0.60143 42 2 -0.00334668
2.0925803 -3.3723578 0.34722847 79 10 -0.0033443759
1.6305649 -2.6288075 -0.4899528 41 3 -0.003342072
2.0272567 -3.2696297 0.47236562 1 11 -0.0033397679
2.0754986 -3.3500469 0.62417358 79 12 -0.00333516
1.6222333 -2.6184349 -0.26948556 39 5 -0.0033328559
2.0642478 -3.3331866 0.76209116 12 13 -0.003330552
1.6116154 -2.6033258 -0.16046207 34 6 -0.0033282479
1.8212069 -2.9430375 0.79902619 40 14 -0.0033259438
1.6063595 -2.5968606 -0.053299651 48 7 -0.00332364
1.8298045 -2.9592397 0.93226624 43 15 -0.0033213359
1.6233909 -2.6326029 -0.82873863 46 0 -0.0033006
1.9800258 -3.2122011 0.065865383 39 8 -0.0032982959
1.6202995 -2.6296437 -0.71309483 40 1 -0.003295992
1.9754459 -3.2072771 0.19741124 19 9 -0.0032936879
1.6133723 -2.6194248 -0.5979954 38 2 -0.0032913839
2.0703506 -3.3626757 0.34548536 79 10 -0.00328908
1.6151669 -2.6243894 -0.48807558 40 3 -0.0032867759
1.9804658 -3.2192004 0.46407849 1 11 -0.003284472
2.0565505 -3.3454914 0.62198347 82 12 -0.0032798639
1.5943024 -2.5935299 -0.26634794 39 5 -0.00327756
2.0495167 -3.3353541 0.76094633 16 13 -0.0032752559
1.6014729 -2.6072335 -0.16035739 38 6 -0.003272952
1.805824 -2.9410729 0.79677659 38 14 -0.003270648
1.5931008 -2.5956349 -0.05316003 50 7 -0.0032683439
1.8022897 -2.9376156 0.92346638 42 15 -0.00326604
1.6051178 -2.6234229 -0.82407987 42 0 -0.0032453039
1.9594108 -3.2037401 0.065551244 37 8 -0.003243
1.6009456 -2.6186574 -0.70859581 34 1 -0.0032406959
1.9600724 -3.2073364 0.19699256 19 9 -0.0032383921
1.5909102 -2.6032631 -0.59303439 36 2 -0.003236088
2.0513294 -3.3579805 0.34426519 78 10 -0.0032337839
1.5854064 -2.5962934 -0.4818182 43 3 -0.00323148
2.0043812 -3.2837031 0.47236562 1 11 -0.0032291759
2.0417747 -3.3475904 0.62104493 79 12 -0.003224568
1.5707153 -2.5752654 -0.26390758 41 5 -0.0032222639
2.0358181 -3.3391352 0.7601831 19 13 -0.00321996
1.5902832 -2.6093969 -0.16014804 32 6 -0.0032176559
1.7955469 -2.9473586 0.79677659 38 14 -0.0032153521
1.5840306 -2.6011801 -0.05316003 49 7 -0.003213048
1.7920244 -2.9438889 0.92346638 42 15 -0.0032107439
1.5959504 -2.6290097 -0.82407987 44 0 -0.003190008
1.940954 -3.1985931 0.065306902 35 8 -0.0031877039
1.5786563 -2.6025693 -0.70274711 42 1 -0.0031854
1.9514972 -3.2172339 0.19720189 19 9 -0.0031830959
1.5777419 -2.6020856 -0.59150791 41 2 -0.0031807921
2.0385625 -3.3634164 0.34409088 79 10 -0.003178488
1.5701923 -2.5916746 -0.47994098 46 3 -0.0031761839
1.9456031 -3.2125726 0.46115363 1 11 -0.00317388
1.633548 -2.6983707 -0.38730082 1 4 -0.003171576
2.0265703 -3.3475833 0.61979342 86 12 -0.0031692721
1.5617164 -2.5807326 -0.26390758 43 5 -0.003166968
2.0109401 -3.3243835 0.75522202 26 13 -0.0031646639
1.5739309 -2.6029685 -0.15941535 34 6 -0.0031623598
1.7812158 -2.9469371 0.79497701 37 14 -0.003160056
1.5691898 -2.5961504 -0.052950602 50 7 -0.0031577521
1.7762586 -2.9398944 0.92036057 42 15 -0.003155448
1.5907505 -2.6411841 -0.82615042 38 0 -0.0031347119
1.9334317 -3.210151 0.06541162 39 8 -0.003132408
1.5619763 -2.5944338 -0.69914788 47 1 -0.0031301039
1.9258375 -3.2000685 0.1957365 25 9 -0.0031277998
1.5646014 -2.600848 -0.58998144 41 2 -0.003125496
2.0206487 -3.3602672 0.343045 81 10 -0.0031231919
1.5554814 -2.5867102 -0.47806379 43 3 -0.003120888
1.9195988 -3.1934862 0.45749757 8 11 -0.0031185839
1.5591573 -2.5948734 -0.37170154 34 4 -0.0031162798
2.0108042 -3.3478637 0.61854196 83 12 -0.003113976
1.5506471 -2.5827518 -0.26355895 45 5 -0.0031116719
2.0019259 -3.3343999 0.75598526 28 13 -0.003109368
