# .PCD v0.7 - Point Cloud Data file format
VERSION 0.7
FIELDS x y z intensity ring time
SIZE 4 4 4 4 2 4
TYPE F F F F U F
COUNT 1 1 1 1 1 1
WIDTH 973
HEIGHT 1
VIEWPOINT 0 0 0 1 0 0 0
POINTS 973
DATA ascii
3.8828721 2.8742232 -1.1153073 8 1 -0.070444167
13.388351 9.9068594 0.87285918 100 9 -0.070441864
4.7534647 3.517379 -1.1494334 14 2 -0.070439562
5.6560435 4.182198 -1.1141263 12 3 -0.07043495
9.5669146 7.0713959 1.4607261 36 11 -0.070432648
6.1147995 4.518116 -0.93351924 1 4 -0.070430346
7.7397509 5.71667 1.5239848 12 12 -0.070428036
6.211792 4.5881019 -0.67563128 1 5 -0.070425734
5.9180021 4.3695087 1.4299227 29 13 -0.070423432
6.3699918 4.7015142 -0.4149195 0 6 -0.070421129
5.2892857 3.9024494 1.5175198 15 14 -0.07041882
6.5161986 4.805913 -0.14132959 12 7 -0.070416518
4.3102822 3.1778119 1.4348928 71 15 -0.070414215
3.2947605 2.4229004 -1.0958399 11 0 -0.07039348
6.483459 4.7660618 0.14045697 44 8 -0.070391178
3.8818901 2.8525734 -1.1121581 9 1 -0.070388868
13.467918 9.8931751 0.87579 100 9 -0.070386566
4.7752061 3.5077393 -1.1517231 9 2 -0.070384264
6.4365621 4.726398 0.69864047 42 10 -0.070381962
5.6801639 4.1694417 -1.1160036 15 3 -0.070379652
9.5867367 7.0344372 1.4599948 12 11 -0.07037735
6.1113267 4.4826531 -0.93059438 1 4 -0.070375048
7.7739964 5.7001276 1.5268005 16 12 -0.070372745
6.2599058 4.589951 -0.6791175 1 5 -0.070370436
5.9142165 4.3348985 1.4253433 25 13 -0.070368133
6.3734741 4.6698079 -0.41408211 1 6 -0.070365831
5.5984411 4.10044 1.6021013 14 14 -0.070363529
6.5522957 4.7973151 -0.14174846 74 7 -0.070361227
3.3105772 2.4176586 -1.0984281 12 0 -0.070337772
6.5202265 4.7598615 0.14091073 26 8 -0.07033547
3.8960497 2.8431318 -1.1135077 8 1 -0.070333168
13.536043 9.8778906 0.87819743 66 9 -0.070330858
4.7757092 3.4837868 -1.1490518 4 2 -0.070328556
6.4248343 4.6850691 0.6956771 22 10 -0.070326254
5.6827841 4.1424379 -1.1138135 20 3 -0.070323952
9.6228447 7.0119619 1.4619447 33 11 -0.070321642
6.1101141 4.4506731 -0.92815697 1 4 -0.07031934
7.7806883 5.6675372 1.5246104 10 12 -0.070317037
6.2267718 4.5339851 -0.67388821 1 5 -0.070314735
5.9539547 4.3337493 1.4314492 48 13 -0.070312425
6.3663163 4.632194 -0.41261673 0 6 -0.070310123
5.1218829 3.7253652 1.4621819 16 14 -0.070307821
6.61585 4.8119912 -0.14279559 73 7 -0.070305519
4.9437618 3.5944946 1.6378069 11 15 -0.070303209
3.30492 2.3958819 -1.0937693 11 0 -0.070282474
6.5019741 4.7135668 0.14017773 70 8 -0.070280172
3.9023013 2.8279083 -1.1126078 8 1 -0.07027787
13.625432 9.8704214 0.88175631 34 9 -0.070275567
4.7894316 3.4682457 -1.1494334 7 2 -0.070273258
6.4153271 4.6439199 0.69288814 40 10 -0.070270956
5.6884894 4.1177773 -1.1122491 22 3 -0.070268653
9.6508703 6.9835014 1.462676 21 11 -0.070266351
6.0926704 4.4071193 -0.92328221 1 4 -0.070264041
6.4750094 4.6819577 1.2655549 31 12 -0.070261739
6.2199531 4.495883 -0.67144781 1 5 -0.070259437
5.9921613 4.3312316 1.4371735 22 13 -0.070257135
6.3816409 4.6110582 -0.41261673 1 6 -0.070254825
5.6286731 4.0655022 1.6030012 3 14 -0.070252523
6.559649 4.7361937 -0.14122486 56 7 -0.070250221
4.9578466 3.5783451 1.6383246 5 15 -0.070247918
3.3034406 2.3781362 -1.0906636 11 0 -0.070227183
6.4940405 4.6733232 0.13965416 99 8 -0.070224874
3.9168928 2.8176861 -1.1139576 8 1 -0.070222571
13.71818 9.8647728 0.88552445 77 9 -0.070220269
4.8072824 3.4569275 -1.1509598 9 2 -0.070217967
6.4581909 4.6423941 0.69585145 13 10 -0.070215657
5.6996183 4.0955944 -1.1116234 33 3 -0.070213355
6.4474397 4.6312485 0.97471106 13 11 -0.070211053
6.1080179 4.3858232 -0.92328221 1 4 -0.070208751
7.8553681 5.6384254 1.5314937 13 12 -0.070206441
6.1992178 4.4496741 -0.66761297 1 5 -0.070204139
6.527256 4.6834021 1.5615808 27 13 -0.070201837
6.3684859 4.5677996 -0.41073263 0 6 -0.070199534
5.6333251 4.0390201 1.6003017 11 14 -0.070197232
6.51438 4.6689992 -0.13989849 56 7 -0.070194922
4.9671669 3.5587656 1.6372893 15 15 -0.07019262
3.3195784 2.3722086 -1.0932516 11 0 -0.070171885
6.4826531 4.6308641 0.13906078 85 8 -0.070169583
3.9203618 2.7994659 -1.1121581 9 1 -0.070167273
13.794795 9.8470011 0.88824588 60 9 -0.070164971
4.8241134 3.4435489 -1.1521047 4 2 -0.070162669
6.4630046 4.6117196 0.69463122 13 10 -0.070160367
5.6929746 4.0607605 -1.1075561 34 3 -0.070158057
9.7058544 6.9205656 1.4636509 12 11 -0.070155755
6.1135898 4.357564 -0.92181975 1 4 -0.070153452
7.8991356 5.6281624 1.5361867 13 12 -0.07015115
6.2082233 4.4233813 -0.66691571 1 5 -0.070148848
6.5387654 4.6571736 1.560436 29 13 -0.070146538
6.3583589 4.5270081 -0.40905789 1 6 -0.070144236
5.6616797 4.0295 1.6043509 13 14 -0.070141934
6.7049851 4.770268 -0.14363331 54 7 -0.070139632
5.0078964 3.5615597 1.6466069 15 15 -0.070137322
3.3309908 2.3628411 -1.0942869 12 0 -0.070116587
6.4759426 4.5920124 0.13857211 95 8 -0.070114285
3.931699 2.7868915 -1.1126078 9 1 -0.070111983
13.894268 9.8449802 0.89243275 100 9 -0.070109673
4.8425117 3.4312301 -1.1536313 7 2 -0.070107371
6.4579287 4.5741591 0.69236517 20 10 -0.070105068
5.708725 4.042006 -1.107869 37 3 -0.070102766
6.4342442 4.5540166 0.96788639 18 11 -0.070100464
6.122283 4.3316092 -0.92084479 1 4 -0.070098154
7.8848634 5.5766034 1.5296165 34 12 -0.070095852
6.2178855 4.395998 -0.66621852 1 5 -0.07009355
6.0019202 4.2433124 1.4287778 30 13 -0.070091248
6.3349786 4.4771194 -0.40654576 0 6 -0.070088938
5.0836287 3.5914261 1.4369874 1 14 -0.070086636
6.6105185 4.6683974 -0.14125979 63 7 -0.070084333
4.39217 3.1006315 1.4405869 3 15 -0.070082031
3.3427894 2.3528399 -1.0953223 12 0 -0.070061289
6.4853902 4.5647759 0.13843249 100 8 -0.070058987
3.9382162 2.7709069 -1.1117082 8 1 -0.070056684
13.951421 9.812501 0.89389819 34 9 -0.070054382
4.8357835 3.3999071 -1.1490518 4 2 -0.07005208
6.464869 4.5435867 0.69131935 6 10 -0.07004977
5.7202702 4.0187826 -1.1072433 37 3 -0.070047468
9.7588062 6.856061 1.4643822 5 11 -0.070045166
6.0723844 4.2645783 -0.91109526 1 4 -0.070042863
7.8832655 5.5342884 1.5255492 31 12 -0.070040554
6.2250395 4.3685427 -0.66534692 2 5 -0.070038252
6.0190406 4.2224116 1.4291594 5 13 -0.070035949
6.3448033 4.449285 -0.40612707 1 6 -0.070033647
5.1190987 3.5884283 1.4432859 1 14 -0.070031337
4.3918905 3.0775213 1.4369633 52 15 -0.070026733
3.3478136 2.3389447 -1.0942869 12 0 -0.070005998
6.4873233 4.5306687 0.13811834 100 8 -0.070003696
3.9515407 2.7586856 -1.1126078 8 1 -0.070001386
14.057718 9.8104534 0.89839911 28 9 -0.069999084
4.8444009 3.38076 -1.1482886 7 2 -0.069996782
6.4251328 4.4822326 0.68539274 13 10 -0.069994479
5.7310219 3.996532 -1.1066176 40 3 -0.06999217
9.8017807 6.8327355 1.4670632 3 11 -0.069989868
6.1107764 4.2581806 -0.91450763 1 4 -0.069987565
6.584085 4.5862947 1.2708738 33 12 -0.069985263
6.2157269 4.3297062 -0.6627323 1 5 -0.069982953
6.3608046 4.4291148 1.5066279 9 13 -0.069980651
6.33079 4.4065704 -0.40424296 1 6 -0.069978349
5.1219945 3.5638607 1.4405866 1 14 -0.069976047
6.5895839 4.5832911 -0.14010793 5 7 -0.069973737
4.3888664 3.0514772 1.4323047 18 15 -0.069971435
3.3432579 2.3184385 -1.0901459 12 0 -0.0699507
6.4570818 4.4760985 0.137141 100 8 -0.069948398
3.9579434 2.7426548 -1.1117082 8 1 -0.069946095
14.159191 9.8079548 0.90269065 89 9 -0.069943786
4.8723102 3.3750093 -1.1521047 4 2 -0.069941483
6.4079781 4.4370947 0.68190652 31 10 -0.069939181
5.7335691 3.968631 -1.1044275 48 3 -0.069936879
9.8174114 6.79283 1.4658446 19 11 -0.069934569
6.102746 4.2210164 -0.91109526 1 4 -0.069932267
6.5919309 4.5576649 1.2693094 41 12 -0.069929965
6.2013044 4.2875853 -0.65959466 1 5 -0.069927663
6.0516019 4.1825199 1.4299227 28 13 -0.069925353
6.3494191 4.3867168 -0.40445229 0 6 -0.069923051
5.1376119 3.5481732 1.4414864 1 14 -0.069920748
6.4376869 4.4443812 -0.13654763 22 7 -0.069918446
4.4010806 3.0372367 1.4328223 11 15 -0.069916144
3.3624699 2.3144205 -1.0937693 11 0 -0.069895402
6.4528971 4.4399319 0.13672216 100 8 -0.069893099
3.9642811 2.726614 -1.1108083 9 1 -0.069890797
14.250882 9.8016901 0.90645891 100 9 -0.069888495
4.8662672 3.3457451 -1.147907 7 2 -0.069886185
6.4185004 4.411315 0.68138355 18 10 -0.069883883
5.7327328 3.9385273 -1.1016116 47 3 -0.069881581
6.4587078 4.4356308 0.96203667 64 11 -0.069879279
6.097805 4.186204 -0.9081704 1 4 -0.069876969
6.5744386 4.5134177 1.263052 12 12 -0.069874667
6.209661 4.2614045 -0.6588974 1 5 -0.069872364
6.0823536 4.1724777 1.4337388 55 13 -0.069870062
6.3317499 4.3419342 -0.40235886 1 6 -0.06986776
5.1692548 3.5434382 1.4468851 1 14 -0.06986545
6.460638 4.4286599 -0.13672216 13 7 -0.069863148
4.4334383 3.0379143 1.4400692 50 15 -0.069860846
3.3721237 2.3037579 -1.0942869 12 0 -0.069840111
6.4543762 4.4094825 0.13644291 97 8 -0.069837801
3.9652545 2.7079589 -1.1085589 8 1 -0.069835499
14.304807 9.7653952 0.90771496 21 9 -0.069833197
4.8779178 3.3287368 -1.147907 7 2 -0.069830894
6.4289207 4.3855162 0.68086064 11 10 -0.069828585
5.739234 3.9150436 -1.1003602 49 3 -0.069826283
6.4684629 4.4108319 0.9613055 70 11 -0.06982398
6.0886889 4.1503086 -0.9047581 1 4 -0.069821678
6.5411768 4.4570761 1.2536659 17 12 -0.069819376
6.2014465 4.2239985 -0.65645707 1 5 -0.069817066
6.0929122 4.1500726 1.4329756 44 13 -0.069814764
6.3263025 4.307426 -0.40110281 1 6 -0.069812462
5.2003069 3.5394382 1.452284 1 14 -0.06981016
6.4429903 4.3835855 -0.13602406 25 7 -0.06980785
5.0430479 3.429826 1.6341835 43 15 -0.069805548
3.3797443 2.2925634 -1.0942869 12 0 -0.069784813
6.4498672 4.3734598 0.13602406 82 8 -0.06978251
3.9730701 2.6930065 -1.1081089 8 1 -0.069780201
6.4319592 4.3580399 0.40717378 19 9 -0.069777898
4.8856778 3.3103411 -1.1471437 7 2 -0.069775596
6.4269338 4.3529987 0.6791175 20 10 -0.069773294
5.7528658 3.8949847 -1.1003602 49 3 -0.069770992
6.4361453 4.3559575 0.95423704 84 11 -0.069768682
6.0866971 4.1179075 -0.90232068 1 4 -0.06976638
6.5812416 4.4508138 1.2583591 21 12 -0.069764078
6.202949 4.193397 -0.65506256 2 5 -0.069761775
6.1366391 4.1485696 1.4398447 25 13 -0.069759466
6.3148212 4.2674255 -0.39942807 1 6 -0.069757164
5.2384677 3.5387163 1.4594824 1 14 -0.069754861
6.6587791 4.4964757 -0.14024754 1 7 -0.069752559
5.019763 3.3884246 1.6227955 20 15 -0.069750249
3.3817143 2.2758458 -1.0922165 11 0 -0.069729514
6.4584594 4.3464513 0.13588443 57 8 -0.069727212
3.9856811 2.6812959 -1.1090087 8 1 -0.06972491
6.4305577 4.3244176 0.40612707 44 9 -0.069722608
4.8831148 3.2825534 -1.1437092 4 2 -0.069720298
6.4395385 4.3271894 0.67876893 31 10 -0.069717996
5.7671027 3.8738744 -1.1003602 47 3 -0.069715694
6.512279 4.374424 0.96325535 45 11 -0.069713391
6.6382957 4.457386 -0.98177958 34 4 -0.069711082
6.4524045 4.3309331 1.2308265 40 12 -0.069708779
6.1910744 4.1539621 -0.65227354 1 5 -0.069706477
6.6751866 4.4770885 1.5623442 33 13 -0.069704175
6.330421 4.2442503 -0.39942807 1 6 -0.069701865
5.2611151 3.5260038 1.4621819 5 14 -0.069699563
6.8222723 4.5722928 -0.14335407 6 7 -0.069697261
5.0748949 3.3999121 1.6367717 45 15 -0.069694959
3.3832107 2.259738 -1.0901459 10 0 -0.069674224
6.4244537 4.2894406 0.1348373 55 8 -0.069671914
3.9954813 2.6666708 -1.1090087 9 1 -0.069669612
6.4505987 4.3052692 0.40644106 100 9 -0.06966731
4.8880086 3.2611332 -1.1421827 6 2 -0.069665007
6.4231091 4.2836823 0.675457 18 10 -0.069662698
5.7690854 3.8460479 -1.09817 50 3 -0.069660395
6.5183601 4.3439155 0.96179295 37 11 -0.069658093
6.7298026 4.4848237 -0.99299151 55 4 -0.069655791
6.5365295 4.3543816 1.2439669 15 12 -0.069653481
6.2171459 4.1400542 -0.6534937 9 5 -0.069651179
6.2184653 4.1393623 1.4520565 17 13 -0.069648877
6.3219175 4.2066383 -0.39796266 1 6 -0.069646575
5.3068495 3.5312066 1.4716297 10 14 -0.069644265
6.4469151 4.2881894 -0.13515143 10 7 -0.069641963
4.4866843 2.9832025 1.4436927 52 15 -0.06963966
3.389076 2.2474375 -1.0896282 12 0 -0.069618925
6.4269748 4.2603798 0.13459297 25 8 -0.069616623
3.9994297 2.6501763 -1.107659 9 1 -0.069614314
6.4848204 4.297092 0.40769714 36 9 -0.069612011
4.898797 3.2449045 -1.1421827 4 2 -0.069609709
6.4356165 4.26126 0.67528266 20 10 -0.069607407
5.771925 3.8203528 -1.0962929 51 3 -0.069605097
10.004375 6.619246 1.472913 22 11 -0.069602795
6.2579079 4.1404514 -0.9213323 28 4 -0.069600493
6.4866753 4.2901845 1.2317652 36 12 -0.06959819
6.2690678 4.1446857 -0.65750289 14 5 -0.069595881
6.1781044 4.0830021 1.4394631 26 13 -0.069593579
6.3025026 4.1636338 -0.3958692 1 6 -0.069591276
5.313652 3.5103676 1.4702801 21 14 -0.069588974
6.7047272 4.427671 -0.14024754 1 7 -0.069586672
5.0914712 3.3610325 1.6347013 46 15 -0.069584362
3.3965099 2.2361872 -1.0896282 12 0 -0.069563627
6.3942966 4.2082605 0.13361563 17 8 -0.069561325
3.9951713 2.6283317 -1.1040598 9 1 -0.069559023
6.5164647 4.2854075 0.40874386 36 9 -0.069556713
4.9133759 3.2299407 -1.1429459 6 2 -0.069554411
6.4380593 4.2322326 0.67406249 18 10 -0.069552109
5.7829103 3.8001075 -1.09598 57 3 -0.069549806
10.021292 6.5827661 1.4721818 68 11 -0.069547497
6.7701273 4.4454522 -0.99445397 38 4 -0.069545195
6.4586759 4.2393312 1.2236305 56 12 -0.069542892
6.303484 4.1358976 -0.65959466 31 5 -0.06954059
6.170979 4.0474124 1.434502 22 13 -0.069538288
6.3019667 4.1317515 -0.39492717 7 6 -0.069535978
5.334022 3.4971392 1.4725296 71 14 -0.069533676
6.5947022 4.322032 -0.13762967 6 7 -0.069531374
5.1225624 3.3559442 1.6409128 46 15 -0.069529071
3.4046845 2.2237208 -1.0896282 12 0 -0.069508329
6.4013052 4.1793318 0.13344111 72 8 -0.069506027
4.0064087 2.6147368 -1.1045097 9 1 -0.069503725
14.879207 9.7070312 0.93105674 39 9 -0.069501422
4.9251804 3.2119117 -1.1429459 6 2 -0.06949912
6.4251561 4.1901073 0.67109919 38 10 -0.06949681
5.7967987 3.7788877 -1.09598 66 3 -0.069494508
6.8096609 4.4357786 -0.99786633 44 4 -0.069489904
6.2581773 4.0718799 1.4512933 43 13 -0.06948299
6.3388329 4.1227837 -0.39628792 0 6 -0.069480687
5.3435364 3.4754415 1.4716297 28 14 -0.069478378
6.5551748 4.2618608 -0.13647781 4 7 -0.069476075
5.1348276 3.3371477 1.6409128 45 15 -0.069473773
3.4063263 2.207026 -1.0875577 12 0 -0.069453038
4.0241442 2.6053312 -1.1067592 9 1 -0.069448426
14.981732 9.6995468 0.93534833 100 9 -0.069446124
4.928122 3.1893651 -1.1410379 9 2 -0.069443822
6.4572001 4.17735 0.67284232 27 10 -0.06944152
5.8122683 3.7586901 -1.0962929 67 3 -0.06943921
6.2056432 4.0100036 -0.90719545 9 4 -0.069434606
6.5850754 4.2551875 1.2417769 3 12 -0.069432303
6.8333292 4.4139152 -0.71171379 41 5 -0.069429994
6.2723536 4.0500083 1.4512933 44 13 -0.069427691
6.3498306 4.098464 -0.39607856 15 6 -0.069425389
5.5167136 3.5593696 1.5157202 84 14 -0.069423087
6.6036177 4.2606373 -0.13717592 11 7 -0.069420777
5.1399517 3.3150136 1.6388422 45 15 -0.069418475
3.412384 2.1940782 -1.0870401 10 0 -0.06939774
6.3664093 4.0934429 0.13211471 2 8 -0.069395438
4.0327625 2.5919712 -1.1067592 9 1 -0.069393136
15.052469 9.6709394 0.93765104 42 9 -0.069390826
4.9441795 3.1753271 -1.1421827 6 2 -0.069388524
6.4499454 4.1407938 0.67057627 27 10 -0.069386221
5.8163896 3.7340579 -1.0947285 64 3 -0.069383919
6.2189074 3.9894006 -0.90719545 38 4 -0.069379307
6.5799336 4.2193813 1.2380226 25 12 -0.069377005
6.8721766 4.4050899 -0.71415412 39 5 -0.069374703
6.2708735 4.0196519 1.4478587 37 13 -0.069372393
7.1857171 4.6042962 -0.44726312 10 6 -0.069370091
5.8140173 3.7239432 1.5940032 30 14 -0.069367789
6.5224557 4.1761007 -0.13518634 65 7 -0.069365487
4.5640988 2.9211071 1.4519749 15 15 -0.069363177
3.4212689 2.1837902 -1.0875577 11 0 -0.069342442
6.3772874 4.0690455 0.13204491 2 8 -0.06934014
4.0352139 2.5736859 -1.1049596 9 1 -0.069337837
15.165287 9.6725187 0.94267535 60 9 -0.069335535
4.9464045 3.1536381 -1.1402746 6 2 -0.069333225
6.4384398 4.1033182 0.6679616 29 10 -0.069330923
5.8143959 3.7041783 -1.0919127 69 3 -0.069328621
6.1808825 3.9346235 -0.89963961 52 4 -0.069324009
6.4089217 4.0797887 1.203294 55 12 -0.069321707
6.9203663 4.4036665 -0.71764034 40 5 -0.069319405
6.823236 4.3401918 1.5718845 34 13 -0.069317102
6.3034229 4.0079942 -0.391473 11 6 -0.069314793
5.3401666 3.3942049 1.4608321 15 14 -0.069312491
6.5835238 4.1844816 -0.13616368 42 7 -0.069310188
4.5753908 2.9069932 1.4524926 46 15 -0.069307886
3.4305036 2.1728671 -1.0880753 11 0 -0.069287151
6.2775617 3.9761822 0.12970628 5 8 -0.069284841
4.0272613 2.5498667 -1.1004605 9 1 -0.069282539
15.241146 9.6462288 0.94529212 48 9 -0.069280237
4.9723153 3.145798 -1.1437092 4 2 -0.069277935
6.427465 4.0648465 0.66534692 27 10 -0.069275625
5.8316555 3.6880455 -1.0928513 77 3 -0.069273323
8.2201281 5.1925364 1.5399411 21 12 -0.069266409
6.2129817 3.9231339 -0.64286077 9 5 -0.069264106
6.8541932 4.3280215 1.5757008 29 13 -0.069261804
7.2287121 4.5627437 -0.44799584 0 6 -0.069259502
5.4914813 3.4648683 1.4990739 12 14 -0.0692572
6.5777931 4.1486754 -0.13574483 52 7 -0.06925489
4.5920467 2.8951266 1.4545631 54 15 -0.069252588
3.4442329 2.165592 -1.0901459 11 0 -0.069231853
6.3540473 3.9936163 0.13099776 2 8 -0.069229551
4.0476875 2.5430508 -1.1036098 9 1 -0.069227241
15.342381 9.6354523 0.94947898 78 9 -0.069224939
4.96277 3.116761 -1.1391298 4 2 -0.069222637
6.4004121 4.0180836 0.66116345 40 10 -0.069220334
5.8428187 3.6666174 -1.0925384 72 3 -0.069218025
6.3581877 3.9884827 0.92157602 4 11 -0.069215722
6.9861951 4.3807321 -1.0124906 9 4 -0.06921342
8.2649822 5.1805987 1.5449469 19 12 -0.069211118
6.2097549 3.8908422 -0.64111763 15 5 -0.069208816
6.8459687 4.289474 1.5703582 6 13 -0.069206506
6.2967052 3.9437923 -0.38937956 0 6 -0.069204204
5.2640414 3.2957323 1.433838 3 14 -0.069201902
6.6278319 4.1479654 -0.13647781 56 7 -0.069199599
5.1917214 3.2479284 1.6409128 43 15 -0.06919729
3.4373939 2.1437535 -1.0854871 11 0 -0.069176555
6.2593551 3.9036887 0.12876385 20 8 -0.069174252
4.0532331 2.5268438 -1.1027101 9 1 -0.06917195
15.457284 9.6325464 0.95450324 87 9 -0.069169648
4.9608288 3.0902476 -1.1360768 6 2 -0.069167338
6.3897252 3.978802 0.65854877 29 10 -0.069165036
5.8528657 3.6430893 -1.0919127 74 3 -0.069162734
10.217896 6.3600817 1.4777877 10 11 -0.069160432
8.2796621 5.1496282 1.5443213 19 12 -0.06915582
6.219914 3.8670394 -0.640769 1 5 -0.069153517
6.3680725 3.9576116 1.4573992 2 13 -0.069151215
6.2568269 3.8869617 -0.38603005 6 6 -0.069148906
5.4267373 3.3699684 1.4747791 35 14 -0.069146603
6.5760174 4.0836639 -0.13511653 49 7 -0.069144301
5.2030263 3.2297871 1.6409128 45 15 -0.069141999
3.4366426 2.1266582 -1.0828989 9 0 -0.069121264
6.2923269 3.8922937 0.12914781 22 8 -0.069118954
4.0624666 2.5119715 -1.1027101 9 1 -0.069116652
15.492487 9.5758238 0.95450324 18 9 -0.06911435
4.9715862 3.072911 -1.1360768 6 2 -0.069112048
6.3408608 3.917727 0.65209925 51 10 -0.069109738
5.8521008 3.6143336 -1.0894097 74 3 -0.069107436
10.258032 6.3330145 1.4802252 19 11 -0.069105133
8.2715797 5.1026549 1.5393152 13 12 -0.069100522
6.2170877 3.8337572 -0.63902587 1 5 -0.069098219
6.3150063 3.8941386 1.4421345 3 13 -0.069095917
5.8432827 3.6004403 1.5845551 22 14 -0.069091305
6.5568886 4.038558 -0.13441843 50 7 -0.069089003
5.2115397 3.2086682 1.6398776 43 15 -0.069086701
3.4509997 2.1180909 -1.0849695 9 0 -0.069065966
6.2922421 3.8619359 0.12886856 37 8 -0.069063663
4.061245 2.4916599 -1.1000106 8 1 -0.069061354
6.2212219 3.8153615 0.3824712 40 9 -0.069059052
4.9895096 3.0587735 -1.1376033 4 2 -0.069056749
6.3670697 3.9017458 0.65331942 29 10 -0.069054447
5.8518319 3.5846069 -1.0869068 72 3 -0.069052137
6.3291917 3.8770192 0.91133898 15 11 -0.069049835
1.2493833 0.76502341 -0.17987917 10 4 -0.069047533
8.3078756 5.0850921 1.5427569 33 12 -0.069045231
7.1447697 4.3714681 -0.73280543 31 5 -0.069042921
6.3091373 3.858676 1.4375551 3 13 -0.069040619
6.2282481 3.8077106 -0.38257587 9 6 -0.069038317
5.4108076 3.3066583 1.4639815 21 14 -0.069036014
6.3337717 3.8707013 -0.12956667 57 7 -0.069033712
5.2260051 3.1924725 1.6409128 43 15 -0.069031402
3.4609354 2.1092498 -1.0860047 12 0 -0.069014072
6.3186755 3.8493731 0.12914781 45 8 -0.06901177
4.0628281 2.4741235 -1.0982111 8 1 -0.069009468
15.451531 9.4057674 0.9480136 21 9 -0.069007158
5.000771 3.0441053 -1.1379849 6 2 -0.069004856
6.3265319 3.8496189 0.64791578 42 10 -0.069002554
5.8715057 3.5713334 -1.0884712 77 3 -0.069000252
10.319555 6.2743917 1.4829062 10 11 -0.068997942
1.2196823 0.74128741 -0.17524813 76 4 -0.06899564
8.3246946 5.0575123 1.5427569 15 12 -0.068993337
6.202167 3.7665324 -0.6348424 13 5 -0.068991035
6.3128376 3.8337419 1.4356469 2 13 -0.068988726
6.2094479 3.7694712 -0.38069177 12 6 -0.068986423
5.3761864 3.2623489 1.4518342 46 14 -0.068984121
6.5568686 3.9772429 -0.13385996 51 7 -0.068981819
5.2431698 3.1791327 1.6429834 45 15 -0.068979509
3.4736032 2.0995479 -1.0875577 11 0 -0.068958774
6.3354969 3.8293605 0.12921762 22 8 -0.068956472
4.0814457 2.4659755 -1.1009104 8 1 -0.06895417
6.1649871 3.7233613 0.37744695 8 9 -0.068951868
4.996769 3.016623 -1.1345503 4 2 -0.068949558
6.2843056 3.7924354 0.64216352 27 10 -0.068947256
5.8845553 3.5497904 -1.0884712 86 3 -0.068944953
6.3418393 3.8256419 0.90938914 39 11 -0.068942651
1.2052633 0.72677445 -0.17281075 100 4 -0.068940341
6.3848748 3.8485677 1.1807675 30 12 -0.068938039
7.2238526 4.3525496 -0.7378605 52 5 -0.068935737
6.2982574 3.7933574 1.4291594 2 13 -0.068933435
6.2026882 3.7343266 -0.37943572 12 6 -0.068931125
5.3797579 3.2375989 1.4495846 54 14 -0.068928823
6.5501528 3.9419556 -0.13344111 48 7 -0.068926521
5.2575469 3.1628013 1.6440187 43 15 -0.068924218
3.4693134 2.080456 -1.0839342 10 0 -0.068903483
6.3031802 3.7783561 0.12827519 57 8 -0.068901174
4.0854435 2.4479921 -1.0995607 8 1 -0.068898872
4.9988465 2.9941196 -1.1326423 6 2 -0.068894267
6.2496424 3.741817 0.63728279 45 10 -0.068891957
5.8884363 3.5241544 -1.0869068 60 3 -0.068889655
6.3455963 3.7962589 0.90792668 61 11 -0.068887353
1.201104 0.71827698 -0.1718358 94 4 -0.068885051
8.3513203 4.994206 1.5411925 12 12 -0.068882741
7.1979594 4.3027701 -0.73367703 46 5 -0.068880439
6.3131452 3.7723582 1.4295411 2 13 -0.068878137
6.291132 3.7577143 -0.38404128 5 6 -0.068875834
5.4027395 3.2257917 1.4527339 16 14 -0.068873532
6.5793266 3.9282918 -0.13375525 38 7 -0.068871222
4.658092 2.7800887 1.4535278 18 15 -0.06886892
3.4732344 2.0663569 -1.0828989 12 0 -0.068848185
6.2692752 3.729826 0.12733276 32 8 -0.068845883
4.095212 2.4354296 -1.1000106 8 1 -0.068843573
6.8397841 4.0660157 0.41701293 12 9 -0.068841271
5.0244584 2.9856775 -1.1360768 6 2 -0.068838969
6.2232666 3.6965775 0.6332736 71 10 -0.068836667
5.8831048 3.4945238 -1.0837781 36 3 -0.068834357
6.3035293 3.7427652 0.90012699 43 11 -0.068832055
1.2120148 0.71935558 -0.17305449 100 4 -0.068829753
6.3708162 3.7797062 1.1732587 55 12 -0.06882745
6.3766499 3.7816672 -0.64861304 45 5 -0.068825148
6.308732 3.7413886 1.4257249 2 13 -0.068822838
6.2949691 3.7317374 -0.38351792 63 6 -0.068820536
5.4301715 3.2177935 1.457233 58 14 -0.068818234
6.6188035 3.9205933 -0.13427882 32 7 -0.068815932
4.664444 2.7618423 1.4524926 46 15 -0.068813622
3.4883847 2.0597396 -1.0854871 15 0 -0.068792887
6.2615905 3.6957235 0.12691391 27 8 -0.068790585
4.1053672 2.4221089 -1.1004605 9 1 -0.068788283
6.163435 3.6363399 0.37503949 4 9 -0.068785973
5.0360222 2.9699974 -1.1364584 6 2 -0.068783671
6.2475057 3.6830013 0.63449377 66 10 -0.068781368
5.9037766 3.4789796 -1.0853424 11 3 -0.068779066
6.3114247 3.7177148 0.89939582 66 11 -0.068776764
1.2162288 0.71612793 -0.17329822 100 4 -0.068774454
6.4139538 3.7766011 1.1788902 62 12 -0.068772152
6.3702693 3.7493825 -0.64669561 50 5 -0.06876985
6.3132944 3.7143648 1.4238168 2 13 -0.068767548
6.3423882 3.7299919 -0.38561139 60 6 -0.068765238
6.0427933 3.5523794 1.6182978 43 14 -0.068762936
6.6214261 3.8925405 -0.13406938 16 7 -0.068760633
4.6852355 2.7532113 1.4561161 18 15 -0.068758331
3.4955528 2.0475512 -1.0854871 13 0 -0.068737589
6.2151446 3.6405761 0.12572713 55 8 -0.068735287
4.0898333 2.3946974 -1.094162 8 1 -0.068732984
15.727229 9.2049818 0.95502663 42 9 -0.068730682
5.0514412 2.9553754 -1.1376033 4 2 -0.06872838
6.2482839 3.6541317 0.6332736 49 10 -0.06872607
5.9834876 3.4992733 -1.0978571 1 3 -0.068723768
6.2877312 3.6757245 0.89427733 73 11 -0.068721466
1.2151691 0.71008801 -0.17281075 100 4 -0.068719164
6.4373312 3.7601686 1.1807675 25 12 -0.068716854
6.4418182 3.7612782 -0.65262216 50 5 -0.068714552
6.3238826 3.6924176 1.4234352 2 13 -0.068712249
6.1994758 3.6183314 -0.37619087 49 6 -0.068709947
6.4501414 3.761611 -0.13033457 97 7 -0.068705335
5.3056602 3.0929317 1.6455716 43 15 -0.068703033
3.5023243 2.0359471 -1.0854871 12 0 -0.068682298
6.2779565 3.6479933 0.12673938 82 8 -0.068679996
4.1167035 2.3911719 -1.0991108 9 1 -0.068677686
15.831806 9.1921511 0.95942283 60 9 -0.068675384
5.0408406 2.9267771 -1.1330239 6 2 -0.068673082
6.2310739 3.6163881 0.6303103 59 10 -0.068670779
1.2319396 0.71470517 -0.22557852 7 3 -0.06866847
6.3262815 3.6686928 0.89793342 55 11 -0.068666168
1.2142055 0.70385051 -0.17232326 100 4 -0.068663865
6.3393221 3.6732993 1.160431 23 12 -0.068661563
6.5111437 3.7728605 -0.65837449 43 5 -0.068659253
6.3486242 3.6772094 1.4261066 1 13 -0.068656951
6.2863932 3.6396997 -0.38069177 51 6 -0.068654649
5.4647045 3.1626844 1.4576828 20 14 -0.068652347
6.5307379 3.778127 -0.13169587 57 7 -0.068650037
5.3214421 3.0772927 1.6471245 46 15 -0.068647735
3.5027153 2.01985 -1.0834166 14 0 -0.068627
6.2819886 3.6210647 0.12656485 95 8 -0.068624698
4.1182709 2.3728967 -1.0973113 9 1 -0.068622395
15.933023 9.1767073 0.9636097 27 9 -0.068620086
5.0629349 2.9160237 -1.1356952 9 2 -0.068617783
6.2522941 3.5995841 0.6311819 28 10 -0.068615481
1.239563 0.71335667 -0.22651713 66 3 -0.068613179
6.3201203 3.6357007 0.89525223 40 11 -0.068610869
1.2200971 0.70158666 -0.17281075 100 4 -0.068608567
8.4757528 4.8718095 1.5483886 13 12 -0.068606265
6.4050841 3.681602 -0.64634699 10 5 -0.068603963
6.3478041 3.6472001 1.4230535 1 13 -0.068601653
6.3995132 3.6754248 -0.38676277 45 6 -0.068599351
5.9539895 3.41817 1.5850052 66 14 -0.068597049
6.2663832 3.5960562 -0.12611109 54 7 -0.068594746
5.3137197 3.0481236 1.6414305 39 15 -0.068592444
3.4996822 2.0018563 -1.0803107 15 0 -0.068571702
6.2320967 3.5633795 0.12530828 85 8 -0.068569399
4.1231456 2.3565717 -1.0964113 8 1 -0.068567097
6.1806545 3.5311081 0.37305072 19 9 -0.068564795
5.0594449 2.8905427 -1.1326423 6 2 -0.068562485
6.3184538 3.6083684 0.63658553 26 10 -0.068560183
1.2197437 0.69629401 -0.22244984 96 3 -0.068557881
6.30691 3.5988612 0.8915962 58 11 -0.068555579
1.2225385 0.69732368 -0.17281075 100 4 -0.068553269
8.5133009 4.8539324 1.552143 24 12 -0.068550967
6.6117501 3.7697465 -0.66586983 2 5 -0.068548664
6.3707299 3.6308539 1.4253433 2 13 -0.068546362
6.2335567 3.5512342 -0.37598157 53 6 -0.06854406
5.4849572 3.1234918 1.457233 18 14 -0.06854175
6.2284989 3.5454736 -0.12509885 46 7 -0.068539448
5.3377585 3.0372009 1.6455716 11 15 -0.068537146
3.5150506 1.9943937 -1.0828989 9 0 -0.068516411
6.2862425 3.5652816 0.12614599 100 8 -0.068514101
4.1330414 2.343127 -1.0968614 9 1 -0.068511799
16.158302 9.1568289 0.97334427 33 9 -0.068509497
5.0660887 2.8709269 -1.131879 9 2 -0.068507195
6.2755356 3.554868 0.63100755 76 10 -0.068504885
1.2032584 0.68132579 -0.21900828 99 3 -0.068502583
6.2969766 3.564111 0.88842762 47 11 -0.06850028
1.2284207 0.69500667 -0.17329822 100 4 -0.068497978
8.5439472 4.8319674 1.5546459 13 12 -0.068495676
1.2122467 0.68557733 -0.12184373 2 5 -0.068493366
6.3833642 3.6085949 1.4253433 1 13 -0.068491064
6.6528049 3.759377 -0.40047479 47 6 -0.068488762
5.4720712 3.0909102 1.4509343 43 14 -0.06848646
6.4480515 3.6407101 -0.12925252 13 7 -0.06848415
5.3887062 3.0413373 1.6579949 18 15 -0.068481848
3.5253584 1.9840058 -1.0839342 14 0 -0.068461113
6.2899342 3.5384161 0.12597147 100 8 -0.06845881
4.1327028 2.3239088 -1.0946118 8 1 -0.068456501
16.261551 9.1404896 0.97763574 28 9 -0.068454199
5.0846367 2.8580344 -1.1337872 2 2 -0.068451896
6.3678074 3.5778358 0.63902587 57 10 -0.068449594
1.2142413 0.68195778 -0.22057262 96 3 -0.068447292
6.2782226 3.5246148 0.8840403 56 11 -0.068444982
1.2239143 0.68682939 -0.17232326 100 4 -0.06844268
6.3296924 3.5506053 1.1494806 12 12 -0.068440378
1.2128948 0.68036652 -0.12166941 17 5 -0.068438075
7.1271305 3.9962883 1.5882941 18 13 -0.068435766
6.4306793 3.6043069 -0.38634408 47 6 -0.068433464
5.4641275 3.0613115 1.4459854 45 14 -0.068431161
6.2862492 3.520469 -0.12576205 27 7 -0.068428859
4.7536659 2.6610944 1.4597394 18 15 -0.068426549
3.5305755 1.9707472 -1.0834166 15 0 -0.068405814
6.1590552 3.4365399 0.12310927 15 8 -0.068403512
4.1305785 2.3037722 -1.0919124 8 1 -0.06840121
6.3889604 3.5604339 0.63989747 51 10 -0.068394296
1.2166145 0.67771482 -0.22057262 96 3 -0.068391994
10.636768 5.9227839 1.4948496 15 11 -0.068389691
1.2193664 0.67869091 -0.1713483 100 4 -0.068387382
6.4369893 3.5813088 1.1666883 10 12 -0.06838508
1.22745 0.68290895 -0.12288959 76 5 -0.068382777
7.1547613 3.9790204 1.5913471 25 13 -0.068380475
6.1901026 3.4411244 -0.37116665 11 6 -0.068378165
5.4594498 3.0336988 1.4419363 50 14 -0.068375863
6.3247209 3.5130708 -0.12628561 19 7 -0.068373561
4.7848835 2.6566744 1.4664688 15 15 -0.068371259
3.5306728 1.9546672 -1.0813459 9 0 -0.068350524
6.1500168 3.4034021 0.12269042 12 8 -0.068348214
4.1351829 2.287456 -1.0910126 8 1 -0.068345912
6.1699295 3.4116054 0.3694919 10 9 -0.06834361
6.4030943 3.5390728 0.64007175 49 10 -0.068338998
1.2258884 0.67728579 -0.22182411 96 3 -0.068336695
10.671281 5.8932924 1.4967993 19 11 -0.068334393
1.2165146 0.671552 -0.1706171 100 4 -0.068332091
6.4304242 3.5483241 1.1632469 65 12 -0.068329781
1.2141261 0.66995782 -0.12132079 100 5 -0.068327479
7.1651697 3.9521232 1.5905839 26 13 -0.068325177
6.1898341 3.412744 -0.37043396 30 6 -0.068322875
5.476831 3.0183895 1.4437358 16 14 -0.068320565
6.3859878 3.517987 -0.12726295 97 7 -0.068318263
4.7602835 2.6213174 1.4561161 35 15 -0.06831596
3.5323932 1.9395442 -1.0797932 12 0 -0.068295226
6.1793904 3.3915334 0.12303946 50 8 -0.068292923
4.1568108 2.2805049 -1.0946118 8 1 -0.068290614
6.7054124 3.6771977 0.40078878 23 9 -0.068288311
6.6233149 3.6306686 0.66081482 94 10 -0.068283707
1.2161186 0.66635758 -0.21963401 100 3 -0.068281397
6.2625537 3.4300737 0.87672812 13 11 -0.068279095
1.2275573 0.67206824 -0.1718358 100 4 -0.068276793
6.4704976 3.5410278 1.1682527 81 12 -0.068274491
1.2112139 0.66284579 -0.12079786 100 5 -0.068272181
7.1789231 3.9270861 1.5905839 25 13 -0.068269879
6.2420135 3.4131572 -0.37284139 6 6 -0.068267576
5.5232444 3.0188794 1.4531839 1 14 -0.068265274
6.4842181 3.5426524 -0.12897329 59 7 -0.068262972
4.7439718 2.5907967 1.4483514 52 15 -0.068260662
3.5425353 1.9290487 -1.0808283 14 0 -0.068239927
6.1771417 3.3622932 0.12276023 2 8 -0.068237625
4.1493402 2.2576001 -1.0905627 9 1 -0.068235323
6.7006626 3.6442249 0.39974207 8 9 -0.068233013
1.277993 0.69504976 -0.28277895 1 2 -0.068230711
6.6674571 3.6246538 0.66395247 83 10 -0.068228409
1.2132303 0.65927923 -0.21869542 99 3 -0.068226106
6.2692566 3.4053481 0.87599689 39 11 -0.068223797
1.233385 0.6696732 -0.17232326 100 4 -0.068221495
6.4515672 3.5014603 1.162621 71 12 -0.068219192
1.2117692 0.6576637 -0.12062354 100 5 -0.06821689
7.1960359 3.9038804 1.5913471 25 13 -0.068214588
6.2099967 3.3675435 -0.3702246 7 6 -0.068212278
6.2515931 3.3886921 1.6416928 8 14 -0.068209976
6.4877515 3.5152378 -0.12879875 65 7 -0.068207674
4.7631793 2.57974 1.4514573 28 15 -0.068205371
3.549248 1.9166703 -1.0808283 9 0 -0.068184629
6.1642022 3.3274164 0.12227156 2 8 -0.068182327
4.1503358 2.2393997 -1.0887631 8 1 -0.068180025
6.5041556 3.5079868 0.38728613 2 9 -0.068177722
1.230301 0.66355723 -0.27171201 13 2 -0.06817542
6.6555138 3.5881257 0.66151208 90 10 -0.06817311
1.2172632 0.65597701 -0.21900828 100 3 -0.068170808
6.2653775 3.3749695 0.87380332 61 11 -0.068168506
1.2217321 0.65783584 -0.17037337 100 4 -0.068166204
6.4446173 3.4686189 1.1591796 76 12 -0.068163894
1.2210754 0.65720659 -0.12132079 100 5 -0.068161592
7.216536 3.8824565 1.5928736 26 13 -0.06815929
6.1794963 3.3231444 -0.36771247 8 6 -0.068156987
6.2101746 3.3382452 1.6277459 17 14 -0.068154678
6.4788456 3.4812102 -0.12837991 68 7 -0.068152376
5.4120727 2.9067953 1.6460892 45 15 -0.068150073
3.5542135 1.9033582 -1.0803107 13 0 -0.068129338
6.1987 3.3181458 0.12272533 90 8 -0.068127036
4.1753101 2.2340915 -1.0932621 9 1 -0.068124726
6.218142 3.3271534 0.36959657 17 9 -0.068122424
1.2118353 0.64814776 -0.26713261 57 2 -0.068120122
6.2463069 3.3394237 0.61967731 78 10 -0.06811782
1.2230301 0.65358567 -0.21963401 100 3 -0.06811551
6.2596102 3.3437269 0.8713659 89 11 -0.068113208
1.2205188 0.65169686 -0.16988587 100 4 -0.068110906
6.4090357 3.4221087 1.150732 75 12 -0.068108603
1.2198467 0.65106368 -0.12097216 100 5 -0.068106294
7.2369719 3.8609402 1.5943999 25 13 -0.068103991
6.1981072 3.3053141 -0.36813116 21 6 -0.068101689
6.1994343 3.3046286 1.6218971 37 14 -0.068099387
6.4727082 3.4502983 -0.12803085 70 7 -0.068097077
5.4319115 2.894284 1.649195 45 15 -0.068094775
3.5642483 1.892751 -1.0813459 17 0 -0.06807404
6.2043715 3.2947567 0.12262061 15 8 -0.068071738
4.1792521 2.2184088 -1.0923624 9 1 -0.068069436
6.1803164 3.2792211 0.36666575 87 9 -0.068067126
1.2227626 0.64851278 -0.2690407 93 2 -0.068064824
6.2403235 3.3082659 0.61793417 87 10 -0.068062522
1.226936 0.6504519 -0.21994688 99 3 -0.068060219
6.396955 3.3898728 0.88891506 100 11 -0.06805791
1.2191651 0.64578718 -0.16939841 100 4 -0.068055607
6.4191971 3.3987899 1.1504192 72 12 -0.068053305
1.2185899 0.64493787 -0.12062354 100 5 -0.068051003
7.260148 3.8424284 1.5966897 25 13 -0.068048693
6.2019734 3.2810049 -0.36771247 22 6 -0.068046391
5.5316114 2.9251306 1.4446357 13 14 -0.068044089
6.4634967 3.4164708 -0.12761199 68 7 -0.068041787
4.7843666 2.527849 1.4499043 11 15 -0.068039477
3.5602503 1.8755198 -1.0782403 13 0 -0.068018742
16.840965 8.8679705 0.33222401 34 8 -0.06801644
4.1938686 2.2074366 -1.094162 9 1 -0.068014137
6.1740503 3.2483263 0.36561903 97 9 -0.068011835
1.2266437 0.64536875 -0.26942232 100 2 -0.068009526
6.2847638 3.3051753 0.6212461 90 10 -0.068007223
1.2204564 0.64156961 -0.21838254 100 3 -0.068004921
6.2822251 3.3010416 0.8713659 78 11 -0.068002619
1.2319561 0.64706612 -0.17086083 100 4 -0.068000309
6.4100332 3.3653445 1.1466647 67 12 -0.067998007
1.2101375 0.63533676 -0.11957768 100 5 -0.067995705
7.2700391 3.8152397 1.5959265 25 13 -0.067993402
6.1992393 3.2519119 -0.36687508 7 6 -0.067991093
5.5555944 2.9130445 1.4482349 46 14 -0.067988791
6.4647555 3.3883197 -0.12740256 68 7 -0.067986488
5.4417186 2.8509097 1.6460892 41 15 -0.067984186
3.5701993 1.8648702 -1.0792755 13 0 -0.067963451
16.94095 8.8452215 0.33358529 28 8 -0.067961141
4.1980934 2.1909792 -1.0932621 2 1 -0.067958839
6.1888924 3.2286038 0.36582837 42 9 -0.067956537
1.2288889 0.6410833 -0.26942232 100 2 -0.067954235
6.2944975 3.2822945 0.62107182 78 10 -0.067951925
1.2209369 0.63639212 -0.21806967 100 3 -0.067949623
6.3535652 3.3102794 0.87965298 79 11 -0.067947321
1.2377287 0.64459538 -0.1713483 100 4 -0.067945018
6.3866987 3.3247046 1.1404074 53 12 -0.067942709
1.2158825 0.63294834 -0.1199263 100 5 -0.067940407
7.2798285 3.7880282 1.5951633 25 13 -0.067938104
6.2725697 3.2625105 -0.37053862 0 6 -0.067935802
5.5640016 2.8927338 1.447785 28 14 -0.0679335
6.462348 3.3583574 -0.12712333 64 7 -0.06793119
5.46878 2.8408039 1.6512655 46 15 -0.067928888
3.5801187 1.8541726 -1.0803107 12 0 -0.067908153
17.053411 8.8283253 0.33519092 31 8 -0.067905851
6.1983519 3.2060618 0.3657237 14 9 -0.067901239
1.234607 0.63859338 -0.27018553 100 2 -0.067898937
6.2864475 3.2502387 0.61915439 95 10 -0.067896634
1.2266605 0.63394058 -0.21869542 100 3 -0.067894325
6.4797211 3.3472996 0.89549601 57 11 -0.067892022
1.2293884 0.63480663 -0.16988587 100 4 -0.06788972
6.4175735 3.3123581 1.1438489 66 12 -0.067887418
1.2251662 0.63235575 -0.12062354 100 5 -0.067885116
7.3034768 3.767993 1.597453 25 13 -0.067882806
1.2567837 0.64811927 -0.074107721 1 6 -0.067880504
5.5411534 2.8563306 1.4392369 48 14 -0.067878202
6.4527006 3.3247862 -0.12670447 64 7 -0.067875899
5.4820976 2.8234673 1.6523008 46 15 -0.06787359
3.5865698 1.8416634 -1.0803107 14 0 -0.067852855
17.190863 8.823535 0.33728519 34 8 -0.067850552
6.1810708 3.1698222 0.36404896 19 9 -0.067845948
1.2263471 0.62890434 -0.26789585 100 2 -0.067843638
6.2995272 3.2291851 0.61932868 100 10 -0.067841336
1.2323822 0.63145608 -0.21932115 100 3 -0.067839034
10.915531 5.5905666 1.5058178 17 11 -0.067836732
1.2245284 0.62689322 -0.16891092 100 4 -0.067834422
6.3429303 3.2458408 1.1285183 87 12 -0.06783212
1.2273663 0.62807494 -0.12062354 100 5 -0.067829818
7.3340635 3.7514141 1.6012691 6 13 -0.067827515
1.2252506 0.62645346 -0.072118953 11 6 -0.067825206
5.5528259 2.8378565 1.4396867 39 14 -0.067822903
6.4607067 3.300421 -0.12663467 65 7 -0.067820601
5.4592295 2.7876229 1.6424657 13 15 -0.067818299
3.5878112 1.826504 -1.0787579 12 0 -0.067797564
17.319584 8.8133497 0.33920497 31 8 -0.067795254
1.2922961 0.65732253 -0.33472717 1 1 -0.067792952
6.1849761 3.1446075 0.36363026 93 9 -0.06779065
1.2267848 0.62373024 -0.26751423 100 2 -0.067788348
6.3036566 3.2035637 0.61863148 100 10 -0.067786038
1.2345787 0.62715065 -0.21932115 100 3 -0.067783736
10.949138 5.5596228 1.5077677 33 11 -0.067781433
1.2249393 0.6217162 -0.16866718 100 4 -0.067779131
6.3436513 3.2183189 1.1266412 50 12 -0.067776822
1.2188903 0.61837846 -0.11957768 100 5 -0.067774519
7.3523664 3.7284565 1.6024141 12 13 -0.067772217
1.2381189 0.62759048 -0.072746992 45 6 -0.067769915
6.443644 3.2633941 -0.12607619 67 7 -0.067765303
5.5016751 2.7851262 1.6523008 46 15 -0.067763001
3.5855422 1.809616 -1.0761696 9 0 -0.067742266
17.453791 8.8050823 0.34122944 21 8 -0.067739964
1.2423819 0.62648439 -0.32123011 14 1 -0.067737654
18.363024 9.255722 1.0777022 38 9 -0.067735352
1.2307078 0.62032753 -0.26789585 100 2 -0.067733049
6.3059034 3.1770592 0.61775988 100 10 -0.067730747
1.2332317 0.62106061 -0.21869542 100 3 -0.067728437
10.970253 5.5222592 1.5080113 33 11 -0.067726135
1.2324218 0.62011361 -0.16939841 100 4 -0.067723833
6.3954349 3.2165713 1.1338371 43 12 -0.067721531
1.2139215 0.61053944 -0.11888044 100 5 -0.067719221
6.2848306 3.1595654 1.3673373 6 13 -0.067716919
1.2224561 0.61429662 -0.071700267 71 6 -0.067714617
5.5690188 2.7972746 1.438787 1 14 -0.067712314
6.4371262 3.2319074 -0.12572713 63 7 -0.067710012
5.5061846 2.7633038 1.6507479 50 15 -0.067707703
3.598747 1.8005494 -1.0782403 11 0 -0.067689419
17.561329 8.7825603 0.34273034 3 8 -0.067687117
1.2184151 0.60907328 -0.31448159 56 1 -0.067684814
18.484547 9.2362156 1.0829357 84 9 -0.067682505
1.2363777 0.61778367 -0.26865909 100 2 -0.067680202
6.2866545 3.1398921 0.61479658 100 10 -0.0676779
1.2283227 0.61322242 -0.21744394 100 3 -0.067675598
10.994787 5.4865985 1.5087426 38 11 -0.067673288
1.2416847 0.6193518 -0.17037337 100 4 -0.067670986
6.3871789 3.1845305 1.1303955 13 12 -0.067668684
1.2231777 0.60985398 -0.11957768 100 5 -0.067666382
6.3415046 3.1603804 1.3772594 1 13 -0.067664072
1.229956 0.6126976 -0.07201428 100 6 -0.06766177
5.6084051 2.7925828 1.4464353 16 14 -0.067659467
6.441205 3.2058585 -0.12558752 61 7 -0.067657165
4.8498878 2.4127836 1.4514573 30 15 -0.067654856
3.6032796 1.787117 -1.0777225 10 0 -0.067634121
18.537855 9.1901693 0.3611601 100 8 -0.067631818
1.2257719 0.60741252 -0.31583127 99 1 -0.067629516
18.586475 9.2062044 1.0870179 76 9 -0.067627214
1.2385268 0.61346388 -0.26865909 100 2 -0.067624904
6.3207893 3.1294193 0.61706263 100 10 -0.067622602
1.2339965 0.61068356 -0.21806967 100 3 -0.0676203
6.2328916 3.0831964 0.85381669 34 11 -0.067617998
1.2331623 0.6097343 -0.16891092 100 4 -0.067615688
6.2778344 3.1027009 1.1091205 8 12 -0.067613386
1.2252988 0.60558081 -0.11957768 100 5 -0.067611083
7.3910069 3.6512606 1.6024141 22 13 -0.067608781
1.2231333 0.60397869 -0.071490921 100 6 -0.067606471
6.3310862 3.1248965 1.6299953 42 14 -0.067604169
6.2712321 3.0939927 -0.12206213 56 7 -0.067601867
4.8513508 2.3924205 1.4493867 50 15 -0.067599565
3.6129639 1.776232 -1.0787579 9 0 -0.06757883
18.677498 9.1783333 0.3632544 100 8 -0.06757652
1.2401288 0.60914391 -0.3189806 100 1 -0.067574218
18.720881 9.1955862 1.0930889 25 9 -0.067571916
1.2336116 0.60567546 -0.26713261 100 2 -0.067569613
6.3263068 3.1047075 0.61653972 100 10 -0.067567304
1.2361208 0.60637212 -0.21806967 100 3 -0.067565002
11.041738 5.4140711 1.5099612 36 11 -0.067562699
1.2245877 0.6001851 -0.16744849 100 4 -0.067560397
6.2898622 3.0827367 1.1094334 6 12 -0.067558087
1.230984 0.60305279 -0.1199263 100 5 -0.067555785
7.4125228 3.6297536 1.6043221 26 13 -0.067553483
1.2216458 0.59795022 -0.071281582 100 6 -0.067551181
6.3402066 3.1019201 1.6295455 39 14 -0.067548878
6.2132015 3.0397835 -0.12073575 60 7 -0.067546569
3.6121953 1.7602254 -1.0766873 11 0 -0.067523532
18.759966 9.1417456 0.36426663 100 8 -0.067521229
1.2403898 0.60417497 -0.31853068 100 1 -0.06751892
18.745682 9.126688 1.0926702 47 9 -0.067516617
1.2286569 0.59792954 -0.26560614 100 2 -0.067514315
6.3263559 3.0773747 0.61549383 100 10 -0.067512013
1.2416775 0.60399806 -0.21869542 100 3 -0.067509703
11.0757 5.3852353 1.5121549 38 11 -0.067507401
1.233713 0.59959143 -0.16842344 100 4 -0.067505099
8.8734131 4.3106141 1.5624677 10 12 -0.067502797
1.2259125 0.59527069 -0.11922905 100 5 -0.067500494
7.4386492 3.6120117 1.6073751 25 13 -0.067498185
1.2272158 0.59563965 -0.071490921 100 6 -0.067495883
6.3522105 3.0817297 1.6299953 14 14 -0.06749358
6.2183771 3.0154574 -0.12063103 51 7 -0.067491278
5.5628824 2.6963947 1.6564419 45 15 -0.067488968
3.6075752 1.7431948 -1.0735815 9 0 -0.067468233
18.732342 9.0474997 0.36311477 100 8 -0.067465931
1.246001 0.60153627 -0.3194305 100 1 -0.067463629
18.757635 9.0516539 1.0915188 100 9 -0.067461319
1.2359374 0.59641188 -0.26675099 100 2 -0.067459017
6.282691 3.0304096 0.61026448 100 10 -0.067456715
1.2331018 0.59451306 -0.21681818 100 3 -0.067454413
11.101578 5.3499951 1.5131298 35 11 -0.06745211
1.2393755 0.59700394 -0.16891092 100 4 -0.067449801
8.9186621 4.2941837 1.5677863 13 12 -0.067447498
1.2206987 0.58774567 -0.1185318 100 5 -0.067445196
7.45121 3.5860291 1.6073751 16 13 -0.067442894
1.2328874 0.59308356 -0.071700267 100 6 -0.067440584
5.6498885 2.7166789 1.4473351 13 14 -0.067438282
6.4127011 3.0820937 -0.12419132 27 7 -0.06743598
5.5670376 2.6744492 1.6548891 48 15 -0.067433678
3.6118965 1.7297561 -1.0730639 3 0 -0.067412935
18.715107 8.9587479 0.36217234 100 8 -0.067410633
1.2322724 0.58961302 -0.31538138 100 1 -0.067408331
18.740471 8.9628506 1.0886927 100 9 -0.067406029
1.241554 0.59378779 -0.26751423 100 2 -0.067403726
6.3363714 3.0290854 0.61444795 100 10 -0.067401417
1.2280403 0.58679813 -0.21556671 100 3 -0.067399114
6.2371926 2.9789991 0.84869814 19 11 -0.067396812
1.2414517 0.59267437 -0.16891092 100 4 -0.06739451
8.9656878 4.2783365 1.573418 27 12 -0.0673922
1.2263395 0.58519691 -0.11888044 100 5 -0.067389898
7.4654541 3.5608406 1.6077567 9 13 -0.067387596
1.2241328 0.58361948 -0.071072236 100 6 -0.067385294
5.636467 2.6860433 1.4414864 37 14 -0.067382984
6.4270325 3.061409 -0.12426113 12 7 -0.067380682
5.5868039 2.6599841 1.6579949 48 15 -0.067378379
6.5980482 3.1301641 0.12747237 22 8 -0.067355342
1.236084 0.58614266 -0.31583127 100 1 -0.067353033
18.722912 8.8742867 1.0858666 100 9 -0.06735073
1.2382967 0.58692795 -0.26636937 100 2 -0.067348428
6.3505063 3.0086563 0.61479658 100 10 -0.067346126
1.2372226 0.58588928 -0.21681818 100 3 -0.067343816
11.145836 5.2757587 1.5141048 38 11 -0.067341514
1.2309521 0.58239472 -0.16720475 100 4 -0.067339212
8.9930696 4.2529235 1.5756081 42 12 -0.067336909
1.2283748 0.58091223 -0.11888044 100 5 -0.0673346
7.4689636 3.5305662 1.6058486 21 13 -0.067332298
1.2225509 0.57763666 -0.070862897 100 6 -0.067329995
5.6281881 2.6580286 1.4369874 45 14 -0.067327693
6.4322534 3.036396 -0.12415642 1 7 -0.067325383
5.603044 2.6437626 1.6600655 48 15 -0.067323081
1.2586573 0.59201097 -0.37269944 4 0 -0.067302346
6.610745 3.1079626 0.12750728 72 8 -0.067300044
1.2363586 0.58099574 -0.31538138 100 1 -0.067297742
18.692314 8.7800016 1.0823077 84 9 -0.067295432
1.2278993 0.57675892 -0.26369804 100 2 -0.06729313
6.3591671 2.9856222 0.61462229 100 10 -0.067290828
1.2356836 0.57988888 -0.21619245 100 3 -0.067288525
11.162387 5.2359743 1.5138612 15 11 -0.067286216
1.2311804 0.57725132 -0.16696103 100 4 -0.067283913
9.004282 4.2198315 1.5749824 45 12 -0.067281611
1.2321991 0.57746667 -0.11905474 100 5 -0.067279309
6.2829642 2.9431562 1.3486381 4 13 -0.067276999
1.2281774 0.57505918 -0.071072236 100 6 -0.067274697
5.6639061 2.650758 1.4437358 16 14 -0.067272395
1.2824044 0.5999037 -0.024712607 16 7 -0.067270093
5.6139879 2.6250076 1.660583 46 15 -0.06726779
1.2554631 0.58516568 -0.3711465 56 0 -0.067247048
6.4856057 3.0215337 0.12488942 90 8 -0.067244746
1.2507452 0.58243531 -0.31853068 100 1 -0.067242444
6.2614703 2.9144533 0.36195552 17 9 -0.067240141
1.229905 0.57246947 -0.26369804 100 2 -0.067237832
6.3117433 2.9365134 0.60904431 100 10 -0.067235529
1.2412823 0.57723814 -0.21681818 100 3 -0.067233227
11.185999 5.1994858 1.5145923 3 11 -0.067230925
1.2331878 0.57295042 -0.16696103 100 4 -0.067228615
6.2330065 2.8945863 1.0884712 18 12 -0.067226313
1.2287862 0.57064402 -0.1185318 100 5 -0.067224011
6.2700496 2.910459 1.343677 1 13 -0.067221709
1.2338008 0.57244998 -0.071281582 100 6 -0.067219406
1.2373202 0.5735575 -0.023805084 54 7 -0.067214794
4.9640479 2.3000255 1.4659511 26 15 -0.067212492
1.2417136 0.57348925 -0.36648777 100 0 -0.067191757
6.6086793 3.0508394 0.12705351 77 8 -0.067189448
1.25454 0.57888263 -0.3189806 100 1 -0.067187145
18.664284 8.6083031 1.0771787 17 9 -0.067184843
1.2301131 0.56735027 -0.26331642 100 2 -0.067182541
6.3671904 2.9353149 0.61340207 100 10 -0.067180231
1.2361134 0.56959528 -0.21556671 100 3 -0.067177929
11.227518 5.1712055 1.5177609 10 11 -0.067175627
1.2441963 0.57279271 -0.16817972 100 4 -0.067173325
9.0263424 4.1535683 1.5737309 19 12 -0.067171022
1.2307702 0.56635213 -0.1185318 100 5 -0.067168713
6.2373638 2.8688672 1.3345182 37 13 -0.06716641
1.2394209 0.56980795 -0.071490921 100 6 -0.067164108
6.5003519 2.9870796 1.6515907 50 14 -0.067161806
1.2429489 0.57090443 -0.023874892 98 7 -0.067159496
4.936933 2.2665617 1.4555984 39 15 -0.067157194
1.2472211 0.57075942 -0.36752307 100 0 -0.067136459
6.575644 3.0077903 0.1262158 77 8 -0.067134157
1.2441472 0.56882751 -0.31583127 100 1 -0.067131847
18.699673 8.5455856 1.0774928 49 9 -0.067129545
1.2374431 0.56550056 -0.26446128 100 2 -0.067127243
6.3683357 2.9089339 0.61253053 100 10 -0.06712494
1.2345004 0.56363577 -0.21494098 100 3 -0.067122638
11.240085 5.1295075 1.5170298 10 11 -0.067120329
1.246188 0.5684464 -0.16817972 100 4 -0.067118026
9.0443811 4.1236715 1.5743566 15 12 -0.067115724
1.2345529 0.56287879 -0.11870612 100 5 -0.067113422
6.261632 2.8535886 1.3375711 10 13 -0.067111112
1.2304968 0.56051075 -0.070862897 100 6 -0.06710881
6.5337944 2.9748702 1.6574394 53 14 -0.067106508
1.2431144 0.56573373 -0.023839988 100 7 -0.067104205
4.9870176 2.2685134 1.4680218 13 15 -0.067101896
1.2474463 0.56560487 -0.36700544 100 0 -0.067081161
6.2782912 2.8453164 0.12031689 100 8 -0.067078859
1.2390249 0.5612644 -0.31403166 100 1 -0.067076556
18.69663 8.4654446 1.0756086 45 9 -0.067074254
1.2411975 0.56198829 -0.2648429 100 2 -0.067071944
6.3838973 2.8891492 0.6130535 100 10 -0.067069642
1.2400601 0.56095111 -0.21556671 100 3 -0.06706734
11.245257 5.0845242 1.5153236 5 11 -0.067065038
1.2336932 0.55755234 -0.1662298 100 4 -0.067062728
9.0839252 4.1034579 1.5787368 25 12 -0.067060426
1.2328788 0.55692512 -0.11835749 100 5 -0.067058124
6.2554488 2.8244472 1.3341365 21 13 -0.067055821
1.2288051 0.55456859 -0.070653543 100 6 -0.067053512
6.5281525 2.9448309 1.6533903 58 14 -0.06705121
1.246904 0.56221378 -0.023874892 100 7 -0.067048907
5.6483312 2.5455737 1.6600655 43 15 -0.067046605
1.2529377 0.56282985 -0.36804068 100 0 -0.06702587
6.3046036 2.8307538 0.12063103 92 8 -0.06702356
1.2427543 0.55773419 -0.31448159 100 1 -0.067021258
6.2250152 2.7924118 0.35755929 17 9 -0.067018956
1.2324041 0.55283076 -0.26255319 100 2 -0.067016654
6.2939534 2.8220131 0.60346633 76 10 -0.067014344
1.2456158 0.55823505 -0.21619245 100 3 -0.067012042
6.2537656 2.8013763 0.84138602 63 11 -0.06700974
1.2356322 0.55324227 -0.1662298 100 4 -0.067007437
6.2169185 2.7822657 1.0787722 35 12 -0.067005128
