# .PCD v0.7 - Point Cloud Data file format
VERSION 0.7
FIELDS x y z intensity ring time
SIZE 4 4 4 4 2 4
TYPE F F F F U F
COUNT 1 1 1 1 1 1
WIDTH 949
HEIGHT 1
VIEWPOINT 0 0 0 1 0 0 0
POINTS 949
DATA ascii
2.3434281 -3.0397096 0.74606317 22 13 -0.056732208
1.353279 -1.7560002 -0.11618583 2 6 -0.056729905
2.3238606 -3.0165055 0.87910873 34 14 -0.056727599
1.343335 -1.744356 -0.038430199 6 7 -0.056725297
2.3109264 -3.0018828 1.0150883 34 15 -0.056722991
2.1722243 -2.8298745 0.062270187 5 8 -0.056699954
1.5920386 -2.074785 -0.60376859 1 1 -0.056697648
2.5028744 -3.2629886 0.21551949 9 9 -0.056695346
2.6344106 -3.4357135 0.37877885 80 10 -0.056690738
1.4540721 -1.8970394 -0.37857145 1 3 -0.056688432
2.6259818 -3.4271972 0.5301317 78 11 -0.056686129
1.3591641 -1.7745012 -0.2744498 1 4 -0.056683823
2.6203454 -3.4223146 0.68268013 79 12 -0.056681521
1.3541596 -1.7686067 -0.19488023 2 5 -0.056679215
2.3172913 -3.0276041 0.74110222 27 13 -0.056676913
1.3435003 -1.7559546 -0.11587181 3 6 -0.056674607
2.3062134 -3.0153112 0.87640929 33 14 -0.056672305
1.3323798 -1.7426802 -0.038290579 6 7 -0.056670003
2.2980876 -3.0068612 1.0140531 34 15 -0.056667697
1.5518613 -2.0356348 -0.68587047 1 0 -0.056646962
2.1768777 -2.8565261 0.062689044 11 8 -0.056644656
1.5092083 -1.9811188 -0.57497489 1 1 -0.056642354
2.4612186 -3.2319813 0.21290269 1 9 -0.056640048
1.4285138 -1.8758714 -0.45832324 7 2 -0.056637745
2.6175749 -3.4385469 0.37808162 80 10 -0.056635439
1.4474413 -1.9021035 -0.37857145 1 3 -0.056633137
2.5959749 -3.4126439 0.52647561 42 11 -0.056630831
1.3505585 -1.7760745 -0.27396232 1 4 -0.056628529
2.602406 -3.4235771 0.68111575 78 12 -0.056626223
1.3479778 -1.7733228 -0.19488023 2 5 -0.056623921
2.3078964 -3.0372379 0.74148381 33 13 -0.056621619
1.3446112 -1.7701764 -0.11649985 4 6 -0.056619313
2.2838895 -3.0078228 0.87191027 33 14 -0.05661701
1.3383787 -1.7632487 -0.038639627 6 7 -0.056614704
2.2840748 -3.0102477 1.0125002 32 15 -0.056612402
1.5121026 -1.9979079 -0.67137665 1 0 -0.056591664
2.1825778 -2.8848383 0.063142806 1 8 -0.056589361
1.5022838 -1.9863749 -0.57497489 1 1 -0.056587055
2.4065602 -3.1831977 0.2091345 1 9 -0.056584753
1.4882597 -1.968546 -0.47969386 1 2 -0.056582447
2.6007512 -3.4413052 0.37738436 77 10 -0.056580145
1.4407929 -1.9071444 -0.37857145 1 3 -0.056577839
2.5613167 -3.3915863 0.52184457 30 11 -0.056575537
1.3563111 -1.7966213 -0.2763997 1 4 -0.056573234
2.5737808 -3.4105656 0.67673558 78 12 -0.056570929
1.3417795 -1.7780174 -0.19488023 3 5 -0.056568626
2.2901864 -3.0358715 0.7391941 30 13 -0.05656632
1.3239936 -1.7557232 -0.11524379 3 6 -0.056564018
2.2592998 -2.9971035 0.86651146 33 14 -0.056561712
1.3286054 -1.763119 -0.038534917 6 7 -0.05655941
2.2665787 -3.008944 1.0093943 32 15 -0.056557104
1.5004776 -1.996996 -0.6693061 2 0 -0.056536369
2.2013168 -2.9308133 0.06398052 1 8 -0.056534063
1.4930005 -1.9884899 -0.5740751 2 1 -0.056531761
2.3690579 -3.1564362 0.20683172 7 9 -0.056529455
1.4884499 -1.98315 -0.48198354 2 2 -0.056527153
2.5731783 -3.4296443 0.37511832 84 10 -0.05652485
1.4341271 -1.9121621 -0.37857145 1 3 -0.056522544
2.5089757 -3.3465049 0.51355743 16 11 -0.056520242
1.3500314 -1.8013446 -0.2763997 1 4 -0.056517936
2.5464628 -3.3989775 0.67266828 86 12 -0.056515634
1.3319809 -1.7779067 -0.19435729 3 5 -0.056513328
2.2772217 -3.0407043 0.73843086 31 13 -0.056511026
1.3166598 -1.7587353 -0.11513911 3 6 -0.05650872
2.2441535 -2.9987307 0.86471182 34 14 -0.056506418
1.3164536 -1.7597396 -0.038360391 6 7 -0.056504112
2.2421784 -2.9982724 1.0031826 32 15 -0.05650181
1.4911875 -1.9991244 -0.66827077 5 0 -0.056481075
2.1635804 -2.9016082 0.063177712 6 8 -0.056478769
1.4976964 -2.0093138 -0.57857406 1 1 -0.056476466
2.355639 -3.1614835 0.20662238 33 9 -0.05647416
1.509671 -2.0261168 -0.49114239 1 2 -0.056471858
2.5540502 -3.4290183 0.37407246 84 10 -0.056469552
1.4274435 -1.9171565 -0.37857145 1 3 -0.05646725
2.4866121 -3.3409111 0.5113638 13 11 -0.056464944
1.3413655 -1.8028611 -0.27591223 1 4 -0.056462642
2.5322247 -3.404675 0.67204249 79 12 -0.056460336
1.3221998 -1.7777494 -0.19383438 3 5 -0.056458034
2.25488 -3.0328796 0.73461467 31 13 -0.056455728
1.3331488 -1.7937778 -0.11712788 4 6 -0.056453425
2.2336724 -3.0065458 0.86471182 34 14 -0.056451119
1.3079183 -1.7611134 -0.038290579 7 7 -0.056448817
2.2201834 -2.9905696 0.99800628 30 15 -0.056446511
1.4956967 -2.0198431 -0.67344719 1 0 -0.056425776
2.1689053 -2.9300373 0.063631475 1 8 -0.056423474
1.4744453 -1.9925985 -0.57227546 1 1 -0.056421168
2.3410258 -3.1648695 0.20630836 34 9 -0.056418866
2.5361421 -3.4299026 0.37320086 89 10 -0.056414258
1.3972595 -1.8903569 -0.37231407 1 3 -0.056411952
2.4713957 -3.3447804 0.51063257 45 11 -0.05640965
1.3350642 -1.8075322 -0.27591223 1 4 -0.056407344
2.5121117 -3.4023693 0.66985244 82 12 -0.056405041
1.3159865 -1.7823539 -0.19383438 3 5 -0.056402735
2.2291234 -3.0201972 0.7296536 34 13 -0.056400433
1.3126498 -1.7791344 -0.11587181 4 6 -0.056398127
2.2127538 -3.0002096 0.86066276 36 14 -0.056395825
1.2970163 -1.75923 -0.038150962 8 7 -0.056393519
2.2074385 -2.9951911 0.99697101 30 15 -0.056391217
1.4909253 -2.0281646 -0.67448246 1 0 -0.056370482
2.1776104 -2.9633729 0.064189956 1 8 -0.056368176
1.4744031 -2.0071564 -0.57497489 1 1 -0.056365874
2.3169606 -3.1553137 0.20515697 36 9 -0.056363568
2.519438 -3.4323096 0.37250364 89 10 -0.05635896
1.3976641 -1.9047786 -0.37419128 1 3 -0.056356657
2.4467905 -3.3357797 0.5079515 12 11 -0.056354351
1.3146608 -1.7929709 -0.27298734 1 4 -0.056352049
2.4978843 -3.4079316 0.66922677 82 12 -0.056349743
1.3168236 -1.7965782 -0.19488023 2 5 -0.056347441
2.2139258 -3.0216255 0.72812718 34 13 -0.056345135
1.3040714 -1.7804829 -0.11566247 4 6 -0.056342833
2.193058 -2.9953363 0.85706353 37 14 -0.056340531
1.3062209 -1.7847244 -0.038604725 7 7 -0.056338225
2.1946888 -2.9997597 0.99593574 32 15 -0.056335922
1.5088899 -2.067688 -0.68587047 1 0 -0.056315184
2.1837518 -2.9935734 0.064678617 1 8 -0.056312881
1.9771844 -2.7113965 -0.77473146 11 1 -0.056310575
2.2888329 -3.138773 0.20358689 12 9 -0.056308273
2.501575 -3.4330323 0.3716321 92 10 -0.056303665
1.3793762 -1.8936788 -0.37106261 1 3 -0.056301359
2.4304576 -3.3378813 0.50697654 10 11 -0.056299057
1.3224128 -1.8168087 -0.27591223 1 4 -0.056296751
2.4702947 -3.3938365 0.66484654 82 12 -0.056294449
1.314061 -1.8059973 -0.19540317 2 5 -0.056292146
2.198746 -3.022984 0.72660065 34 13 -0.05628984
1.2954993 -1.7817935 -0.11545313 4 6 -0.056287538
2.1722775 -2.9887862 0.85301441 37 14 -0.056285232
1.2885386 -1.7728704 -0.038255677 4 7 -0.05628293
2.1779156 -2.9976439 0.99282992 32 15 -0.056280624
1.9867288 -2.7425418 -0.90741962 8 0 -0.056259889
2.1526966 -2.9716487 0.064050332 6 8 -0.056257583
1.9841837 -2.7400351 -0.78103006 31 1 -0.056255281
2.2813759 -3.151597 0.2039009 1 9 -0.056252975
2.4790671 -3.4272144 0.37006328 82 10 -0.056248371
1.3846664 -1.9142479 -0.37419128 1 3 -0.056246065
2.4112332 -3.3346624 0.50527036 12 11 -0.056243762
1.3163807 -1.8211839 -0.27591223 1 4 -0.056241456
2.4422359 -3.3800228 0.66046637 78 12 -0.056239154
1.301916 -1.8024974 -0.19453162 3 5 -0.056236848
2.1887093 -3.0302589 0.72660065 34 13 -0.056234546
1.2942601 -1.7925568 -0.11587181 4 6 -0.05623224
2.1623542 -2.9959733 0.85301441 37 14 -0.056229938
1.2800022 -1.7741141 -0.038185868 1 7 -0.056227632
2.1572683 -2.9911261 0.9881711 34 15 -0.05622533
1.9685981 -2.7365694 -0.90327853 12 0 -0.056204591
2.1353056 -2.969404 0.063840903 4 8 -0.056202289
1.9655074 -2.7342856 -0.77743083 38 1 -0.056199986
2.251713 -3.1335905 0.20222615 1 9 -0.056197681
1.3621657 -1.8956542 -0.45374379 1 2 -0.056195378
2.4572272 -3.4208529 0.36849448 92 10 -0.056193072
1.3756716 -1.9158604 -0.37356552 1 3 -0.05619077
2.364852 -3.2946787 0.49795815 57 11 -0.056188464
1.3215882 -1.8418968 -0.27834961 1 4 -0.056186162
2.4304228 -3.3885272 0.66046637 82 12 -0.056183856
1.2886505 -1.7973157 -0.19348574 2 5 -0.056181554
2.1643906 -3.0187342 0.72202128 34 13 -0.056179248
1.287995 -1.7970636 -0.11587181 4 6 -0.056176946
2.1496134 -3.0003345 0.85211456 35 14 -0.05617464
2.1378176 -2.9860721 0.98403007 35 15 -0.056170031
1.9619217 -2.7484829 -0.90483141 14 0 -0.056149296
2.1028531 -2.9459157 0.063177712 4 8 -0.056146994
1.9446319 -2.7252669 -0.77293181 39 1 -0.056144688
2.2454004 -3.1479354 0.20264484 1 9 -0.056142386
1.3825636 -1.9389985 -0.46290264 1 2 -0.05614008
2.4331079 -3.4136117 0.36675134 87 10 -0.056137778
1.3686403 -1.9208896 -0.37356552 1 3 -0.056135472
2.3544891 -3.3045306 0.49820194 75 11 -0.05613317
1.3105443 -1.8400309 -0.27737463 1 4 -0.056130864
2.4151428 -3.3921628 0.65952778 83 12 -0.056128561
1.2927666 -1.8164122 -0.19505455 2 5 -0.056126256
2.1430688 -3.0122495 0.71858674 27 13 -0.056123953
1.283715 -1.8050276 -0.11608116 4 6 -0.056121647
2.1318271 -2.9986639 0.84941518 38 14 -0.056119345
2.1229048 -2.9872172 0.98195946 34 15 -0.056114737
1.9523158 -2.7553146 -0.90483141 15 0 -0.056094002
2.1116908 -2.9813442 0.063771099 6 8 -0.056091696
1.9222434 -2.7148814 -0.7679829 37 1 -0.056089394
2.2205491 -3.1361935 0.20138879 1 9 -0.056087088
1.3916658 -1.9662476 -0.46824533 1 2 -0.056084786
2.3993132 -3.391181 0.36343944 19 10 -0.05608248
1.3801771 -1.9514598 -0.37857145 1 3 -0.056080177
2.3343401 -3.3017917 0.49649575 93 11 -0.056077871
1.2992085 -1.8383377 -0.2763997 1 4 -0.056075569
2.3987265 -3.3941197 0.65827632 79 12 -0.056073263
1.2864182 -1.8209137 -0.19505455 2 5 -0.056070961
2.1370714 -3.0261264 0.72011316 12 13 -0.056068655
1.2716473 -1.8013396 -0.1155578 3 6 -0.056066353
2.110111 -2.9901648 0.84491616 20 14 -0.056064047
1.8793482 -2.6631589 -0.056894846 1 7 -0.056061745
2.1068969 -2.9867163 0.97937131 37 15 -0.056059442
1.9382409 -2.7557921 -0.90276086 21 0 -0.056038704
2.204179 -3.133903 0.066877626 12 8 -0.056036402
1.9121089 -2.7196465 -0.767533 31 1 -0.056034096
2.1935101 -3.1210487 0.19992337 1 9 -0.056031793
1.9524801 -2.7791293 -0.66019917 36 2 -0.056029487
2.2763901 -3.2413797 0.34653121 1 10 -0.056027185
1.3736984 -1.9560258 -0.37857145 1 3 -0.056024879
2.3165343 -3.2997661 0.49503332 93 11 -0.056022577
1.2748603 -1.8166373 -0.27249986 1 4 -0.056020271
2.3721168 -3.381449 0.65420902 78 12 -0.056017969
1.2914934 -1.8417058 -0.19679767 2 5 -0.056015663
2.169858 -3.0942783 0.73461467 4 13 -0.056013361
1.2851561 -1.8333492 -0.11733723 3 6 -0.056011058
2.0822906 -2.971611 0.83771771 16 14 -0.056008752
1.8367701 -2.6222048 -0.055882607 27 7 -0.05600645
2.0909178 -2.9861403 0.9767831 35 15 -0.056004144
1.9169241 -2.7447822 -0.89706683 31 0 -0.055983409
2.2081072 -3.1628935 0.067331389 57 8 -0.055981103
1.8936819 -2.7135201 -0.76393378 27 1 -0.055978801
2.1826022 -3.1286867 0.19992337 1 9 -0.055976495
1.9443768 -2.7871988 -0.66058075 45 2 -0.055974193
2.245115 -3.2194941 0.34339362 1 10 -0.055971887
1.3668621 -1.9608091 -0.37857145 1 3 -0.055969585
2.3038671 -3.3062038 0.4947896 84 11 -0.055967283
1.2775882 -1.8341073 -0.2744498 1 4 -0.055964977
2.3535261 -3.379982 0.65233177 77 12 -0.055962674
1.2694398 -1.8230875 -0.19435729 2 5 -0.055960368
2.2386758 -3.216239 0.76170951 4 13 -0.055958066
1.2639194 -1.8165113 -0.11597649 2 6 -0.05595576
2.0752432 -2.9836609 0.83906746 33 14 -0.055953458
1.8264641 -2.6269586 -0.055847701 42 7 -0.055951152
2.0716615 -2.9807298 0.972642 35 15 -0.05594885
1.891923 -2.7292295 -0.88981992 33 0 -0.055928111
2.1776905 -3.1426399 0.066738002 8 8 -0.055925809
1.8819795 -2.7169096 -0.76303399 31 1 -0.055923507
2.1716676 -3.1362863 0.19992337 1 9 -0.055921201
1.9324006 -2.7907407 -0.65981752 47 2 -0.055918898
2.204381 -3.1847177 0.33886153 1 10 -0.055916592
1.3600092 -1.9655683 -0.37857145 1 3 -0.05591429
2.2731154 -3.2864707 0.490646 70 11 -0.055911984
1.2734362 -1.8418213 -0.27493724 1 4 -0.055909682
2.3383439 -3.3833017 0.65139318 82 12 -0.055907376
1.2789274 -1.8504539 -0.19679767 2 5 -0.055905074
2.244175 -3.2482629 0.76743382 4 13 -0.055902768
1.2757308 -1.847207 -0.11765125 2 6 -0.055900466
2.057066 -2.9796607 0.83591807 37 14 -0.05589816
1.8104682 -2.6234434 -0.055638272 45 7 -0.055895858
2.0458863 -2.9656808 0.96539509 36 15 -0.055893552
1.8801945 -2.7326336 -0.88878465 37 0 -0.055872817
2.154242 -3.1320989 0.066354051 2 8 -0.055870514
1.8603395 -2.7057986 -0.75808507 29 1 -0.055868208
2.1516566 -3.1306798 0.199086 3 9 -0.055865906
1.9193113 -2.7926152 -0.65867269 42 2 -0.0558636
2.2000198 -3.2022457 0.33990738 1 10 -0.055861298
1.3531398 -1.9703038 -0.37857145 1 3 -0.055858992
2.2593827 -3.2911122 0.49015856 72 11 -0.05585669
1.2748619 -1.8577125 -0.27664346 3 4 -0.055854384
2.3220501 -3.3849282 0.65014172 82 12 -0.055852082
1.2690791 -1.8499782 -0.19627473 1 5 -0.055849776
2.2394845 -3.2657912 0.76972359 4 13 -0.055847473
1.2783091 -1.8648279 -0.11848862 1 6 -0.055845167
2.0356369 -2.9707477 0.83141905 37 14 -0.055842865
1.8035597 -2.6330466 -0.055708081 51 7 -0.055840559
2.0311558 -2.966428 0.96332449 36 15 -0.055838257
1.8662865 -2.7327988 -0.8867141 39 0 -0.055817522
2.1320214 -3.1230838 0.066004999 4 8 -0.055815216
1.8497845 -2.7106664 -0.75763518 9 1 -0.055812914
2.1328371 -3.1266217 0.19835329 31 9 -0.055810608
1.9040198 -2.7911885 -0.65676457 43 2 -0.055808306
2.175359 -3.1901524 0.33781564 10 10 -0.055806
1.3462541 -1.9750149 -0.37857145 1 3 -0.055803698
2.2009332 -3.2300794 0.47992152 11 11 -0.055801392
1.271722 -1.8670733 -0.27737463 4 4 -0.055799089
2.3046618 -3.3848491 0.64857739 83 12 -0.055796783
1.2603712 -1.8511031 -0.19592611 1 5 -0.055794481
2.234699 -3.2833261 0.77201319 6 13 -0.055792175
2.0219667 -2.973001 0.83006936 38 14 -0.055787567
1.7921094 -2.6360188 -0.055638272 50 7 -0.055785265
2.0164454 -2.967109 0.961254 36 15 -0.055782959
1.8491486 -2.7281027 -0.88309062 34 0 -0.055751801
2.1267154 -3.1387846 0.066179529 5 8 -0.055749498
1.2807868 -1.891003 -0.52728528 1 1 -0.055747192
2.1118324 -3.1191628 0.19741124 36 9 -0.05574489
1.8865604 -2.7864377 -0.65409327 48 2 -0.055742584
2.1686769 -3.2043264 0.3385129 48 10 -0.055740282
1.3393517 -1.9797022 -0.37857145 1 3 -0.055737976
2.1851966 -3.2311649 0.47894657 16 11 -0.055735674
1.2574146 -1.859989 -0.27566847 3 4 -0.055733368
2.2806656 -3.3748689 0.64513582 89 12 -0.055731066
1.2572488 -1.8604435 -0.19644904 2 5 -0.05572876
2.236412 -3.3106291 0.77659267 6 13 -0.055726457
2.0028548 -2.9671195 0.8264702 39 14 -0.055721849
1.7717118 -2.6256819 -0.055289224 51 7 -0.055719543
2.002835 -2.9693248 0.95970106 39 15 -0.055717241
1.8277528 -2.7169092 -0.87739658 39 0 -0.055696506
2.11463 -3.1445296 0.066144623 4 8 -0.0556942
2.0987036 -3.1232002 0.19720189 36 9 -0.055689592
1.8658726 -2.776711 -0.65027708 41 2 -0.05568729
2.1574781 -3.2118771 0.3385129 48 10 -0.055684984
1.3324331 -1.9843655 -0.37857145 1 3 -0.055682682
2.1672671 -3.2288835 0.47748414 34 11 -0.055680376
1.2498082 -1.8627186 -0.27542472 1 4 -0.055678073
2.2589686 -3.3680451 0.64232004 86 12 -0.055675767
1.2540762 -1.8697847 -0.19697197 1 5 -0.055673465
2.2259352 -3.3200462 0.77697426 7 13 -0.055671159
2.1360281 -3.187149 -0.20107476 5 6 -0.055668857
1.9903159 -2.9708545 0.82557034 39 14 -0.055666551
1.7514085 -2.6152353 -0.054940179 51 7 -0.055664249
1.9806365 -2.9586394 0.95400703 36 15 -0.055661943
1.8171853 -2.7216661 -0.87687898 34 0 -0.055641208
2.1014206 -3.1485653 0.066074811 6 8 -0.055638906
1.7975041 -2.6942246 -0.74773729 3 1 -0.0556366
2.0850098 -3.1251583 0.19688788 34 9 -0.055634297
1.8561686 -2.7832074 -0.65027708 31 2 -0.055631991
2.136307 -3.2044685 0.3369441 9 10 -0.055629689
2.1647871 -3.2496457 0.47943404 41 11 -0.055625081
1.2631031 -1.8968107 -0.27981204 1 4 -0.055622775
2.2423127 -3.3672962 0.64075565 89 12 -0.055620473
2.1991065 -3.304913 0.7716316 7 13 -0.055615865
2.1215711 -3.1895969 -0.20076075 32 6 -0.055613559
1.9810126 -2.9794068 0.8260203 38 14 -0.055611257
1.740512 -2.6176982 -0.054870363 52 7 -0.055608954
1.9665368 -2.9587555 0.95193648 36 15 -0.055606648
1.7959359 -2.7102783 -0.87118495 33 0 -0.055585913
2.077713 -3.1355131 0.065655954 1 8 -0.055583607
1.7831789 -2.6920471 -0.74548781 29 1 -0.055581305
2.071883 -3.1290867 0.19667853 4 9 -0.055578999
1.8388568 -2.7782097 -0.64760572 7 2 -0.055576697
2.1503944 -3.2501235 0.34095326 4 10 -0.055574391
2.1463332 -3.2452164 0.47772786 26 11 -0.055569783
1.3005975 -1.9672256 -0.2895616 1 4 -0.055567481
2.2272778 -3.3701591 0.63981706 86 12 -0.055565178
2.1848886 -3.3072734 0.77048677 9 13 -0.05556057
2.0999765 -3.1799481 -0.19971403 35 6 -0.055558264
1.9636066 -2.9745753 0.82287097 39 14 -0.055555962
1.7269585 -2.6170816 -0.054730747 51 7 -0.055553656
1.9519421 -2.9591515 0.94986594 37 15 -0.055551354
1.7816294 -2.7081494 -0.86859673 36 0 -0.055530615
2.0557678 -3.1260388 0.065306902 1 8 -0.055528313
1.7673482 -2.6884849 -0.74278837 34 1 -0.055526007
2.046689 -3.1146014 0.1953178 1 9 -0.055523705
1.3617133 -2.0722222 -0.48198354 1 2 -0.055521399
2.1614819 -3.2905414 0.34443948 4 10 -0.055519097
2.1328139 -3.2493696 0.47724038 16 11 -0.055514488
2.2100832 -3.3696542 0.63825274 89 12 -0.05550988
2.1045489 -3.2087488 -0.33572391 1 5 -0.055507578
2.1797893 -3.3247309 0.77277648 9 13 -0.055505272
2.0833893 -3.1789069 -0.19919068 36 6 -0.05550297
1.9446678 -2.9683709 0.81927174 39 14 -0.055500664
1.724386 -2.6331313 -0.054940179 51 7 -0.055498362
1.9416009 -2.9659469 0.94986594 37 15 -0.055496056
1.7616041 -2.6981759 -0.86342037 34 0 -0.055475321
2.047029 -3.1365452 0.065376714 1 8 -0.055473015
1.7547586 -2.6897414 -0.74143869 36 1 -0.055470712
2.0292587 -3.1116889 0.19468978 1 9 -0.05546841
2.1695676 -3.3281095 0.3475771 9 10 -0.055463802
2.1517959 -3.3033679 0.48406506 27 11 -0.055459194
2.190764 -3.3657589 0.63606256 86 12 -0.055454586
2.0683372 -3.1776698 -0.33171475 31 5 -0.05545228
2.1638877 -3.3257372 0.77125001 9 13 -0.055449978
2.0679243 -3.1794627 -0.19877198 36 6 -0.055447672
1.9289838 -2.9669719 0.81702226 38 14 -0.055445369
1.6955695 -2.6089537 -0.05431189 48 7 -0.055443063
1.9280787 -2.9678464 0.94831306 37 15 -0.055440761
1.7385192 -2.6832318 -0.85669106 37 0 -0.055420026
2.0230231 -3.1235304 0.064957857 5 8 -0.05541772
1.7421818 -2.6909425 -0.740089 33 1 -0.055415418
2.0172992 -3.1170764 0.1945851 9 9 -0.055413112
1.3088132 -2.0223432 -0.46824533 1 2 -0.05541081
2.1774166 -3.3657737 0.35071471 22 10 -0.055408504
2.1100771 -3.2641802 0.47724038 8 11 -0.055403896
2.1597095 -3.3435183 0.630431 86 12 -0.055399287
2.0539894 -3.1798494 -0.33119181 38 5 -0.055396985
2.1458757 -3.3233745 0.7689603 9 13 -0.055394679
2.0535643 -3.1816275 -0.19845797 42 6 -0.055392377
1.9122761 -2.9638624 0.81432283 17 14 -0.055390071
1.6766977 -2.5997319 -0.053997744 48 7 -0.055387769
1.9072396 -2.958322 0.94313669 40 15 -0.055385463
1.719739 -2.6746595 -0.8520323 34 0 -0.055364728
2.0250823 -3.1507595 0.065376714 2 8 -0.055362426
1.7285645 -2.6904495 -0.73828936 37 1 -0.05536012
2.0290716 -3.1593904 0.19678321 1 9 -0.055357818
2.1591964 -3.3632941 0.34966883 84 10 -0.055353209
2.0943828 -3.2648425 0.47626543 28 11 -0.055348601
2.1533551 -3.3593516 0.63199526 89 12 -0.055343993
2.0332 -3.1719031 -0.32962301 39 5 -0.055341687
2.1247292 -3.3159673 0.7655257 10 13 -0.055339385
2.0370591 -3.1803672 -0.1979346 40 6 -0.055337079
1.8872079 -2.9475429 0.80802423 17 14 -0.055334777
1.6665349 -2.6038847 -0.053962842 50 7 -0.055332474
1.8885722 -2.9519429 0.93899554 39 15 -0.055330168
1.7114314 -2.6822748 -0.85254997 44 0 -0.055309433
2.0237496 -3.1729829 0.06569086 2 8 -0.055307128
1.706591 -2.6767485 -0.73289055 37 1 -0.055304825
2.0201776 -3.1698222 0.19699256 1 9 -0.055302519
2.1560075 -3.3842542 0.35106334 95 10 -0.055297911
2.1363149 -3.3585143 0.630431 86 12 -0.055288695
2.0221157 -3.1789811 -0.32962301 30 5 -0.055286393
2.1089277 -3.3167372 0.76399928 10 13 -0.05528409
1.6638252 -2.6177275 -0.1625555 7 6 -0.055281784
1.8821326 -2.9623368 0.81027371 16 14 -0.055279482
1.6595796 -2.6130621 -0.05403265 49 7 -0.055277176
1.8741151 -2.9519935 0.93692499 40 15 -0.055274874
1.6968908 -2.6800716 -0.84996176 36 0 -0.055254135
2.0244253 -3.1986146 0.066074811 4 8 -0.055251833
1.6899438 -2.6711619 -0.72974122 36 1 -0.055249527
2.0101681 -3.1785429 0.19709724 7 9 -0.055247225
1.7482326 -2.7643621 -0.63577563 13 2 -0.055244919
2.136729 -3.3799706 0.34984317 97 10 -0.055242617
1.6641384 -2.6334238 -0.49339435 12 3 -0.055240311
2.0482159 -3.2424617 0.47090316 16 11 -0.055238008
2.1193068 -3.3575983 0.62886661 82 12 -0.0552334
1.6526203 -2.6182313 -0.27088004 34 5 -0.055231098
2.0920992 -3.3157766 0.76209116 11 13 -0.055228792
1.6418917 -2.6032479 -0.16129944 35 6 -0.05522649
1.8603483 -2.9507554 0.80532479 28 14 -0.055224184
1.6461834 -2.6120722 -0.05389303 50 7 -0.055221882
1.8596802 -2.9519794 0.93485445 40 15 -0.055219576
1.6998578 -2.7056079 -0.8561734 42 0 -0.055198841
2.0175016 -3.2124352 0.066214427 6 8 -0.055196535
1.6609226 -2.6456857 -0.72119308 37 1 -0.055194233
2.0011837 -3.1889236 0.19730657 10 9 -0.055191927
1.6592617 -2.6440644 -0.6067726 30 2 -0.055189624
2.1196234 -3.3789692 0.34897158 87 10 -0.055187322
1.6612326 -2.6492584 -0.49527156 46 3 -0.055185016
2.0242336 -3.2294078 0.46797833 9 11 -0.055182714
2.099185 -3.351583 0.62636369 82 12 -0.055178106
1.6424133 -2.6222959 -0.27070573 45 5 -0.0551758
2.0888472 -3.3363712 0.76514411 12 13 -0.055173498
1.6285564 -2.602191 -0.16088074 41 6 -0.055171192
1.8448695 -2.9489706 0.80307525 41 14 -0.055168889
1.6243322 -2.5974569 -0.053474173 50 7 -0.055166584
1.8473166 -2.9551766 0.93381917 42 15 -0.055164281
1.6423692 -2.6344745 -0.83184445 40 0 -0.055143546
2.0031028 -3.2143667 0.066109717 16 8 -0.05514124
1.6362219 -2.6266563 -0.71444452 40 1 -0.055138938
1.9953189 -3.2043669 0.19782993 36 9 -0.055136632
1.6323804 -2.6215088 -0.60028511 42 2 -0.05513433
2.0962343 -3.3677411 0.34705415 78 10 -0.055132024
1.6457131 -2.6449776 -0.49339435 51 3 -0.055129722
2.0391586 -3.2785954 0.47407177 1 11 -0.055127416
2.0791316 -3.345468 0.62386072 82 12 -0.055122808
1.622733 -2.6110907 -0.26896262 43 5 -0.055120505
2.0678642 -3.3286333 0.76170951 12 13 -0.055118199
1.6205169 -2.6095564 -0.16098543 34 6 -0.055115897
1.8294256 -2.9471142 0.80082577 41 14 -0.055113591
1.6089293 -2.5929163 -0.053264745 48 7 -0.055111289
1.8298615 -2.950115 0.93019569 45 15 -0.055108983
1.6250327 -2.627048 -0.82770336 42 0 -0.055088248
1.9824053 -3.206032 0.065795571 34 8 -0.055085946
1.6290925 -2.6356671 -0.71534431 50 1 -0.05508364
1.987271 -3.2164094 0.19814396 19 9 -0.055081338
1.6211562 -2.6238506 -0.59952188 45 2 -0.055079032
2.0729494 -3.3563914 0.34513673 76 10 -0.05507673
1.6198674 -2.6238124 -0.48838848 40 3 -0.055074424
2.0277016 -3.2856936 0.47407177 1 11 -0.055072121
2.0622568 -3.3442981 0.62229639 79 12 -0.055067513
1.6052424 -2.6031721 -0.26756814 39 5 -0.055065207
2.0531421 -3.3308177 0.76056474 15 13 -0.055062905
1.6093024 -2.6117964 -0.16077606 36 6 -0.055060599
1.817083 -2.9501636 0.79992598 40 14 -0.055058297
1.597772 -2.5951109 -0.053194933 49 7 -0.055055991
1.8094275 -2.940032 0.92501926 43 15 -0.055053689
1.6138315 -2.6294115 -0.82666808 41 0 -0.055032954
1.9659737 -3.2044098 0.065621048 42 8 -0.055030648
1.607657 -2.621403 -0.7099455 42 1 -0.055028345
1.9770753 -3.2250297 0.19824862 18 9 -0.055026039
1.6058307 -2.6194508 -0.59723216 37 2 -0.055023737
2.0580976 -3.3585107 0.34461379 78 10 -0.055021431
1.5838708 -2.5856547 -0.48025388 45 3 -0.055019129
1.9913414 -3.2521217 0.46822205 1 11 -0.055016823
2.047478 -3.3464212 0.62135774 79 12 -0.055012215
1.5836681 -2.5883653 -0.26547641 40 5 -0.055009913
2.0322833 -3.3228908 0.75713015 16 13 -0.055007607
1.5918415 -2.6037657 -0.15993871 33 6 -0.055005305
1.8057575 -2.9548256 0.79947603 35 14 -0.055003002
1.5907885 -2.6040852 -0.053264745 49 7 -0.055000696
1.7991538 -2.9463303 0.92501926 43 15 -0.054998394
1.6006241 -2.6284287 -0.82459748 40 0 -0.054977655
1.9516568 -3.2061288 0.065516338 34 8 -0.054975353
1.5812758 -2.5986979 -0.70229721 42 1 -0.054973047
1.9481612 -3.2029026 0.1964692 19 9 -0.054970745
1.5813736 -2.5998802 -0.59150791 39 2 -0.054968439
2.0463622 -3.365674 0.34461379 78 10 -0.054966137
1.5768874 -2.5945437 -0.4808796 41 3 -0.054963831
1.9366879 -3.1877978 0.45798501 1 11 -0.054961529
2.0316837 -3.3467937 0.62010628 79 12 -0.05495692
1.5725554 -2.5904713 -0.26512775 40 5 -0.054954618
2.0227091 -3.3333213 0.75789338 26 13 -0.054952312
1.576528 -2.5990605 -0.15931067 34 6 -0.05495001
1.7833079 -2.9411147 0.79407722 37 14 -0.054947704
1.5775429 -2.602782 -0.053125124 49 7 -0.054945402
1.7868562 -2.9492881 0.92398405 45 15 -0.054943096
1.5974339 -2.6439209 -0.82770336 39 0 -0.054922361
1.9373521 -3.2077866 0.06541162 37 8 -0.054920055
1.5671595 -2.5958602 -0.70004767 46 1 -0.054917753
1.9287133 -3.1960034 0.19563182 19 9 -0.054915447
1.5621446 -2.5885754 -0.58769172 41 2 -0.054913145
2.0304844 -3.3659728 0.34391654 84 10 -0.054910842
1.565781 -2.5966494 -0.48025388 45 3 -0.054908536
1.9316971 -3.2047396 0.45944747 4 11 -0.054906234
1.5653999 -2.5980675 -0.37243277 12 4 -0.054903928
2.0159123 -3.3470964 0.61885482 83 12 -0.054901626
1.557336 -2.5857046 -0.2640819 43 5 -0.05489932
2.0059981 -3.3319514 0.75598526 27 13 -0.054897018
1.5633268 -2.5977025 -0.15889199 33 6 -0.054894712
1.7720263 -2.9456518 0.79362732 40 14 -0.05489241
1.5581425 -2.5911355 -0.05277608 50 7 -0.054890104
1.7745596 -2.9521959 0.92294878 45 15 -0.054887801
1.5832287 -2.641196 -0.82511514 34 0 -0.054867063
1.9271711 -3.2162449 0.065446526 39 8 -0.05486476
1.5570872 -2.599643 -0.69959778 42 1 -0.054862458
1.9181046 -3.2023814 0.19563182 31 9 -0.054860152
1.5530993 -2.5940125 -0.58769172 42 2 -0.05485785
2.0115604 -3.3610725 0.34269637 81 10 -0.054855544
1.5546794 -2.5987086 -0.47962815 45 3 -0.054853242
1.9113292 -3.1961296 0.45725381 9 11 -0.054850936
1.5516815 -2.5947258 -0.37121406 48 4 -0.054848634
1.9946661 -3.3368077 0.61572611 83 12 -0.054846328
1.5421684 -2.580863 -0.26303601 43 5 -0.054844026
1.9953622 -3.3406191 0.75636691 34 13 -0.05484172
1.5532256 -2.601429 -0.15878731 32 6 -0.054839417
1.7592512 -2.946492 0.79227757 36 14 -0.054837111
1.5433927 -2.5859854 -0.052566648 51 7 -0.054834809
1.755852 -2.9431331 0.91829002 42 15 -0.054832503
1.5635964 -2.6281691 -0.81942111 37 0 -0.054811768
1.9072956 -3.2071493 0.06513238 42 8 -0.054809466
1.5484579 -2.6047921 -0.69959778 42 1 -0.05480716
1.911557 -3.2155919 0.19605052 36 9 -0.054804858
1.5404774 -2.5923975 -0.58616525 42 2 -0.054802552
1.9922639 -3.3540208 0.34130189 87 10 -0.05480025
1.5379851 -2.5902617 -0.4771252 46 3 -0.054797944
1.8966675 -3.195622 0.45627886 12 11 -0.054795641
1.5369897 -2.5896146 -0.36975163 42 4 -0.054793335
1.9825819 -3.3417053 0.61541325 89 12 -0.054791033
1.5275037 -2.5756805 -0.26199016 45 5 -0.054788727
1.9782661 -3.337085 0.7540772 34 13 -0.054786425
1.5466268 -2.610002 -0.15899664 31 6 -0.054784119
1.741523 -2.9388983 0.78867841 35 14 -0.054781817
1.536847 -2.5945303 -0.052636456 50 7 -0.054779511
1.73624 -2.9323163 0.91311359 40 15 -0.054777209
1.5548723 -2.6333396 -0.81942111 37 0 -0.054756474
1.8996993 -3.2186224 0.065237097 45 8 -0.054754168
1.5308994 -2.5948071 -0.69554865 43 1 -0.054751866
1.9053937 -3.2308469 0.19657388 37 9 -0.05474956
1.5278828 -2.5907273 -0.58463877 42 2 -0.054747257
1.979107 -3.3571763 0.34095326 87 10 -0.054744951
1.5213639 -2.5817325 -0.47462222 48 3 -0.054742649
1.8719546 -3.177948 0.45286649 24 11 -0.054740343
1.5299551 -2.5983851 -0.37023908 43 4 -0.054738041
1.968901 -3.3452008 0.61478752 89 12 -0.054735735
1.5169326 -2.5772977 -0.26164153 43 5 -0.054733433
1.9602208 -3.3317816 0.75140589 39 13 -0.054731127
1.5258136 -2.5944571 -0.15774059 32 6 -0.054728825
1.730266 -2.9432793 0.78822851 37 14 -0.054726519
1.5257546 -2.596431 -0.052566648 51 7 -0.054724216
1.7240368 -2.9350276 0.91207838 42 15 -0.054721914
1.5320011 -2.6154141 -0.8121742 40 0 -0.054701176
1.8935047 -3.2338626 0.06541162 46 8 -0.054698873
1.5169106 -2.5917261 -0.69329917 47 1 -0.054696567
1.8890612 -3.2288589 0.19605052 43 9 -0.054694265
1.5178386 -2.5943503 -0.58425713 43 2 -0.054691959
1.9633528 -3.3571849 0.34025604 93 10 -0.054689657
1.5093517 -2.5819113 -0.47368363 50 3 -0.054687351
1.8578454 -3.1793215 0.45213532 39 11 -0.054685049
1.5098622 -2.5848548 -0.36755794 46 4 -0.054682743
1.9492443 -3.3384058 0.6122846 89 12 -0.054680441
1.5099366 -2.5860181 -0.26199016 39 5 -0.054678135
1.9416512 -3.3267348 0.74873453 44 13 -0.054675832
1.5066832 -2.5825162 -0.15669388 32 6 -0.05467353
1.7160544 -2.9425673 0.78642887 35 14 -0.054671224
1.5126539 -2.5948308 -0.052427031 51 7 -0.054668922
1.7079453 -2.9310131 0.9089725 42 15 -0.054666616
1.5160681 -2.6090534 -0.80855072 42 0 -0.054645881
1.8952616 -3.2629316 0.065865383 26 8 -0.054643575
1.5049193 -2.5919495 -0.69194949 46 1 -0.054641273
1.9028431 -3.2786181 0.19866732 19 9 -0.054638967
1.5008899 -2.5860486 -0.58120424 47 2 -0.054636665
1.9486228 -3.3588476 0.33973309 90 10 -0.054634359
1.5033029 -2.5922909 -0.47462222 48 3 -0.054632057
1.8417586 -3.1772001 0.45091662 39 11 -0.054629754
1.4948585 -2.5798042 -0.36609554 46 4 -0.054627448
1.9316385 -3.3349335 0.61040735 89 12 -0.054625146
1.4974531 -2.5863624 -0.26146722 31 5 -0.05462284
1.9300268 -3.3334925 0.74873453 46 13 -0.054620538
1.4996601 -2.591217 -0.15690321 29 6 -0.054618232
1.6960144 -2.9316714 0.78192985 37 14 -0.05461593
1.4955785 -2.5862463 -0.052147791 53 7 -0.054613624
1.697704 -2.9369569 0.9089725 42 15 -0.054611322
1.4881704 -2.5827892 -0.79871565 42 0 -0.054590583
1.9038271 -3.3041806 0.06656348 31 8 -0.054588281
1.4948897 -2.5954981 -0.69149953 49 1 -0.054585978
1.899359 -3.2990878 0.19950469 33 9 -0.054583672
1.4894428 -2.588129 -0.580441 43 2 -0.05458137
1.9253702 -3.3469701 0.33781564 93 10 -0.054579064
1.489853 -2.5909333 -0.47337076 48 3 -0.054576762
1.830657 -3.1836095 0.45091662 44 11 -0.054574456
1.4838661 -2.5815642 -0.36560807 48 4 -0.054572154
1.9071921 -3.3193898 0.60634005 86 12 -0.054569848
1.4765086 -2.5708411 -0.25937548 24 5 -0.054567546
1.9138858 -3.3337331 0.74720806 46 13 -0.05456524
1.4881647 -2.5932317 -0.15669388 32 6 -0.054562937
1.6852578 -2.9378681 0.78192985 36 14 -0.054560632
1.4805716 -2.5810437 -0.051938362 52 7 -0.054558329
1.6816759 -2.9328098 0.90586674 35 15 -0.054556023
1.4772284 -2.5846136 -0.79768038 43 0 -0.054535288
1.8956717 -3.3180819 0.066703096 45 8 -0.054532986
1.4834338 -2.5975752 -0.69059974 47 1 -0.05453068
1.9060674 -3.3389831 0.20149344 61 9 -0.054528378
1.4765062 -2.5864925 -0.57891452 45 2 -0.054526072
1.909726 -3.3467484 0.33711842 93 10 -0.05452377
1.4759063 -2.5875387 -0.47180638 51 3 -0.054521464
1.81406 -3.1816754 0.44969791 52 11 -0.054519162
1.472428 -2.5835364 -0.36512056 42 4 -0.054516856
1.8920799 -3.3212082 0.60540146 89 12 -0.054514553
1.4631321 -2.5693102 -0.25867823 23 5 -0.054512247
1.8954366 -3.3284514 0.74453676 49 13 -0.054509945
1.4791033 -2.5984106 -0.15669388 30 6 -0.054507639
1.6730652 -2.940345 0.78103006 36 14 -0.054505337
1.4671471 -2.5795002 -0.051798742 52 7 -0.054503031
1.6613672 -2.9221597 0.90069032 34 15 -0.054500729
1.4658403 -2.5866492 -0.79664505 39 0 -0.054479994
1.8890073 -3.3333774 0.066877626 78 8 -0.054477688
1.4666736 -2.5891728 -0.68700051 47 1 -0.054475386
1.8993211 -3.3543062 0.20201682 84 9 -0.05447308
1.4650822 -2.5884697 -0.57815129 47 2 -0.054470778
1.8945034 -3.3485231 0.33659548 96 10 -0.054468472
1.4566882 -2.5757363 -0.4686777 45 3 -0.054466169
1.794148 -3.1724374 0.44750425 48 11 -0.054463863
1.4614471 -2.5852039 -0.36463311 42 4 -0.054461561
1.8804753 -3.3277926 0.60540146 89 12 -0.054459255
1.4512153 -2.5691974 -0.25815532 21 5 -0.054456953
1.8735722 -3.3182805 0.74072057 49 13 -0.054454647
1.4597533 -2.5864205 -0.15564716 29 6 -0.054452345
1.6584467 -2.9396687 0.77923048 38 14 -0.054450039
1.4581339 -2.5846057 -0.051798742 52 7 -0.054447737
1.6511568 -2.9279413 0.90069032 34 15 -0.054445431
1.4553611 -2.5881281 -0.79560977 42 0 -0.054424047
1.8812793 -3.3469236 0.067017242 77 8 -0.054421745
1.4518996 -2.5840828 -0.68430108 47 1 -0.054419439
1.889166 -3.3623271 0.20212148 100 9 -0.054417137
1.4584131 -2.5967374 -0.57891452 48 2 -0.054414831
1.8804626 -3.349575 0.33607253 93 10 -0.054412529
1.4462055 -2.5771074 -0.46805197 45 3 -0.054410223
1.7782072 -3.1700242 0.44628558 47 11 -0.054407921
1.4450969 -2.5761855 -0.36268318 43 4 -0.054405615
1.8674972 -3.3305645 0.60477573 89 12 -0.054403313
1.4329461 -2.5566156 -0.25641218 21 5 -0.054401007
1.8596793 -3.3193371 0.73957568 57 13 -0.054398704
1.4453129 -2.5807915 -0.15501912 29 6 -0.054396398
1.6406336 -2.9295619 0.77518129 41 14 -0.054394096
1.4476018 -2.5859373 -0.051728934 53 7 -0.05439179
1.6376647 -2.926657 0.89861977 34 15 -0.054389488
1.4430053 -2.5861919 -0.79353923 43 0 -0.054368753
1.8662744 -3.346158 0.066877626 57 8 -0.054366447
1.4395267 -2.5820751 -0.68250149 47 1 -0.054364145
1.8721701 -3.3581064 0.20149344 100 9 -0.054361839
1.4335474 -2.5724056 -0.57242703 47 2 -0.054359537
1.8654667 -3.3488302 0.33537531 99 10 -0.054357231
1.4386122 -2.5836151 -0.46836486 43 3 -0.054354928
1.7618929 -3.1654961 0.44482315 41 11 -0.054352622
1.4307537 -2.5705564 -0.36122078 42 4 -0.05435032
1.8477987 -3.3212032 0.60195988 96 12 -0.054348014
1.429302 -2.5700598 -0.25728375 27 5 -0.054345712
1.8477077 -3.3237698 0.7391941 64 13 -0.054343406
1.4367466 -2.5855701 -0.15501912 29 6 -0.054341104
1.6242838 -2.9230623 0.77203202 38 14 -0.054338798
1.4361055 -2.585479 -0.05162422 56 7 -0.054336496
1.6279508 -2.9320714 0.89861977 34 15 -0.05433419
1.4269356 -2.5774419 -0.78939813 43 0 -0.054313455
1.8483899 -3.3400807 0.066633284 57 8 -0.054311153
1.4290696 -2.5834241 -0.6816017 49 1 -0.054308847
1.850772 -3.3471427 0.20044672 93 9 -0.054306544
1.421209 -2.5702727 -0.57090056 42 2 -0.054304238
1.8495322 -3.3462794 0.33450374 96 10 -0.054301936
1.4252607 -2.5797262 -0.46680051 46 3 -0.05429963
1.7533053 -3.1747971 0.44531062 45 11 -0.054297328
1.421772 -2.5755351 -0.36122078 42 4 -0.054295022
1.8285598 -3.3137965 0.59945697 93 12 -0.05429272
1.4198091 -2.5730407 -0.25710943 37 5 -0.054290414
1.8347794 -3.3264403 0.73843086 71 13 -0.054288112
1.4281648 -2.5903203 -0.15501912 30 6 -0.054285806
1.6178328 -2.9355414 0.77383161 37 14 -0.054283503
1.4174227 -2.5729611 -0.051275171 58 7 -0.054281201
1.6083875 -2.9208138 0.89344335 38 15 -0.054278895
1.4142106 -2.5756335 -0.78732753 38 0 -0.05425816
1.8290229 -3.3324883 0.066354051 53 8 -0.054255854
1.4172311 -2.5832713 -0.68025202 50 1 -0.054253552
1.8381166 -3.3518314 0.20034206 81 9 -0.054251246
1.4131724 -2.5769396 -0.57128215 43 2 -0.054248944
1.8273053 -3.3334966 0.33258632 93 10 -0.054246638
1.4105515 -2.5742915 -0.46492329 45 3 -0.054244336
1.7374445 -3.1721928 0.44409195 40 11 -0.05424203
1.4070531 -2.5700347 -0.35975835 44 4 -0.054239728
1.8150845 -3.3166933 0.59883118 93 12 -0.054237425
1.4002975 -2.5587556 -0.25519201 45 5 -0.054235119
1.8127924 -3.3138785 0.73423308 81 13 -0.054232817
1.4171978 -2.5917852 -0.15480977 31 6 -0.054230511
1.6085106 -2.9428806 0.7742815 32 14 -0.054228209
1.4103506 -2.5814028 -0.05134498 55 7 -0.054225903
1.5926266 -2.9162374 0.89033753 37 15 -0.054223601
1.4015161 -2.5737677 -0.78525704 42 0 -0.054202862
1.811643 -3.3283143 0.066144623 53 8 -0.05420056
1.401686 -2.57622 -0.67710268 47 1 -0.054198254
1.8225884 -3.3512092 0.19992337 51 9 -0.054195952
1.4013546 -2.5766826 -0.57013732 42 2 -0.054193646
1.8128036 -3.3346031 0.33206338 96 10 -0.054191343
1.3940115 -2.5653141 -0.46242031 45 3 -0.054189041
1.7168856 -3.1607943 0.44165453 43 11 -0.054186735
1.3999678 -2.5784199 -0.36024579 42 4 -0.054184433
1.7987846 -3.3143282 0.59726685 89 12 -0.054182127
1.3904067 -2.5618768 -0.2550177 43 5 -0.054179825
1.7984052 -3.3150094 0.7330882 100 13 -0.054177519
1.4005253 -2.5826705 -0.1539724 30 6 -0.054175217
1.5861559 -2.9262052 0.7684328 31 14 -0.054172911
1.4003783 -2.5845518 -0.051310074 52 7 -0.054170609
1.5796772 -2.9166827 0.88878465 39 15 -0.054168303
1.3906876 -2.5752447 -0.78422177 44 0 -0.054147568
1.7971642 -3.3293388 0.066039905 50 8 -0.054145262
1.383431 -2.5639472 -0.67260367 44 1 -0.054142959
1.7824366 -3.3048143 0.19678321 25 9 -0.054140657
1.3886241 -2.5746467 -0.56861085 41 2 -0.054138351
1.798316 -3.3356495 0.33154044 93 10 -0.054136049
1.3831741 -2.5666866 -0.46179458 45 3 -0.054133743
1.6973696 -3.1510391 0.4394609 41 11 -0.054131441
1.381548 -2.5658128 -0.35780841 42 4 -0.054129135
1.7862682 -3.3188479 0.59695399 86 12 -0.054126833
1.3795669 -2.5632057 -0.25466907 42 5 -0.054124527
1.7849624 -3.3178089 0.73232496 100 13 -0.054122224
1.3877177 -2.5805073 -0.15355371 26 6 -0.054119918
1.5703957 -2.9214253 0.76573336 31 14 -0.054117616
1.387562 -2.5823784 -0.051170457 51 7 -0.05411531
1.5704005 -2.9238811 0.88930225 38 15 -0.054113008
1.3835137 -2.5834894 -0.78525704 41 0 -0.054092273
1.7827004 -3.330303 0.065935194 55 8 -0.054089967
1.3744726 -2.5687606 -0.67260367 42 1 -0.054087665
1.7463986 -3.2652252 0.19406174 19 9 -0.054085359
1.3740727 -2.5690911 -0.56632113 40 2 -0.054083057
1.7876008 -3.3436637 0.33171475 96 10 -0.054080751
1.3742065 -2.5714989 -0.46179458 46 3 -0.054078449
1.6872953 -3.1586959 0.43970463 43 11 -0.054076143
1.3707132 -2.5671175 -0.35732093 42 4 -0.05407384
1.7663012 -3.3093784 0.59413815 82 12 -0.054071534
1.3682878 -2.564729 -0.25432047 42 5 -0.054069232
1.7715222 -3.3205547 0.73156172 100 13 -0.054066926
1.375882 -2.5800486 -0.1532397 27 6 -0.054064624
1.5565218 -2.9200106 0.76393378 28 14 -0.054062318
1.3681955 -2.5677931 -0.050786503 56 7 -0.054060016
1.5574601 -2.9242296 0.88774931 39 15 -0.05405771
1.3631667 -2.5680666 -0.7790454 41 0 -0.054036975
1.7673147 -3.3294401 0.065795571 55 8 -0.054034673
1.3654975 -2.5735428 -0.67260367 44 1 -0.054032367
1.7172097 -3.237777 0.19207297 19 9 -0.054030064
1.3582103 -2.5619681 -0.56364983 39 2 -0.054027759
1.7678703 -3.3361092 0.33032027 96 10 -0.054025456
1.3610737 -2.5695362 -0.46054313 47 3 -0.05402315
1.6706839 -3.1540413 0.4382422 43 11 -0.054020848
1.3589572 -2.5666234 -0.35658973 46 4 -0.054018542
1.7501186 -3.3067939 0.59257382 83 12 -0.05401624
1.3500099 -2.5518785 -0.25257733 40 5 -0.054013934
1.7483268 -3.3061991 0.7269823 119 13 -0.054011632
1.3645495 -2.5815425 -0.15303035 27 6 -0.054009326
1.54763 -2.9291418 0.76483357 27 14 -0.054007024
1.3545535 -2.5637131 -0.050611977 52 7 -0.054004721
1.536417 -2.9091494 0.88153768 39 15 -0.054002415
1.3469957 -2.5591333 -0.77490425 43 0 -0.05398168
1.7467195 -3.319968 0.065481432 59 8 -0.053979374
1.3551489 -2.5768054 -0.67215377 45 1 -0.053977072
1.6956716 -3.2243063 0.19092159 21 9 -0.053974766
1.3501724 -2.5684314 -0.56403142 41 2 -0.053972464
1.7488002 -3.3281503 0.32892576 100 10 -0.053970158
1.3465847 -2.5637786 -0.45866591 46 3 -0.053967856
1.6618807 -3.1654162 0.43897343 47 11 -0.05396555
1.3467736 -2.5663137 -0.3558585 42 4 -0.053963248
1.7367291 -3.3093848 0.59194809 131 12 -0.053960942
1.3373917 -2.5495176 -0.25188008 41 5 -0.05395864
1.7358634 -3.3105428 0.72660065 105 13 -0.053956337
1.3583119 -2.5915971 -0.15334436 29 6 -0.053954031
1.5337784 -2.9276216 0.76303399 29 14 -0.053951729
1.3455961 -2.5684259 -0.050611977 54 7 -0.053949423
1.5226681 -2.9076493 0.87946719 41 15 -0.053947121
1.3380544 -2.5638194 -0.77490425 41 0 -0.053926382
1.7329252 -3.3204236 0.065376714 67 8 -0.05392408
1.3357804 -2.5605519 -0.66675496 41 1 -0.053921774
1.7001052 -3.2603118 0.19270101 55 9 -0.053919472
1.3402916 -2.5713878 -0.56364983 39 2 -0.053917166
1.7307279 -3.321866 0.32770559 113 10 -0.053914864
1.3362499 -2.5647264 -0.45804018 47 3 -0.053912558
1.6449564 -3.1585851 0.43726721 43 11 -0.053910255
1.3382559 -2.5707657 -0.3558585 44 4 -0.053907953
1.7196956 -3.3049128 0.59007084 94 12 -0.053905647
1.3266454 -2.5506356 -0.25153148 41 5 -0.053903345
1.721252 -3.3093143 0.72507423 100 13 -0.053901039
1.3340482 -2.5659618 -0.15156494 27 6 -0.053898737
1.5213656 -2.9275043 0.7616843 29 14 -0.053896431
1.3357005 -2.5713327 -0.050577074 56 7 -0.053894129
1.5125092 -2.9129465 0.87946719 41 15 -0.053891823
1.3277688 -2.5648117 -0.77386898 42 0 -0.053871088
1.7167289 -3.3175726 0.065202191 100 8 -0.053868782
1.3214624 -2.5548136 -0.66405553 39 1 -0.05386648
1.7189845 -3.3247738 0.19615518 100 9 -0.053864174
1.3308554 -2.574074 -0.56326818 42 2 -0.053861871
1.7151291 -3.3187368 0.32683402 92 10 -0.053859569
1.3218497 -2.5588446 -0.45616296 45 3 -0.053857263
1.6248131 -3.1466696 0.43482983 40 11 -0.053854961
1.3210802 -2.5595458 -0.35366488 45 4 -0.053852655
1.7018089 -3.2986071 0.58788079 23 12 -0.053850353
1.3140813 -2.5481675 -0.25083423 41 5 -0.053848047
1.3232528 -2.5670524 -0.15135561 27 6 -0.053843439
1.5066745 -2.9241354 0.75943476 30 14 -0.053841136
1.3239698 -2.5706463 -0.05047236 52 7 -0.05383883
1.5005634 -2.9147732 0.87843186 41 15 -0.053836528
1.320123 -2.5730984 -0.77490425 40 0 -0.053815793
1.7014867 -3.3164282 0.065062575 55 8 -0.053813487
1.3116471 -2.5576768 -0.66360557 42 1 -0.053811185
1.7019017 -3.3200898 0.19552715 52 9 -0.053808879
1.3160403 -2.5684512 -0.56097847 41 2 -0.053806577
1.6911466 -3.3019476 0.32456797 19 10 -0.053804271
1.3115619 -2.561914 -0.45585006 43 3 -0.053801969
1.6092962 -3.1434872 0.43361115 38 11 -0.053799663
1.3094246 -2.5588398 -0.35293365 41 4 -0.053797361
1.6489044 -3.2236288 0.57348883 6 12 -0.053795055
1.3051785 -2.5527389 -0.25083423 41 5 -0.053792752
1.642134 -3.2131591 0.70141387 5 13 -0.053790446
1.3102007 -2.5647707 -0.1509369 28 6 -0.053788144
1.4941748 -2.9261668 0.75853497 29 14 -0.053785838
1.304076 -2.5538805 -0.0500535 52 7 -0.053783536
1.4895015 -2.918273 0.87791425 49 15 -0.05378123
1.302375 -2.5604715 -0.76972789 44 0 -0.053760495
1.6793507 -3.3030343 0.064678617 11 8 -0.053758193
1.2987325 -2.5555179 -0.66180599 38 1 -0.053755887
1.6622512 -3.2708142 0.19228233 7 9 -0.053753585
1.2981751 -2.5555255 -0.55716228 42 2 -0.053751279
1.6489407 -3.2474296 0.31864139 6 10 -0.053748976
1.2999291 -2.5611923 -0.4549115 47 3 -0.05374667
1.5995603 -3.1529055 0.43409866 31 11 -0.053744368
1.2982416 -2.560081 -0.35244617 44 4 -0.053742062
1.591184 -3.1377518 0.55721962 12 12 -0.05373976
1.2872517 -2.5395081 -0.2490911 39 5 -0.053737454
1.624697 -3.2066126 0.69874257 1 13 -0.053735152
1.2994355 -2.5657647 -0.15072757 26 6 -0.053732846
1.4804307 -2.9244101 0.75673532 31 14 -0.053730544
1.2879279 -2.5441442 -0.049774267 53 7 -0.053728238
1.4670944 -2.8993223 0.87066728 68 15 -0.053725936
1.2882102 -2.5546525 -0.76662207 44 0 -0.053705201
1.6215692 -3.2157373 0.062863566 6 8 -0.053702895
1.2893738 -2.5580704 -0.66135609 41 1 -0.053700592
1.596006 -3.167793 0.18589734 9 9 -0.053698286
1.2883636 -2.5582883 -0.5567807 43 2 -0.053695984
1.5811571 -3.1410491 0.30765978 12 10 -0.053693678
1.2860994 -2.5549023 -0.45303425 45 3 -0.053691376
1.5873116 -3.1546454 0.43361115 35 11 -0.05368907
1.2861769 -2.5572784 -0.35147122 44 4 -0.053686768
1.5731232 -3.1291678 0.55471671 46 12 -0.053684462
1.2730117 -2.5333045 -0.24804525 40 5 -0.05368216
1.5752677 -3.1347966 0.6819514 2 13 -0.053679854
1.2945058 -2.577199 -0.15114626 28 6 -0.053677551
1.4742223 -2.9362695 0.75853497 37 14 -0.053675249
1.2808331 -2.5521989 -0.049844075 53 7 -0.053672943
1.4535004 -2.8975184 0.86859673 71 15 -0.053670641
1.2814598 -2.562366 -0.76765728 46 0 -0.053649902
1.5826161 -3.1659298 0.061781518 33 8 -0.0536476
1.2752104 -2.5520961 -0.65865672 39 1 -0.053645294
1.5837069 -3.1694946 0.18568799 40 9 -0.053642992
1.2798731 -2.5625465 -0.5567807 43 2 -0.053640686
1.5662829 -3.137362 0.30678821 39 10 -0.053638384
1.2692354 -2.5434682 -0.45021844 43 3 -0.053636078
1.5665436 -3.1406269 0.43093005 40 11 -0.053633776
1.2772425 -2.5617523 -0.35147122 44 4 -0.05363147
1.5645005 -3.1379027 0.55534244 48 12 -0.053629167
1.2628264 -2.5339458 -0.24769662 40 5 -0.053626865
1.5520602 -3.1156743 0.67660874 10 13 -0.053624559
1.2748189 -2.5602472 -0.14989018 27 6 -0.053622257
1.4587538 -2.9309301 0.75583553 30 14 -0.053619951
1.2687985 -2.5492713 -0.049704451 52 7 -0.053617649
1.4413023 -2.8971336 0.86704385 67 15 -0.053615343
1.2707916 -2.5633616 -0.76662207 43 0 -0.053594608
1.5650034 -3.1568274 0.061502282 49 8 -0.053592302
1.2641443 -2.5510726 -0.65730697 42 1 -0.05359
1.5655415 -3.1606855 0.1848506 52 9 -0.053587694
1.2709203 -2.5669985 -0.5567807 44 2 -0.053585391
1.5579729 -3.1481674 0.30731115 37 10 -0.053583089
1.2607938 -2.547663 -0.45021844 41 3 -0.053580783
1.5508392 -3.135129 0.42946759 43 11 -0.053578481
1.2617018 -2.5517383 -0.34952128 41 4 -0.053576175
1.5517876 -3.1398029 0.55471671 52 12 -0.053573873
1.253974 -2.5383382 -0.24769662 41 5 -0.053571567
1.5478069 -3.1331251 0.67928004 23 13 -0.053569265
1.2619003 -2.5555062 -0.14936683 26 6 -0.053566959
1.4438514 -2.9252665 0.7531361 30 14 -0.053564657
1.2581228 -2.5500979 -0.049634643 51 7 -0.053562351
1.4294716 -2.8986819 0.86600858 68 15 -0.053560048
1.2622842 -2.5675619 -0.76662207 44 0 -0.05353931
1.5583842 -3.1712446 0.061676804 49 8 -0.053537007
1.2543725 -2.5537207 -0.65685707 41 1 -0.053534705
1.5518584 -3.160753 0.18453661 54 9 -0.053532399
1.2537482 -2.553576 -0.55296451 44 2 -0.053530097
1.5440137 -3.1461618 0.30661389 55 10 -0.053527791
1.251893 -2.5520487 -0.45021844 43 3 -0.053525489
1.5381382 -3.1369586 0.42898014 48 11 -0.053523183
1.2492924 -2.5489969 -0.34854636 41 4 -0.053520881
1.5364728 -3.1363308 0.55315232 55 12 -0.053518575
1.2455496 -2.5424826 -0.24769662 40 5 -0.053516272
1.5454948 -3.156141 0.68309623 15 13 -0.053513967
1.2529722 -2.5598958 -0.14936683 25 6 -0.053511664
1.4267805 -2.916285 0.74953693 31 14 -0.053509358
1.2439426 -2.5436957 -0.049425215 51 7 -0.053507056
1.4151031 -2.8949759 0.86342037 66 15 -0.05350475
1.2456977 -2.5563228 -0.76196331 45 0 -0.053484015
1.5455534 -3.1730695 0.061606996 68 8 -0.053481713
1.2428916 -2.5528274 -0.65550733 44 1 -0.053479407
1.5416901 -3.1679463 0.18464127 60 9 -0.053477105
1.2396727 -2.5473447 -0.5506748 43 2 -0.053474799
1.5373797 -3.1604908 0.30748546 52 10 -0.053472497
1.242977 -2.5564029 -0.45021844 43 3 -0.053470191
1.5280463 -3.1440938 0.42922387 40 11 -0.053467888
1.2395198 -2.5515563 -0.3483026 40 4 -0.053465582
1.5246527 -3.1398983 0.55283946 57 12 -0.05346328
1.2297047 -2.5324769 -0.24630213 40 5 -0.053460974
1.53704 -3.1668153 0.68424112 17 13 -0.053458672
1.2457727 -2.5678477 -0.14957617 25 6 -0.053456366
1.4157416 -2.9194942 0.74908704 34 14 -0.053454064
1.231567 -2.5408247 -0.049285594 51 7 -0.053451758
1.4024618 -2.8946824 0.86186743 67 15 -0.053449456
1.2325658 -2.5519576 -0.75937515 46 0 -0.053428721
1.5275131 -3.1640384 0.061327755 60 8 -0.053426415
1.233973 -2.5571501 -0.65550733 42 1 -0.053424112
1.5332257 -3.1787055 0.18495528 69 9 -0.053421807
1.2316262 -2.5534251 -0.55105644 41 2 -0.053419504
1.520281 -3.1532753 0.30626526 56 10 -0.053417198
1.2254704 -2.5429308 -0.44708973 43 3 -0.053414896
1.5196468 -3.1547737 0.42995507 40 11 -0.05341259
1.2254385 -2.5451365 -0.3468402 45 4 -0.053410288
1.5179665 -3.1541007 0.55440378 55 12 -0.053407982
1.213505 -2.5226033 -0.24490763 41 5 -0.05340568
1.5174659 -3.1544695 0.68042493 37 13 -0.053403374
1.2368014 -2.5721807 -0.14957617 25 6 -0.053401072
1.4046978 -2.9226615 0.74863708 40 14 -0.053398766
1.2226903 -2.5451081 -0.049285594 51 7 -0.053396463
1.3864954 -2.8873701 0.858244 66 15 -0.053394161
1.2240378 -2.5582006 -0.75989276 45 0 -0.053373422
1.518185 -3.1729593 0.061397567 64 8 -0.05337112
1.2216766 -2.5544097 -0.65370774 42 1 -0.053368814
1.5212588 -3.1822357 0.1848506 61 9 -0.053366512
1.2180268 -2.5490649 -0.54914832 43 2 -0.053364206
1.5147244 -3.171411 0.30748546 55 10 -0.053361904
1.2118866 -2.5384922 -0.44552541 45 3 -0.053359598
1.5086251 -3.160059 0.42995507 43 11 -0.053357296
1.215692 -2.5476067 -0.34659645 42 4 -0.05335499
1.5069473 -3.1593802 0.55440378 55 12 -0.053352688
1.2046918 -2.526824 -0.24490763 42 5 -0.053350382
1.5084276 -3.1653268 0.68156981 46 13 -0.053348079
1.2196354 -2.5604682 -0.14863414 27 6 -0.053345777
1.3923008 -2.9242716 0.74773729 40 14 -0.053343471
1.2103602 -2.5421388 -0.049145978 51 7 -0.053341169
1.3755782 -2.8904474 0.85772634 63 15 -0.053338863
1.21179 -2.5554757 -0.75782222 45 0 -0.053318128
1.5074018 -3.1803095 0.061432473 61 8 -0.053315822
1.2056308 -2.5447817 -0.65010852 44 1 -0.05331352
1.5033005 -3.1730874 0.18401325 60 9 -0.053311214
