# .PCD v0.7 - Point Cloud Data file format
VERSION 0.7
FIELDS x y z intensity ring time
SIZE 4 4 4 4 2 4
TYPE F F F F U F
COUNT 1 1 1 1 1 1
WIDTH 953
HEIGHT 1
VIEWPOINT 0 0 0 1 0 0 0
POINTS 953
DATA ascii
4.8808374 -2.032696 0.092288323 80 8 -0.083053365
3.7469742 -1.5612495 -0.93714613 10 1 -0.083051056
5.536397 -2.3068473 0.3143298 82 9 -0.083048753
4.450521 -1.8553076 -0.93725383 10 2 -0.083046451
5.5423222 -2.3115871 0.52537483 100 10 -0.083044149
4.9039369 -2.0463347 -0.84161752 82 3 -0.083041847
5.5303783 -2.3088722 0.73584712 100 11 -0.083039537
4.8965554 -2.0442581 -0.65151358 76 4 -0.083037235
5.5338974 -2.3114755 0.94987023 100 12 -0.083034933
5.1712041 -2.161041 -0.49033821 68 5 -0.08303263
5.5444179 -2.3181431 1.1681327 68 13 -0.083030321
5.0614786 -2.1172621 -0.28753379 70 6 -0.083028018
5.5120153 -2.3057258 1.3793999 22 14 -0.083025716
4.9861174 -2.0867608 -0.094347708 66 7 -0.083023414
6.5878563 -2.7584622 1.9137081 4 15 -0.083021104
3.2325759 -1.3581859 -0.93951315 8 0 -0.083000369
4.8814445 -2.0519702 0.092427947 80 8 -0.082998067
3.7525539 -1.578199 -0.93984544 10 1 -0.082995765
5.541604 -2.3306139 0.31506249 87 9 -0.082993463
4.4371057 -1.8670102 -0.93572736 8 2 -0.082991153
5.5272813 -2.3268614 0.52467757 95 10 -0.082988851
4.9116883 -2.0687199 -0.8441205 84 3 -0.082986549
5.5281792 -2.3295114 0.73657835 99 11 -0.082984246
4.9043846 -2.0666513 -0.65346348 75 4 -0.082981937
5.5007186 -2.3190701 0.94549 91 12 -0.082979634
5.1640096 -2.1781771 -0.49033821 68 5 -0.082977332
5.5439343 -2.3395696 1.1696591 71 13 -0.08297503
5.0617895 -2.1371427 -0.28795245 73 6 -0.08297272
7.5473714 -3.1865823 1.8913884 24 14 -0.082970418
4.9718018 -2.1001713 -0.094208091 66 7 -0.082968116
6.5306268 -2.7599881 1.8997319 1 15 -0.082965814
3.2244971 -1.3673896 -0.93847787 10 0 -0.082945079
4.8727717 -2.0673652 0.092393041 85 8 -0.082942769
3.7365372 -1.586066 -0.93714613 11 1 -0.082940467
5.5407882 -2.3530667 0.31548119 91 9 -0.082938164
4.4272757 -1.880179 -0.93496412 10 2 -0.082935862
5.5232019 -2.3467357 0.5250262 100 10 -0.082933553
4.9048014 -2.084996 -0.8441205 76 3 -0.08293125
5.5259042 -2.3501613 0.73730958 98 11 -0.082928948
4.9080997 -2.0884213 -0.65492588 76 4 -0.082926646
5.5271235 -2.3529584 0.95143455 95 12 -0.082924336
5.1530914 -2.1937289 -0.48998958 68 5 -0.082922034
5.5361457 -2.3579409 1.1696591 70 13 -0.082919732
5.0620241 -2.1570482 -0.28837115 73 6 -0.08291743
7.5290318 -3.2098515 1.889589 30 14 -0.08291512
4.9791551 -2.1237898 -0.094487324 65 7 -0.082912818
6.4694252 -2.7607782 1.8847204 19 15 -0.082910515
3.2285838 -1.382439 -0.94106609 8 0 -0.08288978
4.8618498 -2.082787 0.092323236 85 8 -0.082887478
3.7238131 -1.5960283 -0.93534642 7 1 -0.082885168
5.5453901 -2.377903 0.31621388 97 9 -0.082882866
4.4224901 -1.8963954 -0.93534577 10 2 -0.082880564
5.5332861 -2.3738563 0.52676928 100 10 -0.082878262
4.8938622 -2.1005459 -0.84349471 78 3 -0.082875952
5.514019 -2.3678699 0.73682213 98 11 -0.08287365
4.9080758 -2.1086757 -0.6559009 76 4 -0.082871348
5.5297647 -2.3769181 0.95331174 95 12 -0.082869045
5.1490636 -2.2132771 -0.49033821 68 5 -0.082866736
5.5242743 -2.3757002 1.168896 71 13 -0.082864434
5.0507941 -2.1731257 -0.28816178 73 6 -0.082862131
7.5338907 -3.2430472 1.8936379 34 14 -0.082859829
4.9680386 -2.1395752 -0.09441752 65 7 -0.082857527
6.4544263 -2.7810507 1.8831675 45 15 -0.082855217
3.225512 -1.394467 -0.94158375 7 0 -0.082834482
4.8618908 -2.1029208 0.092462853 85 8 -0.08283218
3.7128541 -1.6066954 -0.93399686 11 1 -0.082829878
5.5187273 -2.3893104 0.31516716 80 9 -0.082827568
4.4104385 -1.9094813 -0.93420094 10 2 -0.082825266
5.5249662 -2.3931565 0.52676928 100 10 -0.082822964
4.8973756 -2.122329 -0.84537196 78 3 -0.082820661
5.5057201 -2.3871028 0.73682213 92 11 -0.082818352
4.8897586 -2.1210556 -0.65443844 78 4 -0.082816049
5.5286827 -2.3993514 0.9545632 95 12 -0.082813747
5.1522727 -2.235996 -0.49138409 67 5 -0.082811445
5.5231514 -2.3980966 1.1704224 70 13 -0.082809143
5.0431776 -2.1907432 -0.28816178 70 6 -0.082806833
7.5028648 -3.2607815 1.8886892 36 14 -0.082804531
4.9715428 -2.1616883 -0.094626948 63 7 -0.082802229
6.4623942 -2.8112702 1.8883438 38 15 -0.082799926
3.2206247 -1.4057177 -0.94158375 7 0 -0.082779184
4.8471909 -2.1166782 0.092323236 76 8 -0.082776882
3.7072229 -1.619646 -0.93399686 8 1 -0.08277458
5.5231643 -2.4141591 0.31589985 95 9 -0.082772277
4.3965502 -1.9217194 -0.93267435 10 2 -0.082769975
5.5330086 -2.4196124 0.52833807 100 10 -0.082767665
4.8935575 -2.1409945 -0.84599775 91 3 -0.082765363
5.5264497 -2.4190423 0.74072188 100 11 -0.082763061
4.8895984 -2.1412964 -0.65541339 73 4 -0.082760759
5.516655 -2.4170504 0.95393753 95 12 -0.082758449
5.1517358 -2.2571657 -0.49208131 67 5 -0.082756147
5.5291314 -2.423667 1.1734754 71 13 -0.082753845
5.0464749 -2.2131467 -0.28878984 70 6 -0.082751542
7.5039291 -3.2924325 1.8918384 19 14 -0.082749233
4.9438248 -2.1701872 -0.09424299 57 7 -0.08274693
6.4596167 -2.8369181 1.8904144 38 15 -0.082744628
3.2103949 -1.4146143 -0.94003081 10 0 -0.082723893
4.8562403 -2.1408446 0.092637375 72 8 -0.082721591
3.7068956 -1.6349357 -0.93534642 10 1 -0.082719281
5.5165305 -2.4342301 0.31600451 93 9 -0.082716979
4.3826313 -1.9338844 -0.93114793 8 2 -0.082714677
5.5208836 -2.4373021 0.52798945 100 10 -0.082712375
4.8987026 -2.1636498 -0.8481878 32 3 -0.082710065
5.517972 -2.4383187 0.74072188 100 11 -0.082707763
5.2633653 -2.3269095 -0.70659852 30 4 -0.08270546
5.5045714 -2.4346941 0.95331174 95 12 -0.082703158
5.1401811 -2.2735226 -0.49173269 67 5 -0.082700849
5.5278192 -2.44613 1.1750019 72 13 -0.082698546
5.0368924 -2.2299402 -0.28868517 67 6 -0.082696244
7.4834814 -3.3146601 1.889589 28 14 -0.082693942
4.9362192 -2.1874313 -0.09424299 57 7 -0.082691632
6.4426107 -2.8563173 1.8883438 45 15 -0.08268933
3.1930814 -1.4203161 -0.93640739 9 0 -0.082668595
4.8377762 -2.1529052 0.092427947 72 8 -0.082666293
3.7082875 -1.651036 -0.93714613 10 1 -0.082663991
5.5025263 -2.4510334 0.31569052 91 9 -0.082661681
4.3722672 -1.9475734 -0.93038476 10 2 -0.082659379
5.5178018 -2.4589915 0.52851242 100 10 -0.082657076
4.8478198 -2.1614306 -0.84067887 28 3 -0.082654774
5.5148664 -2.4599912 0.74145311 96 11 -0.082652465
5.3186584 -2.3735828 -0.71512938 31 4 -0.082650162
5.510469 -2.4603364 0.95581466 95 12 -0.08264786
5.1449485 -2.2971375 -0.49295285 48 5 -0.082645558
5.5192466 -2.4654109 1.1750019 72 13 -0.082643248
5.0400186 -2.2523983 -0.2893132 65 6 -0.082640946
7.4754233 -3.3423529 1.8904886 30 14 -0.082638644
4.9395065 -2.2095482 -0.094452426 57 7 -0.082636341
6.4290738 -2.8772104 1.8873086 47 15 -0.082634032
3.198678 -1.436201 -0.93951315 7 0 -0.082613297
4.8302317 -2.1697791 0.092427947 72 8 -0.082610995
3.6936142 -1.659976 -0.93489659 8 1 -0.082608692
5.4961905 -2.4700859 0.31579518 97 9 -0.08260639
4.3743949 -1.9668486 -0.93229276 10 2 -0.08260408
5.5128188 -2.4798722 0.52886105 100 10 -0.082601778
4.8150268 -2.1669898 -0.83629876 40 3 -0.082599476
5.4953852 -2.4743369 0.73999077 94 11 -0.082597174
5.3157697 -2.3945794 -0.71586055 27 4 -0.082594864
5.5058818 -2.4802189 0.95644045 97 12 -0.082592562
5.5219846 -2.4886322 -0.52990693 65 5 -0.08259026
5.4891305 -2.474978 1.1704224 70 13 -0.082587957
5.0102782 -2.2601221 -0.28805712 36 6 -0.082585648
4.9558468 -2.2366092 -0.094906189 47 7 -0.082581043
6.4300618 -2.9032841 1.8904144 45 15 -0.082578741
3.1936452 -1.4473578 -0.93951315 13 0 -0.082558006
4.8321166 -2.1899116 0.092602469 70 8 -0.082555696
3.6738906 -1.6657776 -0.93129742 8 1 -0.082553394
5.4602513 -2.4768801 0.31422511 87 9 -0.082551092
4.360352 -1.9788611 -0.93076634 10 2 -0.08254879
5.5023146 -2.4982769 0.52868676 100 10 -0.08254648
4.7934251 -2.1764119 -0.83379585 41 3 -0.082544178
5.4998012 -2.4982936 0.74169689 98 11 -0.082541876
5.4343052 -2.469686 -0.73292232 28 4 -0.082539573
5.5187702 -2.5092344 0.96019489 95 12 -0.082537264
5.5187049 -2.5103672 -0.53042984 62 5 -0.082534961
5.5130596 -2.5077991 1.1772915 72 13 -0.082532659
5.5008507 -2.5034044 -0.31673726 65 6 -0.082530357
7.4826503 -3.4068861 1.8981371 19 14 -0.082528055
4.9862256 -2.2713029 -0.095639192 24 7 -0.082525745
5.530386 -2.5203419 1.6284895 18 15 -0.082523443
3.1958559 -1.4611535 -0.94158375 9 0 -0.082502708
4.8408098 -2.214252 0.092916615 38 8 -0.082500406
3.6715975 -1.6802136 -0.93219715 11 1 -0.082498096
5.4624681 -2.5009131 0.31485313 87 9 -0.082495794
4.3519812 -1.9924926 -0.93038476 10 2 -0.082493491
5.5175481 -2.5272954 0.53095281 100 10 -0.082491189
4.7732282 -2.1873701 -0.83160573 50 3 -0.08248888
5.5018744 -2.52244 0.74315935 100 11 -0.082486577
5.5014338 -2.5234003 -0.74315935 31 4 -0.082484275
5.5045915 -2.5260115 0.95925629 75 12 -0.082481973
5.5139713 -2.5303159 -0.53077847 67 5 -0.082479671
5.5131936 -2.5311241 1.1791997 19 13 -0.082477361
5.5084128 -2.5300932 -0.31767929 66 6 -0.082475059
7.4831076 -3.4386809 1.9012864 15 14 -0.082472757
4.9964352 -2.2970469 -0.095988236 28 7 -0.082470454
5.5426159 -2.5493183 1.6347013 1 15 -0.082468145
3.1626704 -1.4593496 -0.93330151 8 0 -0.08244741
5.5102587 -2.5437629 0.1059361 82 8 -0.082445107
3.6674795 -1.6938366 -0.93264711 7 1 -0.082442805
5.4736485 -2.5291808 0.31600451 97 9 -0.082440503
4.3218303 -1.996966 -0.92542368 10 2 -0.082438193
5.4978414 -2.5415239 0.52990693 75 10 -0.082435891
4.7458415 -2.1948972 -0.82816416 49 3 -0.082433589
5.4930358 -2.5416298 0.74315935 33 11 -0.082431287
5.4961944 -2.5442562 -0.7436468 27 4 -0.082428977
5.4580979 -2.5277777 0.95268601 36 12 -0.082426675
5.5123372 -2.5528972 -0.53147572 67 5 -0.082424372
5.4989805 -2.5478768 1.1780548 16 13 -0.08242207
5.5067954 -2.5526655 -0.31809795 68 6 -0.082419761
5.468051 -2.5358651 1.3915472 5 14 -0.082417458
5.5144348 -2.5585456 -0.10611063 90 7 -0.082415156
5.523169 -2.5637698 1.6315954 1 15 -0.082412854
3.1628108 -1.4728272 -0.93485445 8 0 -0.082392119
5.5013456 -2.5629818 0.1059361 72 8 -0.082389809
3.6615446 -1.7066282 -0.93264711 10 1 -0.082387507
5.4484959 -2.5406754 0.31506249 29 9 -0.082385205
4.3255095 -2.0170183 -0.92771345 10 2 -0.082382903
5.4690752 -2.5514338 0.52798945 20 10 -0.082380593
4.718461 -2.2022598 -0.82472259 50 3 -0.082378291
5.4751368 -2.5565891 0.74194062 38 11 -0.082375988
5.5052652 -2.5718281 -0.74608415 28 4 -0.082373686
5.4868226 -2.564379 0.95925629 38 12 -0.082371376
5.496172 -2.5687485 -0.53077847 66 5 -0.082369074
5.5042806 -2.573709 1.1811076 61 13 -0.082366772
5.5105157 -2.5777965 -0.3188307 60 6 -0.08236447
7.4730387 -3.4974465 1.9048855 16 14 -0.08236216
5.5109029 -2.5803227 -0.10621535 46 7 -0.082359858
6.4011445 -2.9985154 1.8940378 43 15 -0.082357556
3.1593986 -1.4846801 -0.93537205 9 0 -0.082336821
5.4778886 -2.5753634 0.10565687 20 8 -0.082334518
3.6432211 -1.713593 -0.92949772 8 1 -0.082332209
5.4667015 -2.5724344 0.31663257 21 9 -0.082329907
4.3184423 -2.0321045 -0.92771345 10 2 -0.082327604
5.4511223 -2.5662656 0.52711791 27 10 -0.082325302
4.7196798 -2.2229254 -0.82628691 45 3 -0.082322992
5.4931154 -2.5883777 0.74559671 80 11 -0.08232069
5.5160055 -2.6003401 -0.74876529 30 4 -0.082318388
5.493917 -2.5910995 0.96207207 87 12 -0.082316086
5.5124006 -2.599817 -0.53321886 45 5 -0.082313776
5.4863858 -2.5887182 1.1791997 63 13 -0.082311474
5.4924531 -2.5927529 -0.31830731 21 6 -0.082309172
7.459023 -3.5226791 1.9044356 13 14 -0.082306869
5.4964385 -2.5969808 -0.10611063 16 7 -0.082304567
6.3923855 -3.0216668 1.8945554 45 15 -0.082302257
3.1559424 -1.4965271 -0.93588972 9 0 -0.082277775
5.4670587 -2.593612 0.10562197 30 8 -0.082275473
3.6284146 -1.7221218 -0.92724824 10 1 -0.08227317
5.4847517 -2.6043515 0.31820264 74 9 -0.082270861
4.3148694 -2.0488508 -0.92847663 10 2 -0.082268558
5.4799237 -2.6032312 0.53077847 85 10 -0.082266256
4.719028 -2.2427785 -0.82753843 49 3 -0.082263954
5.4822536 -2.6066837 0.74535298 91 11 -0.082261644
5.4800062 -2.6067882 -0.74510926 11 4 -0.082259342
5.4955411 -2.6153541 0.96394926 87 12 -0.08225704
5.501493 -2.6181867 -0.53304452 16 5 -0.082254738
5.4968143 -2.617137 1.1833974 70 13 -0.082252428
5.4779596 -2.6093326 -0.31799328 19 6 -0.082250126
7.4519587 -3.5512094 1.9057853 12 14 -0.082247823
5.50178 -2.6230359 -0.10638987 38 7 -0.082245521
6.3887734 -3.0472889 1.8966261 45 15 -0.082243212
3.1489568 -1.5067005 -0.93537205 8 0 -0.082222477
5.5012608 -2.6334016 0.10645968 90 8 -0.082220174
3.6294115 -1.7381438 -0.92904782 10 1 -0.082217872
5.499043 -2.6346998 0.31956339 97 9 -0.08221557
4.2899861 -2.0554168 -0.92466044 10 2 -0.08221326
5.4941602 -2.6335394 0.53304452 80 10 -0.082210958
4.7182956 -2.2626538 -0.82878989 47 3 -0.082208656
5.4856496 -2.6318154 0.74705911 89 11 -0.082206354
5.4708738 -2.625901 -0.74510926 16 4 -0.082204044
5.4845977 -2.6336665 0.9636364 81 12 -0.082201742
5.4761558 -2.6296127 -0.53147572 18 5 -0.082199439
5.5088811 -2.6465101 1.1879768 70 13 -0.082197137
5.5048203 -2.6457424 -0.32008675 62 6 -0.082194827
5.4619684 -2.6263201 1.3991956 20 14 -0.082192525
5.512413 -2.6517601 -0.10677383 67 7 -0.082190223
6.3815789 -3.0712464 1.8976613 49 15 -0.082187921
3.1401989 -1.5160035 -0.93433678 9 0 -0.082167186
5.5028391 -2.6578069 0.10666911 95 8 -0.082164876
3.6180584 -1.7482587 -0.92769814 8 1 -0.082162574
5.4938722 -2.6546586 0.31977272 93 9 -0.082160272
4.2704124 -2.0643981 -0.92198914 8 2 -0.082157969
5.4777594 -2.6492319 0.53234726 80 10 -0.08215566
4.7245941 -2.2859929 -0.83129281 49 3 -0.082153358
5.4907236 -2.6578672 0.74900907 98 11 -0.082151055
5.4889369 -2.6570022 -0.74876529 28 4 -0.082148753
5.4776115 -2.6527004 0.96394926 78 12 -0.082146443
5.4759088 -2.6530554 -0.53234726 38 5 -0.082144141
5.5031433 -2.6674366 1.1887401 71 13 -0.082141839
5.4937549 -2.6640701 -0.31998208 67 6 -0.082139537
7.4276137 -3.6018505 1.9057853 12 14 -0.082137235
5.492794 -2.6647887 -0.1065644 65 7 -0.082134925
3.1212587 -1.5196431 -0.93019569 12 0 -0.082111888
5.4903994 -2.674289 0.1065993 95 8 -0.082109585
3.612241 -1.760247 -0.92769814 8 1 -0.082107276
5.4940162 -2.677237 0.32029608 91 9 -0.082104973
4.256484 -2.0751066 -0.92046267 10 2 -0.082102671
5.4689441 -2.6673822 0.53234726 85 10 -0.082100369
4.7258644 -2.3059793 -0.83285719 55 3 -0.082098059
5.4658246 -2.6682229 0.74681538 91 11 -0.082095757
5.4765282 -2.6734478 -0.74827784 12 4 -0.082093455
5.4829855 -2.6777854 0.96645224 85 12 -0.082091153
5.4581299 -2.6668262 -0.53147572 17 5 -0.08208885
5.4872117 -2.6822221 1.1872137 71 13 -0.082086541
5.4920669 -2.6857829 -0.32040074 65 6 -0.082084239
5.598485 -2.7378244 1.438787 15 14 -0.082081936
5.4911118 -2.6865039 -0.10670401 61 7 -0.082079634
6.3367772 -3.101613 1.8904144 1 15 -0.082077324
3.1300755 -1.5367966 -0.93433678 13 0 -0.082056589
5.4761162 -2.689836 0.10649458 82 8 -0.082054287
3.606384 -1.772216 -0.92769814 8 1 -0.082051985
4.2601509 -2.0944073 -0.92275238 10 2 -0.082047373
5.4707956 -2.690779 0.53339314 85 10 -0.082045071
4.7235088 -2.3242543 -0.83379585 57 3 -0.082042769
5.4765372 -2.6959777 0.74949652 89 11 -0.082040466
5.4867516 -2.7021959 -0.75095892 2 4 -0.082038157
5.4806924 -2.7004004 0.9677037 95 12 -0.082035854
5.4760647 -2.6981201 -0.5340904 16 5 -0.082033552
5.4782867 -2.7004035 1.1872137 70 13 -0.08203125
5.4831305 -2.7039807 -0.32040074 66 6 -0.08202894
5.5696692 -2.7478657 1.433838 48 14 -0.082026638
5.4924603 -2.7109654 -0.10691345 63 7 -0.082024336
6.3484306 -3.1348329 1.8971437 38 15 -0.082022034
3.1212296 -1.5459982 -0.93330151 9 0 -0.082001291
3.5949378 -1.782197 -0.92634839 8 1 -0.081996687
4.8060017 -2.3836291 0.28114879 1 9 -0.081994385
4.2598495 -2.1127543 -0.92427886 10 2 -0.081992082
5.4506612 -2.704546 0.53234726 85 10 -0.081989773
4.7242136 -2.34512 -0.83536011 54 3 -0.08198747
5.4724264 -2.7177269 0.75022775 91 11 -0.081985168
5.479064 -2.7222152 -0.7512027 19 4 -0.081982866
5.4818468 -2.7247908 0.96958095 95 12 -0.081980556
5.4844542 -2.7260871 -0.53583348 51 5 -0.081978254
5.4899225 -2.7299998 1.1917931 68 13 -0.081975952
5.4700818 -2.7213244 -0.32019141 66 6 -0.08197365
5.5373645 -2.7560029 1.4279894 67 14 -0.08197134
5.4972839 -2.7372515 -0.10719268 63 7 -0.081969038
6.3391781 -3.1578352 1.8976613 1 15 -0.081966735
3.1209986 -1.5594745 -0.93485445 8 0 -0.081946
5.4411063 -2.7199535 0.10618044 5 8 -0.081943698
3.5886946 -1.7947348 -0.92634839 10 1 -0.081941389
4.8137274 -2.4084339 0.28209084 9 9 -0.081939086
4.2822962 -2.142545 -0.93076634 3 2 -0.081936784
5.4590039 -2.7324739 0.5340904 75 10 -0.081934482
4.7354279 -2.3713255 -0.83880174 45 3 -0.081932172
5.4664569 -2.738591 0.7507152 94 11 -0.08192987
5.4784017 -2.7457714 -0.75242138 45 4 -0.081927568
5.4422822 -2.728857 0.96426219 91 12 -0.081925265
5.4940157 -2.7559969 -0.5377509 63 5 -0.081922956
5.4838696 -2.7509072 1.1925563 68 13 -0.081920654
5.4748302 -2.7475688 -0.3210288 69 6 -0.081918351
5.5137777 -2.7683198 1.4243901 88 14 -0.081916049
5.4823346 -2.7537313 -0.10708796 67 7 -0.081913739
6.3401999 -3.1860158 1.9012847 34 15 -0.081911437
3.0980122 -1.5622048 -0.92967808 15 0 -0.081890702
5.4494338 -2.7479339 0.10652949 17 8 -0.0818884
3.5858879 -1.8090062 -0.92724824 10 1 -0.081886098
4.8320365 -2.4387205 0.28366089 15 9 -0.081883788
4.4041014 -2.223707 -0.95900601 1 2 -0.081881486
5.4329467 -2.7443788 0.53252155 42 10 -0.081879184
4.7954631 -2.4234133 -0.85100359 39 3 -0.081876881
5.4728093 -2.7657139 0.75290889 98 11 -0.081874572
5.4740982 -2.7675645 -0.75315261 59 4 -0.08187227
5.460927 -2.7621028 0.96926802 91 12 -0.081869967
5.47014 -2.7679615 -0.53635645 65 5 -0.081867665
5.4877625 -2.7780817 1.1956092 67 13 -0.081865355
5.4629416 -2.7667143 -0.32092413 62 6 -0.081863053
5.4966412 -2.7849872 1.4225905 75 14 -0.081860751
5.4637704 -2.7683327 -0.10691345 59 7 -0.081858449
6.3255944 -3.2063811 1.9002496 9 15 -0.081856146
3.0925403 -1.5730094 -0.92967808 9 0 -0.081835404
5.3609085 -2.7279844 0.10499368 22 8 -0.081833102
3.5757601 -1.8203688 -0.92634839 8 1 -0.0818308
4.7518768 -2.4201574 0.27947402 1 9 -0.081828497
4.4173055 -2.2497585 -0.9635855 1 2 -0.081826188
4.794014 -2.4437263 -0.85225511 36 3 -0.081821583
5.4590993 -2.7839503 0.75242138 89 11 -0.081819281
5.4480033 -2.7794902 -0.75095892 71 4 -0.081816971
5.4630837 -2.7883859 0.9714582 95 12 -0.081814669
5.4639945 -2.7888505 -0.53670508 65 5 -0.081812367
5.4622951 -2.7891855 1.1921747 63 13 -0.081810065
5.4834867 -2.801213 -0.32270354 69 6 -0.081807762
5.4747391 -2.7979493 1.4194412 65 14 -0.081805453
5.4731722 -2.7983532 -0.1072974 60 7 -0.08180315
6.3172393 -3.2313035 1.9012847 9 15 -0.081800848
3.0887492 -1.5846765 -0.93019569 9 0 -0.081780113
5.3424582 -2.7421155 0.10481916 20 8 -0.081777804
3.5659173 -1.8310593 -0.92544866 10 1 -0.081775501
4.7327404 -2.4312539 0.278846 5 9 -0.081773199
4.4094257 -2.2651639 -0.9635855 1 2 -0.081770897
5.4331479 -2.7922587 0.53443903 10 10 -0.081768587
4.8276176 -2.4821234 -0.85976392 28 3 -0.081766285
5.4599395 -2.8084373 0.75388384 98 11 -0.081763983
5.4523888 -2.805757 -0.75290889 61 4 -0.081761681
5.465611 -2.8137677 0.97364825 91 12 -0.081759378
5.4648542 -2.8133781 -0.5377509 67 5 -0.081757069
5.4699798 -2.8172245 1.1959908 67 13 -0.081754766
5.4665737 -2.8166778 -0.32228485 68 6 -0.081752464
5.4614744 -2.8152566 1.4185413 86 14 -0.081750162
5.4775891 -2.8247736 -0.10757664 59 7 -0.081747852
6.3162222 -3.2586493 1.9043906 11 15 -0.08174555
3.0814834 -1.5945609 -0.92967808 10 0 -0.081724815
5.341733 -2.7653439 0.10499368 20 8 -0.081722513
3.5404689 -1.833637 -0.92049968 8 1 -0.081720203
4.7707634 -2.4708164 0.28156745 1 9 -0.081717901
4.4014916 -2.2805419 -0.9635855 1 2 -0.081715599
5.4445949 -2.8222096 0.53653073 12 10 -0.081713296
5.455389 -2.8302214 0.75461507 94 11 -0.081708685
5.4448166 -2.8247366 -0.75315261 57 4 -0.081706382
5.4650164 -2.836427 0.97521257 95 12 -0.08170408
5.4726825 -2.8416178 -0.53949404 66 5 -0.081701778
5.4688234 -2.8408263 1.197899 67 13 -0.081699468
5.4637971 -2.839426 -0.32270354 71 6 -0.081697166
5.4261718 -2.8198731 1.4117929 88 14 -0.081694864
5.4522238 -2.8346205 -0.10726249 9 7 -0.081692562
6.3122373 -3.2831426 1.9064611 11 15 -0.081690252
3.072753 -1.6029836 -0.92864275 9 0 -0.081669517
5.3467155 -2.7904441 0.10527291 10 8 -0.081667215
3.5326414 -1.8444659 -0.92004979 10 1 -0.081664912
4.8050351 -2.5088091 0.28407961 1 9 -0.08166261
5.451098 -2.8485539 0.53809953 25 10 -0.081657998
5.0206804 -2.6247482 -0.89730817 5 3 -0.081655696
5.4635644 -2.8574965 0.75705242 100 11 -0.081653394
5.4336605 -2.8418565 -0.75290889 63 4 -0.081651084
5.4275761 -2.8398809 0.97020662 85 12 -0.081648782
5.4596992 -2.8579025 -0.53914541 66 5 -0.08164648
5.4698081 -2.8644106 1.2001886 70 13 -0.081644177
5.4614277 -2.8612368 -0.32312223 69 6 -0.081641868
5.399529 -2.8288081 1.4072938 90 14 -0.081639566
4.945096 -2.591831 -0.097454235 1 7 -0.081637263
6.3338227 -3.3211017 1.9162962 1 15 -0.081634961
3.0622909 -1.6104668 -0.92708987 9 0 -0.081614226
5.344512 -2.8118837 0.10541254 5 8 -0.081611916
3.5368524 -1.8616164 -0.92274922 10 1 -0.081609614
4.8209896 -2.5385945 0.28554502 1 9 -0.081607312
4.3858671 -2.3104489 -0.9635855 1 2 -0.08160501
5.445148 -2.8684719 0.53844815 30 10 -0.0816027
4.9944735 -2.6321731 -0.89417946 3 3 -0.081600398
5.4470344 -2.8718953 0.75607747 91 11 -0.081598096
5.435998 -2.8672893 -0.75461507 60 4 -0.081595793
5.4525709 -2.8772473 0.97646403 97 12 -0.081593484
5.4602613 -2.882524 -0.54019129 65 5 -0.081591181
5.4632483 -2.8853199 1.2009518 71 13 -0.081588879
5.4620028 -2.8858814 -0.32375026 68 6 -0.081586577
5.3965135 -2.85128 1.4090934 88 14 -0.081584267
5.3779974 -2.8426976 -0.10618044 2 7 -0.081581965
6.3580546 -3.3621554 1.9271667 6 15 -0.081579663
3.0529547 -1.6198688 -0.92605454 10 0 -0.081558928
5.2617521 -2.7930129 0.10398144 7 8 -0.081556626
3.5403323 -1.8800508 -0.92544866 8 1 -0.081554316
4.8857327 -2.5956028 0.28994122 1 9 -0.081552014
5.4258008 -2.8837347 0.53757662 17 10 -0.081547409
4.9847922 -2.6504612 -0.89417946 2 3 -0.0815451
5.4575028 -2.9030275 0.75900233 100 11 -0.081542797
5.4219475 -2.8853288 -0.75412756 56 4 -0.081540495
5.4489641 -2.9009261 0.97771555 95 12 -0.081538193
5.4496598 -2.9025176 -0.54019129 65 5 -0.081535883
5.4491711 -2.9034779 1.2001886 71 13 -0.081533581
5.4619637 -2.9115183 -0.32437828 68 6 -0.081531279
5.3860269 -2.8710401 1.4090934 88 14 -0.081528977
5.4504733 -2.906615 -0.10782097 20 7 -0.081526674
6.3865957 -3.4072602 1.93959 30 15 -0.081524365
3.0572162 -1.6365179 -0.92916042 10 0 -0.08150363
5.2691078 -2.8217199 0.10433049 2 8 -0.081501327
3.4973447 -1.8736882 -0.91600066 8 1 -0.081499025
4.855516 -2.6013231 0.28868517 1 9 -0.081496716
4.3692217 -2.3417742 -0.9635855 1 2 -0.081494413
5.415195 -2.9036019 0.53757662 22 10 -0.081492111
4.9541559 -2.6575084 -0.89042509 3 3 -0.081489809
5.4328327 -2.9155014 0.75705242 96 11 -0.081487499
5.4415779 -2.9201944 -0.7582711 33 4 -0.081485197
5.4492464 -2.925535 0.97959268 97 12 -0.081482895
5.450027 -2.9271793 -0.54123718 56 5 -0.081480592
5.4459205 -2.9261987 1.2017151 70 13 -0.08147829
5.4376931 -2.9230011 -0.3235409 26 6 -0.081475981
5.400003 -2.9027407 1.415392 61 14 -0.081473678
4.9806247 -2.6784272 -0.098710813 1 7 -0.081471376
3.0466721 -1.6438949 -0.92760748 8 0 -0.081448331
4.9746518 -2.6852975 0.098675907 2 8 -0.081446029
3.4945414 -1.8871275 -0.91690052 8 1 -0.081443727
4.8820105 -2.6363907 0.29077861 1 9 -0.081441425
4.3614321 -2.3562503 -0.9635855 1 2 -0.081439123
5.4335809 -2.9367006 0.54036558 22 10 -0.081436813
4.9713807 -2.6880155 -0.89511812 3 3 -0.081434511
5.4283729 -2.9363346 0.75778365 98 11 -0.081432208
5.4499393 -2.9492302 0.98146993 97 12 -0.081427597
5.4465451 -2.9498518 1.2040049 71 13 -0.081422992
5.0223217 -2.7212257 -0.29936171 6 6 -0.08142069
5.3817797 -2.9159896 1.4131424 65 14 -0.08141838
4.9963284 -2.7082703 -0.099199481 1 7 -0.081416078
6.3394809 -3.4377606 1.9323431 55 15 -0.081413776
3.041204 -1.6539891 -0.92760748 8 0 -0.081393041
5.2362261 -2.848958 0.10405125 2 8 -0.081390738
3.5019569 -1.9061586 -0.92049968 8 1 -0.081388429
4.8868103 -2.6610572 0.29161596 1 9 -0.081386127
5.4430585 -2.9651873 0.542283 37 10 -0.081381522
4.9572353 -2.7016504 -0.89417946 3 3 -0.081379212
5.4255772 -2.9581203 0.7587586 98 11 -0.08137691
5.2612457 -2.8697157 -0.73584712 2 4 -0.081374608
5.4326754 -2.9644511 0.98021847 97 12 -0.081372306
5.4089904 -2.9527524 -0.53914541 11 5 -0.081369996
5.4499989 -2.9763734 1.2070577 71 13 -0.081367694
5.4369516 -2.9704802 -0.32469231 41 6 -0.081365392
5.4023514 -2.9515762 1.4212408 61 14 -0.081363089
5.4378009 -2.9721766 -0.10817002 13 7 -0.08136078
3.0266528 -1.6604786 -0.92501926 13 0 -0.081337743
5.3239174 -2.9220102 0.10600592 20 8 -0.08133544
3.4915309 -1.9171054 -0.91959995 8 1 -0.081333138
4.9155369 -2.7001052 0.29391876 2 9 -0.081330828
4.3444595 -2.3873992 -0.9635855 1 2 -0.081328526
5.4321537 -2.985117 0.542283 47 10 -0.081326224
4.9386458 -2.7150433 -0.8926152 2 3 -0.081323922
5.4007835 -2.9703336 0.7568087 89 11 -0.081321612
5.4072218 -2.9751039 -0.75778365 27 4 -0.08131931
5.432157 -2.9900584 0.98209572 95 12 -0.081317008
5.4400182 -2.9956226 -0.54332888 71 5 -0.081314705
5.4459319 -3.000118 1.2085842 72 13 -0.081312396
5.4347734 -2.9952075 -0.32521567 55 6 -0.081310093
5.4392848 -2.9976935 1.433838 35 14 -0.081307791
5.4251189 -2.9911213 -0.1081351 29 7 -0.081305489
5.4520054 -3.0071862 1.6683476 3 15 -0.081303179
3.0188565 -1.6706252 -0.92450172 10 0 -0.081282444
5.2974272 -2.9327865 0.10569178 20 8 -0.081280142
3.4930046 -1.9346105 -0.92184937 10 1 -0.08127784
4.9300652 -2.7316549 0.29538417 2 9 -0.081275538
4.3360991 -2.4025497 -0.9635855 1 2 -0.081273228
5.4072356 -2.9972796 0.54088855 15 10 -0.081270926
4.9010205 -2.7177985 -0.88760924 1 3 -0.081268623
5.4402003 -3.0180349 0.76387709 100 11 -0.081266321
5.4101667 -3.0026083 -0.75973356 22 4 -0.081264012
5.4246154 -3.0118661 0.98272139 95 12 -0.081261709
5.4277868 -3.0136268 -0.5431546 65 5 -0.081259407
5.431994 -3.0172031 1.207821 71 13 -0.081257105
5.4365058 -3.020951 -0.32594836 59 6 -0.081254795
5.4606233 -3.0355997 1.4423862 45 14 -0.081252493
5.4018869 -3.0041819 -0.10789078 13 7 -0.081250191
5.4291296 -3.0205741 1.6647241 1 15 -0.081247889
3.0130064 -1.6811529 -0.92450172 8 0 -0.081227154
4.8855567 -2.7270894 0.097663663 4 8 -0.081224844
3.4675148 -1.9363402 -0.91690052 8 1 -0.081222542
4.2419896 -2.3697963 -0.94450456 1 2 -0.081217937
4.8628058 -2.71773 0.48737493 4 10 -0.081215627
4.9363322 -2.7599537 -0.89574385 1 3 -0.081213325
5.4192376 -3.0311925 0.76241469 96 11 -0.081211023
5.4083147 -3.0263224 -0.76095223 30 4 -0.081208721
5.438201 -3.044292 0.98710161 95 12 -0.081206411
5.4259262 -3.0374207 -0.54402614 65 5 -0.081204109
5.4317064 -3.0419021 1.2101108 71 13 -0.081201807
5.4241853 -3.0389338 -0.32584369 71 6 -0.081199504
5.4142947 -3.0346336 1.4329382 43 14 -0.081197202
5.3407845 -2.9946578 -0.10687853 22 7 -0.081194893
6.2761536 -3.5205727 1.9282019 9 15 -0.08119259
3.0172219 -1.697343 -0.92760748 11 0 -0.081171855
4.9735975 -2.7990479 0.099618338 13 8 -0.081169553
3.4607344 -1.9484324 -0.91690052 11 1 -0.081167243
4.886992 -2.7514317 0.29391876 2 9 -0.081164941
4.1960592 -2.3633928 -0.93610895 3 2 -0.081162639
5.309804 -2.9919207 0.53321886 5 10 -0.081160337
4.8991356 -2.7616475 -0.89073795 1 3 -0.081158027
5.4189978 -3.0559413 0.76387709 99 11 -0.081155725
5.3965197 -3.0432651 -0.76070851 16 4 -0.081153423
5.3936663 -3.0428965 0.98084426 85 12 -0.08115112
5.3944697 -3.044591 -0.54193443 56 5 -0.081148818
5.4278932 -3.0647044 1.2116373 71 13 -0.081146508
5.406589 -3.0539198 -0.32542503 72 6 -0.081144206
5.4822531 -3.0966589 1.4536338 16 14 -0.081141904
5.3430119 -3.0192387 -0.10712288 13 7 -0.081139602
6.3165789 -3.570838 1.9442488 47 15 -0.081137292
3.0132573 -1.708292 -0.92812514 9 0 -0.081116557
5.3678327 -3.0443983 0.10771625 22 8 -0.081114255
3.4593389 -1.9627829 -0.9182502 10 1 -0.081111953
5.3746586 -3.0495098 0.32385492 2 9 -0.08110965
5.4107356 -3.0724769 0.54437476 30 10 -0.081105039
4.9071264 -2.7876356 -0.89386666 1 3 -0.081102736
5.4122863 -3.075856 0.7643646 99 11 -0.081100434
5.4157381 -3.0778174 -0.76485211 8 4 -0.081098124
5.4213247 -3.0822446 0.98772728 95 12 -0.081095822
5.379148 -3.0595078 -0.54141146 70 5 -0.08109352
5.3989301 -3.0720065 1.2074393 66 13 -0.081091218
5.420732 -3.0856643 -0.32689041 69 6 -0.081088908
5.4143724 -3.0820444 1.4383371 80 14 -0.081086606
5.3381829 -3.0399086 -0.10722758 22 7 -0.081084304
2.9958341 -1.7115667 -0.92450172 9 0 -0.081061266
5.2101359 -2.9778378 0.10474934 2 8 -0.081058957
3.447736 -1.9713418 -0.91690052 8 1 -0.081056654
4.3029914 -2.461355 -0.9635855 1 2 -0.08105205
5.416081 -3.0993087 0.54594356 42 10 -0.08104974
4.8978553 -2.8038931 -0.89386666 1 3 -0.081047438
5.4072247 -3.0967467 0.76509583 100 11 -0.081045136
5.3831086 -3.0829351 -0.76168346 2 4 -0.081042834
5.4076462 -3.0982416 0.98710161 97 12 -0.081040524
5.3707013 -3.0783198 -0.54158574 66 5 -0.081038222
5.3836045 -3.0869639 1.2062945 67 13 -0.081035919
5.3671579 -3.0787785 -0.32427362 62 6 -0.081033617
5.4362392 -3.1184056 1.4468851 73 14 -0.081031308
5.3350105 -3.0615752 -0.10736721 22 7 -0.081029005
6.2424946 -3.583797 1.9287195 108 15 -0.081026703
2.9834449 -1.7176361 -0.92243111 10 0 -0.081005968
5.3856454 -3.1018884 0.10848416 17 8 -0.081003666
3.4529991 -1.9895743 -0.92004979 12 1 -0.081001356
5.2920156 -3.0491922 0.32008675 2 9 -0.080999054
4.8137617 -2.775867 0.48615471 9 10 -0.08099445
4.9330182 -2.8457837 -0.90200126 1 3 -0.08099214
5.4295926 -3.1335135 0.76972687 100 11 -0.080989838
5.3608198 -3.0938237 -0.75997728 1 4 -0.080987535
5.4076066 -3.1220832 0.98897886 56 12 -0.080985233
5.3725405 -3.1030884 -0.54280597 53 5 -0.080982924
5.3818374 -3.1097105 1.2082026 49 13 -0.080980621
5.3638358 -3.1005578 -0.32469231 51 6 -0.080978319
5.4984155 -3.1783512 1.466231 80 14 -0.080976017
5.3282909 -3.0812519 -0.10743701 15 7 -0.080973715
2.9871535 -1.7343795 -0.92553693 9 0 -0.080950737
5.3500323 -3.1075459 0.10799549 17 8 -0.080948435
3.4372594 -1.9973217 -0.91780037 11 1 -0.080946133
5.4103203 -3.1438274 0.32793713 14 9 -0.080943823
4.8781614 -2.8380177 -0.89386666 1 3 -0.080936916
5.3940516 -3.1394129 0.76631445 24 11 -0.080934606
4.9509072 -2.8826537 -0.70342994 1 4 -0.080932304
5.3995414 -3.1438699 0.98960453 31 12 -0.080930002
5.3731828 -3.1297781 -0.54402614 46 5 -0.0809277
5.3839741 -3.1373231 1.2112557 19 13 -0.08092539
5.3524361 -3.1201963 -0.32469231 54 6 -0.080923088
5.5114222 -3.2141664 1.4729795 70 14 -0.080920786
5.3169618 -3.1007605 -0.10743701 10 7 -0.080918483
5.4213862 -3.1629269 1.6818062 16 15 -0.080916174
2.9827483 -1.745772 -0.92605454 9 0 -0.080895439
5.2344227 -3.0636539 0.1058663 2 8 -0.080893137
3.4440706 -2.0165861 -0.92139953 7 1 -0.080890834
5.3389955 -3.1273615 0.32427362 2 9 -0.080888532
4.1922879 -2.456651 -0.94450456 1 2 -0.080886222
5.3730159 -3.1498089 0.54489768 2 10 -0.08088392
4.3336244 -2.5404892 -0.79562581 1 3 -0.080881618
5.3818994 -3.1562786 0.76607072 26 11 -0.080879316
4.9396086 -2.8980513 -0.70318621 18 4 -0.080877006
5.3800163 -3.1576991 0.98804021 31 12 -0.080874704
5.3622246 -3.148515 -0.54402614 52 5 -0.080872402
5.3955493 -3.168082 1.2162166 45 13 -0.080870099
5.3420596 -3.1379285 -0.32469231 53 6 -0.08086779
5.5259352 -3.2472348 1.4797281 61 14 -0.080865487
5.331964 -3.1345022 -0.10796059 30 7 -0.080863185
2.9719508 -1.7527094 -0.92450172 9 0 -0.080840148
5.2650313 -3.1062932 0.10670401 7 8 -0.080837838
3.5007827 -2.0662358 -0.93849587 3 1 -0.080835536
5.259253 -3.1053598 0.32008675 2 9 -0.080833234
4.2077866 -2.4845145 -0.94984722 1 2 -0.080830932
5.3625412 -3.1676095 0.54489768 2 10 -0.080828622
4.2039838 -2.4842486 -0.77341211 9 3 -0.08082632
5.3657222 -3.1720154 0.76533955 68 11 -0.080824018
5.3927627 -3.1905415 0.99242038 75 12 -0.080819406
5.3637581 -3.1733816 -0.54524636 90 5 -0.080817103
5.3929052 -3.1918962 1.2181247 61 13 -0.080814801
5.3448219 -3.1646974 -0.32552966 51 6 -0.080812499
5.4206724 -3.2108867 1.4545335 61 14 -0.080810197
5.3330326 -3.1602314 -0.10820492 47 7 -0.080807887
6.2034822 -3.6775024 1.9323431 14 15 -0.080805585
2.9608326 -1.7601113 -0.92294878 13 0 -0.08078485
5.3400927 -3.1757596 0.10844925 15 8 -0.080782548
3.4968987 -2.0804362 -0.93939561 3 1 -0.080780238
5.2655439 -3.1339138 0.32113346 2 9 -0.080777936
4.1518502 -2.4710727 -0.93916196 1 2 -0.080775633
5.3856897 -3.2066946 0.54838395 15 10 -0.080773331
4.1935902 -2.4978974 -0.77309924 16 3 -0.080771022
5.3989549 -3.2171459 0.77167672 91 11 -0.080768719
5.3900757 -3.2144053 0.9939847 85 12 -0.080764115
5.3885832 -3.2135153 -0.54890686 26 5 -0.080761813
5.4019628 -3.2227721 1.2227042 63 13 -0.080759503
5.3440328 -3.1894765 -0.32615772 54 6 -0.080757201
5.3876805 -3.2168026 1.4486848 69 14 -0.080754898
5.4249744 -3.2403536 -0.11029921 58 7 -0.080752596
6.1806569 -3.6931887 1.9292372 3 15 -0.080750287
2.9530137 -1.7694429 -0.92243111 10 0 -0.080729552
5.2809505 -3.1655929 0.10747192 2 8 -0.080727249
3.4729025 -2.0826077 -0.93489659 1 1 -0.080724947
4.9565625 -2.9734955 0.30292055 2 9 -0.080722637
4.1650853 -2.4986799 -0.94412297 8 2 -0.080720335
5.3471298 -3.2090704 0.54559493 5 10 -0.080718033
4.1763768 -2.5074368 -0.77153486 20 3 -0.080715731
5.4047093 -3.2461932 0.77411413 91 11 -0.080713429
5.3855944 -3.2372713 0.99523622 78 12 -0.080708817
5.4166083 -3.2559137 -0.55291605 65 5 -0.080706514
5.3990922 -3.2466674 1.2246122 71 13 -0.080704212
5.3345785 -3.209141 -0.32626238 69 6 -0.080701903
5.3330069 -3.2094634 1.4369874 84 14 -0.0806996
5.4153438 -3.2603021 -0.11033412 63 7 -0.080697298
6.1511793 -3.7047739 1.9240609 34 15 -0.080694996
2.9501264 -1.7817372 -0.92346638 8 0 -0.080674253
5.3674269 -3.2429516 0.10946149 15 8 -0.080671951
3.4722829 -2.0987496 -0.93669617 1 1 -0.080669649
4.9700804 -3.0052471 0.30438596 2 9 -0.080667347
4.1580181 -2.5142193 -0.94450456 10 2 -0.080665044
5.3836293 -3.2565901 0.55047566 12 10 -0.080662735
4.1675987 -2.5219996 -0.77153486 18 3 -0.080660433
5.3899493 -3.2629836 0.77362669 91 11 -0.08065813
5.3776407 -3.2580976 0.99586189 85 12 -0.080653518
5.4154353 -3.2809958 -0.55396187 65 5 -0.080651216
5.3759742 -3.2583711 1.2219409 67 13 -0.080648914
5.377995 -3.260879 -0.3296119 57 6 -0.080646612
6.3847928 -3.8728628 1.7240249 45 14 -0.080644302
5.3919625 -3.2719233 -0.11008978 58 7 -0.080642
6.1382098 -3.7262228 1.9240609 34 15 -0.080639698
2.9372885 -1.7880065 -0.92139584 14 0 -0.080618963
5.3509502 -3.2585475 0.10935678 20 8 -0.08061666
3.451622 -2.1027467 -0.933097 1 1 -0.080614351
4.9356828 -3.0080259 0.30292055 2 9 -0.080612049
4.1341281 -2.5195227 -0.94107002 10 2 -0.080609746
5.3824353 -3.2815855 0.55152148 22 10 -0.080607444
4.1604562 -2.5375602 -0.77184772 16 3 -0.080605134
5.3598862 -3.2704041 0.77094555 89 11 -0.080602832
5.3797226 -3.2850857 0.99836493 78 12 -0.080598228
5.4050732 -3.301861 -0.55413622 65 5 -0.080595918
5.3762951 -3.2842808 1.2246122 71 13 -0.080593616
5.3853259 -3.2910886 -0.33076328 62 6 -0.080591314
6.3163676 -3.8615823 1.7091781 64 14 -0.080589011
5.4112163 -3.3095052 -0.11071807 60 7 -0.080586702
6.1515312 -3.7637582 1.9323431 14 15 -0.080584399
2.9373012 -1.8028023 -0.92346638 9 0 -0.080563664
5.3651075 -3.2928965 0.10988036 15 8 -0.080561362
3.4575462 -2.1229396 -0.93669617 1 1 -0.08055906
4.9489789 -3.0398712 0.30438596 2 9 -0.08055675
4.1114845 -2.5264354 -0.93801707 7 2 -0.080554448
5.3466086 -3.2866833 0.54908115 2 10 -0.080552146
4.1561756 -2.5558965 -0.77278632 20 3 -0.080549844
5.3873291 -3.3130112 0.77655149 94 11 -0.080547534
4.233655 -2.604562 -0.61032176 1 4 -0.080545232
5.381681 -3.3121269 1.0008678 87 12 -0.080542929
5.4009972 -3.3266149 1.2330078 68 13 -0.080538318
5.4021335 -3.3286159 -0.33254269 65 6 -0.080536015
6.2540636 -3.8550532 1.696131 70 14 -0.080533713
5.3979287 -3.3273249 -0.11068317 52 7 -0.080531411
2.9244187 -1.8089793 -0.92139584 9 0 -0.080508366
5.3768086 -3.3272703 0.11036902 10 8 -0.080506064
3.4563696 -2.1397009 -0.93849587 1 1 -0.080503762
5.3051462 -3.2842047 0.32699507 12 9 -0.08050146
4.1143241 -2.5480077 -0.94068843 5 2 -0.08049915
4.1489081 -2.5714295 -0.77309924 16 3 -0.080494545
5.3818989 -3.3369184 0.77752644 94 11 -0.080492243
4.2409496 -2.6305251 -0.61275911 3 4 -0.080489933
5.3566575 -3.3225629 0.99836493 78 12 -0.080487631
5.2972431 -3.2869904 -0.54542065 3 5 -0.080485329
5.3726721 -3.3350937 1.2291917 68 13 -0.080483027
5.3972692 -3.3516672 -0.33296138 66 6 -0.080480725
6.2008414 -3.85218 1.6853334 73 14 -0.080478415
6.1628442 -3.8300657 1.9442488 1 15 -0.08047381
2.9066107 -1.8120226 -0.91777241 13 0 -0.080453075
5.00769 -3.1218653 0.10300411 2 8 -0.080450766
3.4492552 -2.1511507 -0.93849587 1 1 -0.080448464
5.3800702 -3.3566206 0.33233336 17 9 -0.080446161
4.0920815 -2.5540378 -0.93763542 3 2 -0.080443859
5.2829728 -3.2986042 0.54489768 2 10 -0.080441549
4.1336551 -2.5809886 -0.77184772 16 3 -0.080439247
5.3842726 -3.3631606 0.7794764 94 11 -0.080436945
4.2187352 -2.6361582 -0.61080921 9 4 -0.080434643
5.3718276 -3.3579941 1.0033708 87 12 -0.080432341
5.3854041 -3.3677883 -0.55570501 8 5 -0.080430031
5.3615832 -3.3528919 1.2291917 71 13 -0.080427729
5.3641129 -3.3557763 -0.33160067 58 6 -0.080425426
6.1582985 -3.8541126 1.677235 73 14 -0.080423124
5.2203307 -3.2683628 -0.10750683 2 7 -0.080420814
2.9054937 -1.8247336 -0.91932529 12 0 -0.080397777
5.3608093 -3.3680468 0.11050864 22 8 -0.080395475
3.4417253 -2.1631775 -0.93849587 1 1 -0.080393165
5.2110753 -3.276511 0.32259887 2 9 -0.080390863
4.0968852 -2.5759537 -0.94068843 1 2 -0.080388561
5.3445253 -3.3617203 0.55239308 57 10 -0.080386259
4.131309 -2.5996106 -0.77309924 16 3 -0.080383956
5.3405809 -3.3618414 0.77484536 85 11 -0.080381647
4.2179065 -2.6561577 -0.61202788 18 4 -0.080379345
5.3784575 -3.3883066 1.0068123 91 12 -0.080377042
5.2468686 -3.3066878 1.2055314 68 13 -0.08037243
5.3844666 -3.3947179 -0.3335894 68 6 -0.080370128
6.0920625 -3.8423185 1.6628381 76 14 -0.080367826
5.2427144 -3.3079064 -0.10820492 3 7 -0.080365524
2.9036827 -1.8384707 -0.92087817 9 0 -0.080342479
5.3084717 -3.3610659 0.10967092 17 8 -0.080340177
3.4078128 -2.1584945 -0.93129742 1 1 -0.080337875
4.9701624 -3.149296 0.30836347 12 9 -0.080335572
4.0874166 -2.5909522 -0.94068843 1 2 -0.080333263
5.3775978 -3.410095 0.55709946 47 10 -0.08033096
4.1217532 -2.6147349 -0.77309924 16 3 -0.080328658
5.3254604 -3.3783362 0.77435786 89 11 -0.080326356
4.2371025 -2.6889465 -0.61617148 84 4 -0.080324046
5.3766041 -3.413413 1.0086895 91 12 -0.080321744
4.7932935 -3.0442643 -0.49678773 1 5 -0.080319442
5.373909 -3.4143348 1.2375872 70 13 -0.08031714
5.382102 -3.4208584 -0.33421743 71 6 -0.08031483
6.028605 -3.8332527 1.6493411 74 14 -0.080312528
5.3222585 -3.3841264 -0.11008978 6 7 -0.080310225
2.8972478 -1.8485953 -0.92087817 10 0 -0.080287188
5.3770247 -3.432143 0.11134635 35 8 -0.080284879
3.4031637 -2.1730676 -0.93219715 1 1 -0.080282576
4.9838338 -3.183619 0.30993357 74 9 -0.080280274
4.0684204 -2.5988629 -0.93839866 1 2 -0.080277972
5.3438368 -3.4148982 0.55483341 25 10 -0.080275662
4.1259155 -2.6376185 -0.77560216 15 3 -0.08027336
5.3515067 -3.4224308 0.77996385 91 11 -0.080271058
4.2322345 -2.7076681 -0.61690265 91 4 -0.080268756
5.3507466 -3.4245775 1.0061866 81 12 -0.080266446
4.7289381 -3.0266082 -0.49120975 24 5 -0.080264144
5.3718781 -3.439424 1.2398769 71 13 -0.080261841
5.3465824 -3.4245436 -0.33275205 65 6 -0.080259539
5.365375 -3.4392226 -0.11124164 20 7 -0.080254927
2.8810277 -1.8524286 -0.91777241 10 0 -0.08023189
5.3734212 -3.4563003 0.11152088 52 8 -0.080229588
3.408668 -2.1933701 -0.93579644 1 1 -0.080227278
4.984446 -3.208564 0.31066626 46 9 -0.080224976
4.0560222 -2.6109235 -0.93763542 1 2 -0.080222674
5.0822926 -3.2728033 0.52886105 55 10 -0.080220371
4.131629 -2.6616325 -0.778418 19 3 -0.080218062
5.3762369 -3.4647479 0.78532612 100 11 -0.08021576
4.2227573 -2.7224247 -0.61690265 100 4 -0.080213457
5.3238196 -3.433598 1.0033708 87 12 -0.080211155
4.982893 -3.2137177 -0.51875097 1 5 -0.080208845
5.3796358 -3.4709265 1.2444563 66 13 -0.080206543
5.361445 -3.4605155 -0.33442679 63 6 -0.080204241
5.7692256 -3.7251418 1.5854551 39 14 -0.080201939
5.3214226 -3.437315 -0.11057845 10 7 -0.080199637
5.8753276 -3.7965572 1.8743677 42 15 -0.080197327
2.8777866 -1.8645747 -0.91880763 9 0 -0.080176592
5.3042707 -3.4380567 0.11033412 27 8 -0.08017429
3.4042609 -2.2073753 -0.93669617 1 1 -0.080171987
4.9888611 -3.2348545 0.31160831 42 9 -0.080169678
4.0435901 -2.6229286 -0.93687224 1 2 -0.080167376
4.9655428 -3.2221971 0.51787943 100 10 -0.080165073
4.1007733 -2.6620557 -0.7743507 15 3 -0.080162771
5.3274832 -3.4597082 0.77996385 91 11 -0.080160461
4.1999116 -2.7284966 -0.61495274 39 4 -0.080158159
5.3571296 -3.4802899 1.0118183 100 12 -0.080155857
5.3576117 -3.4832635 1.2421666 66 13 -0.080151252
5.8427582 -3.8015847 1.6092998 13 14 -0.080146641
4.604342 -2.9958105 -0.095883526 13 7 -0.080144338
5.827085 -3.7928345 1.8629795 54 15 -0.080142036
2.8696427 -1.8735526 -0.91829002 8 0 -0.080121294
4.9529333 -3.233706 0.10324844 73 8 -0.080118991
3.3740804 -2.2037334 -0.93039757 1 1 -0.080116689
4.9875703 -3.2588041 0.31223634 46 9 -0.080114387
4.0442696 -2.6434722 -0.93916196 1 2 -0.080112085
4.9659376 -3.2471437 0.51909959 72 10 -0.080109775
4.1068029 -2.6853697 -0.77716655 11 3 -0.080107473
5.365819 -3.5099559 0.78727603 100 11 -0.080105171
4.1991458 -2.7478437 -0.61617148 25 4 -0.080102868
5.3631282 -3.5108695 1.0152597 95 12 -0.080100559
4.5619755 -2.9875481 -0.47709054 16 5 -0.080098256
5.3624554 -3.5117662 1.2459828 66 13 -0.080095954
4.542531 -2.9759471 -0.28460297 25 6 -0.080093652
5.8138208 -3.8102567 1.6048008 66 14 -0.080091342
4.6022182 -3.0173464 -0.096058048 47 7 -0.08008904
5.7701945 -3.7845452 1.8490034 36 15 -0.080086738
2.863414 -1.8830583 -0.91829002 11 0 -0.080066003
4.9599919 -3.2630649 0.10363239 45 8 -0.080063701
3.37939 -2.2240679 -0.93399686 1 1 -0.080061391
4.9711604 -3.2728994 0.31192234 44 9 -0.080059089
4.0420403 -2.6611876 -0.94068843 1 2 -0.080056787
4.9900846 -3.2866068 0.52276015 100 10 -0.080054484
4.5955586 -3.0279114 -0.8716529 29 3 -0.080052175
4.9756374 -3.2795823 0.73170358 64 11 -0.080049872
4.534236 -2.9897778 -0.6668691 15 4 -0.08004757
5.3557873 -3.5328324 1.0161984 91 12 -0.080045268
4.5237699 -2.9840095 -0.4741272 17 5 -0.080042958
5.3599963 -3.5369515 1.2482725 65 13 -0.080040656
4.4904442 -2.964277 -0.28198618 23 6 -0.080038354
5.7451959 -3.7940161 1.5895041 74 14 -0.080036052
4.5899892 -3.0322907 -0.096023142 46 7 -0.080033742
5.6940928 -3.7631238 1.8288155 15 15 -0.08003144
2.8584337 -1.8941091 -0.91880763 10 0 -0.080010705
4.961905 -3.2891974 0.10391163 28 8 -0.080008402
3.3618615 -2.2293887 -0.93129742 1 1 -0.0800061
4.8981252 -3.2493799 0.30804947 4 9 -0.080003791
3.9672863 -2.6318681 -0.92542368 1 2 -0.080001488
4.9785814 -3.3040056 0.52276015 100 10 -0.079999186
4.5931902 -3.0493972 -0.87321728 43 3 -0.079996884
4.9773884 -3.3057165 0.73365355 100 11 -0.079994574
4.4973178 -2.9880104 -0.66296923 15 4 -0.079992272
5.3467131 -3.5536933 1.0168241 91 12 -0.07998997
4.4834585 -2.9799311 -0.47098961 17 5 -0.079987668
5.3656006 -3.5675964 1.2524703 55 13 -0.079985358
4.4534621 -2.9622355 -0.28031141 23 6 -0.079983056
5.6913576 -3.7870588 1.5782566 76 14 -0.079980753
4.5777121 -3.0471861 -0.095988236 28 7 -0.079978451
5.5297747 -3.6823258 1.7801574 8 15 -0.079976141
2.8389516 -1.8954935 -0.91466653 9 0 -0.079955406
4.5546279 -3.042155 0.095604278 12 8 -0.079953104
3.3605402 -2.2454412 -0.933097 1 1 -0.079950802
4.5385842 -3.0325851 0.28606835 33 9 -0.0799485
3.9580753 -2.6457007 -0.92542368 1 2 -0.07994619
4.9885492 -3.3357611 0.5250262 67 10 -0.079943888
4.5825176 -3.065412 -0.87321728 40 3 -0.079941586
4.9922152 -3.3407354 0.73755336 100 11 -0.079939283
4.4472704 -2.9771879 -0.65711957 15 4 -0.079936974
5.341465 -3.5757995 1.0180756 91 12 -0.079934672
4.4332991 -2.9689553 -0.46680617 17 5 -0.079932369
5.4118323 -3.6256421 1.2662085 53 13 -0.079930067
4.4182076 -2.9610837 -0.27874133 24 6 -0.079927757
5.6424942 -3.7830279 1.5683587 80 14 -0.079925455
5.2917514 -3.5478714 -0.11120673 7 7 -0.079923153
5.3827634 -3.6102521 1.7366759 7 15 -0.079920851
2.8355236 -1.9075485 -0.91570181 14 0 -0.079900116
4.5362191 -3.0516617 0.095429763 100 8 -0.079897806
3.3466084 -2.2522204 -0.93129742 1 1 -0.079895504
4.5379119 -3.0551019 0.2866964 13 9 -0.079893202
3.9488161 -2.6595006 -0.92542368 1 2 -0.079890899
5.0082698 -3.3743062 0.52833807 100 10 -0.07988859
4.9860473 -3.3605995 0.73828453 100 11 -0.079883985
4.4044547 -2.9697237 -0.65224481 16 4 -0.079881683
4.971941 -3.3536165 0.94987023 81 12 -0.079879373
4.3931794 -2.9643526 -0.46366853 17 5 -0.079877071
5.4762688 -3.6951804 1.2841446 67 13 -0.079874769
4.3802228 -2.9567227 -0.27696192 22 6 -0.079872467
5.5927725 -3.7766352 1.5580109 61 14 -0.079870164
4.9147849 -3.3200591 -0.10352767 38 7 -0.079867855
5.3493199 -3.6149578 1.7299466 5 15 -0.079865552
2.8387783 -1.9234427 -0.91880763 17 0 -0.079844818
3.3419523 -2.2660761 -0.93219715 1 1 -0.079840206
3.939975 -2.6725807 -0.92542368 1 2 -0.079835601
5.0102415 -3.3998454 0.52973258 100 10 -0.079833299
4.4242582 -3.0033374 -0.84693629 1 3 -0.079830989
4.9480109 -3.3601406 0.73438478 100 11 -0.079828687
4.3645058 -2.9650013 -0.64785749 16 4 -0.079826385
4.9716406 -3.3787234 0.95206028 61 12 -0.079824083
4.3569589 -2.9609864 -0.46087953 16 5 -0.07982178
5.5104198 -3.7462838 1.2952114 60 13 -0.079819471
4.3318901 -2.9461606 -0.27455446 24 6 -0.079817168
5.5424986 -3.7709217 1.5476632 73 14 -0.079814866
4.9097791 -3.3416953 -0.10366729 33 7 -0.079812564
5.3382659 -3.6346958 1.7304642 10 15 -0.079810254
2.8320467 -1.9333403 -0.91880763 18 0 -0.079789519
3.3211496 -2.2689335 -0.92859799 1 1 -0.079784915
3.9306221 -2.6863177 -0.92542368 1 2 -0.079780303
4.983541 -3.4071939 0.52816379 67 10 -0.079778001
4.4365749 -3.0343754 -0.85131645 1 3 -0.079775698
4.929698 -3.3729081 0.73340976 78 11 -0.079773396
4.3180904 -2.9555511 -0.64249521 15 4 -0.079771087
4.9956746 -3.4206092 0.95894337 100 12 -0.079768784
4.3170066 -2.9559157 -0.45774195 16 5 -0.079766482
4.9935784 -3.4204552 1.1765283 24 13 -0.07976418
4.2853336 -2.9364264 -0.27225167 25 6 -0.07976187
4.9310684 -3.3814316 -0.10436539 54 7 -0.079757266
5.30165 -3.6369154 1.7226996 16 15 -0.079754964
2.8969076 -1.9924787 -0.94210136 5 0 -0.079734229
3.3196301 -2.2849324 -0.93039757 1 1 -0.079729617
3.921221 -2.7000217 -0.92542368 1 2 -0.079725012
5.0077147 -3.4494333 0.53199863 42 10 -0.079722703
4.5235515 -3.1170948 -0.87008858 16 3 -0.0797204
4.9407768 -3.4058683 0.73682213 57 11 -0.079718098
4.2848682 -2.9548292 -0.63908291 16 4 -0.079715796
4.9430537 -3.4099844 0.95112169 100 12 -0.079713486
4.2705817 -2.9460769 -0.4539071 17 5 -0.079711184
4.9783769 -3.4356344 1.175765 68 13 -0.079708882
4.2520466 -2.9354815 -0.27078626 24 6 -0.079706579
5.2787194 -3.6456256 1.4810777 1 14 -0.07970427
4.9093633 -3.3918037 -0.10415597 77 7 -0.079701968
5.2158184 -3.6048734 1.6988882 1 15 -0.079699665
2.8883474 -2.0014782 -0.94158375 5 0 -0.07967893
5.2935252 -3.6695125 0.1124284 2 8 -0.079676628
3.334053 -2.3120527 -0.93669617 1 1 -0.079674318
3.9117723 -2.7136931 -0.92542368 1 2 -0.079669714
5.013649 -3.479388 0.53391606 37 10 -0.079667412
4.4477363 -3.0878046 -0.85757387 88 3 -0.079665102
5.0038586 -3.4751825 0.74803412 96 11 -0.0796628
4.2484441 -2.9516463 -0.6351831 16 4 -0.079660498
4.9716725 -3.4554019 0.95894337 95 12 -0.079658195
4.230823 -2.9404984 -0.45076951 16 5 -0.079655886
4.9776378 -3.4608366 1.1784364 66 13 -0.079653583
4.2138996 -2.9309187 -0.26900685 23 6 -0.079651281
5.2339697 -3.6417689 1.4720796 12 14 -0.079648979
5.1128368 -3.5601351 1.6693829 3 15 -0.079644367
2.8686709 -2.0027015 -0.93744266 5 0 -0.079626083
3.3259621 -2.3236771 -0.93669617 1 1 -0.079621479
3.9022758 -2.7273312 -0.92542368 1 2 -0.079616867
5.0047383 -3.499151 0.53426468 22 10 -0.079614565
4.2216401 -2.9527309 -0.81596226 19 3 -0.079612263
5.0112147 -3.5062842 0.75095892 57 11 -0.079609953
4.2153468 -2.9505208 -0.63177073 16 4 -0.079607651
4.9757619 -3.484066 0.96207207 61 12 -0.079605348
4.1813631 -2.9278219 -0.44658601 16 5 -0.079603046
4.9799986 -3.488328 1.1818709 71 13 -0.079600736
4.1791081 -2.9284179 -0.26743674 21 6 -0.079598434
