# .PCD v0.7 - Point Cloud Data file format
VERSION 0.7
FIELDS x y z intensity ring time
SIZE 4 4 4 4 2 4
TYPE F F F F U F
COUNT 1 1 1 1 1 1
WIDTH 982
HEIGHT 1
VIEWPOINT 0 0 0 1 0 0 0
POINTS 982
DATA ascii
9.5700178 11.864498 0.79885614 46 9 -0.031127678
3.837034 4.7569904 -1.1879768 4 2 -0.031125374
9.2497311 11.463315 1.2886847 10 10 -0.03112307
5.2172785 6.4635353 -1.3156141 1 3 -0.031120766
7.2257156 8.9485416 1.412222 29 11 -0.031118462
6.1108828 7.5651903 -1.1940759 6 4 -0.031116158
5.2516999 6.4992132 1.3234357 32 12 -0.031113854
5.3820815 6.6605663 -0.74919075 1 5 -0.03111155
4.1764765 5.1667366 1.2913953 3 13 -0.031109245
6.271625 7.755877 -0.5227316 67 6 -0.031106941
4.2956886 5.3104167 1.5769069 37 14 -0.031104637
9.5827274 11.842144 -0.26590487 14 7 -0.031102333
3.7874718 4.6788077 1.6129603 18 15 -0.031100029
2.6342914 3.2461233 -1.1201688 15 0 -0.031079294
9.5433455 11.755658 0.26429924 34 8 -0.03107699
3.1203778 3.8423648 -1.1427513 1 1 -0.031074686
9.5589485 11.770679 0.79466927 38 9 -0.031072382
3.8734233 4.7679477 -1.1940827 4 2 -0.031070078
9.285923 11.426317 1.2881619 15 10 -0.031067774
5.3332639 6.5602422 -1.3390791 5 3 -0.03106547
7.2519002 8.9171038 1.4112471 29 11 -0.031063166
5.3918648 6.6275907 -1.0490514 49 4 -0.031060861
5.2869382 6.4986167 1.3268772 41 12 -0.031058557
5.3939781 6.6278319 -0.74762189 38 5 -0.031056253
4.1647396 5.1155853 1.2822365 21 13 -0.031053949
6.2974 7.7323866 -0.52262688 58 6 -0.031051645
3.7049179 4.5475397 1.3542054 33 14 -0.031049341
5.8593087 7.1919107 -0.16192344 7 7 -0.031047037
3.8090675 4.6737103 1.6155485 15 15 -0.031044733
2.650496 3.242892 -1.1222395 12 0 -0.031023998
9.5468397 11.680594 0.26332191 31 8 -0.031021694
3.1257005 3.8229446 -1.140052 1 1 -0.03101939
9.5418139 11.666121 0.78985435 49 9 -0.031017086
3.8726368 4.7331262 -1.1887401 4 2 -0.031014781
9.3143854 11.379964 1.2865931 100 10 -0.031012477
5.2886758 6.4615035 -1.3224971 9 3 -0.031010173
7.2801762 8.891468 1.4110035 32 11 -0.031007869
5.2955728 6.4653187 -1.02614 9 4 -0.031005565
5.2908063 6.4572062 1.3221843 10 12 -0.031003261
5.3173037 6.4872293 -0.73385131 13 5 -0.031000957
4.1704812 5.0880799 1.2788019 10 13 -0.030998653
3.7051463 4.517149 1.3488065 11 14 -0.030994045
8.5874653 10.465717 -0.23630559 10 7 -0.030991741
3.8241341 4.6588917 1.6150309 16 15 -0.030989438
2.6636896 3.2370684 -1.1232747 18 0 -0.030968701
13.144765 15.968576 0.36102048 100 8 -0.030966397
3.153892 3.8300617 -1.1454507 1 1 -0.030964093
9.5253258 11.563378 0.78514409 38 9 -0.030961789
3.8883102 4.7202587 -1.1887401 4 2 -0.030959485
9.4090919 11.418202 1.2944371 22 10 -0.030957181
5.262197 6.3835564 -1.3102952 14 3 -0.030954877
7.3149514 8.8706007 1.4117346 32 11 -0.030952573
5.2221041 6.3304162 -1.0076158 15 4 -0.030950269
5.2529655 6.3655643 1.3071665 5 12 -0.030947965
5.2485881 6.358005 -0.7213009 20 5 -0.030945661
4.1969619 5.0840921 1.2814733 6 13 -0.030943358
6.3562422 7.6970453 -0.52315027 51 6 -0.030941054
3.7146869 4.4966741 1.3465569 43 14 -0.03093875
8.5755415 10.377099 -0.2349792 14 7 -0.030936446
3.8539124 4.6618938 1.6207249 15 15 -0.030934142
2.6656747 3.2153842 -1.1191336 14 0 -0.030913405
13.225956 15.953382 0.3617186 100 8 -0.030911101
3.1722178 3.8250303 -1.1472504 1 1 -0.030908797
9.5159006 11.470107 0.78106189 47 9 -0.030906493
3.8993194 4.6984196 -1.186832 7 2 -0.030904189
9.4394217 11.369845 1.2928683 55 10 -0.030901885
5.2136192 6.2776084 -1.2924616 64 3 -0.030899581
7.3522153 8.8526468 1.4129534 30 11 -0.030897278
5.1820121 6.2373304 -0.99567258 16 4 -0.030894974
5.2208605 6.2818656 1.2937132 7 12 -0.03089267
5.1943274 6.2477212 -0.71084219 34 5 -0.030890366
4.2318916 5.088295 1.2864343 30 13 -0.030888062
3.7635543 4.5219741 1.3582544 15 14 -0.030883454
8.5835629 10.313294 -0.23421131 5 7 -0.03088115
3.8553305 4.6305962 1.6145133 15 15 -0.030878846
2.6768801 3.2060614 -1.1191336 18 0 -0.030858109
3.173722 3.7984223 -1.1427513 1 1 -0.030853501
9.5046597 11.375511 0.77687502 44 9 -0.030851196
3.9131746 4.6817694 -1.1860688 11 2 -0.030848894
9.4292135 11.277213 1.2860701 97 10 -0.03084659
5.1480541 6.1548204 -1.2708738 50 3 -0.030844286
7.3846097 8.8256416 1.4129534 30 11 -0.030841982
5.1487756 6.151319 -0.98494816 24 4 -0.030839678
5.3124924 6.3469138 1.310921 35 12 -0.030837374
5.1342444 6.131784 -0.69968635 55 5 -0.03083507
4.2508845 5.0749998 1.286816 31 13 -0.030832766
5.6966691 6.7986612 -0.46484798 22 6 -0.030830462
4.3902173 5.2376251 1.5778067 42 14 -0.030828157
5.7304988 6.8366103 -0.15571038 16 7 -0.030825853
3.4345484 4.0960393 1.4323047 16 15 -0.030823549
2.6917861 3.2011333 -1.1206865 16 0 -0.030802814
5.7772651 6.8704548 0.15668771 18 8 -0.03080051
3.2038639 3.8087542 -1.14905 1 1 -0.030798206
9.4980125 11.287251 0.77310681 47 9 -0.030795902
3.9332869 4.672586 -1.1872137 14 2 -0.030793598
9.4197559 11.186315 1.2794462 92 10 -0.030791294
5.1340828 6.0969162 -1.2624264 70 3 -0.03078899
7.4202332 8.8086939 1.4141719 32 11 -0.030786686
5.1589108 6.1220679 -0.98299813 82 4 -0.030784382
5.3498945 6.3464541 1.3146753 15 12 -0.030782077
5.1568999 6.1153488 -0.69986063 75 5 -0.030779773
4.2702227 5.0638762 1.2875792 31 13 -0.030777469
6.9438939 8.2315531 -0.56439102 15 6 -0.030775165
4.4163609 5.2334619 1.580956 39 14 -0.030772861
8.5495796 10.127819 -0.2313491 14 7 -0.030770557
3.8937938 4.61095 1.6171014 3 15 -0.030768253
2.6986427 3.1877649 -1.1191336 12 0 -0.030747518
13.478865 15.916258 0.36405718 100 8 -0.030745214
3.2146173 3.7945759 -1.1481502 1 1 -0.03074291
9.47925 11.18546 0.76839662 52 9 -0.030740606
3.9347997 4.6430407 -1.1830158 11 2 -0.030738302
9.4129868 11.103351 1.2735196 73 10 -0.030735997
5.1655507 6.0910139 -1.2649293 77 3 -0.030733693
7.4445171 8.7751684 1.4129534 27 11 -0.030731389
5.1828198 6.1070485 -0.9834857 100 4 -0.030729085
5.3732924 6.3292475 1.3149883 3 12 -0.030726781
5.185955 6.106421 -0.70090652 55 5 -0.030724477
4.2738953 5.0324779 1.2833813 28 13 -0.030722173
6.9441385 8.1737757 -0.56208825 15 6 -0.030719869
4.4245052 5.2061357 1.5773568 42 14 -0.030717565
8.5550928 10.062871 -0.2305463 12 7 -0.030715261
3.4718215 4.082263 1.4359281 7 15 -0.030712957
2.7078001 3.1749132 -1.1180983 9 0 -0.030692222
13.570679 15.911709 0.36503452 100 8 -0.030689918
3.207607 3.7596107 -1.1409518 1 1 -0.030687613
9.4650745 11.090018 0.76410502 47 9 -0.030685309
3.9556141 4.6330676 -1.1841607 14 2 -0.030683005
9.3992758 11.005142 1.2661986 87 10 -0.030680701
5.192975 6.0780463 -1.2661808 64 3 -0.030678397
7.4763904 8.750639 1.413197 19 11 -0.030676093
5.1989455 6.0828848 -0.98251075 85 4 -0.030673789
5.3812313 6.2939391 1.3115468 11 12 -0.030671485
5.2124171 6.0943384 -0.70160371 59 5 -0.030669181
6.9389834 8.1073027 -0.5592621 17 6 -0.030664574
3.7984438 4.4364171 1.3483566 41 14 -0.03066227
5.8746085 6.8612876 -0.15766504 128 7 -0.030659966
3.4986162 4.0847926 1.4411045 26 15 -0.030657662
2.7087977 3.1537178 -1.1139573 7 0 -0.030636925
13.653666 15.890684 0.36569771 100 8 -0.030634621
3.2264473 3.7537396 -1.1427513 1 1 -0.030632317
9.4587841 11.000731 0.76033688 55 9 -0.030630013
3.9653637 4.6117878 -1.1822525 9 2 -0.030627709
9.3921595 10.919401 1.2600977 100 10 -0.030625405
5.220603 6.0673676 -1.267745 72 3 -0.030623101
7.5174804 8.7337074 1.4149032 14 11 -0.030620797
5.2224994 6.0652938 -0.98275441 99 4 -0.030618493
5.366879 6.2307673 1.3024734 7 12 -0.03061619
5.2321196 6.0721731 -0.70125508 55 5 -0.030613886
5.1530466 5.9804044 1.5344861 10 13 -0.030611582
6.9242067 8.0331097 -0.55580795 13 6 -0.030609278
4.4667363 5.1802449 1.5791564 40 14 -0.030606974
8.5354538 9.8953991 -0.22810295 24 7 -0.03060467
3.9401383 4.5663095 1.6160662 13 15 -0.030602366
2.7228658 3.1466904 -1.1149925 6 0 -0.030581629
13.736534 15.87468 0.36643073 100 8 -0.030579325
3.2191234 3.7188809 -1.135553 1 1 -0.030577021
9.4513636 10.914804 0.75667334 52 9 -0.030574717
3.9783828 4.5927715 -1.1811076 14 2 -0.030572414
9.3747101 10.818648 1.2524281 100 10 -0.030570108
5.2440982 6.049686 -1.2680578 66 3 -0.030567806
7.5479193 8.7074146 1.4149032 14 11 -0.030565502
5.2488432 6.0530252 -0.98372942 92 4 -0.030563198
5.3950658 6.2194581 1.3040378 8 12 -0.030560894
5.2585063 6.0598941 -0.7019524 52 5 -0.03055859
5.1684947 5.9540658 1.532578 7 13 -0.030556286
5.5497885 6.3910594 -0.44359964 7 6 -0.030553982
4.4882479 5.1667819 1.5800562 39 14 -0.030551678
8.589612 9.8881903 -0.22862652 21 7 -0.030549373
3.9459174 4.5408611 1.611925 13 15 -0.030547069
2.7416177 3.1483192 -1.1186159 6 0 -0.030527115
13.812749 15.856177 0.36705902 100 8 -0.030524811
3.2211967 3.6964309 -1.1319537 1 1 -0.030522507
9.4370604 10.829342 0.75280046 42 9 -0.030520203
3.9966612 4.584691 -1.1822525 9 2 -0.030517898
9.3615131 10.735083 1.2461528 100 10 -0.030515594
5.2604828 6.0302029 -1.2674322 77 3 -0.03051329
7.5741405 8.679347 1.4144157 16 11 -0.030510986
5.2793326 6.0475483 -0.98567933 90 4 -0.030508682
5.4392629 6.2307506 1.3099824 43 12 -0.030506378
5.2801404 6.0463438 -0.70230097 59 5 -0.030504074
5.1820064 5.9318852 1.5310514 7 13 -0.030501772
5.417387 6.1991372 -0.43145767 24 6 -0.030499468
3.8516202 4.4058723 1.3510561 13 14 -0.030497164
7.417696 8.4851093 -0.19672352 25 7 -0.030494859
3.9703367 4.5400767 1.6160662 13 15 -0.030492555
2.7500443 3.1358247 -1.1175808 6 0 -0.030471819
13.900848 15.85088 0.36800143 71 8 -0.030469514
3.2565668 3.7120996 -1.140052 1 1 -0.03046721
9.3720436 10.679246 0.74463606 28 9 -0.030464906
4.0126419 4.5707116 -1.1822525 14 2 -0.030462602
9.3594809 10.657435 1.2409234 100 10 -0.030460298
5.2908745 6.0246029 -1.2699351 66 3 -0.030457994
7.6290865 8.6840076 1.4192905 9 11 -0.030455692
5.2954254 6.0255361 -0.98494816 100 4 -0.030453388
5.4674988 6.2191453 1.3115468 38 12 -0.030451084
5.3117385 6.0398455 -0.70369548 57 5 -0.030448779
4.3679867 4.9667287 1.2856711 13 13 -0.030446475
5.4392323 6.1826386 -0.43156233 110 6 -0.030444171
3.8597715 4.3857617 1.3488065 41 14 -0.030441867
7.4036627 8.4096375 -0.19557166 37 7 -0.030439563
3.5482194 4.0289168 1.4385163 9 15 -0.030437259
2.7578714 3.1237907 -1.1165454 9 0 -0.030416522
9.3389187 10.574312 0.24625346 85 8 -0.030414218
3.2695057 3.7007086 -1.140052 1 1 -0.030411914
9.3418121 10.57014 0.73929775 91 9 -0.030409612
4.0095763 4.5367837 -1.1769099 9 2 -0.030407308
9.3419867 10.56663 1.233951 100 10 -0.030405004
5.321034 6.0164537 -1.2721251 82 3 -0.030402699
7.6291013 8.623127 1.4136845 9 11 -0.030400395
5.3177404 6.0085025 -0.98519188 74 4 -0.030398091
5.4891734 6.2000232 1.3115468 10 12 -0.030395787
5.3356986 6.0266738 -0.70421833 63 5 -0.030393483
4.3826952 4.9485102 1.2849078 10 13 -0.030391179
5.4409122 6.141192 -0.42999226 59 6 -0.030388875
3.8802264 4.3780961 1.3506061 48 14 -0.030386571
7.3785839 8.3223925 -0.19414057 40 7 -0.030384267
2.7713239 3.1170342 -1.1175808 14 0 -0.030361228
9.3372364 10.498314 0.24524122 100 8 -0.030358924
3.2720418 3.6776247 -1.1364527 1 1 -0.03035662
9.333498 10.486748 0.73573893 100 9 -0.030354315
4.0332165 4.5315623 -1.1791997 11 2 -0.030352011
9.3258209 10.474431 1.2269785 100 10 -0.030349707
5.3498883 6.0066934 -1.2740024 84 3 -0.030347403
7.6683931 8.6068239 1.4153906 6 11 -0.030345099
5.3492494 6.0017567 -0.98714179 78 4 -0.030342795
5.4792337 6.1454372 1.3040378 11 12 -0.030340491
5.3540535 6.0050368 -0.70386976 63 5 -0.030338187
4.4156199 4.9507666 1.2894872 27 13 -0.030335883
5.4649763 6.1251411 -0.43020159 72 6 -0.030333579
3.8928912 4.3616161 1.3497064 50 14 -0.030331274
7.3529792 8.2354326 -0.19270948 36 7 -0.03032897
4.0395398 4.5227442 1.624866 1 15 -0.030326666
2.7744567 3.0987055 -1.1144749 14 0 -0.030305931
9.3244638 10.410542 0.24394974 100 8 -0.030303627
3.2978625 3.6806955 -1.1409518 1 1 -0.030301323
9.3482332 10.433424 0.73416889 100 9 -0.030299019
4.0490117 4.5174551 -1.1791997 9 2 -0.030296715
9.3596697 10.438845 1.2266299 100 10 -0.030294411
5.3681836 5.9850416 -1.2733767 78 3 -0.030292107
7.7089977 8.5918217 1.4173405 11 11 -0.030289803
5.3781242 5.9919105 -0.98860419 64 4 -0.030287499
5.4626389 6.0860701 1.2952776 6 12 -0.030285195
5.3842983 5.9966893 -0.70508993 67 5 -0.03028289
4.4381232 4.9411645 1.2910137 48 13 -0.030280586
5.4956698 6.1164255 -0.43093431 67 6 -0.030278282
7.3334637 8.1589479 -0.1914878 35 7 -0.030273674
4.0738893 4.5308723 1.6326306 11 15 -0.03027137
2.7813745 3.084698 -1.112922 13 0 -0.030250635
9.3000088 10.314223 0.24241392 44 8 -0.030248331
3.2996075 3.6581633 -1.1373526 1 1 -0.030246027
9.4113579 10.430383 0.73626232 100 9 -0.030243723
4.0700183 4.5091219 -1.1807261 14 2 -0.030241419
9.4160719 10.428298 1.2292446 100 10 -0.030239115
5.3827038 5.9613433 -1.2721251 57 3 -0.03023681
7.7560782 8.586833 1.420753 11 11 -0.030234506
5.4006252 5.9769893 -0.98909163 48 4 -0.030232202
5.5010653 6.0860195 1.2993449 11 12 -0.030229898
5.4145536 5.9882016 -0.70631009 60 5 -0.030227594
4.458436 4.9307876 1.2921586 41 13 -0.03022529
5.5159211 6.0981688 -0.43093431 61 6 -0.030222988
4.6337647 5.1211023 1.5944531 16 14 -0.030220684
7.3216429 8.0888214 -0.19044067 37 7 -0.03021838
4.081902 4.5080318 1.6295248 11 15 -0.030216075
2.7993782 3.0840411 -1.1160278 15 0 -0.030195339
9.2983179 10.240242 0.24143659 38 8 -0.030193035
3.3097372 3.6437373 -1.1364527 1 1 -0.03019073
9.450388 10.400431 0.73647165 100 9 -0.030188426
4.077024 4.4868851 -1.1784364 11 2 -0.030186122
9.4774075 10.4265 1.2327309 100 10 -0.030183818
5.4048119 5.9439793 -1.2724382 49 3 -0.030181514
7.7913446 8.5655813 1.4217279 9 11 -0.03017921
5.4334784 5.9713168 -0.99128538 81 4 -0.030176908
5.5382338 6.0843077 1.3030992 46 12 -0.030174604
5.4448147 5.9795752 -0.70753026 59 5 -0.0301723
4.4729781 4.9122896 1.2913953 16 13 -0.030169996
5.5358281 6.0774021 -0.43082964 56 6 -0.030167691
4.6174884 5.0674438 1.5827556 19 14 -0.030165387
7.2999926 8.0085316 -0.18914919 34 7 -0.030163083
3.6485407 4.0012703 1.4509397 7 15 -0.030160779
2.8054509 3.0680556 -1.1139573 14 0 -0.030140042
9.2881289 10.157545 0.24024983 38 8 -0.030137738
3.3224351 3.6321626 -1.1364527 1 1 -0.030135434
9.5163002 10.399794 0.73877448 100 9 -0.03013313
4.0907941 4.4690132 -1.1776732 9 2 -0.030130826
9.5451574 10.424022 1.2365657 100 10 -0.030128524
5.419888 5.9168472 -1.2708738 30 3 -0.03012622
5.4475851 5.9449949 -0.99006665 78 4 -0.030121611
5.570116 6.0765901 1.3056022 60 12 -0.030119307
5.4737291 5.969347 -0.70857614 65 5 -0.030117003
4.5108581 4.9175653 1.2971196 5 13 -0.030114699
5.5648165 6.0644312 -0.431353 63 6 -0.030112395
4.6162624 5.0289526 1.5760071 4 14 -0.030110091
7.2805686 7.9314461 -0.18792751 37 7 -0.030107787
3.7513373 4.085269 1.4861389 37 15 -0.030105483
2.8135252 3.0554018 -1.112922 15 0 -0.030084746
9.2832937 10.077843 0.23916778 44 8 -0.030082444
3.3330855 3.6170943 -1.135553 1 1 -0.03008014
9.5814304 10.394213 0.74086791 100 9 -0.030077836
4.0957227 4.4431581 -1.1746202 9 2 -0.030075531
9.6030989 10.414072 1.2393546 100 10 -0.030073227
7.8860946 8.5460806 1.4278214 100 11 -0.030068619
5.4747229 5.9308238 -0.99104154 77 4 -0.030066315
5.5789504 6.0416193 1.3024734 47 12 -0.030064011
5.4891281 5.9443479 -0.70787895 61 5 -0.030061707
5.4205389 5.8680153 1.5528038 20 13 -0.030059403
5.5886636 6.0479016 -0.43156233 66 6 -0.030057099
3.9935515 4.3202009 1.3582544 5 14 -0.030054795
7.3095918 7.904706 -0.18792751 38 7 -0.030052491
4.0942435 4.4260287 1.6155485 37 15 -0.030050186
2.8202322 3.0413132 -1.111369 16 0 -0.030029451
9.2680998 9.9911299 0.23787631 46 8 -0.030027147
3.3403883 3.5997245 -1.1337533 1 1 -0.030024843
9.6380348 10.382663 0.74243796 100 9 -0.030022539
4.1192207 4.437469 -1.1769099 11 2 -0.030020235
9.661088 10.403846 1.2421436 100 10 -0.030017931
5.3911533 5.8036065 -1.2546046 9 3 -0.030015627
5.5089087 5.9262152 -0.99347895 72 4 -0.030011019
5.5946236 6.0163231 1.3012221 17 12 -0.030008715
5.5152698 5.9309878 -0.70857614 67 5 -0.030006411
4.6146102 4.9607043 1.3169638 1 13 -0.030004106
5.6179061 6.037128 -0.43219036 64 6 -0.030001802
4.0099344 4.3076625 1.3587044 13 14 -0.029999498
7.3507657 7.8937783 -0.18827656 37 7 -0.029997194
4.1070366 4.4088826 1.6145133 37 15 -0.02999489
2.8321486 3.0328627 -1.1118866 15 0 -0.029974155
9.2578697 9.9104958 0.23672445 52 8 -0.029971851
3.3449512 3.5794983 -1.1310539 1 1 -0.029969547
9.7065067 10.387124 0.74505478 100 9 -0.029967243
4.1427307 4.4316673 -1.1791997 11 2 -0.029964939
9.7191162 10.393344 1.2449325 100 10 -0.029962635
5.3992352 5.7717676 -1.2517889 11 3 -0.029960331
5.5363436 5.914197 -0.99469769 67 4 -0.029955722
5.6010451 5.9833145 1.2980933 2 12 -0.029953418
5.5481977 5.9247875 -0.710145 39 5 -0.029951114
4.5808964 4.8901186 1.3024622 1 13 -0.02994881
5.6280189 6.0058231 -0.431353 69 6 -0.029946506
4.6846657 4.9973955 1.5814059 45 14 -0.029944204
6.69173 7.1384435 -0.17078924 25 7 -0.0299419
4.1282406 4.4022856 1.6171014 39 15 -0.029939596
2.8493366 3.0299947 -1.1144749 16 0 -0.029918859
9.2961607 9.8855705 0.23686406 68 8 -0.029916555
3.3701544 3.5825813 -1.135553 1 1 -0.029914251
9.7563896 10.367725 0.74610144 100 9 -0.029911947
4.152791 4.4114623 -1.1776732 9 2 -0.029909642
9.7812862 10.386915 1.2482445 100 10 -0.029907338
5.4129272 5.7480798 -1.2505373 12 3 -0.029905034
7.9981775 8.4904327 1.4322087 100 11 -0.02990273
5.6449304 5.9881639 1.3034122 11 12 -0.029898122
5.5784159 5.9155302 -0.71136516 40 5 -0.02989582
4.5741906 4.8506179 1.2959747 25 13 -0.029893516
5.6629777 6.003109 -0.43250436 45 6 -0.029891212
4.6972008 4.9775801 1.5800562 39 14 -0.029888907
6.6836648 7.0801415 -0.16995154 31 7 -0.029886603
4.144908 4.3892546 1.6176192 37 15 -0.029884299
2.8606975 3.0219312 -1.1149925 15 0 -0.029863562
9.3498631 9.8733854 0.23735273 24 8 -0.029861258
3.385319 3.5736253 -1.1364527 1 1 -0.029858954
9.6300087 10.165672 0.73385483 21 9 -0.02985665
4.1538944 4.3834157 -1.173857 14 2 -0.029854346
9.8458357 10.386231 1.2520794 100 10 -0.029852042
5.4329572 5.7291512 -1.2505373 10 3 -0.02984974
8.020937 8.4552593 1.43099 30 11 -0.029847436
5.6470819 5.9507828 1.2993449 46 12 -0.029842827
5.6062279 5.9056726 -0.71241105 55 5 -0.029840523
5.4549661 5.7443175 1.5398288 22 13 -0.029838219
4.7064896 4.9526811 1.5773568 42 14 -0.029833611
6.6616445 7.010108 -0.16879968 30 7 -0.029831307
4.1501241 4.3656821 1.6139956 18 15 -0.029829003
2.860564 3.0007415 -1.1108514 14 0 -0.029808266
7.3087316 7.6668839 0.18489081 57 8 -0.029805962
3.3971517 3.5623784 -1.1364527 1 1 -0.02980366
9.8680925 10.344431 0.74924165 86 9 -0.029801356
4.1718793 4.3717299 -1.1746202 9 2 -0.029799052
9.9026651 10.373419 1.2546941 100 10 -0.029796747
5.4560194 5.7153883 -1.2514758 11 3 -0.029794443
5.6137557 5.8765097 -0.99786633 77 4 -0.029789835
5.6623592 5.9253225 1.2980933 66 12 -0.029787531
5.6213031 5.8803048 -0.71171379 59 5 -0.029785227
5.4861932 5.7389693 1.5432632 21 13 -0.029782923
6.02672 6.3021927 -0.4569976 6 6 -0.029780619
4.0776339 4.2625318 1.3618537 9 14 -0.029778315
6.6473622 6.9463558 -0.16782233 27 7 -0.029776011
3.9796493 4.1571941 1.5420439 31 15 -0.029773707
2.8691623 2.9898441 -1.1103338 14 0 -0.029752972
7.306366 7.611032 0.18415779 42 8 -0.029750668
3.4001184 3.5406585 -1.1333034 1 1 -0.029748363
9.9456539 10.353129 0.75238174 100 9 -0.029746059
4.1863551 4.3578706 -1.1746202 9 2 -0.029743755
9.959095 10.363511 1.257483 100 10 -0.029741451
5.4677243 5.6877627 -1.2495986 11 3 -0.029739147
5.6369824 5.8597431 -0.99835372 59 4 -0.029734539
5.688489 5.9112139 1.2993449 60 12 -0.029732235
5.5116405 5.7254405 1.5447898 7 13 -0.029727627
6.0500627 6.2825599 -0.45710227 6 6 -0.029725322
4.0884333 4.2440605 1.360504 22 14 -0.029723018
6.6368814 6.8871102 -0.16694972 31 7 -0.029720714
4.1872034 4.3435593 1.6165838 35 15 -0.02971841
2.8809233 2.9812005 -1.1108514 15 0 -0.029697675
7.3134327 7.565351 0.18366912 49 8 -0.029695371
3.439548 3.556788 -1.1423014 1 1 -0.029693067
10.009503 10.34706 0.75447518 76 9 -0.029690763
4.1960807 4.3375878 -1.1730938 9 2 -0.029688459
5.4820509 5.6629634 -1.2483472 11 3 -0.029683851
6.6064806 6.8221245 1.166046 6 11 -0.029681547
5.7388954 5.9241505 -1.0127343 61 4 -0.029679243
5.7283354 5.9111795 1.303725 57 12 -0.029676938
4.8445354 4.9991693 -0.60904431 2 5 -0.029674634
4.6761618 4.8237414 1.3058969 11 13 -0.02967233
6.0622249 6.2513652 -0.45636958 6 6 -0.029670026
4.1154361 4.2423511 1.3645531 52 14 -0.029667722
6.6594877 6.8624678 -0.16691481 45 7 -0.029665418
3.7878923 3.901984 1.4571513 24 15 -0.029663116
2.8926601 2.9725096 -1.111369 14 0 -0.029642379
6.6116738 6.7918191 0.16544881 5 8 -0.029640075
3.4383481 3.5307977 -1.1378024 1 1 -0.029637771
4.2276363 4.3397884 -1.1776732 9 2 -0.029633163
6.6647582 6.8391814 0.83547491 2 10 -0.029630858
5.4962659 5.6381392 -1.2470957 11 3 -0.029628554
6.6260982 6.7947564 1.1653148 6 11 -0.02962625
5.749835 5.8941369 -1.0110282 38 4 -0.029623946
5.7682452 5.9109445 1.3081051 65 12 -0.029621642
6.0082469 6.1547284 -0.75250268 6 5 -0.029619338
5.5377626 5.6727738 1.5409735 25 13 -0.029617036
6.0742431 6.2201614 -0.45563689 6 6 -0.029614732
4.149281 4.247478 1.3708518 13 14 -0.029612428
3.8028417 3.8901188 1.457669 39 15 -0.029607819
2.9075916 2.9660268 -1.112922 15 0 -0.029587083
6.6465425 6.7801208 0.16572805 2 8 -0.029584778
3.4260931 3.4937289 -1.1297042 1 1 -0.029582474
6.6296158 6.7581396 0.49614492 15 9 -0.02958017
4.2297626 4.3102531 -1.173857 9 2 -0.029577866
6.6479087 6.7720513 0.83024555 18 10 -0.029575562
5.5293484 5.6306419 -1.2499115 12 3 -0.029573258
6.6567259 6.7786722 1.1665335 13 11 -0.029570956
5.766202 5.8697796 -1.0102969 15 4 -0.029568652
5.7680759 5.869638 1.3034122 61 12 -0.029566348
5.9095712 6.0115314 -0.73751193 64 5 -0.029564044
5.5667753 5.6608391 1.5432632 12 13 -0.029561739
4.8980484 4.979074 -0.36603773 1 6 -0.029559435
4.7976761 4.8753438 1.5791564 39 14 -0.029557131
6.6371017 6.7445474 -0.16516958 15 7 -0.029554827
4.1796045 4.24578 1.596396 46 15 -0.029552523
2.9070714 2.9448602 -1.1087809 14 0 -0.029531786
6.6460543 6.730104 0.16509975 21 8 -0.029529482
3.4443526 3.4866941 -1.1315038 1 1 -0.029527178
6.658782 6.7406383 0.49656361 22 9 -0.029524874
4.2447834 4.2954612 -1.173857 9 2 -0.029522572
6.6631026 6.7403049 0.82919973 18 10 -0.029520268
5.5434151 5.6056871 -1.2486601 16 3 -0.029517964
6.681531 6.7542238 1.1665335 12 11 -0.029515659
5.7904692 5.8514299 -1.0107845 41 4 -0.029513355
5.7732439 5.8340235 1.2999705 57 12 -0.029511051
5.9179049 5.9781203 -0.73594308 37 5 -0.029508747
5.586503 5.6413713 1.5432632 9 13 -0.029506443
4.8704181 4.9165421 -0.36268821 7 6 -0.029504139
4.8228965 4.8668709 1.5818559 39 14 -0.029501835
6.6493449 6.7099729 -0.16489035 12 7 -0.029499531
4.1263986 4.1625652 1.5705141 24 15 -0.029497227
2.9159689 2.9333265 -1.1082631 14 0 -0.029476492
6.6570568 6.6966839 0.16482052 21 8 -0.029474188
3.4723864 3.4918339 -1.1369027 1 1 -0.029471884
6.6766381 6.711688 0.49614492 22 9 -0.029469579
4.2569785 4.2778373 -1.1730938 9 2 -0.029467275
6.7639012 6.7946649 0.83878684 20 10 -0.029464971
5.2358661 5.2596798 -1.1754488 1 3 -0.029462667
8.3119278 8.346818 1.4463456 35 11 -0.029460363
5.8084388 5.8307905 -1.0105407 42 4 -0.029458059
5.8061242 5.8264275 1.3027864 23 12 -0.029455755
5.9302983 5.9489589 -0.7348972 33 5 -0.029453451
4.7804799 4.7955222 1.3162005 13 13 -0.029451147
6.1249428 6.1420712 -0.45459017 6 6 -0.029448843
4.1935339 4.2037935 1.3708518 18 14 -0.029446539
6.2080102 6.2210269 -0.15340665 59 7 -0.029444234
4.1886716 4.1959891 1.5886314 48 15 -0.02944193
2.9311471 2.9291022 -1.1103338 14 0 -0.029421195
6.7808399 6.7737451 0.16729876 70 8 -0.029418891
3.4680059 3.4631681 -1.1315038 1 1 -0.029416587
10.327083 10.309078 0.76473308 60 9 -0.029414283
4.2655845 4.2581477 -1.1715673 7 2 -0.029411979
6.8244729 6.8101978 0.84349328 60 10 -0.029409675
5.5408893 5.5273643 -1.2395868 39 3 -0.029407371
8.2749462 8.251874 1.4348897 11 11 -0.029405067
5.8343821 5.8160844 -1.0115156 42 4 -0.029402763
5.8390222 5.8186731 1.3056022 25 12 -0.029400459
4.7860622 4.7677226 1.3131475 10 13 -0.02939585
6.133606 6.1079707 -0.45364809 6 6 -0.029393546
4.8628201 4.8408012 1.5841054 45 14 -0.029391242
4.2895765 4.2671776 1.6212426 45 15 -0.029386634
2.9399829 2.917491 -1.1098161 12 0 -0.029365899
6.900979 6.8458014 0.1696723 57 8 -0.029363595
3.4745378 3.4455538 -1.1297042 1 1 -0.029361291
10.380029 10.289838 0.76598912 100 9 -0.029358987
4.2804232 4.2432308 -1.1715673 9 2 -0.029356683
6.8255587 6.7638965 0.84070432 67 10 -0.029354379
5.5264654 5.474628 -1.232078 32 3 -0.029352074
8.2839556 8.2033815 1.4314774 9 11 -0.02934977
5.8536792 5.7926989 1.3043507 53 12 -0.029345162
5.9593248 5.8972435 -0.73350269 29 5 -0.029342858
4.8724627 4.8200207 1.3322284 1 13 -0.029340554
6.1307487 6.0626478 -0.45186871 6 6 -0.029338252
4.8727579 4.8169484 1.5818559 40 14 -0.029335948
4.9000444 4.8422322 -0.12024708 3 7 -0.029333644
4.3071957 4.2548923 1.6222779 43 15 -0.02933134
2.9487724 2.9058557 -1.1092985 14 0 -0.029310603
6.2510138 6.1578856 0.15316232 2 8 -0.029308299
3.4920988 3.4388726 -1.1315038 1 1 -0.029305995
10.434385 10.271759 0.76734984 63 9 -0.02930369
4.2896118 4.2227554 -1.1700408 11 2 -0.029301386
6.7582431 6.6505895 0.82954836 69 10 -0.029299082
5.5244193 5.4345226 -1.2273849 25 3 -0.029296778
8.3153696 8.1772022 1.431965 4 11 -0.029294474
5.8654094 5.7639236 1.3024734 35 12 -0.029289868
5.9798732 5.8764067 -0.73350269 30 5 -0.029287564
4.8794537 4.793354 1.3295572 2 13 -0.02928526
6.1661229 6.0552058 -0.4529154 5 6 -0.029282955
4.8839788 4.7944508 1.5800562 40 14 -0.029280651
6.2828059 6.1654825 -0.153651 25 7 -0.029278347
4.324779 4.242538 1.6233131 43 15 -0.029276043
2.9547548 2.8914919 -1.1077455 13 0 -0.029255306
3.4985077 3.4212129 -1.1297042 1 1 -0.029250698
10.50874 10.272967 0.77017599 100 9 -0.029248394
4.3099422 4.2132449 -1.1715673 9 2 -0.029246092
6.8113422 6.656199 0.83320886 58 10 -0.029243786
5.5108547 5.3834581 -1.220189 50 3 -0.029241484
8.3296623 8.1342545 1.4295275 4 11 -0.02923918
5.8083191 5.6700802 -0.9966476 37 4 -0.029236875
5.908113 5.7654905 1.3074795 35 12 -0.029234571
6.0588112 5.9125509 -0.74064946 6 5 -0.029232267
4.8905358 4.7708073 1.3280307 3 13 -0.029229963
6.1900835 6.0364313 -0.45312473 0 6 -0.029227659
6.2971296 6.1365342 -0.15347646 69 7 -0.029223051
4.2579193 4.147881 1.5927725 30 15 -0.029220747
2.9555151 2.8741131 -1.1046398 13 0 -0.029201508
4.9467692 4.8088436 0.1204216 2 8 -0.029199203
3.5092397 3.4102042 -1.1297042 1 1 -0.029196899
4.3147073 4.1914763 -1.1692775 9 2 -0.029192291
6.756464 6.561204 0.82397038 83 10 -0.029189987
5.5050645 5.3441029 -1.2151831 55 3 -0.029187683
8.3494759 8.1025171 1.4285525 14 11 -0.029185379
5.8090048 5.6352191 -0.99372268 20 4 -0.029183075
5.9531417 5.7730279 1.313424 57 12 -0.029180771
5.2520728 5.0931702 -0.64007175 1 5 -0.029178467
5.7259011 5.5507231 1.5501324 9 13 -0.029176164
6.1831989 5.9919386 -0.45124069 6 6 -0.02917386
4.2844143 4.1504378 1.3771503 24 14 -0.029171556
6.3206854 6.1208954 -0.15358117 10 7 -0.029169252
4.3125687 4.1747947 1.6083016 37 15 -0.029166948
2.9738686 2.8718302 -1.1077455 13 0 -0.029146211
6.9719524 6.7303886 0.16914873 49 8 -0.029143907
3.5155125 3.3925216 -1.1279047 1 1 -0.029141603
6.6236982 6.389729 0.48232824 100 9 -0.029139299
4.3264871 4.1736622 -1.1685143 11 2 -0.029136995
6.7907977 6.5486455 0.82536483 51 10 -0.029134691
5.4909744 5.293323 -1.2079871 32 3 -0.029132387
8.392004 8.0870953 1.43099 22 11 -0.029130084
5.8086271 5.5956254 -0.99031037 9 4 -0.02912778
5.968987 5.7481027 1.3124853 53 12 -0.029125476
6.1624727 5.9344282 -0.74849349 4 5 -0.029123172
4.9263129 4.7423515 1.3291756 1 13 -0.029120868
6.1983218 5.964777 -0.45082197 5 6 -0.029118564
4.9449005 4.7569256 1.5841054 19 14 -0.02911626
4.8602891 4.673893 -0.11769903 7 7 -0.029113956
4.2393761 4.0753694 1.5756904 3 15 -0.029111652
2.9866619 2.8641083 -1.1087809 12 0 -0.029090915
6.9578738 6.6700301 0.1682412 86 8 -0.029088611
3.527334 3.3802288 -1.1279047 1 1 -0.029086307
6.632978 6.3541398 0.48138618 58 9 -0.029084004
4.3580394 4.1748357 -1.1730938 9 2 -0.0290817
6.6610837 6.378829 0.80688787 69 10 -0.029079396
5.4551954 5.2222137 -1.1960981 38 3 -0.029077092
8.4201765 8.0577583 1.43099 29 11 -0.029074788
5.8008685 5.5492444 -0.98567933 12 4 -0.029072484
6.0161419 5.75317 1.3184298 58 12 -0.02907018
6.1740994 5.9021664 -0.74727333 5 5 -0.029067876
4.9641199 4.7454796 1.3348998 3 13 -0.029065572
5.2227764 4.9909945 -0.37859833 0 6 -0.029063268
4.8896122 4.6709828 1.5611603 15 14 -0.029060964
6.66118 6.3611159 -0.16077158 7 7 -0.029058659
3.914016 3.7363968 1.4499043 1 15 -0.029056355
2.9957418 2.8518081 -1.1082631 14 0 -0.02903562
7.8153739 7.4398756 0.18834637 57 8 -0.029033316
3.5447574 3.3732698 -1.1297042 1 1 -0.029031012
4.3505516 4.1371846 -1.1669879 11 2 -0.029026404
6.6844172 6.3543735 0.80688787 100 10 -0.0290241
5.4614105 5.189939 -1.1932822 48 3 -0.029021796
8.4597654 8.0392542 1.4329399 14 11 -0.029019492
5.7712708 5.4824753 -0.97739226 13 4 -0.029017188
6.0419168 5.7375774 1.3196814 58 12 -0.029014884
6.2076702 5.8929224 -0.74884212 4 5 -0.029012579
4.9871793 4.7326546 1.3364263 23 13 -0.029010275
4.8555989 4.606184 -0.3507556 9 6 -0.029007971
4.9590168 4.7026453 1.5778067 40 14 -0.029005667
6.819737 6.4671698 -0.16405262 12 7 -0.029003363
3.9873221 3.7798605 1.4721627 1 15 -0.029001059
3.0014644 2.8373539 -1.1067102 12 0 -0.028980324
7.81352 7.3837128 0.18764828 23 8 -0.02897802
3.5684309 3.3709595 -1.1333034 1 1 -0.028975716
4.373528 4.1300635 -1.1692775 11 2 -0.028971108
6.6297717 6.258513 0.79764932 67 10 -0.028968804
5.4852414 5.1762648 -1.1945337 43 3 -0.028966499
6.7029667 6.3231921 1.131435 33 11 -0.028964195
5.7711067 5.4422202 -0.97397989 16 4 -0.028961891
6.0643439 5.7167478 1.3199942 53 12 -0.028959587
5.0293846 4.7394571 1.3432955 6 13 -0.028954979
4.5300088 4.2673721 -0.32615772 8 6 -0.028952675
5.2286434 4.9220629 -0.12534317 1 7 -0.028948067
3.9673836 3.7334476 1.4597394 1 15 -0.028945763
3.0113511 2.826859 -1.1067102 13 0 -0.028925028
6.5895762 6.1836929 0.15773484 18 8 -0.028922724
3.5915456 3.3691497 -1.1369027 1 1 -0.02892042
10.906302 10.227385 0.78357404 42 9 -0.028918115
4.3879189 4.1147709 -1.1692775 9 2 -0.028915811
6.6544867 6.2380562 0.79799795 92 10 -0.028913507
5.4369712 5.0949535 -1.1801417 50 3 -0.028911203
8.534462 7.9947977 1.4358647 11 11 -0.028908899
5.7668862 5.400331 -0.97008008 13 4 -0.028906595
6.1030083 5.7130947 1.3240615 31 12 -0.028904291
4.8363113 4.5273252 -0.57958567 11 5 -0.028901987
5.0573668 4.7326026 1.3463483 10 13 -0.028899683
4.5390439 4.2460747 -0.32573903 47 6 -0.02889738
4.3796816 4.0955691 1.3843488 11 14 -0.028895076
6.8263988 6.3813334 -0.1631102 1 7 -0.028892772
3.9719234 3.7116609 1.4566337 1 15 -0.028890468
3.0113084 2.8071098 -1.1030868 12 0 -0.028869731
7.8209853 7.2880902 0.18660113 99 8 -0.028867427
3.5876002 3.3419802 -1.1319537 1 1 -0.028865123
10.978158 10.226554 0.78629553 100 9 -0.028862819
4.3965082 4.0940785 -1.1677511 11 2 -0.028860515
6.6339259 6.1754265 0.79294294 74 10 -0.028858211
5.3882027 5.0140405 -1.1657498 38 3 -0.028855907
8.5652256 7.9676595 1.4363521 24 11 -0.028853603
5.7818546 5.3784747 -0.96959257 2 4 -0.0288513
6.1566367 5.725111 1.3315703 43 12 -0.028848996
4.9002428 4.5551801 -0.585338 1 5 -0.028846692
5.0868006 4.7269468 1.3497829 40 13 -0.028844388
4.5304217 4.2084589 -0.32406428 27 6 -0.028842084
5.0328774 4.6752062 1.585905 45 14 -0.02883978
6.8636417 6.3736262 -0.16349414 23 7 -0.028837476
4.0040312 3.7168701 1.4638805 1 15 -0.028835172
3.0291045 2.8049846 -1.1061926 12 0 -0.028814435
3.5900807 3.3221247 -1.1292543 1 1 -0.028809827
11.026667 10.20366 0.78734219 33 9 -0.028807523
4.4100614 4.0794754 -1.1677511 11 2 -0.028805219
6.7626176 6.25349 0.80584198 63 10 -0.028802916
5.3931952 4.9854193 -1.1632469 43 3 -0.028800612
8.5813932 7.9297838 1.434646 13 11 -0.028798308
4.825758 4.4593244 -0.80677515 20 4 -0.028796004
6.2147675 5.7408519 1.3400177 33 12 -0.0287937
6.2268529 5.7500019 -0.74152106 1 5 -0.028791396
5.1096597 4.716711 1.351691 20 13 -0.028789092
4.5061913 4.158195 -0.3213428 26 6 -0.028786788
6.667202 6.1501656 -0.15832824 33 7 -0.02878218
4.0333781 3.7192862 1.4700923 1 15 -0.028779875
3.0426559 2.7988474 -1.1077455 12 0 -0.028759139
5.1901655 4.7726045 0.12307438 2 8 -0.028756836
3.5896006 3.2996497 -1.1256551 1 1 -0.028754532
4.421382 4.0614009 -1.1669879 11 2 -0.028749924
6.7569056 6.2067704 0.80270433 90 10 -0.02874762
5.4126096 4.9701786 -1.1638726 10 3 -0.028745316
8.6310396 7.9227633 1.4385459 35 11 -0.028743012
5.6998553 5.2302842 -0.94984972 11 4 -0.028740708
6.2333145 5.7177858 1.3397049 47 12 -0.028738404
6.2380743 5.7201529 -0.74047518 2 5 -0.0287361
5.1535892 4.7240534 1.3589417 33 13 -0.028733796
4.4956465 4.1195006 -0.31956339 19 6 -0.028731491
4.4668932 4.093153 1.3987457 13 14 -0.028729187
6.8228145 6.2497721 -0.16150458 2 7 -0.028726883
4.0463338 3.7051876 1.4700923 1 15 -0.028724579
3.0372024 2.7733469 -1.1020516 12 0 -0.028703844
7.9399281 7.2476106 0.18764828 2 8 -0.02870154
3.6131856 3.2969801 -1.1292543 1 1 -0.028699236
4.4246335 4.0345855 -1.1639349 7 2 -0.028694628
6.7825556 6.1846476 0.80305302 81 10 -0.028692324
4.8132553 4.3874102 -1.0315289 33 3 -0.02869002
8.6526852 7.8843884 1.4373271 14 11 -0.028687716
5.6470795 5.1438551 -0.93790656 12 4 -0.028685411
6.280519 5.7188425 1.3453366 62 12 -0.028683107
4.4658723 4.0650573 -0.52833807 18 5 -0.028680803
5.1911998 4.72363 1.3642844 39 13 -0.028678499
4.5107145 4.1029963 -0.31956339 23 6 -0.028676195
4.4631243 4.0597081 1.392897 45 14 -0.028673891
6.598599 6.0000558 -0.15567546 24 7 -0.028671587
4.0770421 3.7059238 1.4763039 1 15 -0.028669283
3.0573654 2.7712786 -1.105675 12 0 -0.028648548
6.7187204 6.0878892 0.15825842 100 8 -0.028646244
3.6194675 3.2784827 -1.1274546 1 1 -0.02864394
11.241251 10.18223 0.7948786 79 9 -0.028641636
4.4415994 4.0217519 -1.1646981 9 2 -0.028639331
6.7918849 6.1477113 0.80148417 74 10 -0.028637027
5.4957662 4.9727826 -1.1738844 13 3 -0.028634723
8.6947718 7.8646078 1.4395207 30 11 -0.028632419
4.4511447 4.0247397 -0.73682213 9 4 -0.028630115
6.3561239 5.7472281 1.3572257 25 12 -0.028627811
4.4209113 3.9960043 -0.52136564 78 5 -0.028625507
5.2061987 4.7041645 1.3639028 33 13 -0.028623203
4.5205631 4.0832086 -0.31924936 25 6 -0.028620899
4.5054541 4.0681372 1.4014452 16 14 -0.028618596
4.0985589 3.699435 1.4794097 1 15 -0.028613988
3.0612762 2.7554207 -1.1036046 12 0 -0.028593251
8.0230274 7.2214375 0.18841618 86 8 -0.028590947
3.6303201 3.2664611 -1.1274546 1 1 -0.028588643
11.301972 10.165631 0.79665804 60 9 -0.028586339
4.4556098 4.0062242 -1.1646981 9 2 -0.028584035
6.7629204 6.0786829 0.79555762 15 10 -0.028581731
5.5518951 4.9901829 -1.1823319 12 3 -0.028579427
8.7193308 7.834403 1.4392771 14 11 -0.028577123
4.4408364 3.9887338 -0.73292232 24 4 -0.028574819
6.4540458 5.7949529 1.3738077 53 12 -0.028572515
4.4185243 3.9659078 -0.51944822 86 5 -0.028570212
5.2246933 4.689496 1.364666 10 13 -0.028567908
4.5311046 4.0655284 -0.31904003 24 6 -0.028565604
4.5290756 4.0622811 1.4045944 22 14 -0.0285633
5.2512178 4.7083416 -0.12310927 1 7 -0.028560996
4.1157622 3.6889749 1.4809626 7 15 -0.028558692
3.0747175 2.7491157 -1.1051573 11 0 -0.028537955
8.0690613 7.2120423 0.18890485 15 8 -0.028535651
3.6387932 3.251173 -1.126555 1 1 -0.028533347
11.35498 10.145398 0.79801875 22 9 -0.028531043
4.4776573 3.9992728 -1.1669879 9 2 -0.028528739
6.8008738 6.0721478 0.79764932 76 10 -0.028526435
5.7092843 5.0957332 -1.2120544 13 3 -0.028524132
8.7614355 7.8171368 1.4417145 32 11 -0.028521828
4.4102883 3.9335697 -0.72561014 30 4 -0.028519524
6.4761744 5.7761493 1.3744334 77 12 -0.02851722
4.4257021 3.9459305 -0.51875097 77 5 -0.028514916
5.2659454 4.6934376 1.3711535 2 13 -0.028512612
4.5437765 4.0483594 -0.31893536 27 6 -0.028510308
4.5301318 4.034781 1.4005452 39 14 -0.028508004
6.6047835 5.8825779 -0.15438399 22 7 -0.0285057
4.1395168 3.6855824 1.4851037 20 15 -0.028503396
3.0886297 2.7422132 -1.1067102 13 0 -0.028482659
8.1303196 7.2184339 0.18977746 34 8 -0.028480355
3.6670451 3.2546103 -1.1319537 1 1 -0.028478052
4.4739656 3.9679849 -1.1624085 9 2 -0.028473444
6.7385435 5.9743505 0.78788787 90 10 -0.02847114
5.7335434 5.0833235 -1.2136188 12 3 -0.028468836
8.7858229 7.786725 1.4414707 35 11 -0.028466532
4.3935924 3.8925936 -0.72073537 31 4 -0.028464228
6.5421419 5.794107 1.3841324 23 12 -0.028461924
4.4498901 3.9397039 -0.51997113 67 5 -0.02845962
5.3049984 4.6967731 1.3772594 9 13 -0.028457316
4.5751247 4.0491529 -0.32019141 31 6 -0.028455012
4.5537028 4.0287762 1.4036945 45 14 -0.028452707
6.5908213 5.8290219 -0.15358117 13 7 -0.028450403
4.1639338 3.6813474 1.4892448 20 15 -0.028448099
3.0904617 2.7255678 -1.1041222 14 0 -0.028427364
6.8999705 6.0831442 0.16056214 100 8 -0.02842506
3.6608391 3.2263293 -1.126555 1 1 -0.028422756
4.5018301 3.9661059 -1.1662247 7 2 -0.028418148
6.7986879 5.9875278 0.79259431 85 10 -0.028415844
5.7527342 5.0645862 -1.2139316 11 3 -0.02841354
8.8174219 7.7599411 1.442202 14 11 -0.028411236
4.3877792 3.8601866 -0.71756679 31 4 -0.028408932
6.5000253 5.7164469 1.3709919 22 12 -0.028406627
4.4629312 3.9249246 -0.51997113 50 5 -0.028404323
5.3110409 4.6691508 1.3745881 19 13 -0.028402019
4.5952334 4.0384302 -0.32061011 36 6 -0.028399715
4.6043377 4.045011 1.4149421 22 14 -0.028397411
6.5780745 5.7769489 -0.15281327 31 7 -0.028395107
4.1767602 3.6667891 1.4892448 71 15 -0.028392803
3.0897827 2.7058547 -1.1004987 13 0 -0.028372068
6.8534546 5.9997501 0.15899143 100 8 -0.028369764
3.6632807 3.2058296 -1.1238555 1 1 -0.02836746
6.590147 5.7651739 0.45888171 13 9 -0.028365156
6.719059 5.8758845 0.78091538 78 10 -0.028360547
5.7406349 5.0184703 -1.2076741 11 3 -0.028358243
8.8623953 7.7447886 1.4451268 34 11 -0.028355939
4.3832846 3.8291781 -0.71464187 33 4 -0.028353635
6.5125022 5.6872249 1.3694276 10 12 -0.028351331
4.4826088 3.9145634 -0.52066839 33 5 -0.028349027
5.3465352 4.667367 1.3795491 1 13 -0.028346723
4.6168232 4.028934 -0.32113346 27 6 -0.028344419
4.6404576 4.0481291 1.4216906 1 14 -0.028342115
6.6615 5.8091493 -0.15427928 42 7 -0.028339811
4.1807942 3.6445732 1.4861389 73 15 -0.028337508
3.1094143 2.7039258 -1.1041222 14 0 -0.028316772
6.797389 5.9088807 0.15721127 100 8 -0.028314468
3.6715045 3.190469 -1.1229557 1 1 -0.028312163
11.364347 9.8719158 0.78891224 2 9 -0.028309859
4.358963 3.7865191 -1.1223387 2 2 -0.028307555
6.7846613 5.8915834 0.78614479 20 10 -0.028305251
5.7282791 4.9725065 -1.2014169 11 3 -0.028302947
8.8758793 7.7020979 1.4429331 17 11 -0.028300643
4.3831291 3.802146 -0.71244824 36 4 -0.028298339
6.5353003 5.6670432 1.3700532 3 12 -0.028296035
4.5044527 3.9046335 -0.52153993 35 5 -0.028293731
6.0155268 5.2144909 1.547461 27 13 -0.028291428
4.674633 4.0507236 -0.32416895 39 6 -0.028289124
5.1966114 4.5014434 1.5872546 8 14 -0.02828682
6.6197562 5.7321925 -0.15284817 34 7 -0.028284516
4.2416925 3.67168 1.503221 20 15 -0.028282212
3.117841 2.6912496 -1.1036046 15 0 -0.028261475
6.7135234 5.7949605 0.15480286 49 8 -0.028259171
3.71803 3.2081869 -1.1337533 1 1 -0.028256867
6.5591531 5.6577125 0.45396215 13 9 -0.028254563
6.7880988 5.8510685 0.78405303 87 10 -0.028249955
5.7270155 4.9347105 -1.1973495 12 3 -0.028247651
8.9117365 7.6788406 1.4443955 35 11 -0.028245348
4.3677964 3.7622085 -0.7078172 31 4 -0.028243044
6.5340815 5.6261559 1.3656731 2 12 -0.02824074
4.5271163 3.8966837 -0.52258581 34 5 -0.028238436
4.7091312 4.0504956 -0.32552966 58 6 -0.028233828
4.6560082 4.0033846 1.4176416 28 14 -0.028231524
6.610918 5.6842785 -0.15218498 37 7 -0.02822922
4.5152621 3.8809962 1.5953608 18 15 -0.028226916
3.1360173 2.687892 -1.1067102 12 0 -0.028206179
6.7240882 5.7612052 0.15455851 2 8 -0.028203875
3.6972015 3.1666501 -1.1238555 1 1 -0.028201571
11.787943 10.096364 0.81340551 41 9 -0.028199267
4.5291128 3.8778081 -1.1589739 7 2 -0.028196964
6.8024287 5.822154 0.78335583 69 10 -0.02819466
5.7231889 4.8967147 -1.1929693 36 3 -0.028192356
8.9337845 7.6409674 1.4434206 11 11 -0.028190052
4.3673263 3.7353258 -0.70562357 34 4 -0.028187748
6.523654 5.5776381 1.3594157 3 12 -0.028185444
4.5588632 3.8963943 -0.52467757 33 5 -0.02818314
5.4123406 4.6242104 1.3837469 14 13 -0.028180836
4.7399487 4.0482998 -0.32668105 74 6 -0.028178532
5.217536 4.4561977 1.5841054 45 14 -0.028176228
6.6398401 5.6689625 -0.15239441 37 7 -0.028173923
4.1599541 3.550427 1.4654335 20 15 -0.028171619
3.1360874 2.6699648 -1.1036046 12 0 -0.028150884
6.5832591 5.6027899 0.15089351 10 8 -0.02814858
3.7136197 3.1594222 -1.1256551 4 1 -0.028146276
11.863955 10.093451 0.81633633 57 9 -0.028143972
4.540451 3.8614964 -1.1585923 9 2 -0.028141668
6.7716074 5.7569757 0.77760357 24 10 -0.028139364
5.7363868 4.8751493 -1.1923436 37 3 -0.02813706
6.5960073 5.6037269 1.0627007 16 11 -0.028134756
4.3736367 3.715682 -0.70464855 36 4 -0.028132452
6.5104971 5.5291195 1.3528454 3 12 -0.028130148
4.6887121 3.9805417 -0.53809953 57 5 -0.028127844
6.0877633 5.1664567 1.5520406 27 13 -0.028125539
4.765533 4.0428948 -0.32751846 69 6 -0.028123235
5.2352576 4.441391 1.5850052 43 14 -0.028120931
6.6037006 5.6003489 -0.15113784 31 7 -0.028118627
4.1717043 3.5366135 1.4654335 31 15 -0.028116323
3.1419747 2.6570547 -1.1025692 12 0 -0.028095588
6.5620937 5.5473676 0.14998598 5 8 -0.028093284
3.7166336 3.1408017 -1.1234056 6 1 -0.02809098
11.880809 10.036508 0.81508023 24 9 -0.028088676
4.5427337 3.8375485 -1.1559209 14 2 -0.028086372
11.617644 9.8107214 1.3303453 30 10 -0.028084068
5.7661057 4.867569 -1.1951594 31 3 -0.028081764
6.5842133 5.5562167 1.0578259 12 11 -0.028079459
4.3850641 3.6991117 -0.70440483 42 4 -0.028077155
6.4995513 5.480895 1.3465881 5 12 -0.028074851
4.716289 3.9757068 -0.53966838 62 5 -0.028072547
5.5734839 4.6982994 1.4169476 32 13 -0.028070243
4.7987671 4.0438013 -0.32887918 60 6 -0.028067939
5.2671232 4.4369011 1.589954 48 14 -0.028065635
6.6232109 5.5772619 -0.15113784 37 7 -0.028063331
4.0584006 3.4162807 1.4214342 3 15 -0.028061027
3.1457727 2.6405532 -1.1004987 12 0 -0.028040292
6.5829501 5.5257111 0.1500209 2 8 -0.028037988
3.7201109 3.1215451 -1.1211561 8 1 -0.028035684
12.015232 10.078408 0.82188392 63 9 -0.028033379
4.5612812 3.8246582 -1.1570657 11 2 -0.028031075
11.655049 9.7693567 1.3305196 10 10 -0.028028771
6.5533557 5.4911284 1.0497826 6 11 -0.028024163
4.4086013 3.6927063 -0.70611101 45 4 -0.028021859
6.5231886 5.461977 1.3475267 2 12 -0.028019555
4.7530565 3.9784007 -0.542283 65 5 -0.028017251
5.5138745 4.6135883 1.3974851 28 13 -0.028014947
4.8150873 4.0274682 -0.32898384 57 6 -0.028012644
5.2728858 4.4088144 1.5868047 32 14 -0.02801034
6.651845 5.5618029 -0.15134728 41 7 -0.028008036
4.6543131 3.8902316 1.6253836 26 15 -0.028005732
3.1609075 2.6345031 -1.1025692 13 0 -0.027984995
6.5801125 5.4823465 0.1494973 15 8 -0.027982691
3.7300291 3.1066427 -1.1207062 8 1 -0.027980387
12.090466 10.066248 0.82450074 100 9 -0.027978083
4.5685697 3.8036876 -1.1555393 14 2 -0.027975779
6.5788388 5.4754529 0.74884212 76 10 -0.027973475
4.6148186 3.8394663 -0.95080876 1 3 -0.027971171
9.0611811 7.5361042 1.4470767 14 11 -0.027968867
4.409894 3.6663713 -0.70416111 43 4 -0.027966563
6.5431652 5.4380302 1.3475267 2 12 -0.02796426
4.7706704 3.9635007 -0.54263163 86 5 -0.027961956
5.537497 4.600585 1.3993932 10 13 -0.027959652
4.8429441 4.0221214 -0.32992589 30 6 -0.027957348
5.2597547 4.3667326 1.5782566 40 14 -0.027955044
6.70296 5.5629287 -0.15204537 49 7 -0.02795274
4.6715145 3.8756123 1.6264189 39 15 -0.027950436
3.1764956 2.6278262 -1.1046398 13 0 -0.027929699
6.6423535 5.4950337 0.15047465 23 8 -0.027927395
3.7348442 3.088635 -1.1189066 8 1 -0.027925091
12.159394 10.051982 0.82680351 100 9 -0.027922787
4.585506 3.7894194 -1.1563026 14 2 -0.027920485
6.5773602 5.433537 0.74640173 83 10 -0.027918179
4.6273355 3.8212695 -0.9504959 3 3 -0.027915876
6.5526843 5.4112287 1.0434453 16 11 -0.027913572
4.4287896 3.6560094 -0.70513606 45 4 -0.027911268
6.5438232 5.4000707 1.3437722 1 12 -0.027908964
4.8121405 3.9696457 -0.54576921 82 5 -0.02790666
5.6149082 4.6302214 1.414658 24 13 -0.027904356
6.9535961 5.7321048 -0.4722797 52 6 -0.027902052
5.2952733 4.3635368 1.5841054 43 14 -0.027899748
6.7285085 5.5445852 -0.15218498 63 7 -0.027897444
4.1661134 3.4318385 1.4462808 11 15 -0.02789514
3.1757808 2.6104746 -1.1015339 12 0 -0.027872086
6.6018295 5.4247322 0.14914827 36 8 -0.027869781
3.7541018 3.083653 -1.1216059 8 1 -0.027867477
12.237423 10.048363 0.82983899 100 9 -0.027865173
4.6004219 3.7774873 -1.1570657 14 2 -0.027862869
6.542038 5.3698659 0.74047518 78 10 -0.027860565
9.130682 7.4893627 1.4500016 16 11 -0.027855957
4.4500999 3.6488535 -0.70659852 45 4 -0.027853653
6.5678077 5.3833485 1.3450238 1 12 -0.027851349
4.8184257 3.9494555 -0.54507202 80 5 -0.027849045
5.6385374 4.6200252 1.4169476 39 13 -0.027846742
6.9221277 5.6697311 -0.46893018 63 6 -0.027844438
5.3180041 4.3542857 1.5868047 48 14 -0.027842134
6.7004337 5.4842463 -0.15113784 63 7 -0.02783983
4.1864429 3.4253435 1.4493867 20 15 -0.027837526
3.1833777 2.5981505 -1.1010163 12 0 -0.027816789
6.8717308 5.6064501 0.15480286 23 8 -0.027814485
3.7663529 3.0717628 -1.1220559 8 1 -0.027812181
12.321962 10.045968 0.83318853 100 9 -0.027809877
4.6120596 3.7601643 -1.1566842 14 2 -0.027807573
6.5591974 5.3457398 0.74030089 67 10 -0.027805269
5.7873902 4.7150373 -1.1823319 7 3 -0.027802965
6.5801306 5.3589792 1.0419829 27 11 -0.027800662
4.4689665 3.6383119 -0.70757347 45 4 -0.027798358
7.4613948 6.0723667 1.5236719 18 12 -0.027796054
4.8321815 3.9326129 -0.54507202 80 5 -0.02779375
5.6911817 4.6300492 1.4261066 50 13 -0.027791446
7.0518923 5.7350073 -0.4763619 66 6 -0.027789142
5.3437548 4.3443017 1.589954 48 14 -0.027786838
6.7195382 5.4608221 -0.15113784 29 7 -0.027784534
4.7066765 3.8236496 1.624866 37 15 -0.02778223
3.1879241 2.5833745 -1.0994633 12 0 -0.027761493
6.9207826 5.6063423 0.15546604 21 8 -0.027759189
3.7588797 3.0438793 -1.116657 8 1 -0.027756885
4.6327858 3.7502196 -1.1585923 11 2 -0.027752278
6.5468392 5.2977462 0.73681462 76 10 -0.027749974
5.7915282 4.6848664 -1.1798289 7 3 -0.02774767
6.5987954 5.335979 1.0419829 84 11 -0.027745366
4.497077 3.6351702 -0.71001083 40 4 -0.027743062
7.4687185 6.0351086 1.520856 27 12 -0.027740758
4.8520789 3.9207289 -0.54576921 77 5 -0.027738454
5.7225823 4.6224895 1.4299227 40 13 -0.02773615
7.0858521 5.7216506 -0.47730398 59 6 -0.027733846
4.8660641 3.9278202 1.4437358 15 14 -0.027731542
6.6872048 5.3958926 -0.14998598 13 7 -0.027729237
4.7214975 3.8084106 1.6253836 39 15 -0.027726933
3.196923 2.5722301 -1.0994633 12 0 -0.027706198
6.6006198 5.3089309 0.14785679 13 8 -0.027703894
3.7725172 3.0331848 -1.1175569 9 1 -0.02770159
6.5228167 5.2426047 0.43857533 100 9 -0.027699286
4.6336074 3.7241845 -1.1555393 14 2 -0.027696982
6.5528684 5.2648768 0.73542017 100 10 -0.027694678
5.7970624 4.6559672 -1.1776388 9 3 -0.027692374
6.5910678 5.2917833 1.0378394 81 11 -0.02769007
4.512836 3.6219342 -0.71049833 43 4 -0.027687766
7.4943581 6.0127149 1.5217947 28 12 -0.027685462
4.8641787 3.9025245 -0.54559493 68 5 -0.027683157
5.7478714 4.6098571 1.4322125 45 13 -0.027680853
5.1093597 4.0948381 1.5116711 35 14 -0.027676245
6.6888304 5.3587646 -0.14960203 9 7 -0.027673941
4.7347636 3.7919049 1.6253836 39 15 -0.027671637
3.2119207 2.5658772 -1.1015339 12 0 -0.027650902
7.0035067 5.5928297 0.15644337 2 8 -0.027648598
3.7891748 3.0248597 -1.1193565 11 1 -0.027646294
6.5245566 5.208487 0.43752864 100 9 -0.02764399
4.6527176 3.7128844 -1.1570657 14 2 -0.027641686
6.5431695 5.2196078 0.73228252 67 10 -0.027639382
5.8163695 4.6381645 -1.1782646 9 3 -0.027637077
6.6172619 5.2749286 1.0390581 31 11 -0.027634773
4.5332127 3.6123457 -0.71171701 46 4 -0.027632469
7.5034432 5.9792099 1.5196046 30 12 -0.027630165
4.884006 3.890486 -0.54629219 37 5 -0.027627861
6.249248 4.9762187 1.5528038 32 13 -0.027625557
6.4490023 5.1334472 -0.43198103 0 6 -0.027623253
4.9025145 3.9010358 1.4464353 31 14 -0.027620949
6.6830916 5.3178792 -0.14907846 10 7 -0.027618645
4.6036839 3.6619341 1.576208 31 15 -0.027616341
3.2132883 2.5486498 -1.0989457 11 0 -0.027595606
12.026098 9.5386124 0.26792935 31 8 -0.027593302
3.8022392 3.014698 -1.1202562 11 1 -0.027590998
6.5489597 5.1906409 0.4379473 74 9 -0.027588693
4.66257 3.6941857 -1.1563026 14 2 -0.027586389
