# .PCD v0.7 - Point Cloud Data file format
VERSION 0.7
FIELDS x y z intensity ring time
SIZE 4 4 4 4 2 4
TYPE F F F F U F
COUNT 1 1 1 1 1 1
WIDTH 980
HEIGHT 1
VIEWPOINT 0 0 0 1 0 0 0
POINTS 980
DATA ascii
6.302547 4.9436078 1.5570016 34 13 -0.073303439
6.4314485 5.0429029 -0.42831749 1 6 -0.073301136
5.4118328 4.2434216 1.5877045 39 14 -0.073298834
6.7502255 5.2909484 -0.14970674 21 7 -0.073296532
4.2152624 3.3028145 1.4348928 58 15 -0.073294222
3.2299216 2.5244009 -1.0984281 14 0 -0.073273487
12.171338 9.5092888 0.26960477 28 8 -0.073271185
3.8242345 2.986747 -1.1202562 11 1 -0.073268883
12.781662 9.9789534 0.84983134 25 9 -0.073266581
4.6059504 3.5946801 -1.1356952 2 2 -0.073264271
6.5229783 5.0908103 0.72391564 69 10 -0.073261969
5.8295965 4.5480337 -1.1710685 9 3 -0.073259667
9.3450775 7.2880569 1.4551201 26 11 -0.073257364
4.6262102 3.6065958 -0.72024786 52 4 -0.073255055
6.5222192 5.0828953 1.3096695 13 12 -0.073252752
6.2617922 4.8781881 -0.69445693 1 5 -0.07325045
6.3120217 4.9155445 1.5550934 26 13 -0.073248148
6.4080377 4.9885211 -0.42559603 0 6 -0.073245838
5.2420869 4.080853 1.5337163 31 14 -0.073243536
6.8096814 5.2992887 -0.15061426 7 7 -0.073241234
4.238965 3.2975686 1.439034 13 15 -0.073238932
3.2299943 2.5054407 -1.0953223 12 0 -0.073218197
6.4807415 5.0251684 0.14314464 13 8 -0.073215887
3.8305361 2.9691279 -1.1189066 9 1 -0.073213585
6.4982781 5.0351353 0.43082964 42 9 -0.073211282
4.5911555 3.5561354 -1.1288261 4 2 -0.07320898
6.5258403 5.0546689 0.72217244 78 10 -0.073206671
5.8431039 4.5242157 -1.1704428 10 3 -0.073204368
6.5115461 5.0399613 1.0110282 15 11 -0.073202066
4.6456771 3.5944755 -0.72122282 57 4 -0.073199764
7.6048946 5.8819747 1.5227332 31 12 -0.073197454
6.2764783 4.8527656 -0.69410831 1 5 -0.073195152
5.8189349 4.497386 1.4295411 28 13 -0.07319285
6.3820233 4.9308114 -0.42266521 0 6 -0.073190548
5.4590225 4.2176924 1.5926535 48 14 -0.073188245
6.5220318 5.0371609 -0.14384274 13 7 -0.073185936
4.6424832 3.584239 1.5715494 7 15 -0.073183633
3.2498715 2.5018337 -1.0989457 9 0 -0.073162898
6.8128982 5.2428541 0.1500558 2 8 -0.073160596
3.8213127 2.9396226 -1.1130579 8 1 -0.073158287
6.4929419 4.9930196 0.42925957 24 9 -0.073155984
6.5316854 5.0210042 0.72077799 83 10 -0.07315138
5.9144678 4.544898 -1.1813933 12 3 -0.07314907
9.3966789 7.2181444 1.4548763 29 11 -0.073146768
4.6682658 3.5846791 -0.72268528 60 4 -0.073144466
7.6342363 5.8600774 1.5242976 33 12 -0.073142163
6.2775741 4.818697 -0.69236517 1 5 -0.073139861
5.8236961 4.4686785 1.4268698 20 13 -0.073137552
6.4150434 4.9206614 -0.42371196 1 6 -0.073135249
5.4821777 4.2035832 1.594903 35 14 -0.073132947
6.5229902 4.9998417 -0.14345878 10 7 -0.073130645
4.7107925 3.609499 1.5901842 9 15 -0.073128335
3.2616534 2.4928207 -1.099981 13 0 -0.0731076
6.7993784 5.1947579 0.14935769 2 8 -0.073105298
3.8423922 2.9345446 -1.1162071 9 1 -0.073102996
6.4817557 4.9485102 0.42737547 29 9 -0.073100694
4.7110591 3.5966682 -1.1521047 9 2 -0.073098384
6.5190797 4.9752054 0.71746606 85 10 -0.073096082
5.9334383 4.5266194 -1.182019 7 3 -0.073093779
9.4297085 7.1913204 1.4560951 11 11 -0.073091477
4.6933804 3.5779884 -0.72463518 57 4 -0.073089167
7.6530752 5.8321939 1.5239848 31 12 -0.073086865
6.2785101 4.7846766 -0.69062209 1 5 -0.073084563
5.8704929 4.4721184 1.434502 42 13 -0.073082261
6.4099364 4.8812971 -0.42224655 0 6 -0.073079951
5.526278 4.2068496 1.6034511 9 14 -0.073077649
6.4942541 4.941926 -0.14244655 40 7 -0.073075347
4.7771788 3.6339684 1.6083016 11 15 -0.073073044
3.2611015 2.4744151 -1.0968752 13 0 -0.073052309
6.4717393 4.9087558 0.14178336 23 8 -0.07305
3.8526115 2.9211149 -1.1162071 8 1 -0.073047698
13.11099 9.9373693 0.86218262 69 9 -0.073045395
4.7141967 3.5730877 -1.1498151 11 2 -0.073043093
6.5205283 4.9403858 0.71572298 85 10 -0.073040783
5.8846397 4.4569821 -1.1691914 11 3 -0.073038481
9.4626656 7.1643538 1.4573137 14 11 -0.073036179
4.7264194 3.5771558 -0.72780377 43 4 -0.073033877
7.6686592 5.8018699 1.523046 33 12 -0.073031567
6.2665734 4.7410951 -0.6874845 1 5 -0.073029265
6.4309888 4.8637176 1.5673052 7 13 -0.073026963
6.4014463 4.8396187 -0.42057177 1 6 -0.07302466
5.5191627 4.1710854 1.5971525 16 14 -0.073022351
6.4923191 4.9047599 -0.14202769 21 7 -0.073020048
4.8545842 3.6661675 1.6300424 45 15 -0.073017746
3.2650893 2.4595304 -1.0953223 12 0 -0.072997011
6.4520917 4.8584695 0.14098054 23 8 -0.072994709
3.8658991 2.9099917 -1.1171069 8 1 -0.072992399
13.18709 9.9227686 0.86490411 100 9 -0.072990097
4.7235022 3.5542505 -1.1490518 11 2 -0.072987795
6.5042953 4.8924451 0.71206236 69 10 -0.072985493
5.6301794 4.233408 -1.1156907 11 3 -0.072983183
9.5066595 7.1455894 1.4602386 29 11 -0.072980881
4.7642689 3.579716 -0.73170358 11 4 -0.072978579
7.6936054 5.7786231 1.5239848 31 12 -0.072976276
6.2575965 4.7000451 -0.68469548 1 5 -0.072973967
6.4102454 4.8129497 1.5581464 15 13 -0.072971664
6.3927417 4.7980623 -0.41889706 1 6 -0.072969362
5.0442309 3.7845638 1.4558831 22 14 -0.07296706
6.5030007 4.8772697 -0.14188807 13 7 -0.072964758
4.8565311 3.6410887 1.6264189 43 15 -0.072962448
3.2794154 2.4533172 -1.0973928 11 0 -0.072984457
6.5226154 4.8777666 0.14216731 10 8 -0.072982155
3.8724058 2.8948233 -1.1162071 9 1 -0.072979853
13.279119 9.9232149 0.86877692 34 9 -0.072977543
4.7541351 3.5526686 -1.1536313 9 2 -0.072975241
6.4885583 4.8470025 0.70857614 69 10 -0.072972938
5.6473536 4.2170768 -1.1163164 11 3 -0.072970636
6.4760242 4.8341188 0.99226028 15 11 -0.072968327
6.112534 4.5611258 -0.9364441 1 4 -0.072966024
7.711144 5.7518954 1.5236719 28 12 -0.072963722
6.2507906 4.6625891 -0.68225515 1 5 -0.07296142
6.4324656 4.7963619 1.5596728 26 13 -0.07295911
6.4054132 4.7744508 -0.41868767 0 6 -0.072956808
5.0536294 3.765486 1.4549835 43 14 -0.072954506
6.4918766 4.8353701 -0.14129469 29 7 -0.072952203
4.2890592 3.1934762 1.4328223 15 15 -0.072949894
3.2864091 2.4407024 -1.0968752 11 0 -0.072929159
6.5283632 4.8466225 0.14192297 18 8 -0.072926857
3.8730972 2.8743212 -1.1135077 9 1 -0.072924554
13.3618 9.9124975 0.87191707 100 9 -0.072922252
4.7570477 3.529032 -1.1513416 11 2 -0.072919942
6.5118408 4.8290691 0.70927346 29 10 -0.07291764
5.6572762 4.1938128 -1.1153778 14 3 -0.072915338
9.553483 7.0795321 1.4599948 36 11 -0.072913036
6.0933261 4.5137639 -0.93108183 1 4 -0.072910726
7.7343459 5.7272997 1.5242976 13 12 -0.072908424
6.2542152 4.6312599 -0.68086064 1 5 -0.072906122
6.2503457 4.6267009 1.5115889 33 13 -0.072903819
6.3770871 4.7187967 -0.41575688 0 6 -0.07290151
5.0871072 3.7628913 1.4608321 20 14 -0.072899207
6.4829879 4.7936583 -0.14073621 10 7 -0.072896905
4.3110557 3.186522 1.4364457 76 15 -0.072894603
3.3011286 2.4338002 -1.0989457 11 0 -0.072873868
6.5468512 4.8249931 0.14195788 21 8 -0.072871558
3.8862455 2.863095 -1.1144075 9 1 -0.072869256
13.420325 9.8870916 0.8735919 37 9 -0.072866954
4.7661762 3.5100756 -1.1505783 11 2 -0.072864652
6.4291782 4.7330761 0.69846606 42 10 -0.072862342
5.6734729 4.175209 -1.1156907 16 3 -0.07286004
9.5733423 7.0426102 1.4592637 19 11 -0.072857738
6.1154408 4.4971719 -0.93205678 1 4 -0.072855435
7.7596631 5.7062993 1.5255492 13 12 -0.072853126
6.2446599 4.5905175 -0.67807168 1 5 -0.072850823
5.926321 4.3549056 1.4295411 37 13 -0.072848521
6.3581066 4.670496 -0.41345412 0 6 -0.072846219
5.6154165 4.1234269 1.6084001 17 14 -0.072843917
6.5746031 4.8277621 -0.14237672 50 7 -0.072841607
4.3122554 3.1653485 1.4333398 18 15 -0.072839305
3.2971308 2.413137 -1.0948045 12 0 -0.07281857
6.5240865 4.7749128 0.14112017 26 8 -0.072816268
3.8941464 2.84904 -1.1139576 9 1 -0.072813958
13.511184 9.8814478 0.87725538 100 9 -0.072811656
4.7879071 3.5003726 -1.152868 7 2 -0.072809353
6.4183164 4.690619 0.69550282 27 10 -0.072807051
5.6952624 4.1621985 -1.1172551 19 3 -0.072804742
9.6126719 7.0225368 1.461701 17 11 -0.072802439
6.1014638 4.4557958 -0.92766953 1 4 -0.072800137
7.7779403 5.6780114 1.5252361 13 12 -0.072797835
6.2348957 4.5498981 -0.67528266 1 5 -0.072795533
5.947072 4.3398595 1.4310676 34 13 -0.072793223
6.3541961 4.6352625 -0.41219804 0 6 -0.072790921
5.3062754 3.8694022 1.5161701 12 14 -0.072788619
6.6043448 4.8142052 -0.14265598 60 7 -0.072786316
4.922821 3.5871549 1.632113 3 15 -0.072784007
3.2973025 2.3965101 -1.0922165 11 0 -0.072763272
6.5051241 4.7262502 0.14035226 55 8 -0.072760969
3.9135263 2.8423033 -1.116657 8 1 -0.072758667
13.598927 9.8729506 0.88070959 37 9 -0.072756357
4.7979007 3.4833214 -1.1524864 7 2 -0.072754055
6.409647 4.6517563 0.69288814 22 10 -0.072751753
5.68577 4.1248975 -1.1125621 21 3 -0.072749451
9.6483736 6.9970989 1.4634072 35 11 -0.072747149
6.1201959 4.436799 -0.92815697 1 4 -0.072744839
6.4749022 4.6922131 1.2664937 31 12 -0.072742537
6.2402716 4.5221815 -0.67423683 1 5 -0.072740234
5.9590039 4.3167715 1.4303043 45 13 -0.072737932
6.3541627 4.6013384 -0.41115132 0 6 -0.072735623
5.6354628 4.0793924 1.6061505 9 14 -0.07273332
6.604907 4.7794008 -0.14230692 65 7 -0.072731018
4.9494009 3.580138 1.6367717 9 15 -0.072728716
3.3119149 2.3895061 -1.0942869 11 0 -0.072707973
6.482656 4.6754417 0.13951454 95 8 -0.072705671
3.910779 2.8195069 -1.1130579 8 1 -0.072703369
13.686779 9.8639526 0.88416374 40 9 -0.072701067
4.8259583 3.4780297 -1.1563026 4 2 -0.072698765
6.4436269 4.6421666 0.69480556 18 10 -0.072696455
5.6857085 4.0946341 -1.1097462 28 3 -0.072694153
6.4329205 4.6310391 0.97324866 18 11 -0.07269185
6.1259775 4.408453 -0.92669457 1 4 -0.072689548
7.846252 5.64434 1.5308678 12 12 -0.072687238
6.2204332 4.4747787 -0.67040199 1 5 -0.072684936
6.5000324 4.6741877 1.5562382 32 13 -0.072682634
6.3539667 4.5674739 -0.4101046 0 6 -0.072680332
5.6354227 4.0494652 1.6021013 3 14 -0.072678022
6.4802527 4.6548185 -0.1392702 54 7 -0.07267572
4.9697146 3.5684719 1.6393598 13 15 -0.072673418
3.3233757 2.3801832 -1.0953223 11 0 -0.072652683
6.487556 4.6446342 0.1392702 85 8 -0.07265038
3.9174283 2.8035693 -1.1121581 8 1 -0.072648071
13.756768 9.8452482 0.88657117 69 9 -0.072645769
4.8252935 3.4520278 -1.1532496 4 2 -0.072643466
6.4581718 4.618485 0.69463122 13 10 -0.072641164
5.7047882 4.078207 -1.1106849 36 3 -0.072638854
9.6889076 6.9238038 1.4621885 14 11 -0.072636552
6.1025629 4.3593478 -0.92084479 1 4 -0.07263425
7.8906465 5.6366601 1.5358738 13 12 -0.072631948
6.2425022 4.4576678 -0.67109919 1 5 -0.072629638
6.5386791 4.6674404 1.5615808 31 13 -0.072627336
6.337357 4.5220628 -0.40801117 1 6 -0.072625034
5.6415925 4.0241098 1.599852 14 14 -0.072622731
6.6861262 4.7691689 -0.14335407 49 7 -0.072620422
4.9988227 3.5643106 1.645054 15 15 -0.072618119
3.3316643 2.368567 -1.0953223 11 0 -0.072597384
6.4719553 4.6010818 0.13860701 90 8 -0.072595082
3.9282925 2.7916908 -1.1126078 9 1 -0.07259278
13.861063 9.8469095 0.89107209 94 9 -0.07259047
4.8373146 3.4351621 -1.1532496 4 2 -0.072588168
6.4401383 4.5716929 0.69097072 31 10 -0.072585866
5.7086172 4.0524044 -1.1088076 37 3 -0.072583564
9.7361012 6.9088659 1.4658446 3 11 -0.072581254
6.0878406 4.3184147 -0.91645753 1 4 -0.072578952
7.9054408 5.6056523 1.5349351 13 12 -0.072576649
6.2092595 4.4012861 -0.66586983 1 5 -0.072574347
6.0127487 4.2619944 1.4325941 14 13 -0.072572038
6.3392797 4.4917865 -0.40717378 0 6 -0.072569735
5.6405945 3.9952404 1.5958028 1 14 -0.072567433
6.7174196 4.7562017 -0.1436682 56 7 -0.072565131
5.0301552 3.5602331 1.6512655 15 15 -0.072562829
3.3331876 2.3530481 -1.0932516 11 0 -0.072542086
6.486342 4.5773106 0.13857211 95 8 -0.072539784
3.9364195 2.7768412 -1.1121581 9 1 -0.072537482
13.934527 9.8260851 0.89358425 94 9 -0.07253518
4.835845 3.4100492 -1.1501967 7 2 -0.07253287
6.4650331 4.5572 0.6920166 9 10 -0.072530568
5.7194977 4.0301785 -1.1081818 37 3 -0.072528265
9.7585382 6.873693 1.4656008 3 11 -0.072525963
6.0996327 4.2948503 -0.91597003 1 4 -0.072523654
7.8684216 5.5382304 1.5239848 97 12 -0.072521351
6.2148094 4.372705 -0.66482401 2 5 -0.072519049
6.0067167 4.2262921 1.4276329 15 13 -0.072516747
6.34512 4.4627352 -0.40654576 1 6 -0.072514445
5.1220536 3.601176 1.4455354 1 14 -0.072512135
6.7208948 4.7235246 -0.14338897 10 7 -0.072509833
4.3833857 3.0795531 1.4354105 35 15 -0.07250753
3.3322959 2.3341665 -1.0901459 12 0 -0.072486795
6.480989 4.5397253 0.13811834 100 8 -0.072484486
3.9524744 2.7675533 -1.1139576 8 1 -0.072482184
14.039099 9.8266363 0.89808512 37 9 -0.072479881
4.84831 3.3923032 -1.1501967 4 2 -0.072477579
6.4539356 4.5140619 0.6890533 6 10 -0.072475269
5.7212787 4.0001349 -1.1056789 38 3 -0.072472967
9.7808418 6.8384519 1.4653571 3 11 -0.072470665
6.1113319 4.2712598 -0.91548258 1 4 -0.072468363
6.5873914 4.6022706 1.272751 12 12 -0.072466061
6.2104344 4.3372931 -0.6627323 1 5 -0.072463751
6.5904164 4.6009617 1.5623442 20 13 -0.072461449
6.34833 4.4303064 -0.40570837 1 6 -0.072459146
5.1336212 3.5812624 1.4450855 1 14 -0.072456844
4.3893538 3.0609188 1.4338576 33 15 -0.072452232
3.3451824 2.3258278 -1.0916989 11 0 -0.072431497
6.4483228 4.4817047 0.13707121 97 8 -0.072429195
3.9513891 2.7452638 -1.1108083 8 1 -0.072426885
14.124237 9.809289 0.90122527 34 9 -0.072424583
4.8601232 3.3753574 -1.1501967 4 2 -0.072422281
6.4140067 4.4528761 0.68312669 22 10 -0.072419979
5.7238474 3.972254 -1.1034888 46 3 -0.072417676
9.8025799 6.8002915 1.4648696 57 11 -0.072415367
6.1008458 4.2307343 -0.91158277 1 4 -0.072413065
6.5879817 4.5668397 1.2696222 53 12 -0.072410762
6.2026119 4.2996984 -0.66029191 1 5 -0.07240846
6.041647 4.1865554 1.4287778 14 13 -0.07240615
6.3243508 4.380826 -0.40319625 0 6 -0.072403848
5.1252623 3.5488999 1.4392369 3 14 -0.072401546
6.4552722 4.4681754 -0.13703629 21 7 -0.072399244
4.387835 3.036016 1.4297165 5 15 -0.072396934
3.3612299 2.3196237 -1.0942869 12 0 -0.072376199
6.4672198 4.4614377 0.137141 100 8 -0.072373897
3.9657602 2.7347744 -1.1121581 8 1 -0.072371595
14.204433 9.7916689 0.90415609 100 9 -0.072369292
4.8751073 3.3606014 -1.1509598 7 2 -0.072366983
6.4229503 4.4259362 0.68242943 36 10 -0.07236468
5.7327976 3.9488895 -1.1025503 46 3 -0.072362378
6.4451089 4.4378886 0.96081799 39 11 -0.072360076
6.0697923 4.1778965 -0.9047581 1 4 -0.072357766
6.5859809 4.5315003 1.2661808 16 12 -0.072355464
6.2077332 4.271246 -0.65924603 1 5 -0.072353162
6.0837216 4.1843553 1.4352653 45 13 -0.07235086
6.3231473 4.3474059 -0.40214953 1 6 -0.07234855
5.1552844 3.5431304 1.4441857 1 14 -0.072346248
6.457643 4.4365582 -0.13675706 18 7 -0.072343946
4.4286623 3.0414612 1.4395516 45 15 -0.072341643
3.3709004 2.3089674 -1.0948045 12 0 -0.072320908
6.4596558 4.423017 0.13665235 100 8 -0.072318599
3.9704571 2.717613 -1.1108083 8 1 -0.072316296
14.284681 9.7736006 0.90708685 100 9 -0.072313994
4.8851891 3.3424537 -1.1505783 7 2 -0.072311692
6.4416509 4.4057369 0.68277812 9 10 -0.072309382
5.7400236 3.924396 -1.1012988 49 3 -0.07230708
6.4753127 4.4254432 0.96301162 70 11 -0.072304778
6.0777831 4.1522026 -0.90378314 1 4 -0.072302476
6.5332437 4.4616947 1.2530402 11 12 -0.072300166
6.2127323 4.2428107 -0.65820014 1 5 -0.072297864
6.1063991 4.1686268 1.4371735 58 13 -0.072295561
6.331687 4.3208027 -0.40173087 0 6 -0.072293259
5.1740594 3.5295074 1.4459854 1 14 -0.07229095
6.4681349 4.4106083 -0.13665235 7 7 -0.072288647
4.4504266 3.0335996 1.4431751 15 15 -0.072286345
3.3661578 2.2885001 -1.0906636 11 0 -0.07226561
6.4502459 4.3835831 0.13612877 87 8 -0.072263308
3.9718604 2.6982608 -1.1085589 8 1 -0.072260998
6.4257398 4.3636508 0.40706912 25 9 -0.072258696
4.8692155 3.3066318 -1.1440908 6 2 -0.072256394
6.4075356 4.3496552 0.67754871 27 10 -0.072254092
5.7569571 3.9065521 -1.1019244 47 3 -0.072251782
6.4545779 4.3782988 0.95764935 78 11 -0.07224948
6.0988111 4.1354194 -0.9047581 1 4 -0.072247177
6.5356984 4.4299941 1.2505373 11 12 -0.072244875
6.1978192 4.2009745 -0.65506256 1 5 -0.072242565
6.1111608 4.1406798 1.4348837 43 13 -0.072240263
6.330193 4.2874756 -0.40068412 1 6 -0.072237961
5.2315321 3.5420148 1.4585826 1 14 -0.072235659
6.4719 4.380156 -0.13640802 6 7 -0.072233357
5.0594139 3.4229069 1.6367717 35 15 -0.072231047
3.3709233 2.2745738 -1.0896282 11 0 -0.072210312
6.4572201 4.3554482 0.13595425 67 8 -0.07220801
3.9861012 2.6876485 -1.1099085 8 1 -0.072205707
6.4302382 4.3356204 0.40644106 19 9 -0.072203398
4.8970075 3.3005891 -1.147907 7 2 -0.072201096
6.4325948 4.33394 0.67859459 47 10 -0.072198793
5.7640038 3.8820202 -1.100673 47 3 -0.072196491
6.4879346 4.3679376 0.96033055 60 11 -0.072194181
6.1115637 4.1129956 -0.90451437 11 4 -0.072191879
6.54216 4.4027805 1.2489729 20 12 -0.072189577
6.2124467 4.1793127 -0.65506256 1 5 -0.072187275
6.6289816 4.4578533 1.5528038 25 13 -0.072184972
6.3418064 4.263123 -0.40047479 1 6 -0.072182663
5.2632747 3.5367732 1.4639815 3 14 -0.072180361
6.7619114 4.5438151 -0.14220221 1 7 -0.072178058
5.0627174 3.4007251 1.6341835 45 15 -0.072175756
3.3740275 2.2595675 -1.0880753 10 0 -0.072155014
6.4284277 4.3050823 0.13504672 65 8 -0.072152711
3.9868948 2.6689963 -1.107659 9 1 -0.072150409
6.4403543 4.3098145 0.40612707 93 9 -0.072148107
4.8954453 3.2747409 -1.1448541 4 2 -0.072145805
6.432775 4.3014965 0.67702579 15 10 -0.072143495
5.7669921 3.8562977 -1.0987958 49 3 -0.072141193
6.5403433 4.3717694 0.96593654 45 11 -0.072138891
6.7243166 4.4930453 -0.99299151 55 4 -0.072136588
6.476995 4.32616 1.2336423 42 12 -0.072134279
6.1988277 4.1387959 -0.65209925 6 5 -0.072131976
6.1881866 4.131691 1.4463322 26 13 -0.072129674
6.3309889 4.2254391 -0.39890468 2 6 -0.072127372
5.2992878 3.5355265 1.4707299 10 14 -0.072125062
6.4699535 4.3149233 -0.13574483 13 7 -0.07212276
4.484643 2.9897552 1.4442104 31 15 -0.072120458
3.3863289 2.2515745 -1.0896282 11 0 -0.072099723
6.4217649 4.2682281 0.13459297 45 8 -0.072097421
3.9896951 2.6507485 -1.1058594 9 1 -0.072095111
6.4396381 4.2784877 0.40518501 42 9 -0.072092809
4.9128203 3.2628324 -1.1463805 4 2 -0.072090507
6.4304061 4.2691193 0.67528266 27 10 -0.072088204
5.7738352 3.8317728 -1.0975443 49 3 -0.072085895
6.4248834 4.262218 0.94668114 12 11 -0.072083592
6.7052155 4.4465075 -0.9878729 28 4 -0.07208129
6.4731979 4.2926469 1.2302008 36 12 -0.072078988
6.2407489 4.1369324 -0.65506256 7 5 -0.072076678
6.1992993 4.1078949 1.445569 16 13 -0.072074376
6.3007417 4.1735363 -0.39607856 1 6 -0.072072074
5.3148475 3.5191574 1.4716297 10 14 -0.072069772
6.8193583 4.5153499 -0.14276068 2 7 -0.072067462
4.5058103 2.9823298 1.4478338 18 15 -0.07206516
3.3973911 2.2418709 -1.0906636 12 0 -0.072044425
6.4392209 4.2491136 0.13466278 17 8 -0.072042122
3.9919574 2.6332104 -1.1040598 9 1 -0.07203982
6.4928851 4.2812686 0.40759248 44 9 -0.072037511
4.9143424 3.2391844 -1.1440908 4 2 -0.072035208
6.4469342 4.2477412 0.675457 18 10 -0.072032906
5.7881608 3.8136904 -1.0978571 55 3 -0.072030604
6.7431355 4.4395318 -0.99128538 37 4 -0.072025992
6.4600921 4.2515621 1.224882 38 12 -0.07202369
6.2984285 4.1435919 -0.65959466 31 5 -0.072021388
6.1850038 4.0689726 1.4390815 42 13 -0.072019078
6.2961898 4.1405487 -0.39492717 3 6 -0.072016776
5.3216043 3.4983006 1.4702801 57 14 -0.072014473
6.6713042 4.3838954 -0.13934001 1 7 -0.072012171
5.1168427 3.3611412 1.6403952 41 15 -0.072009861
3.4015753 2.2284739 -1.0896282 15 0 -0.071989127
6.4071741 4.1959333 0.13368544 45 8 -0.071986824
4.0239506 2.6342034 -1.1103585 9 1 -0.071984522
6.5378714 4.2782645 0.40947655 6 9 -0.07198222
4.9217715 3.2207184 -1.1433275 4 2 -0.07197991
6.4393082 4.212162 0.67319095 20 10 -0.071977608
5.7931724 3.7880557 -1.0962929 57 3 -0.071975306
6.8051229 4.4463673 -0.99811 39 4 -0.071970694
6.4467788 4.2106209 1.2195632 31 12 -0.071968392
6.1909494 4.0419931 1.4371735 32 13 -0.071963787
6.3290038 4.1305518 -0.39607856 7 6 -0.071961477
5.3321519 3.4786372 1.4698302 63 14 -0.071959175
6.428617 4.1923642 -0.13396467 10 7 -0.071956873
5.1285448 3.3432581 1.6403952 45 15 -0.071954571
3.3983812 2.2086232 -1.0860047 9 0 -0.071933836
6.40166 4.1604676 0.13326657 30 8 -0.071931526
4.0216813 2.6127105 -1.1072091 8 1 -0.071929224
14.941378 9.703042 0.9336735 93 9 -0.071926922
4.9351892 3.2037277 -1.1437092 6 2 -0.071924619
6.4296322 4.1722655 0.67057627 27 10 -0.07192231
5.7970729 3.7603486 -1.0944157 66 3 -0.071920007
10.162297 6.5919099 1.4872936 135 11 -0.071917705
6.2043319 4.0229888 -0.90792668 19 4 -0.071915403
6.8288321 4.4245348 -0.71188807 34 5 -0.071910791
6.2848191 4.0705009 1.4554911 41 13 -0.071908489
6.3357172 4.1019011 -0.3955552 3 6 -0.071906187
5.6000834 3.6242428 1.5400149 24 14 -0.071903884
6.6698503 4.3165712 -0.13867682 7 7 -0.071901575
5.1304526 3.3190386 1.6372893 46 15 -0.071899273
3.4109409 2.1998873 -1.0875577 11 0 -0.071878538
4.0361452 2.6011188 -1.1085589 9 1 -0.071873926
15.038951 9.6919451 0.93765104 100 9 -0.071871623
4.9463434 3.18648 -1.1437092 6 2 -0.071869321
6.4525337 4.1551881 0.67144781 29 10 -0.071867019
5.810163 3.7400913 -1.0944157 66 3 -0.071864709
10.199744 6.5632143 1.4892435 145 11 -0.071862407
6.856801 4.4104443 -1.0010349 45 4 -0.071860105
6.5923114 4.2403188 1.241464 13 12 -0.071857803
6.5006809 4.1797762 -0.67615426 32 5 -0.0718555
6.2543974 4.0198793 1.4451874 39 13 -0.071853191
7.1901674 4.6195526 -0.44789118 2 6 -0.071850888
5.5585895 3.5699227 1.5251682 80 14 -0.071848586
6.4274421 4.1279306 -0.13333638 69 7 -0.071846284
5.1436319 3.3021545 1.6378069 41 15 -0.071843974
3.4202266 2.1890078 -1.0880753 12 0 -0.071823239
6.3631806 4.0725522 0.13187039 15 8 -0.071820937
4.0250497 2.5751183 -1.10316 8 1 -0.071818635
6.3585281 4.0664511 0.3955552 19 9 -0.071816333
4.9475126 3.1628487 -1.1414195 6 2 -0.071814023
6.4250259 4.1058192 0.66709006 45 10 -0.071811721
5.820868 3.7197409 -1.0941027 69 3 -0.071809418
6.1787295 3.9453864 -0.90012699 30 4 -0.071804807
6.423912 4.1003723 1.2070485 83 12 -0.071802504
6.8931441 4.3981895 -0.71537429 31 5 -0.071800202
6.4265771 4.1004949 1.4818227 25 13 -0.0717979
6.3449697 4.0468631 -0.39440379 0 6 -0.07179559
5.6377668 3.5944242 1.5436141 12 14 -0.071793288
6.5952702 4.2032685 -0.13651273 49 7 -0.071790986
4.5816121 2.9188085 1.4555984 48 15 -0.071788684
3.4307282 2.1797271 -1.0891106 12 0 -0.071767949
4.0356593 2.5620959 -1.1036098 8 1 -0.071763337
15.217547 9.6610765 0.94466412 99 9 -0.071761034
4.9463692 3.1390619 -1.1387482 6 2 -0.071758732
6.4537492 4.0940943 0.66865885 20 10 -0.071756423
5.8304815 3.6972828 -1.093477 72 3 -0.07175412
6.1723413 3.911046 -0.89720219 13 4 -0.071749516
8.2078638 5.2008357 1.5390024 13 12 -0.071747206
6.9464064 4.3998256 -0.71938354 32 5 -0.071744904
6.8372898 4.3290405 1.5730294 25 13 -0.071742602
6.3016768 3.9883757 -0.39084497 0 6 -0.071740299
5.4180775 3.427815 1.480178 12 14 -0.07173799
6.4706006 4.0937071 -0.13365053 52 7 -0.071735688
4.5977964 2.9077306 1.457669 41 15 -0.071733385
3.4301443 2.1625874 -1.0865225 12 0 -0.07171265
6.3163233 3.9822235 0.13033457 10 8 -0.071710348
4.0507274 2.5528557 -1.1054094 9 1 -0.071708038
15.308632 9.6440973 0.94822294 72 9 -0.071705736
4.9572959 3.1217775 -1.1387482 4 2 -0.071703434
6.3786349 4.0152884 0.65942037 45 10 -0.071701132
5.8460526 3.6800334 -1.0941027 69 3 -0.071698822
10.200135 6.4183946 1.4797376 1 11 -0.07169652
7.0002341 4.4031687 -1.0154155 46 4 -0.071694218
8.2577438 5.1921291 1.5449469 33 12 -0.071691915
6.2262464 3.9132915 -0.64338368 10 5 -0.071689606
6.8665686 4.3157434 1.5764639 19 13 -0.071687303
7.2044277 4.5263438 -0.44590241 0 6 -0.071685001
5.2874918 3.3206954 1.4414864 3 14 -0.071682699
6.6050987 4.1465826 -0.13612877 55 7 -0.071680397
4.6013722 2.8875568 1.4555984 43 15 -0.071678087
3.4294841 2.1454771 -1.0839342 12 0 -0.07165885
6.2918801 3.9346614 0.12953176 2 8 -0.071656547
4.0551009 2.5348923 -1.1040598 9 1 -0.071654245
15.408241 9.6281376 0.95220047 69 9 -0.071651936
4.9748235 3.1086147 -1.1402746 6 2 -0.071649633
6.3959908 3.9951112 0.65976894 40 10 -0.071647331
5.8460975 3.6502104 -1.0915998 74 3 -0.071645029
6.3756404 3.9793022 0.92279476 10 11 -0.071642719
6.3826933 3.9806089 1.1914051 27 12 -0.071638115
6.2246523 3.8820457 -0.64181489 4 5 -0.071635813
6.3358841 3.9498811 1.4512933 1 13 -0.071633503
6.2683449 3.9062569 -0.38707677 11 6 -0.071631201
5.4021788 3.3651776 1.4693804 21 14 -0.071628898
6.4691739 4.0282736 -0.13302223 47 7 -0.071626596
5.1941562 3.2330785 1.6393598 45 15 -0.071624286
3.448441 2.1406252 -1.0875577 11 0 -0.071603552
6.2664967 3.8884232 0.12872896 27 8 -0.071601249
4.0539889 2.5145578 -1.1013604 9 1 -0.071598947
15.4774 9.5963993 0.95439857 54 9 -0.071596645
4.9789691 3.0870931 -1.1387482 4 2 -0.071594335
6.3692546 3.9475687 0.65558547 33 10 -0.071592033
5.8487301 3.6235383 -1.0897226 72 3 -0.071589731
10.240738 6.3421092 1.4790065 15 11 -0.071587428
7.0838857 4.385354 -1.0229713 41 4 -0.071585119
8.2778883 5.1225104 1.5418184 13 12 -0.071582817
6.2093644 3.8424697 -0.63885158 10 5 -0.071580514
6.3162394 3.9070854 1.443661 3 13 -0.071578212
5.8830085 3.6362562 1.5967026 42 14 -0.0715736
6.5614486 4.0540185 -0.13462786 52 7 -0.071571298
5.2086968 3.216959 1.6403952 45 15 -0.071568996
3.4526033 2.1265481 -1.0865225 11 0 -0.071548261
6.3123865 3.8864434 0.12939215 30 8 -0.071545951
4.0627398 2.5003941 -1.1013604 9 1 -0.071543649
6.195477 3.8114824 0.38121516 25 9 -0.071541347
4.983027 3.0655785 -1.1372217 6 2 -0.071539044
6.3660245 3.9148729 0.65384239 29 10 -0.071536735
5.8579745 3.6010354 -1.0890969 72 3 -0.071534432
6.327157 3.8879275 0.91182649 18 11 -0.07153213
7.1194491 4.3730655 -1.0258962 39 4 -0.071529828
8.2973986 5.0946231 1.5421312 22 12 -0.071527518
7.1260095 4.3753872 -0.73158526 30 5 -0.071525216
6.3181281 3.8778238 1.4409896 3 13 -0.071522914
6.2239618 3.8185329 -0.38268054 10 6 -0.071520612
5.4072647 3.3161767 1.4644314 15 14 -0.071518309
6.5516934 4.0164561 -0.1341392 49 7 -0.071516
5.2264843 3.2027938 1.6424657 43 15 -0.071513698
3.4633021 2.1164968 -1.0875577 11 0 -0.071492963
6.2866645 3.84041 0.12858933 45 8 -0.07149066
4.071444 2.486196 -1.1013604 8 1 -0.071488351
15.458787 9.4360771 0.94916505 27 9 -0.071486048
4.9735894 3.0358899 -1.1326423 4 2 -0.071483746
6.3575406 3.879138 0.65157634 31 10 -0.071481444
5.8705096 3.5805635 -1.0890969 74 3 -0.071479134
10.316971 6.2900896 1.4836376 17 11 -0.071476832
8.3235674 5.070765 1.5436954 34 12 -0.071472228
6.3282728 3.8537021 1.4402263 2 13 -0.071467616
6.2065444 3.7780924 -0.38079646 5 6 -0.071465313
5.3838487 3.2760077 1.4549835 22 14 -0.071463011
6.5383391 3.9769337 -0.13358071 49 7 -0.071460709
5.2442341 3.1885462 1.6445363 46 15 -0.071458399
3.4607563 2.0983877 -1.0844518 11 0 -0.071437664
6.3342342 3.8391705 0.12928744 30 8 -0.071435362
4.0800972 2.4719701 -1.1013604 8 1 -0.07143306
6.1649051 3.7350733 0.37776098 21 9 -0.07143075
4.9992685 3.027667 -1.1360768 6 2 -0.071428448
6.2909369 3.8084254 0.64338368 27 10 -0.071426146
5.8846636 3.5610712 -1.0894097 86 3 -0.071423844
6.3473501 3.8395543 0.91085154 25 11 -0.071421541
6.1730566 3.7326474 -0.88574642 61 4 -0.071419232
6.372736 3.8533869 1.1795161 70 12 -0.071416929
6.3231997 3.8204248 1.4360286 1 13 -0.071412325
6.2179856 3.7553701 -0.38069177 17 6 -0.071410015
5.3902469 3.2541716 1.4536338 90 14 -0.071407713
6.5446424 3.9510972 -0.13344111 52 7 -0.071405411
5.2481623 3.1671467 1.6424657 45 15 -0.071403109
3.4697163 2.0872896 -1.0849695 11 0 -0.071382366
6.2389774 3.7532041 0.12708843 62 8 -0.071380064
4.1116519 2.4724865 -1.107659 9 1 -0.071377762
6.7753263 4.0726371 0.41429147 2 9 -0.071375459
5.0098071 3.0101964 -1.1360768 6 2 -0.071373157
6.2495341 3.7536194 0.6378057 42 10 -0.071370848
5.87781 3.5303531 -1.0859681 81 3 -0.071368545
6.3260107 3.7980468 0.90597677 51 11 -0.071366243
6.1785913 3.7080717 -0.88477147 26 4 -0.071363941
8.3426437 5.004849 1.5408796 24 12 -0.071361631
7.2090302 4.3230658 -0.73542017 52 5 -0.071359329
6.3105788 3.7842882 1.4303043 2 13 -0.071357027
6.2252645 3.7316506 -0.38037777 6 6 -0.071354724
5.4076962 3.240284 1.4554334 30 14 -0.071352415
6.5017819 3.8943212 -0.13228925 30 7 -0.071350113
5.2575293 3.1478143 1.6419481 33 15 -0.07134781
3.4733021 2.0737903 -1.0839342 12 0 -0.071327075
6.2880993 3.7529256 0.12782143 42 8 -0.071324773
4.0918078 2.4411449 -1.1000106 8 1 -0.071322463
6.8169484 4.0653276 0.41596621 8 9 -0.071320161
5.0113316 2.9885373 -1.1341687 4 2 -0.071317859
6.2294316 3.7134893 0.63449377 59 10 -0.071315557
5.8799167 3.5037456 -1.0840909 81 3 -0.071313247
6.3017101 3.7535911 0.9006145 37 11 -0.071310945
6.176146 3.6773431 -0.8825779 22 4 -0.071308643
6.3825054 3.7987032 1.1763873 47 12 -0.07130634
6.3136277 3.7562129 1.4280145 2 13 -0.071301728
6.2760177 3.7323582 -0.38268054 47 6 -0.071299426
5.4022202 3.2114336 1.4509343 11 14 -0.071297124
6.6116056 3.9288058 -0.13424391 36 7 -0.071294814
4.6688871 2.7732868 1.4550807 71 15 -0.071292512
3.4855046 2.0646095 -1.0854871 13 0 -0.071271777
6.2598658 3.7064998 0.12698372 27 8 -0.071269475
4.0902424 2.4208903 -1.0973113 8 1 -0.071267173
6.8448462 4.0496478 0.4168036 2 9 -0.071264863
5.0352483 2.9790273 -1.1372217 4 2 -0.071262561
6.2423577 3.69172 0.63449377 61 10 -0.071260259
5.8955131 3.4852085 -1.0847167 82 3 -0.071257956
6.3011022 3.7234933 0.89866465 61 11 -0.071255647
6.2692771 3.7032111 -0.89403361 79 4 -0.071253344
6.3974285 3.7774034 1.1767002 63 12 -0.071251042
6.296402 3.7177517 -0.63972312 100 5 -0.07124874
6.3114839 3.7251716 1.4245801 2 13 -0.07124643
6.0176849 3.5489335 1.6128991 42 14 -0.071241826
6.6321697 3.9097664 -0.13438353 27 7 -0.071239524
4.7001767 2.7697217 1.46181 50 15 -0.071237221
3.4910254 2.0514507 -1.0849695 14 0 -0.071216479
6.2503519 3.6714582 0.12652995 30 8 -0.071214177
4.0969877 2.4056125 -1.0968614 8 1 -0.071211874
15.70058 9.2188492 0.95418924 27 9 -0.071209572
5.0473104 2.9624252 -1.1376033 6 2 -0.071207263
6.2534885 3.6688983 0.63431948 54 10 -0.07120496
5.9076419 3.4646094 -1.0847167 87 3 -0.071202658
6.3020716 3.6944494 0.89695841 64 11 -0.071200356
6.1742663 3.6180747 -0.87867808 61 4 -0.071198046
6.428668 3.7671523 1.1801417 57 12 -0.071195744
6.386703 3.7410681 -0.64756715 49 5 -0.071193442
6.3312249 3.707087 1.4261066 2 13 -0.07119114
2.0270956 1.1864377 -0.12309418 1 6 -0.071188837
6.353404 3.7170963 -0.12848462 65 7 -0.071184225
5.2980013 3.098386 1.6445363 43 15 -0.071181923
3.4881504 2.0334153 -1.0818636 14 0 -0.071161188
6.2711272 3.65575 0.12670447 67 8 -0.071158879
4.1099939 2.3949552 -1.0982111 8 1 -0.071156576
15.808604 9.2082157 0.95879483 60 9 -0.071154274
5.0406537 2.9349113 -1.1337872 6 2 -0.071151972
6.2197633 3.6199887 0.6296131 68 10 -0.071149662
5.9190993 3.444998 -1.0847167 84 3 -0.07114736
6.3108582 3.6715324 0.89647096 64 11 -0.071145058
6.441916 3.7462747 -0.91499513 56 4 -0.071142755
6.3615122 3.6980307 1.1654369 23 12 -0.071140453
6.4858575 3.7688003 -0.65628272 51 5 -0.071138144
6.3299041 3.678179 1.4230535 1 13 -0.071135841
1.9930235 1.1576402 -0.1207914 59 6 -0.071133539
5.4468012 3.162483 1.4540836 15 14 -0.071131237
6.5289154 3.7892492 -0.13176566 57 7 -0.071128927
5.3054438 3.0779335 1.643501 43 15 -0.071126625
3.4982193 2.0237708 -1.0828989 14 0 -0.07110589
6.2751961 3.6288311 0.12652995 95 8 -0.071103588
4.1132669 2.3776693 -1.0968614 9 1 -0.071101278
15.901299 9.1917276 0.96256298 36 9 -0.071098976
5.0571589 2.9221075 -1.1353136 9 2 -0.071096674
6.2248316 3.5953584 0.62891585 47 10 -0.071094371
5.9174027 3.4164155 -1.0822138 82 3 -0.071092069
6.3287926 3.6524594 0.89720219 39 11 -0.071089759
6.5237322 3.7634447 -0.92474467 59 4 -0.071087457
8.4715118 4.8870902 1.5490142 34 12 -0.071085155
6.4827852 3.7383151 -0.65471393 47 5 -0.071082853
6.3359003 3.6521406 1.421527 1 13 -0.071080543
1.9901299 1.1466882 -0.12037271 90 6 -0.071078241
5.6604481 3.2601645 1.5080719 33 14 -0.071075939
6.3283062 3.6448207 -0.12747237 56 7 -0.071073636
5.3089256 3.0564661 1.6414305 46 15 -0.071071327
3.5002358 2.0086617 -1.0813459 15 0 -0.071050592
6.2698522 3.598047 0.1261809 90 8 -0.07104829
4.1177487 2.3620756 -1.0959616 8 1 -0.071045987
16.007788 9.1788883 0.9670639 24 9 -0.071043685
5.0605159 2.9005303 -1.1337872 6 2 -0.071041375
6.3047662 3.6122341 0.63571393 19 10 -0.071039073
5.9149885 3.388916 -1.0797108 84 3 -0.071036771
6.2926369 3.6038303 0.89037746 66 11 -0.071034469
6.5671873 3.7595413 -0.92913198 57 4 -0.071032159
6.3402443 3.6281536 1.1569895 15 12 -0.071029857
6.5667009 3.7562244 -0.6618607 51 5 -0.071027555
6.3411589 3.627212 1.4200007 3 13 -0.071025252
1.9835187 1.1341336 -0.11974468 89 6 -0.071022943
5.5206499 3.1553113 1.4680306 71 14 -0.07102064
6.2732735 3.5840225 -0.12611109 52 7 -0.071018338
5.3145285 3.0350428 1.6398776 15 15 -0.071016036
3.5085561 1.9980004 -1.0818636 12 0 -0.070995301
6.2736831 3.5711939 0.12600638 100 8 -0.070992991
4.1242743 2.3467245 -1.0955117 8 1 -0.070990689
16.114386 9.165411 0.97156477 36 9 -0.070988387
5.0735183 2.8856752 -1.1345503 11 2 -0.070986085
6.3271012 3.5972166 0.63675982 49 10 -0.070983775
5.9267812 3.3682497 -1.0797108 77 3 -0.070981473
6.2827406 3.5690944 0.88720888 45 11 -0.070979171
6.5457458 3.7169914 -0.92425722 60 4 -0.070976868
6.3425627 3.6001503 1.1551123 31 12 -0.070974559
6.6207075 3.7580302 -0.66604418 51 5 -0.070972256
6.3571982 3.6069911 1.4207639 1 13 -0.070969954
1.9839908 1.1252327 -0.11953534 87 6 -0.070967652
5.4706006 3.1014235 1.4518342 33 14 -0.070965342
6.5066962 3.6873121 -0.13054401 10 7 -0.07096304
5.3872833 3.0517044 1.6590302 16 15 -0.070960738
3.520555 1.9885924 -1.0834166 12 0 -0.070940003
6.2878509 3.5502574 0.12604128 100 8 -0.070937701
4.1341386 2.3332705 -1.0959616 8 1 -0.070935391
16.214123 9.1473742 0.97564697 33 9 -0.070933089
5.0698819 2.860229 -1.1314974 6 2 -0.070930786
6.3326769 3.5711958 0.63606262 57 10 -0.070928484
6.0520763 3.4115605 -1.1003602 21 3 -0.070926175
6.2830553 3.540319 0.8855027 50 11 -0.070923872
6.6572676 3.74965 -0.93815029 11 4 -0.07092157
6.3241076 3.5605428 1.1494806 25 12 -0.070919268
7.1824059 4.0437741 -0.72112656 50 5 -0.070916958
7.1225548 4.0084405 1.5886757 11 13 -0.070914656
1.9913875 1.1202594 -0.11974468 87 6 -0.070912354
5.4627094 3.0718005 1.4468851 45 14 -0.070910051
6.287684 3.5342577 -0.12590165 24 7 -0.070907749
4.7764277 2.6836984 1.4680218 1 15 -0.07090544
3.5173633 1.9706247 -1.0803107 15 0 -0.070884705
6.3193989 3.5390334 0.12642524 22 8 -0.070882402
4.1320539 2.313117 -1.0932621 8 1 -0.0708801
5.0901141 2.8482678 -1.1337872 6 2 -0.070875488
6.3711882 3.5636566 0.6386773 52 10 -0.070873186
6.264184 3.5009348 0.88111544 40 11 -0.070868574
5.5525317 3.1019342 -0.78093886 1 4 -0.070866272
8.5647917 4.7827787 1.5537072 30 12 -0.07086397
6.1718874 3.4465253 -0.61845714 12 5 -0.070861667
7.1519318 3.9921677 1.5921104 25 13 -0.070859365
1.9952862 1.1133007 -0.11974468 89 6 -0.070857055
5.4512739 3.0403717 1.4410365 56 14 -0.070854753
6.2667966 3.493788 -0.12523846 36 7 -0.070852451
4.7503295 2.647259 1.4571513 39 15 -0.070850149
3.5208437 1.9564571 -1.0792755 13 0 -0.070829406
6.1446633 3.4130578 0.12269042 20 8 -0.070827104
4.1503263 2.304354 -1.0959616 9 1 -0.070824802
6.1680555 3.4232304 0.36970121 19 9 -0.0708225
5.1017432 2.831434 -1.1341687 6 2 -0.070820197
6.3853302 3.5423632 0.63885158 54 10 -0.070817888
5.4883823 3.0435143 -0.9939847 5 3 -0.070815586
10.656803 5.9071598 1.4960682 21 11 -0.070813283
5.5147066 3.0555956 -0.77411413 2 4 -0.070810981
6.3885541 3.5383217 1.1566767 75 12 -0.070808671
7.1494575 3.9597502 -0.71502572 22 5 -0.070806369
7.1555185 3.9614711 1.5898207 26 13 -0.070804067
2.002655 1.1082636 -0.11995402 87 6 -0.070801765
5.4908409 3.0373645 1.4486848 45 14 -0.070799455
6.2317052 3.4457638 -0.12429604 45 7 -0.070797153
4.752779 2.6269221 1.4550807 16 15 -0.070794851
3.532726 1.9469548 -1.0808283 12 0 -0.070774116
6.1547894 3.3906214 0.12265551 20 8 -0.070771813
4.1412749 2.2804515 -1.0914625 9 1 -0.070769504
6.6961288 3.6857991 0.40057945 14 9 -0.070767201
5.1069255 2.8098779 -1.1330239 6 2 -0.070764899
6.3697276 3.5046835 0.63606262 99 10 -0.070762597
5.4626245 3.0043452 -0.98741448 4 3 -0.070760287
10.673874 5.8680191 1.4955807 15 11 -0.070757985
5.4922853 3.0181613 -0.76948309 4 4 -0.070755683
6.4735847 3.5559416 1.1698171 91 12 -0.070753381
7.1744003 3.9392748 -0.71607161 4 5 -0.070751071
7.1665463 3.9333301 1.5890573 25 13 -0.070748769
1.9926952 1.0932302 -0.11911664 89 6 -0.070746467
6.5014362 3.5653389 -0.12942705 14 7 -0.070741855
4.7449784 2.6010306 1.4499043 52 15 -0.070739552
3.5415347 1.9349173 -1.0813459 15 0 -0.070718817
6.1864796 3.3785846 0.12303946 20 8 -0.070716515
4.146184 2.263391 -1.0905627 9 1 -0.070714213
6.6990762 3.6554866 0.3999514 10 9 -0.070711903
5.1223598 2.7939627 -1.1341687 4 2 -0.070709601
6.6711335 3.6387329 0.66482401 85 10 -0.070707299
5.4337091 2.9625561 -0.98021847 11 3 -0.070704997
6.2488103 3.4055455 0.87380332 58 11 -0.070702687
5.4684453 2.9790194 -0.76460832 2 4 -0.070700385
6.4570813 3.5161326 1.1644983 61 12 -0.070698082
1.9984425 1.0877765 -0.19906372 1 5 -0.07069578
7.1947112 3.9145453 1.5921104 25 13 -0.070693471
1.9966886 1.0859199 -0.11911664 89 6 -0.070691168
6.2451444 3.3964865 1.641243 9 14 -0.070688866
2.0362086 1.1069515 -0.040454678 8 7 -0.070686564
4.7629666 2.5882349 1.4524926 52 15 -0.070684254
3.5519998 1.9237647 -1.0823812 13 0 -0.070663519
4.1647344 2.2537451 -1.0932621 9 1 -0.070658915
6.6643658 3.6064198 0.39712527 2 9 -0.070656613
5.1061802 2.762053 -1.1284446 6 2 -0.070654303
6.6616421 3.6019363 0.66255796 90 10 -0.070652001
5.4532199 2.9473183 -0.98178285 64 3 -0.070649698
6.2595034 3.3816774 0.87355953 11 11 -0.070647396
5.4705949 2.9542391 -0.76338965 4 4 -0.070645086
6.4623637 3.4898157 1.1632469 77 12 -0.070642784
1.989954 1.0741707 -0.19784354 27 5 -0.070640482
7.2117877 3.8912697 1.5928736 25 13 -0.07063818
2.0004673 1.0789429 -0.11911664 92 6 -0.07063587
6.2198129 3.3532302 1.631345 4 14 -0.070633568
2.0242181 1.091298 -0.040140536 71 7 -0.070631266
5.3910031 2.9051843 1.6409128 43 15 -0.070628963
3.5518856 1.9076989 -1.0803107 12 0 -0.070608228
6.1870141 3.3230124 0.1225857 30 8 -0.070605919
4.1670351 2.2371554 -1.0919124 8 1 -0.070603617
6.1771145 3.3149178 0.36739844 25 9 -0.070601314
5.1244402 2.7488537 -1.1303525 4 2 -0.070599012
6.3370419 3.3978937 0.62909013 35 10 -0.070596702
5.4699273 2.9329507 -0.98303431 23 3 -0.0705944
6.2759309 3.3637161 0.87429076 79 11 -0.070592098
5.4856114 2.9388924 -0.76412088 5 4 -0.070589796
6.3804708 3.4168799 1.1463519 72 12 -0.070587486
1.9849086 1.0625157 -0.19697197 82 5 -0.070585184
7.2350368 3.8728938 1.5951633 25 13 -0.070582882
2.0040345 1.0723026 -0.11911664 89 6 -0.070580579
6.1999683 3.3160412 1.6232469 37 14 -0.070578277
2.0191977 1.0795109 -0.039966013 100 7 -0.070575967
5.4232616 2.8981838 1.6476421 46 15 -0.070573665
3.5547819 1.8940936 -1.0792755 17 0 -0.07055293
6.1968098 3.3004565 0.1225508 57 8 -0.070550628
4.1730995 2.2216792 -1.0914625 9 1 -0.070548318
6.2004147 3.3009837 0.36813116 36 9 -0.070546016
5.131794 2.7309239 -1.1299709 6 2 -0.070543714
6.2163486 3.3066859 0.61601681 76 10 -0.070541412
5.4783883 2.9129102 -0.98272139 22 3 -0.070539102
6.363008 3.3818505 0.88477147 89 11 -0.0705368
5.4975882 2.9206612 -0.7643646 6 4 -0.070534497
6.4353776 3.4188733 1.1541736 75 12 -0.070532195
1.9743444 1.0484518 -0.19557749 93 5 -0.070529893
7.2415738 3.8439345 1.5936368 25 13 -0.070527583
2.0148218 1.0690466 -0.11953534 87 6 -0.070525281
2.017467 1.0699977 -0.039861299 100 7 -0.070520677
3.5647888 1.8834776 -1.0803107 13 0 -0.070497632
6.1776648 3.2640064 0.12195742 17 8 -0.07049533
4.1597648 2.1969085 -1.0860636 9 1 -0.070493028
6.1836386 3.2644026 0.36645639 100 9 -0.070490725
5.1517138 2.7184899 -1.1322607 6 2 -0.070488416
6.2560496 3.2998374 0.61880577 52 10 -0.070486113
5.4792814 2.8901203 -0.98115706 21 3 -0.070483811
6.2899017 3.3162901 0.87307209 82 11 -0.070481509
5.5230489 2.9107425 -0.76655823 6 4 -0.070479199
6.4070754 3.3752112 1.1469777 76 12 -0.070476897
1.9797547 1.0424823 -0.19575179 89 5 -0.070474595
7.2525454 3.8189831 1.5932552 24 13 -0.070472293
2.0006824 1.0530561 -0.11848862 89 6 -0.070469983
5.5618696 2.9262426 1.4509343 22 14 -0.070467681
2.0211895 1.0629493 -0.039861299 100 7 -0.070465378
5.4326019 2.8558106 1.6445363 35 15 -0.070463076
3.5710144 1.8716468 -1.0803107 14 0 -0.070442341
16.896702 8.8521614 0.33295703 25 8 -0.070440032
4.179492 2.1887038 -1.089213 11 1 -0.070437729
6.1661196 3.2290552 0.36478165 76 9 -0.070435427
5.1398277 2.6904666 -1.1276813 9 2 -0.070433125
6.3005009 3.2966216 0.6221177 80 10 -0.070430815
5.5120912 2.8828793 -0.98522437 24 3 -0.070428513
6.2961612 3.2915564 0.87234086 78 11 -0.070426211
5.5331764 2.8914442 -0.76655823 9 4 -0.070423909
6.3639612 3.3255832 1.1372787 61 12 -0.070421599
1.9814347 1.0349895 -0.19557749 85 5 -0.070419297
7.2745342 3.7981851 1.5951633 25 13 -0.070416994
2.0078874 1.0479137 -0.11869796 92 6 -0.070414692
5.5720496 2.9068112 1.4509343 18 14 -0.070412382
2.024703 1.0562414 -0.039861299 100 7 -0.07041008
5.4660244 2.8502836 1.6517832 45 15 -0.070407778
3.5826681 1.8618435 -1.0818636 10 0 -0.070387043
17.012901 8.8412771 0.33466735 28 8 -0.070384741
4.1867275 2.1748309 -1.089213 9 1 -0.070382431
6.1720371 3.2047491 0.36446762 27 9 -0.070380129
5.1387329 2.6670811 -1.1253915 6 2 -0.070377827
6.2942834 3.2654352 0.62037456 87 10 -0.070375524
5.5356488 2.8718603 -0.98772728 20 3 -0.070373215
6.4515462 3.345593 0.89232743 74 11 -0.070370913
5.5427337 2.873081 -0.76655823 9 4 -0.07036861
6.4176245 3.3251603 1.1447875 63 12 -0.070366308
1.9921124 1.0317312 -0.19627473 85 5 -0.070363998
7.3027782 3.7821681 1.5985978 24 13 -0.070361696
2.0113511 1.04125 -0.11869796 92 6 -0.070359394
5.5435829 2.868613 1.4410365 45 14 -0.070357092
2.0212731 1.0454919 -0.039721675 100 7 -0.070354789
5.4810882 2.8338492 1.6533362 46 15 -0.07035248
3.5768034 1.8437557 -1.0782403 15 0 -0.070317507
17.134321 8.8285446 0.33644751 31 8 -0.070315205
4.1977582 2.161989 -1.0901128 11 1 -0.070312902
6.1760826 3.1795299 0.36404896 14 9 -0.070310593
5.1370754 2.6446352 -1.1231018 6 2 -0.07030829
6.2749591 3.2290475 0.61741126 97 10 -0.070305988
5.5544238 2.8570361 -0.98929167 22 3 -0.070303686
10.915561 5.6122484 1.5070363 14 11 -0.070301376
5.5615559 2.8582537 -0.76777691 9 4 -0.070299074
6.3184962 3.2458708 1.1250768 62 12 -0.070296772
1.986662 1.0205668 -0.19540317 81 5 -0.07029447
7.3246703 3.7611361 1.6005059 17 13 -0.07029216
2.0220809 1.0378711 -0.11911664 92 6 -0.070289858
5.5518293 2.8483539 1.4405866 50 14 -0.070287555
2.0249104 1.0384295 -0.039721675 100 7 -0.070285253
5.4737549 2.8058882 1.6481597 18 15 -0.070282944
3.5763369 1.8277415 -1.0761696 13 0 -0.070262209
17.26298 8.8187094 0.33836725 28 8 -0.070259906
4.2035437 2.1464376 -1.0896629 11 1 -0.070257604
6.1818075 3.1552262 0.36373493 78 9 -0.070255302
5.1445279 2.6257935 -1.1227202 4 2 -0.070252992
6.3003917 3.2143662 0.61880577 100 10 -0.07025069
5.5678806 2.8394289 -0.9899174 21 3 -0.070248388
10.935086 5.5741086 1.5070363 17 11 -0.070246086
5.6351748 2.8712649 -0.77655149 1 4 -0.070243776
6.3385868 3.228282 1.1266412 61 12 -0.070241474
1.9777839 1.0072978 -0.19418299 85 5 -0.070239171
7.3220067 3.7275302 1.5970714 4 13 -0.070236869
2.0221317 1.0289943 -0.1189073 89 6 -0.070234559
5.5704212 2.8333783 1.4428362 13 14 -0.070232257
2.0249579 1.0295428 -0.039651867 100 7 -0.070229955
5.4886827 2.7893879 1.6497126 39 15 -0.070227653
3.5861423 1.816992 -1.0772049 9 0 -0.070206918
17.377501 8.8008633 0.34000778 3 8 -0.070204608
4.2005792 2.1264694 -1.0869635 8 1 -0.070202306
6.1838746 3.1291182 0.36321157 53 9 -0.070200004
5.1554151 2.6087046 -1.1231018 6 2 -0.070197701
6.3080168 3.1905568 0.61845714 100 10 -0.070195392
5.588336 2.8253222 -0.99179459 21 3 -0.07019309
10.954478 5.5359015 1.5070363 33 11 -0.070190787
6.3886118 3.2257226 1.1335243 41 12 -0.070186175
1.9901809 1.0048773 -0.19505455 89 5 -0.070183873
6.2938814 3.1765094 1.3703903 1 13 -0.070181571
2.0185783 1.0183316 -0.11848862 94 6 -0.070179269
5.5628777 2.805141 1.4383371 3 14 -0.070176966
2.0285394 1.0224676 -0.039651867 100 7 -0.070174657
5.5087371 2.7754283 1.6528184 46 15 -0.070172355
3.5976405 1.8070667 -1.0787579 9 0 -0.07015162
4.1940436 2.1048 -1.0833644 11 1 -0.070147008
18.423601 9.2419548 1.0802143 45 9 -0.070144705
5.1627331 2.5898163 -1.1227202 4 2 -0.070142403
6.3030877 3.1604795 0.61688834 100 10 -0.070140101
5.6122932 2.8128774 -0.99429762 22 3 -0.070137791
10.970181 5.4958587 1.5065489 33 11 -0.070135489
2.0004013 1.0017263 -0.27469352 30 4 -0.070133187
6.3839355 3.1954432 1.1307085 31 12 -0.070130885
1.98655 0.99435639 -0.19435729 89 5 -0.070128582
6.3207307 3.1624308 1.3738248 10 13 -0.070126273
2.0114028 1.0059185 -0.11786059 94 6 -0.070123971
5.5778661 2.7883182 1.4396867 16 14 -0.070121668
2.0356731 1.0171694 -0.039721675 100 7 -0.070119366
4.8547335 2.4247141 1.4540454 9 15 -0.070117056
3.6039269 1.7944967 -1.0787579 10 0 -0.070096321
2.0372682 1.0139707 0.039721675 9 8 -0.070094019
4.2170668 2.0979598 -1.0874133 9 1 -0.070091717
18.54517 9.2220478 1.0854479 90 9 -0.070089407
5.1664681 2.5691555 -1.1215754 9 2 -0.070087105
6.3087296 3.1357963 0.61636543 100 10 -0.070084803
5.6291533 2.7967865 -0.99554908 23 3 -0.070082501
11.003524 5.4645929 1.5084988 19 11 -0.070080198
1.9985516 0.99208891 -0.27396232 100 4 -0.070077889
2.0257041 1.0051281 -0.19784354 93 5 -0.070073284
7.3835034 3.661993 1.6020325 21 13 -0.070070982
2.0220597 1.0024391 -0.11827926 89 6 -0.070068672
5.6242323 2.7870026 1.4491347 3 14 -0.07006637
2.02846 1.0047315 -0.039512251 100 7 -0.070064068
4.8458557 2.3991804 1.448869 50 15 -0.070061766
3.6067038 1.7801963 -1.0777225 10 0 -0.070041023
2.0461755 1.0095069 0.039826389 57 8 -0.070038721
4.22087 2.0815017 -1.0865136 9 1 -0.070036419
18.666817 9.2014122 1.0906814 29 9 -0.070034117
5.1683607 2.5476341 -1.1200489 6 2 -0.070031814
6.3160605 3.1119988 0.61601681 100 10 -0.070029505
5.5166063 2.7168984 -0.97396111 29 3 -0.070027202
11.045684 5.4375501 1.5116674 31 11 -0.0700249
1.9984397 0.98335516 -0.27347484 100 4 -0.070022598
6.2908711 3.0941281 1.1103719 18 12 -0.070020288
2.0148978 0.99101561 -0.19644904 93 5 -0.070017986
7.4138603 3.6448569 1.6058486 25 13 -0.070015684
2.0291312 0.99713796 -0.11848862 94 6 -0.070013382
6.3318276 3.1101563 1.6286457 42 14 -0.070011072
2.0283649 0.99588144 -0.039442439 100 7 -0.07000877
4.8646045 2.3873603 1.4519749 16 15 -0.070006467
3.6024847 1.7625009 -1.0746168 10 0 -0.069985732
2.0532799 1.0041146 0.039896201 93 8 -0.06998343
4.2316098 2.06847 -1.0874133 11 1 -0.069981121
6.323863 3.0898218 0.36886385 27 9 -0.069978818
5.1842785 2.5330238 -1.1215754 9 2 -0.069976516
6.3107729 3.0820615 0.61444795 100 10 -0.069974214
5.6148124 2.7409575 -0.98960453 58 3 -0.069971904
11.064598 5.3989573 1.5116674 33 11 -0.069969602
2.0072126 0.97898334 -0.27420604 91 4 -0.0699673
8.8869171 4.332521 1.5659091 4 12 -0.069964997
2.0111809 0.98048431 -0.19575179 95 5 -0.069962688
7.4194775 3.6155169 1.6043221 25 13 -0.069960386
2.0290084 0.98829907 -0.11827926 94 6 -0.069958083
6.3619184 3.09742 1.6335946 32 14 -0.069955781
2.0354249 0.99054569 -0.039512251 99 7 -0.069953471
5.5504265 2.6999335 1.6538538 46 15 -0.069951169
3.6155686 1.753286 -1.0766873 11 0 -0.069930434
2.0549729 0.99606955 0.039861299 100 8 -0.069928132
4.2282825 2.0485871 -1.0847139 8 1 -0.06992583
6.1979961 3.0015669 0.36090881 29 9 -0.06992352
5.2001572 2.5183334 -1.1231018 6 2 -0.069921218
6.316112 3.0574112 0.61392504 100 10 -0.069918916
5.8163886 2.8142595 -1.0233943 68 3 -0.069916613
11.086953 5.3620281 1.5121549 36 11 -0.069914304
2.0034688 0.96851546 -0.27323109 89 4 -0.069912001
8.9179935 4.3092103 1.5687251 18 12 -0.069909699
2.014591 0.97345841 -0.19575179 95 5 -0.069907397
7.4302864 3.5887403 1.6039405 23 13 -0.069905087
2.0252512 0.97773761 -0.11786059 94 6 -0.069902785
2.0424726 0.98517162 -0.039582059 100 7 -0.069898181
5.5685167 2.6847386 1.6564419 48 15 -0.069895878
3.6147006 1.7373096 -1.0746168 9 0 -0.069875136
2.0566349 0.98802376 0.039826389 94 8 -0.069872834
4.2318945 2.0321269 -1.0838141 9 1 -0.069870532
18.733341 8.9916 1.0890067 50 9 -0.069868229
5.2195354 2.5052643 -1.1253915 9 2 -0.06986592
6.3285432 3.0362055 0.61409938 100 10 -0.069863617
5.8172717 2.7896671 -1.0218301 59 3 -0.069861315
11.110971 5.325871 1.5128862 12 11 -0.069859013
2.0032573 0.95980018 -0.27274361 89 4 -0.069856703
6.28195 3.0084586 1.103176 27 12 -0.069854401
2.0143831 0.96469861 -0.19540317 98 5 -0.069852099
