# .PCD v0.7 - Point Cloud Data file format
VERSION 0.7
FIELDS x y z intensity ring time
SIZE 4 4 4 4 2 4
TYPE F F F F U F
COUNT 1 1 1 1 1 1
WIDTH 893
HEIGHT 1
VIEWPOINT 0 0 0 1 0 0 0
POINTS 893
DATA ascii
-0.57615924 -0.56638813 -0.099201649 84 4 -0.060361993
-0.94257975 -0.92627066 0.20930934 20 12 -0.06035969
-0.57127118 -0.5613867 -0.070073217 7 5 -0.060357384
-0.95236176 -0.93555677 0.25950024 14 13 -0.060355082
-0.57998914 -0.5695557 -0.04260147 37 6 -0.060352776
-0.94425452 -0.92694515 0.30548352 16 14 -0.060350474
-1.0218949 -1.0024616 0.38356987 10 15 -0.060345866
-0.61442339 -0.60126805 -0.23034896 70 0 -0.060325131
-0.81765115 -0.79986519 0.019965554 52 8 -0.060322825
-1.1578101 -1.1322289 -0.37386864 42 1 -0.060320523
-0.90119779 -0.88097912 0.066047981 12 9 -0.060318217
-1.1525933 -1.1267345 -0.31330839 47 2 -0.060315914
-0.91055393 -0.88981426 0.11138504 18 10 -0.060313608
-0.57934654 -0.56595308 -0.12827627 37 3 -0.060311306
-0.92457092 -0.90288168 0.1586739 16 11 -0.060309
-0.57955343 -0.56576008 -0.099445395 76 4 -0.060306698
-0.94015223 -0.91745615 0.20805787 14 12 -0.060304392
-0.57322735 -0.55938911 -0.070073217 7 5 -0.06030209
-0.96264821 -0.93908155 0.26140836 15 13 -0.060299784
-0.57053435 -0.55637252 -0.041764095 34 6 -0.060297482
-0.95027536 -0.92636406 0.30638334 16 14 -0.060295179
-1.017085 -0.99080044 0.38046399 10 15 -0.060290571
-0.61097676 -0.59373426 -0.2282784 67 0 -0.060269833
-0.81756979 -0.79421926 0.019895744 60 8 -0.06026753
-1.1575609 -1.124108 -0.37251896 39 1 -0.060265224
-0.90283448 -0.87643683 0.065943316 14 9 -0.060262922
-1.1579281 -1.1240718 -0.31369001 48 2 -0.060260616
-0.91222459 -0.88524276 0.11121072 18 10 -0.060258314
-0.575647 -0.55842572 -0.1270248 45 3 -0.060256008
-0.95336807 -0.92452389 0.1630612 15 11 -0.060253706
-0.58152479 -0.56373358 -0.099445395 76 4 -0.0602514
-0.95469761 -0.92516631 0.21056081 14 12 -0.060249098
-0.95746005 -0.92751926 0.25911862 18 13 -0.060244489
-0.58108163 -0.5627141 -0.042392131 32 6 -0.060242187
-0.96610457 -0.93524015 0.31043246 16 14 -0.060239881
-1.0205374 -0.98724407 0.38046399 11 15 -0.060235273
-0.62694699 -0.60501277 -0.23345479 58 0 -0.060214538
-0.82033694 -0.79136068 0.019895744 56 8 -0.060212232
-1.1530613 -1.111944 -0.36981952 41 1 -0.06020993
-0.90445054 -0.87189353 0.065838635 18 9 -0.060207624
-1.1561912 -1.1145725 -0.31216353 48 2 -0.060205322
-0.92391688 -0.89034855 0.1122566 15 10 -0.06020302
-0.57332492 -0.55230153 -0.12608619 52 3 -0.060200714
-0.95658976 -0.92119014 0.1630612 15 11 -0.060198411
-0.58634937 -0.56445366 -0.099932872 69 4 -0.060196105
-0.95934439 -0.92319816 0.21087368 13 12 -0.060193803
-0.95503235 -0.91872716 0.25759214 24 13 -0.060189195
-0.57728392 -0.55514473 -0.041973442 33 6 -0.060186889
-0.9791972 -0.94131595 0.31358176 16 14 -0.060184587
-1.030943 -0.99036729 0.3830522 9 15 -0.060179979
-0.62905496 -0.60282075 -0.23345479 58 0 -0.06015924
-0.82887036 -0.79402554 0.020035362 49 8 -0.060156938
-1.1442685 -1.0957818 -0.3657704 38 1 -0.060154635
-0.90589422 -0.86750829 0.065733969 13 9 -0.06015233
-1.1614928 -1.1118877 -0.31254515 45 2 -0.060150027
-0.93565595 -0.89538306 0.11330246 18 10 -0.060147721
-0.56953973 -0.54483473 -0.12483472 57 3 -0.060145419
-0.96697289 -0.92470521 0.16427989 14 11 -0.060143113
-0.58104455 -0.5556463 -0.09871418 74 4 -0.060140811
-0.96525645 -0.92274177 0.21149944 12 12 -0.060138505
-0.96107274 -0.91810012 0.25835541 39 13 -0.060133897
-0.57488477 -0.54898822 -0.041659426 23 6 -0.060131595
-0.98090398 -0.93671769 0.31313187 27 14 -0.060129289
-1.0356191 -0.98827678 0.38356987 10 15 -0.06012468
-0.6366474 -0.60605931 -0.23552534 48 0 -0.060103945
-0.82715315 -0.78713697 0.01993065 47 8 -0.060101643
-1.1507199 -1.0946676 -0.36667022 44 1 -0.060099337
-0.90731895 -0.86312288 0.065629296 9 9 -0.060097035
-1.1523699 -1.0958534 -0.30911061 48 2 -0.060094729
-0.94150805 -0.89502072 0.11365108 19 10 -0.060092427
-0.57707101 -0.54838622 -0.12608619 59 3 -0.060090121
-0.9657163 -0.91739178 0.16354866 13 11 -0.060087819
-0.57568783 -0.54688036 -0.097495481 80 4 -0.060085513
-0.97117591 -0.92225623 0.21212517 11 12 -0.06008321
-0.96980846 -0.92031366 0.25988188 50 13 -0.060078602
-0.58539611 -0.55532622 -0.042287458 27 6 -0.060076296
-0.98966008 -0.93882447 0.31493148 45 14 -0.060073994
-1.0487049 -0.99414062 0.38719329 9 15 -0.060069386
-0.63724995 -0.60261762 -0.2350077 35 0 -0.060048651
-0.84283739 -0.79675311 0.020244792 44 8 -0.060046345
-1.1500945 -1.0868301 -0.3653205 41 1 -0.060044043
-0.9045186 -0.85446453 0.065210611 12 9 -0.060041737
-1.1417253 -1.0785447 -0.30529439 48 2 -0.060039435
-0.93867654 -0.88642186 0.11295383 15 10 -0.060037129
-0.57888633 -0.54646957 -0.12608619 59 3 -0.060034826
-0.97452825 -0.91963404 0.16452362 12 11 -0.06003252
-0.58048117 -0.54759198 -0.097982958 78 4 -0.060030218
-0.97295219 -0.91750526 0.2118123 9 12 -0.060027912
-0.97428358 -0.91843927 0.26026347 46 13 -0.060023304
-0.59014153 -0.55612141 -0.0424968 16 6 -0.060021002
-0.99576813 -0.93803656 0.31583127 56 14 -0.060018696
-1.042322 -0.98120499 0.38356987 7 15 -0.060014091
-0.62808359 -0.58980972 -0.2308666 23 0 -0.059993353
-0.84998727 -0.797912 0.020349504 23 8 -0.059991051
-1.151039 -1.0801423 -0.36442071 41 1 -0.059988745
-0.89584273 -0.84037006 0.064373232 27 9 -0.059986442
-1.1454835 -1.0745525 -0.30529439 48 2 -0.059984136
-0.93449843 -0.87632555 0.11208228 13 10 -0.059981834
-0.57214326 -0.53633976 -0.12420898 59 3 -0.059979528
-0.98207778 -0.92029905 0.16525485 10 11 -0.059977226
-0.58094043 -0.54420531 -0.09773922 85 4 -0.05997492
-0.97470707 -0.91275328 0.21149944 9 12 -0.059972618
-0.97891665 -0.91637462 0.26064509 27 13 -0.05996801
-0.58770424 -0.54996401 -0.042182785 11 6 -0.059965707
-1.0146911 -0.94919884 0.32078022 60 14 -0.059963401
-1.0542082 -0.98547596 0.38667569 7 15 -0.059958793
-0.6343773 -0.59156632 -0.23241952 22 0 -0.059938058
-0.86300629 -0.8044852 0.020593841 9 8 -0.059935752
-1.1448228 -1.0668176 -0.36127138 42 1 -0.05993345
-0.88839638 -0.8278634 0.063640527 76 9 -0.059931144
-1.1492274 -1.0705473 -0.30529439 49 2 -0.059928842
-0.95067424 -0.88527852 0.11365108 7 10 -0.059926536
-0.56533682 -0.52626354 -0.12233177 63 3 -0.059924234
-0.98528421 -0.91686535 0.16525485 6 11 -0.059921931
-0.58719689 -0.54623026 -0.098470435 78 4 -0.059919626
-0.9719432 -0.90413421 0.21024795 2 12 -0.059917323
-0.97491974 -0.90626854 0.258737 9 13 -0.059912715
-0.56913733 -0.52887511 -0.040717378 12 6 -0.059910409
-1.0251369 -0.95228279 0.32302973 28 14 -0.059908107
-0.72375953 -0.67232358 -0.017242977 3 7 -0.059905801
-1.0489767 -0.9740873 0.38356987 6 15 -0.059903499
-0.64069062 -0.59328622 -0.23397243 14 0 -0.05988276
-0.8553986 -0.79210806 0.020349504 20 8 -0.059880458
-1.1383436 -1.0537491 -0.35812208 39 1 -0.059878156
-0.89274663 -0.8261137 0.063745201 51 9 -0.05987585
-1.1529573 -1.0665293 -0.30529439 50 2 -0.059873547
-0.95668435 -0.88465995 0.11399971 1 10 -0.059871241
-0.57288009 -0.52975059 -0.12358324 63 3 -0.059868939
-0.58025742 -0.53619665 -0.097008012 76 4 -0.059864331
-0.98224688 -0.90702635 0.25988188 1 13 -0.059857417
-0.57088804 -0.52698481 -0.040717378 12 6 -0.059855115
-1.0239928 -0.94491333 0.32168001 5 14 -0.059852809
-1.062312 -0.97958702 0.38719329 1 15 -0.059848201
-0.64691991 -0.59508187 -0.23552534 20 0 -0.059827466
-0.85963041 -0.7904709 0.020384412 57 8 -0.059825163
-1.1434498 -1.0510876 -0.35857198 42 1 -0.059822857
-0.89842212 -0.82585198 0.06395454 30 9 -0.059820555
-1.144923 -1.0520731 -0.30224147 49 2 -0.059818249
-0.57181591 -0.52507532 -0.1229575 59 3 -0.059813641
-0.57481229 -0.52745736 -0.095789306 94 4 -0.059809033
-0.58744693 -0.53848481 -0.041764095 5 6 -0.059799816
-0.63758236 -0.58239686 -0.23138423 15 0 -0.059772171
-0.86224705 -0.7876159 0.020384412 72 8 -0.059769865
-1.1440507 -1.044662 -0.35767215 42 1 -0.059767563
-0.90719986 -0.82809681 0.064373232 13 9 -0.059765257
-1.1340858 -1.0348371 -0.29842529 50 2 -0.059762955
-0.57939154 -0.52850127 -0.12420898 59 3 -0.059758347
-0.57655829 -0.52554828 -0.095789306 81 4 -0.059753738
-0.55231023 -0.5029164 -0.039147299 20 6 -0.059744522
-0.67739898 -0.61638564 -0.015986405 5 7 -0.059739914
-0.64543736 -0.58524662 -0.23345479 14 0 -0.059728146
-0.8563751 -0.77624136 0.020174982 35 8 -0.059725843
-1.140833 -1.0337191 -0.35542265 41 1 -0.059723537
-0.94737989 -0.85812801 0.066990033 5 9 -0.059721235
-1.1364162 -1.0293553 -0.29804367 47 2 -0.059718929
-0.56970042 -0.51566774 -0.12170603 67 3 -0.059714321
-0.58593297 -0.52998871 -0.097008012 76 4 -0.059709713
-0.57350218 -0.51819921 -0.040508036 18 6 -0.059700496
-0.65898204 -0.59501821 -0.015497738 5 7 -0.059695888
-0.63896269 -0.57512271 -0.23034896 15 0 -0.059672851
-0.86948365 -0.78261191 0.020419316 9 8 -0.059670545
-1.13864 -1.0245163 -0.35362303 41 1 -0.059668243
-1.0127375 -0.91091335 0.071386255 9 9 -0.059665937
-1.141641 -1.0264962 -0.29842529 49 2 -0.059663635
-0.5686478 -0.51093572 -0.12108029 61 3 -0.059659027
-0.5877794 -0.52794021 -0.097008012 76 4 -0.059654418
-0.49827421 -0.44738981 0.10606258 4 12 -0.059652112
-0.55012184 -0.49342278 -0.03872861 21 6 -0.059645202
-0.63425535 -0.56868547 -0.014869451 6 7 -0.059640594
-0.64528745 -0.57675099 -0.23190187 15 0 -0.059617553
-0.87234622 -0.77941984 0.020419316 9 8 -0.059615251
-1.13076 -1.0099514 -0.35002384 39 1 -0.059612945
-1.0130897 -0.90453488 0.071176901 10 9 -0.059610642
-1.1452173 -1.0225048 -0.29842529 48 2 -0.059608337
-0.48755127 -0.43515623 0.057174165 8 10 -0.059606034
-0.57042789 -0.50894761 -0.12108029 61 3 -0.059603728
-0.47110248 -0.42017958 0.077508911 10 11 -0.059601426
-0.57637531 -0.51389283 -0.09481436 74 4 -0.05959912
-0.44239867 -0.39430144 0.093860693 10 12 -0.059596818
-0.5503493 -0.49017122 -0.03862394 21 6 -0.059589904
-0.6273731 -0.55837995 -0.014660021 14 7 -0.059585299
-0.66607994 -0.5911656 -0.23863117 12 0 -0.059562258
-0.86907828 -0.77106154 0.020279696 9 8 -0.059559952
-1.1342784 -1.005998 -0.35002384 39 1 -0.05955765
-1.0042852 -0.8903932 0.070339531 10 9 -0.059555344
-1.1355584 -1.0067792 -0.29499072 47 2 -0.059553042
-0.57220095 -0.5069533 -0.12108029 63 3 -0.059548434
-0.4636499 -0.4106358 0.076046474 10 11 -0.059546128
-0.5722205 -0.50661421 -0.0938394 85 4 -0.059543826
-0.43637615 -0.38620889 0.092296347 16 12 -0.059541523
-0.57599443 -0.50941777 -0.040298689 19 6 -0.059534609
-0.62032801 -0.54824126 -0.014450593 14 7 -0.059530001
-0.66379148 -0.58500499 -0.23707826 13 0 -0.05950696
-0.88676906 -0.78124207 0.020628745 7 8 -0.059504658
-1.1363204 -1.0007447 -0.34957394 38 1 -0.059502352
-0.98025262 -0.86329764 0.068455435 9 9 -0.05950005
-1.1361185 -1.0002145 -0.29422748 47 2 -0.059497744
-0.5739671 -0.50495291 -0.12108029 61 3 -0.059493139
-0.46806172 -0.41163671 0.076533951 10 11 -0.059490833
-0.5799489 -0.5098564 -0.09481436 78 4 -0.059488531
-0.43468735 -0.38215113 0.09167061 16 12 -0.059486225
-0.48524955 -0.42630219 0.12555233 8 13 -0.059481617
-0.55225724 -0.48499921 -0.038519271 21 6 -0.059479315
-0.6161316 -0.54090399 -0.014310974 30 7 -0.059474707
-0.63966155 -0.55978405 -0.22776078 17 0 -0.059451666
-0.89236468 -0.780931 0.020698555 7 8 -0.05944936
-1.1352327 -0.9931218 -0.34822425 41 1 -0.059447058
-0.93966001 -0.82174146 0.06541995 12 9 -0.059444755
-1.139603 -0.99624258 -0.29422748 47 2 -0.059442449
-0.56373882 -0.49264795 -0.11857734 67 3 -0.059437841
-0.45148444 -0.39441037 0.073609091 11 11 -0.059435539
-0.58014125 -0.50662464 -0.094570614 69 4 -0.059433233
-0.4389948 -0.3832297 0.092296347 16 12 -0.059430931
-0.46299317 -0.40403703 0.11944644 9 13 -0.059426323
-0.56289291 -0.49104282 -0.039147299 55 6 -0.059424017
-0.6300748 -0.54926217 -0.014590211 28 7 -0.059419408
-0.6356824 -0.55259019 -0.22569022 17 0 -0.059396371
-0.87546253 -0.76076001 0.020244792 7 8 -0.059394065
-1.1298656 -0.98148483 -0.34552482 39 1 -0.059391763
-0.91688621 -0.79619443 0.063640527 10 9 -0.059389457
-1.1340064 -0.98473459 -0.29193777 47 2 -0.059387155
-0.56247127 -0.48808768 -0.11795159 67 3 -0.059382547
-0.47085276 -0.40844116 0.076533951 10 11 -0.059380241
-0.58640534 -0.50849813 -0.095301837 72 4 -0.059377939
-0.43585205 -0.37781325 0.091357745 11 12 -0.059375633
-0.43472651 -0.37670472 0.11181407 10 13 -0.059371024
-0.55252635 -0.47861359 -0.038309924 58 6 -0.059368722
-0.43311632 -0.37504482 0.13227122 15 14 -0.059366416
-0.63652408 -0.55098569 -0.014694927 27 7 -0.059364114
-0.66393054 -0.5730896 -0.2350077 14 0 -0.059341073
-0.86448681 -0.745942 0.01993065 7 8 -0.059338771
-1.1273823 -0.97244364 -0.34372523 41 1 -0.059336465
-0.88638252 -0.76429558 0.061337747 1 9 -0.059334163
-1.1404102 -0.98333442 -0.29270101 47 2 -0.059331857
-0.57015747 -0.4912791 -0.11920308 61 3 -0.059327248
-0.44520244 -0.38347572 0.072146654 11 11 -0.059324946
-0.57614261 -0.49608588 -0.093351923 76 4 -0.05932264
-0.43866533 -0.3775782 0.09167061 5 12 -0.059320338
-0.45984975 -0.39567301 0.11791997 9 13 -0.05931573
-0.54662287 -0.47016984 -0.037786566 45 6 -0.059313424
-0.62631148 -0.53833282 -0.014415688 36 7 -0.059308819
-0.67912817 -0.58208334 -0.23966645 12 0 -0.059285779
-0.80634403 -0.69087613 0.018534455 7 8 -0.059283473
-1.1307697 -0.96850264 -0.34372523 41 1 -0.05928117
-0.8495993 -0.72742361 0.058616273 1 9 -0.059278864
-1.1333966 -0.97040975 -0.2900297 48 2 -0.059276562
-0.57487077 -0.49185443 -0.11982881 61 3 -0.059271954
-0.50688142 -0.43353009 0.081896208 9 11 -0.059269648
-0.57183552 -0.48891169 -0.09237697 82 4 -0.059267346
-0.42196089 -0.3606436 0.08791618 5 12 -0.05926504
-0.43734571 -0.37366071 0.11181407 10 13 -0.059260435
-0.55281693 -0.47215024 -0.038100582 22 6 -0.059258129
-0.62818694 -0.53614318 -0.014415688 36 7 -0.059253521
-0.65908819 -0.56092811 -0.23190187 15 0 -0.05923048
-0.73107398 -0.6219728 0.016754311 15 8 -0.059228178
-1.1311746 -0.96202451 -0.34282541 41 1 -0.059225872
-0.89169669 -0.75808889 0.061337747 1 9 -0.05922357
-1.1278025 -0.9588176 -0.28773996 49 2 -0.059221264
-0.57658416 -0.48984471 -0.11982881 67 3 -0.059216656
-0.50839174 -0.43175799 0.081896208 9 11 -0.059214354
-0.57505184 -0.48819748 -0.092620708 73 4 -0.059212051
-0.4443028 -0.37706301 0.092296347 5 12 -0.059209745
-0.48056602 -0.4076938 0.12249938 9 13 -0.059205137
-0.56817091 -0.48184389 -0.039042629 13 6 -0.059202835
-0.63158011 -0.53523993 -0.014450593 43 7 -0.059198227
-0.67137098 -0.56735253 -0.23552534 13 0 -0.059175186
-0.69505101 -0.58715582 0.015881689 28 8 -0.05917288
-1.1345258 -0.95807004 -0.34282541 41 1 -0.059170578
-0.89128518 -0.75239491 0.061128404 1 9 -0.059168272
-1.1296424 -0.95360857 -0.28735834 51 2 -0.059165969
-0.5662114 -0.47763944 -0.11732586 66 3 -0.059161361
-0.5813058 -0.49002552 -0.093351923 76 4 -0.059156753
-0.46072185 -0.38823888 0.095425032 5 12 -0.059154451
-0.58970994 -0.49658203 -0.040403362 18 6 -0.059147537
-0.62885445 -0.5291695 -0.014345878 45 7 -0.059142929
-0.67038757 -0.56252199 -0.23449005 7 0 -0.059119891
-0.67871141 -0.5693047 0.015462833 45 8 -0.059117585
-1.1303968 -0.94784343 -0.3405759 44 1 -0.059115283
-0.88472211 -0.74158102 0.060500368 1 9 -0.059112977
-1.1284505 -0.945876 -0.28621352 50 2 -0.059110675
-0.56181782 -0.47058636 -0.11607439 64 3 -0.059106067
-0.57692391 -0.4828968 -0.09237697 58 4 -0.059101459
-0.51358438 -0.42972773 0.10606258 4 12 -0.059099153
-0.58224642 -0.48683372 -0.039775331 26 6 -0.059092242
-0.62762856 -0.52440691 -0.014276069 45 7 -0.059087634
-0.68570495 -0.57130778 -0.2391488 12 0 -0.059064593
-0.6837675 -0.56949174 0.015532642 43 8 -0.059062291
-1.1217176 -0.93391675 -0.33697668 47 1 -0.059059985
-0.89037567 -0.74104357 0.060709719 1 9 -0.059057683
-1.1347634 -0.94444299 -0.28697675 49 2 -0.059055377
-0.56649458 -0.47114864 -0.11670013 66 3 -0.059050769
-0.56791943 -0.47199821 -0.090670794 76 4 -0.05904616
-0.56703877 -0.47076452 -0.03862394 14 6 -0.059036944
-0.63715035 -0.52859694 -0.014450593 36 7 -0.059032336
-0.68174082 -0.56398529 -0.23707826 13 0 -0.059009299
-0.69191551 -0.57219887 0.015672261 42 8 -0.059006993
-1.1279747 -0.93247885 -0.3378765 44 1 -0.05900469
-0.86216515 -0.71248531 0.058616273 1 9 -0.059002385
-1.1289728 -0.93297267 -0.28468704 49 2 -0.059000082
-0.5681358 -0.46916831 -0.11670013 64 3 -0.058995474
-0.56650132 -0.46748605 -0.090183318 68 4 -0.058990866
-0.55326718 -0.45607829 -0.037577223 22 6 -0.05898165
-0.64979595 -0.53526944 -0.014694927 41 7 -0.058977041
-0.67773414 -0.55669731 -0.2350077 14 0 -0.058954
-0.695454 -0.57104903 0.015707165 40 8 -0.058951698
-1.1297164 -0.92729962 -0.3374266 50 1 -0.058949392
-0.85834801 -0.70455366 0.058197591 1 9 -0.05894709
-1.1185631 -0.91781801 -0.28125247 36 2 -0.058944784
-0.57588005 -0.47219238 -0.11795159 60 3 -0.058940176
-0.57726014 -0.47315529 -0.091645755 70 4 -0.058935568
-0.58113033 -0.47564968 -0.039356641 20 6 -0.058926355
-0.6190663 -0.5065195 -0.013961925 40 7 -0.058921747
-0.68556398 -0.55933177 -0.23707826 13 0 -0.058898706
-0.683397 -0.55736488 0.015393022 46 8 -0.0588964
-1.1252334 -0.91739124 -0.33517709 51 1 -0.058894098
-0.88699543 -0.7231583 0.05997701 1 9 -0.058891792
-1.1276879 -0.91906482 -0.28277895 32 2 -0.05888949
-0.5651893 -0.46030065 -0.11544865 64 3 -0.058884881
-0.57112873 -0.46497205 -0.090427063 63 4 -0.058880273
-0.58890343 -0.4787595 -0.039775331 19 6 -0.058871057
-0.63626117 -0.51707542 -0.014310974 30 7 -0.058866449
-0.66340053 -0.5375948 -0.22879605 16 0 -0.058843408
-0.68679529 -0.55635446 0.015427927 52 8 -0.058841106
-1.1131247 -0.90139091 -0.33067805 49 1 -0.058838803
-0.89882869 -0.72759759 0.060605045 1 9 -0.058836497
-1.1246257 -0.91037917 -0.28125247 28 2 -0.058834195
-0.55749792 -0.4509697 -0.11357144 66 3 -0.058829587
-0.57892358 -0.46796712 -0.091402017 66 4 -0.058824979
-0.57961041 -0.46802077 -0.039042629 13 6 -0.058815762
-0.64117461 -0.51736295 -0.014380784 29 7 -0.058811154
-0.66837722 -0.53758121 -0.22983132 16 0 -0.058788113
-0.6825003 -0.54894054 0.015288308 72 8 -0.058785811
-1.113227 -0.89505768 -0.32977825 51 1 -0.058783505
-0.88579535 -0.71194339 0.059558321 1 9 -0.058781203
-1.1248941 -0.90379149 -0.28048924 18 2 -0.058778897
-0.5606873 -0.45016018 -0.11388431 62 3 -0.058774289
-0.56662035 -0.45476079 -0.089208372 69 4 -0.058769681
-0.5688538 -0.455901 -0.038205251 14 6 -0.058760464
-0.64921921 -0.52012259 -0.014520402 28 7 -0.058755856
-0.67628789 -0.5400669 -0.23190187 15 0 -0.058732819
-0.68450767 -0.54643536 0.015288308 88 8 -0.058730513
-1.1165003 -0.89097118 -0.32977825 51 1 -0.058728211
-0.88839883 -0.70869195 0.059558321 1 9 -0.058725905
-1.1050206 -0.88149518 -0.27476496 12 2 -0.058723602
-0.56997859 -0.4543567 -0.11544865 64 3 -0.058718994
-0.5636251 -0.44897056 -0.08847715 66 4 -0.058714386
-0.57044172 -0.45391256 -0.038205251 14 6 -0.05870517
-0.65268636 -0.51898438 -0.014555307 21 7 -0.058700562
-0.6690864 -0.53050148 -0.22879605 16 0 -0.058677521
-0.69267941 -0.54901123 0.015427927 97 8 -0.058675218
-1.1257131 -0.89190942 -0.33157787 51 1 -0.058672912
-0.87521052 -0.6931861 0.058511604 1 9 -0.05867061
-1.0988568 -0.87031895 -0.27247527 9 2 -0.058668304
-0.57001221 -0.45113859 -0.11513578 62 3 -0.058663696
-0.57764494 -0.45685151 -0.090427063 63 4 -0.058659088
-0.57829159 -0.45687094 -0.03862394 14 6 -0.058649875
-0.68274552 -0.53900659 -0.015183594 18 7 -0.058645267
-0.67245191 -0.52935779 -0.22931369 16 0 -0.058622226
-0.69144881 -0.54411656 0.015358118 100 8 -0.05861992
-1.1211615 -0.88195026 -0.32932836 52 1 -0.058617618
-0.89646477 -0.70494175 0.059767671 1 9 -0.058615312
-0.58643907 -0.46115071 -0.14501485 42 2 -0.05861301
-0.55760449 -0.43816152 -0.11231996 72 3 -0.058608402
-0.57299095 -0.44992867 -0.089452103 64 4 -0.058603793
-0.59245467 -0.46471092 -0.039461315 20 6 -0.058594577
-0.69878763 -0.5477224 -0.015497738 23 7 -0.058589969
-0.66516298 -0.51986939 -0.22620785 17 0 -0.058566928
-0.67758608 -0.52938825 0.015009069 100 8 -0.058564626
-1.1073389 -0.86483681 -0.32437941 49 1 -0.058562323
-0.88002855 -0.6870591 0.058511604 1 9 -0.058560017
-0.56483287 -0.44097838 -0.13929057 7 2 -0.058557715
-0.55757314 -0.43499735 -0.11200709 65 3 -0.058553107
-0.57768905 -0.45036677 -0.089939587 63 4 -0.058548499
-0.57516378 -0.44791406 -0.038205251 14 6 -0.058539283
-0.74646127 -0.58089513 -0.016509976 24 7 -0.058534674
-0.67918378 -0.52701879 -0.23034896 15 0 -0.058511633
-0.67942989 -0.52701974 0.015009069 100 8 -0.058509331
-1.0964907 -0.85021925 -0.32033029 52 1 -0.058507025
-0.88242149 -0.68398297 0.058511604 1 9 -0.058504723
-0.58498907 -0.45343703 -0.14386998 7 2 -0.058502417
-0.55596465 -0.43062928 -0.11138135 57 3 -0.058497809
-0.56983882 -0.44105729 -0.08847715 66 4 -0.058493201
-0.58936429 -0.45567685 -0.039042629 13 6 -0.058483984
-0.75164926 -0.58073109 -0.016579786 24 7 -0.058479376
-0.67948896 -0.52346581 -0.22983132 16 0 -0.058456339
-0.68443394 -0.52708524 0.015078879 93 8 -0.058454033
-1.088643 -0.83806515 -0.31718099 48 1 -0.058451731
-0.88480371 -0.68089861 0.058511604 1 9 -0.058449425
-0.56167424 -0.43223509 -0.13776411 16 2 -0.058447123
-0.56372821 -0.43350247 -0.11263283 58 3 -0.058442514
-0.56193066 -0.43180838 -0.08701472 67 4 -0.058437906
-0.60362577 -0.46334597 -0.039880004 6 6 -0.05842869
-0.75049841 -0.57566965 -0.016509976 24 7 -0.058424082
-0.67977744 -0.51991719 -0.22931369 24 0 -0.05838275
-0.69738978 -0.53319484 0.015323212 77 8 -0.058380447
-1.0652403 -0.814143 -0.30953264 47 1 -0.058378141
-0.8871749 -0.67780608 0.058511604 1 9 -0.058375839
-0.56317949 -0.43027198 -0.13776411 16 2 -0.058373533
-0.57151842 -0.43632686 -0.11388431 58 3 -0.058368925
-0.56974763 -0.43466023 -0.08798968 66 4 -0.058364317
-0.58617693 -0.44670883 -0.03862394 14 6 -0.0583551
-0.78273064 -0.5960654 -0.017173167 21 7 -0.058350492
-0.66620243 -0.50585854 -0.22413731 27 0 -0.058327455
-0.69765407 -0.52954811 0.015288308 56 8 -0.058325149
-1.0603135 -0.8045302 -0.30728313 39 1 -0.058322847
-0.86407483 -0.65539336 0.056836855 1 9 -0.058320541
-0.55842119 -0.4235577 -0.13623764 16 2 -0.058318239
-0.56201798 -0.4259769 -0.11169422 70 3 -0.058313631
-0.57284379 -0.43386731 -0.088233411 60 4 -0.058309022
-0.6323303 -0.47840109 -0.041554753 5 6 -0.058299806
-0.79916292 -0.60418296 -0.017487312 21 7 -0.058295198
-0.69264638 -0.52213615 -0.23241952 22 0 -0.058272157
-0.68831903 -0.51868564 0.015043975 56 8 -0.058269855
-1.0117496 -0.76213127 -0.29243636 43 1 -0.058267549
-0.89188546 -0.67159569 0.058511604 1 9 -0.058265246
-0.56146473 -0.42278668 -0.13661924 33 2 -0.05826294
-0.5492956 -0.41332304 -0.1088784 57 3 -0.058258332
-0.57276809 -0.43067223 -0.08798968 66 4 -0.058253724
-0.58928114 -0.44260579 -0.03862394 7 6 -0.058244508
-0.80926377 -0.60739148 -0.017661836 23 7 -0.058239903
-0.70065159 -0.5243451 -0.23449005 14 0 -0.058216862
-0.69813144 -0.52226907 0.015218498 57 8 -0.058214556
-0.91920584 -0.68740374 -0.26499236 54 1 -0.058212254
-0.89422417 -0.66847855 0.058511604 1 9 -0.058209948
-0.5597921 -0.41847336 -0.135856 33 2 -0.058207646
-0.55706525 -0.41613188 -0.11012988 59 3 -0.058203038
-0.5663141 -0.42273295 -0.086770974 63 4 -0.05819843
-0.59082258 -0.44054615 -0.03862394 7 6 -0.058189213
-0.79053319 -0.58903086 -0.017208073 25 7 -0.058184605
-0.71178198 -0.52880871 -0.23759589 13 0 -0.058161564
-0.70958257 -0.52698255 0.015427927 45 8 -0.058159262
-0.87152988 -0.64701927 -0.25059548 32 1 -0.058156956
-0.88051373 -0.65345049 0.057464886 1 9 -0.058154654
-0.53602475 -0.3977969 -0.12975012 45 2 -0.058152348
-0.55851448 -0.41418484 -0.11012988 59 3 -0.058147743
-0.56459647 -0.41838974 -0.086283498 57 4 -0.058143135
-0.60519916 -0.44798744 -0.039461315 6 6 -0.058133919
-0.77972305 -0.57675427 -0.016928835 28 7 -0.058129311
-0.70118564 -0.51714754 -0.23345479 14 0 -0.05810627
-0.71624631 -0.52806258 0.015532642 43 8 -0.058103964
-0.82828987 -0.61044484 -0.23754831 34 1 -0.058101662
-0.87635732 -0.64563429 0.057046197 1 9 -0.058099359
-0.53741002 -0.39592341 -0.12975012 54 2 -0.058097053
-0.55677527 -0.40989047 -0.10950414 59 3 -0.058092445
-0.56925154 -0.41876903 -0.086770974 57 4 -0.058087837
-0.59388387 -0.43641055 -0.03862394 7 6 -0.058078621
-0.79140246 -0.58113039 -0.017138263 25 7 -0.058074012
-0.70610392 -0.5169794 -0.23449005 14 0 -0.058050975
-0.70356226 -0.51492971 0.015218498 49 8 -0.058048669
-0.79896051 -0.58453649 -0.22855027 27 1 -0.058046367
-0.88494122 -0.6474418 0.057464886 1 9 -0.058044061
-0.5467121 -0.39983997 -0.13165821 53 2 -0.058041759
-0.555013 -0.40561336 -0.1088784 61 3 -0.058037151
-0.56429738 -0.4120965 -0.085796028 52 4 -0.058032542
-0.59540355 -0.43433496 -0.03862394 7 6 -0.058023326
-0.80625105 -0.58792847 -0.017417502 19 7 -0.058018718
-0.70946693 -0.51564729 -0.2350077 14 0 -0.057995677
-0.70526588 -0.51259392 0.015218498 49 8 -0.057993375
-0.79774147 -0.579593 -0.22765048 38 1 -0.057991069
-0.87103546 -0.63261229 0.056418166 1 9 -0.057988767
-0.55445945 -0.40254268 -0.13318469 51 2 -0.057986461
-0.54996008 -0.39912954 -0.10762692 61 3 -0.057981852
-0.57690984 -0.4183808 -0.087502196 45 4 -0.057977244
-0.58390099 -0.42298451 -0.037786566 7 6 -0.057968028
-0.79695946 -0.57690275 -0.017173167 18 7 -0.057963423
-0.70020777 -0.50537753 -0.23138423 15 0 -0.057940383
-0.71678108 -0.51714891 0.015427927 45 8 -0.057938077
-0.77763188 -0.56084591 -0.22135183 49 1 -0.057935774
-0.86675799 -0.62489581 0.05599948 1 9 -0.057933468
-0.55260611 -0.39840561 -0.13242145 52 2 -0.057931166
-0.54974711 -0.39605284 -0.10731406 58 3 -0.057926558
-0.56225622 -0.40476653 -0.085064806 47 4 -0.05792195
-0.6145615 -0.44193259 -0.039670657 6 6 -0.057912733
-0.81033599 -0.58228546 -0.017417502 8 7 -0.057908125
-0.71776134 -0.51405627 -0.23656061 13 0 -0.057885084
-0.72020751 -0.51580822 0.015462833 45 8 -0.057882782
-0.78750741 -0.56380004 -0.22360134 37 1 -0.057880476
-0.88192761 -0.63116515 0.056836855 1 9 -0.057878174
-0.54448235 -0.38952377 -0.13013174 63 2 -0.057875868
-0.55280209 -0.39518392 -0.10762692 59 3 -0.05787126
-0.56689578 -0.40510985 -0.085552283 47 4 -0.057866655
-0.59991908 -0.42807627 -0.03862394 7 6 -0.057857439
-0.79119986 -0.5643574 -0.016963739 7 7 -0.057852831
-0.71010435 -0.50483149 -0.23345479 14 0 -0.05782979
-0.72046322 -0.5120067 0.015427927 45 8 -0.057827484
-0.79433453 -0.56429571 -0.22495104 30 1 -0.057825182
-0.87772119 -0.62330312 0.056418166 1 9 -0.057822876
-0.54583871 -0.38762081 -0.13013174 63 2 -0.057820573
-0.55901104 -0.39668149 -0.10856552 53 3 -0.057815965
-0.57161552 -0.40532568 -0.086039767 46 4 -0.057811357
-0.57859206 -0.40981761 -0.037158534 7 6 -0.057802141
-0.78673398 -0.55683279 -0.016824121 3 7 -0.057797533
-0.71028376 -0.50123578 -0.23293714 14 0 -0.057774495
-0.71407586 -0.50372517 0.015253403 44 8 -0.057772189
-0.8138181 -0.57387298 -0.22989999 29 1 -0.057769887
-0.88642138 -0.62483829 0.056836855 1 9 -0.057767581
-0.55039781 -0.38797531 -0.13089497 62 2 -0.057765279
-0.55070257 -0.38790253 -0.10668832 51 3 -0.057760671
-0.57302684 -0.40332788 -0.086039767 40 4 -0.057756063
-0.58001906 -0.40779546 -0.037158534 7 6 -0.057746846
-0.77231055 -0.54258752 -0.016475072 4 7 -0.057742238
-0.71994036 -0.50429523 -0.23552534 13 0 -0.057719197
-0.72729629 -0.50925833 0.015497738 36 8 -0.057716895
-0.79825473 -0.55873644 -0.22495104 26 1 -0.057714589
-0.89514309 -0.62632012 0.057255544 1 9 -0.057712287
-0.54531443 -0.38154948 -0.1293685 63 2 -0.057709981
-0.54881543 -0.38371402 -0.10606258 56 3 -0.057705373
-0.58094037 -0.40587291 -0.08701472 45 4 -0.057700764
-0.60436893 -0.42177054 -0.03862394 7 6 -0.057691548
-0.76435828 -0.53302532 -0.016265644 9 7 -0.05768694
-0.72486877 -0.50398457 -0.23656061 13 0 -0.057663903
-0.73071158 -0.50785774 0.015532642 32 8 -0.057661597
-0.80180055 -0.55705875 -0.22540097 19 1 -0.057659294
-0.89732373 -0.62319189 0.057255544 1 9 -0.057656989
-0.54986793 -0.38188359 -0.13013174 63 2 -0.057654686
-0.55664283 -0.38630101 -0.10731406 54 3 -0.057650078
-0.56440985 -0.39139923 -0.084333591 36 4 -0.05764547
-0.60583752 -0.41965833 -0.03862394 7 6 -0.057636254
-0.73990631 -0.51214451 -0.015707165 21 7 -0.057631645
-0.74252343 -0.51242387 -0.24173699 11 0 -0.057608604
-0.73577183 -0.50757521 0.015602452 31 8 -0.057606302
-0.81015736 -0.55868149 -0.22720055 15 1 -0.057603996
-0.89949363 -0.62005579 0.057255544 1 9 -0.057601694
-0.54634833 -0.37661907 -0.1289869 54 2 -0.057599388
-0.55473441 -0.38211435 -0.10668832 54 3 -0.05759478
-0.55596161 -0.38267362 -0.082871154 37 4 -0.057590172
-0.580966 -0.39943624 -0.036949188 7 6 -0.057580959
-0.74168956 -0.50955862 -0.015707165 21 7 -0.057576351
-0.71243137 -0.48799482 -0.23138423 15 0 -0.05755331
-0.74908894 -0.51291209 0.015846785 26 8 -0.057551004
-0.81371081 -0.55695081 -0.22765048 13 1 -0.057548702
-0.8884657 -0.60788965 0.056418166 1 9 -0.057546396
-0.53955817 -0.36916658 -0.12707879 65 2 -0.057544094
-0.54954213 -0.37571609 -0.10543684 56 3 -0.057539485
-0.57204592 -0.39080876 -0.085064806 35 4 -0.057534877
-0.58235675 -0.39740583 -0.036949188 7 6 -0.057525661
-0.73355091 -0.50020701 -0.015497738 23 7 -0.057521053
-0.71732569 -0.48767725 -0.23241952 15 0 -0.057498012
-0.75914443 -0.5159139 0.016021309 21 8 -0.05749571
-0.80920213 -0.54972667 -0.22585087 11 1 -0.057493407
-0.87725991 -0.59596133 0.055580791 1 9 -0.057491101
-0.54409176 -0.36948693 -0.12784202 65 2 -0.057488799
-0.54758114 -0.37157714 -0.1048111 56 3 -0.057484191
-0.57833558 -0.39215177 -0.085796028 29 4 -0.057479583
-0.58043307 -0.39313051 -0.036739845 8 6 -0.057470366
-0.74348497 -0.5033772 -0.015672261 16 7 -0.057465758
-0.71742225 -0.48408973 -0.23190187 15 0 -0.057442717
-0.7376442 -0.49773476 0.015532642 21 8 -0.057440415
-0.80294269 -0.54159158 -0.22360134 11 1 -0.057438109
-0.8727107 -0.58842939 0.055162102 1 9 -0.057435807
-0.54700625 -0.36868256 -0.12822366 55 2 -0.057433501
-0.54553384 -0.36755171 -0.10418537 54 3 -0.057428893
-0.55822599 -0.37581977 -0.082627423 25 4 -0.057424285
-0.59499246 -0.4001199 -0.037577223 7 6 -0.057415068
-0.75353628 -0.50635564 -0.015846785 15 7 -0.05741046
-0.73186332 -0.49030995 -0.23604298 13 0 -0.057387423
-0.75931549 -0.50850922 0.015951499 18 8 -0.057385117
-0.79511201 -0.53228122 -0.22090194 10 1 -0.057382815
-0.8780793 -0.58760107 0.055371448 1 9 -0.057380509
-0.54985744 -0.36795861 -0.12860526 64 2 -0.057378206
-0.5533818 -0.37003744 -0.10543684 51 3 -0.057373598
-0.5661366 -0.37828034 -0.083602376 24 4 -0.05736899
-0.61299795 -0.40912801 -0.03862394 7 6 -0.057359774
-0.75529933 -0.50372201 -0.015846785 10 7 -0.057355165
-0.7159577 -0.47586134 -0.23034896 15 0 -0.057332125
-0.79106295 -0.52578008 0.016579786 14 8 -0.057329822
-0.80670404 -0.53597301 -0.22360134 8 1 -0.057327516
-0.85683262 -0.56906253 0.053906042 1 9 -0.057325214
-0.53811747 -0.35725376 -0.12555233 57 2 -0.057322908
-0.55144221 -0.36582258 -0.1048111 54 3 -0.0573183
-0.56414473 -0.37410775 -0.0831149 18 4 -0.057313692
-0.61449331 -0.40687862 -0.03862394 7 6 -0.057304479
-0.78706843 -0.52094913 -0.016475072 8 7 -0.057299871
-0.71600181 -0.47229555 -0.22983132 16 0 -0.05727683
-0.79966247 -0.52728033 0.016719406 18 8 -0.057274524
-0.80703604 -0.53194016 -0.22315145 9 1 -0.057272222
-0.8688193 -0.57266325 0.054534074 1 9 -0.057269916
-0.52952486 -0.34889221 -0.12326261 69 2 -0.057267614
-0.55766547 -0.36715436 -0.10574972 51 3 -0.057263006
-0.5505867 -0.36221823 -0.080921248 13 4 -0.057258397
-0.61590993 -0.40473098 -0.03862394 7 6 -0.057249181
-0.76882559 -0.50502414 -0.016056214 9 7 -0.057244573
-0.71926236 -0.47085145 -0.23034896 15 0 -0.057221532
-0.79806048 -0.52243513 0.016649596 25 8 -0.05721923
-0.81042618 -0.53032809 -0.22360134 6 1 -0.057216927
-0.88418442 -0.57837373 0.055371448 1 9 -0.057214621
-0.54717106 -0.357786 -0.12707879 65 2 -0.057212319
-0.55061239 -0.3598991 -0.10418537 54 3 -0.057207711
-0.55510873 -0.36256158 -0.081408732 6 4 -0.057203103
-0.6406672 -0.41796452 -0.040089346 6 6 -0.057193886
-0.75048167 -0.48923293 -0.015637357 11 7 -0.057189278
-0.74025768 -0.48109636 -0.23656061 13 0 -0.057166237
-0.79987913 -0.51964635 0.016649596 42 8 -0.057163935
-0.80900377 -0.52537322 -0.22270155 6 1 -0.057161629
-0.89614773 -0.58196515 0.05599948 1 9 -0.057159327
-0.54506117 -0.35383162 -0.12631556 57 2 -0.057157021
-0.54523641 -0.35367492 -0.10293389 51 3 -0.057152413
-0.58302349 -0.37789696 -0.085308552 5 4 -0.057147805
-0.76888788 -0.49760637 -0.015986405 10 7 -0.05713398
-0.72732109 -0.46908599 -0.23190187 15 0 -0.057110943
-0.804959 -0.5191586 0.016719406 40 8 -0.057108637
-0.79763865 -0.51424003 -0.21910232 10 1 -0.057106335
-0.88306427 -0.56909603 0.055057433 1 9 -0.057104029
-0.54959369 -0.35405335 -0.12707879 56 2 -0.057101727
-0.54972792 -0.35400391 -0.10355964 54 3 -0.057097118
-0.77398527 -0.49708053 -0.016056214 9 7 -0.057078686
-0.74197108 -0.47487545 -0.23604298 13 0 -0.057044029
-0.81359434 -0.52051526 0.016859025 31 8 -0.057041727
-0.80608487 -0.51551294 -0.22090194 7 1 -0.057039421
-0.88514423 -0.56585562 0.055057433 1 9 -0.057037119
-0.54420984 -0.34790283 -0.12555233 67 2 -0.057034813
-0.55102164 -0.3519868 -0.10355964 54 3 -0.057030205
-0.74881756 -0.47704944 -0.015497738 11 7 -0.057011772
-0.73881382 -0.4690465 -0.23449005 14 0 -0.056988735
-0.81202984 -0.51552874 0.016789215 28 8 -0.056986429
-0.80787945 -0.51269603 -0.22090194 7 1 -0.056984127
-0.88711405 -0.56276238 0.055057433 1 9 -0.056981821
-0.52226925 -0.33118659 -0.12020968 61 2 -0.056979518
-0.55063945 -0.34890741 -0.10324676 51 3 -0.05697491
-0.70728064 -0.44729707 -0.043857537 4 6 -0.056961086
-0.74878794 -0.47336411 -0.015462833 17 7 -0.056956477
-0.74044657 -0.46646473 -0.23449005 7 0 -0.056933437
-0.81729823 -0.51468003 0.016859025 29 8 -0.056931134
-0.79655963 -0.50142634 -0.21730271 11 1 -0.056928828
-0.86202896 -0.5426386 0.053382684 1 9 -0.056926526
-0.53671533 -0.33772621 -0.12326261 69 2 -0.05692422
-0.54850936 -0.34488034 -0.10262102 54 3 -0.056919612
-0.74365968 -0.46649709 -0.015323212 18 7 -0.056901183
-0.73715597 -0.46080515 -0.23293714 14 0 -0.056878142
-0.80882645 -0.50560725 0.016649596 31 8 -0.056875836
-0.81804955 -0.5111742 -0.22270155 6 1 -0.056873534
-0.89779693 -0.56078804 0.055476118 1 9 -0.056871228
-0.54122168 -0.33793008 -0.12402585 68 2 -0.056868926
-0.53959548 -0.33678406 -0.10074381 52 3 -0.056864318
-0.71030891 -0.44247237 -0.043857537 4 6 -0.056850493
-0.76735348 -0.47763568 -0.015776975 10 7 -0.056845885
-0.75509512 -0.46854383 -0.23811352 12 0 -0.056822844
-0.81908315 -0.50805104 0.016824121 30 8 -0.056820542
-0.8032667 -0.49804652 -0.21820252 11 1 -0.056818236
-0.85561031 -0.53029424 0.052754648 1 9 -0.056815933
-0.54233921 -0.33613357 -0.12402585 68 2 -0.056813627
-0.55084419 -0.34113875 -0.10262102 52 3 -0.056809023
-0.71184909 -0.43999022 -0.043857537 4 6 -0.056795198
-0.77582163 -0.47915712 -0.015916595 5 7 -0.05679059
-0.77153146 -0.47502095 -0.24277227 10 0 -0.056767549
-0.81744558 -0.50309259 0.016754311 30 8 -0.056765243
-0.80831987 -0.49728176 -0.21910232 10 1 -0.056762941
-0.85745621 -0.52730435 0.052754648 1 9 -0.056760639
-0.52344126 -0.3218973 -0.11944644 72 2 -0.056758333
-0.54866558 -0.33714548 -0.10199528 54 3 -0.056753725
-0.74679911 -0.45763901 -0.015288308 6 7 -0.056735292
-0.7484563 -0.45721835 -0.2350077 14 0 -0.056712255
-0.82090336 -0.50127822 0.016789215 31 8 -0.056709949
-0.80007064 -0.4883655 -0.21640292 10 1 -0.056707647
-0.84565204 -0.51598567 0.051917274 1 9 -0.056705341
-0.5413208 -0.33029401 -0.12326261 59 2 -0.056703039
-0.55489898 -0.33831331 -0.10293389 51 3 -0.05669843
-0.74497461 -0.45295179 -0.015218498 6 7 -0.056679998
-0.72196221 -0.43758032 -0.22620785 17 0 -0.056656957
-0.82093775 -0.49737364 0.016754311 37 8 -0.056654654
-0.77843422 -0.47143653 -0.21010427 10 1 -0.056652348
-0.84232241 -0.50992763 0.051603258 4 9 -0.056650046
-0.53575259 -0.32433549 -0.12173614 70 2 -0.05664774
-0.55607659 -0.33637413 -0.10293389 51 3 -0.056643132
-0.77394754 -0.46687508 -0.015776975 5 7 -0.056624703
-0.74169648 -0.44600886 -0.23190187 15 0 -0.056601662
-0.80895782 -0.48626325 0.016475072 47 8 -0.056599356
-0.78842711 -0.47373474 -0.2123538 9 1 -0.056597054
-0.85437006 -0.51315463 0.052231289 8 9 -0.056594748
-0.53688139 -0.32246351 -0.12173614 70 2 -0.056592446
-0.5436973 -0.32629892 -0.10043094 54 3 -0.056587838
-0.7721408 -0.46211678 -0.015707165 5 7 -0.056569405
-0.74490792 -0.4444069 -0.23241952 15 0 -0.056546364
-0.81408536 -0.48548475 0.016544882 45 8 -0.056544062
-0.7532503 -0.44902745 -0.20245595 9 1 -0.056541756
-0.8407144 -0.50096774 0.051289242 15 9 -0.056539454
-0.54137677 -0.32259741 -0.12249938 60 2 -0.056537148
-0.54992473 -0.32743093 -0.10136954 49 3 -0.056532539
-0.7840659 -0.46554428 -0.015916595 5 7 -0.05651411
-0.76474196 -0.45262763 -0.23811352 12 0 -0.056491069
-0.81921703 -0.48467675 0.01661469 42 8 -0.056488764
-0.7296527 -0.43151554 -0.19570743 16 1 -0.056486461
-0.835581 -0.49396428 0.050870556 18 9 -0.056484155
-0.54249966 -0.32070556 -0.12249938 70 2 -0.056481853
-0.55786765 -0.32952797 -0.10262102 47 3 -0.056477245
-0.78568619 -0.46280456 -0.015916595 5 7 -0.056458812
-0.76131958 -0.44702092 -0.23656061 6 0 -0.056435775
-0.8226285 -0.48282641 0.016649596 36 8 -0.056433469
-0.69417655 -0.40727106 -0.18580957 21 1 -0.056431167
-0.85108286 -0.49912754 0.051707931 13 9 -0.056428861
-0.5300678 -0.31086448 -0.11944644 62 2 -0.056426559
-0.55390155 -0.32458249 -0.10168242 49 3 -0.05642195
-0.72238642 -0.42246705 -0.043857537 4 6 -0.056408126
-0.77693766 -0.45400566 -0.015707165 5 7 -0.056403518
-0.75119013 -0.43755424 -0.23293714 14 0 -0.056380477
-0.81221205 -0.47290859 0.016405262 38 8 -0.056378175
-0.60464478 -0.35191154 -0.16151486 21 1 -0.056375869
-0.84936714 -0.49414515 0.051498584 13 9 -0.056373566
-0.53114963 -0.30901244 -0.11944644 72 2 -0.05637126
-0.54820013 -0.31867585 -0.10043094 45 3 -0.056366652
-0.80965841 -0.46934277 -0.016335452 4 7 -0.05634822
-0.74936754 -0.43299642 -0.23190187 15 0 -0.056325182
-0.81212616 -0.46907055 0.016370358 35 8 -0.056322876
-0.59574348 -0.34395269 -0.15881544 22 1 -0.056320574
-0.86146599 -0.49716723 0.052126616 10 9 -0.056318268
-0.52542347 -0.30323115 -0.11791997 63 2 -0.056315966
-0.54246414 -0.31281325 -0.099179462 47 3 -0.056311358
-0.79395652 -0.45654538 -0.015986405 5 7 -0.056292925
-0.76428276 -0.4380635 -0.23604298 13 0 -0.056269884
-0.82243419 -0.47120318 0.016544882 29 8 -0.056267582
-0.57833892 -0.33121783 -0.15386651 23 1 -0.056265276
-0.84066278 -0.48125762 0.050765883 16 9 -0.056262974
-0.52477485 -0.30041996 -0.11753836 63 2 -0.056260668
-0.54355276 -0.31091779 -0.099179462 45 3 -0.05625606
-0.79901934 -0.45575246 -0.016056214 4 7 -0.056237631
-0.74901319 -0.42584482 -0.2308666 15 0 -0.05621459
-0.82581258 -0.46931747 0.016579786 25 8 -0.056212284
-0.58457482 -0.33208472 -0.15521623 34 1 -0.056209981
-0.82844353 -0.47043017 0.049928509 16 9 -0.056207675
-0.52069873 -0.29567787 -0.11639349 75 2 -0.056205373
-0.54119861 -0.30706891 -0.098553732 49 3 -0.056200765
-0.58260572 -0.33015963 0.10606258 4 12 -0.056193855
-0.76231551 -0.43129745 -0.015288308 6 7 -0.056182332
-0.78414977 -0.44220632 -0.24121936 11 0 -0.056159291
-0.83092976 -0.46839589 0.016649596 25 8 -0.056156989
-0.52800626 -0.29751638 -0.13991956 27 1 -0.056154687
-0.84739929 -0.47748515 0.050975226 13 9 -0.056152381
-0.52172768 -0.29385847 -0.11639349 75 2 -0.056150079
-0.55259603 -0.31099093 -0.10043094 42 3 -0.056145471
-0.58369738 -0.32822582 0.10606258 4 12 -0.056138556
-0.76025414 -0.42680928 -0.015218498 6 7 -0.056127038
-0.75871217 -0.42437744 -0.23293714 14 0 -0.056103997
-0.82026178 -0.45880455 0.016405262 28 8 -0.056101695
-0.53919554 -0.3014698 -0.14261897 27 1 -0.056099389
-0.85777819 -0.47939596 0.051498584 11 9 -0.056097087
-0.52446425 -0.29299301 -0.11677512 64 2 -0.056094781
-0.54327613 -0.30337808 -0.098553732 47 3 -0.056090172
-0.58483952 -0.32618645 0.10606258 4 12 -0.056083262
-0.77571625 -0.43193549 -0.015497738 5 7 -0.05607174
-0.76856101 -0.42654639 -0.23552534 13 0 -0.056048702
-0.81311506 -0.45108828 0.016230738 31 8 -0.056046396
-0.52149796 -0.28919011 -0.13767006 42 1 -0.056044094
-0.86468697 -0.47930372 0.051812604 10 9 -0.056041788
-0.51169616 -0.28363773 -0.11372217 66 2 -0.056039486
-0.53741968 -0.29765153 -0.097302251 47 3 -0.056034878
-0.58597463 -0.32414284 0.10606258 4 12 -0.056027964
-0.86474395 -0.47756124 -0.017242977 3 7 -0.056016445
-0.76842654 -0.42279556 -0.2350077 14 0 -0.055993404
-0.82344472 -0.45306706 0.016405262 28 8 -0.055991102
-0.51908928 -0.28548965 -0.13677025 28 1 -0.055988796
-0.85060281 -0.46762294 0.050870556 14 9 -0.055986494
-0.53165859 -0.29216105 -0.11791997 74 2 -0.055984188
-0.54889619 -0.30138418 -0.099179462 45 3 -0.05597958
-0.6217398 -0.34109807 0.11231996 4 12 -0.055972669
-0.82080531 -0.44956422 -0.016335452 4 7 -0.055961151
-0.77668095 -0.42381206 -0.23707826 13 0 -0.05593811
-0.82334417 -0.44908834 0.016370358 30 8 -0.055935804
-0.53381974 -0.29104802 -0.14036946 41 1 -0.055933502
-0.84178871 -0.45876738 0.050242521 13 9 -0.055931196
-0.52060819 -0.28372681 -0.11524864 65 2 -0.055928893
-0.54647523 -0.29757696 -0.098553732 45 3 -0.055924285
-0.58827907 -0.31994155 0.10606258 4 12 -0.055917375
-0.8136608 -0.44178173 -0.01616093 13 7 -0.055905852
-0.78155363 -0.42293715 -0.23811352 12 0 -0.055882812
-0.82490683 -0.44621158 0.016370358 35 8 -0.055880509
-0.53140402 -0.28732911 -0.13946965 41 1 -0.055878207
-0.8539272 -0.46152422 0.050870556 14 9 -0.055875901
-0.530231 -0.28657532 -0.11715673 63 2 -0.055873599
-0.54751062 -0.29566759 -0.098553732 47 3 -0.055868991
-0.65198267 -0.35164377 0.11732586 3 12 -0.055862077
-0.73669028 -0.39699876 -0.043857537 4 6 -0.055855166
-0.81519783 -0.43893898 -0.01616093 27 7 -0.055850558
-0.76770526 -0.41198504 -0.23345479 14 0 -0.055827517
-0.8070755 -0.43293151 0.015986405 36 8 -0.055825215
-0.53068632 -0.28455153 -0.13901976 70 1 -0.055822909
-0.8537727 -0.45759708 0.050765883 14 9 -0.055820607
-0.52776736 -0.28286782 -0.11639349 75 2 -0.055818301
-0.5485394 -0.29375461 -0.098553732 42 3 -0.055813693
-0.73807162 -0.3944248 -0.043857537 4 6 -0.055799868
-0.83789289 -0.44739327 -0.016579786 36 7 -0.05579526
-0.76913863 -0.40930271 -0.23345479 14 0 -0.055772223
-0.80151987 -0.42635536 0.015846785 26 8 -0.055769917
-0.51791131 -0.27537835 -0.13542055 58 1 -0.055767614
-0.86418295 -0.45930079 0.051289242 10 9 -0.055765308
-0.52181709 -0.27733827 -0.11486702 66 2 -0.055763006
-0.53909361 -0.2862792 -0.096676514 50 3 -0.055758398
-0.73944402 -0.39184585 -0.043857537 4 6 -0.055744573
-0.84298402 -0.44633719 -0.016649596 38 7 -0.055739965
-0.77220005 -0.40765172 -0.23397243 14 0 -0.055734158
-0.78701222 -0.41529581 0.015532642 21 8 -0.055731855
-0.51192701 -0.27002266 -0.13362093 73 1 -0.055729549
-0.840967 -0.44339159 0.049823835 10 9 -0.055727247
-0.52620721 -0.2774376 -0.11563025 76 2 -0.055724941
-0.54703087 -0.28817266 -0.097927988 45 3 -0.055720333
-0.74073917 -0.38939193 -0.043857537 4 6 -0.055706508
-0.85508162 -0.44911835 -0.016859025 43 7 -0.0557019
-0.78559911 -0.41122535 -0.23759589 13 0 -0.055678863
-0.79554433 -0.41625437 0.015672261 14 8 -0.055676557
-0.50941283 -0.26642776 -0.13272113 74 1 -0.055674255
-0.78941011 -0.41269386 0.046683677 8 9 -0.055671949
-0.51673335 -0.27014178 -0.11334055 77 2 -0.055669647
-0.54453158 -0.28443223 -0.097302251 47 3 -0.055665039
-0.74209398 -0.38680369 -0.043857537 4 6 -0.055651214
-0.83890814 -0.43689433 -0.016509976 49 7 -0.055646606
-0.7715978 -0.40047115 -0.23293714 14 0 -0.055623565
-0.82361817 -0.42728782 0.016195834 13 8 -0.055621263
-0.52936929 -0.27451631 -0.13767006 85 1 -0.055618957
-0.74119639 -0.38419989 0.043752864 5 9 -0.055616654
-0.51767313 -0.26833639 -0.11334055 77 2 -0.055614349
-0.55253738 -0.28616366 -0.098553732 42 3 -0.05560974
-0.74343967 -0.38421091 -0.043857537 4 6 -0.055595916
-0.83687454 -0.43212819 -0.016440166 46 7 -0.055591311
-0.76611996 -0.39423949 -0.2308666 15 0 -0.05556827
-0.81443518 -0.41892239 0.015986405 27 8 -0.055565964
-0.53205734 -0.27355781 -0.13811995 56 1 -0.055563662
-0.74253309 -0.3816101 0.043752864 5 9 -0.055561356
-0.52908367 -0.27191201 -0.11563025 76 2 -0.055559054
-0.5394749 -0.27701455 -0.096050769 50 3 -0.055554446
-0.74477631 -0.38161349 -0.043857537 4 6 -0.055540621
-0.82057792 -0.42009166 -0.016091119 52 7 -0.055536013
-0.78125817 -0.39858642 -0.2350077 14 0 -0.055512972
-0.81411111 -0.4151684 0.015951499 33 8 -0.05551067
-0.51217484 -0.26107877 -0.13272113 59 1 -0.055508364
-0.86843055 -0.4424876 0.051079899 1 9 -0.055506062
-0.53702664 -0.2736288 -0.11715673 63 2 -0.055503756
-0.58232784 -0.29658294 0.057174165 8 10 -0.055501454
-0.54395944 -0.27692211 -0.096676514 50 3 -0.055499151
-0.74610376 -0.37901154 -0.043857537 4 6 -0.055485327
-0.8095572 -0.41088945 -0.015846785 46 7 -0.055480719
-0.77574921 -0.39236912 -0.23293714 14 0 -0.055457678
-0.82090902 -0.41503078 0.016056214 34 8 -0.055455372
-0.50612599 -0.25577354 -0.13092151 76 1 -0.05545307
-0.87353528 -0.4412545 0.051289242 1 9 -0.055450767
-0.52571189 -0.26555625 -0.11448541 66 2 -0.055448461
-0.54492277 -0.27502164 -0.096676514 47 3 -0.055443853
-0.74742228 -0.37640485 -0.043857537 4 6 -0.055430029
-0.80026859 -0.40266836 -0.015637357 49 7 -0.05542542
-0.77884108 -0.39052477 -0.23345479 14 0 -0.055402383
-0.8330791 -0.417539 0.016265644 31 8 -0.055400077
-0.51572728 -0.25836962 -0.13317102 89 1 -0.055397775
-0.85363996 -0.4274711 0.050033178 7 9 -0.055395469
-0.52488017 -0.26284045 -0.11410379 66 2 -0.055393167
-0.54941267 -0.27488559 -0.097302251 47 3 -0.055388559
-0.74873167 -0.37379336 -0.043857537 4 6 -0.055374734
-0.78735375 -0.39273185 -0.015358118 52 7 -0.055370126
-0.79922861 -0.39726248 -0.2391488 12 0 -0.055347085
-0.83274078 -0.41373849 0.016230738 31 8 -0.055344783
-0.51488072 -0.25570104 -0.13272113 74 1 -0.055342477
-0.86228275 -0.42804113 0.050451867 8 9 -0.055340175
-0.51524335 -0.25576919 -0.11181407 68 2 -0.055337869
-0.54682946 -0.27121067 -0.096676514 47 3 -0.05533326
-0.75003183 -0.37117767 -0.043857537 4 6 -0.055319436
-0.77796465 -0.38466293 -0.015148689 56 7 -0.055314831
-0.77461666 -0.38166276 -0.23138423 15 0 -0.055291791
-0.81982839 -0.40376109 0.015951499 33 8 -0.055289485
-0.51577008 -0.25390232 -0.13272113 74 1 -0.055287182
-0.87093997 -0.42855558 0.050870556 6 9 -0.055284876
-0.52317929 -0.25743613 -0.11334055 77 2 -0.055282574
-0.54777277 -0.26930034 -0.096676514 47 3 -0.055277966
-0.75132287 -0.36855727 -0.043857537 4 6 -0.055264141
-0.78289384 -0.38370529 -0.015218498 55 7 -0.055259533
-0.77768016 -0.37980407 -0.23190187 15 0 -0.055236492
-0.81045067 -0.39563367 0.015742071 30 8 -0.05523419
-0.51315051 -0.25039122 -0.13182132 75 1 -0.055231884
-0.87602085 -0.42726389 0.051079899 5 9 -0.055229582
-0.52583927 -0.25646895 -0.11372217 66 2 -0.055227276
-0.53450346 -0.26046398 -0.094173566 50 3 -0.055222668
-0.75260484 -0.3659324 -0.043857537 4 6 -0.055208847
-0.78962451 -0.38359147 -0.015323212 54 7 -0.055204239
-0.77552336 -0.37540385 -0.2308666 15 0 -0.055181198
-0.83162743 -0.40238273 0.016126024 22 8 -0.055178892
-0.51226711 -0.24774987 -0.13137142 90 1 -0.05517659
-0.86484677 -0.41826943 0.050347198 4 9 -0.055174284
-0.52142864 -0.25206843 -0.11257731 78 2 -0.055171981
-0.54608202 -0.26375121 -0.096050769 45 3 -0.055167373
-0.75387752 -0.36330327 -0.043857537 4 6 -0.055153549
-0.78548747 -0.37836736 -0.015218498 55 7 -0.055148941
-0.76631433 -0.36781442 -0.22776078 17 0 -0.055125903
-0.82033664 -0.39356786 0.015881689 21 8 -0.055123597
-0.50957155 -0.2443646 -0.13047162 91 1 -0.055121295
-0.86802983 -0.41626298 0.050451867 6 9 -0.055118989
-0.52226168 -0.2503379 -0.11257731 78 2 -0.055116687
-0.5505169 -0.26364532 -0.096676514 45 3 -0.055112079
-0.66821462 -0.31972486 0.11732586 3 12 -0.055105165
-0.7550782 -0.36080131 -0.043857537 4 6 -0.055098254
-0.79395568 -0.37920785 -0.015358118 52 7 -0.055093646
-0.78148502 -0.37191227 -0.23190187 15 0 -0.055070605
-0.83969527 -0.39943534 0.016230738 23 8 -0.055068303
-0.52445853 -0.24936786 -0.13407083 88 1 -0.055065997
-0.87849712 -0.41751683 0.050975226 3 9 -0.055063695
-0.51599622 -0.2452337 -0.11105084 69 2 -0.055061389
-0.55317247 -0.26266569 -0.096989378 40 3 -0.055056781
-0.69223416 -0.32854879 0.094083138 7 11 -0.055054478
