# .PCD v0.7 - Point Cloud Data file format
VERSION 0.7
FIELDS x y z intensity ring time
SIZE 4 4 4 4 2 4
TYPE F F F F U F
COUNT 1 1 1 1 1 1
WIDTH 988
HEIGHT 1
VIEWPOINT 0 0 0 1 0 0 0
POINTS 988
DATA ascii
1.344254 5.7903175 1.5927725 37 15 -0.064173967
0.96046323 4.1143398 -1.1320745 12 0 -0.064153232
4.6030126 19.702366 0.35316688 84 8 -0.064150929
1.1397929 4.8748379 -1.1557984 8 1 -0.06414862
4.4568253 19.046667 1.0251569 3 9 -0.064146318
1.4421245 6.1630559 -1.2303365 2 2 -0.064144015
3.2567813 13.907194 1.249639 21 10 -0.064141713
1.9458588 8.3027306 -1.3506554 1 3 -0.064139403
2.5624855 10.925239 1.3778549 24 11 -0.064137101
2.1110284 8.9863091 1.4620367 8 12 -0.064132497
2.0016301 8.5206175 -0.76575035 21 5 -0.064130187
1.5402365 6.5514169 1.3081865 30 13 -0.064127885
3.2884862 13.976641 -0.75248641 90 6 -0.064125583
1.3261092 5.6317868 1.3357594 22 14 -0.06412328
3.9711607 16.851778 -0.30220586 86 7 -0.064120971
1.3653435 5.7893505 1.5938078 37 15 -0.064118668
0.97214586 4.0996833 -1.1289687 14 0 -0.064097933
4.672688 19.690071 0.35323673 81 8 -0.064095631
1.159053 4.8803101 -1.158048 8 1 -0.064093329
4.5343728 19.077627 1.027669 9 9 -0.064091019
1.4518268 6.1083226 -1.2204144 2 2 -0.064088717
3.3039272 13.889926 1.2491161 19 10 -0.064086415
1.9766567 8.3035736 -1.3519068 1 3 -0.064084113
2.6024487 10.923949 1.3788298 22 11 -0.064081803
2.1419234 8.976964 1.4617239 6 12 -0.064077199
2.0276594 8.4980745 -0.76435584 46 5 -0.064074896
1.5644655 6.5517287 1.3093314 10 13 -0.064072587
1.3493848 5.6422868 1.3393586 46 14 -0.064067982
4.4921679 18.768969 -0.33686635 97 7 -0.06406568
1.2127458 5.0631242 1.3950348 20 15 -0.06406337
0.98554707 4.0925093 -1.1279335 10 0 -0.064042635
4.7399712 19.66781 0.35313201 78 8 -0.064040333
1.1792809 4.8894954 -1.1611973 9 1 -0.064038031
4.5990214 19.06831 1.027983 21 9 -0.064035729
1.4731416 6.1032171 -1.2204144 2 2 -0.064033419
3.3542538 13.886058 1.2498133 23 10 -0.064031117
1.9982054 8.2659035 -1.3469009 1 3 -0.064028814
2.6387007 10.907082 1.3778549 24 11 -0.064026512
2.1693544 8.9602127 1.4601595 8 12 -0.0640219
2.0549674 8.4812632 -0.7634843 55 5 -0.064019598
1.5859395 6.5405035 1.3081865 1 13 -0.064017296
1.3686134 5.6356478 1.3389087 46 14 -0.064012684
4.5591078 18.773399 -0.33721539 81 7 -0.064010382
1.2281594 5.0534434 1.3934819 16 15 -0.064008079
0.99982578 4.0890441 -1.1279335 11 0 -0.063987345
4.8065968 19.65781 0.35323673 81 8 -0.063985035
1.1922454 4.8723078 -1.158048 6 1 -0.063982733
4.6622248 19.038561 1.0272502 18 9 -0.06398043
1.5065856 6.1476159 -1.2303365 2 2 -0.063978128
3.4027085 13.874264 1.2498133 23 10 -0.063975818
1.9531428 7.9637785 -1.298719 3 3 -0.063973516
2.6729658 10.890559 1.3768799 24 11 -0.063971214
2.1996775 8.9487486 1.4595338 11 12 -0.063966602
2.0759952 8.4392118 -0.76034665 55 5 -0.0639643
1.9147956 7.7839127 1.5581464 25 13 -0.063961998
2.928067 11.894078 -0.64195293 1 6 -0.063959695
1.389158 5.638648 1.3407084 26 14 -0.063957393
4.1061959 16.654665 -0.29941347 100 7 -0.063955083
1.2467163 5.0528774 1.3945172 50 15 -0.063952781
1.0157044 4.0950809 -1.1305215 13 0 -0.063932046
4.879045 19.656437 0.35351595 84 8 -0.063929744
1.2045467 4.8492041 -1.153549 8 1 -0.063927434
4.7276859 19.018295 1.0270408 18 9 -0.063925132
1.514648 6.093049 -1.2204144 2 2 -0.06392283
3.4496644 13.86677 1.250162 26 10 -0.063920528
1.9857002 7.9760823 -1.3018478 1 3 -0.063918218
2.7128768 10.888869 1.3778549 22 11 -0.063915916
2.2328119 8.9486818 1.4607852 12 12 -0.063911311
2.0967286 8.403286 -0.75773197 48 5 -0.063909009
1.9438558 7.784801 1.5596728 31 13 -0.063906699
3.491533 13.972601 -0.75478923 10 6 -0.063904397
1.405524 5.6205297 1.337559 26 14 -0.063902095
4.1623616 16.632473 -0.29927388 85 7 -0.063899793
1.2685716 5.0653601 1.3991758 35 15 -0.063897483
1.0304655 4.0933838 -1.1310393 14 0 -0.063876748
4.9486012 19.643164 0.35358575 87 8 -0.063874446
1.2271842 4.8676453 -1.1589478 8 1 -0.063872144
4.7920942 18.993929 1.0266222 18 9 -0.063869841
1.5368696 6.0915318 -1.2211776 2 2 -0.063867532
3.4980443 13.854644 1.250162 23 10 -0.063865229
2.0832145 8.2448893 -1.3469009 1 3 -0.063862927
2.7503858 10.877408 1.3776112 24 11 -0.063860625
2.2620981 8.9331741 1.4595338 12 12 -0.063856013
2.1138237 8.3476286 -0.75337422 43 5 -0.063853711
1.9633 7.747519 1.5535669 17 13 -0.063851409
2.1626601 8.5279779 -0.46107981 39 6 -0.063849099
1.4342415 5.6514783 1.3461071 1 14 -0.063846797
4.0599232 15.985999 -0.2878949 100 7 -0.063844495
1.4537463 5.7199602 1.5813844 31 15 -0.063842192
1.0428343 4.0822749 -1.1289687 12 0 -0.063821457
5.0235734 19.650959 0.35403952 91 8 -0.063819148
1.2446523 4.8652191 -1.1593977 8 1 -0.063816845
4.8588572 18.979021 1.0267268 21 9 -0.063814543
1.5600702 6.0937381 -1.2227042 2 2 -0.063812241
3.5453997 13.838489 1.2498133 23 10 -0.063809931
2.111984 8.2375669 -1.3469009 1 3 -0.063807629
2.7878425 10.865818 1.3773675 26 11 -0.063805327
2.2922857 8.9213953 1.458908 16 12 -0.063800715
2.0864279 8.1202126 -0.73350269 45 5 -0.063798413
1.6598309 6.4552693 1.2955931 8 13 -0.06379611
2.1884358 8.5049019 -0.46024245 46 6 -0.063793808
1.6784704 6.5183134 1.5539619 42 14 -0.063791499
4.1127028 15.960114 -0.28768548 100 7 -0.063789196
1.4814236 5.744781 1.5896666 35 15 -0.063786894
1.0565941 4.0767398 -1.1284511 12 0 -0.063766159
5.0906367 19.627497 0.35393479 87 8 -0.063763857
1.2635846 4.8683896 -1.1611973 9 1 -0.063761547
4.9290981 18.977407 1.0275643 21 9 -0.063759245
1.5912043 6.1262589 -1.2303365 2 2 -0.063756943
3.5936804 13.826029 1.2498133 23 10 -0.063754641
2.1407239 8.2301445 -1.3469009 1 3 -0.063752331
2.8272572 10.861783 1.3780986 27 11 -0.063750029
2.3249066 8.919075 1.4598466 20 12 -0.063745424
4.1717229 16.004045 -1.4469596 14 5 -0.063743114
1.6897886 6.4779305 1.3013173 1 13 -0.063740812
2.2085238 8.460495 -0.45825368 40 6 -0.06373851
1.701212 6.5124149 1.5539619 33 14 -0.063736208
4.1714272 15.957267 -0.2878949 100 7 -0.063733906
1.5014664 5.7395749 1.5896666 35 15 -0.063731596
1.0732734 4.0823689 -1.1310393 12 0 -0.063693285
5.161149 19.617342 0.35407442 97 8 -0.063690983
1.2770991 4.8507581 -1.158048 9 1 -0.063688681
4.9932728 18.952364 1.0271456 6 9 -0.063686371
1.6025743 6.0826983 -1.2227042 2 2 -0.063684069
3.6429334 13.817254 1.250162 23 10 -0.063681766
2.1694417 8.222621 -1.3469009 1 3 -0.063679464
2.8611038 10.836493 1.3761488 13 11 -0.063677154
2.3575425 8.9166336 1.4607852 22 12 -0.06367255
3.1550138 11.932808 -1.0798596 1 5 -0.063670248
1.696323 6.4112582 1.2891057 1 13 -0.063667938
2.2262833 8.4083271 -0.45584619 29 6 -0.063665636
1.7269307 6.5177388 1.5566614 24 14 -0.063663334
4.2312078 15.958072 -0.28817415 100 7 -0.063661031
1.5140594 5.7062912 1.5819021 16 15 -0.063658722
1.0875181 4.0785975 -1.1310393 12 0 -0.063637987
5.2316623 19.606934 0.35421404 84 8 -0.063635685
1.2940203 4.846271 -1.158048 6 1 -0.063633382
5.0568256 18.925169 1.0266222 21 9 -0.06363108
1.633935 6.1150012 -1.2303365 2 2 -0.06362877
3.6926897 13.810226 1.2506849 26 10 -0.063626468
2.1940403 8.1997337 -1.344398 1 3 -0.063624166
2.9014776 10.836028 1.3773675 26 11 -0.063621864
2.3896704 8.9121675 1.4614109 31 12 -0.063617252
1.720217 6.4109869 1.2902504 3 13 -0.063612647
2.2328336 8.3156319 -0.45124069 17 6 -0.063610338
1.7456243 6.4966154 1.5530621 19 14 -0.063608035
4.2889595 15.950929 -0.28831375 100 7 -0.063605733
1.5455154 5.7438774 1.5938078 37 15 -0.063603431
1.1012452 4.0729108 -1.1305215 13 0 -0.063582696
5.3037233 19.602068 0.35445839 81 8 -0.063580386
1.3129675 4.8492484 -1.1598476 8 1 -0.063578084
5.1195521 18.908297 1.0266222 18 9 -0.063575782
1.655272 6.1092601 -1.2303365 2 2 -0.06357348
3.7382643 13.78764 1.2498133 14 10 -0.06357117
2.2267895 8.2072763 -1.3469009 1 3 -0.063568868
2.9403279 10.829665 1.3778549 29 11 -0.063566566
2.4197316 8.9061003 1.4617239 31 12 -0.063561954
3.6809804 13.538933 -1.2275014 3 5 -0.063559651
1.7472254 6.4219923 1.2936851 7 13 -0.063557349
2.220921 8.1574726 -0.44307625 36 6 -0.063555047
1.5224093 5.5879827 1.3371091 1 14 -0.063552745
4.3428793 15.940478 -0.28838354 100 7 -0.063550435
1.561507 5.7275372 1.5907019 37 15 -0.063548133
1.1139206 4.0634537 -1.1289687 14 0 -0.063527398
5.3739805 19.603659 0.35480744 81 8 -0.063525096
1.33162 4.8542638 -1.1620972 8 1 -0.063522786
5.1876431 18.898014 1.0270408 18 9 -0.063520484
1.6661824 6.0655832 -1.2227042 2 2 -0.063518181
2.2539959 8.1998463 -1.3469009 1 3 -0.06351357
2.9772749 10.823684 1.3783424 29 11 -0.063511267
2.4492331 8.8918848 1.4607852 35 12 -0.063506663
3.8664017 14.027319 -1.2729968 1 5 -0.063504361
1.7653806 6.4048071 1.2913953 37 13 -0.063502051
3.8427184 13.93193 -0.75740606 13 6 -0.063499749
1.7861756 6.4714332 1.5499128 3 14 -0.063497446
4.4011617 15.934858 -0.2885581 100 7 -0.063495144
1.5794277 5.7146049 1.5886314 37 15 -0.063492835
1.1284244 4.0634599 -1.130004 11 0 -0.0634721
5.4407759 19.578999 0.35470271 87 8 -0.063469797
1.3485576 4.849586 -1.1620972 8 1 -0.063467495
5.2546449 18.88364 1.0272502 18 9 -0.063465185
1.6810259 6.04111 -1.2188879 2 2 -0.063462883
3.8309584 13.758035 1.2494646 21 10 -0.063460581
2.2826071 8.1919279 -1.3469009 1 3 -0.063458279
3.0150361 10.813225 1.3783424 29 11 -0.063455977
2.4807906 8.8851833 1.4610981 37 12 -0.063451365
3.7301948 13.360042 -1.2135565 3 5 -0.063449062
1.7903669 6.4080606 1.2933035 31 13 -0.06344676
3.9225206 14.029992 -0.76347697 4 6 -0.06344445
1.8171567 6.4951854 1.5571113 5 14 -0.063442148
4.4594498 15.929028 -0.28873262 100 7 -0.063439846
1.598325 5.7053356 1.5875961 35 15 -0.063437544
1.1410323 4.0539174 -1.1284511 9 0 -0.063416801
5.5107088 19.565664 0.35480744 81 8 -0.063414499
1.3633598 4.8373475 -1.1602976 9 1 -0.063412197
5.3199921 18.86326 1.0271456 21 9 -0.063409895
1.7116969 6.0692167 -1.225757 2 2 -0.063407592
3.879498 13.746497 1.249639 26 10 -0.063405283
2.3111827 8.1839113 -1.3469009 1 3 -0.063402981
3.0511465 10.796904 1.3776112 30 11 -0.063400678
2.5144734 8.8859749 1.4626625 38 12 -0.063396066
3.7480464 13.245336 -1.204318 5 5 -0.063393764
1.8127259 6.4017711 1.2933035 38 13 -0.063391462
3.9388051 13.900917 -0.75719666 7 6 -0.06338916
1.839282 6.4869294 1.5566614 12 14 -0.06338685
4.5226712 15.940295 -0.28922129 100 7 -0.063384548
1.6219257 5.7127299 1.5912195 39 15 -0.063382246
1.1567632 4.0554838 -1.130004 13 0 -0.063361511
5.5817208 19.55592 0.35498193 77 8 -0.063359208
1.3786328 4.8269372 -1.1589478 8 1 -0.063356899
5.3841538 18.838814 1.0268315 18 9 -0.063354596
1.7242388 6.0330024 -1.2196511 2 2 -0.063352294
3.9296536 13.740533 1.2503363 28 10 -0.063349992
2.3397381 8.1757936 -1.3469009 1 3 -0.063347682
3.0893605 10.788096 1.3778549 34 11 -0.06334538
2.547112 8.8828402 1.4636011 37 12 -0.063340776
3.8211713 13.326015 -1.2128593 5 5 -0.063338466
1.8372257 6.4029531 1.2948298 51 13 -0.063336164
3.9575374 13.783422 -0.75154442 9 6 -0.063333862
1.8559967 6.459866 1.5517124 15 14 -0.063331559
4.5804996 15.932096 -0.28936088 100 7 -0.06332925
1.6407874 5.7033205 1.5901842 39 15 -0.063326947
1.1741319 4.0625563 -1.1331098 9 0 -0.063306212
5.6555104 19.555525 0.355331 77 8 -0.06330391
1.3965559 4.8258395 -1.1598476 8 1 -0.063301608
5.4432106 18.796886 1.0255755 9 9 -0.063299298
1.7518392 6.0495768 -1.2242306 2 2 -0.063296996
3.9787056 13.730558 1.2506849 28 10 -0.063294694
2.3638599 8.1523991 -1.344398 1 3 -0.063292392
3.129209 10.784872 1.3788298 34 11 -0.063290082
2.576448 8.8682041 1.4626625 37 12 -0.063285477
3.8776677 13.347036 -1.2159969 10 5 -0.063283175
1.8628521 6.4078131 1.2971196 61 13 -0.063280866
4.0089779 13.781028 -0.75217241 9 6 -0.063278563
1.8768992 6.4477353 1.5503626 21 14 -0.063276261
4.626008 15.881456 -0.28873262 78 7 -0.063273959
1.4493172 4.9723806 1.3877878 1 15 -0.063271657
1.1845067 4.0454545 -1.1294864 10 0 -0.063250914
5.7276692 19.549099 0.35557532 57 8 -0.063248612
1.413394 4.8209348 -1.1598476 8 1 -0.06324631
5.5177913 18.808434 1.0272502 21 9 -0.063244008
1.7751576 6.0509596 -1.225757 2 2 -0.063241698
4.0243626 13.708941 1.2499877 26 10 -0.063239396
2.3967588 8.1592598 -1.3469009 1 3 -0.063237093
3.1673992 10.775788 1.3790736 35 11 -0.063234791
3.914674 13.300925 -1.2130336 10 5 -0.063227877
1.8857646 6.4031544 1.2975012 66 13 -0.063225575
4.0525384 13.751625 -0.75133508 7 6 -0.063223273
1.6728575 5.6729169 1.3654529 3 14 -0.063220963
4.6802888 15.861374 -0.28866282 80 7 -0.063218661
1.6767348 5.6787577 1.5865607 9 15 -0.063216358
1.19862 4.0412955 -1.1294864 9 0 -0.063195623
4.6483021 15.662297 0.28517231 63 8 -0.063193314
1.4357626 4.8346519 -1.1643466 5 1 -0.063191012
5.5828385 18.787146 1.0271456 21 9 -0.063188709
1.8029783 6.0673103 -1.2303365 2 2 -0.063186407
4.0721879 13.69481 1.2499877 26 10 -0.063184097
2.4252276 8.1508436 -1.3469009 1 3 -0.063181795
3.207258 10.772276 1.3800485 32 11 -0.063179493
2.6337867 8.834856 1.4601595 34 12 -0.063174888
3.9622211 13.290998 -1.2133822 10 5 -0.063172579
1.905858 6.3890076 1.2959747 62 13 -0.063170277
4.078805 13.66467 -0.74735755 15 6 -0.063167974
1.9302357 6.4624825 1.5571113 54 14 -0.063165672
4.7396321 15.858353 -0.28890714 71 7 -0.063163362
1.6982092 5.678422 1.5881137 13 15 -0.06316106
1.2127205 4.0370865 -1.1294864 14 0 -0.063140325
4.704093 15.649807 0.28524211 75 8 -0.063138023
1.4486998 4.8165479 -1.1611973 8 1 -0.063135713
5.6489649 18.769453 1.0272502 21 9 -0.063133411
1.8241478 6.0609789 -1.2303365 2 2 -0.063131109
4.1199641 13.680513 1.2499877 26 10 -0.063128807
4.0028043 13.28306 -2.1972787 1 3 -0.063126504
3.2414048 10.749611 1.3785861 32 11 -0.063124195
2.666321 8.8312817 1.4610981 31 12 -0.06311959
4.0143471 13.296161 -1.2151253 5 5 -0.063117288
1.9298533 6.3879542 1.2971196 58 13 -0.063114978
4.1276379 13.654172 -0.74756688 7 6 -0.063112676
1.9493957 6.4445143 1.5544118 56 14 -0.063110374
4.602632 15.206282 -0.27731875 25 7 -0.063108072
1.4923471 4.9273491 1.3795056 1 15 -0.063105762
1.2273664 4.034677 -1.130004 8 0 -0.063085027
4.7616086 15.642856 0.28541663 78 8 -0.063082725
1.4660708 4.8133264 -1.1616472 8 1 -0.063080423
5.7144442 18.74962 1.0272502 18 9 -0.06307812
1.8452923 6.054575 -1.2303365 2 2 -0.063075811
4.1694403 13.671764 1.2505106 23 10 -0.063073508
4.0376124 13.23122 -2.1910214 1 3 -0.063071206
3.2771671 10.732536 1.3778549 30 11 -0.063068904
2.7029052 8.8408117 1.4642268 34 12 -0.063064292
4.068305 13.306837 -1.2173914 5 5 -0.06306199
1.9567329 6.3961973 1.3001726 57 13 -0.063059688
4.4804373 14.63659 -0.80220562 61 6 -0.063057378
1.971881 6.4376698 1.5544118 61 14 -0.063055076
4.6345921 15.121293 -0.27606216 51 7 -0.063052773
1.506138 4.9110279 1.3763998 30 15 -0.063050471
1.2437184 4.0377526 -1.1320745 11 0 -0.063029736
4.8250222 15.654804 0.28594023 75 8 -0.063027427
1.4771193 4.7895579 -1.1571481 6 1 -0.063025124
5.6367497 18.265802 1.001815 21 9 -0.063022822
1.8664169 6.0480962 -1.2303365 2 2 -0.06302052
4.2206688 13.668548 1.2515564 23 10 -0.06301821
2.5104434 8.1250019 -1.3469009 1 3 -0.063015908
3.3146136 10.721031 1.3778549 27 11 -0.063013606
2.7296581 8.8181152 1.4620367 33 12 -0.063008994
4.1217966 13.315395 -1.2194831 3 5 -0.063006692
1.9802114 6.3930788 1.3009357 58 13 -0.063004389
4.4244852 14.275559 -0.78325999 39 6 -0.063002087
1.9931817 6.4270258 1.553512 63 14 -0.062999777
4.6903076 15.114573 -0.27623668 21 7 -0.062997475
1.52671 4.9168105 1.3795056 54 15 -0.062995173
1.2566543 4.0296988 -1.1310393 11 0 -0.062974438
6.0870352 19.507246 0.35669228 74 8 -0.062972136
1.4990574 4.8011136 -1.1611973 8 1 -0.062969826
5.8440104 18.705458 1.0270408 18 9 -0.062967524
1.8875161 6.0415449 -1.2303365 2 2 -0.062965222
4.2624078 13.634716 1.2498133 23 10 -0.062962919
2.5387919 8.116189 -1.3469009 1 3 -0.06296061
2.7598343 8.8066473 1.4617239 31 12 -0.062953703
4.1593175 13.272407 -1.2168685 3 5 -0.062951393
2.0007546 6.380507 1.299791 67 13 -0.062949091
4.468905 14.242879 -0.78231794 18 6 -0.062946789
2.0173571 6.4256067 1.5548617 54 14 -0.062944487
4.9833708 15.863124 -0.29023352 57 7 -0.062942185
1.5421246 4.9059229 1.3779527 16 15 -0.062939875
1.2701303 4.0234456 -1.1305215 11 0 -0.06291914
6.1556983 19.487785 0.35672718 84 8 -0.062916838
1.5175707 4.8014259 -1.162547 6 1 -0.062914535
5.9011979 18.670738 1.0262035 12 9 -0.062912226
1.8967524 5.9974823 -1.2227042 2 2 -0.062909923
4.3099794 13.619754 1.2498133 23 10 -0.062907621
2.5671093 8.107276 -1.3469009 1 3 -0.062905319
3.4115586 10.767649 1.3868732 1 11 -0.062903009
4.0908728 12.911716 -1.6630292 1 4 -0.062900707
2.7908161 8.8030939 1.4626625 33 12 -0.062898405
4.2098422 13.2711 -1.2180886 3 5 -0.062896103
2.0247922 6.3790994 1.3009357 53 13 -0.0628938
4.5373406 14.286202 -0.78556281 19 6 -0.062891491
1.7466609 5.4995103 1.3321601 13 14 -0.062889189
5.0450292 15.875098 -0.29075709 28 7 -0.062886886
1.5554565 4.8915768 1.3753644 18 15 -0.062884584
1.2846421 4.0228915 -1.1315569 9 0 -0.062863842
6.2215018 19.471075 0.35679698 84 8 -0.062861539
1.5334812 4.7963681 -1.162547 6 1 -0.062859237
6.0032105 18.776628 1.0331119 3 9 -0.062856935
1.9214175 6.0061178 -1.225757 2 2 -0.062854633
4.3545103 13.603489 1.249639 26 10 -0.062852323
2.5939744 8.0987206 -1.3469009 1 3 -0.062850021
3.4302859 10.703344 1.3800485 19 11 -0.062847719
4.1288238 12.882957 -1.6610793 1 4 -0.062845416
2.8224039 8.8013163 1.4639139 33 12 -0.062843107
4.252614 13.253272 -1.2177401 3 5 -0.062840804
2.0477371 6.3779573 1.3020806 48 13 -0.062838502
4.5779676 14.25016 -0.78441137 16 6 -0.0628362
1.7589267 5.4751348 1.3276612 5 14 -0.06283389
6.2359004 19.399267 -0.35568005 29 7 -0.062831588
1.8159686 5.6459246 1.589149 39 15 -0.062829286
1.2955996 4.0112567 -1.1294864 12 0 -0.062808551
6.2940364 19.475073 0.35725078 87 8 -0.062806249
1.5445826 4.7764225 -1.1589478 9 1 -0.062803939
6.0342889 18.649143 1.0272502 18 9 -0.062801637
1.9389051 5.9922419 -1.2242306 2 2 -0.062799335
4.4032826 13.600347 1.2506849 26 10 -0.062797032
3.462086 10.680581 1.3785861 21 11 -0.06279242
4.1700974 12.857135 -1.6596169 1 4 -0.062790118
2.8543267 8.7951689 1.4645396 33 12 -0.062787816
4.3100615 13.28079 -1.2215749 3 5 -0.062785506
2.0713 6.3786011 1.3036071 31 13 -0.062783204
4.8973808 15.072582 -0.83057171 1 6 -0.062780902
1.7792315 5.4726682 1.3285609 9 14 -0.0627786
6.3208857 19.430628 -0.35665739 79 7 -0.06277629
1.8392547 5.6505728 1.5922549 45 15 -0.062773988
1.3137959 4.0195637 -1.1331098 11 0 -0.062753253
6.3669372 19.468191 0.35753 84 8 -0.06275095
1.5612473 4.7710013 -1.1589478 8 1 -0.062748648
6.0993543 18.627964 1.0272502 18 9 -0.062746339
1.9549243 5.9705105 -1.2211776 2 2 -0.062744036
4.4488597 13.579217 1.250162 28 10 -0.062741734
2.6490443 8.0808754 -1.3469009 1 3 -0.062739432
3.4999683 10.670316 1.3788298 17 11 -0.062737122
4.2000861 12.797236 -1.6537671 1 4 -0.06273482
2.8831639 8.7795219 1.4636011 34 12 -0.062732518
4.3483162 13.241056 -1.2193089 3 5 -0.062730215
2.0929418 6.3694663 1.3032255 31 13 -0.062727906
5.156436 15.683418 -0.86521816 61 6 -0.062725604
1.7934536 5.4516149 1.3249618 11 14 -0.062723301
6.3886781 19.408445 -0.35665739 79 7 -0.062720999
1.8577551 5.6404495 1.5912195 43 15 -0.062718689
1.327818 4.0149531 -1.1331098 11 0 -0.062697954
6.4392586 19.459137 0.35777435 87 8 -0.062695652
1.5760553 4.7599721 -1.1575981 8 1 -0.06269335
6.160471 18.605738 1.0271456 21 9 -0.062691048
1.9658736 5.9338326 -1.2150718 2 2 -0.062688738
4.4968638 13.565495 1.2503363 59 10 -0.062686436
2.677238 8.071578 -1.3469009 1 3 -0.062684134
3.5403175 10.667455 1.3800485 17 11 -0.062681831
4.2534933 12.808871 -1.6571795 1 4 -0.062679522
2.9091473 8.7605391 1.4620367 35 12 -0.06267722
4.291482 12.915712 -1.1907218 1 5 -0.062674917
2.1164 6.3658481 1.3039887 32 13 -0.062672615
5.2117844 15.667216 -0.86532277 70 6 -0.062670305
1.816782 5.4582639 1.3281111 13 14 -0.062668003
6.4580617 19.40233 -0.35693663 79 7 -0.062665701
1.8727882 5.6232605 1.5881137 45 15 -0.062663399
1.3375348 3.9974689 -1.1294864 12 0 -0.062642664
6.5043912 19.439569 0.35780925 84 8 -0.062640354
1.5961586 4.7676563 -1.1607474 8 1 -0.062638052
6.2291727 18.595486 1.0277736 21 9 -0.06263575
1.9903196 5.9381027 -1.2173615 2 2 -0.062633447
4.5410247 13.540268 1.2494646 28 10 -0.062631138
2.7039878 8.0626564 -1.3469009 1 3 -0.062628835
3.5775652 10.661303 1.3807799 29 11 -0.062626533
2.9409697 8.7540741 1.4626625 35 12 -0.062621921
4.3504972 12.942204 -1.1945566 1 5 -0.062619619
2.1393738 6.3643785 1.3051336 23 13 -0.062617317
5.256711 15.629024 -0.86417139 63 6 -0.062615015
1.8354926 5.4540563 1.3285609 16 14 -0.062612712
6.5314884 19.396727 -0.35725078 87 7 -0.062610403
1.8905567 5.611196 1.5865607 41 15 -0.0626081
1.353259 4.0003319 -1.1315569 12 0 -0.062587366
6.5747685 19.424324 0.35794884 84 8 -0.062585063
1.6096668 4.7528262 -1.1584979 8 1 -0.062582754
6.2934098 18.571737 1.027669 25 9 -0.062580451
2.0087388 5.9277515 -1.2165983 2 2 -0.062578149
4.5922961 13.544005 1.2512078 80 10 -0.062575847
2.7321138 8.0531693 -1.3469009 1 3 -0.062573537
2.9753213 8.7549782 1.4645396 38 12 -0.062566631
4.4023705 12.954116 -1.1969969 1 5 -0.062564328
2.1609461 6.3550124 1.304752 27 13 -0.062562019
5.3022323 15.584106 -0.86270601 61 6 -0.062559716
1.8570306 5.4549956 1.3303605 43 14 -0.062557414
6.6036649 19.38706 -0.3574951 83 7 -0.062555112
1.9151191 5.6191907 1.5907019 41 15 -0.062552802
1.367839 3.9974113 -1.1320745 9 0 -0.062532067
6.6483579 19.418285 0.35826302 80 8 -0.062529765
1.6275119 4.750865 -1.1593977 8 1 -0.062527463
6.3562517 18.543987 1.027355 25 9 -0.062525161
2.0345094 5.9355612 -1.2196511 2 2 -0.062522851
4.6453595 13.544855 1.2527766 76 10 -0.062520549
2.76021 8.0435829 -1.3469009 1 3 -0.062518246
3.6493294 10.628557 1.3798048 34 11 -0.062515944
4.3361502 12.621709 -1.6386554 1 4 -0.062513635
3.0058658 8.7445383 1.4645396 35 12 -0.062511332
4.454042 12.957511 -1.19874 1 5 -0.06250903
2.1837533 6.3492875 1.3051336 30 13 -0.062506728
6.6603231 19.353952 -1.0726779 53 6 -0.062504418
1.8760623 5.4484797 1.3303605 11 14 -0.062502116
6.6778073 19.382799 -0.35784414 83 7 -0.062499814
1.3805218 3.9889612 -1.1310393 9 0 -0.062476773
6.7200313 19.406296 0.35847244 73 8 -0.062474471
1.6428086 4.7414727 -1.1584979 8 1 -0.062472165
6.4137526 18.500929 1.0262035 18 9 -0.062469862
2.0500734 5.9135833 -1.2165983 2 2 -0.062467556
4.6952271 13.536085 1.2534739 59 10 -0.062465254
4.3137236 12.415234 -1.613794 1 4 -0.06245834
3.0350728 8.7302618 1.4639139 35 12 -0.062456038
4.505785 12.960705 -1.2004832 1 5 -0.062453732
2.2065499 6.3434796 1.3055153 32 13 -0.06245143
6.72718 19.328701 -1.0725732 53 6 -0.062449124
1.896991 5.4474192 1.3317102 15 14 -0.062446821
6.7454309 19.359369 -0.35784414 87 7 -0.062444516
1.9555709 5.609333 1.5917372 37 15 -0.062442213
1.3989059 3.9968815 -1.1346627 15 0 -0.062421478
6.7956576 19.405371 0.35889128 80 8 -0.062419172
1.6625729 4.7449045 -1.1607474 9 1 -0.06241687
6.4868884 18.502928 1.0275643 25 9 -0.062414564
2.0810971 5.9360342 -1.2227042 2 2 -0.062412262
4.7384882 13.508334 1.2524281 100 10 -0.062409956
2.8162975 8.0241165 -1.3469009 1 3 -0.062407654
3.7359438 10.638406 1.3844359 48 11 -0.062405348
4.3530836 12.388865 -1.6123315 1 4 -0.062403046
3.0596344 8.7028408 1.4610981 11 12 -0.06240074
4.5556278 12.958053 -1.2017034 3 5 -0.062398437
2.2286808 6.3357382 1.3055153 66 13 -0.062396131
6.798583 19.316406 -1.0732012 53 6 -0.062393829
1.9179378 5.4462781 1.3330599 16 14 -0.062391523
6.81563 19.343248 -0.35798377 83 7 -0.062389221
1.9744958 5.6006513 1.5912195 39 15 -0.062386915
1.4089808 3.9810472 -1.1315569 11 0 -0.062347889
6.8673635 19.392838 0.3591007 87 8 -0.062345587
1.679773 4.7409101 -1.1611973 8 1 -0.062343281
6.5521007 18.482056 1.027669 28 9 -0.062340979
2.1044278 5.9361348 -1.2242306 2 2 -0.062338673
4.7876139 13.497343 1.2529509 49 10 -0.06233637
2.8271098 7.9658356 -1.3387663 1 3 -0.062334064
4.3936477 12.366111 -1.6113566 1 4 -0.062329456
3.1303546 8.8056459 1.4801831 1 12 -0.062327154
4.6014967 12.94395 -1.2018777 1 5 -0.062324848
2.258019 6.3482676 1.309713 33 13 -0.062322546
6.876688 19.322662 -1.074876 55 6 -0.06232024
1.9388971 5.4450579 1.3344096 15 14 -0.062317938
6.8193469 19.140387 -0.35466781 66 7 -0.062315632
1.9914404 5.5864453 1.589149 41 15 -0.062313329
1.4222189 3.9742856 -1.1310393 13 0 -0.062292594
6.9370341 19.374399 0.35920542 84 8 -0.062290289
1.6923695 4.72401 -1.1584979 8 1 -0.062287986
6.6246672 18.481632 1.0289251 28 9 -0.06228568
2.1224878 5.9213605 -1.2227042 2 2 -0.062283378
4.8441129 13.506805 1.2553912 100 10 -0.062281072
2.8722439 8.004261 -1.3469009 1 3 -0.06227877
4.4434948 12.369381 -1.613794 1 4 -0.062274162
3.1243219 8.6924238 1.4629753 6 12 -0.062271856
6.5612426 18.254555 -1.6970965 12 5 -0.062269554
2.2788377 6.3366513 1.3089497 23 13 -0.062267248
6.9440999 19.298538 -1.074876 55 6 -0.062264945
1.9605314 5.4455914 1.3362092 37 14 -0.062262639
6.9247522 19.223701 -0.35665739 43 7 -0.062260337
2.0135503 5.586729 1.5912195 45 15 -0.062258031
1.4373946 3.9729307 -1.1320745 12 0 -0.062237296
7.0127945 19.372627 0.3596243 94 8 -0.062234994
1.7115048 4.7254024 -1.1602976 8 1 -0.062232688
6.6877656 18.454643 1.0287156 28 9 -0.062230386
2.1565182 5.9508328 -1.2303365 2 2 -0.06222808
4.8919139 13.491687 1.2555656 117 10 -0.062225778
2.9001687 7.9941854 -1.3469009 1 3 -0.062223472
4.4988461 12.38738 -1.6181813 1 4 -0.062218864
3.1600447 8.6963167 1.4654782 33 12 -0.062216561
6.624248 18.229668 -1.6969223 27 5 -0.062214255
2.3096592 6.3526459 1.3139107 11 13 -0.062211953
7.0168805 19.289198 -1.0757134 55 6 -0.062209647
7.043119 19.34034 -0.35927522 76 7 -0.062205043
2.0317154 5.5760365 1.5901842 43 15 -0.062202737
1.453246 3.9733319 -1.1336274 9 0 -0.062182002
7.0886264 19.370564 0.36004314 94 8 -0.062179696
1.7253079 4.71208 -1.1584979 8 1 -0.062177394
6.7480264 18.419933 1.0280876 28 9 -0.062175088
2.177279 5.9432688 -1.2303365 2 2 -0.062172785
4.9478965 13.498846 1.2578317 57 10 -0.062170479
2.9280541 7.9840136 -1.3469009 1 3 -0.062168177
3.1890171 8.6815262 1.4648525 31 12 -0.062161267
6.8183646 18.561773 -1.7300414 100 5 -0.062158961
2.3365626 6.3574438 1.3165821 48 13 -0.062156659
7.0910687 19.283331 -1.0767601 58 6 -0.062154353
2.0133047 5.4720068 1.3461071 1 14 -0.06215205
7.1099014 19.313761 -0.35924035 87 7 -0.062149744
2.054507 5.5779743 1.5927725 46 15 -0.062147442
1.4637582 3.9591746 -1.1310393 9 0 -0.062126704
7.1645112 19.368212 0.36046201 94 8 -0.062124401
1.7424235 4.7078562 -1.1589478 6 1 -0.062122095
6.8199167 18.416866 1.0292389 31 9 -0.062119793
2.1871047 5.9061737 -1.2242306 2 2 -0.062117487
4.9922075 13.474022 1.2571344 100 10 -0.062115185
2.9559078 7.9737434 -1.3469009 1 3 -0.062112883
3.2144909 8.6573763 1.4626625 30 12 -0.062105969
6.9136357 18.620041 -1.7377112 27 5 -0.062103666
2.3566909 6.3437276 1.3154373 16 13 -0.06210136
2.342824 6.299664 1.5517124 17 14 -0.062096752
7.1849527 19.309439 -0.3596243 21 7 -0.06209445
1.4775685 3.9540412 -1.1310393 15 0 -0.062071409
7.1368384 19.088348 0.35571498 23 8 -0.062069103
1.7649879 4.7181726 -1.1629969 8 1 -0.062066801
6.8841577 18.392948 1.0292389 28 9 -0.062064499
2.2187176 5.9279232 -1.2303365 2 2 -0.062062193
5.0455027 13.473306 1.2587032 100 10 -0.06205989
2.9837255 7.963376 -1.3469009 1 3 -0.062057585
3.248858 8.6571989 1.4645396 31 12 -0.062050674
2.3829594 6.3464899 1.317727 11 13 -0.062046066
6.9487662 18.496706 -1.0355194 25 6 -0.06204376
2.3661728 6.2950954 1.5526122 43 14 -0.062041458
6.9615951 18.511227 -0.34520859 77 7 -0.062039152
2.0872726 5.5472231 1.5881137 39 15 -0.06203685
1.4920452 3.9506662 -1.1315569 11 0 -0.062016115
7.0662947 18.700424 0.34894341 100 8 -0.062013809
1.7745565 4.6937547 -1.1584979 8 1 -0.062011506
6.9564109 18.399912 1.0309138 28 9 -0.0620092
2.239398 5.9201422 -1.2303365 2 2 -0.062006898
5.0847421 13.435115 1.2567859 54 10 -0.062004592
3.0114994 7.9529147 -1.3469009 1 3 -0.06200229
3.2789428 8.650075 1.4651654 31 12 -0.061995376
5.5187478 14.551169 -1.361547 1 5 -0.061993074
2.4009211 6.3271198 1.3154373 11 13 -0.061990768
7.0168395 18.481672 -1.0360427 36 6 -0.061988465
7.0314598 18.510473 -0.34562746 74 7 -0.061983857
2.1097763 5.5511055 1.5912195 41 15 -0.061981551
1.5072033 3.9490442 -1.1325922 12 0 -0.061960816
7.1218557 18.660072 0.3486293 100 8 -0.061958514
1.7887228 4.6842031 -1.1575981 8 1 -0.061956208
7.0191751 18.371784 1.0307044 31 9 -0.061953906
2.2600484 5.9122896 -1.2303365 2 2 -0.0619516
3.0378578 7.9428835 -1.3469009 1 3 -0.061946992
4.0325265 10.538065 1.3854109 47 11 -0.06194469
3.3112395 8.6441097 1.466104 35 12 -0.061940081
6.1328082 16.001554 -1.4992532 2 5 -0.061937775
2.4246984 6.3264565 1.3169638 15 13 -0.061935473
7.0787997 18.460169 -1.0361474 19 6 -0.061933167
2.0815799 5.4255333 1.341608 3 14 -0.061930865
7.1046352 18.508215 -0.34604633 43 7 -0.061928563
2.1319096 5.550921 1.5932901 39 15 -0.061926257
1.5223745 3.9494328 -1.1341451 14 0 -0.061905522
7.1905417 18.644426 0.34880379 100 8 -0.061903216
1.8113779 4.6942925 -1.1616472 8 1 -0.061900914
7.0904512 18.365805 1.0317512 31 9 -0.061898608
2.2654986 5.8681326 -1.2227042 2 2 -0.061896306
5.1839714 13.420637 1.2587032 2 10 -0.061894
4.0793076 10.549847 1.3888232 100 11 -0.061889391
3.337117 8.6214447 1.4642268 33 12 -0.061884783
7.1869688 18.567539 -1.7418946 2 5 -0.061882481
2.4496017 6.3252773 1.3184903 28 13 -0.061880179
7.1525712 18.459558 -1.0375081 37 6 -0.061877873
2.1385448 5.5163512 1.3659029 1 14 -0.061875571
7.1720862 18.490761 -0.34618592 37 7 -0.061873265
2.149874 5.5398445 1.5922549 11 15 -0.061870962
1.5305432 3.9296927 -1.130004 14 0 -0.061850224
7.2657499 18.645298 0.34929249 100 8 -0.061847921
1.8277521 4.6879416 -1.1616472 8 1 -0.061845616
7.1537962 18.339081 1.0316465 28 9 -0.061843313
2.3002398 5.8967686 -1.2303365 2 2 -0.061841007
5.2496243 13.450715 1.2632353 2 10 -0.061838705
3.0932355 7.9214816 -1.3469009 1 3 -0.061836399
4.1052752 10.507806 1.385167 30 11 -0.061834097
3.3671892 8.6097441 1.4642268 33 12 -0.061829489
6.2880287 16.078194 -1.5104089 4 5 -0.061827186
2.4752448 6.3258295 1.3203983 28 13 -0.061824881
7.2315307 18.471672 -1.0396016 22 6 -0.061822578
2.1705794 5.5415139 1.374001 20 14 -0.061820272
7.2395115 18.473061 -0.34632558 40 7 -0.06181797
1.5428355 3.9207311 -1.1289687 12 0 -0.061794929
7.3337154 18.627266 0.34943208 100 8 -0.061792623
1.8448181 4.6833467 -1.1620972 9 1 -0.061790321
7.2192283 18.317715 1.0318558 28 9 -0.061788015
2.3208079 5.8887038 -1.2303365 2 2 -0.061785713
5.2658448 13.354464 1.2559142 2 10 -0.061783411
3.1208663 7.9106364 -1.3469009 1 3 -0.061781105
4.1616101 10.543265 1.391748 86 11 -0.061778802
3.3979461 8.5997753 1.4645396 31 12 -0.061774194
6.3646111 16.108032 -1.5152898 2 5 -0.061771888
2.4965906 6.3153238 1.3200166 10 13 -0.061769586
6.2043581 15.68643 -0.88405901 39 6 -0.06176728
2.1977961 5.5538354 1.3789499 52 14 -0.061764978
6.2821956 15.867007 -0.29787767 17 7 -0.061762672
1.8918118 4.7757406 1.3763998 1 15 -0.06176037
1.5579405 3.9189119 -1.130004 14 0 -0.061739635
7.4046092 18.616415 0.3497113 100 8 -0.061737329
1.8575511 4.6678257 -1.1598476 8 1 -0.061735027
7.2897797 18.309103 1.0327979 28 9 -0.061732721
2.3413508 5.8805666 -1.2303365 2 2 -0.061730418
5.2976861 13.298981 1.2524281 26 10 -0.061728112
3.148459 7.8996949 -1.3469009 1 3 -0.06172581
4.1726513 10.464138 1.3832171 30 11 -0.061723504
3.4316041 8.5970354 1.466104 33 12 -0.061718896
6.1726213 15.463977 -1.4567211 2 5 -0.061716594
2.5266283 6.3266273 1.3242146 2 13 -0.061714288
6.2264733 15.583069 -0.87945348 39 6 -0.061711986
2.2164474 5.5443206 1.3785001 48 14 -0.06170968
6.3018942 15.755862 -0.29620224 27 7 -0.061707377
1.8941174 4.7332358 1.366047 37 15 -0.061705071
1.5773692 3.9277918 -1.1341451 12 0 -0.061684337
7.4784904 18.612722 0.35013017 100 8 -0.061682034
1.873835 4.6613126 -1.1598476 6 1 -0.061679728
7.3454442 18.263163 1.0316465 25 9 -0.061677426
2.3472106 5.8359289 -1.2227042 2 2 -0.06167512
5.3507671 13.297043 1.2539967 28 10 -0.061672818
3.1760168 7.8886561 -1.3469009 1 3 -0.061670512
4.2232428 10.484496 1.3878481 63 11 -0.06166821
6.4642453 16.031794 -1.5123265 18 5 -0.061661296
2.5633886 6.3541818 1.3318468 1 13 -0.061658993
5.9668608 14.783363 -0.8354913 37 6 -0.061656687
5.9785633 14.797454 -0.2785753 31 7 -0.061652079
1.9164187 4.7409239 1.370188 30 15 -0.061649777
1.5932477 3.9276321 -1.135698 12 0 -0.061629042
7.5531969 18.610592 0.35058394 100 8 -0.061626736
1.8922951 4.6601591 -1.1611973 8 1 -0.061624434
7.4452291 18.326229 1.0366707 18 9 -0.061622128
2.3823452 5.864078 -1.2303365 2 2 -0.061619826
5.3971529 13.278283 1.2539967 28 10 -0.06161752
3.2035363 7.8775206 -1.3469009 1 3 -0.061615217
4.2403612 10.421885 1.381511 50 11 -0.061612912
2.9587963 7.264801 1.2424027 6 12 -0.061608303
6.5487289 16.079247 -1.5189503 16 5 -0.061606001
2.5714726 6.3106527 1.3245962 28 13 -0.061603695
5.9950581 14.70511 -0.83224642 42 6 -0.061601393
2.5664272 6.2919769 1.5688087 43 14 -0.061599091
6.0029693 14.709846 -0.27731875 34 7 -0.061596785
1.932227 4.7324166 1.3696705 41 15 -0.061594483
1.6032871 3.9131088 -1.1331098 14 0 -0.061573744
7.6249366 18.600767 0.35089809 100 8 -0.061571442
1.902634 4.6391025 -1.1575981 1 1 -0.061569136
7.484139 18.239153 1.0332165 21 9 -0.061566833
2.383424 5.8085022 -1.2204144 2 2 -0.061564527
5.4389334 13.248302 1.2529509 26 10 -0.061562225
3.2310126 7.8662915 -1.3469009 1 3 -0.061559919
4.2835083 10.423543 1.3837045 21 11 -0.061557617
2.972863 7.2270265 1.2377096 1 12 -0.061553009
6.6083727 16.05698 -1.5191245 14 5 -0.061550707
2.9640923 7.2021313 1.5138787 27 13 -0.061548401
6.0205007 14.6213 -0.82868761 39 6 -0.061546098
2.5802081 6.2631602 1.5638597 50 14 -0.061543792
6.0276127 14.624093 -0.27609706 36 7 -0.06154149
1.9472628 4.7220707 1.3686352 61 15 -0.061539184
1.6124448 3.894712 -1.1294864 14 0 -0.061518449
7.692874 18.581429 0.35103768 100 8 -0.061516143
1.9232917 4.6432343 -1.1602976 2 1 -0.061513841
7.5477562 18.212919 1.0332165 21 9 -0.061511535
2.4242463 5.8468804 -1.2303365 2 2 -0.061509233
5.4874516 13.22828 1.2529509 26 10 -0.061506931
3.2598243 7.8543954 -1.3469009 1 3 -0.061504625
4.3168259 10.401192 1.3827296 69 11 -0.061502323
2.9844327 7.1837687 1.232078 13 12 -0.061497714
6.6796803 16.070608 -1.5226108 2 5 -0.061495408
2.9874523 7.1839681 1.5123522 27 13 -0.061493106
6.0525641 14.547504 -0.82575679 46 6 -0.0614908
2.589668 6.2212772 1.5557615 12 14 -0.061488498
6.0524993 14.540194 -0.2749103 40 7 -0.061486192
1.9622455 4.7116795 1.3676 60 15 -0.06148389
1.6290118 3.8961885 -1.1315569 12 0 -0.061463151
7.7678685 18.569715 0.35135186 100 8 -0.061460849
1.935782 4.6253686 -1.1575981 1 1 -0.061458547
7.6066632 18.175406 1.0325886 21 9 -0.061456241
2.4218946 5.7840543 -1.2188879 2 2 -0.061453938
5.5328145 13.207211 1.2527766 26 10 -0.061451633
4.3526139 10.379808 1.3819984 26 11 -0.061447024
3.0178919 7.1933465 1.2355195 6 12 -0.061442416
3.0079517 7.1626353 1.5100625 27 13 -0.061437808
6.0731392 14.454474 -0.82167459 10 6 -0.061435506
2.6189191 6.2301645 1.5602605 12 14 -0.0614332
6.0784168 14.459989 -0.27379334 38 7 -0.061430898
1.984673 4.7190466 1.3717409 46 15 -0.061428592
1.64185 3.8886991 -1.1310393 14 0 -0.061407857
8.099309 19.183102 0.36346382 76 8 -0.061405554
1.952625 4.6225142 -1.1584979 1 1 -0.061403248
7.666955 18.14138 1.0321698 21 9 -0.061400946
2.4527729 5.8008814 -1.2242306 2 2 -0.06139864
5.5835438 13.198826 1.2538224 26 10 -0.061396338
3.3132083 7.832026 -1.3469009 1 3 -0.061394032
3.6078136 8.5160084 1.4648525 13 12 -0.061387122
3.0362864 7.1634655 1.5123522 31 13 -0.061382513
5.8785267 13.862406 -0.78912163 1 6 -0.061380208
2.6296685 6.1981244 1.5544118 15 14 -0.061377905
6.1069813 14.387141 -0.27281603 38 7 -0.061375599
2.0056632 4.7227597 1.3748468 37 15 -0.061373297
1.660794 3.8974514 -1.1351804 10 0 -0.061352562
8.1991644 19.23197 0.36492983 87 8 -0.061350256
1.9679856 4.6138773 -1.158048 2 1 -0.061347954
7.7239347 18.108511 1.0317512 21 9 -0.061345648
2.4689124 5.7854934 -1.2227042 2 2 -0.061343346
5.625721 13.176571 1.2534739 28 10 -0.06134104
3.340529 7.8204117 -1.3469009 1 3 -0.061338738
4.4317427 10.370023 1.3846796 39 11 -0.061336432
3.6445789 8.5239763 1.4682941 26 12 -0.061331823
2.6920311 6.2900825 1.3299388 10 13 -0.061327215
5.8655629 13.69859 -0.78095722 10 6 -0.061324913
2.6512899 6.1889067 1.5544118 15 14 -0.061322607
6.1215811 14.289609 -0.27135 38 7 -0.061320305
2.0243587 4.7231841 1.3769174 39 15 -0.061318003
1.6713357 3.8845317 -1.1331098 9 0 -0.061297264
8.2700043 19.221209 0.36524397 83 8 -0.061294962
1.9917517 4.6270146 -1.1629969 2 1 -0.061292656
7.7863045 18.079607 1.0316465 21 9 -0.061290354
2.4564655 5.7011127 -1.2066761 2 2 -0.061288048
5.6724734 13.158681 1.2536482 28 10 -0.061285745
4.4708266 10.366205 1.386142 109 11 -0.061281137
3.6719639 8.5057602 1.4673554 34 12 -0.061276529
3.0904222 7.1552501 1.5150236 27 13 -0.061271921
5.9180841 13.695565 -0.78189927 12 6 -0.061269619
2.4367127 5.6363049 1.4176416 46 14 -0.061267313
6.1444297 14.205752 -0.27016324 36 7 -0.06126501
2.0385308 4.7107706 1.3753644 15 15 -0.061262704
1.6826701 3.875423 -1.1320745 14 0 -0.061241969
8.3394346 19.197731 0.3653487 79 8 -0.061239664
2.0063343 4.6164608 -1.1620972 2 1 -0.061237361
7.8437963 18.039492 1.0309138 15 9 -0.061235055
2.5035415 5.75775 -1.2204144 2 2 -0.061232753
5.7136846 13.134321 1.2531252 11 10 -0.061230447
4.5046091 10.345075 1.3854109 74 11 -0.061225843
3.7032092 8.4965134 1.4679812 33 12 -0.061221235
6.0460582 13.871864 -1.3238957 1 5 -0.061218929
3.110673 7.1336203 1.5127338 29 13 -0.061216626
6.0057907 13.766355 -0.78713286 16 6 -0.06121432
2.4127159 5.5277476 1.392447 50 14 -0.061212018
6.1723766 14.134738 -0.26922083 40 7 -0.061209712
2.0889938 4.7815185 1.3981405 1 15 -0.06120741
1.6961868 3.8695261 -1.1320745 11 0 -0.061186671
8.4104166 19.177656 0.36552319 76 8 -0.061184369
2.0240035 4.612998 -1.1629969 1 1 -0.061182067
7.923573 18.050409 1.0331119 15 9 -0.061179761
2.5125756 5.7238092 -1.2150718 2 2 -0.061177459
5.759501 13.114295 1.2531252 21 10 -0.061175153
3.4208798 7.7855992 -1.3469009 1 3 -0.06117285
4.5462828 10.34201 1.387117 127 11 -0.061170544
3.733639 8.4853449 1.4682941 34 12 -0.061165936
6.0944405 13.850677 -1.3238957 1 5 -0.061163634
3.1347625 7.1209221 1.5123522 27 13 -0.061161328
6.0827856 13.81111 -0.79090106 22 6 -0.061159026
2.430424 5.5157261 1.3915472 22 14 -0.06115672
6.1926432 14.047232 -0.26796424 42 7 -0.061154418
2.4026942 5.4476404 1.5953608 20 15 -0.061152112
1.7112466 3.8671157 -1.1331098 9 0 -0.061131377
8.4894552 19.175606 0.36604679 82 8 -0.061129075
2.0274653 4.5773964 -1.1557984 1 1 -0.061126769
7.9800639 18.008032 1.0322745 18 9 -0.061124466
2.5484498 5.7509017 -1.2227042 2 2 -0.06112216
5.8092842 13.103216 1.2539967 26 10 -0.061119858
3.4320152 7.7374973 -1.3406435 1 3 -0.061117552
4.5799427 10.320632 1.3863858 58 11 -0.06111525
3.7688468 8.4848976 1.4704841 35 12 -0.061110642
2.7896664 6.277483 1.3352814 12 13 -0.061106034
6.1577382 13.850016 -0.79435521 19 6 -0.061103728
2.4116454 5.4217429 1.3699518 46 14 -0.061101425
6.2286277 13.996299 -0.26740578 44 7 -0.061099119
2.4193394 5.4339252 1.5938078 15 15 -0.061096817
1.7231599 3.85759 -1.1320745 11 0 -0.061076082
8.5710211 19.178719 0.36667505 90 8 -0.061073776
2.0482047 4.580965 -1.1584979 1 1 -0.061071474
8.0412407 17.976423 1.0320652 18 9 -0.061069168
2.5685072 5.7419715 -1.2227042 2 2 -0.061066866
5.8582406 13.090134 1.2546941 23 10 -0.06106456
3.4751499 7.761528 -1.3469009 1 3 -0.061062258
4.6305456 10.337193 1.3907731 137 11 -0.061059952
3.7919786 8.4572687 1.4679812 33 12 -0.061055344
6.1909876 13.807792 -1.3238957 1 5 -0.061053041
3.1892209 7.1096115 1.5146419 25 13 -0.061050735
6.2534742 13.934125 -0.80042619 10 6 -0.061048433
2.4225755 5.3955135 1.3654529 43 14 -0.061046127
6.2979279 14.020077 -0.26827839 46 7 -0.061043825
2.4390833 5.4272094 1.5943254 16 15 -0.061041519
1.7374082 3.8533134 -1.1325922 11 0 -0.061023951
8.6486101 19.172379 0.36712882 93 8 -0.061021648
2.0689938 4.5844445 -1.1611973 1 1 -0.061019342
8.1121559 17.966448 1.0331119 18 9 -0.06101704
2.5804546 5.7150779 -1.2188879 2 2 -0.061014734
5.8973398 13.055078 1.2532996 23 10 -0.061012432
3.5022237 7.7493491 -1.3469009 1 3 -0.061010126
4.6616912 10.310114 1.3893106 61 11 -0.061007824
3.8190355 8.4385805 1.4670426 34 12 -0.061003216
6.2605104 13.833289 -1.3284278 1 5 -0.06100091
3.2172563 7.1055908 1.5161684 26 13 -0.060998607
6.0441275 13.342768 -0.76766384 36 6 -0.060996301
2.4518535 5.4100986 1.3713017 9 14 -0.060993999
6.3674703 14.043539 -0.26915103 42 7 -0.060991693
2.1555512 4.7518849 1.3981405 1 15 -0.060989391
1.7468481 3.8384333 -1.130004 10 0 -0.060968656
8.7220984 19.156639 0.36740807 93 8 -0.06096635
2.0801361 4.5665541 -1.1584979 2 1 -0.060964048
8.1739979 17.936203 1.0330071 21 9 -0.060961742
2.5922482 5.68817 -1.2150718 2 2 -0.06095944
5.9461713 13.041668 1.2539967 23 10 -0.060957134
3.5292511 7.7370777 -1.3469009 1 3 -0.060954832
3.8533912 8.4359798 1.4689198 34 12 -0.060947917
6.3286242 13.854848 -1.3326113 1 5 -0.060945615
3.2355134 7.0800304 1.5131154 25 13 -0.060943309
6.0865111 13.312509 -0.76714051 88 6 -0.060941007
2.7973957 6.1156831 1.5526122 36 14 -0.060938701
6.4397554 14.072139 -0.27012834 42 7 -0.060936399
2.1351314 4.6635327 1.3743292 7 15 -0.060934093
1.7626544 3.837579 -1.1315569 12 0 -0.060913358
8.7939281 19.136976 0.36761749 93 8 -0.060911056
2.0911808 4.5486412 -1.1557984 1 1 -0.06090875
8.2373877 17.909376 1.0331119 18 9 -0.060906447
2.6104457 5.6755199 -1.2143085 2 2 -0.060904142
5.9958272 13.029881 1.2548684 21 10 -0.060901839
3.5397174 7.6888223 -1.3406435 1 3 -0.060899533
4.7011685 10.207 1.3798048 8 11 -0.060897231
3.8836436 8.4242706 1.4692327 33 12 -0.060892623
6.123735 13.271234 -0.76598912 13 6 -0.060885709
2.8211784 6.1111884 1.5539619 43 14 -0.060883407
6.5131564 14.102221 -0.27114061 48 7 -0.060881104
2.5006435 5.4118929 1.5974313 50 15 -0.060878798
1.7817276 3.8436713 -1.1351804 14 0 -0.060858063
8.8749819 19.136999 0.36821088 90 8 -0.060855757
2.1119637 4.5519218 -1.1584979 1 1 -0.060853455
8.2931299 17.866018 1.0322745 18 9 -0.060851149
2.648428 5.7055492 -1.2227042 2 2 -0.060848847
6.0412769 13.00887 1.2548684 21 10 -0.060846541
3.5831761 7.7122517 -1.3469009 1 3 -0.060844239
4.7350984 10.186926 1.3793174 11 11 -0.060841933
3.9205205 8.4267855 1.4720485 37 12 -0.060837328
2.9261374 6.2865772 1.3478748 1 13 -0.06083272
5.9465971 12.769973 -0.73825109 1 6 -0.060830414
2.8359053 6.0871735 1.5503626 42 14 -0.060828112
6.5919075 14.142838 -0.27236226 44 7 -0.060825806
2.5244191 5.4136357 1.6005371 56 15 -0.060823504
1.7975904 3.8426776 -1.1367333 12 0 -0.060802765
8.9493542 19.122206 0.36852503 93 8 -0.060800463
2.1261888 4.5409918 -1.1575981 1 1 -0.060798157
8.3591022 17.85289 1.0331119 6 9 -0.060795855
2.6550045 5.6678233 -1.2165983 2 2 -0.060793549
6.0908742 12.996725 1.2557399 19 10 -0.060791247
3.5933056 7.6639252 -1.3406435 1 3 -0.060788944
4.7858052 10.202683 1.3837045 4 11 -0.060786638
3.9425712 8.4012203 1.4698585 35 12 -0.06078203
3.314487 7.0564222 1.5154052 25 13 -0.060777422
4.5708623 9.726799 -0.56323957 16 6 -0.06077512
2.8569062 6.0794992 1.5508126 36 14 -0.060772814
6.6540818 14.153475 -0.27299055 42 7 -0.060770512
2.5456479 5.4122262 1.6026076 56 15 -0.060768206
1.8045502 3.8244672 -1.1331098 12 0 -0.060747471
9.0221024 19.112316 0.36890897 82 8 -0.060745165
2.1512229 4.5550604 -1.1629969 1 1 -0.060742863
8.4165573 17.821457 1.0329025 18 9 -0.06074056
2.670429 5.6518884 -1.2150718 2 2 -0.060738254
6.1279769 12.963848 1.2545198 21 10 -0.060735952
3.6355927 7.6876812 -1.3469009 1 3 -0.060733646
4.835741 10.220851 1.3883356 1 11 -0.060731344
4.5632215 9.6448526 -1.3100955 29 4 -0.060729038
3.9653358 8.377387 1.4679812 35 12 -0.060726736
4.5637617 9.6372919 -0.93291503 16 5 -0.06072443
3.3361862 7.0418439 1.5146419 25 13 -0.060722128
4.5654511 9.6321793 -0.55863404 19 6 -0.060719822
2.5039597 5.2828484 1.3497064 20 14 -0.060717519
6.7258306 14.183728 -0.27400279 46 7 -0.060715213
2.5602684 5.3967738 1.6005371 60 15 -0.060712911
1.8147312 3.8132288 -1.1315569 15 0 -0.060692176
9.0914536 19.094929 0.36915329 86 8 -0.06068987
2.1529069 4.519753 -1.1557984 1 1 -0.060687568
8.4907408 17.817215 1.034368 18 9 -0.060685262
2.6705747 5.6040111 -1.2066761 2 2 -0.06068296
6.1743655 12.950646 1.255217 9 10 -0.060680654
3.6610646 7.6755838 -1.3469009 1 3 -0.060678352
4.8533626 10.17072 1.3837045 14 11 -0.060676046
4.5463996 9.5231724 -1.295715 18 4 -0.060673743
4.0013676 8.3777533 1.4704841 38 12 -0.060671438
4.5466957 9.5152369 -0.92263067 21 5 -0.060669135
3.0192525 6.3186331 1.3612314 6 13 -0.060666829
4.5491314 9.5160761 -0.5527724 27 6 -0.060664527
2.5282719 5.2863808 1.3528557 22 14 -0.060662221
6.8046494 14.221494 -0.27518955 48 7 -0.060659919
2.5807581 5.3912892 1.6015723 54 15 -0.060657613
1.8337175 3.8169987 -1.1346627 13 0 -0.060636878
9.1364098 19.018013 0.36828068 45 8 -0.060634576
2.1737347 4.5227489 -1.1584979 2 1 -0.06063227
8.5520124 17.785669 1.0342633 21 9 -0.060629968
2.7268434 5.6684909 -1.2227042 2 2 -0.060627662
6.2217879 12.927931 1.255217 21 10 -0.060625359
3.6891706 7.6621141 -1.3469009 1 3 -0.060623053
4.888833 10.153718 1.3837045 24 11 -0.060620751
4.5365429 9.4178219 -1.2835281 18 4 -0.060618445
4.0271544 8.356617 1.4692327 26 12 -0.060616143
4.5469952 9.4311123 -0.9160068 19 5 -0.060613837
3.0313015 6.2845368 1.3562704 1 13 -0.060611535
4.5336313 9.395009 -0.54670143 28 6 -0.060609229
2.546782 5.2753243 1.3524057 31 14 -0.060606927
6.8794527 14.249884 -0.27620178 42 7 -0.060604624
2.6088052 5.4013829 1.6072664 46 15 -0.060602318
1.8470293 3.810575 -1.1346627 12 0 -0.060581584
9.1118155 18.790077 0.36451098 39 8 -0.060579278
2.1851943 4.5042315 -1.1557984 1 1 -0.060576975
8.611043 17.741625 1.0335306 18 9 -0.060574669
2.7037497 5.5706277 -1.2036232 2 2 -0.060572367
6.2668805 12.906133 1.255217 23 10 -0.060570061
3.7158959 7.649189 -1.3469009 1 3 -0.060567759
4.9234152 10.130375 1.3829734 17 11 -0.060565453
4.5293627 9.3154411 -1.2718287 18 4 -0.060563151
4.0568943 8.340023 1.4689198 11 12 -0.060560845
4.5328283 9.3184319 -0.90659404 19 5 -0.060558543
3.3917017 6.969451 1.5066279 24 13 -0.06055624
4.5235615 9.2911358 -0.54157251 30 6 -0.060553934
2.5600624 5.2558904 1.3497064 44 14 -0.060551632
6.9561663 14.274904 -0.27717912 44 7 -0.060549326
1.8586212 3.8006339 -1.1336274 15 0 -0.060526285
9.0806856 18.560568 0.36067143 38 8 -0.060523983
2.2111833 4.5175805 -1.1611973 1 1 -0.060521677
8.6746731 17.71505 1.0337399 18 9 -0.060519375
2.7231772 5.5611567 -1.2036232 2 2 -0.060517069
6.3180318 12.896701 1.2564372 23 10 -0.060514767
3.7425723 7.6361723 -1.3469009 1 3 -0.060512461
4.9596181 10.114909 1.3832171 17 11 -0.060510159
4.5146446 9.2033329 -1.2586666 19 4 -0.060507856
4.0946832 8.3435459 1.4720485 38 12 -0.06050555
4.5310926 9.2327976 -0.89979583 16 5 -0.060503248
3.0932693 6.3002315 1.3642844 13 13 -0.060500942
4.5066571 9.1748972 -0.53571087 62 6 -0.06049864
2.5947216 5.2801523 1.3582544 31 14 -0.060496334
7.0262408 14.291811 -0.27798194 38 7 -0.060494032
2.6755261 5.4397821 1.6243484 3 15 -0.060491726
1.8752946 3.801053 -1.135698 12 0 -0.060470991
9.0595627 18.35482 0.35728565 40 8 -0.060468685
2.2183123 4.4923606 -1.1566983 1 1 -0.060466383
8.7417707 17.695404 1.034368 18 9 -0.060464077
2.7512696 5.5692182 -1.2074393 2 2 -0.060461774
6.36654 12.881715 1.2571344 23 10 -0.060459472
4.5134168 9.1281939 -1.6128395 1 3 -0.060457166
4.9957781 10.099314 1.3834609 16 11 -0.060454864
4.5159245 9.125248 -1.2501358 54 4 -0.060452558
4.1202784 8.3221197 1.4707971 41 12 -0.060450256
4.5235152 9.1365747 -0.89195186 17 5 -0.06044795
3.1230865 6.3052278 1.3677189 30 13 -0.060445648
4.536881 9.1555319 -0.53550154 73 6 -0.060443342
2.6166008 5.2780461 1.3600541 16 14 -0.06044104
9.03792 18.222744 -0.35505179 35 7 -0.060438734
2.6747479 5.3906083 1.6124427 15 15 -0.060436431
1.8808054 3.7789183 -1.1310393 14 0 -0.060415696
9.0362253 18.147661 0.353865 100 8 -0.06041339
2.2391925 4.4950566 -1.1593977 1 1 -0.060411088
8.7847729 17.627241 1.0321698 6 9 -0.060408782
2.7794492 5.5771527 -1.2112557 2 2 -0.06040648
6.4114637 12.859414 1.2571344 23 10 -0.060404174
4.5258532 9.0734959 -1.6059564 1 3 -0.060401872
5.0345449 10.088921 1.3844359 16 11 -0.060399566
