# .PCD v0.7 - Point Cloud Data file format
VERSION 0.7
FIELDS x y z intensity ring time
SIZE 4 4 4 4 2 4
TYPE F F F F U F
COUNT 1 1 1 1 1 1
WIDTH 915
HEIGHT 1
VIEWPOINT 0 0 0 1 0 0 0
POINTS 915
DATA ascii
-0.88381857 0.91362387 0.34060588 79 15 -0.089322373
-0.43858847 0.45464784 -0.16926767 61 0 -0.089301638
-0.91770047 0.95130306 0.023072081 33 8 -0.089299336
-0.40581903 0.42082527 -0.13497064 73 1 -0.089297034
-0.924568 0.95909125 0.069816172 100 9 -0.089294724
-0.44411352 0.46085784 -0.12440747 19 2 -0.089292422
-0.92059731 0.95563978 0.11609145 100 10 -0.08929012
-0.9211902 0.95658964 0.1630612 100 11 -0.089285508
-0.92456794 0.96076763 0.21118654 88 12 -0.089280903
-0.60914272 0.633214 -0.076871365 4 5 -0.089278601
-0.88197809 0.9168309 0.24728847 83 13 -0.089276291
-0.88324761 0.91847146 -0.066780686 1 6 -0.089273989
-0.87919164 0.91457307 0.29288626 94 14 -0.089271687
-0.95051229 0.98910934 -0.023944702 54 7 -0.089269385
-0.88330066 0.91948974 0.34164116 78 15 -0.089267075
-0.43173182 0.45052055 -0.16719711 62 0 -0.08924634
-0.91299123 0.95305651 0.023037177 24 8 -0.089244038
-0.41647801 0.43490645 -0.13901976 84 1 -0.089241736
-0.91845191 0.95942748 0.069606826 100 9 -0.089239433
-0.43172187 0.45098263 -0.12135453 20 2 -0.089237124
-0.92155588 0.96300584 0.11661438 100 10 -0.089234821
-0.91921741 0.96123403 0.16330492 100 11 -0.089230217
-0.91711432 0.95970488 0.21024795 80 12 -0.089225605
-0.63858259 0.66847199 -0.08088053 7 5 -0.089223303
-0.88419688 0.92558253 0.24881494 81 13 -0.089221001
-0.92969346 0.97354871 -0.070548877 1 6 -0.089218691
-0.87464815 0.91622692 0.29243636 90 14 -0.089216389
-0.9442926 0.98952788 -0.023874892 90 7 -0.089214087
-0.88541955 0.92815876 0.3437117 77 15 -0.089211784
-0.43274081 0.45489916 -0.16823238 83 0 -0.089191049
-0.92206329 0.9692772 0.023351319 36 8 -0.08918874
-0.42167175 0.4434185 -0.14126927 81 1 -0.089186437
-0.92060184 0.9684177 0.070025519 100 9 -0.089184135
-0.4381806 0.4611007 -0.12364423 29 2 -0.089181833
-0.91527534 0.96348828 0.11626577 100 10 -0.089179523
-0.92269117 0.97163421 0.16452362 100 11 -0.089174919
-0.91103894 0.96003479 0.2096222 69 12 -0.089170307
-0.66504079 0.70105177 -0.084541067 2 5 -0.089168005
-0.88890433 0.93736428 0.25110465 83 13 -0.089165702
-0.93985957 0.99144447 -0.071595594 7 6 -0.0891634
-0.87530553 0.92367011 0.29378608 96 14 -0.089161098
-0.93808186 0.98991513 -0.023805084 100 7 -0.089158788
-0.87951726 0.92843866 0.34267643 79 15 -0.089156486
-0.42584381 0.45078966 -0.16616184 63 0 -0.089135751
-0.9143855 0.96828848 0.023246605 52 8 -0.089133449
-0.42673239 0.4520463 -0.14351878 80 1 -0.089131139
-0.92390007 0.97904831 0.070548877 100 9 -0.089128837
-0.42578891 0.45120454 -0.12059129 20 2 -0.089126535
-0.91190654 0.96667725 0.11626577 100 10 -0.089124233
-0.92593211 0.98223186 0.16574231 100 11 -0.089119621
-0.91699582 0.97343224 0.2118123 63 12 -0.089115016
-0.87024683 0.92380607 -0.11103641 1 5 -0.089112714
-0.87755096 0.93188596 0.24881494 83 13 -0.089110404
-0.93776214 0.9961735 -0.071700267 15 6 -0.089108102
-0.87741798 0.93239629 0.29558566 96 14 -0.0891058
-0.93307716 0.99189025 -0.023770178 100 7 -0.089103498
-0.87346137 0.92884159 0.34164116 79 15 -0.089101188
-0.44012803 0.46918094 -0.17237349 59 0 -0.089080453
-0.91920727 0.98022658 0.023456035 68 8 -0.089078151
-0.40915871 0.43647236 -0.13811995 84 1 -0.089075848
-0.9259395 0.98809713 0.070967562 100 9 -0.089073546
-0.43629321 0.46558127 -0.12402585 29 2 -0.089071237
-0.91533744 0.97712463 0.11713732 100 10 -0.089068934
-0.91707134 0.97966123 0.16476737 100 11 -0.08906433
-0.91629124 0.97951245 0.21243803 61 12 -0.089059718
-0.86429465 0.9239282 -0.11068779 1 5 -0.089057416
-0.87697458 0.93781155 0.24957818 81 13 -0.089055113
-0.91382056 0.97755504 -0.070130184 14 6 -0.089052804
-0.87947989 0.94114894 0.29738528 99 14 -0.089050502
-0.93506944 1.0009866 -0.023909798 100 7 -0.089048199
-0.87285101 0.93470854 0.34267643 77 15 -0.089045897
-0.42268631 0.45375165 -0.16616184 63 0 -0.089025162
-0.92123115 0.98928303 0.023595655 84 8 -0.089022852
-0.41958287 0.45073521 -0.14216907 81 1 -0.08902055
-0.91976374 0.98839879 0.070758224 100 9 -0.089018248
-0.43600282 0.46853843 -0.12440747 29 2 -0.089015946
-0.91870618 0.98760784 0.11800887 100 10 -0.089013636
-0.91499782 0.98431021 0.16501111 100 11 -0.089009032
-0.91689956 0.98704708 0.21337664 57 12 -0.08900442
-0.86106402 0.92693979 -0.11068779 2 5 -0.089002118
-0.87636763 0.943744 0.25034142 83 13 -0.088999815
-0.9267084 0.99830443 -0.071386255 7 6 -0.088997513
-0.87618923 0.94421315 0.29738528 96 14 -0.088995203
-0.93700963 1.0101084 -0.024049416 100 7 -0.088992901
-0.87746429 0.94624895 0.34578225 78 15 -0.088990599
-0.43159455 0.46656948 -0.17030294 60 0 -0.088969864
-0.91777241 0.9924925 0.023595655 98 8 -0.088967562
-0.41139281 0.44504219 -0.13991956 83 1 -0.088965252
-0.9217298 0.9974708 0.071176901 100 9 -0.08896295
-0.42770267 0.4628481 -0.12249938 30 2 -0.088960648
-0.91795695 0.99373573 0.11835749 100 10 -0.088958345
-0.91694224 0.99333274 0.16598606 100 11 -0.088953733
-0.91210943 0.98878944 0.21306378 54 12 -0.088949129
-0.84161246 0.91236585 -0.10859605 4 5 -0.088946819
-0.87839162 0.95257056 0.25186789 85 13 -0.088944517
-0.92186415 1.000065 -0.071281582 29 6 -0.088942215
-0.87288821 0.94726568 0.29738528 96 14 -0.088939913
-0.92805868 1.0074899 -0.023909798 100 7 -0.08893761
-0.88200736 0.95783305 0.34888807 78 15 -0.088935301
-0.43265924 0.47084314 -0.17133822 60 0 -0.088894844
-0.91988724 1.0014212 0.023735272 100 8 -0.088892542
-0.40464249 0.44066244 -0.13811995 84 1 -0.08889024
-0.91841698 1.0005219 0.071176901 100 9 -0.08888793
-0.42882067 0.4671565 -0.12326261 39 2 -0.088885628
-0.90792114 0.98943436 0.11748594 100 10 -0.088883325
-0.91498476 0.99783099 0.1662298 100 11 -0.088878714
-0.89681453 0.97870111 0.21024795 53 12 -0.088874109
-0.89780802 0.97978532 -0.11626577 2 5 -0.088871807
-0.88318455 0.96416438 0.25415757 83 13 -0.088869497
-0.9266358 1.0119542 -0.071909614 47 6 -0.088867195
-0.87237382 0.95303005 0.2982851 99 14 -0.088864893
-0.92741245 1.0135125 -0.023979606 100 7 -0.08886259
-0.87621874 0.9579016 0.34785283 78 15 -0.088860281
-0.41929361 0.45950714 -0.16667947 63 0 -0.088839546
-0.91638595 1.0046262 0.023735272 100 8 -0.088837244
-0.42148432 0.46223187 -0.14441857 78 1 -0.088834941
-0.92299175 1.0125781 0.071804941 100 9 -0.088832639
-0.42983249 0.47155237 -0.12402585 39 2 -0.088830329
-0.90982985 0.99848819 0.11818319 100 10 -0.088828027
-0.92218816 1.012761 0.16817972 100 11 -0.088823423
-0.89073372 0.97890347 0.2096222 53 12 -0.088818811
-0.85281438 0.93723065 -0.11086211 2 5 -0.088816509
-0.87452948 0.96143222 0.25263113 85 13 -0.088814206
-0.93115968 1.0240488 -0.072537638 43 6 -0.088811897
-0.8742848 0.96183759 0.30008471 96 14 -0.088809595
-0.93059289 1.0241435 -0.02415413 100 7 -0.088807292
-0.86767393 0.95523429 0.34578225 78 15 -0.08880499
-0.43195602 0.47671524 -0.17237349 79 0 -0.088784255
-0.91153085 1.0063369 0.023700368 100 8 -0.088781945
-0.40809622 0.45069939 -0.14036946 82 1 -0.088779643
-0.92365044 1.0200748 0.072118953 100 9 -0.088777341
-0.42554897 0.47013876 -0.12326261 39 2 -0.088775039
-0.91034907 1.0060904 0.11870612 100 10 -0.088772729
-0.90932786 1.0056666 0.16647354 100 11 -0.088768125
-0.89410561 0.98917913 0.21118654 52 12 -0.088763513
-0.77607131 0.85889518 -0.10127497 1 5 -0.08876121
-0.86853635 0.96156502 0.25186789 81 13 -0.088758908
-0.92088687 1.0198811 -0.07201428 8 6 -0.088756606
-0.87614489 0.97066993 0.30188429 96 14 -0.088754304
-0.92853129 1.0287082 -0.024189034 100 7 -0.088751994
-0.86708981 0.96097499 0.34681752 77 15 -0.088749692
-0.43287364 0.4810923 -0.17340876 78 0 -0.088728957
-0.91353905 1.0153 0.023839988 100 8 -0.088726655
-0.4065994 0.45205021 -0.14036946 82 1 -0.088724345
-0.91874897 1.0218074 0.07201428 100 9 -0.088722043
-0.44227886 0.49206313 -0.12860526 46 2 -0.088719741
-0.91748446 1.0211182 0.12010061 100 10 -0.088717438
-0.90864086 1.0116303 0.16696103 100 11 -0.088712826
-0.88932782 0.99082416 0.21087368 53 12 -0.088708222
-0.87058735 0.970285 0.25339437 83 13 -0.08870361
-0.89082825 0.99319303 -0.069920845 1 6 -0.088701308
-0.86771762 0.9677664 0.30008471 94 14 -0.088699006
-0.93027377 1.0378994 -0.024328655 100 7 -0.088696703
-0.87146503 0.97262871 0.34992337 77 15 -0.088694394
-0.4325633 0.48396558 -0.17392641 58 0 -0.088673659
-0.91798317 1.0274302 0.024049416 100 8 -0.088671356
-0.40761536 0.45637351 -0.14126927 81 1 -0.088669054
-0.90985578 1.0190489 0.071595594 100 9 -0.088666745
-0.41972387 0.47009555 -0.12249938 40 2 -0.088664442
-0.91807324 1.0286144 0.12062354 100 10 -0.08866214
-0.90642542 1.0162774 0.16720475 100 11 -0.088657536
-0.88192099 0.98949832 0.20993507 55 12 -0.088652924
-0.87764323 0.98504478 0.25644732 83 13 -0.088648319
-0.86433434 0.97078925 0.30008471 96 14 -0.088643707
-0.91866803 1.032178 -0.024119226 100 7 -0.088641405
-0.87063283 0.97855139 0.35095865 77 15 -0.088639103
-0.43600079 0.49125183 -0.17599694 57 0 -0.08861836
-0.92368138 1.0410988 0.024293751 100 8 -0.088616058
-0.42024341 0.47383094 -0.14621818 90 1 -0.088613756
-0.91424274 1.0311859 0.072223626 100 9 -0.088611454
-0.42589483 0.48037207 -0.12478909 39 2 -0.088609152
-0.90786994 1.0243573 0.11975199 100 10 -0.088606842
-0.91208512 1.0298378 0.16891092 100 11 -0.088602237
-0.87060654 0.98369533 0.20805787 55 12 -0.088597625
-0.87419921 0.98810261 0.25644732 85 13 -0.088593021
-0.86868489 0.98256016 0.30278412 99 14 -0.088588409
-0.91770798 1.0383751 -0.024189034 100 7 -0.088586107
-0.86976993 0.98447973 0.35199389 82 15 -0.088583805
-0.42534208 0.48262563 -0.17237349 79 0 -0.08856307
-0.91475397 1.0383151 0.02415413 100 8 -0.088560767
-0.42245075 0.47968233 -0.14756788 76 1 -0.088558458
-0.91591698 1.0403669 0.072642311 100 9 -0.088556156
-0.41902635 0.47596145 -0.12326261 39 2 -0.088553853
-0.90165615 1.0245289 0.11940337 100 10 -0.088551551
-0.908485 1.0330151 0.16891092 100 11 -0.088546939
-0.87107927 0.99117994 0.20899647 57 12 -0.088542335
-0.87074494 0.99114788 0.25644732 81 13 -0.088537723
-0.87296349 0.9943735 0.30548352 94 14 -0.088533118
-0.92199212 1.0505902 -0.024398465 100 7 -0.088530809
-0.86505419 0.9860577 0.35147628 74 15 -0.088528506
-0.42365479 0.48410743 -0.17237349 59 0 -0.088507771
-0.90717405 1.0369866 0.024049416 100 8 -0.088505469
-0.4130767 0.47235245 -0.14486848 78 1 -0.088503167
-0.91753787 1.0495725 0.073060997 100 9 -0.088500857
-0.42253095 0.48333359 -0.12478909 39 2 -0.088498555
-0.90462965 1.0351713 0.12027492 100 10 -0.088496253
-0.90487355 1.03618 0.16891092 100 11 -0.088491641
-0.87410837 1.0016561 0.21056081 70 12 -0.088487037
-0.86727989 0.99418128 0.25644732 90 13 -0.088482425
-0.87460953 1.0032903 0.30728313 100 14 -0.08847782
-0.92094672 1.0568173 -0.024468275 100 7 -0.088475518
-0.86668241 0.99489808 0.35354683 76 15 -0.088473216
-0.42956531 0.49433261 -0.17547932 77 0 -0.088452473
-0.91141731 1.0492046 0.024258846 100 8 -0.088450171
-0.39992589 0.46054888 -0.14081937 82 1 -0.088447869
-0.91125005 1.0497524 0.072851658 100 9 -0.088445567
-0.42470211 0.48925325 -0.12593395 57 2 -0.088443257
-0.90884578 1.0473514 0.12132079 100 10 -0.088440955
-0.90385211 1.0423319 0.16939841 100 11 -0.08843635
-0.8731938 1.007687 0.21118654 70 12 -0.088431738
-0.87151676 1.0061063 0.258737 83 13 -0.088427134
-0.86855131 1.0033903 0.30638334 96 14 -0.088422522
-0.92379451 1.0675863 -0.024642797 100 7 -0.08842022
-0.86952347 1.0052228 0.35613501 78 15 -0.088417917
-0.43162328 0.5002169 -0.17703223 56 0 -0.088397183
-0.91427958 1.0599509 0.024433369 100 8 -0.088394873
-0.41231409 0.47817644 -0.14576827 78 1 -0.088392571
-0.9075802 1.0529269 0.072851658 100 9 -0.088390268
-0.41786453 0.48478451 -0.12440747 58 2 -0.088387966
-0.91558844 1.0625926 0.12271529 100 10 -0.088385656
-0.90279865 1.0484892 0.16988587 100 11 -0.088381052
-0.86967093 1.0107287 0.21118654 70 12 -0.088376448
-0.87568086 1.0180727 0.26102671 81 13 -0.088371836
-0.86504352 1.0064161 0.30638334 99 14 -0.088367231
-0.91484952 1.0647376 -0.024503179 50 7 -0.088364922
-0.86978579 1.0126481 0.35768795 76 15 -0.088362619
-0.42861772 0.50025338 -0.1765146 57 0 -0.088341884
-0.9170785 1.0707296 0.024607893 100 8 -0.088339582
-0.40810776 0.47665218 -0.14486848 78 1 -0.088337272
-0.9129898 1.0667104 0.073584363 100 9 -0.08833497
-0.41361642 0.4832572 -0.12364423 59 2 -0.088332668
-0.90539753 1.0582125 0.12184373 100 10 -0.088330366
-0.90558296 1.0591784 0.17110457 100 11 -0.088325754
-0.8661378 1.0137582 0.21118654 70 12 -0.088321149
-0.87212151 1.0211234 0.26102671 90 13 -0.088316537
-0.86152542 1.0094293 0.30638334 99 14 -0.088311933
-0.89944589 1.0542334 -0.024189034 16 7 -0.088309631
-0.86624587 1.0156779 0.35768795 72 15 -0.088307321
-0.42686877 0.50174659 -0.1765146 57 0 -0.088286586
-0.90297091 1.061738 0.024328655 100 8 -0.088284284
-0.41275275 0.48549724 -0.14711799 89 1 -0.088281982
-0.90796763 1.0683687 0.07347969 100 9 -0.088279679
-0.41701266 0.49068189 -0.12517071 57 2 -0.08827737
-0.90169787 1.0613667 0.12184373 100 10 -0.088275068
-0.90059566 1.0608195 0.17086083 100 11 -0.088270463
-0.86642742 1.0212947 0.21212517 73 12 -0.088265851
-0.8634727 1.018172 0.25950024 83 13 -0.088261247
-0.67030984 0.7906819 -0.054324731 1 6 -0.088258937
-0.8705954 1.0272975 0.31088236 96 14 -0.088256635
-0.84922761 1.0024383 -0.022932461 19 7 -0.088254333
-0.8601979 1.0157472 0.35665265 67 15 -0.08825203
-0.42012817 0.49733046 -0.17444403 58 0 -0.088231295
-0.89925951 1.0648834 0.024328655 91 8 -0.088228986
-0.4060272 0.48097876 -0.14531837 100 1 -0.088226683
-0.91472679 1.083583 0.074317068 100 9 -0.088224381
-0.42542663 0.50413775 -0.12822366 55 2 -0.088222079
-0.90441114 1.0721221 0.12271529 100 10 -0.088219769
-0.89944637 1.066992 0.1713483 100 11 -0.088215165
-0.86940068 1.0317148 0.21368951 70 12 -0.088210553
-0.86750114 1.0301902 0.26178995 85 13 -0.088205948
-0.62638694 0.74412161 -0.050975226 1 6 -0.088203646
-0.87220401 1.0361421 0.31268197 100 14 -0.088201337
-0.67337161 0.80022085 -0.018255217 23 7 -0.088199034
-0.8642866 1.0274642 0.3597585 69 15 -0.088196732
-0.41847652 0.49872106 -0.17444403 38 0 -0.088175997
-0.90214849 1.0755203 0.024503179 76 8 -0.088173695
-0.40443006 0.48232245 -0.14531837 91 1 -0.088171385
-0.90599555 1.0804884 0.073898375 100 9 -0.088169083
-0.4187077 0.49952745 -0.12669718 57 2 -0.088166781
-0.90468943 1.079697 0.12323821 100 10 -0.088164479
-0.89717728 1.0714911 0.17159206 100 11 -0.088159867
-0.86851013 1.0376221 0.21431525 70 12 -0.088155262
-0.86659902 1.0360733 0.26255319 87 13 -0.08815065
-0.60982311 0.72934037 -0.049823835 8 6 -0.088148348
-0.86376286 1.033049 0.31088236 99 14 -0.088146046
-0.63993561 0.76562595 -0.017417502 57 7 -0.088143744
-0.86830634 1.0392197 0.36286432 69 15 -0.088141434
-0.41434678 0.49713796 -0.17340876 19 0 -0.088120699
-0.90369731 1.0846511 0.024642797 53 8 -0.088118397
-0.4115583 0.49414286 -0.14846769 100 1 -0.088116094
-0.90477395 1.0867144 0.074107721 100 9 -0.088113785
-0.41570568 0.49947694 -0.12631556 57 2 -0.088111483
-0.90875155 1.0918794 0.12428409 100 10 -0.08810918
-0.89742738 1.0790389 0.17232326 100 11 -0.088104568
-0.86614567 1.0421664 0.21462812 73 12 -0.088099964
-0.87301195 1.0511743 0.26560614 90 13 -0.08809536
-0.6047222 0.72839117 -0.049614493 8 6 -0.08809305
-0.85766226 1.0330588 0.30998254 100 14 -0.088090748
-0.62321156 0.75092834 -0.017033549 91 7 -0.088088445
-0.86714071 1.0452178 0.36389959 67 15 -0.088086143
-0.41744766 0.50460726 -0.17547932 38 0 -0.088065401
-0.9035393 1.0925789 0.024747513 34 8 -0.088063098
-0.41843584 0.50616181 -0.15161701 84 1 -0.088060796
-0.90205747 1.0915627 0.074212395 100 9 -0.088058494
-0.41512242 0.50251091 -0.12669718 66 2 -0.088056192
-0.8996675 1.0890588 0.12358684 100 10 -0.088053882
-0.90736794 1.0991602 0.17500439 100 11 -0.088049278
-0.8560347 1.0377152 0.21306378 68 12 -0.088044666
-0.87040186 1.0558821 0.26598775 99 13 -0.088040061
-0.6071288 0.73676825 -0.050033178 6 6 -0.088037759
-0.86130565 1.0452192 0.31268197 99 14 -0.088035449
-0.62554091 0.75938112 -0.017173167 93 7 -0.088033147
-0.85839164 1.0424241 0.36182904 64 15 -0.088030845
-0.42662877 0.51957119 -0.18013807 36 0 -0.08801011
-0.89191598 1.0866094 0.024538083 29 8 -0.088007808
-0.41657794 0.50769198 -0.15161701 84 1 -0.088005498
-0.9081834 1.1072156 0.075049765 100 9 -0.088003196
-0.43328717 0.52824384 -0.13280307 51 2 -0.088000894
-0.89567012 1.0923487 0.12358684 100 10 -0.087998591
-0.90333295 1.1024787 0.17500439 100 11 -0.087993979
-0.85723156 1.0469592 0.21431525 70 12 -0.087989375
-0.86173713 1.0528368 0.26446128 100 13 -0.087984763
-0.61087722 0.74661177 -0.050556537 1 6 -0.087982461
-0.85993665 1.0513855 0.31358176 100 14 -0.087980159
-0.61515874 0.75238031 -0.016963739 98 7 -0.087977849
-0.85945553 1.0515461 0.36389959 64 15 -0.087975547
-0.45777223 0.56148398 -0.1941143 30 0 -0.087954812
-0.89569783 1.0990165 0.024747513 45 8 -0.08795251
-0.40495613 0.49705669 -0.14801779 88 1 -0.087950207
-0.9093582 1.1165733 0.075468451 100 9 -0.087947898
-0.41656348 0.5114857 -0.12822366 55 2 -0.087945595
-0.89939934 1.1047388 0.12463271 100 10 -0.087943293
-0.89697379 1.1025453 0.17451692 100 11 -0.087938681
-0.86229402 1.0606747 0.21650532 73 12 -0.087934077
-0.8568188 1.0543146 0.26407966 100 13 -0.087929465
-0.60323012 0.74253869 -0.050137851 1 6 -0.087927163
-0.86363208 1.0634575 0.31628117 93 14 -0.08792486
-0.6200909 0.76383799 -0.017173167 84 7 -0.087922558
-0.86064881 1.0605402 0.36597013 63 15 -0.087920249
-0.48376569 0.59761417 -0.20601997 25 0 -0.087899514
-0.90443486 1.1176816 0.025096562 60 8 -0.087897211
-0.41302344 0.51058787 -0.15161701 84 1 -0.087894909
-0.90168738 1.115082 0.075154446 100 9 -0.087892607
-0.42711988 0.52820271 -0.13203983 52 2 -0.087890297
-0.89929473 1.1125202 0.12515564 100 10 -0.087887995
-0.8893773 1.1010371 0.1737857 100 11 -0.08788339
-0.85982722 1.065215 0.21681818 78 12 -0.087878779
-0.50181848 0.62168837 -0.069898903 7 5 -0.087876476
-0.86546165 1.0725782 0.26789585 93 13 -0.087874174
-0.6507917 0.80682296 -0.054324731 1 6 -0.087871864
-0.8599149 1.0664655 0.31628117 87 14 -0.087869562
-0.62118542 0.77066875 -0.017277883 75 7 -0.08786726
-0.86179012 1.069555 0.36804068 61 15 -0.087864958
-0.51193279 0.6369434 -0.21896091 20 0 -0.087844223
-0.8930133 1.1114783 0.024887133 22 8 -0.087841913
-0.40879813 0.50898767 -0.1507172 85 1 -0.087839611
-0.8940385 1.1135502 0.074840426 93 9 -0.087837309
-0.41298246 0.51438135 -0.12822366 64 2 -0.087835006
-0.90164149 1.1234215 0.12602721 100 10 -0.087832697
-0.89670652 1.1180719 0.17597936 100 11 -0.087828092
-0.8561039 1.0682098 0.21681818 78 12 -0.08782348
-0.86662269 1.0817213 0.26942232 93 13 -0.087818876
-0.64797151 0.8090896 -0.054324731 1 6 -0.087816574
-0.85131568 1.0633755 0.31448159 96 14 -0.087814271
-0.60849547 0.7603423 -0.016998643 54 7 -0.087811962
-0.87011933 1.0876421 0.37321708 59 15 -0.08780966
-0.55067581 0.6900661 -0.23656061 13 0 -0.087788925
-0.90658611 1.1364745 0.0253758 9 8 -0.087786622
-0.41187876 0.51650614 -0.15251681 84 1 -0.087784313
-0.89886051 1.127597 0.075573131 87 9 -0.08778201
-0.41363186 0.51889032 -0.1289869 63 2 -0.087779708
-0.8927477 1.1203296 0.12532996 100 10 -0.087777406
-0.89527106 1.1243012 0.17646682 100 11 -0.087772794
-0.85482973 1.0742832 0.21744394 76 12 -0.08776819
-0.86772972 1.0908859 0.2709488 83 13 -0.087763578
-0.85851151 1.0800705 0.31853068 82 14 -0.087758973
-0.60459387 0.76089597 -0.016963739 35 7 -0.087756671
-0.86151153 1.0846218 0.3711465 61 15 -0.087754361
-0.56745869 0.71621132 -0.24484283 10 0 -0.087733626
-0.89640599 1.131794 0.025201276 54 8 -0.087731324
-0.41249272 0.52099633 -0.15341662 83 1 -0.087729022
-0.89987719 1.1369917 0.075991817 87 9 -0.08772672
-0.41669172 0.5264886 -0.13051336 63 2 -0.08772441
-0.89006799 1.1250013 0.12550427 100 10 -0.087722108
-0.9011904 1.1398771 0.17841674 100 11 -0.087717503
-0.85229886 1.078811 0.21775681 78 12 -0.087712891
-0.86269999 1.0923673 0.27056718 70 13 -0.087708287
-0.86680847 1.0983585 0.32302973 80 14 -0.087703675
-0.60441136 0.76614159 -0.017033549 27 7 -0.087701373
-0.86489815 1.0967237 0.37425235 58 15 -0.087699071
-0.59362084 0.75462872 -0.25726613 4 0 -0.087678336
-0.89245009 1.1349158 0.025201276 52 8 -0.087676026
-0.41067147 0.5224331 -0.15341662 83 1 -0.087673724
-0.90330678 1.1495489 0.076619849 77 9 -0.087671421
-0.42455542 0.54028952 -0.13356631 60 2 -0.087669119
-0.88121277 1.1218339 0.12480702 100 10 -0.08766681
-0.89475429 1.1398931 0.17792925 100 11 -0.087662205
-0.47423714 0.60438198 -0.094326884 4 4 -0.087659903
-0.85584289 1.0911049 0.21963401 76 12 -0.087657593
-0.8564586 1.0922823 0.26980394 63 13 -0.087652989
-0.86777699 1.1075132 0.32482934 76 14 -0.087648377
-0.6115976 0.78084105 -0.017312787 23 7 -0.087646075
-0.867019 1.1073416 0.37684056 57 15 -0.087643772
-0.60525244 0.77496648 -0.2634778 6 0 -0.087623037
-0.84910399 1.0875858 0.024084322 10 8 -0.087620735
-0.41124338 0.52693588 -0.15431643 100 1 -0.087618425
-0.89191747 1.1432464 0.075991817 12 9 -0.087616123
-0.42508221 0.544864 -0.13432954 51 2 -0.087613821
-0.88831866 1.1390432 0.12637582 100 10 -0.087611519
-0.88832963 1.1398777 0.17744178 100 11 -0.087606907
-0.86052537 1.1049953 0.22182411 84 12 -0.087602302
-0.85987681 1.1045601 0.27209365 55 13 -0.087597691
-0.85911983 1.1043828 0.32302973 78 14 -0.087593086
-0.59904796 0.77034253 -0.017033549 20 7 -0.087590784
-0.86907685 1.1179873 0.37942874 61 15 -0.087588474
-0.6324228 0.81502038 -0.27641875 10 0 -0.08754921
-0.69247967 0.892739 0.019721219 5 8 -0.087546907
-0.41436252 0.5343852 -0.15611602 100 1 -0.087544605
-0.89199191 1.1507788 0.076305829 23 9 -0.087542295
-0.41134065 0.53067982 -0.13051336 63 2 -0.087539993
-0.89449865 1.1544278 0.12777032 100 10 -0.087537691
-0.8725909 1.1269671 0.17500439 100 11 -0.087533079
-0.84858817 1.0967567 0.21963401 76 12 -0.087528475
-0.8588044 1.1103622 0.27285689 15 13 -0.087523863
-0.85326284 1.1039922 0.32212991 78 14 -0.087519258
-0.59540206 0.77063841 -0.016998643 13 7 -0.087516956
-0.86792171 1.1237701 0.38046399 64 15 -0.087514646
-0.64121825 0.83263892 -0.28159514 12 0 -0.087493911
-0.84431231 1.096362 0.02415413 12 8 -0.087491609
-0.41011703 0.53274012 -0.15521623 81 1 -0.087489307
-0.89527816 1.1633822 0.076933861 69 9 -0.087487005
-0.41178709 0.53529596 -0.13127659 62 2 -0.087484695
-0.88540292 1.151381 0.12707306 61 10 -0.087482393
-0.89647782 1.166204 0.18061039 100 11 -0.087477788
-0.84716105 1.1028454 0.22025976 76 12 -0.087473176
-0.84157962 1.0963715 0.26865909 1 13 -0.087468572
-0.8586989 1.1194825 0.32572913 82 14 -0.08746396
-0.60001099 0.78223199 -0.017208073 6 7 -0.087461658
-0.86281842 1.1252596 0.37994638 72 15 -0.087459356
-0.64417481 0.84254539 -0.28418332 14 0 -0.087438621
-0.86821717 1.1359913 0.024956942 70 8 -0.087436311
-0.4128941 0.5404337 -0.15701583 78 1 -0.087434009
-0.89585745 1.1730047 0.077352546 49 9 -0.087431706
-0.41944918 0.54921222 -0.13432954 59 2 -0.087429404
-0.88258779 1.1560481 0.12724738 23 10 -0.087427095
-0.900626 1.1805294 0.18231656 100 11 -0.08742249
-0.84670627 1.1106558 0.22119835 73 12 -0.087417878
-0.83774763 1.0993023 0.26865909 1 13 -0.087413274
-0.85714746 1.1255735 0.32662892 82 14 -0.087408669
-0.58260489 0.76533252 -0.016789215 3 7 -0.08740636
-0.85634834 1.1253401 0.37891111 72 15 -0.087404057
-0.64707005 0.85248256 -0.28677151 18 0 -0.087383322
-0.83886284 1.1055616 0.024223939 88 8 -0.08738102
-0.396873 0.52324009 -0.15161701 84 1 -0.087378711
-0.90503091 1.1936315 0.078503944 10 9 -0.087376408
-0.41515699 0.54754424 -0.13356631 60 2 -0.087374106
-0.88697118 1.1702369 0.12846756 73 10 -0.087371804
-0.88691109 1.1710066 0.18036664 61 11 -0.087367192
-0.46372369 0.61248577 -0.094326884 4 4 -0.08736489
-0.85355288 1.1277807 0.22401418 70 12 -0.087362587
-0.81969059 1.0834321 0.26407966 1 13 -0.087357976
-0.86026436 1.1378859 0.32932836 78 14 -0.087353371
-0.59439808 0.78650552 -0.017208073 3 7 -0.087351069
-0.86755371 1.1483607 0.38564041 66 15 -0.087348759
-0.65339112 0.86707896 -0.29091263 9 0 -0.087328024
-0.60158414 0.79861879 0.017452406 22 8 -0.087325722
-0.40676659 0.5401895 -0.15611602 100 1 -0.08732342
-0.90446252 1.2015703 0.078817956 37 9 -0.08732111
-0.4179661 0.55526417 -0.13509277 58 2 -0.087318808
-0.89006877 1.1828779 0.12951343 100 10 -0.087316506
-0.86969548 1.1566424 0.17768551 21 11 -0.087311901
-0.84249109 1.121278 0.22213697 28 12 -0.087307289
-0.81590396 1.0862865 0.26407966 1 13 -0.087302685
-0.84926802 1.1315305 0.32662892 82 14 -0.087298073
-0.65165424 0.86855274 -0.018953314 2 7 -0.087295771
-0.87976766 1.1730186 0.39288735 53 15 -0.087293468
-0.66308969 0.88637042 -0.29660663 11 0 -0.087272726
-0.59639776 0.79751086 0.017382598 38 8 -0.087270424
-0.40371159 0.54004544 -0.15566613 92 1 -0.087268122
-0.89428461 1.196721 0.078294598 79 9 -0.087265819
-0.40897387 0.54728395 -0.13280307 60 2 -0.087263517
-0.8930887 1.1955546 0.1305593 100 10 -0.087261207
-0.88346416 1.183533 0.18134159 86 11 -0.087256603
-0.45943671 0.61570799 -0.094326884 4 4 -0.087254301
-0.84920204 1.1384624 0.22495279 13 12 -0.087251991
-0.47769514 0.64041054 -0.069898903 7 5 -0.087249689
-0.82149535 1.1017194 0.26713261 1 13 -0.087247387
-0.84414899 1.1329254 0.32617903 83 14 -0.087242775
-0.66773033 0.89648181 -0.019511791 2 7 -0.087240472
-0.88605076 1.1900282 0.39754605 64 15 -0.08723817
-0.64962542 0.87472123 -0.2919479 13 0 -0.087217435
-0.58884215 0.79316562 0.017242977 42 8 -0.087215133
-0.41227621 0.55553526 -0.15971525 76 1 -0.087212823
-0.89129198 1.2014391 0.078399271 100 9 -0.087210521
-0.40940052 0.55186164 -0.13356631 60 2 -0.087208219
-0.88653624 1.1954644 0.13021068 100 10 -0.087205917
-0.88878292 1.1993687 0.18329151 100 11 -0.087201305
-0.45728454 0.61730808 -0.094326884 4 4 -0.087199003
-0.83229196 1.1239568 0.22151121 41 12 -0.0871967
-0.8223173 1.1108919 0.26865909 1 13 -0.087192088
-0.84830165 1.146832 0.32932836 80 14 -0.087187484
-0.6955086 0.94061202 -0.020419316 4 7 -0.087185174
-0.88878155 1.2024349 0.4006519 70 15 -0.087182872
-0.62707961 0.85054952 -0.28314805 18 0 -0.087162137
-0.58369696 0.7919969 0.017173167 42 8 -0.087159835
-0.41380224 0.56167769 -0.16106495 86 1 -0.087157533
-0.8953836 1.2158003 0.079131976 100 9 -0.087155223
-0.41911387 0.56909549 -0.13738248 56 2 -0.087152921
-0.87881392 1.1937385 0.12968774 100 10 -0.087150618
-0.88929641 1.2088597 0.18426646 100 11 -0.087146007
-0.45512679 0.61890066 -0.094326884 4 4 -0.087143704
-0.84942335 1.1555043 0.22714287 68 12 -0.087141402
-0.82308489 1.1200836 0.27018553 1 13 -0.08713679
-0.84775317 1.1544985 0.33067805 83 14 -0.087132186
-0.88509595 1.2057942 -0.0261088 13 7 -0.087129883
-0.88457841 1.2055302 0.4006519 73 15 -0.087127581
-0.62867039 0.85896909 -0.2852186 26 0 -0.087106839
-0.57384449 0.78434616 0.016963739 43 8 -0.087104537
-0.40493664 0.55368114 -0.15836555 100 1 -0.087102234
-0.89938515 1.2302048 0.079864673 100 9 -0.087099932
-0.41248995 0.5642156 -0.135856 57 2 -0.087097622
-0.87934428 1.203233 0.13038498 100 10 -0.08709532
-0.88507098 1.2119567 0.18426646 100 11 -0.087090716
-0.84422046 1.1568666 0.22683001 81 12 -0.087086104
-0.83999604 1.1514996 0.27705467 1 13 -0.087081499
-0.85060579 1.1668991 0.33337748 86 14 -0.087076887
-0.89030296 1.2218053 -0.02638804 21 7 -0.087074585
-0.88605243 1.216418 0.40324008 82 15 -0.087072283
-0.62680352 0.86272144 -0.28573623 30 0 -0.087051548
-0.57815385 0.79605228 0.017173167 33 8 -0.087049238
-0.3961322 0.54562938 -0.15566613 100 1 -0.087046936
-0.88218087 1.2155563 0.078713283 77 9 -0.087044634
-0.41513035 0.57200778 -0.13738248 56 2 -0.087042332
-0.87864906 1.2111331 0.13090792 100 10 -0.087040022
-0.88083476 1.2150391 0.18426646 100 11 -0.087035418
-0.84133565 1.1614063 0.22714287 78 12 -0.087030813
-0.82445645 1.1385238 0.27323848 1 13 -0.087026201
-0.84309983 1.1651251 0.33202776 82 14 -0.087021597
-0.89540845 1.237868 -0.026667278 21 7 -0.087019287
-0.88180119 1.2195033 0.40324008 65 15 -0.087016985
-0.62491846 0.86647081 -0.28625387 30 0 -0.08699625
-0.58706594 0.81428659 0.017522216 24 8 -0.086993948
-0.39878258 0.55333269 -0.15746574 90 1 -0.086991638
-0.86997122 1.2071327 0.077980585 43 9 -0.086989336
-0.41313127 0.57345331 -0.13738248 56 2 -0.086987033
-0.88489467 1.2287439 0.13247673 78 10 -0.086984731
-0.87774783 1.2197175 0.1845102 100 11 -0.086980119
-0.83978707 1.1673969 0.22776861 76 12 -0.086975515
-0.84454173 1.1748712 0.28125247 2 13 -0.086970903
-0.8437804 1.1742445 0.33382738 73 14 -0.086966299
-0.87963253 1.224589 -0.026318228 12 7 -0.086963996
-0.88338578 1.2302672 0.40582827 48 15 -0.086961687
-0.61641765 0.86068535 -0.28366569 40 0 -0.086940952
-0.58203447 0.81297684 0.017452406 10 8 -0.086938649
-0.41282338 0.57683808 -0.16376437 82 1 -0.086936347
-0.60094386 0.83969885 0.054115385 23 9 -0.086934045
-0.40208912 0.56204629 -0.13432954 59 2 -0.086931735
-0.87617958 1.2251889 0.13177948 60 10 -0.086929433
-0.88754851 1.2420025 0.18743508 100 11 -0.086924829
-0.44665962 0.62503892 -0.094326884 4 4 -0.086922519
-0.82213265 1.1508865 0.22401418 42 12 -0.086920217
-0.82809442 1.1600881 0.27705467 1 13 -0.086915612
-0.84440982 1.1833812 0.33562699 75 14 -0.086911
-0.85350311 1.1965678 -0.025655037 1 7 -0.086908698
-0.88154453 1.2363354 0.40686354 53 15 -0.086906396
-0.59788495 0.84068447 -0.27641875 34 0 -0.086885661
-0.85394001 1.2011666 0.025724847 8 8 -0.086883351
-0.41542357 0.58455789 -0.16556399 90 1 -0.086881049
-0.58875537 0.82876575 0.053278007 32 9 -0.086878747
-0.41614085 0.58578372 -0.13967219 63 2 -0.086876445
-0.87672585 1.2345858 0.13247673 100 10 -0.086874135
-0.88916856 1.2530335 0.18865377 37 11 -0.08686953
-0.44447494 0.62659436 -0.094326884 4 4 -0.086867228
-0.83524919 1.1779201 0.22870721 33 12 -0.086864918
-0.81515998 1.1500145 0.27400175 1 13 -0.086860314
-0.84027356 1.1863217 0.33562699 71 14 -0.086855702
-0.87833935 1.2409823 0.40738121 72 15 -0.086851098
-0.60720241 0.86012655 -0.28211278 20 0 -0.086830363
-0.87510771 1.2400843 0.026492754 21 8 -0.08682806
-0.40327084 0.57167268 -0.16151486 95 1 -0.086825751
-0.58585906 0.83081567 0.053278007 37 9 -0.086823449
-0.41409373 0.58723265 -0.13967219 55 2 -0.086821146
-0.88044667 1.2490376 0.1336969 100 10 -0.086818844
-0.88250333 1.2528837 0.18816628 100 11 -0.086814232
-0.44228518 0.62814194 -0.094326884 4 4 -0.08681193
-0.84250247 1.196982 0.23183592 60 12 -0.086809628
-0.83825433 1.1913882 0.28316057 1 13 -0.086805016
-0.84285247 1.1988124 0.33832639 75 14 -0.086800411
-0.88177621 1.2551056 0.41100466 95 15 -0.086795799
-0.6064133 0.86540514 -0.28314805 18 0 -0.086775064
-0.88913012 1.2693369 0.027051231 25 8 -0.086772762
-0.39456621 0.56349909 -0.15881544 99 1 -0.08677046
-0.57493812 0.82140201 0.052545305 31 9 -0.08676815
-0.41091534 0.58706617 -0.13929057 63 2 -0.086765848
-0.87722379 1.2537357 0.13387121 100 10 -0.086763546
-0.87243688 1.2478223 0.18694758 100 11 -0.086758934
-0.48102853 0.68825692 -0.10310147 3 4 -0.086756632
-0.84963214 1.216109 0.23496459 68 12 -0.08675433
-0.80935973 1.1588966 0.27476496 1 13 -0.086749725
-0.83866245 1.2017474 0.33832639 71 14 -0.086745113
-0.69676757 0.99879289 -0.021257032 2 7 -0.086742811
-0.88512456 1.2692684 0.41462815 100 15 -0.086740509
-0.60434043 0.86920804 -0.28366569 20 0 -0.086719766
-0.88241047 1.2691494 0.026981421 51 8 -0.086717464
-0.39927 0.57447416 -0.16151486 95 1 -0.086715162
-0.57206756 0.82340384 0.052545305 16 9 -0.08671286
-0.4020417 0.57889313 -0.13700087 65 2 -0.086710557
-0.8828485 1.2716725 0.13544002 100 10 -0.086708248
-0.87713027 1.2639067 0.18889751 100 11 -0.086703643
-0.46957102 0.67688364 -0.10115156 3 4 -0.086701341
-0.83412546 1.2028347 0.23183592 70 12 -0.086699031
-0.83865315 1.2102656 0.28621352 1 13 -0.086694427
-0.83536178 1.2064151 0.33877629 75 14 -0.086689815
-0.68758518 0.99299866 -0.021082507 14 7 -0.086687513
-0.89168382 1.2882347 0.41980451 100 15 -0.08668521
-0.60239965 0.87290239 -0.28418332 22 0 -0.086664476
-0.88343072 1.280605 0.027155945 64 8 -0.086662173
-0.40711859 0.59037203 -0.16556399 100 1 -0.086659864
-0.76288384 1.1066897 0.070444204 6 9 -0.086657561
-0.40447539 0.58675873 -0.13852733 64 2 -0.086655259
-0.87162131 1.2649027 0.13439415 100 10 -0.086652957
-0.45831329 0.6653558 -0.12796341 1 3 -0.086650647
-0.8781206 1.2752882 0.1901162 100 11 -0.086648345
-0.50535452 0.73419625 -0.10943868 2 4 -0.086646043
-0.82859111 1.2042567 0.23152302 73 12 -0.086643741
-0.85222405 1.2390672 0.29231939 20 13 -0.086639129
-0.8333528 1.2125361 0.33967611 68 14 -0.086634524
-0.66242599 0.9641965 -0.020419316 9 7 -0.086632214
-0.87711358 1.2771617 0.41514575 100 15 -0.086629912
-0.60153258 0.8781873 -0.2852186 24 0 -0.086609177
-0.87669533 1.2803811 0.027086135 17 8 -0.086606875
-0.41276002 0.60304654 -0.1687133 86 1 -0.086604573
-0.84698546 1.2379178 0.078608617 26 9 -0.086602263
-0.40242487 0.58816695 -0.13852733 64 2 -0.086599961
-0.86382604 1.2630041 0.13387121 100 10 -0.086597659
-0.87478399 1.2799844 0.19035992 100 11 -0.086593047
-0.47815287 0.69989568 -0.10407643 3 4 -0.086590745
-0.83329499 1.2201916 0.23402599 73 12 -0.086588442
-0.84568024 1.2387915 0.29155618 60 13 -0.08658383
-0.8379007 1.2283162 0.34327531 72 14 -0.086579226
-0.65004385 0.95328569 -0.020140078 2 7 -0.086576924
-0.87809014 1.2881972 0.41773397 84 15 -0.086574614
-0.59954983 0.88187921 -0.28573623 24 0 -0.086553879
-0.88908076 1.308242 0.027609706 3 8 -0.086551577
-0.40298709 0.59319985 -0.16556399 80 1 -0.086549275
-0.88440257 1.3018469 0.082481474 65 9 -0.086546972
-0.40588421 0.59768885 -0.14043543 62 2 -0.086544663
-0.87172097 1.2841449 0.13578865 100 10 -0.08654236
-0.86808228 1.2797444 0.18987246 100 11 -0.086537756
-0.48684737 0.71799058 -0.10651381 3 4 -0.086535446
-0.83589548 1.2327582 0.23590319 73 12 -0.086533144
-0.83033866 1.2254825 0.28773996 64 13 -0.08652854
-0.83688587 1.2360744 0.34462503 70 14 -0.086523928
-0.66481698 0.9819299 -0.020698555 2 7 -0.086521626
-0.8683998 1.2831025 0.41514575 73 15 -0.086519323
-0.60078979 0.89037234 -0.28780681 22 0 -0.086498588
-0.87578923 1.2979224 0.027330469 25 8 -0.086496279
-0.4021073 0.59614861 -0.16601388 100 1 -0.086493976
-0.87426966 1.2966462 0.081958115 80 9 -0.086491674
-0.4048925 0.60073012 -0.14081705 61 2 -0.086489372
-0.87057334 1.2921369 0.13631159 100 10 -0.086487062
-0.86716014 1.2875558 0.19060367 69 11 -0.086482458
-0.47337776 0.70313418 -0.10407643 3 4 -0.086480156
-0.83489621 1.2405849 0.23684181 76 12 -0.086477846
-0.55716783 0.82821602 -0.087330058 1 5 -0.086475544
-0.83613253 1.2428901 0.29117453 68 13 -0.086473241
-0.83604354 1.2436949 0.34597474 72 14 -0.086468637
-0.87037855 1.2957481 0.4182516 70 15 -0.086464025
-0.60321033 0.90038449 -0.29039499 22 0 -0.08644329
-0.88238072 1.3175865 0.027679518 51 8 -0.086440988
-0.39460364 0.58945167 -0.16376437 82 1 -0.086438678
-0.87195998 1.3030096 0.082167462 98 9 -0.086436376
-0.40508205 0.60533261 -0.14158028 61 2 -0.086434074
-0.87736166 1.3115768 0.1380547 100 10 -0.086431772
-0.86486697 1.2938753 0.19109115 58 11 -0.08642716
-0.46430349 0.69487894 -0.102614 3 4 -0.086424857
-0.83056092 1.2434914 0.23684181 78 12 -0.086422555
-0.55441839 0.83005899 -0.087330058 1 5 -0.086420253
-0.83723992 1.2539649 0.29308262 76 13 -0.086417943
-0.82628977 1.2385002 0.34372523 82 14 -0.086413339
-0.86370665 1.2955638 0.41721633 69 15 -0.086408727
-0.59578538 0.89604962 -0.28832445 24 0 -0.086387992
-0.87445503 1.3156627 0.027574802 89 8 -0.08638569
-0.4044061 0.60868025 -0.1687133 86 1 -0.086383387
-0.87293154 1.3143641 0.08269082 98 9 -0.086381085
-0.40079439 0.60347199 -0.14081705 61 2 -0.086378776
-0.86175787 1.2980328 0.13631159 100 10 -0.086376473
-0.86034554 1.2968863 0.19109115 54 11 -0.086371869
-0.42457384 0.64024645 -0.094326884 4 4 -0.086369559
-0.81966633 1.2365044 0.23496459 63 12 -0.086367257
-0.52509737 0.79213357 -0.08314658 2 5 -0.086364955
-0.83394194 1.2585166 0.29346424 65 13 -0.086362652
-0.82626462 1.2478764 0.34552482 73 14 -0.086358041
-0.8485195 1.2824594 0.41203994 70 15 -0.086353436
-0.59052563 0.89489907 -0.28728914 26 0 -0.086332701
-0.86985743 1.318707 0.027574802 100 8 -0.086330391
-0.40227908 0.61008811 -0.1687133 86 1 -0.086328089
-0.87383366 1.3257414 0.083214179 95 9 -0.086325787
-0.39760482 0.60322827 -0.14043543 54 2 -0.086323485
-0.85941428 1.3043603 0.1366602 100 10 -0.086321175
-0.86017936 1.3065139 0.1920661 51 11 -0.086316571
-0.44416264 0.67488855 -0.099201649 4 4 -0.086314268
-0.82294506 1.2509097 0.23715468 65 12 -0.086311959
-0.53108948 0.80727744 -0.084541067 2 5 -0.086309657
-0.82522911 1.2548584 0.29193777 57 13 -0.086307354
-0.8304655 1.2637815 0.34912404 70 14 -0.086302742
-0.85744345 1.3053322 -0.027260659 3 7 -0.08630044
-0.84085697 1.2805687 0.41048703 66 15 -0.086298138
-0.59163153 0.90341967 -0.28935969 26 0 -0.086277403
-0.86634451 1.3234081 0.027609706 94 8 -0.086275101
-0.40441537 0.618011 -0.1705129 83 1 -0.086272791
-0.87466693 1.3371409 0.083737537 87 9 -0.086270489
-0.40301961 0.61611336 -0.14310676 59 2 -0.086268187
-0.86357921 1.3206923 0.1380547 100 10 -0.086265884
-0.85669899 1.3111706 0.19230984 48 11 -0.086261272
-0.45483047 0.69637889 -0.10212652 3 4 -0.08625897
-0.83045232 1.2719697 0.24059623 76 12 -0.086256668
-0.49994859 0.76575065 -0.080008969 3 5 -0.086254358
-0.82513547 1.2643079 0.29346424 66 13 -0.086252056
-0.83562917 1.2813637 0.35317314 75 14 -0.086247452
-0.87581414 1.3434963 -0.02799366 17 7 -0.086245149
-0.83216262 1.2770221 0.40841648 65 15 -0.08624284
-0.59479094 0.91519803 -0.29246551 35 0 -0.086222172
-0.86607695 1.333132 0.027749326 89 8 -0.08621987
-0.39588735 0.60961294 -0.16781349 87 1 -0.086217567
-0.866732 1.3351601 0.083423525 83 9 -0.086215258
-0.40514255 0.62410313 -0.14463322 57 2 -0.086212955
-0.86438632 1.3320557 0.13892625 100 10 -0.086210653
-0.43967491 0.67781663 -0.12796341 1 3 -0.086208351
-0.84995723 1.3108217 0.19182236 48 11 -0.086206041
-0.46103433 0.71128863 -0.10407643 3 4 -0.086203739
-0.82385927 1.2715448 0.23997049 78 12 -0.086201437
-0.50377309 0.77752364 -0.081054844 3 5 -0.086199135
-0.82818812 1.278715 0.29613557 80 13 -0.086196825
-0.82056361 1.2679125 0.34867415 96 14 -0.08619222
-0.87546414 1.353261 -0.028133281 35 7 -0.086189918
-0.82874924 1.2815411 0.40893409 73 15 -0.086187609
-0.59473407 0.92213905 -0.29401845 63 0 -0.086166874
-0.87333757 1.3546345 0.028133281 98 8 -0.086164571
-0.40114668 0.62245739 -0.17096281 100 1 -0.086162269
-0.86314803 1.3398563 0.083528191 80 9 -0.086159967
-0.39870879 0.6189118 -0.14310676 59 2 -0.086157657
-0.86620319 1.3451158 0.13997212 100 10 -0.086155355
-0.84537673 1.3137803 0.19182236 48 11 -0.086150751
-0.4542529 0.7062155 -0.10310147 3 4 -0.086148441
-0.82048374 1.2760746 0.24028336 73 12 -0.086146139
-0.50105572 0.7792775 -0.081054844 3 5 -0.086143836
-0.8258428 1.284901 0.29689881 78 13 -0.086141534
-0.82034475 1.2773281 0.35047373 93 14 -0.086136922
-0.86749434 1.3512602 -0.028028565 32 7 -0.08613462
-0.82948726 1.2925557 0.4115223 80 15 -0.086132318
-0.58630443 0.91607404 -0.29143026 86 0 -0.086111583
-0.86968094 1.3593594 0.028168185 89 8 -0.086109273
-0.4010711 0.62713742 -0.17186262 91 1 -0.086106971
-0.86730832 1.3561722 0.084365569 87 9 -0.086104669
-0.39443088 0.61699158 -0.14234352 60 2 -0.086102366
-0.85828424 1.3430942 0.13944918 100 10 -0.086100057
-0.84933192 1.330108 0.19377227 55 11 -0.086095452
-0.45178515 0.70779675 -0.10310147 3 4 -0.08609315
-0.81305939 1.2737931 0.23934476 70 12 -0.08609084
-0.49833265 0.78102165 -0.081054844 3 5 -0.086088538
-0.82557517 1.2943972 0.29842529 78 13 -0.086086236
-0.81797588 1.2834704 0.35137355 87 14 -0.086081631
-0.83613998 1.3119713 -0.027155945 12 7 -0.086079322
-0.8210448 1.2887819 0.40945172 77 15 -0.08607702
-0.57274628 0.90180731 -0.28625387 72 0 -0.086056285
-0.86516863 1.3622357 0.028168185 100 8 -0.086053982
-0.40421173 0.63668984 -0.17411213 96 1 -0.086051673
-0.86899048 1.3693093 0.084993601 98 9 -0.08604937
-0.40173972 0.63328511 -0.14577809 63 2 -0.086047068
-0.85359102 1.3460819 0.13944918 96 10 -0.086044766
-0.83960283 1.3245341 0.19255358 54 11 -0.086040154
-0.81389344 1.2849672 0.2409091 65 12 -0.08603555
-0.4956035 0.78275633 -0.081054844 3 5 -0.086033247
-0.8191781 1.2938101 0.29766205 70 13 -0.086030938
-0.81788313 1.292763 0.35317314 92 14 -0.086026333
-0.81860542 1.2949061 0.41048703 75 15 -0.086021721
-0.58211625 0.92331165 -0.29246551 18 0 -0.086000986
-0.85934168 1.363556 0.028133281 98 8 -0.085998684
-0.39679301 0.62985283 -0.17186262 91 1 -0.085996382
-0.86846286 1.3790944 0.085412286 91 9 -0.085994072
-0.400684 0.63627481 -0.14615969 56 2 -0.08599177
-0.86185902 1.369139 0.14154093 100 10 -0.085989468
-0.82863235 1.3173751 0.19109115 54 11 -0.085984863
-0.8167609 1.2995079 0.24309918 63 12 -0.085980251
-0.49286795 0.78448164 -0.081054844 3 5 -0.085977949
-0.8136121 1.2949996 0.29728043 66 13 -0.085975647
-0.82372653 1.3121148 0.35767215 83 14 -0.085971035
-0.81921351 1.305938 0.41307521 70 15 -0.085966431
-0.58384961 0.93362904 -0.29505375 15 0 -0.085945688
-0.86517978 1.3835018 0.028482327 98 8 -0.085943386
-0.39046025 0.62462425 -0.170063 93 1 -0.085941084
-0.86152643 1.3787301 0.08520294 91 9 -0.085938781
-0.39834911 0.63773924 -0.14615969 56 2 -0.085936479
-0.86527723 1.3858086 0.14293543 100 10 -0.08593417
-0.81772268 1.3101553 0.18962872 51 11 -0.085929565
-0.81640136 1.3090553 0.24435066 58 12 -0.085924953
-0.50699133 0.81324911 -0.083843827 2 5 -0.085922651
-0.81405216 1.3063037 0.29918852 61 13 -0.085920349
-0.81170166 1.3035454 0.35452285 78 14 -0.085915737
-0.81362939 1.3071495 0.41255757 66 15 -0.085911132
-0.58568013 0.94386876 -0.29764193 16 0 -0.085890397
-0.86537367 1.39516 0.028656852 100 8 -0.085888095
-0.39535645 0.63764477 -0.17321232 88 1 -0.085885786
-0.8609181 1.388519 0.085621633 91 9 -0.085883483
-0.3961207 0.63912576 -0.14615969 56 2 -0.085881181
-0.85938483 1.387127 0.14276111 100 10 -0.085878879
-0.81813931 1.321583 0.19084741 55 11 -0.085874267
-0.81182665 1.3118973 0.24435066 58 12 -0.085869662
-0.81774712 1.3224962 0.30224147 62 13 -0.085865051
-0.80714607 1.306371 0.35452285 76 14 -0.085860446
-0.62959707 1.0190067 -0.020907983 4 7 -0.085858136
-0.81819743 1.3247746 0.41721633 60 15 -0.085855834
-0.58339441 0.94755256 -0.29815957 15 0 -0.085835099
-0.86808085 1.409942 0.028901186 98 8 -0.085832797
-0.39732549 0.64559072 -0.17501192 94 1 -0.085830495
-0.86129892 1.4000212 0.086144991 95 9 -0.085828185
-0.38977343 0.63381535 -0.14463322 57 2 -0.085825883
-0.8576681 1.3952101 0.14328404 100 10 -0.085823581
-0.81687027 1.3293625 0.19157861 60 11 -0.085818969
-0.80827624 1.3164065 0.24466354 56 12 -0.085814364
-0.81746519 1.3318933 0.30376795 58 13 -0.085809752
-0.81299782 1.3256524 0.35902187 70 14 -0.085805148
-0.61035943 0.9956255 -0.020384412 16 7 -0.085802846
-0.81255907 1.3259753 0.41669869 59 15 -0.085800543
-0.58024919 0.9494819 -0.29815957 15 0 -0.085779801
-0.86211115 1.4112574 0.02886628 100 8 -0.085777499
-0.40014738 0.65528971 -0.17726143 82 1 -0.085775197
-0.86161005 1.4115428 0.086668357 87 9 -0.085772894
-0.3968755 0.65018594 -0.14806779 60 2 -0.085770585
-0.85303634 1.3980469 0.14328404 100 10 -0.085768282
-0.41966942 0.68806905 -0.12765054 1 3 -0.08576598
-0.82049221 1.345765 0.19352853 65 11 -0.085763678
-0.80881441 1.327655 0.24622789 54 12 -0.085759066
-0.81076902 1.3313849 0.30300471 53 13 -0.085754462
-0.58156419 0.955378 -0.058616273 1 6 -0.085752159
-0.80937809 1.3301471 0.35947177 66 14 -0.08574985
-0.6120764 1.0062922 -0.020558937 2 7 -0.085747547
-0.80792528 1.3288038 0.41669869 53 15 -0.085745245
-0.57492781 0.94819778 -0.29712427 15 0 -0.08572451
-0.85821646 1.4159681 0.028901186 98 8 -0.085722201
-0.38977933 0.64334869 -0.17366222 97 1 -0.085719898
-0.862885 1.4247924 0.087296382 91 9 -0.085717596
-0.39562038 0.65324682 -0.14844941 60 2 -0.085715294
-0.85537404 1.4129467 0.14450422 100 10 -0.085712984
-0.41726518 0.68952966 -0.12765054 1 3 -0.085710682
-0.81065208 1.3401285 0.19230984 59 11 -0.08570838
-0.80519718 1.3321605 0.24654076 53 12 -0.085703775
-0.80408585 1.3308464 0.30224147 54 13 -0.085699163
-0.56170529 0.93004781 -0.056941528 1 6 -0.085696861
-0.81278771 1.3463105 0.36307099 58 14 -0.085694559
-0.65402091 1.0837549 -0.022094747 2 7 -0.085692249
-0.81126505 1.344849 0.42083979 55 15 -0.085689947
-0.57360595 0.95350993 -0.29815957 22 0 -0.085669212
-0.85429949 1.4206687 0.02893609 94 8 -0.08566691
-0.38853535 0.64637548 -0.17411213 87 1 -0.0856646
-0.86021358 1.4310693 0.087505728 98 9 -0.085662298
-0.39637098 0.65967238 -0.14959426 58 2 -0.085659996
-0.85864383 1.4295876 0.1458987 100 10 -0.085657693
-0.4148559 0.69098192 -0.12765054 1 3 -0.085655391
-0.80801177 1.3463544 0.1927973 67 11 -0.085653082
-0.81093758 1.3517624 0.24966943 57 12 -0.085648477
-0.80751008 1.3471165 0.30529439 53 13 -0.085643865
-0.56256187 0.93885571 -0.057360213 1 6 -0.085641563
-0.80207485 1.3391088 0.36037159 58 14 -0.085639261
-0.82715744 1.3809856 -0.028098376 1 7 -0.085636958
-0.81473958 1.3607919 0.42498088 55 15 -0.085634649
-0.57621467 0.96545941 -0.30126539 33 0 -0.085613914
-0.85880673 1.4389483 0.029250234 98 8 -0.085611612
-0.3903833 0.65435469 -0.17591172 100 1 -0.085609309
-0.85009837 1.4254862 0.086982369 83 9 -0.085607007
-0.39105019 0.65599281 -0.14844941 60 2 -0.085604697
-0.85568792 1.4359995 0.14624733 98 10 -0.085602395
-0.41256207 0.69235396 -0.12765054 1 3 -0.085600093
-0.80354297 1.3490262 0.1927973 63 11 -0.085597791
-0.80318278 1.3494927 0.24873082 54 12 -0.085593179
-0.81106913 1.3632846 0.30834734 53 13 -0.085588574
-0.54413193 0.91496676 -0.055790137 3 6 -0.085586265
-0.80559641 1.3551619 0.36397079 57 14 -0.085583963
-0.86625797 1.4577851 -0.029599281 12 7 -0.08558166
-0.81787759 1.376915 0.429122 55 15 -0.085579358
-0.5661183 0.9557299 -0.29764193 20 0 -0.085558623
-0.85989183 1.4522612 0.029459663 98 8 -0.085556313
-0.39405239 0.66577536 -0.17861113 89 1 -0.085554011
-0.8552869 1.4456345 0.088029087 95 9 -0.085551709
-0.38987249 0.65897554 -0.14883102 59 2 -0.085549407
-0.85294992 1.4422588 0.14659595 98 10 -0.085547097
-0.41014287 0.69378972 -0.12765054 1 3 -0.085544795
-0.80589873 1.3637859 0.19450349 61 11 -0.085542493
-0.7964589 1.3488861 0.24810509 51 12 -0.085537881
-0.80830163 1.3694888 0.30911061 53 13 -0.085533276
-0.55920291 0.9478237 -0.057674225 6 6 -0.085530974
-0.80680043 1.3680375 0.36667022 57 14 -0.085528664
-0.85100913 1.4435735 -0.029250234 36 7 -0.085526362
-0.81110495 1.3764327 0.4280867 56 15 -0.08552406
-0.5645681 0.96112996 -0.29867718 16 0 -0.085503325
-0.85582972 1.4569783 0.029494567 94 8 -0.085501023
-0.38975236 0.66378593 -0.17771132 82 1 -0.085498713
-0.85326803 1.453779 0.088343106 91 9 -0.085496411
-0.39043483 0.6654802 -0.14997588 58 2 -0.085494108
-0.84765762 1.4453756 0.14659595 98 10 -0.085491806
-0.40759706 0.69528848 -0.12765054 1 3 -0.085489497
-0.80715644 1.376866 0.19596592 64 11 -0.085487194
-0.38840365 0.66281301 -0.094326884 4 4 -0.085484892
-0.80073094 1.3669986 0.25092092 57 12 -0.08548259
-0.80129302 1.3690536 0.30834734 53 13 -0.085477978
-0.55774206 0.95331496 -0.057883576 4 6 -0.085475676
-0.80571634 1.3777139 0.36846983 57 14 -0.085473374
-0.81971747 1.4016548 -0.028342709 4 7 -0.085471071
-0.80629492 1.3792558 0.4280867 55 15 -0.085468762
-0.56315523 0.96643299 -0.29971248 16 0 -0.085448027
-0.84847122 1.4566493 0.029424759 94 8 -0.085445724
-0.3912392 0.67194629 -0.17951094 72 1 -0.085443422
-0.85597152 1.4707059 0.089180477 98 9 -0.085441113
-0.38909721 0.66853577 -0.1503575 58 2 -0.08543881
-0.84861898 1.4586583 0.14764182 98 10 -0.085436508
-0.40516776 0.69670695 -0.12765054 1 3 -0.085434206
-0.80310261 1.3815311 0.19620967 65 11 -0.085431896
-0.38597187 0.66423202 -0.094326884 4 4 -0.085429594
-0.79869205 1.3750484 0.25185952 49 12 -0.085427292
-0.80242413 1.3820291 0.31063706 52 13 -0.085422687
-0.55040097 0.94834626 -0.057464886 3 6 -0.085420378
-0.8048141 1.3872602 0.37026942 57 14 -0.085418075
-0.59488052 1.0258094 -0.020698555 2 7 -0.085415773
-0.80704778 1.3922296 0.43119255 53 15 -0.085413471
