# .PCD v0.7 - Point Cloud Data file format
VERSION 0.7
FIELDS x y z intensity ring time
SIZE 4 4 4 4 2 4
TYPE F F F F U F
COUNT 1 1 1 1 1 1
WIDTH 951
HEIGHT 1
VIEWPOINT 0 0 0 1 0 0 0
POINTS 951
DATA ascii
2.7388141 -3.0631969 1.1010163 31 15 -0.056547329
2.267009 -2.5417545 -0.91259599 3 0 -0.056526594
2.8332293 -3.1777124 0.074312352 19 8 -0.056524288
2.9947486 -3.3612323 0.23593052 19 9 -0.05651968
2.5127757 -2.8202775 -0.73423308 1 2 -0.056517377
3.0027637 -3.3714123 0.39498982 75 10 -0.056515075
2.9853139 -3.354177 0.55133694 61 11 -0.056510467
2.9839785 -3.3550339 0.71115112 57 12 -0.056505859
1.5889193 -1.7865001 -0.20917378 1 5 -0.056503553
2.7341917 -3.0752673 0.79987139 33 13 -0.056501251
2.7219725 -3.0636768 0.94614416 34 14 -0.056496643
1.5151466 -1.7059509 -0.039826389 1 7 -0.056494337
2.7216923 -3.0655158 1.0984281 31 15 -0.056492034
2.250438 -2.5409751 -0.90949017 3 0 -0.056471299
2.7637947 -3.1217053 0.072776534 10 8 -0.056468993
2.9777036 -3.3656816 0.23551181 1 9 -0.056464385
2.5029159 -2.8290317 -0.73423308 1 2 -0.056462083
2.9817371 -3.3714261 0.39376962 78 10 -0.056459777
2.9827898 -3.3749897 0.55304313 70 11 -0.056455169
2.9670186 -3.3595073 0.70989966 61 12 -0.056450561
1.5826734 -1.7920356 -0.20917378 1 5 -0.056448258
2.7078481 -3.067131 0.79529196 21 13 -0.056445953
2.7009478 -3.0614686 0.94254488 34 14 -0.056441344
1.5224094 -1.7262272 -0.040175438 1 7 -0.056439042
2.6956441 -3.0576079 1.0922165 33 15 -0.056436736
2.2415545 -2.548815 -0.90949017 3 0 -0.056416001
2.7858891 -3.1688797 0.073649161 18 8 -0.056413699
2.9876218 -3.3995411 0.23718657 1 9 -0.056409091
2.9699507 -3.3818138 0.39376962 78 10 -0.056404483
2.9723001 -3.3868728 0.55328691 69 11 -0.056399874
2.9636781 -3.3782375 0.71177691 67 12 -0.056395266
1.5422529 -1.7586024 -0.20464167 1 5 -0.05639296
2.6803005 -3.057373 0.79033089 25 13 -0.056390658
1.6020104 -1.8280294 -0.12738572 1 6 -0.056388352
2.6830745 -3.061615 0.93984544 34 14 -0.05638605
1.4771456 -1.6861418 -0.039128296 1 7 -0.056383744
2.67149 -3.0505438 1.0865225 35 15 -0.056381442
2.2280061 -2.5504148 -0.90741962 3 0 -0.056360707
2.7740505 -3.1765945 0.073614255 18 8 -0.056358401
2.9763322 -3.4094298 0.23718657 56 9 -0.056353793
2.9561005 -3.3886411 0.39342102 78 10 -0.056349184
2.9558344 -3.3907249 0.5523119 72 11 -0.056344576
2.9498632 -3.3850682 0.71115112 70 12 -0.056339968
1.5364127 -1.763707 -0.20464167 1 5 -0.056337666
2.6585433 -3.0529196 0.78689629 33 13 -0.05633536
2.6677887 -3.0646162 0.93804586 37 14 -0.056330755
1.4872986 -1.7091329 -0.039547153 1 7 -0.056328449
2.6499476 -3.046268 1.0818636 33 15 -0.056326147
2.2170041 -2.5548708 -0.90638429 4 0 -0.056305408
2.7582595 -3.1797335 0.073474631 18 8 -0.056303106
2.9539471 -3.4077251 0.23634921 71 9 -0.056298498
2.9474561 -3.4014368 0.39376962 84 10 -0.05629389
1.6244599 -1.8753277 -0.39296341 1 3 -0.056291584
2.9328794 -3.3870029 0.55011827 73 11 -0.056289282
2.939322 -3.3968382 0.71146405 71 12 -0.056284674
1.5096962 -1.744686 -0.20185271 1 5 -0.056282371
2.6458364 -3.0587494 0.78613311 33 13 -0.056280065
2.6366849 -3.0503211 0.93084741 35 14 -0.056275457
1.4787086 -1.7112881 -0.039477345 1 7 -0.056273155
2.6317213 -3.0467277 1.0787579 33 15 -0.056270849
2.2181606 -2.5743022 -0.91052544 5 0 -0.056250114
2.744534 -3.1863124 0.073404826 18 8 -0.056247808
2.3841445 -2.7688899 -0.84356648 1 1 -0.056245506
2.919884 -3.3922825 0.23456979 65 9 -0.0562432
2.9394636 -3.4162354 0.39429256 82 10 -0.056238595
1.6179038 -1.8809867 -0.39296341 1 3 -0.056236289
2.9313924 -3.4092612 0.55206817 70 11 -0.056233987
2.9222975 -3.4010849 0.71021259 82 12 -0.056229379
1.4932095 -1.7378559 -0.20045821 1 5 -0.056227073
2.6274681 -3.0590303 0.7838434 33 13 -0.056224771
1.5183693 -1.7683864 -0.12215213 1 6 -0.056222465
2.6133292 -3.0447192 0.92634839 35 14 -0.056220163
1.4466834 -1.6860868 -0.038779248 1 7 -0.056217857
2.6185548 -3.0529625 1.0777225 33 15 -0.056215554
2.1978579 -2.5688183 -0.90586674 5 0 -0.056194816
2.7333946 -3.1958733 0.073404826 18 8 -0.056192514
2.9222991 -3.4191551 0.23572117 84 9 -0.056187905
2.9236381 -3.4219308 0.39376962 84 10 -0.056183297
2.9194741 -3.4194729 0.55206817 73 11 -0.056178689
2.9116898 -3.4127674 0.71052545 82 12 -0.056174081
1.4971731 -1.7554444 -0.20185271 1 5 -0.056171779
2.6111434 -3.062664 0.78231698 33 13 -0.056169473
1.5118777 -1.7739395 -0.12215213 1 6 -0.05616717
2.5951011 -3.044924 0.92364907 35 14 -0.056164864
1.4589446 -1.7124366 -0.039267913 1 7 -0.056162562
2.5928512 -3.044436 1.0715109 33 15 -0.056160256
2.1909289 -2.5798016 -0.90690196 5 0 -0.056139521
2.7048383 -3.1860526 0.072951064 18 8 -0.056137219
2.9252524 -3.4481192 0.23697723 92 9 -0.056132611
2.9046335 -3.4250264 0.39289808 86 10 -0.056128003
2.912055 -3.436208 0.55304313 70 11 -0.056123395
2.8940558 -3.417387 0.70927399 66 12 -0.056118786
1.4933035 -1.7639616 -0.20220132 1 5 -0.05611648
2.5834136 -3.0527313 0.77735591 31 13 -0.056114178
2.5763717 -3.0454884 0.92094964 35 14 -0.05610957
1.4733183 -1.7422029 -0.039826389 1 7 -0.056107264
2.5617204 -3.0303135 1.0632287 33 15 -0.056104962
2.1752334 -2.5804288 -0.9043138 4 0 -0.056084227
2.6815455 -3.1821823 0.072636917 19 8 -0.056081921
2.9106247 -3.4552538 0.23676789 91 9 -0.056077313
1.5099069 -1.7930719 -0.45565188 1 2 -0.05607501
2.8946266 -3.4386973 0.39324668 69 10 -0.056072704
2.8892181 -3.4347055 0.55109322 70 11 -0.056068096
2.8935509 -3.4410746 0.71208972 96 12 -0.056063488
2.5550597 -3.0406876 0.77201319 33 13 -0.05605888
2.5614328 -3.0504336 0.91959995 30 14 -0.056054272
1.4415098 -1.7167071 -0.039128296 1 7 -0.05605197
2.5474007 -3.0347979 1.0616758 31 15 -0.056049667
2.1761324 -2.5998576 -0.9084549 5 0 -0.056028929
2.6709783 -3.1910572 0.072636917 22 8 -0.056026626
2.3622708 -2.823241 -0.84986508 1 1 -0.05602432
2.8857319 -3.450073 0.23572117 78 9 -0.056022018
1.5414187 -1.8435158 -0.46710047 1 2 -0.056019712
2.8928275 -3.4610105 0.39464122 100 10 -0.05601741
2.8867221 -3.4549308 0.5527994 93 11 -0.056012802
2.8865862 -3.4572201 0.7133413 86 12 -0.056008194
2.5437043 -3.0476367 0.7716316 33 13 -0.056003585
1.4292417 -1.7129959 -0.11691854 1 6 -0.056001283
2.5388212 -3.0439453 0.91510093 30 14 -0.055998977
1.4303863 -1.715585 -0.03898868 1 7 -0.055996675
2.5306075 -3.0362515 1.0590875 31 15 -0.055994369
2.1724391 -2.6130013 -0.91052544 5 0 -0.055973634
2.6547103 -3.1942096 0.072497301 18 8 -0.055971328
2.3374579 -2.8134828 -0.84446627 1 1 -0.055969026
2.8104591 -3.3828111 0.23048759 45 9 -0.05596672
1.5102103 -1.8184109 -0.4594681 1 2 -0.055964418
2.8864255 -3.4767163 0.39533845 93 10 -0.055962112
2.8733773 -3.4634585 0.55255568 90 11 -0.055957507
1.502915 -1.8121996 -0.28907412 1 4 -0.055955201
2.8624957 -3.4515681 0.71021259 86 12 -0.055952899
1.4394555 -1.7362975 -0.19732061 1 5 -0.055950593
2.5292923 -3.0519626 0.77048677 33 13 -0.055948291
1.4359951 -1.7333547 -0.11796526 1 6 -0.055945985
2.5169935 -3.0392811 0.91105175 34 14 -0.055943683
1.4195875 -1.7141583 -0.038849056 1 7 -0.055941377
2.5131338 -3.0356984 1.0559818 36 15 -0.055939075
2.1583855 -2.6146097 -0.9084549 5 0 -0.055918336
2.6364651 -3.1937425 0.072287865 16 8 -0.055916034
2.3355575 -2.8302367 -0.8471657 28 1 -0.055913731
2.7821116 -3.3725717 0.22912684 42 9 -0.055911426
1.5288345 -1.8539652 -0.46710047 1 2 -0.055909123
2.8628659 -3.4729338 0.39376962 95 10 -0.055906817
1.515332 -1.8382447 -0.37731999 1 3 -0.055904515
2.8530393 -3.4622438 0.55084944 81 11 -0.055902209
1.4640815 -1.7773367 -0.2827369 1 4 -0.055899907
2.83285 -3.4401901 0.70583236 83 12 -0.055897601
1.4156586 -1.7197758 -0.19488023 1 5 -0.055895299
2.5104239 -3.0497229 0.76781541 34 13 -0.055892993
1.4327774 -1.7411915 -0.11817461 1 6 -0.055890691
2.4994733 -3.0385809 0.90835232 37 14 -0.055888385
1.3958144 -1.6974792 -0.038360391 2 7 -0.055886082
2.4841206 -3.0220666 1.0482172 33 15 -0.055883776
2.1472535 -2.6187649 -0.90741962 5 0 -0.055863041
2.6012154 -3.1735413 0.071624674 13 8 -0.055860739
2.3182533 -2.8293278 -0.84446627 28 1 -0.055858433
2.8417993 -3.4682932 0.23498847 71 9 -0.055856131
2.2852612 -2.790056 -0.70103228 7 2 -0.055853825
2.8324008 -3.4592853 0.39115497 87 10 -0.055851523
1.4588592 -1.7823778 -0.36480519 1 3 -0.055849217
2.8208234 -3.4476004 0.54694968 55 11 -0.055846915
1.490545 -1.8223875 -0.28907412 1 4 -0.055844609
2.8101711 -3.4358039 0.70301658 82 12 -0.055842306
1.4137312 -1.7290884 -0.19540317 1 5 -0.055840001
2.4860964 -3.0417459 0.76361769 33 13 -0.055837698
1.4241633 -1.743089 -0.11796526 1 6 -0.055835392
2.4765244 -3.0321941 0.9038533 37 14 -0.05583309
1.4028271 -1.7175863 -0.038709439 2 7 -0.055830784
2.4643114 -3.0183165 1.0440761 33 15 -0.055828482
2.1527352 -2.6442218 -0.91363126 5 0 -0.055807747
2.58184 -3.1712947 0.07138034 12 8 -0.055805441
2.2940969 -2.8188627 -0.83906746 28 1 -0.055803139
2.8384984 -3.489037 0.23572117 81 9 -0.055800833
2.8115101 -3.4583287 0.38993478 84 10 -0.055796225
1.425527 -1.7534851 -0.35792211 1 3 -0.055793922
2.8056197 -3.4523139 0.54621845 52 11 -0.055791616
1.446943 -1.781098 -0.28176194 1 4 -0.055789314
2.793179 -3.4394584 0.70176506 82 12 -0.055787008
1.427779 -1.7587621 -0.19819216 1 5 -0.055784706
2.4660969 -3.0377796 0.76056474 27 13 -0.0557824
1.4359947 -1.7695137 -0.11943066 1 6 -0.055780098
2.4640002 -3.0373635 0.90295357 37 14 -0.055777792
1.3880061 -1.7116003 -0.038465101 3 7 -0.05577549
2.4537606 -3.0268998 1.0440761 35 15 -0.055773184
2.1357441 -2.6430788 -0.91052544 5 0 -0.055750847
2.3158209 -2.8669553 0.064329572 5 8 -0.055748545
2.271014 -2.8124886 -0.83456844 30 1 -0.055746239
2.8068702 -3.4761081 0.23415108 79 9 -0.055743936
2.7950625 -3.4639587 0.38941187 85 10 -0.055739328
1.4336656 -1.7773961 -0.36167651 1 3 -0.055737022
2.7798829 -3.4476082 0.5437811 58 11 -0.05573472
1.4251447 -1.7680943 -0.27883708 1 4 -0.055732414
2.7731164 -3.4404447 0.69988787 78 12 -0.055730112
1.3963218 -1.7329546 -0.19470593 1 5 -0.055727806
2.4470253 -3.0380526 0.75827497 28 13 -0.055725504
1.3941176 -1.7314559 -0.11649985 1 6 -0.055723198
2.4352133 -3.0255487 0.8966549 34 14 -0.055720896
1.3905005 -1.7275805 -0.038709439 3 7 -0.05571859
2.4353838 -3.0268421 1.0409703 35 15 -0.055716287
2.1289229 -2.6535316 -0.91156071 5 0 -0.055695552
2.5490699 -3.1772108 0.071101107 13 8 -0.055693246
2.2628942 -2.8215244 -0.83501828 22 1 -0.055690944
2.7822258 -3.4703023 0.23310436 76 9 -0.055688638
2.7717426 -3.4597003 0.38784304 89 10 -0.05568403
1.4030621 -1.7513078 -0.35541913 1 3 -0.055681728
2.7622304 -3.44906 0.54256237 54 11 -0.055679422
1.3969421 -1.7449167 -0.2744498 1 4 -0.05567712
2.738873 -3.422343 0.69425625 77 12 -0.055674814
1.390264 -1.7378182 -0.19470593 1 5 -0.055672511
2.4344842 -3.0430846 0.75751179 27 13 -0.055670206
1.3858736 -1.7329497 -0.11629051 3 6 -0.055667903
2.412998 -3.0183861 0.89215589 34 14 -0.055665597
1.3769712 -1.7230508 -0.038500007 6 7 -0.055663295
2.4175687 -3.0262685 1.0378644 35 15 -0.055660989
2.1080725 -2.6454682 -0.90638429 5 0 -0.055640254
2.2651045 -2.8435493 0.063456953 8 8 -0.055637952
2.7589004 -3.4659293 0.23216233 74 9 -0.055633344
2.746608 -3.4517226 0.38592559 85 10 -0.055628736
1.4289126 -1.7963893 -0.36355373 1 3 -0.05562643
2.7279356 -3.4307134 0.53817511 31 11 -0.055624127
1.4031948 -1.7653222 -0.27688718 1 4 -0.055621821
2.7146211 -3.4164166 0.69112754 77 12 -0.055619519
1.374276 -1.7301797 -0.19331144 1 5 -0.055617213
2.4189627 -3.0454144 0.75598526 28 13 -0.055614911
1.3686383 -1.7236995 -0.11534845 3 6 -0.055612605
2.3939667 -3.0161061 0.88900656 36 14 -0.055610303
1.3622478 -1.7168815 -0.038255677 8 7 -0.055608001
2.398587 -3.0240941 1.034241 34 15 -0.055605695
2.091172 -2.6440856 -0.90327853 6 0 -0.05558496
2.2440007 -2.8373227 0.063142806 9 8 -0.055582654
2.7430704 -3.4708378 0.23184831 76 9 -0.055578046
2.715416 -3.4383128 0.38331094 84 10 -0.055573437
1.4076307 -1.7830092 -0.35979933 1 3 -0.055571135
2.7036428 -3.424634 0.53573769 18 11 -0.055568829
1.3970242 -1.7702094 -0.27688718 1 4 -0.055566527
2.6977854 -3.4196682 0.68987608 77 12 -0.055564225
1.3743969 -1.7427882 -0.19418299 2 5 -0.055561919
2.398061 -3.0419259 0.75293231 28 13 -0.055559617
1.3808546 -1.7522347 -0.11691854 2 6 -0.055557311
2.3828959 -3.0248601 0.88900656 36 14 -0.055555008
1.3587213 -1.7247677 -0.038325485 6 7 -0.055552702
2.3688927 -3.0081644 1.0259588 34 15 -0.0555504
2.0902812 -2.6620049 -0.90690196 4 0 -0.055529661
2.2261779 -2.8360906 0.062933378 11 8 -0.055527359
2.7161431 -3.4615362 0.23059224 73 9 -0.055522751
2.7070858 -3.4524744 0.38383389 85 10 -0.055518143
1.3965236 -1.781693 -0.35854784 2 3 -0.055515841
2.6898487 -3.4329579 0.53549391 55 11 -0.055513535
1.3908366 -1.7750751 -0.27688718 1 4 -0.055511232
2.6785233 -3.4197333 0.68799889 72 12 -0.055508927
1.3793596 -1.761694 -0.19575179 1 5 -0.055506624
2.377748 -3.03791 0.74987942 27 13 -0.055504318
1.364884 -1.7444601 -0.11608116 2 6 -0.055502016
2.3644462 -3.022002 0.88585728 34 14 -0.05549971
1.3465328 -1.7216245 -0.038150962 6 7 -0.055497408
2.3536181 -3.0103273 1.0238881 34 15 -0.055495102
2.0755022 -2.661305 -0.9043138 6 0 -0.055474367
2.2056956 -2.8292634 0.062619232 13 8 -0.055472061
2.6948276 -3.4579215 0.22975488 67 9 -0.055467457
2.6907253 -3.4551446 0.38313666 85 10 -0.055462848
1.4221572 -1.8268415 -0.36668244 1 3 -0.055460542
2.6772304 -3.4402924 0.53525019 90 11 -0.05545824
1.3800659 -1.7734113 -0.27591223 1 4 -0.055455934
2.6732328 -3.4363925 0.68956316 82 12 -0.055453632
1.3784024 -1.7725495 -0.19644904 1 5 -0.055451326
2.3676605 -3.0457783 0.74987942 23 13 -0.055449024
1.3443854 -1.7300515 -0.11482509 2 6 -0.055446718
2.3376715 -3.0082834 0.87955862 34 14 -0.055444416
1.3518566 -1.740293 -0.038465101 6 7 -0.05544211
2.3388834 -3.0120125 1.0218177 34 15 -0.055439807
2.0631166 -2.6635914 -0.90276086 3 0 -0.055419073
2.1938527 -2.8334 0.062549427 11 8 -0.055416767
2.6607406 -3.4388733 0.22787078 33 9 -0.055412158
2.6719391 -3.4545925 0.38209078 85 10 -0.05540755
1.4571725 -1.884681 -0.37731999 1 3 -0.055405248
2.6475983 -3.4255915 0.5315941 79 11 -0.055402942
1.3787218 -1.7845011 -0.27688718 1 4 -0.05540064
2.6370723 -3.4144354 0.6833058 74 12 -0.055398334
1.3515078 -1.7505401 -0.19348574 2 5 -0.055396032
2.348618 -3.0431447 0.74720806 20 13 -0.055393726
1.3590783 -1.7616168 -0.11660452 4 6 -0.055391423
2.3188238 -3.0056245 0.87640929 36 14 -0.055389117
1.3421102 -1.7402511 -0.038360391 6 7 -0.055386815
2.3236372 -3.0140383 1.0197471 34 15 -0.055384509
2.1871085 -2.8461788 0.062654138 8 8 -0.055361472
1.5895635 -2.0693152 -0.60241896 1 1 -0.055359166
2.4997168 -3.2553413 0.2151008 6 9 -0.055356864
2.6398489 -3.4390748 0.37930179 85 10 -0.055352256
1.450255 -1.8900092 -0.37731999 1 3 -0.05534995
2.6338167 -3.4336975 0.53135037 78 11 -0.055347648
1.3528455 -1.7643375 -0.27298734 1 4 -0.055345342
2.6113214 -3.406832 0.67986429 72 12 -0.055343039
1.3559887 -1.7697155 -0.19505455 2 5 -0.055340733
2.3314795 -3.0439396 0.74529999 24 13 -0.055338431
1.3526127 -1.7665863 -0.11660452 3 6 -0.055336125
2.3042383 -3.0094614 0.8750596 33 14 -0.055333823
1.327215 -1.7340426 -0.038116053 6 7 -0.055331521
2.2984879 -3.0041232 1.0135354 34 15 -0.055329215
1.5303085 -2.0059104 -0.6760354 1 0 -0.05530848
2.1754491 -2.8525856 0.062619232 11 8 -0.055306174
1.5819683 -2.0751274 -0.60241896 1 1 -0.055303872
2.4871278 -3.2624588 0.21499613 1 9 -0.055301566
1.3994188 -1.8363347 -0.44878277 7 2 -0.055299263
2.6115305 -3.4281235 0.37703574 78 10 -0.055296957
1.4433181 -1.895312 -0.37731999 1 3 -0.055294655
2.6103923 -3.4291117 0.52915668 54 11 -0.055292349
1.3659171 -1.7943212 -0.27688718 1 4 -0.055290047
2.5970206 -3.4127824 0.6792385 72 12 -0.055287741
1.3389466 -1.7601665 -0.19348574 2 5 -0.055285439
2.3125217 -3.0411201 0.74262863 33 13 -0.055283137
1.3416032 -1.7649368 -0.11618583 4 6 -0.055280831
2.2901814 -3.0128322 0.87370992 36 14 -0.055278528
1.328413 -1.7482181 -0.038325485 6 7 -0.055276223
2.2751336 -2.9952061 1.0078415 32 15 -0.05527392
1.5189816 -2.0048149 -0.6739648 1 0 -0.055253182
2.1744292 -2.8709428 0.062863566 2 8 -0.055250879
1.5327312 -2.0244298 -0.58622247 1 1 -0.055248573
2.4425385 -3.2261024 0.21206531 4 9 -0.055246271
1.4857359 -1.96307 -0.478549 1 2 -0.055243965
2.5953395 -3.4304092 0.37633851 78 10 -0.055241663
1.4370252 -1.9000876 -0.37731999 1 3 -0.055239357
2.5714719 -3.4013293 0.52355075 37 11 -0.055237055
1.3551707 -1.7925071 -0.27591223 1 4 -0.055234753
2.5833077 -3.4182241 0.67861283 72 12 -0.055232447
1.3415093 -1.775725 -0.19470593 2 5 -0.055230144
2.2858598 -3.0268381 0.73728597 30 13 -0.055227838
1.3405566 -1.7757523 -0.11660452 3 6 -0.055225536
2.274307 -3.0126336 0.87146038 33 14 -0.05522323
1.3262222 -1.7574021 -0.038430199 6 7 -0.055220928
2.2616985 -2.9981077 1.0062885 34 15 -0.055218622
1.5146481 -2.0129282 -0.67500007 2 0 -0.055197887
2.2093728 -2.9372663 0.064155042 1 8 -0.055195581
1.4885328 -1.9796592 -0.57182556 1 1 -0.055193279
2.3808613 -3.1675539 0.20766909 3 9 -0.055190973
1.4957322 -1.9899573 -0.48389161 1 2 -0.055188671
2.5815561 -3.435811 0.37598985 78 10 -0.055186369
1.4319025 -1.906422 -0.37763283 1 3 -0.055184063
2.5125034 -3.3463399 0.51380116 16 11 -0.05518176
1.3298396 -1.7718239 -0.27201241 1 4 -0.055179454
2.5606902 -3.4129996 0.67579699 75 12 -0.055177152
1.3364981 -1.7819906 -0.19488023 3 5 -0.055174846
2.2734544 -3.0312607 0.73652273 31 13 -0.055172544
1.3226798 -1.7642078 -0.1155578 3 6 -0.055170238
2.25209 -3.0049601 0.86696136 33 14 -0.055167936
1.3212785 -1.7636212 -0.038465101 6 7 -0.05516563
2.2454293 -2.9982526 1.0037004 32 15 -0.055163328
1.4968574 -2.0045352 -0.67034137 6 0 -0.055142593
2.1799629 -2.9193244 0.063596569 1 8 -0.055140287
1.4886075 -1.9942131 -0.574525 2 1 -0.055137984
2.3542621 -3.155036 0.20630836 34 9 -0.055135678
1.4954718 -2.0048683 -0.48618135 1 2 -0.055133376
2.5618 -3.4356663 0.37494397 84 10 -0.05513107
1.4249055 -1.9116573 -0.37763283 1 3 -0.055128768
2.483012 -3.3312161 0.51014513 15 11 -0.055126462
1.3260188 -1.7796388 -0.27249986 1 4 -0.05512416
2.5393214 -3.4092436 0.67329407 85 12 -0.055121854
1.3302696 -1.7866451 -0.19488023 3 5 -0.055119552
2.2576399 -3.0332735 0.73499632 30 13 -0.055117246
1.3257425 -1.7818631 -0.11639518 3 6 -0.055114944
2.2282684 -2.9959939 0.86201245 36 14 -0.055112638
1.3151143 -1.7682225 -0.038465101 7 7 -0.055110335
2.2314916 -3.0014215 1.0021474 34 15 -0.055108029
1.4817979 -1.9988843 -0.66671789 1 0 -0.055087294
2.1787729 -2.9401476 0.063875809 6 8 -0.055084992
1.4836084 -2.0027874 -0.57542479 1 1 -0.055082686
2.3361015 -3.153605 0.20568034 34 9 -0.055080384
1.5048211 -2.0321651 -0.49152401 1 2 -0.055078078
2.5391235 -3.4301758 0.37337521 85 10 -0.055075776
1.394724 -1.8848614 -0.37137547 1 3 -0.05507347
2.4790494 -3.3514659 0.51185131 43 11 -0.055071168
1.3407311 -1.8132175 -0.27688718 1 4 -0.055068862
2.5086143 -3.3926737 0.66828811 83 12 -0.055066559
1.3098136 -1.7720511 -0.1927885 2 5 -0.055064254
2.2423713 -3.0348196 0.73346978 31 13 -0.055061951
1.3147681 -1.7800535 -0.11597649 4 6 -0.055059645
2.2143245 -2.9990506 0.86066276 34 14 -0.055057343
1.304183 -1.7663676 -0.038325485 8 7 -0.055055037
2.2083817 -2.9920948 0.99645334 32 15 -0.055052735
1.4793916 -2.0102684 -0.66878843 1 0 -0.055032
2.1927164 -2.9795685 0.064573906 1 8 -0.055029694
1.5046732 -2.0453701 -0.58622247 1 1 -0.055027392
2.3191631 -3.1536953 0.20515697 36 9 -0.055025086
2.5200551 -3.4293847 0.37232932 89 10 -0.055020478
1.3744292 -1.8703743 -0.36762103 1 3 -0.055018175
2.4655716 -3.3564684 0.5113638 21 11 -0.055015869
1.3464601 -1.8336539 -0.27932456 1 4 -0.055013567
2.4944184 -3.3982246 0.66766238 83 12 -0.055011261
1.3177642 -1.7958885 -0.19488023 3 5 -0.055008959
2.2183578 -3.0232449 0.72889042 33 13 -0.055006653
1.3112205 -1.7876246 -0.11618583 4 6 -0.055004351
2.1986055 -2.9985194 0.85841322 36 14 -0.055002049
1.295645 -1.7676836 -0.038255677 7 7 -0.054999743
2.1876478 -2.9857605 0.99179465 34 15 -0.05499744
1.5639071 -2.1399412 -0.71019953 1 0 -0.054976702
2.1681468 -2.9678276 0.064155042 1 8 -0.0549744
1.5388989 -2.1072652 -0.60241896 1 1 -0.054972094
2.311048 -3.1645947 0.20536631 21 9 -0.054969791
2.4980989 -3.4232378 0.37076053 92 10 -0.054965183
1.3632354 -1.8687769 -0.36636955 1 3 -0.054962877
2.4362962 -3.3409958 0.50770777 10 11 -0.054960575
1.3283579 -1.8223015 -0.27688718 1 4 -0.054958269
2.4761539 -3.3968999 0.66578513 86 12 -0.054955967
1.3106282 -1.7986383 -0.19470593 2 5 -0.054953665
2.2020118 -3.0230355 0.7269823 34 13 -0.054951359
1.2955673 -1.779274 -0.11534845 4 6 -0.054949056
2.1812444 -2.9967222 0.85571378 36 14 -0.05494675
1.2944833 -1.7784375 -0.038395293 5 7 -0.054944448
2.1765981 -2.9914362 0.99127698 32 15 -0.054942142
1.9818364 -2.7317717 -0.9043138 9 0 -0.054921407
2.178256 -3.0025172 0.064748429 2 8 -0.054919101
1.9803758 -2.7307613 -0.77878052 31 1 -0.054916799
2.2859204 -3.1532378 0.20411025 1 9 -0.054914493
2.4814591 -3.425483 0.37006328 86 10 -0.054909889
1.3755728 -1.8988831 -0.37137547 1 3 -0.054907583
2.4089034 -3.3265467 0.50429535 12 11 -0.05490528
1.3153237 -1.8170483 -0.27542472 1 4 -0.054902975
2.4596493 -3.3991213 0.66453367 83 12 -0.054900672
1.3055096 -1.8048165 -0.19488023 2 5 -0.054898366
2.185071 -3.0207763 0.72469258 34 13 -0.054896064
1.2896599 -1.7835604 -0.11534845 3 6 -0.054893758
2.159879 -2.9881454 0.85121477 34 14 -0.054891456
1.2964654 -1.7942911 -0.038639627 1 7 -0.05488915
2.1582251 -2.9880536 0.98765355 34 15 -0.054886848
1.979542 -2.7477336 -0.90741962 9 0 -0.054866109
2.1397154 -2.971158 0.063910715 5 8 -0.054863807
1.9685544 -2.7344944 -0.77788073 38 1 -0.054861505
2.2655663 -3.1482289 0.20327288 1 9 -0.054859199
1.4036252 -1.9504763 -0.46710047 1 2 -0.054856896
2.458451 -3.4175191 0.36832017 87 10 -0.05485459
1.3920014 -1.9357485 -0.37763283 1 3 -0.054852288
2.3636758 -3.2881916 0.49722698 51 11 -0.054849982
1.3020227 -1.8119564 -0.27396232 1 4 -0.05484768
2.4316356 -3.3852251 0.66015351 79 12 -0.054845374
1.305012 -1.8174547 -0.19575179 2 5 -0.054843072
2.1699328 -3.0220065 0.72316611 34 13 -0.054840766
1.2927433 -1.8010318 -0.11618583 4 6 -0.054838464
2.1426189 -2.9861667 0.84851533 35 14 -0.054836158
1.3135041 -1.8313046 -0.039337724 1 7 -0.054833855
2.1444044 -2.9908588 0.98610061 32 15 -0.05483155
1.9627167 -2.7455411 -0.9043138 13 0 -0.054810815
2.111887 -2.9542074 0.063387141 5 8 -0.054808512
1.9533322 -2.7334218 -0.77563125 37 1 -0.054806206
2.2383103 -3.1333654 0.20180747 1 9 -0.054803904
1.373649 -1.9236532 -0.4594681 1 2 -0.054801598
2.4331756 -3.4086688 0.36640272 91 10 -0.054799296
1.3848971 -1.9408374 -0.37763283 1 3 -0.05479699
2.3625607 -3.3109653 0.49942058 72 11 -0.054794688
1.2956899 -1.8164903 -0.27396232 1 4 -0.054792382
2.410629 -3.3808253 0.65765053 79 12 -0.05479008
1.2917213 -1.8122644 -0.19470593 3 5 -0.054787774
2.1633987 -3.0363348 0.72469258 28 13 -0.054785471
1.2884511 -1.8090116 -0.11639518 5 6 -0.054783165
2.1293991 -2.9908247 0.84761554 35 14 -0.054780863
2.12499 -2.9857345 0.98195946 37 15 -0.054776255
1.9475311 -2.7444983 -0.90172559 17 0 -0.05475552
2.1022019 -2.9635589 0.063422047 4 8 -0.054753214
1.9410461 -2.7373836 -0.77473146 37 1 -0.054750912
2.2181168 -3.1281257 0.20097008 1 9 -0.054748606
1.3896322 -1.9604703 -0.46710047 1 2 -0.054746304
2.4051356 -3.394382 0.36396238 42 10 -0.054743998
1.3781139 -1.9456598 -0.37763283 1 3 -0.054741696
2.3469682 -3.3147416 0.49868938 87 11 -0.05473939
1.3027852 -1.8406706 -0.27688718 1 4 -0.054737087
2.3919661 -3.3795452 0.6557734 79 12 -0.054734781
1.2842368 -1.8151358 -0.19453162 2 5 -0.054732479
2.1391833 -3.0246336 0.72011316 15 13 -0.054730173
1.2925053 -1.8281755 -0.11733723 3 6 -0.054727871
2.1121979 -2.9886911 0.84491616 34 14 -0.054725565
2.1045227 -2.9789333 0.97730076 37 15 -0.054720961
1.9334892 -2.744962 -0.89965498 17 0 -0.054700222
2.1879413 -3.1062059 0.066319145 12 8 -0.05469792
1.9162511 -2.7214978 -0.7684328 32 1 -0.054695614
2.2071841 -3.1358492 0.20097008 1 9 -0.054693311
1.9555496 -2.7793713 -0.66058075 36 2 -0.054691005
1.3716544 -1.950219 -0.37763283 1 3 -0.054686397
2.3234041 -3.3046434 0.49600828 100 11 -0.054684095
1.3012401 -1.8514773 -0.27786213 1 4 -0.054681789
2.3767478 -3.3830252 0.65483475 78 12 -0.054679487
1.2870536 -1.8326514 -0.19592611 2 5 -0.054677181
2.1347833 -3.0397439 0.72202128 5 13 -0.054674879
1.2761077 -1.81774 -0.11639518 3 6 -0.054672576
2.0989172 -2.9908934 0.84356648 8 14 -0.054670271
1.8535295 -2.6422036 -0.056336369 22 7 -0.054667968
2.0896747 -2.9799347 0.97523022 40 15 -0.054665662
1.9310195 -2.7608571 -0.90276086 30 0 -0.054644927
2.2091689 -3.1597123 0.067296483 52 8 -0.054642621
1.8922268 -2.7074053 -0.76258409 28 1 -0.054640319
2.1939368 -3.1402602 0.20076075 1 9 -0.054638013
1.9508197 -2.7922781 -0.66210729 42 2 -0.054635711
2.2439399 -3.2130253 0.34287068 1 10 -0.054633405
1.3648384 -1.9549952 -0.37763283 1 3 -0.054631103
2.2982218 -3.2931991 0.49308339 84 11 -0.054628801
1.2856832 -1.8429835 -0.27591223 1 4 -0.054626495
2.3604047 -3.3848195 0.65358323 78 12 -0.054624192
1.2695726 -1.8205667 -0.19418299 2 5 -0.054621886
2.2005033 -3.1566951 0.7479713 2 13 -0.054619584
1.2617615 -1.8107125 -0.11566247 2 6 -0.054617278
2.0795534 -2.9854095 0.83996725 35 14 -0.054614976
1.8351536 -2.635529 -0.056057129 45 7 -0.05461267
2.0803635 -2.9887965 0.97574782 42 15 -0.054610368
1.9092517 -2.7501247 -0.89706683 36 0 -0.054589629
2.1867249 -3.1509762 0.06694743 12 8 -0.054587327
1.8838755 -2.7155952 -0.76303399 32 1 -0.054585025
2.1624751 -3.1183569 0.19887665 1 9 -0.054582719
1.9332296 -2.7877777 -0.65943593 45 2 -0.054580417
2.2145488 -3.1946397 0.34008169 1 10 -0.054578111
1.3580059 -1.9597474 -0.37763283 1 3 -0.054575808
2.2686274 -3.2750919 0.4891836 67 11 -0.054573502
1.2905428 -1.8637805 -0.27834961 1 4 -0.0545712
2.3395815 -3.3800447 0.65108031 78 12 -0.054568894
1.2722816 -1.8380933 -0.19557749 2 5 -0.054566592
2.234154 -3.2289357 0.76323599 4 13 -0.054564286
1.2645226 -1.8282468 -0.11649985 2 6 -0.054561984
2.0502796 -2.9654007 0.8323189 35 14 -0.054559678
1.8111622 -2.6205335 -0.055603366 45 7 -0.054557376
2.0611334 -2.983325 0.97160673 42 15 -0.05455507
1.8821019 -2.7313204 -0.88878465 34 0 -0.054534335
2.1598313 -3.1355345 0.066458762 4 8 -0.054532032
1.8655435 -2.7093141 -0.75943476 29 1 -0.054529727
2.1583714 -3.1357577 0.19950469 1 9 -0.054527424
1.9156947 -2.7831883 -0.65676457 42 2 -0.054525118
2.212419 -3.2154815 0.3414762 1 10 -0.054522816
1.3511566 -1.9644759 -0.37763283 1 3 -0.05452051
2.2684278 -3.2993488 0.49162099 76 11 -0.054518208
1.2795316 -1.86173 -0.27737463 2 4 -0.054515902
2.3177013 -3.3735373 0.64826447 83 12 -0.0545136
1.2714987 -1.8507339 -0.19644904 2 5 -0.054511294
2.2551007 -3.2836473 0.7743029 4 13 -0.054508992
1.2626547 -1.839236 -0.11691854 1 6 -0.054506686
2.0355051 -2.9661121 0.83051926 39 14 -0.054504383
1.7997414 -2.6235418 -0.055533558 51 7 -0.054502077
2.0321341 -2.9634163 0.96280694 37 15 -0.054499775
1.864922 -2.7267115 -0.88516116 40 0 -0.05447904
2.1319439 -3.1182933 0.065935194 5 8 -0.054476734
1.8615726 -2.7238541 -0.7616843 23 1 -0.054474432
2.1372724 -3.1284304 0.19856264 19 9 -0.054472126
1.9037529 -2.7866166 -0.65600139 42 2 -0.054469824
2.1674728 -3.173825 0.33624685 7 10 -0.054467518
1.3442912 -1.9691802 -0.37763283 1 3 -0.054465216
2.2266855 -3.2629755 0.48504004 12 11 -0.05446291
1.2730253 -1.8661849 -0.27737463 5 4 -0.054460607
2.3036857 -3.3783429 0.6476388 83 12 -0.054458302
1.2560508 -1.841992 -0.19505455 1 5 -0.054455999
2.2336733 -3.2768986 0.77086836 6 13 -0.054453693
1.2562268 -1.8436325 -0.11691854 1 6 -0.054451391
2.0251391 -2.9731994 0.83051926 41 14 -0.054449085
1.7883219 -2.6265023 -0.05546375 51 7 -0.054446783
2.0141685 -2.9593124 0.95918339 37 15 -0.054444477
1.849492 -2.7255356 -0.88257295 36 0 -0.054426193
2.1238682 -3.1310508 0.066039905 6 8 -0.054423891
2.1196136 -3.1259532 0.1979346 36 9 -0.054419283
1.8880192 -2.7854497 -0.65409327 47 2 -0.054416977
2.1647663 -3.1949434 0.33764133 39 10 -0.054414675
1.3370647 -1.9740942 -0.37763283 1 3 -0.054412369
2.1880012 -3.2316639 0.47919029 15 11 -0.054410066
1.2639514 -1.8675504 -0.27688718 4 4 -0.054407761
2.2896643 -3.3830917 0.64701301 83 12 -0.054405458
1.2470583 -1.8432829 -0.19470593 2 5 -0.054403152
2.2227476 -3.28669 0.77125001 7 13 -0.05440085
2.0087726 -2.9725287 0.82826978 38 14 -0.054396242
1.7724248 -2.6227875 -0.055254318 50 7 -0.054393936
2.000582 -2.9615226 0.95763052 36 15 -0.054391634
1.8356503 -2.7255657 -0.88050246 36 0 -0.054370899
2.1112397 -3.1347597 0.0659701 4 8 -0.054368593
1.348418 -2.0028799 -0.55742872 1 1 -0.054366291
2.0997684 -3.1200774 0.19709724 34 9 -0.054363985
1.8793803 -2.7936521 -0.65447485 41 2 -0.054361682
2.1569362 -3.2074401 0.33816427 55 10 -0.054359376
1.3305111 -1.9785172 -0.37763283 1 3 -0.054357074
2.1650903 -3.2207799 0.47650915 27 11 -0.054354768
1.2488941 -1.8585503 -0.27493724 1 4 -0.054352466
2.2734354 -3.3845046 0.64576155 83 12 -0.05435016
1.2539444 -1.867474 -0.19679767 1 5 -0.054347858
2.2293472 -3.3201215 0.77735591 7 13 -0.054345552
2.1404788 -3.1889734 -0.20128411 2 6 -0.05434325
1.9956467 -2.9743192 0.82692009 38 14 -0.054340944
1.761031 -2.6256371 -0.05518451 51 7 -0.054338641
1.990232 -2.9684882 0.95763052 36 15 -0.054336336
1.8212327 -2.7236087 -0.87791425 33 0 -0.054315601
2.0991731 -3.1404476 0.065935194 9 8 -0.054313298
1.3197652 -1.9751681 -0.54843068 1 1 -0.054310992
2.0822084 -3.1174228 0.1964692 34 9 -0.05430869
1.8592016 -2.7835433 -0.65065867 36 2 -0.054306384
2.1462879 -3.2145753 0.33816427 12 10 -0.054304082
2.1527331 -3.2266667 0.47626543 41 11 -0.054299474
1.2468046 -1.8695047 -0.27591223 1 4 -0.054297168
2.2462673 -3.3694093 0.64138144 86 12 -0.054294866
1.3251071 -1.9876657 -0.20899945 1 5 -0.05429256
2.2123005 -3.3197143 0.77544779 7 13 -0.054290257
2.121583 -3.1847906 -0.20055141 31 6 -0.054287951
1.9776915 -2.969913 0.82377076 37 14 -0.054285649
1.7407744 -2.6151221 -0.054835461 51 7 -0.054283347
1.9755772 -2.9689837 0.95555997 36 15 -0.054281041
1.8010319 -2.7138529 -0.87273788 31 0 -0.054260306
2.0893035 -3.1494224 0.0659701 1 8 -0.054258
1.7845883 -2.691113 -0.74548781 24 1 -0.054255698
2.0680034 -3.1196778 0.19615518 9 9 -0.054253392
1.8321182 -2.7638342 -0.64455283 9 2 -0.05425109
2.1526628 -3.2486212 0.34095326 4 10 -0.054248784
2.1546078 -3.2540231 0.47919029 31 11 -0.054244176
1.2665666 -1.9135735 -0.28176194 1 4 -0.054241873
2.2235923 -3.3607552 0.63825274 93 12 -0.054239571
2.194201 -3.3175914 0.77315807 9 13 -0.054234963
2.1049457 -3.1838465 -0.20002805 33 6 -0.054232657
1.9640893 -2.971921 0.82242107 39 14 -0.054230355
1.7294309 -2.6178458 -0.054765653 52 7 -0.054228049
1.9566849 -2.962965 0.95141882 34 15 -0.054225747
1.7777343 -2.6991494 -0.86600858 34 0 -0.054205008
2.0695002 -3.1433346 0.06569086 1 8 -0.054202706
1.779469 -2.7038376 -0.74728745 30 1 -0.0542004
2.0549057 -3.1235404 0.19594584 1 9 -0.054198097
1.8300126 -2.7816937 -0.64722413 1 2 -0.054195791
2.148973 -3.2677684 0.34217343 4 10 -0.054193489
2.1432362 -3.2615244 0.47919029 27 11 -0.054188881
2.2064259 -3.3602402 0.63668835 89 12 -0.054184273
2.1095095 -3.2126429 -0.33624685 1 5 -0.054181971
2.1696796 -3.3055353 0.76857871 9 13 -0.054179665
2.0916276 -3.1878347 -0.1998187 35 6 -0.054177362
1.9494284 -2.9722407 0.82062149 41 14 -0.054175057
1.7158966 -2.617177 -0.054626033 51 7 -0.054172754
1.9399767 -2.9600828 0.94831306 37 15 -0.054170448
1.7609029 -2.6940188 -0.86238509 33 0 -0.054149713
2.0388269 -3.1204066 0.065062575 1 8 -0.054147407
1.7604294 -2.6953485 -0.74323827 34 1 -0.054145105
2.0418062 -3.1273499 0.1957365 1 9 -0.054142803
1.807412 -2.768338 -0.64264476 1 2 -0.054140497
2.1636872 -3.3152938 0.34635693 6 10 -0.054138195
2.1481035 -3.293927 0.48284638 22 11 -0.054133587
2.1957614 -3.3695769 0.63700122 93 12 -0.054128978
2.0678251 -3.1732481 -0.33136615 27 5 -0.054126672
2.1559846 -3.3097987 0.76781541 9 13 -0.05412437
2.0739484 -3.1850743 -0.19919068 38 6 -0.054122064
1.9369154 -2.9757612 0.8197217 39 14 -0.054119762
1.7023884 -2.6164465 -0.054486416 51 7 -0.054117456
1.922259 -2.9555004 0.94468951 37 15 -0.054115154
1.7441288 -2.6888041 -0.85876161 36 0 -0.054094419
2.0290103 -3.1291821 0.065097481 2 8 -0.054092113
1.7382909 -2.6818538 -0.73783946 34 1 -0.054089811
2.0118706 -3.1039355 0.19385241 7 9 -0.054087505
1.3066694 -2.0167146 -0.46710047 1 2 -0.054085203
2.1737633 -3.356272 0.34984317 14 10 -0.054082897
2.1214929 -3.2780738 0.47943404 8 11 -0.054078288
2.1781378 -3.3668883 0.63512403 86 12 -0.05407368
2.0578177 -3.1821194 -0.33154044 33 5 -0.054071378
2.1465499 -3.3206019 0.76857871 9 13 -0.054069072
2.0487261 -3.1704867 -0.19782993 38 6 -0.05406677
1.9169998 -2.9677713 0.81567252 20 14 -0.054064464
1.6915323 -2.6187174 -0.054416601 51 7 -0.054062162
1.9124478 -2.9618585 0.94468951 39 15 -0.054059856
1.7305502 -2.6883783 -0.85669106 34 0 -0.054039121
2.0207872 -3.1392565 0.065167286 2 8 -0.054036818
1.7272791 -2.6843257 -0.73693967 34 1 -0.054034512
2.0096674 -3.1243775 0.19468978 3 9 -0.05403221
2.1641889 -3.3671911 0.35019177 94 10 -0.054027602
2.0902236 -3.2533588 0.474803 26 11 -0.054022994
2.1567671 -3.3595102 0.63230819 82 12 -0.054018386
2.0445454 -3.1859298 -0.33119181 37 5 -0.05401608
2.1344659 -3.3260493 0.768197 10 13 -0.054013778
2.0338871 -3.1705387 -0.19741124 40 6 -0.054011472
1.8829534 -2.9363821 0.80532479 15 14 -0.054009169
1.6715895 -2.6077709 -0.054067552 51 7 -0.054006867
1.900013 -2.9652629 0.9436543 40 15 -0.054004561
1.7133036 -2.6810794 -0.85254997 42 0 -0.053983826
2.0313466 -3.1799953 0.065865383 2 8 -0.05398152
1.7168494 -2.6886964 -0.73648977 38 1 -0.053979218
2.0073457 -3.1448417 0.19552715 1 9 -0.053976912
1.3309387 -2.0851374 -0.48083872 1 2 -0.05397461
2.1615849 -3.3877866 0.35158628 95 10 -0.053972304
2.082056 -3.2656567 0.47553423 5 11 -0.053967696
2.1312292 -3.3453603 0.62824088 83 12 -0.053963087
2.0211229 -3.172528 -0.32910007 38 5 -0.053960785
2.1249518 -3.336792 0.7689603 10 13 -0.053958483
1.9745433 -3.1018009 -0.19270101 10 6 -0.053956177
1.8726919 -2.9429371 0.80532479 15 14 -0.053953875
1.6538905 -2.6000919 -0.053788319 52 7 -0.053951569
1.8772119 -2.9523146 0.93744266 42 15 -0.053949267
1.6904848 -2.6658344 -0.84582067 38 0 -0.053928528
2.0191636 -3.1853776 0.065830477 2 8 -0.053926226
1.7032815 -2.6880887 -0.73469019 36 1 -0.05392392
2.0113177 -3.1754515 0.19699256 7 9 -0.053921618
1.7512125 -2.7647994 -0.63615721 9 2 -0.053919312
2.136956 -3.3751109 0.34949452 94 10 -0.053917009
1.667033 -2.6339307 -0.49370724 6 3 -0.053914703
2.0547242 -3.2477417 0.47187814 12 11 -0.053912401
2.1153171 -3.3461001 0.62698942 79 12 -0.053907793
1.6501892 -2.6103406 -0.27018279 25 5 -0.053905491
2.1007063 -3.3242729 0.76438087 10 13 -0.053903185
1.6533087 -2.6172976 -0.16224147 35 6 -0.053900883
1.8644886 -2.9527514 0.80622458 27 14 -0.053898577
1.6426699 -2.6024671 -0.053718507 50 7 -0.053896274
1.8607098 -2.9490464 0.93433678 42 15 -0.053893968
1.7017466 -2.7044206 -0.8561734 44 0 -0.053873233
2.0122912 -3.1991773 0.0659701 5 8 -0.053870928
1.6731421 -2.6610229 -0.72569209 39 1 -0.053868625
2.012975 -3.2027447 0.19824862 9 9 -0.053866319
1.676778 -2.6678386 -0.61249691 27 2 -0.053864017
2.1177421 -3.3707407 0.34827435 84 10 -0.053861715
1.6578286 -2.6397338 -0.49370724 43 3 -0.053859409
2.0317647 -3.2364004 0.46919701 12 11 -0.053857107
2.1057231 -3.3568101 0.62761515 83 12 -0.053852499
1.6463609 -2.6245241 -0.27105436 46 5 -0.053850193
2.0817888 -3.3199425 0.76170951 11 13 -0.05384789
1.6303729 -2.6010532 -0.16088074 37 6 -0.053845584
1.8552048 -2.9608932 0.80667448 37 14 -0.053843282
1.6314524 -2.6047957 -0.053648699 51 7 -0.053840976
1.847329 -2.9506109 0.93278384 43 15 -0.053838674
1.6493235 -2.6415205 -0.83443266 37 0 -0.053817939
1.9979352 -3.2010927 0.065865383 16 8 -0.053815633
1.632898 -2.6172466 -0.71219504 39 1 -0.053813331
1.9922709 -3.1944995 0.19730657 31 9 -0.053811025
1.6445994 -2.637027 -0.6041013 45 2 -0.053808723
2.1006932 -3.3696585 0.34740278 79 10 -0.053806417
1.6392014 -2.6304166 -0.49089143 48 3 -0.053804114
2.0173063 -3.2384181 0.46846578 2 11 -0.053801809
2.0856421 -3.350724 0.62511224 83 12 -0.0537972
1.6329782 -2.6234891 -0.2703571 47 5 -0.053794898
2.0712245 -3.328856 0.76209116 12 13 -0.053792592
1.6191739 -2.6033366 -0.1606714 34 6 -0.05379029
1.835598 -2.952456 0.80262536 37 14 -0.053787984
1.6202391 -2.6070781 -0.053578887 48 7 -0.053785682
1.8349794 -2.9537597 0.93174857 46 15 -0.053783376
1.6360229 -2.6406927 -0.83236206 44 0 -0.053762641
1.9867489 -3.2080472 0.065865383 30 8 -0.053760339
1.6247778 -2.6245878 -0.71264493 49 1 -0.053758033
1.9800569 -3.1997361 0.19720189 22 9 -0.05375573
1.6240203 -2.6243875 -0.59990352 45 2 -0.053753424
2.0868218 -3.3735816 0.34705415 79 10 -0.053751122
1.624815 -2.6277215 -0.48932707 43 3 -0.053748816
2.0122523 -3.2555714 0.46992823 1 11 -0.053746514
2.062515 -3.3394966 0.62167066 78 12 -0.053741906
1.6196226 -2.6223927 -0.26965985 41 5 -0.0537396
2.0544355 -3.3277128 0.7601831 13 13 -0.053737298
1.6100765 -2.6089728 -0.1606714 36 6 -0.053734992
1.8150494 -2.9422603 0.79812634 38 14 -0.053732689
1.6027319 -2.5991011 -0.053299651 49 7 -0.053730384
1.819589 -2.9519243 0.92916042 42 15 -0.053728081
1.6166785 -2.62993 -0.82718569 41 0 -0.053707346
1.9797262 -3.2217777 0.066004999 42 8 -0.05370504
1.6145864 -2.6285827 -0.71219504 39 1 -0.053702738
1.9699205 -3.2083304 0.19730657 19 9 -0.053700432
1.6045769 -2.6133101 -0.59608734 38 2 -0.05369813
2.0646107 -3.3638649 0.34531105 81 10 -0.053695824
1.5970387 -2.6030698 -0.48369545 45 3 -0.053693522
1.9863467 -3.2388847 0.46651587 1 11 -0.053691216
2.0477486 -3.3416228 0.62073201 83 12 -0.053686608
1.5833921 -2.5838616 -0.26512775 41 5 -0.053684305
2.0479345 -3.3432345 0.76209116 16 13 -0.053681999
1.5967878 -2.6077638 -0.16025271 33 6 -0.053679697
1.8017159 -2.9435916 0.79677659 41 14 -0.053677395
1.5853007 -2.5910337 -0.05302041 48 7 -0.053675089
1.802218 -2.9467218 0.92553693 43 15 -0.053672787
1.6014531 -2.6256616 -0.82407987 42 0 -0.053652048
1.9528538 -3.2030575 0.065481432 35 8 -0.053649746
1.5871462 -2.6042495 -0.70409679 39 1 -0.05364744
1.9540735 -3.2063179 0.19678321 19 9 -0.053645138
1.5811453 -2.5954223 -0.59074467 38 2 -0.053642832
2.0435297 -3.3557363 0.34374225 78 10 -0.05364053
1.5797254 -2.59513 -0.48119247 41 3 -0.053638224
1.9688375 -3.2356241 0.46505347 1 11 -0.053635921
2.0325506 -3.3416443 0.61948055 79 12 -0.053631313
1.5681531 -2.5791585 -0.2640819 43 5 -0.053629011
2.0260556 -3.333586 0.75827497 24 13 -0.053626705
1.5866386 -2.6116145 -0.16014804 32 6 -0.053624403
1.7899213 -2.946219 0.7958768 41 14 -0.053622097
1.5787756 -2.599695 -0.053090218 48 7 -0.053619795
1.7814093 -2.9345162 0.9198429 42 15 -0.053617489
1.5887353 -2.624347 -0.82200933 42 0 -0.053596754
1.9349742 -3.1975403 0.065237097 37 8 -0.053594448
1.5704327 -2.596159 -0.70049757 43 1 -0.053592145
1.9403293 -3.207653 0.1964692 19 9 -0.053589839
1.5715138 -2.5989711 -0.59036303 39 2 -0.053587537
2.0313601 -3.3607891 0.34356794 81 10 -0.053585235
1.5649821 -2.5902097 -0.47931525 43 3 -0.053582929
1.9293617 -3.1945565 0.45822877 2 11 -0.053580627
1.5773557 -2.6117198 -0.3746264 6 4 -0.053578321
2.0235002 -3.351748 0.62010628 83 12 -0.053576019
1.5595915 -2.5843446 -0.2640819 40 5 -0.053573713
2.0038345 -3.3217945 0.7540772 27 13 -0.05357141
1.568687 -2.6014686 -0.15920599 34 6 -0.053569105
1.7781286 -2.948801 0.79497701 40 14 -0.053566802
1.5639522 -2.5946405 -0.052880794 50 7 -0.053564496
1.7716683 -2.9404075 0.9198429 40 15 -0.053562194
1.5929585 -2.6511281 -0.82873863 34 0 -0.053541455
1.9233304 -3.2022252 0.065202191 39 8 -0.053539153
1.5578024 -2.5946696 -0.69869798 43 1 -0.053536851
1.917815 -3.195569 0.1953178 30 9 -0.053534545
1.5568253 -2.5940681 -0.58807337 41 2 -0.053532243
2.0161042 -3.360673 0.34287068 81 10 -0.053529937
1.554352 -2.5919969 -0.47868952 45 3 -0.053527635
1.9034485 -3.1753974 0.45457271 8 11 -0.053525329
1.5549656 -2.5950735 -0.37145779 48 4 -0.053523026
2.0046828 -3.3469284 0.61791623 82 12 -0.05352072
1.5464668 -2.5829351 -0.26338464 43 5 -0.053518418
1.9948249 -3.3317902 0.75484043 31 13 -0.053516112
1.5538975 -2.5963736 -0.15857796 33 6 -0.05351381
1.7608216 -2.9432836 0.79182774 38 14 -0.053511504
1.5548857 -2.6000838 -0.052880794 48 7 -0.053509202
1.7554461 -2.9366248 0.91673708 42 15 -0.053506896
1.5782863 -2.6486509 -0.82615042 31 0 -0.053486161
1.9131644 -3.2106371 0.065237097 46 8 -0.053483859
1.5437497 -2.5917203 -0.6964485 42 1 -0.053481553
1.9015398 -3.1936634 0.19479445 39 9 -0.053479251
1.5412827 -2.5896344 -0.58578366 42 2 -0.053476945
2.0017357 -3.3646152 0.34252208 81 10 -0.053474642
1.542822 -2.594281 -0.47806379 43 3 -0.053472336
1.8933672 -3.1837287 0.45481643 12 11 -0.053470034
1.5316964 -2.5765965 -0.36804545 42 4 -0.053467728
1.9828966 -3.3369238 0.61478752 89 12 -0.053465426
1.5394768 -2.5917437 -0.2637333 41 5 -0.05346312
1.9815981 -3.3373911 0.75445884 35 13 -0.053460818
1.5402936 -2.5951812 -0.15815927 34 6 -0.053458512
1.742067 -2.9363101 0.78822851 36 14 -0.05345621
1.5355967 -2.5882976 -0.052531745 50 7 -0.053453904
1.74617 -2.9443963 0.91725475 45 15 -0.053451601
1.5562507 -2.6325252 -0.81942111 34 0 -0.053430866
1.9085057 -3.2296786 0.065481432 39 8 -0.05342856
1.535231 -2.5990388 -0.69689834 43 1 -0.053426258
1.900538 -3.2174783 0.19584116 36 9 -0.053423952
1.5272428 -2.5865462 -0.58387554 43 2 -0.05342165
1.9778265 -3.3509917 0.34043032 87 10 -0.053419344
1.5317492 -2.5962477 -0.47743803 43 3 -0.053417042
1.877652 -3.1838074 0.45384148 20 11 -0.053414736
1.5303074 -2.5958736 -0.36999539 42 4 -0.053412434
1.9591981 -3.3234048 0.61103308 89 12 -0.053410128
1.5203052 -2.579936 -0.26199016 43 5 -0.053407826
1.9669468 -3.3392129 0.75331396 39 13 -0.05340552
1.5312252 -2.6005421 -0.15815927 33 6 -0.053403217
1.7298298 -2.939014 0.78732872 36 14 -0.053400911
1.518438 -2.5798552 -0.052252505 51 7 -0.053398609
1.7211877 -2.9254978 0.90949017 42 15 -0.053396307
1.5294611 -2.6079457 -0.81010365 36 0 -0.053375568
1.8977849 -3.2359896 0.065481432 45 8 -0.053373266
1.5246329 -2.6007531 -0.69599855 46 1 -0.05337096
1.892325 -3.2292624 0.19615518 46 9 -0.053368658
1.5162202 -2.5884731 -0.58311236 45 2 -0.053366352
1.9661173 -3.3578756 0.34043032 93 10 -0.05336405
1.5151467 -2.5876758 -0.47493511 46 3 -0.053361744
1.8630726 -3.1831634 0.45286649 34 11 -0.053359441
1.5176808 -2.5940804 -0.3690204 42 4 -0.053357136
1.946588 -3.3285184 0.61072022 86 12 -0.053354833
1.5052571 -2.5749071 -0.26094431 37 5 -0.053352527
1.9459546 -3.3287683 0.74949777 39 13 -0.053350225
1.5236007 -2.6073301 -0.15826395 32 6 -0.053347923
1.7200744 -2.9447343 0.78732872 38 14 -0.053345617
1.5094237 -2.5851398 -0.052252505 51 7 -0.053343315
1.7080437 -2.9264827 0.90793723 43 15 -0.053341009
1.5159454 -2.604655 -0.80751544 44 0 -0.053320274
1.888489 -3.2460518 0.065551244 30 8 -0.053317968
1.507708 -2.5925827 -0.69239932 46 1 -0.053315666
1.8991086 -3.2669289 0.19803928 27 9 -0.05331336
1.5096015 -2.5968816 -0.58387554 45 2 -0.053311057
1.9459623 -3.3488731 0.33886153 90 10 -0.053308751
1.4961829 -2.5758674 -0.47180638 46 3 -0.053306449
1.84896 -3.1844969 0.45213532 37 11 -0.053304147
1.5106096 -2.6027958 -0.36950788 41 4 -0.053301841
1.9379313 -3.3404186 0.61165881 89 12 -0.053299539
1.4952602 -2.5784221 -0.26076996 30 5 -0.053297233
1.927429 -3.3236525 0.74682647 45 13 -0.053294931
1.5024704 -2.5918972 -0.15700789 30 6 -0.053292625
1.7058766 -2.9439759 0.78552908 38 14 -0.053290322
1.5003905 -2.5903931 -0.052252505 52 7 -0.053288016
1.694914 -2.9274116 0.90638429 40 15 -0.053285714
1.4986635 -2.5968082 -0.80337435 44 0 -0.053264976
1.8951383 -3.2837992 0.066179529 26 8 -0.053262673
1.4918324 -2.5860138 -0.68925005 47 1 -0.053260371
1.896673 -3.2891099 0.19898133 27 9 -0.053258065
1.4941905 -2.5921915 -0.58158582 45 2 -0.053255763
1.9356643 -3.3594356 0.33921015 96 10 -0.053253457
1.4906753 -2.5881808 -0.4730579 46 3 -0.053251155
1.8269345 -3.1720099 0.44945419 42 11 -0.053248849
1.4846773 -2.5788074 -0.36536431 42 4 -0.053246547
1.9203476 -3.3368905 0.60978162 89 12 -0.053244241
1.4842638 -2.5801721 -0.26042137 24 5 -0.053241938
1.9142557 -3.3289921 0.74644482 48 13 -0.053239632
1.4869888 -2.586997 -0.15637985 30 6 -0.05323733
1.6853666 -2.9333115 0.78103006 37 14 -0.053235024
1.4913392 -2.5956147 -0.052252505 51 7 -0.053232722
1.6866093 -2.9366608 0.90741962 37 15 -0.053230416
1.4895902 -2.6020236 -0.80337435 43 0 -0.053209681
1.8999743 -3.3202283 0.066772908 42 8 -0.053207379
1.4794413 -2.5863895 -0.6879003 46 1 -0.053205073
1.8955101 -3.3151116 0.20013271 52 9 -0.053202771
1.481235 -2.5905743 -0.58005941 45 2 -0.053200465
1.9179937 -3.355793 0.33816427 90 10 -0.053198162
1.4786921 -2.588223 -0.47211927 51 3 -0.053195857
1.8133273 -3.1752369 0.44896671 52 11 -0.053193554
1.4752156 -2.5842316 -0.36536431 43 4 -0.053191248
1.8943981 -3.3198864 0.60540146 89 12 -0.053188946
1.4747972 -2.5855944 -0.26042137 23 5 -0.05318664
1.8967874 -3.3254218 0.74415511 48 13 -0.053184338
1.475971 -2.588702 -0.15617052 31 6 -0.053182032
1.6712575 -2.9324045 0.77923048 38 14 -0.05317973
1.4699376 -2.5802126 -0.051833645 51 7 -0.053177424
1.6681867 -2.9293928 0.90327853 35 15 -0.053175122
1.4666924 -2.583945 -0.79612744 43 0 -0.053154387
1.9002184 -3.3477094 0.067191765 64 8 -0.053152081
1.4704041 -2.5915382 -0.6879003 46 1 -0.053149778
1.8927947 -3.3373435 0.20107476 81 9 -0.053147472
1.4620481 -2.578907 -0.57624322 47 2 -0.05314517
1.8978227 -3.3489332 0.33676979 90 10 -0.053142864
1.4691958 -2.5936253 -0.47211927 51 3 -0.053140562
1.8002757 -3.1780927 0.44847921 49 11 -0.053138256
1.4622734 -2.5824559 -0.36438939 42 4 -0.053135954
1.8769598 -3.3161645 0.60352427 89 12 -0.053133648
1.4530084 -2.5681837 -0.25815532 21 5 -0.053131346
1.8826534 -3.328934 0.74339187 49 13 -0.05312904
1.4645071 -2.5906169 -0.15596117 30 6 -0.053126737
1.6604987 -2.9385102 0.77923048 37 14 -0.053124432
1.4599382 -2.5835872 -0.051798742 56 7 -0.053122129
1.6522505 -2.9251056 0.90017265 37 15 -0.053119823
1.4543233 -2.5820615 -0.79405683 42 0 -0.053096294
1.8855779 -3.3490944 0.067087047 99 8 -0.053093992
1.4613492 -2.5966549 -0.6879003 46 1 -0.053091686
1.8905331 -3.3592668 0.20201682 100 9 -0.053089384
1.4544504 -2.5854521 -0.57662481 48 2 -0.053087078
1.8798711 -3.3430514 0.33554959 99 10 -0.053084776
1.4528434 -2.584707 -0.46961632 50 3 -0.05308247
1.785282 -3.1774352 0.44750425 49 11 -0.053080168
1.4537019 -2.5872905 -0.36438939 43 4 -0.053077862
1.8640178 -3.3189259 0.60289848 89 12 -0.053075559
1.4405828 -2.5660386 -0.25745806 19 5 -0.053073253
1.8648787 -3.323174 0.74072057 57 13 -0.053070951
1.4598166 -2.6024268 -0.15637985 29 6 -0.053068645
1.6474452 -2.9369137 0.77743083 38 14 -0.053066343
1.4503845 -2.5866699 -0.051763836 53 7 -0.053064037
1.6349851 -2.9170868 0.89603156 35 15 -0.053061735
1.4419829 -2.5801246 -0.79198635 42 0 -0.053041
1.8637335 -3.3361259 0.066703096 56 8 -0.053038694
1.442279 -2.5827711 -0.68295145 49 1 -0.053036392
1.8803566 -3.3672614 0.20212148 100 9 -0.053034086
1.4401274 -2.5799756 -0.5743351 48 2 -0.053031784
1.8678041 -3.3475273 0.33537531 96 10 -0.053029478
1.4346426 -2.5722587 -0.46648762 47 3 -0.053027175
1.7660356 -3.1677332 0.44531062 43 11 -0.053024869
1.4393142 -2.5816939 -0.36292693 42 4 -0.053022567
1.8501172 -3.3199124 0.60195988 93 12 -0.053020261
1.4291569 -2.5655799 -0.25693512 25 5 -0.053017959
1.8442969 -3.3121872 0.73690438 63 13 -0.053015653
1.4395229 -2.5863116 -0.1551238 30 6 -0.053013351
1.6376972 -2.9423606 0.77743083 36 14 -0.053011045
1.4359655 -2.5809808 -0.051554412 54 7 -0.053008743
1.6253027 -2.9224927 0.89603156 35 15 -0.053006437
1.4315455 -2.5815132 -0.79095107 43 0 -0.052985702
1.8497517 -3.3370409 0.066598386 57 8 -0.052983399
1.4261507 -2.5739028 -0.67935222 49 1 -0.052981094
1.8550435 -3.349344 0.20065607 100 9 -0.052978791
1.4325149 -2.5864544 -0.57471669 46 2 -0.052976485
1.8489726 -3.3397579 0.3339808 96 10 -0.052974183
1.4241917 -2.5735455 -0.46586189 45 3 -0.052971877
1.7497559 -3.1631498 0.44384819 43 11 -0.052969575
1.4206878 -2.5693302 -0.36048955 41 4 -0.052967269
1.8346947 -3.3194346 0.60070843 93 12 -0.052964967
