# .PCD v0.7 - Point Cloud Data file format
VERSION 0.7
FIELDS x y z intensity
SIZE 4 4 4 4
TYPE F F F F
COUNT 1 1 1 1
WIDTH 1355
HEIGHT 1
VIEWPOINT 0 0 0 1 0 0 0
POINTS 1355
DATA ascii
1.9100465 -22.464003 1.1815367 36
0.6292243 -7.4002891 -1.443661 2
1.7449874 -20.565262 1.8056926 14
0.84634858 -9.9951944 -1.5887486 15
1.4407811 -17.050734 2.1010277 12
1.2369928 -14.70016 2.3365054 54
1.8335454 -21.789465 -1.9130685 31
1.0757116 -12.810304 2.4988348 38
0.97043306 -11.605168 2.6886151 39
1.8416278 -22.069923 -0.38657081 45
1.0559576 -12.681219 3.4096823 14
0.48998281 -5.9725389 -1.6057135 12
1.8185418 -22.214296 0.38904905 32
0.52563983 -6.4347425 -1.4905257 4
1.8231852 -22.36702 1.1760937 35
0.60546279 -7.4278779 -1.448622 5
1.6694775 -20.525555 1.8016834 14
0.80889547 -9.9665861 -1.5837427 14
1.3770895 -17.004215 2.0946906 12
1.1807481 -14.64335 2.3268065 46
1.7510663 -21.716295 -1.906096 38
1.0281544 -12.778756 2.4919655 42
1.753981 -21.84763 -1.1486697 11
1.1329881 -14.14347 3.275737 20
1.7591605 -22.008444 -0.38538402 45
1.0104564 -12.669422 3.4055412 6
0.46943477 -5.9780645 -1.6067487 12
1.7338026 -22.128801 0.38744342 31
0.50408703 -6.448195 -1.4932251 3
1.7379537 -22.281652 1.1712788 42
0.57983607 -7.4338608 -1.4493852 5
1.5944183 -20.487558 1.7978486 14
0.77226651 -9.945715 -1.5799882 14
1.3175715 -17.006937 2.0944467 16
0.83973551 -10.863767 -1.3378818 2
1.1256783 -14.596175 2.3186719 46
1.6669807 -21.615004 -1.8966832 45
0.98098105 -12.748991 2.4854782 40
1.6709805 -21.765995 -1.1440641 11
1.0864403 -14.184257 3.2842853 22
1.6747067 -21.914757 -0.3836388 45
0.89499575 -11.738635 3.1544867 15
0.44870824 -5.9815936 -1.6072664 12
1.6496826 -22.04299 0.38583782 31
0.48346245 -6.4751792 -1.4990739 3
1.6533402 -22.195963 1.1664639 42
0.55680001 -7.4749966 -1.4570175 5
1.5203831 -20.459223 1.7948854 14
0.73666936 -9.9365301 -1.5781111 14
1.2551229 -16.96986 2.0893283 12
0.80180973 -10.866632 -1.3378818 2
1.0709487 -14.548795 2.3105373 46
1.5868365 -21.55711 -1.8911053 37
0.93374199 -12.715136 2.4782274 42
1.5895954 -21.697996 -1.1401913 22
0.86263162 -11.803219 2.7322555 5
1.592092 -21.836706 -0.38217279 44
0.85205388 -11.714713 3.1472397 17
0.42892864 -5.9985385 -1.6114074 10
1.5656164 -21.948883 0.38409257 31
0.46140921 -6.4846025 -1.5008734 3
1.5740558 -22.121634 1.162277 35
0.53417981 -7.5258532 -1.466558 5
1.4430494 -20.38093 1.7875642 14
0.69919503 -9.8996315 -1.5718536 14
1.1939257 -16.946415 2.0859158 12
1.0200672 -14.514825 2.3045928 46
1.5040566 -21.455191 -1.8816924 14
0.88606501 -12.671314 2.4690685 36
1.5100926 -21.649614 -1.1373651 11
0.82102072 -11.800325 2.7309058 13
1.5121769 -21.73414 -0.38028795 44
0.81427133 -11.732892 3.1513808 52
0.40969083 -6.0250559 -1.6181368 12
1.4864455 -21.860186 0.38245204 31
0.44095838 -6.5016508 -1.5044726 3
1.4907633 -22.037325 1.1575668 41
0.50883132 -7.5413828 -1.4692293 5
1.3696208 -20.352051 1.784601 14
0.66384238 -9.8644485 -1.5659091 14
1.1340017 -16.894823 2.0790913 12
0.70528269 -10.535125 -1.2964462 6
0.96636754 -14.472965 2.2973969 26
1.4247879 -21.394705 -1.8759401 22
0.84091073 -12.627169 2.4599097 36
0.78175569 -11.80104 2.7304559 30
1.4315548 -21.667454 -0.37903136 43
0.77508897 -11.76265 3.1586277 49
0.39033258 -6.0360198 -1.6207249 10
1.4056253 -21.795397 0.38123038 31
0.42013666 -6.5323215 -1.5112212 3
1.4067976 -21.93277 1.1518098 41
0.48583081 -7.5743766 -1.4753352 5
1.3005987 -20.332623 1.7825093 24
0.62802261 -9.8450212 -1.5624677 14
1.0737581 -16.878868 2.0766537 12
0.91484511 -14.460479 2.294894 13
1.3564736 -21.441071 -1.8796008 14
0.79423076 -12.588881 2.4518957 24
0.74141288 -11.81731 2.7336051 43
1.3511671 -21.596479 -0.37770498 43
0.37043905 -6.0566278 -1.6259012 10
1.3236955 -21.704363 0.37955493 31
0.39745098 -6.5356936 -1.5116711 3
1.325756 -21.863785 1.1479371 40
0.4601011 -7.5877843 -1.4776249 7
1.2321414 -20.378801 1.7861698 63
0.59222651 -9.8234921 -1.5587132 14
1.0144776 -16.876568 2.0759225 16
0.6198411 -10.341639 -1.2720723 11
0.86954594 -14.550346 2.30866 13
1.2892256 -21.57296 -1.8907566 29
0.74841523 -12.56022 2.4457898 18
0.70188493 -11.849007 2.7403536 9
1.2703516 -21.509237 -0.37609938 42
0.70760214 -12.016552 3.2254031 5
0.34929577 -6.0578842 -1.6259012 10
1.2431045 -21.625002 0.37808895 30
0.37530273 -6.5487142 -1.5143706 3
1.2440764 -21.774557 1.1430173 33
0.43439656 -7.6030645 -1.4802963 5
1.1603181 -20.37104 1.7851238 31
0.55166078 -9.7150564 -1.5411925 21
0.9542163 -16.856222 2.0729976 16
0.58373797 -10.34374 -1.2720723 2
0.81997228 -14.574987 2.3121016 39
1.2134684 -21.569372 -1.8900594 86
0.71127301 -12.682326 2.4690685 20
1.2096676 -21.636473 -1.1356903 11
0.80485749 -14.441138 3.3391736 26
1.1903788 -21.42569 -0.37456357 42
0.66159099 -11.945651 3.2057328 15
0.32866988 -6.0687122 -1.6284895 12
1.1627603 -21.539352 0.37651822 30
0.35401234 -6.5791726 -1.521119 3
1.1641005 -21.704975 1.1391445 39
0.41016632 -7.6476641 -1.4886919 5
1.0804834 -20.211824 1.7708303 10
0.52131999 -9.7839899 -1.5518301 14
0.89368457 -16.827736 2.0690978 20
0.54815239 -10.355625 -1.2732911 15
0.76878023 -14.571843 2.3111632 46
1.1356527 -21.525726 -1.8858758 27
0.6709162 -12.759233 2.4835701 46
1.1337162 -21.632586 -1.1352717 11
0.7569862 -14.492513 3.3504212 21
1.1110095 -21.341846 -0.37302774 42
0.61908925 -11.932454 3.2015917 17
0.30816811 -6.0833278 -1.632113 12
1.0837351 -21.46739 0.37519184 30
0.33153477 -6.5901003 -1.5233686 3
1.0837309 -21.617149 1.1343297 39
0.38504201 -7.6804218 -1.4947978 5
1.0080351 -20.177666 1.7675184 14
0.48539501 -9.7502384 -1.5461985 14
0.8327769 -16.787132 2.0637355 16
0.51112008 -10.339631 -1.2710973 9
0.71664476 -14.548789 2.3070958 53
1.0563868 -21.445978 -1.8785548 100
0.62464273 -12.7262 2.4767008 60
1.0611264 -21.696257 -1.1384119 11
0.58782136 -12.062029 2.7880435 11
1.0332078 -21.277687 -0.37184098 42
0.5788334 -11.963486 3.2093563 50
0.28811505 -6.1094527 -1.6388422 12
1.0041002 -21.371168 0.37344658 30
0.30843693 -6.5892706 -1.5229187 3
1.0043579 -21.537006 1.1299334 39
0.35969302 -7.7130971 -1.5009036 5
0.93528354 -20.131306 1.7631607 10
0.45044491 -9.7321396 -1.5430697 14
0.77344197 -16.774075 2.0617857 16
0.47101676 -10.254101 -1.2603729 2
0.6639607 -14.509762 2.3005254 52
0.97633058 -21.336088 -1.8686191 32
0.57851726 -12.69104 2.46945 48
0.54430556 -12.032859 2.7808449 16
0.95514721 -21.197262 -0.37037495 42
0.53836858 -11.994382 3.2171209 26
0.26830325 -6.1451621 -1.6481597 12
0.92636901 -21.30262 0.37219 30
0.28661534 -6.6175637 -1.5292172 3
0.92904603 -21.450428 1.1252232 32
0.33369759 -7.7358818 -1.5051014 5
0.86380875 -20.106581 1.7607204 10
0.41495159 -9.6981287 -1.537438 14
0.71319401 -16.737005 2.056911 20
0.4310118 -10.156516 -1.248186 6
0.6133278 -14.452677 2.2911394 45
0.89948916 -21.28363 -1.8637383 36
0.53305763 -12.665522 2.4641075 48
0.50311059 -12.054156 2.7853441 50
0.88117933 -21.112402 -0.36883914 41
0.52201718 -12.559716 3.3682714 13
0.24638635 -6.1344786 -1.645054 12
0.85291231 -21.235641 0.37096834 30
0.26505819 -6.6282139 -1.5314667 3
0.85106236 -21.375708 1.121141 26
0.30754837 -7.7585778 -1.5092993 5
0.79142028 -20.053728 1.7558396 10
0.38239932 -9.6895828 -1.5358738 14
0.6585449 -16.761099 2.0595922 40
0.39973527 -10.219381 -1.2557418 6
0.5610314 -14.407355 2.2836306 45
0.82056117 -21.167187 -1.8532797 71
0.49021727 -12.645639 2.4599097 46
0.464632 -12.094705 2.794342 18
0.80427045 -21.031422 -0.36737317 41
0.47530612 -12.486175 3.3480833 9
0.22661112 -6.1507068 -1.649195 12
0.77577603 -21.156557 0.36953726 30
0.24241711 -6.6427307 -1.5346161 3
0.77354437 -21.29871 1.1169541 25
0.28295812 -7.790947 -1.5154052 7
0.7230435 -20.004475 1.7513075 10
0.34665656 -9.637558 -1.5274264 10
0.60195249 -16.816856 2.0661731 40
0.36879471 -10.353631 -1.2720723 2
0.50975519 -14.381589 2.2792504 32
0.73222488 -20.65807 -1.8084817 13
0.4446207 -12.606071 2.4518957 46
0.51497209 -14.746873 3.4066589 24
0.7282154 -20.958158 -0.36604679 40
0.42017078 -12.153745 3.2585318 13
0.20604175 -6.1784906 -1.6564419 12
0.69900328 -21.071198 0.36800143 19
0.22032061 -6.6766477 -1.5422645 3
0.69605011 -21.205462 1.1119298 19
0.25647011 -7.8134708 -1.5196029 7
0.65132439 -19.949129 1.7462524 10
0.3080118 -9.4847107 -1.5030226 19
0.5393995 -16.699814 2.0515487 11
0.65829128 -20.491461 -2.5173333 9
0.45810139 -14.337871 2.2720544 19
0.65953952 -20.642574 -1.8069128 39
0.39886683 -12.552604 2.4412105 31
0.65519041 -20.733185 -1.0871226 10
0.46477953 -14.789483 3.4161067 16
0.65292645 -20.892616 -0.36486 40
0.37798342 -12.162862 3.2606025 39
0.18527971 -6.2062068 -1.6636889 12
0.62355042 -21.00955 0.3668845 19
0.197014 -6.6773758 -1.5422645 3
0.62008959 -21.141882 1.1084757 18
0.23017175 -7.8476791 -1.5260904 5
0.58087152 -19.923399 1.7438121 7
0.27856526 -9.6120977 -1.523046 10
0.47853243 -16.612303 2.0405805 7
0.29667416 -10.361906 -1.2728035 4
0.40664491 -14.290017 2.2642329 12
0.58521193 -20.565088 -1.7999403 39
0.35416079 -12.522519 2.4351046 24
0.58163506 -20.693419 -1.0849245 21
0.34279501 -12.272277 2.8343832 10
0.57783163 -20.816811 -0.36349872 27
0.33664453 -12.20466 3.2714727 54
0.16351363 -6.2029529 -1.6626536 12
0.5471729 -20.895655 0.36486 9
0.17431229 -6.7013993 -1.5476632 3
0.54370952 -21.044088 1.1032422 12
0.20267615 -7.8445101 -1.5253272 5
0.51071084 -19.901405 1.7417203 7
0.24430503 -9.5853662 -1.5186659 10
0.42024183 -16.601965 2.0391181 3
0.25935495 -10.317237 -1.2671976 2
0.35582393 -14.25383 2.2582881 12
0.51138371 -20.485346 -1.7927936 39
0.31000865 -12.506016 2.43167 18
0.50748074 -20.617453 -1.0808423 10
0.29971772 -12.263658 2.8321338 12
0.50317448 -20.736738 -0.36206761 19
0.14199334 -6.20928 -1.6642065 10
0.47341296 -20.861452 0.36423174 9
0.15223496 -6.7604151 -1.5611603 3
0.46881783 -20.981962 1.0998925 12
0.1755106 -7.8549843 -1.5272354 5
0.44039923 -19.865219 1.7384084 6
0.21054117 -9.5723352 -1.5164758 9
0.36219853 -16.59936 2.0386305 3
0.43933496 -20.296783 -2.4927156 23
0.30530465 -14.219435 2.2526565 6
0.43820727 -20.409319 -1.7859954 38
0.26442945 -12.416732 2.4141154 1
0.43491825 -20.591143 -1.0793768 10
0.25739861 -12.288009 2.8375325 24
0.4289588 -20.650402 -0.36053181 19
0.29026043 -14.091802 3.7766876 15
0.12069137 -6.2290525 -1.6693829 10
0.39913064 -20.787003 0.36290532 9
0.12893295 -6.7764921 -1.5647595 3
0.39391983 -20.895609 1.095287 6
0.14901634 -7.9046216 -1.5367758 5
0.37016052 -19.818827 1.7342249 6
0.17654127 -9.5414133 -1.51147 8
0.30396426 -16.584646 2.0366805 3
0.18242182 -10.048867 -1.2340491 6
0.25644681 -14.263865 2.2595396 6
0.36538395 -20.323074 -1.7783258 38
0.22021277 -12.368505 2.4045751 1
0.36177358 -20.520645 -1.0756086 10
0.21514827 -12.325852 2.8460808 10
0.35542357 -20.567797 -0.35906583 13
0.24083909 -14.079207 3.7730644 6
0.099101163 -6.2390943 -1.6719712 12
0.32562765 -20.728287 0.36185819 9
0.10536761 -6.7827463 -1.5661093 3
0.31987575 -20.824961 1.0915188 6
0.12184601 -7.9325752 -1.5421184 7
0.30046281 -19.786131 1.7312616 6
0.14311558 -9.53407 -1.5102185 4
0.24565844 -16.557817 2.0332682 3
0.14757615 -10.065322 -1.235999 2
0.2074576 -14.319981 2.2683001 6
0.29375014 -20.276415 -1.7741423 37
0.17700882 -12.367236 2.4041934 5
0.28822041 -20.385983 -1.068491 10
0.20980702 -15.025271 3.4691951 2
0.2828514 -20.512926 -0.35808849 13
0.16957289 -12.455425 3.3377306 1
0.077513397 -6.2548556 -1.6761122 12
0.25234151 -20.653315 0.36053181 9
0.081879124 -6.7986612 -1.5697085 3
0.24644324 -20.76404 1.088274 12
0.094713435 -7.9800668 -1.5512772 5
0.23130311 -19.779091 1.7305644 6
0.11019954 -9.5661163 -1.5152245 1
0.18731846 -16.510937 2.0274186 3
0.1117309 -10.002255 -1.2281992 20
0.15775394 -14.346295 2.2723672 13
0.22205219 -20.19364 -1.7668213 37
0.13413511 -12.395263 2.4095361 15
0.2163773 -20.322956 -1.0651414 10
0.21067151 -20.4578 -0.35711116 13
0.12617366 -12.463668 3.3398011 11
0.055765212 -6.2647471 -1.6787004 12
0.17954785 -20.574083 0.35913563 19
0.058430001 -6.8320336 -1.5773568 1
0.17690429 -20.684855 1.0840871 12
0.066907302 -7.986239 -1.5524222 5
0.16198139 -19.745909 1.7276011 6
0.077090934 -9.6019964 -1.520856 1
0.12951338 -16.489655 2.0247374 7
0.15375544 -20.021049 -2.4583485 9
0.10993577 -14.315133 2.2673614 19
0.15103558 -20.124561 -1.7607204 30
0.091429159 -12.472219 2.4244192 5
0.14543748 -20.323587 -1.0651414 10
0.087233245 -12.495018 2.8847723 2
0.14221478 -20.370401 -0.35557532 12
0.084657378 -12.436974 3.3325541 11
0.033949651 -6.2745624 -1.6812886 12
0.11082469 -20.48258 0.35753 19
0.035824593 -6.8419328 -1.5796063 3
0.1043351 -20.613447 1.0803189 17
0.039115842 -8.0040932 -1.5558566 7
0.092847228 -19.702522 1.7237663 6
0.045296468 -9.6120768 -1.5224204 3
0.07471329 -16.464188 2.021569 7
0.086954534 -19.928152 -2.446893 22
0.059758697 -14.266046 2.2595396 31
0.080548719 -20.065191 -1.7554909 18
0.061047219 -15.207247 2.9560132 8
0.077746622 -20.248064 -1.0611639 10
0.045825887 -12.503034 2.8865719 8
0.070886433 -20.306784 -0.35445839 12
0.041153692 -12.410148 3.3253071 11
0.013182487 -6.2939591 -1.6864649 11
0.039200608 -20.418852 0.35641304 19
0.011951583 -6.8478627 -1.580956 1
0.035882965 -20.559753 1.0774928 29
0.012604586 -8.0238104 -1.5596728 5
0.027454397 -19.662872 1.7202801 10
0.011813501 -9.6694622 -1.5314937 7
0.017226964 -16.448465 2.019619 11
0.0087865554 -10.068384 -1.2362427 6
0.01242405 -14.236536 2.2548466 38
0.013958853 -19.993626 -1.7492157 18
0.0066221785 -12.649246 2.4587648 2
0.0070328033 -20.144354 -1.055721 10
0.0021901631 -12.544041 2.8960199 18
0.0035333235 -20.236919 -0.35323673 19
-5.4212995e-07 -12.402488 3.3232365 11
-0.0088086128 -6.3094215 -1.6906061 11
-0.028400792 -20.342882 0.35508665 28
-0.010771564 -6.8576078 -1.5832055 3
-0.035746366 -20.481859 1.0734105 34
-0.015469075 -8.0571804 -1.5661603 5
-0.041105103 -19.626986 1.7171425 10
-0.020478414 -9.7780933 -1.5487014 7
-0.037251286 -16.418657 2.0159631 11
-0.024626099 -10.078284 -1.2374614 9
-0.037178118 -14.200935 2.2492149 44
-0.055596508 -19.909872 -1.7418946 12
-0.035228543 -12.615824 2.4522772 8
-0.059520207 -20.060383 -1.0513248 10
-0.048033886 -15.28974 3.5299318 8
-0.066855311 -20.16082 -0.35191032 25
-0.043251716 -12.390822 3.3201311 11
-0.030946765 -6.3325343 -1.6968178 11
-0.10268037 -20.286652 0.35410932 28
-0.036008038 -6.8770099 -1.5877045 3
-0.11042725 -20.409693 1.0696424 34
-0.043901101 -8.1140118 -1.5772274 5
-0.10941608 -19.59086 1.7140048 13
-0.054166667 -9.4046135 -1.4895692 8
-0.097228453 -16.384665 2.0118194 15
-0.12047409 -19.721525 -2.4215441 4
-0.08906579 -14.175024 2.2451477 44
-0.12469693 -19.8458 -1.7363167 5
-0.081556566 -12.629352 2.4549487 22
-0.13254178 -19.984137 -1.0473473 10
-0.10431229 -15.324537 3.5380301 20
-0.14039929 -20.110447 -0.35103768 37
-0.088569507 -12.377057 3.3165076 13
-0.053180143 -6.3478422 -1.7009588 11
-0.17279279 -20.204184 0.35267821 28
-0.060115285 -6.8885341 -1.5904039 3
-0.18085007 -20.317312 1.0648274 33
-0.07238055 -8.1314774 -1.5806618 5
-0.17760192 -19.568443 1.7120874 13
-0.088365249 -9.5525131 -1.5130343 9
-0.15427375 -16.368345 2.0098693 15
-0.13794553 -14.113394 2.2354488 50
-0.19346283 -19.793446 -1.7317846 11
-0.12597463 -12.662364 2.4614363 32
-0.2015285 -19.907658 -1.0433698 10
-0.13119471 -12.740188 2.9414599 6
-0.20963429 -20.017853 -0.34943208 31
-0.13167046 -12.367014 3.3139193 16
-0.075338855 -6.3476176 -1.7009588 11
-0.2424728 -20.133472 0.35145655 37
-0.084612116 -6.9253058 -1.5989521 3
-0.25093114 -20.248657 1.0612687 39
-0.10098439 -8.1488428 -1.5840963 5
-0.24540727 -19.527859 1.7086011 13
-0.12299187 -9.6528826 -1.5289906 14
-0.21109985 -16.343887 2.0069444 18
-0.25695574 -19.628897 -2.4103322 4
-0.18660736 -14.067395 2.2282526 43
-0.2614443 -19.708977 -1.7244635 11
-0.20795357 -15.472975 3.0079131 11
-0.27052915 -19.870886 -1.0414857 10
-0.17564048 -12.737703 2.94101 12
-0.27850142 -19.945019 -0.3481755 36
-0.17470092 -12.35682 3.311331 20
-0.097732499 -6.3627691 -1.7050999 11
-0.31172583 -20.066523 0.35030469 27
-0.10933742 -6.9600415 -1.6070504 3
-0.3209109 -20.203722 1.0589658 39
-0.13005142 -8.1877012 -1.5917287 7
-0.3130891 -19.497004 1.7059865 23
-0.1576172 -9.7096739 -1.5380639 14
-0.26762682 -16.311295 2.0030446 15
-0.32428753 -19.556429 -2.4015574 4
-0.23524767 -14.039007 2.2238727 43
-0.32897192 -19.632242 -1.7178397 11
-0.24351768 -14.382704 2.7961152 2
-0.33825073 -19.773966 -1.0364614 10
-0.22063985 -12.768188 2.9482086 36
-0.34721401 -19.891941 -0.34726799 42
-0.21824218 -12.379314 3.3175428 45
-0.12030565 -6.3817043 -1.7102764 11
-0.37998185 -19.971344 0.34866416 37
-0.13400529 -6.9791012 -1.6115494 3
-0.38652754 -20.130659 1.0551976 38
-0.15924075 -8.2186041 -1.5978346 5
-0.3818849 -19.53364 1.7092985 54
-0.19135259 -9.7011633 -1.5368123 14
-0.32444614 -16.304306 2.0023134 30
-0.28112796 -14.004577 2.218554 43
-0.39644873 -19.579184 -1.7133076 11
-0.26321501 -12.888041 2.5057039 4
-0.40603933 -19.712761 -1.0333213 10
-0.26581371 -12.796566 2.954957 14
-0.41192868 -19.830702 -0.34622085 42
-0.26022324 -12.422944 3.3294482 52
-0.14292739 -6.3966966 -1.7144175 11
-0.44504648 -19.917995 0.34775665 45
-0.15767482 -7.001997 -1.6169481 3
-0.45488936 -20.045322 1.0508014 38
-0.18828638 -8.2336998 -1.6008875 5
-0.44979286 -19.520237 1.7082524 23
-0.21182726 -9.1929388 -1.456405 11
-0.37947765 -16.344816 2.007432 60
-0.25016725 -10.694737 -1.3135079 2
-0.32949814 -13.981786 2.2151122 37
-0.46375296 -19.533859 -1.7094727 11
-0.30557954 -12.871395 2.5026507 10
-0.46930429 -19.623451 -1.0287156 10
-0.37413985 -15.530851 3.5866196 5
-0.47940487 -19.757175 -0.34496427 42
-0.30486056 -12.474105 3.3434246 56
-0.16443641 -6.4077744 -1.7175232 11
-0.51332915 -19.868343 0.34691894 36
-0.1834829 -7.0540023 -1.6290956 6
-0.52287406 -19.967743 1.0468239 38
-0.21615492 -8.2546186 -1.6050854 5
-0.51084512 -19.379219 1.6960508 13
-0.25182778 -9.4903202 -1.5036483 13
-0.43806693 -16.400938 2.0145004 67
-0.28509691 -10.604502 -1.3025397 6
-0.37717998 -13.939083 2.2085421 18
-0.52723205 -19.484415 -1.7052891 11
-0.35088021 -12.883988 2.5053222 36
-0.53615898 -19.5618 -1.0255755 10
-0.35806945 -12.981467 2.9981477 2
-0.54636806 -19.68342 -0.34370768 42
-0.34942669 -12.509656 3.3532596 63
-0.18702735 -6.414886 -1.7195939 11
-0.58045465 -19.790474 0.34559253 45
-0.20873722 -7.0747457 -1.6340445 4
-0.59091043 -19.909899 1.0438931 37
-0.24601519 -8.2891369 -1.6119545 5
-0.57753968 -19.345453 1.6932617 13
-0.28827423 -9.5999556 -1.5211689 17
-0.49423403 -16.363596 2.0101132 45
-0.32156959 -10.585585 -1.3003459 4
-0.42486933 -13.90609 2.203536 12
-0.59201789 -19.376909 -1.6960508 16
-0.39735779 -12.931743 2.5148625 32
-0.6033293 -19.523876 -1.0236914 10
-0.40289715 -12.964556 2.9945483 10
-0.61257702 -19.601444 -0.3423115 42
-0.39442527 -12.55084 3.3646479 63
-0.20973292 -6.4238477 -1.722182 11
-0.6467756 -19.704386 0.34412655 36
-0.23516694 -7.1265612 -1.6461918 9
-0.65828925 -19.843838 1.0405437 37
-0.27625126 -8.3274717 -1.6195869 5
-0.64340246 -19.293537 1.6889039 13
-0.31906816 -9.5179453 -1.5083412 11
-0.5500828 -16.324074 2.0054822 41
-0.65124476 -19.226503 -2.3620718 4
-0.47582659 -13.975595 2.2147994 12
-0.65775228 -19.31897 -1.69117 33
-0.54012901 -15.783179 3.0697353 24
-0.66941738 -19.461767 -1.0205512 10
-0.44882157 -12.982546 2.9990475 27
-0.67939621 -19.553223 -0.34150869 48
-0.43958223 -12.588001 3.3750005 63
-0.23299336 -6.4462438 -1.7283937 11
-0.7135188 -19.646053 0.34314921 45
-0.26103699 -7.1529608 -1.6524904 9
-0.72550207 -19.78553 1.0376127 43
-0.3062523 -8.3519602 -1.6245478 5
-0.70986581 -19.267281 1.6868122 13
-0.35009813 -9.4575529 -1.4989552 8
-0.60491997 -16.264526 1.9984137 36
-0.36684924 -9.8173704 -1.2062629 2
-0.52690703 -14.035041 2.2244983 37
-0.72294462 -19.256826 -1.6859407 33
-0.59654975 -15.81651 3.0766044 18
-0.73492813 -19.395447 -1.0172018 20
-0.49584323 -13.025689 3.0093951 24
-0.7455042 -19.49478 -0.34053135 48
-0.48530003 -12.632719 3.3874238 63
-0.2561051 -6.4608335 -1.7325348 9
-0.77939016 -19.57551 0.34196246 44
-0.28802866 -7.2026329 -1.6641879 8
-0.78759873 -19.69521 1.0330071 42
-0.33682171 -8.3861513 -1.6314169 5
-0.7756719 -19.228851 1.6836746 13
-0.38174984 -9.422719 -1.4936365 3
-0.66031659 -16.228598 1.9942701 39
-0.39771214 -9.7327251 -1.1960258 11
-0.57312226 -14.025323 2.2232468 43
-0.78803313 -19.202427 -1.6814086 33
-0.54140729 -13.136764 2.555696 6
-0.79932094 -19.312939 -1.0130149 19
-0.63987374 -15.395398 3.5573761 5
-0.80715835 -19.420275 -0.33927476 47
-0.52952576 -12.687016 3.4024353 66
-0.27973932 -6.4849911 -1.739264 11
-0.84145743 -19.506887 0.3408106 26
-0.31334478 -7.234736 -1.6718361 8
-0.85373807 -19.632479 1.0298671 36
-0.36652219 -8.3947315 -1.6333251 7
-0.84121609 -19.190199 1.6805371 9
-0.40269932 -9.1865568 -1.456405 1
-0.71194762 -16.176739 1.9881767 39
-0.42893374 -9.7075558 -1.193101 9
-0.6209386 -13.997582 2.2191796 50
-0.49383312 -11.088611 -0.97108924 5
-0.58426601 -13.119205 2.5526428 14
-0.86023903 -19.240347 -1.0093514 19
-0.59288204 -13.208903 3.0525858 2
-0.87179285 -19.34742 -0.33805311 47
-0.57642621 -12.742987 3.4179645 66
-0.30133191 -6.4859571 -1.7397816 11
-0.90777236 -19.465879 0.34014741 35
-0.34041938 -7.2725301 -1.6808342 6
-0.91659647 -19.581657 1.027355 36
-0.39537096 -8.4150419 -1.6375229 5
-0.90278435 -19.143518 1.6767021 9
-0.44531801 -9.4080629 -1.4917592 3
-0.76747102 -16.154327 1.9857392 36
-0.55320448 -11.601594 -1.4261152 2
-0.66565818 -13.959929 2.2135479 50
-0.52907944 -11.055071 -0.96830028 11
-0.63231963 -13.164149 2.5618017 31
-0.92508519 -19.18935 -1.0068393 29
-0.63945735 -13.216485 3.0548353 11
-0.93324131 -19.288496 -0.33707577 41
-0.62083584 -12.785384 3.4298701 72
-0.3250308 -6.5060902 -1.7454758 11
-0.96902663 -19.396852 0.33899555 26
-0.36658251 -7.3122339 -1.6902822 4
-0.98133147 -19.506529 1.0235868 31
-0.42593056 -8.4371395 -1.6421022 7
-0.968494 -19.118364 1.6747848 9
-0.47301632 -9.3374853 -1.4808089 3
-0.81912029 -16.114025 1.9811082 32
-0.96522474 -18.923105 -2.3264859 12
-0.7126689 -13.923985 2.2082293 43
-0.56602955 -11.021319 -0.96551126 14
-0.82429343 -16.050049 3.1239252 12
-0.98573416 -19.128332 -1.0038037 19
-0.68287921 -13.206507 3.0530357 27
-0.99828607 -19.241186 -0.33630785 41
-0.66736847 -12.819797 3.4397054 64
-0.34732297 -6.5184808 -1.7490991 11
-1.0319229 -19.303493 0.33742484 25
-0.39356694 -7.3381524 -1.6965809 5
-1.0459802 -19.439165 1.0202372 30
-0.45633233 -8.4807711 -1.6508795 7
-1.0298454 -19.077248 1.6714728 9
-0.49780935 -9.1917858 -1.4579694 3
-0.87267178 -16.061514 1.9750148 24
-0.52562952 -9.6431599 -1.1857889 4
-0.75932562 -13.885908 2.2025976 42
-0.60159576 -11.001477 -0.96394247 17
-0.88192701 -16.076477 3.1296492 21
-1.0488795 -19.058964 -1.0003495 19
-0.73165876 -13.252688 3.0642834 27
-1.0619041 -19.173695 -0.33519092 41
-0.71458048 -12.861752 3.4516108 56
-0.37160811 -6.5442309 -1.7563461 9
-1.0966835 -19.253855 0.336622 25
-0.42218012 -7.3892646 -1.7087282 4
-1.1098303 -19.365604 1.0165738 25
-0.48851669 -8.5242062 -1.6596566 5
-1.0951761 -19.051655 1.6695553 9
-0.5312553 -9.2136574 -1.4617239 6
-0.92678356 -16.024677 1.9708712 24
-0.55974853 -9.6491928 -1.1867638 9
-0.80629891 -13.857535 2.1985302 36
-0.63767886 -10.95953 -0.96045625 17
-0.78133738 -13.38821 2.6068327 4
-1.1115482 -18.989389 -0.99689537 19
-0.89726943 -15.282987 3.534431 2
-1.1257706 -19.117968 -0.33428341 34
-0.76300174 -12.918963 3.4676578 66
-0.39572841 -6.5641055 -1.76204 9
-1.1613514 -19.207993 0.33588901 25
-0.45044801 -7.4285946 -1.7181761 5
-1.1715047 -19.31995 1.0143756 20
-0.52041405 -8.557723 -1.6665258 7
-1.1594872 -19.011919 1.6664177 6
-0.57306254 -9.369482 -1.4867533 9
-0.98076856 -15.989644 1.9669714 17
-0.59927636 -9.7422857 -1.1984632 13
-0.84945875 -13.809438 2.1913342 30
-1.1613525 -18.826164 -1.6502067 26
-0.827218 -13.371685 2.6041613 4
-1.1751044 -18.941542 -0.99459267 19
-0.94940186 -15.26031 3.5299318 2
-1.1849407 -19.046268 -0.33309662 28
-0.80848521 -12.958779 3.4790456 58
-0.41925412 -6.5723238 -1.7646283 9
-1.220459 -19.132195 0.33463246 17
-0.47719383 -7.4601212 -1.7258245 6
-1.2348464 -19.251963 1.0110261 15
-0.55091321 -8.56565 -1.6684339 7
-1.2219957 -18.948109 1.6611885 6
-0.60094965 -9.3182487 -1.4789317 13
-1.0322502 -15.962533 1.9640466 10
-1.2106247 -18.670288 -2.2972372 8
-0.89548081 -13.772878 2.1860156 24
-1.2223932 -18.750423 -1.6439316 26
-0.87308711 -13.392379 2.6087408 18
-1.2343936 -18.883728 -0.99176645 19
-0.88248992 -13.464188 3.1151221 4
-1.2461702 -18.9622 -0.33170044 28
-0.85714328 -13.007925 3.493022 56
-0.4415634 -6.5786076 -1.7666988 9
-1.2837425 -19.075943 0.33372495 17
-0.50848019 -7.5361824 -1.7438205 6
-1.2979951 -19.187757 1.0078859 15
-0.58103675 -8.5892401 -1.673395 5
-1.2828016 -18.914135 1.6585737 6
-0.63052583 -9.2727365 -1.4720485 11
-1.0879639 -15.958833 1.9640466 7
-0.6604324 -9.6627216 -1.1892011 11
-0.94206488 -13.74799 2.1825738 24
-0.71903545 -10.493217 -0.92019033 5
-0.92534715 -13.469553 2.624387 2
-1.2974211 -18.837461 -0.98956835 9
-0.93042177 -13.474634 3.1182716 14
-1.3083487 -18.899883 -0.33068818 17
-0.90588987 -13.053035 3.5059628 42
-0.46615782 -6.6001506 -1.7729106 9
-1.3474979 -19.03145 0.33302683 17
-0.53740406 -7.5712948 -1.7523687 8
-1.3617076 -19.137287 1.0054785 15
-0.61366409 -8.6243677 -1.6806457 5
-1.3478247 -18.89563 1.6573535 6
-0.66486144 -9.2980633 -1.4764287 13
-1.1480643 -16.016317 1.9716024 7
-1.3341092 -18.566341 -2.285538 16
-0.98905391 -13.730825 2.1803839 12
-0.75451314 -10.474747 -0.91879582 14
-1.181621 -16.364311 3.1891818 6
-1.3565359 -18.741182 -0.98475343 9
-0.97702867 -13.465473 3.1169219 11
-1.3705426 -18.843348 -0.3297807 16
-0.95523953 -13.101814 3.5199392 40
-0.48919398 -6.5984836 -1.7729106 9
-1.4097732 -18.970795 0.33204949 17
-0.56614494 -7.6004667 -1.7595671 5
-1.422848 -19.056732 1.001501 10
-0.6468339 -8.6632872 -1.6886597 2
-1.4122881 -18.870943 1.6556104 13
-0.69908839 -9.3193245 -1.4801831 11
-1.2023259 -15.990438 1.9689212 7
-0.72339821 -9.5984926 -1.1818891 6
-1.0368305 -13.72532 2.1800709 6
-1.4044522 -18.591808 -1.6312069 15
-1.0329951 -13.642869 2.6594958 2
-1.4192244 -18.700485 -0.98286933 9
-1.022696 -13.444492 3.1128726 14
-1.4344862 -18.814522 -0.32936183 16
-1.0061201 -13.165819 3.5380566 32
-0.51401806 -6.6198487 -1.7791222 9
-1.4716389 -18.909933 0.33107215 8
-0.59585553 -7.6392436 -1.7690151 6
-1.4845349 -18.989922 0.99825615 10
-0.67814177 -8.6746769 -1.691331 2
-1.4817314 -18.911583 1.6596197 26
-0.72357231 -9.2144222 -1.4639139 11
-1.2592263 -15.999995 1.9706273 14
-0.75736725 -9.6018448 -1.1826202 18
-1.077728 -13.633001 2.1659918 12
-1.0792162 -13.621566 2.6560614 2
-1.4825982 -18.671524 -0.98161328 9
-1.0679182 -13.419472 3.1079237 11
-1.4929987 -18.719698 -0.32779112 16
-1.0571511 -13.225776 3.5551386 29
-0.53696716 -6.6160874 -1.7786045 11
-1.5308321 -18.820972 0.32960618 8
-0.62600023 -7.6798477 -1.7789129 6
-1.5470735 -18.938841 0.99584872 14
-0.71001661 -8.6918249 -1.6951473 2
-1.549037 -18.92218 1.6610141 19
-0.75734651 -9.2315283 -1.4670426 11
-1.3132802 -15.973742 1.9679463 21
-0.97164744 -11.793177 -1.4529265 2
-1.1279105 -13.660654 2.1709976 12
-0.86235851 -10.444428 -0.9168784 8
-1.1296721 -13.652933 2.6629305 15
-1.5444626 -18.626429 -0.9795199 9
-1.1144334 -13.411778 3.107024 11
-1.5550131 -18.674517 -0.32709301 16
-1.1055591 -13.248958 3.5623856 25
-0.56136173 -6.6295733 -1.7827457 11
-1.5917846 -18.759724 0.32862884 16
-0.6585837 -7.7455764 -1.7946595 8
-1.6087626 -18.881582 0.99312723 24
-0.74301827 -8.7205915 -1.7012531 2
-1.6021953 -18.765785 1.6477664 9
-0.79327184 -9.2721281 -1.4739258 11
-1.3673358 -15.94928 1.9655088 24
-0.92683423 -10.788942 -1.3295947 13
-1.192361 -13.851476 2.2019718 6
-0.89641917 -10.413565 -0.91443807 8
-1.1785043 -13.6626 2.6656017 2
-1.6015582 -18.52939 -0.97470492 9
-1.1605688 -13.400041 3.1052244 9
-1.6151762 -18.611198 -0.32608074 22
-1.1574922 -13.310452 3.5799851 27
-0.5855183 -6.6391196 -1.7858515 9
-1.6512741 -18.686325 0.32744205 16
-0.68922549 -7.7839942 -1.8041074 8
-1.6659074 -18.814472 0.98988241 29
-0.77709806 -8.7590113 -1.709267 2
-1.6629276 -18.706495 1.6430601 12
-0.83456999 -9.3696489 -1.489882 9
-1.4185879 -15.89498 1.9594156 31
-0.96342975 -10.773778 -1.3281323 2
-1.5018511 -16.7948 2.6706495 8
-0.96494544 -10.769555 -0.94598836 2
-1.496003 -16.663837 3.2521486 14
-1.6622945 -18.479927 -0.97240222 9
-1.2064624 -13.386204 3.1029749 14
-1.6727567 -18.559935 -0.32527795 33
-1.2070099 -13.366186 3.5960321 21
-0.61274773 -6.681282 -1.7977571 9
-1.7088488 -18.632956 0.32660434 16
-0.71735275 -7.8068933 -1.8099562 5
-1.7264434 -18.752853 0.98695159 34
-0.81145495 -8.7973003 -1.717281 7
-1.726199 -18.678755 1.6411427 12
-0.85891074 -9.2940512 -1.4783059 8
-1.46763 -15.850656 1.9545406 31
-1.0704794 -11.539423 -1.4229466 4
-1.2921003 -13.902047 2.2113578 6
-0.99625307 -10.698671 -0.94006181 2
-1.2947752 -13.904475 2.7144489 2
-1.7176284 -18.410675 -0.96905267 9
-1.2521144 -13.395712 3.1061242 26
-1.7311939 -18.48629 -0.3240912 33
-1.2590734 -13.419593 3.6115611 19
-0.63544893 -6.6849828 -1.79931 9
-1.7698966 -18.585072 0.32587135 24
-0.74959606 -7.85672 -1.8221035 8
-1.786194 -18.687067 0.98381138 38
-0.84006339 -8.7886982 -1.7161362 20
-1.7869917 -18.661028 1.6400968 18
-0.88870603 -9.2634687 -1.4739258 11
-1.5212414 -15.827652 1.952347 38
-1.1065675 -11.492146 -1.4175844 6
-1.3373939 -13.864025 2.206039 12
-1.0236253 -10.592005 -0.93099761 2
-1.341791 -13.884237 2.711396 7
-1.7726452 -18.309145 -0.96402836 9
-1.3041362 -13.445568 3.1187212 28
-1.7906826 -18.428385 -0.32318369 38
-1.3105869 -13.463186 3.6245019 21
-0.66089499 -6.6922212 -1.8018982 11
-1.8290612 -18.52107 0.32485908 40
-0.78469205 -7.9316263 -1.8400996 6
-1.846881 -18.635004 0.98140395 38
-0.87129915 -8.7757912 -1.714228 25
-1.8516295 -18.616682 1.6367848 21
-0.92226076 -9.256218 -1.4733 8
-1.5747081 -15.804468 1.9501534 38
-1.1381983 -11.403275 -1.4071035 6
-1.3904991 -13.906446 2.2135479 18
-1.0331889 -10.314787 -0.90694261 2
-1.3946307 -13.898761 2.7152121 26
-1.8383416 -18.288614 -0.96329564 18
-1.359459 -13.500806 3.1326683 28
-1.8487885 -18.360344 -0.32210162 44
-1.3633913 -13.516192 3.6400313 23
-0.68503761 -6.6975608 -1.8039688 11
-1.8908179 -18.454565 0.32381195 32
-0.81853193 -7.9752226 -1.8508973 4
-1.9058011 -18.56884 0.9782638 42
-0.9015258 -8.7687902 -1.7134649 40
-1.9139476 -18.584343 1.6345189 25
-0.95862091 -9.2922401 -1.4795573 1
-1.6281369 -15.75515 1.9447912 40
-1.1791669 -11.391129 -1.4061285 2
-1.4599819 -14.103891 2.2457736 6
-1.0533652 -10.158522 -0.89352071 8
-1.4471948 -13.932862 2.7228444 2
-1.8974141 -18.236395 -0.96088827 18
-1.4136479 -13.563816 3.1484149 30
-1.9074779 -18.302067 -0.32119408 44
-1.415779 -13.561308 3.6534898 23
-0.71003872 -6.7104979 -1.80811 9
-1.9456933 -18.388533 0.32276481 48
-0.84784907 -7.9995952 -1.857196 4
-1.9668119 -18.526323 0.97637963 38
-0.9306761 -8.7519245 -1.7107936 37
-1.9760619 -18.55179 1.6322527 28
-0.97561908 -9.1593685 -1.458908 11
-1.6763712 -15.71216 1.9401602 40
-1.2317013 -11.525326 -1.4231904 2
-1.8233269 -17.033157 2.7131999 9
-1.0983762 -10.24393 -0.90136474 2
-1.5151565 -14.131001 2.7625327 2
-1.9493474 -18.15057 -0.95670134 18
-1.4669572 -13.636556 3.1664109 42
-1.9670682 -18.255531 -0.32049599 43
-1.4697403 -13.617744 3.6700542 31
-0.73354495 -6.7196293 -1.8112158 9
-2.0048685 -18.335909 0.32196197 40
-0.88255781 -8.0585766 -1.8715929 3
-2.0214972 -18.458155 0.97313493 42
-0.95798016 -8.7331781 -1.7077407 37
-2.0356157 -18.527311 1.6306839 31
-0.99181277 -9.0125704 -1.4360685 13
-1.7279447 -15.676616 1.936504 43
-1.2784601 -11.580151 -1.4305025 2
-1.5663551 -14.187871 2.2607911 6
-1.1752605 -10.628373 -0.93552971 2
-1.5655546 -14.135384 2.764441 10
-2.0098307 -18.117849 -0.95534068 18
-1.5188514 -13.670089 3.1754091 49
-2.02406 -18.217108 -0.31993753 43
-1.5215145 -13.672316 3.686101 38
-0.75851101 -6.7304659 -1.8148392 9
-2.0614076 -18.291407 0.32129881 48
-0.91648847 -8.1195078 -1.8864396 3
-2.0789587 -18.389462 0.96989006 37
-0.98580945 -8.7063713 -1.7031612 20
-2.0975821 -18.496336 1.6285921 37
-1.0337143 -9.1152229 -1.4529635 13
-1.7763351 -15.639241 1.9326042 47
-2.0554957 -18.068892 -2.2328904 4
-1.6107277 -14.137177 2.2535954 12
-1.1576869 -10.145157 -0.89334637 11
-1.6113065 -14.120361 2.7625327 17
-2.0669532 -18.085289 -0.95397991 36
-1.5699373 -13.715316 3.1871064 42
-2.0785298 -18.130466 -0.31854132 48
-1.576503 -13.730257 3.7031829 45
-0.77993441 -6.7202377 -1.8127686 9
-2.1197033 -18.236427 0.32046109 47
-0.95068413 -8.1665859 -1.8981371 6
-2.13782 -18.336462 0.96748257 41
-1.0133116 -8.6913538 -1.7008715 15
-2.1545148 -18.451679 1.6252803 43
-1.0650663 -9.1076345 -1.4523377 9
-1.827685 -15.605343 1.9291918 47
-2.1289604 -18.150326 -2.2438586 12
-1.6644434 -14.168742 2.2595396 25
-1.189137 -10.107415 -0.89038306 8
-1.6665523 -14.165346 2.7724547 25
-2.1384842 -18.14937 -0.95774812 55
-1.6262518 -13.781359 3.203753 47
-2.1432106 -18.135015 -0.31875074 53
-1.629871 -13.770713 3.7156065 54
-0.80616832 -6.7307606 -1.8163921 9
-2.1766868 -18.173323 0.31948376 55
-0.9849866 -8.2115908 -1.9093846 8
-2.1956182 -18.277332 0.96476108 41
-1.0423453 -8.6641912 -1.696292 15
-2.213788 -18.374426 1.6191794 37
-1.1060127 -9.1664267 -1.4623495 4
-1.877627 -15.561422 1.9245608 40
-2.2020681 -18.223587 -2.2538519 16
-2.096921 -17.328012 2.7645102 9
-1.400593 -11.556972 -1.018502 5
-2.0358939 -16.774635 3.2845862 7
-2.214148 -18.216751 -0.96172565 55
-1.6840518 -13.835274 3.2177 50
-2.2173722 -18.216751 -0.32032147 59
-1.6863455 -13.833976 3.7342412 56
-0.83107781 -6.7394094 -1.8194979 9
-2.2506361 -18.224762 0.32053089 55
-1.0215349 -8.2601423 -1.921532 6
-2.2594028 -18.269556 0.96476108 46
-1.0721003 -8.6566029 -1.6955289 15
-2.2742355 -18.336927 1.6165646 43
-1.394868 -11.230642 -1.7924262 2
-1.9299949 -15.517008 1.9199297 40
-2.2774339 -18.284338 -2.2623827 28
-2.1639848 -17.373514 2.7729578 18
-1.3121971 -10.519982 -0.92751139 2
-1.7980471 -14.394624 2.8197756 2
-2.2863979 -18.278275 -0.96538913 46
-1.740573 -13.895054 3.2329965 45
-2.291389 -18.292236 -0.32178748 60
-1.74256 -13.891259 3.7513232 58
-0.85605586 -6.7479658 -1.8226038 9
-2.3236411 -18.316387 0.32227615 56
-1.0567801 -8.3185711 -1.9359287 6
-2.3317342 -18.328922 0.96831995 50
-1.1015658 -8.646966 -1.6943839 20
-2.3392365 -18.336784 1.617262 46
-1.3406125 -10.50878 -1.6779163 1
-1.9771647 -15.477047 1.9157863 50
-1.3433365 -10.500922 -1.2998585 2
-1.8513777 -14.452279 2.3077216 6
-1.3159554 -10.258433 -0.90485096 8
-1.8407762 -14.349636 2.8121431 10
-2.3576868 -18.353794 -0.96978533 56
-1.7928557 -13.937528 3.2442441 42
-2.3659549 -18.367424 -0.32325348 49
-1.7989464 -13.946404 3.7678878 58
-0.88017488 -6.7585001 -1.8262272 9
-2.3973901 -18.383516 0.32360253 56
-1.0903533 -8.3496141 -1.9440269 3
-2.4055388 -18.395926 0.97229749 52
-1.1259071 -8.6101723 -1.6878965 20
-2.4098606 -18.403994 1.6238856 56
-1.3778018 -10.507953 -1.678542 5
-2.0267832 -15.436592 1.9116427 40
-1.3807586 -10.502074 -1.3005898 18
-1.8987224 -14.422226 2.303967 13
-1.3458056 -10.222407 -0.90206194 8
-1.8972681 -14.391784 2.8216836 42
-2.4337635 -18.436537 -0.97460032 46
-1.850945 -14.002665 3.2608905 52
-2.439764 -18.432404 -0.32454494 60
-1.8565017 -14.007068 3.786005 56
-0.90529752 -6.7668757 -1.8293331 9
-2.4748216 -18.474134 0.32534775 56
-1.1293375 -8.4191523 -1.9611233 5
-2.4825006 -18.482433 0.9773218 47
-1.1528193 -8.58284 -1.6833171 20
-2.4674494 -18.346107 1.6195279 59
-1.3606879 -10.103708 -1.6147168 1
-2.0790632 -15.41762 1.9101802 37
-2.4974673 -18.495987 -2.2916312 33
-1.9556694 -14.46445 2.3117888 13
-1.3742716 -10.164338 -0.8973555 8
-1.9538167 -14.431766 2.8308423 2
-2.5082996 -18.503134 -0.97857773 38
-1.909247 -14.065637 3.277087 45
-2.5154018 -18.506996 -0.32601094 56
-1.9118973 -14.048357 3.7989461 51
-0.92838806 -6.7598462 -1.8282977 9
-2.5480094 -18.528776 0.32646471 49
-1.1704143 -8.500102 -1.980919 12
-2.5600955 -18.568624 0.982346 52
-1.1811635 -8.5670948 -1.6810273 20
-2.5265706 -18.301857 1.6163905 65
-1.3902671 -10.057805 -1.6081465 5
-2.1287863 -15.380773 1.9065242 33
-2.5748227 -18.579573 -2.303087 37
-2.4497888 -17.654669 2.8230169 19
-2.5809722 -18.600054 -1.6428857 10
-2.3135333 -16.651396 3.2677951 3
-2.5849798 -18.58131 -0.98318338 57
-1.9677455 -14.126439 3.2928336 47
-2.5918641 -18.583267 -0.32751185 56
-0.95521235 -6.7795196 -1.8345095 9
-2.6221693 -18.587091 0.32765147 57
-1.2025324 -8.5133314 -1.9849681 8
-2.6366417 -18.642633 0.9867422 48
-1.2110602 -8.5629196 -1.6810273 22
-2.5856895 -18.259388 1.613427 68
-1.4195451 -10.011819 -1.6015763 3
-2.1766016 -15.331977 1.9014057 30
-1.6574365 -11.660345 -1.4461017 4
-2.5214183 -17.716412 2.8342798 9
-2.6514957 -18.630383 -1.646372 10
-2.3680434 -16.617952 3.2628338 3
-2.6599813 -18.643354 -0.98695159 48
-2.0269642 -14.188935 3.3090301 49
-2.6680422 -18.653288 -0.32890806 56
-2.6639268 -18.601336 5.0350657 6
-0.98439574 -6.8143845 -1.8448622 9
-2.7024922 -18.684694 0.32953632 58
-1.2274933 -8.4762936 -1.9773197 10
-2.7093265 -18.708899 0.99071974 48
-1.238126 -8.5392094 -1.677211 20
-2.6454043 -18.222647 1.6109867 71
-2.2263927 -15.298747 1.8982371 27
-2.7249582 -18.724659 -2.3233173 12
-2.1483729 -14.744573 2.3599706 6
-1.6747738 -11.480166 -1.0150158 5
-2.1428576 -14.670829 2.8819792 21
-2.7377594 -18.720909 -0.99155712 38
-2.0799272 -14.222628 3.3184779 47
-2.7432091 -18.735353 -0.33051369 57
-2.7382045 -18.678415 5.0583596 6
-1.0092475 -6.8263717 -1.8490034 9
-2.7749803 -18.746845 0.3307929 58
-1.2544526 -8.464467 -1.9755201 10
-2.7836511 -18.782793 0.995116 43
-1.2641304 -8.5195217 -1.6741582 20
-2.70172 -18.186184 1.6085464 66
-1.33218 -8.9565964 -1.4341913 6
-2.2733126 -15.265756 1.8950685 27
-2.7999024 -18.801914 -2.3340418 8
-2.1934679 -14.711969 2.3559034 20
-1.4816328 -9.9256916 -0.87800694 2
-2.1900454 -14.653933 2.8800712 23
-2.8154879 -18.816416 -0.9971047 29
-2.1368833 -14.281179 3.3337746 39
-2.8168776 -18.80328 -0.33187497 57
-2.8138843 -18.760937 5.0832062 6
-1.0321683 -6.8248973 -1.849521 9
-2.8538973 -18.848261 0.33274758 59
-1.2830985 -8.4641142 -1.9764199 10
-2.8629825 -18.863794 0.99993086 45
-1.2903134 -8.5016956 -1.6714869 12
-2.7530344 -18.118032 1.6033171 57
-1.3636568 -8.9638472 -1.4360685 9
-2.3227262 -15.250283 1.8940935 23
-1.5171425 -9.9494114 -1.2357552 4
-2.2588205 -14.796002 2.3706081 6
-1.5025126 -9.8419409 -0.8710345 8
-2.2341771 -14.617479 2.874347 23
-2.884517 -18.85041 -0.99940753 39
-2.1994109 -14.356462 3.3531206 47
-2.895232 -18.876348 -0.33334094 51
-2.889909 -18.81974 5.1018414 6
-1.0571675 -6.8288889 -1.8515915 9
-2.9319217 -18.917229 0.33414379 59
-1.3111421 -8.449955 -1.9741703 10
-2.9429157 -18.944471 1.0047458 45
-1.318174 -8.4854994 -1.6691971 5
-2.8110545 -18.074842 1.6003537 63
-1.4004089 -8.9941664 -1.4417002 14
-2.3731942 -15.22443 1.8918999 19
-1.5313545 -9.812645 -1.2194247 9
-2.3348494 -14.944164 2.3956378 6
-2.9596136 -18.942955 -1.6773994 44
-2.2833679 -14.597953 2.8720572 21
-2.9691491 -18.960592 -1.0057925 39
-2.2591696 -14.410305 3.3675172 42
-2.9762967 -18.962929 -0.33505133 52
-2.9672823 -18.883966 5.1220293 6
-1.0855317 -6.8537784 -1.8593562 9
-3.0117147 -18.99378 0.33567959 51
-1.3366582 -8.4203062 -1.9683217 12
-3.0215654 -19.012983 1.0089327 46
-1.3459371 -8.4692125 -1.6669074 5
-2.8710024 -18.045244 1.5986106 63
-1.4336593 -9.0009279 -1.4435774 9
-2.4281974 -15.227816 1.8933623 20
-1.5799942 -9.8974123 -1.2306367 9
-2.393857 -14.978836 2.4025209 7
-1.6233791 -10.157804 -0.89997017 8
-2.3287263 -14.554999 2.8651881 21
-3.044477 -19.007305 -1.008828 29
-2.3211827 -14.47545 3.3846135 44
-3.0560985 -19.037323 -0.3365522 52
-3.0518785 -18.989843 5.153605 6
-1.1122284 -6.8671103 -1.8640147 7
-3.0914423 -19.066057 0.3371456 51
-1.361047 -8.3848124 -1.9611233 10
-3.1013706 -19.085119 1.0133289 46
-1.3764373 -8.4702778 -1.6680523 5
-2.9288542 -18.003647 1.5958216 66
-2.2090359 -13.563992 -2.1766293 2
-2.4925177 -15.287818 1.9018931 23
-1.6282821 -9.9760799 -1.2411175 20
-2.4464471 -14.972338 2.4028337 14
-1.617059 -9.8964548 -0.87730974 5
-2.377619 -14.535156 2.8628983 21
-3.1279109 -19.101023 -1.0143756 39
-2.3814688 -14.526874 3.3985605 49
-3.1387277 -19.125204 -0.33829746 52
-3.1294203 -19.047703 5.1722403 6
-1.1384021 -6.8765278 -1.8676383 9
-3.1743221 -19.15379 0.33889085 61
-1.3887126 -8.3703976 -1.9588737 10
-3.1830242 -19.164808 1.0181438 46
-1.3995624 -8.4266863 -1.6604201 2
-2.9884112 -17.97366 1.5940785 66
-2.3925889 -14.374597 -2.3080344 3
-2.5171559 -15.106712 1.880444 6
-1.6193299 -9.7079582 -1.2084565 18
-2.500648 -14.975397 2.4047108 14
-1.6916292 -10.130502 -0.89857566 17
-2.4357853 -14.571306 2.8716757 44
-3.2107224 -19.186514 -1.0195045 30
-2.443754 -14.587663 3.414757 41
-3.218034 -19.189074 -0.33962384 54
-3.216043 -19.156687 5.2048512 6
-1.1627202 -6.8744168 -1.868156 7
-3.2571888 -19.23723 0.34056628 53
-1.4169445 -8.3597355 -1.9575242 12
-3.265938 -19.248098 1.0231681 47
-1.4260119 -8.4043283 -1.6569853 5
-3.0417936 -17.908119 1.5891978 66
-1.5364467 -9.0360537 -1.451712 9
-2.571537 -15.107619 1.8816628 22
-1.6485392 -9.6748505 -1.2050442 15
-3.1238735 -18.313904 2.9425328 10
-1.6773996 -9.8338604 -0.87277764 17
-2.4975374 -14.626579 2.884269 39
-3.2951734 -19.277561 -1.0249475 30
-2.5087931 -14.66164 3.4341028 49
-3.2985046 -19.256563 -0.34102002 48
-3.3008482 -19.250071 5.2333212 6
-1.1870375 -6.87222 -1.8686736 9
-3.3372645 -19.300619 0.34189263 53
-1.4467819 -8.3585787 -1.9584239 10
-3.3461008 -19.331627 1.0281924 47
-1.4563457 -8.4051037 -1.6581303 2
-3.0964532 -17.852243 1.5851886 57
-1.5625712 -8.9994955 -1.4467061 13
-2.6361566 -15.167004 1.8901937 16
-3.3652802 -19.341986 -2.4105759 13
-2.6604245 -15.290819 2.4582114 7
-3.3683898 -19.339872 -1.717491 28
-2.5617313 -14.6932 2.899152 46
-3.3761806 -19.344645 -1.0291344 40
-2.5720305 -14.7219 3.4502993 46
-3.3805819 -19.349922 -0.34287 54
-3.3769801 -19.309427 5.2524738 6
-1.2150455 -6.8908644 -1.8748853 9
-3.4179177 -19.383972 0.34356809 54
-1.4673781 -8.3134356 -1.9489759 8
-3.4288511 -19.406368 1.0327979 47
-1.4867021 -8.4057684 -1.6592751 2
-3.155972 -17.82563 1.5837941 60
-1.6010159 -9.0428934 -1.4545279 8
-2.9303114 -16.534239 2.0617857 4
-1.7074196 -9.6243143 -1.2001694 18
-2.704803 -15.230871 2.4500768 7
-1.7773951 -9.998457 -0.88846558 2
-2.620749 -14.742612 2.9106007 49
-3.4550056 -19.415928 -1.0335306 40
-2.6327975 -14.780439 3.4660459 35
-3.4660079 -19.438404 -0.34465012 55
-3.4596353 -19.383102 5.2757678 6
-1.239256 -6.8944025 -1.8769557 9
-3.5018473 -19.46246 0.34517372 54
-1.4932808 -8.2910004 -1.944927 9
-3.5139356 -19.490593 1.0379268 48
-1.5117821 -8.385335 -1.6562221 2
-3.210465 -17.789577 1.5815279 63
-1.7723364 -9.8109274 -1.5790497 12
-2.791611 -15.437812 1.926267 3
-1.7339319 -9.5792284 -1.1952946 15
-2.7639401 -15.254381 2.4553957 14
-1.7622324 -9.7258844 -0.86475933 17
-2.6869099 -14.814507 2.9266284 46
-3.5427408 -19.513796 -1.0393922 41
-2.696569 -14.838266 3.4817924 44
-3.5506587 -19.518656 -0.34629065 55
-3.5480418 -19.484945 5.3068261 7
-1.2657535 -6.903336 -1.8805792 7
-3.5885367 -19.552393 0.34698877 54
-1.519747 -8.2723207 -1.9417773 8
-3.6021762 -19.588211 1.0437884 48
-1.5321653 -8.3317347 -1.6466817 2
-3.26966 -17.762587 1.5801336 63
-1.7861679 -9.6939478 -1.5612161 10
-2.8415198 -15.4065 1.9235859 6
-1.7241136 -9.3388653 -1.166046 15
-3.4493117 -18.665359 3.0063579 11
-1.7997919 -9.7392654 -0.86650234 11
-2.7536044 -14.886119 2.9426565 49
-3.6253784 -19.579865 -1.0435791 30
-2.761843 -14.901575 3.4988887 43
-3.6337254 -19.586754 -0.34772176 55
-1.2941036 -6.9216633 -1.886791 7
-3.6758912 -19.641954 0.34880379 55
-1.5482548 -8.2650499 -1.9413276 6
-3.6889346 -19.67367 1.049022 44
-1.5568976 -8.3031807 -1.6421022 15
-3.3231881 -17.706026 1.5761244 60
-1.7554384 -9.3440228 -1.5058383 1
-2.902988 -15.437457 1.9287045 27
-1.7581697 -9.3405933 -1.1670209 18
-2.9394944 -15.601604 2.514528 7
-1.832302 -9.7250919 -0.86580509 8
-2.8201036 -14.953586 2.9579213 38
-1.8750072 -9.932704 -0.52974463 8
-2.82723 -14.962693 3.5155351 37
-3.7191689 -19.664335 -0.34932736 62
-3.7457905 -19.78618 5.3958597 3
-1.3178955 -6.9152064 -1.8862734 9
-3.7624164 -19.723291 0.35047922 55
-1.5785581 -8.267252 -1.9431273 9
-3.7729592 -19.741106 1.0533136 49
-1.5855033 -8.2957668 -1.6417207 17
-3.3774843 -17.65518 1.5726382 57
-1.7791287 -9.291276 -1.4983294 1
-3.6171315 -18.872183 2.3593907 11
-1.8161979 -9.4669685 -1.1835952 18
-2.9767985 -15.502011 2.5001359 7
-1.8846477 -9.8145132 -0.87434638 17
-2.885994 -15.014986 2.9720411 46
-1.92363 -9.9986658 -0.53361744 8
-2.8963938 -15.040758 3.5362306 37
-3.8063309 -19.747446 -0.35103768 68
-3.8089797 -19.742636 5.3875775 7
-1.3475496 -6.9390101 -1.8940378 7
-3.8480322 -19.796406 0.35201502 64
-1.6018234 -8.2329998 -1.9363787 8
-3.8639863 -19.841518 1.0593845 50
-1.6125743 -8.2805471 -1.6398127 20
-3.4333768 -17.613949 1.5700234 51
-1.8043637 -9.2481718 -1.492385 6
-3.7054343 -18.97439 2.3737712 5
-1.8560864 -9.4956379 -1.1879824 4
-3.0362031 -15.518666 2.5045159 22
-1.9257814 -9.84307 -0.87748402 17
-2.9523489 -15.076107 2.986161 48
-2.9650092 -15.112784 3.5555763 34
-3.8733156 -19.724228 -0.35086316 6
-3.8935175 -19.808832 5.4093184 7
-1.3773867 -6.9626908 -1.9018024 9
-3.9291501 -19.843664 0.35309708 18
-1.6305524 -8.2273579 -1.9363787 9
-3.9499366 -19.912151 1.0638855 45
-1.6395602 -8.2652397 -1.6379045 22
-3.4917345 -17.586224 1.568629 51
-1.8370202 -9.2437544 -1.4926978 1
-3.1237385 -15.704093 1.9659963 7
-1.9348191 -9.70928 -0.86615378 5
-3.0207014 -15.144648 3.0018072 43
-3.901531 -19.543011 -1.0444164 10
-3.0341644 -15.184514 3.5749223 43
-3.9354739 -19.677256 -0.35026982 12
-3.9869113 -19.916353 5.4424472 7
-1.4039719 -6.969203 -1.9049082 9
-3.9857481 -19.767099 0.35198015 9
-1.6538643 -8.1948729 -1.9300802 9
-4.0107164 -19.855171 1.0615826 5
-1.6649017 -8.2421455 -1.6344699 26
-3.5479701 -17.548538 1.5663629 43
-2.0244272 -10.003993 -1.616594 5
-3.1789298 -15.69504 1.9662402 24
-1.9006408 -9.3754454 -1.1745769 2
-3.201035 -15.775864 2.5495691 7
-1.9298722 -9.5111113 -0.84907126 5
-3.0903482 -15.216742 3.0182168 48
-3.9697254 -19.529272 -1.0444164 10
-3.0984173 -15.22921 3.5879693 17
-3.9913657 -19.600693 -0.34915283 12
-4.0764685 -20.000748 5.4693646 7
-1.4298424 -6.9718299 -1.9069788 9
-4.0426593 -19.694304 0.35093302 9
-1.6828519 -8.190958 -1.9305301 11
-4.0759778 -19.821489 1.060536 5
-1.6920806 -8.2285919 -1.6329435 23
-3.6011701 -17.497019 1.5628768 43
-2.0378137 -9.8923903 -1.599699 5
-3.2533405 -15.779113 1.9781833 10
-1.9614387 -9.5048437 -1.1916386 2
-3.2540843 -15.754923 2.5480049 15
-1.9654775 -9.5160246 -0.85011709 2
-3.1609359 -15.290457 3.0350082 40
-4.0378695 -19.515295 -1.0444164 10
-4.1600552 -20.088158 4.7361193 5
-4.0488057 -19.533773 -0.34821042 12
-4.1678424 -20.090431 5.4978342 7
-1.456539 -6.9781423 -1.9100846 9
-4.1081071 -19.66441 0.35065377 9
-1.7098383 -8.1774035 -1.9287304 11
-4.133688 -19.752401 1.057605 5
-1.7191852 -8.2149487 -1.6314169 26
-3.6565039 -17.457041 1.5604364 46
-1.8222584 -8.6923389 -1.4066589 9
-4.0380721 -19.245249 2.4144754 11
-1.9721663 -9.3910894 -1.1782329 18
-3.3200305 -15.795663 2.5564523 15
-1.993765 -9.4857082 -0.84802538 2
-3.2296472 -15.352335 3.0495095 45
-4.2518525 -20.176481 4.7604141 5
-4.1103616 -19.488214 -0.34765193 12
-4.2578974 -20.170273 5.5237164 7
-1.4865066 -6.9994721 -1.9173316 9
-4.1617594 -19.579533 0.34939718 9
-1.7335056 -8.1485128 -1.9233315 11
-4.1917953 -19.687061 1.0548836 5
-1.7449874 -8.1954556 -1.6287457 23
-3.713268 -17.424685 1.5586933 46
-1.850529 -8.6762657 -1.4050945 10
-3.4210203 -16.025864 2.012063 3
-2.0045207 -9.3822069 -1.1779891 2
-3.9179144 -18.322241 2.9675622 11
-2.0326972 -9.5059681 -0.85046571 2
-3.2992394 -15.415841 3.0643928 45
-4.3349171 -20.220589 4.7743611 10
-4.1674585 -19.422913 -0.34674439 6
-4.3489633 -20.251614 5.5501156 7
-1.5121541 -6.9999051 -1.9188845 7
-4.2250061 -19.541431 0.34897831 9
-1.7565809 -8.117651 -1.9174827 9
-4.2426958 -19.606684 1.0513248 5
-1.7706766 -8.1758833 -1.6260743 23
-3.7698467 -17.392143 1.5569501 40
-1.8967171 -8.7431116 -1.4169836 1
-3.4693611 -15.978907 2.0076756 18
