# .PCD v0.7 - Point Cloud Data file format
VERSION 0.7
FIELDS x y z intensity ring time
SIZE 4 4 4 4 2 4
TYPE F F F F U F
COUNT 1 1 1 1 1 1
WIDTH 947
HEIGHT 1
VIEWPOINT 0 0 0 1 0 0 0
POINTS 947
DATA ascii
4.5130987 -0.84378827 0.080141447 100 8 -0.074630752
4.1470265 -0.77609485 -0.97403812 11 1 -0.074628443
5.8365235 -1.0922756 0.31118962 100 9 -0.07462614
4.270402 -0.79995537 -0.84452063 72 2 -0.074623838
5.8356214 -1.0942153 0.51944822 100 10 -0.074621536
4.2790151 -0.80311513 -0.68956316 55 3 -0.074619234
5.7631421 -1.0827076 0.72000414 94 11 -0.074616924
4.2841721 -0.80563122 -0.53525019 70 4 -0.074614622
5.804636 -1.0915519 0.93547827 93 12 -0.074612319
4.2782416 -0.80528909 -0.38087061 53 5 -0.074610017
5.9229803 -1.1159471 1.1715673 63 13 -0.074607708
4.5062709 -0.84983969 -0.24032672 92 6 -0.074605405
5.9209337 -1.1177018 1.3910973 69 14 -0.074603103
4.50769 -0.85092205 -0.080071643 67 7 -0.074600801
6.8261509 -1.2898147 1.8614267 1 15 -0.074598491
3.5715837 -0.68002397 -0.97419494 14 0 -0.074577756
4.4925966 -0.85538346 0.079827309 91 8 -0.074575454
4.1520872 -0.79130197 -0.97583771 8 1 -0.074573152
5.8365993 -1.1133909 0.31139898 100 9 -0.07457085
4.2752967 -0.81632984 -0.8460471 73 2 -0.07456854
5.8219814 -1.1127087 0.51857668 100 10 -0.074566238
4.268568 -0.81581724 -0.6883117 55 3 -0.074563935
5.7575698 -1.1014398 0.71976036 85 11 -0.074561633
4.281477 -0.81983364 -0.53525019 70 4 -0.074559323
5.8201914 -1.1155256 0.93860692 100 12 -0.074557021
4.2734475 -0.81984264 -0.38069627 57 5 -0.074554719
5.9115348 -1.1341027 1.1700408 68 13 -0.074552417
4.503428 -0.8647784 -0.24032672 88 6 -0.074550107
5.9248495 -1.1388015 1.392897 73 14 -0.074547805
4.5046921 -0.86665159 -0.080071643 66 7 -0.074545503
6.6565676 -1.2818527 1.8163921 36 15 -0.0745432
3.5749984 -0.69296688 -0.97574782 9 0 -0.074522465
4.4895835 -0.87106037 0.079827309 92 8 -0.074520156
4.1359091 -0.80319017 -0.97268838 10 1 -0.074517854
5.8248353 -1.1322333 0.31098029 100 9 -0.074515551
4.2764211 -0.83125204 -0.84681034 73 2 -0.074513249
5.7830563 -1.1251599 0.51543909 92 10 -0.074510939
4.2618165 -0.82995713 -0.68768603 55 3 -0.074508637
5.7634325 -1.1234299 0.72097909 91 11 -0.074506335
4.282486 -0.8355341 -0.53573769 70 4 -0.074504033
5.829833 -1.1384854 0.94079703 100 12 -0.074501723
4.2764258 -0.83590138 -0.38121921 37 5 -0.074499421
5.9075398 -1.1547309 1.1700408 28 13 -0.074497119
4.4964623 -0.87972611 -0.2401174 86 6 -0.074494816
5.8959761 -1.1546074 1.3870482 16 14 -0.074492507
4.5094886 -0.88390923 -0.080211259 66 7 -0.074490204
6.659636 -1.3065685 1.8184627 36 15 -0.074487902
3.5705395 -0.70569068 -0.97523022 9 0 -0.074467167
4.4963241 -0.8886652 0.080001831 89 8 -0.074464865
4.1292567 -0.81686586 -0.97178853 10 1 -0.074462555
5.8208475 -1.1525589 0.31098029 100 9 -0.074460253
4.2771978 -0.84768373 -0.84757364 75 2 -0.074457951
5.8277512 -1.15604 0.51979685 100 10 -0.074455649
4.2626209 -0.84634131 -0.6883117 55 3 -0.074453339
5.8062057 -1.1528193 0.72682881 100 11 -0.074451037
4.2678614 -0.84815609 -0.53427523 60 4 -0.074448735
5.8277607 -1.1592138 0.94110984 97 12 -0.074446432
4.2734818 -0.8508237 -0.38121921 48 5 -0.074444123
5.8474317 -1.1652484 1.1589739 34 13 -0.07444182
4.4932079 -0.89620048 -0.2401174 90 6 -0.074439518
5.8420181 -1.16629 1.3753507 80 14 -0.074437216
4.5181417 -0.90199375 -0.080420688 61 7 -0.074434914
6.6664009 -1.3320783 1.8215685 38 15 -0.074432604
3.571842 -0.7189123 -0.97626543 11 0 -0.074411869
4.4949975 -0.90553403 0.080036737 82 8 -0.074409567
4.1338758 -0.83353555 -0.97358811 10 1 -0.074407265
5.8185415 -1.1742806 0.31108496 100 9 -0.074404955
4.2511191 -0.85794812 -0.84299421 58 2 -0.074402653
5.825633 -1.1767701 0.51997113 100 10 -0.07440035
4.2712579 -0.86356419 -0.69018894 43 3 -0.074398048
5.8019414 -1.1740924 0.72682881 96 11 -0.074395739
4.2977986 -0.87049192 -0.53841883 15 4 -0.074393436
5.8176651 -1.1793884 0.94017124 100 12 -0.074391134
4.3036814 -0.87246543 -0.38418248 48 5 -0.074388832
5.7452021 -1.165742 1.1395113 75 13 -0.07438653
4.4920092 -0.91227674 -0.24022207 96 6 -0.07438422
5.8474598 -1.1886163 1.3776002 82 14 -0.074381918
4.4834528 -0.9121688 -0.079862215 65 7 -0.074379615
6.6766181 -1.3595867 1.8257096 42 15 -0.074377313
3.5541706 -0.72827363 -0.9721244 12 0 -0.074356571
4.5035625 -0.92362958 0.080246165 87 8 -0.074354269
4.1213965 -0.84600121 -0.97133869 11 1 -0.074351966
5.8202767 -1.1957898 0.31139898 100 9 -0.074349664
4.2884827 -0.88107908 -0.85100812 16 2 -0.074347362
5.813684 -1.195493 0.51927388 100 10 -0.074345052
4.3533492 -0.89599001 -0.70395517 10 3 -0.07434275
5.8133616 -1.1975418 0.72877878 96 11 -0.074340448
4.343339 -0.89551014 -0.54451227 10 4 -0.074338146
5.8096437 -1.1988901 0.93954557 100 12 -0.074335836
4.3552456 -0.89875746 -0.38906324 27 5 -0.074333534
5.8506904 -1.2084253 1.1612636 64 13 -0.074331231
4.4985766 -0.92997295 -0.24074543 88 6 -0.074328929
5.8509088 -1.2106 1.3793999 88 14 -0.07432662
4.4861159 -0.92902994 -0.079966925 81 7 -0.074324317
6.6661568 -1.381708 1.8241568 45 15 -0.074322015
3.5497158 -0.74028116 -0.97160673 9 0 -0.07430128
4.4924808 -0.93770993 0.080106542 87 8 -0.074298978
4.1317716 -0.86317205 -0.97448796 10 1 -0.074296668
4.3468752 -0.90890139 -0.86321992 11 2 -0.074292064
5.8114257 -1.2161874 0.51944822 100 10 -0.074289761
4.37533 -0.91644526 -0.70802242 10 3 -0.074287452
5.8091464 -1.2178271 0.72877878 94 11 -0.07428515
4.384871 -0.92004144 -0.55011827 9 4 -0.074282847
5.7938242 -1.2167264 0.93766832 100 12 -0.074280545
4.3930287 -0.92255366 -0.39272377 11 5 -0.074278235
5.8387508 -1.2272252 1.1597371 67 13 -0.074275933
4.4992123 -0.94649261 -0.24095476 88 6 -0.074273631
5.850461 -1.231819 1.3802997 90 14 -0.074271329
4.4867592 -0.94550842 -0.080036737 78 7 -0.074269019
6.661293 -1.4049689 1.8241568 43 15 -0.074266717
3.5471101 -0.75266749 -0.97160673 13 0 -0.074245982
4.4852681 -0.95255512 0.080036737 87 8 -0.07424368
4.1077657 -0.87313253 -0.96953911 8 1 -0.074241377
4.5068212 -0.95877647 0.24147813 13 9 -0.074239068
4.395524 -0.93509924 -0.87352359 9 2 -0.074236766
5.8129907 -1.2377102 0.51997113 100 10 -0.074234463
4.4204044 -0.94200522 -0.71584421 10 3 -0.074232161
5.7369103 -1.2236047 0.72024786 84 11 -0.074229851
4.4437551 -0.94860327 -0.55791789 9 4 -0.074227549
5.8107915 -1.2414831 0.94110984 97 12 -0.074225247
4.4930477 -0.95994544 -0.40196225 11 5 -0.074222945
5.8363519 -1.2480094 1.1601188 67 13 -0.074220635
4.4880691 -0.96052009 -0.24053608 90 6 -0.074218333
5.8575587 -1.2546825 1.3829991 84 14 -0.074216031
4.495163 -0.96367937 -0.080246165 81 7 -0.074213728
6.658237 -1.4286178 1.8246742 43 15 -0.074211419
3.5501261 -0.76626736 -0.97315967 9 0 -0.074190684
4.4897346 -0.96989477 0.080176361 87 8 -0.074188381
4.0837407 -0.88293594 -0.96459007 7 1 -0.074186079
5.7879148 -1.2524488 0.31035227 88 9 -0.074183777
4.4574742 -0.96455437 -0.88649869 9 2 -0.074181467
5.7852683 -1.2529331 0.51787943 92 10 -0.074179165
4.4923806 -0.97374946 -0.72804612 9 3 -0.074176863
5.8005028 -1.2583525 0.72877878 100 11 -0.074174561
4.4947343 -0.9759025 -0.56474262 7 4 -0.074172251
5.8141432 -1.2634368 0.9423613 97 12 -0.074169949
4.5597596 -0.9908542 -0.40823749 11 5 -0.074167646
5.8415513 -1.2704605 1.1620268 67 13 -0.074165344
4.4846888 -0.97618049 -0.24053608 88 6 -0.074163035
5.8207736 -1.2680697 1.3753507 63 14 -0.074160732
4.4917717 -0.97936457 -0.080246165 81 7 -0.07415843
6.5305262 -1.4250789 1.7910279 63 15 -0.074156128
3.5530906 -0.77989757 -0.97471261 9 0 -0.074135393
4.4843678 -0.98513168 0.080141447 82 8 -0.074133083
4.09586 -0.9005332 -0.96818936 10 1 -0.074130781
4.5384445 -0.99867219 -0.90328985 8 2 -0.074126177
5.8119917 -1.2799762 0.52066839 100 10 -0.074123867
4.5603294 -1.0051569 -0.73962224 7 3 -0.074121565
5.7960753 -1.2785923 0.72877878 96 11 -0.074119262
4.5533299 -1.0052809 -0.57254225 6 4 -0.07411696
5.8019824 -1.2820196 0.94110984 95 12 -0.07411465
4.5757275 -1.0110635 -0.4099806 19 5 -0.074112348
5.8409152 -1.2916914 1.1627901 67 13 -0.074110046
4.4812541 -0.99182904 -0.24053608 67 6 -0.074107744
5.8353381 -1.2925948 1.3798498 86 14 -0.074105442
4.4941826 -0.99633634 -0.080350876 70 7 -0.074103132
6.5236259 -1.4474475 1.7905102 70 15 -0.07410083
3.531492 -0.78808773 -0.96953619 8 0 -0.074080095
4.5023699 -1.0055739 0.080525406 29 8 -0.074077792
4.077477 -0.91142404 -0.96459007 7 1 -0.074075483
4.5043297 -1.0076624 0.24189681 1 9 -0.074073181
4.6632957 -1.0432247 -0.92885822 10 2 -0.074070878
5.8035998 -1.2993854 0.52031976 100 10 -0.074068576
4.653172 -1.0426656 -0.75526565 6 3 -0.074066266
5.7973876 -1.3001198 0.72950995 98 11 -0.074063964
4.667944 -1.0476869 -0.58741027 7 4 -0.074061662
5.7993994 -1.3026973 0.9414227 100 12 -0.07405936
4.7199111 -1.060216 -0.42322829 11 5 -0.074057057
5.8172164 -1.3077662 1.1589739 61 13 -0.074054748
4.4894557 -1.0100958 -0.24116412 68 6 -0.074052446
5.7452393 -1.293692 1.3596041 73 14 -0.074050143
6.5128798 -1.4689354 1.7889572 57 15 -0.074045531
3.5268354 -0.79998279 -0.96901858 14 0 -0.074024796
4.4812818 -1.0172998 0.080211259 14 8 -0.074022494
4.0970745 -0.93083245 -0.96998894 10 1 -0.074020192
5.80759 -1.320518 0.31213167 100 9 -0.07401789
4.7342873 -1.0764726 -0.94374132 14 2 -0.07401558
5.78543 -1.3165413 0.51909959 100 10 -0.074013278
4.782402 -1.0891687 -0.77685362 29 3 -0.074010976
5.7986202 -1.3216721 0.73024112 94 11 -0.074008673
4.7997346 -1.0948786 -0.60447198 25 4 -0.074006364
5.735116 -1.3093036 0.93172377 100 12 -0.074004062
4.7841654 -1.0922055 -0.42932916 74 5 -0.074001759
5.8298411 -1.3319997 1.1624085 20 13 -0.073999457
4.5014782 -1.0293225 -0.24200147 41 6 -0.073997147
5.8052764 -1.3285195 1.3749009 73 14 -0.073994845
5.8086925 -1.3303682 -0.10401635 93 7 -0.073992543
5.6848335 -1.303045 1.5627494 24 15 -0.073990241
3.5315514 -0.81402451 -0.97108907 12 0 -0.073969506
5.7890587 -1.3354452 0.1037022 100 8 -0.073967196
4.0748124 -0.94074458 -0.96548992 10 1 -0.073964894
5.8087831 -1.342131 0.3124457 100 9 -0.073962592
4.8108411 -1.1115545 -0.95976931 35 2 -0.073960289
5.7633281 -1.3326882 0.5175308 92 10 -0.07395798
4.82476 -1.1165447 -0.78436255 6 3 -0.073955677
5.726285 -1.3262285 0.72171032 75 11 -0.073953375
5.486259 -1.2716466 -0.69148672 67 4 -0.073951073
5.7670722 -1.3377962 0.93766832 28 12 -0.073948763
5.3800478 -1.2480175 -0.48319143 63 5 -0.073946461
5.8385429 -1.3554493 1.1650798 12 13 -0.073944159
5.089272 -1.1824381 -0.27382174 68 6 -0.073941857
5.8025017 -1.3492168 1.3753507 80 14 -0.073939547
5.7884316 -1.3470103 -0.1037371 73 7 -0.073937245
5.6915398 -1.3255099 1.5658553 5 15 -0.073934942
3.5230455 -0.8250255 -0.96953619 9 0 -0.073914208
5.7648926 -1.3510818 0.10335316 100 8 -0.073911905
4.0620174 -0.95273751 -0.96324039 10 1 -0.073909596
5.7982302 -1.3610302 0.31213167 76 9 -0.073907293
4.8547144 -1.1395569 -0.96930981 11 2 -0.073904991
5.6713591 -1.332294 0.50968677 75 10 -0.073902689
4.868906 -1.1446816 -0.79218423 3 3 -0.073900379
5.7969818 -1.3639402 0.73121613 15 11 -0.073898077
5.4721255 -1.2885145 -0.69026798 60 4 -0.073895775
5.8681164 -1.382839 0.95487607 5 12 -0.073893473
5.3756585 -1.2667898 -0.48319143 67 5 -0.073891163
5.7630749 -1.3591473 1.1509598 5 13 -0.073888861
4.9587626 -1.1703743 -0.26701808 73 6 -0.073886558
5.7313771 -1.353784 1.3596041 73 14 -0.073884256
5.8051014 -1.3722677 -0.10412105 84 7 -0.073881954
5.726357 -1.3547088 1.5767257 1 15 -0.073879644
3.5165312 -0.83581042 -0.96850091 9 0 -0.073980331
5.7720532 -1.3729681 0.10356259 59 8 -0.073978029
4.0588355 -0.96620238 -0.96324039 8 1 -0.073975727
5.7198548 -1.3626616 0.30815417 32 9 -0.073973417
4.8203516 -1.1483697 -0.96320391 13 2 -0.073971115
5.6843529 -1.3552524 0.51125556 60 10 -0.073968813
4.8746905 -1.1631134 -0.79374862 2 3 -0.073966511
5.7538104 -1.373935 0.72634137 5 11 -0.073964201
5.4639616 -1.3057309 -0.68978053 60 4 -0.073961899
5.6790633 -1.3581821 0.92484063 24 12 -0.073959596
5.3791795 -1.286463 -0.48388866 66 5 -0.073957294
5.7050753 -1.3654556 1.1402746 30 13 -0.073954985
5.2617412 -1.2603188 -0.28355622 67 6 -0.073952682
5.7761278 -1.3845934 1.3713017 88 14 -0.07395038
5.7480164 -1.3789157 -0.10317863 14 7 -0.073948078
6.6554351 -1.5978287 1.8339919 38 15 -0.073945768
3.5117145 -0.84762704 -0.96798331 9 0 -0.073925033
4.0705919 -0.9840278 -0.96683967 11 1 -0.073920429
5.7364173 -1.3877853 0.30930555 6 9 -0.073918127
4.7018218 -1.1374903 -0.94030684 10 2 -0.073915817
5.6621594 -1.3708665 0.50968677 65 10 -0.073913515
4.8859596 -1.1838435 -0.79625154 2 3 -0.073911212
5.6911035 -1.3799776 0.71902919 31 11 -0.07390891
5.4690156 -1.3271363 -0.69099921 61 4 -0.0739066
5.6877246 -1.3812604 0.92703074 89 12 -0.073904298
5.3591671 -1.3014704 -0.48249418 63 5 -0.073901996
5.7079048 -1.3872163 1.1418011 67 13 -0.073899694
5.2650723 -1.2805661 -0.28397492 67 6 -0.073897384
5.7712593 -1.4047474 1.3713017 90 14 -0.073895082
5.1680741 -1.258885 -0.092846803 13 7 -0.07389278
6.6441865 -1.619678 1.8324389 40 15 -0.073890477
3.5143633 -0.86125952 -0.96953619 9 0 -0.073869742
5.0612149 -1.2412804 0.090961948 66 8 -0.073867433
4.0595617 -0.99637276 -0.96504009 8 1 -0.073865131
5.6946855 -1.3987489 0.30731675 46 9 -0.073862828
4.6787567 -1.1492128 -0.93649065 12 2 -0.073860526
5.6766882 -1.3953788 0.51142991 85 10 -0.073858216
4.9048162 -1.2065538 -0.80000597 2 3 -0.073855914
5.7151651 -1.4069526 0.72268528 98 11 -0.073853612
5.4720597 -1.3481182 -0.69197422 64 4 -0.07385131
5.6905408 -1.4029975 0.92828226 100 12 -0.073849
5.3545914 -1.3201696 -0.48249418 64 5 -0.073846698
5.7011223 -1.4066619 1.1414195 73 13 -0.073844396
5.2702651 -1.3013307 -0.2844983 70 6 -0.073842093
5.7057819 -1.4099249 1.3569047 86 14 -0.073839791
5.1830606 -1.2817178 -0.093195848 55 7 -0.073837481
6.6403675 -1.6433247 1.8329566 42 15 -0.073835179
3.4963379 -0.86979067 -0.96539509 9 0 -0.073814444
5.0413275 -1.2550751 0.0906827 58 8 -0.073812142
4.0447135 -1.0077105 -0.96234065 11 1 -0.073809832
5.7091479 -1.4234505 0.30836347 94 9 -0.07380753
4.6670966 -1.1636379 -0.93496412 10 2 -0.073805228
5.6833811 -1.4180797 0.51247573 95 10 -0.073802926
4.9101567 -1.2260603 -0.8015703 2 3 -0.073800616
5.6928864 -1.4225625 0.72049159 91 11 -0.073798314
5.465394 -1.3667293 -0.69173044 69 4 -0.073796012
5.6913571 -1.4242913 0.9292208 96 12 -0.073793709
5.3654132 -1.3427221 -0.48388866 66 5 -0.073791407
5.694273 -1.4260769 1.1410379 76 13 -0.073789097
5.2579412 -1.3177772 -0.28407961 73 6 -0.073786795
5.7745428 -1.4483223 1.3744509 78 14 -0.073784493
5.1863127 -1.3017495 -0.093335465 57 7 -0.073782191
6.64958 -1.670259 1.8370978 43 15 -0.073779881
3.506392 -0.88530028 -0.96901858 13 0 -0.073759146
5.0427322 -1.2741345 0.090787418 62 8 -0.073756844
4.0355034 -1.02039 -0.96099091 10 1 -0.073754542
5.7022076 -1.4428804 0.3082588 100 9 -0.073752232
5.6880536 -1.4403553 0.51334733 92 10 -0.073747627
4.9326553 -1.2499859 -0.80595046 1 3 -0.073745325
5.6801891 -1.4404738 0.71951669 94 11 -0.073743023
5.4567423 -1.3848222 -0.69124299 67 4 -0.073740713
5.6920943 -1.4456079 0.93015939 89 12 -0.073738411
5.3645554 -1.3624235 -0.48423728 70 5 -0.073736109
5.700676 -1.4488463 1.1433275 78 13 -0.073733807
5.2533097 -1.3361228 -0.28407961 73 6 -0.073731497
5.7297935 -1.4583762 1.365003 73 14 -0.073729195
5.1681724 -1.31639 -0.093091138 58 7 -0.073726892
6.6455812 -1.6939373 1.8376153 43 15 -0.07372459
3.5014086 -0.89705497 -0.96850091 8 0 -0.073703848
5.0518126 -1.2952056 0.091031753 66 8 -0.073701546
4.028142 -1.0335016 -0.96009105 10 1 -0.073699243
5.6797256 -1.4583056 0.30731675 92 9 -0.073696941
4.7121034 -1.2098625 -0.94564945 1 2 -0.073694639
5.682991 -1.4602014 0.51334733 87 10 -0.073692329
4.9282622 -1.2671965 -0.80595046 1 3 -0.073690027
5.690506 -1.4642498 0.72146654 91 11 -0.073687725
5.4518752 -1.4038614 -0.69124299 69 4 -0.073685423
5.6812754 -1.4639893 0.9292208 93 12 -0.073683113
5.363626 -1.3821354 -0.48458594 68 5 -0.073680811
5.7031889 -1.4706979 1.1448541 78 13 -0.073678508
5.252481 -1.3554503 -0.28428894 73 6 -0.073676206
5.7397623 -1.4822661 1.3686022 84 14 -0.073673896
5.1635461 -1.3344223 -0.093091138 59 7 -0.073671594
6.6452389 -1.7185756 1.8391682 43 15 -0.073669292
3.4963865 -0.90878582 -0.96798331 8 0 -0.073648557
5.0530667 -1.3143419 0.091136463 76 8 -0.073646255
4.0320535 -1.0495197 -0.9618907 10 1 -0.073643945
5.6958613 -1.4836607 0.30846813 98 9 -0.073641643
4.7933445 -1.2485727 -0.9628222 9 2 -0.073639341
5.6778593 -1.4800298 0.51334733 87 10 -0.073637038
4.7020845 -1.226554 -0.76965761 6 3 -0.073634729
5.6872811 -1.4846061 0.72171032 89 11 -0.073632427
5.4469414 -1.4228835 -0.69124299 67 4 -0.073630124
5.6780415 -1.4843115 0.92953372 100 12 -0.073627822
5.3472033 -1.3978262 -0.48354006 70 5 -0.073625512
5.694221 -1.4896028 1.1440908 76 13 -0.07362321
5.2515821 -1.3747882 -0.2844983 73 6 -0.073620908
5.743979 -1.5047617 1.3708518 90 14 -0.073618606
5.1511197 -1.35041 -0.092951514 60 7 -0.073616296
3.4745128 -0.91605979 -0.96280694 7 0 -0.073593259
5.0387807 -1.3294219 0.090961948 72 8 -0.073590957
4.0340176 -1.0650802 -0.96324039 11 1 -0.073588654
5.6964407 -1.5050645 0.30878216 96 9 -0.073586345
4.7813649 -1.2632911 -0.96129572 7 2 -0.073584042
5.6726589 -1.4998403 0.51334733 92 10 -0.07358174
4.6309361 -1.2252755 -0.75870728 68 3 -0.073579438
5.691659 -1.50699 0.722929 91 11 -0.073577128
5.4419417 -1.4418881 -0.69124299 69 4 -0.073574826
5.6785541 -1.5056412 0.93047231 96 12 -0.073572524
5.3345876 -1.4144403 -0.48284283 68 5 -0.073570222
5.6927824 -1.5104774 1.1448541 76 13 -0.073567912
5.2544727 -1.3951614 -0.28491697 74 6 -0.07356561
5.7368083 -1.5243027 1.3704019 88 14 -0.073563308
5.1463742 -1.3683826 -0.092951514 59 7 -0.073561005
6.6349454 -1.7654226 1.8396858 31 15 -0.073558703
3.4843578 -0.93167573 -0.96643037 13 0 -0.073537961
5.0263829 -1.3449348 0.090822324 72 8 -0.073535658
4.0189805 -1.0761307 -0.96054095 8 1 -0.073533356
5.6911521 -1.5249397 0.30878216 96 9 -0.073531054
4.776926 -1.2799735 -0.96129572 11 2 -0.073528744
5.6712375 -1.5206645 0.5136959 100 10 -0.073526442
4.618999 -1.2393852 -0.75745571 15 3 -0.07352414
5.6748605 -1.5237594 0.72146654 91 11 -0.073521838
5.4387927 -1.4613904 -0.69148672 61 4 -0.073519528
5.6732635 -1.5254538 0.93047231 93 12 -0.073517226
5.3334656 -1.4340874 -0.48319143 70 5 -0.073514923
5.6874752 -1.5303397 1.1448541 76 13 -0.073512621
5.2341423 -1.4093403 -0.28407961 73 6 -0.073510319
5.74086 -1.5468534 1.3726513 90 14 -0.073508009
5.1492891 -1.3884206 -0.093091138 59 7 -0.073505707
6.6380692 -1.7910886 1.8422741 36 15 -0.073503405
3.4792199 -0.94332731 -0.9659127 10 0 -0.07348267
5.0216575 -1.3624719 0.090822324 72 8 -0.07348036
3.9982743 -1.0855577 -0.95649189 12 1 -0.073478058
5.683867 -1.5442724 0.30867749 98 9 -0.073475756
4.76864 -1.2956109 -0.96053255 11 2 -0.073473454
5.6793532 -1.5441107 0.51491612 100 10 -0.073471144
4.9977689 -1.3597372 -0.82034248 1 3 -0.073468842
5.6618457 -1.5414732 0.72049159 94 11 -0.073466539
4.606256 -1.2549459 -0.58619159 30 4 -0.073464237
5.6736217 -1.5468068 0.93141097 89 12 -0.073461935
5.3361163 -1.4547924 -0.48388866 67 5 -0.073459625
5.6896749 -1.5522503 1.1463805 70 13 -0.073457323
5.2330441 -1.4286542 -0.28428894 73 6 -0.073455021
5.7015891 -1.5576391 1.3645531 78 14 -0.073452719
5.1482697 -1.4074413 -0.09316095 59 7 -0.073450409
6.6373668 -1.815778 1.843827 1 15 -0.073448107
3.4814939 -0.95700228 -0.96746564 13 0 -0.073427372
5.028439 -1.3831747 0.091031753 72 8 -0.073425069
3.9963388 -1.1000247 -0.95694178 8 1 -0.07342276
5.667161 -1.559932 0.30804947 94 9 -0.073420458
4.7640886 -1.3122487 -0.96053255 11 2 -0.073418155
5.6758494 -1.5644552 0.51509041 92 10 -0.073415853
5.0158434 -1.3834774 -0.82409686 1 3 -0.073413551
5.6736526 -1.5659809 0.72268528 89 11 -0.073411241
4.5867605 -1.2659886 -0.58424169 54 4 -0.073408939
5.6665568 -1.5650868 0.93109804 93 12 -0.073406637
5.3386879 -1.4755331 -0.48458594 31 5 -0.073404334
5.6880059 -1.573148 1.1471437 68 13 -0.073402025
5.2280254 -1.4469122 -0.28428894 74 6 -0.073399723
5.717052 -1.5822555 1.3695021 88 14 -0.07339742
5.139719 -1.4234383 -0.093091138 60 7 -0.073395118
6.6350322 -1.8388101 1.8448622 35 15 -0.073392808
3.4652741 -0.96491462 -0.96384215 14 0 -0.073372073
5.0296035 -1.4014522 0.091136463 76 8 -0.073369771
3.9945464 -1.1137944 -0.95739168 10 1 -0.073367469
5.6792717 -1.5835444 0.30899152 96 9 -0.073365167
4.7483644 -1.3248739 -0.95824283 11 2 -0.073362857
5.6667924 -1.5821968 0.51474178 92 10 -0.073360555
5.0492783 -1.4107337 -0.83035421 1 3 -0.073358253
5.6703401 -1.5853213 0.722929 91 11 -0.07335595
5.4313679 -1.518509 -0.69246167 73 4 -0.073353641
5.6537266 -1.5817403 0.92984658 96 12 -0.073351339
5.678977 -1.5909423 1.1463805 68 13 -0.073346734
5.2308912 -1.4663976 -0.28470761 73 6 -0.073344424
5.7249079 -1.6048874 1.3726513 31 14 -0.073342122
5.1330457 -1.4399344 -0.093056232 63 7 -0.07333982
6.627038 -1.8602803 1.8443446 38 15 -0.073337518
3.4527586 -0.97377867 -0.961254 9 0 -0.073316783
5.0191545 -1.4164938 0.091031753 72 8 -0.073314473
3.9908311 -1.1270348 -0.95739168 10 1 -0.073312171
5.6737099 -1.6033591 0.30899152 92 9 -0.073309869
4.751502 -1.3427483 -0.95976931 9 2 -0.073307566
5.6519279 -1.5982691 0.51387024 95 10 -0.073305257
5.0483737 -1.4285457 -0.83098 1 3 -0.073302954
5.6765118 -1.6073611 0.72439146 91 11 -0.073300652
5.4241242 -1.5369177 -0.69221795 70 4 -0.07329835
5.6576729 -1.6041602 0.93141097 89 12 -0.07329604
5.6698923 -1.608694 1.1456172 71 13 -0.073291436
5.233685 -1.4859177 -0.28512633 70 6 -0.073289134
7.7063003 -2.1893818 1.8495475 72 14 -0.073286824
5.1260648 -1.4572965 -0.093021333 59 7 -0.073284522
6.6167874 -1.8823447 1.8433093 36 15 -0.073282219
3.4640257 -0.99067676 -0.96539509 17 0 -0.073261485
5.0007219 -1.4301565 0.090787418 68 8 -0.073259182
3.9831257 -1.1398863 -0.95649189 10 1 -0.073256873
5.6795988 -1.6264534 0.30961955 92 9 -0.07325457
4.7389994 -1.3579912 -0.95824283 11 2 -0.073252268
5.6383715 -1.6167771 0.51317304 90 10 -0.073249966
5.0620914 -1.4524877 -0.83410865 1 3 -0.073247656
5.6670504 -1.6260711 0.72390395 94 11 -0.073245354
5.4225421 -1.5569377 -0.69270545 70 4 -0.073243052
5.6596336 -1.6260811 0.93266243 89 12 -0.07324075
5.6715055 -1.6316354 1.1471437 70 13 -0.073236138
5.2128491 -1.50067 -0.28428894 74 6 -0.073233835
5.1286325 -1.4773951 -0.09316095 59 7 -0.073229231
6.6194577 -1.9081055 1.8458976 40 15 -0.073226921
3.4512687 -1.000074 -0.96280694 16 0 -0.073206186
5.0069699 -1.4518167 0.090996847 68 8 -0.073203884
3.9602056 -1.1490473 -0.95199287 10 1 -0.073201582
5.6758046 -1.6468256 0.30972421 94 9 -0.073199272
4.7380009 -1.3756198 -0.95900601 9 2 -0.07319697
5.640347 -1.638672 0.51387024 100 10 -0.073194668
5.0664749 -1.4729059 -0.83567303 2 3 -0.073192365
5.6400857 -1.6407313 0.72122282 89 11 -0.073190056
5.4110813 -1.5751373 -0.69197422 73 4 -0.073187754
5.6653032 -1.6491398 0.93453962 100 12 -0.073185451
4.5775476 -1.3333666 -0.41712737 1 5 -0.073183149
5.6695452 -1.6525217 1.147907 68 13 -0.073180847
5.2037444 -1.5177386 -0.28407961 74 6 -0.073178537
5.640152 -1.6460907 1.3564548 48 14 -0.073176235
5.1349621 -1.4986498 -0.093370378 59 7 -0.073173933
6.6257381 -1.9349909 1.849521 42 15 -0.073171631
3.4514642 -1.0132033 -0.96384215 11 0 -0.073150888
5.0136404 -1.471792 0.091206275 76 8 -0.073148586
3.9657218 -1.1649195 -0.95424235 12 1 -0.073146284
5.6566086 -1.662685 0.30899152 92 9 -0.073143981
4.7181029 -1.3877183 -0.95595312 9 2 -0.073141679
5.6269474 -1.6561005 0.51317304 90 10 -0.073139369
5.0899878 -1.4980648 -0.84036607 2 3 -0.073137067
5.6631775 -1.6678379 0.72487891 91 11 -0.073134765
5.392499 -1.5891443 -0.69026798 72 4 -0.073132463
5.6519327 -1.6666704 0.9332881 100 12 -0.073130153
4.6531243 -1.3730197 -0.42444846 1 5 -0.073127851
5.6790977 -1.6757585 1.1509598 68 13 -0.073125549
5.2101755 -1.5383798 -0.28470761 73 6 -0.073123246
5.6271873 -1.6625763 1.3546553 82 14 -0.073120937
5.1220293 -1.5142972 -0.093230762 60 7 -0.073118635
6.6189432 -1.9581075 1.849521 40 15 -0.073116332
3.4369743 -1.0213413 -0.96073633 13 0 -0.073095597
5.0180559 -1.4921337 0.091380797 72 8 -0.073093295
3.9672348 -1.1804227 -0.9555921 10 1 -0.073090985
5.6545992 -1.6835603 0.30920088 88 9 -0.073088683
4.7059484 -1.4011158 -0.95442665 9 2 -0.073086381
5.6290622 -1.6770266 0.51387024 90 10 -0.073084079
5.1282678 -1.528803 -0.84756202 2 3 -0.073081769
5.6611252 -1.6887305 0.72536635 91 11 -0.073079467
5.3697996 -1.6028479 -0.68807441 46 4 -0.073077165
5.6441875 -1.6858238 0.93297523 93 12 -0.073074862
4.5948524 -1.3732785 -0.41956773 35 5 -0.073072553
5.6544032 -1.6899499 1.1471437 68 13 -0.07307025
5.2162547 -1.559991 -0.28533566 73 6 -0.073067948
5.6680231 -1.6961762 1.3659029 84 14 -0.073065646
5.1128802 -1.53102 -0.09316095 60 7 -0.073063336
6.6083665 -1.980091 1.8484857 43 15 -0.073061034
3.4221091 -1.0305893 -0.95763052 10 0 -0.073040299
4.9955845 -1.5044513 0.091066658 76 8 -0.073037997
3.9518952 -1.1908901 -0.95289266 10 1 -0.073035695
5.6658974 -1.7084774 0.3101429 94 9 -0.073033385
4.7120585 -1.4217569 -0.95671636 7 2 -0.073031083
5.6171556 -1.6959192 0.51334733 92 10 -0.073028781
5.1396489 -1.5527301 -0.85037786 1 3 -0.073026478
5.6589971 -1.7096294 0.72585386 94 11 -0.073024169
5.2444615 -1.5853941 -0.67271888 61 4 -0.073021866
5.6439409 -1.7072312 0.93391389 100 12 -0.073019564
4.6014724 -1.3927724 -0.42061362 38 5 -0.073017262
5.6594453 -1.7140776 1.1494334 68 13 -0.073014952
5.2066798 -1.5779405 -0.28512633 74 6 -0.07301265
5.6580386 -1.7158079 1.365003 84 14 -0.073010348
5.1113329 -1.5500187 -0.093230762 59 7 -0.073008046
6.5995665 -2.0025854 1.8479681 33 15 -0.073005736
3.4166429 -1.0419648 -0.95711285 10 0 -0.072985001
4.9881239 -1.5221668 0.091031753 72 8 -0.072982699
3.953095 -1.2070736 -0.95424235 11 1 -0.072980396
5.6618094 -1.7288278 0.3102476 92 9 -0.072978094
4.707067 -1.4381967 -0.95671636 9 2 -0.072975785
5.6226339 -1.7190115 0.51439321 87 10 -0.072973482
5.1379752 -1.5718173 -0.85100359 1 3 -0.07297118
5.6526928 -1.7303594 0.72585386 94 11 -0.072968878
5.3907475 -1.6501749 -0.69221795 72 4 -0.072966568
5.6303926 -1.7246078 0.93266243 89 12 -0.072964266
4.6232514 -1.4169998 -0.42305395 37 5 -0.072961964
5.6534276 -1.7338223 1.1494334 68 13 -0.072959661
5.1935024 -1.5937617 -0.28470761 76 6 -0.072957352
5.6560435 -1.7357047 1.3659029 84 14 -0.07295505
5.1173601 -1.5713729 -0.093440183 60 7 -0.072952747
5.6267381 -1.7288607 1.5772433 15 15 -0.072950445
3.415015 -1.0538588 -0.95763052 9 0 -0.07292971
4.9906917 -1.54106 0.091171376 72 8 -0.0729274
3.9360375 -1.2161491 -0.95109308 10 1 -0.072925098
5.6560454 -1.7475938 0.3102476 92 9 -0.072922796
4.6985211 -1.4526381 -0.95595312 9 2 -0.072920494
5.6264191 -1.7405916 0.51526475 90 10 -0.072918184
5.2044415 -1.6110437 -0.86289263 2 3 -0.072915882
5.6184802 -1.7402846 0.72219777 89 11 -0.07291358
5.3852458 -1.6680419 -0.69221795 72 4 -0.072911277
5.647284 -1.7502868 0.9364168 100 12 -0.072908968
4.6413631 -1.4394052 -0.42514572 38 5 -0.072906666
5.6626472 -1.7572151 1.1524864 68 13 -0.072904363
5.1862812 -1.6103832 -0.28460297 55 6 -0.072902061
5.6242013 -1.7463609 1.3596041 90 14 -0.072899759
5.1083016 -1.5871475 -0.093370378 60 7 -0.072897449
5.7113671 -1.7756126 1.6026076 1 15 -0.072895147
3.4207218 -1.0680565 -0.96021873 14 0 -0.072874412
4.9912796 -1.5593902 0.091276079 76 8 -0.07287211
3.9301229 -1.2286131 -0.95064318 11 1 -0.0728698
5.6403799 -1.7643449 0.30972421 90 9 -0.072867498
4.6840534 -1.4660978 -0.954045 10 2 -0.072865196
5.607306 -1.7550738 0.51404458 87 10 -0.072862893
5.4422469 -1.7044537 -0.90325272 31 3 -0.072860584
5.6410923 -1.7678109 0.72585386 91 11 -0.072858281
5.3793902 -1.6868299 -0.69221795 72 4 -0.072855979
5.6373706 -1.7688061 0.93579108 100 12 -0.072853677
4.6667247 -1.4651469 -0.42793471 38 5 -0.072851375
5.6602249 -1.7781476 1.1532496 67 13 -0.072849065
5.6273665 -1.7689042 1.3618537 90 14 -0.072844461
5.0951009 -1.6025691 -0.093230762 60 7 -0.072842158
6.608079 -2.079716 1.8562503 40 15 -0.072839849
3.3983645 -1.0747615 -0.9550423 10 0 -0.072819114
4.9874372 -1.5782769 0.091310993 72 8 -0.072816812
3.9293089 -1.244186 -0.95154291 11 1 -0.072814509
5.6376834 -1.7862127 0.30993357 90 9 -0.072812207
4.6655478 -1.4791027 -0.9513737 8 2 -0.072809897
5.6084328 -1.7780223 0.51474178 77 10 -0.072807595
5.4773874 -1.7375296 -0.91013581 84 3 -0.072805293
5.6421428 -1.7908769 0.72682881 94 11 -0.072802991
5.3769555 -1.7077367 -0.69270545 72 4 -0.072800681
5.6327324 -1.7900546 0.93610394 100 12 -0.072798379
4.6727157 -1.4858639 -0.42898056 38 5 -0.072796077
5.6499281 -1.7976909 1.1524864 67 13 -0.072793774
5.1860437 -1.6510893 -0.28523099 56 6 -0.072791465
5.6245589 -1.7907001 1.3627534 90 14 -0.072789162
5.0853815 -1.620019 -0.09316095 60 7 -0.07278686
6.5948901 -2.1021616 1.8546973 42 15 -0.072784558
3.3962426 -1.0877993 -0.95555997 13 0 -0.072763823
4.9816194 -1.5965462 0.091310993 80 8 -0.072761513
3.9228668 -1.2579844 -0.95109308 8 1 -0.072759211
5.642509 -1.8105252 0.3105616 90 9 -0.072756909
4.6526189 -1.4937924 -0.94984722 8 2 -0.072754607
5.603776 -1.7991755 0.51491612 75 10 -0.072752297
5.4446526 -1.7491349 -0.9057557 74 3 -0.072749995
5.6431003 -1.8139743 0.72780377 94 11 -0.072747692
5.3763294 -1.7292564 -0.69343662 73 4 -0.07274539
5.6374159 -1.8143187 0.93798119 100 12 -0.072743081
4.678617 -1.5066446 -0.43002641 37 5 -0.072740778
5.6507759 -1.8207952 1.1540129 67 13 -0.072738476
5.1723537 -1.6676344 -0.2848123 66 6 -0.072736174
5.6123943 -1.8095092 1.3614038 88 14 -0.072733864
5.0870223 -1.6411027 -0.093300566 59 7 -0.072731562
6.5761104 -2.1227582 1.8515915 43 15 -0.07272926
3.3959079 -1.1014318 -0.95659518 13 0 -0.072708525
4.9757342 -1.6147941 0.091310993 72 8 -0.072706223
3.9126689 -1.2705483 -0.94974333 10 1 -0.072703913
5.6510315 -1.8361315 0.31139898 90 9 -0.072701611
4.63591 -1.507193 -0.94755751 7 2 -0.072699308
5.5952487 -1.8190862 0.51474178 77 10 -0.072697006
5.4419618 -1.7703011 -0.90638137 57 3 -0.072694696
5.6439648 -1.8371029 0.72877878 100 11 -0.072692394
5.375618 -1.7507942 -0.69416779 69 4 -0.072690092
5.6269717 -1.8337443 0.9373554 93 12 -0.07268779
4.6957946 -1.5311946 -0.43211815 34 5 -0.07268548
5.6421981 -1.8408853 1.1536313 67 13 -0.072683178
5.1719027 -1.6884404 -0.28512633 73 6 -0.072680876
5.6186914 -1.8343009 1.3645531 90 14 -0.072678573
5.0942788 -1.6640831 -0.0935449 63 7 -0.072676271
6.577467 -2.1498475 1.8541797 45 15 -0.072673962
3.3871171 -1.1096983 -0.9550423 8 0 -0.072985888
4.970921 -1.6295502 0.091310993 80 8 -0.072983585
3.9033272 -1.2803297 -0.94839364 11 1 -0.072981283
5.6303773 -1.8479078 0.3105616 90 9 -0.072978973
4.6615286 -1.5299286 -0.95366341 7 2 -0.072976671
5.6030769 -1.8400309 0.51596195 85 10 -0.072974369
5.4329324 -1.7852067 -0.9057557 56 3 -0.072972067
5.6177449 -1.8470205 0.72609758 87 11 -0.072969757
5.3685141 -1.7661159 -0.69392407 73 4 -0.072967455
5.636517 -1.8553729 0.93985838 95 12 -0.072965153
4.7196164 -1.5544699 -0.43473285 28 5 -0.07296285
5.6426291 -1.8584768 1.1547761 68 13 -0.072960541
5.1671677 -1.7028766 -0.28512633 74 6 -0.072958238
5.6039705 -1.8479125 1.3623036 90 14 -0.072955936
5.0874205 -1.6785642 -0.093509994 60 7 -0.072953634
6.5894036 -2.1754103 1.8593562 43 15 -0.072951324
3.3903618 -1.1245382 -0.95711285 10 0 -0.072930589
4.9784889 -1.6512989 0.091555327 76 8 -0.072928287
3.8951354 -1.2927195 -0.94749385 8 1 -0.072925985
5.6333699 -1.870697 0.31108496 92 9 -0.072923683
4.640985 -1.5420511 -0.95061046 7 2 -0.072921373
5.5962954 -1.8605549 0.51596195 80 10 -0.072919071
5.4394732 -1.8094718 -0.90794575 66 3 -0.072916768
5.6338673 -1.8741381 0.7290225 98 11 -0.072914466
5.3528986 -1.7817101 -0.69270545 66 4 -0.072912157
5.62251 -1.8725404 0.93860692 100 12 -0.072909854
4.7368441 -1.5784934 -0.43682456 26 5 -0.072907552
5.6190176 -1.8735564 1.1513416 67 13 -0.07290525
5.162786 -1.7224356 -0.28523099 69 6 -0.07290294
5.5971603 -1.8684394 1.3623036 90 14 -0.072900638
5.0777364 -1.6950457 -0.093440183 60 7 -0.072898336
6.5872679 -2.2002344 1.8609091 43 15 -0.072896034
3.3717639 -1.1314492 -0.95297176 8 0 -0.072875299
4.9742985 -1.6701713 0.091590226 72 8 -0.072872989
3.8866765 -1.3057461 -0.94659406 11 1 -0.072870687
5.6116595 -1.8852617 0.3102476 88 9 -0.072868384
4.6244087 -1.5544887 -0.94832075 8 2 -0.072866082
5.58599 -1.8788081 0.51561338 85 10 -0.072863773
5.4406123 -1.8309685 -0.90919721 64 3 -0.07286147
5.6194353 -1.8922406 0.72804755 92 11 -0.072859168
5.3579345 -1.8041852 -0.69416779 75 4 -0.072856866
5.6159396 -1.8921549 0.93860692 100 12 -0.072854556
4.7426329 -1.598837 -0.43787044 17 5 -0.072852254
5.6384873 -1.9019437 1.1566842 67 13 -0.072849952
5.1264644 -1.7302275 -0.28355622 51 6 -0.072847649
5.5983191 -1.8894827 1.3641032 84 14 -0.072845347
5.0698943 -1.7121204 -0.093405277 63 7 -0.072843038
3.369823 -1.1432449 -0.95348942 13 0 -0.07282
4.9611583 -1.6840862 0.091450609 72 8 -0.072817698
3.8915513 -1.3217613 -0.9488436 10 1 -0.072815388
5.6318531 -1.912853 0.31171298 88 9 -0.072813086
4.6192284 -1.5698152 -0.94832075 8 2 -0.072810784
5.5853877 -1.8992459 0.51613629 92 10 -0.072808482
5.4214201 -1.8445461 -0.90700716 57 3 -0.072806172
5.6394377 -1.9198211 0.73145986 100 11 -0.07280387
5.3500433 -1.8213031 -0.69392407 69 4 -0.072801568
5.6096339 -1.9107677 0.93860692 96 12 -0.072799265
4.8825173 -1.6640464 -0.45129246 33 5 -0.072796963
5.6265745 -1.9187304 1.1555393 67 13 -0.072794653
5.0224051 -1.7136797 -0.27811331 46 6 -0.072792351
5.5883341 -1.9067786 1.3632034 88 14 -0.072790049
5.0698662 -1.7308618 -0.093509994 59 7 -0.072787747
6.5629978 -2.2418983 1.8583208 35 15 -0.072785437
3.3605311 -1.1525332 -0.95193648 9 0 -0.072764702
4.9555464 -1.7005287 0.091450609 80 8 -0.0727624
3.8650291 -1.3270646 -0.94344473 10 1 -0.072760098
5.6270304 -1.9331487 0.31181765 86 9 -0.072757788
4.5954299 -1.5787455 -0.94450456 10 2 -0.072755486
5.5884795 -1.9209955 0.51700783 85 10 -0.072753184
5.4040656 -1.8586593 -0.90512991 38 3 -0.072750881
5.616147 -1.9326981 0.72926623 96 11 -0.072748579
5.3530378 -1.8431988 -0.69514281 72 4 -0.072746269
5.6010618 -1.9296938 0.93829399 63 12 -0.072743967
4.8430653 -1.6685467 -0.44815481 15 5 -0.072741665
5.6164694 -1.9360987 1.1547761 22 13 -0.072739363
4.9676037 -1.7133929 -0.27539182 51 6 -0.072737053
5.5890126 -1.9288169 1.365003 88 14 -0.072734751
5.0637937 -1.7485482 -0.093509994 59 7 -0.072732449
6.5642619 -2.2679484 1.8609091 42 15 -0.072730146
3.3656132 -1.1674221 -0.9545247 16 0 -0.072709404
4.9590263 -1.721095 0.091625139 76 8 -0.072707102
3.865896 -1.3424659 -0.94479448 11 1 -0.072704799
5.6164746 -1.9514681 0.31160831 90 9 -0.072702497
4.5935998 -1.5960659 -0.94526786 7 2 -0.072700195
5.5873857 -1.9424539 0.5175308 55 10 -0.072697885
4.9068589 -1.7068288 -0.8228454 57 3 -0.072695583
5.5793695 -1.9418502 0.72536635 56 11 -0.072693281
5.2734594 -1.8364127 -0.685637 28 4 -0.072690979
5.5905614 -1.9479337 0.93766832 24 12 -0.072688669
4.9049435 -1.709042 -0.45443004 24 5 -0.072686367
5.5855765 -1.9472898 1.1498151 16 13 -0.072684065
4.9483919 -1.7261182 -0.27465913 54 6 -0.072681762
5.576726 -1.9463878 1.3636533 82 14 -0.072679453
5.0689864 -1.7701693 -0.093719423 60 7 -0.07267715
6.5690713 -2.2953088 1.8645325 47 15 -0.072674848
3.3560491 -1.1772448 -0.95297176 14 0 -0.072654113
4.9511013 -1.7377324 0.091590226 80 8 -0.072651811
3.8630247 -1.3565978 -0.94524431 10 1 -0.072649501
5.590786 -1.9644402 0.3105616 22 9 -0.072647199
4.5787396 -1.6088365 -0.94335973 10 2 -0.072644897
5.5674143 -1.9573199 0.51631063 75 10 -0.072642595
4.9977708 -1.7580321 -0.83911461 70 3 -0.072640285
5.5725574 -1.9613138 0.72536635 19 11 -0.072637983
5.1190982 -1.8027191 -0.66638166 78 4 -0.07263568
5.5688224 -1.9621844 0.93516535 34 12 -0.072633378
4.9193153 -1.7342948 -0.45634744 37 5 -0.072631069
5.5954089 -1.9726503 1.1532496 66 13 -0.072628766
4.9517541 -1.7467028 -0.27518249 46 6 -0.072626464
5.5809236 -1.9697337 1.3663527 35 14 -0.072624162
5.0514631 -1.7838572 -0.093509994 60 7 -0.072621852
6.568305 -2.3207994 1.866603 45 15 -0.07261955
3.3462496 -1.1875989 -0.95141882 9 0 -0.072598815
4.9544282 -1.7583487 0.091764756 80 8 -0.072596513
3.8564298 -1.369422 -0.94479448 10 1 -0.072594211
5.5707202 -1.9792628 0.30982888 36 9 -0.072591901
4.5691123 -1.6242924 -0.94259644 10 2 -0.072589599
5.5602031 -1.9777125 0.51631063 55 10 -0.072587296
5.0973721 -1.8140901 -0.85694808 43 3 -0.072584994
5.5899897 -1.9894066 0.728535 64 11 -0.072582684
4.9182868 -1.7513231 -0.64103281 19 4 -0.072580382
5.567522 -1.9836003 0.93610394 79 12 -0.07257808
4.9076014 -1.7494487 -0.45582449 11 5 -0.072575778
5.593689 -1.9951239 1.1543945 63 13 -0.072573468
5.0713506 -1.809817 -0.28219551 56 6 -0.072571166
7.6291513 -2.7241228 1.870243 19 14 -0.072568864
5.0433221 -1.8008069 -0.093475096 63 7 -0.072566561
6.5565252 -2.3424129 1.8655677 47 15 -0.072564259
3.3366289 -1.1973147 -0.94986594 13 0 -0.072543517
4.9441857 -1.7751442 0.091694944 80 8 -0.072541215
3.8587208 -1.3861825 -0.94659406 11 1 -0.072538912
5.5825739 -2.0054488 0.31087559 52 9 -0.07253661
4.5837374 -1.6475364 -0.94679433 10 2 -0.0725343
5.5588903 -1.9991318 0.51683354 92 10 -0.072531998
4.9553232 -1.783049 -0.83410865 70 3 -0.072529696
5.6013379 -2.0166056 0.73097235 96 11 -0.072527394
4.8931589 -1.7626103 -0.6385954 70 4 -0.072525084
5.5772901 -2.0090475 0.93891978 91 12 -0.072522782
5.5866904 -2.0146372 1.1543945 67 13 -0.072518177
5.1307569 -1.8512336 -0.28585902 64 6 -0.072515875
7.6397586 -2.7580159 1.875192 10 14 -0.072513565
5.0464091 -1.8217955 -0.093649611 60 7 -0.072511263
6.5464921 -2.364629 1.8650501 50 15 -0.072508961
3.3433256 -1.2129074 -0.95297176 15 0 -0.072488226
4.9288735 -1.7881199 0.091520421 80 8 -0.072485916
3.8394487 -1.3936517 -0.94299489 8 1 -0.072483614
5.5943127 -2.0317411 0.31192234 82 9 -0.072481312
4.5761132 -1.662856 -0.94641262 12 2 -0.07247901
5.5780926 -2.0280547 0.51927388 87 10 -0.0724767
4.9401002 -1.7960967 -0.83254427 74 3 -0.072474398
5.5871577 -2.0324547 0.7299974 100 11 -0.072472095
4.9581714 -1.8046267 -0.64785749 78 4 -0.072469793
5.5795236 -2.0318835 0.94048411 97 12 -0.072467491
5.1273961 -1.8682467 -0.47743914 8 5 -0.072465181
5.5818243 -2.0338247 1.1547761 67 13 -0.072462879
5.1283422 -1.8696054 -0.28606835 69 6 -0.072460577
7.6397243 -2.7866738 1.8774415 42 14 -0.072458275
5.043777 -1.8407708 -0.093719423 59 7 -0.072455965
6.543642 -2.3894539 1.866603 49 15 -0.072453663
3.3356571 -1.2226579 -0.95193648 13 0 -0.072432928
4.9319882 -1.8087566 0.091694944 80 8 -0.072430626
3.8254128 -1.4036887 -0.94074529 10 1 -0.072428316
5.5819192 -2.0482175 0.31160831 76 9 -0.072426014
4.5705738 -1.6780219 -0.94641262 12 2 -0.072423711
5.5900383 -2.0534112 0.52101701 100 10 -0.072421409
4.9430714 -1.8167374 -0.83410865 77 3 -0.072419107
5.5502191 -2.0409832 0.72609758 87 11 -0.072416797
4.9406638 -1.8178104 -0.64639509 78 4 -0.072414495
5.5801706 -2.0531032 0.94173563 95 12 -0.072412193
4.857542 -1.7881899 -0.45286122 64 5 -0.072409891
5.5820594 -2.0560105 1.1563026 30 13 -0.072407581
5.1199112 -1.8868047 -0.28596368 70 6 -0.072405279
5.5492206 -2.0461154 1.3654529 24 14 -0.072402976
5.0413971 -1.85887 -0.093789227 60 7 -0.072400674
6.5465569 -2.4151523 1.8697089 49 15 -0.072398365
3.3241229 -1.2316095 -0.94986594 8 0 -0.07237763
4.9315886 -1.8271861 0.091799662 85 8 -0.072375327
3.8317003 -1.4204308 -0.94344473 10 1 -0.072373025
5.5728631 -2.0669951 0.31150365 84 9 -0.072370723
4.5426016 -1.6857693 -0.94183326 12 2 -0.072368413
5.5697622 -2.0680571 0.51979685 90 10 -0.072366111
4.946279 -1.8365573 -0.83567303 67 3 -0.072363809
5.5750551 -2.0711293 0.73024112 100 11 -0.072361507
4.927166 -1.8314178 -0.64542013 76 4 -0.072359197
5.5692673 -2.071192 0.94110984 97 12 -0.072356895
5.0230622 -1.8690583 -0.46889788 79 5 -0.072354592
5.5770502 -2.0751946 1.1566842 72 13 -0.07235229
5.1173697 -1.9051663 -0.28617305 70 6 -0.07234998
7.6187525 -2.8379307 1.8769917 57 14 -0.072347678
5.0236354 -1.8722665 -0.093579806 60 7 -0.072345376
6.5453267 -2.4406893 1.8717794 47 15 -0.072343074
3.3182116 -1.2419487 -0.94934833 13 0 -0.072322339
4.9326715 -1.8471946 0.091939278 85 8 -0.072320029
3.8248942 -1.4331136 -0.94299489 8 1 -0.072317727
5.5712242 -2.0885386 0.31181765 76 9 -0.072315425
4.5369864 -1.7008239 -0.94183326 12 2 -0.072313122
5.5647392 -2.0872152 0.51997113 82 10 -0.072310813
4.9398384 -1.8538117 -0.83567303 74 3 -0.072308511
5.5677915 -2.0905774 0.73024112 94 11 -0.072306208
4.9356089 -1.8541902 -0.64736998 75 4 -0.072303906
5.5583053 -2.0892296 0.94048411 95 12 -0.072301596
5.2070665 -1.9572077 -0.48667765 71 5 -0.072299294
5.5844736 -2.100178 1.1597371 64 13 -0.072296992
5.1144271 -1.9244244 -0.28638238 70 6 -0.07229469
5.0208116 -1.8912004 -0.093649611 60 7 -0.072290078
6.5295367 -2.4607966 1.8697089 47 15 -0.072287776
3.3120489 -1.2528403 -0.94883066 13 0 -0.072267041
4.9243231 -1.8636937 0.091904372 80 8 -0.072264738
3.8162234 -1.4450759 -0.94209504 10 1 -0.072262429
5.5713706 -2.1108036 0.31223634 80 9 -0.072260126
4.5346932 -1.7180418 -0.94259644 10 2 -0.072257824
5.5611458 -2.1080396 0.52031976 92 10 -0.072255522
4.935184 -1.8717443 -0.8359859 77 3 -0.072253212
5.5604601 -2.1099997 0.73024112 94 11 -0.07225091
4.9328184 -1.8728168 -0.64785749 75 4 -0.072248608
5.5306659 -2.1009028 0.93704253 49 12 -0.072246306
5.203928 -1.9767867 -0.48702627 70 5 -0.072243996
5.5771084 -2.1196587 1.1597371 66 13 -0.072241694
5.1151457 -1.9451051 -0.28680107 70 6 -0.072239392
7.6206117 -2.8993657 1.8823904 16 14 -0.072237089
5.0141792 -1.9087148 -0.093649611 59 7 -0.072234787
5.564074 -2.1191516 1.5953608 67 15 -0.072232477
3.2968285 -1.2602552 -0.94572484 9 0 -0.072211742
4.9065809 -1.8765854 0.091694944 80 8 -0.07220944
3.814796 -1.4597813 -0.94299489 10 1 -0.072207138
5.5770259 -2.1352375 0.31296906 84 9 -0.072204828
4.525002 -1.7324563 -0.94183326 10 2 -0.072202526
5.5630565 -2.1310022 0.52119136 95 10 -0.072200224
4.9304652 -1.8896668 -0.83629876 74 3 -0.072197922
5.5549145 -2.1301076 0.7304849 98 11 -0.072195612
4.9262514 -1.8900242 -0.64785749 76 4 -0.07219331
5.5749354 -2.1400173 0.94580293 81 12 -0.072191007
5.2044363 -1.9977959 -0.48772353 71 5 -0.072188705
5.562345 -2.1362979 1.1582106 67 13 -0.072186403
5.1027317 -1.9607993 -0.28648707 69 6 -0.072184093
7.6322718 -2.9343405 1.8877892 18 14 -0.072181791
5.0224175 -1.9319494 -0.093928859 58 7 -0.072179489
3.3014197 -1.2752359 -0.94831306 12 0 -0.072156444
4.9037313 -1.895143 0.091764756 80 8 -0.072154142
3.8042243 -1.4709799 -0.94164515 8 1 -0.07215184
5.5639501 -2.15253 0.31265503 80 9 -0.072149538
4.5244203 -1.7503662 -0.94297814 10 2 -0.072147235
5.5685902 -2.1554425 0.52241153 100 10 -0.072144926
4.9275227 -1.9082927 -0.83692449 74 3 -0.072142623
5.5289354 -2.1423125 0.72804755 89 11 -0.072140321
4.9270272 -1.9100786 -0.64883244 73 4 -0.072138019
5.5619063 -2.1573212 0.94486433 95 12 -0.072135709
5.2011466 -2.0173917 -0.48807216 71 5 -0.072133407
5.5640054 -2.1592529 1.1601188 68 13 -0.072131105
5.0902705 -1.9764302 -0.28617305 70 6 -0.072128803
7.6020017 -2.9532022 1.8828404 61 14 -0.072126493
5.0156431 -1.9494692 -0.093928859 58 7 -0.072124191
6.5178137 -2.5346391 1.87385 35 15 -0.072121888
3.2951486 -1.2860501 -0.94779539 8 0 -0.072101153
4.9119878 -1.9180676 0.092043988 80 8 -0.072098851
3.7954357 -1.482832 -0.94074529 11 1 -0.072096542
5.5567813 -2.1709688 0.31265503 88 9 -0.072094239
4.5036545 -1.7604306 -0.93992513 10 2 -0.072091937
5.5647426 -2.1763186 0.52276015 92 10 -0.072089635
4.931869 -1.9297999 -0.83880174 82 3 -0.072087325
5.5657868 -2.178967 0.73389727 100 11 -0.072085023
4.9132719 -1.923512 -0.64785749 75 4 -0.072082721
5.551043 -2.1743124 0.94423854 97 12 -0.072080418
5.2014923 -2.0384426 -0.48876941 70 5 -0.072078109
5.550951 -2.1765115 1.1589739 64 13 -0.072075807
5.0963559 -1.9992925 -0.28690574 67 6 -0.072073504
7.5957942 -2.9798183 1.8837402 69 14 -0.072071202
5.0054278 -1.9646295 -0.093859039 58 7 -0.072068892
6.5111713 -2.5569451 1.8743677 43 15 -0.07206659
3.2782848 -1.2920116 -0.94417191 8 0 -0.072045855
4.911181 -1.9365463 0.092148706 85 8 -0.072043553
3.7923105 -1.496125 -0.94119519 10 1 -0.072041251
5.549552 -2.1893837 0.31265503 80 9 -0.072038941
4.4959655 -1.7746346 -0.93954355 10 2 -0.072036639
5.5519361 -2.1925645 0.52223718 95 10 -0.072034337
4.9327912 -1.9490476 -0.8400532 77 3 -0.072032034
5.5456085 -2.1923034 0.73219109 94 11 -0.072029725
4.9179425 -1.944173 -0.64931989 73 4 -0.072027422
5.5493131 -2.1948879 0.94517714 100 12 -0.07202512
5.187294 -2.0527477 -0.48807216 70 5 -0.072022818
5.5674329 -2.2043025 1.1639349 67 13 -0.072020508
5.0934114 -2.0176525 -0.28711507 69 6 -0.072018206
7.6039886 -3.012167 1.888239 73 14 -0.072015904
4.9951673 -1.9797438 -0.093789227 59 7 -0.072013602
6.5080433 -2.5806589 1.8759204 43 15 -0.072011292
3.2685974 -1.3007327 -0.94261903 9 0 -0.071990557
4.8954434 -1.9491233 0.091974184 80 8 -0.071988255
3.7927594 -1.510856 -0.94254488 11 1 -0.071985953
5.554863 -2.2139182 0.31338775 78 9 -0.07198365
4.4809375 -1.7858998 -0.93763542 10 2 -0.071981341
5.5353818 -2.2072737 0.52136564 92 10 -0.071979038
4.918962 -1.9624667 -0.83880174 77 3 -0.071976736
5.5512133 -2.2158327 0.73389727 98 11 -0.071974434
4.9221873 -1.9657457 -0.65078235 73 4 -0.071972124
5.5379491 -2.2127793 0.94455141 91 12 -0.071969822
5.1767578 -2.0684595 -0.48772353 70 5 -0.07196752
5.5564466 -2.2212951 1.1631716 68 13 -0.071965218
5.0996737 -2.0397239 -0.28784779 70 6 -0.071962908
5.5308814 -2.2133145 1.3753507 28 14 -0.071960606
4.9956522 -2.0001414 -0.093928859 59 7 -0.071958303
6.4989953 -2.6033609 1.8759204 43 15 -0.071956001
3.272999 -1.3157372 -0.94520718 12 0 -0.071935266
4.8848991 -1.9647073 0.091904372 80 8 -0.071932957
3.7639604 -1.5146288 -0.93669617 10 1 -0.071930654
5.5619226 -2.2392623 0.31422511 80 9 -0.071928352
4.4783182 -1.8029968 -0.93839866 7 2 -0.07192605
5.5535164 -2.237004 0.52380598 100 10 -0.07192374
4.9120812 -1.9796251 -0.83880174 81 3 -0.071921438
5.5379219 -2.2329693 0.73316604 96 11 -0.071919136
4.9171371 -1.9836581 -0.65102613 73 4 -0.071916834
5.5503411 -2.2402301 0.94799298 95 12 -0.071914524
5.1805916 -2.0909915 -0.48876941 70 5 -0.071912222
5.5450182 -2.239207 1.1624085 68 13 -0.071909919
5.0758562 -2.0507789 -0.28690574 69 6 -0.071907617
7.5881953 -3.0673707 1.889589 54 14 -0.071905315
4.9997625 -2.0220656 -0.09413828 58 7 -0.071903005
6.4970317 -2.6289291 1.8779911 43 15 -0.071900703
3.2683864 -1.3271542 -0.94520718 9 0 -0.071879968
4.8854218 -1.9847574 0.092043988 80 8 -0.071877666
3.7532344 -1.5255568 -0.93534642 8 1 -0.071875356
5.5489159 -2.2554376 0.31391108 86 9 -0.071873054
4.4701791 -1.8178784 -0.93801707 10 2 -0.071870752
5.5512109 -2.2586286 0.52432895 100 10 -0.071868449
4.9161191 -2.0012281 -0.84067887 77 3 -0.07186614
5.5098701 -2.2440505 0.7304849 87 11 -0.071863838
4.9065056 -1.9993117 -0.65053862 73 4 -0.071861535
5.5483699 -2.2608597 0.94893163 91 12 -0.071859233
5.1843305 -2.1135755 -0.48981526 67 5 -0.071856931
5.5444393 -2.2615149 1.1639349 68 13 -0.071854621
5.0742145 -2.0707483 -0.28721976 70 6 -0.071852319
7.5810494 -3.0953126 1.8904886 55 14 -0.071850017
4.9930296 -2.0386343 -0.09413828 59 7 -0.071847714
6.5007968 -2.6555734 1.8816146 42 15 -0.071845405
3.2655213 -1.3392878 -0.94572484 9 0 -0.07182467
4.8973141 -2.0085349 0.092393041 80 8 -0.071822368
3.7481546 -1.5379945 -0.93534642 8 1 -0.071820065
5.5410089 -2.2747931 0.31391108 82 9 -0.071817763
4.4510942 -1.8282501 -0.93534577 10 2 -0.071815453
5.5432925 -2.2779922 0.52432895 90 10 -0.071813151
4.9167643 -2.0205231 -0.84193045 78 3 -0.071810849
5.5482974 -2.2811809 0.73657835 100 11 -0.071808547
4.8998489 -2.0155711 -0.65053862 73 4 -0.071806237
5.5386171 -2.2794611 0.94861871 95 12 -0.071803935
5.1842904 -2.1346936 -0.49051252 68 5 -0.071801633
5.5441709 -2.2828786 1.1654614 70 13 -0.07179933
5.0673199 -2.0875638 -0.28721976 70 6 -0.071797021
7.5761495 -3.1226633 1.8918384 48 14 -0.071794719
4.9784889 -2.0530014 -0.093998663 58 7 -0.071792416
6.498631 -2.6811965 1.8836851 40 15 -0.071790114
3.2592771 -1.3493704 -0.94520718 13 0 -0.071769379
4.8884263 -2.0248525 0.092358135 85 8 -0.071767069
3.7553654 -1.5562912 -0.93849587 10 1 -0.071764767
