# .PCD v0.7 - Point Cloud Data file format
VERSION 0.7
FIELDS x y z intensity ring time
SIZE 4 4 4 4 2 4
TYPE F F F F U F
COUNT 1 1 1 1 1 1
WIDTH 953
HEIGHT 1
VIEWPOINT 0 0 0 1 0 0 0
POINTS 953
DATA ascii
3.7769744 -3.5817101 0.09085723 24 8 -0.057272617
2.8431528 -2.6971078 -0.90475315 1 1 -0.057270315
3.7928553 -3.5992849 0.27403107 71 9 -0.057268009
2.9364829 -2.786618 -0.78689629 26 2 -0.057265706
3.5893526 -3.4073591 0.43298975 28 10 -0.0572634
2.9206901 -2.7735698 -0.63793981 24 3 -0.057261098
3.7635586 -3.5752306 0.63737667 79 11 -0.057258796
2.9297647 -2.784133 -0.496252 30 4 -0.05725649
3.3372941 -3.1725132 0.72929758 34 12 -0.057254188
2.9082787 -2.7646806 -0.35106334 28 5 -0.057251882
3.302037 -3.1400938 0.88573539 19 13 -0.05724958
2.9274423 -2.7848442 -0.2117513 15 6 -0.057247274
3.2963004 -3.136831 1.0505214 22 14 -0.057244971
2.9155564 -2.7754767 -0.070263386 34 7 -0.057242665
3.2806375 -3.1241086 1.2138613 24 15 -0.057240363
2.4887052 -2.3757668 -0.9219135 4 0 -0.057219625
2.8449934 -2.7177846 -0.90835232 1 1 -0.05721502
3.7571652 -3.5904253 0.27235636 67 9 -0.057212714
2.9182215 -2.788713 -0.78460658 24 2 -0.057210412
3.5673556 -3.4102304 0.43176955 24 10 -0.057208106
2.9024246 -2.7755558 -0.63606256 24 3 -0.057205804
3.7223673 -3.5609024 0.6325019 79 11 -0.057203498
2.8985157 -2.7737558 -0.49259594 28 4 -0.057201196
3.3062224 -3.1650195 0.72491741 31 12 -0.05719889
2.8957312 -2.7720597 -0.35071471 30 5 -0.057196587
3.2754583 -3.1366646 0.88153762 21 13 -0.057194281
2.8931851 -2.7715583 -0.20997187 23 6 -0.057191979
3.2571909 -3.121352 1.0415233 19 14 -0.057189673
2.8971891 -2.7773342 -0.070053965 36 7 -0.057187371
3.2641354 -3.130193 1.2117908 21 15 -0.057185065
2.4831827 -2.3871167 -0.92294878 4 0 -0.05716433
2.8074012 -2.7006788 -0.89935428 1 1 -0.057159722
3.7273397 -3.586899 0.27110028 66 9 -0.05715742
2.8858356 -2.7771015 -0.7785008 27 2 -0.057155114
3.5382051 -3.4060805 0.42967781 24 10 -0.057152811
2.8827584 -2.7760792 -0.63387251 23 3 -0.057150505
3.6984777 -3.5628567 0.63055205 79 11 -0.057148203
2.8659453 -2.7618172 -0.48869613 27 4 -0.057145897
3.2780883 -3.1600893 0.72116297 31 12 -0.057143595
2.8688245 -2.7655575 -0.34862295 31 5 -0.057141289
3.2475309 -3.1317253 0.87695819 24 13 -0.057138987
2.8719938 -2.7705474 -0.2091345 25 6 -0.057136681
3.2350574 -3.121877 1.0379242 24 14 -0.057134379
2.8658965 -2.7665973 -0.06953039 34 7 -0.057132073
3.2406816 -3.1294901 1.207132 22 15 -0.057129771
2.472059 -2.3930831 -0.9219135 4 0 -0.057109036
3.367202 -3.2607675 0.081816882 7 8 -0.05710673
2.8147531 -2.7267332 -0.90475315 1 1 -0.057104427
3.7018881 -3.5873787 0.27015823 70 9 -0.057102121
2.857796 -2.7693968 -0.77353972 28 2 -0.057099819
3.5091276 -3.4017692 0.42758605 24 10 -0.057097513
2.8588698 -2.7723732 -0.6307438 21 3 -0.057095211
3.6717703 -3.5619223 0.62811464 76 11 -0.057092905
2.8477399 -2.7635095 -0.48723367 27 4 -0.057090603
3.2443597 -3.1494975 0.71615702 28 12 -0.057088297
2.8405693 -2.7575135 -0.34635693 31 5 -0.057085995
3.2267206 -3.1334686 0.87428689 25 13 -0.057083689
2.8537097 -2.7722054 -0.20850646 26 6 -0.057081386
3.2115624 -3.1209273 1.033875 26 14 -0.05707908
2.8390157 -2.7598581 -0.069111533 33 7 -0.057076778
3.2075791 -3.1192346 1.1988499 22 15 -0.057074472
2.4553905 -2.3936067 -0.91880763 4 0 -0.05705452
3.1639574 -3.0854211 0.077139638 1 8 -0.057052217
2.802428 -2.73382 -0.9038533 1 1 -0.057049911
3.6756747 -3.5856881 0.26911151 70 9 -0.057047609
2.8410857 -2.7724993 -0.7716316 26 2 -0.057045303
3.472995 -3.3903372 0.42462277 28 10 -0.057043001
2.8336287 -2.7671545 -0.62730229 24 3 -0.057040695
3.6493745 -3.5650077 0.62640852 78 11 -0.057038393
2.8328803 -2.7673893 -0.48625872 28 4 -0.057036087
3.2225952 -3.1491942 0.7136541 17 12 -0.057033785
2.8152544 -2.7520921 -0.34443948 30 5 -0.057031479
3.1961119 -3.1254961 0.86894423 25 13 -0.057029177
2.8383045 -2.7765632 -0.20808777 26 6 -0.057026871
3.1844788 -3.1152074 1.0284761 26 14 -0.057024568
2.8212729 -2.7608657 -0.068902098 34 7 -0.057022262
3.1737492 -3.1068799 1.19005 26 15 -0.05701996
2.4474394 -2.4017355 -0.91880763 3 0 -0.056999225
3.1394384 -3.081888 0.076790586 1 8 -0.056996919
2.7891755 -2.739002 -0.90250361 2 1 -0.056994617
3.6509383 -3.5852628 0.26816946 77 9 -0.056992311
2.8220725 -2.7722747 -0.7689603 28 2 -0.056990009
3.4475226 -3.3878708 0.42287967 26 10 -0.056987703
2.8131676 -2.7654572 -0.62479931 27 3 -0.056985401
3.6177173 -3.5576038 0.62299615 81 11 -0.056983095
2.8166106 -2.7698088 -0.48504004 30 4 -0.056980792
3.2008686 -3.1487808 0.71115112 12 12 -0.056978486
2.7933319 -2.7488353 -0.34287068 33 5 -0.056976184
3.1689405 -3.1195498 0.8643648 25 13 -0.056973878
2.8091586 -2.7663405 -0.20662238 26 6 -0.056971576
3.1658003 -3.1175463 1.0257769 27 14 -0.05696927
2.8035543 -2.761786 -0.068692669 34 7 -0.056966968
3.1496689 -3.1038275 1.1848736 26 15 -0.056964662
2.4449589 -2.4152689 -0.92087817 3 0 -0.056943927
3.2799716 -3.2412734 0.080490492 1 8 -0.056941625
2.7717621 -2.740016 -0.89980417 2 1 -0.056939319
3.6114187 -3.5713022 0.26618072 70 9 -0.056937017
2.8003001 -2.7691936 -0.7655257 30 2 -0.056934711
3.4263542 -3.3894765 0.42165947 32 10 -0.056932408
2.7927485 -2.7636549 -0.62229639 28 3 -0.056930102
3.5861492 -3.5500295 0.61958379 81 11 -0.0569278
2.787178 -2.7600687 -0.48162767 31 4 -0.056925494
3.2459931 -3.2155435 0.72366595 2 12 -0.056923192
2.7785389 -2.7524745 -0.34217343 30 5 -0.056920886
3.1432388 -3.1148403 0.86016703 24 13 -0.056918584
2.7872038 -2.7629862 -0.20568034 27 6 -0.056916278
3.1327591 -3.1066232 1.0185784 26 14 -0.056913976
2.7839589 -2.7616975 -0.068448335 32 7 -0.056911673
3.1333306 -3.10936 1.182803 26 15 -0.056909367
2.433774 -2.4210639 -0.9198429 3 0 -0.056888632
3.2643852 -3.2484713 0.080385789 42 8 -0.056886327
2.763562 -2.7510498 -0.90025413 1 1 -0.056884024
3.576287 -3.5613375 0.26450595 70 9 -0.056881718
2.7725322 -2.7609427 -0.76056474 26 2 -0.056879416
3.4116781 -3.3986034 0.42131084 32 10 -0.05687711
2.7746892 -2.7650204 -0.62041914 30 3 -0.056874808
3.5596764 -3.548511 0.61714637 87 11 -0.056872502
2.7634702 -2.7557638 -0.47919029 34 4 -0.0568702
3.454314 -3.4458838 0.77278632 4 12 -0.056867898
2.7576296 -2.7508996 -0.34077895 31 5 -0.056865592
3.1212289 -3.1146986 0.85711402 24 13 -0.056863289
2.7662339 -2.7614102 -0.20484295 28 6 -0.056860983
3.1053483 -3.1010156 1.0131795 26 14 -0.056858681
2.7502518 -2.7473729 -0.067854956 34 7 -0.056856375
3.1074264 -3.1052575 1.1771091 33 15 -0.056854073
2.4266727 -2.4309118 -0.92036057 4 0 -0.056833334
3.2487888 -3.2555997 0.080281071 40 8 -0.056831032
2.7663286 -2.7730961 -0.90430319 2 1 -0.056828726
3.5581923 -3.5681422 0.26408726 70 9 -0.056826424
2.7490149 -2.7567019 -0.7567485 27 2 -0.056824118
3.3857281 -3.3963814 0.41956773 32 10 -0.056821816
2.7566543 -2.7662935 -0.61854196 30 3 -0.056819513
3.5374613 -3.5510705 0.61544025 82 11 -0.056817207
2.7426281 -2.7541404 -0.47724038 31 4 -0.056814905
3.4562011 -3.4719203 0.77591503 4 12 -0.056812599
2.7278533 -2.7412167 -0.33833858 30 5 -0.056810297
3.1047986 -3.1200087 0.8555876 33 13 -0.056807991
2.7495353 -2.7639694 -0.2043196 30 6 -0.056805689
3.0835123 -3.1007819 1.0095804 29 14 -0.056803383
2.7321858 -2.7484472 -0.067645527 33 7 -0.056801081
3.0775032 -3.0969007 1.169862 29 15 -0.056798775
2.4000692 -2.4219511 -0.91363126 4 0 -0.05677804
3.2233291 -3.2527165 0.079932027 33 8 -0.056775734
2.7552602 -2.7813513 -0.9038533 2 1 -0.056773432
3.5260408 -3.560673 0.26262185 70 9 -0.056771129
2.7278433 -2.7555974 -0.75369561 26 2 -0.056768823
3.3956802 -3.431427 0.42235672 40 10 -0.056766521
2.7270477 -2.7567177 -0.61416179 28 3 -0.056764215
3.5068955 -3.5450501 0.61227161 81 11 -0.056761913
2.7260187 -2.75664 -0.47602168 33 4 -0.056759607
3.4482272 -3.488178 0.77685362 6 12 -0.056757305
2.700062 -2.7322989 -0.33607253 28 5 -0.056754999
3.0767853 -3.1146069 0.85100812 28 13 -0.056752697
2.7351758 -2.7697651 -0.20400558 27 6 -0.056750391
3.0611742 -3.1009679 1.0059811 27 14 -0.056748088
2.7113366 -2.7465827 -0.067366287 33 7 -0.056745782
3.0531054 -3.0938742 1.1646857 31 15 -0.05674348
2.4159908 -2.4550991 -0.92294878 4 0 -0.056722745
3.2155929 -3.268785 0.080036737 19 8 -0.056720439
2.7300179 -2.7761469 -0.89890444 2 1 -0.056718137
3.3911541 -3.4496586 0.25351539 84 9 -0.056715831
2.7071972 -2.7539022 -0.75064266 26 2 -0.056713529
3.4269726 -3.4873128 0.42776039 50 10 -0.056711223
2.7035654 -2.7521286 -0.61103308 31 3 -0.056708921
3.4702339 -3.5338023 0.60812807 76 11 -0.056706615
2.7033811 -2.7538633 -0.47382805 31 4 -0.056704313
3.4188166 -3.4838746 0.77309924 6 12 -0.056702007
2.6849265 -2.7360189 -0.33537531 28 5 -0.056699704
3.0493968 -3.1085103 0.84642875 28 13 -0.056697398
2.7045152 -2.7579055 -0.20243551 30 6 -0.056695096
3.0366888 -3.0977187 1.0014821 26 14 -0.05669279
2.6872556 -2.7422194 -0.067017242 33 7 -0.056690488
3.0349855 -3.0981436 1.1620976 24 15 -0.056688182
2.3993049 -2.4552274 -0.9198429 4 0 -0.056667447
3.2209313 -3.2971551 0.080455594 19 8 -0.056665145
2.712141 -2.7772944 -0.89620501 2 1 -0.056662839
3.460011 -3.5443668 0.25958636 49 9 -0.056660537
2.6893392 -2.7549062 -0.74835294 26 2 -0.056658231
3.4356513 -3.520643 0.43037504 68 10 -0.056655928
2.6773894 -2.7445807 -0.60727865 27 3 -0.056653623
3.4426324 -3.530261 0.60544699 81 11 -0.05665132
2.6729667 -2.7419615 -0.47017199 31 4 -0.056649014
3.3997412 -3.4887135 0.77153486 8 12 -0.056646712
2.6725786 -2.7425206 -0.33502665 28 5 -0.056644406
3.0179782 -3.0980415 0.84070444 31 13 -0.056642104
2.6809378 -2.7530205 -0.20138879 30 6 -0.056639798
3.0054679 -3.0873542 0.99473363 34 14 -0.056637496
2.6734834 -2.7472835 -0.066912524 31 7 -0.056635194
3.0160704 -3.1004102 1.1589917 26 15 -0.056632888
2.4028285 -2.4760652 -0.92450172 5 0 -0.056612153
3.2261107 -3.3256018 0.080874451 15 8 -0.056609847
2.6956472 -2.7797494 -0.89395547 3 1 -0.056607544
3.4392769 -3.5478194 0.25895834 63 9 -0.056605238
2.6605754 -2.7445421 -0.74301028 26 2 -0.056602936
3.4316604 -3.5411987 0.43142092 70 10 -0.05660063
2.6595459 -2.7453973 -0.60540146 30 3 -0.056598328
3.4123363 -3.5237179 0.60227835 76 11 -0.056596022
2.6495721 -2.7370126 -0.46773461 46 4 -0.05659372
3.371058 -3.483525 0.76778048 9 12 -0.056591414
2.6477482 -2.7360837 -0.33310926 38 5 -0.056589112
3.0003204 -3.1015022 0.83879644 43 13 -0.056586809
2.656039 -2.7465687 -0.20023739 32 6 -0.056584504
2.9879005 -3.090821 0.99248403 39 14 -0.056582201
2.6513705 -2.7436576 -0.066598386 33 7 -0.056579895
2.9904654 -3.0956357 1.1532978 28 15 -0.056577593
2.3821058 -2.4719179 -0.9198429 5 0 -0.056556854
3.2491663 -3.3728464 0.08174707 1 8 -0.056554552
2.6832242 -2.786335 -0.89305568 1 1 -0.056552246
3.4130201 -3.545414 0.25791162 33 9 -0.056549944
2.6360016 -2.7382543 -0.73881245 27 2 -0.056547638
3.3971736 -3.5301859 0.42863193 74 10 -0.056545336
2.659533 -2.7646294 -0.60759157 41 3 -0.05654303
3.3958874 -3.5313153 0.60154712 78 11 -0.056540728
2.6523836 -2.7591243 -0.46992823 52 4 -0.056538425
3.3383467 -3.4739063 0.76308739 9 12 -0.056536119
2.6354203 -2.7424362 -0.3327606 35 5 -0.056533817
2.9758754 -3.0977979 0.83498025 43 13 -0.056531511
2.6464353 -2.7558231 -0.20023739 33 6 -0.056529209
2.9635975 -3.0871737 0.98798501 42 14 -0.056526903
2.6196239 -2.7298107 -0.066039905 36 7 -0.056524601
2.9635928 -3.0893264 1.147086 28 15 -0.056522295
2.3721273 -2.478822 -0.91932529 5 0 -0.05650156
2.6600132 -2.7816 -0.88855666 1 1 -0.056496952
3.3675005 -3.5226564 0.2553995 12 9 -0.056494646
2.6304972 -2.7516961 -0.73995733 30 2 -0.056492344
3.3669362 -3.5232973 0.42636588 76 10 -0.056490041
2.6444085 -2.7681823 -0.60634005 46 3 -0.056487735
3.3739436 -3.5330982 0.599841 79 11 -0.056485433
2.6468482 -2.7726734 -0.47065943 48 4 -0.056483127
3.3152905 -3.4741056 0.76058447 9 12 -0.056480825
2.6258314 -2.7516189 -0.3327606 37 5 -0.056478519
2.9487822 -3.0911202 0.83040082 54 13 -0.056476217
2.6423128 -2.7708259 -0.20065607 33 6 -0.056473911
2.9447355 -3.0890367 0.98528558 40 14 -0.056471609
2.6045613 -2.7331476 -0.065900289 37 7 -0.056469303
2.9434633 -3.0898609 1.1434625 26 15 -0.056467
2.3661215 -2.4898882 -0.92036057 5 0 -0.056446265
2.9005075 -3.0532937 0.073509537 12 8 -0.056443959
2.6610227 -2.8021731 -0.89215589 2 1 -0.056441657
3.3428085 -3.5213535 0.25445744 10 9 -0.056439351
2.6316893 -2.7722526 -0.74301028 40 2 -0.056437049
3.3450162 -3.5249116 0.42514572 80 10 -0.056434743
2.6401677 -2.783129 -0.60759157 48 3 -0.056432441
3.3411007 -3.5232477 0.59618485 84 11 -0.056430135
2.6439824 -2.789099 -0.47187814 10 4 -0.056427833
2.9525833 -3.1157267 0.67986429 12 12 -0.056425527
2.635397 -2.7810144 -0.335201 33 5 -0.056423225
2.9231222 -3.0857165 0.82620305 51 13 -0.056420919
2.6326251 -2.7800322 -0.20065607 35 6 -0.056418616
2.9285762 -3.0936363 0.983486 40 14 -0.05641631
2.5840089 -2.730603 -0.065621048 40 7 -0.056414008
2.9193838 -3.0860827 1.1382862 31 15 -0.056411702
2.3560898 -2.4967272 -0.9198429 4 0 -0.056390967
2.9817681 -3.1608579 0.075848162 14 8 -0.056388665
2.6686056 -2.8298755 -0.89800459 2 1 -0.056386359
3.3072057 -3.5082943 0.25267801 17 9 -0.056384057
2.6381567 -2.7985647 -0.74758971 35 2 -0.056381751
3.3272259 -3.5307667 0.42444846 92 10 -0.056379449
2.6372092 -2.7995172 -0.60915589 11 3 -0.056377143
3.3097298 -3.5146568 0.59277254 84 11 -0.05637484
2.9213834 -3.1044357 0.6751712 39 12 -0.056370232
2.9056072 -3.0887516 0.82429492 54 13 -0.056365624
2.6352191 -2.8023 -0.20159812 10 6 -0.056363318
2.8937342 -3.0782824 0.97538781 42 14 -0.056361016
2.5662453 -2.7308626 -0.06541162 40 7 -0.05635871
2.8980126 -3.0849905 1.1341451 31 15 -0.056356408
2.3407552 -2.4978881 -0.91725475 5 0 -0.056335673
3.065047 -3.2719448 0.078256592 1 8 -0.056333367
2.6480553 -2.8277938 -0.89440536 4 1 -0.056331065
3.1680009 -3.3842151 0.24294353 1 9 -0.056328759
3.3067133 -3.5336306 0.42340261 100 10 -0.05632415
2.6989429 -2.8851624 -0.62573791 1 3 -0.056321848
3.2865939 -3.5145891 0.59082258 87 11 -0.056319542
2.9010878 -3.1045113 0.67298114 41 12 -0.056314934
2.8881071 -3.091702 0.82238686 49 13 -0.056310326
2.8696733 -3.0741191 0.97088867 47 14 -0.056305721
2.5430543 -2.725184 -0.065062575 40 7 -0.056303415
2.8793194 -3.0866115 1.1310393 31 15 -0.056301113
2.3241255 -2.4975579 -0.91414887 3 0 -0.056280375
2.917407 -3.136209 0.074766114 1 8 -0.056278072
2.6368413 -2.8355935 -0.89395547 1 1 -0.056275766
3.2778089 -3.524874 0.25225934 40 9 -0.056273464
3.2794399 -3.5290973 0.42148519 100 10 -0.056268856
3.2634993 -3.5144029 0.58887273 84 11 -0.056264248
2.8692741 -3.0909505 0.66797519 35 12 -0.05625964
1.6195141 -1.7452463 -0.20830221 1 5 -0.056257337
2.8666158 -3.0902493 0.81933385 43 13 -0.056255031
2.8562758 -3.0812593 0.96998894 50 14 -0.056250423
2.5149713 -2.7130709 -0.064573906 38 7 -0.056248121
2.846746 -3.0720541 1.1222395 33 15 -0.056245815
2.3114603 -2.501399 -0.91259599 5 0 -0.05622508
2.8730624 -3.1091495 0.073893487 10 8 -0.056222774
3.2627747 -3.5333598 0.25205001 45 9 -0.056218166
3.2373753 -3.5083101 0.41765031 100 10 -0.056213561
2.5452797 -2.7582932 -0.59445107 1 3 -0.056211255
3.195297 -3.463923 0.57863569 52 11 -0.056208953
2.9481709 -3.1982605 0.68893749 38 12 -0.056204345
1.6134121 -1.7508889 -0.20830221 1 5 -0.056202039
2.8457096 -3.0881889 0.81628096 40 13 -0.056199737
2.8328414 -3.0763788 0.96548992 50 14 -0.056195129
2.5068395 -2.7233043 -0.064608812 13 7 -0.056192823
2.8242319 -3.0691781 1.1175808 33 15 -0.056190521
2.2927015 -2.4976652 -0.9084549 3 0 -0.056169782
2.8838241 -3.1427341 0.074451968 19 8 -0.05616748
3.1559322 -3.4416828 0.24472295 21 9 -0.056162871
3.0614755 -3.3398435 0.39638433 26 10 -0.056158263
2.5356359 -2.7671611 -0.59445107 1 3 -0.056155961
3.0504417 -3.3301396 0.55450553 33 11 -0.056153655
3.0250187 -3.3047006 0.7095868 37 12 -0.056149047
2.8031037 -3.0633416 0.80712205 39 13 -0.056144439
2.8168259 -3.0804958 0.96369034 45 14 -0.05613983
2.8030758 -3.0676084 1.1134396 31 15 -0.056135222
2.2878733 -2.5099361 -0.91000783 3 0 -0.056114487
2.8889983 -3.1705184 0.074870825 50 8 -0.056112185
3.0484259 -3.3478281 0.23729126 30 9 -0.056107577
3.0323634 -3.3313556 0.39411828 33 10 -0.056102969
3.0214343 -3.3216772 0.55133694 52 11 -0.056098361
3.025423 -3.3283958 0.71240264 48 12 -0.056093752
2.7884331 -3.0687487 0.80597723 43 13 -0.056089144
2.7929554 -3.0758824 0.95919132 50 14 -0.056084536
2.7806678 -3.0644987 1.1087809 29 15 -0.056079928
2.276505 -2.5150425 -0.9089725 3 0 -0.056059193
2.8859634 -3.1894798 0.075080253 55 8 -0.056056887
3.0319481 -3.3519933 0.23687255 43 9 -0.056052279
3.0273964 -3.3493104 0.39498982 54 10 -0.056047671
3.016474 -3.3395696 0.55255568 48 11 -0.056043062
3.0090733 -3.332545 0.71115112 57 12 -0.056038454
2.7684975 -3.0682602 0.80330586 39 13 -0.056033846
2.7696879 -3.070657 0.9546923 47 14 -0.056029238
1.5895053 -1.762848 -0.041432012 1 7 -0.056026936
2.7679033 -3.0708327 1.1077455 31 15 -0.056024633
2.2681527 -2.5225778 -0.9089725 3 0 -0.056003895
2.8847287 -3.2094433 0.07532458 47 8 -0.056001592
3.0181463 -3.3590579 0.23666322 43 9 -0.055996984
3.0109487 -3.3534009 0.39429256 60 10 -0.055992376
3.0106859 -3.3554642 0.55353063 63 11 -0.055987768
2.9940491 -3.3380942 0.71021259 59 12 -0.05598316
1.5894275 -1.7726902 -0.20830221 1 5 -0.055980854
2.7504456 -3.0686524 0.80101627 40 13 -0.055978552
2.7529874 -3.0725675 0.95244277 40 14 -0.055973943
1.535621 -1.714485 -0.040175438 1 7 -0.055971641
2.7422409 -3.0627236 1.1015339 31 15 -0.055969335
2.2520535 -2.5214407 -0.90586674 6 0 -0.0559486
2.84477 -3.1861753 0.074556686 19 8 -0.055946294
3.0077319 -3.3710628 0.23676789 39 9 -0.055941686
2.5095158 -2.8126628 -0.73270655 1 2 -0.055939384
2.9892023 -3.3514726 0.39289808 76 10 -0.055937078
2.992938 -3.3580196 0.5523119 69 11 -0.055932473
1.5595621 -1.7504143 -0.28785542 1 4 -0.055930167
2.9863203 -3.3529499 0.71115112 60 12 -0.055927865
1.5835404 -1.7779511 -0.20830221 1 5 -0.055925559
2.733727 -3.070425 0.79910809 33 13 -0.055923257
2.7344732 -3.0734229 0.94974333 29 14 -0.055918649
1.5429164 -1.7347769 -0.040524486 1 7 -0.055916343
2.7174134 -3.0563962 1.0958399 31 15 -0.055914041
2.2483656 -2.5350673 -0.90793723 3 0 -0.055893302
2.7845461 -3.1407232 0.07326521 10 8 -0.055891
2.9787285 -3.362107 0.23540714 1 9 -0.055886392
2.4996827 -2.8214054 -0.73270655 1 2 -0.055884089
2.9840903 -3.3693435 0.39376962 76 10 -0.055881783
2.979883 -3.3669603 0.55206817 70 11 -0.055877175
2.978524 -3.3677928 0.71208972 63 12 -0.055872567
1.5773245 -1.783468 -0.20830221 1 5 -0.055870265
2.700886 -3.0549445 0.7926206 16 13 -0.055867959
1.604363 -1.8153169 -0.12696704 1 6 -0.055865657
2.708246 -3.0654242 0.94434458 34 14 -0.055863351
1.5183194 -1.7191685 -0.040035821 1 7 -0.055861048
2.7016139 -3.0600698 1.0937693 31 15 -0.055858742
2.2573783 -2.5631971 -0.9151842 4 0 -0.055838007
2.7748873 -3.1519251 0.073300108 16 8 -0.055835705
2.9643359 -3.3694856 0.23519783 6 9 -0.055831097
2.4898186 -2.8301139 -0.73270655 1 2 -0.055828791
2.9723108 -3.3797395 0.39376962 76 10 -0.055826489
2.9668014 -3.3758504 0.55182445 69 11 -0.055821881
2.9628394 -3.3737166 0.71115112 64 12 -0.055817273
2.685025 -3.0584521 0.79109418 27 13 -0.055812664
2.6769664 -3.0514205 0.93714613 35 14 -0.055808056
1.4859391 -1.694389 -0.039337724 1 7 -0.05580575
2.6781805 -3.054955 1.088593 33 15 -0.055803448
2.2331562 -2.5536106 -0.9089725 4 0 -0.055782713
2.7862422 -3.1871858 0.073893487 18 8 -0.055780407
2.9670098 -3.3963578 0.23634921 42 9 -0.055775799
2.9618056 -3.3915949 0.39394394 75 10 -0.055771191
2.9549994 -3.3861859 0.55182445 72 11 -0.055766582
2.9471502 -3.3795724 0.71021259 68 12 -0.055761974
1.5648352 -1.7944363 -0.20830221 1 5 -0.055759672
2.6769125 -3.0707655 0.79185736 34 13 -0.055757366
2.6560583 -3.048991 0.93354684 34 14 -0.055752758
1.4800156 -1.6995655 -0.039337724 1 7 -0.055750456
2.6649635 -3.0613706 1.0875577 33 15 -0.05574815
2.2242291 -2.5613902 -0.9089725 4 0 -0.05573988
2.765924 -3.186321 0.073649161 19 8 -0.055737577
2.9538279 -3.4051855 0.23624454 63 9 -0.055732969
2.9460332 -3.3973973 0.39342102 82 10 -0.055728361
2.9418609 -3.39498 0.55158067 70 11 -0.055723753
2.9314561 -3.3853593 0.70927399 70 12 -0.055719145
1.5037839 -1.7366279 -0.20098113 1 5 -0.055716839
2.6571829 -3.0697002 0.78918606 34 13 -0.055714536
2.6326501 -3.0435054 0.92904782 34 14 -0.055709928
1.4871536 -1.7198473 -0.039686773 1 7 -0.055707622
2.6378376 -3.0516548 1.0808283 33 15 -0.05570532
2.2064438 -2.5588973 -0.90534908 6 0 -0.055684585
2.7430344 -3.1823244 0.073335014 18 8 -0.055682279
2.4156404 -2.8034887 -0.8543641 1 1 -0.055679977
2.9301925 -3.4018557 0.23530249 68 9 -0.055677671
2.3959825 -2.7816558 -0.71362567 1 2 -0.055675369
2.9302559 -3.4031308 0.39289808 84 10 -0.055673063
2.9351718 -3.4112475 0.55255568 70 11 -0.055668455
1.5287758 -1.7773657 -0.28785542 1 4 -0.055666152
2.9273481 -3.4045577 0.71115112 89 12 -0.055663846
1.4977129 -1.7418665 -0.20098113 1 5 -0.055661544
2.6259758 -3.0551353 0.78308016 33 13 -0.055659238
1.577559 -1.8360252 -0.12686236 1 6 -0.055656936
2.6245501 -3.0556331 0.92994767 35 14 -0.05565463
1.4472717 -1.6855817 -0.038779248 1 7 -0.055652328
2.612071 -3.0432534 1.0746168 35 15 -0.055650022
2.2050366 -2.5753884 -0.9084549 4 0 -0.055629287
2.7163057 -3.1736495 0.07291615 18 8 -0.055626985
2.9286849 -3.4242058 0.23613985 81 9 -0.055622377
2.9209483 -3.4163671 0.39324668 84 10 -0.055617768
2.9167988 -3.4139256 0.55133694 69 11 -0.05561316
1.5225623 -1.7826914 -0.28785542 1 4 -0.055610854
2.9154463 -3.4147553 0.71115112 78 12 -0.055608552
1.5071479 -1.765267 -0.20307288 1 5 -0.055606246
2.6012759 -3.0478568 0.77888238 33 13 -0.055603944
1.4881761 -1.7442788 -0.12016336 1 6 -0.055601638
2.6037512 -3.0529137 0.92634839 34 14 -0.055599336
1.462137 -1.7149707 -0.039337724 1 7 -0.055597033
2.5939138 -3.0435307 1.0715109 33 15 -0.055594727
2.1910284 -2.5771821 -0.90638429 4 0 -0.055573992
2.7013266 -3.1785409 0.072811447 15 8 -0.055571686
2.920593 -3.4389753 0.23645388 87 9 -0.055567078
2.9141626 -3.4326177 0.39394394 78 10 -0.05556247
1.5363715 -1.8103456 -0.3760685 1 3 -0.055560168
2.9010115 -3.4195452 0.55060571 70 11 -0.055557862
2.9047859 -3.4264183 0.71146405 59 12 -0.055553257
1.4752088 -1.7401221 -0.19958666 1 5 -0.055550952
2.5855441 -3.0509272 0.77735591 31 13 -0.055548649
1.5001526 -1.7707978 -0.12162878 1 6 -0.055546343
2.5804849 -3.0471129 0.92184937 34 14 -0.055544041
1.4690621 -1.7353264 -0.039686773 1 7 -0.055541735
2.5745382 -3.0422437 1.0678874 33 15 -0.055539433
2.1845114 -2.5877669 -0.90741962 3 0 -0.055518694
2.6837664 -3.1803095 0.072636917 18 8 -0.055516392
2.9008455 -3.4399877 0.23582584 87 9 -0.055511784
1.5060958 -1.786014 -0.45412543 1 2 -0.055509478
2.9060156 -3.4473388 0.39446688 61 10 -0.055507176
2.892894 -3.4342053 0.55133694 69 11 -0.055502567
2.8991687 -3.444093 0.71302837 89 12 -0.055497959
1.5332797 -1.821473 -0.20830221 1 5 -0.055495657
2.5698223 -3.053925 0.77582937 31 13 -0.055493351
2.5535281 -3.0367122 0.91600066 32 14 -0.055488743
1.4321146 -1.7037061 -0.038849056 1 7 -0.055486441
2.5601749 -3.0467751 1.0663346 33 15 -0.055484135
2.1729827 -2.5924156 -0.90638429 4 0 -0.0554634
2.6726487 -3.1896582 0.072636917 25 8 -0.055461094
2.3787649 -2.8399308 -0.85526395 1 1 -0.055458792
2.8939495 -3.4562182 0.23624454 94 9 -0.055456489
1.49229 -1.7822287 -0.45183572 1 2 -0.055454183
2.8914068 -3.4544065 0.39411828 91 10 -0.055451881
2.893625 -3.4595096 0.55377436 99 11 -0.055447273
2.8807945 -3.446614 0.71146405 86 12 -0.055442665
1.4630245 -1.7503786 -0.19958666 1 5 -0.055440359
2.551594 -3.0538375 0.77353972 31 13 -0.055438057
1.4237368 -1.7045828 -0.11639518 1 6 -0.055435751
2.5366676 -3.0381279 0.91375118 34 14 -0.055433448
1.4184707 -1.6994835 -0.038639627 1 7 -0.055431142
2.5272465 -3.0289929 1.057017 31 15 -0.05542884
2.158977 -2.5940454 -0.9043138 5 0 -0.055408105
2.6551039 -3.1912823 0.072462395 19 8 -0.055405799
2.353884 -2.8302376 -0.84986508 1 1 -0.055403497
2.8339415 -3.407444 0.23226699 45 9 -0.055401191
1.4986109 -1.8025234 -0.45565188 1 2 -0.055398889
2.8793309 -3.4644785 0.39411828 86 10 -0.055396583
2.8789952 -3.4665346 0.55328691 85 11 -0.055391975
1.4975237 -1.8037758 -0.28785542 1 4 -0.055389673
2.8643024 -3.4500687 0.71021259 86 12 -0.055387367
1.413644 -1.7033471 -0.19366007 1 5 -0.055385064
2.5233688 -3.0415716 0.768197 33 13 -0.055382758
1.417778 -1.7095423 -0.11639518 1 6 -0.055380456
2.5223157 -3.0424635 0.9124015 30 14 -0.05537815
1.4255899 -1.7195727 -0.03898868 1 7 -0.055375848
2.5073266 -3.0254576 1.052876 35 15 -0.055373542
2.1548314 -2.6075225 -0.90638429 4 0 -0.055352807
2.6317675 -3.1846542 0.072113343 18 8 -0.055350505
2.3345566 -2.8260086 -0.84626585 21 1 -0.055348199
2.7902355 -3.3788147 0.22965018 45 9 -0.055345897
1.5248057 -1.8471084 -0.46557397 1 2 -0.055343591
2.8621483 -3.4683611 0.39342102 86 10 -0.055341288
2.852325 -3.4576869 0.55036199 85 11 -0.05533668
1.4915338 -1.8087318 -0.28785542 1 4 -0.055334374
2.8484726 -3.4554732 0.70927399 82 12 -0.055332072
1.4203602 -1.7236472 -0.19540317 1 5 -0.055329766
2.5095232 -3.0453775 0.76705217 33 13 -0.055327464
1.4273396 -1.7327334 -0.11765125 1 6 -0.055325158
2.5035415 -3.0402806 0.90925217 35 14 -0.055322856
1.40687 -1.7090993 -0.038639627 1 7 -0.055320553
2.4906127 -3.0267324 1.0502877 33 15 -0.055318248
2.1547527 -2.6251066 -0.91000783 5 0 -0.055297513
2.6066823 -3.1768162 0.071729392 13 8 -0.055295207
2.3110833 -2.8175666 -0.84131694 30 1 -0.055292904
2.8265469 -3.4472232 0.23362774 68 9 -0.055290598
2.3041492 -2.8101132 -0.70637494 3 2 -0.055288296
2.8405263 -3.4655061 0.39202651 80 10 -0.05528599
1.4522809 -1.7724459 -0.362928 1 3 -0.055283688
2.8150811 -3.4369087 0.54548723 58 11 -0.055281382
1.4852111 -1.8139273 -0.28785542 1 4 -0.05527908
2.8238811 -3.450109 0.70614529 82 12 -0.055276774
1.4297795 -1.7468495 -0.19749491 1 5 -0.055274472
2.490175 -3.0434828 0.76438087 31 13 -0.055272169
1.4136956 -1.7284288 -0.11702321 1 6 -0.055269863
2.4756446 -3.0278802 0.90295357 37 14 -0.055267561
1.4034265 -1.7170963 -0.038709439 2 7 -0.055265255
2.4739208 -3.0279281 1.0476996 33 15 -0.055262953
2.1504581 -2.6386018 -0.91207838 5 0 -0.055242214
2.5842097 -3.1719434 0.071415246 12 8 -0.055239912
2.2975421 -2.8210838 -0.83996725 27 1 -0.055237606
2.8346725 -3.4818506 0.23530249 81 9 -0.055235304
2.2856495 -2.8074815 -0.70370364 1 2 -0.055232998
2.825897 -3.4723098 0.39167792 80 10 -0.055230696
1.4361118 -1.7652459 -0.36042506 1 3 -0.05522839
2.8055718 -3.4497941 0.54597467 49 11 -0.055226088
1.426277 -1.7544076 -0.27761838 1 4 -0.055223785
2.7956259 -3.4400165 0.70207798 79 12 -0.055221479
1.4111079 -1.7363677 -0.19575179 1 5 -0.055219177
2.4795361 -3.0521567 0.76438087 31 13 -0.055216871
1.4076536 -1.7333531 -0.11702321 1 6 -0.055214569
2.4540062 -3.0228863 0.89890444 36 14 -0.055212263
1.3848234 -1.7064576 -0.038360391 4 7 -0.055209961
2.4621191 -3.0350447 1.0471818 33 15 -0.055207655
2.1412344 -2.6460924 -0.91207838 5 0 -0.05518692
2.3392017 -2.8917682 0.064922951 1 8 -0.055184614
2.2791035 -2.8184791 -0.83681792 29 1 -0.055182312
2.8086896 -3.474638 0.23415108 79 9 -0.055180006
2.7974801 -3.4620068 0.38941187 84 10 -0.055175401
1.4299412 -1.7702481 -0.36042506 1 3 -0.055173095
2.7885244 -3.4533882 0.54499972 57 11 -0.055170793
1.4351063 -1.7779115 -0.28054324 1 4 -0.055168487
2.7687149 -3.4313059 0.69832355 83 12 -0.055166185
1.4075403 -1.7443838 -0.19610041 1 5 -0.055163879
2.4614711 -3.0516245 0.76209116 27 13 -0.055161577
1.3990872 -1.7351466 -0.11681387 1 6 -0.055159271
2.4348791 -3.0208132 0.89575505 33 14 -0.055156969
1.3788583 -1.7112811 -0.038360391 3 7 -0.055154663
2.4333327 -3.0210528 1.0394174 35 15 -0.05515236
2.1210952 -2.6399968 -0.90741962 5 0 -0.055131625
2.5494807 -3.1743164 0.071066193 15 8 -0.055129319
2.2680311 -2.824898 -0.83636802 27 1 -0.055127017
2.7877927 -3.4735177 0.23341838 78 9 -0.055124711
2.7741573 -3.4577644 0.38784304 89 10 -0.055120103
1.4163378 -1.7659827 -0.35854784 1 3 -0.055117801
2.7727275 -3.4584548 0.54426849 52 11 -0.055115495
1.4040627 -1.7519299 -0.27566847 1 4 -0.055113193
2.7456045 -3.4270749 0.69550771 77 12 -0.055110887
1.3840027 -1.7275177 -0.19366007 1 5 -0.055108584
2.4336231 -3.0387442 0.7567485 27 13 -0.055106279
1.383036 -1.7275466 -0.11597649 2 6 -0.055103976
2.4231017 -3.0277729 0.89530522 36 14 -0.05510167
1.3791225 -1.7238914 -0.038534917 6 7 -0.055099368
2.4155333 -3.0204759 1.0363115 35 15 -0.055097062
2.1106622 -2.6458743 -0.90690196 5 0 -0.055076327
2.2578657 -2.8314188 0.063212618 8 8 -0.055074025
2.7706723 -3.47698 0.2329997 78 9 -0.055069417
2.7546222 -3.4580762 0.38679719 89 10 -0.055064809
1.4101648 -1.7709159 -0.35854784 1 3 -0.055062503
2.7371488 -3.4386032 0.53963745 37 11 -0.0550602
1.4177152 -1.7816739 -0.27956831 1 4 -0.055057894
2.7287066 -3.4304543 0.69425625 77 12 -0.055055592
1.3826216 -1.7388164 -0.19435729 1 5 -0.055053286
2.4193351 -3.0426109 0.75560367 27 13 -0.055050984
1.3732687 -1.7276731 -0.11566247 3 6 -0.055048678
2.4052441 -3.0270581 0.89260578 37 14 -0.055046376
1.3730967 -1.7286949 -0.038534917 10 7 -0.05504407
2.4013712 -3.0243506 1.0347586 34 15 -0.055041768
2.1033485 -2.6566217 -0.90793723 5 0 -0.055021033
2.2430034 -2.8330119 0.063072994 9 8 -0.055018727
2.7362127 -3.4584367 0.23111561 74 9 -0.055014119
2.7382221 -3.4634604 0.38627425 84 10 -0.05500951
1.4110136 -1.7853714 -0.36042506 1 3 -0.055007208
2.6943579 -3.4092014 0.53354406 19 11 -0.055004902
1.379492 -1.7461131 -0.27323109 1 4 -0.0550026
2.7081454 -3.4291065 0.69206619 79 12 -0.055000294
1.3777783 -1.745196 -0.19453162 2 5 -0.054997992
2.3972208 -3.0375874 0.75216907 28 13 -0.054995686
1.375587 -1.7436713 -0.11639518 2 6 -0.054993384
2.3796527 -3.0174913 0.88720697 36 14 -0.054991081
1.3695306 -1.7366174 -0.038604725 6 7 -0.054988775
2.3788395 -3.0175436 1.0295821 34 15 -0.054986473
2.0880933 -2.6563537 -0.90534908 5 0 -0.054965734
2.2363114 -2.8459308 0.063177712 11 8 -0.054963432
2.7142537 -3.4554014 0.23027822 69 9 -0.054958824
2.7175043 -3.4620268 0.38505405 89 10 -0.054954216
1.404773 -1.7902858 -0.36042506 1 3 -0.05495191
2.6879699 -3.426863 0.53476268 51 11 -0.054949608
1.3779825 -1.7574061 -0.27420604 1 4 -0.054947302
2.676657 -3.413667 0.68706024 74 12 -0.054945
1.3827398 -1.7641076 -0.19610041 1 5 -0.054942697
2.389025 -3.0490274 0.75293231 28 13 -0.054940391
1.3768812 -1.7578964 -0.11702321 1 6 -0.054938089
2.35589 -3.0089016 0.88225806 34 14 -0.054935783
1.3511324 -1.7256427 -0.038255677 6 7 -0.054933481
2.3659108 -3.0227861 1.0285469 34 15 -0.054931175
2.0681109 -2.64992 -0.90069032 6 0 -0.05491044
2.2133284 -2.8359904 0.062793761 15 8 -0.054908134
2.6923497 -3.4522557 0.22944085 66 9 -0.054903526
2.6907065 -3.4526334 0.38296232 89 10 -0.054898921
1.4061141 -1.8042833 -0.36230227 1 3 -0.054896615
2.688791 -3.4514174 0.53720009 90 11 -0.054894313
1.3721471 -1.7619659 -0.27420604 1 4 -0.054892007
2.6671515 -3.4261072 0.68768603 82 12 -0.054889705
1.3692319 -1.7594893 -0.19505455 1 5 -0.054887399
2.3728721 -3.0491862 0.75102425 26 13 -0.054885097
1.3685915 -1.7592999 -0.11681387 2 6 -0.054882791
2.344703 -3.0151589 0.8818081 36 14 -0.054880489
1.3475549 -1.733506 -0.038325485 6 7 -0.054878183
2.3387492 -3.0096703 1.0213 35 15 -0.05487588
2.0581286 -2.6552365 -0.90017265 4 0 -0.054855142
2.1899426 -2.8263111 0.062409807 12 8 -0.05485284
2.6778364 -3.4584742 0.22923151 49 9 -0.054848231
2.6585109 -3.4347522 0.37999901 84 10 -0.054843623
2.6597238 -3.4387991 0.53378779 82 11 -0.054839015
1.3659883 -1.7667449 -0.27420604 1 4 -0.054836713
2.6394722 -3.4150777 0.68361872 77 12 -0.054834407
1.3585161 -1.7577143 -0.19435729 2 5 -0.054832105
2.3502111 -3.0419145 0.74720806 22 13 -0.054829799
1.3709878 -1.7751312 -0.11754657 3 6 -0.054827496
2.3294003 -3.0171552 0.88000852 36 14 -0.05482519
1.3402741 -1.7366161 -0.038290579 6 7 -0.054822888
2.3164287 -3.0025201 1.0161237 34 15 -0.054820582
2.1739671 -2.8260136 0.062235285 9 8 -0.054797545
2.6440773 -3.4408519 0.37965041 84 10 -0.054788329
1.4464309 -1.8829833 -0.3760685 1 3 -0.054786023
2.6295691 -3.4244459 0.5301317 76 11 -0.054783721
1.3767351 -1.7935476 -0.27761838 1 4 -0.054781415
2.6227248 -3.4180014 0.68236721 77 12 -0.054779112
1.3487337 -1.7577039 -0.19383438 2 5 -0.054776806
2.3240449 -3.0298491 0.74224705 26 13 -0.054774504
1.3501995 -1.7608867 -0.11629051 4 6 -0.054772198
2.3117411 -3.0159879 0.87730908 37 14 -0.054769896
1.3329878 -1.7396969 -0.038255677 6 7 -0.05476759
2.305934 -3.0105877 1.0161237 35 15 -0.054765288
1.5281901 -2.0002363 -0.67448246 1 0 -0.054744553
2.1713717 -2.8431201 0.062444709 9 8 -0.054742247
1.5786866 -2.0678265 -0.60061932 1 1 -0.054739945
2.483345 -3.252784 0.21447276 4 9 -0.054737639
1.4138023 -1.8525249 -0.45298058 3 2 -0.054735336
2.6235907 -3.4389718 0.37843022 89 10 -0.05473303
1.4398494 -1.8880208 -0.3760685 1 3 -0.054730728
2.6127853 -3.4272888 0.52915668 64 11 -0.054728422
1.3488081 -1.7699227 -0.27323109 1 4 -0.05472612
2.6077843 -3.421967 0.68142867 79 12 -0.054723814
1.3534563 -1.7766651 -0.19540317 3 5 -0.054721512
2.3122652 -3.0363812 0.7418654 33 13 -0.054719206
1.3367862 -1.7560537 -0.11566247 4 6 -0.054716904
2.2870378 -3.0054297 0.87191027 36 14 -0.054714598
1.336899 -1.7568384 -0.038534917 6 7 -0.054712296
2.286581 -3.0059175 1.0119824 34 15 -0.054709993
1.5305382 -2.0178721 -0.67862362 1 0 -0.054689255
2.1752243 -2.8678305 0.06282866 5 8 -0.054686952
1.5718207 -2.07305 -0.60061932 1 1 -0.054684646
2.4369888 -3.2152729 0.21143727 7 9 -0.054682344
1.4464525 -1.9090879 -0.46557397 1 2 -0.054680038
2.605556 -3.4401681 0.37755868 84 10 -0.054677736
1.4335805 -1.8927852 -0.3760685 1 3 -0.05467543
2.5822344 -3.4106123 0.52525693 33 11 -0.054673128
1.3549111 -1.7902142 -0.27566847 1 4 -0.054670822
2.5850968 -3.4168711 0.67861283 77 12 -0.05466852
1.3484483 -1.7829678 -0.19557749 3 5 -0.054666214
2.2998154 -3.0409002 0.74110222 31 13 -0.054663911
1.3261375 -1.7541044 -0.11524379 4 6 -0.054661609
2.2688346 -3.0021143 0.868761 33 14 -0.054659303
1.3199097 -1.7471342 -0.038220771 6 7 -0.054657001
2.273746 -3.0107973 1.0109472 34 15 -0.054654695
1.5052408 -1.9982475 -0.67034137 1 0 -0.05463396
2.1964757 -2.9169397 0.063736185 1 8 -0.054631654
1.4919128 -1.9819934 -0.57272536 1 1 -0.054629352
2.3837204 -3.1679027 0.20777377 1 9 -0.054627046
1.4826089 -1.970349 -0.47931221 2 2 -0.054624744
2.5773664 -3.4264982 0.37511832 78 10 -0.054622438
1.4269649 -1.8977777 -0.3760685 1 3 -0.054620136
2.5357239 -3.3735871 0.51818854 18 11 -0.054617833
1.3558085 -1.8044552 -0.27713093 1 4 -0.054615527
2.5589178 -3.40692 0.67485833 82 12 -0.054613225
1.3389384 -1.7826504 -0.19505455 4 5 -0.054610919
2.2821136 -3.03949 0.73881245 33 13 -0.054608617
1.3343934 -1.7778913 -0.11649985 3 6 -0.054606311
2.2513239 -3.000663 0.86606157 33 14 -0.054604009
1.3066044 -1.7421324 -0.038011342 6 7 -0.054601703
2.2469988 -2.9970765 1.0037004 34 15 -0.054599401
1.4924718 -1.9957542 -0.66775316 5 0 -0.054578662
2.1838861 -2.9213858 0.063666381 1 8 -0.05457636
1.4884849 -1.9918722 -0.5740751 2 1 -0.054574057
2.3559136 -3.1538026 0.20630836 30 9 -0.054571752
1.4827716 -1.9849494 -0.48160195 1 2 -0.054569449
2.5582373 -3.4258952 0.37407246 84 10 -0.054567143
1.4203316 -1.9027472 -0.3760685 1 3 -0.054564841
2.4978147 -3.3474164 0.51282626 13 11 -0.054562535
1.3495016 -1.8091767 -0.27713093 1 4 -0.054560233
2.5411062 -3.4079132 0.67329407 83 12 -0.054557927
1.3386627 -1.7952994 -0.19592611 2 5 -0.054555625
2.2574103 -3.0285482 0.73423308 33 13 -0.054553319
1.316246 -1.7665229 -0.11545313 3 6 -0.054551017
2.2361801 -3.0022519 0.86426198 34 14 -0.054548711
1.3160399 -1.7675337 -0.038465101 7 7 -0.054546408
2.2238352 -2.987855 0.99800628 32 15 -0.054544102
1.491254 -2.0087075 -0.67034137 2 0 -0.054523367
2.1724834 -2.9273853 0.063631475 9 8 -0.054521065
1.4919724 -2.0111418 -0.57812423 1 1 -0.054518759
2.3448906 -3.1620071 0.20630836 33 9 -0.054516457
1.5436614 -2.0815761 -0.50373578 1 2 -0.054514151
2.5462632 -3.4348044 0.37407246 84 10 -0.054511849
1.3948635 -1.8823001 -0.37106261 1 3 -0.054509543
2.4825702 -3.3513293 0.51209503 39 11 -0.054507241
1.3290021 -1.7947326 -0.27420604 1 4 -0.054504935
2.520968 -3.4056492 0.67110395 82 12 -0.054502632
1.3205338 -1.7839475 -0.19418299 2 5 -0.054500327
2.235147 -3.020628 0.73041683 31 13 -0.054498024
1.3171982 -1.7807409 -0.11608116 4 6 -0.054495718
2.2233691 -3.0069056 0.86336219 33 14 -0.054493416
1.307485 -1.7689006 -0.038395293 7 7 -0.05449111
2.2133923 -2.9955993 0.99800628 30 15 -0.054488808
1.49111 -2.0232315 -0.67344719 1 0 -0.054468073
2.1871593 -2.96876 0.064364478 1 8 -0.054465767
1.5126777 -2.0539966 -0.58892184 1 1 -0.054463465
2.3231821 -3.1556976 0.20536631 34 9 -0.054461159
1.5363859 -2.086952 -0.50373578 1 2 -0.054458857
2.5259914 -3.4324386 0.37285227 85 10 -0.054456551
1.3836021 -1.8807929 -0.36981112 1 3 -0.054454248
2.4579206 -3.3423836 0.5094139 33 11 -0.054451942
1.3250808 -1.8025597 -0.27469352 1 4 -0.05444964
2.5032158 -3.4064689 0.66953957 79 12 -0.054447334
1.3201975 -1.7965736 -0.19505455 2 5 -0.054445032
2.2222652 -3.0252471 0.7296536 33 13 -0.054442726
1.3157026 -1.7917674 -0.11649985 4 6 -0.054440424
2.2001753 -2.9973679 0.85841322 36 14 -0.054438118
1.3060344 -1.7799031 -0.038534917 7 7 -0.054435816
2.1937816 -2.9908452 0.99386519 32 15 -0.05443351
1.4886012 -2.0346603 -0.67551774 1 0 -0.054391861
2.1815052 -2.9828327 0.064504094 1 8 -0.054389559
2.3027248 -3.1508875 0.20452894 31 9 -0.054384951
2.5069427 -3.4315822 0.37180638 89 10 -0.054380342
1.3840185 -1.8951825 -0.37168834 1 3 -0.054378036
2.4415565 -3.3445299 0.50843894 10 11 -0.054375734
1.3164401 -1.8039669 -0.27420604 1 4 -0.054373428
2.4738474 -3.3912477 0.66484654 82 12 -0.054371126
1.3209634 -1.8108288 -0.19610041 2 5 -0.05436882
2.2105348 -3.0313995 0.72927201 34 13 -0.054366518
1.3000281 -1.7834374 -0.11566247 5 6 -0.054364212
2.1805177 -2.9924297 0.85481399 33 14 -0.05436191
1.2880398 -1.7682874 -0.038185868 6 7 -0.054359604
2.1810539 -2.9953613 0.99282992 32 15 -0.054357301
1.9787256 -2.7244813 -0.9022432 8 0 -0.054336566
2.1875274 -3.0130844 0.064992763 1 8 -0.054334261
1.9870518 -2.7379558 -0.78103006 29 1 -0.054331958
2.2928851 -3.1605225 0.20463361 1 9 -0.054329652
2.484422 -3.425796 0.37023759 86 10 -0.054325044
1.3797138 -1.9032009 -0.37231407 1 3 -0.054322742
2.4217129 -3.3417799 0.50673276 10 11 -0.054320436
1.32411 -1.8278424 -0.27713093 1 4 -0.054318134
2.4504087 -3.383863 0.66171783 78 12 -0.054315828
1.3017802 -1.797678 -0.19418299 2 5 -0.054313526
2.1907301 -3.0263748 0.72621906 34 13 -0.05431122
1.2961365 -1.7912005 -0.11587181 4 6 -0.054308917
2.1677749 -2.996865 0.8539142 33 14 -0.054306611
1.2900614 -1.7841157 -0.038430199 1 7 -0.054304309
2.1558728 -2.9826028 0.98610061 34 15 -0.054302003
1.9748518 -2.739207 -0.90483141 11 0 -0.054281268
2.1267221 -2.9509435 0.063491859 8 8 -0.054278966
1.9740653 -2.7401316 -0.77968031 38 1 -0.05427666
2.2561607 -3.1328514 0.20233083 1 9 -0.054274358
1.3997169 -1.9436138 -0.46557397 1 2 -0.054272052
2.4538236 -3.4085758 0.3674486 86 10 -0.05426975
1.3869076 -1.9272455 -0.3760685 1 3 -0.054267444
2.3683009 -3.2922006 0.49795815 40 11 -0.054265141
1.3154037 -1.82923 -0.27664346 1 4 -0.054262836
2.4351227 -3.3875837 0.66077924 79 12 -0.054260533
1.2966599 -1.8038287 -0.19435729 2 5 -0.054258227
2.1686964 -3.0180602 0.72240293 34 13 -0.054255925
1.2922069 -1.7989583 -0.11608116 4 6 -0.054253619
2.150481 -2.9949162 0.85121477 34 14 -0.054251317
2.1409435 -2.9838319 0.98403007 34 15 -0.054246709
1.9630297 -2.7429423 -0.90379614 13 0 -0.054225974
2.1175721 -2.9599755 0.063526757 4 8 -0.054223668
1.9508854 -2.7279844 -0.7742815 36 1 -0.054221366
2.2800567 -3.1894512 0.20547098 1 9 -0.05421906
1.3632385 -1.9069626 -0.45565188 1 2 -0.054216757
2.4361186 -3.4090154 0.36657706 91 10 -0.054214451
1.380172 -1.932075 -0.3760685 1 3 -0.054212149
2.3544879 -3.2972164 0.49747071 69 11 -0.054209843
1.2974771 -1.8176535 -0.27420604 1 4 -0.054207541
2.4209883 -3.3928475 0.66015351 83 12 -0.054205239
1.3007711 -1.8229406 -0.19592611 2 5 -0.054202933
2.1547279 -3.020817 0.72125804 31 13 -0.054200631
1.2859193 -1.803458 -0.11608116 5 6 -0.054198325
2.1298337 -2.9881227 0.8471657 37 14 -0.054196022
2.1260321 -2.9849925 0.98195946 34 15 -0.054191414
1.9567995 -2.7545028 -0.90534908 15 0 -0.054170676
2.1025956 -2.9608274 0.063387141 2 8 -0.054168373
1.9323269 -2.7220652 -0.77068228 36 1 -0.054166067
2.222676 -3.1322377 0.20128411 1 9 -0.054163765
1.3633907 -1.9213163 -0.45794162 1 2 -0.054161459
2.4218986 -3.414248 0.36622843 66 10 -0.054159157
1.3734193 -1.9368809 -0.3760685 1 3 -0.054156855
2.336076 -3.2956979 0.49600828 90 11 -0.054154549
1.3026012 -1.8383687 -0.27664346 1 4 -0.054152247
2.4022796 -3.3916059 0.65827632 83 12 -0.054149941
1.2967031 -1.8307217 -0.19627473 2 5 -0.054147638
2.136229 -3.0171039 0.71858674 16 13 -0.054145332
1.2703854 -1.7948937 -0.11524379 3 6 -0.05414303
2.1137626 -2.9875848 0.84491616 33 14 -0.054140724
2.1111386 -2.9860859 0.97988898 35 15 -0.054136116
1.9393795 -2.7502644 -0.90172559 16 0 -0.054115381
2.167135 -3.0743876 0.065655954 9 8 -0.054113075
1.9183234 -2.7224219 -0.76888269 31 1 -0.054110773
2.2209301 -3.1530399 0.20212148 1 9 -0.054108471
1.9592657 -2.7815566 -0.66134399 29 2 -0.054106165
1.36665 -1.9416633 -0.3760685 1 3 -0.054101557
2.3211308 -3.2989619 0.49527705 93 11 -0.054099254
1.2916081 -1.8364093 -0.27566847 1 4 -0.054096948
2.3790648 -3.383811 0.65514761 79 12 -0.054094646
1.2822833 -1.8238277 -0.19505455 2 5 -0.05409234
2.1516485 -3.0614858 0.72736394 5 13 -0.054090038
1.2813345 -1.8238313 -0.11681387 2 6 -0.054087732
2.0977213 -2.9869711 0.84266669 6 14 -0.05408543
1.8544515 -2.6415565 -0.056336369 12 7 -0.054083124
2.097373 -2.988693 0.97833604 37 15 -0.054080822
1.9242285 -2.7491043 -0.89913744 25 0 -0.054060087
2.2148571 -3.1654949 0.067436099 45 8 -0.054057781
1.9021071 -2.7195199 -0.76618326 31 1 -0.054055478
2.2127514 -3.1636608 0.20233083 1 9 -0.054053172
1.940545 -2.775507 -0.65829104 38 2 -0.05405087
2.2484853 -3.2171414 0.34339362 1 10 -0.054048564
1.359864 -1.946422 -0.3760685 1 3 -0.054046262
2.3130109 -3.3119264 0.49600828 87 11 -0.054043956
1.280965 -1.8341727 -0.27469352 1 4 -0.054041654
2.3553922 -3.3738649 0.6517061 78 12 -0.054039348
1.2770492 -1.8299265 -0.19522884 2 5 -0.054037046
2.2094681 -3.1671982 0.75064266 4 13 -0.05403474
1.2703907 -1.8217399 -0.11639518 2 6 -0.054032438
2.0855751 -2.9907138 0.84176683 34 14 -0.054030132
1.8262414 -2.6198041 -0.055742987 40 7 -0.054027829
2.0775104 -2.9813666 0.97367728 39 15 -0.054025523
1.9051787 -2.7411928 -0.89447862 36 0 -0.054004788
2.1826694 -3.1416197 0.066772908 23 8 -0.054002486
1.8875204 -2.7178094 -0.76393378 30 1 -0.05400018
2.165791 -3.1184866 0.19898133 1 9 -0.053997878
1.9358085 -2.7883778 -0.65981752 42 2 -0.053995572
2.2150855 -3.1918428 0.33990738 1 10 -0.05399327
1.3534019 -1.9509207 -0.3760685 1 3 -0.053990964
2.283916 -3.2934785 0.49210843 67 11 -0.053988662
1.2839252 -1.8514603 -0.27664346 1 4 -0.053986356
2.3419402 -3.3784103 0.65108031 78 12 -0.053984053
1.2653 -1.825963 -0.19435729 2 5 -0.053981747
2.2246656 -3.2116265 0.75941986 4 13 -0.053979445
1.2643427 -1.8259426 -0.11639518 2 6 -0.053977139
2.0612242 -2.9767857 0.83591807 34 14 -0.053974837
1.8118534 -2.6176245 -0.055568464 41 7 -0.053972535
2.0544219 -2.9691758 0.96746564 34 15 -0.053970229
1.8851053 -2.7315958 -0.88930225 36 0 -0.053949494
2.1495292 -3.1159198 0.066074811 4 8 -0.053947188
1.8607966 -2.6983855 -0.75673532 28 1 -0.053944886
2.1548924 -3.1260281 0.19898133 1 9 -0.05394258
1.9220945 -2.788316 -0.65829104 42 2 -0.053940278
2.211272 -3.2090147 0.34095326 1 10 -0.053937972
1.346925 -1.9553981 -0.3760685 1 3 -0.053935669
2.2651017 -3.2895892 0.49040228 75 11 -0.053933363
1.280831 -1.8608361 -0.27737463 2 4 -0.053931061
2.3245347 -3.378428 0.64951599 79 12 -0.053928755
1.2682729 -1.8432801 -0.19575179 2 5 -0.053926453
2.2551677 -3.2788372 0.77353972 6 13 -0.053924151
1.2741224 -1.8531663 -0.11786059 1 6 -0.053921845
2.0453017 -2.9759324 0.83366859 41 14 -0.053919543
1.7993081 -2.6189883 -0.05546375 45 7 -0.053917237
2.0363894 -2.9651821 0.96384215 39 15 -0.053914934
1.8701003 -2.7301905 -0.8867141 40 0 -0.053894196
2.1352503 -3.1184542 0.0659701 4 8 -0.053891893
1.851366 -2.7048645 -0.75673532 34 1 -0.053889588
2.1383283 -3.1252892 0.19845797 15 9 -0.053887285
1.9101324 -2.7917678 -0.6575278 41 2 -0.053884979
2.1865597 -3.1969793 0.33886153 6 10 -0.053882677
1.3400911 -1.9600878 -0.3760685 1 3 -0.053880371
2.226723 -3.258142 0.48455253 15 11 -0.053878069
1.2732079 -1.8636568 -0.27713093 5 4 -0.053875767
2.3116136 -3.3848901 0.64920312 82 12 -0.053873461
1.2640781 -1.8509866 -0.19610041 1 5 -0.053871159
2.2459226 -3.2899315 0.7743029 6 13 -0.053868853
2.0272143 -2.9717848 0.83051926 38 14 -0.053864244
1.7924082 -2.6285572 -0.055533558 51 7 -0.053861942
2.0238507 -2.9690795 0.96280694 37 15 -0.053859636
1.8583868 -2.7335062 -0.88567883 38 0 -0.053838901
2.1322198 -3.137466 0.066214427 8 8 -0.053836595
2.1173074 -3.1178637 0.19751592 36 9 -0.053831987
1.8921686 -2.7873797 -0.6548565 47 2 -0.053829685
2.1709106 -3.1979983 0.33816427 28 10 -0.053827383
1.3332411 -1.9647537 -0.3760685 1 3 -0.053825077
2.1863632 -3.2231822 0.47821537 13 11 -0.053822774
1.2666948 -1.8680897 -0.27713093 3 4 -0.053820468
2.2853758 -3.3716815 0.64513582 86 12 -0.053818166
1.2628734 -1.8638543 -0.19697197 2 5 -0.05381586
2.2492626 -3.3208983 0.77964556 6 13 -0.053813558
2.0113659 -2.9707744 0.82826978 35 14 -0.05380895
1.776497 -2.6248615 -0.055324126 51 7 -0.053806644
2.0091441 -2.9697256 0.96073633 37 15 -0.053804342
1.8332313 -2.7178771 -0.87843186 33 0 -0.053783607
2.1139982 -3.1353116 0.066004999 2 8 -0.053781301
1.3124352 -1.9472308 -0.54213202 1 1 -0.053778999
2.1014016 -3.1189775 0.19709724 36 9 -0.053776693
1.8764561 -2.786154 -0.65294844 41 2 -0.05377439
2.1569488 -3.2026286 0.33781564 60 10 -0.053772084
2.1767516 -3.2344677 0.47870281 26 11 -0.053767476
1.2642714 -1.8793081 -0.27810585 1 4 -0.053765174
2.2685931 -3.3734782 0.64388436 86 12 -0.053762868
1.2438066 -1.850282 -0.19505455 1 5 -0.053760566
2.226126 -3.3128247 0.77582937 7 13 -0.05375826
2.1427052 -3.1898844 -0.20138879 1 6 -0.053755958
1.9928573 -2.9668031 0.82512045 38 14 -0.053753652
1.7624055 -2.6247146 -0.05518451 51 7 -0.053751349
1.9928629 -2.9690492 0.95814812 34 15 -0.053749043
1.8221834 -2.7229726 -0.87791425 34 0 -0.053728309
2.0947099 -3.1314042 0.065760665 9 8 -0.053726006
1.2901242 -1.9293491 -0.53583342 1 1 -0.0537237
2.0893915 -3.1246336 0.19699256 34 9 -0.053721398
1.8645374 -2.789423 -0.6521852 39 2 -0.053719092
2.1385546 -3.200573 0.33676979 13 10 -0.05371679
2.1637797 -3.2407734 0.47845906 44 11 -0.053712182
1.2419473 -1.8608136 -0.27469352 1 4 -0.053709876
2.2502241 -3.3715181 0.64200711 86 12 -0.053707574
1.2771478 -1.9142781 -0.20132977 1 5 -0.053705268
2.2047448 -3.3058755 0.7723949 7 13 -0.053702965
2.126018 -3.1890352 -0.20086543 30 6 -0.053700659
1.9819702 -2.9740872 0.82512045 38 14 -0.053698357
1.7443612 -2.617538 -0.054905269 51 7 -0.053696051
1.9696344 -2.9566946 0.95193648 34 15 -0.053693749
1.803048 -2.7148333 -0.87325549 31 0 -0.053673014
2.0909524 -3.1483281 0.0659701 2 8 -0.053670708
1.7859969 -2.6901784 -0.74548781 20 1 -0.053668406
2.0828891 -3.1385643 0.19741124 15 9 -0.0536661
1.84068 -2.7746465 -0.64722413 10 2 -0.053663798
2.1460888 -3.2362463 0.33973309 4 10 -0.053661492
2.1530211 -3.2479308 0.47845906 35 11 -0.053656884
1.2730511 -1.9211837 -0.28298062 1 4 -0.053654581
2.2329872 -3.3711183 0.64044279 89 12 -0.053652275
2.1894345 -3.3066204 0.77086836 9 13 -0.053647667
2.1033051 -3.1777475 -0.19971403 33 6 -0.053645365
1.9699465 -2.9773929 0.82422066 38 14 -0.053643063
1.7330074 -2.6202755 -0.054835461 52 7 -0.053640757
1.9614325 -2.9667749 0.95297176 34 15 -0.053638455
1.7855279 -2.707895 -0.8691144 33 0 -0.053617716
2.0656431 -3.1339023 0.065516338 2 8 -0.053615414
1.773379 -2.6915145 -0.74413806 30 1 -0.053613108
2.0554423 -3.120796 0.19584116 1 9 -0.053610805
1.8228298 -2.7676184 -0.64417118 1 2 -0.053608499
2.1627352 -3.2849481 0.34409088 4 10 -0.053606197
