# .PCD v0.7 - Point Cloud Data file format
VERSION 0.7
FIELDS x y z intensity ring time
SIZE 4 4 4 4 2 4
TYPE F F F F U F
COUNT 1 1 1 1 1 1
WIDTH 989
HEIGHT 1
VIEWPOINT 0 0 0 1 0 0 0
POINTS 989
DATA ascii
1.1634816 4.049541 -1.1289687 13 0 -0.05856492
5.6209197 19.55093 0.35508665 74 8 -0.058562614
1.3868192 4.8205357 -1.158048 9 1 -0.058560312
5.4158893 18.813089 1.0259942 18 9 -0.058558006
1.747223 6.0693011 -1.2276652 2 2 -0.058555704
3.9549282 13.729133 1.2499877 23 10 -0.058553401
2.351052 8.1561022 -1.344398 1 3 -0.058551095
3.1111653 10.78596 1.3783424 32 11 -0.058548793
2.5619676 8.8703423 1.4623495 35 12 -0.058544185
3.8550401 13.347368 -1.215474 10 5 -0.058541879
1.8495145 6.399415 1.2948298 57 13 -0.058539577
3.9867716 13.785389 -0.75206774 7 6 -0.058537271
1.8673112 6.4525476 1.5508126 21 14 -0.058534969
4.6077323 15.911753 -0.28915146 95 7 -0.058532663
1.6544244 5.7094374 1.5927725 35 15 -0.05853036
1.1803088 4.0547299 -1.1315569 9 0 -0.058509622
5.6941504 19.548475 0.3554008 70 8 -0.05850732
1.4080012 4.8306317 -1.1616472 8 1 -0.058505017
5.4871154 18.813244 1.0270408 18 9 -0.058502711
1.7596017 6.0330095 -1.2215593 2 2 -0.058500409
4.0044928 13.720984 1.2505106 26 10 -0.058498103
2.3861549 8.170598 -1.3481523 1 3 -0.058495801
3.1482425 10.773128 1.3780986 34 11 -0.058493495
2.5906985 8.8537617 1.4610981 17 12 -0.058488887
3.8926582 13.303233 -1.212685 10 5 -0.058486585
1.873498 6.398572 1.2959747 67 13 -0.058484279
4.0376725 13.780973 -0.75259113 9 6 -0.058481976
1.6277605 5.5521159 1.3357594 1 14 -0.05847967
4.6542444 15.86487 -0.28859299 71 7 -0.058477368
1.461581 4.9788575 1.390376 18 15 -0.058475062
1.1922708 4.0431733 -1.1294864 10 0 -0.058454327
4.629355 15.68876 0.28552136 21 8 -0.058452025
1.4243019 4.8238192 -1.1611973 6 1 -0.058449719
5.5482297 18.778652 1.0262035 21 9 -0.058447417
1.7895522 6.0569549 -1.2276652 2 2 -0.058445111
4.0512376 13.703099 1.250162 26 10 -0.058442809
2.4191425 8.1773748 -1.3506554 1 3 -0.058440503
3.1880805 10.769688 1.3790736 30 11 -0.058438201
2.6232703 8.8503466 1.4620367 22 12 -0.058433592
3.9373703 13.283835 -1.212162 10 5 -0.058431286
1.8991702 6.4032874 1.2982645 61 13 -0.058428984
4.0738158 13.726586 -0.75039297 7 6 -0.058426678
1.9139802 6.4449573 1.5521622 45 14 -0.058424376
4.7130089 15.860028 -0.28880242 68 7 -0.05842207
1.7041516 5.7310796 1.6020899 1 15 -0.058419768
1.2052721 4.035284 -1.1284511 12 0 -0.058399033
4.6772161 15.649514 0.28510252 72 8 -0.058396727
1.4400162 4.8150835 -1.1602976 6 1 -0.058394425
5.6166134 18.768734 1.0267268 21 9 -0.058392119
1.8106856 6.0506706 -1.2276652 2 2 -0.058389816
4.0973282 13.683149 1.249639 23 10 -0.05838751
3.2267971 10.762296 1.3795611 30 11 -0.058382902
2.657558 8.8524866 1.4639139 34 12 -0.058378294
3.9911664 13.294817 -1.2144281 5 5 -0.058375992
1.9198174 6.3909774 1.2971196 61 13 -0.058373686
4.1130791 13.683593 -0.74882293 9 6 -0.058371384
1.9387096 6.4457021 1.5539619 52 14 -0.058369078
4.7712278 15.853052 -0.28897694 66 7 -0.058366776
1.5013156 4.9851813 1.3950348 1 15 -0.058364473
1.2221464 4.0402985 -1.1310393 13 0 -0.058343735
4.7352948 15.644576 0.28531197 78 8 -0.058341432
1.4556843 4.8062978 -1.1593977 8 1 -0.058339126
5.6861458 18.762398 1.0274596 18 9 -0.058336824
1.8317941 6.0443139 -1.2276652 2 2 -0.058334518
4.1427569 13.661137 1.2489418 23 10 -0.058332216
4.0271502 13.27157 -2.1966531 1 3 -0.05832991
3.2614586 10.741469 1.3783424 30 11 -0.058327608
2.6855681 8.8337059 1.4623495 34 12 -0.058323
4.0445013 13.303679 -1.2165198 5 5 -0.058320694
1.9432558 6.3879938 1.2978829 56 13 -0.058318391
4.1794338 13.730294 -0.75217241 1 6 -0.058316089
1.9634674 6.4463525 1.5557615 56 14 -0.058313783
4.6125774 15.134295 -0.27616689 38 7 -0.058311481
1.4956046 4.9041486 1.3738115 13 15 -0.058309175
1.2351117 4.0323129 -1.130004 9 0 -0.05828844
4.7951531 15.645156 0.28562608 87 8 -0.058286134
1.474737 4.8086395 -1.1611973 6 1 -0.058283832
5.6373496 18.370104 1.0070486 15 9 -0.058281526
1.8413637 6.0003448 -1.2200328 2 2 -0.058279224
4.1939311 13.658019 1.2499877 26 10 -0.058276918
2.4930367 8.1138287 -1.344398 1 3 -0.058274616
3.2989366 10.730019 1.3783424 30 11 -0.058272313
2.7175477 8.8280554 1.4629753 34 12 -0.058267705
4.0991187 13.31614 -1.2189603 3 5 -0.058265399
1.9678556 6.3886757 1.2994094 57 13 -0.058263097
4.4938278 14.580242 -0.7995888 39 6 -0.058260791
1.984233 6.4338732 1.5544118 68 14 -0.058258489
4.6653814 15.118099 -0.27616689 51 7 -0.058256183
1.5172755 4.9136648 1.3779527 52 15 -0.058253881
1.2520379 4.0372038 -1.1325922 9 0 -0.058233142
6.0516462 19.501503 0.35641304 30 8 -0.05823084
1.4903588 4.7997403 -1.1602976 8 1 -0.058228537
5.7909093 18.638323 1.022854 18 9 -0.058226231
1.8646235 6.0013814 -1.2215593 2 2 -0.058223929
4.2421694 13.645199 1.250162 23 10 -0.058221623
2.5213463 8.1050758 -1.344398 1 3 -0.058219321
3.3351889 10.714648 1.3778549 11 11 -0.058217015
2.747761 8.8166285 1.4626625 35 12 -0.058212407
4.1449862 13.299847 -1.2187859 1 5 -0.058210105
1.9895585 6.3798943 1.2990277 65 13 -0.058207799
4.417376 14.156457 -0.77718902 21 6 -0.058205497
2.0055194 6.4231868 1.553512 68 14 -0.058203191
4.9524779 15.851848 -0.28988448 54 7 -0.058200888
1.5338407 4.9064946 1.377435 35 15 -0.058198582
1.264388 4.0272789 -1.1310393 12 0 -0.058177847
6.1250811 19.497429 0.35672718 87 8 -0.058175545
1.5059341 4.790791 -1.1593977 6 1 -0.058173239
5.8787107 18.690393 1.0268315 18 9 -0.058170937
1.8949875 6.0248008 -1.2276652 2 2 -0.058168631
4.2861891 13.618905 1.2491161 21 10 -0.058166329
2.5496213 8.0962267 -1.344398 1 3 -0.058164023
3.4155228 10.839261 1.3954041 1 11 -0.058161721
4.103291 13.013968 -1.67546 1 4 -0.058159415
2.7761412 8.799448 1.4614109 33 12 -0.058157112
4.1859884 13.268197 -1.2172171 3 5 -0.058154806
2.018316 6.3935051 1.3032255 58 13 -0.058152504
4.5154972 14.295216 -0.78566748 18 6 -0.058150198
5.018631 15.868783 -0.29051274 52 7 -0.05814559
1.5497937 4.8974266 1.3763998 35 15 -0.058143288
1.2766838 4.0173173 -1.1294864 9 0 -0.058122553
6.1955132 19.483557 0.35686684 81 8 -0.058120247
1.5250127 4.7929325 -1.1611973 8 1 -0.058117945
5.9633098 18.730656 1.0301811 3 9 -0.058115639
1.9064785 5.9882169 -1.2215593 2 2 -0.058113337
4.3318777 13.598166 1.2485931 23 10 -0.058111031
2.5778689 8.0872765 -1.344398 1 3 -0.058108728
3.4153388 10.708123 1.3800485 11 11 -0.058106422
4.1148868 12.893665 -1.6618105 1 4 -0.05810412
2.8098471 8.7991123 1.4629753 34 12 -0.058101814
4.2310691 13.249708 -1.2168685 3 5 -0.058099512
2.039428 6.3826799 1.3024622 48 13 -0.058097206
4.5726576 14.302197 -0.78692347 19 6 -0.058094904
1.7474865 5.4624305 1.3240619 5 14 -0.058092598
6.2152352 19.416393 -0.35585457 25 7 -0.058090296
1.5774831 4.9251041 1.3857172 33 15 -0.05808799
1.2924728 4.0183535 -1.1310393 12 0 -0.057547569
6.2659416 19.469425 0.35700643 87 8 -0.057545267
1.5393459 4.78016 -1.1593977 8 1 -0.057542961
6.0137644 18.674658 1.0281924 15 9 -0.057540659
1.9273685 5.9815259 -1.2215593 2 2 -0.057538353
4.3780985 13.579169 1.2482445 23 10 -0.057536051
2.6060853 8.078228 -1.344398 1 3 -0.057533745
3.4520845 10.694248 1.3798048 17 11 -0.057531442
4.1525502 12.856553 -1.6588856 1 4 -0.057529137
2.8408301 8.7953863 1.4639139 35 12 -0.057526834
4.2907763 13.276565 -1.2207032 3 5 -0.057524528
2.0610898 6.3736548 1.3020806 31 13 -0.057522226
4.6250176 14.293749 -0.78734219 1 6 -0.05751992
1.7689456 5.4637127 1.3258615 9 14 -0.057517618
6.2900648 19.428019 -0.35644796 58 7 -0.057515312
1.8301703 5.6494603 1.5912195 41 15 -0.05751301
1.3058946 4.0119801 -1.1305215 11 0 -0.057492275
6.3354263 19.463747 0.35728565 87 8 -0.057489969
1.5569985 4.7805886 -1.1607474 8 1 -0.057487667
6.0733318 18.636463 1.0272502 18 9 -0.057485361
1.9397168 5.9486294 -1.2162166 2 2 -0.057483058
4.4316559 13.582745 1.2499877 38 10 -0.057480752
2.6328576 8.0695419 -1.344398 1 3 -0.05747845
3.4850621 10.675193 1.3788298 17 11 -0.057476144
4.1853032 12.812521 -1.6549859 1 4 -0.057473842
2.8733578 8.791049 1.4648525 34 12 -0.057471536
4.3346076 13.253935 -1.2200061 3 5 -0.057469234
2.0834336 6.3705173 1.3028439 25 13 -0.057466928
5.1320567 15.683006 -0.86479938 33 6 -0.057464626
1.7888724 5.4633732 1.3272111 11 14 -0.05746232
6.3646779 19.426851 -0.35683191 79 7 -0.057460018
1.8480754 5.6375294 1.5896666 43 15 -0.057457712
1.3203989 4.0112977 -1.1315569 10 0 -0.057436977
6.4058189 19.449118 0.3574253 81 8 -0.057434674
1.5706254 4.7658701 -1.1584979 8 1 -0.057432368
6.1319785 18.606735 1.0267268 21 9 -0.057430066
1.9704982 5.9757261 -1.2230858 2 2 -0.05742776
4.4797921 13.577435 1.2508591 26 10 -0.057425458
2.6610079 8.0603027 -1.344398 1 3 -0.057423152
3.5229304 10.664848 1.3790736 14 11 -0.05742085
4.2362342 12.816679 -1.6574231 1 4 -0.057418544
2.8975372 8.7664661 1.4623495 34 12 -0.057416242
4.3241124 13.074915 -1.2048409 1 5 -0.057413936
2.1044264 6.359478 1.3020806 60 13 -0.057411633
5.1936793 15.685852 -0.86595082 67 6 -0.057409327
1.808544 5.4589462 1.3276612 15 14 -0.057407025
6.4303274 19.409431 -0.35690171 83 7 -0.057404723
1.871622 5.6460409 1.5938078 43 15 -0.057402417
1.3319505 3.9993334 -1.1294864 9 0 -0.057381682
6.4791307 19.454329 0.35791397 77 8 -0.057379376
1.5907328 4.7735772 -1.1616472 8 1 -0.057377074
6.195632 18.581427 1.0265175 21 9 -0.057374768
1.9863734 5.9539132 -1.2200328 2 2 -0.057372466
4.5246329 13.554156 1.250162 30 10 -0.05737016
3.561424 10.66252 1.3802923 21 11 -0.057365552
4.2938056 12.84775 -1.663273 1 4 -0.057363249
2.9287407 8.7581739 1.4626625 38 12 -0.057360947
4.3355904 12.95771 -1.1954281 1 5 -0.057358641
2.1342263 6.3785286 1.3074232 23 13 -0.057356339
5.2367792 15.642032 -0.86448544 67 6 -0.057354033
1.8284925 5.4584627 1.3290108 16 14 -0.057351731
6.5018582 19.398243 -0.35711116 83 7 -0.057349425
1.8870202 5.6266508 1.5901842 39 15 -0.057347123
1.3433571 3.9894016 -1.1279335 13 0 -0.057326384
6.5463662 19.429697 0.35787904 80 8 -0.057324082
1.6080098 4.7698421 -1.1620972 6 1 -0.057321776
6.2630057 18.567259 1.0269363 21 9 -0.057319473
1.997323 5.9212484 -1.2146901 2 2 -0.057317168
4.5708332 13.542852 1.2505106 100 10 -0.057314865
2.715811 8.0420027 -1.344398 1 3 -0.057312563
3.5998902 10.653786 1.3807799 63 11 -0.057310257
2.9599299 8.7497683 1.4629753 37 12 -0.057305649
4.3874722 12.969687 -1.1978685 1 5 -0.057303347
2.1545889 6.3654613 1.3062785 26 13 -0.057301041
5.2862272 15.608521 -0.86364806 60 6 -0.057298739
1.8469108 5.4502006 1.3285609 33 14 -0.057296433
6.5733795 19.386793 -0.35732058 87 7 -0.05729413
1.9054072 5.6163716 1.589149 41 15 -0.057291824
1.3591423 3.9901743 -1.1294864 8 0 -0.057271089
6.6154432 19.410509 0.35794884 80 8 -0.057268783
1.6221329 4.7568226 -1.1602976 9 1 -0.057266481
6.33358 18.562296 1.0278783 25 9 -0.057264179
2.0306585 5.9514027 -1.2223225 2 2 -0.057261873
4.620657 13.534356 1.2512078 49 10 -0.057259571
3.6351283 10.63552 1.3800485 89 11 -0.057254963
4.3512836 12.723544 -1.651086 1 4 -0.057252657
2.9942896 8.750597 1.4648525 37 12 -0.057250354
4.4340057 12.958063 -1.1982172 1 5 -0.057248048
2.1755221 6.3541875 1.3055153 27 13 -0.057245746
6.6320009 19.359453 -1.0724685 32 6 -0.05724344
1.8709782 5.4584684 1.3321601 18 14 -0.057241138
6.6474957 19.382647 -0.35766962 87 7 -0.057238832
1.9256288 5.6115131 1.5896666 37 15 -0.05723653
1.3730614 3.9854059 -1.1294864 9 0 -0.057215795
6.687716 19.400534 0.35819319 77 8 -0.057213489
1.6406349 4.7566576 -1.1616472 8 1 -0.057211187
6.3931284 18.524969 1.0270408 25 9 -0.057208881
2.0527029 5.9479895 -1.2230858 2 2 -0.057206579
4.6743727 13.536978 1.2529509 95 10 -0.057204273
2.7718887 8.0228472 -1.344398 1 3 -0.05720197
3.676774 10.635899 1.3817548 68 11 -0.057199664
4.3203955 12.490659 -1.6228124 1 4 -0.057197362
3.0235269 8.7363567 1.4642268 37 12 -0.057195056
4.477911 12.93874 -1.1978685 1 5 -0.057192754
2.1983335 6.3484092 1.3058969 28 13 -0.057190448
6.6962638 19.326752 -1.0719451 47 6 -0.057188146
1.8887452 5.4482207 1.3312603 13 14 -0.05718584
6.7216716 19.378216 -0.3580187 87 7 -0.057183538
1.6943734 4.8820343 1.3846819 1 15 -0.057181232
1.3939577 4.0006557 -1.1351804 15 0 -0.057160497
6.7632909 19.399731 0.35861203 77 8 -0.057158194
1.6533768 4.739862 -1.1589478 8 1 -0.057155889
6.4584079 18.504429 1.0271456 21 9 -0.057153586
2.0734515 5.9407883 -1.2230858 2 2 -0.05715128
4.7242217 13.528104 1.2536482 61 10 -0.057148978
2.799875 8.0131235 -1.344398 1 3 -0.057146672
3.7119105 10.617379 1.3810235 102 11 -0.05714437
4.341682 12.411794 -1.6145252 1 4 -0.057142064
3.0540063 8.725749 1.4642268 34 12 -0.057139762
4.5362153 12.960639 -1.2013547 1 5 -0.057137456
2.2230742 6.3481092 1.3074232 62 13 -0.057135154
6.7716169 19.325876 -1.0732012 52 6 -0.057132848
1.9064636 5.4379168 1.3303605 15 14 -0.057130545
6.7905931 19.35841 -0.35808849 87 7 -0.057128243
1.9692361 5.6106925 1.5932901 41 15 -0.057125937
1.4040632 3.9848323 -1.1320745 15 0 -0.057105202
6.8376126 19.394867 0.35896111 84 8 -0.057102896
1.671858 4.7395749 -1.1602976 9 1 -0.057100594
6.5242953 18.485537 1.027355 25 9 -0.057098288
2.0889504 5.9187031 -1.2200328 2 2 -0.057095986
4.774066 13.519047 1.2543454 100 10 -0.05709368
2.827831 8.0033007 -1.344398 1 3 -0.057091378
3.7602 10.636172 1.385167 68 11 -0.057089072
4.3823299 12.389078 -1.6135503 1 4 -0.057086769
4.5933914 12.978535 -1.2044923 1 5 -0.057082161
2.251775 6.3588166 1.3112395 51 13 -0.057079859
6.8436913 19.315304 -1.073934 55 6 -0.057077553
1.9273862 5.436739 1.3317102 16 14 -0.057075251
6.8420863 19.289356 -0.35725078 79 7 -0.057072945
1.9862235 5.5965033 1.5912195 39 15 -0.057070643
1.4160184 3.974448 -1.1305215 9 0 -0.057049904
6.9086342 19.380299 0.35913563 87 8 -0.057047602
1.6910096 4.7410522 -1.1620972 6 1 -0.057045296
6.5954914 18.481461 1.0284016 28 9 -0.057042994
2.1227939 5.9483566 -1.2276652 2 2 -0.057040688
4.8131905 13.479782 1.2522538 100 10 -0.057038385
2.8557527 7.9933796 -1.344398 1 3 -0.057036079
3.792625 10.609898 1.3834609 111 11 -0.057033777
4.4255524 12.373704 -1.6135503 1 4 -0.057031475
3.130157 8.7469921 1.4714227 1 12 -0.057029169
6.5256901 18.235558 -1.694482 4 5 -0.057026867
2.2746181 6.3527665 1.3116212 27 13 -0.057024561
6.9205079 19.317619 -1.0753993 55 6 -0.057022259
1.9496413 5.4391499 1.3339597 20 14 -0.057019953
6.8499665 19.099712 -0.35417914 38 7 -0.05701765
2.0031354 5.5822625 1.589149 41 15 -0.057015345
1.4298842 3.9694805 -1.1305215 11 0 -0.05699461
6.9803147 19.367348 0.35934505 87 8 -0.056992304
1.7022591 4.7204552 -1.1584979 8 1 -0.056990001
6.6592903 18.456446 1.0282969 28 9 -0.056987695
2.1302199 5.9039755 -1.2200328 2 2 -0.056985393
4.8690133 13.487259 1.2545198 57 10 -0.056983091
2.8836319 7.9833646 -1.344398 1 3 -0.056980785
3.8370621 10.61713 1.386142 48 11 -0.056978483
4.467371 12.354446 -1.6130629 1 4 -0.056976177
3.1499121 8.706295 1.4664168 30 12 -0.056973875
6.5987806 18.238901 -1.6969223 19 5 -0.056971569
2.2981176 6.3484793 1.3123844 13 13 -0.056969266
6.9892621 19.297098 -1.0756086 53 6 -0.05696696
1.9712677 5.439641 1.3357594 20 14 -0.056964658
7.0058951 19.321957 -0.35875168 58 7 -0.056962352
2.0259047 5.5843158 1.5917372 43 15 -0.05696005
1.445051 3.9680965 -1.1315569 9 0 -0.056939315
7.0574579 19.369171 0.35983372 87 8 -0.056937009
1.7180601 4.7126536 -1.158048 8 1 -0.056934707
6.7236791 18.433084 1.0282969 28 9 -0.056932401
2.1642723 5.9333906 -1.2276652 2 2 -0.056930099
4.9208417 13.483283 1.2557399 100 10 -0.056927793
4.5486326 12.443186 -1.6267121 1 4 -0.056920882
3.1762142 8.6841135 1.4645396 33 12 -0.056918576
6.6719923 18.241949 -1.6993626 31 5 -0.056916274
2.3216152 6.3441052 1.3131475 8 13 -0.056913968
7.0620689 19.287588 -1.0764461 55 6 -0.056911666
1.9875637 5.4254074 1.3339597 1 14 -0.05690936
7.0877557 19.336807 -0.35948467 79 7 -0.056907058
2.0460494 5.5790243 1.5922549 39 15 -0.056904752
1.4588945 3.9630277 -1.1315569 9 0 -0.056884017
7.1305599 19.359428 0.36011297 87 8 -0.056881715
1.7358465 4.7102852 -1.1589478 8 1 -0.056879409
6.7861371 18.414438 1.0285063 28 9 -0.056877106
2.1577985 5.8521199 -1.2124004 2 2 -0.0568748
4.9782248 13.494062 1.2583545 97 10 -0.056872498
2.939296 7.9630384 -1.344398 1 3 -0.056870192
3.2036278 8.6698275 1.4639139 33 12 -0.056863282
6.8945417 18.648363 -1.7394543 72 5 -0.056860976
2.3471472 6.345171 1.3150556 45 13 -0.056858674
7.1349034 19.277805 -1.0772835 58 6 -0.056856368
7.1573915 19.328201 -0.35976389 58 7 -0.05685176
2.0652089 5.5740209 1.5927725 30 15 -0.056849457
1.4686625 3.9491143 -1.1289687 13 0 -0.056828722
7.1758871 19.285076 0.35917056 38 8 -0.056826416
1.7500961 4.7008505 -1.158048 8 1 -0.056824114
6.8541298 18.410555 1.0295531 28 9 -0.056821808
2.2046068 5.9185224 -1.2276652 2 2 -0.056819506
5.0138969 13.453209 1.2560885 42 10 -0.0568172
2.9656847 7.9532485 -1.344398 1 3 -0.056814898
3.2337399 8.6628571 1.4645396 33 12 -0.056807984
2.3668032 6.333674 1.3142924 8 13 -0.056803375
6.9169073 18.500116 -1.0351007 13 6 -0.056801073
2.3524499 6.2919154 1.5508126 35 14 -0.056798771
6.9215622 18.502747 -0.34482464 33 7 -0.056796465
1.8019762 4.8144822 1.377435 1 15 -0.056794163
1.4831082 3.9478395 -1.130004 13 0 -0.056773424
7.032249 18.708981 0.34887362 42 8 -0.056771122
1.770478 4.7077885 -1.1611973 6 1 -0.056768816
6.9232812 18.399601 1.0302857 25 9 -0.056766514
2.2252543 5.9107904 -1.2276652 2 2 -0.056764208
5.0648031 13.453289 1.2576573 100 10 -0.056761906
2.9920444 7.9433694 -1.344398 1 3 -0.0567596
3.2639575 8.6515169 1.4645396 33 12 -0.056752689
2.39098 6.330883 1.3154373 11 13 -0.056748081
6.9863811 18.488937 -1.0358334 33 6 -0.056745779
6.9931836 18.497179 -0.34517372 74 7 -0.056741171
2.0996873 5.5507984 1.5901842 41 15 -0.056738865
1.4996248 3.9477954 -1.1315569 9 0 -0.05671813
7.0922441 18.66065 0.34845477 100 8 -0.056715824
1.7821811 4.6866956 -1.1575981 6 1 -0.056713521
6.9949303 18.385303 1.0309138 31 9 -0.056711216
2.2287428 5.8548899 -1.2177432 2 2 -0.056708913
3.0211403 7.9323487 -1.344398 1 3 -0.056704305
4.0269938 10.567801 1.3885795 100 11 -0.056702003
3.2949431 8.6376505 1.4642268 34 12 -0.056697395
6.0998044 15.982181 -1.4966384 2 5 -0.056695089
2.4134657 6.3202434 1.3150556 13 13 -0.056692787
7.061945 18.483728 -1.0369848 36 6 -0.056690481
2.0899994 5.4703035 1.3519558 3 14 -0.056688178
7.0730748 18.503174 -0.34576708 67 7 -0.056685872
2.1227775 5.5502839 1.5922549 39 15 -0.05668357
1.5133927 3.9404688 -1.1310393 11 0 -0.056662831
7.1691942 18.656933 0.34887362 100 8 -0.056660529
1.8000451 4.6819515 -1.158048 9 1 -0.056658227
7.0554862 18.351454 1.0303905 28 9 -0.056655921
2.267494 5.8947158 -1.2276652 2 2 -0.056653619
5.1618471 13.412085 1.2573087 2 10 -0.056651313
4.053575 10.521477 1.3844359 17 11 -0.056646705
3.3314669 8.6426859 1.4670426 33 12 -0.056642096
6.1555524 15.960792 -1.4966384 2 5 -0.056639794
2.4397552 6.3227696 1.3173454 20 13 -0.056637488
7.1235409 18.451515 -1.0365661 67 6 -0.056635186
2.1254816 5.5025992 1.3618537 1 14 -0.05663288
7.1513062 18.513813 -0.34643027 33 7 -0.056630578
2.1407473 5.5392356 1.5912195 35 15 -0.056628272
1.5320299 3.9477694 -1.1346627 14 0 -0.056607537
7.2295723 18.629326 0.34880379 100 8 -0.056605235
1.8176783 4.681406 -1.1593977 6 1 -0.056602929
7.1238365 18.337883 1.0310184 28 9 -0.056600627
2.2880554 5.886765 -1.2276652 2 2 -0.056598321
5.1840839 13.330849 1.2513821 2 10 -0.056596018
3.0764449 7.9110637 -1.344398 1 3 -0.056593712
4.1013927 10.54128 1.3888232 91 11 -0.05659141
3.3558819 8.6162767 1.4645396 33 12 -0.056586802
6.2835746 16.124849 -1.5140696 2 5 -0.056584496
2.4649847 6.3256202 1.319635 45 13 -0.056582194
7.1992044 18.465004 -1.0386595 34 6 -0.056579888
2.1493845 5.5100441 1.3654529 5 14 -0.056577586
7.2144384 18.485012 -0.34636045 37 7 -0.05657528
2.149528 5.5047369 1.5834551 1 15 -0.056572977
1.5394745 3.9282773 -1.1305215 9 0 -0.056552242
7.3091617 18.641211 0.34950191 100 8 -0.056549937
1.8347192 4.676847 -1.1598476 8 1 -0.056547634
7.1951065 18.331495 1.0320652 28 9 -0.056545328
2.3075628 5.8791456 -1.2276652 2 2 -0.056543026
5.2894344 13.469364 1.2660244 2 10 -0.05654072
4.1229148 10.4881 1.3837045 17 11 -0.056536112
3.3852127 8.6026726 1.4642268 31 12 -0.056531504
6.3107433 16.037178 -1.5077944 2 5 -0.056529202
2.4863296 6.3151512 1.3192534 10 13 -0.056526896
7.2687354 18.452772 -1.0393922 3 6 -0.056524593
2.1786072 5.5278907 1.3717515 37 14 -0.056522287
7.2833171 18.470881 -0.3465699 33 7 -0.056519985
1.8752168 4.7532182 1.3691529 1 15 -0.056517683
1.5538896 3.9246757 -1.1310393 15 0 -0.056496944
7.3763928 18.621164 0.34960663 100 8 -0.056494642
1.8567786 4.684907 -1.1634469 8 1 -0.056492336
7.2612648 18.311836 1.0323793 25 9 -0.056490034
2.3092568 5.8236041 -1.2177432 2 2 -0.056487728
5.2739635 13.293404 1.2512078 19 10 -0.056485426
4.1814837 10.528992 1.3910168 55 11 -0.056480817
3.414494 8.5889683 1.4639139 35 12 -0.056476209
2.5206952 6.3374453 1.3257409 5 13 -0.056471601
6.2253804 15.64371 -0.8823843 33 6 -0.056469299
2.2087042 5.5474095 1.3785001 56 14 -0.056466993
6.3057919 15.829666 -0.29742393 25 7 -0.056464691
1.8860743 4.7322874 1.3650117 13 15 -0.056462385
1.567579 3.9192281 -1.1310393 12 0 -0.05644165
7.4472952 18.610149 0.34988585 100 8 -0.056439344
1.8680494 4.6657333 -1.1602976 6 1 -0.056437042
7.3258796 18.288233 1.0324838 25 9 -0.056434736
2.3485508 5.8628922 -1.2276652 2 2 -0.056432433
5.3240433 13.284158 1.2520794 26 10 -0.056430127
3.1591182 7.8784146 -1.344398 1 3 -0.056427825
4.1879048 10.438796 1.3810235 21 11 -0.056425523
3.4488692 8.5879955 1.4657912 27 12 -0.056420915
2.5501199 6.3468256 1.3295572 1 13 -0.056416307
5.9506845 14.802798 -0.83611929 9 6 -0.056414001
2.2251451 5.5324345 1.3767005 24 14 -0.056411698
5.9683423 14.831762 -0.27906397 18 7 -0.056409393
1.9047472 4.731051 1.3665646 48 15 -0.05640709
1.5812513 3.9137316 -1.1310393 12 0 -0.056386352
7.5197029 18.602583 0.3502349 100 8 -0.056384049
1.8843235 4.6591849 -1.1602976 8 1 -0.056381747
7.376193 18.229223 1.0305998 6 9 -0.056379441
2.3542752 5.8182602 -1.2200328 2 2 -0.056377139
5.3703852 13.265491 1.2520794 26 10 -0.056374833
3.1865981 7.8673401 -1.344398 1 3 -0.056372531
4.241468 10.466427 1.3866295 39 11 -0.056370225
2.9419637 7.2524514 1.2395868 38 12 -0.056365617
6.5135336 16.05699 -1.5159869 20 5 -0.056363314
2.5641389 6.317874 1.3253593 21 13 -0.056361008
5.9857926 14.741224 -0.83381653 46 6 -0.056358706
2.5459015 6.2666678 1.5616102 21 14 -0.0563564
5.9944806 14.74785 -0.27787721 34 7 -0.056354098
1.9241624 4.7315302 1.3686352 35 15 -0.056351792
1.5978203 3.9153442 -1.1331098 12 0 -0.056331057
7.5951786 18.602137 0.35072356 100 8 -0.056328755
1.8946811 4.6381459 -1.1566983 4 1 -0.056326449
7.4699917 18.277321 1.0347867 18 9 -0.056324147
2.3745663 5.810008 -1.2200328 2 2 -0.056321841
5.4174089 13.24851 1.2522538 26 10 -0.056319539
3.2140427 7.8561678 -1.344398 1 3 -0.056317233
4.2621784 10.412981 1.381511 27 11 -0.05631493
3.5034983 8.5509138 1.4636011 16 12 -0.056310322
6.5854101 16.07287 -1.5196475 12 5 -0.056308016
2.5809631 6.2961698 1.322688 5 13 -0.056305714
6.0106835 14.655564 -0.83015299 43 6 -0.056303408
2.5877364 6.3064198 1.5737575 94 14 -0.056301106
6.0208659 14.66579 -0.27672535 34 7 -0.0562988
1.9443358 4.7337213 1.3712233 50 15 -0.056296498
1.6070615 3.8990257 -1.130004 14 0 -0.056275763
7.6646466 18.586603 0.35093302 100 8 -0.056273457
1.9123453 4.6351075 -1.1575981 2 1 -0.056271154
7.5192723 18.216055 1.0327979 21 9 -0.056268848
2.4098163 5.8379779 -1.2276652 2 2 -0.056266546
5.4636254 13.229517 1.2522538 23 10 -0.05626424
3.2414448 7.8449016 -1.344398 1 3 -0.056261938
4.3068457 10.418219 1.3841921 19 11 -0.056259632
2.9653325 7.1660261 1.2283236 11 12 -0.056255024
6.6498508 16.070036 -1.5215648 6 5 -0.056252722
2.9814217 7.2013497 1.5150236 26 13 -0.056250416
6.0381145 14.577291 -0.82690823 49 6 -0.056248114
2.5828745 6.2325392 1.557561 35 14 -0.056245808
6.0429082 14.574492 -0.27539897 31 7 -0.056243505
1.9564075 4.716198 1.3681176 65 15 -0.056241199
1.6206628 3.8933918 -1.130004 9 0 -0.056551933
7.7340789 18.570816 0.35114241 100 8 -0.056549631
1.9352601 4.6445928 -1.1616472 1 1 -0.056547325
7.5765696 18.183643 1.0323793 21 9 -0.056545023
2.4105406 5.7824154 -1.2177432 2 2 -0.056542717
5.5082283 13.20669 1.2519051 23 10 -0.056540415
4.3401289 10.395792 1.3832171 58 11 -0.056535807
3.0020213 7.1871409 1.2336423 7 12 -0.056531198
3.0019989 7.1800299 1.5127338 29 13 -0.05652659
6.0658293 14.500853 -0.82376802 51 6 -0.056524284
2.6076252 6.2306752 1.5593606 15 14 -0.056521982
6.062645 14.486119 -0.27410749 38 7 -0.056519676
1.9757661 4.7185941 1.3707057 52 15 -0.056517374
1.6342427 3.8877113 -1.130004 11 0 -0.056496639
7.8010478 18.557966 0.35138676 84 8 -0.056494333
1.9446068 4.6237793 -1.158048 1 1 -0.056492031
7.6415501 18.160765 1.0325886 21 9 -0.056489725
2.4352791 5.7848229 -1.2200328 2 2 -0.056487422
5.5581651 13.196563 1.2527766 26 10 -0.056485116
3.2947681 7.8226562 -1.344398 1 3 -0.056482814
4.3799777 10.394147 1.3849233 21 11 -0.056480508
3.0301638 7.183898 1.2348938 2 12 -0.0564759
3.0219777 7.1609907 1.5108256 26 13 -0.056471292
2.6244798 6.2130184 1.5571113 14 14 -0.056466684
6.0937166 14.418818 -0.27323487 34 7 -0.056464382
1.9937288 4.7152281 1.3717409 37 15 -0.056462076
1.6501429 3.8893843 -1.1320745 9 0 -0.056441341
8.1587896 19.220896 0.36447605 87 8 -0.056439038
1.95464 4.6026144 -1.1544489 1 1 -0.056436732
7.7001972 18.122955 1.0319605 21 9 -0.05643443
2.454448 5.7767158 -1.2200328 2 2 -0.056432124
5.6018996 13.178057 1.2527766 26 10 -0.056429822
3.3220565 7.8111067 -1.344398 1 3 -0.056427516
4.4115629 10.367837 1.3834609 91 11 -0.056425214
3.6357701 8.5363255 1.4695455 24 12 -0.056420606
2.6867657 6.3051395 1.3322284 7 13 -0.056415997
5.8409061 13.700438 -0.7805385 12 6 -0.056413691
2.6438594 6.1984415 1.5557615 17 14 -0.056411389
6.1180997 14.336769 -0.27208301 36 7 -0.056409087
2.0139699 4.7171226 1.3743292 35 15 -0.056406781
1.6637105 3.8836 -1.1320745 11 0 -0.056386046
8.2352819 19.214357 0.36489493 87 8 -0.05638374
1.9799114 4.6172547 -1.1598476 2 1 -0.056381438
7.7594786 18.086786 1.031437 18 9 -0.056379132
2.4699547 5.757287 -1.2177432 2 2 -0.05637683
5.6478629 13.158423 1.2527766 26 10 -0.056374524
4.4571328 10.374261 1.3863858 21 11 -0.056369916
3.6624224 8.516325 1.4682941 34 12 -0.056365311
2.7033286 6.2830982 1.3295572 1 13 -0.056360703
5.8926463 13.689136 -0.78106189 13 6 -0.056358397
2.4149637 5.6074858 1.4095433 15 14 -0.056356095
6.1364598 14.241865 -0.27068684 34 7 -0.056353789
2.0334835 4.7171593 1.3763998 39 15 -0.056351487
1.6734214 3.8689041 -1.1294864 11 0 -0.056330748
8.3110342 19.205683 0.36527887 79 8 -0.056328446
1.9960179 4.6103148 -1.1598476 1 1 -0.05632614
7.824151 18.063259 1.0316465 18 9 -0.056323837
2.510324 5.7954702 -1.2276652 2 2 -0.056321532
5.6905885 13.131318 1.2520794 19 10 -0.056319229
3.6850488 8.4871798 1.4654782 31 12 -0.056310013
3.1069646 7.1523633 1.5157868 26 13 -0.056305405
5.9555106 13.703291 -0.78305066 12 6 -0.056303103
2.4174287 5.5597043 1.3996454 41 14 -0.056300797
6.1598086 14.159848 -0.26953498 34 7 -0.056298494
2.0591853 4.7312903 1.3826115 26 15 -0.056296188
1.6876903 3.8648093 -1.130004 13 0 -0.056275453
8.3852339 19.193045 0.36559302 76 8 -0.056273147
2.0152194 4.6104622 -1.1616472 1 1 -0.056270845
7.891161 18.044985 1.0321698 9 9 -0.056268543
2.5179541 5.7578907 -1.2215593 2 2 -0.056266237
5.7403865 13.120499 1.2529509 19 10 -0.056263935
3.4036694 7.7758908 -1.344398 1 3 -0.056261629
4.5398021 10.36653 1.3895544 21 11 -0.056259327
3.7202017 8.4869299 1.4676683 35 12 -0.056254718
6.0694971 13.846398 -1.3226755 1 5 -0.056252412
3.1279716 7.132484 1.5138787 31 13 -0.05625011
6.0554724 13.8013 -0.78985435 19 6 -0.056247804
2.4195876 5.5119767 1.3897476 46 14 -0.056245502
6.1826668 14.077837 -0.26838309 40 7 -0.056243196
2.3873146 5.4333024 1.5901842 24 15 -0.056240894
1.7035094 3.864197 -1.1315569 9 0 -0.056220159
8.4562101 19.172808 0.36576751 76 8 -0.056217853
2.0218594 4.582006 -1.1562485 1 1 -0.056215551
7.9582109 18.035166 1.0331119 18 9 -0.056213245
2.5269387 5.7239213 -1.2162166 2 2 -0.056210943
5.7837334 13.094914 1.2524281 23 10 -0.056208637
3.4307897 7.7639637 -1.344398 1 3 -0.056206334
3.7507207 8.4799671 1.4686069 34 12 -0.05619942
6.1177902 13.825129 -1.3226755 1 5 -0.056197118
6.1141229 13.803819 -0.79121506 22 6 -0.05619251
2.4253929 5.473208 1.3820993 43 14 -0.056190204
6.2058263 14.004237 -0.26737088 42 7 -0.056187902
2.4108014 5.4377184 1.5938078 16 15 -0.056185596
1.7169869 3.8582275 -1.1315569 11 0 -0.056164861
8.5327568 19.173889 0.36632603 93 8 -0.056162558
2.043385 4.5895171 -1.1598476 1 1 -0.056160253
8.0113611 17.985384 1.0318558 18 9 -0.05615795
2.5309191 5.6792016 -1.2085842 2 2 -0.056155644
5.8367133 13.091021 1.2539967 26 10 -0.056153342
3.4565194 7.7525425 -1.344398 1 3 -0.056151036
3.781106 8.468626 1.4689198 33 12 -0.056144126
2.8041146 6.277493 1.3364263 3 13 -0.056139518
6.2128372 13.901991 -0.79801875 10 6 -0.056137212
2.4156885 5.4028702 1.3663527 61 14 -0.056134909
6.2701836 14.017174 -0.26803407 46 7 -0.056132607
2.4266102 5.4222169 1.5917372 13 15 -0.056130301
1.7305622 3.854275 -1.1320745 12 0 -0.056109566
8.6094627 19.16588 0.36674488 93 8 -0.05610726
2.054599 4.571692 -1.1571481 1 1 -0.056104958
8.0773735 17.964594 1.0322745 18 9 -0.056102652
2.5771103 5.731658 -1.2215593 2 2 -0.05610035
5.8833594 13.078863 1.2546941 23 10 -0.056098044
3.4835582 7.7404308 -1.344398 1 3 -0.056095742
3.8098307 8.4535761 1.4686069 34 12 -0.056088828
3.2028635 7.103476 1.5146419 25 13 -0.056084223
6.2843251 13.931193 -0.80094957 10 6 -0.056081917
2.4385431 5.4032855 1.3686022 18 14 -0.056079615
6.3347063 14.029831 -0.26869726 44 7 -0.056077309
2.4471145 5.4172339 1.5927725 20 15 -0.056075007
1.7400196 3.8394127 -1.1294864 10 0 -0.056054268
8.6870422 19.159388 0.36719865 90 8 -0.056051966
2.072156 4.5680413 -1.158048 1 1 -0.05604966
8.1400375 17.936287 1.0322745 18 9 -0.056047358
2.5889902 5.7047491 -1.2177432 2 2 -0.056045052
5.9215608 13.041921 1.2531252 21 10 -0.056042749
3.5105581 7.7282228 -1.344398 1 3 -0.056040443
3.8376822 8.4366283 1.4679812 34 12 -0.056033533
3.2292681 7.0958261 1.5154052 26 13 -0.056028925
6.0614491 13.312965 -0.76661718 78 6 -0.056026623
2.5002022 5.4887319 1.392447 13 14 -0.056024317
6.4052052 14.054942 -0.26960477 42 7 -0.056022014
2.1414256 4.6967635 1.383129 1 15 -0.056019709
1.7526066 3.8315589 -1.1289687 11 0 -0.055998974
8.7621946 19.147127 0.36754769 90 8 -0.055996668
2.0978227 4.5820436 -1.1634469 1 1 -0.055994365
8.2044563 17.920092 1.0329025 18 9 -0.055992059
2.6056159 5.6885376 -1.2162166 2 2 -0.055989757
5.9687138 13.024793 1.2534739 21 10 -0.055987455
3.5259898 7.6907811 -1.3400177 1 3 -0.055985149
4.6826482 10.208959 1.3790736 8 11 -0.055982847
3.8664606 8.4256516 1.4682941 33 12 -0.055978239
3.2474606 7.0702386 1.5123522 25 13 -0.05597363
6.1087203 13.293539 -0.76672184 66 6 -0.055971324
2.8115761 6.1156125 1.5539619 43 14 -0.055969022
6.4768405 14.088129 -0.27065191 44 7 -0.055966716
2.1715207 4.7212276 1.3924465 43 15 -0.055964414
1.7684007 3.8306792 -1.1305215 14 0 -0.055943679
8.8323507 19.132486 0.36782691 90 8 -0.055941373
2.1097383 4.5679841 -1.1616472 1 1 -0.055939071
8.2719812 17.902224 1.0335306 18 9 -0.055936765
2.6501725 5.7328687 -1.2276652 2 2 -0.055934463
6.0149822 13.005686 1.2536482 21 10 -0.055932157
3.5630813 7.7041483 -1.344398 1 3 -0.055929855
4.7206421 10.202383 1.3802923 9 11 -0.055927549
3.900001 8.4210663 1.4698585 34 12 -0.05592294
6.3976254 13.807752 -1.3313911 1 5 -0.055920638
2.9102063 6.2809877 1.3455851 10 13 -0.055918332
2.8310194 6.1044874 1.553512 42 14 -0.055913724
6.5503755 14.118044 -0.27166417 46 7 -0.055911422
2.5109003 5.4092717 1.5979488 48 15 -0.055909116
1.7859863 3.8353021 -1.1336274 11 0 -0.055888381
8.9100466 19.125111 0.36828068 86 8 -0.055886079
2.1223767 4.5535269 -1.1598476 1 1 -0.055883773
8.3259859 17.855137 1.0324838 12 9 -0.05588147
2.6525733 5.6884632 -1.2200328 2 2 -0.055879164
6.0648069 13.000115 1.2550427 19 10 -0.055876862
3.5899503 7.6916642 -1.344398 1 3 -0.055874556
4.7604289 10.194836 1.381511 11 11 -0.055872254
3.9310431 8.4109802 1.4704841 34 12 -0.055867646
3.2988374 7.0550838 1.5138787 25 13 -0.055863038
4.5631938 9.7546597 -0.56439102 1 6 -0.055860732
2.8506575 6.0910387 1.5526122 42 14 -0.05585843
6.6284509 14.156665 -0.27285093 40 7 -0.055856124
2.532227 5.4057212 1.5995017 58 15 -0.055853821
1.8026488 3.8360386 -1.135698 12 0 -0.055833086
8.9844141 19.110178 0.36859483 82 8 -0.05583078
2.1316245 4.5319834 -1.1562485 1 1 -0.055828478
8.3899584 17.829582 1.0326931 15 9 -0.055826172
2.6724126 5.6791701 -1.2200328 2 2 -0.05582387
6.1084552 12.97526 1.2546941 19 10 -0.055821564
3.6167796 7.6790853 -1.344398 1 3 -0.055819262
4.8374457 10.266148 1.3934542 1 11 -0.055816956
4.5582108 9.6691713 -1.3125329 27 4 -0.055814654
3.9612236 8.3989925 1.4707971 38 12 -0.055812348
4.569016 9.6876965 -0.93709856 10 5 -0.055810045
3.3251181 7.0470772 1.5146419 27 13 -0.055807739
4.5690737 9.6790733 -0.56093681 19 6 -0.055805437
6.6966238 14.173216 -0.27361882 46 7 -0.055800829
2.557682 5.4108233 1.6036428 56 15 -0.055798527
1.8118906 3.8209949 -1.1331098 15 0 -0.055777788
9.0613565 19.100378 0.3690137 82 8 -0.055775486
2.147428 4.5245166 -1.1562485 1 1 -0.05577318
8.4538612 17.803791 1.0329025 18 9 -0.055770878
2.6585374 5.5988669 -1.2047681 2 2 -0.055768572
6.1520038 12.950257 1.2543454 14 10 -0.05576627
3.6435573 7.6664162 -1.344398 1 3 -0.055763964
4.8434196 10.186451 1.3849233 4 11 -0.055761661
4.5493007 9.56357 -1.3003459 19 4 -0.055759355
3.9879653 8.3797674 1.4698585 37 12 -0.055757053
4.559989 9.5817394 -0.92838293 18 5 -0.055754751
3.041651 6.3884296 1.3753513 27 13 -0.055752445
4.5547366 9.562088 -0.55507523 23 6 -0.055750143
2.511667 5.2705541 1.3479067 39 14 -0.055747837
6.76929 14.198492 -0.27456126 44 7 -0.055745535
2.5765553 5.4018617 1.6036428 56 15 -0.055743229
1.8202153 3.8041904 -1.130004 12 0 -0.055722494
9.1391945 19.092081 0.36946744 75 8 -0.055720188
2.1632097 4.5169926 -1.1562485 1 1 -0.055717885
8.5245914 17.792185 1.0339493 18 9 -0.05571558
2.6865492 5.6072569 -1.2085842 2 2 -0.055713277
6.1963072 12.926908 1.2541711 16 10 -0.055710975
3.6702976 7.6536503 -1.344398 1 3 -0.055708669
4.8823848 10.17664 1.3858984 22 11 -0.055706367
4.5448594 9.4688892 -1.2896215 18 4 -0.055704061
4.0171943 8.3657942 1.4698585 37 12 -0.055701759
4.5451131 9.4651833 -0.91862154 19 5 -0.055699453
3.0188761 6.2839813 1.3551255 5 13 -0.055697151
4.5474205 9.461524 -0.55015558 27 6 -0.055694845
2.5393374 5.2810745 1.3528557 37 14 -0.055692542
6.8482885 14.236044 -0.27574804 42 7 -0.055690236
2.5962322 5.3945765 1.6041605 50 15 -0.055687934
1.8385203 3.8082533 -1.1331098 12 0 -0.055667195
9.123167 18.888998 0.36615151 41 8 -0.055664893
2.1823561 4.5164313 -1.158048 1 1 -0.055662591
8.5935879 17.776711 1.0347867 21 9 -0.055660285
2.7266095 5.6402693 -1.2177432 2 2 -0.055657983
6.2466006 12.91596 1.255217 21 10 -0.055655677
3.6969936 7.6407909 -1.344398 1 3 -0.055653375
4.9109521 10.145245 1.3839484 19 11 -0.055651069
4.5311651 9.3564892 -1.2764597 18 4 -0.055648766
4.5381665 9.3667803 -0.91060323 18 5 -0.055644158
3.0818954 6.3582063 1.3734432 13 13 -0.055641852
4.5281343 9.3377647 -0.54387528 30 6 -0.05563955
2.5611601 5.279191 1.3546553 45 14 -0.055637244
6.920639 14.258828 -0.27665555 40 7 -0.055634942
1.8509574 3.8000751 -1.1325922 14 0 -0.055611901
9.0935593 18.661097 0.36234686 36 8 -0.055609599
2.1929834 4.4982767 -1.1553485 2 1 -0.055607293
8.6468382 17.728653 1.0337399 18 9 -0.055604991
2.7428398 5.6236572 -1.2162166 2 2 -0.055602685
6.2968874 12.904821 1.2562628 23 10 -0.055600382
3.7236409 7.62784 -1.344398 1 3 -0.055598076
4.9402409 10.115553 1.3822422 16 11 -0.055595774
4.5237131 9.2585697 -1.2652477 18 4 -0.055593468
4.0859103 8.3588409 1.4736128 35 12 -0.055591166
4.5323348 9.2721233 -0.90293348 19 5 -0.05558886
3.0928571 6.3244824 1.3684822 6 13 -0.055586558
4.5124288 9.2232285 -0.53811836 31 6 -0.055584252
2.5821414 5.2754703 1.356005 41 14 -0.05558195
7.0002666 14.295648 -0.27784231 42 7 -0.055579644
2.2904739 4.6754365 1.3950348 1 15 -0.055577341
1.8701741 3.8057277 -1.1362157 15 0 -0.055556607
9.0686502 18.446199 0.35878655 38 8 -0.055554301
2.2138336 4.5010858 -1.158048 1 1 -0.055551998
8.7064667 17.70167 1.0338446 18 9 -0.055549692
2.7537842 5.5964336 -1.2124004 2 2 -0.05554739
6.3454189 12.889912 1.2569602 23 10 -0.055545084
3.7502465 7.6147943 -1.344398 1 3 -0.055542782
4.9799047 10.10715 1.3834609 16 11 -0.055540476
4.5122709 9.1580467 -1.2535481 25 4 -0.055538174
4.1101155 8.3381567 1.4723614 41 12 -0.055535868
4.5276637 9.1811934 -0.89561236 16 5 -0.055533566
3.1123075 6.3083668 1.3673373 22 13 -0.05553126
4.5277987 9.1733932 -0.53612959 73 6 -0.055528957
2.6047978 5.2773623 1.3587044 22 14 -0.055526651
9.0441732 18.315586 -0.35655266 29 7 -0.055524349
2.6918612 5.4489613 1.6284895 3 15 -0.055522047
1.8776387 3.7891188 -1.1331098 9 0 -0.055501308
9.0453959 18.245819 0.3554706 37 8 -0.055499006
2.2287467 4.4937201 -1.158048 1 1 -0.0554967
8.7651167 17.672703 1.0338446 18 9 -0.055494398
2.7548766 5.5520973 -1.2047681 2 2 -0.055492092
6.3898973 12.872369 1.2573087 23 10 -0.05548979
4.5275836 9.116765 -1.6122139 1 3 -0.055487484
5.0142798 10.092358 1.3837045 16 11 -0.055485182
4.5284858 9.1145887 -1.2496483 82 4 -0.055482876
4.1280694 8.3050241 1.4689198 34 12 -0.055480573
4.5296955 9.1090431 -0.89003444 42 5 -0.055478267
3.1340857 6.2997675 1.3677189 29 13 -0.055475965
4.5573025 9.1565418 -0.53602493 71 6 -0.055473663
2.628361 5.2809081 1.3618537 20 14 -0.055471357
9.0201817 18.115442 -0.35323673 84 7 -0.055469055
2.6754591 5.3708377 1.607784 45 15 -0.055466749
1.887602 3.7776873 -1.1315569 15 0 -0.055446014
9.0629387 18.129864 0.3537952 100 8 -0.055443708
2.2384076 4.4758463 -1.1553485 1 1 -0.055441406
8.813344 17.61521 1.0322745 3 9 -0.0554391
2.7820563 5.5604892 -1.2085842 2 2 -0.055436797
6.430769 12.847543 1.2569602 26 10 -0.055434491
4.5524864 9.0911026 -1.6103365 1 3 -0.055432189
5.0512743 10.082774 1.3846796 17 11 -0.055429887
4.5620551 9.1022739 -1.2501358 73 4 -0.055427581
4.1658912 8.3082218 1.4720485 35 12 -0.055425279
4.561666 9.0975323 -0.89038306 67 5 -0.055422973
3.1637611 6.3068891 1.3715351 25 13 -0.055420671
4.6037693 9.1735086 -0.53790903 73 6 -0.055418365
2.6494033 5.2769256 1.3632034 11 14 -0.055416062
9.0959234 18.108864 -0.35372537 100 7 -0.055413757
1.9042563 3.7779756 -1.1336274 10 0 -0.055390716
9.133359 18.112408 0.35407442 100 8 -0.055388413
2.2575274 4.4749656 -1.1571481 1 1 -0.055386111
8.9206772 17.675268 1.0376127 9 9 -0.055383805
2.8014505 5.5507436 -1.2085842 2 2 -0.055381503
6.4836555 12.841025 1.2585289 26 10 -0.055379197
4.5877528 9.0822086 -1.611588 1 3 -0.055376895
5.0846515 10.061537 1.3841921 21 11 -0.055374589
4.6027551 9.1040106 -1.2525733 73 4 -0.055372287
4.1948652 8.2936306 1.4720485 27 12 -0.055369981
4.5996871 9.0939999 -0.89160323 55 5 -0.055367678
3.191077 6.3063169 1.3738248 5 13 -0.055365372
4.6339564 9.1538191 -0.53769964 75 6 -0.05536307
9.1672182 18.093054 -0.35403952 100 7 -0.055358462
2.6936736 5.3141198 1.596396 39 15 -0.055356156
1.9183073 3.7730281 -1.1341451 12 0 -0.055335421
9.201972 18.091108 0.35428387 81 8 -0.055333119
2.2731354 4.4670572 -1.1571481 1 1 -0.055330813
8.9832239 17.645805 1.0377175 15 9 -0.055328511
2.8279338 5.5549288 -1.2116373 2 2 -0.055326205
6.5338621 12.828969 1.2595748 28 10 -0.055323903
4.6391602 9.1048594 -1.6184711 1 3 -0.055321597
5.115232 10.034884 1.3829734 22 11 -0.055319294
4.6363077 9.0914268 -1.2530607 73 4 -0.055316988
4.2228942 8.2771749 1.4717356 16 12 -0.055314686
4.642271 9.099184 -0.893695 53 5 -0.05531238
3.2416334 6.3510962 1.3860366 9 13 -0.055310078
4.6695123 9.1447039 -0.53811836 75 6 -0.055307772
3.0629528 5.9958506 1.5544118 42 14 -0.05530547
9.2403345 18.080528 -0.35442346 45 7 -0.055303164
2.7113266 5.3029652 1.5958784 37 15 -0.055300862
1.9305851 3.7645891 -1.1336274 14 0 -0.055280127
9.2796764 18.087343 0.35484233 37 8 -0.055277821
2.2833724 4.4486952 -1.1544489 1 1 -0.055275518
9.0319967 17.589464 1.036252 12 9 -0.055273212
2.8616569 5.5729666 -1.2177432 2 2 -0.05527091
6.5813384 12.811399 1.2600977 26 10 -0.055268604
4.6654897 9.0780716 -1.616594 1 3 -0.055266302
5.1574931 10.03109 1.3849233 26 11 -0.055263996
4.6734648 9.0857773 -1.2545232 73 4 -0.055261694
3.7699978 7.3261938 1.3049763 1 12 -0.055259388
4.6803799 9.0953283 -0.89491516 64 5 -0.055257086
3.5441504 6.8843455 1.5051014 33 13 -0.05525478
4.7132955 9.1514301 -0.53947908 78 6 -0.055252478
3.0838594 5.9851246 1.5544118 42 14 -0.055250172
9.3391199 18.117487 -0.35578477 79 7 -0.055247869
2.3614779 4.5792017 1.3805408 5 15 -0.055245563
1.9417056 3.7523406 -1.1320745 12 0 -0.055747271
9.3578548 18.0763 0.35529611 40 8 -0.055744968
2.31042 4.4610596 -1.1598476 1 1 -0.055742662
9.055685 17.485113 1.0319605 81 9 -0.05574036
2.8730307 5.5450087 -1.2139269 2 2 -0.055738054
6.621829 12.77481 1.2588775 14 10 -0.055735752
4.715107 9.092474 -1.6222256 1 3 -0.055733446
5.1997066 10.022693 1.3863858 26 11 -0.055731144
4.7140484 9.0826836 -1.2564731 72 4 -0.055728838
3.7891803 7.3007154 1.3027864 2 12 -0.055726536
4.7201185 9.0904884 -0.89613533 67 5 -0.05572423
3.3150499 6.3817468 1.3978667 41 13 -0.055721927
4.7523298 9.1447287 -0.54010713 68 6 -0.055719621
3.1057796 5.9737792 1.5544118 42 14 -0.055717319
9.4124565 18.10429 -0.35616872 76 7 -0.055715013
2.3774467 4.570931 1.3805408 1 15 -0.055712711
1.9512178 3.7386892 -1.130004 12 0 -0.055691976
9.4196014 18.04871 0.3553659 40 8 -0.05568967
2.3161805 4.4360995 -1.1553485 1 1 -0.055687368
9.1295986 17.478186 1.0334258 75 9 -0.055685062
2.8923702 5.534946 -1.2139269 2 2 -0.05568276
6.6922307 12.801054 1.2637583 2 10 -0.055680454
4.7507224 9.0872917 -1.6241028 1 3 -0.055678152
5.235673 10.010673 1.387117 29 11 -0.055675846
4.7515063 9.0810709 -1.258423 73 4 -0.055673543
3.8164756 7.2909441 1.3034122 2 12 -0.055671237
4.7555122 9.0810194 -0.89683259 66 5 -0.055668935
3.5128846 6.7081256 1.4719007 23 13 -0.055666629
4.7937536 9.1501474 -0.54136318 81 6 -0.055664327
9.4904394 18.099667 -0.35672718 76 7 -0.055659719
2.7658136 5.2725706 1.5953608 33 15 -0.055657413
1.9654033 3.7356181 -1.1310393 15 0 -0.055636678
9.495573 18.040501 0.35585457 40 8 -0.055634376
2.3352821 4.434885 -1.1571481 1 1 -0.05563207
9.2054529 17.474483 1.0351007 34 9 -0.055629767
2.8978972 5.5010066 -1.2085842 2 2 -0.055627462
6.7160687 12.743539 1.260272 21 10 -0.055625159
4.7879391 9.0811386 -1.6259799 1 3 -0.055622853
5.2650309 9.9818001 1.3856546 21 11 -0.055620551
4.7933693 9.0837412 -1.2611041 57 4 -0.055618245
3.8483567 7.2898073 1.3056022 3 12 -0.055615943
4.7949038 9.082818 -0.89857566 67 5 -0.055613637
3.6343834 6.8815751 1.5127338 23 13 -0.055611335
4.8238006 9.1298246 -0.54115385 82 6 -0.055609029
3.1527419 5.9645624 1.557561 40 14 -0.055606727
9.5675888 18.092943 -0.35725078 83 7 -0.055604424
2.4074955 4.550806 1.3795056 15 15 -0.055602118
1.9838631 3.7389746 -1.1341451 9 0 -0.055581383
9.5697441 18.028437 0.35627344 40 8 -0.055579077
2.337954 4.4026098 -1.1508496 1 1 -0.055576775
9.2626419 17.43519 1.0346819 40 9 -0.055574469
2.9391868 5.5324693 -1.2177432 2 2 -0.055572167
6.7698526 12.737616 1.2620151 26 10 -0.055569861
4.8307405 9.0852985 -1.6297344 1 3 -0.055567559
5.2933135 9.9510937 1.3839484 11 11 -0.055565253
4.8287725 9.073966 -1.2620791 67 4 -0.055562951
3.8793511 7.2867904 1.3074795 3 12 -0.055560648
4.8359447 9.0836105 -0.90031886 68 5 -0.055558342
3.4027405 6.3888593 1.4070257 7 13 -0.05555604
4.861269 9.1235113 -0.54178184 85 6 -0.055553734
3.1707942 5.9483604 1.5562114 45 14 -0.055551432
9.6457462 18.087664 -0.35780925 79 7 -0.055549126
2.4306376 4.5560117 1.3836466 48 15 -0.055546824
1.9941691 3.7269158 -1.1325922 12 0 -0.055526085
9.6439457 18.016075 0.35669228 40 8 -0.055523783
2.3717062 4.428781 -1.1598476 1 1 -0.055521477
9.3336124 17.429024 1.0361474 34 9 -0.055519175
2.9492109 5.5048695 -1.2139269 2 2 -0.055516869
6.8142772 12.713904 1.2620151 28 10 -0.055514567
4.8792248 9.0997181 -1.6353661 1 3 -0.055512264
5.3383412 9.9517965 1.3866295 29 11 -0.055509958
4.8669901 9.0692987 -1.2637852 66 4 -0.055507656
3.896019 7.2599611 1.3049763 3 12 -0.05550535
4.8770452 9.0842295 -0.90206194 53 5 -0.055503048
3.3757854 6.285275 1.3867998 1 13 -0.055500742
4.9006515 9.1205597 -0.54261923 82 6 -0.05549844
3.1878467 5.9303908 1.5544118 45 14 -0.055496134
9.7132454 18.069672 -0.35808849 79 7 -0.055493832
2.4503088 4.5564327 1.3862349 26 15 -0.055491526
2.0053325 3.7165313 -1.1315569 13 0 -0.055470791
9.7235823 18.02095 0.3574253 20 8 -0.055468485
2.3808248 4.410603 -1.1571481 1 1 -0.055466183
9.4114742 17.427973 1.0380315 71 9 -0.05546388
3.0020041 5.5567231 -1.2276652 2 2 -0.055461574
6.858613 12.690042 1.2620151 26 10 -0.055459272
4.9168859 9.0973921 -1.637869 1 3 -0.055456966
5.3769765 9.9445171 1.3880919 29 11 -0.055454664
4.9036522 9.0653296 -1.2654914 69 4 -0.055452358
3.9269767 7.2567415 1.3068537 3 12 -0.055450056
4.9144144 9.0776634 -0.90310776 67 5 -0.05544775
3.3685679 6.2222524 1.3753513 1 13 -0.055445448
4.9413347 9.1235752 -0.54377061 96 6 -0.055443142
3.207494 5.9197879 1.5544118 45 14 -0.055440839
5.2345238 9.6568737 -0.19173212 25 7 -0.055438533
2.4698834 4.5546436 1.3883054 46 15 -0.055436231
2.015799 3.7064669 -1.1305215 11 0 -0.055415496
5.2496901 9.6486378 0.19173212 76 8 -0.05541319
2.3962073 4.4022651 -1.1571481 1 1 -0.055410888
9.4865828 17.421322 1.0396016 84 9 -0.055408582
2.986613 5.4846668 -1.2139269 2 2 -0.05540628
6.8987546 12.663728 1.2616665 28 10 -0.055403974
4.9410515 9.0662956 -1.6353661 1 3 -0.055401672
5.4116592 9.9256859 1.3880919 29 11 -0.055399366
4.946671 9.0690718 -1.2684163 75 4 -0.055397063
3.9503934 7.239521 1.3062279 3 12 -0.055394758
4.9483104 9.0683117 -0.90380508 71 5 -0.055392455
3.3451157 6.1277413 1.3570337 1 13 -0.055390149
4.9607053 9.0834837 -0.5424099 23 6 -0.055387847
5.2499814 9.6052027 -0.19106895 27 7 -0.055383239
2.1697159 3.9679995 1.2117908 10 15 -0.055380933
2.0315106 3.7044899 -1.1320745 15 0 -0.055360198
5.0390315 9.1849461 0.18286632 31 8 -0.055357896
2.4078081 4.3870411 -1.1553485 1 1 -0.05535559
9.5636749 17.417866 1.041381 100 9 -0.055353288
2.9925098 5.4501157 -1.2085842 2 2 -0.055350982
6.9467516 12.646556 1.2623638 26 10 -0.055348679
4.972671 9.0489912 -1.6353661 1 3 -0.055346373
5.4462709 9.9067364 1.3880919 29 11 -0.055344071
4.9658599 9.0291376 -1.2652477 70 4 -0.055341765
3.975642 7.225687 1.3062279 5 12 -0.055339463
4.958807 9.012579 -0.89997017 67 5 -0.055337157
3.3929913 6.164185 1.3677189 1 13 -0.055334855
4.9326491 8.9576426 -0.53592026 8 6 -0.055332549
3.2572093 5.9126115 1.558461 21 14 -0.055330247
4.9881253 9.050909 -0.18038808 35 7 -0.055327944
2.8803148 5.224143 1.5984664 39 15 -0.055325639
2.047235 3.7024479 -1.1336274 15 0 -0.055304904
4.9887848 9.0185671 0.17989941 28 8 -0.055302598
2.4193339 4.3717885 -1.153549 1 1 -0.055300295
9.6321602 17.398354 1.0422183 100 9 -0.055297989
3.0115175 5.4396362 -1.2085842 4 2 -0.055295687
6.9966426 12.632689 1.2634096 26 10 -0.055293381
4.0659938 7.3382664 -1.3287545 1 3 -0.055291079
5.4798594 9.8859282 1.3878481 29 11 -0.055288773
4.9366951 8.90238 -1.2498921 22 4 -0.055286471
4.006588 7.2221303 1.3081051 7 12 -0.055284165
4.9419079 8.9081039 -0.89125466 28 5 -0.055281863
3.7850914 6.8200617 1.5161684 12 13 -0.05527956
4.9095969 8.8425827 -0.53005862 8 6 -0.055277254
3.2797196 5.9046135 1.5593606 43 14 -0.055274952
4.9798679 8.9617758 -0.17895699 38 7 -0.055272646
2.8994708 5.2157464 1.5989841 37 15 -0.055270344
2.0592053 3.6935923 -1.1331098 9 0 -0.055249605
4.9715347 8.9137745 0.17815416 28 8 -0.055247303
2.4421747 4.3769312 -1.1571481 1 1 -0.055244997
9.7006168 17.378578 1.0430557 69 9 -0.055242695
3.0180464 5.406806 -1.2036232 9 2 -0.055240389
7.0426426 12.611667 1.2637583 26 10 -0.055238087
4.0915828 7.3240294 -1.3287545 1 3 -0.055235781
5.5104585 9.8598089 1.3868732 26 11 -0.055233479
4.9105864 8.7828646 -1.2355115 22 4 -0.055231176
4.0288825 7.2029271 1.3071665 8 12 -0.05522887
4.9301801 8.8142872 -0.88358492 28 5 -0.055226568
3.6411023 6.5069866 1.4493852 42 13 -0.055224262
4.9179931 8.7853098 -0.52765119 10 6 -0.05522196
3.2955513 5.8846269 1.5571113 42 14 -0.055219654
