# .PCD v0.7 - Point Cloud Data file format
VERSION 0.7
FIELDS x y z intensity ring time
SIZE 4 4 4 4 2 4
TYPE F F F F U F
COUNT 1 1 1 1 1 1
WIDTH 962
HEIGHT 1
VIEWPOINT 0 0 0 1 0 0 0
POINTS 962
DATA ascii
6.4343748 4.3514895 0.95374954 84 11 -0.0078998627
6.0864911 4.1146679 -0.90207696 1 4 -0.0078975586
6.5713377 4.440774 1.256169 18 12 -0.0078952545
6.1987262 4.188971 -0.65453959 1 5 -0.0078929504
6.134831 4.1442323 1.4390815 20 13 -0.0078906463
6.3312092 4.2752771 -0.40037012 1 6 -0.0078883432
5.2235508 3.525985 1.4549835 1 14 -0.0078860391
6.6487427 4.4863248 -0.1400032 1 7 -0.007883735
5.036962 3.3974724 1.6279719 28 15 -0.0078814309
3.3708911 2.2677069 -1.088593 11 0 -0.007860695
6.4466991 4.3352723 0.1356052 55 8 -0.0078583909
3.988234 2.6809919 -1.1094586 8 1 -0.0078560868
6.422122 4.315486 0.40549901 48 9 -0.0078537827
4.8967237 3.2904613 -1.1467621 7 2 -0.0078514786
6.4369841 4.3238468 0.67842031 27 10 -0.0078491746
5.7628603 3.8695614 -1.0994215 45 3 -0.0078468705
6.5269938 4.3809981 0.96520531 40 11 -0.0078445664
6.6975436 4.4937825 -0.99031037 38 4 -0.0078422632
6.4489937 4.3253794 1.229888 40 12 -0.0078399591
6.2066932 4.1628671 -0.65384239 1 5 -0.007837655
6.6710753 4.4726429 1.5611992 29 13 -0.0078353509
6.3494091 4.2553797 -0.40057945 1 6 -0.0078330468
5.2714453 3.5315907 1.4648812 7 14 -0.0078307427
6.848793 4.5865984 -0.14387764 7 7 -0.0078284387
5.0728688 3.3959935 1.6357363 43 15 -0.0078261346
3.3868191 2.261291 -1.0911812 12 0 -0.0078053987
6.4235387 4.287209 0.13480239 47 8 -0.0078030946
3.9943244 2.6648939 -1.1085589 8 1 -0.0078007909
6.4554243 4.3052335 0.40665042 100 9 -0.0077984869
4.9032788 3.2700813 -1.1456172 7 2 -0.0077961828
6.4255142 4.2836661 0.67563128 18 10 -0.0077938787
5.7697582 3.8450384 -1.09817 46 3 -0.0077915746
6.4794664 4.3163681 0.95594323 42 11 -0.007789271
6.729713 4.4813771 -0.99274784 50 4 -0.0077869669
6.5544953 4.3630428 1.2470957 12 12 -0.0077846628
6.2079196 4.1323423 -0.65244788 7 5 -0.0077823587
6.2126479 4.1339297 1.4505301 18 13 -0.0077800546
6.3209887 4.2044287 -0.39785796 1 6 -0.007777751
5.3097062 3.5304306 1.4720796 8 14 -0.0077754469
6.4467459 4.2848315 -0.13511653 10 7 -0.0077731428
4.4909425 2.9837766 1.444728 45 15 -0.0077708387
3.3946924 2.2494543 -1.0911812 12 0 -0.0077501028
6.42346 4.2548232 0.13448824 30 8 -0.0077477987
3.9971032 2.64663 -1.1067592 9 1 -0.0077454946
6.4820724 4.2903886 0.40738311 42 9 -0.007743191
4.9261246 3.2605298 -1.1482886 7 2 -0.0077408869
6.4404268 4.2612123 0.67563128 20 10 -0.0077385828
5.7765522 3.8205202 -1.0969186 49 3 -0.0077362787
10.005032 6.6146536 1.4726692 54 11 -0.0077339746
6.2385454 4.1229463 -0.91816372 24 4 -0.007731671
6.5037541 4.296587 1.2345809 27 12 -0.0077293669
6.2821493 4.150188 -0.65872312 13 5 -0.0077270628
6.1844463 4.0840878 1.4406079 26 13 -0.0077247587
6.2956233 4.1559296 -0.39534587 1 6 -0.0077224546
5.3041029 3.500072 1.4671308 21 14 -0.007720151
6.7688065 4.4649005 -0.14153902 1 7 -0.0077178469
5.1029062 3.3647466 1.6378069 46 15 -0.0077155428
3.4089785 2.2418387 -1.0932516 14 0 -0.0076948069
6.408196 4.2126012 0.13385996 20 8 -0.0076925028
4.014461 2.6380112 -1.1090087 9 1 -0.0076901987
6.5120306 4.2776093 0.40832517 29 9 -0.0076878946
4.9292698 3.2379286 -1.1463805 7 2 -0.0076855905
6.4452705 4.232142 0.6745854 18 10 -0.0076832869
5.7848992 3.7970791 -1.09598 55 3 -0.0076809828
10.036355 6.5851412 1.473888 73 11 -0.0076786787
6.7707939 4.4408178 -0.99421012 34 4 -0.0076763746
6.4460268 4.2262015 1.2208147 56 12 -0.007674071
6.2999306 4.1304169 -0.65907168 27 5 -0.0076717669
6.1789598 4.0495629 1.4360286 23 13 -0.0076694628
6.3034081 4.1295519 -0.39492717 7 6 -0.0076671587
5.3293314 3.4900751 1.4707299 71 14 -0.0076648546
6.5802336 4.3076262 -0.13728063 7 7 -0.0076625505
5.1194692 3.3500881 1.6393598 46 15 -0.0076602469
3.3973703 2.2172549 -1.0870401 12 0 -0.0076395106
6.4061155 4.1792793 0.13351092 77 8 -0.0076372069
4.0236444 2.6239831 -1.1090087 9 1 -0.0076349028
14.880896 9.7044411 0.93105674 30 9 -0.0076325987
4.9109387 3.2014024 -1.1395113 4 2 -0.0076302947
6.4216127 4.184598 0.67057627 36 10 -0.0076279906
5.7997727 3.7779424 -1.0962929 61 3 -0.0076256869
6.8154249 4.4378395 -0.99859744 42 4 -0.0076210788
6.8186531 4.436553 -0.71171379 6 5 -0.0076164706
6.2769914 4.0825615 1.4554911 45 13 -0.0076141669
6.378067 4.1467137 -0.39869535 0 6 -0.0076118628
5.3572145 3.4830041 1.4752289 26 14 -0.0076095588
6.581068 4.2770653 -0.1370014 3 7 -0.0076072547
5.1305499 3.3330939 1.6393598 45 15 -0.0076049506
3.4014626 2.2038746 -1.0860047 9 0 -0.0075842147
4.0274158 2.6074495 -1.107659 8 1 -0.007579607
14.981732 9.6995468 0.93534833 100 9 -0.0075773029
4.9330664 3.192565 -1.1421827 6 2 -0.0075749988
6.4488363 4.1719394 0.67197078 27 10 -0.0075726947
5.8056331 3.7543993 -1.0950414 64 3 -0.0075703906
6.2266159 4.0250964 -0.91036409 8 4 -0.0075657829
6.5817575 4.2530437 1.2411512 7 12 -0.0075634788
6.8249607 4.4085097 -0.71084219 38 5 -0.0075611747
6.2674055 4.0468135 1.4501485 44 13 -0.0075588706
6.3431182 4.0941315 -0.39565986 13 6 -0.007556567
5.4997191 3.5497644 1.5112212 84 14 -0.0075542629
6.5901747 4.2519641 -0.13689667 11 7 -0.0075519588
5.1399517 3.3150136 1.6388422 46 15 -0.0075496547
3.4120014 2.1946738 -1.0870401 12 0 -0.0075289188
6.3512716 4.0837097 0.13180058 2 8 -0.0075266147
4.027844 2.5888102 -1.1054094 9 1 -0.0075243106
15.057509 9.6741772 0.9379651 36 9 -0.007522007
4.9502325 3.1804349 -1.1437092 6 2 -0.0075197029
6.4525757 4.1440725 0.6709249 27 10 -0.0075173988
5.8080783 3.7287221 -1.0931642 66 3 -0.0075150947
6.1838202 3.9668922 -0.90207696 1 4 -0.007510487
6.5699568 4.2129836 1.2361453 23 12 -0.0075081829
6.8697309 4.4052138 -0.71397984 32 5 -0.0075058788
6.2642622 4.0154142 1.4463322 40 13 -0.0075035747
7.1722641 4.5956764 -0.44642577 8 6 -0.0075012706
5.7877617 3.7071261 1.5868047 26 14 -0.0074989665
6.5409808 4.1879616 -0.1355703 65 7 -0.0074966629
3.4196408 2.1827509 -1.0870401 12 0 -0.0074736229
6.4126883 4.0916333 0.13277791 2 8 -0.0074713188
4.026999 2.5684462 -1.1027101 9 1 -0.0074690147
15.16697 9.669879 0.94267535 72 9 -0.0074667106
4.9579926 3.1610262 -1.1429459 9 2 -0.007464407
6.4468408 4.1086721 0.66883314 27 10 -0.0074621029
5.8193941 3.7073624 -1.0928513 67 3 -0.0074597988
6.170835 3.9282277 -0.89817715 55 4 -0.0074551906
6.4096336 4.07867 1.203294 51 12 -0.0074528866
6.9203663 4.4036665 -0.71764034 34 5 -0.0074505829
6.8348331 4.3475685 1.574556 31 13 -0.0074482788
6.3017368 4.0069222 -0.3913683 11 6 -0.0074459747
5.3122082 3.3764343 1.4531839 15 14 -0.0074436706
6.5926933 4.1886945 -0.1363382 47 7 -0.007441367
4.5824213 2.9103377 1.4545631 43 15 -0.0074390629
3.433768 2.1749349 -1.0891106 12 0 -0.007418327
6.2951503 3.9857841 0.13005532 7 8 -0.0074160229
4.0474663 2.5616701 -1.1058594 9 1 -0.0074137188
15.242829 9.643568 0.94529212 63 9 -0.0074114148
4.9673386 3.1426492 -1.1425643 4 2 -0.0074091107
6.4207292 4.0605865 0.66464967 27 10 -0.0074068066
5.835638 3.6891387 -1.093477 69 3 -0.0074045029
8.2243748 5.1932106 1.5405668 24 12 -0.0073975907
6.2389383 3.9380009 -0.64547539 14 5 -0.0073952866
6.8566089 4.3278732 1.5760823 27 13 -0.007392983
7.2143064 4.5518904 -0.44705379 0 6 -0.0073906789
5.4887896 3.4618309 1.4981741 12 14 -0.0073883748
6.5768251 4.146461 -0.13570991 49 7 -0.0073860707
4.5860143 2.8902049 1.4524926 43 15 -0.0073837666
3.431901 2.1561692 -1.0860047 11 0 -0.0073630307
4.0497832 2.5433793 -1.1040598 9 1 -0.007358423
15.354215 9.6391478 0.95010704 93 9 -0.0073561189
4.9505529 3.1066825 -1.1360768 6 2 -0.0073538148
6.3899994 4.0084381 0.65994328 42 10 -0.0073515107
5.8457742 3.6656251 -1.0928513 69 3 -0.0073492066
6.3487926 3.9810455 0.92011362 10 11 -0.007346903
7.0155501 4.3974385 -1.0166341 42 4 -0.0073445989
8.250823 5.1697125 1.5421312 18 12 -0.0073422948
6.2121224 3.890816 -0.64129192 14 5 -0.0073399907
6.8657684 4.2985482 1.574556 4 13 -0.0073376866
6.2794576 3.9299386 -0.38822815 0 6 -0.0073353825
5.3164082 3.325932 1.447785 5 14 -0.0073330789
6.6082129 4.1340818 -0.13605896 52 7 -0.0073307748
5.1873722 3.2439516 1.6393598 45 15 -0.0073284707
3.4361286 2.1421318 -1.0849695 11 0 -0.0073077348
6.2522321 3.8962157 0.12858933 25 8 -0.0073054307
4.0640392 2.5316107 -1.1054094 9 1 -0.0073031266
15.462356 9.6319609 0.95471257 84 9 -0.007300823
4.9697003 3.0945702 -1.1379849 4 2 -0.0072985189
6.385345 3.9745283 0.6580258 29 10 -0.0072962148
5.8551788 3.643111 -1.0922256 69 3 -0.0072939107
10.210001 6.3502235 1.4763253 10 11 -0.0072916066
6.1718459 3.8371549 -0.89232743 16 4 -0.0072893025
8.282238 5.1492262 1.5446341 19 12 -0.0072869989
6.2053585 3.8564887 -0.63920021 1 5 -0.0072846948
6.3270717 3.9306002 1.4478587 2 13 -0.0072823907
6.2744727 3.8964064 -0.38707677 2 6 -0.0072800866
5.4819632 3.4029372 1.4896258 43 14 -0.007277783
6.5461488 4.0635324 -0.13448824 43 7 -0.0072754789
5.2003069 3.2268419 1.6398776 48 15 -0.0072731748
3.4402988 2.1280923 -1.0839342 10 0 -0.0072524389
6.2821231 3.8859818 0.12893838 22 8 -0.0072501348
4.0591516 2.5099218 -1.1018102 9 1 -0.0072478307
15.465304 9.5590219 0.95282853 15 9 -0.0072455266
4.9838119 3.0792689 -1.1387482 6 2 -0.0072432226
6.3398495 3.9155736 0.65192497 42 10 -0.0072409189
5.85042 3.6132958 -1.0890969 72 3 -0.0072386148
10.247896 6.326757 1.4787627 15 11 -0.0072363107
7.1052074 4.3848386 -1.0251651 41 4 -0.0072340067
8.2682171 5.1005802 1.5386896 13 12 -0.007231703
6.2594848 3.8599014 -0.64338368 1 5 -0.0072293989
6.3133349 3.8931079 1.4417528 3 13 -0.0072270948
5.8250327 3.5891953 1.5796063 21 14 -0.0072224867
6.5636997 4.0427532 -0.13455805 50 7 -0.0072201826
5.2164755 3.2117071 1.6414305 46 15 -0.0072178789
3.462153 2.1257703 -1.088593 11 0 -0.0071971426
6.2905374 3.8608897 0.12883367 42 8 -0.007194839
4.0662279 2.4947174 -1.1013604 8 1 -0.0071925349
6.2058988 3.8059642 0.38152915 31 9 -0.0071902308
5.0006895 3.0668316 -1.1402746 6 2 -0.0071879267
6.3663888 3.9028568 0.65331942 27 10 -0.0071856226
5.8596296 3.590786 -1.0884712 72 3 -0.007183319
10.285149 6.3002858 1.4809563 14 11 -0.0071810149
7.1441703 4.3745241 -1.0285773 38 4 -0.0071787108
8.3061905 5.0840607 1.542444 34 12 -0.0071764067
7.1532674 4.3766675 -0.73367703 34 5 -0.0071741026
6.3101368 3.8608048 1.4379367 3 13 -0.007171799
6.2258801 3.8077557 -0.3824712 8 6 -0.0071694949
5.3952646 3.2984567 1.4599323 22 14 -0.0071671908
6.3900795 3.9051123 -0.13071853 56 7 -0.0071648867
5.227654 3.1934795 1.6414305 46 15 -0.0071625826
3.4682722 2.1120594 -1.0880753 14 0 -0.0071418467
6.3176403 3.8472271 0.1291129 42 8 -0.0071395426
4.0699172 2.4774692 -1.1000106 8 1 -0.007137239
15.437816 9.3937263 0.94707155 21 9 -0.0071349349
4.9984798 3.0403171 -1.1372217 6 2 -0.0071326308
6.3210649 3.8432701 0.64721853 49 10 -0.0071303267
5.8727503 3.5692863 -1.0884712 74 3 -0.0071280226
10.322348 6.273622 1.4831501 7 11 -0.0071257185
6.156743 3.7404139 -0.8845278 8 4 -0.0071234149
6.367013 3.866642 1.1798289 13 12 -0.0071211108
6.2079334 3.7685518 -0.63536537 12 5 -0.0071188067
6.3359966 3.8447757 1.4406079 2 13 -0.0071165026
6.2227168 3.774554 -0.38142449 13 6 -0.007114199
5.3823223 3.2635059 1.4531839 67 14 -0.0071118949
6.5490131 3.9709148 -0.13368544 49 7 -0.0071095908
5.2470303 3.1802175 1.6440187 46 15 -0.0071072867
3.4623947 2.0919502 -1.0839342 9 0 -0.0070865508
6.3385453 3.8281825 0.12925252 22 8 -0.0070842467
4.0956535 2.4726064 -1.1045097 9 1 -0.0070819426
6.1628637 3.7191482 0.37723759 6 9 -0.0070796385
4.9972939 3.0157533 -1.1345503 9 2 -0.0070773349
6.2679086 3.7810442 0.64042038 27 10 -0.0070750308
5.8800998 3.5457034 -1.0875325 77 3 -0.0070727267
6.3414721 3.8224063 0.90914541 37 11 -0.0070704226
6.1687098 3.7167997 -0.88428408 23 4 -0.007068119
6.3760662 3.8402207 1.1788902 15 12 -0.0070658149
7.2229056 4.3502607 -0.73768622 52 5 -0.0070635108
6.3342385 3.8135264 1.4371735 2 13 -0.0070612067
6.2101865 3.7373602 -0.37985441 14 6 -0.0070589026
5.3970218 3.2467058 1.4540836 52 14 -0.0070565986
6.541244 3.9334891 -0.13323167 43 7 -0.0070542949
5.2503719 3.1559896 1.6414305 45 15 -0.0070519908
3.4663622 2.0778639 -1.0828989 11 0 -0.0070312549
6.3021259 3.7762251 0.12824029 57 8 -0.0070289508
4.0975718 2.4542904 -1.1027101 8 1 -0.0070266468
6.825264 4.0864563 0.41690826 2 9 -0.0070243427
4.997685 2.9922388 -1.1322607 6 2 -0.007022039
6.2434587 3.7366307 0.63658553 42 10 -0.0070197349
5.8805733 3.5180585 -1.0853424 78 3 -0.0070174308
6.3428516 3.7931137 0.90743923 57 11 -0.0070151268
6.1714244 3.6891317 -0.88282162 24 4 -0.0070128227
8.3734112 5.0034499 1.5449469 12 12 -0.0070105186
7.1969981 4.3004956 -0.73350269 43 5 -0.0070082149
6.3138032 3.771256 1.4295411 2 13 -0.0070059109
6.2935042 3.757637 -0.38414595 7 6 -0.0070036068
5.4066477 3.2268491 1.4536338 16 14 -0.0070013027
6.5841298 3.9280474 -0.13382505 38 7 -0.0069989986
4.6574044 2.7774711 1.4530102 24 15 -0.006996695
3.4752548 2.0667398 -1.0834166 12 0 -0.0069759591
6.2602615 3.7215095 0.12712333 30 8 -0.006973655
4.0893621 2.4300163 -1.0982111 8 1 -0.0069713509
6.8319101 4.0597172 0.41648957 12 9 -0.0069690468
5.0064106 2.9737735 -1.131879 4 2 -0.0069667427
6.2204852 3.6934571 0.63292503 61 10 -0.0069644386
5.886024 3.4934757 -1.0840909 77 3 -0.0069621345
6.3065448 3.7415748 0.90037078 49 11 -0.0069598309
6.2177677 3.6889048 -0.88769639 41 4 -0.0069575268
6.3765707 3.7816203 1.1741973 62 12 -0.0069552227
6.3807397 3.7825832 -0.64896166 50 5 -0.0069529186
6.3167963 3.7431867 1.4272513 2 13 -0.006950615
6.2893953 3.725471 -0.38309923 58 6 -0.0069483109
5.4307313 3.2168484 1.457233 48 14 -0.0069460068
6.6298137 3.9255478 -0.13448824 33 7 -0.0069437027
4.6699138 2.7639799 1.4540454 50 15 -0.0069413986
3.4870806 2.0581489 -1.0849695 14 0 -0.0069206627
6.2587905 3.6925981 0.12684409 25 8 -0.0069183586
4.0923619 2.4134729 -1.0968614 9 1 -0.0069160545
6.1537476 3.6291769 0.37441146 12 9 -0.0069137509
5.0247016 2.9621391 -1.1337872 6 2 -0.0069114468
6.2532978 3.6849456 0.63501674 52 10 -0.0069091427
5.8975759 3.4739389 -1.0840909 91 3 -0.0069068386
6.3069425 3.7135918 0.89866465 63 11 -0.006904535
6.2812834 3.6984837 -0.8950085 63 4 -0.0069022309
6.4214225 3.77949 1.1801417 66 12 -0.0068999268
6.3966818 3.7634249 -0.64931029 52 5 -0.0068976227
6.2970195 3.7033105 1.4200007 2 13 -0.0068953186
6.3154907 3.7126901 -0.38393661 56 6 -0.0068930145
6.0377536 3.5494165 1.6169481 40 14 -0.0068907109
6.6048646 3.8812537 -0.13372034 14 7 -0.0068884068
4.6957121 2.7582624 1.4592218 16 15 -0.0068861027
3.4855509 2.0416925 -1.0823812 13 0 -0.0068653668
6.2192311 3.6415119 0.12579694 57 8 -0.0068630627
4.1070704 2.4038253 -1.0986609 8 1 -0.0068607586
15.739175 9.2082968 0.95565462 39 9 -0.006858455
5.0282311 2.9406185 -1.1322607 6 2 -0.0068561509
6.243124 3.651114 0.63275069 47 10 -0.0068538468
5.9124751 3.4563549 -1.0847167 82 3 -0.0068515427
6.2969408 3.6796379 0.89549601 81 11 -0.0068492386
6.2718711 3.6635203 -0.89183992 59 4 -0.0068469346
6.4243417 3.7510741 1.1782646 18 12 -0.0068446309
6.4631219 3.7722087 -0.65471393 52 5 -0.0068423268
6.3132992 3.6832874 1.4207639 2 13 -0.0068400227
6.2128172 3.6232076 -0.37692359 48 6 -0.0068377187
6.4404306 3.7544456 -0.13012515 100 7 -0.0068331109
5.3062015 3.0920033 1.6455716 41 15 -0.0068308068
3.4863296 2.0250216 -1.0803107 12 0 -0.0068100709
6.2757707 3.6437933 0.12666957 77 8 -0.0068077669
4.1209092 2.3916914 -1.1000106 9 1 -0.0068054628
15.83156 9.1846199 0.9592135 51 9 -0.0068031587
5.0355792 2.920198 -1.1314974 6 2 -0.0068008546
6.2202711 3.6072161 0.62909013 59 10 -0.0067985505
5.9251027 3.4346626 -1.0847167 84 3 -0.0067962469
6.3292789 3.6674798 0.89817715 49 11 -0.0067939428
6.4913878 3.7598999 -0.92108858 60 4 -0.0067916387
6.3286371 3.6641579 1.1582409 17 12 -0.006789335
6.5113935 3.7684534 -0.65820014 55 5 -0.006787031
6.3505487 3.6738851 1.4261066 1 13 -0.0067847269
6.2952142 3.6404073 -0.38111049 47 6 -0.0067824228
5.4725561 3.1646791 1.4594824 20 14 -0.0067801187
6.5285935 3.7738459 -0.13162605 57 7 -0.0067778146
5.3158255 3.0715692 1.645054 43 15 -0.0067755105
3.4937279 2.0122306 -1.0803107 14 0 -0.0067547746
6.2734876 3.6117857 0.12635542 90 8 -0.0067524705
4.1279578 2.3756003 -1.0995607 8 1 -0.0067501669
15.939558 9.1693611 0.96371442 24 9 -0.0067478628
5.0496531 2.9036782 -1.1322607 6 2 -0.0067455587
6.2593584 3.5992894 0.63170481 26 10 -0.0067432546
5.9170995 3.4011116 -1.0809623 81 3 -0.006740951
6.3271885 3.635355 0.89598346 37 11 -0.0067386469
6.5498815 3.7617855 -0.92742574 56 4 -0.0067363428
6.3163266 3.6261866 1.1535479 13 12 -0.0067340387
6.4214792 3.6850603 -0.64774144 49 5 -0.0067317346
6.3435369 3.6388602 1.421527 1 13 -0.0067294305
6.3760862 3.6560566 -0.38519266 55 6 -0.0067271269
5.9811368 3.4295924 1.5917536 53 14 -0.0067248228
6.2769399 3.5977468 -0.12628561 51 7 -0.0067225187
5.3220201 3.0491824 1.643501 37 15 -0.0067202146
3.5044348 2.001327 -1.0813459 15 0 -0.0066994787
6.217216 3.5491145 0.12495923 72 8 -0.0066971746
4.1264815 2.354661 -1.0968614 8 1 -0.006694871
16.061539 9.1613407 0.96905267 27 9 -0.0066925669
5.051734 2.8802898 -1.1303525 6 2 -0.0066902628
6.3192406 3.6029699 0.63641125 28 10 -0.0066879587
5.9226618 3.3754876 -1.0797108 81 3 -0.0066856546
6.3007984 3.5895414 0.89037746 56 11 -0.0066833505
6.2513995 3.5599539 -0.88330907 45 4 -0.0066810469
8.5149698 4.8470106 1.5518301 21 12 -0.0066787428
6.60811 3.7600346 -0.66517264 52 5 -0.0066764387
6.3636565 3.6194696 1.4230535 1 13 -0.0066741346
6.2054009 3.5280249 -0.37409744 40 6 -0.006671831
5.4871364 3.119662 1.457233 16 14 -0.0066695269
6.2640052 3.5598974 -0.12576205 34 7 -0.0066672228
5.3533158 3.0411077 1.6497126 13 15 -0.0066649187
3.5153987 1.9937803 -1.0828989 10 0 -0.0066256518
6.2868648 3.5641847 0.12614599 100 8 -0.0066233478
4.1283641 2.3395231 -1.0955117 9 1 -0.0066210437
16.158302 9.1568289 0.97334427 36 9 -0.00661874
5.0887966 2.8826225 -1.13684 9 2 -0.0066164359
6.2796235 3.5557363 0.63135618 71 10 -0.0066141319
5.9378076 3.3608201 -1.0806495 66 3 -0.0066118278
6.2941446 3.5610538 0.88794011 43 11 -0.0066095237
6.6351619 3.7524676 -0.93595666 56 4 -0.00660722
8.5370693 4.8280773 1.5533944 13 12 -0.006604916
6.6515379 3.7601969 -0.66848457 39 5 -0.0066026119
6.3532295 3.5900924 1.4184742 1 13 -0.0066003078
6.6325908 3.7464316 -0.39921871 45 6 -0.0065980037
5.4590354 3.0822902 1.4473351 39 14 -0.0065957
6.4184494 3.623996 -0.12865914 12 7 -0.006593396
5.3887062 3.0413373 1.6579949 18 15 -0.0065910919
3.5223362 1.9814979 -1.0828989 15 0 -0.006570356
6.2847056 3.5354748 0.12586676 100 8 -0.0065680519
4.1377988 2.3267744 -1.0959616 8 1 -0.0065657478
16.254589 9.1365757 0.97721708 25 9 -0.0065634437
5.0851345 2.8571494 -1.1337872 6 2 -0.0065611401
6.3701701 3.5776968 0.63920021 49 10 -0.006558836
6.2764921 3.5236433 0.88379657 53 11 -0.0065542278
8.5573168 4.8001785 1.55402 13 12 -0.0065496201
7.1825013 4.0273356 -0.72042936 31 5 -0.006547316
7.1356926 4.0010891 1.5902023 20 13 -0.0065450119
6.434164 3.6062601 -0.38655341 42 6 -0.0065427078
5.4590268 3.0584538 1.4446357 41 14 -0.0065404037
6.2688017 3.5106978 -0.125413 28 7 -0.0065381001
4.7570372 2.6629817 1.4607747 20 15 -0.006535796
3.5170803 1.9632144 -1.0792755 13 0 -0.0065150596
4.1424918 2.3104169 -1.0950617 8 1 -0.0065104519
5.0705752 2.8268852 -1.1284446 6 2 -0.0065058437
6.3872199 3.5594637 0.63972312 51 10 -0.0065035396
5.5273986 3.079036 -1.0021193 5 3 -0.006501236
10.628097 5.9179549 1.4936308 17 11 -0.0064989319
5.5417862 3.0845201 -0.77874517 1 4 -0.0064966278
6.4542513 3.5909128 1.1698171 16 12 -0.0064943237
7.15133 3.9771121 1.5905839 26 13 -0.006489716
6.1953392 3.4440355 -0.37148067 10 6 -0.0064874119
5.467967 3.0384316 1.4441857 45 14 -0.0064851078
6.3456979 3.5247226 -0.12670447 19 7 -0.0064828037
4.7747498 2.6510477 1.4633629 13 15 -0.0064804996
3.5239124 1.9509245 -1.0792755 9 0 -0.0064597637
6.1465178 3.4014657 0.12262061 15 8 -0.0064574596
4.152235 2.2968888 -1.0955117 8 1 -0.006455156
6.1874075 3.4212699 0.37053862 6 9 -0.0064528519
5.0890031 2.8139172 -1.1303525 6 2 -0.0064505478
6.4153004 3.5458193 0.64129192 58 10 -0.0064482437
5.4827819 3.0291584 -0.99210751 5 3 -0.0064459397
10.674756 5.8952112 1.4972868 19 11 -0.006443636
5.5003839 3.0363746 -0.771433 1 4 -0.0064413319
6.4494491 3.5588222 1.1666883 73 12 -0.0064390278
7.1609011 3.9514031 -0.71554857 46 5 -0.0064367238
7.1617317 3.9502268 1.5898207 26 13 -0.0064344197
6.1898341 3.412744 -0.37043396 24 6 -0.006432116
5.4802446 3.0202708 1.4446357 15 14 -0.0064298119
6.4105091 3.5314953 -0.12775162 84 7 -0.0064275078
4.7552071 2.6185217 1.4545631 37 15 -0.0064252038
3.5323932 1.9395442 -1.0797932 12 0 -0.0064044679
6.1828966 3.3934579 0.12310927 50 8 -0.0064021638
4.1619368 2.2833171 -1.0959616 8 1 -0.0063998597
6.703661 3.6762373 0.40068412 21 9 -0.006397556
5.1056781 2.7999153 -1.131879 6 2 -0.006395252
6.6303034 3.6344993 0.66151208 90 10 -0.0063929479
5.4413514 2.981523 -0.98272139 6 3 -0.0063906438
6.2503662 3.4233985 0.87502193 13 11 -0.0063883397
5.4848304 3.0028579 -0.76777691 5 4 -0.0063860361
6.4687653 3.5400796 1.1679399 71 12 -0.006383732
7.1554265 3.9158599 -0.71363121 45 5 -0.0063814279
7.1754785 3.9252019 1.5898207 25 13 -0.0063791238
6.2122221 3.3968673 -0.37106195 6 6 -0.0063768197
5.5095644 3.0114021 1.4495846 1 14 -0.0063745161
6.4842181 3.5426524 -0.12897329 58 7 -0.006372212
4.7422767 2.5898707 1.4478338 52 15 -0.0063699079
3.5374455 1.926277 -1.0792755 15 0 -0.006349172
6.1824112 3.3651614 0.12286495 2 8 -0.0063468679
4.1578989 2.2622569 -1.0928122 9 1 -0.0063445638
6.6848717 3.6356368 0.39880002 6 9 -0.0063422597
5.117146 2.7830131 -1.1322607 6 2 -0.0063399561
6.6692071 3.6256053 0.66412675 78 10 -0.006337652
5.4326334 2.9521372 -0.97927988 36 3 -0.0063353479
6.2657681 3.4034534 0.87550944 30 11 -0.0063330438
5.4621334 2.9656954 -0.76314586 1 4 -0.0063307397
6.4724011 3.5127676 1.1663755 77 12 -0.0063284356
7.1994877 3.9057529 1.5921104 26 13 -0.0063238279
6.1941953 3.3589747 -0.36928254 7 6 -0.0063215238
6.2533064 3.389621 1.6421427 6 14 -0.0063192197
6.4895101 3.5161905 -0.12883367 60 7 -0.0063169161
4.7716727 2.5843401 1.4540454 24 15 -0.006314612
3.5475483 1.9157524 -1.0803107 9 0 -0.0062938756
6.1589231 3.3245668 0.12216685 2 8 -0.006291572
4.1554809 2.2421758 -1.0901128 8 1 -0.0062892679
6.3371572 3.417917 0.37734228 2 9 -0.0062869638
5.1112785 2.7567449 -1.1288261 4 2 -0.0062846597
6.6590214 3.5900168 0.6618607 85 10 -0.0062823556
5.4411669 2.9322171 -0.97896701 30 3 -0.006280052
6.2863493 3.3862662 0.87672812 66 11 -0.0062777479
5.4567204 2.9381452 -0.76095223 4 4 -0.0062754438
6.4393988 3.4658103 1.1582409 78 12 -0.0062731397
7.1569452 3.8503971 -0.71101648 34 5 -0.0062708356
7.2234511 3.8861771 1.5943999 26 13 -0.006268532
6.1900501 3.3288202 -0.36834049 12 6 -0.0062662279
6.2067413 3.3363996 1.6268461 19 14 -0.0062639238
6.4559455 3.4689057 -0.12792614 67 7 -0.0062616197
5.4188809 2.9104521 1.6481597 43 15 -0.0062593156
3.5511391 1.9009143 -1.0792755 15 0 -0.0062385798
6.2022257 3.3200331 0.12279513 82 8 -0.0062362757
4.1770287 2.2350109 -1.0937121 9 1 -0.006233972
6.3173475 3.3788211 0.37545818 17 9 -0.0062316679
5.1109591 2.73244 -1.1265364 6 2 -0.0062293638
6.2310767 3.3298793 0.61810851 78 10 -0.0062270598
5.4745274 2.9243555 -0.98303431 21 3 -0.0062247557
6.2736173 3.3512092 0.87331581 81 11 -0.006222452
5.4792018 2.9256232 -0.76265842 5 4 -0.0062201479
6.4009204 3.4163363 1.1491677 71 12 -0.0062178439
7.1580358 3.8188276 -0.70979631 46 5 -0.0062155398
7.2411108 3.8615251 1.5951633 25 13 -0.0062132357
6.2057352 3.3079875 -0.36854982 19 6 -0.006210932
6.213768 3.3108804 1.6254963 40 14 -0.006208628
6.4662499 3.4454105 -0.12789124 67 7 -0.0062063239
5.4273009 2.8906119 1.6476421 41 15 -0.0062040198
3.5509274 1.8848848 -1.0772049 15 0 -0.0061832839
4.1886349 2.2215133 -1.0946118 9 1 -0.0061786757
6.1861835 3.2809467 0.36697978 87 9 -0.0061763721
5.1308746 2.720099 -1.1288261 6 2 -0.006174068
6.2268176 3.2997136 0.61653972 85 10 -0.0061717639
5.4812112 2.9033771 -0.98240852 22 3 -0.0061694598
6.3946295 3.3857822 0.88842762 97 11 -0.0061671557
5.5214696 2.9222341 -0.76704568 5 4 -0.0061648521
6.4145522 3.3948975 1.1494806 65 12 -0.006162548
7.146668 3.7807729 -0.70735598 49 5 -0.0061602439
7.2510753 3.8343875 1.5943999 25 13 -0.0061579398
6.1978211 3.2760401 -0.36739844 22 6 -0.0061556357
5.5395246 2.926841 1.4464353 13 14 -0.0061533321
6.4676294 3.4172111 -0.12768181 68 7 -0.006151028
4.7882242 2.5288184 1.4509397 11 15 -0.0061487239
3.559195 1.8733771 -1.0777225 12 0 -0.006127988
16.840742 8.8640995 0.33218911 34 8 -0.0061256839
4.1752825 2.1967235 -1.089213 9 1 -0.0061233798
6.1710815 3.2453895 0.36540967 100 9 -0.0061210757
5.1316485 2.6976054 -1.126918 6 2 -0.0061187716
6.2859173 3.3029816 0.6212461 83 10 -0.006116468
5.4873118 2.8833485 -0.98178285 23 3 -0.0061141639
6.2722569 3.2944067 0.86990345 81 11 -0.0061118598
5.5311289 2.9039094 -0.76704568 8 4 -0.0061095557
6.4176168 3.3678975 1.1479162 63 12 -0.0061072521
7.1386504 3.7446952 -0.70526421 45 5 -0.006104948
7.2672296 3.8121433 1.5951633 25 13 -0.0061026439
6.1998053 3.2508328 -0.36687508 22 6 -0.0061003398
5.5647335 2.9165986 1.4504844 41 14 -0.0060980357
6.4688911 3.3890443 -0.12747237 67 7 -0.0060957316
5.4524832 2.8553402 1.649195 43 15 -0.006093428
3.5705256 1.8642454 -1.0792755 12 0 -0.0060726916
16.953131 8.8478165 0.33379474 21 8 -0.006070388
4.1811972 2.1812353 -1.0887631 11 1 -0.0060680839
6.184144 3.2247505 0.36551434 34 9 -0.0060657798
5.164938 2.6932807 -1.1322607 6 2 -0.0060634757
6.2950702 3.2811959 0.62107182 71 10 -0.0060611716
5.5218682 2.876956 -0.98616302 23 3 -0.006058868
6.3523836 3.3082507 0.87940925 78 11 -0.0060565639
5.5289073 2.8781667 -0.76533955 9 4 -0.0060542598
6.4048004 3.332711 1.1435361 55 12 -0.0060519557
7.2944255 3.7940018 1.5982162 25 13 -0.006047348
6.1880794 3.2171931 -0.36551434 29 6 -0.0060450439
5.5714211 2.89536 1.4495846 28 14 -0.0060427398
6.4664845 3.3590701 -0.12719314 63 7 -0.0060404358
5.4727049 2.84163 1.6523008 43 15 -0.0060381317
3.5752954 1.8508832 -1.0787579 12 0 -0.0060173958
17.06028 8.8281069 0.33529565 31 8 -0.0060150917
4.1905169 2.1675208 -1.089213 9 1 -0.006012788
6.1953626 3.2031455 0.36551434 12 9 -0.006010484
5.156868 2.6662197 -1.1284446 6 2 -0.0060081799
6.2870145 3.2491415 0.61915439 83 10 -0.0060058758
5.5441628 2.8640082 -0.98835307 19 3 -0.0060035717
6.4891243 3.3507226 0.89671469 51 11 -0.006001268
5.5424476 2.8606718 -0.76582706 9 4 -0.005998964
6.4058628 3.304898 1.1416589 63 12 -0.0059966599
7.1533489 3.6905396 -0.70421833 52 5 -0.0059943558
7.3093681 3.7694173 1.5985978 23 13 -0.0059920517
6.2028217 3.1974049 -0.3657237 41 6 -0.0059897481
5.538187 2.8535786 1.4383371 46 14 -0.005987444
6.4532809 3.3236599 -0.12670447 65 7 -0.0059851399
5.4808726 2.8216264 1.6517832 39 15 -0.0059828358
3.5731409 1.8339819 -1.0761696 12 0 -0.0059620999
17.204861 8.8269157 0.33752954 31 8 -0.0059597958
4.2032604 2.1555469 -1.0905627 11 1 -0.0059574917
6.1686301 3.1634426 0.36331624 19 9 -0.0059551876
5.1574073 2.6437259 -1.1265364 6 2 -0.005952884
6.289453 3.2226312 0.61828285 97 10 -0.0059505799
5.5734673 2.8545418 -0.99179459 20 3 -0.0059482758
10.921804 5.5913806 1.5065489 15 11 -0.0059459717
5.5665374 2.8485403 -0.76777691 11 4 -0.0059436681
6.3464475 3.2476406 1.1291441 81 12 -0.005941364
7.1271648 3.6455843 -0.70038354 45 5 -0.0059390599
7.3364644 3.7510314 1.6016507 5 13 -0.0059367558
6.2050533 3.1711872 -0.36520034 19 6 -0.0059344517
5.558527 2.8395467 1.4410365 33 14 -0.0059321476
6.4535832 3.2967818 -0.12649503 64 7 -0.005929844
5.4420238 2.7788374 1.6372893 15 15 -0.0059275399
3.5777993 1.820621 -1.075652 10 0 -0.005906804
17.321365 8.8142567 0.3392399 28 8 -0.0059044999
4.2086468 2.1407156 -1.0901128 9 1 -0.0059021958
6.1849761 3.1446075 0.36363026 99 9 -0.0058998917
5.1613536 2.6230371 -1.1253915 9 2 -0.0058975881
6.2988868 3.1997564 0.61810851 100 10 -0.005895284
5.5758576 2.8324666 -0.99054313 21 3 -0.0058929799
10.957988 5.5641165 1.5089864 35 11 -0.0058906758
5.5901136 2.837254 -0.76972687 11 4 -0.0058883717
6.3418894 3.2174251 1.1263282 51 12 -0.0058860676
7.1149688 3.6080697 -0.69794315 45 5 -0.005883764
7.334856 3.7195768 1.5985978 12 13 -0.0058814599
6.2529454 3.1695576 -0.36739844 3 6 -0.0058791558
6.4543476 3.268815 -0.12628561 65 7 -0.0058745481
5.4930573 2.7807636 1.6497126 45 15 -0.005872244
3.5872672 1.8104866 -1.0766873 8 0 -0.0058515077
17.453791 8.8050823 0.34122944 18 8 -0.005849204
4.2056537 2.1207461 -1.0874133 9 1 -0.0058468999
18.364809 9.2566214 1.0778068 38 9 -0.0058445958
5.1559997 2.5988367 -1.1223387 6 2 -0.0058422918
6.3005652 3.1743698 0.61723697 100 10 -0.0058399877
5.5962958 2.8183181 -0.99242038 22 3 -0.005837684
10.961388 5.517796 1.5067927 35 11 -0.0058353799
5.6070757 2.8212938 -0.77070183 12 4 -0.0058330758
6.3936706 3.2156839 1.1335243 38 12 -0.0058307718
6.2173429 3.1270003 -0.60887003 11 5 -0.0058284677
6.3006172 3.1675017 1.3707719 4 13 -0.005826164
6.2514801 3.141432 -0.36666575 21 6 -0.0058238599
5.5568285 2.7911515 1.4356377 3 14 -0.0058215559
6.4335518 3.2301128 -0.12565732 59 7 -0.0058192518
5.5113645 2.7659035 1.6523008 48 15 -0.0058169477
3.593564 1.7979562 -1.0766873 10 0 -0.0057962118
17.588158 8.7959776 0.34325394 3 8 -0.0057939077
4.2060595 2.1025662 -1.0856137 9 1 -0.0057916036
18.482759 9.235323 1.082831 84 9 -0.0057893
5.1597695 2.5781937 -1.1211938 4 2 -0.0057869959
6.2866545 3.1398921 0.61479658 100 10 -0.0057846918
5.6237736 2.8075879 -0.99554908 20 3 -0.0057823877
10.987682 5.4830532 1.5077677 31 11 -0.0057800841
5.6257725 2.806133 -0.77192044 15 4 -0.00577778
6.3801079 3.181005 1.1291441 11 12 -0.0057754759
7.1268821 3.5533328 -0.69672298 49 5 -0.0057731718
6.3379903 3.1586287 1.3764962 1 13 -0.0057708677
6.269558 3.1231549 -0.36708444 63 6 -0.0057685636
5.5909605 2.7838967 1.4419363 16 14 -0.00576626
6.4429951 3.2067494 -0.12562242 56 7 -0.0057639559
4.8498878 2.4127836 1.4514573 33 15 -0.0057616518
3.6032796 1.787117 -1.0777225 9 0 -0.0057409159
18.539648 9.1910582 0.361195 87 8 -0.0057386118
4.2203569 2.0913334 -1.0874133 8 1 -0.0057363077
18.586475 9.2062044 1.0870179 76 9 -0.0057340041
5.1845713 2.5680082 -1.1246282 6 2 -0.0057317
6.3207893 3.1294193 0.61706263 100 10 -0.0057293959
5.5999012 2.7712946 -0.98960453 24 3 -0.0057270918
6.2382298 3.0858369 0.85454792 32 11 -0.0057247877
5.6390929 2.7882366 -0.77240795 15 4 -0.0057224836
6.2849178 3.1062021 1.1103719 13 12 -0.00572018
7.1195936 3.5187247 -0.69480556 49 5 -0.0057178759
7.387486 3.6495211 1.6016507 22 13 -0.0057155718
6.2786317 3.1003652 -0.36697978 55 6 -0.0057132677
6.3240962 3.1214466 1.6281958 45 14 -0.0057109641
6.2550921 3.08603 -0.12174799 54 7 -0.00570866
4.8513508 2.3924205 1.4493867 48 15 -0.0057063559
3.5973606 1.768561 -1.0740991 9 0 -0.00568562
18.682882 9.1809797 0.36335912 100 8 -0.0056833159
4.2328796 2.0791652 -1.0887631 11 1 -0.0056810118
18.727861 9.1949587 1.0934029 25 9 -0.0056787077
5.1864552 2.5464327 -1.1231018 6 2 -0.0056764036
6.3173637 3.1003184 0.61566812 100 10 -0.0056741
5.5066795 2.7012703 -0.9714582 24 3 -0.0056717959
11.047085 5.4166932 1.5106926 35 11 -0.0056694918
5.688005 2.7877593 -0.77777022 8 4 -0.0056671877
6.2762098 3.0746834 1.1069304 7 12 -0.0056648836
6.1173458 2.9968567 -0.59597093 28 5 -0.00566258
7.4195762 3.6332073 1.6058486 25 13 -0.0056602759
6.2481537 3.0582387 -0.36457232 53 6 -0.0056579718
6.3367052 3.1002071 1.6286457 39 14 -0.0056556677
6.2245102 3.0439699 -0.12094518 67 7 -0.0056533637
3.6017752 1.7551477 -1.0735815 9 0 -0.0056303237
18.743582 9.1297131 0.36391759 100 8 -0.0056280196
4.2313504 2.0601127 -1.0865136 9 1 -0.0056257159
18.738295 9.1190472 1.0921469 50 9 -0.0056234119
5.195312 2.5283141 -1.1231018 9 2 -0.0056211078
6.3156061 3.0721455 0.61444795 100 10 -0.0056188041
5.7665639 2.8038232 -1.0155727 88 3 -0.0056165
11.07485 5.3824391 1.5119112 36 11 -0.005614196
6.0780244 2.9526427 -0.82968652 23 4 -0.0056118919
8.8919373 4.3176899 1.5655963 12 12 -0.0056095878
6.1014013 2.9613671 -0.59335625 26 5 -0.0056072837
7.4304466 3.6064308 1.605467 24 13 -0.0056049796
6.1527715 2.9849734 -0.35839668 40 6 -0.005602676
6.3632703 3.0857198 1.6326947 13 14 -0.0056003719
6.2189016 3.014375 -0.12063103 52 7 -0.0055980678
5.5529218 2.6903698 1.6533362 43 15 -0.0055957637
3.6134026 1.7444551 -1.0751344 11 0 -0.0055750278
18.728512 9.0416298 0.36301005 100 8 -0.0055727237
4.2314949 2.0419431 -1.0847139 9 1 -0.0055704201
18.748426 9.0431652 1.0908908 100 9 -0.005568116
5.211617 2.5126669 -1.1246282 6 2 -0.0055658119
6.2819519 3.0273545 0.6100902 100 10 -0.0055635078
5.8195133 2.8032441 -1.0230815 61 3 -0.0055612037
11.088207 5.3411603 1.51118 28 11 -0.0055588996
6.0900826 2.9322712 -0.82993031 24 4 -0.005556596
8.9229708 4.2943401 1.5684121 15 12 -0.0055542919
6.099134 2.9340038 -0.59213609 32 5 -0.0055519878
7.4489236 3.5817227 1.6066117 16 13 -0.0055496837
6.1384673 2.9502907 -0.35693124 33 6 -0.0055473801
5.656106 2.7172384 1.4486848 13 14 -0.005545076
6.4222527 3.0853014 -0.12436585 30 7 -0.0055427719
5.5727282 2.6759861 1.6564419 46 15 -0.0055404678
3.621213 1.7326641 -1.075652 9 0 -0.0055197319
18.711018 8.9487638 0.36203274 100 8 -0.0055174278
4.2284021 2.0213764 -1.0820146 9 1 -0.0055151237
18.733027 8.9552736 1.0881693 100 9 -0.0055128196
5.1955566 2.4826081 -1.1192856 6 2 -0.005510516
6.3428216 3.0294495 0.61497092 100 10 -0.0055082119
5.8256969 2.7812126 -1.0224558 59 3 -0.0055059078
11.107708 5.300487 1.51118 19 11 -0.0055036037
6.075706 2.8979642 -0.826518 24 4 -0.0055013001
8.9628696 4.2750711 1.5727924 31 12 -0.005498996
6.1075392 2.91184 -0.5919618 26 5 -0.0054966919
7.4737854 3.5616126 1.6092831 9 13 -0.0054943878
6.1216826 2.9159608 -0.35536119 36 6 -0.0054920837
5.6250877 2.6782117 1.4383371 35 14 -0.0054897796
6.4402051 3.0663047 -0.12450547 28 7 -0.005487476
5.5907564 2.6606693 1.6590302 46 15 -0.0054851719
3.6220026 1.7175292 -1.0740991 11 0 -0.005464436
6.609437 3.1341503 0.12768181 25 8 -0.0054621319
4.2491689 2.0140214 -1.0856137 9 1 -0.0054598278
18.704607 8.8616133 1.0847151 100 9 -0.0054575237
5.1864486 2.4560533 -1.1154695 9 2 -0.0054552201
6.3497558 3.0055871 0.61462229 100 10 -0.005452916
5.8223891 2.7559638 -1.0202657 56 3 -0.0054506119
11.152139 5.2763605 1.5148361 35 11 -0.0054483078
6.0691323 2.8701608 -0.82432431 27 4 -0.0054460037
8.9830952 4.2462935 1.5737309 42 12 -0.0054436997
6.1014533 2.8828437 -0.59039295 35 5 -0.0054413956
7.4802303 3.5342948 1.6081383 23 13 -0.0054390919
6.1349311 2.8973484 -0.35557052 33 6 -0.0054367878
5.6251259 2.6553853 1.4360875 45 14 -0.0054344838
6.4237423 3.031004 -0.1239819 19 7 -0.0054321801
5.6052527 2.6436086 1.660583 48 15 -0.005429876
3.6259298 1.7046875 -1.0735815 9 0 -0.0054091397
6.6149073 3.1085098 0.1275771 65 8 -0.005406836
4.261466 2.0016611 -1.0869635 11 1 -0.005404532
18.697737 8.7825489 1.0826217 84 9 -0.0054022279
5.1874552 2.4355047 -1.113943 11 2 -0.0053999238
6.3506703 2.9802802 0.6137507 100 10 -0.0053976197
5.7675915 2.7054214 -1.0090024 41 3 -0.0053953156
11.166896 5.2357116 1.5143486 14 11 -0.005393012
6.0737209 2.8464324 -0.82359308 26 4 -0.0053907079
8.9810286 4.2089343 1.5709151 40 12 -0.0053884038
6.0965462 2.8558316 -0.5889985 27 5 -0.0053860997
6.1305351 2.8691444 -0.35473314 36 6 -0.005381492
5.6643691 2.6497693 1.4437358 15 14 -0.0053791879
6.4210787 3.0037553 -0.12373756 10 7 -0.0053768838
5.6052375 2.6209159 1.6579949 45 15 -0.0053745797
3.6283557 1.6903894 -1.0725461 9 0 -0.0053538438
6.5218587 3.0384233 0.12558752 95 8 -0.0053515397
4.2663131 1.9866968 -1.0865136 9 1 -0.0053492356
6.2777667 2.9220386 0.36289757 17 9 -0.005346932
5.2208452 2.4289773 -1.1192856 9 2 -0.0053446279
6.3032227 2.931211 0.60817277 100 10 -0.0053423238
5.3645611 2.4947019 -0.93704253 34 3 -0.0053400197
11.2058 5.2086902 1.5172734 5 11 -0.0053377161
6.0687237 2.8195853 -0.82164317 30 4 -0.005335412
6.229423 2.8929224 1.0878454 30 12 -0.0053331079
6.0902138 2.826982 -0.5874297 36 5 -0.0053308038
6.2664881 2.9088058 1.3429137 2 13 -0.0053284997
6.1291451 2.8437567 -0.35410511 33 6 -0.0053261956
6.4863501 3.0081108 1.6506908 45 14 -0.005323892
6.2954569 2.9182472 -0.12111971 13 7 -0.0053215879
4.9517775 2.2943401 1.4623276 28 15 -0.0053192838
3.6324809 1.6769031 -1.0720285 11 0 -0.0052886009
6.5910525 3.0413108 0.12670447 65 8 -0.0052862968
4.2664876 1.9677808 -1.0847139 9 1 -0.0052839927
18.669415 8.6067181 1.077388 21 9 -0.0052816891
5.2114635 2.4025178 -1.1154695 9 2 -0.005279385
6.3622727 2.9317055 0.61287922 100 10 -0.0052770809
5.3485508 2.4634523 -0.93266243 31 3 -0.0052747768
11.223011 5.1667562 1.5170298 10 11 -0.0052724727
6.0681968 2.7923455 -0.82018077 26 4 -0.0052701691
9.018096 4.1478615 1.5721666 18 12 -0.005267865
6.0909939 2.8015447 -0.58655816 30 5 -0.0052655609
6.2414317 2.8694186 1.3352814 37 13 -0.0052632568
6.1177497 2.811264 -0.35284904 33 6 -0.0052609527
6.511498 2.9908254 1.6542901 52 14 -0.0052586491
6.4133315 2.944381 -0.12317909 2 7 -0.005256345
4.942596 2.268117 1.4571513 39 15 -0.0052540409
3.636555 1.6634105 -1.0715109 11 0 -0.005233305
6.5743508 3.0058115 0.1261809 77 8 -0.0052310009
4.2626972 1.948015 -1.0820146 11 1 -0.0052286969
18.684809 8.5348635 1.0765507 45 9 -0.0052263928
5.2198176 2.3843129 -1.1154695 9 2 -0.0052240891
6.3779054 2.9119596 0.61340207 100 10 -0.005221785
5.3571181 2.444766 -0.93266243 34 3 -0.005219481
11.231946 5.1234317 1.5158111 10 11 -0.0052171769
6.063458 2.7645571 -0.81823081 28 4 -0.0052148728
9.0486984 4.1237273 1.5749824 15 12 -0.0052125691
6.0934844 2.7769594 -0.58586085 38 5 -0.0052102651
6.2728486 2.8573818 1.3398608 10 13 -0.005207961
6.1166182 2.7849276 -0.35222104 33 6 -0.0052056569
6.5183516 2.9664619 1.6533903 58 14 -0.0052033528
6.4162884 2.9186654 -0.12303946 1 7 -0.0052010491
5.0032411 2.2748392 1.4726803 11 15 -0.0051987451
3.6458585 1.6523001 -1.0725461 9 0 -0.0051780087
6.2715015 2.84092 0.12017727 95 8 -0.0051757051
4.2818961 1.9387532 -1.085164 11 1 -0.005173401
18.692993 8.4637966 1.0753993 42 9 -0.0051710969
5.2173777 2.3612194 -1.1131797 11 2 -0.0051687928
6.3844013 2.8880351 0.6130535 100 10 -0.0051664887
5.3512177 2.4195442 -0.93015939 34 3 -0.0051641851
11.258808 5.0882783 1.5170298 3 11 -0.005161881
6.0477448 2.7319322 -0.8148185 26 4 -0.0051595769
9.076725 4.1002054 1.5774853 21 12 -0.0051572728
6.0940595 2.7515769 -0.58498931 27 5 -0.0051549687
6.2613115 2.8257751 1.3352814 18 13 -0.0051526651
6.1153798 2.7586305 -0.35159299 33 6 -0.005150361
6.5286646 2.9436948 1.6533903 58 14 -0.0051480569
6.3858261 2.8792908 -0.12227156 1 7 -0.0051457528
5.6483312 2.5455737 1.6600655 39 15 -0.0051434487
3.6445549 1.6363976 -1.0704756 11 0 -0.0051227128
6.3100767 2.8332112 0.12073575 85 8 -0.0051204087
4.2847466 1.9229462 -1.084264 11 1 -0.0051181051
6.2323046 2.7956815 0.35797796 17 9 -0.005115801
5.2291718 2.3445981 -1.113943 9 2 -0.0051134969
6.2962627 2.8217325 0.60364062 68 10 -0.0051111928
5.355607 2.4001684 -0.92953372 34 3 -0.0051088887
6.2610116 2.8046222 0.84236097 63 11 -0.0051065851
6.0585833 2.7126718 -0.81506222 33 4 -0.005104281
6.2169185 2.7822657 1.0787722 31 12 -0.0051019769
6.0799847 2.7197101 -0.58272326 35 5 -0.0050996728
6.2419739 2.7921712 1.3291756 32 13 -0.0050973687
6.1190248 2.7358887 -0.35127899 32 6 -0.0050950651
5.7306557 2.5610473 1.4491347 13 14 -0.005092761
6.2753348 2.8031526 -0.11996785 10 7 -0.0050904569
5.6483626 2.5219021 1.6574773 43 15 -0.0050881528
3.6464303 1.6227343 -1.0694402 10 0 -0.0050674169
6.2998281 2.802232 0.1203518 65 8 -0.0050651128
4.2932134 1.9087683 -1.0847139 9 1 -0.0050628087
6.3132052 2.8055434 0.36206019 57 9 -0.0050605051
5.2333279 2.3256533 -1.1131797 9 2 -0.005058201
6.2873759 2.7927511 0.60189754 57 10 -0.0050558969
5.3458991 2.3734422 -0.92640501 31 3 -0.0050535928
6.3197551 2.8044889 0.84894192 73 11 -0.0050512888
6.0607553 2.6882915 -0.81408727 27 4 -0.0050489851
9.1087399 4.0383391 1.5781111 30 12 -0.005046681
6.0780425 2.6946864 -0.58167744 27 5 -0.0050443769
6.2373228 2.7640007 1.3261225 30 13 -0.0050420729
6.1175785 2.7096636 -0.35065094 31 6 -0.0050397688
5.7199597 2.5323486 1.4441857 71 14 -0.0050374651
6.3015399 2.7885115 -0.12028199 65 7 -0.005035161
5.6500626 2.4990485 1.6554067 43 15 -0.0050328569
3.653841 1.6107744 -1.069958 9 0 -0.0050121211
6.2876129 2.7705469 0.11993293 62 8 -0.005009817
4.2820148 1.8859187 -1.080215 9 1 -0.0050075129
6.3101649 2.7778544 0.36132747 61 9 -0.0050052088
5.2414145 2.3073702 -1.1131797 11 2 -0.0050029047
6.2970872 2.7707853 0.60189754 57 10 -0.0050006011
5.3360677 2.3468182 -0.92327636 31 3 -0.004998297
6.2967944 2.7680337 0.8445546 73 11 -0.0049959929
6.0628333 2.6639233 -0.81311232 31 4 -0.0049936888
9.1336298 4.0112915 1.5799882 36 12 -0.0049913852
6.0691676 2.6654463 -0.5799343 35 5 -0.0049890811
7.6131687 3.3419487 1.6161523 29 13 -0.004986777
6.1068826 2.6794641 -0.34949955 33 6 -0.0049844729
5.7376885 2.5162785 1.4464353 48 14 -0.0049821688
6.2855945 2.75526 -0.11979332 50 7 -0.0049798647
5.0606723 2.2172685 1.480445 46 15 -0.0049775611
3.6647532 1.6003287 -1.0715109 11 0 -0.0049568247
6.2899141 2.7453837 0.11979332 62 8 -0.0049545211
4.2885723 1.8709592 -1.080215 8 1 -0.004952217
6.3015165 2.7478263 0.36028075 61 9 -0.0049499129
5.2746325 2.3000453 -1.1185224 9 2 -0.0049476088
6.2975879 2.7448087 0.601026 57 10 -0.0049453047
5.3369837 2.3250203 -0.92202479 30 3 -0.0049430011
6.2845783 2.7365251 0.84162974 53 11 -0.004940697
6.0447922 2.630862 -0.80945623 24 4 -0.0049383929
6.1895585 2.6925838 1.0690732 12 12 -0.0049360888
6.0766087 2.6434484 -0.57976002 27 5 -0.0049337847
7.6373916 3.3208313 1.6188235 31 13 -0.0049314811
6.1070385 2.6541512 -0.34897619 30 6 -0.004929177
6.2915053 2.7317076 -0.11972351 48 7 -0.0049245688
5.3554707 2.3241832 1.5643023 43 15 -0.0049222647
3.6720889 1.5882961 -1.0720285 9 0 -0.0049015288
6.2847757 2.7170613 0.11951409 62 8 -0.0048992247
4.2986555 1.8575228 -1.0811148 9 1 -0.0048969211
6.2780643 2.7115626 0.35839668 78 9 -0.004894617
5.2573943 2.2707245 -1.1131797 9 2 -0.0048923129
6.2778645 2.7101729 0.59823698 64 10 -0.0048900088
5.345067 2.306375 -0.92202479 30 3 -0.0048877047
6.2776871 2.7074974 0.83943611 71 11 -0.0048854011
6.0430017 2.6050293 -0.80799377 30 4 -0.004883097
9.1432714 3.9396079 1.5768597 4 12 -0.0048807929
6.0693316 2.6151235 -0.57819116 35 5 -0.0048784888
7.6561489 3.2972596 1.6203501 31 13 -0.0048761847
6.1015911 2.6264985 -0.34813881 32 6 -0.0048738811
6.5051589 2.7988734 1.6349442 1 14 -0.004871577
6.2642617 2.6939309 -0.11902541 54 7 -0.0048692729
5.7078695 2.4534755 1.6647241 16 15 -0.0048669688
3.6740592 1.5739458 -1.0709932 9 0 -0.0048462329
6.2813544 2.689595 0.11926974 67 8 -0.0048439289
4.3051128 1.8425072 -1.0811148 9 1 -0.0048416248
6.2893276 2.6904154 0.35850134 65 9 -0.0048393211
5.2472391 2.2446361 -1.1093636 9 2 -0.004837017
6.2817907 2.6858907 0.59771407 61 10 -0.0048347129
5.3403697 2.2822702 -0.91983473 29 3 -0.0048324089
6.2944016 2.688688 0.84041107 78 11 -0.0048301048
6.0429311 2.5800204 -0.80677515 22 4 -0.0048278011
6.3608217 2.7144349 1.0953542 47 12 -0.004825497
6.0729251 2.5915771 -0.57766825 26 5 -0.004823193
7.6748343 3.273597 1.6218765 32 13 -0.0048208889
6.114397 2.6067488 -0.34834814 29 6 -0.0048185848
6.4109087 2.7318423 1.60885 61 14 -0.0048162807
6.2699471 2.6704822 -0.1189556 52 7 -0.0048139771
5.3306847 2.2693317 1.5523967 3 15 -0.004811673
3.6688604 1.5565851 -1.0678874 12 0 -0.0047909371
6.2741351 2.6606276 0.1189556 62 8 -0.004788633
4.3204899 1.8312699 -1.0833644 8 1 -0.0047863289
6.2950025 2.6668882 0.35829198 65 9 -0.0047840248
5.2622733 2.2293708 -1.11089 13 2 -0.0047817212
6.2801194 2.659287 0.59666818 61 10 -0.0047794171
5.3373899 2.2589941 -0.9179576 29 3 -0.004777113
6.2946076 2.6628313 0.83919233 79 11 -0.0047748089
6.0482426 2.5573664 -0.80628765 31 4 -0.0047725048
6.3666196 2.6906753 1.0947285 91 12 -0.0047702007
6.0580769 2.5602782 -0.5754022 32 5 -0.0047678971
7.6862149 3.2467847 1.6218765 33 13 -0.004765593
6.1032186 2.5768456 -0.34719676 36 6 -0.0047632889
6.5424948 2.7609677 1.6394434 40 14 -0.0047609848
6.2681761 2.6439152 -0.11874618 52 7 -0.0047586812
5.160562 2.1756628 1.5006329 50 15 -0.0047563771
3.6724908 1.5430194 -1.0673697 11 0 -0.0047356412
6.2649469 2.6309695 0.11860656 57 8 -0.0047333371
4.3106837 1.8093901 -1.0793152 9 1 -0.004731033
6.2876978 2.6379426 0.35734996 63 9 -0.0047287289
5.2772646 2.214025 -1.1124165 9 2 -0.0047264248
6.2746644 2.6311867 0.59527373 59 10 -0.0047241207
5.3343115 2.235769 -0.91608036 27 3 -0.0047218171
6.2745686 2.6285715 0.83529252 76 11 -0.004719513
6.049808 2.5331728 -0.80531269 23 4 -0.0047172089
6.3595729 2.6615729 1.0919127 56 12 -0.0047149048
6.0651388 2.538348 -0.57522792 27 5 -0.0047126007
6.2340703 2.60777 1.3135291 21 13 -0.0047102971
6.0937495 2.5478227 -0.34615004 34 6 -0.004707993
5.8418627 2.4413073 1.4617319 30 14 -0.0047056889
6.2662954 2.6173959 -0.11853675 54 7 -0.0047033848
5.6031094 2.3392386 1.6269366 45 15 -0.0047010807
3.6867733 1.5339003 -1.069958 9 0 -0.0046803448
6.2667055 2.6060145 0.11846693 65 8 -0.0046780407
4.3043776 1.7890953 -1.0761659 9 1 -0.0046757371
6.2286248 2.5876253 0.35347709 59 9 -0.004673433
5.2668314 2.1880572 -1.1086004 11 2 -0.0046711289
6.2451687 2.5932238 0.59161317 64 10 -0.0046688248
5.3274875 2.211076 -0.91357738 27 3 -0.0046665207
6.2103634 2.5762269 0.82554299 79 11 -0.0046642171
6.0311074 2.5006363 -0.80165666 30 4 -0.004661913
6.3961983 2.6506999 1.0966057 61 12 -0.0046596089
6.0647597 2.5133457 -0.57435632 33 5 -0.0046573048
7.7195783 3.1975539 1.6241663 5 13 -0.0046550008
6.0823064 2.5181334 -0.34499866 40 6 -0.0046526967
5.8179369 2.4074893 1.4536338 48 14 -0.004650393
6.2606115 2.5893905 -0.11825751 48 7 -0.0046480889
5.7522802 2.3779724 1.66783 43 15 -0.0046457849
3.6956768 1.522494 -1.0709932 12 0 -0.004625049
6.2498784 2.5734627 0.11797827 62 8 -0.0046227449
4.3196058 1.7777684 -1.0784154 9 1 -0.0046204408
6.2653251 2.577266 0.35504717 55 9 -0.0046181371
5.2708054 2.1681664 -1.1078371 11 2 -0.0046158331
6.2781391 2.5812559 0.59387922 59 10 -0.004613529
5.3315187 2.1909657 -0.91295165 28 3 -0.0046112249
6.2321715 2.5598137 0.82724917 84 11 -0.0046089208
6.0324545 2.4765513 -0.80068165 26 4 -0.0046066167
6.4236865 2.6358571 1.0997344 66 12 -0.0046043131
6.0734954 2.4921618 -0.57435632 28 5 -0.004602009
7.7797346 3.1907034 1.6344699 6 13 -0.0045997049
6.0910597 2.4968853 -0.34499866 32 6 -0.0045974008
5.8263044 2.3871677 1.4536338 65 14 -0.0045950972
6.2492552 2.5591862 -0.11787355 54 7 -0.0045927931
5.2956977 2.1676078 1.5332441 46 15 -0.004590489
3.6866596 1.5037465 -1.0668522 11 0 -0.0045697531
6.264379 2.553894 0.11808299 60 8 -0.004567449
4.3311992 1.7648864 -1.0797651 11 1 -0.0045651449
6.2650352 2.5516119 0.35452381 53 9 -0.0045628408
5.2674327 2.1453102 -1.1055473 13 2 -0.0045605367
6.2612767 2.5488069 0.59143883 59 10 -0.0045582331
5.335474 2.1708539 -0.91232592 38 3 -0.004555929
6.2190037 2.5290687 0.82432431 78 11 -0.0045536249
6.031868 2.45174 -0.79946297 33 4 -0.0045513208
6.3358521 2.5740139 1.0831524 56 12 -0.0045490172
6.0563154 2.460449 -0.57191598 35 5 -0.0045467131
6.204648 2.5194459 1.301699 10 13 -0.004544409
6.0997391 2.4756067 -0.34499866 40 6 -0.0045421049
5.8887763 2.3887928 1.4671308 21 14 -0.0045398008
6.2192345 2.5215764 -0.11714055 49 7 -0.0045374967
5.7490482 2.329772 1.662136 45 15 -0.0045351931
3.6883023 1.4894243 -1.0658169 11 0 -0.0045144567
6.2528572 2.5237801 0.11769903 57 8 -0.0045121531
4.3337193 1.7482976 -1.0788652 8 1 -0.004509849
6.2604961 2.5255928 0.35379109 57 9 -0.0045075449
5.2748876 2.126914 -1.1055473 13 2 -0.0045052408
6.2498078 2.5187447 0.58952147 57 10 -0.0045029367
5.3558459 2.1573813 -0.91451597 30 3 -0.0045006331
6.2222686 2.5051219 0.82359308 79 11 -0.004498329
6.0311809 2.426966 -0.79824424 26 4 -0.0044960249
6.2234039 2.504317 1.062503 62 12 -0.0044937208
6.0574737 2.4363179 -0.57121873 30 5 -0.0044914167
6.2243347 2.5021641 1.3039887 7 13 -0.0044891131
6.0953698 2.4490883 -0.34426597 34 6 -0.004486809
5.9223962 2.3783882 1.4734293 36 14 -0.0044845049
6.2405515 2.5061567 -0.11738489 43 7 -0.0044822008
5.4931984 2.2049093 1.5860431 13 15 -0.0044798967
3.6988606 1.478691 -1.0673697 12 0 -0.0044591608
