# .PCD v0.7 - Point Cloud Data file format
VERSION 0.7
FIELDS x y z intensity ring time
SIZE 4 4 4 4 2 4
TYPE F F F F U F
COUNT 1 1 1 1 1 1
WIDTH 887
HEIGHT 1
VIEWPOINT 0 0 0 1 0 0 0
POINTS 887
DATA ascii
-0.19070354 0.62027651 -0.14981739 12 1 -0.036670983
-0.18336554 0.59677982 -0.12135453 10 2 -0.036666375
-0.1779134 0.57975608 -0.096050769 42 3 -0.036661766
-0.2368909 0.77242327 0.099201649 60 11 -0.036659461
-0.19138269 0.62442476 -0.08019004 100 4 -0.036657158
-0.23488465 0.76683635 0.1270248 100 12 -0.036654852
-0.20014605 0.65342396 -0.059788838 71 5 -0.03665255
-0.23733282 0.77531207 0.15760824 70 13 -0.036650248
-0.19865376 0.64936131 -0.035588451 34 6 -0.036647942
-0.22790274 0.74543571 0.17996083 25 14 -0.03664564
-0.20626533 0.67508429 -0.012321399 10 7 -0.036643334
-0.17150901 0.56168139 0.15736198 12 15 -0.036641032
-0.18318455 0.60255361 -0.16875002 100 0 -0.036620293
-0.18834652 0.61992073 0.011309159 9 8 -0.036617991
-0.18853706 0.62093848 -0.14981739 12 1 -0.036615685
-0.1812811 0.59741628 -0.12135453 10 2 -0.036611076
-0.17588843 0.58037364 -0.096050769 40 3 -0.036606468
-0.23361759 0.77134567 0.098957919 61 11 -0.036604166
-0.18977709 0.62698895 -0.080433771 100 4 -0.036601864
-0.22591497 0.74685317 0.12358324 100 12 -0.036599558
-0.19382577 0.64076936 -0.05856866 63 5 -0.036597256
-0.23348863 0.77237737 0.156845 76 13 -0.03659495
-0.19638599 0.65005076 -0.035588451 34 6 -0.036592647
-0.2275521 0.75368905 0.18176045 8 14 -0.036590341
-0.19350986 0.6413402 -0.011693113 23 7 -0.036588039
-0.16396993 0.54378062 0.1521856 12 15 -0.036585733
-0.18108027 0.60318935 -0.16875002 100 0 -0.036564998
-0.17928571 0.59759027 0.010890301 10 8 -0.036562692
-0.18636857 0.62159276 -0.14981739 12 1 -0.03656039
-0.19663016 0.65623444 0.03590247 9 9 -0.036558084
-0.17919475 0.59804541 -0.12135453 10 2 -0.036555782
-0.18231964 0.60886097 0.055605359 8 10 -0.03655348
-0.17216264 0.57530671 -0.095112167 37 3 -0.036551174
-0.23490529 0.78546947 0.10066409 63 11 -0.036548872
-0.18701872 0.62574565 -0.08019004 79 4 -0.036546566
-0.2238721 0.7495299 0.12389611 100 12 -0.036544263
-0.18873702 0.63189673 -0.057697102 44 5 -0.036541957
-0.22966819 0.76942515 0.15608177 73 13 -0.036539655
-0.1872644 0.62776536 -0.034332391 45 6 -0.036537349
-0.18099292 0.60751551 -0.011064826 25 7 -0.036532741
-0.15655831 0.52583438 0.14700922 13 15 -0.036530439
-0.18062077 0.60937434 -0.17030294 100 0 -0.036509704
-0.17833436 0.60204715 0.010960111 40 8 -0.036507398
-0.18419778 0.62223947 -0.14981739 12 1 -0.036505096
-0.18810599 0.63584948 0.03475108 30 9 -0.03650279
-0.18601723 0.62878889 -0.12746042 9 2 -0.036500487
-0.1779336 0.60185117 0.054908119 9 10 -0.036498182
-0.16623549 0.56264311 -0.092922084 42 3 -0.036495879
-0.22373016 0.75772709 0.097008012 65 11 -0.036493573
-0.18539496 0.62829864 -0.080433771 78 4 -0.036491271
-0.22181325 0.7522015 0.12420898 100 12 -0.036488965
-0.18371257 0.62299645 -0.056825541 33 5 -0.036486663
-0.22920066 0.77775496 0.15760824 70 13 -0.036484357
-0.18168633 0.61691988 -0.033704359 46 6 -0.036482055
-0.18564218 0.63116497 -0.011483684 35 7 -0.036477447
-0.15799047 0.53749835 0.15011506 12 15 -0.036475141
-0.17686479 0.60443884 -0.16875002 100 0 -0.036454406
-0.16893564 0.57771486 0.01050635 64 8 -0.036452103
-0.18202448 0.62287867 -0.14981739 12 1 -0.036449797
-0.17815299 0.60963064 0.03328567 66 9 -0.036447495
-0.16731016 0.57289839 -0.11601188 10 2 -0.036445189
-0.17694816 0.60629368 0.055256739 27 10 -0.036442887
-0.16703585 0.57270187 -0.09448643 37 3 -0.036440581
-0.21775071 0.74706876 0.095545575 55 11 -0.036438279
-0.18042502 0.61941248 -0.07921508 67 4 -0.036435973
-0.22373693 0.76810545 0.12671193 100 12 -0.036433671
-0.1804229 0.61980796 -0.056476917 34 5 -0.036431365
-0.22648455 0.77855021 0.15760824 65 13 -0.036429062
-0.17841679 0.61371452 -0.033495016 56 6 -0.036426757
-0.18131666 0.62409586 -0.011344064 60 7 -0.036422148
-0.15943916 0.54915071 0.15322088 12 15 -0.036419846
-0.1790424 0.61990041 -0.17289113 100 0 -0.036399111
-0.17256787 0.59748352 0.010855397 71 8 -0.036396805
-0.17995806 0.62347883 -0.14981739 12 1 -0.036394503
-0.17436343 0.60449177 0.032971658 66 9 -0.036392197
-0.16639705 0.57725179 -0.11677512 10 2 -0.036389895
-0.17372784 0.60307866 0.054908119 54 10 -0.036387589
-0.16349547 0.56755799 -0.093547821 45 3 -0.036385287
-0.2048382 0.71154189 0.09091454 46 11 -0.036382981
-0.17946777 0.62382275 -0.079702556 72 4 -0.036380678
-0.21723384 0.75559241 0.12452185 100 12 -0.036378372
-0.17715776 0.61660427 -0.056128301 23 5 -0.03637607
-0.22552772 0.78495777 0.15875308 58 13 -0.036373764
-0.17417601 0.60662401 -0.033076327 48 6 -0.036371462
-0.17693216 0.6170361 -0.011204445 61 7 -0.036366854
-0.15805361 0.551561 0.15373853 25 15 -0.036364552
-0.16638763 0.58333564 -0.16253836 65 0 -0.036343813
-0.16993286 0.59615922 0.010820491 82 8 -0.036341511
-0.17778045 0.62410325 -0.14981739 12 1 -0.036339205
-0.17334579 0.60893857 0.033180997 89 9 -0.036336903
-0.1515812 0.53248274 -0.10761628 11 2 -0.036334597
-0.1706365 0.59981877 0.054559495 63 10 -0.036332294
-0.16097298 0.56622517 -0.093234949 45 3 -0.036329988
-0.19367298 0.68170029 0.08701472 34 11 -0.036327686
-0.17620464 0.62062627 -0.07921508 67 4 -0.03632538
-0.21459481 0.75634617 0.12452185 94 12 -0.036323078
-0.17021772 0.59993774 -0.054559495 24 5 -0.036320776
-0.22599977 0.79707301 0.16104279 55 13 -0.03631847
-0.16933486 0.59762025 -0.032552969 59 6 -0.036316168
-0.15184622 0.53625578 0.128672 16 14 -0.036313862
-0.17532183 0.61957407 -0.01123935 73 7 -0.036311559
-0.1503447 0.53166091 0.1480445 13 15 -0.036309253
-0.17115487 0.6080876 -0.16926767 61 0 -0.036288518
-0.16785097 0.59674871 0.010820491 92 8 -0.036286213
-0.17560098 0.62472004 -0.14981739 12 1 -0.03628391
-0.17446004 0.62107706 0.033809032 86 9 -0.036281604
-0.15503098 0.55190969 -0.11143246 11 2 -0.036279302
-0.16154169 0.57547349 0.052293446 78 10 -0.036277
-0.15579438 0.55537188 -0.091357745 49 3 -0.036274694
-0.17253824 0.61547291 0.078483865 20 11 -0.036272392
-0.17296629 0.61741447 -0.078727603 60 4 -0.036270086
-0.20662804 0.73806816 0.12139316 84 12 -0.036267783
-0.16651124 0.59477228 -0.054036558 36 5 -0.036265478
-0.22057153 0.78840375 0.15913472 53 13 -0.036263175
-0.1704745 0.60974866 -0.033180997 57 6 -0.036260869
-0.14997351 0.53678256 0.128672 16 14 -0.036258567
-0.17315817 0.62018228 -0.01123935 73 7 -0.036256261
-0.14641128 0.52473927 0.14597395 13 15 -0.036253959
-0.16179425 0.58262163 -0.16202073 44 0 -0.03623322
-0.16148919 0.58191597 0.010541254 95 8 -0.036230918
-0.17341906 0.6253292 -0.14981739 12 1 -0.036228616
-0.17122401 0.61783278 0.033599686 97 9 -0.03622631
-0.1562493 0.56379908 -0.11372217 11 2 -0.036224008
-0.16272269 0.58755457 0.053339314 84 10 -0.036221702
-0.15280089 0.55210477 -0.090732001 52 3 -0.036219399
-0.1677428 0.6065051 0.077265166 42 11 -0.036217093
-0.17398314 0.62949467 -0.08019004 66 4 -0.036214791
-0.19879122 0.71974415 0.11826447 72 12 -0.036212485
-0.16655564 0.60303187 -0.054733805 35 5 -0.036210183
-0.21625088 0.78349143 0.15798986 50 13 -0.036207877
-0.16515854 0.5987879 -0.032552969 69 6 -0.036205575
-0.14499177 0.52603072 0.12597258 16 14 -0.036203269
-0.16939899 0.61499923 -0.011134635 74 7 -0.036200967
-0.14868009 0.54014784 0.15011506 25 15 -0.036198661
-0.16078047 0.58690923 -0.16305602 21 0 -0.036177926
-0.16104077 0.58826232 0.010645968 94 8 -0.036175624
-0.17123532 0.62593073 -0.14981739 12 1 -0.036173318
-0.1632729 0.59723449 0.032448296 92 9 -0.036171015
-0.15013869 0.549191 -0.11066923 11 2 -0.036168709
-0.16329592 0.59772873 0.054210871 83 10 -0.036166407
-0.1503526 0.55072904 -0.090419129 57 3 -0.036164101
-0.16457987 0.6032567 0.076777697 75 11 -0.036161799
-0.16656315 0.61094624 -0.077752642 68 4 -0.036159493
-0.19316228 0.7089982 0.11638726 65 12 -0.036157191
-0.16025999 0.58823103 -0.053339314 24 5 -0.036154885
-0.20681027 0.75961548 0.15302883 55 13 -0.036152583
-0.15887283 0.58394307 -0.031715591 71 6 -0.036150277
-0.14110976 0.51901174 0.12417299 16 14 -0.036147974
-0.16934855 0.62330568 -0.011274255 72 7 -0.036145668
-0.13920103 0.51269817 0.14235048 27 15 -0.036143366
-0.15873092 0.58746684 -0.16305602 21 0 -0.036122631
-0.1579437 0.58495981 0.010576158 95 8 -0.036120325
-0.16904952 0.62652457 -0.14981739 12 1 -0.036118023
-0.1601474 0.59394401 0.032238953 92 9 -0.036115717
-0.14822087 0.5497117 -0.11066923 23 2 -0.036113415
-0.1612083 0.59829515 0.054210871 83 10 -0.036111109
-0.14945659 0.55506539 -0.091044866 60 3 -0.036108807
-0.1593785 0.59232605 0.075315259 77 11 -0.036106501
-0.16133668 0.60002196 -0.07629022 71 4 -0.036104199
-0.18709819 0.6963141 0.11419717 52 12 -0.036101893
-0.1576888 0.58686262 -0.053165 24 5 -0.03609959
-0.20212075 0.75274843 0.15150236 80 13 -0.036097284
-0.15890378 0.59221023 -0.03213428 80 6 -0.036094982
-0.13626911 0.50820756 0.12147357 17 14 -0.036092676
-0.16458382 0.61423534 -0.011099731 74 7 -0.036090374
-0.14090812 0.52624375 0.14597395 26 15 -0.036088072
-0.15667915 0.5880174 -0.16305602 21 0 -0.036067333
-0.15590096 0.58550757 0.010576158 95 8 -0.036065031
-0.16686133 0.6271109 -0.14981739 12 1 -0.036062725
-0.16115235 0.60608059 0.032866985 90 9 -0.036060423
-0.14428301 0.54263645 -0.10914275 11 2 -0.036058117
-0.15604918 0.58730072 0.053165 85 10 -0.036055814
-0.14751799 0.55558372 -0.091044866 60 3 -0.036053509
-0.16901892 0.63700891 0.080921248 100 11 -0.036051206
-0.16025884 0.60441899 -0.076777697 63 4 -0.0360489
-0.1705001 0.64349735 0.10543684 46 12 -0.036046598
-0.15257742 0.57585394 -0.052119136 51 5 -0.036044292
-0.19295962 0.72877723 0.14654131 100 13 -0.03604199
-0.15632488 0.59083045 -0.03202961 80 6 -0.036039688
-0.1369848 0.5181002 0.12372307 33 14 -0.036037382
-0.1639713 0.62060606 -0.011204445 85 7 -0.03603508
-0.13512519 0.51178968 0.14183284 27 15 -0.036032774
-0.16640677 0.63340336 -0.17547932 19 0 -0.036012039
-0.15182523 0.57831156 0.01043654 96 8 -0.036009733
-0.16467142 0.62768948 -0.14981739 12 1 -0.03600743
-0.1580229 0.60277545 0.032657638 100 9 -0.036005124
-0.14238809 0.54313678 -0.10914275 23 2 -0.036002822
-0.15197866 0.58013248 0.05246776 86 10 -0.036000516
-0.14357652 0.54845136 -0.089793392 63 3 -0.035998214
-0.15574181 0.59534472 0.075558998 99 11 -0.035995912
-0.15814818 0.60497469 -0.076777697 63 4 -0.035993606
-0.15776809 0.60395253 0.098866597 50 12 -0.035991304
-0.15409119 0.58987701 -0.053339314 61 5 -0.035988998
-0.19041434 0.72944641 0.14654131 100 13 -0.035986695
-0.15577403 0.59717029 -0.032343626 88 6 -0.035984389
-0.13664997 0.52423245 0.12507279 16 14 -0.035982087
-0.16230789 0.62310988 -0.01123935 85 7 -0.035979781
-0.13625781 0.52347553 0.14493866 13 15 -0.035977479
-0.1525702 0.5890969 -0.16305602 21 0 -0.03595674
-0.14930443 0.57690209 0.010401634 97 8 -0.035954438
-0.16247921 0.62826049 -0.14981739 12 1 -0.035952136
-0.15741692 0.6091246 0.032971658 100 9 -0.03594983
-0.13754381 0.53222567 -0.10685304 12 2 -0.035947528
-0.15045071 0.58258855 0.05264207 100 10 -0.035945222
-0.14067416 0.54512382 -0.089167662 68 3 -0.03594292
-0.15217549 0.59011817 0.074827783 100 11 -0.035940614
-0.15702601 0.60936767 -0.077265166 63 4 -0.035938311
-0.1541813 0.59876066 0.097927988 61 12 -0.035936005
-0.14905031 0.57883459 -0.052293446 75 5 -0.035933703
-0.1854209 0.72059995 0.14463322 100 13 -0.035931397
-0.15070418 0.58610439 -0.031715591 92 6 -0.035929095
-0.13578923 0.52848107 0.12597258 32 14 -0.035926789
-0.15615351 0.6081776 -0.010960111 88 7 -0.035924487
-0.13394946 0.52207673 0.14442104 40 15 -0.035922181
-0.14728989 0.5774197 0.010401634 100 8 -0.035899144
-0.16028531 0.62882382 -0.14981739 12 1 -0.035896838
-0.15183897 0.59612215 0.032238953 92 9 -0.035894535
-0.13762364 0.54031253 -0.10837951 23 2 -0.03589223
-0.1484163 0.58311015 0.05264207 100 10 -0.035889927
-0.13877057 0.54561156 -0.089167662 65 3 -0.035887621
-0.15500452 0.60988498 0.077265166 100 11 -0.035885319
-0.14854553 0.58489996 -0.074096568 59 4 -0.035883013
-0.15306222 0.6031245 0.098553732 75 12 -0.035880711
-0.14996959 0.59093833 -0.053339314 74 5 -0.035878405
-0.18386976 0.72504884 0.14539646 63 13 -0.035876103
-0.14375104 0.56726629 -0.030668873 95 6 -0.035873797
-0.12772496 0.50439334 0.12012386 34 14 -0.035871495
-0.16089734 0.63585931 -0.011448778 83 7 -0.035869189
-0.13922966 0.55063474 0.1521856 25 15 -0.035866886
-0.14819825 0.58956659 0.010611064 100 8 -0.035843845
-0.15808916 0.62937957 -0.14981739 12 1 -0.035841543
-0.14927107 0.5947113 0.03213428 93 9 -0.035839237
-0.13478097 0.53698123 -0.10761628 23 2 -0.035836935
-0.1478339 0.58942229 0.053165 100 10 -0.035834629
-0.13686503 0.54609263 -0.089167662 65 3 -0.035832327
-0.14660552 0.58538926 0.074096568 100 11 -0.035830021
-0.14843073 0.59311771 -0.075071529 65 4 -0.035827719
-0.1499974 0.59982246 0.097927988 97 12 -0.035825413
-0.14742239 0.58952534 -0.053165 74 5 -0.03582311
-0.1661071 0.66473627 0.13318469 15 13 -0.035820805
-0.1446733 0.57939118 -0.031296905 93 6 -0.035818502
-0.12501985 0.50105458 0.11922406 34 14 -0.035816196
-0.15190384 0.60925293 -0.010960111 88 7 -0.035813894
-0.1293676 0.51925004 0.14338575 27 15 -0.035811588
-0.16963001 0.68441814 -0.1889379 16 0 -0.035791159
-0.1466202 0.59202129 0.010645968 94 8 -0.035788856
-0.15589109 0.62992758 -0.14981739 12 1 -0.03578655
-0.14681788 0.5932644 0.03202961 93 9 -0.035784248
-0.13102041 0.52982515 -0.10608982 24 2 -0.035781942
-0.14242999 0.57639521 0.051944822 97 10 -0.03577964
-0.13779904 0.5580737 -0.091044866 73 3 -0.035777334
-0.15692484 0.63600713 0.080433771 100 11 -0.035775032
-0.14350843 0.58206791 -0.073609091 60 4 -0.035772726
-0.14848046 0.60223442 0.098240852 100 12 -0.035770424
-0.13964431 0.56682187 -0.051073264 91 5 -0.035768118
-0.15721567 0.63862324 0.12784202 17 13 -0.035765816
-0.14026462 0.57019544 -0.030773545 85 6 -0.03576351
-0.12652613 0.51473486 0.12237337 34 14 -0.035761207
-0.14701849 0.59810203 -0.010750683 100 7 -0.035758901
-0.12764485 0.51967621 0.14338575 27 15 -0.035756599
-0.14086176 0.57696319 0.010366729 97 8 -0.035733558
-0.15380144 0.63044101 -0.14981739 12 1 -0.035731256
-0.14521953 0.59571356 0.03213428 93 9 -0.03572895
-0.13195787 0.54172409 -0.10837951 23 2 -0.035726648
-0.13853218 0.56914544 0.051247574 100 10 -0.035724342
-0.13221037 0.5431729 -0.088541918 70 3 -0.03572204
-0.15340762 0.63073736 0.079702556 100 11 -0.035719734
-0.14439006 0.5941143 -0.075071529 58 4 -0.035717431
-0.14451253 0.59507078 0.096989378 100 12 -0.035715126
-0.13860495 0.57117814 -0.051421888 91 5 -0.035712823
-0.14861551 0.61243069 0.12249938 9 13 -0.035710517
-0.14307941 0.59006757 -0.031820264 100 6 -0.035708215
-0.12344195 0.50946975 0.12102367 34 14 -0.035705909
-0.14869465 0.61415982 -0.011029921 100 7 -0.035703607
-0.12764697 0.52762938 0.14545631 26 15 -0.035701301
-0.16496739 0.68555689 -0.1889379 16 0 -0.035680566
-0.13744482 0.57161844 0.010262014 100 8 -0.035678264
-0.15159999 0.63097405 -0.14981739 12 1 -0.035675958
-0.14453782 0.60204309 0.032448296 92 9 -0.035673656
-0.12557772 0.52306867 -0.10456334 24 2 -0.03567135
-0.1380388 0.57541388 0.051770512 88 10 -0.035669047
-0.1293927 0.53978914 -0.08791618 77 3 -0.035666741
-0.14565603 0.60810322 0.076777697 100 11 -0.035664439
-0.13861868 0.57917023 -0.073121615 60 4 -0.035662133
-0.14381301 0.60133523 0.097927988 100 12 -0.035659831
-0.1376368 0.5755102 -0.051770512 90 5 -0.035657525
-0.13826302 0.57857496 0.11563025 9 13 -0.035655223
-0.13916317 0.58279288 -0.031401578 100 6 -0.035652917
-0.12211519 0.51179302 0.12147357 34 14 -0.035650615
-0.14376718 0.6030041 -0.010820491 100 7 -0.035648312
-0.12132727 0.50927919 0.14027993 27 15 -0.035646006
-0.16257347 0.6861285 -0.1889379 16 0 -0.035625271
-0.13544852 0.5720948 0.010262014 100 8 -0.035622966
-0.14939639 0.63149941 -0.14981739 12 1 -0.035620663
-0.14381395 0.60837501 0.032762311 100 9 -0.035618357
-0.12600943 0.53305674 -0.10647143 36 2 -0.035616055
-0.13419719 0.56813616 0.051073264 100 10 -0.035613749
-0.12750755 0.54023755 -0.08791618 77 3 -0.035611447
-0.14170997 0.60087961 0.075802736 100 11 -0.035609141
-0.13659656 0.5796504 -0.073121615 60 4 -0.035606839
-0.14216565 0.60375631 0.098240852 100 12 -0.035604537
-0.1356269 0.57598722 -0.051770512 90 5 -0.035602231
-0.14298737 0.60772014 0.12135453 18 13 -0.035599928
-0.13347164 0.56772107 -0.030564202 86 6 -0.035597622
-0.11988217 0.51031911 0.12102367 34 14 -0.03559532
-0.14348915 0.61128944 -0.010960111 100 7 -0.035593014
-0.11778459 0.50217623 0.13820937 42 15 -0.035590712
-0.13572012 0.58230162 0.01043654 100 8 -0.035567671
-0.14719157 0.63201696 -0.14981739 12 1 -0.035565365
-0.13761516 0.59136581 0.031820264 94 9 -0.035563063
-0.121033 0.52010822 -0.1038001 37 2 -0.035560757
-0.13492048 0.58024484 0.052119136 87 10 -0.035558455
-0.12651548 0.54452753 -0.088541918 81 3 -0.035556152
-0.13736692 0.59170228 0.074584045 100 11 -0.035553847
-0.13098362 0.56465381 -0.071171708 69 4 -0.035551544
-0.13738145 0.59270269 0.096363649 100 12 -0.035549238
-0.13541543 0.58422071 -0.05246776 88 5 -0.035546936
-0.13820717 0.59673977 0.11906482 19 13 -0.03554463
-0.13058835 0.56429183 -0.030354859 100 6 -0.035542328
-0.11239275 0.48605207 0.11517494 36 14 -0.035540022
-0.13865358 0.6000964 -0.010750683 100 7 -0.03553772
-0.11994196 0.51952541 0.14286812 40 15 -0.035535414
-0.13547525 0.59056807 0.010576158 100 8 -0.035512373
-0.14498435 0.63252693 -0.14981739 12 1 -0.035510071
-0.1355499 0.59184265 0.031820264 100 9 -0.035507768
-0.11790171 0.51478648 -0.10265525 37 2 -0.035505462
-0.13022758 0.56905919 0.051073264 100 10 -0.03550316
-0.12681545 0.55459422 -0.090106264 84 3 -0.035500854
-0.14502798 0.63475311 0.079946294 100 11 -0.035498552
-0.12945375 0.56704289 -0.071415439 69 4 -0.035496246
-0.13487221 0.59125268 0.096050769 100 12 -0.035493944
-0.12938718 0.56720746 -0.050898954 100 5 -0.035491638
-0.13263282 0.58190531 0.11601188 19 13 -0.035489336
-0.13349654 0.58616555 -0.031506252 92 6 -0.03548703
-0.11199274 0.49214193 0.11652464 35 14 -0.035484727
-0.13389762 0.5888772 -0.010541254 100 7 -0.035482422
-0.11598787 0.51052171 0.14027993 41 15 -0.035480119
-0.13121127 0.58128428 0.010401634 100 8 -0.035457078
-0.13436176 0.59620887 0.03202961 100 9 -0.03545247
-0.11955731 0.53051656 -0.10570819 36 2 -0.035450168
-0.12736489 0.56562287 0.05072464 91 10 -0.035447862
-0.12140978 0.53961593 -0.087603308 90 3 -0.03544556
-0.13889292 0.61782467 0.077752642 100 11 -0.035443254
-0.13095397 0.582986 -0.073365353 67 4 -0.035440952
-0.13410516 0.59750223 0.096989378 100 12 -0.035438646
-0.12740631 0.56765568 -0.050898954 100 5 -0.035436343
-0.12673442 0.56512362 0.11257731 20 13 -0.035434037
-0.13101275 0.58467907 -0.031401578 100 6 -0.035431735
-0.11410595 0.50964481 0.12057376 34 14 -0.035429429
-0.13402416 0.59909827 -0.010715778 100 7 -0.035427127
-0.11041219 0.49395555 0.13562119 43 15 -0.035424821
-0.12874804 0.5797866 0.010366729 100 8 -0.035401784
-0.14056495 0.6335237 -0.14981739 12 1 -0.035399478
-0.1327119 0.59862417 0.03213428 100 9 -0.035397176
-0.1160049 0.52326381 -0.10418171 37 2 -0.03539487
-0.12582073 0.56800926 0.050898954 100 10 -0.035392568
-0.1186718 0.53617907 -0.086977579 88 3 -0.035390262
-0.13802151 0.62412053 0.078483865 22 11 -0.035387959
-0.12634821 0.57180953 -0.071902916 77 4 -0.035385653
-0.13031533 0.59025097 0.095737904 100 12 -0.035383351
-0.12499464 0.56615138 -0.05072464 100 5 -0.035381045
-0.1222236 0.55405957 0.1102876 21 13 -0.035378743
-0.12553167 0.56952935 -0.030564202 100 6 -0.035376437
-0.1098116 0.49862123 0.11787436 35 14 -0.035374135
-0.13150248 0.59760946 -0.010680873 100 7 -0.035371833
-0.11117616 0.50565863 0.13872701 42 15 -0.035369527
-0.12672327 0.5802325 0.010366729 100 8 -0.035346486
-0.13835251 0.63401055 -0.14981739 12 1 -0.035344183
-0.12774518 0.58540165 0.031401578 100 9 -0.035341877
-0.11668717 0.53517467 -0.10647143 48 2 -0.035339575
-0.12553348 0.5762319 0.051596198 98 10 -0.035337269
-0.11595905 0.53272969 -0.086351842 93 3 -0.035334967
-0.12740481 0.58580351 0.073609091 100 11 -0.035332661
-0.12149863 0.55864704 -0.070196748 94 4 -0.035330359
-0.1312934 0.60419226 0.097927988 100 12 -0.035328053
-0.12259476 0.5646373 -0.05055033 100 5 -0.035325751
-0.11862406 0.54680836 0.10876114 10 13 -0.035323448
-0.12142753 0.56020433 -0.03004084 100 6 -0.035321143
-0.10650612 0.4913646 0.11607475 35 14 -0.03531884
-0.13417579 0.61954051 -0.011064826 100 7 -0.035316534
-0.10868169 0.50224823 0.13769174 42 15 -0.035314232
-0.12437836 0.57869446 0.010331824 100 8 -0.035291191
-0.13624942 0.63446581 -0.14981739 12 1 -0.035288885
-0.12580334 0.58582205 0.031401578 100 9 -0.035286583
-0.11244046 0.5240413 -0.10418171 49 2 -0.035284277
-0.12236913 0.57080066 0.051073264 100 10 -0.035281975
-0.11667434 0.54470062 -0.088229045 89 3 -0.035279669
-0.12836941 0.59981078 0.075315259 100 11 -0.035277367
-0.11798353 0.55128241 -0.069221795 97 4 -0.035275064
-0.12805001 0.59882909 0.096989378 100 12 -0.035272758
-0.12197063 0.57088596 -0.051073264 91 5 -0.035270456
-0.11926913 0.55871868 0.11105084 10 13 -0.03526815
-0.12290221 0.57623053 -0.030878218 100 6 -0.035265848
-0.10243721 0.48027977 0.11337533 36 14 -0.035263542
-0.12711929 0.59651268 -0.010645968 100 7 -0.03526124
-0.10902725 0.51205337 0.14027993 55 15 -0.035258934
-0.12452707 0.58888596 0.01050635 100 8 -0.035235893
-0.13414453 0.63491422 -0.14981739 12 1 -0.035233591
-0.12375779 0.58625758 0.031401578 100 9 -0.035231285
-0.11313518 0.53593683 -0.10647143 48 2 -0.035228983
-0.12088663 0.57315278 0.051247574 100 10 -0.03522668
-0.11568192 0.54895043 -0.088854782 89 3 -0.035224374
-0.12883374 0.61188811 0.076777697 100 11 -0.035222072
-0.11605832 0.55169088 -0.069221795 100 4 -0.035219766
-0.12230191 0.58187425 0.094173566 100 12 -0.035217464
-0.11670142 0.55570936 -0.049678776 81 5 -0.035215158
-0.11257391 0.53605503 0.10647143 10 13 -0.035212856
-0.11934998 0.56881613 -0.030459529 100 6 -0.03521055
-0.10036013 0.47872719 0.11292543 36 14 -0.035208248
-0.12585633 0.60086721 -0.010715778 100 7 -0.035205942
-0.1036776 0.49541286 0.13562119 57 15 -0.035203639
-0.12084359 0.58148551 0.010366729 100 8 -0.035180598
-0.13192759 0.63537854 -0.14981739 12 1 -0.035178296
-0.12333327 0.59450853 0.031820264 100 9 -0.03517599
-0.10877921 0.52481353 -0.10418171 37 2 -0.035173688
-0.11757314 0.56773901 0.05072464 100 10 -0.035171382
-0.1112678 0.53776431 -0.086977579 99 3 -0.03516908
-0.12709911 0.61427808 0.077021435 100 11 -0.035166774
-0.11614133 0.56181252 -0.070440486 100 4 -0.035164472
-0.12226801 0.59197026 0.095737904 100 12 -0.035162166
-0.11476077 0.55611336 -0.049678776 81 5 -0.035159864
-0.11021185 0.53454125 0.10608982 22 13 -0.035157558
-0.11807042 0.57316214 -0.030668873 100 6 -0.035155255
-0.10174773 0.49436164 0.11652464 35 14 -0.035152949
-0.12335487 0.59934425 -0.010680873 100 7 -0.035150647
-0.1011693 0.49198726 0.13458592 58 15 -0.035148341
-0.11711231 0.57408726 0.01022711 100 8 -0.035125304
-0.12959807 0.63585776 -0.14981739 12 1 -0.035122998
-0.12155212 0.59691358 0.031924937 100 9 -0.035120696
-0.10694673 0.52519 -0.10418171 37 2 -0.03511839
-0.11519329 0.56619364 0.05055033 100 10 -0.035116088
-0.10860311 0.53427786 -0.086351842 99 3 -0.035113782
-0.12089611 0.59528595 0.074584045 100 11 -0.035111479
-0.11329176 0.55834353 -0.069953009 100 4 -0.035109174
-0.12166725 0.60015845 0.096989378 100 12 -0.035106871
-0.11153531 0.55067194 -0.049155835 81 5 -0.035104565
-0.10055076 0.49643904 0.098457448 23 13 -0.035102263
-0.11567271 0.57161325 -0.030564202 100 6 -0.035099957
-0.10040753 0.49662396 0.11697455 35 14 -0.035097655
-0.12194935 0.60371256 -0.010750683 100 7 -0.035095349
-0.10356943 0.51318514 0.14027993 55 15 -0.035093047
-0.11589377 0.57841396 0.01029692 100 8 -0.035070006
-0.12737754 0.63630629 -0.14981739 12 1 -0.035067704
-0.11790082 0.58950049 0.031506252 100 9 -0.035065398
-0.10579059 0.52942884 -0.10494495 49 2 -0.035063095
-0.11506773 0.57638115 0.051421888 100 10 -0.035060789
-0.10664402 0.53467232 -0.086351842 99 3 -0.035058487
-0.12308847 0.61711854 0.077265166 100 11 -0.035056181
-0.11017863 0.55289513 -0.069221795 100 4 -0.035053879
-0.12072885 0.60639161 0.097927988 100 12 -0.035051573
-0.10883488 0.54714972 -0.048807211 82 5 -0.035049271
-0.10179207 0.512209 0.10151039 23 13 -0.035046965
-0.11124322 0.56027919 -0.02993617 100 6 -0.035044663
-0.099345103 0.50081164 0.11787436 35 14 -0.03504236
-0.12061928 0.6080575 -0.010820491 100 7 -0.035040054
-0.10102619 0.50975358 0.13924466 56 15 -0.035037752
-0.1133869 0.57687271 0.010262014 100 8 -0.035014711
-0.11622734 0.59186816 0.031610921 100 9 -0.035010103
-0.10091799 0.51438272 -0.10189201 50 2 -0.035007797
-0.11382141 0.58068973 0.051770512 100 10 -0.035005495
-0.10629562 0.54279548 -0.087603308 99 3 -0.035003189
-0.11739556 0.60003215 0.075071529 100 11 -0.035000887
-0.10815102 0.55329537 -0.069221795 100 4 -0.034998581
-0.11292699 0.57772899 0.093234949 100 12 -0.034996279
-0.10539695 0.53970456 -0.048109971 84 5 -0.034993976
-0.10639456 0.54531884 0.1079979 21 13 -0.03499167
-0.10966877 0.56262445 -0.03004084 100 6 -0.034989368
-0.094988905 0.48776564 0.11472505 36 14 -0.034987062
-0.1154382 0.59277231 -0.010541254 100 7 -0.03498476
-0.099246554 0.51010305 0.13924466 56 15 -0.034982454
-0.11374838 0.58902603 0.010471444 100 8 -0.034959413
-0.12293249 0.63718003 -0.14981739 12 1 -0.034957111
-0.11302643 0.58638686 0.031296905 100 9 -0.034954805
-0.10283414 0.53401023 -0.10570819 60 2 -0.034952503
-0.11028848 0.57325739 0.051073264 100 10 -0.0349502
-0.10524157 0.54702455 -0.088229045 86 3 -0.034947895
-0.12065066 0.62770998 0.078483865 100 11 -0.034945592
-0.10631575 0.55365092 -0.069221795 100 4 -0.034943286
-0.11351532 0.59169954 0.095425032 100 12 -0.034940984
-0.10351223 0.54006916 -0.048109971 70 5 -0.034938678
-0.10125944 0.52831537 0.10456334 22 13 -0.034936376
-0.10742693 0.56102347 -0.02993617 100 6 -0.03493407
-0.092638664 0.48424986 0.11382524 36 14 -0.034931768
-0.11224201 0.5872792 -0.01043654 19 7 -0.034929462
-0.095653586 0.50095844 0.13665645 57 15 -0.03492716
-0.10945789 0.57763112 0.010262014 100 8 -0.034904119
-0.1207074 0.63760525 -0.14981739 12 1 -0.034901816
-0.1120922 0.59266526 0.031610921 100 9 -0.03489951
-0.099603198 0.52663207 -0.10418171 49 2 -0.034897208
-0.10653712 0.56383127 0.050201707 100 10 -0.034894902
-0.10113278 0.5357421 -0.086351842 99 3 -0.0348926
-0.11919438 0.63202864 0.078971341 100 11 -0.034890294
-0.10585278 0.5618217 -0.070196748 100 4 -0.034887992
-0.10852581 0.57656193 0.092922084 100 12 -0.034885686
-0.10172084 0.54040945 -0.048109971 84 5 -0.034883384
-0.097237557 0.51708895 0.10227363 22 13 -0.034881078
-0.10657436 0.56728369 -0.030250184 100 6 -0.034878775
-0.10908556 0.58177108 -0.010331824 26 7 -0.034874167
-0.093548745 0.49939051 0.13613883 57 15 -0.034871861
-0.10524809 0.56621355 0.010052586 19 8 -0.034848824
-0.11848114 0.63802272 -0.14981739 12 1 -0.034846518
-0.11111608 0.59894407 0.031924937 100 9 -0.034844216
-0.09561599 0.51539463 -0.10189201 50 2 -0.03484191
-0.10602053 0.57203585 0.050898954 100 10 -0.034839608
-0.098542891 0.53220707 -0.085726097 90 3 -0.034837302
-0.11446039 0.61877692 0.077265166 100 11 -0.034835
-0.10605526 0.57390004 -0.071659178 100 4 -0.034832694
-0.10794693 0.58470756 0.094173566 100 12 -0.034830391
-0.099110268 0.5368427 -0.047761347 84 5 -0.034828085
-0.095432341 0.51742512 0.10227363 22 13 -0.034825783
-0.10350763 0.56175977 -0.02993617 100 6 -0.034823477
-0.08854989 0.48105177 0.11292543 36 14 -0.034821175
-0.10669288 0.5801816 -0.01029692 26 7 -0.034818869
-0.092153907 0.50161403 0.13665645 71 15 -0.034816567
-0.10362969 0.56854475 0.010087491 100 8 -0.034793526
-0.10652234 0.58557326 0.031192232 100 9 -0.034788918
-0.09592443 0.5273146 -0.10418171 37 2 -0.034786616
-0.10437946 0.5743627 0.051073264 100 10 -0.03478431
-0.097390138 0.53643513 -0.086351842 90 3 -0.034782007
-0.11265385 0.621126 0.077508911 100 11 -0.034779701
-0.10015838 0.55278057 -0.068978056 100 4 -0.034777399
-0.10942384 0.60451865 0.097302251 100 12 -0.034775093
-0.099365085 0.54894847 -0.048807211 82 5 -0.034772791
-0.091529384 0.50616366 0.099983923 23 13 -0.034770485
-0.10012598 0.55425584 -0.029517481 100 6 -0.034768183
-0.08825466 0.48902896 0.11472505 54 14 -0.034765877
-0.10466687 0.58055055 -0.01029692 28 7 -0.034763575
-0.091429554 0.50763649 0.13820937 70 15 -0.034761272
-0.10305144 0.57677716 0.01022711 20 8 -0.034738231
-0.11402371 0.63883442 -0.14981739 12 1 -0.034735925
-0.10307539 0.57807648 0.030773545 100 9 -0.034733623
-0.092015535 0.51604962 -0.10189201 37 2 -0.034731317
-0.10202464 0.57276201 0.050898954 100 10 -0.034729015
-0.09551689 0.53677177 -0.086351842 88 3 -0.034726709
-0.10770566 0.60587978 0.075558998 100 11 -0.034724407
-0.096492834 0.54335427 -0.067759365 100 4 -0.034722101
-0.10110181 0.5698868 0.09167061 100 12 -0.034719799
-0.093967862 0.52967447 -0.047064099 86 5 -0.034717493
-0.089762092 0.50648004 0.099983923 23 13 -0.034715191
-0.09714593 0.548702 -0.029203467 100 6 -0.034712888
-0.10159606 0.5750047 -0.010192206 31 7 -0.03470828
-0.08932133 0.50605011 0.13769174 70 15 -0.034705974
-0.10138217 0.57910305 0.010262014 23 8 -0.034682933
-0.1003693 0.57449794 0.030564202 20 9 -0.034678325
-0.088186212 0.5047639 -0.099602297 38 2 -0.034676023
-0.099682003 0.57115197 0.05072464 100 10 -0.034673717
-0.094999865 0.54488593 -0.087603308 90 3 -0.034671415
-0.10831483 0.62189734 0.077508911 22 11 -0.034669112
-0.095275976 0.5475992 -0.068246834 100 4 -0.034666806
-0.10215643 0.58775204 0.09448643 100 12 -0.034664504
-0.090412602 0.52018446 -0.046192542 87 5 -0.034662198
-0.089336872 0.51452756 0.10151039 23 13 -0.034659896
-0.098984733 0.57068437 -0.030354859 86 6 -0.03465759
-0.084505744 0.48771301 0.11427514 54 14 -0.034655288
-0.099588141 0.57535589 -0.010192206 30 7 -0.034652982
-0.083933778 0.48541918 0.13199772 73 15 -0.03465068
-0.097332463 0.56762785 0.010052586 23 8 -0.034627639
-0.10038431 0.58665663 0.031192232 20 9 -0.034623031
-0.089072585 0.52054971 -0.10265525 50 2 -0.034620728
-0.095673651 0.55971301 0.049678776 100 10 -0.034618422
-0.090437472 0.52963668 -0.08510036 88 3 -0.03461612
-0.10580938 0.62031478 0.077265166 100 11 -0.034613814
-0.094364367 0.55379909 -0.068978056 100 4 -0.034611512
-0.10043549 0.59005243 0.094799295 100 12 -0.034609206
-0.089264773 0.52442515 -0.046541166 100 5 -0.034606904
-0.086552858 0.50902981 0.10036553 23 13 -0.034604598
-0.09598881 0.56511915 -0.03004084 88 6 -0.034602296
-0.097579017 0.57570004 -0.010192206 31 7 -0.034597687
-0.082883947 0.48951861 0.13303299 87 15 -0.034595381
-0.094026022 0.56007582 0.0099129668 23 8 -0.034572344
-0.098336011 0.58700347 0.031192232 100 9 -0.034567736
-0.089201301 0.53247505 -0.10494495 49 2 -0.03456543
-0.095034502 0.56790382 0.050376017 100 10 -0.034563128
-0.089239649 0.53384584 -0.085726097 88 3 -0.034560822
-0.10495138 0.62851232 0.078240126 22 11 -0.03455852
-0.093410358 0.55999929 -0.069709271 100 4 -0.034556214
-0.098375328 0.59039938 0.094799295 100 12 -0.034553912
-0.089398555 0.53652531 -0.047587033 100 5 -0.034551606
-0.081552185 0.48996276 0.096549362 24 13 -0.034549303
-0.092049964 0.55362958 -0.029412812 78 6 -0.034546997
-0.096223556 0.57998258 -0.010262014 30 7 -0.034542389
-0.083069697 0.50124013 0.13613883 71 15 -0.034540087
-0.098760642 0.60046577 -0.16305602 21 0 -0.034519352
-0.092070542 0.56040055 0.0099129668 23 8 -0.034517046
-0.1050933 0.64036411 -0.14981739 12 1 -0.034514744
-0.094670691 0.57748842 0.030668873 100 9 -0.034512438
-0.083530642 0.50953448 -0.10036553 38 2 -0.034510136
-0.093373679 0.5701983 0.05055033 100 10 -0.03450783
-0.087694377 0.53610355 -0.086038962 85 3 -0.034505527
-0.099235401 0.6073246 0.075558998 100 11 -0.034503222
-0.087937631 0.53877103 -0.067028143 100 4 -0.034500919
-0.095360376 0.58489025 0.093860693 100 12 -0.034498613
-0.086242884 0.52896839 -0.046889789 100 5 -0.034496311
-0.080472432 0.49411991 0.097312599 24 13 -0.034494005
-0.08979629 0.55197614 -0.029308137 90 6 -0.034491703
-0.078143664 0.48087713 0.11247552 55 14 -0.034489397
-0.093877889 0.57834107 -0.01022711 28 7 -0.034487095
-0.080701008 0.49771312 0.13510354 87 15 -0.034484789
-0.091263339 0.56660974 0.010017681 22 8 -0.034480415
-0.10308114 0.64069104 -0.14981739 12 1 -0.034478109
-0.091905363 0.57186711 0.030354859 100 9 -0.034475807
-0.081306547 0.50591761 -0.099602297 38 2 -0.034473501
-0.092844911 0.57835764 0.051247574 100 10 -0.034471199
-0.08726088 0.54417825 -0.087290443 85 3 -0.034468893
-0.095757268 0.5978328 0.074340306 100 11 -0.034466591
-0.086244449 0.53904468 -0.067028143 100 4 -0.034464285
-0.092275552 0.57738441 0.092609212 93 12 -0.034461983
-0.08678174 0.54300869 -0.048109971 100 5 -0.034459677
-0.082633674 0.51763475 0.10189201 23 13 -0.034457374
-0.088061608 0.55225551 -0.029308137 90 6 -0.034455068
-0.077245705 0.48496923 0.11337533 73 14 -0.034452766
-0.092374824 0.58060795 -0.010262014 22 7 -0.03445046
-0.078530677 0.4941484 0.13406827 100 15 -0.034448158
-0.090529464 0.5748263 0.0101573 20 8 -0.034425117
-0.10084392 0.64104706 -0.14981739 12 1 -0.034422815
-0.090528525 0.57613063 0.030564202 100 9 -0.034420509
-0.081368446 0.51783514 -0.10189201 50 2 -0.034418207
-0.088663109 0.56490016 0.050027393 100 10 -0.034415901
-0.085360669 0.54447955 -0.087290443 79 3 -0.034413598
-0.09520527 0.6079694 0.075558998 22 11 -0.034411293
-0.087123379 0.5569936 -0.069221795 100 4 -0.03440899
-0.088429816 0.56599289 0.090732001 73 12 -0.034406684
-0.083040275 0.53149724 -0.047064099 100 5 -0.034404382
-0.081128873 0.51985985 0.10227363 22 13 -0.034402076
-0.087056316 0.55847991 -0.029622154 100 6 -0.034399774
-0.075552247 0.4852359 0.11337533 73 14 -0.034397468
-0.088810883 0.57104719 -0.010087491 22 7 -0.034395166
-0.075619228 0.48678371 0.13199772 88 15 -0.03439286
-0.086088642 0.55932748 0.0098780626 100 8 -0.034369823
-0.090336137 0.58828771 0.031192232 100 9 -0.034365214
-0.077684194 0.50648648 -0.099602297 38 2 -0.034362908
-0.086086437 0.5612675 0.049678776 100 10 -0.034360606
-0.082262866 0.53696382 -0.086038962 85 3 -0.0343583
-0.096385844 0.62988275 0.078240126 25 11 -0.034355998
-0.084578574 0.5533697 -0.068734311 100 4 -0.034353692
-0.088540249 0.57996738 0.092922084 69 12 -0.03435139
-0.082293168 0.53967655 -0.047761347 100 5 -0.034349084
-0.085309044 0.56076974 -0.029726826 100 6 -0.034344476
-0.074444048 0.48934987 0.11427514 72 14 -0.034342173
-0.088319443 0.58123869 -0.010262014 100 7 -0.034339871
-0.084038146 0.55963922 0.0098780626 100 8 -0.034314524
-0.081801549 0.54539311 -0.1273223 15 1 -0.034312222
-0.089067191 0.59454054 0.031506252 100 9 -0.034309916
-0.076408483 0.51065105 -0.10036553 38 2 -0.034307614
-0.084323674 0.56354964 0.049853083 100 10 -0.034305308
-0.077958524 0.52163231 -0.083536014 85 3 -0.034303006
-0.088801377 0.59489167 0.073852822 100 11 -0.0343007
-0.082842663 0.55563945 -0.068978056 100 4 -0.034298398
-0.086414099 0.58028799 0.092922084 59 12 -0.034296095
-0.077676147 0.52223819 -0.046192542 100 5 -0.034293789
-0.07327728 0.49325332 0.096930973 24 13 -0.034291487
-0.079735525 0.5373711 -0.028470764 100 6 -0.034289181
-0.072650097 0.4896194 0.11427514 72 14 -0.034286879
-0.087947026 0.59342712 -0.010471444 100 7 -0.034284573
-0.072699696 0.49113438 0.13303299 87 15 -0.034282271
-0.082565941 0.56390071 0.0099478718 100 8 -0.03425923
-0.084390089 0.57706171 0.030564202 100 9 -0.034254622
-0.075760365 0.51868528 -0.10189201 50 2 -0.034252316
-0.082832947 0.56779796 0.050201707 100 10 -0.034250014
-0.07661587 0.52582401 -0.084161758 85 3 -0.034247711
-0.087191686 0.59914201 0.074340306 21 11 -0.034245405
-0.079187214 0.54413885 -0.067515619 100 4 -0.034243103
-0.083251573 0.57276672 0.09167061 55 12 -0.034240797
-0.078715459 0.54222327 -0.047935657 100 5 -0.034238495
-0.072400056 0.4993349 0.098075822 23 13 -0.034236189
-0.076714382 0.52973956 -0.028052075 100 6 -0.034233887
-0.085875452 0.59373039 -0.010471444 23 7 -0.034229279
-0.069879927 0.4837372 0.13096245 89 15 -0.034226973
-0.082960777 0.58000773 0.01022711 17 8 -0.034203932
-0.082758315 0.57931554 0.030668873 100 9 -0.034199327
-0.074040025 0.51893365 -0.10189201 50 2 -0.034197021
-0.082355097 0.57793188 0.051073264 100 10 -0.034194719
-0.076263279 0.53585356 -0.085726097 88 3 -0.034192413
-0.083528355 0.58763582 0.072877876 100 11 -0.034190111
-0.075985663 0.53457171 -0.066296928 100 4 -0.034187805
-0.07801979 0.5495705 0.08791618 51 12 -0.034185503
-0.076637104 0.54050875 -0.047761347 100 5 -0.034183197
-0.069642842 0.49179685 0.096549362 36 13 -0.034180894
-0.076075897 0.5379014 -0.028470764 100 6 -0.034178589
-0.079710647 0.56431139 -0.0099478718 19 7 -0.03417398
-0.067735784 0.48014042 0.12992717 90 15 -0.034171678
-0.081036784 0.58027965 0.01022711 100 8 -0.034148637
-0.081286564 0.58355725 0.030878218 100 9 -0.034144029
-0.072318628 0.5191763 -0.10189201 63 2 -0.034141727
-0.079065338 0.56833488 0.050201707 100 10 -0.034139421
-0.075573392 0.54392982 -0.086977579 88 3 -0.034137119
-0.082124755 0.59184217 0.073365353 100 11 -0.034134813
-0.075754292 0.54663152 -0.067759365 100 4 -0.03413251
-0.073392846 0.53027219 0.084787495 48 12 -0.034130204
-0.073478624 0.53089195 -0.046889789 100 5 -0.034127902
-0.067742638 0.4900803 0.096167736 36 13 -0.034125596
-0.073745586 0.53419369 -0.028261419 100 6 -0.034123294
-0.0668061 0.48455012 0.11292543 91 14 -0.034120988
-0.079922371 0.5804342 -0.01022711 100 7 -0.034118686
-0.067112215 0.4880293 0.13199772 100 15 -0.03411638
-0.077122964 0.56668901 0.0099827768 19 8 -0.034093343
-0.080055118 0.58977473 0.031192232 100 9 -0.034088735
-0.068921626 0.50775307 -0.099602297 38 2 -0.034086429
-0.076010272 0.56071007 0.049504459 100 10 -0.034084126
-0.072349042 0.53440267 -0.085413225 85 3 -0.03408182
-0.081920281 0.60589552 0.075071529 21 11 -0.034079518
-0.075439371 0.55869603 -0.069221795 100 4 -0.034077212
-0.073125206 0.54227114 0.086664706 29 12 -0.03407491
-0.070826083 0.52522165 -0.046366852 100 5 -0.034072604
-0.073211417 0.54434502 -0.028784778 100 6 -0.034067996
-0.06615185 0.49250597 0.11472505 90 14 -0.034065694
-0.078693472 0.58665544 -0.010331824 100 7 -0.034063391
-0.064895123 0.48443112 0.13096245 89 15 -0.034061085
-0.074356258 0.56100768 0.0098780626 18 8 -0.034038045
-0.085151672 0.64331949 -0.14981739 12 1 -0.034035742
-0.076949127 0.58213037 0.030773545 100 9 -0.034033436
-0.067148924 0.50799054 -0.099602297 51 2 -0.034031134
-0.075095683 0.56887299 0.050201707 100 10 -0.034028828
-0.06945058 0.52681828 -0.084161758 85 3 -0.034026526
-0.080582261 0.61208212 0.075802736 25 11 -0.03402422
-0.071936242 0.54714704 -0.067759365 100 4 -0.034021918
-0.068917595 0.52489597 0.083848879 18 12 -0.034019612
-0.069418743 0.52942866 -0.046715476 100 5 -0.03401731
-0.070532784 0.53865629 -0.028470764 100 6 -0.034012701
-0.064432375 0.4927339 0.11472505 90 14 -0.034010399
-0.076386377 0.58494371 -0.01029692 19 7 -0.034008093
-0.063703254 0.48848599 0.13199772 88 15 -0.034005791
-0.072653197 0.56324708 0.0099129668 16 8 -0.03398275
-0.074407138 0.57843363 0.030564202 100 9 -0.033978142
-0.068788424 0.5354948 -0.10494495 61 2 -0.033975836
-0.073517025 0.57309687 0.05055033 100 10 -0.033973534
-0.067770347 0.52902853 -0.084474623 90 3 -0.033971228
-0.074914031 0.58479357 0.0723904 100 11 -0.033968925
-0.069773868 0.54542577 -0.067515619 100 4 -0.033966623
-0.067084804 0.52513337 0.083848879 18 12 -0.033964317
-0.066057615 0.51780957 -0.045669612 100 5 -0.033962015
-0.062025134 0.48687869 0.095404498 36 13 -0.033959709
-0.068306103 0.53692985 -0.028366093 30 6 -0.033957407
-0.075100236 0.59115803 -0.010401634 22 7 -0.033952799
-0.061511572 0.48487234 0.13096245 89 15 -0.033950493
-0.071085535 0.567478 0.0099827768 100 8 -0.033927452
-0.071048632 0.56879312 0.03004084 18 9 -0.033922844
-0.065458842 0.52404302 -0.10265525 62 2 -0.033920541
-0.072502635 0.58125818 0.051247574 26 10 -0.033918239
-0.066899784 0.53710288 -0.085726097 93 3 -0.033915933
-0.073260039 0.5890041 0.072877876 20 11 -0.033913631
-0.067774437 0.54567784 -0.067515619 100 4 -0.033911325
-0.063700959 0.51361352 0.081971675 18 12 -0.033909023
-0.066211395 0.53385484 -0.047064099 100 5 -0.033906717
-0.062255751 0.50267923 0.098457448 35 13 -0.033904415
-0.066921823 0.54112929 -0.028575433 37 6 -0.033902109
-0.06975098 0.56562883 -0.0099478718 27 7 -0.0338975
-0.060678527 0.49276397 0.13303299 87 15 -0.033895198
-0.070312195 0.57764786 0.0101573 18 8 -0.033872157
-0.070506692 0.58093393 0.030668873 25 9 -0.033867549
-0.063156225 0.52037036 -0.10189201 75 2 -0.033865247
-0.070233367 0.57952988 0.051073264 30 10 -0.033862941
-0.065973647 0.54517746 -0.086977579 90 3 -0.033860639
-0.072870679 0.60305148 0.074584045 100 11 -0.033858333
-0.066344693 0.54985267 -0.068003103 82 4 -0.033856031
-0.062917404 0.52221423 -0.046018228 100 5 -0.033851422
-0.058624804 0.48729983 0.095404498 36 13 -0.033849116
-0.065270595 0.54334265 -0.028680107 39 6 -0.033846814
-0.06611184 0.55197024 -0.0097035384 30 7 -0.033842206
-0.058499154 0.48913649 0.13199772 88 15 -0.0338399
-0.067357011 0.56994617 0.010017681 20 8 -0.033816863
-0.069179408 0.58712709 0.030982887 30 9 -0.033812255
-0.061798736 0.5244872 -0.10265525 75 2 -0.033809949
-0.066813335 0.56789899 0.050027393 35 10 -0.033807646
-0.062917992 0.53559494 -0.085413225 85 3 -0.033805341
-0.071227558 0.60724539 0.075071529 22 11 -0.033803038
-0.064425059 0.5500809 -0.068003103 99 4 -0.033800732
-0.057360407 0.49050164 0.078217238 19 12 -0.03379843
-0.061094262 0.52243066 -0.046018228 100 5 -0.033796124
-0.057834093 0.49530154 0.096930973 36 13 -0.033793822
-0.06360472 0.545551 -0.028784778 49 6 -0.033791516
-0.064646311 0.55617023 -0.0097733475 31 7 -0.033786908
-0.055900414 0.4816618 0.12992717 90 15 -0.033784606
-0.064455941 0.56223118 0.0098780626 24 8 -0.033761565
-0.068263605 0.59728676 0.031506252 48 9 -0.033756956
-0.059744742 0.52274919 -0.10227363 75 2 -0.033754654
-0.066186056 0.580006 0.051073264 39 10 -0.033752348
-0.05948256 0.52207255 -0.083223142 88 3 -0.033750046
-0.068658814 0.60354555 0.074584045 22 11 -0.03374774
-0.063400768 0.55819207 -0.068978056 97 4 -0.033745438
-0.055647753 0.4906989 0.078217238 19 12 -0.033743132
-0.060617175 0.53451896 -0.047064099 100 5 -0.03374083
-0.055221144 0.48769724 0.095404498 36 13 -0.033738524
-0.061251651 0.54180038 -0.028575433 50 6 -0.033736221
-0.054862507 0.48604733 0.11292543 100 14 -0.033733919
-0.063824102 0.56632817 -0.0099478718 28 7 -0.033731613
-0.054219089 0.48185396 0.12992717 100 15 -0.033729311
-0.063155316 0.56841516 0.0099827768 38 8 -0.03370627
-0.062979549 0.56773359 0.02993617 52 9 -0.033701662
-0.057919502 0.52295452 -0.10227363 88 2 -0.033699356
-0.063722938 0.5762729 0.05072464 34 10 -0.033697054
-0.058527254 0.53013074 -0.084474623 88 3 -0.033694748
-0.067421421 0.61167413 0.075558998 21 11 -0.033692446
-0.060461793 0.54853356 -0.067759365 100 4 -0.03369014
-0.060056943 0.54661012 -0.048109971 100 5 -0.033685535
-0.053946681 0.49179012 0.096167736 48 13 -0.033683229
-0.059359897 0.54201096 -0.028575433 45 6 -0.033680927
-0.053038355 0.48428938 0.11247552 100 14 -0.033678621
-0.063467607 0.58045161 -0.010192206 24 7 -0.033676319
-0.053459357 0.48971292 0.13199772 100 15 -0.033674013
-0.060627181 0.56265694 0.0098780626 47 8 -0.033650972
-0.069408581 0.64520788 -0.14981739 12 1 -0.03364867
-0.060028259 0.55801034 0.029412812 53 9 -0.033646364
-0.055765819 0.51923966 -0.10151039 88 2 -0.033644062
-0.062236264 0.58044314 0.051073264 35 10 -0.033641759
-0.057609834 0.53817862 -0.085726097 90 3 -0.033639453
-0.065181844 0.60992044 0.075315259 22 11 -0.033637151
-0.058220681 0.54478335 -0.067271888 100 4 -0.033634845
-0.057610746 0.54086268 -0.047587033 100 5 -0.033630237
-0.052523252 0.49391857 0.096549362 48 13 -0.033627935
-0.058194604 0.54816312 -0.028889451 38 6 -0.033625629
-0.060277678 0.56872755 -0.0099827768 17 7 -0.033621021
-0.051835213 0.48988751 0.13199772 100 15 -0.033618718
-0.05813821 0.55688816 0.0097733475 40 8 -0.033595677
-0.062016532 0.59504026 -0.13811995 14 1 -0.033593375
-0.058906686 0.56616265 0.029831499 51 9 -0.033591069
-0.054856192 0.52723265 -0.10303687 87 2 -0.033588767
-0.059487853 0.57271934 0.050376017 33 10 -0.033586461
-0.056232441 0.54229635 -0.086351842 93 3 -0.033584159
-0.060705978 0.58643878 0.0723904 100 11 -0.033581853
-0.055502318 0.53708494 -0.066296928 100 4 -0.033579551
-0.053681184 0.52124149 -0.045843918 100 5 -0.033574942
-0.052091688 0.50580758 0.098839059 58 13 -0.033572637
-0.057193667 0.55630022 -0.029308137 35 6 -0.033570334
-0.057884295 0.56495595 -0.0099129668 100 7 -0.033565726
-0.054789219 0.5431605 0.0095290132 37 8 -0.033540383
-0.065015174 0.64566541 -0.14981739 12 1 -0.033538077
-0.058128696 0.57828826 0.030459529 50 9 -0.033535775
-0.052531511 0.52352321 -0.10227363 88 2 -0.033533469
-0.056395583 0.56302124 0.049504459 31 10 -0.033531167
-0.053850975 0.53856772 -0.085726097 99 3 -0.033528861
-0.061620943 0.61627579 0.076046474 100 11 -0.033526558
-0.053824473 0.53925067 -0.066540666 100 4 -0.033524252
-0.052452814 0.52737349 -0.046366852 100 5 -0.033519644
-0.055942383 0.56445616 -0.029726826 33 6 -0.033515036
-0.056305476 0.56913453 -0.0099827768 100 7 -0.033510428
-0.047464594 0.48062488 0.12940952 100 15 -0.033508126
-0.053378392 0.54932868 0.0096337292 32 8 -0.033485085
-0.056393564 0.58247334 0.030668873 43 9 -0.033480477
-0.05164957 0.53347397 -0.10418171 99 2 -0.033478174
-0.055579979 0.57511359 0.05055033 31 10 -0.033475868
-0.051591713 0.53481984 -0.08510036 99 3 -0.033473566
-0.058030065 0.60266572 0.074340306 100 11 -0.03347126
-0.05336713 0.55525219 -0.06849058 97 4 -0.033468958
-0.051563341 0.53746986 -0.047238413 17 5 -0.03346435
-0.052641287 0.55073065 -0.028994123 30 6 -0.033459742
-0.046456717 0.48692262 0.11292543 100 14 -0.033457436
-0.055356707 0.58128119 -0.010192206 100 7 -0.033455133
-0.052392662 0.55946654 0.0098082526 24 8 -0.03342979
-0.053864241 0.57626396 -0.13362093 14 1 -0.033427484
-0.053246953 0.57073486 0.03004084 38 9 -0.033425182
-0.048875347 0.5238772 -0.10227363 88 2 -0.033422876
-0.054680347 0.5872069 0.051596198 33 10 -0.033420574
-0.049724389 0.53499669 -0.08510036 99 3 -0.033418268
-0.05317568 0.5732156 0.070684224 100 11 -0.033415966
-0.050330348 0.54357529 -0.067028143 100 4 -0.03341366
-0.050603494 0.54756624 -0.048109971 19 5 -0.033409052
-0.045261249 0.49069387 0.095786124 60 13 -0.033406749
-0.050352477 0.54693335 -0.028784778 23 6 -0.033404447
-0.053327441 0.58147091 -0.010192206 100 7 -0.033399839
-0.045256779 0.49441889 0.13303299 100 15 -0.033397533
-0.050798286 0.56362933 0.0098780626 22 8 -0.033374492
-0.050817348 0.56494063 0.029726826 33 9 -0.033369884
-0.047046486 0.52404457 -0.10227363 100 2 -0.033367582
-0.053163532 0.59334755 0.052119136 33 10 -0.033365276
-0.048208598 0.53910208 -0.085726097 100 3 -0.033362973
-0.05099811 0.57142043 0.070440486 100 11 -0.033360671
-0.047727995 0.53583866 -0.066053197 100 4 -0.033358365
-0.049574036 0.55766237 -0.048981529 19 5 -0.033353757
-0.043547999 0.49084887 0.095786124 60 13 -0.033351455
-0.04897134 0.55307424 -0.029098796 27 6 -0.033349149
-0.050342891 0.56969291 -0.0099827768 100 7 -0.033344541
-0.043277416 0.49071756 0.13199772 100 15 -0.033342239
-0.049274851 0.56777912 0.0099478718 18 8 -0.033319198
-0.049876813 0.57705367 0.030354859 32 9 -0.033314589
-0.044541925 0.51638168 -0.10074715 89 2 -0.033312287
-0.049212527 0.57169396 0.050201707 33 10 -0.033309981
-0.046759296 0.54319519 -0.086351842 99 3 -0.033307679
-0.051821269 0.60323137 0.074340306 100 11 -0.033305373
-0.04679874 0.54588318 -0.067271888 100 4 -0.033303071
-0.046440545 0.54393584 -0.047761347 20 5 -0.033298463
-0.042421181 0.49685895 0.096930973 84 13 -0.033296157
-0.047645792 0.55920368 -0.029412812 26 6 -0.033293854
-0.047339413 0.55790991 -0.0097733475 100 7 -0.033289246
-0.04140133 0.48894063 0.13148008 100 15 -0.03328694
-0.046297107 0.55599082 0.0097384425 100 8 -0.033263903
-0.047632296 0.57323503 0.030145515 32 9 -0.033259295
