# .PCD v0.7 - Point Cloud Data file format
VERSION 0.7
FIELDS x y z intensity ring time
SIZE 4 4 4 4 2 4
TYPE F F F F U F
COUNT 1 1 1 1 1 1
WIDTH 982
HEIGHT 1
VIEWPOINT 0 0 0 1 0 0 0
POINTS 982
DATA ascii
5.6063247 4.6313677 1.4135132 20 13 -0.092158943
6.9562922 5.7445297 -0.47280309 55 6 -0.092156641
5.3057275 4.3814878 1.5886043 43 14 -0.092154339
6.7344623 5.5593653 -0.15242931 60 7 -0.092152037
4.6503534 3.8375483 1.6155485 20 15 -0.092149727
3.1679916 2.6077797 -1.0994633 12 0 -0.092128992
6.63973 5.4636497 0.15009069 42 8 -0.09212669
3.7414122 3.0776091 -1.1184566 8 1 -0.092124388
12.225782 10.053092 0.82952499 63 9 -0.092122078
4.5947533 3.7782021 -1.1563026 14 2 -0.092119776
6.5382853 5.3744349 0.74047518 78 10 -0.092117473
9.1193199 7.4906912 1.4490266 14 11 -0.092112862
4.4582896 3.6607797 -0.7083047 40 4 -0.092110559
6.5655746 5.389185 1.3453366 1 12 -0.092108257
4.814127 3.9515538 -0.54489768 75 5 -0.092105955
5.6201353 4.6115041 1.4131315 40 13 -0.092103653
6.9150777 5.6720324 -0.46872085 65 6 -0.092101343
5.3255115 4.3666463 1.589954 50 14 -0.092099041
6.6811404 5.4762425 -0.1507888 70 7 -0.092096739
4.1825542 3.4270425 1.448869 28 15 -0.092094436
3.1800675 2.5991497 -1.1004987 12 0 -0.092073694
6.8538799 5.5998545 0.1544887 21 8 -0.092071392
3.7551503 3.0669968 -1.1193565 8 1 -0.092069089
12.29638 10.039409 0.83193243 100 9 -0.092066787
4.6079125 3.7621412 -1.1563026 14 2 -0.092064485
6.5585508 5.3528366 0.74064946 67 10 -0.092062175
5.807054 4.7378106 -1.1870248 6 3 -0.092059873
6.5579276 5.3485155 1.0390581 16 11 -0.092057571
4.4679642 3.6426852 -0.7078172 40 4 -0.092055269
7.4449039 6.0675898 1.5211689 13 12 -0.092052959
4.823257 3.9309502 -0.54437476 77 5 -0.092050657
5.6833816 4.6303005 1.4249617 49 13 -0.092048354
7.0339494 5.7285776 -0.47541988 62 6 -0.092046052
5.3407207 4.3480315 1.589954 47 14 -0.092043743
6.7250304 5.4730854 -0.15134728 38 7 -0.09204144
4.7040057 3.8269346 1.624866 39 15 -0.092039138
3.1921217 2.590467 -1.1015339 12 0 -0.092018403
6.9215264 5.6149521 0.15557076 18 8 -0.092016101
3.7703745 3.0575514 -1.1207062 8 1 -0.092013791
12.363934 10.022835 0.83413053 27 9 -0.092011489
4.6240678 3.7485049 -1.1570657 14 2 -0.092009187
6.5617156 5.3173685 0.73890638 72 10 -0.092006885
5.8082085 4.7050757 -1.1838962 7 3 -0.092004575
6.5966139 5.3418303 1.0422267 76 11 -0.092002273
4.4883666 3.6333127 -0.70903593 39 4 -0.09199997
7.4614301 6.0378394 1.5202303 28 12 -0.091997668
4.8562217 3.9282808 -0.54646653 71 5 -0.091995358
5.72088 4.627718 1.4303043 38 13 -0.091993056
7.0818563 5.7265964 -0.47730398 62 6 -0.091990754
4.8451328 3.916518 1.4383371 20 14 -0.091988452
6.6865463 5.4030728 -0.1500558 11 7 -0.091986142
4.7263536 3.8177731 1.6279719 41 15 -0.09198384
3.1910625 2.5702679 -1.0979104 13 0 -0.091963105
6.5174875 5.2495646 0.14607665 18 8 -0.091960803
3.7719178 3.0370376 -1.1180067 8 1 -0.0919585
6.5160418 5.2446561 0.43836603 100 9 -0.091956191
4.6301274 3.7253797 -1.1551577 14 2 -0.091953889
6.5501113 5.2683067 0.73542017 100 10 -0.091951586
5.8115578 4.6726174 -1.1810803 9 3 -0.091949284
6.6198578 5.3225079 1.0429579 93 11 -0.091946974
4.513401 3.6275706 -0.71098578 46 4 -0.091944672
7.4778423 6.0080433 1.5192918 27 12 -0.09194237
4.8528142 3.8975852 -0.54454905 63 5 -0.091940068
5.7531114 4.6190114 1.4341204 44 13 -0.091937758
5.1436949 4.12678 1.5224687 42 14 -0.091933154
6.6507707 5.3359056 -0.14883412 10 7 -0.091930851
4.7351294 3.7976267 1.6264189 37 15 -0.091928542
3.1954894 2.5554931 -1.0963575 11 0 -0.091907807
6.9943295 5.5915003 0.15630375 5 8 -0.091905504
3.7982469 3.0353591 -1.1225058 11 1 -0.091903202
6.5305429 5.2169943 0.43805203 100 9 -0.0919009
4.6400361 3.7067425 -1.1543945 11 2 -0.09189859
6.5404363 5.223033 0.73228252 81 10 -0.091896288
5.8123965 4.6399765 -1.1779517 9 3 -0.091893986
6.6346703 5.2944894 1.0422267 36 11 -0.091891684
4.537528 3.6196702 -0.71269196 45 4 -0.091889374
7.5106225 5.9892178 1.5214819 31 12 -0.091887072
4.8741798 3.8868318 -0.54542065 43 5 -0.091884769
6.217473 4.9562383 1.545553 33 13 -0.091882467
6.4619331 5.1492701 -0.43302774 0 6 -0.091880158
4.9035201 3.9060304 1.4473351 30 14 -0.091877855
6.6812377 5.3202081 -0.14907846 9 7 -0.091875553
4.6658854 3.7140751 1.5979488 35 15 -0.091873251
3.2149787 2.5527339 -1.099981 12 0 -0.091852516
12.003977 9.5278854 0.2675105 23 8 -0.091850206
3.8011868 3.0160248 -1.1202562 9 1 -0.091847904
6.5565338 5.2003765 0.43857533 69 9 -0.091845602
4.6483297 3.6868665 -1.1532496 14 2 -0.0918433
6.5133543 5.1642714 0.72722757 54 10 -0.09184099
5.8146262 4.6086154 -1.1751359 7 3 -0.091838688
9.2841673 7.3559084 1.454389 13 11 -0.091836385
4.5703664 3.6198304 -0.71586055 46 4 -0.091834083
7.5345821 5.965415 1.5221075 31 12 -0.091831774
4.8877187 3.8697925 -0.54542065 30 5 -0.091829471
6.265521 4.9588776 1.5531853 34 13 -0.091827169
6.4328804 5.0895038 -0.42988759 1 6 -0.091824867
5.25492 4.1560459 1.5467634 66 14 -0.091822565
6.6087813 5.2249274 -0.14705399 24 7 -0.091820255
4.2074542 3.3252323 1.4369633 20 15 -0.091817953
3.2223537 2.5402994 -1.0994633 11 0 -0.091797218
12.07642 9.5168762 0.26838309 34 8 -0.091794915
3.7979138 2.9918857 -1.1162071 8 1 -0.091792606
12.694074 10.000021 0.84690052 34 9 -0.091790304
4.6657991 3.6742611 -1.1543945 11 2 -0.091788001
6.5454278 5.1526003 0.7287963 72 10 -0.091785699
5.8244667 4.5834045 -1.1738844 7 3 -0.091783389
9.297307 7.3136339 1.452439 16 11 -0.091781087
4.5860958 3.6063077 -0.71634805 49 4 -0.091778785
7.5512185 5.937952 1.5214819 18 12 -0.091776483
6.2951431 4.9466786 1.5562382 31 13 -0.091771871
6.4097719 5.0349388 -0.42716613 0 6 -0.091769569
5.415 4.2520127 1.5895041 42 14 -0.091767266
6.73774 5.2906656 -0.14953223 29 7 -0.091764964
4.2138987 3.3076847 1.4354105 67 15 -0.091762654
3.2296798 2.5278459 -1.0989457 13 0 -0.09174192
12.181928 9.5347023 0.27002364 2 8 -0.091739617
3.8154876 2.9852798 -1.1184566 9 1 -0.091737315
12.757223 9.9777927 0.84878463 89 9 -0.091735013
4.6646757 3.6470692 -1.1509598 2 2 -0.091732703
6.5351181 5.1076345 0.72565866 72 10 -0.091730401
5.8271823 4.5543351 -1.1713815 7 3 -0.091728099
9.3324604 7.2913151 1.4541451 27 11 -0.091725796
4.6121073 3.6020799 -0.71854174 52 4 -0.091723487
6.499094 5.0740004 1.3059151 2 12 -0.091721185
6.2999434 4.9167442 -0.69916338 1 5 -0.091718882
6.3146095 4.9281907 1.5570016 32 13 -0.09171658
6.4106812 5.0013742 -0.42611939 0 6 -0.09171427
4.9527006 3.8625216 1.4500345 24 14 -0.091711968
6.8003263 5.301538 -0.15050955 10 7 -0.091709666
4.2345619 3.3000786 1.4385163 28 15 -0.091707364
3.230418 2.5111942 -1.0963575 11 0 -0.091686629
12.216717 9.4933453 0.27005854 25 8 -0.091684319
3.8212688 2.9683554 -1.1171069 9 1 -0.091682017
6.4826584 5.0357184 0.43020159 51 9 -0.091679715
4.5682001 3.5472925 -1.1242466 4 2 -0.091677412
6.5205436 5.0614996 0.72217244 76 10 -0.091675103
5.8430457 4.5339651 -1.1713815 10 3 -0.0916728
6.5046964 5.0455608 1.0107845 13 11 -0.091670498
4.6372037 3.5956888 -0.72049159 58 4 -0.091668196
7.5883369 5.8839979 1.520856 28 12 -0.091665886
6.2752695 4.8640914 -0.69463122 1 5 -0.091663584
5.8242993 4.5129085 1.4322125 12 13 -0.091661282
6.4154696 4.9691801 -0.42528203 0 6 -0.09165898
5.4499807 4.2198272 1.5913037 50 14 -0.09165667
6.5253577 5.0524731 -0.14405216 27 7 -0.091654368
4.5953255 3.5567994 1.5570555 5 15 -0.091652066
3.2376354 2.4987218 -1.0958399 9 0 -0.091631331
6.6298513 5.116745 0.14618136 7 8 -0.091629028
3.834178 2.9580469 -1.1180067 8 1 -0.091626719
6.4954519 5.0094018 0.42988759 24 9 -0.091624416
4.6893926 3.6152334 -1.1509598 2 2 -0.091622114
6.5176578 5.0228958 0.71990639 69 10 -0.091619812
5.8877778 4.5374727 -1.177326 9 3 -0.091617502
9.4038877 7.2445874 1.4575576 27 11 -0.0916152
4.6648293 3.5924044 -0.722929 60 4 -0.091612898
7.6166582 5.8634968 1.5224204 34 12 -0.091610596
6.2764196 4.8300076 -0.69288814 1 5 -0.091608286
5.8158937 4.4756107 1.4264882 20 13 -0.091605984
6.4034171 4.9259596 -0.42339793 0 6 -0.091603681
5.4670348 4.2041054 1.5922036 43 14 -0.091601379
6.5080738 5.0028539 -0.14328425 9 7 -0.091599077
4.6858349 3.6007707 1.5834551 11 15 -0.091596767
3.257508 2.4950604 -1.0994633 11 0 -0.091422558
6.7891712 5.1982279 0.14925298 2 8 -0.091420256
3.8424118 2.9409351 -1.1171069 8 1 -0.091417953
6.4899788 4.9673505 0.42831749 24 9 -0.091415644
4.7228823 3.6135292 -1.1559209 4 2 -0.091413341
6.5233622 4.9892912 0.71851194 78 10 -0.091411039
5.9349718 4.5376291 -1.1832705 10 3 -0.091408737
9.4205961 7.1999855 1.4558512 16 11 -0.091406427
4.6975183 3.5889268 -0.72585386 57 4 -0.091404125
7.6412349 5.8379407 1.523046 30 12 -0.091401823
6.262413 4.7827835 -0.68940192 1 5 -0.091399521
5.8564444 4.4711151 1.4322125 45 13 -0.091397211
6.4032331 4.8867941 -0.42214185 1 6 -0.091394909
5.5001793 4.1960859 1.5971525 9 14 -0.091392606
6.492981 4.9534945 -0.14255126 23 7 -0.091390304
4.7297244 3.6070004 1.5938078 5 15 -0.091387995
3.261584 2.4801672 -1.0979104 12 0 -0.09136726
6.475286 4.923924 0.14199278 2 8 -0.091364957
3.8567972 2.9317157 -1.1184566 9 1 -0.091362655
6.4786539 4.9229174 0.42643344 54 9 -0.091360353
4.7339034 3.595835 -1.1555393 14 2 -0.091358043
6.5264564 4.9556479 0.71694314 92 10 -0.091355741
5.9279604 4.5012002 -1.1788902 7 3 -0.091353439
6.4876022 4.9243608 1.00006 10 11 -0.091351137
4.7109742 3.5745304 -0.72609758 46 4 -0.091348827
7.6647172 5.8136187 1.5236719 30 12 -0.091346525
6.2758932 4.7584877 -0.6890533 1 5 -0.091344222
5.9040904 4.4765806 1.4402263 8 13 -0.09134192
6.3843846 4.8389935 -0.41983908 1 6 -0.091339611
5.5404701 4.1978288 1.6048008 16 14 -0.091337308
6.5070429 4.9283862 -0.14248145 28 7 -0.091335006
4.8470192 3.6697655 1.6290071 41 15 -0.091332704
3.271333 2.4705009 -1.0984281 12 0 -0.091311969
6.4573207 4.8747854 0.14122486 21 8 -0.091309659
3.8545642 2.9088435 -1.1148574 8 1 -0.091307357
13.155828 9.9244308 0.86364806 100 9 -0.091305055
4.7301288 3.5682921 -1.1517231 14 2 -0.091302752
6.51581 4.9135861 0.71397984 78 10 -0.091300443
5.6328902 4.2462287 -1.1172551 11 3 -0.091298141
9.48524 7.1476407 1.4582887 22 11 -0.091295838
4.7519631 3.5795643 -0.7304849 18 4 -0.091293536
7.6786499 5.7820764 1.5224204 30 12 -0.091291226
6.2598076 4.7136784 -0.68556702 1 5 -0.091288924
6.40593 4.8219581 1.5585279 9 13 -0.091286622
6.3820848 4.802269 -0.41858301 0 6 -0.09128432
5.0396037 3.7907236 1.4558831 20 14 -0.091282018
6.5034304 4.890017 -0.14202769 13 7 -0.091279708
4.8721547 3.6621084 1.6331483 45 15 -0.091277406
3.2737532 2.4544322 -1.0963575 11 0 -0.091256671
6.4710984 4.8498149 0.14115506 7 8 -0.091254368
3.8693724 2.8988767 -1.1162071 8 1 -0.091252059
13.228756 9.9071836 0.86616015 66 9 -0.091249757
4.7456985 3.5541141 -1.1524864 9 2 -0.091247454
6.4866695 4.8561826 0.70892483 58 10 -0.091245152
5.6492586 4.227725 -1.117568 12 3 -0.091242842
9.5180788 7.1204357 1.4595075 14 11 -0.09124054
6.1633945 4.6091328 -0.94497496 1 4 -0.091238238
7.6987848 5.7552395 1.5224204 30 12 -0.091235936
6.2251573 4.6536264 -0.6799891 1 5 -0.091233633
6.4258666 4.8019195 1.5592911 23 13 -0.091231324
6.3860097 4.7703981 -0.41774565 0 6 -0.091229022
5.0325074 3.7579496 1.4500345 43 14 -0.091226719
6.5204592 4.8672876 -0.14202769 9 7 -0.091224417
4.2996478 3.2083638 1.437481 28 15 -0.091222107
3.2714534 2.4349146 -1.092734 11 0 -0.091201372
6.489594 4.8283892 0.14118996 28 8 -0.09119907
3.8794672 2.8853531 -1.1162071 9 1 -0.091196768
13.335254 9.9180927 0.87097502 100 9 -0.091194458
4.76753 3.544554 -1.1547761 9 2 -0.091192156
6.498785 4.8299432 0.70840186 83 10 -0.091189854
5.6576381 4.2032685 -1.1163164 12 3 -0.091187552
9.5556269 7.0966339 1.4614573 33 11 -0.091185249
6.1093168 4.5355244 -0.93425047 1 4 -0.09118294
7.7162433 5.7284985 1.5221075 18 12 -0.091180637
6.2253637 4.6199965 -0.67824602 1 5 -0.091178335
6.4425907 4.7794576 1.5592911 31 13 -0.091176033
6.3769555 4.7290406 -0.41607088 0 6 -0.091173723
5.073771 3.7612531 1.4581327 28 14 -0.091171421
6.4658804 4.793242 -0.14049187 13 7 -0.091169119
4.2947426 3.1825848 1.4323047 67 15 -0.091166817
3.2908075 2.4315188 -1.0963575 12 0 -0.091146074
6.5361242 4.8294253 0.14185315 15 8 -0.091143772
3.8796096 2.8655248 -1.1135077 9 1 -0.09114147
13.401931 9.8952065 0.87306851 66 9 -0.091139168
4.7640762 3.5162327 -1.1509598 11 2 -0.091136865
5.6635995 4.1786189 -1.1147522 14 3 -0.091132253
9.5679235 7.0566611 1.4597511 29 11 -0.091129951
6.085978 4.4869666 -0.92840075 1 4 -0.091127649
7.7489123 5.7109056 1.5246104 13 12 -0.091125339
6.2414536 4.5982361 -0.67824602 1 5 -0.091123037
5.9099293 4.3539939 1.4268698 43 13 -0.091120735
6.3893871 4.7054977 -0.41586155 0 6 -0.091118433
5.6056671 4.1268182 1.6070504 17 14 -0.091116123
6.5647125 4.8310885 -0.14227203 36 7 -0.091113821
4.3073826 3.1687174 1.4328223 48 15 -0.091111518
3.2957385 2.4183064 -1.0953223 10 0 -0.091090783
6.4868336 4.7580872 0.14042206 28 8 -0.091088481
3.8848748 2.8485069 -1.1121581 8 1 -0.091086172
13.484715 9.8837891 0.87620866 100 9 -0.091083869
4.7947116 3.5143435 -1.1555393 9 2 -0.091081567
6.4302578 4.7114129 0.6974203 29 10 -0.091079265
5.6765585 4.1576552 -1.1144392 15 3 -0.091076955
6.4547935 4.7259283 0.98226702 16 11 -0.091074653
6.0823779 4.4516311 -0.9254759 1 4 -0.091072351
7.778367 5.6908183 1.5264877 16 12 -0.091070049
6.256669 4.5775113 -0.67824602 1 5 -0.091067739
5.9282627 4.3356543 1.4276329 21 13 -0.091065437
6.3606253 4.6501651 -0.41293073 0 6 -0.091063134
5.5869985 4.0830774 1.5976024 14 14 -0.091060832
6.5847673 4.8105016 -0.14234182 58 7 -0.091058522
3.3150909 2.414748 -1.0989457 11 0 -0.091035485
6.5001717 4.7330594 0.14035226 31 8 -0.091033183
3.899519 2.838372 -1.1135077 9 1 -0.091030881
13.561127 9.8672075 0.87893015 63 9 -0.091028571
4.7958379 3.4894986 -1.152868 4 2 -0.091026269
6.4241076 4.6725287 0.69497991 20 10 -0.091023967
5.6894355 4.1366568 -1.1141263 19 3 -0.091021664
9.6346188 7.0025311 1.4624323 33 11 -0.091019355
6.1075168 4.4373713 -0.9269383 1 4 -0.091017053
6.4683828 4.6978364 1.2661808 15 12 -0.09101475
6.2306919 4.525207 -0.67371386 1 5 -0.091012448
5.9719563 4.3356967 1.434502 45 13 -0.091010138
6.3509569 4.6091623 -0.41125599 0 6 -0.091007836
5.5633574 4.0360899 1.5868047 16 14 -0.091005534
6.6193247 4.8004022 -0.14272578 63 7 -0.091003232
4.9472132 3.5864525 1.6372893 13 15 -0.091000929
3.3078456 2.3918409 -1.0937693 11 0 -0.090980187
6.4680324 4.675199 0.13930511 90 8 -0.090977885
3.9173014 2.8304482 -1.1157572 9 1 -0.090975583
13.647194 9.8607874 0.8823843 37 9 -0.09097328
4.7857089 3.4566424 -1.1475254 4 2 -0.090970971
6.4226089 4.637248 0.69306242 22 10 -0.090968668
5.7038422 4.1167703 -1.1141263 25 3 -0.090966366
9.660615 6.9700155 1.462676 14 11 -0.090964064
6.1004276 4.3997698 -0.92352599 1 4 -0.090961754
6.4614964 4.6601806 1.2618005 11 12 -0.090959452
6.220593 4.4847856 -0.6709249 1 5 -0.09095715
6.3231206 4.5570226 1.5150236 28 13 -0.090954848
6.3702474 4.5893021 -0.41146535 1 6 -0.090952545
5.6042967 4.0360045 1.5944531 1 14 -0.090950236
6.4729362 4.6615663 -0.1392353 51 7 -0.090947933
4.9622159 3.5722833 1.6383246 11 15 -0.090945631
3.3083258 2.3746498 -1.0911812 11 0 -0.090924896
6.4932466 4.6607223 0.13951454 85 8 -0.090922587
3.926667 2.8174412 -1.1157572 8 1 -0.090920284
13.738336 9.8538275 0.88604778 100 9 -0.090917982
4.8248672 3.4593666 -1.1540129 7 2 -0.09091568
6.4646688 4.6333699 0.69585145 13 10 -0.09091337
5.7094359 4.0920782 -1.1125621 36 3 -0.090911068
9.6981964 6.9483485 1.4648696 15 11 -0.090908766
6.121439 4.3841405 -0.92450094 1 4 -0.090906464
7.8670716 5.6322703 1.5324322 13 12 -0.090904161
6.2102871 4.44449 -0.66813594 1 5 -0.090901852
6.5249896 4.6697116 1.5596728 29 13 -0.090899549
6.3496938 4.5425878 -0.40916255 0 6 -0.090897247
5.6382565 4.0321326 1.6003017 16 14 -0.090894945
6.6306987 4.7401166 -0.14227203 54 7 -0.090892635
4.9793682 3.5583131 1.6398776 15 15 -0.090890333
3.3161829 2.3636651 -1.0911812 11 0 -0.090869598
6.4703913 4.610177 0.13867682 85 8 -0.090867296
3.9221914 2.7935436 -1.1117082 9 1 -0.090864986
13.829593 9.8463583 0.88971132 57 9 -0.090862684
4.8443098 3.4490392 -1.1559209 4 2 -0.090860382
6.4101973 4.5622306 0.68835604 24 10 -0.090858079
5.7027617 4.0572352 -1.1084948 34 3 -0.090855777
9.7110672 6.9064016 1.4631635 8 11 -0.090853468
6.1043477 4.3397403 -0.91962618 1 4 -0.090851165
7.9108372 5.6219368 1.5371252 13 12 -0.090848863
6.2120004 4.4146366 -0.66674143 1 5 -0.090846561
6.4868321 4.6082506 1.5466977 24 13 -0.090844251
6.3492289 4.5088301 -0.40811583 0 6 -0.090841949
5.6713672 4.0259619 1.6057006 8 14 -0.090839647
6.7222214 4.7701769 -0.14387764 56 7 -0.090837345
5.0138187 3.5565567 1.6471245 15 15 -0.090835035
3.3338761 2.3587685 -1.0942869 12 0 -0.0908143
6.4717493 4.5771723 0.13836268 90 8 -0.090811998
3.9287357 2.7775865 -1.1108083 8 1 -0.090809695
13.912814 9.8326025 0.89285153 100 9 -0.090807393
4.8499079 3.4275751 -1.1543945 4 2 -0.090805084
6.4700189 4.570868 0.69306242 13 10 -0.090802781
5.7088184 4.03161 -1.1069304 36 3 -0.090800479
6.4349394 4.5427151 0.96715516 12 11 -0.090798177
6.1097269 4.3115392 -0.91816372 1 4 -0.090795867
6.2110891 4.3814459 -0.66499835 1 5 -0.090791263
6.0038924 4.2337108 1.4280145 29 13 -0.09078896
6.3290162 4.4613214 -0.40581304 1 6 -0.090786651
5.0816412 3.5807204 1.4351877 1 14 -0.090784349
6.6963267 4.7167411 -0.14297011 32 7 -0.090782046
4.3801589 3.0841413 1.4354105 16 15 -0.090779744
3.3436697 2.3482277 -1.0948045 12 0 -0.090759009
6.477869 4.547658 0.13815325 100 8 -0.090756699
3.9447885 2.7683322 -1.1126078 8 1 -0.090754397
6.386538 4.4802141 0.40884852 21 9 -0.090752095
4.8505912 3.4027336 -1.1517231 7 2 -0.090749793
6.4630976 4.532239 0.69062209 6 10 -0.090747483
5.7260928 4.0139241 -1.1075561 38 3 -0.090745181
9.7557945 6.8361597 1.462676 5 11 -0.090742879
6.0889711 4.2651291 -0.91280144 1 4 -0.090740576
6.227107 4.3586497 -0.66499835 2 5 -0.090735964
6.3314576 4.4300437 -0.40497568 0 6 -0.09073136
5.1324344 3.5897675 1.4459854 1 14 -0.09072905
4.3972306 3.0732603 1.437481 50 15 -0.090724446
3.3443301 2.3304338 -1.0922165 11 0 -0.090703711
6.4822202 4.517014 0.13790892 100 8 -0.090701409
3.9592245 2.7578881 -1.1139576 8 1 -0.090699099
14.082734 9.8059998 0.89934111 37 9 -0.090696797
4.8549747 3.3793235 -1.1498151 4 2 -0.090694495
6.3978925 4.4516244 0.68190652 27 10 -0.090692192
5.7440104 3.9951646 -1.1081818 41 3 -0.090689883
9.7763395 6.7997937 1.4621885 3 11 -0.09068758
6.1233816 4.2574453 -0.9157263 1 4 -0.090685278
6.577529 4.5715055 1.2686837 50 12 -0.090682976
6.2062874 4.3118749 -0.66116345 1 5 -0.090680666
6.0582223 4.207438 1.4337388 8 13 -0.090678364
6.3312449 4.3954191 -0.40392897 1 6 -0.090676062
5.1071343 3.5442653 1.4351877 1 14 -0.09067376
6.4596653 4.4828992 -0.13724573 10 7 -0.090671457
4.4063449 3.0567899 1.4369633 11 15 -0.090669148
3.3476775 2.3154497 -1.0906636 11 0 -0.090648413
6.4707694 4.4738936 0.13731554 100 8 -0.09064611
3.9628944 2.7389255 -1.1121581 8 1 -0.090643808
14.182601 9.8022003 0.90352798 100 9 -0.090641499
4.8602796 3.357893 -1.1482886 4 2 -0.090639196
6.406836 4.4247336 0.68120927 40 10 -0.090636894
5.7432895 3.9649909 -1.1053661 48 3 -0.090634592
6.4453607 4.4480176 0.96154922 27 11 -0.090632282
6.0899239 4.2011585 -0.90841419 1 4 -0.09062998
6.5804396 4.5395427 1.2661808 23 12 -0.090627678
6.2048974 4.2788754 -0.65942037 1 5 -0.090625376
6.0728712 4.1862669 1.4337388 36 13 -0.090623073
6.3531289 4.3778234 -0.40434763 0 6 -0.090620764
5.1515713 3.5485268 1.4441857 1 14 -0.090618461
6.4439845 4.4387722 -0.13658254 14 7 -0.090616159
4.4106231 3.0370092 1.4348928 24 15 -0.090613857
3.3573327 2.3048425 -1.0911812 12 0 -0.090593114
6.452599 4.4297738 0.13661744 100 8 -0.090590812
3.9558868 2.7147429 -1.107659 8 1 -0.09058851
14.264493 9.7854033 0.90656352 100 9 -0.090586208
4.8638759 3.3353543 -1.1463805 7 2 -0.090583906
6.43539 4.4113531 0.68260378 9 10 -0.090581596
5.7384849 3.933636 -1.1019244 49 3 -0.090579294
6.4862742 4.4445739 0.96544904 94 11 -0.090576991
6.0907211 4.1719637 -0.90646422 1 4 -0.090574689
6.5783181 4.5042667 1.2627392 11 12 -0.09057238
6.2197948 4.2571912 -0.65942037 1 5 -0.090570077
6.086719 4.1661067 1.4337388 54 13 -0.090567775
6.3148642 4.3206396 -0.40099812 0 6 -0.090565473
5.1697459 3.5358231 1.4459854 1 14 -0.090563163
6.4808979 4.4309244 -0.13703629 10 7 -0.090560861
4.4371481 3.0324938 1.4400692 37 15 -0.090558559
3.3633606 2.2926092 -1.0906636 12 0 -0.090537824
6.4333158 4.3835812 0.13588443 90 8 -0.090535522
3.9621186 2.6987226 -1.1067592 8 1 -0.090533212
6.4005933 4.3580089 0.40581304 14 9 -0.09053091
4.8911371 3.3302567 -1.1501967 7 2 -0.090528607
6.4038625 4.3586035 0.67772305 22 10 -0.090526305
5.7456474 3.9091377 -1.100673 49 3 -0.090523995
6.4656386 4.3973441 0.96008676 72 11 -0.090521693
6.0855446 4.1372895 -0.90353942 1 4 -0.090519391
6.5433521 4.4468579 1.2530402 15 12 -0.090517089
6.2075138 4.2186222 -0.65663135 1 5 -0.090514779
6.0963535 4.1415229 1.4325941 42 13 -0.090512477
6.3332119 4.3008161 -0.40120748 1 6 -0.090510175
5.2143025 3.5396473 1.4549835 1 14 -0.090507872
6.4648876 4.386939 -0.1363731 13 7 -0.090505563
5.0568266 3.4301696 1.6372893 45 15 -0.09050326
3.3793423 2.2862678 -1.0932516 12 0 -0.090482526
6.4518924 4.3633366 0.13595425 70 8 -0.090480223
3.9828162 2.6925147 -1.1099085 8 1 -0.090477921
6.4323139 4.3468246 0.40685976 12 9 -0.090475611
4.8880916 3.3032713 -1.1467621 7 2 -0.090473309
6.4371996 4.3484898 0.67964047 27 10 -0.090471007
5.7559848 3.8868454 -1.1000473 46 3 -0.090468705
6.4496865 4.3536472 0.95545572 75 11 -0.090466395
6.0851407 4.1060271 -0.90134573 4 4 -0.090464093
6.589951 4.4449763 1.2589847 13 12 -0.090461791
6.1957741 4.1791005 -0.65384239 1 5 -0.090459488
6.148212 4.1454625 1.4413712 11 13 -0.090457179
6.3349357 4.2697544 -0.40037012 1 6 -0.090454876
5.2266273 3.5214231 1.4549835 1 14 -0.090452574
6.7704158 4.5598326 -0.14248145 1 7 -0.090450272
5.0735765 3.4157348 1.6388422 39 15 -0.090447962
3.3760765 2.2669187 -1.0896282 11 0 -0.090427227
6.4538026 4.3318715 0.135675 55 8 -0.090424925
3.9938073 2.6796844 -1.1103585 9 1 -0.090422623
6.4317656 4.3154564 0.40591773 100 9 -0.090420321
4.8995929 3.2861869 -1.1467621 4 2 -0.090418011
6.4324822 4.3126774 0.67754871 20 10 -0.090415709
5.774437 3.8700328 -1.1009859 41 3 -0.090413406
6.5374103 4.3797202 0.96618026 48 11 -0.090411104
6.7089272 4.4946275 -0.99152911 52 4 -0.090408795
6.4405231 4.3131824 1.2276978 43 12 -0.090406492
6.2070098 4.1552358 -0.6534937 1 5 -0.09040419
6.3298817 4.2342873 -0.39911404 1 6 -0.090399578
5.2803888 3.532244 1.4666809 7 14 -0.090397276
6.7971349 4.5451384 -0.14272578 7 7 -0.090394974
5.0158148 3.3527272 1.6165838 30 15 -0.090392672
3.3739305 2.2492819 -1.0865225 11 0 -0.090371937
6.4182119 4.2771759 0.13462786 50 8 -0.090369627
3.9945629 2.6610222 -1.1081089 8 1 -0.090367325
6.439393 4.2896729 0.40549901 76 9 -0.090365022
4.9071951 3.267746 -1.145999 7 2 -0.09036272
6.4086027 4.2659283 0.67353958 36 10 -0.090360411
5.7757282 3.8432012 -1.0987958 47 3 -0.090358108
6.446115 4.2876568 0.95058095 34 11 -0.090355806
6.7237945 4.4723568 -0.99152911 37 4 -0.090353504
6.5551333 4.3585167 1.2467828 11 12 -0.090351194
6.2224159 4.1357307 -0.65366805 6 5 -0.090348892
6.337234 4.2088518 -0.39869535 1 6 -0.090344287
5.3164239 3.5308843 1.4734293 8 14 -0.090341985
6.5589428 4.3544545 -0.13742025 6 7 -0.090339676
4.4844561 2.9760835 1.4421397 43 15 -0.090337373
3.394259 2.2466102 -1.0906636 12 0 -0.090316638
6.4273539 4.252563 0.13452315 20 8 -0.090314336
4.000114 2.6456122 -1.1072091 9 1 -0.090312026
6.4959803 4.2947049 0.40811583 48 9 -0.090309724
4.9278312 3.2579503 -1.1482886 7 2 -0.090307422
6.4310217 4.2501507 0.67441112 15 10 -0.09030512
5.7769032 3.816406 -1.0966057 50 3 -0.09030281
6.6084876 4.3624606 -0.97227371 26 4 -0.090298206
6.5521684 4.3236456 1.2433413 13 12 -0.090295903
6.2793322 4.1436062 -0.65820014 19 5 -0.090293601
6.1767511 4.0743632 1.4383184 39 13 -0.090291291
6.2961311 4.1515336 -0.3952412 2 6 -0.090288989
5.3173251 3.5048018 1.4702801 33 14 -0.090286687
5.103054 3.3610117 1.6372893 43 15 -0.090282075
3.3956201 2.2305081 -1.088593 15 0 -0.09026134
6.3953567 4.1993675 0.13354582 25 8 -0.090259038
3.9995501 2.6252158 -1.1045097 9 1 -0.090256736
6.5176086 4.2763906 0.4085345 14 9 -0.090254433
4.9375296 3.2396555 -1.147907 7 2 -0.090252124
6.4374895 4.2222109 0.67353958 18 10 -0.090249822
5.7819304 3.7908008 -1.0950414 57 3 -0.090247519
10.074671 6.6027317 1.4790065 100 11 -0.090245217
6.7780995 4.440536 -0.99494141 33 4 -0.090242907
6.4498911 4.2239079 1.2211275 47 12 -0.090240605
6.2954259 4.1227517 -0.65837449 13 5 -0.090238303
6.1745086 4.042026 1.434502 26 13 -0.090236001
6.3122544 4.1306252 -0.39534587 10 6 -0.090233691
5.3295274 3.486218 1.4702801 66 14 -0.090231389
6.4285135 4.2034945 -0.13406938 27 7 -0.090229087
5.1179886 3.3452933 1.6383246 46 15 -0.090226784
3.4066226 2.2207506 -1.0896282 12 0 -0.090206049
6.4083028 4.1759248 0.13351092 60 8 -0.09020374
4.0070562 2.6101763 -1.1040598 8 1 -0.090201437
14.891013 9.6962299 0.93126607 57 9 -0.090199135
4.9191952 3.2031164 -1.1410379 6 2 -0.090196833
6.4338217 4.1877565 0.67162216 27 10 -0.090194523
5.8017502 3.7749057 -1.0962929 64 3 -0.090192221
10.114296 6.5783486 1.4814438 123 11 -0.090189919
6.1927576 4.0262341 -0.90695173 34 4 -0.090187617
6.8493752 4.4514399 -0.7146771 16 5 -0.090183005
6.2939453 4.088901 1.4589256 50 13 -0.090180703
7.1557822 4.647018 -0.44715846 2 6 -0.0901784
5.3596425 3.4792657 1.4752289 15 14 -0.090176091
6.6612153 4.3225422 -0.13860701 4 7 -0.090173788
5.13936 3.3337145 1.6414305 46 15 -0.090171486
3.4046223 2.202549 -1.0865225 9 0 -0.090150751
6.4480247 4.1698222 0.13403448 2 8 -0.090148449
4.0177803 2.59723 -1.1045097 9 1 -0.090146139
14.998582 9.6918831 0.9358716 100 9 -0.090143837
4.9336448 3.1880553 -1.1418011 6 2 -0.090141535
6.4467263 4.1641932 0.67144781 27 10 -0.090139233
5.811573 3.752486 -1.0956671 64 3 -0.090136923
10.188903 6.5763731 1.4889997 159 11 -0.090134621
6.8339553 4.4092507 -0.99859744 44 4 -0.090132318
6.5821457 4.2451568 1.2405255 11 12 -0.090130016
6.5015364 4.1931677 -0.67685145 73 5 -0.090127707
6.2768292 4.0466919 1.4516749 42 13 -0.090125404
6.3476529 4.0907841 -0.39576453 7 6 -0.090123102
5.5028143 3.5449638 1.5112212 71 14 -0.0901208
6.5316763 4.2061529 -0.1356052 19 7 -0.090118498
5.1412187 3.3094814 1.6383246 46 15 -0.090116188
3.4090381 2.1885648 -1.0854871 11 0 -0.090091705
6.3447351 4.0716863 0.13159114 22 8 -0.090089403
4.0284629 2.5842404 -1.1049596 8 1 -0.090087101
15.09621 9.6804419 0.93984914 30 9 -0.090084791
4.9546585 3.1771739 -1.1440908 6 2 -0.090082489
6.4343839 4.1244631 0.66865885 27 10 -0.090080187
5.8146582 3.725781 -1.0937898 66 3 -0.090077884
6.1872773 3.9614975 -0.90207696 9 4 -0.090073273
6.473805 4.1433539 1.2173731 47 12 -0.09007097
6.8869987 4.4078054 -0.71537429 40 5 -0.090068668
6.2843008 4.0205264 1.4501485 40 13 -0.090066358
7.1897302 4.5980272 -0.44726312 6 6 -0.090064056
5.7778606 3.6936743 1.5832055 17 14 -0.090061754
6.5833883 4.2070184 -0.1363731 50 7 -0.090059452
4.5666451 2.9171257 1.4519749 24 15 -0.090057142
3.4199162 2.1787267 -1.0865225 11 0 -0.090036407
4.0341706 2.5680707 -1.1040598 8 1 -0.090031803
15.202368 9.6737881 0.94435006 99 9 -0.0900295
4.9789705 3.1682899 -1.1471437 7 2 -0.090027191
6.4386539 4.0955629 0.66761297 24 10 -0.090024889
5.815959 3.6980429 -1.0915998 67 3 -0.090022586
6.1826382 3.9281642 -0.89939582 31 4 -0.090017974
6.4115233 4.0720167 1.2029812 13 12 -0.090015672
6.9342976 4.4040356 -0.71868622 37 5 -0.09001337
6.8419409 4.3437037 1.5753192 30 13 -0.090011068
6.3069177 4.0024924 -0.391473 8 6 -0.090008758
5.3447723 3.3905876 1.461282 16 14 -0.090006456
6.5507488 4.1540256 -0.13539577 48 7 -0.090004154
4.5898542 2.9094405 1.4561161 26 15 -0.090001851
3.4323983 2.1698728 -1.0880753 12 0 -0.089981116
6.3020072 3.9824259 0.13012515 25 8 -0.089978807
4.0431099 2.5539742 -1.1040598 9 1 -0.089976504
15.274882 9.6451931 0.9467575 39 9 -0.089974202
4.9650989 3.135169 -1.1414195 4 2 -0.0899719
6.4141607 4.0486012 0.66360378 29 10 -0.08996959
5.8288307 3.6777201 -1.0915998 72 3 -0.089967288
10.191728 6.4280176 1.479494 5 11 -0.089964986
6.9771481 4.3988504 -1.0127343 42 4 -0.089962684
8.2589846 5.2049904 1.5461985 30 12 -0.089960374
6.2416859 3.9336448 -0.64547539 13 5 -0.089958072
6.8553996 4.3187494 1.5749376 25 13 -0.089955769
7.2216554 4.5477219 -0.44726312 0 6 -0.089953467
5.4373846 3.4227805 1.4833273 5 14 -0.089951165
6.6126003 4.1609521 -0.1363731 52 7 -0.089948855
4.5901699 2.8872309 1.4530102 35 15 -0.089946553
3.4415889 2.1589041 -1.088593 11 0 -0.089925818
4.0470462 2.5367413 -1.1027101 9 1 -0.089921206
15.372772 9.6321077 0.95073503 100 9 -0.089918904
4.9776764 3.1188595 -1.1418011 6 2 -0.089916602
6.4063044 4.0124369 0.66133773 40 10 -0.0899143
5.8416324 3.6573527 -1.0915998 67 3 -0.08991199
6.3623605 3.9818227 0.92157602 16 11 -0.089909688
7.0109735 4.3860483 -1.0154155 41 4 -0.089907385
6.3895473 3.9957383 1.1935952 26 12 -0.089905083
6.2232823 3.8917632 -0.64216352 13 5 -0.089902781
6.241549 3.9001529 -0.38571605 6 6 -0.089898169
5.5501199 3.4667571 1.5107714 12 14 -0.089895867
6.6236911 4.1357279 -0.13630329 52 7 -0.089893565
5.2016749 3.2465816 1.6429834 41 15 -0.089891255
3.4343429 2.1376908 -1.0839342 11 0 -0.08987052
6.2651372 3.8981886 0.12879875 50 8 -0.089868218
4.0591865 2.5246561 -1.1036098 8 1 -0.089865915
15.462292 9.6169443 0.95429391 48 9 -0.089863606
4.9768615 3.0942099 -1.1391298 6 2 -0.089861304
6.386426 3.969018 0.65785152 33 10 -0.089859001
5.8543639 3.6369376 -1.0915998 72 3 -0.089856699
10.227922 6.3514729 1.4782752 12 11 -0.089854397
8.2707262 5.1340666 1.5418184 18 12 -0.089849785
6.1928129 3.8427019 -0.63763142 12 5 -0.089847483
6.3581786 3.9437716 1.4543462 2 13 -0.089845181
5.7510176 3.5643945 1.5620601 63 14 -0.089840569
6.5693803 4.0716033 -0.13490711 52 7 -0.089838266
5.2107711 3.2282956 1.6424657 43 15 -0.089835964
3.4434271 2.1267054 -1.0844518 11 0 -0.089815222
6.2967439 3.8889511 0.12918271 22 8 -0.089812919
4.060904 2.5070856 -1.1018102 8 1 -0.089810617
6.2088456 3.8316667 0.38236654 2 9 -0.089808315
4.9859605 3.075789 -1.1387482 6 2 -0.089806013
6.3493667 3.9153266 0.65262216 40 10 -0.089803703
5.8529429 3.6092079 -1.0890969 69 3 -0.089801401
10.269209 6.3300176 1.4812001 14 11 -0.089799099
7.1099553 4.3809228 -1.0254087 42 4 -0.089796796
8.2667332 5.0916958 1.5377511 16 12 -0.089794487
7.1036954 4.3736405 -0.72984219 29 5 -0.089792185
6.3227382 3.8928168 1.4432793 3 13 -0.089789882
6.2407355 3.8408308 -0.38404128 0 6 -0.08978758
5.4988995 3.3829451 1.4905257 12 14 -0.08978527
6.5562997 4.0318847 -0.13434863 50 7 -0.089782968
5.2104855 3.2030084 1.6388422 43 15 -0.089780666
3.4554021 2.1183028 -1.0860047 11 0 -0.089759931
6.2471962 3.8282871 0.12789124 57 8 -0.089757629
4.0746145 2.4959519 -1.10316 8 1 -0.089755319
15.447295 9.4587002 0.94926965 24 9 -0.089753017
5.0112023 3.0684633 -1.1421827 6 2 -0.089750715
6.3555169 3.8900907 0.65192497 27 10 -0.089748412
5.8553929 3.5825737 -1.0872197 69 3 -0.089746103
10.294628 6.296207 1.4816877 15 11 -0.0897438
7.1556907 4.3747134 -1.0297961 35 4 -0.089741498
8.3114262 5.0792875 1.5427569 36 12 -0.089739196
7.1470613 4.3677197 -0.73280543 32 5 -0.089736886
6.3212094 3.8615129 1.4398447 3 13 -0.089734584
6.2217178 3.7992446 -0.38205251 5 6 -0.089732282
5.4008946 3.2967179 1.4608321 22 14 -0.08972998
6.4883957 3.9589808 -0.13267319 52 7 -0.08972767
5.2282324 3.1888232 1.6409128 43 15 -0.089725368
3.4578242 2.1032157 -1.0844518 12 0 -0.089704633
6.320323 3.8428187 0.1291129 32 8 -0.089702331
4.0816374 2.4807003 -1.1027101 8 1 -0.089700028
15.444374 9.3829403 0.94707155 27 9 -0.089697719
5.018528 3.0489125 -1.1414195 6 2 -0.089695416
6.3026414 3.8275497 0.64512682 56 10 -0.089693114
5.8678637 3.5621111 -1.0872197 74 3 -0.089690812
6.3114376 3.8298728 0.90646422 4 11 -0.089688502
6.1627455 3.7381768 -0.88501525 27 4 -0.0896862
6.3798451 3.8683419 1.1817061 51 12 -0.089683898
6.2030911 3.7611692 -0.63466811 7 5 -0.089681596
6.306109 3.8221235 1.4333572 2 13 -0.089679286
6.2093182 3.7619815 -0.38048244 19 6 -0.089676984
5.3890305 3.2637155 1.4545335 80 14 -0.089674681
6.5637598 3.973588 -0.13392976 52 7 -0.089672379
5.2509017 3.1775539 1.6445363 48 15 -0.089670077
3.476721 2.0981221 -1.0880753 11 0 -0.089649335
6.316577 3.8104026 0.12876385 22 8 -0.089647032
4.0819283 2.461405 -1.1004605 9 1 -0.08964473
4.997191 3.0121229 -1.1341687 6 2 -0.089640118
6.2664742 3.7757053 0.64007175 36 10 -0.089637816
5.8802629 3.5416048 -1.0872197 82 3 -0.089635514
6.334969 3.8139663 0.90792668 39 11 -0.089633211
6.1621504 3.7084515 -0.88306534 17 4 -0.089630902
8.3399096 5.0170698 1.5415053 28 12 -0.0896286
7.2285967 4.3485327 -0.73803484 52 5 -0.089626297
6.314362 3.7970567 1.4322125 2 13 -0.089623995
6.2087188 3.7320502 -0.37964505 11 6 -0.089621693
5.39538 3.2418721 1.4531839 45 14 -0.089619383
6.3135924 3.7920942 -0.12855442 37 7 -0.089617081
5.263617 3.1602008 1.645054 46 15 -0.089614779
3.4724224 2.079026 -1.0844518 12 0 -0.089594044
6.3126817 3.7780597 0.12841481 55 8 -0.089591734
4.0904951 2.4471424 -1.1004605 6 1 -0.089589432
6.7845488 4.0572548 0.41429147 2 9 -0.08958713
5.0127301 2.9976826 -1.1353136 6 2 -0.089584827
6.2419939 3.7313163 0.63623691 45 10 -0.089582518
5.8858066 3.5170059 -1.0859681 81 3 -0.089580216
6.3380194 3.7857203 0.90646422 48 11 -0.089577913
6.1648326 3.6808114 -0.88160288 24 4 -0.089575611
6.3812523 3.8085222 1.177013 17 12 -0.089573309
7.2026696 4.2987685 -0.73385131 40 5 -0.089570999
6.3258924 3.7739849 1.4318308 2 13 -0.089568697
6.2920399 3.7522955 -0.38393661 25 6 -0.089566395
5.3915977 3.2140396 1.4491347 13 14 -0.089564092
6.5982103 3.9317651 -0.13406938 40 7 -0.089561783
4.6671562 2.7799752 1.4555984 54 15 -0.089559481
3.469692 2.0609732 -1.0813459 12 0 -0.089538746
6.257051 3.7151685 0.12701862 27 8 -0.089536443
4.1124191 2.440805 -1.1040598 8 1 -0.089534134
6.834743 4.0549469 0.41648957 6 9 -0.089531831
5.0231647 2.9801655 -1.1353136 4 2 -0.089529529
6.2207036 3.6891835 0.63275069 64 10 -0.089527227
5.8946495 3.4944227 -1.0853424 78 3 -0.089524925
6.3170409 3.7433319 0.90158945 58 11 -0.089522615
6.2544985 3.7048001 -0.89257115 71 4 -0.089520313
6.3724113 3.7731388 1.1729457 62 12 -0.089518011
6.3518596 3.7609699 -0.64582402 56 5 -0.089515708
6.2917228 3.7238796 1.4211454 2 13 -0.089513399
6.3222866 3.7404835 -0.38498333 56 6 -0.089511096
6.0032806 3.5503304 1.6101997 40 14 -0.089508794
6.6291094 3.9188833 -0.13441843 32 7 -0.089506492
4.6668525 2.7577708 1.4524926 56 15 -0.089504182
3.4885166 2.0557141 -1.0849695 14 0 -0.089483447
6.2441363 3.6780789 0.12649503 25 8 -0.089481145
4.1024413 2.4155593 -1.0991108 9 1 -0.089478843
6.1861734 3.6410282 0.37619087 25 9 -0.089476541
5.0267682 2.958631 -1.1337872 6 2 -0.089474231
6.2490001 3.6765378 0.63431948 57 10 -0.089471929
5.896594 3.467818 -1.0834652 87 3 -0.089469627
6.311244 3.7101936 0.89890838 69 11 -0.089467324
6.2365875 3.6648409 -0.88818389 55 4 -0.089465015
6.4264231 3.7748826 1.1804546 62 12 -0.089462712
6.4078989 3.7640014 -0.65018183 50 5 -0.08946041
6.2962174 3.6969256 1.4192374 2 13 -0.089458108
6.2853537 3.6890721 -0.38194785 48 6 -0.089455798
6.5513258 3.8421056 -0.13256848 18 7 -0.089451194
5.2247577 3.0628982 1.6227955 41 15 -0.089448892
3.4906683 2.0405986 -1.0834166 13 0 -0.089428157
6.2413983 3.6471817 0.1261809 60 8 -0.089425847
4.0990691 2.394345 -1.0959616 8 1 -0.089423545
15.766181 9.2056303 0.95680606 39 9 -0.089421242
5.0235023 2.9331455 -1.1307341 6 2 -0.08941894
6.2273793 3.6346176 0.63083327 52 10 -0.089416631
5.9052501 3.4452245 -1.0828395 78 3 -0.089414328
6.2932911 3.6701386 0.89452106 75 11 -0.089412026
6.3745337 3.7160311 -0.90597677 56 4 -0.089409724
6.4463868 3.7564065 1.1817061 13 12 -0.089407414
6.4726415 3.7717054 -0.65541118 52 5 -0.089405112
6.3107815 3.6759119 1.4196191 2 13 -0.08940281
6.2308779 3.6279171 -0.37786564 43 6 -0.089400508
5.4451704 3.1691647 1.4545335 9 14 -0.089398198
6.5042024 3.7840164 -0.13134682 65 7 -0.089395896
5.3038878 3.0844584 1.6440187 45 15 -0.089393593
3.5077965 2.0342169 -1.0865225 13 0 -0.089372858
6.2731223 3.6364026 0.12656485 82 8 -0.089370556
4.110775 2.3819749 -1.0968614 8 1 -0.089368246
15.853521 9.1825752 0.96015555 42 9 -0.089365944
5.0523973 2.9264171 -1.134932 6 2 -0.089363642
6.2245121 3.6038713 0.62926447 54 10 -0.08936134
5.9206605 3.4265678 -1.0834652 82 3 -0.08935903
6.326683 3.6600783 0.89744592 39 11 -0.089356728
6.5008845 3.7593427 -0.92206353 60 4 -0.089354426
8.4655342 4.8934922 1.5487014 21 12 -0.089352123
6.5202656 3.7690318 -0.6588974 54 5 -0.089349814
6.3286734 3.6568089 1.4207639 1 13 -0.089347512
6.2988486 3.6381092 -0.38121516 69 6 -0.089345209
5.4747639 3.1608579 1.4594824 22 14 -0.089342907
6.5121746 3.7582924 -0.1312421 54 7 -0.089340605
5.3213148 3.069788 1.6460892 46 15 -0.089338295
3.5031536 2.0152178 -1.0828989 14 0 -0.08931756
6.2875118 3.6154783 0.12659976 95 8 -0.089315258
4.1275115 2.3724675 -1.0991108 8 1 -0.089312956
15.949683 9.1677771 0.96413308 21 9 -0.089310646
5.0438576 2.8980033 -1.1307341 4 2 -0.089308344
6.299252 3.617842 0.63553965 19 10 -0.089306042
5.9257321 3.4019473 -1.0822138 78 3 -0.089303739
6.317039 3.6251256 0.89427733 40 11 -0.08930143
6.5552945 3.7603314 -0.92791325 56 4 -0.089299127
6.336442 3.6347904 1.1569895 38 12 -0.089296825
6.5230107 3.7403038 -0.65785152 54 5 -0.089294523
6.3533235 3.6415274 1.4234352 2 13 -0.089292221
6.4293532 3.683615 -0.38833284 42 6 -0.089289911
5.9237447 3.3925638 1.5760071 66 14 -0.089287609
6.2764583 3.5945649 -0.12625071 52 7 -0.089285307
5.3147011 3.0425258 1.6409128 26 15 -0.089283004
3.5000989 1.9972333 -1.0797932 14 0 -0.089262262
6.2473593 3.5648806 0.12555261 95 8 -0.08925996
4.1268935 2.3539386 -1.0968614 8 1 -0.089257658
16.090899 9.174366 0.97072738 27 9 -0.089255355
5.0624704 2.8852408 -1.1326423 9 2 -0.089253053
6.3274221 3.6047089 0.63710845 33 10 -0.089250743
5.9266829 3.3764093 -1.0803366 81 3 -0.089248441
6.31005 3.5933533 0.8915962 45 11 -0.089246139
6.2830739 3.5765395 -0.88769639 48 4 -0.089243837
8.5055151 4.8396635 1.549953 18 12 -0.089241527
6.6053023 3.756911 -0.66482401 51 5 -0.089239225
6.3602438 3.6175284 1.4222903 1 13 -0.089236923
6.2956867 3.579356 -0.37954038 51 6 -0.08923462
5.4775152 3.1129272 1.4545335 22 14 -0.089232311
6.283752 3.5696692 -0.12614599 18 7 -0.089230008
5.3656058 3.0468509 1.6533362 15 15 -0.089227706
3.5100651 1.9875182 -1.0808283 10 0 -0.089206971
6.2806497 3.5548701 0.12597147 100 8 -0.089204669
4.133389 2.3385577 -1.0964113 9 1 -0.089202359
16.187149 9.1545248 0.97460032 33 9 -0.089200057
5.078845 2.872304 -1.1341687 6 2 -0.089197755
6.2942452 3.5582149 0.63257635 59 10 -0.089195453
5.943593 3.3586144 -1.0812751 39 3 -0.089193143
6.2931709 3.5547097 0.88745266 47 11 -0.089190841
6.6446943 3.7517388 -0.93693155 50 4 -0.089188538
8.5430012 4.8215928 1.5537072 15 12 -0.089186236
6.9144297 3.9024417 -0.69463122 39 5 -0.089183927
6.3830929 3.6010911 1.4245801 1 13 -0.089181624
6.6456428 3.7476871 -0.39984673 44 6 -0.089179322
5.4730706 3.0851746 1.4504844 37 14 -0.08917702
6.3292761 3.5663626 -0.12680918 24 7 -0.08917471
5.3896737 3.0356884 1.6574773 18 15 -0.089172408
3.5203509 1.9771447 -1.0818636 14 0 -0.089151673
6.2651224 3.5172603 0.125413 52 8 -0.089149371
4.1330285 2.31935 -1.094162 9 1 -0.089147069
16.285198 9.1350908 0.97857773 12 9 -0.089144759
5.0956903 2.8583987 -1.1356952 9 2 -0.089142457
6.3674531 3.5703261 0.6386773 54 10 -0.089140154
6.2674413 3.511373 0.88209039 56 11 -0.089135543
8.5597763 4.7917485 1.5537072 24 12 -0.089130938
6.1873975 3.463695 -0.62037456 10 5 -0.089128636
7.1374674 3.9939022 1.5898207 23 13 -0.089126326
6.2839165 3.514842 -0.37734228 21 6 -0.089124024
5.4531875 3.0489366 1.4423862 48 14 -0.089121722
6.2736082 3.5062017 -0.1254479 38 7 -0.089119419
4.7559876 2.6569431 1.4597394 33 15 -0.08911711
3.532295 1.967664 -1.0834166 13 0 -0.089096375
6.1358452 3.4165719 0.1225857 20 8 -0.089094073
4.1462083 2.3077509 -1.0955117 9 1 -0.08909177
6.1644673 3.4296873 0.36970121 2 9 -0.089089468
5.1039219 2.8396382 -1.1353136 4 2 -0.089087158
6.3972888 3.5577624 0.64042038 51 10 -0.089084856
5.5093637 3.0626967 -0.99836493 5 3 -0.089082554
10.638465 5.9115663 1.4943621 22 11 -0.089080252
5.527122 3.070044 -0.77630776 1 4 -0.089077942
6.4072971 3.5574746 1.160744 51 12 -0.08907564
7.1853704 3.9894783 -0.71903485 49 5 -0.089073338
7.1513667 3.9689615 1.5898207 26 13 -0.089071035
6.1913557 3.4347525 -0.37106195 11 6 -0.089068726
5.4689107 3.0327165 1.4437358 43 14 -0.089066423
6.3295341 3.5085166 -0.12632053 20 7 -0.089064121
4.7686119 2.6421988 1.4607747 11 15 -0.089061819
3.5222309 1.9459821 -1.0782403 9 0 -0.089041084
6.152986 3.3980312 0.12269042 15 8 -0.089038774
4.145709 2.288554 -1.0932621 8 1 -0.089036472
6.676527 3.6841242 0.3996374 2 9 -0.08903417
5.1069255 2.8180144 -1.1337872 6 2 -0.089031868
6.4428163 3.5536916 0.64373231 49 10 -0.089029558
5.4663954 3.0138788 -0.98866594 5 3 -0.089027256
10.681632 5.886858 1.4975306 17 11 -0.089024954
5.4960766 3.0277424 -0.7704581 1 4 -0.089022651
6.4577446 3.5560482 1.167627 75 12 -0.089020342
7.1521316 3.9384222 -0.71432841 46 5 -0.089018039
7.1686144 3.9458728 1.5905839 25 13 -0.089015737
6.2015586 3.4121554 -0.37095729 9 6 -0.089013435
5.4811716 3.0145457 1.4441857 9 14 -0.089011133
6.4819279 3.5634744 -0.1291129 74 7 -0.089008823
4.7456388 2.6078587 1.4509397 45 15 -0.089006521
3.5239201 1.9308896 -1.0766873 14 0 -0.088985786
6.1805921 3.3851824 0.12300456 40 8 -0.088983484
4.1690555 2.2824919 -1.0973113 9 1 -0.088981174
6.6981072 3.6655889 0.40016076 17 9 -0.088978872
5.096065 2.7888594 -1.1292077 4 2 -0.088976569
6.6561971 3.6411395 0.66377813 83 10 -0.088974267
5.4456849 2.9777215 -0.98303431 7 3 -0.088971958
6.2638044 3.4236526 0.87648439 17 11 -0.088969655
5.4630613 2.9847434 -0.7643646 5 4 -0.088967353
6.4649167 3.5306458 1.1666883 66 12 -0.088965051
7.1553431 3.9077044 -0.71328253 45 5 -0.088962749
7.185791 3.9227049 1.5913471 25 13 -0.088960439
6.2116795 3.3895288 -0.37085262 7 6 -0.088958137
6.2221708 3.3938484 1.6362939 9 14 -0.088955835
6.4820385 3.5341241 -0.12886856 58 7 -0.088953532
4.7513208 2.5894272 1.4499043 58 15 -0.088951223
3.5357306 1.9213449 -1.0782403 13 0 -0.088930488
4.1667228 2.2623451 -1.0946118 9 1 -0.088925883
6.6810203 3.6259913 0.39838135 4 9 -0.088923581
5.1264749 2.7822926 -1.1337872 6 2 -0.088921271
6.6601081 3.6131372 0.66290659 76 10 -0.088918969
5.4404182 2.950218 -0.98021847 54 3 -0.088916667
6.261755 3.3942003 0.87453443 14 11 -0.088914365
5.4664636 2.9618766 -0.76338965 2 4 -0.088912055
6.4615698 3.4995892 1.1638726 77 12 -0.088909753
6.1825986 3.3484983 -0.61514527 13 5 -0.08890745
7.2028947 3.8994656 1.5921104 26 13 -0.088905148
6.1971221 3.3535712 -0.36928254 7 6 -0.088902839
6.2356949 3.373034 1.6367439 3 14 -0.088900536
6.4837818 3.5057676 -0.12865914 60 7 -0.088898234
4.7705264 2.5783408 1.4530102 15 15 -0.088895932
3.5543206 1.9154054 -1.0818636 9 0 -0.088875197
6.1495004 3.3125501 0.12192252 25 8 -0.088872887
4.1591501 2.2394748 -1.0905627 8 1 -0.088870585
6.150197 3.3101561 0.36603773 6 9 -0.088868283
5.1154108 2.7532141 -1.1292077 4 2 -0.088865981
6.641098 3.5728741 0.65976894 72 10 -0.088863671
5.4541621 2.9330819 -0.98084426 22 3 -0.088861369
6.264823 3.3676212 0.87331581 69 11 -0.088859066
5.4575343 2.93244 -0.76070851 5 4 -0.088856764
6.4302392 3.4536471 1.1560508 75 12 -0.088854454
7.1526108 3.841629 -0.71031928 31 5 -0.088852152
7.2268395 3.8798723 1.5943999 25 13 -0.08884985
6.1718349 3.3120844 -0.36708444 23 6 -0.088847548
6.1959124 3.3236129 1.6232469 27 14 -0.088845238
6.3250327 3.3914542 -0.12527338 73 7 -0.088842936
5.423121 2.9066348 1.6486773 45 15 -0.088840634
3.5575776 1.9011648 -1.0808283 15 0 -0.088819899
6.2068839 3.3155618 0.12283003 90 8 -0.088817596
4.1738195 2.2286136 -1.0923624 11 1 -0.088815287
6.4453969 3.4400747 0.3828899 12 9 -0.088812985
5.1267228 2.7362642 -1.1295893 6 2 -0.088810682
6.2351561 3.3264692 0.61828285 76 10 -0.08880838
5.4695959 2.916815 -0.98178285 21 3 -0.08880607
6.2677817 3.3410616 0.87209707 61 11 -0.088803768
5.4905119 2.925508 -0.76387709 6 4 -0.088801466
6.4265633 3.4228244 1.153235 76 12 -0.088799164
7.1642175 3.8157034 -0.710145 46 5 -0.088796854
7.2438064 3.8564658 1.5951633 26 13 -0.088794552
6.197463 3.2980278 -0.3679218 14 6 -0.08879225
6.2091961 3.3028812 1.6236967 34 14 -0.088789947
6.4745522 3.4425797 -0.12799595 67 7 -0.088787645
5.4383512 2.890408 1.6502303 41 15 -0.088785335
3.5556574 1.8842131 -1.0782403 15 0 -0.088902473
4.1884627 2.2176769 -1.094162 9 1 -0.088897869
6.174922 3.2680731 0.36614239 100 9 -0.088895559
5.1310372 2.7155981 -1.1284446 6 2 -0.088893257
6.2432079 3.302819 0.61793417 71 10 -0.088890955
5.5006995 2.9087844 -0.98553723 22 3 -0.088888653
6.374176 3.3692577 0.88525897 84 11 -0.088886343
5.4954257 2.9035411 -0.76314586 6 4 -0.088884041
6.3965511 3.3782287 1.1457262 63 12 -0.088881738
7.145782 3.7739222 -0.70700741 47 5 -0.088879436
7.2641673 3.8348241 1.5966897 25 13 -0.088877127
6.1983395 3.2707801 -0.36729378 23 6 -0.088874824
5.5432897 2.9238825 1.4468851 18 14 -0.088872522
6.4582267 3.4050379 -0.12743747 66 7 -0.08887022
4.7870107 2.5228376 1.4499043 11 15 -0.08886791
3.5587919 1.8699936 -1.0772049 14 0 -0.088847175
16.864403 8.857769 0.33250323 31 8 -0.088844873
4.1858253 2.1976087 -1.0914625 11 1 -0.088842571
6.1739111 3.2400036 0.36540967 97 9 -0.088840269
5.1422229 2.6985843 -1.1288261 6 2 -0.088837959
6.2829299 3.2958131 0.62072319 76 10 -0.088835657
5.5055704 2.8868148 -0.98459864 25 3 -0.088833354
6.2927113 3.2981474 0.87234086 82 11 -0.088831052
5.5231123 2.8935518 -0.76558328 8 4 -0.088828743
6.4118037 3.3577142 1.1463519 62 12 -0.08882644
7.2705517 3.805804 1.5951633 25 13 -0.088821836
6.206181 3.2472706 -0.36708444 23 6 -0.088819526
5.5672765 2.9117415 1.4504844 20 14 -0.088817224
6.4629831 3.3787687 -0.12729785 67 7 -0.088814922
5.45155 2.8487892 1.6481597 43 15 -0.088812619
3.5687239 1.8593456 -1.0782403 12 0 -0.088791884
6.1561322 3.2060452 0.12115461 22 8 -0.088789575
4.1831002 2.1775839 -1.0887631 9 1 -0.088787273
6.1775365 3.2158215 0.36499101 40 9 -0.08878497
5.1516109 2.680619 -1.1288261 6 2 -0.088782668
6.289093 3.2711048 0.62020022 83 10 -0.088780358
5.5243783 2.8721337 -0.98616302 21 3 -0.088778056
6.3904953 3.321017 0.88428408 78 11 -0.088775754
5.5384631 2.8770013 -0.76631445 9 4 -0.088773452
6.4281626 3.3391633 1.1472905 58 12 -0.088771142
7.1489682 3.7120078 -0.7047413 49 5 -0.08876884
7.2872777 3.7822087 1.5959265 25 13 -0.088766538
6.192657 3.212712 -0.36561903 37 6 -0.088764235
5.5549173 2.8806262 1.4446357 35 14 -0.088761933
6.3463392 3.2910357 -0.12478471 58 7 -0.088759623
5.4626818 2.8315859 1.6486773 41 15 -0.088757321
3.570044 1.8442162 -1.0766873 14 0 -0.088736586
17.087755 8.8272066 0.33571449 31 8 -0.088734284
4.1781769 2.1574423 -1.0856137 9 1 -0.088731974
6.1922727 3.1960716 0.36520034 10 9 -0.088729672
5.1714053 2.6680198 -1.1311158 6 2 -0.08872737
6.2615151 3.229043 0.61636543 87 10 -0.088725068
5.5426493 2.8583262 -0.98772728 20 3 -0.088722758
6.4932256 3.347101 0.89695841 19 11 -0.088720456
5.5515018 2.8604388 -0.76680195 9 4 -0.088718154
6.3888507 3.2904761 1.1382173 62 12 -0.088715851
7.1317668 3.6715288 -0.70177799 47 5 -0.088713549
7.3154883 3.7661111 1.5993611 22 13 -0.088711239
6.1961722 3.1885042 -0.36520034 34 6 -0.088708937
5.5384459 2.8488176 1.4378871 48 14 -0.088706635
6.4609346 3.3218973 -0.12680918 65 7 -0.088704333
5.4862771 2.8195655 1.6528184 39 15 -0.088702023
3.5812986 1.8350092 -1.0782403 13 0 -0.088681288
17.227039 8.8231077 0.33784369 28 8 -0.088678986
4.1926203 2.1463976 -1.0874133 11 1 -0.088676684
6.1660542 3.1553288 0.36300224 51 9 -0.088674374
5.1540093 2.6374393 -1.1253915 6 2 -0.088672072
6.30057 3.2227767 0.61915439 100 10 -0.088669769
5.5666633 2.8461568 -0.99023032 19 3 -0.088667467
6.2485652 3.1934245 0.86161631 26 11 -0.088665165
5.5649896 2.8428478 -0.76728946 11 4 -0.088662855
6.3756666 3.2555792 1.1338371 68 12 -0.088660553
7.1332545 3.6424234 -0.70073211 46 5 -0.088658251
6.2072654 3.1668546 -0.36520034 11 6 -0.088653639
5.551827 2.8312421 1.438787 20 14 -0.088651337
