# .PCD v0.7 - Point Cloud Data file format
VERSION 0.7
FIELDS x y z intensity ring time
SIZE 4 4 4 4 2 4
TYPE F F F F U F
COUNT 1 1 1 1 1 1
WIDTH 983
HEIGHT 1
VIEWPOINT 0 0 0 1 0 0 0
POINTS 983
DATA ascii
4.1961427 6.9918461 -1.2915231 4 3 -0.089025877
5.8304129 9.7111177 1.3907731 30 11 -0.089023575
5.043045 8.3963594 -1.2026067 73 4 -0.089021273
4.3076458 7.1691303 1.3246872 10 12 -0.089018963
5.0486879 8.4024315 -0.85761249 70 5 -0.089016661
3.6503019 6.0727243 1.3772594 41 13 -0.089014359
5.0896983 8.4639912 -0.51760262 54 6 -0.089012057
3.2195809 5.3519363 1.4419363 11 14 -0.089009747
5.1256738 8.5170841 -0.17351182 58 7 -0.089007445
2.7162449 4.5116701 1.4110814 15 15 -0.089005142
2.1845925 3.6185865 -1.1325922 11 0 -0.088984407
5.1328468 8.4987497 0.1733024 100 8 -0.088982105
2.5858953 4.2799325 -1.1544489 1 1 -0.088979796
10.183692 16.848434 1.0317512 53 9 -0.088977493
3.1989923 5.2925811 -1.2020967 9 2 -0.088975191
7.4917088 12.389791 1.2667215 28 10 -0.088972889
4.2552834 7.0346236 -1.3021606 1 3 -0.088970579
5.8714724 9.7025928 1.3924793 32 11 -0.088968277
5.0784941 8.3888931 -1.2040691 75 4 -0.088965975
4.3398061 7.1658783 1.3268772 8 12 -0.088963673
5.0924344 8.408617 -0.86005282 70 5 -0.088961363
3.6653748 6.0498695 1.3749697 29 13 -0.088959061
5.1295676 8.463253 -0.5186494 54 6 -0.088956758
3.4514308 5.6922665 1.5368656 21 14 -0.088954456
5.1501899 8.490591 -0.1733373 60 7 -0.088952154
3.1017871 5.111587 1.6020899 41 15 -0.088949844
2.1891778 3.5977354 -1.1284511 12 0 -0.088926315
5.1676788 8.4893236 0.17347692 100 8 -0.088924013
2.6008205 4.2708793 -1.1544489 1 1 -0.088921711
10.159516 16.683224 1.0236914 46 9 -0.088919401
3.2072325 5.2646165 -1.1982806 9 2 -0.088917099
7.5276499 12.351656 1.2655014 26 10 -0.088914797
5.1086302 8.3791447 -1.5543331 1 3 -0.088912494
5.9084034 9.6871233 1.3932104 30 11 -0.088910185
5.1186867 8.3923435 -1.2069941 75 4 -0.088907883
4.3645759 7.1531324 1.3271902 10 12 -0.08890558
5.1238337 8.3941898 -0.86040151 70 5 -0.088903278
5.1715703 8.4657488 -0.51990539 54 6 -0.088898666
3.2711747 5.3548422 1.4486848 11 14 -0.088896364
5.1845727 8.4837046 -0.17354673 46 7 -0.088894062
3.1156971 5.0963297 1.6005371 15 15 -0.088891752
2.2000859 3.5888097 -1.1279335 15 0 -0.088871017
5.2041636 8.4857779 0.17375615 100 8 -0.088868715
2.6190464 4.2688746 -1.1562485 1 1 -0.088866413
10.142721 16.531973 1.016469 56 9 -0.08886411
3.2287796 5.2606449 -1.199807 11 2 -0.088861801
7.5675235 12.324928 1.2653271 21 10 -0.088859499
5.1363907 8.3621559 -1.5543331 1 3 -0.088857196
5.948812 9.6810064 1.3951604 34 11 -0.088854894
5.1558447 8.3905439 -1.2091877 73 4 -0.088852584
4.3944783 7.1487174 1.3290673 10 12 -0.088850282
5.157907 8.3873348 -0.86144739 70 5 -0.08884798
4.1056132 6.6735773 1.5230374 13 13 -0.088845678
5.2111297 8.4672651 -0.52105683 51 6 -0.088843368
3.2388644 5.2626443 1.4266397 1 14 -0.088841066
5.2200179 8.4783831 -0.17379107 58 7 -0.088838764
3.1315682 5.0843234 1.6000193 11 15 -0.088836461
2.214004 3.5847816 -1.1289687 14 0 -0.088815726
5.2354312 8.4735765 0.17386088 94 8 -0.088813417
2.6249907 4.2469053 -1.1526492 1 1 -0.088811114
10.119474 16.365671 1.0084094 46 9 -0.088808812
3.2379456 5.2365518 -1.1967541 11 2 -0.08880651
7.614645 12.309931 1.2663729 19 10 -0.0888042
5.1703272 8.3551569 -1.5562103 1 3 -0.088801898
5.9735622 9.649416 1.3934542 32 11 -0.088799596
5.1955514 8.3893728 -1.2116251 73 4 -0.088797294
4.4246092 7.1417294 1.3306317 11 12 -0.088794984
5.1961832 8.3871222 -0.86319047 70 5 -0.088792682
3.6871233 5.9490461 1.3604681 9 13 -0.088790379
5.2423391 8.4550285 -0.52137089 54 6 -0.088788077
3.2551613 5.2479935 1.4257398 1 14 -0.088785775
5.2696118 8.4923954 -0.17445426 53 7 -0.088783465
3.146239 5.0684376 1.5984664 37 15 -0.088781163
2.2265046 3.5770309 -1.1289687 12 0 -0.088760428
5.2787209 8.4773159 0.17431465 100 8 -0.088758126
2.6377373 4.2344093 -1.1517494 1 1 -0.088755816
10.094152 16.198029 1.000245 62 9 -0.088753514
3.2738581 5.2535419 -1.2032416 14 2 -0.088751212
7.6607337 12.288346 1.2668958 23 10 -0.08874891
5.2130489 8.3588486 -1.5602776 2 3 -0.0887466
6.0093117 9.6318712 1.3939416 35 11 -0.088744298
5.230062 8.3796043 -1.2128438 75 4 -0.088741995
4.4620643 7.1463494 1.3343862 11 12 -0.088739693
5.2338676 8.3824539 -0.86458492 70 5 -0.088737391
3.7078686 5.9361386 1.3604681 37 13 -0.088735081
5.284523 8.4570007 -0.52262688 60 6 -0.088732779
3.20735 5.1308432 1.3969461 1 14 -0.088730477
5.3055835 8.4841232 -0.17466368 67 7 -0.088728175
2.8073587 4.4874811 1.4183285 16 15 -0.088725865
2.2389784 3.5692365 -1.1289687 14 0 -0.08870513
5.3167772 8.4723921 0.17459388 100 8 -0.088702828
2.6504309 4.2218742 -1.1508496 1 1 -0.088700525
10.074156 16.040915 0.9927085 46 9 -0.088698216
3.2890453 5.2370934 -1.2020967 9 2 -0.088695914
7.7078128 12.268285 1.2675931 26 10 -0.088693611
5.2558613 8.3623409 -1.5643448 1 3 -0.088691309
6.0471258 9.6175566 1.3949165 35 11 -0.088689007
5.2677302 8.3747435 -1.2147937 73 4 -0.088686697
4.4838281 7.1257129 1.3334475 10 12 -0.088684395
5.2737093 8.3809948 -0.86632806 72 5 -0.088682093
3.9231021 6.232193 1.4314492 20 13 -0.08867979
5.321455 8.4503374 -0.5233596 57 6 -0.088677481
3.2210867 5.1130199 1.3951464 1 14 -0.088675179
5.3394341 8.4723177 -0.17480332 67 7 -0.088672876
3.1918473 5.0626926 1.6036428 37 15 -0.088670574
2.2503908 3.5597672 -1.1284511 12 0 -0.088649832
5.359148 8.474062 0.17501274 86 8 -0.088647529
2.667237 4.2158895 -1.1517494 1 1 -0.088645227
10.049976 15.879081 0.9848581 53 9 -0.088642925
3.2947061 5.2056746 -1.1975174 11 2 -0.088640623
7.7537909 12.246353 1.2681161 26 10 -0.088638313
5.3114471 8.3856621 -1.5721666 3 3 -0.088636011
6.084909 9.6030979 1.3958915 35 11 -0.088633709
5.3064985 8.3713923 -1.2169874 73 4 -0.088631406
4.4938655 7.0866618 1.3290673 25 12 -0.088629097
5.31147 8.3759947 -0.86772257 68 5 -0.088626795
4.1940784 6.6113639 1.5218927 41 13 -0.088624492
5.3701863 8.4620638 -0.5252437 56 6 -0.08862219
5.3754058 8.4637575 -0.17501274 66 7 -0.088617578
3.2074294 5.0482583 1.6026076 37 15 -0.088615276
2.2576139 3.5437429 -1.125863 15 0 -0.088594541
5.4015894 8.4755392 0.17543158 100 8 -0.088592239
2.6861243 4.2131281 -1.153549 1 1 -0.088589929
10.034929 15.73957 0.9782638 62 9 -0.088587627
3.3276386 5.2173147 -1.20286 9 2 -0.088585325
7.7997036 12.224252 1.268639 28 10 -0.088583022
5.3396177 8.3654089 -1.5718536 2 3 -0.088580713
6.1226687 9.5884905 1.3968666 32 11 -0.08857841
5.3549256 8.3829298 -1.2213746 72 4 -0.088576108
4.5332909 7.0966921 1.3337604 32 12 -0.088573806
5.3492527 8.3708372 -0.86911702 70 5 -0.088571496
4.2382817 6.629765 1.529525 42 13 -0.088569194
5.4190626 8.4735527 -0.5271278 53 6 -0.088566892
3.5854173 5.6042113 1.5359658 21 14 -0.08856459
5.4142175 8.4627304 -0.17536178 68 7 -0.08856228
3.2231121 5.0359664 1.6020899 39 15 -0.088559978
2.2720551 3.5390937 -1.1268982 13 0 -0.088539243
5.4264235 8.4525337 0.17532688 97 8 -0.088536941
2.6874449 4.1845202 -1.1481502 1 1 -0.088534638
10.015323 15.588499 0.97104144 51 9 -0.088532329
3.3373365 5.1924548 -1.199807 11 2 -0.088530026
7.8498731 12.20868 1.2698592 28 10 -0.088527724
5.3705368 8.3526402 -1.5727924 2 3 -0.088525422
6.1501341 9.5614567 1.3958915 30 11 -0.088523112
5.3912864 8.3784819 -1.2233245 72 4 -0.08852081
4.559103 7.0824876 1.3340733 41 12 -0.088518508
5.3892293 8.3688641 -0.87086016 68 5 -0.088516206
3.7479076 5.8200769 1.3455851 32 13 -0.088513896
5.4514575 8.4622526 -0.52754653 52 6 -0.088511594
3.340071 5.1827779 1.4234902 22 14 -0.088509291
5.4588971 8.467308 -0.17585045 70 7 -0.088506989
3.2333434 5.01332 1.5984664 31 15 -0.088504687
2.2879758 3.538028 -1.1289687 12 0 -0.088483945
5.4721899 8.4587231 0.17585045 100 8 -0.088481642
2.7126245 4.191473 -1.1526492 1 1 -0.08847934
9.9882641 15.427705 0.96319103 60 9 -0.088477038
3.3545361 5.1813602 -1.199807 11 2 -0.088474728
7.8426566 12.109003 1.2621894 26 10 -0.088472426
5.4114771 8.3520765 -1.5762339 1 3 -0.088470124
6.1791515 9.5332689 1.3949165 19 11 -0.088467821
5.4226584 8.3629436 -1.2238121 72 4 -0.088465512
4.5988503 7.0897307 1.3384535 66 12 -0.08846321
5.4277968 8.3676605 -0.87260324 70 5 -0.088460907
5.5331602 8.5235834 -0.53257072 52 6 -0.088456303
3.6733675 5.6564884 1.5571113 3 14 -0.088453993
5.5014915 8.4683256 -0.17626931 66 7 -0.088451691
2.9192114 4.4917622 1.4354105 18 15 -0.088449389
2.299258 3.5284009 -1.1284511 14 0 -0.088428654
5.5235262 8.473073 0.17654854 100 8 -0.088426344
2.7219155 4.1738176 -1.1503997 2 1 -0.088424042
9.9700346 15.282341 0.95628273 63 9 -0.08842174
3.3715305 5.167974 -1.1994255 14 2 -0.088419437
7.8043013 11.958083 1.2492903 21 10 -0.088417128
5.4492354 8.3463697 -1.5787368 1 3 -0.088414825
6.2449594 9.5615005 1.4022288 3 11 -0.088412523
5.4572482 8.3522711 -1.2250307 69 4 -0.088410221
4.6354566 7.0918231 1.341895 42 12 -0.088407919
5.4678712 8.3653421 -0.87434638 71 5 -0.088405609
3.7873735 5.7921262 1.3452035 3 13 -0.088403307
5.6088023 8.5744162 -0.53696698 52 6 -0.088401005
3.7112288 5.6713533 1.5647595 40 14 -0.088398702
5.6865463 8.6866465 -0.18122579 38 7 -0.088396393
3.1910002 4.8726482 1.5606788 13 15 -0.088394091
2.3073184 3.5138946 -1.1263806 11 0 -0.088373356
5.6727362 8.6359196 0.18035316 55 8 -0.088371053
2.7375376 4.1659203 -1.1508496 2 1 -0.088368744
9.94872 15.133955 0.94916505 57 9 -0.088366441
3.3863161 5.1512513 -1.1982806 9 2 -0.088364139
7.9445186 12.080591 1.2649784 26 10 -0.088361837
5.5326195 8.409812 -1.5943803 1 3 -0.088359535
6.2597475 9.5114517 1.3980851 8 11 -0.088357225
5.515842 8.3779392 -1.2316117 30 4 -0.088354923
4.7025571 7.1399388 1.3540969 53 12 -0.088352621
5.5200505 8.3811474 -0.87800694 55 5 -0.088350318
3.7881277 5.7493606 1.3383343 3 13 -0.088348009
5.6112175 8.5130968 -0.53435016 46 6 -0.088345706
3.73422 5.6632457 1.5661093 45 14 -0.088343404
5.676096 8.6049805 -0.17993431 41 7 -0.088341102
3.2260766 4.8888917 1.5694788 9 15 -0.088338792
2.3142409 3.4977624 -1.1237923 13 0 -0.088318057
5.6631155 8.5560322 0.17909659 70 8 -0.088315755
2.758517 4.1660886 -1.153549 1 1 -0.088313453
9.9353056 14.999231 0.94288468 57 9 -0.088311151
3.4064438 5.142674 -1.1990438 11 2 -0.088308841
8.0141563 12.094305 1.2693362 23 10 -0.088306539
4.6604161 7.0304594 -1.3359504 1 3 -0.088304237
6.2994909 9.4994707 1.3995476 26 11 -0.088301934
5.5066462 8.3007355 -1.2230808 30 4 -0.088299625
4.7263613 7.1218333 1.353784 13 12 -0.088297322
5.5063086 8.2970829 -0.87120879 48 5 -0.08829502
3.7918837 5.7115693 1.3326101 8 13 -0.088292718
5.6132774 8.4518623 -0.53173339 53 6 -0.088290408
3.3840706 5.0934362 1.4117929 22 14 -0.088288106
5.6662474 8.5251617 -0.17867775 38 7 -0.088285804
3.2976751 4.9596443 1.5958784 35 15 -0.088283502
2.3307221 3.4960933 -1.125863 13 0 -0.088262767
5.655221 8.4796505 0.17790982 63 8 -0.088260457
2.7654729 4.1450863 -1.1503997 4 1 -0.088258155
9.9188566 14.861464 0.93639499 60 9 -0.088255852
3.4200139 5.1242208 -1.1975174 11 2 -0.08825355
8.1149578 12.154079 1.2785747 15 10 -0.088251241
5.5100055 8.2494259 -1.571228 1 3 -0.088248938
6.3293018 9.4724731 1.3988165 29 11 -0.088246636
5.5256581 8.2666121 -1.2208872 84 4 -0.088244334
4.7500925 7.1036501 1.3534712 1 12 -0.088242024
5.5208378 8.2562819 -0.86894274 61 5 -0.088239722
3.8074305 5.6917715 1.3310837 26 13 -0.08823742
5.6060886 8.3774424 -0.52827919 55 6 -0.088235117
3.7790861 5.6451349 1.5683587 40 14 -0.088232808
5.6603665 8.4521599 -0.17756079 45 7 -0.088230506
3.0203526 4.5083423 1.4540454 18 15 -0.088228203
2.3472197 3.4943516 -1.1279335 12 0 -0.088207468
5.6490979 8.406744 0.17679287 57 8 -0.088205166
2.7788393 4.1337895 -1.1499498 9 1 -0.088202856
9.89711 14.717366 0.92948663 57 9 -0.088200554
3.444452 5.1220264 -1.199807 11 2 -0.088198252
8.1273098 12.081042 1.2738683 14 10 -0.08819595
5.5431814 8.2366962 -1.5724794 1 3 -0.08819364
6.3634348 9.4519701 1.3990601 24 11 -0.088191338
5.5555911 8.2489176 -1.221131 72 4 -0.088189036
4.7947297 7.1165142 1.3591028 10 12 -0.088186733
5.5574193 8.2485256 -0.8701629 63 5 -0.088184424
4.3715196 6.4859333 1.5203662 26 13 -0.088182122
5.6051521 8.3131094 -0.52545309 62 6 -0.088179819
3.7965903 5.6286769 1.567459 47 14 -0.088177517
5.6730523 8.4074888 -0.17703721 66 7 -0.088175215
3.3451893 4.9557152 1.6020899 39 15 -0.088172905
2.3594038 3.4861364 -1.1279335 15 0 -0.08815217
5.6772866 8.3853188 0.17675798 76 8 -0.088149868
2.7910652 4.1208382 -1.14905 8 1 -0.088147566
9.8756056 14.575252 0.922683 69 9 -0.088145256
3.4601092 5.1067209 -1.1990438 9 2 -0.088142954
8.161603 12.041056 1.2726481 26 10 -0.088140652
5.5896358 8.2434578 -1.5774853 1 3 -0.088138349
6.4008493 9.4362707 1.4000351 22 11 -0.08813604
5.5888128 8.2360449 -1.222106 69 4 -0.088133737
4.8317442 7.1177125 1.3625443 55 12 -0.088131435
5.606319 8.25875 -0.87330055 67 5 -0.088129133
4.3952374 6.4722571 1.5207478 20 13 -0.088126831
5.6554623 8.3248806 -0.5274418 68 6 -0.088124521
3.8151183 5.6137791 1.5670091 45 14 -0.088122219
5.7046165 8.3909416 -0.17710702 68 7 -0.088119917
3.1495311 4.6309137 1.5006329 20 15 -0.088117614
2.3628507 3.4651105 -1.1237923 14 0 -0.088096872
5.7211699 8.3869276 0.17721173 89 8 -0.08809457
2.8098276 4.1175079 -1.1508496 9 1 -0.088092268
9.8622398 14.446664 0.91671669 66 9 -0.088089965
3.4823427 5.1010962 -1.2005702 9 2 -0.088087663
8.1990881 12.005914 1.2719508 26 10 -0.088085353
5.6228352 8.2304182 -1.5787368 1 3 -0.088083051
6.4382315 9.4204226 1.40101 24 11 -0.088080749
5.6320868 8.237793 -1.2252746 64 4 -0.088078447
5.6418643 8.2489958 -0.87434638 67 5 -0.088073835
4.4277825 6.471457 1.5241823 26 13 -0.088071533
5.7014027 8.3298149 -0.52901191 51 6 -0.08806923
3.4141202 4.9861965 1.3951464 11 14 -0.088066921
5.7406545 8.3808756 -0.17731646 70 7 -0.088064618
3.1329141 4.5720854 1.4851037 80 15 -0.088062316
2.3793085 3.4632103 -1.125863 12 0 -0.088041581
5.7549434 8.3734961 0.17735136 81 8 -0.088039279
2.8330131 4.1205239 -1.1544489 9 1 -0.088036969
9.8469591 14.31671 0.91064578 66 9 -0.088034667
3.4934514 5.079205 -1.1982806 9 2 -0.088032365
8.2454662 11.983783 1.2726481 26 10 -0.088030063
5.6582451 8.2205076 -1.580614 1 3 -0.088027753
6.4789548 9.409338 1.4027163 24 11 -0.088025451
5.6765752 8.2409687 -1.2286868 73 4 -0.088023148
4.7826862 6.9406652 1.3350118 8 12 -0.088020846
5.6751485 8.2358131 -0.87504369 66 5 -0.088018537
3.853102 5.5895643 1.319635 31 13 -0.088016234
5.7417855 8.3263025 -0.53005862 73 6 -0.088013932
3.4326124 4.975852 1.3955964 22 14 -0.08801163
5.7880445 8.3871193 -0.17787492 68 7 -0.08800932
3.1510508 4.5643001 1.4861389 54 15 -0.088007018
2.3891847 3.4517062 -1.1248276 15 0 -0.087986283
5.7875504 8.3582888 0.17745607 76 8 -0.087983981
2.8440511 4.1058025 -1.1530992 8 1 -0.087981679
9.8354483 14.193599 0.90499347 63 9 -0.087979369
3.5111611 5.0669789 -1.1982806 9 2 -0.087977067
8.2713537 11.932006 1.2702078 21 10 -0.087974764
5.6846561 8.1974583 -1.5799882 1 3 -0.087972462
6.5128937 9.3882942 1.4029599 26 11 -0.087970152
5.7120957 8.2308903 -1.2301493 73 4 -0.08796785
4.8080058 6.9255538 1.3353248 7 12 -0.087965548
5.7197633 8.2388697 -0.87748402 66 5 -0.087963246
3.872591 5.5760794 1.319635 53 13 -0.087960936
5.6591344 8.1454668 -0.51980078 43 6 -0.087958634
3.8803678 5.5831213 1.5697085 38 14 -0.087956332
5.830987 8.3865652 -0.17829379 66 7 -0.087954029
3.4030256 4.8926663 1.5969136 26 15 -0.08795172
2.4045317 3.4481013 -1.1263806 12 0 -0.087930985
5.828135 8.354435 0.17780513 76 8 -0.087928683
2.8527906 4.0878592 -1.1508496 1 1 -0.08792638
9.8024483 14.046256 0.89766639 54 9 -0.087924078
3.5366898 5.0659623 -1.2009518 4 2 -0.087921768
8.295846 11.878558 1.2675931 23 10 -0.087919466
5.7426534 8.2196665 -1.5881228 1 3 -0.087917164
6.5433445 9.3622532 1.4024725 24 11 -0.087914862
5.7464809 8.2190332 -1.2313679 54 4 -0.087912552
4.8422666 6.9257598 1.3384535 7 12 -0.08791025
5.7621932 8.2384434 -0.87957567 59 5 -0.087907948
3.8740196 5.5367923 1.3135291 8 13 -0.087905645
5.4997067 7.8573146 -0.50263453 50 6 -0.087903336
3.8975987 5.566349 1.5688087 45 14 -0.087901033
5.8679395 8.3802881 -0.17857303 66 7 -0.087898731
3.1898019 4.553823 1.4897624 1 15 -0.087896429
2.4176645 3.4412668 -1.1268982 15 0 -0.087875694
5.8799458 8.3694248 0.17853811 100 8 -0.087873384
2.8663318 4.0783753 -1.1508496 1 1 -0.087871082
9.784791 13.917192 0.89159548 63 9 -0.08786878
3.5385413 5.0311036 -1.1956092 4 2 -0.087866478
8.3464336 11.86256 1.2689875 23 10 -0.087864168
5.7926149 8.2328873 -1.5943803 1 3 -0.087861866
6.5697875 9.3340092 1.4014976 26 11 -0.087859564
5.783989 8.2145414 -1.2335616 37 4 -0.087857261
4.8755145 6.9217334 1.3409564 10 12 -0.087854952
5.7977996 8.2280531 -0.88062155 56 5 -0.087852649
4.5131931 6.4049802 1.5230374 22 13 -0.087850347
5.4797015 7.773737 -0.49844769 58 6 -0.087848045
3.9194069 5.5581708 1.5701584 47 14 -0.087845743
5.9006128 8.3646584 -0.17867775 64 7 -0.087843433
3.1477594 4.4605832 1.4628453 1 15 -0.087841131
2.4246006 3.4269214 -1.1248276 15 0 -0.087820396
5.9206758 8.3651733 0.17888717 100 8 -0.087818094
2.8805478 4.0683475 -1.1508496 1 1 -0.087815784
9.7698212 13.793308 0.88583845 66 9 -0.087813482
3.552937 5.0161362 -1.1948459 4 2 -0.087811179
8.4260397 11.891717 1.2750885 21 10 -0.087808877
5.8121738 8.199729 -1.5918773 1 3 -0.087806568
6.6034799 9.3126364 1.4017414 27 11 -0.087804265
5.8298578 8.2185869 -1.2372177 61 4 -0.087801963
4.9819498 7.0206661 1.363483 51 12 -0.087799661
5.8319693 8.2185316 -0.88166744 56 5 -0.087797359
4.5434799 6.4003921 1.5257088 25 13 -0.087795049
5.4698009 7.7024508 -0.49509817 57 6 -0.087792747
3.4602609 4.8708606 1.3793999 15 14 -0.087790444
5.9448366 8.3651991 -0.17913151 66 7 -0.087788142
3.1107013 4.3755651 1.4385163 3 15 -0.087785833
2.4298198 3.408999 -1.1217217 13 0 -0.087765098
5.9568071 8.3542223 0.17909659 99 8 -0.087762795
2.9015224 4.0677857 -1.153549 1 1 -0.087760493
9.7622213 13.681085 0.88081419 69 9 -0.087758191
3.5681434 5.0005083 -1.1940827 4 2 -0.087755881
8.4640226 11.857369 1.2745656 26 10 -0.087753579
5.8637228 8.2115412 -1.5981348 1 3 -0.087751277
6.6359444 9.2895308 1.4017414 29 11 -0.087748975
5.8700504 8.2143383 -1.2396551 67 4 -0.087746665
4.9616251 6.9405599 1.351281 47 12 -0.087744363
5.869894 8.2110891 -0.88306201 67 5 -0.08774206
3.913702 5.4726501 1.3078048 25 13 -0.087739758
5.4687629 7.6443272 -0.49258608 60 6 -0.087737449
3.4851797 4.8698459 1.3825492 13 14 -0.087735146
5.9856434 8.3606539 -0.17948055 66 7 -0.087732844
3.1023335 4.3316989 1.4276459 16 15 -0.087730542
2.4439573 3.4036357 -1.1227571 15 0 -0.087709807
5.9964342 8.3479939 0.17941074 100 8 -0.087707497
2.9157031 4.0576334 -1.153549 1 1 -0.087705195
9.7492981 13.562598 0.87537134 66 9 -0.087702893
3.5787005 4.9784589 -1.1917931 4 2 -0.08770059
8.5123434 11.837456 1.2756114 23 10 -0.087698281
5.8969626 8.1974382 -1.5993862 1 3 -0.087695979
6.6706524 9.2695312 1.4022288 27 11 -0.087693676
5.9137678 8.2147398 -1.2428237 64 4 -0.087691374
4.9950557 6.9360232 1.353784 57 12 -0.087689064
5.6901021 7.9011493 -0.85186017 46 5 -0.087686762
3.9385185 5.4669209 1.309713 20 13 -0.08768446
5.4627185 7.5798216 -0.48965529 60 6 -0.087682158
3.9785318 5.5184054 1.5706083 42 14 -0.087679848
6.033505 8.3656616 -0.18003903 71 7 -0.087677546
3.1163058 4.3192754 1.4271283 7 15 -0.087675244
2.4603531 3.4013443 -1.1248276 12 0 -0.087654509
6.0407758 8.348073 0.17986451 99 8 -0.087652206
2.9161377 4.0284872 -1.1481502 1 1 -0.087649897
9.7286406 13.434655 0.86930031 66 9 -0.087647595
3.6259964 5.0072784 -1.2017151 4 2 -0.087645292
8.5723104 11.833488 1.2784004 15 10 -0.08764299
5.9371343 8.1927977 -1.6025149 1 3 -0.08764068
6.6924806 9.2317266 1.4000351 11 11 -0.087638378
5.9470663 8.2004766 -1.2437986 63 4 -0.087636076
5.0029988 6.8961587 1.3494039 26 12 -0.087633774
5.6205425 7.7473841 -0.83739239 53 5 -0.087631464
3.9656482 5.4642625 1.3123844 5 13 -0.087629162
5.4797549 7.5477777 -0.48881787 10 6 -0.08762686
6.0720706 8.3574924 -0.18031827 70 7 -0.087622255
3.1415849 4.3224363 1.431787 1 15 -0.087619945
2.4722102 3.3927355 -1.1248276 13 0 -0.087597132
6.0816607 8.3430939 0.18021354 89 8 -0.087594829
2.9347763 4.0245814 -1.1499498 1 1 -0.087592527
9.706028 13.305417 0.86312467 71 9 -0.087590218
3.6272538 4.9723868 -1.1963725 4 2 -0.087587915
8.6170921 11.808319 1.2789234 27 10 -0.087585613
4.9454041 6.7743859 -1.3284416 1 3 -0.087583311
6.7433934 9.2339592 1.403935 22 11 -0.087581001
5.9897094 8.1989002 -1.2467235 63 4 -0.087578699
5.0200486 6.8690825 1.3475267 13 12 -0.087576397
5.6005297 7.663372 -0.83041996 52 5 -0.087574095
3.998601 5.4694066 1.3169638 1 13 -0.087571785
6.0684671 8.2975845 -0.53874642 67 6 -0.087569483
3.5049188 4.7906175 1.3704019 9 14 -0.08756718
6.1059294 8.3427019 -0.18045788 71 7 -0.087564878
3.5435338 4.8398519 1.6072664 18 15 -0.087562568
2.4794664 3.3778555 -1.1227571 15 0 -0.087541834
6.1296782 8.3476076 0.18077204 55 8 -0.087539531
2.9464984 4.0111718 -1.14905 1 1 -0.087537229
9.6932821 13.190981 0.85789102 69 9 -0.087534927
3.6329644 4.9438739 -1.1925563 4 2 -0.087532617
8.6570759 11.776565 1.2787491 30 10 -0.087530315
6.7779403 9.2135601 1.4044224 24 11 -0.08752571
6.0347624 8.2003269 -1.2501358 66 4 -0.087523401
5.0205712 6.8197017 1.3412693 2 12 -0.087521099
5.5752711 7.5731788 -0.82275021 51 5 -0.087518796
3.9804153 5.4048276 1.304752 13 13 -0.087516494
6.1080546 8.290823 -0.53968841 65 6 -0.087514184
3.5667078 4.8395348 1.3879479 1 14 -0.087511882
6.1492558 8.3406506 -0.18087673 70 7 -0.08750958
3.5604055 4.8274541 1.6072664 35 15 -0.087507278
2.4877961 3.3645205 -1.1212041 14 0 -0.087486543
6.163538 8.3325891 0.18091165 57 8 -0.087484233
2.9628015 4.0039945 -1.1499498 1 1 -0.087481931
9.6810389 13.078406 0.85276216 69 9 -0.087479629
3.6548703 4.9374743 -1.1940827 4 2 -0.087477326
8.6993141 11.747877 1.2789234 30 10 -0.087475017
4.9925776 6.7396951 -1.3284416 1 3 -0.087472714
6.8136039 9.1946316 1.4051536 24 11 -0.087470412
6.0810814 8.2031336 -1.2537918 60 4 -0.08746811
5.0325823 6.7862682 1.3381406 2 12 -0.0874658
5.5589499 7.496058 -0.81647497 52 5 -0.087463498
3.9711857 5.3530574 1.2955931 15 13 -0.087461196
6.1560006 8.2951145 -0.54136318 66 6 -0.087458894
3.5429244 4.7722907 1.3722014 52 14 -0.087456591
6.1926417 8.338397 -0.1812956 68 7 -0.087454282
3.5703213 4.8056931 1.6041605 3 15 -0.08745198
2.5029879 3.3604634 -1.1227571 15 0 -0.087431245
6.2188749 8.3463001 0.18167956 100 8 -0.087428942
2.9604526 3.9717555 -1.1436511 1 1 -0.087426633
9.6657486 12.962874 0.84742391 71 9 -0.08742433
3.6626961 4.9120941 -1.1910298 4 2 -0.087422028
8.7498016 11.730212 1.2803178 27 10 -0.087419726
4.9995289 6.7000651 -1.3240615 1 3 -0.087417416
6.8409104 9.1644268 1.4041786 24 11 -0.087415114
6.4256167 8.6049461 -1.3186264 65 4 -0.087412812
5.0550523 6.7670794 1.3378277 15 12 -0.08741051
3.9863203 5.334446 1.2944483 28 13 -0.087405898
6.342772 8.4847326 -0.55517989 67 6 -0.087403595
6.5607047 8.7698765 -0.19117366 56 7 -0.087398991
3.2606621 4.3570323 1.4581866 18 15 -0.087396681
2.5170224 3.3547955 -1.1237923 15 0 -0.087375946
6.584074 8.7723551 0.19145289 100 8 -0.087373644
2.9860001 3.9769802 -1.1481502 1 1 -0.087371342
9.6499166 12.852489 0.84229493 74 9 -0.087369032
3.6975074 4.9228249 -1.1967541 7 2 -0.08736673
8.7990694 11.71075 1.281538 30 10 -0.087364428
5.0228877 6.6825714 -1.3240615 1 3 -0.087362126
6.8704753 9.1373167 1.4036912 24 11 -0.087359823
5.090529 6.767643 1.3412693 47 12 -0.087355211
5.8710957 7.8025393 -0.85430056 1 5 -0.087352909
4.0249896 5.3471627 1.3009357 16 13 -0.087350607
6.6342592 8.8103609 -0.57799834 78 6 -0.087348297
4.0955739 5.4369874 1.5715082 42 14 -0.087345995
6.6980343 8.8918247 -0.19431511 76 7 -0.087343693
3.5076175 4.6547642 1.5617142 46 15 -0.087341391
2.5298803 3.3475323 -1.12431 12 0 -0.087320648
6.6155386 8.7536669 0.19152272 100 8 -0.087318346
2.994472 3.9608378 -1.1463506 1 1 -0.087316044
9.6248503 12.726331 0.83622396 69 9 -0.087313741
3.6992664 4.8895378 -1.1917931 7 2 -0.087311439
8.8435049 11.684729 1.282061 30 10 -0.08730913
5.0354853 6.653276 -1.3215585 1 3 -0.087306827
6.9151149 9.1334763 1.4066161 27 11 -0.087304525
5.766118 7.6131287 -1.172627 4 4 -0.087302223
5.0962296 6.7262144 1.3365762 22 12 -0.087299913
5.8958912 7.778821 -0.85395193 1 5 -0.087297611
4.7411876 6.2553473 1.5257088 25 13 -0.087295309
6.6851578 8.8169613 -0.57988244 82 6 -0.087293006
4.1182933 5.4295859 1.5733078 42 14 -0.087290697
6.7302427 8.8699818 -0.19435 76 7 -0.087288395
3.6032648 4.7471313 1.5969136 30 15 -0.087286092
2.5374584 3.3345115 -1.1227571 15 0 -0.087265357
6.655746 8.743248 0.19180195 100 8 -0.087263055
3.0129995 3.9565647 -1.1481502 1 1 -0.087260745
9.6195879 12.627519 0.83193243 74 9 -0.087258443
3.7130821 4.8741188 -1.1910298 4 2 -0.087256141
8.8797855 11.652169 1.2817123 30 10 -0.087253839
5.0682616 6.6482248 -1.3240615 1 3 -0.087251529
6.9445448 9.1061268 1.4061285 27 11 -0.087249227
6.40311 8.3931246 -1.2962024 7 4 -0.087246925
5.1076946 6.6926794 1.3334475 6 12 -0.087244622
5.8986902 7.7291312 -0.85064 6 5 -0.087242313
4.7701411 6.2481236 1.5279986 25 13 -0.08724001
6.7352924 8.8189669 -0.58155721 85 6 -0.087237708
6.7611618 8.8464365 -0.19435 76 7 -0.087233096
3.3194344 4.3416424 1.4643983 50 15 -0.087230794
2.5443826 3.3195004 -1.1206865 12 0 -0.087210059
6.681356 8.7136145 0.19166233 100 8 -0.087207757
3.022049 3.9398375 -1.1463506 1 1 -0.087205455
9.6101141 12.524141 0.82732689 74 9 -0.087203145
3.7300749 4.8611269 -1.1910298 4 2 -0.087200843
8.9228296 11.624266 1.282061 27 10 -0.087198541
5.0481215 6.5740929 -1.3127981 1 3 -0.087196238
6.9847565 9.0928488 1.4078349 32 11 -0.087193929
6.3900328 8.3156338 -1.2876717 28 4 -0.087191626
5.1310205 6.6748133 1.3334475 1 12 -0.087189324
5.9304857 7.714817 -0.85133731 8 5 -0.087187022
6.7769976 8.8096476 -0.58249921 89 6 -0.08718241
3.6010787 4.6794782 1.3632034 5 14 -0.087180108
6.8090796 8.8449631 -0.19483867 76 7 -0.087177806
3.6610732 4.7540002 1.607784 48 15 -0.087175503
2.5606742 3.3167169 -1.1227571 15 0 -0.087154761
6.7141786 8.6934023 0.19173212 100 8 -0.087152459
3.0167212 3.9045899 -1.1391522 1 1 -0.087150156
9.5939226 12.413088 0.82219797 71 9 -0.087147854
3.7470195 4.8480778 -1.1910298 4 2 -0.087145545
8.9731045 11.605656 1.2834555 22 10 -0.087143242
5.1145482 6.6126819 -1.3240615 1 3 -0.08714094
7.0128078 9.0637035 1.4071035 30 11 -0.087138638
5.5964456 7.2305183 -1.1226605 11 4 -0.087136328
5.1385689 6.6365552 1.3293802 8 12 -0.087134026
5.9403048 7.6720119 -0.84889692 8 5 -0.087131724
4.074286 5.260118 1.2933035 7 13 -0.087129422
6.4064612 8.2680979 -0.54816687 30 6 -0.087127119
3.6042597 4.6499357 1.3582544 41 14 -0.08712481
6.8570666 8.8432674 -0.19532733 75 7 -0.087122507
3.6800122 4.7442451 1.6088192 46 15 -0.087120205
2.5746088 3.3108072 -1.1237923 15 0 -0.08709947
6.7469411 8.673068 0.19180195 94 8 -0.087097161
3.0422997 3.909416 -1.1436511 1 1 -0.087094858
9.5746193 12.299149 0.81685966 74 9 -0.087092556
3.7759783 4.850461 -1.1948459 4 2 -0.087090254
9.0233574 11.586836 1.2848499 12 10 -0.087087944
5.118175 6.5698566 -1.3190556 1 3 -0.087085642
7.0395203 9.0329075 1.4061285 29 11 -0.08708334
6.321003 8.1079998 -1.2623228 37 4 -0.087081037
5.1677761 6.6263676 1.3309445 43 12 -0.087078735
5.6950383 7.3024483 -0.8101998 2 5 -0.087076426
4.0708842 5.2180028 1.2864343 33 13 -0.087074123
6.2669382 8.0299768 -0.53382683 17 6 -0.087071821
3.6192689 4.6357908 1.3578045 43 14 -0.087069519
6.895277 8.8287344 -0.19553676 73 7 -0.087067209
3.7060668 4.7435489 1.6129603 43 15 -0.087064907
2.5885334 3.304841 -1.1248276 12 0 -0.087044172
6.78334 8.6573362 0.19197647 100 8 -0.08704187
3.0559285 3.8987718 -1.1436511 1 1 -0.08703956
9.5583429 12.190207 0.81183547 74 9 -0.087037258
3.7807744 4.8218002 -1.1910298 4 2 -0.087034956
9.0637465 11.55527 1.2848499 17 10 -0.087032653
5.1362009 6.5457335 -1.3178041 1 3 -0.087030351
7.0759134 9.0145235 1.4071035 29 11 -0.087028041
6.2953219 8.017189 -1.2515982 18 4 -0.087025739
5.1945372 6.6129475 1.3318831 47 12 -0.087023437
5.6638813 7.2104497 -0.80218142 10 5 -0.087021135
4.0999923 5.2176533 1.2898688 46 13 -0.087018825
6.22087 7.9138408 -0.52754653 10 6 -0.087016523
4.2148342 5.3599486 1.5742074 43 14 -0.087014221
6.9347095 8.8156118 -0.1957811 70 7 -0.087011918
3.7237959 4.7321019 1.6134779 16 15 -0.087009609
2.5928738 3.2866859 -1.1217217 15 0 -0.086988874
6.8271432 8.6508732 0.19236042 100 8 -0.086986572
3.0815935 3.9033768 -1.1481502 1 1 -0.086984269
9.552557 12.095641 0.80775326 79 9 -0.086981967
3.787847 4.7962484 -1.1879768 4 2 -0.086979657
9.105258 11.525126 1.2850242 15 10 -0.086977355
5.1394224 6.5029664 -1.3127981 1 3 -0.086975053
7.1134911 8.9975567 1.4083222 27 11 -0.086972751
6.2321429 7.87995 -1.2335616 1 4 -0.086970441
5.1930776 6.5637898 1.3256258 15 12 -0.086968139
6.0784225 7.6828218 -0.85708958 2 5 -0.086965837
4.1279263 5.2156262 1.2929219 28 13 -0.086963534
5.6880779 7.1842976 -0.4802348 25 6 -0.086961225
4.238359 5.3513131 1.5760071 40 14 -0.086958922
6.98034 8.8101616 -0.19619995 67 7 -0.08695662
3.7438924 4.7236156 1.6150309 1 15 -0.086954318
2.594717 3.2655141 -1.1175808 14 0 -0.086933583
6.8535643 8.6222944 0.19225572 100 8 -0.086931273
3.0903499 3.8864942 -1.1463506 1 1 -0.086928971
9.5288286 11.979379 0.80220562 30 9 -0.086926669
3.8045673 4.7829967 -1.1879768 4 2 -0.086924367
9.1491528 11.497952 1.2855473 12 10 -0.086922057
5.1620893 6.4849882 -1.3127981 1 3 -0.086919755
7.1448574 8.9726696 1.4083222 14 11 -0.086917453
6.1680846 7.7432508 -1.215525 3 4 -0.08691515
5.2122641 6.5409894 1.3246872 1 12 -0.086912841
6.1461768 7.7129784 -0.86284184 4 5 -0.086910538
6.2037439 7.7796478 -0.52147555 52 6 -0.086905934
4.2630877 5.3441038 1.5782566 37 14 -0.086903624
5.7338209 7.1852064 -0.16045742 11 7 -0.086901322
3.3385224 4.1820955 1.4338576 33 15 -0.08689902
2.615756 3.2685041 -1.1217217 12 0 -0.086878285
6.878623 8.5920725 0.1921161 42 8 -0.086875983
3.1038966 3.8756838 -1.1463506 1 1 -0.086873673
9.5705843 11.946046 0.80220562 66 9 -0.086871371
3.8310592 4.7819452 -1.1910298 4 2 -0.086869068
9.1942196 11.472162 1.2862444 12 10 -0.086866766
5.1846933 6.4669304 -1.3127981 1 3 -0.086864457
7.1810989 8.9538698 1.4092971 17 11 -0.086862154
6.127996 7.6380587 -1.202363 6 4 -0.086859852
5.2202287 6.5042677 1.3209327 3 12 -0.08685755
6.1406398 7.6510754 -0.85830975 8 5 -0.08685524
4.1716123 5.1958656 1.2952114 2 13 -0.086852938
6.2383647 7.7672906 -0.52210355 56 6 -0.086850636
4.2817178 5.3291893 1.5782566 16 14 -0.086848333
9.5684624 11.905027 -0.26660296 34 7 -0.086846031
3.366415 4.1869779 1.4395516 28 15 -0.086843722
2.6271501 3.2593527 -1.1217217 15 0 -0.086822987
5.7613301 7.145195 0.16021308 13 8 -0.086820684
3.1149585 3.8617926 -1.1454507 1 1 -0.086818382
9.5658216 11.855052 0.79833275 44 9 -0.086816072
3.8526609 4.7746544 -1.1925563 4 2 -0.08681377
9.2467251 11.4555 1.2879876 10 10 -0.086811468
5.2072339 6.4487939 -1.3127981 1 3 -0.086809166
7.2160563 8.9333801 1.4100285 27 11 -0.086806856
6.0997267 7.5486846 -1.1916386 6 4 -0.086804554
5.256557 6.5029082 1.3243743 30 12 -0.086802252
5.3970175 6.6766729 -0.75110817 1 5 -0.086799949
4.1675053 5.1537929 1.2883424 3 13 -0.086797647
6.2679539 7.7485704 -0.52231288 60 6 -0.086795337
4.290484 5.3020949 1.5746574 40 14 -0.086793035
9.5873156 11.843575 -0.26597467 14 7 -0.086790733
3.7943668 4.6856532 1.6155485 18 15 -0.086788431
2.6458161 3.2591619 -1.1248276 12 0 -0.086767688
9.5479174 11.757096 0.26436904 34 8 -0.086765386
3.1210485 3.84182 -1.1427513 1 1 -0.086763084
9.554245 11.756488 0.79393655 38 9 -0.086760782
3.8643522 4.7550812 -1.1910298 4 2 -0.086758479
9.2941952 11.43243 1.2890334 15 10 -0.08675617
5.3319163 6.5562468 -1.3384535 4 3 -0.086753868
7.2534609 8.9158335 1.4112471 29 11 -0.086751565
5.376729 6.606637 -1.0458828 42 4 -0.086749263
5.284214 6.4906454 1.3256258 38 12 -0.086746953
5.3951349 6.6268907 -0.74762189 34 5 -0.086744651
4.1730733 5.1239905 1.2845262 21 13 -0.086742349
6.3025308 7.7359366 -0.52294093 55 6 -0.086740047
3.6995556 4.5393395 1.3519558 37 14 -0.086737737
5.855504 7.1821127 -0.1617489 7 7 -0.086735435
3.8143618 4.6768723 1.6171014 15 15 -0.086733133
2.6449475 3.234951 -1.1196512 12 0 -0.086712398
9.5711784 11.702024 0.2638804 28 8 -0.086710095
3.139375 3.8369355 -1.1445509 1 1 -0.086707786
9.5375204 11.656731 0.78933096 46 9 -0.086705483
3.8709757 4.7294116 -1.1879768 4 2 -0.086703181
9.3176394 11.379875 1.2867674 100 10 -0.086700879
5.2921858 6.4611835 -1.3228099 7 3 -0.086698569
7.2820163 8.8873949 1.4107596 26 11 -0.086696267
5.2853746 6.4505777 -1.0239463 9 4 -0.086693965
5.2806659 6.4425306 1.3193684 8 12 -0.086691663
5.3171725 6.4847603 -0.73367703 13 5 -0.086689353
4.1734996 5.0881443 1.2791836 11 13 -0.086687051
3.7121174 4.5240326 1.3510561 9 14 -0.086682446
8.5753345 10.447215 -0.23592164 10 7 -0.086680137
3.8151379 4.6462822 1.6108898 16 15 -0.086677834
2.6581175 3.2291451 -1.1206865 18 0 -0.086657099
13.139925 15.957022 0.36081105 100 8 -0.086654797
3.1619928 3.8385375 -1.1481502 1 1 -0.086652495
9.5278654 11.566461 0.78535342 44 9 -0.086650185
3.9016216 4.7347293 -1.1925563 4 2 -0.086647883
9.4085503 11.413486 1.2940885 17 10 -0.086645581
5.2607946 6.3795929 -1.3096695 12 3 -0.086643279
7.321557 8.8754463 1.4127096 30 11 -0.086640969
5.2233672 6.3319473 -1.0078596 15 4 -0.086638667
5.2328491 6.3411875 1.3021606 3 12 -0.086636364
5.2371726 6.3441772 -0.71973211 20 5 -0.086634062
4.1928511 5.0773025 1.2799468 6 13 -0.086631753
6.370306 7.7113342 -0.52419698 58 6 -0.08662945
3.7208929 4.5041866 1.3488065 45 14 -0.086627148
8.5768147 10.378641 -0.23501411 12 7 -0.086624846
3.8329875 4.6365819 1.611925 16 15 -0.086622536
2.6663446 3.2173378 -1.1196512 14 0 -0.086601801
13.214469 15.939528 0.36140442 100 8 -0.086599499
3.1747057 3.8280301 -1.1481502 1 1 -0.086597197
9.5235519 11.47933 0.78168994 39 9 -0.086594895
3.9022577 4.7036338 -1.1879768 7 2 -0.086592585
9.4348984 11.368423 1.2925197 47 10 -0.086590283
5.2011676 6.2648406 -1.2896459 64 3 -0.08658798
7.3471422 8.8465385 1.4119784 32 11 -0.086585678
5.1959662 6.2541261 -0.99835372 16 4 -0.086583368
5.2296987 6.2924995 1.2959032 7 12 -0.086581066
5.1892319 6.2415924 -0.710145 30 5 -0.086578764
4.2184501 5.0739388 1.282618 30 13 -0.086576462
3.7627652 4.5226307 1.3582544 13 14 -0.08657185
8.5835629 10.313294 -0.23421131 3 7 -0.086569548
3.8590388 4.6350503 1.6160662 15 15 -0.086567245
2.6830709 3.2134759 -1.1217217 17 0 -0.08654651
3.1805542 3.8079498 -1.1454507 1 1 -0.086541899
9.5008173 11.370914 0.77656096 47 9 -0.086539596
3.9282835 4.6998458 -1.1906482 9 2 -0.086537294
9.4368811 11.286385 1.2871159 92 10 -0.086534984
5.1455188 6.1517897 -1.2702481 49 3 -0.086532682
7.3754325 8.817791 1.4114909 30 11 -0.08653038
5.1413293 6.1446075 -0.98372942 23 4 -0.086528078
5.3264394 6.3635769 1.3143625 32 12 -0.086525768
5.1457553 6.1455317 -0.70125508 58 5 -0.086523466
4.2496238 5.0734949 1.2864343 28 13 -0.086521164
5.6941042 6.7955999 -0.46463865 23 6 -0.086518861
4.38521 5.2316513 1.5760071 42 14 -0.086516559
5.7356367 6.8427401 -0.15584999 13 7 -0.086514249
3.4457195 4.1093621 1.4369633 15 15 -0.086511947
2.6942725 3.2040901 -1.1217217 17 0 -0.086491212
5.7758927 6.8663826 0.15661789 18 8 -0.08648891
3.2020171 3.8052142 -1.1481502 1 1 -0.0864866
9.4851532 11.27197 0.7720601 39 9 -0.086484298
3.9269657 4.6650763 -1.1853056 9 2 -0.086481996
9.4210396 11.18784 1.2796206 85 10 -0.086479694
5.1465974 6.1096196 -1.2652421 70 3 -0.086477384
7.4153748 8.7998085 1.4129534 30 11 -0.086475082
5.1510258 6.1105404 -0.98129201 82 4 -0.08647278
5.3448024 6.3404131 1.313424 15 12 -0.086470477
5.1594682 6.1183949 -0.7002092 70 5 -0.086468175
4.2787023 5.0721345 1.2898688 27 13 -0.086465865
6.9453344 8.2303381 -0.56439102 13 6 -0.086463563
4.4021869 5.2148242 1.5755571 40 14 -0.086461261
8.550869 10.129348 -0.23138401 14 7 -0.086458959
3.8850689 4.6006179 1.6134779 3 15 -0.086456649
2.6942034 3.1813979 -1.117063 12 0 -0.086435914
13.487911 15.92694 0.36430153 100 8 -0.086433612
3.2020206 3.7797067 -1.1436511 1 1 -0.08643131
9.47925 11.18546 0.76839662 44 9 -0.086429007
3.9356077 4.6423559 -1.1830158 11 2 -0.086426698
9.4110584 11.097149 1.2729968 71 10 -0.086424395
5.1732163 6.1000533 -1.2668065 74 3 -0.086422093
7.4470859 8.7781954 1.4134407 29 11 -0.086419791
5.178966 6.1025076 -0.98275441 100 4 -0.086417481
5.3707356 6.3262362 1.3143625 2 12 -0.086415179
5.1769271 6.0957909 -0.69968635 55 5 -0.086412877
4.2815204 5.0414567 1.2856711 30 13 -0.086410575
6.9389653 8.1676865 -0.56166953 15 6 -0.086408265
4.4245052 5.2061357 1.5773568 39 14 -0.086405963
8.5434351 10.049159 -0.23023215 10 7 -0.08640366
3.4705701 4.080792 1.4354105 11 15 -0.086401358
2.6984727 3.1650953 -1.1144749 9 0 -0.086380623
13.562894 15.90258 0.3648251 100 8 -0.086378314
3.222785 3.7774007 -1.1463506 1 1 -0.086376011
9.4670277 11.096229 0.76441908 42 9 -0.086373709
3.9484327 4.6262913 -1.1822525 11 2 -0.086371407
9.3844175 10.99163 1.2644554 87 10 -0.086369097
5.1880651 6.0744462 -1.2652421 66 3 -0.086366795
7.4879956 8.7642221 1.4153906 19 11 -0.086364493
5.2002349 6.0843935 -0.98275441 82 4 -0.086362191
5.3724322 6.2858677 1.3096695 10 12 -0.086359881
5.2022901 6.0846477 -0.70038354 58 5 -0.086357579
6.9401646 8.1115484 -0.55947143 16 6 -0.086352974
3.8040032 4.4444847 1.3506061 39 14 -0.086350664
5.8695073 6.857759 -0.15756033 125 7 -0.086348362
3.4865971 4.0721941 1.4364457 22 15 -0.08634606
2.7107625 3.1571229 -1.1149925 6 0 -0.086325325
13.640303 15.886347 0.36548829 100 8 -0.086323023
3.2225974 3.751909 -1.1418515 1 1 -0.086320713
9.4614468 11.011611 0.7608602 42 9 -0.086318411
3.9722373 4.6214128 -1.1845423 11 2 -0.086316109
9.3824644 10.911971 1.2590519 97 10 -0.086313806
5.2171974 6.0676918 -1.2674322 69 3 -0.086311497
7.5092492 8.7303143 1.4139282 14 11 -0.086309195
5.2307425 6.0791516 -0.98470432 100 4 -0.086306892
5.3788791 6.2491093 1.3059151 7 12 -0.08630459
5.2286968 6.0724916 -0.7010808 52 5 -0.08630228
5.1458316 5.976254 1.5329596 10 13 -0.086299978
6.9253168 8.040062 -0.55612195 11 6 -0.086297676
4.4674721 5.1847563 1.5800562 39 14 -0.086295374
8.5372171 9.9044409 -0.22824258 24 7 -0.086293072
3.9347613 4.5632935 1.6145133 13 15 -0.086290762
2.7351148 3.1641927 -1.1206865 6 0 -0.086268902
13.734916 15.88401 0.36653543 100 8 -0.0862666
3.228024 3.7317946 -1.1391522 1 1 -0.086264297
9.4410191 10.910551 0.75615001 49 9 -0.086261988
3.9909139 4.6104889 -1.1853056 11 2 -0.086259685
9.3716536 10.826569 1.2527766 99 10 -0.086257383
5.2409301 6.0524306 -1.2680578 67 3 -0.086255081
7.5383811 8.7025461 1.4136845 14 11 -0.086252771
5.2454295 6.0533566 -0.9834857 90 4 -0.086250469
5.4019518 6.2317886 1.3062279 10 12 -0.086248167
5.2655272 6.0722656 -0.70317256 51 5 -0.086245865
5.1741352 5.9647675 1.5348676 7 13 -0.086243555
5.5449395 6.3899789 -0.44339025 7 6 -0.086241253
4.480433 5.1632438 1.5782566 39 14 -0.08623895
8.5900927 9.8957195 -0.22873124 21 7 -0.086236648
3.9455988 4.5436969 1.6124427 13 15 -0.086234339
2.7378118 3.1439486 -1.117063 6 0 -0.086213604
13.825884 15.871255 0.36740807 100 8 -0.086211301
3.2493629 3.7287526 -1.1418515 1 1 -0.086208999
9.4284458 10.815656 0.75196314 39 9 -0.086206697
3.9974635 4.5839915 -1.1822525 9 2 -0.086204387
9.3588943 10.73208 1.2458042 99 10 -0.086202085
5.2708712 6.0421109 -1.2699351 74 3 -0.086199783
7.5754461 8.6808434 1.4146595 16 11 -0.086197481
5.2649722 6.0310984 -0.98299813 94 4 -0.086195171
5.4338531 6.2223616 1.308418 46 12 -0.086192869
5.2903681 6.0559278 -0.70352113 59 5 -0.086190566
5.1895041 5.9383702 1.5329596 6 13 -0.086188264
5.4171548 6.1966887 -0.431353 25 6 -0.086185955
3.8336637 4.3853316 1.3447573 13 14 -0.086183652
7.4178562 8.4823122 -0.19668862 28 7 -0.08618135
3.9698586 4.5379276 1.6155485 13 15 -0.086179048
2.7391236 3.1222758 -1.112922 6 0 -0.086158313
13.9077 15.84753 0.36803636 52 8 -0.086156003
3.2552929 3.7080321 -1.1391522 1 1 -0.086153701
9.3744478 10.674479 0.74453139 28 9 -0.086151399
4.0056643 4.5611625 -1.1799629 11 2 -0.086149096
9.3508253 10.643822 1.239529 100 10 -0.086146787
5.2968922 6.0272055 -1.2708738 66 3 -0.086144485
7.6452231 8.6962528 1.4217279 9 11 -0.086142182
5.2909732 6.0162339 -0.98372942 100 4 -0.08613988
5.4644504 6.2113032 1.3102952 33 12 -0.08613757
5.3114767 6.0374227 -0.70352113 57 5 -0.086135268
4.373611 4.9696245 1.286816 15 13 -0.086132966
5.4493089 6.1897349 -0.43219036 110 6 -0.086130664
3.8522861 4.374177 1.3456572 39 14 -0.086128362
7.3973441 8.3965483 -0.19532733 37 7 -0.086126052
3.5521803 4.0305767 1.4395516 11 15 -0.08612375
2.7487278 3.1112471 -1.1124043 9 0 -0.086103015
9.3333445 10.560558 0.24600913 79 8 -0.086100712
3.2630527 3.6908073 -1.1373526 1 1 -0.086098403
9.3441734 10.565387 0.73919314 81 9 -0.086096101
4.0267649 4.5530334 -1.1814893 9 2 -0.086093798
9.3324766 10.548442 1.2322079 90 10 -0.086091496
5.3192067 6.010159 -1.2711866 82 3 -0.086089186
7.6413174 8.6308718 1.4153906 9 11 -0.086086884
5.3185248 6.0051575 -0.98494816 75 4 -0.086084582
5.4769273 6.1818423 1.3081051 10 12 -0.08608228
5.3338385 6.0203376 -0.70369548 63 5 -0.086079977
4.3766065 4.9381666 1.282618 10 13 -0.086077668
5.4457083 6.1422787 -0.43020159 60 6 -0.086075366
3.8895144 4.3854876 1.3533056 45 14 -0.086073063
7.3841381 8.3228111 -0.19421038 39 7 -0.086070761
4.0124888 4.5209632 1.6196897 9 15 -0.086068451
2.767277 3.1102924 -1.1155102 13 0 -0.086047716
9.3275995 10.480122 0.24489217 100 8 -0.086045414
3.2707336 3.6735718 -1.135553 1 1 -0.086043112
9.3326769 10.482131 0.7355296 94 9 -0.086040802
4.051775 4.549211 -1.1841607 14 2 -0.0860385
9.3268204 10.468204 1.2266299 99 10 -0.086036198
5.3454132 5.9974527 -1.2724382 82 3 -0.086033896
7.6647954 8.596735 1.4141719 6 11 -0.086031593
5.3526621 6.0013728 -0.98738551 77 4 -0.086029284
5.4829321 6.1474309 1.3046635 11 12 -0.086026981
5.3548226 6.0016809 -0.70369548 63 5 -0.086024679
4.4081988 4.9389701 1.286816 26 13 -0.086022377
5.4657812 6.1217461 -0.43009692 67 6 -0.086020067
3.9009037 4.3675241 1.3519558 39 14 -0.086017765
7.3584161 8.2386198 -0.19281419 36 7 -0.086015463
4.0416164 4.5234795 1.6253836 3 15 -0.086013161
2.7832727 3.1063695 -1.1175808 13 0 -0.085992418
9.319603 10.401471 0.2437752 100 8 -0.085990116
3.2933023 3.6743152 -1.1391522 1 1 -0.085987814
9.3465452 10.424208 0.73375016 100 9 -0.085985512
4.0532098 4.5189643 -1.1799629 11 2 -0.085983209
9.3619766 10.434098 1.2264556 100 10 -0.0859809
5.3679085 5.9826345 -1.2730639 74 3 -0.085978597
7.6959157 8.5742235 1.4146595 9 11 -0.085976295
5.3659043 5.976203 -0.98616678 61 4 -0.085973993
5.4713597 6.0915132 1.2968419 6 12 -0.085971683
5.3930526 6.0022173 -0.70596153 67 5 -0.085969381
4.4350514 4.9360065 1.2898688 46 13 -0.085967079
5.4860535 6.1035857 -0.43009692 67 6 -0.085964777
7.3416643 8.1623316 -0.19162743 39 7 -0.085960165
4.0871005 4.5423756 1.6372893 11 15 -0.085957862
2.7870884 3.0899506 -1.1149925 11 0 -0.085937127
9.3103104 10.318395 0.24258845 44 8 -0.085934825
3.2930517 3.6483302 -1.1346531 1 1 -0.085932516
9.3975925 10.407831 0.73490155 100 9 -0.085930213
4.0655403 4.5025849 -1.1791997 9 2 -0.085927911
9.42591 10.43552 1.2302905 100 10 -0.085925609
5.388761 5.9638591 -1.2730639 57 3 -0.085923299
7.7604012 8.5856018 1.4209967 9 11 -0.085920997
5.3973856 5.9692149 -0.98811674 48 4 -0.085918695
5.5071678 6.0884914 1.3002834 11 12 -0.085916393
5.4222813 5.9946446 -0.70718169 61 5 -0.085914083
4.4654231 4.9350557 1.2936851 37 13 -0.085911781
5.5153689 6.0932822 -0.43072498 61 6 -0.085909478
4.6263986 5.1093707 1.5913037 14 14 -0.085907176
7.3231201 8.0847874 -0.19040576 35 7 -0.085904866
4.0873666 4.510901 1.6310778 11 15 -0.085902564
2.7952607 3.0773427 -1.1139573 14 0 -0.085881829
9.3072662 10.242921 0.24157622 41 8 -0.085879527
3.287415 3.6166255 -1.1283545 1 1 -0.085877225
9.4540224 10.397127 0.73647165 100 9 -0.085874915
4.0785918 4.4854598 -1.1784364 11 2 -0.085872613
9.4810457 10.423191 1.2327309 100 10 -0.085870311
5.4108739 5.9464746 -1.2733767 49 3 -0.085868008
7.802352 8.5716696 1.4231904 9 11 -0.085865699
5.4342289 5.9679494 -0.99104154 74 4 -0.085863397
5.5297155 6.0706916 1.3005962 47 12 -0.085861094
5.4391475 5.9712634 -0.70665878 58 5 -0.085858792
4.4932022 4.931047 1.296738 16 13 -0.085856482
5.5514069 6.0902276 -0.43187636 55 6 -0.08585418
4.6061263 5.0514321 1.5782566 19 14 -0.085851878
7.2906551 7.9926906 -0.18883504 34 7 -0.085849576
4.0132403 4.398139 1.5953608 5 15 -0.085847273
2.8072886 3.0689924 -1.1144749 13 0 -0.085826531
9.2876186 10.149881 0.2401451 35 8 -0.085824229
3.3315992 3.639626 -1.1391522 1 1 -0.085821927
9.5235138 10.404021 0.73919314 100 9 -0.085819624
4.0915718 4.4683008 -1.1776732 14 2 -0.085817315
9.5348654 10.409134 1.2349969 100 10 -0.085815012
5.4169192 5.9115291 -1.2699351 28 3 -0.08581271
5.455327 5.9513636 -0.99128538 78 4 -0.085808098
5.5685053 6.0727048 1.3049763 57 12 -0.085805796
5.4613061 5.9537077 -0.70683306 63 5 -0.085803494
4.4997673 4.9037609 1.2936851 3 13 -0.085801192
5.5739784 6.0722876 -0.43198103 60 6 -0.085798889
4.6333938 5.047616 1.5818559 4 14 -0.08579658
7.2846613 7.9331179 -0.18799733 34 7 -0.085794277
3.7638125 4.0974188 1.4907978 37 15 -0.085791975
2.8200686 3.0625079 -1.1155102 15 0 -0.08577124
9.2738094 10.067547 0.23892345 38 8 -0.085768931
3.3436499 3.6285586 -1.1391522 1 1 -0.085766628
9.5877361 10.404697 0.74149591 100 9 -0.085764326
4.1010456 4.4489326 -1.1761467 11 2 -0.085762024
9.5976973 10.408214 1.2386574 100 10 -0.085759714
7.89148 8.5519171 1.4287963 94 11 -0.08575511
5.4858036 5.9449096 -0.99323523 74 4 -0.085752808
5.5886145 6.054204 1.3049763 41 12 -0.085750505
5.4958858 5.9516664 -0.70875043 60 5 -0.085748196
5.4085498 5.8550363 1.5493692 20 13 -0.085745893
5.5913739 6.0508351 -0.43177167 61 6 -0.085743591
3.9914749 4.3194671 1.3578045 7 14 -0.085741289
7.3149996 7.9133244 -0.18810204 35 7 -0.085738979
4.0882254 4.4210701 1.6134779 41 15 -0.085736677
2.831521 3.0545566 -1.1160278 16 0 -0.085715942
9.2568331 9.9824867 0.23763196 35 8 -0.08571364
3.355665 3.6174498 -1.1391522 1 1 -0.08571133
9.6307878 10.378489 0.74201924 100 9 -0.085709028
4.1264586 4.4468226 -1.1791997 9 2 -0.085706726
9.6633329 10.409917 1.2426665 100 10 -0.085704423
5.3847661 5.7987542 -1.253353 7 3 -0.085702121
5.503818 5.9228172 -0.99274784 72 4 -0.085697509
5.5962667 6.0201907 1.3018478 16 12 -0.085695207
5.5237331 5.9421625 -0.70979631 67 5 -0.085692905
4.6137447 4.9615097 1.3169638 1 13 -0.085690595
5.6086869 6.0293365 -0.43156233 63 6 -0.085688293
4.0038743 4.3026533 1.3569047 13 14 -0.085685991
7.3616505 7.9082351 -0.18859071 38 7 -0.085683689
4.1141639 4.4180841 1.6176192 39 15 -0.085681379
2.8329394 3.0347681 -1.1124043 14 0 -0.085660644
9.2588644 9.9150391 0.23679425 52 8 -0.085658342
3.3682711 3.6057148 -1.1391522 1 1 -0.085656039
9.6901417 10.369613 0.74379867 100 9 -0.085653737
4.1231914 4.4123082 -1.173857 9 2 -0.085651428
9.7186623 10.396496 1.2451069 100 10 -0.085649125
5.4036245 5.778481 -1.2530402 11 3 -0.085646823
5.5244603 5.9035678 -0.99274784 66 4 -0.085642211
5.5956454 5.9775462 1.2968419 2 12 -0.085639909
5.5430784 5.921392 -0.70962203 40 5 -0.085637607
4.5827265 4.893784 1.3032255 2 13 -0.085635304
5.6365285 6.0170088 -0.43208569 72 6 -0.085632995
4.6757984 4.9896812 1.5787065 40 14 -0.085630693
6.682157 7.128232 -0.17054491 25 7 -0.08562839
4.1348476 4.4093313 1.6196897 39 15 -0.085626088
2.8408682 3.0220461 -1.111369 15 0 -0.085605353
9.3016405 9.8913975 0.23700368 68 8 -0.085603043
3.3941884 3.6081305 -1.1436511 1 1 -0.085600741
9.7577581 10.36918 0.7462061 100 9 -0.085598439
4.1466393 4.4064679 -1.1761467 9 2 -0.085596137
9.7712793 10.379918 1.2471986 100 10 -0.085593827
5.4169893 5.7523937 -1.2514758 11 3 -0.085591525
8.0104275 8.503437 1.4344022 100 11 -0.085589223
5.6218953 5.9637284 1.2980933 11 12 -0.085584611
5.5650797 5.9034576 -0.70979631 39 5 -0.085582308
4.5795784 4.8563313 1.2975012 22 13 -0.085580006
5.665719 6.0060148 -0.43271375 36 6 -0.085577704
4.6998758 4.9804149 1.580956 39 14 -0.085575394
6.6754284 7.0714164 -0.16974211 30 7 -0.085573092
4.144908 4.3892546 1.6176192 33 15 -0.08557079
2.8487449 3.0093048 -1.1103338 15 0 -0.085550055
9.3539886 9.8777418 0.23745745 22 8 -0.085547753
3.4014013 3.5906024 -1.1418515 1 1 -0.085545443
