# .PCD v0.7 - Point Cloud Data file format
VERSION 0.7
FIELDS x y z intensity ring time
SIZE 4 4 4 4 2 4
TYPE F F F F U F
COUNT 1 1 1 1 1 1
WIDTH 905
HEIGHT 1
VIEWPOINT 0 0 0 1 0 0 0
POINTS 905
DATA ascii
-0.76180816 1.6094359 0.21863361 7 11 -0.064791359
-0.76427662 1.6161095 0.28314641 15 12 -0.064786747
-0.42503712 0.89876682 -0.086981431 21 5 -0.064784445
-0.82139301 1.7376702 0.37360403 74 13 -0.064782143
-0.3195627 0.67665118 0.17276241 9 14 -0.064777531
-0.61974192 1.3128526 -0.025340894 30 7 -0.064775229
-0.3173835 0.67264473 0.19929068 100 15 -0.064772926
-0.43085256 0.91602284 -0.27124238 66 0 -0.064752184
-0.81676573 1.7372885 0.033508621 21 8 -0.064749882
-0.56027573 1.192266 -0.30413383 9 1 -0.064747579
-0.81771231 1.7408799 0.10079906 75 9 -0.064745277
-0.37810689 0.80497587 -0.17287296 43 2 -0.064742975
-0.8094883 1.7241529 0.16664177 20 10 -0.064740665
-0.37764084 0.80471444 -0.14079103 55 3 -0.064738363
-0.76883113 1.6390431 0.22228971 30 11 -0.064736061
-0.76868945 1.640232 0.28690085 34 12 -0.064731449
-0.42189699 0.90024513 -0.086981431 29 5 -0.064729147
-0.81698847 1.7440823 0.37436727 74 13 -0.064726844
-0.32793713 0.70070773 0.17861113 25 14 -0.064722233
-0.6151557 1.3150077 -0.025340894 22 7 -0.06471993
-0.3183068 0.68074852 0.20136122 100 15 -0.064717628
-0.43010053 0.9227742 -0.27279529 66 0 -0.064696893
-0.81238586 1.7437541 0.033578429 70 8 -0.064694591
-0.55446494 1.1906813 -0.30323401 9 1 -0.064692281
-0.81193435 1.743582 0.10079906 69 9 -0.064689979
-0.37860835 0.81341046 -0.17439944 40 2 -0.064687677
-0.81439108 1.7504518 0.16890782 37 10 -0.064685374
-0.37399682 0.80423653 -0.14047816 53 3 -0.064683065
-0.77063537 1.6579182 0.22448336 55 11 -0.064680763
-0.77406669 1.6660609 0.29096815 55 12 -0.064676158
-0.41791299 0.89990515 -0.086807117 34 5 -0.064673848
-0.81585461 1.7576083 0.37665698 74 13 -0.064671546
-0.59682703 1.2863415 -0.074317068 1 6 -0.064669244
-0.31729063 0.68416935 0.17411213 55 14 -0.064666942
-0.61079127 1.3170407 -0.025340894 18 7 -0.064664632
-0.31929725 0.68881112 0.20343177 100 15 -0.06466233
-0.42849711 0.92777765 -0.27383056 50 0 -0.064641595
-0.81079066 1.7555158 0.033752955 80 8 -0.064639293
-0.55541438 1.2031292 -0.30593342 9 1 -0.06463699
-0.81170118 1.7591 0.10153177 20 9 -0.064634681
-0.37001115 0.80224758 -0.1717281 45 2 -0.064632379
-0.8107779 1.7587124 0.16943076 74 10 -0.064630076
-0.37546301 0.81444186 -0.14204252 52 3 -0.064627774
-0.76845664 1.6676761 0.22545831 56 11 -0.064625464
-0.76659453 1.6651638 0.29034239 55 12 -0.06462086
-0.41976663 0.91221821 -0.087852985 51 5 -0.064618558
-0.82151175 1.7852728 0.38199964 72 13 -0.064616248
-0.56752068 1.2338777 -0.071176901 1 6 -0.064613946
-0.31583422 0.68698829 0.17456202 73 14 -0.064611644
-0.5945009 1.2937262 -0.024852226 12 7 -0.064609341
-0.31769708 0.69167715 0.20394942 100 15 -0.064607039
-0.41415957 0.90460223 -0.26658365 62 0 -0.064586297
-0.81381148 1.7783369 0.034136906 67 8 -0.064583994
-0.55121094 1.2050607 -0.30593342 9 1 -0.064581692
-0.81219995 1.7764539 0.10236914 23 9 -0.06457939
-0.36979792 0.80882657 -0.17287296 43 2 -0.06457708
-0.80991042 1.772264 0.17047663 90 10 -0.064574778
-0.37754202 0.82652837 -0.14391972 50 3 -0.064572476
-0.76180655 1.6685423 0.22521456 55 11 -0.064570174
-0.76405609 1.6750188 0.29159388 55 12 -0.064565562
-0.41492647 0.9100523 -0.087504365 13 5 -0.064563259
-0.81853229 1.7952751 0.38352609 72 13 -0.064560957
-0.58805734 1.2903743 -0.074317068 1 6 -0.064558655
-0.31101066 0.68276638 0.17321232 84 14 -0.064556345
-0.58583784 1.2866939 -0.024677703 8 7 -0.064554043
-0.31047964 0.68223184 0.20084359 100 15 -0.064551741
-0.41722301 0.92018974 -0.27072471 100 0 -0.064531006
-0.80594701 1.7775245 0.034067098 67 8 -0.064528696
-0.54700136 1.2069774 -0.30593342 9 1 -0.064526394
-0.81176239 1.7920135 0.10310185 81 9 -0.064524092
-0.36683074 0.81017667 -0.17287296 39 2 -0.06452179
-0.80012292 1.7679601 0.16977938 74 10 -0.06451948
-0.3712537 0.82070738 -0.14266825 50 3 -0.064517178
-0.76579511 1.6928954 0.22813943 54 11 -0.064514875
-0.76145905 1.6848758 0.29284537 52 12 -0.064510271
-0.41010702 0.9078635 -0.087155737 3 5 -0.064507961
-0.81275511 1.8000524 0.38390771 68 13 -0.064505659
-0.58332419 1.2925208 -0.074317068 1 6 -0.064503357
-0.31010887 0.6874544 0.17411213 83 14 -0.064501055
-0.59532166 1.3197187 -0.025271084 11 7 -0.064498745
-0.30650833 0.67978919 0.1998083 90 15 -0.064496443
-0.41163382 0.91635382 -0.26917183 96 0 -0.064475708
-0.80106515 1.7841148 0.034136906 67 8 -0.064473405
-0.53858411 1.2000847 -0.30368391 9 1 -0.064471096
-0.80795497 1.8003027 0.10341586 62 9 -0.064468794
-0.36801791 0.82040876 -0.17478105 40 2 -0.064466491
-0.80046821 1.7852862 0.17117387 67 10 -0.064464189
-0.37000215 0.82560372 -0.14329399 50 3 -0.064461887
-0.7563386 1.6884444 0.22716448 55 11 -0.064459577
-0.76122403 1.7001437 0.29503542 53 12 -0.064454973
-0.40449366 0.90383393 -0.086632803 1 5 -0.064452671
-0.81047457 1.8118392 0.3858158 70 13 -0.064450361
-0.30850223 0.69031191 0.17456202 91 14 -0.064445756
-0.58663154 1.3126606 -0.025096562 16 7 -0.064443454
-0.30334547 0.67909116 0.19929068 68 15 -0.064441144
-0.40921783 0.91955012 -0.26968947 84 0 -0.06442041
-0.80083513 1.7995503 0.034381241 69 8 -0.064418107
-0.53222579 1.1965225 -0.30233422 9 1 -0.064415805
-0.80004346 1.799462 0.10320652 62 9 -0.064413503
-0.36993575 0.83245271 -0.17707075 37 2 -0.064411193
-0.79827499 1.7971739 0.17204544 57 10 -0.064408891
-0.3696681 0.83224189 -0.1442326 48 3 -0.064406589
-0.75234669 1.6945717 0.22765194 55 11 -0.064404286
-0.76249278 1.7190422 0.29785126 52 12 -0.064399675
-0.41667929 0.93984711 -0.089944728 3 5 -0.064397372
-0.81003219 1.8270801 0.38848713 66 13 -0.06439507
-0.30305469 0.68420392 0.17276241 100 14 -0.064390458
-0.58123666 1.3128718 -0.025061656 22 7 -0.064388156
-0.30488205 0.68897885 0.20187886 58 15 -0.064385854
-0.4077256 0.92443717 -0.27072471 52 0 -0.064365119
-0.80261552 1.8206326 0.034730289 72 8 -0.064362809
-0.53118873 1.2055063 -0.30413383 9 1 -0.064360507
-0.79939282 1.8150382 0.10393922 58 9 -0.064358205
-0.36954731 0.83906496 -0.17821561 34 2 -0.064355902
-0.8003388 1.8180462 0.17378855 52 10 -0.064353593
-0.37232962 0.84618396 -0.14642268 50 3 -0.06435129
-0.75441909 1.7153586 0.23008935 52 11 -0.064348988
-0.75330865 1.7144594 0.29659978 52 12 -0.064344376
-0.40939048 0.93217468 -0.089073166 1 5 -0.064342074
-0.8115443 1.8478717 0.39230329 63 13 -0.064339772
-0.30066434 0.68525773 0.17276241 100 14 -0.06433516
-0.57424122 1.3093985 -0.024956942 26 7 -0.064332858
-0.30325061 0.69180834 0.20239651 58 15 -0.064330555
-0.40278861 0.92238444 -0.26968947 40 0 -0.064309821
-0.80345815 1.8399161 0.035044432 67 8 -0.064307518
-0.53009588 1.2144971 -0.30593342 9 1 -0.064305209
-0.79944092 1.8324628 0.10477659 64 9 -0.064302906
-0.36254564 0.83141589 -0.17630751 37 2 -0.064300604
-0.7904852 1.8136617 0.17309129 42 10 -0.064298302
-0.37001482 0.84935373 -0.14673555 43 3 -0.064295992
-0.75794017 1.7398205 0.2330142 52 11 -0.06429369
-0.75126135 1.7261348 0.29816413 51 12 -0.064289086
-0.40931293 0.94090611 -0.089770414 1 5 -0.064286776
-0.80867982 1.859836 0.39421138 59 13 -0.064284474
-0.30125663 0.69350457 0.17456202 100 14 -0.064279869
-0.56727654 1.3058928 -0.024852226 34 7 -0.064277567
-0.29314005 0.67514229 0.19722012 54 15 -0.064275257
-0.40033311 0.92555791 -0.27020708 26 0 -0.064254522
-0.80067635 1.8520263 0.035218958 69 8 -0.06425222
-0.52873325 1.2235873 -0.30773303 10 1 -0.064249918
-0.80254692 1.8572429 0.10603265 64 9 -0.064247608
-0.36509052 0.84529251 -0.17897885 34 2 -0.064245306
-0.79362601 1.8383603 0.17518303 41 10 -0.064243004
-0.36939579 0.85608131 -0.14767416 46 3 -0.064240701
-0.75391716 1.748055 0.23374543 51 11 -0.064238392
-0.75148773 1.7432585 0.30066708 49 12 -0.064233787
-0.4091799 0.9496482 -0.090467662 1 5 -0.064231485
-0.80528957 1.8698602 0.39573789 42 13 -0.064229183
-0.30357841 0.70523942 0.17726143 96 14 -0.064224571
-0.56192392 1.3060282 -0.024817321 30 7 -0.064222269
-0.29078174 0.67616135 0.19722012 54 15 -0.064219967
-0.40182802 0.93753409 -0.2733129 56 0 -0.064199224
-0.79531729 1.8565096 0.03525386 67 8 -0.064196922
-0.51776886 1.2092111 -0.30368391 10 1 -0.06419462
-0.80581719 1.8819268 0.10728873 64 9 -0.064192317
-0.36151275 0.84469384 -0.17859723 34 2 -0.064190015
-0.78830856 1.842814 0.17535736 36 10 -0.064187706
-0.36655468 0.85730165 -0.14767416 47 3 -0.064185403
-0.7512362 1.7578472 0.23472038 51 11 -0.064183101
-0.74958205 1.754824 0.3022314 38 12 -0.064178489
-0.38568771 0.90335834 -0.085935563 2 5 -0.064176187
-0.80293673 1.8815489 0.39764598 9 13 -0.064173885
-0.30276701 0.7098273 0.17816123 94 14 -0.064169273
-0.55366898 1.2986869 -0.024642797 32 7 -0.064166971
-0.28550842 0.67001313 0.19514956 64 15 -0.064164668
-0.38738942 0.91218942 -0.26554835 42 0 -0.064143933
-0.79931432 1.8830661 0.035707623 69 8 -0.064141631
-0.51375639 1.2109214 -0.30368391 10 1 -0.064139321
-0.7961244 1.8773727 0.10687003 64 9 -0.064137019
-0.36392528 0.8586036 -0.18126856 32 2 -0.064134717
-0.77986103 1.8399146 0.17483442 31 10 -0.064132415
-0.36833331 0.86942571 -0.14955136 46 3 -0.064130105
-0.74617726 1.7621566 0.23496412 50 11 -0.064127803
-0.42132863 0.99645358 -0.09465114 1 5 -0.064120889
-0.80171424 1.8969988 0.40031728 2 13 -0.064118586
-0.29573771 0.70010883 0.17546181 99 14 -0.064113982
-0.55691075 1.3190337 -0.024991846 15 7 -0.064111672
-0.2884258 0.68346453 0.19877303 61 15 -0.06410937
-0.3915295 0.93141228 -0.27072471 34 0 -0.064088635
-0.79860431 1.9007316 0.035986863 69 8 -0.064086333
-0.50780535 1.209203 -0.30278412 10 1 -0.064084031
-0.79310274 1.8894864 0.10739339 62 9 -0.064081721
-0.3607761 0.85993159 -0.18126856 30 2 -0.064079419
-0.77619588 1.8501097 0.17553167 37 10 -0.064077117
-0.36819965 0.87805676 -0.15080284 46 3 -0.064074814
-0.74278247 1.772203 0.23593907 48 11 -0.064072505
-0.41767335 0.9979912 -0.09465114 1 5 -0.064065598
-0.29316956 0.70118815 0.17546181 100 14 -0.064058684
-0.55207217 1.3210663 -0.024991846 11 7 -0.064056382
-0.28368494 0.67916942 0.19722012 69 15 -0.064054072
-0.3836607 0.92213917 -0.26761889 26 0 -0.064033337
-0.79854244 1.9202636 0.036301006 67 8 -0.064031035
-0.50860584 1.2236522 -0.30593342 13 1 -0.064028732
-0.79340196 1.9088417 0.10833544 66 9 -0.06402643
-0.36078477 0.86843789 -0.18279503 30 2 -0.064024121
-0.76100445 1.8327014 0.17361423 34 10 -0.064021818
-0.36952245 0.89034718 -0.15268005 41 3 -0.064019516
-0.74617052 1.79875 0.23910768 34 11 -0.064017214
-0.31028906 0.74910378 0.15760824 5 13 -0.064007998
-0.54243731 1.3102057 -0.074317068 1 6 -0.064005688
-0.29134288 0.70405865 0.17591172 100 14 -0.064003386
-0.56122065 1.3562447 -0.025620133 13 7 -0.064001083
-0.28057426 0.6783703 0.19670248 63 15 -0.063998781
-0.37970343 0.92168665 -0.26710126 22 0 -0.063978046
-0.79216969 1.9229014 0.036301006 67 8 -0.063975736
-0.50751346 1.2325399 -0.30773303 48 1 -0.063973434
-0.79281551 1.9263752 0.10917282 64 9 -0.063971132
-0.35924464 0.87332338 -0.18355827 27 2 -0.06396883
-0.75308758 1.8316611 0.17326561 38 10 -0.06396652
-0.36506575 0.8879137 -0.15205432 42 3 -0.063964218
-0.41069636 1.0008826 -0.09465114 1 5 -0.063955002
-0.30780339 0.75012851 0.15760824 20 13 -0.063952699
-0.53808916 1.3119974 -0.074317068 1 6 -0.063950397
-0.29491985 0.71944577 0.17951094 100 14 -0.063948095
-0.55269188 1.3489434 -0.025445608 18 7 -0.063945785
-0.27454382 0.67040688 0.1941143 73 15 -0.063943483
-0.38029477 0.93188393 -0.26968947 16 0 -0.063922748
-0.78771889 1.9312097 0.036405724 69 8 -0.063920446
-0.49585083 1.2162588 -0.30323401 95 1 -0.063918136
-0.79362255 1.9476271 0.11021954 64 9 -0.063915834
-0.36079186 0.88541842 -0.18584797 26 2 -0.063913532
-0.74851197 1.837839 0.17361423 41 10 -0.063911229
-0.36047432 0.8855235 -0.15142858 46 3 -0.06390892
-0.2985324 0.73482853 0.15417367 48 13 -0.063897401
-0.5462805 1.3453263 -0.07609649 3 6 -0.063895099
-0.29094082 0.71685952 0.17861113 100 14 -0.063892797
-0.55173856 1.3601296 -0.025620133 18 7 -0.063890494
-0.27365389 0.67494166 0.19514956 56 15 -0.063888185
-0.37486869 0.92783207 -0.26813653 12 0 -0.06386745
-0.7854659 1.9450725 0.036615148 65 8 -0.063865148
-0.48941436 1.2125608 -0.30188429 100 1 -0.063862845
-0.78457803 1.9448287 0.10990552 62 9 -0.063860543
-0.35843369 0.88849306 -0.1862296 22 2 -0.063858233
-0.73911226 1.8330492 0.17291699 10 10 -0.063855931
-0.3632884 0.90143371 -0.15393153 40 3 -0.063853629
-0.29230276 0.72675878 0.15226559 67 13 -0.06384211
-0.53338695 1.3268404 -0.074945092 2 6 -0.063839801
-0.28480384 0.70882958 0.17636162 100 14 -0.063837498
-0.5522036 1.375037 -0.025864467 26 7 -0.063835196
-0.27705336 0.69023526 0.19929068 53 15 -0.063832894
-0.37377971 0.93451619 -0.26968947 6 0 -0.063812159
-0.78535169 1.964514 0.036929294 63 8 -0.063809849
-0.4859015 1.2160715 -0.30233422 100 1 -0.063807547
-0.7814877 1.9568298 0.11042888 60 9 -0.063805245
-0.35751423 0.8952086 -0.18737444 19 2 -0.063802943
-0.7253226 1.8171139 0.17117387 1 10 -0.063800633
-0.36599526 0.91737443 -0.15643448 40 3 -0.063798331
-0.35130471 0.88144606 -0.1165071 1 4 -0.063793726
-0.29484749 0.74054277 0.15493691 69 13 -0.063786812
-0.53022879 1.3324059 -0.075154446 7 6 -0.06378451
-0.27944708 0.70257634 0.17456202 100 14 -0.0637822
-0.54370713 1.3676649 -0.025689943 52 7 -0.063779898
-0.27749553 0.69837952 0.20136122 51 15 -0.063777596
-0.36624861 0.92503798 -0.26658365 2 0 -0.063756861
-0.78584814 1.9858375 0.037278343 60 8 -0.063754559
-0.47878695 1.2105116 -0.30053461 100 1 -0.063752249
-0.78052694 1.9744047 0.11126626 53 9 -0.063749947
-0.35294387 0.8927995 -0.18661121 18 2 -0.063747644
-0.36279097 0.91864628 -0.15643448 42 3 -0.063743033
-0.34822592 0.88266689 -0.1165071 1 4 -0.063738428
-0.29729989 0.75435305 0.15760824 65 13 -0.063731514
-0.53582215 1.3602648 -0.076619849 6 6 -0.063729212
-0.27842087 0.707174 0.17546181 100 14 -0.063726909
-0.53893006 1.3695543 -0.025689943 67 7 -0.063724607
-0.27081335 0.68855715 0.19825539 45 15 -0.063722298
-0.35299146 0.90119123 -0.25933671 2 0 -0.063702106
-0.77710587 1.9849803 0.037208531 60 8 -0.063699804
-0.47576746 1.2158877 -0.3014344 100 1 -0.063697502
-0.35610461 0.91054279 -0.19004577 12 2 -0.06369289
-0.35798407 0.91628987 -0.15580875 41 3 -0.063688286
-0.34498823 0.88393736 -0.1165071 1 4 -0.063683674
-0.28454864 0.72982961 0.15226559 90 13 -0.06367676
-0.51487923 1.3212783 -0.074317068 1 6 -0.063674457
-0.27865589 0.71545327 0.17726143 100 14 -0.063672155
-0.53559715 1.3751539 -0.025759753 50 7 -0.063669853
-0.27121153 0.69669926 0.20032595 45 15 -0.063667543
-0.36520612 0.94204497 -0.27072471 2 0 -0.063646808
-0.77413362 1.9968687 0.037383057 58 8 -0.063644506
-0.46680394 1.2047392 -0.2982851 100 1 -0.063642204
-0.39048445 1.008817 -0.21027151 13 2 -0.063637592
-0.35351786 0.91378742 -0.155183 42 3 -0.063632987
-0.28212705 0.73076916 0.15226559 90 13 -0.063621469
-0.51049513 1.3229784 -0.074317068 1 6 -0.063619159
-0.27908689 0.72364616 0.17906104 100 14 -0.063616857
-0.54086334 1.4031373 -0.02624842 21 7 -0.063614555
-0.26738909 0.6940363 0.19929068 45 15 -0.063612252
-0.36207992 0.94325095 -0.27072471 2 0 -0.063591518
-0.77074045 2.0088935 0.03755758 10 8 -0.063589208
-0.4605028 1.2009025 -0.29693538 100 1 -0.063586906
-0.50236434 1.3107553 -0.27285689 24 2 -0.063582301
-0.35597658 0.92977411 -0.15768595 41 3 -0.063577689
-0.3034333 0.7933656 0.13453366 2 12 -0.063570775
-0.28027496 0.73358351 0.1526472 100 13 -0.063566171
-0.2716949 0.7118715 0.17591172 100 14 -0.063561566
-0.53977221 1.4142646 -0.026422944 22 7 -0.063559256
-0.27403685 0.71838409 0.20601997 20 15 -0.063556954
-0.35055318 0.92283767 -0.26451308 2 0 -0.063536219
-0.45790103 1.2060668 -0.2978352 100 1 -0.063531607
-0.53955841 1.4226407 -0.29575396 36 2 -0.063527003
-0.35639206 0.94018519 -0.1592503 37 3 -0.063522391
-0.2854085 0.75371969 -0.098957919 4 4 -0.063517787
-0.2817831 0.74453795 0.12608619 9 12 -0.063515484
-0.28061932 0.74185395 0.15417367 91 13 -0.063510872
-0.53396821 1.4123598 -0.079131976 2 6 -0.06350857
-0.26726639 0.70729971 0.17456202 100 14 -0.063506268
-0.52706087 1.3955619 -0.026038991 30 7 -0.063503966
-0.27289215 0.72295094 0.20705524 6 15 -0.063501656
-0.3474912 0.92399502 -0.26451308 2 0 -0.063480921
-0.45437384 1.2094821 -0.2982851 100 1 -0.063476317
-0.56451291 1.5034544 -0.31216353 43 2 -0.063471705
-0.35518941 0.94697213 -0.16018891 28 3 -0.0634671
-0.26327413 0.70266223 -0.092133231 5 4 -0.063462488
-0.27433294 0.73256761 0.12389611 29 12 -0.063460186
-0.34431151 0.91992438 -0.085935563 2 5 -0.063457884
-0.27940422 0.74650645 0.15493691 91 13 -0.063455582
-0.52343696 1.3992497 -0.078294598 1 6 -0.063453272
-0.26684305 0.71370441 0.17591172 100 14 -0.06345097
-0.52778566 1.4123789 -0.026318228 15 7 -0.063448668
-0.27442262 0.73475748 0.21016107 6 15 -0.063446365
-0.34275523 0.92164111 -0.2634778 2 0 -0.063425623
-0.44946992 1.2092342 -0.2978352 100 1 -0.063421018
-0.56583202 1.5239184 -0.31597972 43 2 -0.063416414
-0.33729008 0.90937388 -0.15361866 9 3 -0.063411802
-0.23459965 0.63284707 -0.082871154 31 4 -0.063407198
-0.27520576 0.74278229 0.12546046 42 12 -0.063404888
-0.26084 0.70438623 -0.065715425 8 5 -0.063402586
-0.27257776 0.73647827 0.1526472 95 13 -0.063400283
-0.27098322 0.73295575 0.18041074 99 14 -0.063395672
-0.52840012 1.4292172 -0.026597466 12 7 -0.063393369
-0.33953622 0.92283183 -0.2634778 2 0 -0.063370332
-0.44301832 1.205386 -0.29648548 100 1 -0.06336572
-0.56186265 1.5295701 -0.31674296 45 2 -0.063361116
-0.25313723 0.68986344 -0.11638726 12 3 -0.063356504
-0.23842727 0.65047711 -0.085064806 47 4 -0.063351899
-0.27791771 0.75862455 0.12796341 63 12 -0.063349597
-0.23987515 0.65478081 -0.06100902 19 5 -0.063347287
-0.26933011 0.73558176 0.15226559 90 13 -0.063344985
-0.26775384 0.73206693 0.17996083 92 14 -0.063340381
-0.52727723 1.4424134 -0.026806895 12 7 -0.063338071
-0.36736703 1.0093329 -0.28780681 3 0 -0.063315034
-0.43814245 1.2050936 -0.29603559 100 1 -0.063310429
-0.55316782 1.5222958 -0.31483486 49 2 -0.063305818
-0.2278118 0.62761045 -0.10574972 20 3 -0.063301213
-0.23209509 0.64010823 -0.083602376 49 4 -0.063296601
-0.27392164 0.75587571 0.12733766 78 12 -0.063294299
-0.23623025 0.65186787 -0.060660396 60 5 -0.063291997
-0.27077243 0.74759287 0.15455531 80 13 -0.063289687
-0.26652262 0.73666215 0.18086064 97 14 -0.063285083
-0.52835935 1.4611697 -0.027121039 7 7 -0.06328278
-0.36711374 1.0196972 -0.29039499 5 0 -0.063259736
-0.43261391 1.2029482 -0.29513577 100 1 -0.063255131
-0.54984313 1.52976 -0.31597972 52 2 -0.063250519
-0.2229494 0.62096518 -0.10449824 22 3 -0.063245915
-0.22449827 0.62596595 -0.081652462 57 4 -0.063241303
-0.26741257 0.74562341 0.12546046 81 12 -0.063239001
-0.23865946 0.66581714 -0.061880577 57 5 -0.063236699
-0.26617494 0.74298865 0.15341043 93 13 -0.063234396
-0.24641572 0.68821192 -0.038309924 7 6 -0.063232094
-0.25869697 0.72290963 0.17726143 96 14 -0.063229784
-0.52081633 1.4553827 -0.026981421 3 7 -0.063227482
-0.37262493 1.0464512 -0.29764193 7 0 -0.063204445
-0.42862266 1.204376 -0.29513577 96 1 -0.063199833
-0.5438419 1.5298202 -0.3155981 49 2 -0.063195229
-0.21824373 0.61425549 -0.10324676 27 3 -0.063190617
-0.22175713 0.62483633 -0.081408732 57 4 -0.063186012
-0.26546836 0.74841416 0.12577333 87 12 -0.06318371
-0.22901069 0.6459896 -0.059963148 82 5 -0.0631814
-0.26567745 0.74941862 0.15455531 86 13 -0.063179098
-0.244799 0.6909079 -0.038414594 43 6 -0.063176796
-0.26215264 0.7402963 0.18131055 73 14 -0.063174494
-0.75992149 2.1471431 -0.039756581 26 7 -0.063172184
-0.37107843 1.0531473 -0.29919481 7 0 -0.063149147
-0.42635661 1.2113796 -0.29648548 90 1 -0.063144535
-0.53616023 1.524207 -0.31407163 48 2 -0.06313993
-0.20954968 0.5963769 -0.10011807 35 3 -0.063135326
-0.22220448 0.6330989 -0.082383685 68 4 -0.063130714
-0.26429361 0.75301814 0.12639906 100 12 -0.063128412
-0.22686739 0.64674544 -0.059963148 100 5 -0.06312611
-0.26370952 0.75219405 0.15493691 96 13 -0.0631238
-0.24502777 0.69929779 -0.038833283 77 6 -0.063121498
-0.25956708 0.74120677 0.18131055 81 14 -0.063119195
-0.75808501 2.1647496 -0.040035821 19 7 -0.063116893
-0.30637872 0.87930495 -0.24950157 12 0 -0.063093849
-0.42041481 1.2072657 -0.29513577 86 1 -0.063089244
-0.52567679 1.5112351 -0.31101868 28 2 -0.063084632
-0.20432739 0.58773935 -0.098553732 38 3 -0.063080028
-0.22205752 0.63945788 -0.0831149 73 4 -0.063075416
-0.26166329 0.75393611 0.12639906 100 12 -0.063073114
-0.22852585 0.65882772 -0.06100902 28 5 -0.063070811
-0.25992674 0.74935478 0.15417367 91 13 -0.063068509
-0.23812822 0.68689692 -0.038100582 100 6 -0.063066199
-0.25965944 0.74942887 0.18311015 70 14 -0.063063897
-0.7623015 2.201396 -0.040664107 1 7 -0.063061595
-0.2310584 0.67028219 -0.18997319 65 0 -0.063038558
-0.41302553 1.1995131 -0.29288626 67 1 -0.063033946
-0.52193975 1.5166829 -0.31178191 10 2 -0.063029341
-0.20484325 0.59592134 -0.099805199 42 3 -0.063024729
-0.27604824 0.80352396 0.10432017 5 11 -0.063022427
-0.21466671 0.62520909 -0.081164986 84 4 -0.063020125
-0.26031244 0.7585817 0.1270248 100 12 -0.063017815
-0.22493213 0.65585202 -0.060660396 41 5 -0.063015513
-0.25539887 0.74468625 0.15302883 88 13 -0.063013211
-0.23443365 0.6839453 -0.037891235 100 6 -0.063010909
-0.25767359 0.75217426 0.18356006 62 14 -0.063008599
-0.24937855 0.72837484 -0.013438353 8 7 -0.063006297
-0.23046896 0.67661053 -0.1915261 100 0 -0.06298326
-0.40820819 1.1991028 -0.29243636 24 1 -0.062978648
-0.52206534 1.5353146 -0.31521648 1 2 -0.062974043
-0.20138726 0.59292716 -0.099179462 42 3 -0.062969431
-0.26238883 0.77252883 0.10017661 11 11 -0.062967129
-0.20993051 0.61843574 -0.08019004 100 4 -0.062964827
-0.25702843 0.75761503 0.12671193 100 12 -0.062962525
-0.22264156 0.6566332 -0.060660396 52 5 -0.062960215
-0.25770831 0.76049256 0.15608177 73 13 -0.062957913
-0.23320679 0.68858331 -0.038100582 33 6 -0.06295561
-0.25241598 0.7457301 0.18176045 64 14 -0.062953308
-0.26863304 0.79364133 -0.014625117 7 7 -0.062951006
-0.19314581 0.57095313 0.16150309 11 15 -0.062948696
-0.22255705 0.66093343 -0.18686737 100 0 -0.062927961
-0.19805865 0.5898813 -0.098553732 42 3 -0.062914141
-0.26081842 0.77724934 0.10066409 34 11 -0.062911831
-0.21208093 0.63237548 -0.081896208 42 4 -0.062909529
-0.25186971 0.75101626 0.12546046 100 12 -0.062907226
-0.21781521 0.64985001 -0.059963148 61 5 -0.062904924
-0.25941747 0.77441847 0.15875308 63 13 -0.062902622
-0.23333788 0.69696897 -0.038519271 33 6 -0.062900312
-0.25166619 0.75215077 0.18311015 39 14 -0.06289801
-0.24746001 0.7395798 -0.013612877 25 7 -0.062895708
-0.19360244 0.57895231 0.16357364 11 15 -0.062893406
-0.21414769 0.64337641 -0.18169098 100 0 -0.062872663
-0.21713677 0.65273684 -0.15881544 77 1 -0.062868059
-0.19485648 0.58678544 -0.097927988 42 3 -0.062858842
-0.25698915 0.77434182 0.10017661 41 11 -0.06285654
-0.2106078 0.6349594 -0.082139947 57 4 -0.062854238
-0.25297615 0.76314098 0.12733766 100 12 -0.062851928
-0.21554562 0.65060633 -0.059963148 55 5 -0.062849626
-0.25499588 0.7696836 0.15760824 70 13 -0.062847324
-0.23039769 0.6958428 -0.038414594 31 6 -0.062845021
-0.24672189 0.74558091 0.18131055 24 14 -0.062842712
-0.24173759 0.7309463 -0.013438353 53 7 -0.06284041
-0.18551779 0.56128204 0.15839727 12 15 -0.062838107
-0.20838867 0.63307315 -0.17858516 93 0 -0.062817372
-0.21059647 0.64053202 -0.15566613 69 1 -0.06281276
-0.19489178 0.59311575 -0.12135453 10 2 -0.062808156
-0.18849489 0.57432395 -0.095737904 45 3 -0.062803544
-0.25737789 0.78466529 0.1013953 56 11 -0.062801242
-0.20715317 0.63191807 -0.081652462 62 4 -0.06279894
-0.2521556 0.76965111 0.12827627 100 12 -0.062796637
-0.21586801 0.65889102 -0.060660396 46 5 -0.062794328
-0.25169653 0.76870328 0.15722662 66 13 -0.062792026
-0.22796716 0.69664288 -0.038414594 100 6 -0.062789723
-0.2519924 0.77051628 0.18715927 7 14 -0.062787421
-0.23856317 0.72988492 -0.013403447 53 7 -0.062785111
-0.18355727 0.56192625 0.15839727 12 15 -0.062782809
-0.19960392 0.61358857 -0.17289113 98 0 -0.062762074
-0.20113282 0.61902297 -0.1502673 24 1 -0.06275747
-0.20494743 0.63113785 -0.1289869 9 2 -0.062752858
-0.18770799 0.57873642 -0.096363649 47 3 -0.062748253
-0.24729219 0.76289856 0.098470435 62 11 -0.062745944
-0.19944023 0.61564106 -0.079458818 60 4 -0.062743641
-0.24459997 0.75549191 0.12577333 100 12 -0.062741339
-0.21295317 0.65774494 -0.060486082 35 5 -0.062739037
-0.24961627 0.77144504 0.15760824 65 13 -0.062736727
-0.22184698 0.68603218 -0.037786566 100 6 -0.062734425
-0.23048255 0.71358716 -0.013089306 37 7 -0.062729821
-0.18396829 0.56991732 0.1604678 11 15 -0.062727511
-0.20100817 0.62531656 -0.17599694 76 0 -0.062706776
-0.20433214 0.63642037 -0.15431643 11 1 -0.062702172
-0.20274323 0.63184935 -0.1289869 9 2 -0.06269756
-0.18689227 0.58315039 -0.096989378 45 3 -0.062692955
-0.24886645 0.77699047 0.10017661 70 11 -0.062690653
-0.19668466 0.61444294 -0.07921508 53 4 -0.062688343
-0.24015544 0.75069684 0.12483472 100 12 -0.062686041
-0.21004866 0.65658671 -0.060311772 26 5 -0.062683739
-0.2499114 0.78166157 0.15951632 61 13 -0.062681437
-0.22127444 0.69250989 -0.038100582 95 6 -0.062679127
-0.22312659 0.69914699 -0.012810066 19 7 -0.062674522
-0.17258549 0.54110795 0.1521856 12 15 -0.06267222
-0.1999936 0.62969691 -0.17703223 75 0 -0.062651485
-0.20682341 0.65198982 -0.15791564 11 1 -0.062646873
-0.19460322 0.61383867 -0.12517071 9 2 -0.062642269
-0.18485568 0.58379918 -0.096989378 45 3 -0.062637657
-0.25333944 0.80056554 0.10310147 94 11 -0.062635355
-0.19813031 0.62648195 -0.080677517 43 4 -0.062633052
-0.23455711 0.74211287 0.12327038 100 12 -0.062630743
-0.20595427 0.65161663 -0.059788838 100 5 -0.062628441
-0.24777253 0.78440136 0.15989795 61 13 -0.062626138
-0.21103965 0.66851813 -0.036739845 48 6 -0.062623836
-0.20625289 0.65415019 -0.011972351 11 7 -0.062619224
-0.17069572 0.54170704 0.1521856 12 15 -0.062616922
-0.19143237 0.61011547 -0.17133822 100 0 -0.062596187
-0.20104992 0.64155042 -0.15521623 11 1 -0.062591575
-0.18659152 0.59577906 -0.12135453 10 2 -0.062586971
-0.18045792 0.57689965 -0.095737904 45 3 -0.062582359
-0.25054318 0.80144507 0.10310147 94 11 -0.062580056
-0.1959424 0.62716973 -0.080677517 100 4 -0.062577754
-0.23726408 0.75989747 0.12608619 100 12 -0.062575452
-0.20011568 0.64092046 -0.05874297 74 5 -0.06257315
-0.24093913 0.77214259 0.15722662 66 13 -0.06257084
-0.20513734 0.65781051 -0.036111813 24 6 -0.062568538
-0.20515737 0.65868473 -0.012042161 22 7 -0.062563933
-0.1676556 0.53861052 0.15115033 25 15 -0.062561624
-0.19158924 0.61816096 -0.17340876 100 0 -0.062540889
-0.18873936 0.60934186 0.011134635 9 8 -0.062538587
-0.2011141 0.64969468 -0.15701583 11 1 -0.062536284
-0.20600516 0.66590643 0.036530498 9 9 -0.062533982
-0.16942509 0.54766232 -0.11143246 11 2 -0.062531672
-0.17785975 0.57563877 -0.095425032 42 3 -0.062527068
-0.23544492 0.76248348 0.097982958 82 11 -0.062524766
-0.19492248 0.63164341 -0.081164986 97 4 -0.062522456
-0.23810284 0.77204692 0.12796341 100 12 -0.062520154
-0.19963858 0.64732683 -0.0592659 63 5 -0.062517852
-0.23939906 0.77673119 0.15798986 65 13 -0.062515549
-0.1910809 0.62034738 -0.034018375 36 6 -0.06251324
-0.19462515 0.63263869 -0.011553493 23 7 -0.062508635
-0.16236798 0.52811313 0.1480445 13 15 -0.062506333
-0.18829951 0.61513144 -0.17237349 100 0 -0.062485594
-0.17608155 0.57557708 0.01050635 10 8 -0.062483292
-0.18972903 0.62057525 -0.14981739 12 1 -0.062480986
-0.18617129 0.60931873 0.033390343 11 9 -0.062478684
-0.17439653 0.57078117 -0.11601188 10 2 -0.062476378
-0.18502946 0.60596001 0.055431053 8 10 -0.062474076
-0.17584944 0.57625604 -0.095425032 40 3 -0.06247177
-0.23799363 0.78038949 0.10017661 100 11 -0.062469468
-0.18924423 0.62092686 -0.079702556 79 4 -0.062467162
-0.23598216 0.77476305 0.12827627 100 12 -0.062464859
-0.19389477 0.6365841 -0.058220036 53 5 -0.062462553
-0.23954499 0.78695297 0.15989795 57 13 -0.062460251
-0.18426394 0.60572422 -0.033180997 38 6 -0.062457945
-0.19474101 0.64096743 -0.011693113 23 7 -0.062453337
-0.16108467 0.53052521 0.14856213 26 15 -0.062451035
-0.18447396 0.61023748 -0.17082058 100 0 -0.0624303
-0.18158947 0.60107332 0.010960111 40 8 -0.062427994
-0.18756151 0.62123382 -0.14981739 12 1 -0.062425692
-0.18635085 0.61761343 0.033809032 43 9 -0.062423386
-0.16900022 0.56010908 -0.11372217 11 2 -0.062421083
-0.18291296 0.60660225 0.055431053 8 10 -0.062418777
-0.1715569 0.56930101 -0.094173566 40 3 -0.062416475
-0.22839877 0.75840628 0.097251743 78 11 -0.062414169
-0.18535915 0.61588109 -0.078971341 74 4 -0.062411867
-0.22872436 0.76044875 0.12577333 100 12 -0.062409561
-0.1933929 0.64298093 -0.05874297 21 5 -0.062407259
-0.23962206 0.79718512 0.16180603 54 13 -0.062404953
-0.17985018 0.59871244 -0.032762311 58 6 -0.062402651
-0.18618129 0.62057441 -0.011309159 36 7 -0.062398043
-0.16478008 0.54958898 0.15373853 25 15 -0.062395737
-0.17792238 0.59606844 -0.16667947 100 0 -0.062372684
-0.18234821 0.61128485 0.011134635 58 8 -0.062370382
-0.18539199 0.6218847 -0.14981739 12 1 -0.062368076
-0.18305343 0.6144318 0.033599686 65 9 -0.062365774
-0.17040747 0.57198477 -0.11601188 10 2 -0.062363468
-0.17908897 0.60150838 0.054908119 36 10 -0.062361166
-0.17182213 0.57746965 -0.095425032 42 3 -0.06235886
-0.2246186 0.75539339 0.096764266 72 11 -0.062356558
-0.18207745 0.61271864 -0.078483865 75 4 -0.062354252
-0.22494395 0.75745517 0.12514758 94 12 -0.06235195
-0.17866901 0.60163325 -0.054908119 35 5 -0.062349644
-0.23627912 0.79613465 0.16142441 50 13 -0.062347341
-0.18059891 0.60891056 -0.03328567 57 6 -0.062345035
-0.18174203 0.61355126 -0.011169541 49 7 -0.062340427
-0.15573217 0.5260796 0.14700922 13 15 -0.062338125
-0.17693266 0.60039204 -0.16771474 100 0 -0.06231739
-0.17512876 0.59465355 0.010820491 71 8 -0.062315084
-0.19422443 0.65991712 -0.15881544 11 1 -0.062312782
-0.17865309 0.60740274 0.033180997 77 9 -0.062310476
-0.16840969 0.57257617 -0.11601188 10 2 -0.062308174
-0.17530245 0.59639531 0.054385182 63 10 -0.062305868
-0.1642381 0.55911297 -0.092296347 44 3 -0.062303565
-0.21079732 0.71807855 0.091889486 53 11 -0.062301259
-0.18105498 0.61716014 -0.078971341 67 4 -0.062298957
-0.22063148 0.75254893 0.12420898 81 12 -0.062296651
-0.17544687 0.59842938 -0.054559495 24 5 -0.062294349
-0.22963478 0.78376609 0.15875308 43 13 -0.062292043
-0.17791092 0.60762048 -0.033180997 57 6 -0.062289741
-0.18408933 0.62953639 -0.011448778 71 7 -0.062285133
-0.15335286 0.52476579 0.14649159 26 15 -0.062282827
-0.17375672 0.59729606 -0.16667947 84 0 -0.062262092
-0.16802803 0.57797951 0.01050635 86 8 -0.06225979
-0.18104589 0.62316382 -0.14981739 12 1 -0.062257484
-0.1804301 0.62144899 0.033913702 86 9 -0.062255181
-0.16093609 0.55430651 -0.11219569 22 2 -0.062252875
-0.1732197 0.59700358 0.054385182 73 10 -0.062250573
-0.16173513 0.55778569 -0.091983475 47 3 -0.062248267
-0.19392483 0.66923684 0.085552283 44 11 -0.062245965
-0.17889971 0.61778831 -0.078971341 67 4 -0.062243659
-0.21965042 0.75900716 0.12514758 78 12 -0.062241357
-0.17723373 0.61243522 -0.055779677 34 5 -0.062239051
-0.22798853 0.78833479 0.15951632 33 13 -0.062236749
-0.17190719 0.59480667 -0.032448296 59 6 -0.062234443
-0.15465204 0.53545338 0.128672 16 14 -0.06223214
-0.18022721 0.62441128 -0.011344064 72 7 -0.062229838
-0.15152025 0.52529788 0.14649159 26 15 -0.062227532
-0.17113769 0.5960421 -0.16616184 63 0 -0.062206797
-0.16876721 0.58817309 0.010680873 94 8 -0.062204491
-0.1788694 0.62379205 -0.14981739 12 1 -0.062202189
-0.17495875 0.61055505 0.03328567 88 9 -0.062199883
-0.15791872 0.5510903 -0.11143246 22 2 -0.062197581
-0.16948931 0.59185839 0.053862248 74 10 -0.062195275
-0.16141744 0.5640443 -0.092922084 45 3 -0.062192973
-0.17521243 0.61265254 0.078240126 31 11 -0.062190667
-0.17456029 0.6107744 -0.077996388 75 4 -0.062188365
-0.21537198 0.754071 0.12420898 74 12 -0.062186062
-0.17235886 0.60347134 -0.054908119 35 5 -0.062183756
-0.22523513 0.78912586 0.15951632 33 13 -0.062181454
-0.16654269 0.58387929 -0.031820264 70 6 -0.062179148
-0.15278187 0.53599 0.128672 16 14 -0.062176846
-0.17859417 0.62695986 -0.011378969 72 7 -0.06217454
-0.14968556 0.52582365 0.14649159 26 15 -0.062172238
-0.17116253 0.60407054 -0.16823238 41 0 -0.062151499
-0.16889217 0.5964548 0.010820491 92 8 -0.062149197
-0.176691 0.6244126 -0.14981739 12 1 -0.062146891
-0.17021388 0.60152298 0.032762311 100 9 -0.062144589
-0.1549255 0.54785991 -0.11066923 23 2 -0.062142283
-0.16904761 0.59819829 0.054385182 82 10 -0.06213998
-0.15998456 0.56650525 -0.093234949 45 3 -0.062137678
-0.17415124 0.61708128 0.078727603 72 11 -0.062135372
-0.17027171 0.60373771 -0.077021435 77 4 -0.06213307
-0.20429118 0.72436166 0.11920308 83 12 -0.062130764
-0.16917044 0.60023385 -0.054559495 36 5 -0.062128462
-0.21981815 0.78045869 0.15760824 30 13 -0.062126156
-0.16775048 0.59599233 -0.032448296 69 6 -0.062123854
-0.14563353 0.51776057 0.12417299 16 14 -0.062121548
-0.17055826 0.60637367 -0.010995016 75 7 -0.062119246
-0.14846389 0.52817684 0.14700922 26 15 -0.06211694
-0.16125056 0.57675672 -0.1604678 22 0 -0.062096205
-0.16691345 0.59701157 0.010820491 92 8 -0.062093899
-0.17461951 0.62499505 -0.14981739 12 1 -0.062091596
-0.16972455 0.60788447 0.033076327 100 9 -0.062089294
-0.14668074 0.52570504 -0.10608982 24 2 -0.062086988
-0.16267733 0.58343136 0.05299069 85 10 -0.062084686
-0.15704381 0.56322712 -0.092609212 52 3 -0.06208238
-0.1737026 0.62339211 0.079458818 82 11 -0.062080078
-0.17039883 0.61194843 -0.077996388 68 4 -0.062077772
-0.19434747 0.69842738 0.11482291 96 12 -0.06207547
-0.16120271 0.57970554 -0.05264207 25 5 -0.062073164
-0.21039127 0.75659394 0.1526472 50 13 -0.062070861
-0.16470352 0.59269673 -0.032238953 70 6 -0.062068556
-0.14391564 0.51824075 0.12417299 16 14 -0.062066253
-0.16737126 0.60311162 -0.010925207 76 7 -0.062063947
-0.14507037 0.52310711 0.14545631 26 15 -0.062061645
-0.16139288 0.58473724 -0.16253836 21 0 -0.06204091
-0.1616381 0.5860244 0.010611064 94 8 -0.062038604
-0.17243664 0.62560081 -0.14981739 12 1 -0.062036302
-0.16866222 0.61232436 0.03328567 99 9 -0.062033996
-0.15223543 0.55268729 -0.11143246 22 2 -0.062031694
-0.16021307 0.58204657 0.052816376 95 10 -0.062029388
-0.15350522 0.55805796 -0.09167061 57 3 -0.062027086
-0.16784227 0.610596 0.077752642 84 11 -0.06202478
-0.16720989 0.60871112 -0.077508911 70 4 -0.062022477
-0.19190846 0.69910151 0.11482291 81 12 -0.062020171
-0.1598067 0.58215827 -0.052816376 25 5 -0.062017869
-0.20151632 0.73460406 0.14806779 79 13 -0.062015563
-0.16210571 0.59134179 -0.03213428 80 6 -0.062013261
-0.14004636 0.51122189 0.12237337 17 14 -0.062010955
-0.16843282 0.61526453 -0.011134635 86 7 -0.062008653
-0.13814598 0.50497651 0.14027993 27 15 -0.062006347
-0.15021615 0.55174494 -0.15322088 23 0 -0.061985612
-0.15801671 0.58079636 0.01050635 100 8 -0.06198331
-0.17025198 0.62619889 -0.14981739 12 1 -0.061981004
-0.16442928 0.60519975 0.032866985 90 9 -0.061978702
-0.14721692 0.54184783 -0.10914275 23 2 -0.061976396
-0.1571364 0.57875675 0.05246776 96 10 -0.061974093
-0.14845286 0.54715163 -0.089793392 63 3 -0.061971787
-0.16934596 0.62458962 0.079458818 92 11 -0.061969485
-0.16612248 0.61312312 -0.077996388 68 4 -0.061967179
-0.17965819 0.66353941 0.1088784 52 12 -0.061964877
-0.15673232 0.5788663 -0.05246776 50 5 -0.061962571
-0.19638683 0.72582752 0.14615969 100 13 -0.061960269
-0.15795544 0.58419192 -0.031715591 82 6 -0.061957963
-0.13826111 0.5117076 0.12237337 34 14 -0.061955661
-0.16889027 0.62550157 -0.011309159 84 7 -0.061953358
-0.13990535 0.51851165 0.1439034 27 15 -0.061951052
-0.16331843 0.60823888 -0.16875002 20 0 -0.061930317
-0.1570247 0.58520716 0.010576158 100 8 -0.061928011
-0.16806522 0.62678933 -0.14981739 12 1 -0.061925709
-0.159214 0.59419489 0.032238953 92 9 -0.061923403
-0.14532447 0.54235846 -0.10914275 23 2 -0.061921101
-0.15511504 0.57930177 0.05246776 96 10 -0.061918795
-0.14654191 0.54766649 -0.089793392 65 3 -0.061916493
-0.15947321 0.59641117 0.075802736 100 11 -0.061914187
-0.16295621 0.60986364 -0.077508911 70 4 -0.061911885
-0.16460073 0.61644965 0.10105667 58 12 -0.061909579
-0.15728055 0.58903468 -0.053339314 61 5 -0.061907277
-0.19233376 0.72081792 0.14501485 100 13 -0.061904974
-0.15179855 0.56930113 -0.030878218 95 6 -0.061902668
-0.13697568 0.51407015 0.12282327 33 14 -0.061900366
-0.16670597 0.62608725 -0.011309159 84 7 -0.06189806
-0.13859116 0.52086377 0.14442104 27 15 -0.061895758
-0.15446962 0.5838185 0.010541254 95 8 -0.061872717
-0.16587614 0.62737221 -0.14981739 12 1 -0.061870411
-0.1581594 0.59860897 0.032448296 92 9 -0.061868109
-0.14142449 0.53526992 -0.10761628 23 2 -0.061865803
-0.1541093 0.58369237 0.052816376 95 10 -0.061863501
-0.1446294 0.54817468 -0.089793392 65 3 -0.061861195
-0.15486011 0.58736664 0.074584045 100 11 -0.061858892
-0.15374611 0.58355457 -0.074096568 66 4 -0.06185659
-0.15993337 0.60746908 0.099492334 60 12 -0.061854284
-0.15623812 0.5934335 -0.053687938 73 5 -0.061851982
-0.19031613 0.72338349 0.14539646 95 13 -0.061849676
-0.15336534 0.58334881 -0.031610921 92 6 -0.061847374
-0.13567568 0.51642996 0.12327318 33 14 -0.061845068
-0.16045742 0.61119211 -0.011029921 87 7 -0.061842766
-0.13677227 0.52134436 0.14442104 27 15 -0.06184046
-0.17760985 0.68039441 -0.18842028 16 0 -0.061819725
-0.15344039 0.58822405 0.010611064 94 8 -0.061817419
-0.16368501 0.62794745 -0.14981739 12 1 -0.061815117
-0.15657219 0.60109019 0.032552969 100 9 -0.061812811
-0.1365858 0.52436119 -0.10532658 36 2 -0.061810508
-0.15006348 0.57651418 0.052119136 97 10 -0.061808206
-0.14370942 0.55249977 -0.090419129 65 3 -0.0618059
-0.1568037 0.60327369 0.076533951 100 11 -0.061803598
-0.15470254 0.59561563 -0.075558998 65 4 -0.061801292
-0.15136033 0.58316731 0.095425032 78 12 -0.06179899
-0.14916016 0.57469034 -0.051944822 76 5 -0.061796684
-0.18433951 0.71074086 0.14272514 47 13 -0.061794382
-0.15132798 0.58388066 -0.031610921 92 6 -0.061792076
-0.13387205 0.51690042 0.12327318 33 14 -0.061789773
-0.15732078 0.60787666 -0.010960111 100 7 -0.061787467
-0.13398407 0.51807803 0.14338575 27 15 -0.061785165
-0.14939408 0.58100927 0.010471444 100 8 -0.061762124
-0.1614922 0.62851495 -0.14981739 12 1 -0.061759822
-0.15298308 0.59582955 0.032238953 92 9 -0.061757516
-0.13377823 0.52103162 -0.10456334 24 2 -0.061755214
-0.14953545 0.58282411 0.05264207 100 10 -0.061752908
-0.13883656 0.54151714 -0.088541918 68 3 -0.061750606
-0.1640577 0.64035404 0.081164986 100 11 -0.0617483
-0.15065305 0.58845979 -0.074584045 66 4 -0.061745998
-0.15470937 0.6047433 0.098866597 100 12 -0.061743692
-0.14369671 0.56169593 -0.05072464 78 5 -0.061741389
-0.16678382 0.65241534 0.13089497 8 13 -0.061739083
-0.1512664 0.5921458 -0.03202961 90 6 -0.061736781
-0.13206701 0.51736456 0.12327318 33 14 -0.061734475
-0.15717512 0.61617273 -0.011099731 99 7 -0.061732173
-0.13026626 0.51105446 0.14131519 27 15 -0.061729867
-0.14638247 0.57765037 0.010401634 97 8 -0.06170683
-0.15929742 0.62907481 -0.14981739 12 1 -0.061704524
-0.15188232 0.6002323 0.032448296 92 9 -0.061702222
-0.13484839 0.53291494 -0.10685304 24 2 -0.061699916
-0.14701155 0.58141106 0.05246776 96 10 -0.061697613
-0.13597776 0.53816801 -0.08791618 68 3 -0.061695307
-0.15453206 0.6120525 0.077508911 100 11 -0.061693005
-0.14956909 0.59283167 -0.075071529 65 4 -0.061690699
-0.150666 0.59761786 0.097615115 97 12 -0.061688397
-0.14758003 0.58537734 -0.052816376 87 5 -0.061686091
-0.15491314 0.61491811 0.12326261 9 13 -0.061683789
-0.14432257 0.57330185 -0.030982887 94 6 -0.061681483
-0.13026038 0.51782238 0.12327318 33 14 -0.061679181
-0.15502316 0.61671764 -0.011099731 99 7 -0.061676875
-0.12659892 0.50401163 0.13924466 28 15 -0.061674573
-0.14533423 0.5820381 0.010471444 100 8 -0.061651532
-0.15710041 0.62962705 -0.14981739 12 1 -0.061649229
-0.14737013 0.59106922 0.031924937 94 9 -0.061646923
-0.13251224 0.53147751 -0.10647143 36 2 -0.061644621
-0.14498155 0.58192056 0.05246776 96 10 -0.061642315
-0.13696153 0.55014062 -0.089793392 73 3 -0.061640013
-0.14760248 0.59332442 0.075071529 100 11 -0.061637707
-0.14318891 0.57601196 -0.072877876 61 4 -0.061635405
-0.14905506 0.6000573 0.097927988 100 12 -0.061633099
-0.144575 0.58202171 -0.05246776 88 5 -0.061630797
-0.15087402 0.60783333 0.12173614 9 13 -0.061628491
-0.14087819 0.56798661 -0.030668873 100 6 -0.061626188
-0.12282629 0.49557585 0.11787436 35 14 -0.061623886
-0.15094669 0.60949075 -0.010960111 100 7 -0.06162158
-0.13040769 0.52695376 0.14545631 26 15 -0.061619278
-0.14330177 0.58254182 0.010471444 100 8 -0.061596237
-0.15490147 0.63017166 -0.14981739 12 1 -0.061593931
-0.14493236 0.58961523 0.031820264 94 9 -0.061591629
-0.13159294 0.53574997 -0.10723466 47 2 -0.061589323
-0.14104956 0.57468331 0.051770512 100 10 -0.061587021
-0.13315812 0.54294133 -0.088541918 76 3 -0.061584715
-0.14600313 0.59576398 0.075315259 100 11 -0.061582413
-0.1412781 0.57648361 -0.072877876 53 4 -0.061580107
-0.14518508 0.59287351 0.096676514 100 12 -0.061577804
-0.14396302 0.58832872 -0.05299069 100 5 -0.061575502
-0.14595367 0.59691381 0.11944644 9 13 -0.061573196
-0.14173907 0.58011597 -0.031296905 100 6 -0.061570894
-0.12442002 0.50923175 0.12102367 34 14 -0.061568588
-0.14702742 0.6022175 -0.010820491 100 7 -0.061566286
-0.12957537 0.53113699 0.14649159 26 15 -0.06156398
-0.1423115 0.58690065 0.010541254 100 8 -0.061540939
-0.15281102 0.63068181 -0.14981739 12 1 -0.061538637
-0.14203581 0.58621037 0.031610921 95 9 -0.061536331
-0.12889177 0.53236711 -0.10647143 36 2 -0.061534029
-0.13867442 0.57321137 0.051596198 100 10 -0.061531726
-0.13321367 0.55106014 -0.089793392 81 3 -0.06152942
-0.14775567 0.61168158 0.077265166 100 11 -0.061527118
-0.13750134 0.56923056 -0.071902916 62 4 -0.061524812
-0.1422911 0.58951128 0.096050769 100 12 -0.06152251
-0.13593851 0.56362379 -0.05072464 91 5 -0.061520204
-0.13937375 0.5783084 0.11563025 9 13 -0.061517902
-0.14168482 0.58834982 -0.031715591 100 6 -0.061515596
-0.11999302 0.49827412 0.11832426 35 14 -0.061513294
-0.14502971 0.60270166 -0.010820491 100 7 -0.061510988
-0.12239406 0.50902385 0.14027993 27 15 -0.061508685
-0.13664635 0.57180983 0.010262014 100 8 -0.061485644
-0.15071858 0.63118511 -0.14981739 12 1 -0.061483342
-0.14230649 0.59641618 0.03213428 100 9 -0.061481036
-0.12712552 0.53279161 -0.10647143 36 2 -0.061478734
-0.13446258 0.56397772 0.05072464 100 10 -0.061476428
-0.12863868 0.53996933 -0.08791618 79 3 -0.061474126
-0.15078303 0.63341069 0.079946294 23 11 -0.06147182
-0.13735083 0.57743192 -0.072877876 68 4 -0.061469518
-0.14023229 0.59000438 0.096050769 100 12 -0.061467212
-0.13397039 0.56409484 -0.05072464 91 5 -0.061464909
-0.13790874 0.58067763 0.11601188 19 13 -0.061462604
-0.1388108 0.58492988 -0.031506252 100 6 -0.061460301
-0.12050101 0.50817078 0.12057376 34 14 -0.061457995
-0.14384723 0.6070959 -0.010890301 100 7 -0.061455693
-0.12017126 0.50756812 0.13976228 42 15 -0.061453387
-0.13510764 0.5742299 0.01029692 100 8 -0.06143035
-0.14851485 0.63170731 -0.14981739 12 1 -0.061428044
-0.14022359 0.59690934 0.03213428 100 9 -0.061425742
-0.12247989 0.52178621 -0.10418171 37 2 -0.061423436
-0.13330466 0.56834626 0.051073264 100 10 -0.061421134
-0.12485588 0.53274411 -0.086664706 85 3 -0.061418828
-0.14132357 0.60300964 0.076046474 100 11 -0.061416525
-0.13488159 0.575975 -0.072634131 68 4 -0.061414219
-0.14042272 0.60010737 0.097615115 100 12 -0.061411917
-0.13245398 0.56649917 -0.050898954 100 5 -0.061409611
-0.13309951 0.56970853 0.11372217 20 13 -0.061407309
-0.1330338 0.56987494 -0.030668873 95 6 -0.061405003
-0.11730974 0.50291562 0.11922406 34 14 -0.061402701
-0.14218129 0.60954183 -0.010925207 100 7 -0.061400395
-0.11927568 0.51174742 0.14079757 41 15 -0.061398093
-0.13390362 0.57861763 0.010366729 100 8 -0.061375052
-0.14619838 0.63224745 -0.14981739 12 1 -0.06137275
-0.138035 0.5974192 0.03213428 100 9 -0.061370444
-0.12154181 0.52603626 -0.10494495 49 2 -0.061368141
-0.13266435 0.57463211 0.051596198 88 10 -0.061365835
-0.12610379 0.54665047 -0.088854782 84 3 -0.061363533
-0.14223371 0.61706412 0.077752642 22 11 -0.061361227
-0.13232423 0.57453108 -0.0723904 53 4 -0.061358925
-0.13910785 0.60446817 0.098240852 100 12 -0.061356619
-0.13047557 0.56695807 -0.050898954 100 5 -0.061354317
-0.13331001 0.57973623 0.11563025 9 13 -0.061352011
-0.13104358 0.57033587 -0.030668873 100 6 -0.061349709
-0.11598944 0.50522137 0.11967396 34 14 -0.061347403
-0.1403935 0.6120078 -0.010960111 100 7 -0.0613451
-0.11826257 0.5159471 0.14183284 41 15 -0.061342798
-0.13277128 0.58298105 0.01043654 100 8 -0.061319757
-0.14399065 0.63275391 -0.14981739 12 1 -0.061317451
-0.13329165 0.58621222 0.031506252 100 9 -0.061315149
-0.11709299 0.51497102 -0.10265525 50 2 -0.061312843
-0.12889218 0.56732017 0.050898954 100 10 -0.061310541
-0.12419497 0.54708731 -0.088854782 86 3 -0.061308235
-0.13349196 0.5885182 0.074096568 100 11 -0.061305933
-0.12285877 0.54207754 -0.068246834 82 4 -0.061303627
-0.13437967 0.59339046 0.096363649 100 12 -0.061301325
-0.13025633 0.57518274 -0.051596198 100 5 -0.061299019
-0.1217531 0.53807145 0.10723466 10 13 -0.061296716
-0.12905207 0.57078981 -0.030668873 100 6 -0.061294414
-0.11336669 0.5018214 0.11877415 35 14 -0.061292108
-0.13517402 0.59883982 -0.010715778 100 7 -0.061289806
-0.1151856 0.51070333 0.14027993 55 15 -0.0612875
-0.1324843 0.59124625 0.010576158 100 8 -0.061264459
-0.14178088 0.63325268 -0.14981739 12 1 -0.061262157
-0.13134709 0.58665097 0.031506252 100 9 -0.061259851
-0.11958085 0.53453553 -0.10647143 36 2 -0.061257549
-0.12734556 0.56971109 0.051073264 100 10 -0.061255243
-0.12314554 0.5513733 -0.089480527 89 3 -0.06125294
-0.1400841 0.62772918 0.078971341 23 11 -0.061250638
-0.12278979 0.55023181 -0.069221795 89 4 -0.061248332
-0.13198109 0.59190476 0.096050769 100 12 -0.06124603
-0.12478147 0.5600763 -0.050201707 100 5 -0.061243724
-0.12158065 0.54615855 0.10876114 10 13 -0.061241422
-0.12749235 0.5731864 -0.030773545 100 6 -0.061239116
-0.10916316 0.49078113 0.11607475 35 14 -0.061236814
-0.13318758 0.59928477 -0.010715778 100 7 -0.061234508
-0.10888486 0.49033743 0.13458592 43 15 -0.061232205
-0.12793843 0.57996583 0.010366729 100 8 -0.061209165
-0.13968 0.63371938 -0.14981739 12 1 -0.061206862
-0.13155031 0.59683549 0.03202961 100 9 -0.061204556
-0.11358522 0.51575607 -0.10265525 50 2 -0.061202254
-0.12374302 0.56234682 0.050376017 100 10 -0.061199948
-0.11961955 0.54406142 -0.088229045 94 3 -0.061197646
-0.13246475 0.60298514 0.075802736 100 11 -0.06119534
-0.12394611 0.56420791 -0.070927963 94 4 -0.061193038
-0.13001765 0.59233916 0.096050769 100 12 -0.061190732
-0.12335016 0.56243306 -0.050376017 100 5 -0.06118843
-0.11808799 0.53888774 0.10723466 10 13 -0.061186124
-0.12559099 0.57360601 -0.030773545 100 6 -0.061183821
-0.11212 0.51208049 0.12102367 34 14 -0.061181515
-0.12948994 0.59190923 -0.010576158 100 7 -0.061179213
-0.11220872 0.51334327 0.14079757 55 15 -0.061176907
-0.12389289 0.57061613 0.010192206 100 8 -0.06115387
-0.13757816 0.63417906 -0.14981739 12 1 -0.061151564
-0.12999424 0.59922022 0.03213428 100 9 -0.061149262
-0.11436947 0.52764207 -0.10494495 61 2 -0.061146956
-0.12272083 0.5666486 0.05072464 100 10 -0.061144654
-0.1161437 0.53673232 -0.086977579 93 3 -0.061142348
-0.13465926 0.62282377 0.078240126 25 11 -0.061140046
-0.12291329 0.56849647 -0.071415439 93 4 -0.06113774
-0.12972096 0.60049051 0.097302251 100 12 -0.061135437
-0.1214845 0.56283903 -0.050376017 92 5 -0.061133131
-0.11298914 0.52392328 0.10418171 22 13 -0.061130829
-0.12116377 0.56230474 -0.030145515 100 6 -0.061128523
-0.11001062 0.51054448 0.12057376 34 14 -0.061126221
-0.13089356 0.60797459 -0.010855397 100 7 -0.061123915
-0.10644295 0.49482608 0.13562119 57 15 -0.061121613
-0.12492474 0.58471268 0.01043654 100 8 -0.061098572
-0.1267554 0.59378833 0.031820264 100 9 -0.061093964
-0.11180017 0.52417827 -0.10418171 49 2 -0.061091661
-0.1229175 0.57679558 0.051596198 100 10 -0.061089355
-0.11600882 0.54484272 -0.088229045 97 3 -0.061087053
-0.12391897 0.58249235 0.073121615 100 11 -0.061084747
