# .PCD v0.7 - Point Cloud Data file format
VERSION 0.7
FIELDS x y z intensity ring time
SIZE 4 4 4 4 2 4
TYPE F F F F U F
COUNT 1 1 1 1 1 1
WIDTH 983
HEIGHT 1
VIEWPOINT 0 0 0 1 0 0 0
POINTS 983
DATA ascii
2.8661358 3.0034359 -1.1124043 13 0 -0.057446055
7.3113203 7.6588864 0.18482098 44 8 -0.057443753
3.3875253 3.547322 -1.1324036 1 1 -0.057441447
9.8762665 10.342151 0.74945098 91 9 -0.057439145
4.1701016 4.3652849 -1.1734754 7 2 -0.057436839
9.9163532 10.376875 1.2557399 100 10 -0.057434537
5.4572783 5.7087226 -1.2508501 10 3 -0.057432231
8.0205173 8.3871241 1.4248965 84 11 -0.057429928
5.6127157 5.8692651 -0.99713504 75 4 -0.057427622
5.6668267 5.9237852 1.2984062 63 12 -0.05742532
5.6285129 5.8816791 -0.7122367 52 5 -0.057423014
5.4847703 5.7294631 1.5417367 20 13 -0.057420712
6.0283518 6.2951016 -0.45678827 6 6 -0.057418406
4.0758219 4.2561736 1.360504 16 14 -0.057416104
6.6537662 6.9457636 -0.16789216 25 7 -0.057413798
4.1301913 4.3099327 1.5995017 28 15 -0.057411496
2.8680508 2.9855554 -1.1092985 14 0 -0.057390761
7.3048077 7.6014385 0.18401818 34 8 -0.057388455
3.4019718 3.5388777 -1.1333034 1 1 -0.057386152
9.9524574 10.34936 0.75248641 100 9 -0.057383846
4.1954403 4.3627539 -1.1765283 9 2 -0.057381544
9.970046 10.364039 1.2581803 100 10 -0.057379238
5.4802899 5.6948633 -1.2517889 11 3 -0.057376936
5.646935 5.8639402 -0.99957246 63 4 -0.057372328
5.6956944 5.9125023 1.3002834 61 12 -0.057370022
5.5159993 5.723968 1.5451714 9 13 -0.057365414
6.0478067 6.2736402 -0.45668361 6 6 -0.057363112
4.0893021 4.2405167 1.3600541 22 14 -0.057360806
6.6363215 6.8793173 -0.16684501 30 7 -0.057358503
4.1908183 4.3427563 1.6171014 33 15 -0.057356201
2.8784542 2.9755263 -1.1092985 14 0 -0.057335462
7.3173928 7.5615211 0.18366912 42 8 -0.05733316
3.4115944 3.5241799 -1.1324036 1 1 -0.057330854
10.01214 10.338949 0.75426584 28 9 -0.057328552
4.2051792 4.3424416 -1.1750019 9 2 -0.057326246
5.4863896 5.6615114 -1.2486601 11 3 -0.057321638
6.6183419 6.8272166 1.1675085 4 11 -0.057319336
5.735086 5.9140196 -1.0115156 66 4 -0.05731703
5.7328053 5.9095979 1.3040378 55 12 -0.057314727
4.8679614 5.0180831 -0.61165899 1 5 -0.057312422
4.6855226 4.8283367 1.3078048 7 13 -0.057310119
6.0571494 6.2395911 -0.45574155 6 6 -0.057307817
4.1217299 4.24439 1.3659029 46 14 -0.057305511
6.6561127 6.8518085 -0.1667403 35 7 -0.057303209
3.7791646 3.8889172 1.4530102 37 15 -0.057300903
2.888824 2.9654596 -1.1092985 14 0 -0.057280168
6.6263943 6.7998137 0.16572805 5 8 -0.057277862
3.4184315 3.5066705 -1.1306039 1 1 -0.05727556
6.6513715 6.820673 0.4992851 2 9 -0.057273254
4.2175722 4.3249245 -1.1742386 9 2 -0.057270952
6.6377296 6.8043146 0.83164012 2 10 -0.057268646
5.501976 5.6380882 -1.2477214 10 3 -0.057266343
6.6435218 6.8054914 1.1677521 9 11 -0.057264041
5.7584705 5.8968034 -1.0120032 28 4 -0.057261735
5.769959 5.9065104 1.3077923 66 12 -0.057259433
5.9658399 6.1070271 -0.7469247 6 5 -0.057257127
5.5366158 5.6656613 1.5398288 26 13 -0.057254825
6.0705175 6.2098389 -0.4551135 6 6 -0.057252519
6.6534228 6.8013716 -0.16607711 6 7 -0.057247911
3.8062286 3.8895078 1.4581866 37 15 -0.057245608
2.9018614 2.958118 -1.1103338 14 0 -0.05722487
6.6290822 6.7552304 0.16520448 5 8 -0.057222567
3.4524946 3.5169661 -1.1378024 1 1 -0.057220265
6.6303539 6.7518172 0.49593559 20 9 -0.057217959
4.2298889 4.3073773 -1.1734754 11 2 -0.057215657
6.6502719 6.7697306 0.83024555 13 10 -0.057213351
5.529932 5.6273007 -1.2495986 12 3 -0.057211049
6.6547065 6.7695227 1.1655585 10 11 -0.057208743
5.765099 5.8625145 -1.0095657 27 4 -0.057206441
5.7711487 5.8666172 1.3034122 61 12 -0.057204135
5.9102745 6.0080447 -0.73733753 64 5 -0.057201833
5.568748 5.6588984 1.5432632 10 13 -0.057199527
4.8927798 4.9702473 -0.36551434 1 6 -0.057197224
4.8048491 4.8792205 1.580956 42 14 -0.057194918
6.643445 6.7439137 -0.16523938 25 7 -0.057192616
4.2265744 4.2889991 1.6134779 37 15 -0.05719031
2.920316 2.9562154 -1.1134396 14 0 -0.057169575
6.6526237 6.732048 0.16520448 18 8 -0.057167273
3.4647493 3.504894 -1.1378024 1 1 -0.057164967
6.6552882 6.7300506 0.49604025 18 9 -0.057162665
4.239378 4.2870011 -1.1719489 9 2 -0.057160359
6.6598525 6.7323098 0.82850248 15 10 -0.057158057
5.542592 5.6009436 -1.2480342 11 3 -0.057155751
6.6755056 6.7434297 1.165071 10 11 -0.057153448
5.7897201 5.8465838 -1.0102969 38 4 -0.057151143
5.7749076 5.829597 1.2996577 52 12 -0.05714884
5.9213934 5.9774699 -0.73611736 33 5 -0.057146534
5.5843234 5.6352406 1.5421184 8 13 -0.057144232
4.8932281 4.9361157 -0.36425829 3 6 -0.057141926
6.5796256 6.6326685 -0.1630753 11 7 -0.057137318
3.8958855 3.9259183 1.481998 20 15 -0.057135016
2.9169939 2.932307 -1.1082631 15 0 -0.057114281
6.6619725 6.6946154 0.16485542 18 8 -0.057111975
3.4549663 3.47068 -1.1306039 1 1 -0.057109673
6.6745133 6.7025304 0.4957262 18 9 -0.057107367
4.2487764 4.2666111 -1.1704224 9 2 -0.057105064
6.7972031 6.82336 0.84262168 27 10 -0.057102758
5.2651119 5.2835236 -1.1813933 1 3 -0.057100456
8.3064861 8.3326235 1.4446392 48 11 -0.05709815
5.8058872 5.8221235 -1.0095657 41 4 -0.057095848
5.8161497 5.8303795 1.3043507 18 12 -0.057093542
5.942224 5.9567623 -0.73611736 30 5 -0.05709124
4.7802167 4.7902398 1.3154373 12 13 -0.057088934
6.1267462 6.1374493 -0.45448548 7 6 -0.057086632
4.195734 4.2015972 1.3708518 15 14 -0.057084326
6.207027 6.213532 -0.15330194 47 7 -0.057082023
4.2427588 4.2457228 1.6083016 43 15 -0.057079718
2.9267011 2.9226184 -1.1082631 13 0 -0.057058811
6.8086782 6.7968073 0.16792706 100 8 -0.057056509
3.4802496 3.4729698 -1.135103 1 1 -0.057054203
10.339169 10.313931 0.76536107 81 9 -0.057051901
4.2684622 4.2580433 -1.1719489 9 2 -0.057049595
6.8099194 6.7909322 0.84140152 58 10 -0.057047293
5.554008 5.5365896 -1.2420899 48 3 -0.057044987
8.2722063 8.2433777 1.4339148 9 11 -0.057042684
5.8307858 5.8084435 -1.0105407 38 4 -0.057040378
5.8368502 5.8124552 1.3046635 28 12 -0.057038076
5.9379439 5.9131265 -0.73315412 7 5 -0.05703577
4.7946854 4.7729745 1.3150556 5 13 -0.057033468
6.1385698 6.1086478 -0.45385748 6 6 -0.057031162
4.8658886 4.8404803 1.5845551 50 14 -0.05702886
4.2801051 4.2547846 1.6171014 39 15 -0.057024252
2.9368844 2.9123852 -1.1082631 12 0 -0.057003517
6.8820686 6.8222709 0.16914873 23 8 -0.057001211
3.4674351 3.4361105 -1.1270047 1 1 -0.056998909
10.392129 10.294652 0.76661718 100 9 -0.056996603
4.2805076 4.2403569 -1.1711857 11 2 -0.0569943
6.8038554 6.7376776 0.83774096 67 10 -0.056991994
5.525568 5.4699192 -1.2314522 29 3 -0.056989692
8.288229 8.2018862 1.4317211 8 11 -0.056987386
5.8500824 5.785099 1.3030992 56 12 -0.056982778
5.9613833 5.8951635 -0.73350269 30 5 -0.056980476
4.8601828 4.8045177 1.3284123 1 13 -0.05697817
6.1428089 6.0703344 -0.4526014 5 6 -0.056975868
4.8827567 4.8234644 1.5845551 43 14 -0.056973562
6.2207208 6.1430364 -0.15260385 4 7 -0.056971259
4.2949319 4.2398167 1.6171014 39 15 -0.056968953
2.9497864 2.9048262 -1.1092985 14 0 -0.056948218
3.5016332 3.4458549 -1.1342032 1 1 -0.05694361
10.443665 10.273719 0.76776856 55 9 -0.056941308
4.3016205 4.230145 -1.1727122 9 2 -0.056939002
6.7861342 6.6733761 0.83268601 63 10 -0.0569367
5.5080028 5.4145913 -1.2233176 29 3 -0.056934394
8.3026495 8.1589928 1.4292837 4 11 -0.056932092
5.7819796 5.6799545 -0.99518514 8 4 -0.056929786
5.8843336 5.7784853 1.3062279 35 12 -0.056927484
5.9786839 5.8690886 -0.73297983 34 5 -0.056925178
4.8735552 4.782548 1.3272674 8 13 -0.056922875
6.1564608 6.0393887 -0.45197338 6 6 -0.056920569
4.9009542 4.8077569 1.5850052 47 14 -0.056918267
6.2863855 6.1646895 -0.1536859 31 7 -0.056915965
4.3124661 4.2275023 1.6181368 39 15 -0.056913659
2.9576511 2.8912935 -1.1082631 12 0 -0.056892924
3.5030863 3.4221041 -1.1306039 1 1 -0.056888316
10.504115 10.257696 0.76944327 76 9 -0.05688601
4.3058581 4.2033777 -1.1696591 11 2 -0.056883708
6.8162518 6.6540236 0.8333832 63 10 -0.056881402
5.5037766 5.3709149 -1.2179989 50 3 -0.056879099
8.3282356 8.1243477 1.4285525 9 11 -0.056876794
5.7970753 5.6531787 -0.99421012 34 4 -0.056874491
5.9111309 5.7623968 1.3074795 33 12 -0.056872189
4.8840208 4.757802 1.3253593 2 13 -0.056867581
6.190001 6.0279322 -0.45281073 0 6 -0.056865275
6.2989087 6.1318417 -0.15344156 69 7 -0.056860667
3.990114 3.8829272 1.4918331 28 15 -0.056858364
2.9710007 2.8831253 -1.1092985 14 0 -0.056837626
3.5100105 3.4038143 -1.1288043 1 1 -0.056833018
6.5969086 6.3973179 0.48159552 27 9 -0.056830715
4.3120465 4.1801238 -1.1673695 9 2 -0.056828409
6.7618995 6.5527387 0.82379609 83 10 -0.056826107
5.5092382 5.3369608 -1.2148702 51 3 -0.056823805
8.3665113 8.1020555 1.430015 14 11 -0.056821499
5.8006401 5.6153264 -0.99128538 17 4 -0.056819197
5.9525003 5.7623353 1.3121724 57 12 -0.056816891
5.2216091 5.0530291 -0.63571393 1 5 -0.056814589
5.7218328 5.5351696 1.547461 8 13 -0.056812283
6.1995206 5.9951797 -0.45197338 6 6 -0.05680998
4.2887583 4.1459494 1.3771503 18 14 -0.056807674
4.3439941 4.1978793 1.6186544 22 15 -0.056803066
2.9727006 2.8646927 -1.1061926 14 0 -0.056782331
6.9792662 6.7256866 0.16918363 63 8 -0.056780025
3.5409281 3.4110827 -1.135103 1 1 -0.056777723
6.6235137 6.3784084 0.48190951 100 9 -0.056775421
4.3379273 4.1759377 -1.1704224 9 2 -0.056773115
6.7488432 6.4945555 0.81943828 40 10 -0.056770813
5.4898996 5.2830477 -1.2067356 28 3 -0.056768507
8.4104986 8.0907831 1.4329399 27 11 -0.056766205
5.7949061 5.5726666 -0.98714179 4 4 -0.056763899
5.9640346 5.7333059 1.3102952 42 12 -0.056761596
6.1629376 5.922451 -0.7477963 6 5 -0.05675929
4.9346929 4.7421341 1.3303204 2 13 -0.056756988
6.2193689 5.9745865 -0.45197338 5 6 -0.056754682
4.9153175 4.7202115 1.5733078 12 14 -0.05675238
4.8744621 4.6793466 -0.11794336 7 7 -0.056750074
3.9265232 3.7680318 1.4581866 1 15 -0.056747772
2.9821835 2.8548198 -1.1061926 12 0 -0.056727037
6.5663819 6.2837539 0.15864237 23 8 -0.056724731
3.5246494 3.3717608 -1.126105 1 1 -0.056722429
6.6446309 6.3564072 0.48190951 31 9 -0.056720123
4.3517504 4.1615305 -1.1704224 9 2 -0.05671782
6.6522427 6.3592501 0.80514479 72 10 -0.056715515
5.4526095 5.2106276 -1.1945337 40 3 -0.056713212
8.4386921 8.0613728 1.4329399 30 11 -0.056710906
5.8042722 5.5428095 -0.98543561 12 4 -0.056708604
6.0258718 5.7544265 1.3196814 62 12 -0.056706298
6.1911912 5.910233 -0.74884212 6 5 -0.056703996
4.9796243 4.7519865 1.3379527 7 13 -0.05670169
4.9331737 4.704371 1.5737575 21 14 -0.056697082
6.6989036 6.3882051 -0.16157438 12 7 -0.05669478
3.9557755 3.770987 1.4643983 1 15 -0.056692474
2.9977307 2.8497174 -1.1082631 14 0 -0.056671739
7.8133149 7.4275322 0.18817185 70 8 -0.056669436
3.5386357 3.3627398 -1.1270047 1 1 -0.05666713
4.371944 4.1517234 -1.1719489 7 2 -0.056662522
6.6830711 6.3442187 0.80619055 100 10 -0.05666022
5.4569635 5.1802788 -1.1917179 48 3 -0.056657914
6.6741004 6.3334823 1.1297289 16 11 -0.056655612
5.7678933 5.4716172 -0.97617352 12 4 -0.056653306
6.0602541 5.7469506 1.3228099 61 12 -0.056651004
6.1973262 5.8748775 -0.74709904 3 5 -0.056648698
4.9839573 4.7246408 1.3348998 26 13 -0.056646395
4.8522115 4.5981464 -0.35033691 11 6 -0.05664409
4.9742112 4.7121105 1.5818559 45 14 -0.056641787
6.8329649 6.470654 -0.16426206 7 7 -0.056639485
4.0053921 3.7916849 1.4778568 1 15 -0.056637179
3.0127821 2.8450673 -1.1103338 12 0 -0.056616444
7.804297 7.3672662 0.18733412 34 8 -0.056614138
3.5673609 3.366416 -1.1324036 1 1 -0.056611836
4.3742619 4.1264262 -1.168896 9 2 -0.056607228
6.6330481 6.2550411 0.79764932 63 10 -0.056604922
5.4893885 5.1747475 -1.1948466 39 3 -0.05660262
6.6990528 6.3128743 1.1302164 22 11 -0.056600314
5.7609506 5.4269476 -0.97178626 13 4 -0.056598011
6.0649014 5.7132764 1.3196814 41 12 -0.056595705
5.0404425 4.7448974 1.3455851 7 13 -0.056591101
4.5293336 4.2622623 -0.32594836 22 6 -0.056588795
4.3717694 4.1125507 1.3856986 11 14 -0.056586493
5.2172551 4.9079041 -0.12502904 1 7 -0.056584187
3.9588335 3.7228005 1.4561161 1 15 -0.056581885
3.0114217 2.8239605 -1.1061926 12 0 -0.056561146
6.5771446 6.167717 0.15738581 10 8 -0.056558844
3.5671315 3.3439045 -1.1288043 1 1 -0.056556538
10.901128 10.215383 0.78294599 65 9 -0.056554236
4.3743124 4.0977092 -1.1650798 9 2 -0.05655193
6.6664782 6.242743 0.79904383 83 10 -0.056549627
5.4301004 5.0849519 -1.1782646 49 3 -0.056547321
6.66923 6.2431412 1.1216855 10 11 -0.056545019
5.7731166 5.4023895 -0.97081131 12 4 -0.056542717
6.1078901 5.7136607 1.3246872 33 12 -0.056540411
4.8372259 4.5234318 -0.57941139 12 5 -0.056538109
5.0704899 4.7415643 1.3494014 10 13 -0.056535803
4.5449014 4.2485838 -0.32605305 47 6 -0.056533501
4.3868079 4.09936 1.3861483 7 14 -0.056531195
6.8257022 6.3762193 -0.16304037 8 7 -0.056528892
3.9689813 3.706321 1.4550807 1 15 -0.056526586
3.0193572 2.8126411 -1.105675 12 0 -0.056505851
7.8088946 7.2717323 0.18625209 76 8 -0.056503545
3.5873384 3.3394017 -1.1315038 1 1 -0.056501243
10.987896 10.224886 0.78660947 100 9 -0.056498937
4.4022503 4.0965538 -1.168896 11 2 -0.056496635
6.6448369 6.1812496 0.79398882 76 10 -0.056494333
5.3856106 5.0081272 -1.1648113 36 3 -0.056492027
8.5767298 7.9727788 1.4378146 29 11 -0.056489725
5.7803073 5.3713927 -0.96886134 1 4 -0.056487419
6.1552916 5.717854 1.3306317 50 12 -0.056485116
4.9478865 4.5946422 -0.59074163 1 5 -0.056482811
5.0913277 4.7278428 1.3505462 30 13 -0.056480508
4.5231104 4.1987219 -0.32343623 25 6 -0.056478202
5.0281825 4.6659427 1.5836555 45 14 -0.0564759
6.8552504 6.3591528 -0.16321491 26 7 -0.056473594
4.00456 3.71346 1.4633629 1 15 -0.056471292
3.0239718 2.7963102 -1.1036046 9 0 -0.056450557
5.1944361 4.80337 0.12349322 2 8 -0.056448251
3.5789402 3.3083389 -1.1252052 1 1 -0.056445949
11.038187 10.200027 0.78765625 22 9 -0.056443643
4.4114661 4.0750637 -1.1673695 9 2 -0.056441341
6.7669816 6.2487674 0.80584198 67 10 -0.056439035
5.3981252 4.9829931 -1.1635597 40 3 -0.056436732
8.5957537 7.9347143 1.4363521 14 11 -0.056434426
4.8390822 4.4653783 -0.80848128 15 4 -0.056432124
6.2216778 5.7391915 1.3406435 33 12 -0.056429818
6.24405 5.7578063 -0.7430898 2 5 -0.056427516
5.1143947 4.7144737 1.3520726 25 13 -0.05642521
4.5017486 4.1482806 -0.32081944 24 6 -0.056422908
6.6817927 6.1549902 -0.15857257 33 7 -0.0564183
4.0231819 3.704694 1.4654335 1 15 -0.056415994
3.0479445 2.7988031 -1.1087809 12 0 -0.056395259
5.2120051 4.7843003 0.12349322 2 8 -0.056392957
3.5967844 3.3004704 -1.1270047 1 1 -0.056390651
4.4314518 4.0649471 -1.168896 9 2 -0.056386042
6.6859589 6.1308517 0.7936402 76 10 -0.05638374
8.6320982 7.9098601 1.4375709 34 11 -0.056379132
5.672214 5.1958098 -0.94448751 12 4 -0.056376826
6.2499547 5.723021 1.3422079 56 12 -0.056374524
6.2699842 5.7413621 -0.74378711 1 5 -0.056372218
5.1481991 4.7124982 1.356652 39 13 -0.056369916
4.5029392 4.1204081 -0.31987742 23 6 -0.05636761
4.4704618 4.0892558 1.3987457 20 14 -0.056365307
6.9064822 6.3153324 -0.16335453 1 7 -0.056363001
4.0467153 3.6990461 1.469057 3 15 -0.056360699
3.0576949 2.7881477 -1.1087809 12 0 -0.056339964
7.9375968 7.2353306 0.18747376 26 8 -0.056337658
3.608284 3.2878942 -1.1270047 1 1 -0.056335356
4.4398079 4.0441666 -1.1673695 7 2 -0.056330748
6.8045487 6.1960077 0.80514479 76 10 -0.056328442
4.8075514 4.3760705 -1.0296518 29 3 -0.05632614
8.6537819 7.8743382 1.4365959 14 11 -0.056323834
5.6345158 5.1252189 -0.93522543 12 4 -0.056321532
6.2903562 5.7197728 1.3465881 58 12 -0.056319226
4.4724226 4.06674 -0.52886105 31 5 -0.056316923
5.1893139 4.7169495 1.3631396 38 13 -0.056314617
4.5143399 4.1019773 -0.31966805 24 6 -0.056312315
4.4630718 4.0539708 1.3919971 39 14 -0.056310013
6.6205511 6.011579 -0.15609433 22 7 -0.056307707
4.0896416 3.7121658 1.4799274 1 15 -0.056305405
3.0588157 2.7696776 -1.105675 12 0 -0.056284666
6.7456279 6.1058412 0.1588169 86 8 -0.056282364
3.6370785 3.2909698 -1.1324036 1 1 -0.056280058
11.245394 10.1717 0.79466927 41 9 -0.056277756
4.4509845 4.026011 -1.1666063 9 2 -0.05627545
6.7788472 6.129456 0.79956681 72 10 -0.056273147
5.5027657 4.9738784 -1.1748229 18 3 -0.056270842
8.7077255 7.8680391 1.4409832 32 11 -0.056268539
4.4473581 4.017086 -0.73584712 12 4 -0.056266233
6.355732 5.7388206 1.3562869 18 12 -0.056263931
4.4111724 3.9830072 -0.51997113 79 5 -0.056261629
5.2130356 4.7053823 1.3650476 27 13 -0.056259323
4.5227008 4.0808411 -0.31924936 27 6 -0.056257021
4.5148182 4.0723038 1.4036945 16 14 -0.056254715
5.3197322 4.7966366 -0.12502904 1 7 -0.056252412
4.0882258 3.6849325 1.474751 1 15 -0.056250107
3.0684645 2.7589841 -1.105675 14 0 -0.056229372
8.0355062 7.2225146 0.18859071 81 8 -0.056227066
3.6369481 3.2678332 -1.1288043 1 1 -0.056224763
11.313523 10.161742 0.79697204 90 9 -0.056222457
4.462091 4.0078244 -1.165843 9 2 -0.056220155
6.7779617 6.0857897 0.79695207 13 10 -0.056217853
5.6082997 5.0338073 -1.1935952 11 3 -0.056215547
8.7351398 7.8375936 1.4409832 13 11 -0.056213245
4.4303198 3.9737034 -0.73072863 25 4 -0.056210939
6.4639726 5.7957206 1.375059 61 12 -0.056208637
4.4102159 3.9542832 -0.51822799 85 5 -0.056206331
5.2425852 4.6989508 1.3684822 7 13 -0.056204028
4.5503044 4.0770254 -0.32019141 25 6 -0.056201722
4.5348134 4.0617189 1.4054942 22 14 -0.05619942
6.5997872 5.9091887 -0.15462832 2 7 -0.056197114
4.114018 3.6822357 1.4794097 13 15 -0.056194812
3.0795181 2.7495422 -1.1061926 13 0 -0.056174073
6.5702715 5.8641939 0.1537208 15 8 -0.056171771
3.6366997 3.2447398 -1.1252052 1 1 -0.056169469
6.5871329 5.8771787 0.46264988 13 9 -0.056167163
4.4731226 3.9896121 -1.1650798 9 2 -0.056164861
6.7917275 6.0554652 0.79608059 78 10 -0.056162555
5.7113662 5.0904326 -1.2117414 14 3 -0.056160253
8.7654085 7.8096981 1.4414707 34 11 -0.056157947
4.4174819 3.9344487 -0.72634137 27 4 -0.056155644
6.517086 5.8044701 1.3822551 70 12 -0.056153338
4.4239926 3.9388633 -0.51822799 77 5 -0.056151036
5.2750869 4.6949816 1.3726799 1 13 -0.05614873
4.5630169 4.0597878 -0.32008675 28 6 -0.056146428
4.5547895 4.051044 1.4072938 52 14 -0.056144122
6.611877 5.8806238 -0.1544538 13 7 -0.05614182
4.136312 3.6775591 1.4830333 15 15 -0.056139514
3.0890977 2.7387748 -1.1061926 13 0 -0.056118779
7.0670018 6.2655597 0.16485542 7 8 -0.056116477
3.644522 3.2300777 -1.1243054 1 1 -0.056114171
4.495841 3.9817824 -1.1673695 9 2 -0.056109563
6.7635946 5.9881392 0.79032826 78 10 -0.05610726
5.7356091 5.0780134 -1.2133058 11 3 -0.056104954
8.7882862 7.7779541 1.4409832 27 11 -0.056102652
4.3948216 3.8882101 -0.72049159 30 4 -0.056100346
6.519547 5.765986 1.3785007 12 12 -0.056098044
4.4481635 3.9326355 -0.51944822 64 5 -0.056095738
5.2979822 4.6839628 1.3745881 14 13 -0.056093436
4.5764537 4.0446353 -0.32008675 33 6 -0.05609113
4.5711164 4.0385008 1.4081936 39 14 -0.056088828
6.5993891 5.8283877 -0.1536859 13 7 -0.056086522
4.1693993 3.6809969 1.4902802 33 15 -0.056084219
3.1083109 2.7374544 -1.1098161 14 0 -0.056063484
6.8892059 6.0651116 0.16021308 100 8 -0.056061178
3.6762562 3.2353597 -1.1306039 1 1 -0.056058876
6.6614699 5.8625541 0.46505737 2 9 -0.05605657
4.5045991 3.96296 -1.1662247 4 2 -0.056054268
6.8013697 5.9814644 0.79241997 69 10 -0.056051962
5.7547846 5.0592642 -1.2136188 11 3 -0.05604966
8.8168764 7.748538 1.441227 17 11 -0.056047354
4.3874884 3.8545041 -0.71707928 31 4 -0.056045052
6.5208254 5.7286878 1.3747462 32 12 -0.056042746
4.4761496 3.9310117 -0.52119136 41 5 -0.056040443
5.3054495 4.6576686 1.3722984 20 13 -0.056038138
4.5965481 4.033906 -0.32050541 34 6 -0.056035835
4.6086254 4.0430813 1.415392 16 14 -0.056033529
6.5946269 5.7853723 -0.15312742 29 7 -0.056031227
4.177227 3.6633282 1.4887272 67 15 -0.056028925
3.0960338 2.7075126 -1.1020516 13 0 -0.056008186
6.8776689 6.0145903 0.15948009 100 8 -0.056005884
3.6752286 3.2128894 -1.1270047 1 1 -0.056003578
6.5946679 5.7630367 0.45898637 2 9 -0.056001276
4.3823771 3.8283854 -1.1311158 2 2 -0.05599897
6.7336674 5.8803635 0.78213561 63 10 -0.055996668
5.7432613 5.0154638 -1.2076741 10 3 -0.055994362
8.864953 7.7388415 1.4448831 32 11 -0.055992059
4.3748193 3.8177462 -0.71293575 31 4 -0.055989753
6.5244102 5.6916056 1.3713048 7 12 -0.055987451
4.4853406 3.911433 -0.52066839 33 5 -0.055985145
6.0059476 5.2374759 1.5489874 26 13 -0.055982843
4.6129103 4.0212665 -0.32071477 24 6 -0.055980541
4.6763673 4.0751452 1.4320384 1 14 -0.055978235
6.6449394 5.7885861 -0.15382551 40 7 -0.055975933
4.2001843 3.6576085 1.4923507 67 15 -0.055973627
3.1006205 2.6934292 -1.1004987 14 0 -0.055952892
6.8140702 5.9171209 0.15752542 100 8 -0.055950586
3.6687593 3.1847136 -1.1216059 1 1 -0.055948284
11.375548 9.8712006 0.78933096 2 9 -0.055945978
4.37429 3.7958164 -1.1257731 2 2 -0.055943675
6.7832308 5.8841138 0.78562188 24 10 -0.055941369
5.7234244 4.9630303 -1.1998525 11 3 -0.055939067
8.9039106 7.7182536 1.446833 14 11 -0.055936765
4.3806186 3.7959507 -0.71171701 34 4 -0.055934459
6.5412521 5.6662068 1.3706789 3 12 -0.055932157
4.4982877 3.8965364 -0.52066839 34 5 -0.055929851
6.0152869 5.2087698 1.5466977 29 13 -0.055927549
4.7054443 4.0731115 -0.32615772 54 6 -0.055925243
5.1915994 4.4923463 1.5850052 13 14 -0.05592294
6.6000705 5.7091031 -0.1523246 34 7 -0.055920634
4.4686546 3.8640511 1.5829374 26 15 -0.055918332
3.1187813 2.6901596 -1.1036046 14 0 -0.055897593
6.6847515 5.7640209 0.15406984 23 8 -0.055895291
3.7034717 3.1922438 -1.1288043 1 1 -0.055892989
6.5772443 5.6673145 0.45500883 11 9 -0.055890683
6.6920176 5.7641802 0.77272278 100 10 -0.055886075
5.7272387 4.9314256 -1.1970366 12 3 -0.055883773
8.9157553 7.6741743 1.4443955 34 11 -0.055881467
4.3757849 3.7651005 -0.70879221 31 4 -0.055879164
6.5295382 5.6162934 1.3641087 3 12 -0.055876859
4.5239425 3.8912077 -0.5220629 33 5 -0.055874556
4.7256932 4.0618677 -0.32657638 74 6 -0.055869948
4.6662717 4.0093813 1.4203409 22 14 -0.055867642
6.6154094 5.6821189 -0.15221989 37 7 -0.05586534
4.5231562 3.8836656 1.5974313 18 15 -0.055863034
3.1266837 2.6780021 -1.1030868 12 0 -0.055842299
6.683567 5.7224431 0.15358117 2 8 -0.055839997
3.702749 3.1691587 -1.1252052 1 1 -0.055837691
11.802333 10.097981 0.81403357 68 9 -0.055835389
4.5304646 3.876229 -1.1589739 9 2 -0.055833083
6.8014317 5.8171892 0.78300714 69 10 -0.05583078
5.7248998 4.8947139 -1.1929693 39 3 -0.055828474
6.5823679 5.6258545 1.0631882 13 11 -0.055826172
4.3677721 3.7317493 -0.70537978 34 4 -0.055823866
6.5325813 5.5793533 1.3606671 3 12 -0.055821564
4.6208253 3.9465587 -0.53165001 57 5 -0.055819258
5.4199243 4.6274228 1.3852733 10 13 -0.055816956
4.7413616 4.0466452 -0.32668105 77 6 -0.05581465
5.2302456 4.4623194 1.5872546 45 14 -0.055812348
6.6473751 5.6693754 -0.15249914 32 7 -0.055810042
4.1632824 3.5495017 1.4659511 33 15 -0.055807739
3.1389565 2.6695738 -1.1041222 12 0 -0.055787005
6.5511513 5.5695515 0.15009069 10 8 -0.055784699
3.7123034 3.1549535 -1.1247553 5 1 -0.055782396
11.866432 10.081287 0.81602234 35 9 -0.05578009
4.5529456 3.8680167 -1.1612636 9 2 -0.055777788
6.6956515 5.6863647 0.76853937 20 10 -0.055775482
5.7344208 4.8683095 -1.1914051 36 3 -0.05577318
6.5928869 5.5951362 1.0617259 13 11 -0.055770874
4.3701768 3.7074897 -0.70367366 37 4 -0.055768572
6.5098319 5.5207424 1.3519068 3 12 -0.055766266
4.6968732 3.9832408 -0.53879678 58 5 -0.055763964
6.087472 5.1607289 1.5512772 26 13 -0.055761658
4.7783146 4.0494375 -0.32825115 77 6 -0.055759355
5.2368679 4.4364781 1.5845551 43 14 -0.055757049
6.6106601 5.5983219 -0.15120766 32 7 -0.055754747
4.1889181 3.5461802 1.4706099 18 15 -0.055752441
3.1408765 2.6523676 -1.1015339 11 0 -0.055715561
6.5705485 5.5466547 0.15009069 2 8 -0.055713259
3.7084014 3.1294067 -1.1202562 6 1 -0.055710953
11.925979 10.060407 0.81769705 63 9 -0.05570865
4.5544157 3.8419716 -1.1582106 11 2 -0.055706345
11.626009 9.8038979 1.3305196 30 10 -0.055704042
5.7755456 4.8686323 -1.1964109 28 3 -0.055701736
6.5713925 5.5375485 1.0551448 13 11 -0.055699434
4.3937182 3.7011657 -0.70537978 43 4 -0.055697128
6.4973345 5.4712644 1.3453366 5 12 -0.055694826
4.7214179 3.9758034 -0.54001695 61 5 -0.05569252
5.5617428 4.6817641 1.4131315 32 13 -0.055690218
4.801589 4.0404506 -0.32887918 63 6 -0.055687912
5.2627625 4.4269505 1.5877045 45 14 -0.05568561
6.6286335 5.5739245 -0.15117276 41 7 -0.055683304
4.0386024 3.3948007 1.4136697 1 15 -0.055681001
3.142714 2.6351821 -1.0989457 12 0 -0.055660266
6.5561562 5.4954228 0.14932279 2 8 -0.05565796
3.7252769 3.1214504 -1.1220559 6 1 -0.055655658
12.031452 10.077713 0.82251197 35 9 -0.055653352
4.5708084 3.828573 -1.1589739 11 2 -0.05565105
6.5060439 5.4476218 0.7423926 15 10 -0.055648744
6.5632768 5.4916477 1.0507576 12 11 -0.055644136
4.4096556 3.6883543 -0.70586729 42 4 -0.055641834
6.523972 5.4548845 1.3469009 2 12 -0.055639528
4.7505536 3.9720774 -0.54176009 66 5 -0.055637226
5.5193028 4.6132193 1.3982484 34 13 -0.05563492
4.8325224 4.0377526 -0.33003056 52 6 -0.055632617
4.7711554 3.9850612 1.4351877 22 14 -0.055630311
6.6511178 5.5533161 -0.15124255 41 7 -0.055628009
4.6510954 3.8820302 1.6233131 35 15 -0.055625703
3.1548629 2.6266673 -1.099981 13 0 -0.055604968
6.5860562 5.4814596 0.14956713 13 8 -0.055602666
3.7256644 3.0997021 -1.1189066 8 1 -0.05560036
12.109555 10.07141 0.82544273 100 9 -0.055598058
4.5901833 3.817615 -1.1605004 11 2 -0.055595752
6.5771089 5.4681869 0.74831921 65 10 -0.05559345
4.61379 3.8345246 -0.95018309 2 3 -0.055591144
9.0819216 7.5453134 1.4497578 13 11 -0.055588841
4.4255571 3.6754766 -0.7063548 40 4 -0.055586535
6.5551305 5.4421744 1.3494039 1 12 -0.055584233
4.7735868 3.9631078 -0.54280597 88 5 -0.055581927
5.5550132 4.6102233 1.4032094 7 13 -0.055579625
4.848125 4.0221334 -0.33013523 17 6 -0.055577319
5.28754 4.3851256 1.585905 53 14 -0.055575017
6.7166481 5.5683527 -0.1522897 52 7 -0.055572715
4.6646185 3.8657701 1.6233131 39 15 -0.055570409
3.1699684 2.6205633 -1.1020516 12 0 -0.055549674
6.6436877 5.4902816 0.15043975 55 8 -0.055547368
3.7364609 3.086679 -1.1189066 8 1 -0.055545066
12.175436 10.054516 0.82753623 100 9 -0.05554276
4.5913701 3.791569 -1.1574475 14 2 -0.055540457
6.5669637 5.4210935 0.74500728 90 10 -0.055538151
4.6225753 3.814625 -0.94924444 1 3 -0.055535849
6.5493913 5.4027443 1.0424705 12 11 -0.055533543
4.4444871 3.6650569 -0.70732975 40 4 -0.055531241
6.5740862 5.4192605 1.3494039 1 12 -0.055528939
4.8119884 3.9666986 -0.54559493 77 5 -0.055526633
5.6210694 4.6320066 1.4158028 20 13 -0.055524331
6.9725537 5.7436461 -0.47343111 62 6 -0.055522025
5.3133445 4.3753147 1.5890542 45 14 -0.055519722
6.736043 5.5448747 -0.1522897 65 7 -0.055517416
4.1619425 3.424747 1.4442104 16 15 -0.055515114
3.1776037 2.6082554 -1.1015339 12 0 -0.055494376
6.5746975 5.3947535 0.14845017 31 8 -0.055492073
3.7457054 3.0723825 -1.1184566 8 1 -0.055489767
12.247315 10.045753 0.83015299 100 9 -0.055487465
4.6015415 3.7730279 -1.1566842 14 2 -0.055485159
6.5611949 5.3779283 0.74221832 78 10 -0.055482857
5.8001747 4.7524657 -1.1876506 1 3 -0.055480555
9.1251612 7.4741778 1.4482955 14 11 -0.055478249
4.4541821 3.6470039 -0.70684224 40 4 -0.055475947
6.5767379 5.3849139 1.3462751 1 12 -0.055473641
4.8258047 3.9498787 -0.54559493 77 5 -0.055471338
5.6508799 4.6235447 1.4192374 47 13 -0.055469032
6.9276304 5.6661625 -0.46903491 65 6 -0.05546673
5.3300924 4.3579755 1.5895041 45 14 -0.055464424
6.7358146 5.507318 -0.15187085 64 7 -0.055462122
4.1942186 3.4280412 1.4514573 16 15 -0.055459816
3.1821954 2.5934865 -1.099981 12 0 -0.055439081
6.8979187 5.6217976 0.15532643 21 8 -0.055436775
3.7619169 3.0648665 -1.1202562 8 1 -0.055434473
12.322575 10.035731 0.83287448 100 9 -0.055432171
4.6025033 3.7470279 -1.1536313 14 2 -0.055429865
6.5552006 5.3348718 0.7394293 60 10 -0.055427562
5.7944541 4.7157474 -1.1832705 6 3 -0.055425256
6.5906353 5.3617978 1.0432017 46 11 -0.055422954
4.4785719 3.6422341 -0.70879221 42 4 -0.055420648
7.4507775 6.0572438 1.520856 18 12 -0.055418346
4.8395643 3.9330082 -0.54559493 73 5 -0.05541604
5.6707511 4.6084957 1.4203823 49 13 -0.055413738
7.0595441 5.7350926 -0.47667596 65 6 -0.055411432
5.3430028 4.3390465 1.5890542 43 14 -0.05540913
6.7270536 5.4610839 -0.15124255 14 7 -0.055406824
4.7116795 3.8236167 1.6259012 35 15 -0.055404522
3.1877749 2.5804896 -1.0989457 12 0 -0.055383787
6.9283805 5.606492 0.15557076 18 8 -0.055381481
3.7741084 3.0529411 -1.1207062 8 1 -0.055379178
6.4979134 5.2544031 0.4379473 18 9 -0.055376872
4.6225357 3.7379179 -1.1555393 14 2 -0.05537457
6.5465136 5.2918129 0.73646605 72 10 -0.055372264
5.795517 4.6830754 -1.1801417 7 3 -0.055369962
6.620122 5.3474889 1.0449078 100 11 -0.055367656
4.503613 3.6365564 -0.71074206 43 4 -0.055365354
7.4718776 6.0311971 1.520856 30 12 -0.055363048
4.8293257 3.8981655 -0.54298031 70 5 -0.055360746
5.7158346 4.6120958 1.4276329 40 13 -0.05535844
6.5618467 5.2928562 -0.44182017 43 6 -0.055356137
4.8544669 3.914263 1.4396867 15 14 -0.055353831
6.5997276 5.3196049 -0.14796151 21 7 -0.055351529
4.7204823 3.803514 1.6243484 39 15 -0.055349223
3.1982694 2.5705557 -1.0994633 12 0 -0.055328488
6.706284 5.3881378 0.15016051 7 8 -0.055326186
3.7786629 3.0348701 -1.1189066 9 1 -0.05532388
6.5271182 5.2404399 0.43867999 100 9 -0.055321578
4.6340256 3.7205291 -1.1551577 14 2 -0.055319272
6.552516 5.2589507 0.73507148 100 10 -0.05531697
5.799499 4.6529312 -1.1776388 7 3 -0.055314664
6.5969353 5.2908154 1.0383269 72 11 -0.055312362
4.5286708 3.6307461 -0.71269196 45 4 -0.055310056
7.4897985 6.0026135 1.5202303 30 12 -0.055307753
4.8600025 3.8949935 -0.54489768 60 5 -0.055305447
5.7487516 4.6056194 1.4318308 46 13 -0.055303145
4.8985276 3.9216511 1.4486848 28 14 -0.055298537
6.6869512 5.3515134 -0.1494973 7 7 -0.055296235
4.7367482 3.7894254 1.6253836 39 15 -0.055293929
3.2087333 2.56058 -1.099981 13 0 -0.055273194
6.9876738 5.5741968 0.15602452 2 8 -0.055270888
3.7846637 3.0180156 -1.1175569 11 1 -0.055268586
6.5225978 5.2013345 0.43721461 100 9 -0.05526628
4.6485205 3.7055531 -1.1555393 11 2 -0.055263977
6.5381107 5.2099729 0.73141098 63 10 -0.055261672
5.8187971 4.635119 -1.1782646 7 3 -0.055259369
6.5905185 5.2479692 1.0344272 25 11 -0.055257063
4.5468988 3.6206536 -0.71366698 45 4 -0.055254761
7.5251193 5.9900436 1.5233591 30 12 -0.055252455
4.8829241 3.8854475 -0.54594356 33 5 -0.055250153
6.2487798 4.9705019 1.5520406 33 13 -0.055247851
6.4126062 5.0989938 -0.42936423 0 6 -0.055245545
4.9038758 3.8993242 1.4464353 30 14 -0.055243243
6.7140517 5.3367763 -0.14970674 11 7 -0.055240937
4.2078099 3.3434465 1.4400692 13 15 -0.055238634
3.2172065 2.549926 -1.099981 12 0 -0.055217896
12.031091 9.5323143 0.26792935 23 8 -0.055215593
3.7977068 3.0078673 -1.1184566 11 1 -0.055213287
6.5413771 5.1809144 0.43731928 60 9 -0.055210985
4.651547 3.6828065 -1.1532496 14 2 -0.055208679
6.5287924 5.1672449 0.72844774 76 10 -0.055206377
5.821744 4.6059904 -1.1757616 7 3 -0.055204071
9.2781286 7.3379478 1.452439 11 11 -0.055201769
4.5697784 3.6141765 -0.7153731 46 4 -0.055199467
7.5356421 5.9577074 1.5214819 33 12 -0.055197161
4.908288 3.8791151 -0.54733807 23 5 -0.055194858
6.2790909 4.9607077 1.555475 34 13 -0.055192553
6.4200749 5.0702758 -0.42873621 1 6 -0.05519025
5.3816929 4.2502098 1.5832055 53 14 -0.055187944
6.5496488 5.1707454 -0.14565779 33 7 -0.055185642
4.2097745 3.3222945 1.4369633 41 15 -0.055183336
3.2180533 2.5332711 -1.0973928 11 0 -0.055162601
12.109781 9.5294609 0.26897648 28 8 -0.055160295
3.8030646 2.991643 -1.1171069 9 1 -0.055157993
12.7028 9.9889336 0.84690052 80 9 -0.055155687
4.6705475 3.6714017 -1.1547761 9 2 -0.055153385
6.5349283 5.1369448 0.72722757 78 10 -0.055151083
5.8338785 4.5842204 -1.1751359 7 3 -0.055148777
9.3133402 7.315721 1.4541451 26 11 -0.055146474
4.5948558 3.6080117 -0.71732301 49 4 -0.055144168
6.5075421 5.1080723 1.3102952 12 12 -0.055141866
6.302547 4.9436078 1.5570016 33 13 -0.055137258
6.4125891 5.0281148 -0.42706147 1 6 -0.055134952
5.4195008 4.249434 1.589954 40 14 -0.05513265
6.7549472 5.2946491 -0.14981146 18 7 -0.055130344
4.2198243 3.3063891 1.4364457 58 15 -0.055128042
3.2166624 2.5131314 -1.0937693 13 0 -0.055107307
12.168264 9.5034781 0.26950005 25 8 -0.055105001
3.8262918 2.9872789 -1.1207062 9 1 -0.055102699
12.769238 9.9656582 0.84888929 23 9 -0.055100393
4.666944 3.6409755 -1.1505783 2 2 -0.05509809
6.5238643 5.0896749 0.72391564 63 10 -0.055095784
5.825717 4.5433717 -1.17013 7 3 -0.055093482
9.3479185 7.2876415 1.4553638 27 11 -0.055091176
4.6268392 3.605788 -0.72024786 55 4 -0.055088874
6.5199866 5.0793319 1.3090436 13 12 -0.055086568
6.2799373 4.8905582 -0.69637436 1 5 -0.055084266
6.3144283 4.915648 1.555475 27 13 -0.05508196
6.4278202 5.0021248 -0.42685208 0 6 -0.055079658
5.1751285 4.0272813 1.5139207 24 14 -0.055077352
6.8169227 5.303009 -0.15075389 7 7 -0.055075049
4.2471657 3.3027585 1.4416221 13 15 -0.055072743
3.2365382 2.5096123 -1.0973928 12 0 -0.055052008
6.4689751 5.0142365 0.1428654 10 8 -0.055049706
3.820271 2.9601042 -1.1157572 8 1 -0.0550474
6.4959993 5.0315552 0.43062031 36 9 -0.055045098
4.5896034 3.5549333 -1.1284446 4 2 -0.055042792
6.525147 5.05231 0.72199816 69 10 -0.05504049
5.8376455 4.5183597 -1.1691914 9 3 -0.055038184
6.5155659 5.041255 1.0115156 13 11 -0.055035882
4.6510148 3.5973082 -0.72195405 57 4 -0.055033576
7.6090469 5.8830633 1.5233591 33 12 -0.055031274
6.2875118 4.8612962 -0.69532847 1 5 -0.055028968
5.8158283 4.4949846 1.4287778 28 13 -0.055026665
6.3883462 4.9356966 -0.42308393 0 6 -0.055024359
5.4767261 4.2298398 1.5976024 58 14 -0.055022057
6.5197415 5.0335803 -0.14377292 13 7 -0.055019751
4.6431084 3.5834291 1.5715494 7 15 -0.055017449
3.2514021 2.5030119 -1.0994633 9 0 -0.054996714
6.8176522 5.2465124 0.15016051 2 8 -0.054994408
3.829035 2.9455633 -1.1153073 8 1 -0.054992106
6.4850259 4.9869323 0.42873621 22 9 -0.0549898
4.6922507 3.6083028 -1.1505783 2 2 -0.054987498
6.5316854 5.0210042 0.72077799 76 10 -0.054985192
5.9176002 4.5473051 -1.182019 12 3 -0.054982889
9.3966789 7.2181444 1.4548763 24 11 -0.054980583
4.6635423 3.5810521 -0.72195405 55 4 -0.054978281
7.6295352 5.8564687 1.5233591 33 12 -0.054975975
6.2886372 4.827189 -0.6935854 1 5 -0.054973673
5.8283691 4.4722643 1.4280145 22 13 -0.054971367
6.3865175 4.8987808 -0.42182785 0 6 -0.054969065
5.4713531 4.1952829 1.5917536 37 14 -0.054966763
6.5277519 5.0034919 -0.14356351 9 7 -0.054964457
4.709259 3.6083241 1.5896666 7 15 -0.054962154
3.258584 2.4904749 -1.0989457 13 0 -0.054941416
6.8105016 5.2032561 0.14960203 2 8 -0.054939114
3.8454895 2.9369099 -1.1171069 9 1 -0.054936808
6.4722304 4.9412384 0.42674741 27 9 -0.054934505
4.7094984 3.5954769 -1.1517231 9 2 -0.054932199
6.5159125 4.9727879 0.71711749 78 10 -0.054929897
5.9397202 4.5314116 -1.1832705 9 3 -0.054927591
9.4233952 7.1865053 1.4551201 11 11 -0.054925289
4.6949592 3.5791922 -0.72487891 52 4 -0.054922983
7.64679 5.827404 1.5227332 30 12 -0.054920681
6.2832646 4.7882996 -0.691145 1 5 -0.054918379
5.865808 4.4685493 1.4333572 41 13 -0.054916073
6.4035797 4.8764563 -0.42182785 0 6 -0.05491377
5.5293794 4.2092104 1.6043509 11 14 -0.054911464
6.4862967 4.9358706 -0.14227203 36 7 -0.054909162
4.7910166 3.644495 1.6129603 11 15 -0.054906856
3.2580233 2.4720795 -1.0958399 12 0 -0.054886121
6.4717393 4.9087558 0.14178336 21 8 -0.054883815
3.8541646 2.9222922 -1.116657 8 1 -0.054881513
13.10303 9.9313364 0.86165929 66 9 -0.054879207
4.7282782 3.5837605 -1.1532496 11 2 -0.054876905
6.5252919 4.943995 0.71624589 85 10 -0.054874603
5.8940878 4.4641385 -1.1710685 11 3 -0.054872297
9.4579182 7.1607594 1.4565825 14 11 -0.054869995
4.734334 3.5831461 -0.7290225 40 4 -0.054867689
7.6670842 5.8006783 1.5227332 30 12 -0.054865386
6.2649841 4.739893 -0.68731016 1 5 -0.05486308
6.4403839 4.8708229 1.569595 8 13 -0.054860778
6.3918867 4.8323917 -0.41994375 1 6 -0.054858472
5.528491 4.1781349 1.599852 16 14 -0.05485617
6.498702 4.9095817 -0.14216731 21 7 -0.054853864
4.8592091 3.6696601 1.6315954 45 15 -0.054851562
3.2589166 2.4548805 -1.0932516 12 0 -0.054830823
6.4600787 4.8644838 0.14115506 21 8 -0.054828521
3.8658991 2.9099917 -1.1171069 8 1 -0.054826219
13.185362 9.9250641 0.86490411 100 9 -0.054823913
4.7407579 3.567235 -1.1532496 14 2 -0.05482161
6.5106645 4.8972363 0.71275967 72 10 -0.054819304
5.6380734 4.2393436 -1.1172551 11 3 -0.054817002
9.5066595 7.1455894 1.4602386 31 11 -0.054814696
4.7737913 3.5868709 -0.73316604 11 4 -0.054812394
7.6862788 5.775219 1.5227332 30 12 -0.054810088
6.2400727 4.686883 -0.68277812 1 5 -0.054807786
6.4133854 4.8153071 1.5589095 15 13 -0.05480548
6.387949 4.7944655 -0.41858301 1 6 -0.054803178
5.0426722 3.7833943 1.4554334 22 14 -0.054800872
6.5021496 4.8784046 -0.14188807 13 7 -0.05479857
4.8605323 3.6454134 1.6279719 43 15 -0.054796264
3.2767494 2.4504309 -1.0963575 12 0 -0.054775529
6.4953914 4.8574076 0.14157392 7 8 -0.054773226
3.8708448 2.8936565 -1.1157572 9 1 -0.05477092
13.27592 9.9208241 0.86856759 34 9 -0.054768618
4.7437449 3.5436137 -1.1509598 11 2 -0.054766312
6.4989848 4.8530197 0.70962203 72 10 -0.05476401
5.6505194 4.2194409 -1.1169422 12 3 -0.054761704
6.4792056 4.8364935 0.99274784 15 11 -0.054759402
6.1204886 4.5670614 -0.93766278 1 4 -0.054757096
7.7095599 5.7507138 1.5233591 25 12 -0.054754794
6.2659769 4.6722198 -0.68382394 1 5 -0.054752488
6.4245963 4.790494 1.5577648 25 13 -0.054750185
6.3877983 4.7613211 -0.41753629 0 6 -0.05474788
5.0645676 3.7736361 1.4581327 45 14 -0.054745577
6.498291 4.8401475 -0.1414343 29 7 -0.054743271
4.281312 3.1877079 1.4302342 15 15 -0.054740969
3.284858 2.4395504 -1.0963575 10 0 -0.054720234
6.5123081 4.8347034 0.14157392 18 8 -0.054717928
3.8793566 2.8789663 -1.1153073 9 1 -0.054715626
13.356859 9.9124556 0.87170774 100 9 -0.05471332
4.768085 3.53722 -1.1540129 9 2 -0.054711018
6.5070395 4.8255086 0.70875043 31 10 -0.054708712
5.6588631 4.1949897 -1.1156907 13 3 -0.05470641
9.5518885 7.0783505 1.4597511 33 11 -0.054704104
6.1132722 4.5301914 -0.93425047 1 4 -0.054701801
7.7254119 5.7227669 1.5227332 13 12 -0.054699495
6.252614 4.6300745 -0.68068635 1 5 -0.054697193
6.2598138 4.6337094 1.5138787 33 13 -0.054694887
6.3851151 4.7247367 -0.41628024 0 6 -0.054692585
5.0801859 3.7591403 1.4590325 20 14 -0.054690279
6.4853654 4.7971716 -0.14080602 10 7 -0.054687977
4.3058395 3.1838288 1.4348928 71 15 -0.054685675
3.2960386 2.430938 -1.0973928 11 0 -0.054664936
6.5444007 4.824945 0.14192297 21 8 -0.054662634
3.8857458 2.8637731 -1.1144075 8 1 -0.054660328
13.416992 9.8882494 0.87348717 34 9 -0.054658026
4.7766266 3.5190611 -1.1532496 11 2 -0.05465572
6.4171243 4.725925 0.6972459 36 10 -0.054653417
5.6759257 4.1785412 -1.1163164 15 3 -0.054651111
9.5785046 7.0489912 1.4602386 21 11 -0.054648809
6.070703 4.4675384 -0.9254759 1 4 -0.054646503
7.7523046 5.7029672 1.5242976 13 12 -0.054644201
6.2486734 4.5951486 -0.67859459 1 5 -0.054641895
5.9208131 4.3524542 1.4283962 39 13 -0.054639593
6.3685603 4.6798816 -0.41418681 0 6 -0.054637291
5.6139793 4.1253839 1.6084001 17 14 -0.054634985
6.5705376 4.8265419 -0.14230692 42 7 -0.054632682
4.3179307 3.1706769 1.4354105 18 15 -0.054630376
3.2931726 2.412003 -1.0937693 11 0 -0.054609641
6.5022779 4.760694 0.1406664 26 8 -0.054607335
3.8983653 2.8531742 -1.1153073 8 1 -0.054605033
13.51107 9.884985 0.87735999 100 9 -0.054602727
4.8041158 3.5147927 -1.1570657 7 2 -0.054600425
6.4118538 4.6893301 0.69497991 27 10 -0.054598119
5.681777 4.1538687 -1.1147522 19 3 -0.054595817
9.6034327 7.0183582 1.4604822 17 11 -0.054593515
6.0926733 4.4510021 -0.92645079 1 4 -0.054591209
7.7705655 5.6747122 1.5239848 13 12 -0.054588906
6.2260561 4.5451126 -0.67441112 1 5 -0.054586601
5.936801 4.333952 1.4287778 37 13 -0.054584298
6.3840432 4.6587381 -0.41418681 0 6 -0.054581992
5.4268241 3.9587626 1.5508126 12 14 -0.05457969
6.6002717 4.8130007 -0.14258616 67 7 -0.054577384
4.9315634 3.5948393 1.6352189 5 15 -0.054575082
3.2973025 2.3965101 -1.0922165 9 0 -0.054554343
6.5010633 4.7250333 0.14028244 52 8 -0.054552041
3.8972659 2.8315299 -1.1121581 8 1 -0.054549739
13.59235 9.871809 0.88039553 40 9 -0.054547433
4.8185539 3.4983158 -1.1574475 7 2 -0.054545131
6.4064221 4.649416 0.69253951 20 10 -0.054542825
5.6921654 4.1295371 -1.1138135 21 3 -0.054540522
9.6471481 6.9987874 1.4634072 31 11 -0.054538216
6.0921025 4.4180551 -0.92401344 1 4 -0.054535914
6.4708819 4.6910272 1.2658678 32 12 -0.054533608
6.2160716 4.5046444 -0.67162216 1 5 -0.054531306
5.9637737 4.3202271 1.4314492 39 13 -0.054529
6.3557801 4.60251 -0.41125599 0 6 -0.054526698
5.641777 4.0839634 1.6079501 9 14 -0.054524392
6.6024551 4.7793779 -0.14227203 67 7 -0.05452209
4.9425159 3.5764718 1.6347013 7 15 -0.054519784
3.3087814 2.3872454 -1.0932516 12 0 -0.054499049
6.4810343 4.6742721 0.13947964 82 8 -0.054496747
3.9076173 2.8172276 -1.1121581 8 1 -0.054494441
13.69326 9.8686237 0.8845824 34 9 -0.054492138
4.8116241 3.4676991 -1.152868 7 2 -0.054489832
6.4500933 4.6468253 0.69550282 18 10 -0.05448753
5.6953263 4.1015606 -1.1116234 28 3 -0.054485224
6.4345317 4.6321988 0.97349238 19 11 -0.054482922
6.1082535 4.3956981 -0.92401344 1 4 -0.054480616
7.8510628 5.6478009 1.5318065 12 12 -0.054478314
6.2098932 4.465548 -0.66918176 2 5 -0.054476008
6.5000324 4.6741877 1.5562382 32 13 -0.054473706
6.3718057 4.5802975 -0.41125599 0 6 -0.0544714
5.6275101 4.0437794 1.599852 4 14 -0.054469097
6.4753804 4.6513186 -0.13916549 52 7 -0.054466791
4.9555922 3.5583315 1.6347013 13 15 -0.054464489
3.3237922 2.3796015 -1.0953223 12 0 -0.054443754
6.49406 4.6492906 0.13940983 90 8 -0.054441448
3.9158435 2.8024352 -1.1117082 8 1 -0.054439146
13.756859 9.8416939 0.88646656 66 9 -0.05443684
4.8147187 3.4431891 -1.1505783 7 2 -0.054434538
6.463841 4.6208344 0.69515419 13 10 -0.054432232
5.7183557 4.0864019 -1.1131878 36 3 -0.05442993
9.6856785 6.9214964 1.461701 14 11 -0.054427624
6.0977168 4.355886 -0.92011362 1 4 -0.054425322
7.8787684 5.6260991 1.5333707 15 12 -0.054423016
6.2351718 4.4507909 -0.67022765 1 5 -0.054420713
6.5426903 4.6685801 1.5623442 31 13 -0.054418407
6.3462763 4.5267563 -0.4085345 1 6 -0.054416105
5.6470547 4.0265193 1.6012017 16 14 -0.054413799
6.6902151 4.7703238 -0.14342389 49 7 -0.054411497
5.0010176 3.5645592 1.6455716 15 15 -0.054409191
3.3343995 2.3713875 -1.0963575 11 0 -0.054393291
6.4638062 4.5952883 0.13843249 82 8 -0.054390989
3.9314694 2.7939487 -1.1135077 9 1 -0.054388683
13.861063 9.8469095 0.89107209 94 9 -0.054386381
4.838316 3.4371433 -1.1536313 7 2 -0.054384075
6.4295907 4.5658984 0.68992484 29 10 -0.054381773
5.7150607 4.0569787 -1.110059 36 3 -0.054379467
9.726388 6.9019732 1.4643822 3 11 -0.054377165
6.0700302 4.3057809 -0.9137764 1 4 -0.054374859
7.9054408 5.6056523 1.5349351 13 12 -0.054372557
6.2401438 4.4231777 -0.66918176 1 5 -0.054370251
6.0127487 4.2619944 1.4325941 13 13 -0.054367948
6.3474283 4.49756 -0.40769714 0 6 -0.054365642
5.6342335 3.9907351 1.5940032 1 14 -0.05436334
6.7174196 4.7562017 -0.1436682 56 7 -0.054361034
5.0270019 3.5580013 1.6502303 15 15 -0.054358732
3.3367541 2.3546956 -1.0942869 12 0 -0.054337997
6.4781723 4.5715456 0.13839759 85 8 -0.054335691
3.9427888 2.7813344 -1.1139576 9 1 -0.054333389
13.932894 9.824934 0.89347953 89 9 -0.054331083
4.8380446 3.4103363 -1.1505783 4 2 -0.054328781
6.4739714 4.5618095 0.69288814 9 10 -0.054326475
5.7218165 4.0303178 -1.1084948 34 3 -0.054324172
9.7617826 6.8759789 1.4660883 3 11 -0.054321866
6.0947633 4.2914219 -0.91523886 1 4 -0.054319564
7.8571143 5.5302715 1.5217947 88 12 -0.054317258
6.2262154 4.3807302 -0.66604418 1 5 -0.054314956
6.0010309 4.220726 1.4261066 16 13 -0.05431265
6.3344612 4.4535866 -0.40581304 1 6 -0.054310348
5.10355 3.5868356 1.4401367 1 14 -0.054308042
6.7192583 4.7223744 -0.14335407 9 7 -0.05430574
4.3818049 3.0784423 1.4348928 35 15 -0.054303434
3.3386247 2.3385997 -1.0922165 12 0 -0.054282699
6.4752293 4.5340056 0.13797872 100 8 -0.054280397
3.9529572 2.7668636 -1.1139576 8 1 -0.054278091
6.3985519 4.4769888 0.40926722 25 9 -0.054275788
4.8579621 3.3990567 -1.1524864 7 2 -0.054273482
6.4539356 4.5140619 0.6890533 6 10 -0.05427118
5.7212787 4.0001349 -1.1056789 40 3 -0.054268874
9.7804089 6.8356075 1.4651133 3 11 -0.054266572
6.0876679 4.2531395 -0.91182649 1 4 -0.054264266
6.5784793 4.5943313 1.2708738 11 12 -0.054261964
6.2120681 4.3384337 -0.66290659 1 5 -0.054259658
6.0269952 4.2076206 1.4287778 20 13 -0.054257356
6.3368649 4.4223051 -0.40497568 1 6 -0.05425505
5.1512017 3.5935266 1.4500345 1 14 -0.054252747
6.692234 4.6668339 -0.14241165 1 7 -0.054250445
4.3930578 3.0623622 1.4348928 35 15 -0.054248139
3.3515267 2.3302391 -1.0937693 12 0 -0.054227404
6.4499645 4.4828458 0.13710611 100 8 -0.054225098
3.9401865 2.7374809 -1.107659 8 1 -0.054222796
14.116035 9.8035917 0.90070188 31 9 -0.05422049
4.8746357 3.3854365 -1.1536313 4 2 -0.054218188
6.4041872 4.4460588 0.68208081 20 10 -0.054215882
5.7335849 3.9790115 -1.1053661 48 3 -0.05421358
9.8058424 6.8025546 1.4653571 54 11 -0.054211274
6.1253138 4.2477021 -0.91523886 1 4 -0.054208972
6.5912285 4.5690904 1.2702481 55 12 -0.054206669
6.2058868 4.3019686 -0.66064054 2 5 -0.054204363
6.041647 4.1865554 1.4287778 14 13 -0.054202061
6.3325601 4.3865123 -0.4037196 0 6 -0.054199755
5.1204557 3.545572 1.4378871 3 14 -0.054197453
6.4486952 4.4636235 -0.13689667 22 7 -0.054195147
4.402133 3.0459089 1.4343752 7 15 -0.054192845
3.3660002 2.3229158 -1.0958399 12 0 -0.054172106
6.4655743 4.4603024 0.13710611 100 8 -0.054169804
3.9625516 2.7325616 -1.1112581 8 1 -0.054167498
14.204433 9.7916689 0.90415609 100 9 -0.054165196
4.8864226 3.3684015 -1.1536313 4 2 -0.05416289
6.4229503 4.4259362 0.68242943 31 10 -0.054160587
5.7425585 3.9556129 -1.1044275 45 3 -0.054158285
6.4500141 4.4412665 0.96154922 34 11 -0.054155979
6.1139421 4.2082853 -0.91133898 1 4 -0.054153677
6.5908632 4.5348597 1.2671193 15 12 -0.054151371
6.2389197 4.2927041 -0.66255796 1 5 -0.054149069
6.0772514 4.1799049 1.4337388 42 13 -0.054146763
6.3247929 4.3485374 -0.40225419 1 6 -0.054144461
5.1665263 3.5508571 1.4473351 1 14 -0.054142155
6.4543467 4.4342937 -0.13668725 16 7 -0.054139853
4.4302549 3.0425551 1.4400692 45 15 -0.054137547
3.3661191 2.3056922 -1.0932516 12 0 -0.054116812
6.4646058 4.4264064 0.13675706 100 8 -0.054114506
3.9688492 2.7165124 -1.1103585 8 1 -0.054112203
14.278089 9.7690897 0.90666825 93 9 -0.054109901
4.8851891 3.3424537 -1.1505783 4 2 -0.054107595
6.4449401 4.4079862 0.68312669 6 10 -0.054105293
5.7481766 3.92997 -1.1028631 50 3 -0.054102987
6.4769516 4.4265633 0.96325535 75 11 -0.054100685
6.0794225 4.1533222 -0.90402687 1 4 -0.054098379
6.5316124 4.4605808 1.2527274 11 12 -0.054096077
6.2242494 4.2506757 -0.65942037 1 5 -0.054093771
6.1047773 4.1675196 1.4367918 54 13 -0.054091468
6.3300371 4.3196769 -0.40162617 0 6 -0.054089162
5.1788888 3.5328019 1.4473351 1 14 -0.05408686
6.4714394 4.4128618 -0.13672216 7 7 -0.054084554
4.4488306 3.0325115 1.4426575 15 15 -0.054082252
3.3661578 2.2885001 -1.0906636 11 0 -0.054061517
6.4552078 4.3869553 0.13623348 95 8 -0.054059211
3.9718604 2.6982608 -1.1085589 8 1 -0.054056909
6.4315863 4.3692613 0.40748778 25 9 -0.054054603
4.8854575 3.3176615 -1.147907 7 2 -0.054052301
6.4108324 4.3518934 0.67789733 27 10 -0.054049995
5.7618608 3.9098797 -1.1028631 51 3 -0.054047693
6.459506 4.3816414 0.95838058 76 11 -0.054045387
6.1004543 4.1365333 -0.90500182 1 4 -0.054043084
6.5332904 4.4300265 1.2502245 11 12 -0.054040778
6.222558 4.2177429 -0.65767723 1 5 -0.054038476
6.1127863 4.1417809 1.4352653 42 13 -0.05403617
6.3285394 4.2863555 -0.40057945 1 6 -0.054033868
5.2266908 3.5387371 1.457233 1 14 -0.054031562
6.4727888 4.3824096 -0.13644291 6 7 -0.05402926
5.0556178 3.421622 1.6357363 35 15 -0.054026954
3.372525 2.2756546 -1.0901459 12 0 -0.054006219
6.4431968 4.34763 0.135675 60 8 -0.054003917
3.9920959 2.6927016 -1.1117082 9 1 -0.054001611
6.438518 4.3412032 0.40696445 17 9 -0.053999308
4.9018917 3.3038809 -1.1490518 4 2 -0.053997003
6.4358997 4.3361664 0.67894322 49 10 -0.0539947
5.7567749 3.8786085 -1.0994215 46 3 -0.053992394
6.4921117 4.372396 0.96106172 61 11 -0.053990092
6.1059036 4.1107388 -0.90378314 11 4 -0.053987786
6.5470762 4.4060893 1.2499115 15 12 -0.053985484
6.1876502 4.1626315 -0.65244788 1 5 -0.053983178
6.6265764 4.4579115 1.5524222 23 13 -0.053980876
6.3427176 4.265347 -0.40057945 0 6 -0.05397857
5.2561884 3.5333431 1.4621819 3 14 -0.053976268
6.7652302 4.5460453 -0.14227203 1 7 -0.053973965
5.0659251 3.40288 1.6352189 43 15 -0.053971659
3.3800535 2.2644577 -1.0901459 11 0 -0.053950924
6.4201198 4.2995186 0.1348722 62 8 -0.053948618
