# .PCD v0.7 - Point Cloud Data file format
VERSION 0.7
FIELDS x y z intensity ring time
SIZE 4 4 4 4 2 4
TYPE F F F F U F
COUNT 1 1 1 1 1 1
WIDTH 911
HEIGHT 1
VIEWPOINT 0 0 0 1 0 0 0
POINTS 911
DATA ascii
-0.82771492 0.80099177 0.020105172 3 8 -0.026155194
-0.4256461 0.4120478 -0.13677025 43 1 -0.02615289
-0.92829585 0.89895302 0.06772273 100 9 -0.026150586
-0.43149155 0.41799837 -0.11677512 10 2 -0.026148282
-0.93287337 0.90401703 0.11365108 100 10 -0.02614598
-0.93500072 0.90639508 0.15989259 100 11 -0.026141372
-0.92585623 0.89815748 0.20430344 100 12 -0.026136763
-0.89465821 0.86819589 0.24232745 78 13 -0.026132155
-0.87795717 0.852584 0.28253853 90 14 -0.026127547
-0.95383132 0.92658895 -0.023211701 8 7 -0.026125243
-0.89499116 0.86973292 0.33439422 76 15 -0.026122939
-0.44004494 0.42867282 -0.16460893 64 0 -0.026102202
-0.94951034 0.925295 0.023141891 10 8 -0.0260999
-0.4325777 0.42169273 -0.13946965 41 1 -0.026097596
-0.93373173 0.91055453 0.06835077 100 9 -0.026095292
-0.44415867 0.43313372 -0.12059129 10 2 -0.026092988
-0.92701811 0.90432316 0.11330246 100 10 -0.026090683
-0.93183112 0.90965337 0.15989259 100 11 -0.026086075
-0.92271549 0.90138388 0.20430344 100 12 -0.026081467
-0.89723867 0.87680221 0.24385393 85 13 -0.026076859
-0.90976727 0.88935584 -0.066676013 2 6 -0.026074555
-0.88751495 0.86790609 0.28658766 92 14 -0.026072251
-0.9405849 0.92012435 -0.022967368 25 7 -0.026069947
-0.88780755 0.8687982 0.33284131 77 15 -0.026067642
-0.43027145 0.42208913 -0.16150309 66 0 -0.026046908
-0.93200231 0.91459763 0.022792844 38 8 -0.026044603
-0.43110299 0.42320025 -0.13946965 55 1 -0.026042299
-0.93482268 0.91800642 0.068664782 100 9 -0.026039995
-0.4510487 0.44293493 -0.122881 10 2 -0.026037691
-0.9195919 0.90336454 0.11277953 100 10 -0.026035387
-0.93714398 0.92125034 0.16135503 100 11 -0.026030779
-0.92519611 0.91014028 0.2055549 100 12 -0.026026171
-0.88857526 0.87442064 0.24232745 83 13 -0.026021563
-0.9365474 0.92194992 -0.068874128 6 6 -0.026019258
-0.88309169 0.86963129 0.28613773 90 14 -0.026016954
-0.95303762 0.93883884 -0.023351319 21 7 -0.02601465
-0.88339329 0.87053627 0.33232367 76 15 -0.026012346
-0.43979031 0.43444967 -0.1656442 63 0 -0.025991611
-0.93022633 0.91925085 0.022827748 69 8 -0.025989307
-0.43239486 0.42744255 -0.14036946 68 1 -0.025987003
-0.94155371 0.93109441 0.069397487 100 9 -0.025984699
-0.45229179 0.44726747 -0.12364423 9 2 -0.025982395
-0.92493147 0.91497654 0.1138254 100 10 -0.025980091
-0.93110108 0.92172259 0.16086754 100 11 -0.025975483
-0.92622364 0.91753501 0.20649351 100 12 -0.025970874
-0.88551778 0.87751681 0.24232745 78 13 -0.025966266
-0.93899697 0.93083817 -0.069292814 11 6 -0.025963962
-0.88973671 0.88231385 0.28928703 96 14 -0.02596166
-0.94123685 0.93370974 -0.023141891 27 7 -0.025959356
-0.88583434 0.87905747 0.33439422 76 15 -0.025957052
-0.44778043 0.44559756 -0.16926767 61 0 -0.025936315
-0.92701161 0.92249256 0.022827748 88 8 -0.025934011
-0.41570833 0.41382602 -0.13542055 87 1 -0.025931707
-0.92697603 0.92310089 0.068560109 100 9 -0.025929403
-0.46177652 0.46000683 -0.12669718 19 2 -0.025927098
-0.92580569 0.92257923 0.11434833 100 10 -0.025924794
-0.92084861 0.91795981 0.15964885 100 11 -0.025920186
-0.93000793 0.92773783 0.20805787 100 12 -0.025915578
-0.88785315 0.88630486 0.24385393 81 13 -0.025910972
-0.92851281 0.92721671 -0.068769448 22 6 -0.025908668
-0.88236088 0.8814373 0.28793734 90 14 -0.025906364
-0.95636332 0.95536226 -0.023595655 76 7 -0.025904059
-0.88959295 0.88897204 0.3369824 79 15 -0.025901755
-0.44349316 0.44442284 -0.16823238 62 0 -0.025881018
-0.93209809 0.93437815 0.023037177 100 8 -0.025878714
-0.42382094 0.42500621 -0.13856986 70 1 -0.02587641
-0.92358643 0.92649221 0.068560109 100 9 -0.025874106
-0.45462388 0.45605418 -0.12517071 9 2 -0.025871802
-0.93101794 0.93427312 0.1153942 100 10 -0.025869498
-0.92168015 0.92554861 0.16038008 100 11 -0.025864892
-0.92242104 0.92693985 0.20711927 100 12 -0.025860284
-0.88752306 0.89218241 0.24461715 83 13 -0.025855675
-0.93512881 0.94036579 -0.06950216 21 6 -0.025853371
-0.87378317 0.87898374 0.28613773 88 14 -0.025851067
-0.94721699 0.95318729 -0.023456035 91 7 -0.025848763
-0.89041322 0.89633834 0.33853534 74 15 -0.025846459
-0.43785971 0.44185165 -0.16667947 63 0 -0.025825722
-0.9344601 0.94330865 0.023176797 100 8 -0.025823418
-0.43056217 0.43479103 -0.14126927 68 1 -0.025821116
-0.92877734 0.93822694 0.06918814 100 9 -0.025818812
-0.41711834 0.42136219 -0.11524864 10 2 -0.025816508
-0.91794086 0.92760396 0.11417402 100 10 -0.025814204
-0.92821431 0.93864059 0.16208623 100 11 -0.025809595
-0.91362578 0.92453384 0.20586778 100 12 -0.025804987
-0.54757488 0.55411255 -0.068155795 7 5 -0.025802683
-0.89268184 0.90365481 0.24690685 83 13 -0.025800379
-0.92342019 0.93509775 -0.068874128 5 6 -0.025798075
-0.88303095 0.89451003 0.29018685 92 14 -0.025795771
-0.93967038 0.95221764 -0.023351319 100 7 -0.025793467
-0.87642533 0.88843864 0.33439422 76 15 -0.025791163
-0.42682958 0.43373874 -0.16305602 87 0 -0.025770428
-0.92555225 0.94086272 0.023037177 98 8 -0.025768124
-0.42630911 0.43351239 -0.14036946 68 1 -0.025765819
-0.92706144 0.94272584 0.069292814 100 9 -0.025763515
-0.44317111 0.45081666 -0.122881 20 2 -0.025761211
-0.91609383 0.93222356 0.11434833 100 10 -0.025758907
-0.92632306 0.94329131 0.16232997 100 11 -0.025754299
-0.91609019 0.93319714 0.20711927 100 12 -0.025749691
-0.58889765 0.60010386 -0.073559448 5 5 -0.025747387
-0.88127303 0.8983565 0.24461715 85 13 -0.025745083
-0.88005978 0.89743334 0.29018685 96 14 -0.025740474
-0.9323079 0.95104444 -0.023246605 95 7 -0.02573817
-0.87617856 0.89409965 0.33542949 76 15 -0.025735866
-0.43889326 0.44896612 -0.16823238 62 0 -0.025715131
-0.91543913 0.93677557 0.022862652 80 8 -0.025712827
-0.41942215 0.42934781 -0.13856986 70 1 -0.025710523
-0.93230402 0.9543671 0.069920845 100 9 -0.025708219
-0.43344375 0.44385615 -0.12059129 20 2 -0.025705915
-0.91578072 0.93810803 0.11469696 100 10 -0.025703611
-0.92180365 0.94493699 0.16208623 100 11 -0.025699003
-0.91712785 0.94047254 0.20805787 100 12 -0.025694394
-0.62028283 0.63629347 -0.077742919 4 5 -0.02569209
-0.88102943 0.90408599 0.24538037 83 13 -0.025689786
-0.91842741 0.9427923 -0.068978801 1 6 -0.025687482
-0.88523775 0.90872216 0.29288626 94 14 -0.025685178
-0.94030994 0.96559203 -0.023525843 38 7 -0.025682874
-0.88264185 0.90668988 0.33905298 77 15 -0.025680572
-0.42528939 0.43794596 -0.16357364 64 0 -0.025659835
-0.91232765 0.93980616 0.022862652 58 8 -0.025657531
-0.40985328 0.42234534 -0.13587044 72 1 -0.025655227
-0.92340422 0.95188141 0.06950216 100 9 -0.025652923
-0.44555929 0.4594602 -0.12440747 19 2 -0.025650619
-0.91821337 0.94686055 0.1153942 100 10 -0.025648315
-0.91866505 0.94798863 0.16208623 100 11 -0.025643706
-0.91796219 0.94792521 0.20899647 86 12 -0.025639098
-0.64023042 0.66135901 -0.080531903 3 5 -0.025636794
-0.8805986 0.90997785 0.24614362 83 13 -0.025634492
-0.92346299 0.95460522 -0.069606826 2 6 -0.025632188
-0.8766408 0.90620399 0.29108664 96 14 -0.025629884
-0.96751612 1.0004932 -0.024293751 34 7 -0.02562758
-0.8794713 0.90976554 0.33905298 78 15 -0.025625275
-0.43574831 0.4520191 -0.16823238 62 0 -0.025604539
-0.91720229 0.95178342 0.023072081 33 8 -0.025602235
-0.42723057 0.44349304 -0.14216907 54 1 -0.02559993
-0.91990924 0.9552595 0.06950216 100 9 -0.025597626
-0.44931844 0.46674788 -0.12593395 19 2 -0.025595322
-0.92302716 0.95883214 0.11644007 100 10 -0.025593018
-0.9179368 0.95421064 0.16257372 100 11 -0.025588412
-0.9144817 0.95128334 0.20899647 86 12 -0.025583804
-0.63228005 0.65795481 -0.079834662 7 5 -0.0255815
-0.88541806 0.92169386 0.24843332 87 13 -0.025579195
-0.91165769 0.94933999 -0.068978801 1 6 -0.025576891
-0.87331349 0.90941095 0.29108664 96 14 -0.025574587
-0.94445491 0.98383653 -0.023805084 54 7 -0.025572283
-0.8841567 0.92134589 0.34215879 78 15 -0.025569979
-0.43275297 0.45221746 -0.16771474 62 0 -0.025549242
-0.92200184 0.9638086 0.023281511 25 8 -0.025546938
-0.42560211 0.44505602 -0.14216907 81 1 -0.025544634
-0.92054242 0.96295565 0.069816172 100 9 -0.02554233
-0.43412033 0.45412204 -0.12211777 20 2 -0.025540028
-0.90987122 0.95212537 0.11521988 100 10 -0.025537724
-0.92265904 0.96618247 0.16403615 100 11 -0.025533115
-0.91098887 0.95462877 0.20899647 74 12 -0.025528507
-0.64373446 0.67457181 -0.08157777 3 5 -0.025526203
-0.88219535 0.924779 0.24843332 85 13 -0.025523899
-0.9552024 1.00166 -0.072537638 2 6 -0.025521595
-0.86997443 0.9126057 0.29108664 99 14 -0.025519291
-0.93670398 0.9829486 -0.023700368 80 7 -0.025516987
-0.87810892 0.92178279 0.34112352 78 15 -0.025514683
-0.42584872 0.44812378 -0.1656442 63 0 -0.025493948
-0.91587704 0.9641217 0.023211701 36 8 -0.025491644
-0.43343937 0.45643064 -0.14531837 91 1 -0.02548934
-0.92267573 0.97195709 0.070234857 100 9 -0.025487036
-0.42712581 0.44993919 -0.12059129 30 2 -0.025484731
-0.91477078 0.96396732 0.11626577 100 10 -0.025482427
-0.91928107 0.96939707 0.16403615 100 11 -0.025477819
-0.9171623 0.96783966 0.21118654 65 12 -0.025473211
-0.66056228 0.69706136 -0.084018134 2 5 -0.025470907
-0.8789621 0.92785257 0.24843332 85 13 -0.025468603
-0.93934029 0.99193639 -0.071595594 8 6 -0.025466299
-0.87750113 0.92695862 0.29468587 94 14 -0.025463995
-0.93601614 0.98911732 -0.023770178 96 7 -0.025461691
-0.87488592 0.92484236 0.34112352 79 15 -0.025459386
-0.43091124 0.45663261 -0.16823238 62 0 -0.025438651
-0.90152848 0.9556759 0.022932461 55 8 -0.025436347
-0.41579989 0.44092751 -0.13991956 83 1 -0.025434043
-0.93040961 0.98663616 0.071072236 100 9 -0.025431739
-0.44036609 0.46714181 -0.12478909 29 2 -0.025429435
-0.91686594 0.97295457 0.116963 100 10 -0.025427131
-0.9186132 0.97549063 0.16452362 100 11 -0.025422523
-0.91665578 0.97375256 0.2118123 60 12 -0.025417915
-0.77008837 0.81834149 -0.09831167 1 5 -0.025415611
-0.8757177 0.9309153 0.24843332 87 13 -0.025413306
-0.9290309 0.98793435 -0.071072236 14 6 -0.025411002
-0.8770923 0.93270266 0.29558566 99 14 -0.025408698
-0.9354704 0.99512964 -0.023839988 100 7 -0.025406394
-0.87445998 0.93055415 0.34215879 79 15 -0.02540409
-0.43996432 0.46933442 -0.17237349 59 0 -0.025383355
-0.91886485 0.98054761 0.023456035 80 8 -0.025381051
-0.41833219 0.44657052 -0.14126927 81 1 -0.025378747
-0.9230364 0.98534334 0.070758224 100 9 -0.025376443
-0.44284046 0.47289848 -0.12593395 28 2 -0.025374139
-0.91635758 0.97889876 0.11731163 100 10 -0.025371835
-0.909949 0.9727326 0.16354866 100 11 -0.025367226
-0.91342163 0.97678697 0.2118123 56 12 -0.025362618
-0.87349606 0.93441814 -0.11190797 1 5 -0.025360314
-0.88066846 0.94242084 0.25072303 83 13 -0.02535801
-0.91756934 0.98225278 -0.070444204 13 6 -0.025355708
-0.86867344 0.92991 0.29378608 96 14 -0.025353404
-0.93762457 1.0040724 -0.023979606 100 7 -0.0253511
-0.87664241 0.93909752 0.34422934 82 15 -0.025348796
-0.43577248 0.46796325 -0.17133822 60 0 -0.025328059
-0.91697109 0.98505247 0.023490939 90 8 -0.025325755
-0.42215917 0.45366174 -0.14306886 80 1 -0.025323451
-0.91704249 0.98547447 0.070548877 100 9 -0.025321146
-0.44528136 0.47867686 -0.12707879 28 2 -0.025318842
-0.91989028 0.98922741 0.11818319 100 10 -0.025316538
-0.9134748 0.98301572 0.16476737 100 11 -0.02531193
-0.90883309 0.97836345 0.21149944 54 12 -0.025307324
-0.80938375 0.87161028 -0.10406395 3 5 -0.02530502
-0.88288128 0.95109135 0.25224951 83 13 -0.025302716
-0.92653388 0.99846631 -0.071386255 9 6 -0.025300412
-0.8735382 0.94135624 0.29648548 94 14 -0.025298107
-0.93156987 1.0042442 -0.023909798 100 7 -0.025295803
-0.881405 0.95049846 0.34733516 79 15 -0.025293499
-0.43290639 0.46798763 -0.17082058 80 0 -0.025272762
-0.92456067 0.99983341 0.023770178 100 8 -0.025270458
-0.41932961 0.45362818 -0.14261897 81 1 -0.025268154
-0.92054814 0.99584335 0.071072236 100 9 -0.02526585
-0.42770267 0.4628481 -0.12249938 40 2 -0.025263548
-0.91525316 0.99080873 0.11800887 100 10 -0.025261242
-0.91828865 0.99479127 0.1662298 100 11 -0.025256636
-0.9002254 0.97556472 0.21024795 55 12 -0.025252027
-0.86052513 0.93286854 -0.11103641 2 5 -0.025249723
-0.87972248 0.95401388 0.25224951 85 13 -0.025247419
-0.92727894 1.005939 -0.071700267 33 6 -0.025245115
-0.87041175 0.9442479 0.29648548 96 14 -0.025242811
-0.92552423 1.0043867 -0.023839988 100 7 -0.025240507
-0.87301278 0.94773269 0.34526464 79 15 -0.025238203
-0.4233484 0.46103352 -0.16771474 62 0 -0.025216818
-0.91548055 0.99732298 0.023630559 100 8 -0.025214514
-0.42425197 0.46234131 -0.14486848 78 1 -0.02521221
-0.92616832 1.0096735 0.071804941 100 9 -0.025209906
-0.42998463 0.46875289 -0.12364423 29 2 -0.025207601
-0.90757579 0.98975116 0.11748594 100 10 -0.025205297
-0.92000085 1.0040046 0.16720475 100 11 -0.025200689
-0.89914089 0.98192781 0.21087368 55 12 -0.025196081
-0.88249695 0.96408916 -0.11434833 2 5 -0.025193777
-0.87356883 0.95433563 0.25148627 83 13 -0.025191475
-0.93167567 1.0181715 -0.072328299 49 6 -0.025189171
-0.86941046 0.95045865 0.29738528 99 14 -0.025186867
-0.92705864 1.0138361 -0.023979606 100 7 -0.025184562
-0.8693673 0.95107782 0.34526464 78 15 -0.025182258
-0.43336847 0.47543156 -0.17237349 79 0 -0.025161522
-0.90929943 0.99755675 0.023560748 100 8 -0.025159217
-0.42526063 0.46670014 -0.14576827 65 1 -0.025156913
-0.92398322 1.0143768 0.071909614 100 9 -0.025154609
-0.43222916 0.47468063 -0.12478909 39 2 -0.025152305
-0.91064781 1.000438 0.11835749 100 10 -0.025150001
-0.91515458 1.0057417 0.16696103 100 11 -0.025145395
-0.90102363 0.99090648 0.21212517 55 12 -0.025140787
-0.84696305 0.93177974 -0.11016486 1 5 -0.025138482
-0.87006515 0.95753098 0.25148627 81 13 -0.025136178
-0.91316575 1.0053169 -0.071176901 35 6 -0.025133874
-0.87378114 0.96229523 0.30008471 99 14 -0.02513157
-0.93023533 1.0244682 -0.02415413 100 7 -0.025129266
-0.86863893 0.95696759 0.34629989 79 15 -0.025126962
-0.43040994 0.47550905 -0.17185585 60 0 -0.025106225
-0.91502887 1.0112624 0.023805084 100 8 -0.025103921
-0.40916744 0.45235825 -0.14081937 82 1 -0.025101617
-0.91507751 1.0116711 0.071490921 100 9 -0.025099315
-0.43583661 0.48201132 -0.12631556 38 2 -0.025097011
-0.9111582 1.008045 0.11888044 100 10 -0.025094707
-0.90347886 1.0002502 0.16549858 100 11 -0.025090098
-0.89888299 0.99551177 0.21243803 57 12 -0.02508549
-0.64078885 0.70992196 -0.083669513 2 5 -0.025083186
-0.87460858 0.96930784 0.25377598 85 13 -0.025080882
-0.9176774 1.0173969 -0.071804941 7 6 -0.025078578
-0.86780673 0.96244484 0.29918489 99 14 -0.025076274
-0.92665356 1.0277091 -0.02415413 100 7 -0.02507397
-0.86917347 0.96429878 0.34785283 76 15 -0.025071666
-0.43778732 0.48706603 -0.17547932 77 0 -0.025050931
-0.91568089 1.0187528 0.023909798 100 8 -0.025048627
-0.41678223 0.46385956 -0.14396867 79 1 -0.025046322
-0.90887159 1.0118872 0.071281582 100 9 -0.025044018
-0.42365816 0.47184333 -0.12326261 29 2 -0.025041714
-0.91295719 1.0171503 0.11957768 100 10 -0.02503941
-0.90811116 1.0121059 0.16696103 100 11 -0.025034802
-0.88089675 0.98246515 0.20899647 55 12 -0.025030194
-0.62234932 0.69435042 -0.08157777 3 5 -0.02502789
-0.87663102 0.97805053 0.25530246 85 13 -0.025025586
-0.8116731 0.90589589 -0.063745201 1 6 -0.025023282
-0.86721075 0.96822059 0.30008471 96 14 -0.025020977
-0.91772515 1.024978 -0.024014512 100 7 -0.025018673
-0.87739766 0.98028225 0.35251155 77 15 -0.025016369
-0.42844993 0.4798688 -0.17237349 59 0 -0.024995634
-0.91744512 1.0279107 0.024049416 100 8 -0.02499333
-0.41905275 0.46967378 -0.14531837 78 1 -0.024991026
-0.91065156 1.0210158 0.071700267 100 9 -0.024988722
-0.42731839 0.47910619 -0.12478909 48 2 -0.024986418
-0.91090512 1.0216594 0.11975199 100 10 -0.024984114
-0.91117543 1.0226804 0.16817972 100 11 -0.024979506
-0.87746209 0.98553389 0.20899647 60 12 -0.024974898
-0.60535085 0.68014753 -0.079660349 8 5 -0.024972593
-0.87843239 0.9869709 0.25682893 85 13 -0.024970289
-0.8664161 0.97415382 0.3009845 99 14 -0.024965681
-0.91547012 1.02967 -0.024049416 100 7 -0.024963377
-0.8624202 0.97034335 0.34785283 73 15 -0.024961073
-0.42156282 0.47565293 -0.17030294 60 0 -0.024940338
-0.90854633 1.0251206 0.023909798 100 8 -0.024938034
-0.4174107 0.47113365 -0.14531837 78 1 -0.02493573
-0.91502696 1.0331595 0.072328299 100 9 -0.024933426
-0.41254541 0.4659698 -0.1209729 51 2 -0.024931122
-0.90319324 1.020515 0.11922905 100 10 -0.024928818
-0.91680729 1.0362623 0.16988587 100 11 -0.024924209
-0.87532496 0.9900707 0.20930934 60 12 -0.024919601
-0.56734878 0.6419481 -0.074953936 5 5 -0.024917297
-0.87220955 0.98724103 0.25606567 87 13 -0.024914993
-0.86541903 0.98024482 0.30188429 96 14 -0.024910387
-0.91981113 1.0418538 -0.024258846 100 7 -0.024908083
-0.86286288 0.9776929 0.34940571 78 15 -0.024905778
-0.42883399 0.48727313 -0.17392641 58 0 -0.024885042
-0.90742469 1.0314465 0.023979606 100 8 -0.024882738
-0.42340276 0.48144048 -0.14801779 75 1 -0.024880433
-0.91801012 1.0438459 0.072851658 100 9 -0.024878129
-0.42906412 0.48804963 -0.12631556 47 2 -0.024875825
-0.90225565 1.0266548 0.11957768 100 10 -0.024873521
-0.90645373 1.0321575 0.16866718 100 11 -0.024868913
-0.87577313 0.99757385 0.21024795 61 12 -0.024864307
-0.54933423 0.62595451 -0.0728622 6 5 -0.024862003
-0.86616868 0.98732799 0.25530246 78 13 -0.024859698
-0.80198258 0.91448587 -0.063745201 1 6 -0.024857394
-0.87483871 0.99791324 0.30638334 94 14 -0.02485509
-0.92144191 1.0510727 -0.024398465 100 7 -0.024852786
-0.86581099 0.98796326 0.35199389 76 15 -0.024850482
-0.43475777 0.49749506 -0.17703223 75 0 -0.024829745
-0.90794683 1.0389673 0.024084322 100 8 -0.024827441
-0.40898308 0.46816581 -0.14351878 80 1 -0.024825137
-0.91304708 1.0455396 0.072746992 100 9 -0.024822833
-0.44156006 0.50581318 -0.13051336 54 2 -0.024820529
-0.90783668 1.0403059 0.12079786 100 10 -0.024818227
-0.89911103 1.03067 0.16793597 100 11 -0.024813619
-0.87228578 1.0006245 0.21024795 63 12 -0.02480901
-0.86804903 0.99611539 0.25682893 90 13 -0.024804402
-0.86640537 0.99493057 0.30458373 99 14 -0.024799794
-0.92301917 1.0603157 -0.024538083 100 7 -0.02479749
-0.86489326 0.99389446 0.35302919 76 15 -0.024795186
-0.44197029 0.50914609 -0.1806557 54 0 -0.024774449
-0.91479969 1.0542127 0.024363559 100 8 -0.024772147
-0.4137311 0.47695094 -0.14576827 91 1 -0.024769843
-0.90564859 1.0440356 0.072432972 100 9 -0.024767539
-0.42701828 0.4924421 -0.12669718 57 2 -0.024765234
-0.91221213 1.0523438 0.12184373 100 10 -0.02476293
-0.89810729 1.0368032 0.16842344 100 11 -0.024758322
-0.87413526 1.0094851 0.21149944 68 12 -0.024753714
-0.87484378 1.0110162 0.25988188 83 13 -0.024749106
-0.86292732 0.99794865 0.30458373 99 14 -0.024744498
-0.91818994 1.0618582 -0.024503179 100 7 -0.024742194
-0.87675273 1.0142951 0.35924083 76 15 -0.024739889
-0.42379364 0.49166316 -0.17392641 78 0 -0.024719154
-0.91260409 1.0587554 0.024398465 100 8 -0.02471685
-0.42741194 0.49603593 -0.15116711 97 1 -0.024714546
-0.90851599 1.0547569 0.072956331 100 9 -0.024712242
-0.41248661 0.47905231 -0.122881 60 2 -0.024709938
-0.90593362 1.0525014 0.12149511 100 10 -0.024707634
-0.90631676 1.0533184 0.1706171 100 11 -0.024703026
-0.86803031 1.0095345 0.21087368 76 12 -0.024698418
-0.87404573 1.0168896 0.26064509 81 13 -0.024693809
-0.86469221 1.0067179 0.30638334 96 14 -0.024689201
-0.91317511 1.0635397 -0.024468275 42 7 -0.024686897
-0.87069046 1.0144175 0.35820559 76 15 -0.024684593
-0.42090452 0.49159822 -0.17340876 58 0 -0.024663858
-0.90760207 1.0604155 0.024363559 100 8 -0.024661554
-0.41934344 0.49012113 -0.1489176 87 1 -0.02465925
-0.91002166 1.063993 0.073375016 100 9 -0.024656946
-0.4211044 0.49235326 -0.12593395 57 2 -0.024654642
-0.89725912 1.0494428 0.12079786 100 10 -0.024652338
-0.90779269 1.0625125 0.17159206 100 11 -0.024647729
-0.86706662 1.0155629 0.21149944 70 12 -0.024643121
-0.87049103 1.0199342 0.26064509 85 13 -0.024638513
-0.86623132 1.0156609 0.30818295 99 14 -0.024633907
-0.89259148 1.0469383 -0.024014512 16 7 -0.024631603
-0.86213148 1.0115697 0.35613501 74 15 -0.024629299
-0.41784874 0.49166563 -0.17289113 59 0 -0.024608562
-0.90130538 1.0605295 0.024293751 100 8 -0.024606258
-0.40501267 0.47673059 -0.14441857 78 1 -0.024603954
-0.91405898 1.0762973 0.074003048 100 9 -0.024601649
-0.4231087 0.4983834 -0.12707879 56 2 -0.024599345
-0.90758801 1.069434 0.12271529 100 10 -0.024597041
-0.90407801 1.065675 0.17159206 100 11 -0.024592433
-0.86607087 1.021597 0.21212517 70 12 -0.024587825
-0.86674666 1.023118 0.26064509 83 13 -0.024583219
-0.65698826 0.77579117 -0.053278007 1 6 -0.024580915
-0.87257558 1.0307277 0.31178215 94 14 -0.02457861
-0.85921407 1.0149446 -0.023211701 19 7 -0.024576306
-0.8635872 1.0204715 0.35820559 73 15 -0.024574002
-0.41862187 0.49607399 -0.17392641 39 0 -0.024553265
-0.90385938 1.071468 0.024468275 89 8 -0.024550961
-0.40828782 0.48417079 -0.14621818 90 1 -0.024548657
-0.90495914 1.0735316 0.073584363 100 9 -0.024546353
-0.43022406 0.51036465 -0.12975012 63 2 -0.024544049
-0.90513355 1.074119 0.12288959 100 10 -0.024541745
-0.89760894 1.0659443 0.17110457 100 11 -0.024537139
-0.86486459 1.0277872 0.2127509 70 12 -0.02453253
-0.87075299 1.0351514 0.2629348 85 13 -0.024527922
-0.61057198 0.72610605 -0.049719162 4 6 -0.024525618
-0.86144912 1.0248169 0.30908275 96 14 -0.024523314
-0.6831044 0.81293839 -0.018534455 23 7 -0.02452101
-0.86232603 1.0265884 0.35924083 67 15 -0.024518706
-0.43673933 0.52122432 -0.18220863 35 0 -0.024497969
-0.90653419 1.0822812 0.024642797 73 8 -0.024495665
-0.41410154 0.49455795 -0.1489176 87 1 -0.024493363
-0.90120602 1.0766844 0.073584363 100 9 -0.024491059
-0.43096006 0.51487446 -0.13051336 63 2 -0.024488755
-0.90009981 1.0757442 0.12271529 100 10 -0.02448645
-0.89897567 1.075163 0.17207953 100 11 -0.024481842
-0.86507112 1.0353478 0.21368951 73 12 -0.024477234
-0.87216818 1.0442121 0.26446128 85 13 -0.024472626
-0.59907329 0.71750093 -0.048986461 10 6 -0.024470322
-0.85536885 1.0248257 0.30818295 94 14 -0.024468018
-0.63926727 0.76618409 -0.017417502 57 7 -0.024465714
-0.86368704 1.0355263 0.36131141 67 15 -0.02446341
-0.42379734 0.50937992 -0.17754988 37 0 -0.024442675
-0.90275055 1.0854392 0.024642797 49 8 -0.024440371
-0.42109364 0.50648975 -0.15206692 84 1 -0.024438066
-0.89999563 1.0828954 0.073793709 100 9 -0.024435762
-0.42163119 0.50731635 -0.12822366 55 2 -0.024433458
-0.89888602 1.0819443 0.12306391 100 10 -0.024431154
-0.90789759 1.0935676 0.17451692 100 11 -0.024426546
-0.85640699 1.0322797 0.21243803 73 12 -0.024421938
-0.87353122 1.0532947 0.26598775 87 13 -0.02441733
-0.60676295 0.73188823 -0.049823835 10 6 -0.024415025
-0.86173439 1.0398085 0.31178215 99 14 -0.024412721
-0.62000459 0.74839211 -0.016963739 94 7 -0.024410417
-0.86006731 1.0385346 0.36131141 64 15 -0.024408113
-0.42324689 0.51234567 -0.17806751 37 0 -0.024387378
-0.89386261 1.0824164 0.024503179 30 8 -0.024385074
-0.42552623 0.51547062 -0.15431643 82 1 -0.02438277
-0.90637958 1.0983545 0.07463108 100 9 -0.024380466
-0.42485589 0.51484203 -0.12975012 63 2 -0.024378162
-0.89510351 1.0850757 0.12306391 100 10 -0.024375858
-0.90533715 1.098262 0.17476064 100 11 -0.02437125
-0.85907835 1.042886 0.21400237 76 12 -0.024366641
-0.86236107 1.0472445 0.26369804 94 13 -0.024362033
-0.61182034 0.74325407 -0.050451867 5 6 -0.024359729
-0.86552924 1.0518389 0.31448159 96 14 -0.024357425
-0.61738831 0.75055194 -0.016963739 94 7 -0.024355121
-0.85889065 1.0445151 0.36234668 64 15 -0.024352819
-0.44350895 0.5407058 -0.18738499 33 0 -0.024332082
-0.8926149 1.0886226 0.024572989 31 8 -0.024329778
-0.40766466 0.49735996 -0.14846769 75 1 -0.024327474
-0.90653086 1.1059879 0.074945092 100 9 -0.02432517
-0.41559058 0.50721031 -0.12746042 65 2 -0.024322866
-0.89888543 1.0974414 0.12410977 100 10 -0.024320561
-0.8977263 1.096807 0.17402944 100 11 -0.024315953
-0.8631205 1.0549026 0.21587959 78 12 -0.024311345
-0.85994309 1.0517679 0.26407966 99 13 -0.024306739
-0.60543042 0.74074572 -0.050137851 1 6 -0.024304435
-0.85938609 1.0518357 0.31358176 100 14 -0.024302131
-0.62248737 0.76188624 -0.017173167 84 7 -0.024299826
-0.86031049 1.0533422 0.36441725 64 15 -0.024297522
-0.4757773 0.58419251 -0.20187886 27 0 -0.024276786
-0.90541637 1.1117333 0.02502675 50 8 -0.024274481
-0.41339529 0.5077765 -0.15116711 97 1 -0.024272177
-0.90014303 1.1060476 0.074735753 100 9 -0.024269873
-0.42868537 0.52693295 -0.13203983 61 2 -0.024267569
-0.89504939 1.1005722 0.12410977 100 10 -0.024265265
-0.89157939 1.0966974 0.17354195 100 11 -0.024260659
-0.86441535 1.0640415 0.21713105 78 12 -0.024256051
-0.8725397 1.0744262 0.2690407 100 13 -0.024251442
-0.64073521 0.78926796 -0.053278007 1 6 -0.024249138
-0.85834908 1.0577064 0.31448159 100 14 -0.024246834
-0.62108374 0.76560766 -0.017208073 81 7 -0.02424453
-0.86392945 1.0653416 0.36752307 63 15 -0.024242226
-0.49084684 0.60679471 -0.2091258 24 0 -0.024221489
-0.90530199 1.1195521 0.025131466 56 8 -0.024219185
-0.42019555 0.51982516 -0.15431643 100 1 -0.024216881
-0.89502168 1.1076293 0.07463108 99 9 -0.024214577
-0.41953197 0.51918954 -0.12975012 63 2 -0.024212275
-0.90516615 1.1205837 0.12602721 100 10 -0.024209971
-0.89522713 1.1090709 0.17500439 100 11 -0.024205362
-0.85573488 1.0609025 0.21587959 78 12 -0.024200754
-0.87864274 1.0896918 0.27209365 91 13 -0.024196146
-0.63797605 0.79149991 -0.053278007 1 6 -0.024193842
-0.85709721 1.0637307 0.31538138 90 14 -0.024191538
-0.61464447 0.76309872 -0.017103357 74 7 -0.024189234
-0.87232083 1.0833983 0.37269944 59 15 -0.02418693
-0.52611274 0.65528828 -0.22517258 18 0 -0.024166195
-0.8976329 1.1180272 0.02502675 15 8 -0.024163891
-0.41593906 0.51824909 -0.15341662 83 1 -0.024161587
-0.89739937 1.1185359 0.075154446 100 9 -0.024159282
-0.41516972 0.51766062 -0.1289869 63 2 -0.024156978
-0.89856064 1.1207845 0.12567857 100 10 -0.024154674
-0.898799 1.1214828 0.17646682 100 11 -0.024150066
-0.85202664 1.0638829 0.21587959 76 12 -0.024145458
-0.86973584 1.0867738 0.27056718 83 13 -0.02414085
-0.63507056 0.79383302 -0.053278007 1 6 -0.024138546
-0.86292982 1.0790402 0.3189806 83 14 -0.024136242
-0.61072826 0.76367778 -0.017068453 42 7 -0.024133937
-0.8637082 1.0804011 0.37062889 58 15 -0.024131633
-0.51780105 0.64956778 -0.22258438 19 0 -0.024110898
-0.8897903 1.1166184 0.024922037 12 8 -0.024108594
-0.42496431 0.53348851 -0.15746574 90 1 -0.02410629
-0.8972224 1.1263483 0.075468451 90 9 -0.024103986
-0.42314374 0.53139329 -0.13203983 61 2 -0.024101682
-0.8909201 1.119238 0.12515564 100 10 -0.024099378
-0.89715374 1.1278769 0.1769543 100 11 -0.02409477
-0.85322523 1.0730355 0.21713105 78 12 -0.024090162
-0.86349446 1.0867287 0.26980394 81 13 -0.024085553
-0.86279303 1.0866245 0.32033029 80 14 -0.024080945
-0.60930204 0.76737118 -0.017103357 32 7 -0.024078641
-0.86473596 1.0894618 0.37269944 59 15 -0.024076337
-0.53711098 0.67863792 -0.23190187 15 0 -0.024055602
-0.89104688 1.1258347 0.025061656 54 8 -0.024053298
-0.40989262 0.51808375 -0.15251681 84 1 -0.024050994
-0.90319711 1.1420054 0.076305829 87 9 -0.02404869
-0.42615673 0.53902733 -0.13356631 60 2 -0.024046386
-0.89071417 1.1270303 0.12567857 100 10 -0.024044082
-0.89094722 1.1277308 0.17646682 100 11 -0.024039473
-0.86049086 1.0899611 0.21994688 84 12 -0.024034865
-0.86231816 1.0926687 0.27056718 65 13 -0.024030257
-0.86642557 1.0986605 0.32302973 80 14 -0.024025651
-0.61404753 0.77891588 -0.017312787 23 7 -0.024023347
-0.86451524 1.0970255 0.37425235 56 15 -0.024021043
-0.59574515 0.75787342 -0.25830141 4 0 -0.024000306
-0.88834679 1.1305107 0.025096562 47 8 -0.023998002
-0.41530445 0.52870619 -0.15521623 81 1 -0.023995697
-0.89200282 1.1355703 0.075677805 70 9 -0.023993393
-0.42921668 0.54661417 -0.13509277 58 2 -0.023991089
-0.88697159 1.1299781 0.12567857 100 10 -0.023988785
-0.89068097 1.1355195 0.17719805 100 11 -0.023984177
-0.46055228 0.5873642 -0.091645755 5 4 -0.023981873
-0.86052799 1.0974722 0.22088549 88 12 -0.023979571
-0.85607725 1.0925812 0.26980394 58 13 -0.023974963
-0.85777938 1.095541 0.32123011 76 14 -0.023970354
-0.60899574 0.77779883 -0.017242977 21 7 -0.02396805
-0.87039781 1.1120567 0.37839344 56 15 -0.023965746
-0.6097362 0.78126943 -0.26554835 6 0 -0.023945009
-0.82676858 1.0593582 0.023456035 9 8 -0.023942705
-0.41594613 0.53315347 -0.15611602 80 1 -0.023940401
-0.41764951 0.53572232 -0.13203983 61 2 -0.023935795
-0.89404452 1.1472108 0.12724738 100 10 -0.023933489
-0.89057064 1.1431646 0.17792925 100 11 -0.023928883
-0.45860213 0.58888811 -0.091645755 5 4 -0.023926578
-0.85305178 1.095793 0.21994688 84 12 -0.023924274
-0.86088979 1.1062596 0.27247527 50 13 -0.023919666
-0.85892713 1.1045327 0.32302973 75 14 -0.023915058
-0.60014075 0.77202576 -0.017068453 19 7 -0.023912754
-0.870067 1.1196643 0.37994638 63 15 -0.02391045
-0.64486939 0.8322596 -0.28211278 10 0 -0.023889542
-0.67226398 0.86792743 0.019162742 5 8 -0.023887238
-0.411603 0.53159285 -0.15521623 81 1 -0.023884933
-0.90361685 1.1670377 0.077352546 30 9 -0.023882629
-0.42178538 0.54493946 -0.13394792 68 2 -0.023880325
-0.89003485 1.1503243 0.12724738 100 10 -0.023878021
-0.87908977 1.1369982 0.17646682 100 11 -0.023873413
-0.45644078 0.59056491 -0.091645755 5 4 -0.023871109
-0.84680581 1.0956379 0.21932115 81 12 -0.023868805
-0.86402935 1.1187304 0.27476496 10 13 -0.023864198
-0.85725391 1.110759 0.32392952 76 14 -0.02385959
-0.59133321 0.76620084 -0.016893929 10 7 -0.023857286
-0.86379308 1.1196358 0.37891111 66 15 -0.023854982
-0.63724846 0.82838082 -0.2800422 12 0 -0.023834245
-0.85836947 1.1158235 0.024572989 20 8 -0.023831941
-0.40983802 0.53295475 -0.15521623 81 1 -0.023829637
-0.89466894 1.1638508 0.076933861 66 9 -0.023827333
-0.4138993 0.53862494 -0.13203983 61 2 -0.023825029
-0.87751776 1.1423643 0.12602721 42 10 -0.023822725
-0.89828515 1.1698221 0.18109787 100 11 -0.023818118
-0.45447972 0.59207541 -0.091645755 5 4 -0.023815814
-0.84898853 1.1064231 0.22088549 78 12 -0.02381351
-0.84478146 1.1013384 0.26980394 1 13 -0.023808902
-0.85593712 1.1166888 0.32482934 80 14 -0.023804294
-0.60689867 0.79206985 -0.017417502 5 7 -0.02380199
-0.86105448 1.1241776 0.37942874 72 15 -0.023799686
-0.65678179 0.85965627 -0.28987733 15 0 -0.023778949
-0.85811079 1.1235806 0.024677703 70 8 -0.023776645
-0.40561023 0.53128415 -0.15431643 82 1 -0.023774341
-0.89908308 1.1780806 0.077666566 49 9 -0.023772039
-0.41925743 0.54935861 -0.13432954 68 2 -0.023769734
-0.89064348 1.1674445 0.12846756 30 10 -0.02376743
-0.8905859 1.1682143 0.18036664 100 11 -0.023762822
-0.45241034 0.59365815 -0.091645755 5 4 -0.023760518
-0.85230327 1.1188084 0.2227627 78 12 -0.023758214
-0.81238568 1.0667942 0.26064509 1 13 -0.023753606
-0.86147439 1.1320763 0.32842854 73 14 -0.023748998
-0.59202349 0.77826786 -0.017068453 3 7 -0.023746694
-0.86764884 1.1410165 0.38408747 72 15 -0.023744389
-0.65829509 0.86821538 -0.2919479 16 0 -0.023723654
-0.82639503 1.0899198 0.023874892 84 8 -0.02372135
-0.4096387 0.54046214 -0.15656593 91 1 -0.023719046
-0.89134651 1.1764361 0.077352546 11 9 -0.023716742
-0.41961163 0.55402166 -0.13509277 50 2 -0.023714438
-0.88756102 1.1722897 0.12864187 87 10 -0.023712134
-0.8841064 1.1681504 0.17987917 40 11 -0.023707526
-0.45033517 0.59523386 -0.091645755 5 4 -0.023705222
-0.8483929 1.1217765 0.2227627 70 12 -0.023702918
-0.83924627 1.1104878 0.27056718 1 13 -0.023698309
-0.85497075 1.1321158 0.32752874 75 14 -0.023693701
-0.61340541 0.81224525 -0.017766548 2 7 -0.023691397
-0.87064469 1.1532888 0.38719329 64 15 -0.023689093
-0.66106969 0.87822509 -0.29453608 11 0 -0.023668358
-0.59635663 0.79254222 0.017312787 27 8 -0.023666054
-0.40999803 0.54507452 -0.15746574 90 1 -0.02366375
-0.89804012 1.1939052 0.078294598 41 9 -0.023661446
-0.41767532 0.55548292 -0.13509277 58 2 -0.023659142
-0.8882522 1.1817511 0.12933911 100 10 -0.023656838
-0.8750506 1.1650338 0.17890421 34 11 -0.023652229
-0.44815063 0.59688032 -0.091645755 5 4 -0.023649925
-0.83854198 1.1168325 0.22119835 22 12 -0.023647621
-0.81886995 1.0914249 0.26522452 1 13 -0.023643013
-0.84399962 1.1257384 0.32482934 80 14 -0.023638405
-0.66814417 0.89117986 -0.019441981 2 7 -0.023636101
-0.87356532 1.1655961 0.39029911 56 15 -0.023633797
-0.64759213 0.86659998 -0.28987733 11 0 -0.023613062
-0.59252799 0.79291379 0.017277883 50 8 -0.023610758
-0.41052082 0.54955351 -0.15836555 89 1 -0.023608454
-0.89386678 1.197033 0.078294598 74 9 -0.023606149
-0.41690803 0.5585109 -0.1354744 67 2 -0.023603845
-0.88054734 1.1800538 0.12881619 100 10 -0.023601541
-0.88779867 1.1902061 0.18231656 100 11 -0.023596933
-0.44616869 0.59836328 -0.091645755 5 4 -0.023594629
-0.84998506 1.1403425 0.22526565 24 12 -0.023592325
-0.81524575 1.0941347 0.26522452 1 13 -0.023587717
-0.84724492 1.1379092 0.32752874 82 14 -0.02358311
-0.67219317 0.90313143 -0.019651409 2 7 -0.023580806
-0.8844822 1.1887875 0.39702842 64 15 -0.023578502
-0.63780737 0.85943472 -0.28677151 14 0 -0.023557765
-0.58141667 0.78373504 0.017033549 51 8 -0.023555461
-0.41556466 0.56037503 -0.16106495 96 1 -0.023553157
-0.89087266 1.2017502 0.078399271 96 9 -0.023550853
-0.40920791 0.55200446 -0.13356631 60 2 -0.023548549
-0.87425643 1.1797661 0.12846756 100 10 -0.023546245
-0.89072692 1.2028695 0.18377897 100 11 -0.023541637
-0.44407746 0.59991693 -0.091645755 5 4 -0.023539335
-0.84364963 1.1401265 0.22463992 51 12 -0.02353703
-0.79741162 1.078033 0.26064509 1 13 -0.023532422
-0.84790134 1.147128 0.32932836 82 14 -0.023527814
-0.74509066 1.0084033 -0.021885319 4 7 -0.02352551
-0.88836175 1.202745 0.4006519 75 15 -0.023523206
-0.63824123 0.86632168 -0.28832445 16 0 -0.023502469
-0.57393432 0.77931905 0.016893929 54 8 -0.023500165
-0.40667397 0.55240631 -0.15836555 89 1 -0.023497861
-0.89614242 1.2177217 0.079236642 100 9 -0.023495557
-0.42589688 0.57872927 -0.13967219 55 2 -0.023493253
-0.87721711 1.1924398 0.12951343 100 10 -0.02349095
-0.88652235 1.2059716 0.18377897 100 11 -0.023486342
-0.44198075 0.60146332 -0.091645755 5 4 -0.023484038
-0.85018951 1.157393 0.22745575 76 12 -0.023481734
-0.83547533 1.1377782 0.27438337 1 13 -0.023477126
-0.84965587 1.1579367 0.33157787 86 14 -0.023472518
-0.89650226 1.2222275 -0.026457848 14 7 -0.023470214
-0.88644224 1.2089548 0.40168718 75 15 -0.02346791
-0.63293219 0.86542577 -0.28728914 28 0 -0.023447173
-0.57829142 0.79100353 0.017103357 42 8 -0.02344487
-0.40359351 0.55224901 -0.15791564 100 1 -0.023442566
-0.88717389 1.2143912 0.078817956 100 9 -0.023440262
-0.42155802 0.57704175 -0.13890895 63 2 -0.023437958
-0.88244933 1.2083669 0.13090792 100 10 -0.023435654
-0.87879705 1.2042481 0.18304777 100 11 -0.023431046
-0.4726353 0.64790702 -0.098470435 4 4 -0.023428742
-0.84614444 1.1603533 0.22745575 81 12 -0.023426438
-0.45899838 0.62944371 -0.068155795 7 5 -0.023424134
-0.84653288 1.1613117 0.27934438 2 13 -0.02342183
-0.84101957 1.1545947 0.32977825 87 14 -0.023417221
-0.89223063 1.2253492 -0.026457848 21 7 -0.023414917
-0.88676459 1.218289 0.40375772 82 15 -0.023412613
-0.62990761 0.86762971 -0.28728914 28 0 -0.023391878
-0.57787561 0.79625428 0.017173167 37 8 -0.023389574
-0.41425121 0.5710054 -0.16286457 84 1 -0.02338727
-0.88292968 1.2174805 0.078817956 77 9 -0.023384966
-0.40801546 0.56261653 -0.13509277 58 2 -0.023382662
-0.88056445 1.2146662 0.13125655 100 10 -0.023380358
-0.88273966 1.2185616 0.18475394 100 11 -0.02337575
-0.43777069 0.60453451 -0.091645755 5 4 -0.023373445
-0.83629757 1.1552989 0.2258914 76 12 -0.023371141
-0.42175007 0.58262444 -0.062926449 9 5 -0.023368837
-0.84362459 1.1658503 0.279726 1 13 -0.023366533
-0.83584255 1.155944 0.32932836 80 14 -0.023361925
-0.88326186 1.2219738 -0.026318228 21 7 -0.023359621
-0.8859005 1.2260749 0.40531066 61 15 -0.023357317
-0.61783898 0.85728544 -0.28314805 32 0 -0.023336582
-0.58327502 0.80962396 0.017417502 22 8 -0.023334278
-0.4156718 0.57719207 -0.16421427 92 1 -0.023331974
-0.85533625 1.1881369 0.076724522 41 9 -0.02332967
-0.40375486 0.56085086 -0.13432954 59 2 -0.023327366
-0.87748313 1.2193496 0.13143085 69 10 -0.023325061
-0.88543475 1.2313055 0.18621638 100 11 -0.023320453
-0.83456486 1.1614197 0.22651713 76 12 -0.023315845
-0.45459288 0.63263279 -0.068155795 7 5 -0.023313541
-0.83267802 1.1592207 0.27743632 2 13 -0.023311237
-0.84316552 1.1746862 0.33382738 75 14 -0.023306631
-0.88015711 1.2266741 -0.026353134 10 7 -0.023304326
-0.87936366 1.2260201 0.40427536 50 15 -0.023302022
-0.61259484 0.85629433 -0.28211278 38 0 -0.023281286
-0.5676502 0.79376274 0.017033549 13 8 -0.023278981
-0.41705453 0.58339542 -0.16556399 80 1 -0.023276677
-0.59106767 0.82711816 0.053278007 24 9 -0.023274373
-0.41320941 0.5782299 -0.13814571 64 2 -0.023272069
-0.86627293 1.2126777 0.13038498 75 10 -0.023269765
-0.88574475 1.2408513 0.18719132 81 11 -0.023265157
-0.43353987 0.60757577 -0.091645755 5 4 -0.023262853
-0.82247555 1.1530687 0.22432704 37 12 -0.023260549
-0.83546543 1.1717111 0.279726 1 13 -0.023255942
-0.84358293 1.1839708 0.33562699 76 14 -0.023251334
-0.86426926 1.2134509 -0.026004087 1 7 -0.02324903
-0.87844044 1.2338032 0.40582827 62 15 -0.023246726
-0.60289061 0.84897709 -0.27900696 28 0 -0.023225989
-0.85078621 1.198501 0.025655037 8 8 -0.023223685
-0.4150154 0.58484775 -0.16556399 100 1 -0.023221381
-0.59742111 0.84220874 0.054115385 39 9 -0.023219077
-0.41118833 0.57966882 -0.13814571 56 2 -0.023216773
-0.87586385 1.2351974 0.13247673 100 10 -0.023214469
-0.88485068 1.2487949 0.18792254 54 11 -0.023209862
-0.84812462 1.1978492 0.23246165 42 12 -0.023205254
-0.83137 1.1746205 0.279726 1 13 -0.023200646
-0.84169567 1.1900901 0.33652678 78 14 -0.023196038
-0.87858778 1.2431726 0.40789884 72 15 -0.02319143
-0.60660189 0.86055022 -0.28211278 18 0 -0.023170693
-0.87539357 1.2423296 0.026527658 24 8 -0.023168389
-0.40960491 0.58151317 -0.16421427 92 1 -0.023166087
-0.57837981 0.82142615 0.052649979 34 9 -0.023163782
-0.41368368 0.58752155 -0.13967219 63 2 -0.023161478
-0.87728095 1.2463934 0.13334829 100 10 -0.023159174
-0.87249243 1.2405099 0.18621638 100 11 -0.023154566
-0.83712327 1.1911052 0.23058443 57 12 -0.023149958
-0.81823617 1.1646638 0.27667305 1 13 -0.02314535
-0.83529729 1.1898308 0.33562699 76 14 -0.023140742
-0.88644707 1.2636284 0.41359285 95 15 -0.023136133
-0.59916443 0.85633087 -0.2800422 18 0 -0.023115398
-0.88938922 1.2715963 0.027086135 26 8 -0.023113094
-0.40310585 0.57655114 -0.16241467 100 1 -0.02311079
-0.57107466 0.81679225 0.052231289 35 9 -0.023108486
-0.41275507 0.59057105 -0.14005381 62 2 -0.023106182
-0.87977105 1.259248 0.13439415 100 10 -0.023103878
-0.87951988 1.2598249 0.18865377 100 11 -0.02309927
-0.4271535 0.61208254 -0.091645755 5 4 -0.023096966
-0.84108186 1.2052143 0.23277451 68 12 -0.023094662
-0.86133087 1.2351482 0.29270101 1 13 -0.023090053
-0.83113855 1.1927395 0.33562699 75 14 -0.023085445
-0.6802389 0.97618848 -0.020768363 2 7 -0.023083141
-0.87673056 1.2586353 0.41100466 100 15 -0.023080837
-0.59617138 0.85841721 -0.2800422 20 0 -0.023060102
-0.88858998 1.2794659 0.027190849 57 8 -0.023057798
-0.40785983 0.58748937 -0.16511407 91 1 -0.023055494
-0.57049769 0.82206243 0.052440636 14 9 -0.02305319
-0.40845284 0.58878213 -0.13929057 63 2 -0.023050886
-0.87309963 1.2590367 0.13404553 100 10 -0.023048582
-0.87533748 1.2627344 0.18865377 100 11 -0.023043973
-0.83012104 1.1983995 0.23089729 70 12 -0.023039365
-0.84828943 1.225085 0.28964809 2 13 -0.023034757
-0.83161426 1.2018991 0.3374266 75 14 -0.023030149
-0.6745519 0.97526795 -0.020698555 11 7 -0.023027845
-0.88112128 1.2744001 0.41514575 100 15 -0.023025542
-0.59770852 0.86675084 -0.28211278 20 0 -0.023004806
-0.87163371 1.2644495 0.026806895 68 8 -0.023002502
-0.4080182 0.59211874 -0.16601388 90 1 -0.023000197
-0.79195559 1.1497205 0.073165677 6 9 -0.022997893
-0.40872562 0.59336692 -0.14005381 62 2 -0.022995589
-0.8666594 1.2586432 0.1336969 100 10 -0.022993285
-0.44464099 0.6459896 -0.12420898 1 3 -0.022990981
-0.87317449 1.2690531 0.18914123 100 11 -0.022988677
-0.42297727 0.61497587 -0.091645755 5 4 -0.022986373
-0.83152884 1.2094288 0.23246165 73 12 -0.022984069
-0.85067964 1.2377467 0.29193777 30 13 -0.022979463
-0.83623976 1.2176455 0.3410258 75 14 -0.022974854
-0.66888011 0.97431922 -0.020628745 7 7 -0.02297255
-0.87557393 1.2758753 0.41462815 100 15 -0.022970246
-0.5979526 0.87361467 -0.28366569 24 0 -0.022949509
-0.87398994 1.2773863 0.027016325 11 8 -0.022947205
-0.40814897 0.59675652 -0.16691369 88 1 -0.022944901
-0.84317166 1.2332671 0.078294598 32 9 -0.022942597
-0.40554374 0.59316951 -0.13967219 63 2 -0.022940293
-0.8712545 1.27482 0.13509139 100 10 -0.022937989
-0.87209821 1.277011 0.18987246 100 11 -0.022933383
-0.83398247 1.222114 0.23433885 73 12 -0.022928774
-0.83971602 1.2309773 0.28964809 60 13 -0.022924166
-0.83637434 1.2269983 0.34282541 75 14 -0.022919558
-0.66997933 0.98325813 -0.020768363 2 7 -0.022917254
-0.87872797 1.2901003 0.4182516 88 15 -0.02291495
-0.60032755 0.88368636 -0.28625387 26 0 -0.022894213
-0.88188356 1.2986264 0.027400278 5 8 -0.022891909
-0.39621264 0.58366662 -0.16286457 94 1 -0.022889605
-0.88058209 1.2971983 0.082167462 65 9 -0.022887301
-0.41008505 0.60432863 -0.1419619 60 2 -0.022884998
-0.86903644 1.2811511 0.13544002 100 10 -0.022882694
-0.86429423 1.2751176 0.18914123 88 11 -0.022878086
-0.47434863 0.70008302 -0.10383269 3 4 -0.022875782
-0.83324969 1.2297789 0.23527746 70 12 -0.022873478
-0.83541423 1.2339008 0.28964809 62 13 -0.02286887
-0.83208591 1.2299106 0.34282541 71 14 -0.022864262
-0.65326834 0.96559948 -0.020349504 2 7 -0.022861958
-0.87336242 1.2914072 0.41773397 69 15 -0.022859653
-0.60047901 0.89058203 -0.28780681 22 0 -0.022838918
-0.87645411 1.2998861 0.027365373 31 8 -0.022836614
-0.39972085 0.59305704 -0.16511407 91 1 -0.02283431
-0.87158501 1.2936385 0.081748769 98 9 -0.022832006
-0.40906963 0.60738492 -0.14234352 60 2 -0.022829702
-0.86678416 1.2874824 0.13578865 100 10 -0.022827398
-0.86116898 1.2796239 0.18938497 64 11 -0.02282279
-0.47202429 0.70165229 -0.10383269 3 4 -0.022820486
-0.82895148 1.2326802 0.23527746 76 12 -0.022818182
-0.84117502 1.2513285 0.29308262 68 13 -0.022813573
-0.82474321 1.22781 0.34147573 68 14 -0.022808965
-0.87100279 1.2976558 0.41876921 70 15 -0.022804357
-0.58999979 0.88133085 -0.28418332 26 0 -0.022783622
-0.88525718 1.3228803 0.027784232 57 8 -0.022781318
-0.40414947 0.6041671 -0.16781349 87 1 -0.022779014
-0.8715052 1.303314 0.082167462 91 9 -0.02277671
-0.40487075 0.605474 -0.14158028 61 2 -0.022774406
-0.86804616 1.2986317 0.1366602 100 10 -0.022772102
-0.86110753 1.289225 0.19035992 56 11 -0.022767494
-0.4497312 0.67357886 -0.099445395 4 4 -0.022765189
-0.82025743 1.2289938 0.23402599 78 12 -0.022762885
-0.54306817 0.81368047 -0.085586935 2 5 -0.022760581
-0.84225029 1.2624229 0.29499072 76 13 -0.022758277
-0.83342355 1.250139 0.34687454 80 14 -0.022753669
-0.85789919 1.2878263 0.41462815 69 15 -0.022749061
-0.58905768 0.88660324 -0.2852186 22 0 -0.022728326
-0.86846471 1.3076384 0.027400278 93 8 -0.022726022
-0.40850499 0.61531538 -0.1705129 92 1 -0.022723718
-0.87136775 1.313005 0.082586147 98 9 -0.022721414
-0.40384021 0.60851943 -0.1419619 52 2 -0.022719109
-0.86130542 1.2983332 0.13631159 100 10 -0.022716805
-0.86427939 1.3038052 0.1920661 54 11 -0.022712197
-0.43860498 0.66190654 -0.097495481 4 4 -0.022709893
-0.82577986 1.2466716 0.23684181 60 12 -0.022707589
-0.54022437 0.81557131 -0.085586935 2 5 -0.022705285
-0.82699925 1.2489859 0.29117453 61 13 -0.022702981
-0.83013016 1.2546656 0.34732443 71 14 -0.022698374
-0.84807187 1.2827555 0.41203994 68 15 -0.022693766
-0.59234023 0.89833087 -0.28832445 26 0 -0.022673029
-0.8660956 1.3140016 0.027470089 100 8 -0.022670725
-0.39884958 0.60534662 -0.16736358 78 1 -0.022668421
-0.87556803 1.3293823 0.083423525 98 9 -0.022666117
-0.40063384 0.60828573 -0.14158028 61 2 -0.022663813
-0.86443698 1.3129807 0.13753176 100 10 -0.022661509
-0.85535914 1.3001804 0.19109115 51 11 -0.022656901
-0.4406549 0.67006785 -0.098470435 4 4 -0.022654597
-0.82793397 1.2594502 0.23871902 60 12 -0.022652294
-0.4957853 0.75418687 -0.078963101 4 5 -0.02264999
-0.8258692 1.2567869 0.29231939 57 13 -0.022647686
-0.83323318 1.2689582 0.35047373 65 14 -0.022643078
-0.86576545 1.3190057 -0.027539898 3 7 -0.022640774
-0.84570885 1.2889382 0.41307521 68 15 -0.02263847
-0.58814317 0.89877635 -0.28780681 28 0 -0.022617733
-0.86588186 1.3237108 0.027609706 89 8 -0.022615429
-0.3956677 0.60510409 -0.16691369 100 1 -0.022613125
-0.86764371 1.3274153 0.083109505 83 9 -0.022610821
-0.4113977 0.62940073 -0.14615969 56 2 -0.022608519
-0.86420733 1.322662 0.13822901 100 10 -0.022606213
-0.85190034 1.3048207 0.19133489 48 11 -0.022601606
-0.45133221 0.69155055 -0.1013953 3 4 -0.022599302
-0.8289296 1.2706045 0.24028336 70 12 -0.022596998
-0.51927704 0.79596114 -0.08314658 2 5 -0.022594694
-0.82898384 1.2711737 0.29499072 64 13 -0.02259239
-0.82986218 1.2734919 0.35092363 77 14 -0.022587782
-0.88407677 1.3572063 -0.028272899 19 7 -0.022585478
-0.83593339 1.2837881 0.41048703 69 15 -0.022583174
-0.59220803 0.9122687 -0.29143026 35 0 -0.022553205
-0.87082154 1.3419726 0.02792385 98 8 -0.022550901
-0.3976891 0.61308998 -0.1687133 86 1 -0.022548597
-0.86626583 1.3354626 0.083423525 91 9 -0.022546293
-0.39947519 0.61607885 -0.14272514 66 2 -0.022543989
-0.86477244 1.3341799 0.13910057 100 10 -0.022541685
-0.42643043 0.65815294 -0.12420898 1 3 -0.022539381
-0.8503499 1.3129326 0.1920661 51 11 -0.022537077
-0.40564141 0.62654626 -0.091645755 5 4 -0.022534773
-0.82126832 1.2685159 0.23934476 73 12 -0.022532469
-0.50986093 0.78782326 -0.082100704 3 5 -0.022530165
-0.83071768 1.2840936 0.29728043 78 13 -0.022527862
-0.82201546 1.271615 0.34957394 93 14 -0.022523254
-0.86522138 1.3384522 -0.027819136 34 7 -0.02252095
-0.8262049 1.2785853 0.40789884 82 15 -0.022518646
-0.58378905 0.90621006 -0.28884208 65 0 -0.022497909
-0.86961567 1.349896 0.028028565 100 8 -0.022495605
-0.40198413 0.62423593 -0.17141271 91 1 -0.022493301
-0.86808562 1.3485544 0.084051557 91 9 -0.022490997
-0.3941353 0.61251646 -0.14158028 61 2 -0.022488693
-0.8611874 1.3388664 0.13927487 100 10 -0.022486389
-0.85457981 1.3291032 0.19401602 56 11 -0.022481782
-0.47225288 0.73476243 -0.10724504 2 4 -0.022479478
-0.8179028 1.2730372 0.23965763 70 12 -0.022477174
-0.51141423 0.79630399 -0.082797952 3 5 -0.02247487
-0.82857645 1.2901454 0.29804367 80 13 -0.022472566
-0.81989878 1.2776144 0.35047373 93 14 -0.022467958
-0.86378282 1.3465139 -0.02792385 30 7 -0.022465654
-0.82590771 1.2879666 0.40996939 75 15 -0.02246335
-0.57869887 0.90488619 -0.28780681 80 0 -0.022442613
-0.86489803 1.3529235 0.028028565 94 8 -0.022440309
-0.40609893 0.63548779 -0.17411213 96 1 -0.022438005
-0.8676734 1.3583093 0.084470242 91 9 -0.022435702
-0.40055677 0.62705618 -0.14463322 64 2 -0.022433398
-0.85459864 1.3383561 0.13892625 100 10 -0.022431094
-0.84566438 1.3253841 0.19304106 54 11 -0.022426486
-0.46968502 0.73640656 -0.10724504 2 4 -0.022424182
-0.81345439 1.2758843 0.23965763 68 12 -0.022421878
-0.50434846 0.79136354 -0.082100704 3 5 -0.022419574
-0.82617849 1.2963408 0.29880691 74 13 -0.02241727
-0.8196215 1.2870433 0.35227334 87 14 -0.022412661
-0.84941304 1.3343385 -0.027609706 9 7 -0.022410357
-0.8172586 1.284322 0.40789884 77 15 -0.022408053
-0.57641304 0.90863264 -0.28832445 52 0 -0.022387318
-0.86231226 1.3593118 0.028098376 100 8 -0.022385014
-0.39866027 0.62867266 -0.17186262 91 1 -0.02238271
-0.86827344 1.3697641 0.084993601 95 9 -0.022380406
-0.40350965 0.63681203 -0.14654131 63 2 -0.022378102
-0.86141509 1.3599939 0.14084367 100 10 -0.022375798
-0.82616633 1.3048474 0.18962872 51 11 -0.02237119
-0.50532961 0.79842687 -0.11601962 1 4 -0.022368886
-0.81322056 1.2853931 0.2409091 61 12 -0.022366581
-0.50584292 0.79985476 -0.082797952 3 5 -0.022364277
-0.8151269 1.2894037 0.29651719 70 13 -0.022361973
-0.81906134 1.2966292 0.35407296 87 14 -0.022357365
-0.81999016 1.2986014 0.4115223 71 15 -0.022352757
-0.58455861 0.92862278 -0.29401845 16 0 -0.022332022
-0.86264962 1.3709255 0.028272899 98 8 -0.022329718
-0.38909024 0.61858284 -0.1687133 86 1 -0.022327414
-0.86324686 1.3729374 0.084993601 95 9 -0.02232511
-0.40232947 0.63987863 -0.14692293 55 2 -0.022322806
-0.85666215 1.3629928 0.14084367 100 10 -0.022320502
