# .PCD v0.7 - Point Cloud Data file format
VERSION 0.7
FIELDS x y z intensity ring time
SIZE 4 4 4 4 2 4
TYPE F F F F U F
COUNT 1 1 1 1 1 1
WIDTH 894
HEIGHT 1
VIEWPOINT 0 0 0 1 0 0 0
POINTS 894
DATA ascii
-0.55541855 -0.60443658 -0.043020159 35 6 -0.024973469
-0.89019334 -0.96841735 0.30368391 8 14 -0.024971165
-0.60909551 -0.66238654 -0.015707165 32 7 -0.024968861
-0.95997804 -1.0436029 0.37994638 6 15 -0.024966557
-0.57098907 -0.61920875 -0.22569022 53 0 -0.024945822
-0.71724802 -0.77754641 0.018464647 74 8 -0.024943518
-1.1748643 -1.2731881 -0.39996299 35 1 -0.024941213
-0.83992416 -0.9098987 0.064896591 18 9 -0.024938909
-1.1825066 -1.2810218 -0.33887681 39 2 -0.024936605
-0.83938664 -0.90899765 0.10824744 21 10 -0.024934301
-1.1741737 -1.2711037 -0.27407321 37 3 -0.024931997
-0.85144764 -0.92141396 0.15404287 17 11 -0.024929693
-0.59289223 -0.64138716 -0.10724504 69 4 -0.024927389
-0.87308246 -0.94416463 0.2036777 21 12 -0.024925085
-0.55866134 -0.60414487 -0.071990639 89 5 -0.024922781
-0.87855357 -0.94974869 0.25148627 14 13 -0.024920477
-0.53310788 -0.57610744 -0.041136064 78 6 -0.024918174
-0.89092076 -0.96244389 0.30278412 8 14 -0.02491587
-0.65080565 -0.70280623 -0.016719406 7 7 -0.024913566
-0.96230233 -1.0388284 0.37942874 5 15 -0.024911262
-0.57709074 -0.62145865 -0.22724313 60 0 -0.024890525
-0.72267979 -0.77796817 0.018534455 74 8 -0.024888221
-1.1647091 -1.2533766 -0.39501405 30 1 -0.024885917
-0.83493644 -0.89818406 0.064268559 15 9 -0.024883613
-1.1789511 -1.2682585 -0.33658707 39 2 -0.024881309
-0.85069513 -0.91481638 0.1092933 21 10 -0.024879005
-1.1812941 -1.2698902 -0.27469894 37 3 -0.024876701
-0.84789765 -0.91116995 0.15282416 23 11 -0.024874397
-0.5883646 -0.63204873 -0.10602634 68 4 -0.024872094
-0.8790651 -0.94400275 0.20430344 25 12 -0.02486979
-0.57434452 -0.61677212 -0.073733754 70 5 -0.024867486
-0.88320166 -0.94811255 0.25186789 19 13 -0.024865182
-0.54600865 -0.58593249 -0.041973442 95 6 -0.024862878
-0.88364434 -0.94792473 0.29918489 13 14 -0.024860574
-0.65052736 -0.69760525 -0.016649596 3 7 -0.02485827
-0.95933384 -1.0283997 0.37684056 6 15 -0.024855966
-0.58981264 -0.63072854 -0.23138423 62 0 -0.024835229
-0.73358732 -0.78420299 0.018743884 74 8 -0.024832925
-1.1677456 -1.2478805 -0.39456415 35 1 -0.024830621
-0.82987708 -0.88651562 0.063640527 14 9 -0.024828317
-1.1739793 -1.2541026 -0.33391577 38 2 -0.024826013
-0.85524493 -0.91329575 0.10946761 18 10 -0.02482371
-1.1762663 -1.2556676 -0.27250886 36 3 -0.024821406
-0.84835827 -0.90530765 0.15233669 20 11 -0.024819102
-0.58377904 -0.62274992 -0.10480764 81 4 -0.024816798
-0.86884272 -0.92651886 0.20117474 35 12 -0.024814494
-0.58875996 -0.62784344 -0.075302556 48 5 -0.02481219
-0.89053547 -0.94931954 0.25301275 18 13 -0.024809886
-0.53711677 -0.57237178 -0.041136064 48 6 -0.024807582
-0.87494427 -0.93204695 0.29513577 16 14 -0.024805278
-0.63105637 -0.67200673 -0.016091119 9 7 -0.024802973
-0.95762676 -1.0194129 0.37476999 6 15 -0.024800669
-0.57876647 -0.61460179 -0.22620785 70 0 -0.024779933
-0.72946441 -0.7743597 0.01856936 64 8 -0.02477763
-1.1654123 -1.2367052 -0.39231464 33 1 -0.024775326
-0.83829135 -0.88957298 0.06405922 12 9 -0.024773022
-1.1716161 -1.2428545 -0.33200768 39 2 -0.024770718
-0.85296005 -0.90450668 0.10877036 21 10 -0.024768414
-1.1806426 -1.2515537 -0.27250886 32 3 -0.02476611
-0.85968751 -0.91100347 0.15379913 22 11 -0.024763806
-0.59003729 -0.62503886 -0.10553886 75 4 -0.024761502
-0.8691982 -0.92075986 0.20054901 45 12 -0.024759198
-0.58684415 -0.62143868 -0.074779622 38 5 -0.024756894
-0.89923626 -0.95191395 0.25453922 13 13 -0.024754589
-0.55145752 -0.58355814 -0.042078111 27 6 -0.024752285
-0.88756341 -0.93890017 0.2982851 16 14 -0.024749981
-0.61542308 -0.65101922 -0.015637357 33 7 -0.024747677
-0.95303798 -1.0078099 0.37166417 7 15 -0.024745373
-0.58622557 -0.61818492 -0.2282784 75 0 -0.024724638
-0.71138841 -0.7501713 0.018045789 48 8 -0.024722334
-1.1668243 -1.2300065 -0.39141485 30 1 -0.02472003
-0.83589196 -0.88084644 0.063640527 12 9 -0.024717726
-1.1718923 -1.2344855 -0.33086282 38 2 -0.024715422
-0.85474038 -0.90007877 0.10859605 19 10 -0.024713118
-1.1698235 -1.2318749 -0.26906732 28 3 -0.024710814
-0.87090701 -0.91678286 0.15526156 25 11 -0.024708509
-0.58800441 -0.61876184 -0.10480764 81 4 -0.024706205
-0.87104625 -0.91628832 0.20023614 46 12 -0.024703901
-0.58351767 -0.6136114 -0.074082382 34 5 -0.024701597
-0.8983292 -0.94465864 0.25339437 13 13 -0.024699293
-0.5671556 -0.59619701 -0.043124832 30 6 -0.024696989
-0.89738905 -0.94301015 0.30053461 16 14 -0.024694685
-0.62182802 -0.65321225 -0.015742071 32 7 -0.024692381
-0.95388556 -1.0016789 0.37062889 11 15 -0.024690077
-0.58160263 -0.60925072 -0.22569022 79 0 -0.024669342
-0.70709741 -0.74045259 0.017871264 33 8 -0.024667038
-1.1589959 -1.2132438 -0.38736573 32 1 -0.024664734
-0.84172136 -0.88081121 0.063849874 12 9 -0.024662429
-1.1719104 -1.2263343 -0.32971796 40 2 -0.024660125
-0.86460406 -0.90444058 0.10946761 21 10 -0.024657821
-1.1659247 -1.2192184 -0.2671901 20 3 -0.024655517
-0.86861306 -0.90799946 0.15428659 22 11 -0.024653213
-0.58741581 -0.61383712 -0.10432017 64 4 -0.024650909
-0.88380116 -0.92323089 0.20242621 33 12 -0.024648605
-0.58554935 -0.61167294 -0.074082382 34 5 -0.024646301
-0.89618975 -0.93584532 0.25186789 13 13 -0.024643997
-0.56232524 -0.5870021 -0.04260147 32 6 -0.024641693
-0.90606838 -0.94550014 0.30233422 16 14 -0.02463939
-0.61026609 -0.63660222 -0.015393022 41 7 -0.024637086
-0.96272498 -1.0039202 0.37269944 11 15 -0.024634782
-0.59309745 -0.61696565 -0.22931369 81 0 -0.024614045
-0.72215247 -0.7509523 0.018185407 24 8 -0.024611741
-1.1632239 -1.2091908 -0.38736573 32 1 -0.024609437
-0.83232671 -0.86491549 0.062907822 10 9 -0.024607133
-1.1707387 -1.2165776 -0.32819149 40 2 -0.024604829
-0.87051964 -0.90428787 0.10981624 21 10 -0.024602525
-0.54535019 -0.56630701 -0.12452185 1 3 -0.024600221
-0.86902291 -0.90210259 0.15379913 22 11 -0.024597917
-0.57991272 -0.60177714 -0.102614 73 4 -0.024595613
-0.9034701 -0.93720621 0.20618065 19 12 -0.024593309
-0.58076704 -0.60245323 -0.073210821 36 5 -0.024591006
-0.90762794 -0.94119048 0.25415757 13 13 -0.024588702
-0.5699175 -0.59078538 -0.043020159 35 6 -0.024586398
-0.89853758 -0.9311133 0.29873499 16 14 -0.024584094
-0.61387348 -0.63590682 -0.015427927 28 7 -0.02458179
-0.96890754 -1.0033329 0.37373474 11 15 -0.024579486
-0.60465306 -0.62460786 -0.23293714 73 0 -0.024558749
-0.74702728 -0.771411 0.018743884 24 8 -0.024556445
-1.1593021 -1.1967249 -0.38466629 36 1 -0.024554141
-0.82144141 -0.84766221 0.061861105 10 9 -0.024551837
-1.1667805 -1.2040247 -0.32590178 39 2 -0.024549533
-0.88060474 -0.90839624 0.11068779 21 10 -0.024547229
-0.58032811 -0.59843403 -0.13203071 1 3 -0.024544926
-0.86940187 -0.89621413 0.15331164 22 11 -0.024542622
-0.57924491 -0.59690005 -0.10212652 83 4 -0.024540318
-0.90536022 -0.93262947 0.20586778 20 12 -0.024538014
-0.58841759 -0.60614061 -0.073908068 34 5 -0.02453571
-0.91501123 -0.94224161 0.25530246 13 13 -0.024533406
-0.57893443 -0.59595549 -0.043543518 39 6 -0.024531102
-0.90585661 -0.93216377 0.30008471 16 14 -0.024528798
-0.59518158 -0.61225224 -0.014904355 6 7 -0.024526494
-0.97240365 -0.99994481 0.37373474 11 15 -0.02452419
-0.59469318 -0.61004341 -0.2282784 92 0 -0.024503453
-0.77065742 -0.79027355 0.019267458 40 8 -0.024501149
-1.1648331 -1.1940662 -0.38511622 33 1 -0.024498846
-0.82160568 -0.84193063 0.061651766 10 9 -0.024496542
-1.1558937 -1.1844882 -0.321704 38 2 -0.024494238
-0.87820327 -0.8996141 0.10999054 21 10 -0.024491934
-0.60449541 -0.6190173 -0.13703661 5 3 -0.02448963
-0.887784 -0.90879369 0.15599278 23 11 -0.024487326
-0.58132493 -0.59487438 -0.10212652 76 4 -0.024485022
-0.90446734 -0.92522591 0.20492917 25 12 -0.024482718
-0.57938761 -0.59268522 -0.072513573 37 5 -0.024480414
-0.92378503 -0.94465667 0.25682893 14 13 -0.02447811
-0.58380455 -0.59678638 -0.043752864 38 6 -0.024475805
-0.9131937 -0.93317461 0.3014344 16 14 -0.024473501
-0.97453654 -0.9951641 0.37321708 10 15 -0.024468893
-0.6022324 -0.61347824 -0.23034896 94 0 -0.024448158
-0.76780659 -0.78187174 0.019127838 60 8 -0.024445854
-1.1621658 -1.1830418 -0.38286668 35 1 -0.02444355
-0.83713871 -0.85187846 0.06259381 10 9 -0.024441246
-1.1572692 -1.1776456 -0.32094073 37 2 -0.024438942
-0.87714767 -0.89228076 0.10946761 21 10 -0.024436638
-0.58172172 -0.59155107 -0.13140497 11 3 -0.024434334
-0.88399035 -0.89861351 0.15477408 20 11 -0.02443203
-0.58200544 -0.59142679 -0.10188278 79 4 -0.024429725
-0.91184914 -0.9262861 0.20586778 20 12 -0.024427421
-0.56747586 -0.57646048 -0.070770465 13 5 -0.024425117
-0.92707694 -0.94142628 0.25682893 14 13 -0.024422813
-0.5802775 -0.58905369 -0.043334179 40 6 -0.024420509
-0.91507787 -0.92859298 0.3009845 16 14 -0.024418205
-0.97664803 -0.99038076 0.37269944 10 15 -0.024413597
-0.60844445 -0.61549407 -0.23190187 91 0 -0.024392862
-0.77615559 -0.78487426 0.019267458 64 8 -0.024390558
-1.1608067 -1.173436 -0.3810671 36 1 -0.024388254
-0.85837018 -0.86740667 0.06395454 10 9 -0.02438595
-1.1641345 -1.1763899 -0.321704 35 2 -0.024383646
-0.89147043 -0.90054101 0.11086211 22 10 -0.024381341
-0.58656305 -0.59232414 -0.13203071 15 3 -0.024379037
-0.88991565 -0.89834303 0.15526156 23 11 -0.024376733
-0.58825827 -0.59362173 -0.102614 70 4 -0.024374429
-0.9178583 -0.92590326 0.20649351 22 12 -0.024372125
-0.59192741 -0.59711558 -0.073559448 11 5 -0.024369821
-0.92482787 -0.93260831 0.25530246 14 13 -0.024367517
-0.56826437 -0.5728451 -0.042287458 44 6 -0.024365213
-0.93615842 -0.94337535 0.30683324 16 14 -0.024362909
-0.98826659 -0.99519026 0.37580526 10 15 -0.024358302
-0.60513759 -0.60788995 -0.22983132 88 0 -0.024337566
-0.77747947 -0.78074312 0.019232551 54 8 -0.024335261
-1.1566434 -1.1610935 -0.37836766 36 1 -0.024332957
-0.85278457 -0.85606557 0.063326515 10 9 -0.024330653
-1.1626906 -1.1667566 -0.32017753 38 2 -0.024328349
-0.89882869 -0.90165669 0.11138504 18 10 -0.024326045
-0.58444238 -0.58607692 -0.1310921 16 3 -0.024323741
-0.88743818 -0.88960952 0.15428659 25 11 -0.024321437
-0.57480204 -0.57620841 -0.099932872 69 4 -0.024319133
-0.92231899 -0.92425257 0.20680638 25 12 -0.024316829
-0.57852453 -0.57953507 -0.071642019 13 5 -0.024314525
-0.93501377 -0.93632054 0.25721052 14 13 -0.024312222
-0.57449508 -0.57509696 -0.04260147 37 6 -0.024309918
-0.92688644 -0.92785752 0.30278412 16 14 -0.024307614
-0.99975592 -1.0001054 0.37891111 10 15 -0.024303006
-0.61261988 -0.61133826 -0.23190187 76 0 -0.024282269
-0.78714287 -0.78522199 0.019407077 51 8 -0.024279965
-1.1591076 -1.1558754 -0.37791777 38 1 -0.024277661
-0.88107514 -0.87861824 0.065210611 13 9 -0.024275357
-1.158211 -1.1545783 -0.31788781 42 2 -0.024273053
-0.90463603 -0.90148395 0.11173366 18 10 -0.024270749
-0.57518697 -0.57298249 -0.12858914 21 3 -0.024268445
-0.90726274 -0.90347058 0.15721147 23 11 -0.024266142
-0.5724898 -0.57009685 -0.099201649 80 4 -0.024263838
-0.92257875 -0.91840196 0.20618065 25 12 -0.024261534
-0.58044314 -0.57761335 -0.071642019 6 5 -0.02425923
-0.94507295 -0.94013768 0.25911862 15 13 -0.024256926
-0.58489633 -0.58163869 -0.043229505 35 6 -0.024254622
-0.92443103 -0.91928226 0.3009845 16 14 -0.024252318
-1.0058075 -0.9995079 0.37994638 10 15 -0.02424771
-0.60915595 -0.60386312 -0.22983132 80 0 -0.024226973
-0.79542398 -0.78823763 0.019546695 43 8 -0.024224669
-1.1601654 -1.1492825 -0.37701797 38 1 -0.024222365
-0.89690924 -0.88818556 0.066152655 12 9 -0.024220061
-1.1550584 -1.1438239 -0.31597972 43 2 -0.024217758
-0.90478873 -0.89567578 0.11138504 18 10 -0.024215454
-0.58550847 -0.57940871 -0.13046636 26 3 -0.02421315
-0.9074313 -0.89766479 0.15672398 23 11 -0.024210846
-0.57871085 -0.57228255 -0.099932872 69 4 -0.024208542
-0.92999375 -0.91934204 0.20711927 24 12 -0.024206238
-0.57952154 -0.57288396 -0.071293391 6 5 -0.024203934
-0.9523747 -0.94113845 0.26026347 14 13 -0.02420163
-0.58398002 -0.57688874 -0.043020159 35 6 -0.024199326
-0.93734056 -0.92563474 0.30413383 16 14 -0.024197021
-1.0065403 -0.99327707 0.37891111 11 15 -0.024192413
-0.60575324 -0.59631205 -0.22776078 76 0 -0.024171678
-0.80102116 -0.78826165 0.019616505 47 8 -0.024169374
-1.1613916 -1.1424923 -0.37611815 38 1 -0.02416707
-0.89858007 -0.88364899 0.066047981 13 9 -0.024164766
-1.1562444 -1.1370319 -0.31521648 43 2 -0.024162462
-0.90790951 -0.89251226 0.11138504 19 10 -0.024160158
-0.5748468 -0.56490046 -0.12765054 32 3 -0.024157854
-0.92047197 -0.90422964 0.15843016 20 11 -0.02415555
-0.5778724 -0.56747699 -0.099445395 72 4 -0.024153246
-0.9360162 -0.91885787 0.207745 19 12 -0.024150942
-0.53601992 -0.52619404 -0.065715425 8 5 -0.024148637
-0.95285147 -0.935058 0.25950024 14 13 -0.024146333
-0.58599037 -0.57484657 -0.043020159 35 6 -0.024144029
-0.95865339 -0.94009501 0.30998254 16 14 -0.024141725
-1.0044824 -0.98434871 0.37684056 10 15 -0.024137117
-0.61473817 -0.60094631 -0.23034896 63 0 -0.024116382
-0.80376804 -0.78546059 0.019616505 52 8 -0.024114078
-1.1528268 -1.1261755 -0.37206903 41 1 -0.024111774
-0.90308785 -0.88190258 0.066152655 12 9 -0.02410947
-1.1602062 -1.1329893 -0.31521648 45 2 -0.024107166
-0.90959388 -0.88794553 0.11121072 18 10 -0.024104862
-0.56691891 -0.55323297 -0.12546046 40 3 -0.024102557
-0.92504346 -0.90239745 0.1586739 15 11 -0.024100253
-0.58411324 -0.56961429 -0.10017661 69 4 -0.024097949
-0.94204694 -0.91834265 0.20837073 13 12 -0.024095645
-0.9518916 -0.9276157 0.25835541 18 13 -0.024091037
-0.57940942 -0.56443572 -0.042392131 37 6 -0.024088733
-0.96611762 -0.94082165 0.31133226 16 14 -0.024086429
-1.024526 -0.99700421 0.3830522 10 15 -0.024081821
-0.62514901 -0.60687047 -0.23345479 58 0 -0.024061086
-0.81224525 -0.78822058 0.019756125 52 8 -0.024058782
-1.1525545 -1.1180742 -0.37071934 42 1 -0.024056477
-0.89182276 -0.86484063 0.065105937 14 9 -0.024054173
-1.1585164 -1.1234654 -0.31369001 45 2 -0.024051869
-0.92413223 -0.8958593 0.11260521 16 10 -0.024049565
-0.56600946 -0.54850131 -0.12483472 43 3 -0.024047261
-0.94102019 -0.91159356 0.16086754 16 11 -0.024044957
-0.57611579 -0.5579052 -0.098470435 74 4 -0.024042653
-0.95802039 -0.92741424 0.21118654 16 12 -0.024040349
-0.95512384 -0.92428738 0.25835541 18 13 -0.024035741
-0.57132769 -0.55268914 -0.041659426 34 6 -0.024033438
-0.95818883 -0.926606 0.30773303 15 14 -0.024031134
-1.0279999 -0.99342185 0.3830522 10 15 -0.024026526
-0.63282692 -0.6100474 -0.23552534 55 0 -0.024005789
-0.82363099 -0.7937063 0.019965554 49 8 -0.024003485
-1.149433 -1.1072842 -0.36846983 41 1 -0.024001181
-0.89195913 -0.85895127 0.064896591 20 9 -0.023998877
-1.151118 -1.1085198 -0.31063706 47 2 -0.023996573
-0.93012452 -0.8953914 0.11295383 18 10 -0.023994269
-0.57788402 -0.55611044 -0.1270248 56 3 -0.023991965
-0.96136373 -0.92481786 0.16379242 13 11 -0.023989661
-0.56804383 -0.54625899 -0.096764266 78 4 -0.023987357
-0.95697957 -0.91995782 0.21024795 12 12 -0.023985054
-0.96259105 -0.92502862 0.25950024 25 13 -0.023980446
-0.57325345 -0.55069143 -0.041659426 34 6 -0.023978142
-0.96703982 -0.92865479 0.30953264 16 14 -0.023975838
-1.0300677 -0.98848981 0.38253456 9 15 -0.02397123
-0.63495243 -0.60783482 -0.23552534 48 0 -0.023950493
-0.82784122 -0.79220891 0.020000458 43 8 -0.023948189
-1.150475 -1.1005707 -0.36757001 41 1 -0.023945885
-0.90505636 -0.86549515 0.065629296 13 9 -0.023943581
-1.1521428 -1.101781 -0.30987382 45 2 -0.023941278
-0.92892367 -0.88800925 0.11243091 19 10 -0.023938973
-0.5755375 -0.54999548 -0.12608619 54 3 -0.02393667
-0.96745688 -0.92419881 0.16427989 14 11 -0.023934366
-0.57568961 -0.54975682 -0.09773922 72 4 -0.023932062
-0.95875633 -0.91524738 0.20993507 11 12 -0.023929758
-0.96723455 -0.92301834 0.25988188 39 13 -0.02392515
-0.58962369 -0.5624733 -0.042706143 21 6 -0.023922846
-0.97732705 -0.93199784 0.31178215 28 14 -0.023920542
-1.0321131 -0.98355573 0.38201693 10 15 -0.023915933
-0.62866944 -0.59762865 -0.23241952 52 0 -0.023894787
-0.82480323 -0.7838043 0.019860838 43 8 -0.023892483
-1.151484 -1.0938637 -0.36667022 41 1 -0.023890179
-0.91531318 -0.86920738 0.066152655 10 9 -0.023887875
-1.1517105 -1.0936971 -0.30872896 48 2 -0.02388557
-0.93201774 -0.88476127 0.11243091 15 10 -0.023883266
-0.57315516 -0.54390377 -0.12514758 57 3 -0.023880962
-0.97211701 -0.9221825 0.16452362 12 11 -0.023878658
-0.57760531 -0.5477438 -0.09773922 72 4 -0.023876354
-0.9619453 -0.91189516 0.20993507 10 12 -0.02387405
-0.96332526 -0.91288453 0.25797379 49 13 -0.023869444
-0.60028338 -0.56865287 -0.043334179 20 6 -0.02386714
-0.99330908 -0.94064015 0.31583127 47 14 -0.023864836
-1.0369434 -0.98127455 0.38253456 9 15 -0.023860227
-0.6322608 -0.59664613 -0.23293714 36 0 -0.02383949
-0.82898891 -0.78229278 0.019895744 44 8 -0.023837186
-1.1496249 -1.084489 -0.36487061 41 1 -0.023834882
-0.91107643 -0.85915571 0.065629296 14 9 -0.023832578
-1.1557117 -1.0894682 -0.30872896 49 2 -0.023830274
-0.94250435 -0.88817137 0.11330246 14 10 -0.02382797
-0.57226896 -0.53909057 -0.12452185 57 3 -0.023825666
-0.9666605 -0.91061658 0.1630612 12 11 -0.023823364
-0.57951379 -0.54572421 -0.09773922 76 4 -0.02382106
-0.97231412 -0.91530204 0.21149944 9 12 -0.023818756
-0.96523494 -0.9080022 0.25759214 43 13 -0.023814147
-0.58344865 -0.54866195 -0.041973442 11 6 -0.023811843
-1.0038495 -0.94366688 0.31808078 57 14 -0.023809539
-1.050217 -0.98690951 0.38615805 9 15 -0.023804931
-0.63715881 -0.59707761 -0.23397243 21 0 -0.023784194
-0.85082233 -0.79702151 0.020349504 17 8 -0.02378189
-1.1479024 -1.07494 -0.36307099 41 1 -0.023779586
-0.89657569 -0.83958805 0.064373232 39 9 -0.023777284
-1.1566408 -1.0827442 -0.30796573 48 2 -0.02377498
-0.94705367 -0.88623732 0.11347678 12 10 -0.023772676
-0.57126218 -0.53439063 -0.12389611 59 3 -0.023770371
-0.96999168 -0.90706742 0.1630612 10 11 -0.023768067
-0.57416546 -0.53691882 -0.096520528 78 4 -0.023765763
-0.97406 -0.91055328 0.21118654 8 12 -0.023763459
-0.97413707 -0.90998834 0.25911862 21 13 -0.023758851
-0.58827978 -0.54934829 -0.042182785 11 6 -0.023756547
-1.0155188 -0.94831324 0.32078022 52 14 -0.023754243
-1.0508306 -0.98060173 0.38512275 7 15 -0.023749635
-0.6419633 -0.59759396 -0.2350077 21 0 -0.0237289
-0.87395549 -0.81326735 0.020838173 12 8 -0.023726596
-1.1471802 -1.0671456 -0.36172128 42 1 -0.023724291
-0.88180667 -0.82028615 0.063117169 91 9 -0.023721987
-1.1458482 -1.0655335 -0.30414957 50 2 -0.023719683
-0.94852811 -0.88173532 0.11330246 6 10 -0.023717379
-0.57592517 -0.53518277 -0.12452185 57 3 -0.023715075
-0.98753834 -0.91735625 0.16549858 3 11 -0.023712771
-0.57157964 -0.53095877 -0.095789306 81 4 -0.023710467
-0.9625991 -0.89387643 0.20805787 1 12 -0.023708163
-0.99585754 -0.92411339 0.26407966 6 13 -0.023703555
-0.58424127 -0.54196125 -0.041764095 11 6 -0.023701251
-1.018658 -0.94494039 0.32078022 20 14 -0.023698946
-1.0696611 -0.99155813 0.39081678 5 15 -0.023694338
-0.63543111 -0.58759242 -0.23190187 22 0 -0.023673603
-0.86783707 -0.80222028 0.020628745 26 8 -0.023671299
-1.1478503 -1.0606903 -0.36082149 42 1 -0.023668995
-0.88906586 -0.82126874 0.063431181 43 9 -0.023666691
-1.1378382 -1.0510706 -0.30109662 49 2 -0.023664387
-0.95291066 -0.87993675 0.11347678 1 10 -0.023662083
-0.58059973 -0.53594971 -0.12514758 56 3 -0.023659779
-0.57634777 -0.53165227 -0.09627679 78 4 -0.023655171
-0.98592502 -0.90883017 0.26064509 1 13 -0.023648258
-0.5654726 -0.52107275 -0.040298689 6 6 -0.023645954
-1.0873293 -1.0009019 0.39599317 1 15 -0.023639042
-0.64174736 -0.58929056 -0.23345479 21 0 -0.023618307
-0.85442746 -0.78431123 0.020244792 63 8 -0.023616003
-1.1486738 -1.0540422 -0.35992166 42 1 -0.023613699
-0.89928639 -0.82491076 0.06395454 28 9 -0.023611395
-1.1443937 -1.0497465 -0.30185983 48 2 -0.023609091
-0.57372993 -0.52591109 -0.12327038 57 3 -0.023604482
-0.58112764 -0.53231883 -0.096764266 74 4 -0.023599874
-0.57907587 -0.52988207 -0.041136064 12 6 -0.02359066
-0.7142601 -0.65312421 -0.016893929 3 7 -0.023586052
-0.63380802 -0.57793522 -0.22983132 24 0 -0.023563011
-0.85420406 -0.77862984 0.020174982 64 8 -0.023560707
-1.1365017 -1.035588 -0.35497275 41 1 -0.023558402
-0.91692573 -0.83521616 0.065001264 9 9 -0.023556098
-1.1465997 -1.0444232 -0.30147824 51 2 -0.023553794
-0.56679738 -0.51592678 -0.12139316 63 3 -0.023549186
-0.58298212 -0.53028721 -0.096764266 74 4 -0.02354458
-0.57353097 -0.52114183 -0.040612705 18 6 -0.023535363
-0.71653563 -0.65062696 -0.016893929 3 7 -0.023530755
-0.65300572 -0.59127939 -0.23604298 13 0 -0.023507714
-0.86432952 -0.78235304 0.020349504 24 8 -0.02350541
-1.1372195 -1.0289997 -0.35407296 41 1 -0.023503106
-0.96723443 -0.87488401 0.06835077 5 9 -0.023500802
-1.1415023 -1.0325129 -0.29918852 51 2 -0.023498498
-0.57152581 -0.51659435 -0.1220189 63 3 -0.023493892
-0.57599103 -0.52026528 -0.095301837 81 4 -0.023489283
-0.48236144 -0.43554124 0.10293389 4 12 -0.023486979
-0.55755252 -0.50308079 -0.039356641 27 6 -0.023480067
-0.68909961 -0.62134004 -0.016195834 4 7 -0.023475459
-0.64357328 -0.57866311 -0.23190187 15 0 -0.023452418
-0.87746614 -0.78868836 0.020593841 9 8 -0.023450116
-1.1393547 -1.0237215 -0.35362303 42 1 -0.023447812
-0.99702835 -0.89552528 0.070234857 9 9 -0.023445508
-1.1377965 -1.0219625 -0.29728043 49 2 -0.023443203
-0.57332546 -0.51459628 -0.1220189 60 3 -0.023438595
-0.48167378 -0.4321813 0.079458818 10 11 -0.023436291
-0.57189262 -0.51294965 -0.094326884 74 4 -0.023433987
-0.44858053 -0.40220588 0.095425032 5 12 -0.023431683
-0.57418031 -0.51445937 -0.040403362 18 6 -0.023424771
-0.65848899 -0.58958483 -0.015427927 5 7 -0.023420162
-0.65855879 -0.58799279 -0.23656061 13 0 -0.023397123
-0.87573791 -0.78162611 0.020489125 9 8 -0.023394819
-1.1429212 -1.0197381 -0.35362303 42 1 -0.023392515
-1.0195254 -0.90932178 0.071595594 10 9 -0.023390211
-1.1325663 -1.0101438 -0.29499072 50 2 -0.023387907
-0.47142056 -0.4203158 0.055256739 9 10 -0.023385603
-0.58101696 -0.51784927 -0.12327038 57 3 -0.023383299
-0.44167945 -0.39352196 0.072634131 11 11 -0.023380995
-0.57367951 -0.51095039 -0.094326884 74 4 -0.023378691
-0.42047483 -0.37436631 0.089167662 11 12 -0.023376387
-0.55955887 -0.49784863 -0.039251972 13 6 -0.023369474
-0.62766534 -0.55805141 -0.014660021 7 7 -0.023364866
-0.64615196 -0.57287443 -0.23138423 15 0 -0.023341827
-0.87397146 -0.77458543 0.020384412 9 8 -0.023339523
-1.134805 -1.005404 -0.35002384 42 1 -0.023337219
-1.0210401 -0.90461165 0.071490921 9 9 -0.023334915
-1.1360853 -1.0061845 -0.29499072 50 2 -0.023332611
-0.57098711 -0.50534451 -0.12076741 61 3 -0.023328003
-0.44602385 -0.39460865 0.073121615 11 11 -0.023325698
-0.57099867 -0.5049994 -0.093595661 71 4 -0.023323394
-0.42911246 -0.3795132 0.090732001 16 12 -0.02332109
-0.46927181 -0.41473889 0.12173614 9 13 -0.023316482
-0.57027394 -0.50382656 -0.039880004 13 6 -0.023314178
-0.62801367 -0.55464321 -0.014625117 21 7 -0.023309572
-0.63654774 -0.56040305 -0.22724313 17 0 -0.023286531
-0.88103801 -0.77564704 0.020489125 7 8 -0.023284227
-1.1264297 -0.99133575 -0.34642464 38 1 -0.023281923
-0.97020787 -0.85354936 0.06772273 7 9 -0.023279618
-1.1395906 -1.0022126 -0.29499072 50 2 -0.023277314
-0.56375831 -0.49562261 -0.11889021 63 3 -0.023272706
-0.4503122 -0.39574826 0.073609091 11 11 -0.023270402
-0.57714415 -0.50703359 -0.094326884 74 4 -0.023268098
-0.43488735 -0.3819235 0.09167061 16 12 -0.023265794
-0.49129978 -0.43131369 0.12707879 8 13 -0.023261188
-0.5554288 -0.48744118 -0.03872861 42 6 -0.023258884
-0.61791831 -0.54189968 -0.014345878 22 7 -0.023254275
-0.64276534 -0.56210428 -0.22879605 16 0 -0.023231234
-0.88675129 -0.77519917 0.020558937 7 8 -0.02322893
-1.1254809 -0.98355091 -0.34507492 39 1 -0.023226626
-0.91602391 -0.80022544 0.063745201 14 9 -0.023224322
-1.1429079 -0.99842805 -0.29499072 50 2 -0.023222018
-0.57143724 -0.49884814 -0.12014168 61 3 -0.023217412
-0.44570819 -0.38895306 0.072634131 11 11 -0.023215108
-0.57891053 -0.50501591 -0.094326884 83 4 -0.023212804
-0.43770677 -0.38170126 0.091983475 16 12 -0.023210499
-0.44840577 -0.39089379 0.11563025 9 13 -0.023205891
-0.55110395 -0.48025078 -0.038309924 58 6 -0.023203587
-0.63036227 -0.54893219 -0.014590211 28 7 -0.023198979
-0.66076869 -0.57379019 -0.23449005 14 0 -0.023175938
-0.88492137 -0.76816672 0.02045422 7 8 -0.023173634
-1.1244919 -0.97578442 -0.34372523 42 1 -0.023171332
-0.89165461 -0.77346569 0.061861105 7 9 -0.023169028
-1.1330388 -0.98285425 -0.29155618 47 2 -0.023166724
-0.57019001 -0.49426255 -0.11951595 61 3 -0.023162115
-0.45906487 -0.39779475 0.074584045 11 11 -0.023159811
-0.57766891 -0.50039274 -0.0938394 66 4 -0.023157507
-0.42559657 -0.36853331 0.089167662 11 12 -0.023155203
-0.42007989 -0.36362803 0.1079979 10 13 -0.023150595
-0.55730784 -0.48224491 -0.03862394 64 6 -0.023148291
-0.49226671 -0.42581367 0.1502673 12 14 -0.023145987
-0.62471151 -0.54018867 -0.014415688 36 7 -0.023143683
-0.65691519 -0.56643414 -0.23241952 15 0 -0.023120644
-0.86184788 -0.74287808 0.019860838 7 8 -0.023118339
-1.1323202 -0.97566938 -0.34507492 39 1 -0.023116035
-0.8837561 -0.76122445 0.061128404 1 9 -0.023113731
-1.132 -0.97504961 -0.29041129 50 2 -0.023111427
-0.57490605 -0.49484649 -0.12014168 63 3 -0.023106819
-0.46947899 -0.40395841 0.076046474 10 11 -0.023104515
-0.57339233 -0.49319521 -0.092864446 73 4 -0.023102211
-0.43586731 -0.3747727 0.091044866 5 12 -0.023099907
-0.46303457 -0.39799163 0.1186832 9 13 -0.023095299
-0.56201768 -0.48289973 -0.038833283 42 6 -0.023092994
-0.63569641 -0.54582077 -0.014625117 35 7 -0.023088386
-0.654486 -0.56036836 -0.2308666 15 0 -0.023065347
-0.78239816 -0.6696493 0.01797598 7 8 -0.023063043
-1.1357187 -0.9717111 -0.34507492 41 1 -0.023060739
-0.85301578 -0.72957504 0.058825623 1 9 -0.023058435
-1.1279367 -0.9647119 -0.28850323 46 2 -0.023056131
-0.57362658 -0.49026996 -0.11951595 61 3 -0.023051523
-0.49201575 -0.42036983 0.079458818 10 11 -0.023049219
-0.58265781 -0.49763674 -0.094083138 76 4 -0.023046914
-0.4341681 -0.37068373 0.090419129 5 12 -0.02304461
-0.47636762 -0.40656886 0.12173614 9 13 -0.023040002
-0.57889396 -0.49389815 -0.039880004 13 6 -0.023037698
-0.62238067 -0.53062469 -0.014276069 37 7 -0.02303309
-0.64466345 -0.54806995 -0.22672549 17 0 -0.023010051
-0.72225708 -0.6138202 0.016544882 18 8 -0.023007747
-1.1272228 -0.95764697 -0.34147573 41 1 -0.023005443
-0.87078089 -0.7395215 0.05987234 1 9 -0.023003139
-1.1312976 -0.96076852 -0.28850323 46 2 -0.023000835
-0.56629777 -0.48059556 -0.11763873 63 3 -0.022996226
-0.49348021 -0.4186497 0.079458818 10 11 -0.022993922
-0.58590531 -0.49688375 -0.094326884 69 4 -0.022991618
-0.44148657 -0.37427554 0.09167061 5 12 -0.022989314
-0.5638513 -0.47767329 -0.03872861 21 6 -0.022982404
-0.63643897 -0.53878534 -0.014555307 35 7 -0.022977795
-0.66428697 -0.56077015 -0.23293714 14 0 -0.022954755
-0.68313229 -0.57647461 0.015602452 31 8 -0.02295245
-1.1216214 -0.94616711 -0.33877629 39 1 -0.022950146
-0.86114204 -0.72617716 0.059034962 1 9 -0.022947842
-1.1331433 -0.95554823 -0.28812161 48 2 -0.022945538
-0.57099301 -0.48116165 -0.11826447 60 3 -0.02294093
-0.577007 -0.48588514 -0.092620708 78 4 -0.022936324
-0.46697012 -0.39308602 0.096676514 5 12 -0.02293402
-0.5670436 -0.47698802 -0.038833283 21 6 -0.022927107
-0.64596951 -0.54299408 -0.014729831 41 7 -0.022922499
-0.66475981 -0.55720693 -0.23241952 7 0 -0.022899458
-0.68514043 -0.57408649 0.015602452 42 8 -0.022897154
-1.1249173 -0.9422462 -0.33877629 41 1 -0.02289485
-0.87592226 -0.73342448 0.05987234 1 9 -0.022892546
-1.1274402 -0.94402462 -0.28583187 48 2 -0.022890244
-0.57266927 -0.47916541 -0.11826447 61 3 -0.022885635
-0.5710851 -0.47750139 -0.091402017 66 4 -0.022881027
-0.49865267 -0.4167904 0.10293389 4 12 -0.022878723
-0.58250123 -0.48652875 -0.039775331 19 6 -0.022871811
-0.62022698 -0.51767147 -0.014101544 47 7 -0.022867203
-0.66076142 -0.54993975 -0.23034896 15 0 -0.022844164
-0.68714005 -0.57169157 0.015602452 42 8 -0.02284186
-1.1281996 -0.93831372 -0.33877629 41 1 -0.022839556
-0.88462031 -0.73546988 0.06029103 1 9 -0.022837251
-1.1216708 -0.9325527 -0.28354219 48 2 -0.022834947
-0.57737708 -0.47968835 -0.11889021 61 3 -0.022830339
-0.56511182 -0.46916476 -0.090183318 63 4 -0.022825731
-0.50010443 -0.41504735 0.10293389 4 12 -0.022823427
-0.5872708 -0.48704231 -0.039984677 19 6 -0.022816515
-0.6266492 -0.51933128 -0.014206259 38 7 -0.022811906
-0.66416603 -0.54886073 -0.2308666 15 0 -0.022788867
-0.68604821 -0.56674218 0.015532642 43 8 -0.022786563
-1.1299654 -0.93312895 -0.33832639 42 1 -0.022784259
-0.89642352 -0.74000657 0.060919058 1 9 -0.022781955
-1.134003 -0.93613088 -0.28583187 42 2 -0.022779651
-0.56685752 -0.46761373 -0.11638726 66 3 -0.022775043
-0.57134128 -0.47097743 -0.09091454 66 4 -0.022770435
-0.58125824 -0.47864145 -0.039461315 20 6 -0.022761218
-0.64081132 -0.52730548 -0.014485498 29 7 -0.02275661
-0.66010416 -0.5416373 -0.22879605 16 0 -0.022733571
-0.683384 -0.56053936 0.015427927 45 8 -0.022731267
-1.124174 -0.92176557 -0.33562699 49 1 -0.022728963
-0.88046533 -0.72167957 0.059662998 1 9 -0.022726659
-1.1372641 -0.93216652 -0.28583187 34 2 -0.022724355
-0.56237364 -0.46062541 -0.11513578 68 3 -0.022719746
-0.57759029 -0.47275218 -0.091645755 65 4 -0.022715138
-0.58137929 -0.47534534 -0.039356641 27 6 -0.022705924
-0.6380024 -0.52126992 -0.014380784 29 7 -0.022701316
-0.69194525 -0.56373364 -0.2391488 12 0 -0.022678275
-0.68998796 -0.561939 0.015532642 47 8 -0.022675971
-1.1183172 -0.91045374 -0.33292755 49 1 -0.022673666
-0.88607717 -0.7211231 0.05987234 1 9 -0.022671362
-1.1374657 -0.92571259 -0.28506866 30 2 -0.022669058
-0.57010818 -0.46364504 -0.11638726 66 3 -0.02266445
-0.56845325 -0.46196944 -0.089939587 73 4 -0.022659842
-0.5644275 -0.45820731 -0.038100582 29 6 -0.022650627
-0.65534765 -0.53163773 -0.014729831 27 7 -0.022646019
-0.67738724 -0.54795027 -0.23345479 14 0 -0.022622978
-0.69194531 -0.55952704 0.015532642 43 8 -0.022620674
-1.1260353 -0.91021943 -0.33427727 50 1 -0.02261837
-0.88237512 -0.71300453 0.059453651 1 9 -0.022616066
-1.1284739 -0.91186506 -0.28201571 27 2 -0.022613764
-0.57018632 -0.46041104 -0.11607439 62 3 -0.022609156
-0.56233788 -0.45374969 -0.088720888 64 4 -0.022604547
-0.57224345 -0.46124801 -0.038519271 21 6 -0.022595331
-0.64941269 -0.52307498 -0.014555307 21 7 -0.022590723
-0.68080187 -0.54679221 -0.23397243 14 0 -0.022564888
-0.68921626 -0.55335248 0.015427927 71 8 -0.022562584
-1.1261662 -0.90384376 -0.33337748 50 1 -0.02256028
-0.87862706 -0.70492083 0.059034962 1 9 -0.022557976
-1.1285872 -0.9054634 -0.28125247 18 2 -0.022555672
-0.57333124 -0.45965353 -0.11638726 64 3 -0.022551063
-0.56391847 -0.45178381 -0.088720888 64 4 -0.022546455
-0.58476579 -0.46798325 -0.039251972 13 6 -0.022537241
-0.63249391 -0.50581783 -0.014136449 23 7 -0.022532633
-0.67062318 -0.53477687 -0.22983132 16 0 -0.022509592
-0.67863435 -0.54097134 0.015148689 94 8 -0.022507288
-1.1277901 -0.89869291 -0.33292755 52 1 -0.022504983
-0.8810823 -0.70184958 0.059034962 1 9 -0.022502679
-1.1133137 -0.88683963 -0.27667305 12 2 -0.022500375
-0.56720454 -0.45149836 -0.11482291 58 3 -0.022495767
-0.57481331 -0.45722705 -0.090183318 63 4 -0.022491161
-0.59265065 -0.47090915 -0.039670657 19 6 -0.022481944
-0.65774679 -0.52225888 -0.014660021 14 7 -0.022477336
-0.68308794 -0.54082704 -0.23345479 14 0 -0.022454295
-0.68208653 -0.53984034 0.015183594 100 8 -0.022451991
-1.1186942 -0.88507777 -0.32932836 51 1 -0.022449687
-0.8835271 -0.69876951 0.059034962 1 9 -0.022447385
-0.59284842 -0.46887571 -0.14692293 55 2 -0.022445081
-0.55947834 -0.44216663 -0.1129457 58 3 -0.022440473
-0.57952142 -0.45767859 -0.090670794 61 4 -0.022435864
-0.5848825 -0.46141547 -0.039042629 13 6 -0.022426648
-0.68783295 -0.54224372 -0.015288308 18 7 -0.02242204
-0.67585903 -0.53127587 -0.23034896 15 0 -0.022399001
-0.68082207 -0.53498501 0.015113784 100 8 -0.022396697
-1.1171794 -0.87755597 -0.32797864 52 1 -0.022394393
-0.8796773 -0.69074744 0.058616273 1 9 -0.022392089
-0.59602547 -0.46801606 -0.14730455 6 2 -0.022389784
-0.56412649 -0.44264981 -0.11357144 62 3 -0.022385176
-0.56861848 -0.44585395 -0.088720888 64 4 -0.022380568
-0.57705539 -0.45198166 -0.038414594 14 6 -0.022371352
-0.72279024 -0.56572229 -0.016021309 24 7 -0.022366744
-0.6777094 -0.52891344 -0.23034896 15 0 -0.022343704
-0.6858387 -0.53506523 0.015183594 100 8 -0.0223414
-1.1064057 -0.86286515 -0.32392952 49 1 -0.022339096
-0.89468431 -0.69749647 0.059453651 1 9 -0.022336792
-0.58217227 -0.45386189 -0.14348838 7 2 -0.022334488
-0.56722653 -0.44189197 -0.11388431 64 3 -0.02232988
-0.56547207 -0.44020808 -0.08798968 66 4 -0.022325272
-0.59124279 -0.45977309 -0.039251972 13 6 -0.022316055
-0.75634056 -0.58773589 -0.016719406 23 7 -0.022311447
-0.67649734 -0.52417797 -0.22931369 16 0 -0.022288408
-0.69560677 -0.53879082 0.015358118 89 8 -0.022286104
-1.100166 -0.85183942 -0.32123011 49 1 -0.0222838
-0.89711356 -0.69436914 0.059453651 1 9 -0.022281496
-0.5495972 -0.42539024 -0.13509277 8 2 -0.022279192
-0.57032812 -0.44111779 -0.11419717 58 3 -0.022274584
-0.56700528 -0.43823153 -0.08798968 60 4 -0.022269975
-0.58335859 -0.4503831 -0.03862394 14 6 -0.022260761
-0.75680423 -0.58387065 -0.016684501 23 7 -0.022256153
-0.68291646 -0.52534723 -0.2308666 23 0 -0.022233112
-0.68638706 -0.52782619 0.015113784 85 8 -0.022230808
-1.0923177 -0.83968025 -0.31808078 47 1 -0.022228504
-0.86774194 -0.66704565 0.057360213 1 9 -0.0222262
-0.54796529 -0.42107686 -0.13432954 17 2 -0.022223895
-0.56403065 -0.43310887 -0.11263283 66 3 -0.022219287
-0.57168126 -0.43866649 -0.08847715 60 4 -0.022214681
-0.60711956 -0.46535438 -0.040089346 6 6 -0.022205465
-0.7571491 -0.5801416 -0.016649596 23 7 -0.022200856
-0.68167555 -0.52061516 -0.22983132 24 0 -0.022177815
-0.69131196 -0.52797478 0.015183594 74 8 -0.022175511
-1.0501771 -0.80175978 -0.30503362 54 1 -0.022173207
-0.87006491 -0.66401279 0.057360213 1 9 -0.022170903
-0.55255365 -0.42154294 -0.13509277 16 2 -0.022168599
-0.56389314 -0.43003818 -0.11231996 61 3 -0.022163993
-0.5794484 -0.44158119 -0.089452103 64 4 -0.022159385
-0.61819452 -0.47059709 -0.040717378 6 6 -0.022150168
-0.80214113 -0.6101836 -0.017592026 18 7 -0.02214556
-0.68185902 -0.51718426 -0.22931369 24 0 -0.022122519
-0.69315088 -0.52555823 0.015183594 74 8 -0.022120217
-1.046757 -0.79338086 -0.30323401 40 1 -0.022117913
-0.87237751 -0.66097164 0.057360213 1 9 -0.022115609
-0.55707806 -0.42207965 -0.135856 24 2 -0.022113305
-0.56539071 -0.42806733 -0.11231996 65 3 -0.022108696
-0.55882329 -0.42278802 -0.086039767 63 4 -0.022104088
-0.59433907 -0.44916904 -0.039042629 6 6 -0.022094872
-0.80586219 -0.60858482 -0.01762693 21 7 -0.022090264
-0.70072806 -0.52746153 -0.2350077 14 0 -0.022067225
-0.6933834 -0.52193296 0.015148689 53 8 -0.022064921
-0.9825626 -0.73933923 -0.28388825 46 1 -0.022062616
-0.87467957 -0.65792227 0.057360213 1 9 -0.022060312
-0.56646711 -0.4259344 -0.13776411 24 2 -0.022058008
-0.5606389 -0.4212456 -0.11106849 61 3 -0.0220534
-0.56347007 -0.42321923 -0.086527243 63 4 -0.022048792
-0.63113296 -0.47335166 -0.04134541 5 6 -0.022039576
-0.79358196 -0.59497231 -0.017312787 25 7 -0.022034967
-0.70101744 -0.52385587 -0.23449005 14 0 -0.022011928
-0.70971018 -0.53015882 0.015462833 52 8 -0.022009624
-0.90875542 -0.67859995 -0.26184303 52 1 -0.02200732
-0.87708491 -0.65471214 0.057360213 1 9 -0.022005016
-0.54907119 -0.40986174 -0.13318469 34 2 -0.022002712
-0.56527263 -0.42164838 -0.11169422 59 3 -0.021998104
-0.56820083 -0.42352375 -0.08701472 56 4 -0.021993496
-0.60714984 -0.45206118 -0.039670657 6 6 -0.021984279
-0.78292245 -0.58251047 -0.017033549 27 7 -0.021979673
-0.69508415 -0.51565063 -0.23190187 15 0 -0.021956632
-0.69549429 -0.51576674 0.015113784 51 8 -0.021954328
-0.83754039 -0.62087923 -0.24069762 29 1 -0.021952024
-0.87936497 -0.65164649 0.057360213 1 9 -0.02194972
-0.54418916 -0.40326709 -0.13165821 53 2 -0.021947416
-0.56674105 -0.41967264 -0.11169422 61 3 -0.021942807
-0.56648415 -0.41917634 -0.086527243 57 4 -0.021938199
-0.63763452 -0.4713082 -0.041554753 5 6 -0.021928985
-0.78816807 -0.58214998 -0.017103357 22 7 -0.021924376
-0.7077685 -0.52124041 -0.23552534 13 0 -0.021901336
-0.70534229 -0.51926351 0.015288308 48 8 -0.021899031
-0.84284163 -0.62026191 -0.24159741 50 1 -0.021896727
-0.88163429 -0.64857298 0.057360213 1 9 -0.021894423
-0.55982637 -0.41183543 -0.13509277 58 2 -0.021892119
-0.55865282 -0.41067168 -0.10981701 59 3 -0.021887513
-0.57114363 -0.41954675 -0.08701472 56 4 -0.021882905
-0.59096771 -0.43363288 -0.038414594 7 6 -0.021873688
-0.796646 -0.58412492 -0.017242977 24 7 -0.02186908
-0.71270287 -0.52104682 -0.23656061 13 0 -0.021846039
-0.70392162 -0.51443845 0.015218498 49 8 -0.021843735
-0.79307395 -0.57938057 -0.22675066 29 1 -0.021841433
-0.86453754 -0.6313566 0.05610415 1 9 -0.021839129
-0.56760246 -0.41451013 -0.13661924 49 2 -0.021836825
-0.56008291 -0.40871927 -0.10981701 61 3 -0.021832217
-0.56458491 -0.41170245 -0.085796028 47 4 -0.021827608
-0.60539287 -0.44097483 -0.039251972 6 6 -0.021818392
-0.80514705 -0.58604795 -0.017382598 19 7 -0.021813784
-0.71451735 -0.51855576 -0.23656061 13 0 -0.021790745
-0.71380591 -0.51784962 0.015393022 46 8 -0.021788441
-0.78878146 -0.57203221 -0.22495104 32 1 -0.021786137
-0.85369176 -0.61910582 0.055266771 1 9 -0.021783832
-0.55632979 -0.40330783 -0.13356631 60 2 -0.021781528
-0.56470579 -0.40907928 -0.11044274 61 3 -0.02177692
-0.5563705 -0.40274528 -0.084333591 48 4 -0.021772312
-0.58103287 -0.42013425 -0.037577223 7 6 -0.021763096
-0.79898286 -0.57751757 -0.017208073 15 7 -0.021758487
-0.70535082 -0.50815403 -0.23293714 14 0 -0.021735448
-0.72363174 -0.5213241 0.015567547 43 8 -0.021733144
-0.79383665 -0.57169127 -0.22585087 33 1 -0.02173084
-0.87691963 -0.63129175 0.056627508 1 9 -0.021728536
-0.53861183 -0.38760251 -0.1289869 63 2 -0.021726232
-0.56285208 -0.40489727 -0.10981701 61 3 -0.021721624
-0.55770302 -0.40089807 -0.084333591 42 4 -0.021717016
-0.58242291 -0.41820514 -0.037577223 7 6 -0.021707799
-0.79287022 -0.56889617 -0.017033549 10 7 -0.021703191
-0.71645921 -0.51255637 -0.23604298 13 0 -0.021680152
-0.71894085 -0.5141421 0.015427927 45 8 -0.021677848
-0.79899818 -0.57118309 -0.22675066 29 1 -0.021675544
-0.92136747 -0.65841913 0.059348982 1 9 -0.02167324
-0.55586743 -0.39722887 -0.13280307 60 2 -0.021670936
-0.56104684 -0.40063417 -0.10919127 61 3 -0.021666327
-0.56556255 -0.40356097 -0.085308552 47 4 -0.021661719
-0.6326713 -0.45094696 -0.040717378 6 6 -0.021652505
-0.78670722 -0.56032455 -0.016859025 7 7 -0.021647897
-0.71360713 -0.50657213 -0.23449005 14 0 -0.021624856
-0.71910053 -0.51047182 0.015393022 42 8 -0.021622552
-0.79462987 -0.56387967 -0.22495104 32 1 -0.021620248
-0.85849899 -0.60897678 0.055162102 1 9 -0.021617943
-0.55091369 -0.39064631 -0.13127659 62 2 -0.021615639
-0.55445248 -0.392865 -0.10762692 53 3 -0.021611031
-0.57344753 -0.40617371 -0.086283498 40 4 -0.021606425
-0.59844571 -0.42325291 -0.038414594 7 6 -0.021597208
-0.77886122 -0.55064887 -0.016649596 3 7 -0.0215926
-0.7248463 -0.51075447 -0.23759589 13 0 -0.021569559
-0.71769708 -0.5055297 0.015323212 42 8 -0.021567255
-0.79987812 -0.56320739 -0.22585087 29 1 -0.021564951
-0.9128772 -0.6427719 0.058511604 1 9 -0.021562647
-0.56190664 -0.39550087 -0.13356631 60 2 -0.021560345
-0.56389928 -0.39660931 -0.10919127 57 3 -0.021555737
-0.57168412 -0.40178648 -0.085796028 41 4 -0.021551128
-0.6129967 -0.43034217 -0.039251972 6 6 -0.021541912
-0.79059982 -0.55481869 -0.016859025 7 7 -0.021537304
-0.72979075 -0.51043576 -0.23863117 12 0 -0.021514265
-0.72428548 -0.50658524 0.015427927 37 8 -0.021511961
-0.80174142 -0.5605517 -0.22585087 22 1 -0.021509657
-0.87582618 -0.61212152 0.05599948 1 9 -0.021507353
-0.54075241 -0.37779567 -0.12822366 64 2 -0.021505048
-0.5635919 -0.39360613 -0.1088784 51 3 -0.02150044
-0.56324607 -0.39307219 -0.084333591 42 4 -0.021495832
-0.54560536 -0.38033658 -0.034855749 8 6 -0.021486616
-0.75643295 -0.52691019 -0.016091119 9 7 -0.021482008
-0.71561223 -0.49699312 -0.23345479 14 0 -0.021458969
-0.73426265 -0.50975591 0.015602452 31 8 -0.021456664
-0.80209213 -0.55663884 -0.22540097 18 1 -0.02145436
-0.89764994 -0.62272203 0.057255544 1 9 -0.021452056
-0.54522848 -0.3782385 -0.1289869 63 2 -0.021449752
-0.55846864 -0.38713467 -0.10762692 53 3 -0.021445144
-0.56624657 -0.39223403 -0.084577329 36 4 -0.021440536
-0.56992364 -0.39433971 -0.036321156 8 6 -0.021431319
-0.73030537 -0.50493366 -0.015497738 17 7 -0.021426711
-0.71424735 -0.49217471 -0.23241952 15 0 -0.021403672
-0.73274422 -0.50492054 0.015532642 32 8 -0.021401368
-0.81847405 -0.56378454 -0.22945009 14 1 -0.021399064
-0.89981818 -0.61958474 0.057255544 1 9 -0.02139676
-0.54984546 -0.3784638 -0.12975012 54 2 -0.021394456
-0.55011839 -0.37836871 -0.10574972 58 3 -0.021389848
-0.56434077 -0.38800576 -0.08408986 36 4 -0.021385239
-0.60759008 -0.41711691 -0.03862394 7 6 -0.021376025
-0.72381955 -0.49672383 -0.015323212 24 7 -0.021371417
-0.71915019 -0.49185976 -0.23345479 14 0 -0.021348376
-0.73293924 -0.50110275 0.015497738 29 8 -0.021346072
-0.81088156 -0.55418342 -0.22675066 13 1 -0.021343768
-0.90208304 -0.61628258 0.057255544 1 9 -0.021341464
-0.54792112 -0.37432724 -0.1289869 63 2 -0.021339159
-0.55469865 -0.37867361 -0.10637545 56 3 -0.021334551
-0.56739897 -0.38705337 -0.084333591 36 4 -0.021329943
-0.59253716 -0.40374705 -0.037577223 7 6 -0.021320729
-0.73555285 -0.50082016 -0.015532642 22 7 -0.02131612
-0.7401309 -0.50223738 -0.23966645 12 0 -0.021293079
-0.75288558 -0.51089245 0.015881689 21 8 -0.021290775
-0.8047474 -0.54587996 -0.22450115 11 1 -0.021288471
-0.86455506 -0.58622843 0.054743413 1 9 -0.021286167
-0.55253959 -0.3745195 -0.12975012 54 2 -0.021283865
-0.54790515 -0.37109917 -0.1048111 51 3 -0.021279257
-0.55395257 -0.37505412 -0.082139947 25 4 -0.021274649
-0.56422967 -0.38143802 -0.035693128 8 6 -0.021265432
-0.75220817 -0.50832653 -0.015846785 15 7 -0.021260824
-0.72737306 -0.49006528 -0.2350077 14 0 -0.021230698
-0.7596401 -0.51161265 0.015986405 18 8 -0.021228394
-0.79694897 -0.53653753 -0.22180174 11 1 -0.021226089
-0.85324019 -0.574435 0.053906042 1 9 -0.021223785
-0.54400599 -0.36610836 -0.12746042 65 2 -0.021221481
-0.55896795 -0.37589416 -0.10668832 51 3 -0.021216873
-0.55690598 -0.37422547 -0.082383685 25 4 -0.021212265
-0.61855799 -0.41518396 -0.039042629 6 6 -0.02120305
-0.73064202 -0.49023107 -0.015358118 17 7 -0.021198442
-0.73871452 -0.49396643 -0.23811352 12 0 -0.021175401
-0.76964402 -0.5146485 0.01616093 16 8 -0.021173097
-0.80034381 -0.53497481 -0.22225164 9 1 -0.021170793
-0.87184674 -0.58254927 0.054952759 1 9 -0.021168489
-0.53875023 -0.35984552 -0.12593395 66 2 -0.021166185
-0.56514001 -0.37732914 -0.10762692 55 3 -0.021161577
-0.55649257 -0.37127489 -0.082139947 19 4 -0.02115697
-0.62990344 -0.41977596 -0.039670657 6 6 -0.021147754
-0.75398636 -0.50208622 -0.015811879 10 7 -0.021143146
-0.73552018 -0.48830852 -0.23656061 13 0 -0.021120105
-0.77810043 -0.51638174 0.016300548 17 8 -0.021117801
-0.80707812 -0.53540951 -0.22360134 8 1 -0.021115497
-0.86055857 -0.57067204 0.054115385 1 9 -0.021113195
-0.54321295 -0.36022702 -0.12669718 66 2 -0.02111089
-0.56151366 -0.37208068 -0.10668832 51 3 -0.021106282
-0.55281979 -0.36604232 -0.081408732 19 4 -0.021101674
-0.78576344 -0.51929724 -0.016440166 8 7 -0.02108785
-0.73246491 -0.48242161 -0.2350077 14 0 -0.02106481
-0.78657824 -0.51806217 0.016440166 21 8 -0.021062506
-0.8073144 -0.53151757 -0.22315145 7 1 -0.021060202
-0.87255549 -0.57425261 0.054743413 1 9 -0.021057898
-0.55765086 -0.36686561 -0.12975012 54 2 -0.021055594
-0.54636705 -0.35916924 -0.10355964 51 3 -0.021050986
-0.54248148 -0.35647917 -0.079702556 6 4 -0.021046378
-0.59949327 -0.39334446 -0.037577223 7 6 -0.021037161
-0.76081735 -0.4990038 -0.015881689 10 7 -0.021032553
-0.74384671 -0.48620364 -0.23811352 12 0 -0.021009514
-0.79516798 -0.51955092 0.016579786 25 8 -0.02100721
-0.79946768 -0.52216125 -0.22045203 7 1 -0.021004906
-0.86452162 -0.5646503 0.054115385 1 9 -0.021002602
-0.55564022 -0.36277038 -0.1289869 63 2 -0.021000298
-0.55258077 -0.36049783 -0.10449824 51 3 -0.02099569
-0.57704329 -0.37616986 -0.084577329 6 4 -0.020991081
-0.7692585 -0.50070828 -0.016021309 9 7 -0.020977257
-0.74391872 -0.48255283 -0.23759589 6 0 -0.020954218
-0.7985642 -0.51799935 0.01661469 40 8 -0.020951914
-0.79792476 -0.51738679 -0.21955223 8 1 -0.02094961
-0.85978347 -0.55728382 0.053696696 1 9 -0.020947305
-0.54701728 -0.35442337 -0.12669718 66 2 -0.020945001
-0.55543119 -0.35973725 -0.1048111 45 3 -0.020940393
-0.62828356 -0.40661052 -0.091889486 5 4 -0.020935785
-0.76764214 -0.49585 -0.015951499 10 7 -0.020921962
-0.73414528 -0.47276169 -0.23397243 14 0 -0.020898921
-0.80541176 -0.5184558 0.016719406 40 8 -0.020896617
-0.80955845 -0.52092558 -0.22225164 6 1 -0.020894313
-0.8785212 -0.56508386 0.054743413 1 9 -0.020892009
-0.52507317 -0.33773845 -0.12135453 70 2 -0.020889705
-0.55668348 -0.35779622 -0.1048111 51 3 -0.020885097
-0.6875664 -0.44107103 -0.042810816 5 6 -0.020871274
-0.72222966 -0.4629516 -0.014974165 13 7 -0.020866666
-0.73261696 -0.46798798 -0.23293714 14 0 -0.020843625
-0.80721653 -0.51564139 0.016719406 28 8 -0.020841321
-0.80808711 -0.51599872 -0.22135183 7 1 -0.020839017
-0.87712133 -0.55986458 0.054534074 1 9 -0.020836713
-0.54947823 -0.35059595 -0.12669718 57 2 -0.020834409
-0.55465984 -0.35362953 -0.10418537 58 3 -0.020829802
-0.74746317 -0.47545332 -0.015462833 11 7 -0.02081137
-0.74403602 -0.47163352 -0.23604298 13 0 -0.020788329
-0.79558796 -0.50411665 0.016440166 35 8 -0.020786026
-0.8033877 -0.50886267 -0.21955223 10 1 -0.020783722
-0.88919377 -0.56321192 0.055162102 1 9 -0.020781418
-0.55069876 -0.34867561 -0.12669718 66 2 -0.020779114
-0.54587477 -0.34535465 -0.10230815 54 3 -0.020774506
-0.73897213 -0.4664371 -0.015253403 18 7 -0.020756073
-0.7276901 -0.45771885 -0.23034896 15 0 -0.020733034
-0.80233341 -0.50466967 0.016544882 29 8 -0.02073073
-0.79847175 -0.50204653 -0.21775262 9 1 -0.020728426
-0.85395241 -0.5367226 0.052859318 1 9 -0.020726122
-0.54858774 -0.34466234 -0.12593395 66 2 -0.020723818
-0.55705398 -0.34984607 -0.10418537 45 3 -0.02071921
-0.69214761 -0.43384674 -0.042810816 5 6 -0.020705385
-0.76262724 -0.47765362 -0.015707165 16 7 -0.020700777
-0.74559051 -0.46553472 -0.23552534 13 0 -0.020677738
-0.812572 -0.50716007 0.016719406 30 8 -0.020675434
-0.79691267 -0.49719325 -0.21685281 11 1 -0.02067313
-0.82870579 -0.5168277 0.051184569 1 9 -0.020670826
-0.53640097 -0.33452994 -0.122881 60 2 -0.020668522
-0.55491889 -0.34581 -0.10355964 51 3 -0.020663913
-0.69365776 -0.43142802 -0.042810816 5 6 -0.020650089
-0.73541677 -0.4570446 -0.015113784 12 7 -0.020645482
-0.75377983 -0.4669992 -0.23759589 13 0 -0.020622442
-0.81433737 -0.5043205 0.016719406 26 8 -0.020620137
-0.80195725 -0.4964599 -0.21775262 9 1 -0.020617833
-0.84409165 -0.52233988 0.052021943 1 9 -0.020615529
-0.53422648 -0.33058944 -0.12211777 70 2 -0.020613225
-0.54940218 -0.33971515 -0.10230815 54 3 -0.020608617
-0.69515944 -0.42900425 -0.042810816 5 6 -0.020594794
-0.75062442 -0.46287143 -0.015393022 5 7 -0.020590186
-0.74059349 -0.45525995 -0.23293714 14 0 -0.020567145
-0.80587035 -0.49519333 0.016509976 31 8 -0.020564841
-0.8136484 -0.49977723 -0.22045203 7 1 -0.020562537
-0.86633426 -0.53193092 0.053278007 1 9 -0.020560233
-0.54541546 -0.33488616 -0.12440747 68 2 -0.020557929
-0.54384965 -0.3336632 -0.10105667 54 3 -0.020553323
-0.7658816 -0.46859786 -0.015672261 5 7 -0.02053489
-0.76032025 -0.46373728 -0.23863117 12 0 -0.020511849
-0.80759394 -0.49237752 0.016509976 33 8 -0.020509545
-0.79541934 -0.48476416 -0.2150532 10 1 -0.020507243
-0.83066106 -0.50604331 0.050975226 1 9 -0.020504938
-0.54322785 -0.33093742 -0.12364423 69 2 -0.020502634
-0.54501098 -0.33176288 -0.10105667 52 3 -0.020498026
-0.69813758 -0.42414048 -0.042810816 5 6 -0.020484202
-0.791444 -0.48044914 -0.01616093 4 7 -0.020479593
-0.75862873 -0.45908031 -0.23759589 13 0 -0.020456554
-0.81101888 -0.49059027 0.016544882 36 8 -0.02045425
-0.78376597 -0.47391802 -0.21145399 9 1 -0.020451946
-0.83071303 -0.50210768 0.050870556 8 9 -0.020449642
-0.54101938 -0.32700819 -0.122881 70 2 -0.020447338
