# .PCD v0.7 - Point Cloud Data file format
VERSION 0.7
FIELDS x y z intensity ring time
SIZE 4 4 4 4 2 4
TYPE F F F F U F
COUNT 1 1 1 1 1 1
WIDTH 909
HEIGHT 1
VIEWPOINT 0 0 0 1 0 0 0
POINTS 909
DATA ascii
-0.44443241 0.38281223 -0.13542055 87 1 -0.044275224
-0.94565833 0.81483155 0.06541995 100 9 -0.044272918
-0.93868363 0.80910689 0.10842174 100 10 -0.044268314
-0.95300198 0.82202899 0.15453033 100 11 -0.044263706
-0.93010819 0.8028475 0.1946045 100 12 -0.044259097
-0.91385913 0.78910053 0.23469506 81 13 -0.044254489
-0.752707 0.65017766 -0.052126616 1 6 -0.044252183
-0.90682971 0.78358334 0.2766898 92 14 -0.044249881
-0.76096207 0.65777248 -0.017557122 2 7 -0.044247575
-0.8986997 0.77710605 0.31834742 82 15 -0.044245273
-0.45982292 0.39859211 -0.16305602 87 0 -0.044224534
-0.73575526 0.63800567 0.016998643 8 8 -0.044222232
-0.42395639 0.36776102 -0.12957181 76 1 -0.04421993
-0.95185941 0.82598138 0.066047981 100 9 -0.044217624
-0.941872 0.81760287 0.10911899 100 10 -0.044213016
-0.94563103 0.82144499 0.15379913 100 11 -0.044208407
-0.93624479 0.8138653 0.1964817 100 12 -0.044203799
-0.90517336 0.78713238 0.23316859 81 13 -0.044199191
-0.74741912 0.65017945 -0.051917274 1 6 -0.044196889
-0.91290933 0.79441965 0.27938923 92 14 -0.044194583
-0.80390972 0.69981372 -0.018604266 2 7 -0.044192281
-0.90472293 0.7878505 0.32145327 79 15 -0.044189975
-0.45115212 0.39384243 -0.1604678 66 0 -0.04416924
-0.73804253 0.64451593 0.017103357 6 8 -0.044166937
-0.42560539 0.37180275 -0.13047162 76 1 -0.044164632
-0.93994683 0.82141334 0.06541995 100 9 -0.044162329
-0.94501257 0.82613081 0.10981624 100 10 -0.044157721
-0.93976969 0.82212675 0.15331164 100 11 -0.044153113
-0.94677508 0.82883871 0.19929753 100 12 -0.044148505
-0.90537429 0.79287422 0.23393184 83 13 -0.044143897
-0.76317251 0.66857785 -0.053173337 1 6 -0.044141591
-0.90133727 0.78989488 0.2766898 92 14 -0.044139288
-0.72627789 0.63670421 -0.016859025 3 7 -0.044136982
-0.90777677 0.79609895 0.32352382 77 15 -0.04413468
-0.45848 0.40306798 -0.16357364 64 0 -0.044113945
-0.74479765 0.65501201 0.017312787 6 8 -0.044111639
-0.43162057 0.37972212 -0.13272113 89 1 -0.044109337
-0.94007254 0.8273285 0.065629296 100 9 -0.044107031
-0.94511372 0.83205777 0.11016486 100 10 -0.044102423
-0.9383837 0.82671446 0.15355539 100 11 -0.044097815
-0.93054026 0.82038146 0.1964817 100 12 -0.044093207
-0.91438055 0.80641842 0.23698479 81 13 -0.044088598
-0.8971135 0.79174691 0.2762399 90 14 -0.04408399
-0.91078454 0.80437797 0.32559437 78 15 -0.044079386
-0.44115952 0.3905794 -0.15787962 68 0 -0.044058647
-0.75148863 0.66556275 0.017522216 4 8 -0.044056345
-0.43466827 0.38510332 -0.13407083 59 1 -0.044054039
-0.94315791 0.83590364 0.066047981 100 9 -0.044051737
-0.94071269 0.83403009 0.10999054 100 10 -0.044047128
-0.94885647 0.841842 0.15574904 100 11 -0.04404252
-0.93062538 0.82624775 0.19710746 100 12 -0.044037912
-0.91156006 0.8096053 0.23698479 78 13 -0.044033304
-0.89725745 0.79746282 0.27713972 86 14 -0.044028696
-0.72181517 0.64175904 -0.016859025 3 7 -0.044026393
-0.90508413 0.80498463 0.32455909 77 15 -0.044024087
-0.43546754 0.38826022 -0.15632671 69 0 -0.044003353
-0.73423731 0.65487158 0.017173167 5 8 -0.044001047
-0.43913785 0.39180765 -0.13587044 58 1 -0.043998744
-0.94917446 0.84717065 0.066676013 100 9 -0.043996438
-0.93333691 0.83332777 0.10946761 100 10 -0.04399183
-0.9473924 0.84647167 0.15599278 100 11 -0.043987226
-0.93068087 0.83212429 0.19773319 100 12 -0.043982618
-0.90287513 0.80754697 0.23545831 81 13 -0.043978009
-0.90027648 0.80578852 0.27893931 88 14 -0.043973401
-0.89939058 0.80556118 0.32352382 78 15 -0.043968793
-0.44848409 0.40268448 -0.16150309 66 0 -0.043948054
-0.72599626 0.65208548 0.017033549 6 8 -0.043945752
-0.42762047 0.38422117 -0.13272113 44 1 -0.04394345
-0.94918239 0.85314906 0.06688536 100 9 -0.043941144
-0.93486732 0.84057689 0.10999054 100 10 -0.043936536
-0.93557769 0.84180683 0.15453033 100 11 -0.043931928
-0.93657827 0.84329891 0.1996104 100 12 -0.043927319
-0.9000507 0.81069374 0.23545831 81 13 -0.043922711
-0.90903836 0.81936401 0.28253853 88 14 -0.043918103
-0.90231144 0.81387132 0.32559437 78 15 -0.043913495
-0.44420993 0.40165612 -0.1604678 66 0 -0.04389276
-0.73854589 0.66802996 0.017382598 4 8 -0.043890458
-0.41905168 0.37917402 -0.13047162 61 1 -0.043888152
-0.93731415 0.84841502 0.066257328 100 9 -0.043885849
-0.93635803 0.84784693 0.11051348 100 10 -0.043881241
-0.9326337 0.84506726 0.15453033 100 11 -0.043876633
-0.94240922 0.85452455 0.20148762 100 12 -0.043872025
-0.90594041 0.82174438 0.23774803 78 13 -0.043867417
-0.89607209 0.81336385 0.27938923 92 14 -0.043862808
-0.90804482 0.82480979 0.32870021 77 15 -0.0438582
-0.45137563 0.41100824 -0.16357364 64 0 -0.043837465
-0.73916596 0.67329723 0.017452406 4 8 -0.043835159
-0.43212992 0.3937597 -0.13497064 87 1 -0.043832857
-0.93434691 0.85168171 0.066257328 100 9 -0.043830551
-0.94075388 0.85782284 0.11138504 100 10 -0.043825943
-0.93994284 0.85768396 0.15623651 100 11 -0.043821335
-0.93504453 0.85381263 0.20054901 100 12 -0.043816727
-0.90741515 0.82887399 0.23889288 76 13 -0.043812118
-0.8917892 0.81517172 0.27893931 90 14 -0.04380751
-0.90230918 0.82536656 0.32766491 77 15 -0.043802902
-0.43712348 0.4008306 -0.15891489 67 0 -0.043436527
-0.73681134 0.67587316 0.017452406 4 8 -0.043434225
-0.42788112 0.39263061 -0.13407083 73 1 -0.043431919
-0.94019639 0.86304176 0.06688536 100 9 -0.043429617
-0.93335122 0.85705841 0.11086211 100 10 -0.043425009
-0.94717473 0.87036198 0.15794268 100 11 -0.0434204
-0.92915034 0.85439724 0.19992328 100 12 -0.043415792
-0.90740585 0.83469486 0.23965611 76 13 -0.043411184
-0.74661011 0.68702406 -0.053173337 1 6 -0.043408878
-0.89323962 0.82223922 0.28028902 92 14 -0.043406576
-0.90226465 0.83112878 0.32870021 78 15 -0.043401968
-0.44281805 0.408907 -0.16150309 66 0 -0.043381233
-0.74032319 0.68386853 0.017592026 4 8 -0.043378927
-0.43652663 0.40337971 -0.13722014 85 1 -0.043376625
-0.94597799 0.87445295 0.067513391 100 9 -0.043374319
-0.93035388 0.86031127 0.11086211 100 10 -0.04336971
-0.94850206 0.87770748 0.1586739 100 11 -0.043365102
-0.929061 0.86031967 0.20054901 100 12 -0.043360494
-0.89584535 0.8298521 0.23736641 76 13 -0.043355886
-0.74420732 0.68962604 -0.053173337 1 6 -0.043353584
-0.89179289 0.82667714 0.28073892 88 14 -0.043351278
-0.89369255 0.82901788 0.32662967 78 15 -0.04334667
-0.44987625 0.41834351 -0.16460893 64 0 -0.043325935
-0.73939562 0.6878106 0.01762693 2 8 -0.043323632
-0.42798284 0.39826334 -0.13497064 58 1 -0.043321326
-0.94876736 0.88319308 0.067932077 100 9 -0.043319024
-0.93609363 0.87170029 0.11190797 100 10 -0.043314416
-0.93817103 0.87424648 0.15745521 100 11 -0.043309808
-0.40076336 0.37358707 -0.067271888 8 4 -0.043307502
-0.93905449 0.87568229 0.20336483 100 12 -0.0433052
-0.89581424 0.83565247 0.23812963 76 13 -0.043300591
-0.7417956 0.69221967 -0.053173337 1 6 -0.043298285
-0.89744902 0.83776391 0.28343832 90 14 -0.043295983
-0.89502841 0.83608866 0.32818255 76 15 -0.043291375
-0.445593 0.41727039 -0.16357364 64 0 -0.04327064
-0.73844981 0.69175434 0.017661836 3 8 -0.043268334
-0.42943394 0.40241989 -0.13587044 72 1 -0.043266032
-0.93402147 0.87557185 0.067094706 100 9 -0.043263726
-0.4526141 0.42429024 -0.12059129 10 2 -0.043261424
-0.93740535 0.87905103 0.11243091 100 10 -0.043259118
-0.93511361 0.87751597 0.15745521 100 11 -0.04325451
-0.94031215 0.88301176 0.20430344 100 12 -0.043249905
-0.89861554 0.84415114 0.23965611 74 13 -0.043245297
-0.73937458 0.69480497 -0.053173337 1 6 -0.043242991
-0.89167958 0.83822173 0.28253853 86 14 -0.043240689
-0.89491856 0.84185547 0.32921785 76 15 -0.043236081
-0.4553777 0.42942625 -0.16771474 62 0 -0.043215342
-0.72730273 0.68609482 0.017452406 3 8 -0.04321304
-0.41668814 0.39321664 -0.13227122 60 1 -0.043210734
-0.9354707 0.88277686 0.067408718 100 9 -0.043208431
-0.45113042 0.4258675 -0.12059129 10 2 -0.043206125
-0.93722808 0.88505387 0.11277953 100 10 -0.043203823
-0.93637341 0.88486487 0.15818642 100 11 -0.043199215
-0.39821121 0.37630621 -0.067271888 8 4 -0.043196913
-0.92876565 0.87798297 0.20242621 100 12 -0.043194607
-0.89566356 0.84728253 0.23965611 76 13 -0.043189999
-0.73694485 0.6973815 -0.053173337 1 6 -0.043187696
-0.8917259 0.843853 0.28343832 88 14 -0.043185391
-0.89773268 0.85013187 0.3312884 76 15 -0.043180782
-0.44274253 0.42029369 -0.16357364 64 0 -0.043160047
-0.76127505 0.72292799 0.018325027 3 8 -0.043157741
-0.4266848 0.40533361 -0.13587044 58 1 -0.043155439
-0.93398613 0.88724971 0.067513391 100 9 -0.043153137
-0.43548417 0.41383708 -0.11677512 10 2 -0.043150831
-0.93284416 0.88678414 0.11260521 100 10 -0.043148529
-0.93631047 0.89070159 0.1586739 100 11 -0.043143921
-0.92728001 0.88241976 0.20273907 100 12 -0.043139312
-0.9028011 0.85972542 0.24232745 78 13 -0.043134704
-0.80693418 0.76870155 -0.058406934 1 6 -0.043132398
-0.88892275 0.84680545 0.28343832 88 14 -0.043130096
-0.88931584 0.84777182 0.32921785 76 15 -0.043125488
-0.43855295 0.41909021 -0.16253836 65 0 -0.043104753
-0.76320982 0.72959387 0.018429741 2 8 -0.043102447
-0.43378878 0.41482744 -0.13856986 70 1 -0.043100145
-0.93665648 0.89602691 0.067932077 100 9 -0.043097839
-0.44829601 0.42885014 -0.12059129 10 2 -0.043095537
-0.92414039 0.88436258 0.11190797 100 10 -0.043093231
-0.9419539 0.90203953 0.16013633 100 11 -0.043088622
-0.92847288 0.88975155 0.2036777 100 12 -0.043084014
-0.89711058 0.85999727 0.2415642 78 13 -0.043079406
-0.89299273 0.85664856 0.28568783 92 14 -0.043074798
-0.88635093 0.85087126 0.32921785 76 15 -0.04307019
-0.43569541 0.41927898 -0.16202073 66 0 -0.043049455
-0.76642096 0.73780096 0.01856936 2 8 -0.043047152
-0.4253197 0.40958023 -0.13632034 86 1 -0.043044847
-0.94215339 0.90760493 0.068560109 100 9 -0.043042544
-0.46093538 0.44403303 -0.12440747 9 2 -0.043040238
-0.92678618 0.89311343 0.11260521 100 10 -0.043037936
-0.93165487 0.8984322 0.15891764 100 11 -0.043033328
-0.92820454 0.89573044 0.20430344 100 12 -0.04302872
-0.89410317 0.8631236 0.2415642 78 13 -0.043024112
-0.89560336 0.86517626 0.28748745 94 14 -0.043019503
-0.98213756 0.94910157 -0.023839988 2 7 -0.043017201
-0.88893116 0.85933083 0.3312884 74 15 -0.043014895
-0.43700382 0.42348608 -0.16305602 87 0 -0.04299416
-0.85142422 0.8253755 0.020698555 3 8 -0.042991854
-0.41689256 0.40427917 -0.13407083 59 1 -0.042989552
-0.9303782 0.90254414 0.067932077 100 9 -0.042987246
-0.44529113 0.4319694 -0.12059129 10 2 -0.042984944
-0.93224204 0.90466803 0.11365108 100 10 -0.042982638
-0.9256649 0.89891297 0.15843016 100 11 -0.04297803
-0.93073863 0.90447152 0.2055549 100 12 -0.042973422
-0.88967699 0.86487108 0.24118258 76 13 -0.042968817
-0.92211539 0.8967182 -0.067408718 1 6 -0.042966511
-0.88699073 0.86286169 0.28568783 92 14 -0.042964209
-0.96878654 0.94276208 -0.023595655 14 7 -0.042961903
-0.89146316 0.86781871 0.33335894 76 15 -0.042959601
-0.45487955 0.44389814 -0.17030294 60 0 -0.042938862
-0.94727165 0.92472643 0.023106987 17 8 -0.04293656
-0.41966149 0.40981653 -0.13542055 87 1 -0.042934254
-0.93007946 0.90857762 0.068141423 100 9 -0.042931952
-0.44378057 0.43352115 -0.12059129 20 2 -0.042929646
-0.92907846 0.90791672 0.11365108 100 10 -0.042927343
-0.93245602 0.91185421 0.16013633 100 11 -0.042922735
-0.92757577 0.9077149 0.2055549 100 12 -0.042918127
-0.89086133 0.87209153 0.24232745 83 13 -0.042913519
-0.9104178 0.89154673 -0.066780686 3 6 -0.042911217
-0.88118905 0.86322516 0.28478804 92 14 -0.042908911
-0.94835085 0.92934257 -0.023176797 23 7 -0.042906608
-0.89256734 0.87498212 0.33491185 78 15 -0.042904302
-0.4436819 0.43600497 -0.16667947 63 0 -0.042883568
-0.94118589 0.92522365 0.023037177 54 8 -0.042881262
-0.42517582 0.4181107 -0.13767006 71 1 -0.042878959
-0.93544507 0.92022246 0.068769448 100 9 -0.042876653
-0.44226459 0.43506756 -0.12059129 20 2 -0.042874351
-0.92590356 0.91115433 0.11365108 100 10 -0.042872049
-0.93492526 0.9206748 0.16111128 100 11 -0.042867441
-0.92158735 0.90817446 0.20492917 100 12 -0.042862833
-0.89340442 0.88070875 0.24385393 81 13 -0.042858224
-0.92578757 0.91295034 -0.068141423 6 6 -0.042855918
-0.88233227 0.87040174 0.28613773 90 14 -0.042853616
-0.93656129 0.92421967 -0.022967368 23 7 -0.04285131
-0.88538313 0.87402099 0.33335894 74 15 -0.042849008
-0.43529141 0.43075678 -0.16409127 64 0 -0.042828273
-0.92942381 0.92006218 0.022827748 68 8 -0.042825967
-0.42925233 0.42507726 -0.13946965 55 1 -0.042823665
-0.93080825 0.92207664 0.068664782 100 9 -0.042821359
-0.44911176 0.44489878 -0.122881 10 2 -0.042819057
-0.92413288 0.91578299 0.1138254 100 10 -0.042816751
-0.93593431 0.92812604 0.1618425 100 11 -0.042812143
-0.92402041 0.91695142 0.20618065 100 12 -0.042807534
-0.88753814 0.88105565 0.24309067 83 13 -0.042802926
-0.93960154 0.93306446 -0.069397487 15 6 -0.042800624
-0.88620144 0.8803432 0.28838724 92 14 -0.042798318
-0.95460582 0.9486264 -0.023490939 40 7 -0.042796016
-0.87958646 0.8743825 0.33232367 74 15 -0.04279371
-0.44746938 0.44590992 -0.16926767 61 0 -0.042772975
-0.93045509 0.92753619 0.022932461 100 8 -0.042770673
-0.41672683 0.41556475 -0.13587044 72 1 -0.042768367
-0.93748218 0.93519384 0.069397487 100 9 -0.042766064
-0.44477627 0.4436906 -0.12211777 20 2 -0.042763758
-0.92516124 0.92322552 0.11434833 100 10 -0.042761456
-0.92707056 0.92577648 0.16086754 100 11 -0.042756848
-0.9236086 0.92296392 0.20680638 100 12 -0.04275224
-0.88723415 0.88692445 0.24385393 83 13 -0.042747632
-0.92362827 0.92362809 -0.068455435 27 6 -0.042745326
-0.88863391 0.88894409 0.29018685 96 14 -0.042743023
-0.95552921 0.95619637 -0.023595655 80 7 -0.042740718
-0.88472092 0.88564771 0.33542949 76 15 -0.042738415
-0.44454643 0.44610074 -0.16875002 61 0 -0.04271768
-0.92580026 0.92936206 0.022897556 100 8 -0.042715374
-0.41527379 0.41701674 -0.13587044 72 1 -0.042713072
-0.92575753 0.92996764 0.068769448 100 9 -0.042710766
-0.465386 0.46750247 -0.12822366 9 2 -0.042708464
-0.92614901 0.93068618 0.11487127 100 10 -0.042706158
-0.9210338 0.92619181 0.16038008 100 11 -0.04270155
-0.9245584 0.93038589 0.207745 100 12 -0.042696942
-0.88966715 0.89558733 0.24538037 85 13 -0.042692333
-0.92743522 0.9339326 -0.068978801 16 6 -0.042690031
-0.88003391 0.88650852 0.28838724 96 14 -0.042687729
-0.95218563 0.95952606 -0.023595655 91 7 -0.042685423
-0.88570565 0.89284515 0.3369824 77 15 -0.042683121
-0.44298655 0.44764984 -0.16875002 82 0 -0.042662382
-0.93098879 0.94111764 0.023106987 100 8 -0.04266008
-0.43299904 0.43786278 -0.14216907 67 1 -0.042657774
-0.92250538 0.93319368 0.068769448 100 9 -0.042655472
-0.43614691 0.44120017 -0.12059129 20 2 -0.042653166
-0.92709607 0.93816501 0.1153942 100 10 -0.042650864
-0.92337424 0.93505132 0.16135503 100 11 -0.042646255
-0.9185304 0.93079537 0.20711927 100 12 -0.042641647
-0.61576146 0.62398356 -0.076697052 4 5 -0.042639345
-0.88653553 0.89868742 0.24538037 81 13 -0.042637039
-0.91715765 0.93005383 -0.068455435 2 6 -0.042634737
-0.87830222 0.89096266 0.28883713 90 14 -0.042632431
-0.9418124 0.95572227 -0.023421129 100 7 -0.042630129
-0.88800663 0.90143639 0.33905298 77 15 -0.042627823
-0.43600506 0.44368184 -0.16667947 63 0 -0.042607088
-0.92909926 0.9457882 0.023141891 94 8 -0.042604782
-0.43556419 0.44354281 -0.14351878 93 1 -0.042602479
-0.92763734 0.94495994 0.069397487 100 9 -0.042600174
-0.4456068 0.45392802 -0.12364423 9 2 -0.042597871
-0.91962928 0.93712908 0.11487127 100 10 -0.042595569
-0.92844391 0.94677263 0.16281746 100 11 -0.042590961
-0.91804057 0.93681788 0.207745 100 12 -0.042586353
-0.62473541 0.63751352 -0.078091539 4 5 -0.042584047
-0.89163643 0.91019136 0.2476701 87 13 -0.042581744
-0.87927634 0.89820099 0.29018685 92 14 -0.042577136
-0.93007886 0.95042866 -0.023211701 82 7 -0.04257483
-0.8781001 0.89762557 0.33646476 76 15 -0.042572528
-0.43850133 0.44934893 -0.16823238 62 0 -0.042551789
-0.91881031 0.94186854 0.022967368 73 8 -0.042549487
-0.43129209 0.44227025 -0.14261897 81 1 -0.042547185
-0.93147069 0.95518047 0.069920845 100 9 -0.042544879
-0.42757452 0.438611 -0.11906482 20 2 -0.042542577
-0.91635245 0.94033343 0.11487127 100 10 -0.042540271
-0.92513359 0.95000762 0.16281746 100 11 -0.042535663
-0.91768491 0.94268769 0.20837073 100 12 -0.042531054
-0.62806439 0.6454019 -0.078788787 4 5 -0.042528752
-0.88571602 0.91048336 0.24690685 83 13 -0.042526446
-0.87443948 0.89920551 -0.065733969 1 6 -0.042524144
-0.88156909 0.90685403 0.29198647 94 14 -0.042521838
-0.94922394 0.97644937 -0.023770178 30 7 -0.042519536
-0.87107968 0.89637631 0.33491185 77 15 -0.04251723
-0.43693012 0.45087683 -0.16823238 62 0 -0.042496495
-0.9128986 0.94203818 0.022897556 53 8 -0.042494193
-0.41762012 0.43110082 -0.13856986 70 1 -0.042491887
-0.92952037 0.95986068 0.070025519 100 9 -0.042489585
-0.45062011 0.46549129 -0.12593395 28 2 -0.042487279
-0.91583526 0.94639009 0.11521988 100 10 -0.042484976
-0.91645724 0.9473632 0.1618425 100 11 -0.042480368
-0.91438848 0.94588548 0.20837073 88 12 -0.04247576
-0.62580776 0.64759022 -0.078788787 8 5 -0.042473454
-0.87996334 0.91059214 0.24614362 83 13 -0.042471152
-0.90753216 0.93944854 -0.068455435 2 6 -0.042468846
-0.88126433 0.91257602 0.29288626 100 14 -0.042466544
-0.95414299 0.98838884 -0.023979606 40 7 -0.042464238
-0.87867725 0.91053241 0.33905298 79 15 -0.042461935
-0.426054 0.442581 -0.16460893 64 0 -0.0424412
-0.91515136 0.95098239 0.023037177 23 8 -0.042438895
-0.41341063 0.42974725 -0.13767006 85 1 -0.042436592
-0.9220109 0.95878059 0.069711499 100 9 -0.042434286
-0.44363067 0.46132264 -0.12440747 19 2 -0.042431984
-0.92235762 0.95947617 0.11644007 100 10 -0.042429678
-0.92002082 0.95771432 0.1630612 100 11 -0.04242507
-0.92065734 0.9590466 0.21056081 82 12 -0.042420462
-0.62089729 0.64678729 -0.078440167 4 5 -0.04241816
-0.88221675 0.9193244 0.2476701 83 13 -0.042415854
-0.94296092 0.98296738 -0.071386255 1 6 -0.042413551
-0.87807363 0.91564649 0.29288626 92 14 -0.042411245
-0.94238412 0.98305213 -0.023770178 68 7 -0.042408943
-0.88083982 0.91917354 0.34112352 78 15 -0.042406641
-0.4391908 0.45942616 -0.17030294 60 0 -0.042385902
-0.91458935 0.9570626 0.023106987 24 8 -0.0423836
-0.41998461 0.43964237 -0.14036946 68 1 -0.042381294
-0.92279661 0.96632653 0.070025519 100 9 -0.042378992
-0.45557651 0.47706684 -0.12822366 18 2 -0.042376686
-0.92450571 0.9684546 0.11713732 100 10 -0.042374384
-0.91941261 0.96379268 0.16354866 100 11 -0.042369775
-0.90776289 0.95224589 0.20837073 74 12 -0.042365167
-0.62963378 0.66048765 -0.079834662 3 5 -0.042362861
-0.88171101 0.9252407 0.24843332 85 13 -0.042360559
-0.94090188 0.98769879 -0.071490921 3 6 -0.042358257
-0.87487203 0.91870594 0.29288626 92 14 -0.042355951
-0.93618923 0.98343891 -0.023700368 96 7 -0.042353649
-0.88295323 0.92784029 0.34319407 82 15 -0.042351343
-0.43093419 0.45395097 -0.16771474 62 0 -0.042330608
-0.91950166 0.96895266 0.023316415 42 8 -0.042328302
-0.41844738 0.44110569 -0.14036946 68 1 -0.042326
-0.92354113 0.97388935 0.070339531 100 9 -0.042323694
-0.44580305 0.47010669 -0.12593395 19 2 -0.042321391
-0.91700739 0.96733809 0.11661438 100 10 -0.042319085
-0.92150372 0.9727605 0.16452362 100 11 -0.042314481
-0.91258144 0.96401614 0.21024795 61 12 -0.042309873
-0.68472564 0.72357082 -0.087155737 1 5 -0.042307567
-0.88657254 0.93686879 0.25072303 87 13 -0.042305265
-0.92784059 0.98082078 -0.070758224 9 6 -0.042302959
-0.87701571 0.92741787 0.29468587 96 14 -0.042300656
-0.93549812 0.98960727 -0.023770178 100 7 -0.04229835
-0.87440157 0.9253003 0.34112352 79 15 -0.042296048
-0.43589187 0.46255726 -0.17030294 60 0 -0.04227531
-0.92159951 0.97797769 0.023456035 64 8 -0.042273007
-0.42225012 0.44823748 -0.14216907 67 1 -0.042270705
-0.92287415 0.98001552 0.070548877 100 9 -0.042268399
-0.43600276 0.46316054 -0.12364423 29 2 -0.042266097
-0.90799427 0.96488845 0.11591713 100 10 -0.042263791
-0.92490304 0.98320091 0.16574231 100 11 -0.042259183
-0.91191703 0.97007412 0.21087368 61 12 -0.042254575
-0.85956663 0.9147054 -0.10981624 1 5 -0.042252272
-0.88044447 0.9372502 0.2499598 85 13 -0.042249966
-0.92834127 0.98858249 -0.071072236 19 6 -0.042247664
-0.87894565 0.9363094 0.29648548 96 14 -0.042245358
-0.93203807 0.99286681 -0.023770178 100 7 -0.042243056
-0.87116635 0.92834687 0.34112352 78 15 -0.04224075
-0.42899475 0.4584336 -0.16823238 62 0 -0.042220015
-0.91254473 0.97550744 0.023316415 80 8 -0.042217713
-0.42060429 0.44978222 -0.14216907 81 1 -0.042215407
-0.92882359 0.99360454 0.071281582 100 9 -0.042213105
-0.43572417 0.46611381 -0.12402585 29 2 -0.042210799
-0.91550308 0.97969806 0.11731163 100 10 -0.042208496
-0.91587412 0.9807806 0.16476737 100 11 -0.042203888
-0.90970278 0.97485435 0.21118654 57 12 -0.04219928
-0.88610774 0.94990134 -0.11365108 1 5 -0.042196974
-0.87716764 0.94031763 0.2499598 81 13 -0.042194672
-0.91262543 0.9786709 -0.070130184 9 6 -0.042192366
-0.87832952 0.9422226 0.29738528 96 14 -0.042190064
-0.93384612 1.0021279 -0.023909798 100 7 -0.042187758
-0.87302506 0.93718803 0.34319407 78 15 -0.042185456
-0.43257076 0.46566463 -0.17030294 60 0 -0.042164721
-0.92138255 0.99187303 0.023630559 100 8 -0.042162415
-0.40974945 0.44125155 -0.13901976 84 1 -0.042160112
-0.91855556 0.98952174 0.070758224 100 9 -0.042157806
-0.4446961 0.47922057 -0.12707879 28 2 -0.042155504
-0.91732639 0.98888958 0.11800887 100 10 -0.042153198
-0.91244495 0.98397166 0.16476737 100 11 -0.04214859
-0.91435063 0.98671734 0.21306378 53 12 -0.042143982
-0.7961325 0.85944396 -0.10249515 3 5 -0.04214168
-0.87371516 0.94352645 0.2499598 83 13 -0.042139374
-0.93209749 1.0069257 -0.071909614 11 6 -0.042137071
-0.86957592 0.93971425 0.29558566 94 14 -0.042134766
-0.93305838 1.0083171 -0.023979606 100 7 -0.042132463
-0.87761933 0.94873857 0.34629989 82 15 -0.042130157
-0.43503681 0.47127971 -0.17185585 60 0 -0.042107582
-0.91944468 0.99639243 0.023665464 100 8 -0.04210528
-0.41224787 0.44690508 -0.14036946 82 1 -0.042102974
-0.91933089 0.99696714 0.071072236 100 9 -0.042100672
-0.42987955 0.46618229 -0.12326261 59 2 -0.042098366
-0.92096686 0.99909157 0.11888044 100 10 -0.042096063
-0.91455662 0.99283218 0.16574231 100 11 -0.042091455
-0.90037066 0.97811705 0.21056081 53 12 -0.042086847
-0.8689934 0.94403034 -0.1122566 4 5 -0.042084541
-0.88138193 0.95782399 0.25301275 87 13 -0.042082239
-0.92487276 1.0054394 -0.071595594 43 6 -0.042079933
-0.87189585 0.94817919 0.29738528 100 14 -0.042077631
-0.92970967 1.0114055 -0.023979606 100 7 -0.042075325
-0.87708253 0.95448852 0.34733516 77 15 -0.042073023
-0.43077829 0.46994725 -0.17082058 80 0 -0.042052288
-0.92406672 1.0084417 0.023874892 100 8 -0.042049982
-0.41595054 0.45408937 -0.14216907 81 1 -0.042047679
-0.91584527 1.0001702 0.071072236 100 9 -0.042045373
-0.43355307 0.47347176 -0.12478909 39 2 -0.042043071
-0.91209286 0.9964214 0.11818319 100 10 -0.042040765
-0.91510487 1.0004127 0.16647354 100 11 -0.042036157
-0.8956182 0.97979599 0.21024795 55 12 -0.042031549
-0.88182372 0.96470499 -0.11434833 2 5 -0.042029247
-0.88068146 0.96379358 0.25377598 83 13 -0.042026941
-0.92674577 1.0145601 -0.07201428 48 6 -0.042024639
-0.86858076 0.95121694 0.29738528 92 14 -0.042022333
-0.92347711 1.0116911 -0.023909798 100 7 -0.04202003
-0.87634975 0.9603985 0.34837046 78 15 -0.042017724
-0.43303645 0.47573397 -0.17237349 59 0 -0.041996989
-0.91381186 1.004266 0.023700368 100 8 -0.041994687
-0.4209193 0.46274641 -0.14441857 91 1 -0.041992381
-0.92041039 1.0122273 0.071700267 100 9 -0.041990079
-0.42397293 0.46626696 -0.12249938 40 2 -0.041987773
-0.90726894 0.99812484 0.11800887 100 10 -0.041985471
-0.91561127 1.0080092 0.16720475 100 11 -0.041980863
-0.89484787 0.98584169 0.21087368 55 12 -0.041976254
-0.80346113 0.88516217 -0.10458689 1 5 -0.041973948
-0.87467355 0.96395391 0.25301275 85 13 -0.041971646
-0.92185676 1.0163096 -0.071909614 23 6 -0.04196934
-0.87049109 0.96001762 0.29918489 99 14 -0.041967038
-0.92396879 1.0193533 -0.024014512 100 7 -0.041964736
-0.86520922 0.95486212 0.34526464 79 15 -0.04196243
-0.42619154 0.47151002 -0.17030294 60 0 -0.041941695
-0.91030067 1.0074497 0.023700368 100 8 -0.041939389
-0.4140766 0.45842823 -0.14261897 81 1 -0.041937087
-0.92222536 1.0213634 0.072118953 100 9 -0.041934781
-0.42234278 0.46774408 -0.12249938 40 2 -0.041932479
-0.91312408 1.0116388 0.11922905 100 10 -0.041930173
-0.90942794 1.0082511 0.16671728 100 11 -0.041925564
-0.89007866 0.98749191 0.21056081 53 12 -0.04192096
-0.62695372 0.69556975 -0.081926398 3 5 -0.041918654
-0.87130332 0.9670012 0.25301275 85 13 -0.041916352
-0.91162014 1.0121012 -0.071386255 5 6 -0.041914046
-0.86974239 0.96594697 0.30008471 99 14 -0.041911744
-0.92441857 1.0270311 -0.024119226 100 7 -0.041909438
-0.86962378 0.96649295 0.34837046 77 15 -0.041907135
-0.42454305 0.47299486 -0.17030294 60 0 -0.041886397
-0.90944976 1.0135978 0.023770178 100 8 -0.041884094
-0.40206432 0.44826537 -0.13901976 84 1 -0.041881789
-0.91598791 1.0216024 0.071909614 100 9 -0.041879486
-0.42857116 0.47798592 -0.12478909 39 2 -0.04187718
-0.90692794 1.0118525 0.11888044 100 10 -0.041874878
-0.90590286 1.0114194 0.16671728 100 11 -0.04187027
-0.88662612 0.9905929 0.21056081 57 12 -0.041865662
-0.62452191 0.69775403 -0.081926398 3 5 -0.04186336
-0.87315887 0.97588921 0.25453922 83 13 -0.041861054
-0.86376768 0.96607143 0.29918489 99 14 -0.041856445
-0.92882359 1.0391973 -0.024328655 100 7 -0.041854143
-0.86624449 0.96952289 0.34837046 78 15 -0.041851837
-0.43317249 0.48601118 -0.17444403 96 0 -0.041831102
-0.91521782 1.0272175 0.024014512 100 8 -0.041828796
-0.4160504 0.46712887 -0.14441857 78 1 -0.041826494
-0.91241646 1.0247934 0.071909614 100 9 -0.041824192
-0.43734419 0.49120924 -0.12784202 37 2 -0.041821886
-0.91928554 1.0328717 0.12097216 100 10 -0.041819584
-0.90896332 1.0219917 0.16793597 100 11 -0.041814975
-0.87660158 0.9862994 0.20899647 58 12 -0.041810367
-0.61678815 0.69397289 -0.08122915 3 5 -0.041808061
-0.87496316 0.98480153 0.25606567 85 13 -0.041805759
-0.86556548 0.97490972 0.3009845 99 14 -0.041801151
-0.91988105 1.0364505 -0.024189034 100 7 -0.041798845
-0.87567621 0.98699129 0.35354683 77 15 -0.041796543
-0.4289127 0.48462701 -0.17340876 58 0 -0.041775808
-0.91295135 1.031904 0.024049416 100 8 -0.041773502
-0.41829044 0.47295746 -0.14576827 91 1 -0.0417712
-0.91165936 1.0308056 0.072118953 100 9 -0.041768894
-0.42522383 0.48096612 -0.12478909 39 2 -0.041766591
-0.90643865 1.0256242 0.11975199 100 10 -0.041764285
-0.90933257 1.0296222 0.16866718 100 11 -0.041759677
-0.873326 0.98920089 0.20899647 58 12 -0.041755069
-0.61172533 0.69313389 -0.08088053 3 5 -0.041752767
-0.8767153 0.99373877 0.25759214 83 13 -0.041750461
-0.93664056 1.0620363 -0.074212395 1 6 -0.041748159
-0.86731207 0.98377228 0.30278412 96 14 -0.041745853
-0.91379392 1.0364956 -0.024119226 100 7 -0.04174355
-0.86473453 0.98119384 0.35044101 77 15 -0.041741244
-0.42594302 0.48467022 -0.17289113 79 0 -0.04172051
-0.90952438 1.0349257 0.024049416 100 8 -0.041718207
-0.43215379 0.49191022 -0.15116711 72 1 -0.041715901
-0.91464531 1.0414851 0.072642311 100 9 -0.041713599
-0.41836128 0.47654611 -0.12326261 49 2 -0.041711293
-0.90416741 1.0302793 0.1199263 100 10 -0.041708991
-0.91245884 1.0400932 0.16988587 100 11 -0.041704383
-0.87247229 0.99521393 0.2096222 61 12 -0.041699775
-0.57778645 0.65930301 -0.076697052 4 5 -0.041697469
-0.87082738 0.99368739 0.25682893 81 13 -0.041695166
-0.86918038 0.99250716 0.30458373 100 14 -0.041690558
-0.920708 1.0517157 -0.024398465 100 7 -0.041688256
-0.85748744 0.97984505 0.34888807 76 15 -0.04168595
-0.43957904 0.50354391 -0.17910279 92 0 -0.041665215
-0.90590644 1.038094 0.024049416 100 8 -0.041662909
-0.42146671 0.48313624 -0.14801779 88 1 -0.041660607
-0.91100419 1.0446714 0.072642311 100 9 -0.041658301
-0.41935948 0.48089007 -0.12402585 48 2 -0.041655999
-0.90205503 1.0347737 0.12010061 100 10 -0.041653693
-0.90360677 1.037285 0.16891092 100 11 -0.041649085
-0.87158704 1.0012332 0.21024795 68 12 -0.041644476
-0.86735326 0.99672133 0.25682893 90 13 -0.041639872
-0.87082583 1.001417 0.30638334 96 14 -0.041635264
-0.92227852 1.0609602 -0.024538083 100 7 -0.041632958
-0.86546636 0.99595618 0.35354683 77 15 -0.041630656
-0.42634445 0.49201187 -0.17444403 58 0 -0.041609917
-0.90489638 1.0442724 0.024119226 100 8 -0.041607615
-0.40701845 0.46987486 -0.14351878 93 1 -0.041605309
-0.90735203 1.0478451 0.072642311 100 9 -0.041603006
-0.43558276 0.50320518 -0.1293685 54 2 -0.0416007
-0.91259718 1.054646 0.12201804 100 10 -0.041598398
-0.89868176 1.0389315 0.16866718 100 11 -0.04159379
-0.86937851 1.005764 0.21056081 65 12 -0.041589182
-0.86882782 1.0058364 0.25835541 83 13 -0.041584574
-0.86460257 1.0016518 0.30548352 99 14 -0.041579966
-0.92771596 1.0747694 -0.024782417 100 7 -0.041577663
-0.87081897 1.0092096 0.35717031 74 15 -0.041575357
-0.44982469 0.52278483 -0.18479681 69 0 -0.041554622
-0.91019088 1.0581944 0.024363559 100 8 -0.041552316
-0.40910512 0.47579643 -0.14486848 91 1 -0.041550014
-0.90889746 1.0570637 0.073060997 100 9 -0.041547708
-0.42102644 0.48983407 -0.12555233 48 2 -0.041545406
-0.9128055 1.0623587 0.12254097 100 10 -0.041543104
-0.90004069 1.0482426 0.16964214 100 11 -0.041538496
-0.86328936 1.0057948 0.20993507 65 12 -0.041533887
-0.87042409 1.0148238 0.25988188 85 13 -0.041529279
-0.86110115 1.0046636 0.30548352 96 14 -0.041524671
-0.92135614 1.0749643 -0.024712607 28 7 -0.041522365
-0.87231874 1.018111 0.35924083 76 15 -0.041520063
-0.43293849 0.50672644 -0.17858516 74 0 -0.041499328
-0.91447073 1.0703287 0.024572989 100 8 -0.041497022
-0.41258731 0.48307785 -0.14666808 77 1 -0.04149472
-0.90779597 1.0632677 0.073270351 100 9 -0.041492414
-0.43078473 0.50474048 -0.1289869 63 2 -0.041490112
-0.90391874 1.059476 0.12184373 100 10 -0.041487806
-0.90428877 1.0602834 0.17110457 100 11 -0.041483197
-0.8610543 1.0103058 0.21024795 68 12 -0.041478589
-0.87214708 1.0236822 0.26140836 85 13 -0.041473981
-0.86281765 1.0134491 0.30728313 99 14 -0.041469373
-0.88649333 1.0416255 -0.023874892 18 7 -0.041467071
-0.86875927 1.02115 0.35924083 73 15 -0.041464765
-0.42875552 0.50521356 -0.17754988 37 0 -0.04144403
-0.90296686 1.0643653 0.024363559 100 8 -0.041441727
-0.42224246 0.49789122 -0.1507172 73 1 -0.041439421
-0.91311944 1.0770944 0.074003048 100 9 -0.041437119
-0.41641292 0.491191 -0.12517071 57 2 -0.041434813
-0.90297687 1.0655074 0.12219235 100 10 -0.041432511
-0.90827918 1.0725229 0.172567 100 11 -0.041427903
-0.865179 1.0223525 0.21212517 68 12 -0.041423295
-0.86856818 1.0267205 0.26140836 81 13 -0.041418687
-0.65644652 0.77624965 -0.053278007 1 6 -0.041416381
-0.8643074 1.0224074 0.30908275 96 14 -0.041414078
-0.80540872 0.95307225 -0.021780603 18 7 -0.041411772
-0.86269641 1.0212245 0.35820559 74 15 -0.04140947
-0.42574465 0.50522977 -0.17703223 56 0 -0.041388735
-0.89795792 1.0659811 0.024328655 87 8 -0.041386429
-0.4230125 0.50234324 -0.15161701 84 1 -0.041384127
-0.91064048 1.0818031 0.074107721 100 9 -0.041381821
-0.42354611 0.50315517 -0.12784202 56 2 -0.041379519
-0.90566635 1.0762751 0.12306391 100 10 -0.041377213
-0.90197444 1.0726485 0.17207953 100 11 -0.041372605
-0.86668849 1.0314153 0.21337664 76 12 -0.041367996
-0.86497873 1.0297464 0.26140836 85 13 -0.041363388
-0.61777133 0.73570907 -0.050347198 3 6 -0.041361086
-0.87075657 1.0373589 0.31268197 94 14 -0.041358784
-0.66197038 0.7889058 -0.01797598 23 7 -0.041356478
-0.86905825 1.0360708 0.36234668 74 15 -0.041354176
-0.42893711 0.5126394 -0.17910279 37 0 -0.041333437
-0.89679724 1.0721772 0.024398465 68 8 -0.041331135
-0.40875611 0.48886687 -0.14711799 89 1 -0.041328829
-0.90173507 1.0788457 0.073689036 100 9 -0.041326527
-0.42934147 0.51366884 -0.13013174 54 2 -0.041324221
-0.90445852 1.0824881 0.12341253 100 10 -0.041321918
-0.89186352 1.0681713 0.17086083 100 11 -0.04131731
-0.86434817 1.0359514 0.21368951 73 12 -0.041312702
-0.86640912 1.0387899 0.2629348 90 13 -0.041308094
-0.60624629 0.72712308 -0.049614493 8 6 -0.041305792
-0.86712992 1.0403923 0.31268197 94 14 -0.041303486
-0.63361216 0.76048487 -0.017277883 72 7 -0.041301183
-0.86790937 1.0420668 0.36338195 72 15 -0.041298877
-0.4370214 0.52602088 -0.18324389 35 0 -0.041278142
-0.90071499 1.0845309 0.024607893 44 8 -0.041275837
-0.414516 0.49928677 -0.14981739 86 1 -0.041273534
-0.90051496 1.0850604 0.073898375 100 9 -0.041271228
-0.41751552 0.50307834 -0.12707879 56 2 -0.041268926
-0.90957975 1.0963721 0.12463271 100 10 -0.041266624
-0.89953226 1.0850319 0.17305449 100 11 -0.041262016
-0.86702806 1.0465679 0.21525384 78 12 -0.041257408
-0.86778682 1.047856 0.26446128 94 13 -0.041252799
-0.59861004 0.72308087 -0.049195804 11 6 -0.041250493
-0.85355318 1.0314025 0.30908275 100 14 -0.041248191
-0.62203127 0.75190628 -0.017033549 91 7 -0.041245885
-0.86919135 1.0510447 0.3654525 64 15 -0.041243583
-0.43149444 0.52307266 -0.18169098 35 0 -0.041222844
-0.90328521 1.0953822 0.024782417 30 8 -0.041220542
-0.41648915 0.50524187 -0.15116711 84 1 -0.04121824
-0.90434241 1.0974455 0.074526407 100 9 -0.041215934
-0.41825381 0.50756299 -0.12784202 56 2 -0.041213632
-0.9032138 1.0964646 0.12428409 100 10 -0.041211326
-0.90330869 1.0973612 0.17451692 100 11 -0.041206717
-0.85458505 1.0389093 0.21306378 73 12 -0.041202109
-0.8666175 1.0539119 0.26522452 94 13 -0.041197501
-0.60622823 0.73750931 -0.050033178 4 6 -0.041195199
-0.85737103 1.0434092 0.31178215 99 14 -0.041192893
-0.61686414 0.7509827 -0.016963739 94 7 -0.041190591
-0.86061317 1.0481005 0.36338195 63 15 -0.041188285
-0.43945903 0.53653169 -0.18583208 34 0 -0.04116755
-0.89565527 1.0938871 0.024677703 33 8 -0.041165248
-0.41348881 0.50518447 -0.1507172 85 1 -0.041162942
-0.90430063 1.1052327 0.074840426 100 9 -0.041160639
-0.42020932 0.51357818 -0.1289869 63 2 -0.041158333
-0.89433503 1.0934421 0.12358684 100 10 -0.041156031
-0.90575403 1.1081924 0.17573561 100 11 -0.041151423
-0.85845095 1.0510654 0.21494098 73 12 -0.041146815
-0.8641752 1.0584511 0.26560614 99 13 -0.041142207
-0.61627901 0.75509411 -0.051079899 1 6 -0.041139901
-0.85865158 1.0524354 0.31358176 100 14 -0.041137598
-0.61929458 0.75932986 -0.017103357 87 7 -0.041135293
-0.85694963 1.051098 0.36338195 63 15 -0.04113299
-0.48755831 0.59951234 -0.20705524 25 0 -0.041112255
-0.903184 1.1109718 0.024991846 57 8 -0.041109949
-0.40680689 0.50057548 -0.1489176 87 1 -0.041107647
-0.90547478 1.1145831 0.075259112 100 9 -0.041105341
-0.41841415 0.51504177 -0.1289869 63 2 -0.041103039
-0.89553654 1.102744 0.12428409 100 10 -0.041100733
-0.89812744 1.1067235 0.17500439 100 11 -0.041096125
-0.86099809 1.0617268 0.21650532 78 12 -0.041091517
-0.85676599 1.0568861 0.26446128 94 13 -0.041086908
-0.63878846 0.78827536 -0.053173337 1 6 -0.041084606
-0.86478561 1.0675403 0.31718099 92 14 -0.0410823
-0.62041539 0.76614928 -0.017208073 78 7 -0.041079998
-0.86056805 1.0630925 0.36648777 61 15 -0.041077696
-0.49031714 0.60722286 -0.2091258 24 0 -0.041056957
-0.89050871 1.1032254 0.024747513 47 8 -0.041054655
-0.41362312 0.51260871 -0.15206692 96 1 -0.041052349
-0.89781654 1.1130735 0.074945092 100 9 -0.041050047
-0.42893946 0.5317803 -0.13280307 60 2 -0.041047741
-0.89668435 1.112067 0.12498133 100 10 -0.041045438
-0.88927704 1.1036686 0.17402944 100 11 -0.04104083
-0.86348075 1.0724192 0.21806967 81 12 -0.041036222
-0.86538166 1.0751641 0.26827747 87 13 -0.041031614
-0.63603312 0.79050022 -0.053173337 1 6 -0.041029312
-0.8659395 1.0766264 0.3189806 83 14 -0.041027006
-0.61899048 0.76986861 -0.017242977 66 7 -0.041024704
-0.86895454 1.0811476 0.37166417 61 15 -0.041022398
-0.51236272 0.63907564 -0.21947856 20 0 -0.041001663
-0.89290535 1.1141289 0.024922037 9 8 -0.040999357
-0.41061294 0.51252842 -0.15161701 84 1 -0.040997054
-0.89642298 1.1193185 0.075154446 97 9 -0.040994748
-0.41971719 0.52407986 -0.13051336 63 2 -0.040992446
-0.90524924 1.1307436 0.12672445 100 10 -0.04099014
-0.89285916 1.1160667 0.17549187 100 11 -0.040985536
-0.85356438 1.0677123 0.21650532 78 12 -0.040980928
-0.87142819 1.090448 0.27133042 81 13 -0.040976319
-0.85974371 1.0765972 0.31808078 83 14 -0.040971711
-0.61380392 0.76889914 -0.017173167 37 7 -0.040969405
-0.86638051 1.0856838 0.3721818 57 15 -0.040967103
-0.53539449 0.6726011 -0.23034896 15 0 -0.040946364
-0.91017741 1.1438401 0.025515417 23 8 -0.040944062
-0.41609994 0.52310932 -0.15431643 82 1 -0.04094176
-0.89623922 1.1271309 0.075468451 93 9 -0.040939454
-0.41788515 0.5255419 -0.13051336 63 2 -0.040937152
-0.89757705 1.1292179 0.12620151 100 10 -0.040934846
-0.90007025 1.1331662 0.17768551 100 11 -0.040930238
-0.46413174 0.58453989 -0.091645755 5 4 -0.040927935
-0.85106045 1.0722322 0.21681818 84 12 -0.040925629
-0.87371808 1.1011728 0.27323848 74 13 -0.040921021
-0.86203426 1.0872265 0.32033029 80 14 -0.040916413
-0.60987437 0.76946974 -0.017138263 28 7 -0.040914111
-0.86018586 1.0856735 0.3711465 57 15 -0.040911805
-0.5737704 0.72599792 -0.24794866 8 0 -0.04089107
-0.89006358 1.1266123 0.025061656 54 8 -0.040888768
-0.42634937 0.53985178 -0.15881544 99 1 -0.040886462
-0.89848745 1.1380903 0.075991817 86 9 -0.04088416
-0.41118217 0.52083361 -0.1289869 63 2 -0.040881854
-0.88622379 1.1229602 0.12515564 100 10 -0.040879551
-0.89979726 1.1409771 0.17841674 100 11 -0.040874943
-0.85464883 1.0845056 0.21869542 81 12 -0.040870335
-0.86379468 1.0965048 0.27133042 66 13 -0.040865727
-0.86305571 1.0963537 0.32212991 78 14 -0.040861119
-0.61089468 0.77630824 -0.017242977 24 7 -0.040858813
-0.86236268 1.0962615 0.37373474 58 15 -0.04085651
-0.56646264 0.72191691 -0.2458781 14 0 -0.040835775
-0.87131578 1.1108311 0.024642797 29 8 -0.040833469
-0.41484269 0.52906853 -0.15521623 81 1 -0.040831167
-0.89943796 1.1475072 0.076410502 55 9 -0.040828861
-0.42026189 0.53617209 -0.13242145 70 2 -0.040826559
-0.88229877 1.1260467 0.12515564 100 10 -0.040824253
-0.89336103 1.1409853 0.17792925 100 11 -0.040819645
-0.8593784 1.0983727 0.22088549 88 12 -0.040815037
-0.85512358 1.0933278 0.26980394 57 13 -0.040810429
-0.86402327 1.1055015 0.32392952 75 14 -0.04080582
-0.61310548 0.7847392 -0.017382598 19 7 -0.040803518
-0.86685473 1.1099225 0.37735817 57 15 -0.040801212
-0.61855215 0.79399306 -0.26968947 6 0 -0.041100502
-0.79371369 1.0192028 0.02254851 7 8 -0.0410982
-0.40940219 0.52590019 -0.15386651 94 1 -0.041095894
-0.42200479 0.54228407 -0.13356631 60 2 -0.041091286
-0.89181983 1.146418 0.12707306 100 10 -0.041088983
-0.87962651 1.1315585 0.17597936 100 11 -0.041084375
-0.85675114 1.1029257 0.22119835 84 12 -0.041079767
-0.86093503 1.108711 0.27285689 39 13 -0.041075159
-0.85777003 1.1054314 0.32302973 76 14 -0.041070551
-0.60546017 0.78055418 -0.017242977 15 7 -0.041068245
-0.87126178 1.1236281 0.38098165 61 15 -0.041065942
-0.63468713 0.82059723 -0.27797166 12 0 -0.041045208
-0.69107664 0.89382559 0.019721219 6 8 -0.041042902
-0.41233096 0.53349346 -0.15566613 92 1 -0.041040599
-0.90361542 1.1695638 0.077457219 52 9 -0.041038293
-0.41770852 0.54064679 -0.13280307 60 2 -0.041035991
-0.89390159 1.1574085 0.12794463 100 10 -0.041033685
-0.88294804 1.1440513 0.17744178 100 11 -0.041029077
-0.85048306 1.1027813 0.22057262 81 12 -0.041024469
-0.85586065 1.1101549 0.27247527 6 13 -0.041019861
-0.85152727 1.1053315 0.32212991 78 14 -0.041015252
-0.58931047 0.7652353 -0.016859025 10 7 -0.04101295
-0.86851233 1.1281936 0.38149929 72 15 -0.041010644
-0.65535057 0.85345232 -0.28832445 11 0 -0.040989909
-0.88642335 1.1547918 0.025410704 36 8 -0.040987607
-0.41758397 0.5442059 -0.15836555 89 1 -0.040985301
-0.89973223 1.1725537 0.077457219 74 9 -0.040982999
-0.40864956 0.5327549 -0.13051336 63 2 -0.040980693
-0.89343756 1.1660348 0.18036664 100 11 -0.040973783
-0.84802276 1.1071637 0.22088549 76 12 -0.040969174
-0.83169526 1.0866323 0.26598775 1 13 -0.040964566
-0.85476732 1.1175845 0.32482934 80 14 -0.040959958
-0.59405881 0.7767154 -0.017068453 3 7 -0.040957656
-0.86241984 1.127998 0.38046399 72 15 -0.04095535
-0.65119636 0.85419822 -0.28780681 15 0 -0.040934615
-0.85834229 1.1259191 0.024712607 89 8 -0.040932309
-0.40632761 0.53318787 -0.15476632 100 1 -0.040930007
-0.89684385 1.1772763 0.0775619 25 9 -0.040927701
-0.41868195 0.5497973 -0.13432954 68 2 -0.040925398
-0.88941997 1.1683768 0.12846756 42 10 -0.040923093
-0.89317197 1.1737305 0.18109787 100 11 -0.040918484
-0.45189214 0.59405267 -0.091645755 5 4 -0.040916182
-0.84654385 1.1132621 0.22151121 76 12 -0.04091388
-0.811454 1.0675031 0.26064509 1 13 -0.040909272
-0.85577124 1.1266203 0.32662892 76 14 -0.040904664
-0.60101807 0.79152536 -0.017347692 2 7 -0.040902358
-0.86314934 1.1371564 0.38253456 68 15 -0.040900055
-0.66002113 0.87175524 -0.29298317 15 0 -0.040879317
-0.8049283 1.0635341 0.023281511 43 8 -0.040877014
-0.4091669 0.54081941 -0.15656593 91 1 -0.040874708
-0.90598154 1.1979222 0.078713283 16 9 -0.040872406
-0.42396179 0.56057793 -0.13661924 57 2 -0.0408701
-0.88674247 1.172909 0.12864187 100 10 -0.040867798
-0.4498156 0.59562659 -0.091645755 5 4 -0.040860888
-0.84027261 1.1130569 0.22088549 61 12 -0.040858582
-0.80772299 1.0703288 0.26064509 1 13 -0.040853973
-0.85652691 1.1358242 0.32842854 76 14 -0.040849365
-0.61269641 0.8127802 -0.017766548 2 7 -0.040847063
-0.86731279 1.1509626 0.38615805 64 15 -0.040844757
-0.65233129 0.86787659 -0.29091263 9 0 -0.040824022
-0.59460163 0.79135996 0.017277883 35 8 -0.040821716
-0.40727672 0.54224426 -0.15656593 91 1 -0.040819414
-0.89819711 1.1962857 0.078399271 49 9 -0.040817112
-0.41964498 0.55891436 -0.135856 66 2 -0.040814806
-0.88503444 1.1791843 0.12899049 100 10 -0.040812504
-0.88019234 1.1735847 0.1801229 56 11 -0.040807895
-0.44773358 0.59719324 -0.091645755 5 4 -0.040805589
-0.81575346 1.0888538 0.26446128 1 13 -0.040798679
-0.84788567 1.1325668 0.32662892 80 14 -0.040794071
-0.65298891 0.87255013 -0.019023122 2 7 -0.040791765
-0.88180512 1.1787335 0.39444023 62 15 -0.040789463
-0.65507478 0.87788975 -0.29350081 11 0 -0.040768728
-0.59064019 0.79182768 0.017242977 47 8 -0.040766422
-0.41353551 0.55459845 -0.15971525 76 1 -0.040764119
-0.88685387 1.1898057 0.077771239 79 9 -0.040761814
-0.4200379 0.56352407 -0.13661924 66 2 -0.040759511
-0.88686538 1.1902547 0.12986206 100 10 -0.040757205
-0.88438874 1.1877959 0.18182908 100 11 -0.040752597
-0.44564638 0.59875238 -0.091645755 5 4 -0.040750295
-0.85252714 1.1458383 0.22620426 32 12 -0.040747989
-0.8142907 1.0948457 0.26522452 1 13 -0.040743381
-0.84392673 1.1355199 0.32662892 78 14 -0.040738773
-0.63562834 0.85556215 -0.018604266 2 7 -0.04073647
-0.89265913 1.2019663 0.40116954 66 15 -0.040734164
-0.63475734 0.85688627 -0.28573623 16 0 -0.040713429
-0.58906281 0.79549152 0.017277883 45 8 -0.040711127
-0.41043779 0.55447215 -0.15926534 88 1 -0.040708821
-0.8957637 1.2105546 0.078922629 100 9 -0.040706519
-0.40872607 0.55236131 -0.13356631 60 2 -0.040704213
-0.88507509 1.1965466 0.13021068 100 10 -0.040701911
-0.88967693 1.2036463 0.18377897 100 11 -0.040697303
-0.44355378 0.60030425 -0.091645755 5 4 -0.040694997
-0.84148079 1.1392733 0.22432704 65 12 -0.040692694
-0.83845145 1.1355867 0.27438337 1 13 -0.040688086
-0.84227157 1.1415954 0.32752874 80 14 -0.040683478
-0.84747404 1.1490653 -0.024922037 6 7 -0.040681176
-0.88731188 1.2035197 0.4006519 77 15 -0.04067887
-0.62375063 0.84820253 -0.28211278 22 0 -0.040658135
-0.58154458 0.79109818 0.017138263 45 8 -0.040655829
-0.41311574 0.56218278 -0.16106495 96 1 -0.040653527
-0.89389712 1.2168937 0.079131976 100 9 -0.040651221
-0.41609353 0.56644279 -0.13661924 57 2 -0.040648919
-0.88089263 1.1996289 0.13021068 100 10 -0.040646613
-0.89134145 1.2147471 0.18499769 100 11 -0.040642004
-0.44145548 0.60184902 -0.091645755 5 4 -0.040639702
-0.84450692 1.1517622 0.22620426 81 12 -0.040637396
-0.82055473 1.1195052 0.26980394 1 13 -0.040632792
-0.84864509 1.1586777 0.33157787 83 14 -0.040628184
-0.89543533 1.2230092 -0.026457848 14 7 -0.040625878
-0.88082314 1.2034922 0.3996166 75 15 -0.040623575
-0.62534243 0.85661584 -0.28418332 28 0 -0.040602837
-0.57406455 0.78666186 0.016998643 42 8 -0.040600535
-0.41344762 0.56677026 -0.16196476 85 1 -0.040598229
-0.89435124 1.2264613 0.079550661 95 9 -0.040595926
-0.41180035 0.56471908 -0.135856 66 2 -0.04059362
-0.88374174 1.2123564 0.13125655 100 10 -0.040591318
-0.88709611 1.2178508 0.18499769 100 11 -0.04058671
-0.43935204 0.60338622 -0.091645755 5 4 -0.040584408
-0.84513164 1.1610913 0.22745575 81 12 -0.040582102
-0.45844898 0.62984401 -0.068155795 7 5 -0.0405798
-0.83743358 1.1509374 0.27667305 1 13 -0.040577494
-0.84688759 1.164785 0.33247766 87 14 -0.040572885
-0.89351243 1.2293625 -0.026527658 31 7 -0.040570583
-0.88570058 1.2190628 0.40375772 77 15 -0.040568277
-0.62234867 0.85879338 -0.28418332 30 0 -0.040547542
-0.57600749 0.79513884 0.017138263 34 8 -0.040545236
-0.40460879 0.55873996 -0.15926534 88 1 -0.040542934
-0.88303804 1.2198683 0.078922629 65 9 -0.040540628
-0.41443151 0.5725143 -0.13738248 56 2 -0.040538326
-0.88534421 1.2235049 0.1321281 100 10 -0.040536024
-0.88167661 1.2193311 0.18475394 100 11 -0.040531415
-0.43724298 0.60491627 -0.091645755 5 4 -0.04052911
-0.84454387 1.1688379 0.22839434 78 12 -0.040526807
-0.43757743 0.60560155 -0.065366805 8 5 -0.040524501
-0.8426075 1.1665856 0.279726 1 13 -0.040522199
-0.83939493 1.162994 0.33112797 76 14 -0.040517591
-0.89857614 1.245447 -0.026806895 19 7 -0.040515285
-0.88257021 1.2237138 0.40427536 60 15 -0.040512983
-0.61934692 0.86096066 -0.28418332 30 0 -0.040492248
-0.58256835 0.81013262 0.017417502 19 8 -0.040489942
-0.40720588 0.56647819 -0.16106495 86 1 -0.04048764
-0.76339149 1.0623715 0.068560109 30 9 -0.040485334
-0.40784785 0.56758022 -0.135856 57 2 -0.040483031
-0.88223064 1.2282058 0.13230242 53 10 -0.040480725
-0.88088727 1.2272396 0.18548515 100 11 -0.040476117
-0.43512893 0.60643876 -0.091645755 5 4 -0.040473815
-0.83700508 1.1669631 0.22745575 73 12 -0.040471509
-0.45404065 0.63302928 -0.068155795 7 5 -0.040469207
-0.82480222 1.1503736 0.27514657 1 13 -0.040466901
-0.83760029 1.169085 0.33202776 78 14 -0.040462293
-0.8627854 1.2046813 -0.025864467 7 7 -0.040459991
-0.8861655 1.2377825 0.40789884 53 15 -0.040457685
-0.60623366 0.84896803 -0.27952456 40 0 -0.04043695
-0.57625169 0.80727839 0.017312787 9 8 -0.040434647
-0.40748999 0.5710687 -0.16196476 85 1 -0.040432341
-0.58918548 0.82600796 0.053173337 25 9 -0.040430039
-0.40700403 0.57059884 -0.13623764 66 2 -0.040427733
-0.87215465 1.2231665 0.13143085 80 10 -0.040425431
-0.8892687 1.248091 0.18816628 41 11 -0.040420823
-0.43300954 0.60795385 -0.091645755 5 4 -0.040418517
-0.81917828 1.1505672 0.22370131 24 12 -0.040416215
-0.84127247 1.1820371 0.28201571 1 13 -0.040411606
-0.84029055 1.1815302 0.33472717 76 14 -0.040406998
-0.88072008 1.2392938 0.40738121 66 15 -0.04040239
-0.60214961 0.84950292 -0.27900696 22 0 -0.040381655
-0.86014497 1.2139276 0.025969181 10 8 -0.040379349
-0.40999943 0.57884866 -0.16376437 82 1 -0.040377047
-0.58629882 0.82805943 0.053173337 37 9 -0.040374741
-0.41068238 0.5800274 -0.13814571 56 2 -0.040372439
-0.87248355 1.2327087 0.1321281 100 10 -0.040370133
-0.8894918 1.2576699 0.18914123 83 11 -0.040365525
-0.83453816 1.1808439 0.22902009 45 12 -0.040360916
-0.83034468 1.1753455 0.279726 1 13 -0.040356308
-0.84065688 1.1908242 0.33652678 76 14 -0.040351704
-0.87750256 1.2439389 0.40789884 87 15 -0.040347096
-0.59918082 0.85159951 -0.27900696 18 0 -0.040326357
-0.87660998 1.2463642 0.026597466 24 8 -0.040324055
-0.41245976 0.58665287 -0.16556399 80 1 -0.040321749
-0.58914715 0.83827108 0.053696696 39 9 -0.040319446
-0.4142997 0.58948851 -0.14005381 62 2 -0.040317141
-0.88077438 1.2536796 0.13404553 100 10 -0.040314838
-0.88053429 1.2542683 0.18816628 100 11 -0.04031023
-0.83494914 1.1902182 0.23027156 60 12 -0.040305622
-0.83525479 1.1910959 0.28277895 1 13 -0.040301014
-0.84096789 1.2001351 0.33832639 76 14 -0.040296406
-0.66885525 0.95486885 -0.020349504 2 7 -0.040294103
-0.87758702 1.2533245 0.40996939 100 15 -0.040291797
-0.60284102 0.86318898 -0.28211278 18 0 -0.040271062
-0.89056873 1.2756513 0.027155945 36 8 -0.040268756
-0.40483305 0.58009881 -0.16331446 93 1 -0.040266454
-0.57136178 0.81902784 0.052335959 30 9 -0.040264148
-0.41336262 0.5925414 -0.14043543 62 2 -0.040261846
-0.87639254 1.2567466 0.13404553 100 10 -0.040259544
