# .PCD v0.7 - Point Cloud Data file format
VERSION 0.7
FIELDS x y z intensity ring time
SIZE 4 4 4 4 2 4
TYPE F F F F U F
COUNT 1 1 1 1 1 1
WIDTH 892
HEIGHT 1
VIEWPOINT 0 0 0 1 0 0 0
POINTS 892
DATA ascii
-0.91011018 -0.89311486 0.11155935 18 10 -0.028232312
-0.57392955 -0.5630151 -0.12733766 32 3 -0.028230008
-0.92267793 -0.90481597 0.1586739 18 11 -0.028227706
-0.58403748 -0.57253128 -0.10042035 73 4 -0.028225401
-0.93963963 -0.92080563 0.20837073 15 12 -0.028223097
-0.58343881 -0.57174444 -0.071467713 6 5 -0.028220793
-0.94945979 -0.93010473 0.25835541 14 13 -0.028218489
-0.58506465 -0.57293779 -0.04291549 35 6 -0.028216185
-0.95947361 -0.93925786 0.30998254 16 14 -0.028213881
-1.0122455 -0.99022669 0.37942874 10 15 -0.028209273
-0.61802763 -0.60310793 -0.23138423 62 0 -0.028188536
-0.80874705 -0.78894812 0.019721219 52 8 -0.028186232
-1.152414 -1.1238085 -0.37161914 41 1 -0.028183928
-0.90513337 -0.88266605 0.066257328 12 9 -0.028181624
-1.1541656 -1.125124 -0.31330839 43 2 -0.028179321
-0.91750294 -0.89410406 0.11208228 18 10 -0.028177017
-0.57164633 -0.55687326 -0.12639906 42 3 -0.028174713
-0.93578607 -0.91128433 0.16038008 15 11 -0.028172409
-0.58603263 -0.57048899 -0.10042035 73 4 -0.028170105
-0.94834983 -0.92319626 0.2096222 12 12 -0.028167801
-0.5568732 -0.54191399 -0.067981474 7 5 -0.028165497
-0.948479 -0.92267787 0.25721052 16 13 -0.028163193
-0.57560623 -0.55975252 -0.042078111 38 6 -0.028160889
-0.96554089 -0.93861991 0.31088236 16 14 -0.028158585
-1.0266073 -0.99763519 0.38356987 10 15 -0.028153976
-0.62290376 -0.60363573 -0.23241952 60 0 -0.028133241
-0.81710327 -0.79182816 0.019860838 52 8 -0.028130937
-1.1477363 -1.1118454 -0.36891973 39 1 -0.028128633
-0.89386129 -0.86560702 0.065210611 15 9 -0.028126329
-1.160907 -1.1238192 -0.31407163 43 2 -0.028124025
-0.9249137 -0.89505255 0.11260521 18 10 -0.028121721
-0.57632893 -0.55772197 -0.1270248 49 3 -0.028119417
-0.94879001 -0.91783738 0.16208623 15 11 -0.028117113
-0.57650512 -0.55750293 -0.098470435 74 4 -0.028114809
-0.95866764 -0.92674524 0.21118654 12 12 -0.028112505
-0.95859236 -0.92634887 0.25911862 21 13 -0.028107896
-0.57745922 -0.55784076 -0.042078111 33 6 -0.028105592
-0.9574337 -0.9245832 0.30728313 16 14 -0.028103288
-1.0300837 -0.99404532 0.38356987 10 15 -0.02809868
-0.63325268 -0.60960549 -0.23552534 55 0 -0.028077945
-0.8184213 -0.78758472 0.019825934 48 8 -0.028075641
-1.1516103 -1.1078323 -0.36891973 39 1 -0.028073337
-0.88248134 -0.84863764 0.064163886 20 9 -0.028071033
-1.156137 -1.1117984 -0.31178191 47 2 -0.028068729
-0.93218565 -0.89612305 0.11312816 16 10 -0.028066425
-0.5754236 -0.55296934 -0.12639906 54 3 -0.028064121
-0.95914596 -0.92139596 0.16330492 14 11 -0.028061816
-0.57415223 -0.55136222 -0.09773922 72 4 -0.028059512
-0.95762169 -0.91928929 0.21024795 12 12 -0.028057208
-0.96323663 -0.9243564 0.25950024 27 13 -0.0280526
-0.57652032 -0.55305636 -0.041868769 33 6 -0.028050296
-0.97753358 -0.93742114 0.31268197 16 14 -0.028047992
-1.040521 -0.99712694 0.38615805 9 15 -0.028043384
-0.62699801 -0.59938192 -0.23241952 52 0 -0.028022649
-0.82983994 -0.79301214 0.020035362 43 8 -0.028020345
-1.1554704 -1.1038057 -0.36891973 41 1 -0.028018041
-0.90277117 -0.86210454 0.06541995 12 9 -0.028015736
-1.1500717 -1.0982651 -0.30911061 48 2 -0.028013432
-0.93386692 -0.89148748 0.11295383 18 10 -0.028011128
-0.5787794 -0.55232102 -0.12671193 56 3 -0.028008824
-0.97097439 -0.92626393 0.16476737 13 11 -0.02800652
-0.57894659 -0.55209458 -0.098226704 70 4 -0.028004216
-0.9579652 -0.91321486 0.2096222 10 12 -0.028001912
-0.96219337 -0.91692549 0.25835541 41 13 -0.027997304
-0.58857018 -0.56068379 -0.04260147 21 6 -0.027995002
-0.98221105 -0.93534702 0.31313187 35 14 -0.027992697
-1.0300008 -0.98017126 0.38098165 9 15 -0.027988089
-0.62768537 -0.59585959 -0.23190187 45 0 -0.027967352
-0.82970208 -0.78735769 0.019965554 43 8 -0.027965048
-1.1508332 -1.0917187 -0.3662203 41 1 -0.027962744
-0.9130215 -0.86581945 0.065943316 10 9 -0.02796044
-1.1510495 -1.0915416 -0.30834734 50 2 -0.027958136
-0.92829746 -0.87999797 0.11190797 15 10 -0.027955832
-0.5721007 -0.54214495 -0.12483472 56 3 -0.027953528
-0.97420192 -0.92286861 0.16476737 12 11 -0.027951224
-0.57798749 -0.54734045 -0.09773922 72 4 -0.02794892
-0.9625814 -0.91122359 0.20993507 9 12 -0.027946617
-0.96824044 -0.91625988 0.25911862 51 13 -0.027942009
-0.59922928 -0.56686109 -0.043229505 20 6 -0.027939705
-0.99679714 -0.94262469 0.3167311 55 14 -0.027937401
-1.0404364 -0.98320413 0.38356987 7 15 -0.027932793
-0.63679022 -0.60029048 -0.23449005 35 0 -0.027912056
-0.83098984 -0.78308541 0.01993065 39 8 -0.027909752
-1.1432893 -1.077005 -0.3626211 39 1 -0.027907448
-0.89858991 -0.84619612 0.064687252 15 9 -0.027905144
-1.1491356 -1.0821333 -0.30682087 48 2 -0.027902842
-0.94296926 -0.88767785 0.11330246 13 10 -0.027900536
-0.57111257 -0.53743714 -0.12420898 59 3 -0.027898233
-0.9730798 -0.91538191 0.16403615 12 11 -0.027895929
-0.57410991 -0.53988004 -0.096764266 78 4 -0.027893625
-0.97439229 -0.91597569 0.2118123 9 12 -0.027891321
-0.96571016 -0.90749675 0.25759214 42 13 -0.027886713
-0.59392571 -0.55792874 -0.042706143 15 6 -0.027884409
-1.0071845 -0.94580919 0.3189806 58 14 -0.027882105
-1.0480881 -0.98353249 0.38512275 9 15 -0.027877497
-0.63888162 -0.59806412 -0.23449005 21 0 -0.027867079
-0.85561985 -0.80067503 0.02045422 12 8 -0.027864775
-1.1413496 -1.0676823 -0.36082149 41 1 -0.027862471
-0.89278525 -0.83486944 0.06405922 66 9 -0.027860167
-1.1500378 -1.0754337 -0.30605766 48 2 -0.027857862
-0.9446066 -0.88302022 0.11312816 11 10 -0.027855558
-0.57009864 -0.53274268 -0.12358324 57 3 -0.027853254
-0.97481835 -0.9106248 0.16379242 9 11 -0.02785095
-0.57889271 -0.54058242 -0.097251743 72 4 -0.027848646
-0.97180766 -0.90717697 0.21056081 6 12 -0.027846342
-0.98035479 -0.91483593 0.26064509 18 13 -0.027841736
-0.56666034 -0.52860439 -0.040612705 12 6 -0.027839432
-1.0104799 -0.94228768 0.3189806 47 14 -0.027837127
-0.70503223 -0.65722346 -0.016824121 3 7 -0.027834823
-1.0529286 -0.98118472 0.38564041 7 15 -0.027832519
-0.64379519 -0.59846091 -0.23552534 20 0 -0.027811782
-0.86426902 -0.80312842 0.020593841 12 8 -0.027809478
-1.1479249 -1.0663445 -0.36172128 39 1 -0.027807174
-0.88105851 -0.81815732 0.063012503 96 9 -0.02780487
-1.1437143 -1.0620613 -0.3033863 51 2 -0.027802566
-0.94914347 -0.88107306 0.11330246 4 10 -0.027800262
-0.57774663 -0.53612423 -0.12483472 57 3 -0.027797958
-0.9779911 -0.90721643 0.16379242 1 11 -0.027795656
-0.57495403 -0.5331592 -0.09627679 78 4 -0.027793352
-0.96627623 -0.89572203 0.20868361 1 12 -0.027791047
-0.99362248 -0.92074925 0.26331642 3 13 -0.027786439
-0.57436305 -0.53205216 -0.041031394 6 6 -0.027784135
-1.0237716 -0.94802332 0.32212991 15 14 -0.027781831
-0.70732212 -0.65475839 -0.016824121 3 7 -0.027779527
-1.0634365 -0.98406368 0.3882286 3 15 -0.027777223
-0.63168526 -0.58310652 -0.23034896 23 0 -0.027756486
-0.86853677 -0.80146271 0.020628745 38 8 -0.027754182
-1.1459105 -1.0570457 -0.35992166 41 1 -0.027751878
-0.89712358 -0.82726228 0.06395454 28 9 -0.027749576
-1.1373117 -1.0487463 -0.300715 48 2 -0.027747272
-0.5781619 -0.53276569 -0.12452185 57 3 -0.027742663
-0.57681149 -0.53114909 -0.09627679 70 4 -0.027738055
-0.58503634 -0.53815711 -0.041659426 5 6 -0.027728839
-1.0256402 -0.94312477 0.32168001 1 14 -0.027726535
-0.62659621 -0.57437116 -0.22776078 17 0 -0.027701192
-0.85658586 -0.78491634 0.020279696 74 8 -0.027698888
-1.1481564 -1.0517229 -0.35947177 44 1 -0.027696583
-0.89264089 -0.81738162 0.063431181 28 9 -0.027694279
-1.1467574 -1.0500734 -0.30224147 50 2 -0.027691975
-0.5712741 -0.52274305 -0.12264463 59 3 -0.027687367
-0.57866204 -0.52913243 -0.09627679 74 4 -0.027682759
-0.58101273 -0.53072357 -0.041240737 11 6 -0.027673542
-0.64002657 -0.58258355 -0.23190187 15 0 -0.027645895
-0.85192531 -0.77519232 0.020105172 54 8 -0.027643591
-1.1388462 -1.0359075 -0.35542265 39 1 -0.027641287
-0.935238 -0.85070312 0.066257328 6 9 -0.027638983
-1.1475105 -1.0434223 -0.30147824 50 2 -0.027636679
-0.56432337 -0.5127753 -0.12076741 63 3 -0.027632071
-0.58344477 -0.52977812 -0.096764266 70 4 -0.027627463
-0.55771285 -0.50588059 -0.039461315 20 6 -0.027618246
-0.71402705 -0.64743996 -0.016824121 3 7 -0.027613638
-0.64062309 -0.57905048 -0.23138423 15 0 -0.027590599
-0.87080961 -0.78711295 0.020489125 18 8 -0.027588295
-1.1335996 -1.0242864 -0.35272324 39 1 -0.027585991
-0.97822016 -0.88357961 0.069083467 6 9 -0.027583687
-1.1453173 -1.0341475 -0.29995176 49 2 -0.027581383
-0.56895339 -0.5135482 -0.12139316 63 3 -0.027576774
-0.57635415 -0.51986307 -0.095301837 76 4 -0.027572166
-0.47973111 -0.43255886 0.10230815 4 12 -0.027569862
-0.57274139 -0.51606089 -0.040403362 12 6 -0.027562952
-0.65684003 -0.59142143 -0.015427927 5 7 -0.027558343
-0.64541471 -0.57950419 -0.23241952 15 0 -0.027535303
-0.87503994 -0.78540438 0.020524029 9 8 -0.027532998
-1.1357177 -1.0190216 -0.35227334 44 1 -0.027530694
-1.0006272 -0.8974961 0.070444204 9 9 -0.02752839
-1.1370485 -1.0198569 -0.29689881 49 2 -0.027526086
-0.57368451 -0.51419592 -0.1220189 60 3 -0.027521478
-0.48788929 -0.43714356 0.080433771 10 11 -0.027519174
-0.57225037 -0.51255041 -0.094326884 78 4 -0.027516872
-0.4576914 -0.40979865 0.097302251 5 12 -0.027514568
-0.55965477 -0.500741 -0.039356641 20 6 -0.027507655
-0.63504887 -0.56779927 -0.014869451 6 7 -0.027503047
-0.6416657 -0.57210535 -0.23034896 15 0 -0.027480006
-0.88673311 -0.7903282 0.020733459 9 8 -0.027477702
-1.1407231 -1.0163471 -0.35272324 41 1 -0.027475398
-1.0097195 -0.89931148 0.070862897 11 9 -0.027473094
-1.1288726 -1.0054358 -0.29384586 50 2 -0.02747079
-0.47022584 -0.41866174 0.055082429 9 10 -0.027468488
-0.57547611 -0.51219016 -0.1220189 67 3 -0.027466184
-0.47013226 -0.41828433 0.077265166 21 11 -0.027463879
-0.57403606 -0.51054978 -0.094326884 74 4 -0.027461575
-0.4163073 -0.37013495 0.088229045 11 12 -0.027459271
-0.57334393 -0.50939679 -0.040194016 12 6 -0.027452359
-0.63403624 -0.56292367 -0.014799641 13 7 -0.027447751
-0.66246241 -0.58650964 -0.23707826 13 0 -0.02742471
-0.88199919 -0.78060162 0.020558937 8 8 -0.027422408
-1.1457232 -1.0136505 -0.35317314 42 1 -0.027420104
-1.0083643 -0.89181191 0.070548877 10 9 -0.027417799
-1.1397285 -1.0079924 -0.29575396 51 2 -0.027415495
-0.56837946 -0.50232947 -0.12014168 60 3 -0.027410887
-0.46117583 -0.40744039 0.075558998 11 11 -0.027408583
-0.58325434 -0.51511306 -0.095545575 67 4 -0.027406279
-0.42203936 -0.37260166 0.089167662 16 12 -0.027403975
-0.48869687 -0.43129939 0.12669718 8 13 -0.027399367
-0.56912792 -0.5021069 -0.039775331 13 6 -0.027397063
-0.62999725 -0.55541754 -0.014660021 14 7 -0.027392454
-0.65870214 -0.57909155 -0.2350077 14 0 -0.027369415
-0.88021249 -0.7735579 0.02045422 7 8 -0.027367111
-1.1346143 -0.9967832 -0.34867415 38 1 -0.027364807
-0.95444459 -0.8382051 0.06657134 9 9 -0.027362503
-1.141765 -1.0027122 -0.29537234 48 2 -0.027360199
-0.56716007 -0.49773645 -0.11951595 61 3 -0.027355591
-0.46259528 -0.40582812 0.075558998 11 11 -0.027353287
-0.58057147 -0.50914741 -0.09481436 74 4 -0.027350983
-0.4500744 -0.39456582 0.094799295 15 12 -0.027348679
-0.43704537 -0.38300863 0.11295893 10 13 -0.02734407
-0.55735636 -0.48827231 -0.038833283 42 6 -0.027341766
-0.63193232 -0.55321491 -0.014660021 28 7 -0.027337158
-0.66945136 -0.58441156 -0.23811352 12 0 -0.027314119
-0.87989402 -0.767851 0.020384412 7 8 -0.027311815
-1.1248704 -0.98128712 -0.34462503 39 1 -0.027309511
-0.90467972 -0.78892404 0.062907822 12 9 -0.027307207
-1.1437789 -0.99743003 -0.29499072 51 2 -0.027304903
-0.56889403 -0.49575362 -0.11951595 63 3 -0.027300294
-0.45802197 -0.39899516 0.074584045 11 11 -0.02729799
-0.57635695 -0.5019033 -0.0938394 85 4 -0.027295686
-0.42612016 -0.37094328 0.089480527 16 12 -0.027293382
-0.47096196 -0.40983403 0.12135453 9 13 -0.027288774
-0.55604345 -0.48370224 -0.03862394 78 6 -0.02728647
-0.63838714 -0.55494136 -0.014764735 20 7 -0.027281864
-0.66418862 -0.57574415 -0.23552534 13 0 -0.027258823
-0.88105762 -0.76346529 0.020349504 7 8 -0.027256519
-1.1268158 -0.97607893 -0.34417513 44 1 -0.027254215
-0.89534903 -0.77530223 0.062070452 6 9 -0.02725191
-1.1398325 -0.98700577 -0.29308262 50 2 -0.027249606
-0.57360846 -0.49635005 -0.12014168 61 3 -0.027244998
-0.48943874 -0.42336747 0.079458818 10 11 -0.027242694
-0.57059753 -0.49339625 -0.092620708 68 4 -0.02724039
-0.41545689 -0.35911909 0.086977579 11 12 -0.027238086
-0.47833163 -0.41332209 0.122881 9 13 -0.02723348
-0.55319417 -0.47784156 -0.038309924 65 6 -0.027231175
-0.62821013 -0.54225659 -0.014485498 29 7 -0.027226567
-0.67351514 -0.57972354 -0.23811352 12 0 -0.027203526
-0.85794842 -0.73821294 0.019756125 7 8 -0.027201222
-1.128739 -0.97086865 -0.34372523 39 1 -0.027198918
-0.86927593 -0.74743134 0.060081679 1 9 -0.027196614
-1.126896 -0.96894133 -0.28888482 47 2 -0.02719431
-0.57234114 -0.49176994 -0.11951595 67 3 -0.027189704
-0.4909136 -0.42165643 0.079458818 10 11 -0.0271874
-0.57834077 -0.4965741 -0.093595661 71 4 -0.027185095
-0.42120469 -0.36152652 0.08791618 5 12 -0.027182791
-0.46189177 -0.39630887 0.11830158 9 13 -0.027178183
-0.56243885 -0.48240909 -0.038833283 28 6 -0.027175879
-0.49264055 -0.42239326 0.14981739 12 14 -0.027173575
-0.62706262 -0.53745776 -0.014415688 29 7 -0.027171271
-0.63882071 -0.54599041 -0.22517258 18 0 -0.02714823
-0.76017666 -0.64948195 0.017452406 8 8 -0.027145926
-1.1291573 -0.96439141 -0.34282541 41 1 -0.027143624
-0.86580372 -0.73920524 0.059662998 1 9 -0.02714132
-1.128778 -0.9637273 -0.28850323 48 2 -0.027139015
-0.56503773 -0.48207638 -0.11763873 61 3 -0.027134407
-0.4923825 -0.4199402 0.079458818 10 11 -0.027132103
-0.57251757 -0.48811278 -0.09237697 58 4 -0.027129799
-0.43148464 -0.36774197 0.089793392 5 12 -0.027127495
-0.42142838 -0.35904434 0.10761628 10 13 -0.027122887
-0.57172203 -0.48691782 -0.039356641 13 6 -0.027120583
-0.63198054 -0.53785765 -0.014485498 36 7 -0.027115975
-0.66281652 -0.56250739 -0.23293714 14 0 -0.027092936
-0.704494 -0.59766567 0.016126024 22 8 -0.027090631
-1.1250856 -0.95414186 -0.3405759 42 1 -0.027088327
-0.87142569 -0.73876154 0.05987234 1 9 -0.027086023
-1.1321353 -0.95978123 -0.28850323 48 2 -0.027083719
-0.56370258 -0.47754732 -0.11701299 66 3 -0.027079111
-0.58179337 -0.49252442 -0.093595661 66 4 -0.027074503
-0.4448289 -0.37644216 0.092296347 5 12 -0.027072199
-0.49762225 -0.42097023 0.12669718 8 13 -0.027067591
-0.57036811 -0.48233983 -0.039147299 13 6 -0.027065286
-0.62621742 -0.52919477 -0.014310974 30 7 -0.027060678
-0.66329879 -0.55894542 -0.23241952 15 0 -0.027037639
-0.68057638 -0.57330149 0.015532642 39 8 -0.027035335
-1.1239372 -0.94644326 -0.33922619 41 1 -0.027033031
-0.88622308 -0.7460047 0.060709719 1 9 -0.027030727
-1.1384827 -0.95835173 -0.28926644 49 2 -0.027028423
-0.57141268 -0.48066324 -0.11826447 60 3 -0.027023815
-0.5774309 -0.48538134 -0.092620708 68 4 -0.027019206
-0.49453497 -0.41555297 0.10230815 4 12 -0.027016902
-0.56440061 -0.47392419 -0.03862394 21 6 -0.02700999
-0.64950675 -0.54500091 -0.014799641 33 7 -0.027005382
-0.66080111 -0.55290735 -0.2308666 15 0 -0.026982343
-0.68564111 -0.57348847 0.015602452 42 8 -0.026980039
-1.1242441 -0.94001424 -0.33832639 41 1 -0.026977735
-0.86724073 -0.72512603 0.059244309 1 9 -0.026975431
-1.1297703 -0.94429934 -0.28621352 48 2 -0.026973126
-0.57157093 -0.47739935 -0.11795159 58 3 -0.026968518
-0.57150155 -0.47700286 -0.091402017 66 4 -0.02696391
-0.49591029 -0.41391072 0.10230815 4 12 -0.026961606
-0.57372147 -0.47834629 -0.039147299 13 6 -0.026954696
-0.62980497 -0.52491999 -0.014310974 37 7 -0.026950087
-0.66569883 -0.55306655 -0.23190187 15 0 -0.026927046
-0.6890772 -0.57248944 0.015637357 45 8 -0.026924742
-1.125856 -0.93503577 -0.3378765 42 1 -0.026922438
-0.89128047 -0.73995513 0.060709719 1 9 -0.026920134
-1.1285272 -0.93658882 -0.28506866 47 2 -0.02691783
-0.57467121 -0.47676259 -0.11826447 61 3 -0.026913222
-0.5639109 -0.46750334 -0.089939587 63 4 -0.026908616
-0.5983783 -0.49554971 -0.040717378 18 6 -0.026899399
-0.64703918 -0.53546751 -0.014660021 42 7 -0.026894791
-0.66156918 -0.5459376 -0.22983132 16 0 -0.02687175
-0.68798625 -0.56753558 0.015567547 43 8 -0.026869446
-1.1246023 -0.92738098 -0.33652678 46 1 -0.026867142
-0.87228197 -0.7190538 0.059244309 1 9 -0.026864838
-1.1270821 -0.92909485 -0.2839238 42 2 -0.026862536
-0.56718391 -0.46721777 -0.11638726 64 3 -0.026857927
-0.5823983 -0.47940972 -0.092620708 68 4 -0.026853319
-0.57233614 -0.47062442 -0.038833283 21 6 -0.026844103
-0.64581424 -0.53066671 -0.014590211 28 7 -0.026839495
-0.66048229 -0.5411762 -0.22879605 16 0 -0.026816456
-0.67604011 -0.55372661 0.015253403 44 8 -0.026814152
-1.1263251 -0.92221487 -0.33607689 47 1 -0.026811847
-0.88096887 -0.72106469 0.059662998 1 9 -0.026809543
-1.1303184 -0.92515492 -0.2839238 34 2 -0.026807239
-0.55963695 -0.45773146 -0.11451004 68 3 -0.026802631
-0.58253115 -0.47611755 -0.09237697 58 4 -0.026798023
-0.56469291 -0.46104473 -0.038205251 21 6 -0.026788807
-0.64301437 -0.52461678 -0.014485498 36 7 -0.026784198
-0.67885154 -0.5522781 -0.23449005 14 0 -0.026761159
-0.68727726 -0.55893373 0.015462833 45 8 -0.026758855
-1.1250011 -0.91458964 -0.33472717 50 1 -0.026756551
-0.87728065 -0.71294665 0.059244309 1 9 -0.026754247
-1.1320174 -0.91996557 -0.28354219 29 2 -0.026751943
-0.56429821 -0.45826572 -0.11513578 66 3 -0.026747335
-0.57494122 -0.46657604 -0.09091454 61 4 -0.026742727
-0.57250476 -0.46410185 -0.03862394 28 6 -0.02673351
-0.6479494 -0.52488649 -0.014555307 21 7 -0.026728902
-0.68528354 -0.55354697 -0.23604298 13 0 -0.026705863
-0.68922418 -0.55653113 0.015462833 56 8 -0.026703559
-1.1236378 -0.90698516 -0.33337748 49 1 -0.026701255
-0.86422026 -0.69733822 0.058197591 1 9 -0.026698951
-1.1260542 -0.90861166 -0.28125247 22 2 -0.026696647
-0.56896985 -0.45877296 -0.11576151 66 3 -0.026692038
-0.5765664 -0.46456623 -0.09091454 66 4 -0.02668743
-0.57878894 -0.46585748 -0.038937956 14 6 -0.026678216
-0.62796265 -0.50507545 -0.01406664 23 7 -0.026673608
-0.66912723 -0.53664738 -0.22983132 16 0 -0.026650567
-0.69272292 -0.55537277 0.015497738 72 8 -0.026648263
-1.1222347 -0.89940149 -0.33202776 50 1 -0.026645958
-0.87600166 -0.70180959 0.058825623 1 9 -0.026643654
-1.1169617 -0.89485496 -0.27819952 14 2 -0.02664135
-0.57210976 -0.45801878 -0.11607439 62 3 -0.026636742
-0.56888402 -0.45511028 -0.089452103 64 4 -0.026632134
-0.59289354 -0.47380921 -0.039775331 19 6 -0.026622919
-0.65628576 -0.52409369 -0.014660021 14 7 -0.026618311
-0.67855269 -0.54032534 -0.23241952 15 0 -0.02659527
-0.68057632 -0.54174298 0.015183594 90 8 -0.026592966
-1.1238425 -0.89426529 -0.33157787 51 1 -0.026590662
-0.87219387 -0.69377416 0.058406934 1 9 -0.026588358
-0.56442696 -0.44864383 -0.11419717 62 3 -0.026581448
-0.57979554 -0.46052986 -0.09091454 61 4 -0.026576839
-0.60080206 -0.47670248 -0.040194016 12 6 -0.026567623
-0.66751277 -0.52925384 -0.014869451 19 7 -0.026563015
-0.68962228 -0.54502195 -0.23552534 13 0 -0.026525974
-0.67941928 -0.53676546 0.015113784 100 8 -0.02652367
-1.1164073 -0.88168561 -0.32842854 55 1 -0.026521366
-0.89667726 -0.70789915 0.05987234 1 9 -0.026519062
-0.64718968 -0.51093638 -0.16027956 42 2 -0.026516758
-0.5645166 -0.44534877 -0.11388431 68 3 -0.02651215
-0.57212609 -0.45102781 -0.089452103 64 4 -0.026507542
-0.58371586 -0.45966908 -0.038937956 14 6 -0.026498327
-0.6851629 -0.53917003 -0.015218498 12 7 -0.026493719
-0.68088186 -0.53426355 -0.23190187 15 0 -0.026470678
-0.68286204 -0.53562486 0.015148689 100 8 -0.026468374
-1.1087435 -0.86936623 -0.32527924 51 1 -0.02646607
-0.88342381 -0.69244361 0.058825623 1 9 -0.026463766
-0.59643376 -0.46749562 -0.14730455 27 2 -0.026461462
-0.55829203 -0.43728516 -0.11231996 61 3 -0.026456853
-0.56431764 -0.44168705 -0.08798968 66 4 -0.026452247
-0.58689016 -0.45885903 -0.039042629 20 6 -0.026443031
-0.72485948 -0.56632227 -0.016056214 24 7 -0.026438423
-0.6934104 -0.54019421 -0.23552534 13 0 -0.026415382
-0.68630534 -0.53446662 0.015183594 100 8 -0.026413077
-1.1056205 -0.86070222 -0.32347962 51 1 -0.026410773
-0.87941092 -0.68460286 0.058406934 1 9 -0.026408471
-0.57791996 -0.44973651 -0.14234352 7 2 -0.026406167
-0.56761193 -0.44139683 -0.11388431 64 3 -0.026401559
-0.55958617 -0.43484229 -0.08701472 67 4 -0.026396951
-0.59322143 -0.46048164 -0.039356641 13 6 -0.026387734
-0.73779255 -0.57249677 -0.016300548 27 7 -0.026383126
-0.67389828 -0.52122366 -0.2282784 16 0 -0.026360087
-0.69598287 -0.53830492 0.015358118 89 8 -0.026357783
-1.0961353 -0.84749526 -0.3198804 49 1 -0.026355479
-0.88179535 -0.68152899 0.058406934 1 9 -0.026353175
-0.53909314 -0.41650829 -0.13242145 8 2 -0.026350871
-0.56438237 -0.43588975 -0.1129457 62 3 -0.026346263
-0.56573957 -0.43662277 -0.087745935 60 4 -0.026341654
-0.59790879 -0.46095079 -0.039565988 6 6 -0.026332438
-0.74295467 -0.57235861 -0.016370358 26 7 -0.02632783
-0.66183478 -0.50839448 -0.22361965 18 0 -0.026304791
-0.69151348 -0.53100061 0.015218498 86 8 -0.026302487
-1.0728076 -0.82349211 -0.31223205 45 1 -0.026300183
-0.88099992 -0.67601502 0.058197591 1 9 -0.026297878
-0.55293185 -0.42427951 -0.1354744 8 2 -0.026295574
-0.5611977 -0.43031105 -0.11200709 68 3 -0.026290966
-0.56410879 -0.43223059 -0.087258458 67 4 -0.026286358
-0.60585821 -0.46371657 -0.039984677 6 6 -0.026277142
-0.77512711 -0.59284395 -0.017033549 20 7 -0.026272533
-0.68357509 -0.52131045 -0.23034896 23 0 -0.026249494
-0.68382102 -0.52130955 0.015009069 70 8 -0.02624719
-1.0555263 -0.80438668 -0.30638334 52 1 -0.026244886
-0.9087745 -0.69230068 0.05987234 1 9 -0.026242582
-0.57002664 -0.43424392 -0.13929057 15 2 -0.026240278
-0.55798107 -0.42475992 -0.11106849 61 3 -0.02623567
-0.56877387 -0.43266261 -0.087745935 66 4 -0.026231062
-0.61065376 -0.46401542 -0.040194016 6 6 -0.026221847
-0.80745137 -0.6131112 -0.01769674 18 7 -0.026217239
-0.6884709 -0.52125353 -0.23138423 23 0 -0.026194198
-0.6840421 -0.51771259 0.014974165 65 8 -0.026191894
-1.0288002 -0.77835768 -0.2978352 36 1 -0.02618959
-0.88888371 -0.67225772 0.058406934 1 9 -0.026187286
-0.56527549 -0.42751464 -0.13776411 16 2 -0.026184982
-0.56418818 -0.42638266 -0.11200709 68 3 -0.026180374
-0.56394434 -0.42588916 -0.086770974 63 4 -0.026175767
-0.6122697 -0.46188116 -0.040194016 6 6 -0.026166551
-0.8127802 -0.61269635 -0.017766548 21 7 -0.026161943
-0.7042771 -0.52917063 -0.23604298 13 0 -0.026138902
-0.69543743 -0.52252877 0.015183594 57 8 -0.026136598
-0.96139294 -0.72209686 -0.27758962 42 1 -0.026134294
-0.87205875 -0.65476048 0.057150867 1 9 -0.026131989
-0.56683868 -0.42543977 -0.13776411 24 2 -0.026129685
-0.56100619 -0.42075637 -0.11106849 59 3 -0.026125079
-0.55907446 -0.41915494 -0.085796028 58 4 -0.026120471
-0.62674928 -0.46920967 -0.041031394 6 6 -0.026111254
-0.7973029 -0.59667581 -0.017382598 24 7 -0.026106646
-0.69528025 -0.51862371 -0.23241952 15 0 -0.026083605
-0.70376021 -0.52475792 0.015323212 54 8 -0.026081303
-0.907785 -0.67664194 -0.26139313 52 1 -0.026078999
-0.90636629 -0.6755845 0.059244309 1 9 -0.026076695
-0.55100292 -0.41055548 -0.13356631 34 2 -0.026074391
-0.56564045 -0.42115483 -0.11169422 59 3 -0.026069783
-0.56697738 -0.4218429 -0.086770974 51 4 -0.026065174
-0.59632283 -0.44319171 -0.038937956 7 6 -0.026055958
-0.78493416 -0.58315617 -0.017068453 26 7 -0.02605135
-0.69708639 -0.51619357 -0.23241952 15 0 -0.026028311
-0.69746125 -0.51647115 0.015148689 49 8 -0.026026007
-0.84580511 -0.62609154 -0.24294713 25 1 -0.026023703
-0.88624173 -0.65578455 0.057778902 1 9 -0.026021399
-0.55243266 -0.4086296 -0.13356631 51 2 -0.026019095
-0.55432731 -0.40988117 -0.10919127 61 3 -0.026014486
-0.56837314 -0.41996044 -0.086770974 51 4 -0.026009878
-0.62350059 -0.46018863 -0.040612705 6 6 -0.026000662
-0.79340237 -0.58516043 -0.017208073 21 7 -0.025996054
-0.70501965 -0.51845706 -0.23449005 7 0 -0.025973015
-0.69120383 -0.50811136 0.014974165 52 8 -0.02597071
-0.83228219 -0.61159557 -0.23844811 43 1 -0.025968406
-0.87886751 -0.64559251 0.057150867 1 9 -0.025966102
-0.56011373 -0.41144451 -0.13509277 50 2 -0.025963798
-0.55893952 -0.41028148 -0.10981701 61 3 -0.02595919
-0.56983566 -0.41797388 -0.086770974 57 4 -0.025954582
-0.61221462 -0.44856572 -0.039775331 6 6 -0.025945365
-0.79221308 -0.5800249 -0.017138263 25 7 -0.025940759
-0.70682514 -0.51599288 -0.23449005 14 0 -0.025917718
-0.70266509 -0.51276833 0.015183594 49 8 -0.025915414
-0.78245783 -0.57078737 -0.22360134 34 1 -0.02591311
-0.87466073 -0.63781363 0.056732185 1 9 -0.025910806
-0.55202878 -0.40254635 -0.13280307 51 2 -0.025908502
-0.56356114 -0.41065469 -0.11044274 59 3 -0.025903894
-0.56005806 -0.40780267 -0.085064806 47 4 -0.025899285
-0.59116387 -0.4299787 -0.038309924 7 6 -0.025890071
-0.81687903 -0.59371543 -0.01762693 18 7 -0.025885463
-0.7164433 -0.51919061 -0.23707826 13 0 -0.025862422
-0.71578687 -0.51852411 0.015427927 45 8 -0.025860118
-0.7986508 -0.57833928 -0.22765048 36 1 -0.025857814
-0.86070299 -0.62304538 0.055685461 1 9 -0.02585551
-0.55184019 -0.39946586 -0.13242145 52 2 -0.025853205
-0.55858904 -0.40405399 -0.10919127 61 3 -0.025848599
-0.55826044 -0.40351954 -0.084577329 48 4 -0.025843991
-0.59589964 -0.43025097 -0.038519271 7 6 -0.025834775
-0.80921662 -0.58384007 -0.017417502 13 7 -0.025830166
-0.73393375 -0.52796781 -0.24225464 11 0 -0.025807125
-0.72246301 -0.51952481 0.015532642 43 8 -0.025804821
-0.80382925 -0.57782298 -0.22855027 36 1 -0.025802519
-0.85962892 -0.617706 0.055476118 1 9 -0.025800215
-0.54685402 -0.3929545 -0.13089497 62 2 -0.025797911
-0.56320518 -0.40440598 -0.10981701 59 3 -0.025793303
-0.55966556 -0.40156838 -0.084577329 48 4 -0.025788695
-0.59739792 -0.42816824 -0.038519271 7 6 -0.025779478
-0.7998693 -0.57286149 -0.017173167 9 7 -0.02577487
-0.7106176 -0.50744015 -0.23397243 14 0 -0.025751831
-0.72264457 -0.51583803 0.015497738 43 8 -0.025749527
-0.79949611 -0.57048583 -0.22675066 31 1 -0.025747223
-0.88779581 -0.63325858 0.057150867 1 9 -0.025744919
-0.55781221 -0.39788359 -0.13318469 60 2 -0.025742615
-0.55817908 -0.39785138 -0.10856552 57 3 -0.025738006
-0.56753147 -0.40421876 -0.085552283 47 4 -0.025733398
-0.61516297 -0.43765858 -0.039565988 6 6 -0.025724182
-0.78556609 -0.55847919 -0.016824121 7 7 -0.025719574
-0.71396065 -0.50607371 -0.23449005 14 0 -0.025696535
-0.71954572 -0.50984412 0.015393022 42 8 -0.025694231
-0.8046633 -0.5699442 -0.22765048 28 1 -0.025691926
-0.89000088 -0.63015574 0.057150867 1 9 -0.025689622
-0.55278862 -0.39139614 -0.13165821 62 2 -0.025687318
-0.54827642 -0.38791406 -0.10637545 56 3 -0.02568271
-0.57542259 -0.40681928 -0.086527243 40 4 -0.025678102
-0.57100648 -0.40324873 -0.036635175 8 6 -0.025668886
-0.78751075 -0.55573368 -0.016824121 3 7 -0.025664277
-0.71572274 -0.5035786 -0.23449005 7 0 -0.025641238
-0.72132105 -0.50732934 0.015393022 42 8 -0.025638934
-0.79708284 -0.56040698 -0.22495104 31 1 -0.02563663
-0.89219499 -0.62704539 0.057150867 1 9 -0.025634326
-0.55415142 -0.38946429 -0.13165821 62 2 -0.025632022
-0.55770993 -0.39167431 -0.10793979 59 3 -0.025627414
-0.57033962 -0.40024683 -0.085552283 41 4 -0.025622806
-0.55932689 -0.39208153 -0.035797797 8 6 -0.025613591
-0.74358582 -0.52085811 -0.015846785 10 7 -0.025608983
-0.7317307 -0.51103234 -0.2391488 12 0 -0.025585942
-0.72800672 -0.50824225 0.015497738 39 8 -0.025583638
-0.80382824 -0.56096715 -0.22630076 22 1 -0.025581334
-0.84851283 -0.59193093 0.054220054 1 9 -0.02557903
-0.55228716 -0.385281 -0.13089497 62 2 -0.025576726
-0.55259162 -0.38520664 -0.10668832 60 3 -0.025572117
-0.5554446 -0.38690728 -0.0831149 42 4 -0.025567511
-0.58692336 -0.40837824 -0.037472546 7 6 -0.025558295
-0.73883206 -0.51369292 -0.015707165 16 7 -0.025553687
-0.71763337 -0.49746886 -0.23397243 14 0 -0.025530646
-0.73470718 -0.50911498 0.015602452 31 8 -0.025528342
-0.80738348 -0.55926746 -0.22675066 18 1 -0.025526037
-0.89655095 -0.62080121 0.057150867 1 9 -0.025523733
-0.5536288 -0.38335067 -0.13089497 62 2 -0.025521431
-0.56205505 -0.3888953 -0.10825266 53 3 -0.025516823
-0.56495577 -0.39061084 -0.084333591 36 4 -0.025512215
-0.60806626 -0.41994703 -0.03872861 7 6 -0.025502998
-0.72251672 -0.49861699 -0.015323212 18 7 -0.02549839
-0.71936542 -0.49496099 -0.23397243 14 0 -0.025475351
-0.73318464 -0.50428081 0.015532642 32 8 -0.025473047
-0.82378316 -0.56638229 -0.23079978 14 1 -0.025470743
-0.87896055 -0.60409296 0.055894807 1 9 -0.025468439
-0.55172753 -0.37919191 -0.13013174 63 2 -0.025466135
-0.55526745 -0.38133934 -0.10668832 65 3 -0.025461527
-0.56467915 -0.38751313 -0.08408986 30 4 -0.025456918
-0.60623372 -0.41556343 -0.038519271 7 6 -0.025447702
-0.7242527 -0.49609205 -0.015323212 18 7 -0.025443094
-0.71470743 -0.48808894 -0.23190187 15 0 -0.025420055
-0.72172803 -0.49269876 0.015253403 32 8 -0.025417751
-0.80965859 -0.55251878 -0.22630076 12 1 -0.025415447
-0.86126465 -0.587515 0.054638743 1 9 -0.025413143
-0.56277883 -0.38390175 -0.13242145 52 2 -0.025410838
-0.5484339 -0.37383589 -0.10512397 51 3 -0.02540623
-0.5758723 -0.39224467 -0.085552283 35 4 -0.025401622
-0.6043781 -0.41119763 -0.038309924 7 6 -0.025392406
-0.72267252 -0.49131233 -0.015253403 18 7 -0.025387798
-0.75158757 -0.50943714 -0.24328992 10 0 -0.025364758
-0.74330914 -0.5036369 0.015672261 21 8 -0.025362454
-0.8051284 -0.54531783 -0.22450115 10 1 -0.02536015
-0.86331028 -0.58450502 0.054638743 1 9 -0.025357846
-0.55436134 -0.3753309 -0.13013174 63 2 -0.025355542
-0.55300778 -0.37413299 -0.10574972 56 3 -0.025350934
-0.5575034 -0.37689087 -0.082627423 25 4 -0.025346326
-0.57932621 -0.39120206 -0.036635175 8 6 -0.025337111
-0.75919342 -0.51227534 -0.015986405 20 7 -0.025332503
-0.73412639 -0.49387082 -0.23707826 13 0 -0.025309462
-0.75999719 -0.51108205 0.015986405 18 8 -0.025307158
-0.79732329 -0.535981 -0.22180174 9 1 -0.025304854
-0.83550566 -0.56143677 0.052754648 1 9 -0.02530255
-0.53611374 -0.36025366 -0.12555233 67 2 -0.025300246
-0.55923027 -0.37550387 -0.10668832 49 3 -0.025295638
-0.56870615 -0.38157868 -0.08408986 24 4 -0.025291029
-0.61718863 -0.41363996 -0.038937956 7 6 -0.025281815
-0.71777743 -0.4806914 -0.015078879 19 7 -0.025277207
-0.73905933 -0.49345049 -0.23811352 12 0 -0.025254166
-0.78339899 -0.52285731 0.016440166 14 8 -0.025251862
-0.79918921 -0.53319472 -0.22180174 9 1 -0.025249558
-0.85740006 -0.57181472 0.054010712 1 9 -0.025247253
-0.53736812 -0.35837993 -0.12555233 67 2 -0.025244951
-0.56546891 -0.37683597 -0.10762692 51 3 -0.025240343
-0.55020732 -0.36638796 -0.081164986 19 4 -0.025235735
-0.61862874 -0.41148305 -0.038937956 7 6 -0.025226519
-0.74942797 -0.4981074 -0.015707165 5 7 -0.02522191
-0.73272532 -0.48553213 -0.23552534 13 0 -0.025202274
-0.78355211 -0.51901543 0.016405262 16 8 -0.02519997
-0.80916983 -0.53578109 -0.22405125 8 1 -0.025197666
-0.86605287 -0.57322776 0.054429401 1 9 -0.025195362
-0.54516429 -0.36083633 -0.12707879 65 2 -0.025193058
-0.54865718 -0.36287287 -0.10418537 51 3 -0.02518845
-0.54817069 -0.36227635 -0.080677517 13 4 -0.025183842
-0.62006122 -0.40932125 -0.038937956 7 6 -0.025174627
-0.77787024 -0.51310575 -0.016265644 4 7 -0.025170019
-0.74410021 -0.48934051 -0.23863117 12 0 -0.025146978
-0.7803461 -0.51298171 0.016300548 27 8 -0.025144674
-0.80289233 -0.52760214 -0.22180174 8 1 -0.02514237
-0.86804837 -0.5702014 0.054429401 1 9 -0.025140066
-0.53821594 -0.35354188 -0.12517071 57 2 -0.025137762
-0.5499205 -0.36095548 -0.10418537 51 3 -0.025133153
-0.55773145 -0.36580414 -0.081896208 6 4 -0.025128547
-0.61480373 -0.40277621 -0.038519271 7 6 -0.025119331
-0.77965653 -0.51038736 -0.016265644 9 7 -0.025114723
-0.73609698 -0.48040509 -0.23552534 13 0 -0.025091682
-0.79720527 -0.52008826 0.01661469 29 8 -0.025089378
-0.80472898 -0.52479649 -0.22180174 8 1 -0.025087073
-0.87337977 -0.56934923 0.054638743 1 9 -0.025084771
-0.54767007 -0.35702169 -0.12707879 65 2 -0.025082467
-0.55779785 -0.36334655 -0.10543684 51 3 -0.025077859
-0.59227914 -0.38551292 -0.086770974 5 4 -0.025073251
-0.78143328 -0.50766283 -0.016265644 9 7 -0.025059426
-0.73614806 -0.4767825 -0.2350077 14 0 -0.025036387
-0.80237299 -0.51947588 0.016684501 40 8 -0.025034083
-0.79019576 -0.51139635 -0.21730271 11 1 -0.025031779
-0.88206959 -0.57063651 0.055057433 1 9 -0.025029475
-0.54561621 -0.35297504 -0.12631556 66 2 -0.025027171
-0.56238067 -0.36354205 -0.10606258 45 3 -0.025022563
-0.54359698 -0.35113049 -0.079458818 6 4 -0.025017954
-0.76975524 -0.4962635 -0.015986405 10 7 -0.02500413
-0.72805703 -0.46794286 -0.23190187 15 0 -0.024981091
-0.80922866 -0.51991463 0.016789215 35 8 -0.024978787
-0.80509377 -0.5170595 -0.22090194 7 1 -0.024976483
-0.85044187 -0.54597402 0.052963994 1 9 -0.024974179
-0.54023665 -0.34682578 -0.12478909 68 2 -0.024971874
-0.56032085 -0.35944355 -0.10543684 58 3 -0.024967266
-0.74453145 -0.47633073 -0.015427927 11 7 -0.024948834
-0.73620111 -0.46955392 -0.23397243 14 0 -0.024925794
-0.80598015 -0.51386154 0.016684501 28 8 -0.02492349
-0.81018037 -0.51634091 -0.22180174 6 1 -0.024921186
-0.86918718 -0.55373335 0.054010712 1 9 -0.024918882
-0.5348208 -0.34071845 -0.12326261 69 2 -0.024916578
-0.55157399 -0.35112062 -0.10355964 58 3 -0.02491197
-0.75969523 -0.48230338 -0.015707165 16 7 -0.024893539
-0.75415951 -0.47731265 -0.2391488 12 0 -0.024870498
-0.80269915 -0.50783789 0.016579786 27 8 -0.024868194
-0.79550767 -0.50309348 -0.21730271 11 1 -0.02486589
-0.86436194 -0.54642695 0.053592026 1 9 -0.024863586
-0.54264474 -0.3430458 -0.12478909 68 2 -0.024861282
-0.54277569 -0.34286344 -0.10168242 52 3 -0.024856674
-0.68931997 -0.43459201 -0.042706143 5 6 -0.024842851
-0.74953055 -0.47218743 -0.015462833 17 7 -0.024838243
-0.74764109 -0.46954024 -0.23656061 13 0 -0.024815202
-0.80446702 -0.50503278 0.016579786 27 8 -0.024812898
-0.79725897 -0.50031352 -0.21730271 9 1 -0.024810594
-0.85272855 -0.53491592 0.052754648 1 9 -0.024808289
-0.54716504 -0.34323618 -0.12555233 67 2 -0.024805985
-0.55401176 -0.34726146 -0.10355964 47 3 -0.024801379
-0.69083273 -0.43218333 -0.042706143 5 6 -0.024787555
-0.7528699 -0.47062814 -0.015497738 11 7 -0.024782946
-0.73615909 -0.45875379 -0.23241952 15 0 -0.024759905
-0.81131697 -0.50539327 0.016684501 30 8 -0.024757603
-0.80561745 -0.50164801 -0.21910232 10 1 -0.024755299
-0.86476439 -0.53826863 0.053382684 1 9 -0.024752995
-0.5383594 -0.33509934 -0.12326261 69 2 -0.024750691
-0.54851085 -0.34115234 -0.10230815 57 3 -0.024746083
-0.6923371 -0.42976922 -0.042706143 5 6 -0.024732258
-0.7273187 -0.45113248 -0.014939261 13 7 -0.02472765
-0.76404583 -0.47243705 -0.24070174 11 0 -0.024704611
-0.8130762 -0.50255817 0.016684501 26 8 -0.024702307
-0.804048 -0.49678421 -0.21820252 11 1 -0.024700003
-0.842848 -0.52055341 0.051917274 1 9 -0.024697699
-0.52282232 -0.32290158 -0.11944644 72 2 -0.024695395
-0.55642253 -0.34338543 -0.10355964 51 3 -0.024690786
-0.69383305 -0.42734993 -0.042706143 5 6 -0.024676962
-0.74932516 -0.46116823 -0.015358118 5 7 -0.024672354
-0.71135098 -0.43642879 -0.22361965 18 0 -0.024649315
-0.8028928 -0.4923991 0.016440166 38 8 -0.02464701
-0.80245441 -0.49193752 -0.21730271 9 1 -0.024644706
-0.84465992 -0.51760817 0.051917274 1 9 -0.024642402
-0.55072945 -0.3374874 -0.12555233 67 2 -0.024640098
-0.5390867 -0.33009389 -0.10011807 49 3 -0.02463549
-0.78165025 -0.4773086 -0.015986405 5 7 -0.024617059
-0.7425729 -0.45202416 -0.23293714 14 0 -0.024594018
-0.80631506 -0.49063295 0.016475072 35 8 -0.024591714
-0.79584211 -0.48406971 -0.2150532 7 1 -0.02458941
-0.82598257 -0.50220543 0.05066121 2 9 -0.024587106
-0.53177381 -0.32332364 -0.1209729 71 2 -0.024584802
-0.54361218 -0.33026144 -0.10074381 47 3 -0.024580194
-0.75252634 -0.45592585 -0.015358118 5 7 -0.024561763
-0.77060479 -0.46540907 -0.24121936 11 0 -0.024538722
-0.81144655 -0.48988262 0.016544882 33 8 -0.024536418
-0.74747294 -0.4510825 -0.20155615 13 1 -0.024534114
-0.82944077 -0.50035071 0.050765883 12 9 -0.02453181
-0.55307209 -0.33363447 -0.12555233 67 2 -0.024529506
-0.54306978 -0.32734221 -0.10043094 57 3 -0.024524899
-0.76439655 -0.45947754 -0.015567547 5 7 -0.024506466
-0.77222466 -0.46271628 -0.24121936 11 0 -0.024483426
-0.81658274 -0.48910198 0.01661469 36 8 -0.024481121
-0.73901117 -0.44246432 -0.19885674 10 1 -0.024478819
-0.83289611 -0.49847806 0.050870556 16 9 -0.024476515
-0.54075652 -0.32363611 -0.12249938 70 2 -0.024474211
-0.55099052 -0.3294999 -0.10168242 52 3 -0.024469603
-0.77286577 -0.4609032 -0.015707165 5 7 -0.02445117
-0.76055038 -0.45212057 -0.23707826 13 0 -0.024428131
-0.81484687 -0.48420548 0.016544882 38 8 -0.024425827
-0.75563025 -0.44883883 -0.20290586 13 1 -0.024423523
-0.83463103 -0.49556765 0.050870556 18 9 -0.024421219
-0.54188293 -0.32174653 -0.12249938 70 2 -0.024418915
-0.55383623 -0.32858247 -0.10199528 47 3 -0.024414307
-0.74349105 -0.43987468 -0.015078879 6 7 -0.024395874
-0.76045996 -0.44848162 -0.23656061 6 0 -0.024372835
-0.81136423 -0.47831157 0.016440166 45 8 -0.024370531
-0.70514578 -0.41552863 -0.18895888 19 1 -0.024368227
-0.84323937 -0.49670595 0.051289242 15 9 -0.024365922
-0.53623635 -0.31586733 -0.1209729 61 2 -0.024363618
-0.54476553 -0.32063532 -0.10011807 47 3 -0.02435901
-0.77951372 -0.45752102 -0.015776975 5 7 -0.024340577
-0.75034875 -0.43899551 -0.23293714 14 0 -0.024317538
-0.80439788 -0.47042909 0.016265644 39 8 -0.024315234
-0.65275645 -0.38159287 -0.17456202 17 1 -0.02431293
-0.8415193 -0.4917441 0.051079899 16 9 -0.024310626
-0.54072577 -0.31597459 -0.12173614 70 2 -0.024308322
-0.53905785 -0.3147476 -0.098866597 47 3 -0.024303714
-0.77764982 -0.45278481 -0.015707165 5 7 -0.024285283
-0.77025563 -0.44704074 -0.23863117 6 0 -0.024262242
-0.81295389 -0.47163224 0.016405262 28 8 -0.024259938
-0.59845364 -0.34705094 -0.15971525 21 1 -0.024257634
-0.83631885 -0.48479727 0.05066121 16 9 -0.02425533
-0.54182541 -0.31408533 -0.12173614 70 2 -0.024253026
-0.54699069 -0.31682432 -0.10011807 42 3 -0.024248417
-0.79654163 -0.46006921 -0.016056214 4 7 -0.024229987
-0.77348566 -0.44531319 -0.2391488 12 0 -0.024206946
-0.81806171 -0.4707863 0.016475072 30 8 -0.024204642
-0.58783704 -0.33815795 -0.15656593 22 1 -0.024202337
-0.82761747 -0.47590131 0.050033178 19 9 -0.024200033
-0.51909131 -0.29849085 -0.11639349 75 2 -0.024197731
-0.55323154 -0.31786543 -0.10105667 45 3 -0.024193123
-0.79120255 -0.45330936 -0.015916595 5 7 -0.02417469
-0.753227 -0.43015608 -0.23241952 15 0 -0.024151651
-0.81622666 -0.46594527 0.016405262 28 8 -0.024149347
-0.57547331 -0.32837737 -0.15296671 23 1 -0.024147043
-0.83100861 -0.47399884 0.050137851 16 9 -0.024144739
-0.53036225 -0.30251321 -0.1186832 63 2 -0.024142435
-0.55433774 -0.31593236 -0.10105667 47 3 -0.024137827
-0.75105476 -0.42683184 -0.015078879 12 7 -0.024119394
-0.76480937 -0.4332372 -0.23552534 13 0 -0.024096355
-0.81436795 -0.46112266 0.016335452 30 8 -0.024094051
-0.56304866 -0.31868738 -0.1493675 25 1 -0.024091747
-0.84648108 -0.47911108 0.050975226 13 9 -0.024089443
-0.53483242 -0.30259368 -0.11944644 62 2 -0.024087138
-0.5451194 -0.30816269 -0.099179462 42 3 -0.02408253
-0.77336794 -0.43612611 -0.015497738 5 7 -0.024064098
-0.77971429 -0.43827134 -0.23966645 12 0 -0.024041058
-0.81414926 -0.45743999 0.016300548 30 8 -0.024038754
-0.55050951 -0.30918428 -0.14576827 39 1 -0.02403645
-0.84458238 -0.47434533 0.050765883 14 9 -0.024034146
-0.53925675 -0.3027406 -0.12020968 71 2 -0.024031842
-0.54613835 -0.30635327 -0.099179462 45 3 -0.024027234
-0.56347704 -0.31582078 0.10230815 4 12 -0.024020322
-0.80622101 -0.45113599 -0.016126024 4 7 -0.024008803
-0.77778888 -0.43380141 -0.23863117 12 0 -0.023985762
-0.81566173 -0.45473763 0.016300548 30 8 -0.023983458
-0.52089119 -0.29028165 -0.13767006 28 1 -0.023981154
-0.84091681 -0.46862519 0.050451867 12 9 -0.02397885
-0.52310658 -0.29139677 -0.11639349 75 2 -0.023976546
-0.54369926 -0.30261916 -0.098553732 42 3 -0.023971938
-0.59214306 -0.32931197 0.10731406 4 12 -0.023965027
-0.84267855 -0.46787384 -0.016824121 3 7 -0.023953507
-0.80457747 -0.44525078 -0.24639574 9 0 -0.023930466
-0.81716526 -0.45203027 0.016300548 30 8 -0.023928162
-0.53037792 -0.29326761 -0.13991956 41 1 -0.023925858
-0.8319791 -0.46003523 0.049823835 15 9 -0.023923554
-0.52407002 -0.28966048 -0.11639349 75 2 -0.023921251
-0.55161661 -0.30463436 -0.099805199 42 3 -0.023916643
-0.59669095 -0.32925525 0.10793979 4 12 -0.023909731
-0.84422547 -0.46507677 -0.016824121 3 7 -0.02389821
-0.77070993 -0.42265117 -0.23552534 13 0 -0.023882627
-0.82766241 -0.45369557 0.016475072 28 8 -0.023880323
-0.52466404 -0.28748322 -0.13811995 42 1 -0.023878019
-0.84249717 -0.46163598 0.050347198 15 9 -0.023875715
-0.52862221 -0.28953227 -0.11715673 74 2 -0.023873411
-0.54585081 -0.29872078 -0.098553732 47 3 -0.023868803
-0.56675333 -0.30990282 0.10230815 4 12 -0.023861891
-0.80036986 -0.43691969 -0.015916595 5 7 -0.023850372
-0.76708931 -0.41718933 -0.23397243 14 0 -0.023827331
-0.81510878 -0.44330519 0.016195834 33 8 -0.023825027
-0.53417492 -0.29039553 -0.14036946 41 1 -0.023822723
-0.83883864 -0.45583162 0.050033178 14 9 -0.023820419
-0.53653038 -0.2914336 -0.1186832 73 2 -0.023818115
-0.54336649 -0.29502389 -0.097927988 42 3 -0.023813507
-0.62339926 -0.33805567 0.11231996 4 12 -0.023806596
-0.81595844 -0.44173938 -0.016195834 27 7 -0.023795076
-0.77186888 -0.41647798 -0.2350077 14 0 -0.023772035
-0.81313127 -0.43855849 0.016126024 33 8 -0.023769731
-0.51974726 -0.28020632 -0.13632034 43 1 -0.023767427
-0.84745753 -0.4566907 0.050451867 12 9 -0.023765124
-0.5305807 -0.28592733 -0.11715673 74 2 -0.02376282
-0.54613209 -0.29406196 -0.098240852 42 3 -0.023758212
-0.71782178 -0.38569954 -0.042706143 5 6 -0.023744388
-0.83335185 -0.44740155 -0.016509976 28 7 -0.023739779
-0.80568147 -0.43109789 -0.24484283 10 0 -0.02371674
-0.80760384 -0.4319452 0.015986405 30 8 -0.023714436
-0.51384801 -0.27471521 -0.13452074 58 1 -0.023712132
-0.84200054 -0.44996431 0.050033178 14 9 -0.023709828
-0.53850168 -0.2877748 -0.1186832 73 2 -0.023707524
-0.54541284 -0.29122341 -0.097927988 42 3 -0.023702916
-0.71916378 -0.38319153 -0.042706143 5 6 -0.023689091
-0.84373432 -0.44918826 -0.016684501 34 7 -0.023684483
-0.8037684 -0.42647198 -0.24380755 10 0 -0.023661444
-0.80204022 -0.42537567 0.015846785 22 8 -0.02365914
-0.51824737 -0.27474543 -0.13542055 58 1 -0.023656836
-0.83827186 -0.44421664 0.049719162 12 9 -0.023654532
-0.52215558 -0.27670047 -0.11486702 66 2 -0.023652228
-0.55166334 -0.29209077 -0.098866597 42 3 -0.023647619
-0.72049689 -0.38067898 -0.042706143 5 6 -0.023633795
-0.84352875 -0.44530681 -0.016649596 46 7 -0.023629187
-0.78138858 -0.41093436 -0.23656061 13 0 -0.023606148
-0.79821062 -0.41978109 0.015742071 16 8 -0.023603844
-0.5278278 -0.27746865 -0.13767006 85 1 -0.023601539
-0.83628112 -0.43942994 0.04950982 7 9 -0.023599235
-0.51273757 -0.26930746 -0.11257731 78 2 -0.023596931
-0.5527302 -0.29006684 -0.098866597 42 3 -0.023592323
-0.72188741 -0.37803546 -0.042706143 5 6 -0.0235785
-0.83799136 -0.43865031 -0.016509976 45 7 -0.023573892
-0.77596629 -0.40463153 -0.23449005 14 0 -0.023550851
-0.80683684 -0.42054981 0.015881689 9 8 -0.023548547
-0.53056955 -0.27643248 -0.13811995 56 1 -0.023546243
-0.8219431 -0.42805913 0.048567772 3 9 -0.023543939
-0.53108722 -0.27658451 -0.11639349 75 2 -0.023541635
-0.54848242 -0.28540024 -0.097927988 42 3 -0.023537027
-0.72320253 -0.37551349 -0.042706143 5 6 -0.023523204
-0.85024375 -0.44110101 -0.016719406 42 7 -0.023518596
-0.78080624 -0.40369469 -0.23552534 13 0 -0.023495555
-0.81540591 -0.4214032 0.016021309 18 8 -0.023493251
-0.51248604 -0.26474053 -0.13317102 89 1 -0.023490947
-0.72760201 -0.37570426 0.04291549 6 9 -0.023488643
-0.53204948 -0.27472883 -0.11639349 75 2 -0.023486339
-0.54420871 -0.28076679 -0.096989378 45 3 -0.023481732
-0.72450888 -0.3729867 -0.042706143 5 6 -0.023467908
-0.83043933 -0.42715445 -0.016300548 45 7 -0.023463299
-0.7890873 -0.40449169 -0.23759589 13 0 -0.023440259
-0.81687194 -0.41855434 0.016021309 30 8 -0.023437956
-0.52207953 -0.26739174 -0.13542055 72 1 -0.023435652
-0.84980118 -0.43505239 0.050033178 2 9 -0.023433348
-0.52951008 -0.27108064 -0.11563025 76 2 -0.023431044
-0.54342681 -0.27796587 -0.096676514 45 3 -0.023426436
-0.72580647 -0.37045541 -0.042706143 5 6 -0.023412611
-0.83548814 -0.42606997 -0.016370358 43 7 -0.023408003
-0.79566103 -0.4043605 -0.2391488 12 0 -0.023384964
-0.8254593 -0.41932318 0.01616093 33 8 -0.02338266
-0.51605952 -0.26203844 -0.13362093 88 1 -0.023380356
-0.85843867 -0.43569916 0.050451867 2 9 -0.023378052
-0.53045315 -0.26923063 -0.11563025 76 2 -0.023375748
-0.54967916 -0.2787475 -0.097615115 45 3 -0.02337114
-0.72709519 -0.36791959 -0.042706143 5 6 -0.023357315
-0.79057109 -0.39969271 -0.015462833 46 7 -0.023352707
-0.77291399 -0.38941172 -0.23190187 15 0 -0.023329668
-0.83048999 -0.4182381 0.016230738 31 8 -0.023327364
-0.52393359 -0.2637403 -0.13542055 72 1 -0.02332506
-0.84389699 -0.42462072 0.04950982 5 9 -0.023322755
-0.52086705 -0.26208287 -0.11334055 77 2 -0.023320451
-0.55594355 -0.27948886 -0.098553732 40 3 -0.023315843
-0.72837508 -0.3653793 -0.042706143 5 6 -0.023302019
-0.77408421 -0.38797078 -0.015113784 50 7 -0.023297412
-0.79846448 -0.39879608 -0.2391488 12 0 -0.023274371
-0.82478839 -0.41176358 0.016091119 34 8 -0.023272067
-0.52485096 -0.26190993 -0.13542055 72 1 -0.023269763
-0.84716135 -0.42256382 0.049614493 10 9 -0.023267459
-0.51826507 -0.25851047 -0.11257731 67 2 -0.023265155
-0.54630774 -0.27226007 -0.096676514 45 3 -0.023260547
-0.72964603 -0.36283454 -0.042706143 5 6 -0.023246724
-0.78438807 -0.38971496 -0.015288308 54 7 -0.023242116
-0.76868874 -0.38057747 -0.22983132 16 0 -0.023219075
-0.81367499 -0.40267354 0.015846785 39 8 -0.023216771
-0.51702839 -0.25575602 -0.13317102 89 1 -0.023214467
-0.87548673 -0.43288246 0.051184569 7 9 -0.023212163
-0.5226841 -0.25844002 -0.11334055 77 2 -0.023209859
-0.53839958 -0.26597682 -0.095112167 45 3 -0.023205252
-0.73090804 -0.36028555 -0.042706143 5 6 -0.023191428
-0.79471332 -0.39139205 -0.015462833 46 7 -0.02318682
-0.79429215 -0.38980761 -0.23707826 13 0 -0.023163779
-0.82584751 -0.40511492 0.016056214 25 8 -0.023161475
-0.51266885 -0.25137588 -0.13182132 90 1 -0.023159172
-0.86623168 -0.42455012 0.050556537 6 9 -0.023156868
-0.51653141 -0.25315797 -0.11181407 68 2 -0.023154564
-0.53577662 -0.26235822 -0.09448643 45 3 -0.023149956
-0.73216122 -0.357732 -0.042706143 5 6 -0.023136131
-0.79427761 -0.38773853 -0.015427927 51 7 -0.023131523
-0.77653855 -0.37773708 -0.23138423 15 0 -0.023108484
-0.82725662 -0.40222967 0.016056214 25 8 -0.02310618
-0.51354325 -0.24958478 -0.13182132 75 1 -0.023103876
-0.86224574 -0.41905612 0.050242521 6 9 -0.023101572
-0.5209437 -0.2530691 -0.11257731 78 2 -0.023099268
-0.55268312 -0.26824936 -0.097302251 45 3 -0.02309466
-0.73340559 -0.35517392 -0.042706143 5 6 -0.023080835
-0.77935988 -0.37726098 -0.015113784 50 7 -0.023076227
-0.7639311 -0.36831227 -0.22724313 17 0 -0.023053188
-0.84299618 -0.40643173 0.016335452 17 8 -0.023050884
-0.51963454 -0.25041857 -0.13317102 89 1 -0.02304858
-0.86190391 -0.41517699 0.050137851 7 9 -0.023046276
-0.50413501 -0.2427322 -0.10876114 82 2 -0.023043972
-0.55178964 -0.26555845 -0.096989378 37 3 -0.023039363
-0.73457932 -0.35274002 -0.042706143 5 6 -0.023025539
-0.77706623 -0.37280825 -0.015043975 57 7 -0.023020931
-0.75643355 -0.36161089 -0.22465494 18 0 -0.022997892
-0.82456243 -0.39400318 0.015951499 24 8 -0.022995587
-0.51523018 -0.24608341 -0.13182132 75 1 -0.022993283
-0.8687551 -0.41474724 0.050451867 4 9 -0.022990979
-0.51911086 -0.24782562 -0.11181407 79 2 -0.022988675
-0.54023266 -0.25767776 -0.094799295 45 3 -0.022984067
-0.64023739 -0.30496621 0.11231996 4 12 -0.022977155
-0.80073029 -0.38107118 -0.046474334 3 6 -0.022970244
-0.78197467 -0.37181082 -0.015113784 56 7 -0.022965636
-0.78394353 -0.37123817 -0.23241952 15 0 -0.022942595
-0.80966717 -0.38341966 0.015637357 24 8 -0.022940291
-0.51256329 -0.24261595 -0.13092151 76 1 -0.022937987
-0.8629759 -0.40829566 0.050033178 4 9 -0.022935683
-0.51646608 -0.24424267 -0.11105084 80 2 -0.022933379
-0.54653156 -0.25822777 -0.095737904 37 3 -0.022928771
-0.67345226 -0.31790814 0.11795159 3 12 -0.02292186
-0.73708463 -0.34747446 -0.042706143 5 6 -0.022914948
