# .PCD v0.7 - Point Cloud Data file format
VERSION 0.7
FIELDS x y z intensity ring time
SIZE 4 4 4 4 2 4
TYPE F F F F U F
COUNT 1 1 1 1 1 1
WIDTH 909
HEIGHT 1
VIEWPOINT 0 0 0 1 0 0 0
POINTS 909
DATA ascii
-0.35511908 -2.8389478 0.76662207 7 15 -0.047510464
-0.31572592 -2.4957254 0.043910254 7 8 -0.047487423
-0.31643265 -2.4978087 -0.5812735 1 1 -0.047485121
-0.34360954 -2.7085447 0.14308652 87 9 -0.047482818
-0.32491118 -2.5611525 -0.50182766 1 2 -0.047480512
-0.34399661 -2.7078109 0.23880674 73 10 -0.04747821
-0.30712602 -2.414207 -0.3854546 1 3 -0.047475904
-0.34192237 -2.6839893 0.33221585 56 11 -0.047473602
-0.28938678 -2.2684422 -0.28078699 1 4 -0.047471296
-0.36846596 -2.8843145 0.46054313 67 12 -0.047468994
-0.28327399 -2.2174406 -0.19557749 1 5 -0.047466688
-0.38713291 -3.0262358 0.59303439 91 13 -0.047464386
-0.2799201 -2.1851203 -0.11545313 2 6 -0.04746208
-0.38755092 -3.0211248 0.703197 94 14 -0.047459777
-0.28178978 -2.1936383 -0.038604725 1 7 -0.047457471
-0.36897036 -2.8683481 0.77490425 9 15 -0.047455169
-0.32546708 -2.5025403 0.044049874 7 8 -0.047432128
-0.32389119 -2.4870269 -0.57902402 2 1 -0.047429826
-0.35258964 -2.7073905 0.14308652 93 9 -0.04742752
-0.32775629 -2.5132802 -0.49266884 2 2 -0.047425218
-0.35293061 -2.7026422 0.2384581 72 10 -0.047422912
-0.31298977 -2.393533 -0.38232586 1 3 -0.04742061
-0.35232013 -2.6906526 0.33319083 56 11 -0.047418304
-0.29730368 -2.2674181 -0.28078699 1 4 -0.047416002
-0.37623104 -2.8693664 0.45835301 68 12 -0.047413696
-0.29049364 -2.212487 -0.19522884 1 5 -0.047411393
-0.39769381 -3.0248661 0.59303439 96 13 -0.047409087
-0.29015315 -2.2039316 -0.11649985 2 6 -0.047406785
-0.39707515 -3.0120254 0.70139736 97 14 -0.047404479
-0.28644884 -2.1728663 -0.038255677 2 7 -0.047402177
-0.3779746 -2.8632784 0.77386898 7 15 -0.047399871
-0.33482227 -2.5093756 0.044189494 7 8 -0.047376834
-0.33910465 -2.5380917 -0.59117132 1 1 -0.047374528
-0.36177295 -2.7041636 0.14298184 100 9 -0.047372226
-0.34278345 -2.5588217 -0.50182766 1 2 -0.04736992
-0.36156788 -2.6954696 0.23793517 76 10 -0.047367617
-0.33143038 -2.4707959 -0.39484066 1 3 -0.047365312
-0.36229786 -2.6973391 0.33416575 56 11 -0.047363009
-0.3048209 -2.2664199 -0.28078699 1 4 -0.047360703
-0.38571715 -2.8641202 0.45772728 70 12 -0.047358401
-0.29608485 -2.1956637 -0.19383438 1 5 -0.047356095
-0.40929675 -3.0352044 0.5953241 96 13 -0.047353793
-0.30013245 -2.2227502 -0.11754657 1 6 -0.047351487
-0.40810576 -3.0184169 0.703197 92 14 -0.047349185
-0.29188591 -2.1560004 -0.037976436 4 7 -0.047346883
-0.38615051 -2.848541 0.77024549 9 15 -0.047344577
-0.33923712 -2.4764924 0.043631013 7 8 -0.047321536
-0.34319532 -2.5021405 -0.58307308 1 1 -0.047319233
-0.37175393 -2.7068417 0.14319119 100 9 -0.047316927
-0.369147 -2.6843865 0.2370636 86 10 -0.047312319
-0.39124927 -2.8414371 -0.45428574 12 3 -0.047310017
-0.37225348 -2.699991 0.33465323 56 11 -0.047307711
-0.31218746 -2.2614093 -0.28029951 1 4 -0.047305409
-0.39679417 -2.8705838 0.4589788 68 12 -0.047303103
-0.30390975 -2.198617 -0.19418299 1 5 -0.047300801
-0.41854343 -3.0240338 0.59341598 99 13 -0.047298498
-0.30898622 -2.2296026 -0.11796526 1 6 -0.047296192
-0.41917562 -3.0208344 0.70409679 94 14 -0.04729389
-0.30326247 -2.1826975 -0.038465101 1 7 -0.047291584
-0.39369541 -2.8299551 0.76558679 7 15 -0.047289282
-0.34927127 -2.4851947 0.043805543 6 8 -0.047266241
-0.37663838 -2.6765327 -0.62401426 2 1 -0.047263935
-0.38175738 -2.7094831 0.14340053 100 9 -0.047261633
-0.39169234 -2.7799954 -0.54571378 3 2 -0.047259327
-0.37907174 -2.6870277 0.23741224 102 10 -0.047257025
-0.40503377 -2.8674376 -0.45866591 43 3 -0.047254719
-0.38056374 -2.6908131 0.33367831 58 11 -0.047252417
-0.31952244 -2.2563746 -0.27981204 1 4 -0.047250114
-0.40736699 -2.8730927 0.45960453 70 12 -0.047247808
-0.31549859 -2.2251599 -0.19662334 1 5 -0.047245506
-0.4277167 -3.0128353 0.59150791 93 13 -0.0472432
-0.31676716 -2.2285104 -0.11796526 1 6 -0.047240898
-0.43026662 -3.0232115 0.70499659 97 14 -0.047238592
-0.4041172 -2.8323884 0.76662207 7 15 -0.047233984
-0.44060159 -3.0613503 -0.82873863 7 0 -0.047213249
-0.35879973 -2.489898 0.043910254 6 8 -0.047210943
-0.41046795 -2.844933 -0.66360557 45 1 -0.047208641
-0.38978514 -2.6982498 0.14287716 110 9 -0.047206335
-0.4129025 -2.8582776 -0.56136012 43 2 -0.047204033
-0.38987502 -2.6955473 0.2382838 106 10 -0.04720173
-0.41305852 -2.8523214 -0.45647582 22 3 -0.047199424
-0.38852993 -2.6796453 0.3324596 62 11 -0.047197122
-0.32397455 -2.2316718 -0.27688718 1 4 -0.047194816
-0.41824561 -2.8775179 0.46054313 67 12 -0.047192514
-0.32211739 -2.2161584 -0.19592611 1 5 -0.047190208
-0.43964496 -3.0210381 0.59341598 99 13 -0.047187906
-0.32281643 -2.2155328 -0.11733723 1 6 -0.0471856
-0.43969145 -3.0139778 0.703197 92 14 -0.047183298
-0.41763574 -2.8558104 0.77335137 9 15 -0.047178689
-0.45354047 -3.0750833 -0.83287972 30 0 -0.047157954
-0.36544415 -2.4747827 0.043665919 6 8 -0.047155648
-0.42096591 -2.8473387 -0.66450542 48 1 -0.047153346
-0.39832422 -2.6909461 0.14256316 119 9 -0.04715104
-0.42258987 -2.8548768 -0.56097847 48 2 -0.047148738
-0.39957398 -2.6961408 0.2384581 116 10 -0.047146432
-0.40880552 -2.7551172 -0.44114524 1 3 -0.04714413
-0.39788136 -2.678273 0.3324596 64 11 -0.047141824
-0.3335149 -2.2423081 -0.27834961 1 4 -0.047139522
-0.42741501 -2.8701787 0.45960453 68 12 -0.047137216
-0.32809082 -2.2031965 -0.19488023 1 5 -0.047134914
-0.45134541 -3.0272522 0.59494245 99 13 -0.047132608
-0.32995817 -2.2104418 -0.11712788 1 6 -0.047130305
-0.44905779 -3.0047152 0.70139736 97 14 -0.047127999
-0.34622499 -2.3138845 -0.040838633 1 7 -0.047125697
-0.42674294 -2.8486035 0.77179843 7 15 -0.047123391
-0.46282879 -3.0639305 -0.83029151 36 0 -0.047102656
-0.37557542 -2.4833779 0.043840446 6 8 -0.047100354
-0.43265328 -2.8574123 -0.6672048 52 1 -0.047098048
-0.40784362 -2.6935599 0.14277251 129 9 -0.047095746
-0.43166968 -2.8475611 -0.55983365 40 2 -0.04709344
-0.40599295 -2.6750312 0.23671499 113 10 -0.047091138
-0.37865573 -2.4919765 -0.39922079 1 3 -0.047088832
-0.40901926 -2.6886427 0.33392206 71 11 -0.047086529
-0.34253559 -2.24898 -0.27932456 1 4 -0.047084223
-0.43574053 -2.8609338 0.45835301 70 12 -0.047081921
-0.33577919 -2.2020378 -0.19488023 1 5 -0.047079615
-0.46220613 -3.0275989 0.5953241 93 13 -0.047077313
-0.33405092 -2.1855843 -0.11587181 1 6 -0.047075007
-0.4607223 -3.0108349 0.703197 97 14 -0.047072705
-0.3578285 -2.3384206 -0.041292395 75 7 -0.047070399
-0.43150625 -2.8166194 0.76351619 7 15 -0.047068097
-0.4717499 -3.0508413 -0.82718569 30 0 -0.047047362
-0.38228074 -2.4722378 0.043665919 6 8 -0.047045056
-0.44093364 -2.848259 -0.66540521 52 1 -0.047042754
-0.41785493 -2.6960671 0.14298184 129 9 -0.047040448
-0.41532817 -2.6735978 0.23671499 121 10 -0.047035839
-0.38024619 -2.4477642 -0.39233768 1 3 -0.047033537
-0.4176276 -2.6853101 0.33367831 79 11 -0.047031231
-0.34938091 -2.2439091 -0.27883708 1 4 -0.047028929
-0.44694147 -2.8672028 0.45960453 68 12 -0.047026623
-0.34346348 -2.2008522 -0.19488023 1 5 -0.047024321
-0.46861055 -3.0027723 0.59074467 81 13 -0.047022015
-0.34622976 -2.2160378 -0.11754657 1 6 -0.047019713
-0.47130644 -3.0131412 0.70409679 94 14 -0.04701741
-0.36567962 -2.3351815 -0.041257489 100 7 -0.047015104
-0.4395403 -2.8036449 0.76041043 7 15 -0.047012802
-0.48246706 -3.0530765 -0.82822096 28 0 -0.046992064
-0.39122072 -2.4728634 0.043700829 6 8 -0.046989761
-0.45087332 -2.8467023 -0.66540521 50 1 -0.046987455
-0.42757595 -2.6965649 0.14308652 133 9 -0.046985153
-0.37356243 -2.3559213 -0.46366587 1 2 -0.046982847
-0.42481664 -2.6761413 0.2370636 125 10 -0.046980545
-0.44893566 -2.8248954 -0.45303425 12 3 -0.046978239
-0.42512748 -2.6720731 0.33221585 79 11 -0.046975937
-0.35596234 -2.2348344 -0.27786213 1 4 -0.046973631
-0.45663586 -2.8636746 0.45929164 67 12 -0.046971329
-0.35389739 -2.2193766 -0.19662334 1 5 -0.046969026
-0.47073355 -2.9487731 0.580441 68 13 -0.04696672
-0.35522369 -2.2227046 -0.11796526 1 6 -0.046964418
-0.48182115 -3.0114775 0.70409679 90 14 -0.046962112
-0.37319621 -2.329942 -0.041187681 100 7 -0.04695981
-0.45544171 -2.8402433 0.77076316 7 15 -0.046957504
-0.49373823 -3.0551879 -0.8292563 28 0 -0.046936769
-0.40144682 -2.4813528 0.043875352 7 8 -0.046934463
-0.45956087 -2.8374164 -0.66360557 46 1 -0.046932161
-0.43506849 -2.6832266 0.14245848 136 9 -0.046929855
-0.3817842 -2.3546028 -0.46366587 1 2 -0.046927553
-0.43543261 -2.6825089 0.23776087 132 10 -0.04692525
-0.4629128 -2.8486586 -0.45710155 39 3 -0.046922944
-0.43381444 -2.6666543 0.33172837 79 11 -0.046920642
-0.3643994 -2.2374966 -0.27834961 1 4 -0.046918336
-0.46662924 -2.8620632 0.45929164 67 12 -0.046916034
-0.36228353 -2.2220604 -0.19697197 1 5 -0.046913728
-0.48070732 -2.9451745 0.58005941 72 13 -0.046911426
-0.49170151 -3.0059309 0.703197 92 14 -0.046906818
-0.38261935 -2.3365185 -0.041327298 100 7 -0.046904512
-0.46285272 -2.8233848 0.76662207 7 15 -0.04690221
-0.50597382 -3.0629761 -0.83184445 31 0 -0.046881471
-0.41010597 -2.4799364 0.043875352 6 8 -0.046879169
-0.47073609 -2.8434854 -0.66540521 52 1 -0.046876866
-0.44363794 -2.6797986 0.1423538 143 9 -0.04687456
-0.46222314 -2.7890441 -0.54952991 6 2 -0.046872258
-0.44414157 -2.6770415 0.23741224 134 10 -0.046869952
-0.47253004 -2.8450766 -0.45678869 41 3 -0.04686765
-0.44409665 -2.6709986 0.3324596 86 11 -0.046865344
-0.37220755 -2.2362111 -0.27834961 1 4 -0.046863042
-0.47644204 -2.8624487 0.45960453 68 12 -0.046860736
-0.37331253 -2.2404356 -0.19871511 1 5 -0.046858434
-0.49292314 -2.9550972 0.58234906 76 13 -0.046856128
-0.50154829 -3.0003524 0.70229721 92 14 -0.046851519
-0.39036551 -2.3352368 -0.041327298 100 7 -0.046849217
-0.4741264 -2.8332665 0.76972789 7 15 -0.046846911
-0.51473314 -3.0497618 -0.82873863 31 0 -0.046826176
-0.42032406 -2.4903939 0.044084776 6 8 -0.046823874
-0.48178586 -2.8515162 -0.66765475 49 1 -0.046821568
-0.45398843 -2.6841416 0.14266783 144 9 -0.046819266
-0.47982231 -2.8338706 -0.55868876 40 2 -0.04681696
-0.45181841 -2.665653 0.23654069 136 10 -0.046814658
-0.48361233 -2.8532319 -0.45835301 43 3 -0.046812352
-0.45361578 -2.6734252 0.33294708 92 11 -0.04681005
-0.48543766 -2.8549256 0.45866591 67 12 -0.046805441
-0.37377545 -2.1959076 -0.19488023 1 5 -0.046803135
-0.50337857 -2.9573176 0.58311236 76 13 -0.046800833
-0.48477739 -2.8450334 -0.15125093 13 6 -0.046798527
-0.51149517 -2.9986725 0.70229721 94 14 -0.046796225
-0.39649495 -2.3220332 -0.041117873 100 7 -0.046793919
-0.48271123 -2.8239775 0.76765728 7 15 -0.046791617
-0.52451599 -3.046134 -0.82822096 28 0 -0.046770882
-0.42527854 -2.4672346 0.043700829 7 8 -0.046768576
-0.49206799 -2.8517373 -0.66810459 50 1 -0.046766274
-0.46335483 -2.6825407 0.14266783 147 9 -0.046763968
-0.49188986 -2.8477409 -0.56174171 48 2 -0.046761665
-0.45895836 -2.6543238 0.23566914 139 10 -0.04675936
-0.49053699 -2.8340085 -0.45553723 49 3 -0.046757057
-0.46328408 -2.6737819 0.33319083 100 11 -0.046754751
-0.49539998 -2.8532138 0.45866591 67 12 -0.046750143
-0.40559563 -2.3359935 -0.20743066 1 5 -0.046747841
-0.51302648 -2.9516737 0.58234906 70 13 -0.046745535
-0.49573228 -2.849227 -0.15156494 67 6 -0.046743233
-0.52329659 -3.0045481 0.70409679 92 14 -0.046740927
-0.40665901 -2.3324544 -0.041327298 100 7 -0.046738625
-0.49190155 -2.818469 0.76662207 7 15 -0.046736322
-0.53481179 -3.042382 -0.82770336 27 0 -0.046715584
-0.43319482 -2.4617958 0.043631013 7 8 -0.046713281
-0.5003292 -2.8404064 -0.66585511 53 1 -0.046710975
-0.47375673 -2.6868076 0.14298184 150 9 -0.046708673
-0.50148684 -2.8440728 -0.56136012 47 2 -0.046706367
-0.46960589 -2.6605537 0.23636638 142 10 -0.046704065
-0.50008291 -2.8303335 -0.45522434 51 3 -0.046701759
-0.47054014 -2.6604197 0.33172837 100 11 -0.046699457
-0.50742495 -2.863138 0.46054313 67 12 -0.046694849
-0.52298343 -2.947932 0.58196747 68 13 -0.046690241
-0.50043666 -2.817982 -0.14999487 69 6 -0.046687938
-0.53446347 -3.0065405 0.70499659 94 14 -0.046685632
-0.41549885 -2.3349588 -0.04139711 100 7 -0.04668333
-0.50580233 -2.8395576 0.7728337 7 15 -0.046681024
-0.54679257 -3.0481026 -0.8297739 22 0 -0.046660289
-0.44249272 -2.4642053 0.043700829 7 8 -0.046657983
-0.50817221 -2.8271348 -0.66315573 53 1 -0.046655681
-0.48101014 -2.6733434 0.1423538 151 9 -0.046653375
-0.51245409 -2.8481019 -0.56250495 49 2 -0.046651073
-0.47994998 -2.6647806 0.2368893 144 10 -0.046648767
-0.51171207 -2.8382909 -0.45678869 57 3 -0.046646465
-0.4784134 -2.6509469 0.33075345 108 11 -0.046644162
-0.51741618 -2.8613491 0.46054313 67 12 -0.046639554
-0.51123631 -2.8271742 -0.25135714 13 5 -0.046637248
-0.53501862 -2.9557478 0.58387554 70 13 -0.046634946
-0.5102703 -2.8162179 -0.14999487 65 6 -0.04663264
-0.54356402 -2.9969866 0.703197 100 14 -0.046630338
-0.42507598 -2.3413641 -0.041536726 100 7 -0.046628032
-0.51432925 -2.8301723 0.77076316 7 15 -0.04662573
-0.55951524 -3.0575771 -0.83287972 13 0 -0.046604991
-0.45217237 -2.4685466 0.043805543 5 8 -0.046602689
-0.51944351 -2.8330107 -0.66495532 49 1 -0.046600387
-0.48997879 -2.6696835 0.14224915 156 9 -0.046598081
-0.52026671 -2.8347094 -0.56021523 48 2 -0.046595778
-0.4903287 -2.6689682 0.23741224 146 10 -0.046593472
-0.52125895 -2.8345449 -0.45647582 52 3 -0.04659117
-0.49089873 -2.6668313 0.33294708 120 11 -0.046588864
-0.52560925 -2.8498125 0.4589788 65 12 -0.046584256
-0.52507675 -2.8469253 -0.25327459 50 5 -0.046581954
-0.54604608 -2.9577231 0.58463877 72 13 -0.046579648
-0.52154946 -2.8222754 -0.15041354 68 6 -0.046577346
-0.55402225 -2.9950709 0.703197 94 14 -0.04657504
-0.43033347 -2.3241358 -0.041257489 100 7 -0.046572737
-0.52490944 -2.8321586 0.77179843 7 15 -0.046570431
-0.56947649 -3.0518074 -0.83184445 8 0 -0.046549696
-0.46262202 -2.4767816 0.043980066 7 8 -0.046547394
-0.53076208 -2.8388426 -0.66675496 49 1 -0.046545088
-0.50039673 -2.6738467 0.14256316 157 9 -0.046542786
-0.53015828 -2.8328762 -0.56021523 49 2 -0.04654048
-0.49854162 -2.6613653 0.2368893 147 10 -0.046538178
-0.53406268 -2.8482406 -0.4589788 55 3 -0.046535872
-0.49910593 -2.6592484 0.33221585 112 11 -0.04653357
-0.53555417 -2.8479602 0.4589788 65 12 -0.046528962
-0.53243411 -2.8313684 -0.25205442 63 5 -0.046526656
-0.55745637 -2.9615874 0.58578366 65 13 -0.046524353
-0.53287715 -2.8282888 -0.15083225 66 6 -0.046522047
-0.56591827 -3.0007787 0.70499659 88 14 -0.046519745
-0.43621778 -2.3108296 -0.041048057 100 7 -0.046517439
-0.53335768 -2.822716 0.76972789 7 15 -0.046515137
-0.58156955 -3.0573921 -0.833915 1 0 -0.046494402
-0.46789894 -2.4574721 0.043665919 9 8 -0.046492096
-0.54139799 -2.840801 -0.66765475 53 1 -0.046489794
-0.50972688 -2.6720839 0.14256316 158 9 -0.046487488
-0.54004335 -2.8310084 -0.56021523 49 2 -0.046485186
-0.50596023 -2.6498237 0.23601775 148 10 -0.04648288
-0.54214758 -2.8366573 -0.45741442 57 3 -0.046480577
-0.50913113 -2.6613896 0.33270332 115 11 -0.046478271
-0.54586375 -2.8480136 0.45929164 64 12 -0.046473663
-0.54043871 -2.8197091 -0.25118285 55 5 -0.046471361
-0.56816113 -2.9615514 0.58616525 62 13 -0.046469055
-0.54349953 -2.8303344 -0.15104158 68 6 -0.046466753
-0.57638919 -2.998785 0.70499659 97 14 -0.046464447
-0.44579297 -2.3171477 -0.041187681 100 7 -0.046462145
-0.54101574 -2.8094549 0.76662207 7 15 -0.046459839
-0.47723576 -2.4597499 0.043735731 5 8 -0.046420656
-0.54945314 -2.829329 -0.66540521 50 1 -0.04641835
-0.52171916 -2.6840117 0.14329587 161 9 -0.046416048
-0.55217022 -2.8406689 -0.56250495 50 2 -0.046413742
-0.51558697 -2.649997 0.23619205 149 10 -0.04641144
-0.54940259 -2.8211749 -0.45522434 55 3 -0.046409134
-0.51727909 -2.6537511 0.33197212 121 11 -0.046406832
-0.55655909 -2.8499682 0.45991737 64 12 -0.046402223
-0.55180562 -2.8256269 -0.25188008 55 5 -0.046399917
-0.58376795 -2.9865253 0.59150791 84 13 -0.046397615
-0.55030805 -2.8127389 -0.15020421 66 6 -0.046395309
-0.58760256 -3.0005798 0.70589644 92 14 -0.046393007
-0.45695549 -2.3312762 -0.041466918 100 7 -0.046390701
-0.55081904 -2.8075492 0.76662207 7 15 -0.046388399
-0.4862068 -2.4600308 0.043770637 10 8 -0.046365358
-0.55894786 -2.8254819 -0.66495532 49 1 -0.046363056
-0.52759326 -2.6645415 0.1423538 162 9 -0.04636075
-0.56284505 -2.842576 -0.56326818 34 2 -0.046358448
-0.52599609 -2.6540442 0.23671499 150 10 -0.046356142
-0.56078488 -2.8269906 -0.45647582 54 3 -0.046353839
-0.52499264 -2.6441407 0.33099717 121 11 -0.046351533
-0.56688946 -2.8499455 0.46023026 65 12 -0.046346925
-0.56166559 -2.8236835 -0.25188008 52 5 -0.046344623
-0.59802252 -3.0037241 0.5953241 96 13 -0.046342317
-0.56129402 -2.8166771 -0.15051822 62 6 -0.046340015
-0.5973106 -2.994688 0.70499659 97 14 -0.046337709
-0.46704793 -2.3394721 -0.041641444 100 7 -0.046335407
-0.55758762 -2.7904544 0.76248091 7 15 -0.046333101
-0.49597475 -2.4641998 0.043875352 9 8 -0.046310063
-0.57034677 -2.8311553 -0.66675496 47 1 -0.046307757
-0.53682077 -2.6647351 0.14245848 163 9 -0.046305455
-0.56966007 -2.8251977 -0.56021523 38 2 -0.046303149
-0.53643978 -2.658051 0.23723793 152 10 -0.046300847
-0.57143152 -2.8288884 -0.45710155 55 3 -0.046298541
-0.53579313 -2.650075 0.33197212 118 11 -0.046296239
-0.57633686 -2.8480501 0.46023026 65 12 -0.046291631
-0.57310051 -2.8295169 -0.25257733 53 5 -0.046289325
-0.60850424 -3.0016181 0.5953241 93 13 -0.046287023
-0.57151991 -2.8166578 -0.15062289 63 6 -0.046284717
-0.60568815 -2.9850516 0.703197 90 14 -0.046282414
-0.47042525 -2.3163536 -0.041257489 100 7 -0.046280112
-0.56837749 -2.7961626 0.76455152 7 15 -0.046277806
-0.50173724 -2.4507873 0.043665919 9 8 -0.046254765
-0.58090532 -2.8349752 -0.66810459 50 1 -0.046252463
-0.54485238 -2.6590271 0.14224915 162 9 -0.046250157
-0.58060282 -2.8309863 -0.56174171 48 2 -0.046247855
-0.54284757 -2.6445475 0.23619205 152 10 -0.046245549
-0.58160448 -2.8308477 -0.45772728 55 3 -0.046243247
-0.54537755 -2.6521723 0.3324596 118 11 -0.046240941
-0.58418542 -2.8383839 0.4589788 60 12 -0.046236336
-0.58087248 -2.8197951 -0.25188008 52 5 -0.04623403
-0.61766183 -2.9957383 0.59456086 96 13 -0.046231728
-0.57924229 -2.8069232 -0.15020421 65 6 -0.046229422
-0.6163711 -2.9868438 0.70409679 94 14 -0.04622712
-0.47810405 -2.314781 -0.041257489 100 7 -0.046224814
-0.5729537 -2.77156 0.75833982 7 15 -0.046222512
-0.62708855 -3.0148451 -0.82511514 4 0 -0.046201773
-0.50986141 -2.44911 0.043665919 9 8 -0.046199471
-0.59070092 -2.8349414 -0.66855454 53 1 -0.046197165
-0.55698508 -2.6707954 0.14298184 162 9 -0.046194863
-0.58918595 -2.8252013 -0.56097847 49 2 -0.046192557
-0.55120724 -2.6407824 0.23601775 151 10 -0.046190254
-0.59018058 -2.8250365 -0.45710155 55 3 -0.046187952
-0.55457586 -2.6522923 0.33270332 115 11 -0.046185646
-0.59530425 -2.8421276 0.45991737 63 12 -0.046181038
-0.58858609 -2.8100531 -0.25118285 53 5 -0.046178736
-0.62799525 -2.995595 0.59494245 99 13 -0.04617643
-0.59305882 -2.8264885 -0.15135561 59 6 -0.046174128
-0.62759441 -2.9884882 0.70499659 92 14 -0.046171822
-0.48782659 -2.320926 -0.04139711 100 7 -0.046169519
-0.58580607 -2.784667 0.76248091 7 15 -0.046167213
-0.64480865 -3.0466573 -0.83443266 24 0 -0.046146479
-0.51840734 -2.4473152 0.043665919 7 8 -0.046144173
-0.59776402 -2.8195176 -0.66540521 46 1 -0.04614187
-0.56671917 -2.6707885 0.14308652 162 9 -0.046139568
-0.59985936 -2.8269687 -0.56174171 48 2 -0.046137262
-0.56124949 -2.64274 0.23636638 151 10 -0.04613496
-0.59839576 -2.8152299 -0.45585006 54 3 -0.046132654
-0.56176519 -2.6406322 0.33148462 118 11 -0.046130352
-0.60686886 -2.8477604 0.46116886 63 12 -0.046125744
-0.5992223 -2.8118787 -0.25153148 53 5 -0.046123438
-0.63721949 -2.9876244 0.59379762 96 13 -0.046121135
-0.60041946 -2.8126817 -0.15072757 58 6 -0.046118829
-0.64127976 -3.0015252 0.70859581 94 14 -0.046116527
-0.49592525 -2.3192089 -0.04139711 99 7 -0.046114221
-0.59633112 -2.7863834 0.76351619 7 15 -0.046111919
-0.65462643 -3.040611 -0.83339739 36 0 -0.046091184
-0.52610427 -2.441581 0.043596111 8 8 -0.046088878
-0.60801321 -2.8193188 -0.66585511 55 1 -0.046086576
-0.57308882 -2.655128 0.1423538 160 9 -0.04608427
-0.61055207 -2.8286955 -0.56250495 50 2 -0.046081968
-0.57131243 -2.6446595 0.23671499 151 10 -0.046079662
-0.60905373 -2.8169858 -0.45647582 55 3 -0.046077359
-0.57139921 -2.6405954 0.33172837 115 11 -0.046075054
-0.61680543 -2.8456247 0.46116886 63 12 -0.046070445
-0.61036885 -2.8135579 -0.25188008 50 5 -0.046068143
-0.6484766 -2.9892194 0.59456086 93 13 -0.046065837
-0.6093868 -2.8066649 -0.15051822 58 6 -0.046063535
-0.64844233 -2.9840341 0.70499659 94 14 -0.046061229
-0.50656736 -2.3291876 -0.041606538 99 7 -0.046058927
-0.60687602 -2.7880602 0.76455152 7 15 -0.046056621
-0.66700697 -3.0438521 -0.83495027 33 0 -0.046035886
-0.53505212 -2.4416831 0.043631013 7 8 -0.046033584
-0.61826801 -2.8190827 -0.66630501 52 1 -0.046031278
-0.58149719 -2.6492097 0.14214447 160 9 -0.046028975
-0.61965203 -2.8206863 -0.56136012 47 2 -0.046026669
-0.58228505 -2.6483858 0.23723793 149 10 -0.046024367
-0.6219216 -2.8263097 -0.45835301 55 3 -0.046022061
-0.58146644 -2.642462 0.33221585 112 11 -0.046019759
-0.62418365 -2.8318799 0.45929164 64 12 -0.046015151
-0.62190312 -2.8191924 -0.25257733 53 5 -0.046012845
-0.66196781 -2.9983251 0.59685057 91 13 -0.046010543
-0.6209625 -2.8102634 -0.15083225 57 6 -0.046008237
-0.65853387 -2.9778318 0.70409679 94 14 -0.046005934
-0.51210427 -2.31569 -0.04139711 100 7 -0.046003632
-0.61660421 -2.7859249 0.76455152 7 15 -0.046001326
-0.67594725 -3.033963 -0.83287972 33 0 -0.045980591
-0.5453034 -2.4455607 0.043735731 6 8 -0.045978285
-0.6294452 -2.8206015 -0.6672048 52 1 -0.045975983
-0.59161085 -2.6510625 0.1423538 159 9 -0.045973677
-0.62821019 -2.812758 -0.56021523 50 2 -0.045971375
-0.59065717 -2.6424482 0.2368893 147 10 -0.045969069
-0.63264608 -2.8279772 -0.4589788 55 3 -0.045966767
-0.59201473 -2.6441875 0.33270332 112 11 -0.045964461
-0.63536084 -2.8354666 0.46023026 65 12 -0.045959853
-0.63086826 -2.8131161 -0.25222871 50 5 -0.04595755
-0.67242962 -2.995996 0.59685057 96 13 -0.045955248
-0.63164353 -2.8119762 -0.15104158 54 6 -0.045952942
-0.67011327 -2.9832373 0.70589644 92 14 -0.04595064
-0.51930696 -2.3099861 -0.041327298 99 7 -0.045948334
-0.62462932 -2.7762163 0.76248091 7 15 -0.045946032
-0.68344653 -3.0203993 -0.8297739 33 0 -0.045925293
-0.55473471 -2.4495902 0.043840446 2 8 -0.045922991
-0.64094901 -2.8280013 -0.66945434 53 1 -0.045920685
-0.60216486 -2.6568775 0.14277251 158 9 -0.045918383
-0.64014 -2.8221469 -0.56250495 49 2 -0.045916077
-0.59721142 -2.6307604 0.23601775 147 10 -0.045913775
-0.6402697 -2.8181586 -0.45772728 54 3 -0.045911469
-0.60166037 -2.6460812 0.33319083 103 11 -0.045909166
-0.64476019 -2.833344 0.46023026 60 12 -0.045904558
-0.64019316 -2.8110087 -0.25222871 53 5 -0.045902256
-0.68017966 -2.9841788 0.59494245 99 13 -0.04589995
-0.64407432 -2.8234966 -0.15177429 60 6 -0.045897648
-0.68086928 -2.9847984 0.70679623 94 14 -0.045895342
-0.5287447 -2.3160496 -0.041466918 93 7 -0.04589304
-0.62694705 -2.7439966 0.75419873 7 15 -0.045890734
-0.69562149 -3.0275304 -0.83236206 34 0 -0.045869999
-0.55702943 -2.4224021 0.043386683 6 8 -0.045867693
-0.6481384 -2.816365 -0.6672048 52 1 -0.04586539
-0.61233205 -2.6586521 0.14298184 156 9 -0.045863084
-0.6508171 -2.8257482 -0.56364983 51 2 -0.045860782
-0.60637927 -2.6307068 0.23619205 145 10 -0.04585848
-0.6487236 -2.8121703 -0.45710155 54 3 -0.045856174
-0.60953867 -2.6402028 0.33270332 100 11 -0.045853872
-0.6559813 -2.8368499 0.46116886 63 12 -0.045849264
-0.6495114 -2.8088703 -0.25222871 51 5 -0.045846958
-0.68962932 -2.9799943 0.59456086 93 13 -0.045844655
-0.65027946 -2.807725 -0.15104158 53 6 -0.04584235
-0.69304383 -2.9899971 0.70859581 100 14 -0.045840047
-0.5377298 -2.3180859 -0.041536726 93 7 -0.045837741
-0.6365217 -2.7417915 0.75419873 7 15 -0.045835439
-0.70794249 -3.0326087 -0.83443266 34 0 -0.045814704
-0.5677563 -2.4301794 0.043561205 5 8 -0.045812398
-0.65619045 -2.8064952 -0.66540521 50 1 -0.045810096
-0.61887842 -2.6448298 0.1423538 151 9 -0.04580779
-0.66112417 -2.8253708 -0.56403142 49 2 -0.045805488
-0.61782992 -2.6382735 0.2370636 141 10 -0.045803182
-0.65853572 -2.8098886 -0.45710155 55 3 -0.04580088
-0.61648464 -2.628396 0.33148462 104 11 -0.045798574
-0.66094583 -2.815747 -0.35512727 12 4 -0.045796271
-0.66678363 -2.8383887 0.46179458 59 12 -0.045793965
-0.66022396 -2.8104651 -0.25257733 52 5 -0.045791663
-0.70137531 -2.9833024 0.59570575 99 13 -0.045789357
-0.656874 -2.7918289 -0.15030889 53 6 -0.045787055
-0.7016905 -2.9799724 0.70679623 92 14 -0.045784749
-0.54948735 -2.3317659 -0.041815966 93 7 -0.045782447
-0.64963573 -2.7545953 0.75833982 7 15 -0.045780141
-0.71986091 -3.0357585 -0.8359856 37 0 -0.045759406
-0.58270001 -2.4554222 0.044049874 9 8 -0.045757104
-0.66733426 -2.8098755 -0.66675496 49 1 -0.045754798
-0.62718296 -2.6387672 0.14214447 149 9 -0.045752496
-0.66825849 -2.8115857 -0.56174171 50 2 -0.04575019
-0.62703526 -2.636101 0.2370636 142 10 -0.045747887
-0.66925532 -2.8114159 -0.45772728 55 3 -0.045745581
-0.62565547 -2.6262279 0.33148462 92 11 -0.045743279
-0.67123079 -2.8153539 -0.35537103 43 4 -0.045740973
-0.67485338 -2.8283584 0.46054313 59 12 -0.045738671
-0.67329657 -2.8196537 -0.25362319 53 5 -0.045736365
-0.7122407 -2.9827454 0.59608734 89 13 -0.045734063
-0.66754383 -2.7934041 -0.15051822 57 6 -0.045731757
-0.71118146 -2.9737144 0.70589644 94 14 -0.045729455
-0.55110687 -2.3026066 -0.041327298 93 7 -0.045727149
-0.65654755 -2.7410386 0.755234 7 15 -0.045724846
-0.72917223 -3.0255873 -0.833915 37 0 -0.045704111
-0.59454715 -2.4669812 0.044294208 6 8 -0.045701806
-0.68033659 -2.8207898 -0.66990423 56 1 -0.045699503
-0.63873333 -2.6462693 0.14266783 146 9 -0.045697197
-0.67855901 -2.8091176 -0.56174171 48 2 -0.045694895
-0.63622475 -2.6318483 0.2368893 139 10 -0.045692589
-0.68141294 -2.8166244 -0.4589788 55 3 -0.045690287
-0.63808644 -2.6375341 0.33319083 88 11 -0.045687981
-0.68198878 -2.8168523 -0.3558585 50 4 -0.045685679
-0.68379146 -2.8221457 0.45991737 57 12 -0.045683373
-0.67843992 -2.7979236 -0.25188008 52 5 -0.045681071
-0.72687209 -2.995378 0.59914029 96 13 -0.045678765
-0.68296212 -2.812288 -0.15166962 55 6 -0.045676462
-0.72299635 -2.974875 0.70679623 92 14 -0.04567416
-0.56103021 -2.3084416 -0.041466918 86 7 -0.045671854
-0.66245884 -2.7237129 0.75109291 7 15 -0.045669552
-0.74064744 -3.0267766 -0.83495027 37 0 -0.045648813
-0.59549898 -2.4317665 0.043700829 7 8 -0.045646511
-0.69159847 -2.8220627 -0.67080402 50 1 -0.045644205
-0.64890391 -2.6458504 0.14277251 145 9 -0.045641903
-0.68929583 -2.8105452 -0.56250495 49 2 -0.045639597
-0.64445829 -2.6257417 0.23654069 131 10 -0.045637295
-0.69029826 -2.8103917 -0.45835301 55 3 -0.045634989
-0.64727533 -2.6332498 0.33294708 80 11 -0.045632686
-0.69373107 -2.8201165 -0.35658973 49 4 -0.045630381
-0.69554716 -2.8253746 0.46085599 58 12 -0.045628078
-0.68964314 -2.7992873 -0.25222871 52 5 -0.045625776
-0.73591423 -2.9871035 0.5979954 99 13 -0.04562347
-0.69277507 -2.8098869 -0.15166962 55 6 -0.045621168
-0.73430991 -2.9761171 0.70769602 90 14 -0.045618862
-0.57044584 -2.3102527 -0.041536726 88 7 -0.04561656
-0.67058361 -2.7137649 0.74902231 7 15 -0.045614254
-0.75080413 -3.020292 -0.833915 37 0 -0.045593519
-0.60205448 -2.4219103 0.043561205 4 8 -0.045591213
-0.69862241 -2.8082848 -0.66810459 52 1 -0.045588911
-0.65958291 -2.6493835 0.14308652 141 9 -0.045586605
-0.70244014 -2.8194299 -0.56479466 50 2 -0.045584302
-0.65455949 -2.6252952 0.23671499 130 10 -0.045582
-0.69963783 -2.8040097 -0.45772728 54 3 -0.045579694
-0.65598267 -2.6290483 0.33270332 78 11 -0.045577392
-0.70308971 -2.8157518 -0.35634598 49 4 -0.045575086
-0.70684206 -2.8286791 0.46179458 59 12 -0.045572784
-0.70134419 -2.8045945 -0.25292596 51 5 -0.045570478
-0.74352139 -2.9710546 0.5953241 96 13 -0.045568176
-0.70209837 -2.8034539 -0.15146028 53 6 -0.04556587
-0.74805558 -2.9847474 0.71039546 94 14 -0.045563567
-0.58142382 -2.3198855 -0.041746158 84 7 -0.045561261
-0.68146199 -2.7170289 0.75057524 9 15 -0.045558959
-0.76417768 -3.028892 -0.83702081 37 0 -0.045538221
-0.61239552 -2.425504 0.043665919 2 8 -0.045535918
-0.70843333 -2.8038161 -0.66765475 53 1 -0.045533616
-0.66540253 -2.6335101 0.1423538 135 9 -0.04553131
-0.71275854 -2.8188643 -0.56517625 52 2 -0.045529008
-0.66518587 -2.6287889 0.23723793 127 10 -0.045526702
-0.71039122 -2.8053801 -0.45835301 54 3 -0.0455244
-0.66561425 -2.6266265 0.33270332 76 11 -0.045522094
-0.7104761 -2.803659 -0.35512727 48 4 -0.045519792
-0.71816856 -2.831939 0.46273321 56 12 -0.045517486
-0.71112949 -2.8021295 -0.25292596 52 5 -0.045515183
-0.75775391 -2.983664 0.59837705 93 13 -0.045512877
-0.70745236 -2.7835648 -0.15051822 52 6 -0.045510575
-0.7550689 -2.9709182 0.70769602 103 14 -0.045508269
-0.58853215 -2.3139658 -0.041676346 80 7 -0.045505967
-0.68617737 -2.6959121 0.74539888 10 15 -0.045503661
-0.77517527 -3.0300841 -0.83805609 39 0 -0.045482926
-0.62390745 -2.4370203 0.043910254 7 8 -0.045480624
-0.72111243 -2.8146658 -0.67080402 50 1 -0.045478318
-0.67363596 -2.6293545 0.14224915 135 9 -0.045476016
-0.71868938 -2.8031728 -0.56250495 50 2 -0.04547371
-0.67340446 -2.6246386 0.2370636 125 10 -0.045471407
-0.72165513 -2.8106623 -0.45960453 56 3 -0.045469102
-0.67333257 -2.6205595 0.33221585 76 11 -0.045466799
-0.72026336 -2.8032105 -0.35537103 49 4 -0.045464493
-0.72657192 -2.8257153 0.46210748 58 12 -0.045462191
-0.72339678 -2.8113327 -0.25397182 54 5 -0.045459885
-0.76666456 -2.9773324 0.59761381 96 13 -0.045457583
-0.72066629 -2.7966759 -0.15135561 54 6 -0.045455277
-0.76491672 -2.9683979 0.70769602 92 14 -0.045452975
-0.59320641 -2.3003833 -0.041466918 72 7 -0.045450669
-0.69463086 -2.691751 0.74488121 10 15 -0.045448367
-0.78230923 -3.0162771 -0.83495027 37 0 -0.045427632
-0.63098019 -2.431067 0.043840446 7 8 -0.045425326
-0.73191208 -2.8179176 -0.67215377 55 1 -0.045423023
-0.68431747 -2.632786 0.14256316 128 9 -0.045420717
-0.72995669 -2.8083746 -0.56403142 50 2 -0.045418415
-0.68210417 -2.622391 0.2370636 113 10 -0.045416109
-0.73296213 -2.8159003 -0.46085599 55 3 -0.045413807
-0.68452096 -2.6279171 0.33343455 70 11 -0.045411501
-0.7305451 -2.8025999 -0.35561478 48 4 -0.045409199
-0.73543358 -2.819339 0.46148172 58 12 -0.045406893
-0.72869217 -2.7934957 -0.25257733 50 5 -0.045404591
-0.7800048 -2.9880707 0.60028511 102 13 -0.045402285
-0.72993648 -2.7942708 -0.15135561 53 6 -0.045399982
-0.77724487 -2.9732513 0.7094956 90 14 -0.045397677
-0.60022026 -2.2944295 -0.04139711 72 7 -0.045395374
-0.69815147 -2.6668835 0.73866957 11 15 -0.045393072
-0.79381603 -3.0172644 -0.8359856 39 0 -0.045372333
-0.63946271 -2.4288495 0.043840446 7 8 -0.045370031
-0.74025428 -2.8096921 -0.67080402 52 1 -0.045367725
-0.6935035 -2.6303813 0.14256316 118 9 -0.045365423
-0.74075639 -2.8096063 -0.56479466 49 2 -0.045363117
-0.68972915 -2.6142149 0.23654069 106 10 -0.045360815
-0.73976153 -2.8018653 -0.4589788 52 3 -0.045358509
-0.69419712 -2.6274312 0.33367831 62 11 -0.045356207
-0.74032331 -2.8000329 -0.35561478 49 4 -0.045353901
-0.74628109 -2.8205743 0.46210748 56 12 -0.045351598
-0.73945826 -2.7947872 -0.25292596 49 5 -0.045349292
-0.78691292 -2.9720449 0.59761381 96 13 -0.04534699
-0.73968565 -2.7917058 -0.15135561 51 6 -0.045344688
-0.78662026 -2.9667528 0.70859581 97 14 -0.045342382
-0.61027735 -2.3000517 -0.041536726 70 7 -0.04534008
-0.70646465 -2.660696 0.7376343 12 15 -0.045337774
-0.80434346 -3.0144751 -0.8359856 39 0 -0.045317039
-0.64587343 -2.4188747 0.043700829 4 8 -0.045314733
-0.74955487 -2.8052084 -0.67035419 53 1 -0.045312431
-0.70577657 -2.6395214 0.14319119 109 9 -0.045310125
-0.75309497 -2.8164866 -0.56670272 51 2 -0.045307823
-0.70091003 -2.6194901 0.23723793 96 10 -0.045305517
-0.75004834 -2.8011742 -0.45929164 57 3 -0.045303214
-0.70285058 -2.6230741 0.33343455 58 11 -0.045300912
-0.75317711 -2.8089359 -0.35707721 49 4 -0.045298606
-0.75765795 -2.8236754 0.46304604 55 12 -0.045296304
-0.75230742 -2.8037348 -0.25397182 51 5 -0.045293998
-0.79677343 -2.9673836 0.59723216 99 13 -0.045291696
-0.7483899 -2.7852492 -0.15114626 53 6 -0.04528939
-0.79899526 -2.9715166 0.71039546 92 14 -0.045287088
-0.6203804 -2.3056312 -0.041676346 70 7 -0.045284782
-0.71675277 -2.6619444 0.73866957 16 15 -0.045282479
-0.8188976 -3.0265675 -0.84012663 40 0 -0.045261741
-0.65588093 -2.4223962 0.043805543 6 8 -0.045259438
-0.7578131 -2.7969322 -0.66900444 52 1 -0.045257136
-0.71184981 -2.6254756 0.14256316 100 9 -0.04525483
-0.76138026 -2.808156 -0.5655579 48 2 -0.045252528
-0.71109331 -2.620873 0.23758654 86 10 -0.045250222
-0.76137418 -2.8042581 -0.46023026 51 3 -0.04524792
-0.7094 -2.6110268 0.33221585 55 11 -0.045245614
-0.7614156 -2.8005428 -0.35634598 46 4 -0.045243312
-0.76854712 -2.824826 0.46367183 55 12 -0.045241006
-0.76104367 -2.7972467 -0.25362319 53 5 -0.045238703
-0.8102209 -2.9759505 0.59952188 99 13 -0.045236398
-0.75863242 -2.7845466 -0.15125093 48 6 -0.045234095
-0.80731261 -2.9611888 0.70859581 92 14 -0.045231789
-0.62947756 -2.3073101 -0.041746158 69 7 -0.045229487
-0.72502255 -2.6556993 0.7376343 20 15 -0.045227181
-0.83252382 -3.0348687 -0.84323245 40 0 -0.045206446
-0.66592067 -2.4258769 0.043910254 6 8 -0.045204144
-0.77015263 -2.8036654 -0.67125398 53 1 -0.045201838
-0.71995139 -2.6191232 0.1423538 90 9 -0.045199536
-0.76909655 -2.7979093 -0.56403142 50 2 -0.04519723
-0.72076571 -2.6202962 0.23776087 62 10 -0.045194928
-0.77220678 -2.805392 -0.46085599 55 3 -0.045192622
-0.71798283 -2.606621 0.33197212 48 11 -0.045190319
-0.76960397 -2.7921269 -0.35561478 49 4 -0.045188013
-0.77945346 -2.8259344 0.46429756 59 12 -0.045185711
-0.77080333 -2.7945731 -0.25362319 51 5 -0.045183405
-0.82269371 -2.9806738 0.60104835 99 13 -0.045181103
-0.76834744 -2.7818818 -0.15125093 50 6 -0.045178797
-0.81660604 -2.954596 0.70769602 97 14 -0.045176495
-0.63432944 -2.2935348 -0.041536726 70 7 -0.045174189
-0.73325783 -2.6494286 0.73659903 20 15 -0.045171887
-0.83793688 -3.0133317 -0.83805609 37 0 -0.045151152
-0.67384827 -2.4216111 0.043875352 6 8 -0.045148846
-0.78045732 -2.8028371 -0.67170382 52 1 -0.045146544
-0.73284215 -2.6300619 0.14308652 50 9 -0.045144238
-0.77885842 -2.7952075 -0.56403142 49 2 -0.045141935
-0.73044264 -2.6196833 0.23793517 19 10 -0.045139629
-0.78305662 -2.8064849 -0.46148172 52 3 -0.045137327
-0.73935533 -2.6480739 0.33757812 15 11 -0.045135021
-0.77988011 -2.7913351 -0.3558585 48 4 -0.045132719
-0.78718519 -2.8155866 0.46304604 57 12 -0.045130413
-0.77948034 -2.788028 -0.25327459 53 5 -0.045128111
-0.83520877 -2.9853468 0.60257488 105 13 -0.045125805
-0.7818228 -2.7926457 -0.15198363 51 6 -0.045123503
-0.83006835 -2.9629867 0.71039546 97 14 -0.045121197
-0.64125174 -2.2874556 -0.041466918 69 7 -0.045118894
-0.74041438 -2.6394124 0.73452848 23 15 -0.045116588
-0.84845126 -3.0063739 -0.83702081 37 0 -0.04507947
-0.68477201 -2.4247792 0.043980066 4 8 -0.045077167
-0.79121369 -2.7998199 -0.67170382 52 1 -0.045074861
-0.8418721 -2.9790819 0.16224147 100 9 -0.045072559
-0.79172248 -2.799753 -0.5655579 50 2 -0.045070253
-0.83760154 -2.9600227 0.26913694 83 10 -0.045067951
-0.79275054 -2.7996564 -0.46085599 52 3 -0.045065645
-0.79384112 -2.7997792 -0.35732093 47 4 -0.045061037
-0.80234945 -2.8297868 0.46586189 61 12 -0.045058735
-0.78909224 -2.7811809 -0.25292596 49 5 -0.045056429
-0.84344828 -2.9707859 0.60028511 105 13 -0.045054127
-0.79199427 -2.7877021 -0.15187897 50 6 -0.045051821
-0.84357089 -2.9672754 0.71219504 92 14 -0.045049518
-0.65291238 -2.2966309 -0.041676346 69 7 -0.045047212
-0.74744016 -2.6273906 0.73194027 25 15 -0.04504491
-0.86319 -3.0182528 -0.84116197 40 0 -0.045024175
-0.80772758 -2.8243215 0.051275171 28 8 -0.045021869
-0.79888558 -2.7915604 -0.67035419 47 1 -0.045019567
-0.85061622 -2.970365 0.16192746 75 9 -0.045017261
-0.80365396 -2.8045213 -0.56708437 49 2 -0.045014959
-0.8512243 -2.9685719 0.27018279 100 10 -0.045012653
-0.80094135 -2.7932143 -0.46023026 55 3 -0.045010351
-0.85245502 -2.9709082 0.37950116 100 11 -0.045008045
-0.80531251 -2.8047633 -0.35829589 50 4 -0.045005742
-0.81222236 -2.8269689 0.46586189 58 12 -0.045003437
-0.79989666 -2.7822392 -0.25327459 49 5 -0.045001134
-0.85221034 -2.9641991 0.59952188 111 13 -0.044998828
-0.7990253 -2.7773829 -0.15146028 49 6 -0.044996526
-0.85448438 -2.9682071 0.71309483 97 14 -0.04499422
-0.66313934 -2.3020241 -0.041815966 67 7 -0.044991918
-0.75660688 -2.6247654 0.73194027 29 15 -0.044989612
-0.87588066 -3.024652 -0.84375012 42 0 -0.044968877
-0.82092071 -2.833009 0.051484596 64 8 -0.044966575
-0.8091675 -2.7906263 -0.67080402 52 1 -0.044964269
-0.85597104 -2.9501143 0.16098543 87 9 -0.044961967
-0.81404388 -2.8056118 -0.56784761 49 2 -0.044959661
-0.86384124 -2.9753001 0.27105436 87 10 -0.044957358
-0.81289083 -2.7979894 -0.46148172 52 3 -0.044955052
-0.8617124 -2.964102 0.37901369 100 11 -0.04495275
-0.81010777 -2.7847803 -0.35610226 48 4 -0.044950444
-0.82153302 -2.8222198 0.46554902 52 12 -0.044948142
-0.81294686 -2.7909074 -0.25432047 49 5 -0.044945836
-0.86529744 -2.9706309 0.60143 121 13 -0.044943534
-0.80871528 -2.7745767 -0.15146028 50 6 -0.044941228
-0.86483985 -2.9652064 0.71309483 94 14 -0.044938926
-0.67117101 -2.2996953 -0.041815966 66 7 -0.044936623
-0.76901394 -2.6332347 0.73504615 31 15 -0.044934317
-0.88532853 -3.0158603 -0.84219724 38 0 -0.044913583
-0.83136809 -2.8320448 0.051519506 54 8 -0.044911277
-0.82110035 -2.7952638 -0.67260367 52 1 -0.044908974
-0.87696487 -2.983516 0.16297418 100 9 -0.044906668
-0.82210535 -2.7950757 -0.56632113 49 2 -0.044904366
-0.87586558 -2.9759364 0.27140298 87 10 -0.04490206
-0.8231405 -2.794991 -0.46148172 51 3 -0.044899758
-0.87261432 -2.9629805 0.37925744 99 11 -0.044897452
-0.82094544 -2.785744 -0.35658973 46 4 -0.04489515
-0.82746869 -2.8060718 0.46335894 51 12 -0.044892848
-0.82268369 -2.7880526 -0.25432047 51 5 -0.044890542
-0.87784714 -2.9730883 0.60257488 114 13 -0.044888239
-0.82284069 -2.7850018 -0.15219298 51 6 -0.044885933
-0.87238765 -2.950804 0.71039546 100 14 -0.044883631
-0.67692661 -2.2896678 -0.041676346 67 7 -0.044881325
-0.78094119 -2.6397967 0.7376343 32 15 -0.044879023
-0.89474899 -3.0090485 -0.84116197 39 0 -0.044858284
-0.84573454 -2.8423951 0.051763836 45 8 -0.044855982
-0.83356434 -2.7997065 -0.67440325 52 1 -0.044853676
-0.88618338 -2.9745393 0.16266017 100 9 -0.044851374
-0.83073592 -2.7884257 -0.5655579 48 2 -0.044849068
-0.88510984 -2.9690423 0.27105436 87 10 -0.044846766
-0.83515066 -2.7996726 -0.46273321 52 3 -0.044844463
-0.88517165 -2.9654686 0.37998864 100 11 -0.044842158
-0.83285475 -2.7884223 -0.35732093 48 4 -0.044839855
-0.8411417 -2.8143761 0.46523616 54 12 -0.044837549
-0.83241093 -2.7851639 -0.25432047 50 5 -0.044835247
-0.89159489 -2.9812913 0.60486454 102 13 -0.044832941
-0.83312947 -2.7840261 -0.15229765 50 6 -0.044830639
-0.88491857 -2.9552081 0.71219504 100 14 -0.044828333
-0.68301827 -2.2795091 -0.041536726 67 7 -0.044826031
-0.78561771 -2.6202626 0.73297554 37 15 -0.044823725
-0.90413296 -3.002207 -0.84012663 40 0 -0.04480299
-0.85161215 -2.8260231 0.051519506 36 8 -0.044800684
-0.84389508 -2.7986455 -0.67485321 52 1 -0.044798382
-0.9000228 -2.9829006 0.16328819 100 9 -0.044796079
-0.84386706 -2.7967863 -0.56784761 49 2 -0.044793773
-0.89374048 -2.9602127 0.27053142 92 10 -0.044791471
-0.84149063 -2.7853944 -0.46085599 52 3 -0.044789165
-0.89781547 -2.9699614 0.38096359 94 11 -0.044786863
-0.84488177 -2.7930984 -0.35829589 48 4 -0.044784557
-0.84981608 -2.8076415 0.4646104 48 12 -0.044782255
-0.84097356 -2.7784274 -0.25397182 50 5 -0.044779949
-0.89061457 -2.9405813 0.59723216 52 13 -0.044777647
-0.84516001 -2.7887466 -0.15271634 48 6 -0.044775341
-0.89975274 -2.9670203 0.71579427 100 14 -0.044773038
-0.69329345 -2.2847652 -0.041676346 67 7 -0.044770733
-0.79251456 -2.61011 0.730905 42 15 -0.04476843
-0.91798842 -3.0101197 -0.84323245 40 0 -0.044747695
-0.85855383 -2.8134701 0.05134498 27 8 -0.044745389
-0.85308969 -2.7938187 -0.67440325 52 1 -0.044743087
-0.91159648 -2.983561 0.16349754 100 9 -0.044740781
-0.85477155 -2.7975791 -0.56861085 49 2 -0.044738479
-0.90523362 -2.960885 0.27088004 92 10 -0.044736173
-0.85120809 -2.7824402 -0.46085599 55 3 -0.044733871
-0.90527159 -2.9573188 0.37974492 99 11 -0.044731565
-0.85462677 -2.7901323 -0.35829589 48 4 -0.044729263
-0.86250591 -2.8141015 0.46617478 49 12 -0.044726957
-0.85300243 -2.7830946 -0.25466907 46 5 -0.044724654
-0.89339042 -2.9130542 0.59227115 52 13 -0.044722348
-0.85137349 -2.7743232 -0.1520883 50 6 -0.044720046
-0.90896016 -2.9601357 0.71489447 92 14 -0.04471774
-0.70243931 -2.2861543 -0.041746158 66 7 -0.044715438
-0.80672997 -2.6239469 0.73556381 45 15 -0.044713132
-0.92735022 -3.0032053 -0.84219724 37 0 -0.044692397
-0.87191111 -2.8219197 0.051554412 7 8 -0.044690095
-0.85995877 -2.7815149 -0.67215377 49 1 -0.044687789
-0.92023474 -2.9746366 0.16318353 100 9 -0.044685487
-0.86569226 -2.7983291 -0.56937408 49 2 -0.044683181
-0.9190982 -2.9691272 0.2719259 92 10 -0.044680879
-0.86442238 -2.7907739 -0.46273321 55 3 -0.044678573
-0.91323876 -2.9465559 0.37876993 100 11 -0.04467627
-0.86494869 -2.7890282 -0.35853964 49 4 -0.044673964
-0.87290913 -2.8129599 0.46648762 51 12 -0.044671662
-0.86271214 -2.7801001 -0.25466907 48 5 -0.044669356
-0.90297139 -2.9080431 0.59188956 36 13 -0.044667054
-0.85927439 -2.7656124 -0.15177429 53 6 -0.044664748
-0.91697335 -2.949501 0.71309483 100 14 -0.044662446
-0.71397918 -2.2951448 -0.041955583 66 7 -0.044660144
-0.81818104 -2.6284931 0.7376343 46 15 -0.044657838
-0.94128627 -3.011013 -0.84530306 40 0 -0.044637103
-0.85847324 -2.7444272 0.050193124 1 8 -0.044634797
-0.87199122 -2.7859352 -0.67395335 49 1 -0.044632494
-0.92882192 -2.9656885 0.16286951 100 9 -0.044630188
-0.87428159 -2.7915435 -0.56861085 50 2 -0.044627886
-0.93064809 -2.9697032 0.27227452 96 10 -0.04462558
-0.87534082 -2.7915089 -0.46335894 55 3 -0.044623278
-0.92886698 -2.960397 0.38096359 92 11 -0.044620972
-0.8734901 -2.7822039 -0.35805216 49 4 -0.04461867
-0.88213068 -2.8080115 0.46617478 52 12 -0.044616364
-0.87479955 -2.7846751 -0.25536633 50 5 -0.044614062
-0.90664053 -2.8842714 0.58769172 45 13 -0.044611759
-0.87371737 -2.777838 -0.15261166 51 6 -0.044609454
-0.92609346 -2.9425647 0.71219504 94 14 -0.044607151
-0.71838224 -2.2811947 -0.041746158 66 7 -0.044604845
-0.827932 -2.6274638 0.73815197 48 15 -0.044602543
-0.94945931 -3.0003419 -0.84323245 40 0 -0.044581804
-0.88012117 -2.779542 0.050891217 1 8 -0.044579502
-0.88288772 -2.7865901 -0.67485321 47 1 -0.044577196
-0.94278961 -2.9738512 0.16349754 100 9 -0.044574894
-0.88283366 -2.7847316 -0.56784761 49 2 -0.044572588
-0.9373945 -2.9550419 0.27122867 92 10 -0.044570286
-0.88747025 -2.7959676 -0.4646104 55 3 -0.04456798
-0.93919474 -2.9571369 0.38096359 100 11 -0.044565678
-0.8856011 -2.7867055 -0.35902712 48 4 -0.044563375
-0.89252567 -2.8067973 0.46648762 54 12 -0.044561069
-0.88209951 -2.7740095 -0.25466907 51 5 -0.044558767
-0.91551262 -2.8773477 0.58692849 53 13 -0.044556461
-0.88401431 -2.7766747 -0.15271634 50 6 -0.044554159
-0.93990809 -2.950455 0.71489447 100 14 -0.044551853
-0.72512645 -2.2748625 -0.041676346 64 7 -0.044549551
-0.83416307 -2.6153553 0.73556381 47 15 -0.044547245
-0.95756966 -2.98965 -0.84116197 37 0 -0.04452651
-0.8275674 -2.5822155 0.047330927 1 8 -0.044524204
-0.89915508 -2.8039033 -0.67980206 47 1 -0.044521902
-0.95560586 -2.9781492 0.16391623 100 9 -0.044519596
-0.89374888 -2.7853715 -0.56861085 48 2 -0.044517294
-0.94648534 -2.9479578 0.27088004 92 10 -0.044514991
-0.89480793 -2.7853298 -0.46335894 51 3 -0.044512685
-0.95011932 -2.95573 0.38120735 99 11 -0.044510383
-0.89714634 -2.7892663 -0.35975835 46 4 -0.044508077
-0.90473855 -2.8111866 0.46773914 56 12 -0.044505775
-0.89177728 -2.7709136 -0.25466907 49 5 -0.044503469
-0.92314374 -2.8666592 0.58540201 64 13 -0.044501167
-0.89553887 -2.7792747 -0.15303035 52 6 -0.044498861
-0.95378935 -2.9582841 0.71759385 100 14 -0.044496559
-0.73797417 -2.2875423 -0.041955583 64 7 -0.044494253
-0.84210038 -2.6087503 0.73452848 47 15 -0.04449195
-0.97276533 -3.0009911 -0.84530306 40 0 -0.044471215
-0.78968829 -2.4347479 0.044678163 10 8 -0.04446891
-0.90592945 -2.7914798 -0.67755258 46 1 -0.044466607
-0.96599549 -2.9747956 0.16391623 100 9 -0.044464301
-0.90589136 -2.7897041 -0.57013732 49 2 -0.044461999
-0.95800167 -2.9484255 0.27122867 96 10 -0.044459693
-0.90330338 -2.7784326 -0.46273321 50 3 -0.044457391
-0.95858848 -2.9467323 0.38047612 100 11 -0.044455085
-0.9074921 -2.7880054 -0.36000207 49 4 -0.044452783
-0.91515768 -2.8098896 0.46805197 52 12 -0.044450477
-0.90391225 -2.7753615 -0.25536633 49 5 -0.044448175
-0.93253613 -2.8615527 0.58502042 63 13 -0.044445869
-0.90213913 -2.7666376 -0.15250699 49 6 -0.044443566
-0.96410996 -2.9549367 0.71759385 97 14 -0.04444126
-0.74719578 -2.2887547 -0.042025398 64 7 -0.044438958
-0.8536011 -2.6131406 0.73659903 47 15 -0.044436652
-0.98443872 -3.0012486 -0.84633833 40 0 -0.044415917
-0.79880595 -2.4338765 0.044713065 54 8 -0.044413615
-0.91262805 -2.7790432 -0.67530304 42 1 -0.044411309
-0.97273934 -2.9620881 0.16339287 100 9 -0.044409007
-0.91807491 -2.7939854 -0.57166374 50 2 -0.044406701
-0.97388822 -2.9620981 0.27279747 100 10 -0.044404399
-0.914231 -2.7790153 -0.46335894 51 3 -0.044402093
-0.96824831 -2.9414825 0.38023239 100 11 -0.04439979
-0.91659719 -2.7829351 -0.35975835 49 4 -0.044397485
-0.92756015 -2.8162203 0.46961632 60 12 -0.044395182
-0.91484159 -2.7759743 -0.25571495 50 5 -0.044392876
-0.94436395 -2.8638735 0.58616525 59 13 -0.044390574
-0.91304243 -2.7672653 -0.15271634 50 6 -0.044388268
-0.97319663 -2.9478526 0.71669406 103 14 -0.044385966
-0.75854284 -2.2976573 -0.042234823 64 7 -0.04438366
-0.8658976 -2.6213017 0.73970485 47 15 -0.044381358
-0.99856049 -3.0087948 -0.84944409 40 0 -0.044360623
-0.9255234 -2.7870982 -0.67800248 42 1 -0.044356015
-0.98370284 -2.9605696 0.16349754 100 9 -0.044353709
-0.92534512 -2.7833118 -0.57013732 50 2 -0.044351406
-0.98485053 -2.9605711 0.27297178 100 10 -0.0443491
-0.92593539 -2.7834656 -0.4646104 51 3 -0.044346798
-0.97862405 -2.9401391 0.38047612 104 11 -0.044344492
-0.92644811 -2.7817638 -0.36000207 50 4 -0.04434219
-0.93488711 -2.8054695 0.46836486 51 12 -0.044339884
-0.9270469 -2.780324 -0.25641218 51 5 -0.044337582
-0.95447654 -2.8625886 0.5865469 47 13 -0.044335276
-0.9247424 -2.7718005 -0.15313502 49 6 -0.044332974
-0.98049867 -2.9372153 0.71489447 100 14 -0.044330671
-0.76212424 -2.2817187 -0.041990492 61 7 -0.044328365
-0.87504214 -2.6182632 0.73970485 46 15 -0.044326063
-1.0048448 -2.9944782 -0.84633833 40 0 -0.044305325
-0.88345933 -2.631222 0.048447877 1 8 -0.044303022
-0.93586743 -2.7856977 -0.67845237 34 1 -0.044300716
-0.99403083 -2.957118 0.16349754 64 9 -0.044298414
-0.93456954 -2.7802281 -0.57013732 50 2 -0.044296108
-0.99148703 -2.9478469 0.27210024 55 10 -0.044293806
-0.93690646 -2.7839611 -0.46523616 52 3 -0.0442915
-0.98888117 -2.9367054 0.38047612 40 11 -0.044289198
-0.93615246 -2.778513 -0.36000207 50 4 -0.044286892
-0.94151914 -2.7928295 0.46680051 49 12 -0.04428459
-0.93419927 -2.7695198 -0.25571495 49 5 -0.044282287
-0.99081796 -2.9373713 0.60257488 42 13 -0.044279981
-0.93313456 -2.764771 -0.15292569 50 6 -0.044277679
-0.98762804 -2.9245434 0.71264493 36 14 -0.044275373
-0.76816368 -2.2733612 -0.041885775 64 7 -0.044273071
-0.88293916 -2.6115324 0.73866957 47 15 -0.044270765
-1.0176769 -2.996263 -0.84789127 42 0 -0.04425003
-0.87205887 -2.5675316 0.047330927 1 8 -0.044247724
-0.94872075 -2.7916396 -0.68070191 32 1 -0.044245422
-0.99663132 -2.930939 0.16224147 64 9 -0.044243116
-0.94348902 -2.7730665 -0.56937408 49 2 -0.044240814
-0.98880118 -2.9045851 0.26843968 45 10 -0.044238511
-0.94837743 -2.7842484 -0.46586189 50 3 -0.044236206
-0.99720562 -2.9275982 0.37974492 50 11 -0.044233903
-0.94776696 -2.7808647 -0.36073327 47 4 -0.044231597
-0.96082556 -2.8175709 0.47149354 57 12 -0.044229295
-0.94257396 -2.7624705 -0.25536633 49 5 -0.044226989
-0.99523431 -2.9151402 0.5987587 42 13 -0.044224687
-0.9490726 -2.7783422 -0.15386772 51 6 -0.044222381
-0.99518913 -2.9116838 0.71039546 37 14 -0.044220079
-0.77932835 -2.280127 -0.042060301 63 7 -0.044217773
-0.89204949 -2.6084347 0.73866957 45 15 -0.044215471
