# .PCD v0.7 - Point Cloud Data file format
VERSION 0.7
FIELDS x y z intensity ring time
SIZE 4 4 4 4 2 4
TYPE F F F F U F
COUNT 1 1 1 1 1 1
WIDTH 885
HEIGHT 1
VIEWPOINT 0 0 0 1 0 0 0
POINTS 885
DATA ascii
-0.035006393 0.56267834 0.069221795 100 11 -0.052868996
-0.034048039 0.54881543 -0.067515619 100 4 -0.052866694
-0.033244628 0.53891319 -0.047238413 100 5 -0.052862085
-0.03335448 0.54222959 -0.028470764 23 6 -0.052857477
-0.033571649 0.54889053 -0.0095988233 100 7 -0.052852869
-0.029635308 0.48592377 0.13044479 100 15 -0.052850563
-0.032709468 0.54894263 0.0095988233 100 8 -0.052827522
-0.033186857 0.56024772 0.029412812 100 9 -0.052822918
-0.029863469 0.50563854 -0.098457448 100 2 -0.052820612
-0.0329106 0.55889332 0.048981529 42 10 -0.05281831
-0.031838477 0.5422948 -0.086038962 88 3 -0.052816004
-0.032693144 0.5568521 0.06849058 100 11 -0.052813701
-0.031783964 0.54298586 -0.066784404 100 4 -0.052811395
-0.031016182 0.53305882 -0.046715476 100 5 -0.052806787
-0.031943075 0.55231786 -0.028994123 27 6 -0.052802179
-0.03223113 0.55898625 -0.0097733475 17 7 -0.052797571
-0.029804381 0.53308624 0.0093195857 15 8 -0.052772228
-0.031576253 0.56834239 0.029831499 100 9 -0.052767619
-0.028751587 0.51750106 -0.10074715 100 2 -0.052765317
-0.030849701 0.55701536 0.048807211 38 10 -0.052763011
-0.029291827 0.53056842 -0.084161758 88 3 -0.052760709
-0.031415384 0.5708428 0.070196748 100 11 -0.052758403
-0.030119674 0.54904509 -0.067515619 100 4 -0.052756101
-0.028519876 0.52322173 -0.045843918 100 5 -0.052751493
-0.029364908 0.54046011 -0.028366093 28 6 -0.052746885
-0.030289778 0.56109744 -0.0098082526 100 7 -0.052742276
-0.027838578 0.53119004 0.0092846798 100 8 -0.052716933
-0.033341158 0.63831663 -0.14756788 12 1 -0.052714627
-0.029799961 0.57243824 0.03004084 100 9 -0.052712325
-0.026854772 0.51760298 -0.10074715 100 2 -0.052710019
-0.028910408 0.55911458 0.048981529 31 10 -0.052707717
-0.026940471 0.52278119 -0.082910277 94 3 -0.052705411
-0.029014053 0.56301916 0.069221795 100 11 -0.052703109
-0.028203081 0.54914689 -0.067515619 100 4 -0.052700803
-0.02709941 0.5312773 -0.046541166 100 5 -0.052696194
-0.027383685 0.54056412 -0.028366093 33 6 -0.052691586
-0.028230291 0.55920261 -0.0097733475 19 7 -0.052686982
-0.026183356 0.53728044 0.0093893949 100 8 -0.052661635
-0.031001225 0.63843453 -0.14756788 12 1 -0.052659333
-0.027317099 0.56256419 0.029517481 100 9 -0.052657027
-0.025237706 0.52161551 -0.10151039 100 2 -0.052654725
-0.026862733 0.55722189 0.048807211 100 10 -0.052652419
-0.025304873 0.52681828 -0.083536014 88 3 -0.052650116
-0.026096351 0.54527628 0.067028143 100 11 -0.05264781
-0.026001457 0.54329348 -0.066784404 100 4 -0.052645508
-0.025528248 0.53733909 -0.047064099 100 5 -0.0526409
-0.02521446 0.53467125 -0.028052075 33 6 -0.052636292
-0.026841091 0.57128274 -0.0099827768 22 7 -0.052631684
-0.022672612 0.48436442 0.12992717 100 15 -0.052629381
-0.022784639 0.49983054 -0.13406827 27 0 -0.052608643
-0.024401633 0.53736436 0.0093893949 15 8 -0.05260634
-0.025090519 0.55467087 0.029098796 100 9 -0.052601732
-0.022623936 0.50208372 -0.097694211 100 2 -0.052599426
-0.025372243 0.56526947 0.049504459 26 10 -0.052597124
-0.024087233 0.53873962 -0.085413225 88 3 -0.052594818
-0.024906091 0.55924171 0.068734311 100 11 -0.052592516
-0.024287857 0.54535985 -0.067028143 100 4 -0.052590214
-0.024713779 0.55931574 -0.048981529 100 5 -0.052585606
-0.023616331 0.5387426 -0.028261419 31 6 -0.052580997
-0.02442326 0.55938178 -0.0097733475 27 7 -0.052576389
-0.021402095 0.4921571 0.13199772 100 15 -0.052574083
-0.023123907 0.54942989 0.0095988233 100 8 -0.052551042
-0.026766267 0.63862616 -0.14756788 12 1 -0.05254874
-0.023487473 0.56273711 0.029517481 100 9 -0.052546434
-0.021286426 0.5100022 -0.099220686 100 2 -0.052544132
-0.023083756 0.55539715 0.048632905 100 10 -0.05254183
-0.022218741 0.53684288 -0.08510036 85 3 -0.052539524
-0.022315865 0.54147053 0.066540666 100 11 -0.052537221
-0.0224653 0.54742473 -0.067271888 100 4 -0.052534916
-0.02162735 0.53152817 -0.046541166 100 5 -0.052530307
-0.021829516 0.53881794 -0.028261419 30 6 -0.052525699
-0.021748353 0.5414809 -0.009459205 30 7 -0.052521091
-0.019375117 0.48450753 0.12992717 90 15 -0.052518789
-0.020589113 0.53352159 0.0093195857 100 8 -0.052495748
-0.021446541 0.56081992 0.029412812 100 9 -0.05249114
-0.01926754 0.50615311 -0.098457448 100 2 -0.052488837
-0.020746326 0.5475142 0.047935657 100 10 -0.052486531
-0.02017663 0.53494674 -0.084787495 88 3 -0.052484229
-0.021024052 0.55741459 0.06849058 100 11 -0.052481923
-0.021075716 0.56138569 -0.068978056 100 4 -0.052479621
-0.019845748 0.53359145 -0.046715476 100 5 -0.052475013
-0.020516442 0.55685747 -0.029203467 27 6 -0.052470405
-0.020370889 0.55554199 -0.0097035384 33 7 -0.052465796
-0.018284442 0.52360111 0.0091450615 100 8 -0.052440453
-0.022195982 0.63880134 -0.14756788 12 1 -0.052438147
-0.01962761 0.56488347 0.029622154 100 9 -0.052435845
-0.017907718 0.5179897 -0.10074715 100 2 -0.052433539
-0.018971855 0.55156571 0.048284281 100 10 -0.052431237
-0.017903686 0.52316862 -0.082910277 92 3 -0.052428931
-0.01958894 0.57534343 0.070684224 100 11 -0.052426629
-0.019219453 0.56741107 -0.069709271 100 4 -0.052424323
-0.017915804 0.53166622 -0.046541166 100 5 -0.052419715
-0.018372674 0.55093729 -0.028889451 26 6 -0.052415106
-0.016217267 0.48886487 0.11292543 100 14 -0.052412804
-0.018232513 0.54961395 -0.0095988233 35 7 -0.052410498
-0.016119804 0.48849261 0.13096245 89 15 -0.052408196
-0.017116569 0.54164714 0.009459205 100 8 -0.052385155
-0.02007765 0.63887137 -0.14756788 12 1 -0.052382853
-0.017343596 0.55496711 0.029098796 100 9 -0.052380547
-0.016221315 0.52197367 -0.10151039 100 2 -0.052378245
-0.017354498 0.56158572 0.049155835 100 10 -0.052375939
-0.016535144 0.53507173 -0.084787495 90 3 -0.052373637
-0.016644306 0.54167455 0.066540666 100 11 -0.052371331
-0.016731638 0.54763001 -0.067271888 100 4 -0.052369028
-0.016360695 0.54168296 -0.047412723 100 5 -0.05236442
-0.01612607 0.53702068 -0.028156748 100 6 -0.052359812
-0.016432656 0.5536719 -0.0096686333 37 7 -0.052355204
-0.015394431 0.54770029 0.0095639192 100 8 -0.052329861
-0.015018221 0.54104882 0.028366093 100 9 -0.052325252
-0.01432673 0.51613706 -0.10036553 100 2 -0.052322946
-0.015437027 0.55964863 0.048981529 100 10 -0.052320644
-0.014613029 0.53315151 -0.084474623 85 3 -0.052318338
-0.015131552 0.55561984 0.068246834 100 11 -0.052316036
-0.014820067 0.54768509 -0.067271888 100 4 -0.05231373
-0.014671518 0.5457176 -0.047761347 100 5 -0.052309126
-0.013104808 0.49063861 0.095404498 61 13 -0.05230682
-0.014198552 0.5350771 -0.028052075 100 6 -0.052304517
-0.014395041 0.54972786 -0.0095988233 41 7 -0.052299909
-0.01270909 0.48859325 0.13096245 100 15 -0.052297603
-0.01348236 0.54775071 0.0095639192 100 8 -0.052274562
-0.015616691 0.63899601 -0.14756788 12 1 -0.05227226
-0.013565935 0.55906796 0.029308137 100 9 -0.052269954
-0.012572968 0.51814663 -0.10074715 100 2 -0.052267652
-0.013099379 0.54376453 0.047587033 100 10 -0.05226535
-0.012987895 0.54307336 -0.086038962 88 3 -0.052263044
-0.013333715 0.56162292 0.068978056 100 11 -0.052260742
-0.012861283 0.54574889 -0.067028143 100 4 -0.052258436
-0.012626597 0.53978997 -0.047238413 100 5 -0.052253827
-0.011665835 0.50245774 0.097694211 59 13 -0.052251525
-0.012606612 0.54710382 -0.028680107 100 6 -0.052249219
-0.012431054 0.54777557 -0.0095639192 46 7 -0.052244611
-0.011443445 0.54179668 0.009459205 100 8 -0.052219268
-0.011614192 0.55911189 0.029308137 100 9 -0.05221466
-0.010764084 0.51818734 -0.10074715 100 2 -0.052212358
-0.011201062 0.54380697 0.047587033 100 10 -0.052210052
-0.010850238 0.53126556 -0.084161758 90 3 -0.052207749
-0.011533802 0.56960469 0.069953009 20 11 -0.052205443
-0.011274762 0.56166804 -0.068978056 100 4 -0.052203141
-0.010663135 0.53584671 -0.046889789 100 5 -0.052198533
-0.010657602 0.54514754 -0.028575433 100 6 -0.052193925
-0.010403571 0.54181761 -0.009459205 46 7 -0.052189317
-0.0094115287 0.53383577 0.0093195857 100 8 -0.052163973
-0.0098006111 0.56713688 0.029726826 100 9 -0.052159365
-0.0088196304 0.51036996 -0.099220686 100 2 -0.052157059
-0.0094053606 0.54981911 0.048109971 100 10 -0.052154757
-0.0089955665 0.53130025 -0.084161758 93 3 -0.052152451
-0.009545289 0.56964147 0.069953009 22 11 -0.052150149
-0.0093474062 0.56368876 -0.069221795 100 4 -0.052147843
-0.0088905292 0.541857 -0.047412723 100 5 -0.052143235
-0.0086267143 0.53719348 -0.028156748 100 6 -0.052138627
-0.0087319361 0.55584675 -0.0097035384 41 7 -0.052134018
-0.0075761639 0.53586483 0.0093544899 100 8 -0.052108675
-0.0089245047 0.63912451 -0.14756788 12 1 -0.052106373
-0.0076687299 0.54919273 0.028784778 100 9 -0.052104067
-0.0072544678 0.52610219 -0.10227363 100 2 -0.052101765
-0.0074316845 0.54586416 0.047761347 100 10 -0.052099459
-0.0072472268 0.53922915 -0.085413225 93 3 -0.052097157
-0.0074516088 0.56173176 0.068978056 25 11 -0.052094851
-0.0072496361 0.55379331 -0.068003103 100 4 -0.052092548
-0.006973424 0.53989261 -0.047238413 100 5 -0.05208794
-0.0068015601 0.54121453 -0.028366093 100 6 -0.052083332
-0.0068389229 0.55187362 -0.0096337292 39 7 -0.052078724
-0.0057773436 0.53388751 0.0093195857 15 8 -0.052053381
-0.0057726745 0.55121332 0.028889451 100 9 -0.052048773
-0.0052156863 0.50649285 -0.098457448 100 2 -0.052046467
-0.0054456554 0.53791755 0.047064099 100 10 -0.052044164
-0.0054591466 0.5392502 -0.085413225 93 3 -0.052041858
-0.0055494127 0.55778337 0.06849058 23 11 -0.052039556
-0.0053547942 0.54785937 -0.067271888 100 4 -0.05203725
-0.0047596334 0.49579674 0.07853011 31 12 -0.052034948
-0.0052015879 0.55186743 -0.048284281 100 5 -0.052032642
-0.0049327421 0.53324538 -0.027947403 100 6 -0.052028038
-0.0048060599 0.53989637 -0.0094242999 33 7 -0.052023429
-0.0042819963 0.49067163 0.13148008 74 15 -0.052021123
-0.0039870976 0.54390258 0.0094941091 21 8 -0.051998083
-0.0038344553 0.54923284 0.028784778 100 9 -0.051993474
-0.0035635803 0.51043373 -0.099220686 100 2 -0.051991172
-0.0036481163 0.53594041 0.046889789 100 10 -0.051988866
-0.0036290402 0.54716736 -0.086664706 93 3 -0.051986564
-0.003602203 0.55779934 0.06849058 20 11 -0.051984262
-0.0035173274 0.55978501 -0.068734311 100 4 -0.051981956
-0.0030408856 0.49778566 0.078842975 38 12 -0.051979654
-0.0032861514 0.53793514 -0.047064099 100 5 -0.051977348
-0.0031519751 0.54723996 -0.028680107 100 6 -0.051972739
-0.0029321169 0.54190958 -0.009459205 33 7 -0.051968131
-0.0025288484 0.48295629 0.12940952 60 15 -0.051965829
-0.0020502203 0.5339148 0.0093195857 24 8 -0.051942788
-0.0018854976 0.51446396 -0.11877415 17 1 -0.051940486
-0.0019592005 0.56122643 0.029412812 100 9 -0.05193818
-0.0017956266 0.51436961 -0.099983923 100 2 -0.051935878
-0.0017774256 0.53594989 0.046889789 100 10 -0.051933572
-0.00169408 0.53927517 -0.085413225 99 3 -0.051931269
-0.0016552155 0.55780852 0.06849058 100 11 -0.051928964
-0.0015634093 0.55979389 -0.068734311 100 4 -0.051926661
-0.0013962194 0.53334993 0.084474623 48 12 -0.051924355
-0.0013821657 0.52798146 -0.046192542 100 5 -0.051922053
-0.0011994385 0.49081212 0.095404498 24 13 -0.051919747
-0.0012642428 0.55723387 -0.029203467 100 6 -0.051917445
-0.0010674743 0.55591434 -0.0097035384 28 7 -0.051912837
-0.00018660977 0.53391868 0.0093195857 31 8 -0.051887494
-0.00011154479 0.6391868 -0.14756788 12 1 -0.051885188
6.7402328e-09 0.56522435 0.029622154 100 9 -0.051882885
6.227479e-09 0.52222568 -0.10151039 100 2 -0.051880579
9.3633374e-05 0.53794515 0.047064099 100 10 -0.051878277
0.00018685953 0.53532708 -0.084787495 100 3 -0.051875971
0.00028790074 0.54987055 0.067515619 18 11 -0.051873669
0.00039079445 0.55979592 -0.068734311 100 4 -0.051871363
0.00047403423 0.54322845 0.086038962 52 12 -0.051869061
0.00047116244 0.53993744 -0.047238413 100 5 -0.051866755
0.00065635692 0.53726232 -0.028156748 100 6 -0.051862147
0.0008888882 0.56591314 -0.0098780626 24 7 -0.051857539
0.00086648454 0.49648508 0.13303299 29 15 -0.051855236
0.0016584118 0.52791697 0.0092148706 29 8 -0.051832195
0.0021194995 0.63918328 -0.14756788 12 1 -0.051829893
0.0019868317 0.56921542 0.029831499 100 9 -0.051827587
0.0018228041 0.52222252 -0.10151039 100 2 -0.051825285
0.0020007635 0.54591107 0.047761347 100 10 -0.051822979
0.0020556413 0.5353232 -0.084787495 99 3 -0.051820677
0.002191253 0.54589599 0.067028143 100 11 -0.051818371
0.0023280971 0.55582094 -0.068246834 100 4 -0.051816069
0.0023445382 0.53729737 0.08510036 66 12 -0.051813763
0.0023560366 0.53993249 -0.047238413 100 5 -0.05181146
0.0024751676 0.52527332 -0.027528716 100 6 -0.051806852
0.0029150473 0.57590491 -0.010052586 20 7 -0.051802244
0.0025690875 0.49068359 0.13148008 14 15 -0.051799938
0.0035676295 0.53790629 0.0093893949 31 8 -0.051765047
0.0043505183 0.63917196 -0.14756788 12 1 -0.051762741
0.0039181295 0.56121612 0.029412812 100 9 -0.051760439
0.0036184166 0.51828653 -0.10074715 100 2 -0.051758133
0.0038922243 0.54390836 0.047587033 100 10 -0.051755831
0.0040107635 0.54716468 -0.086664706 100 3 -0.051753525
0.0042756922 0.56970543 0.069953009 25 11 -0.051751222
0.0042226757 0.5498544 -0.067515619 100 4 -0.051748917
0.0042506997 0.54123658 0.085726097 82 12 -0.051746614
0.0042403671 0.53992099 -0.047238413 100 5 -0.051744308
0.0043743723 0.53325027 -0.027947403 100 6 -0.0517397
0.0048567862 0.56789273 -0.0099129668 19 7 -0.051735092
0.004484308 0.51385301 0.13769174 14 15 -0.05173279
0.0054856222 0.54188973 0.009459205 31 8 -0.051709749
0.005835434 0.55720472 0.029203467 100 9 -0.051705141
0.005468809 0.52219707 -0.10151039 100 2 -0.051702838
0.0058331038 0.54787606 0.047935657 100 10 -0.051700532
0.0059849699 0.55307311 -0.087603308 100 3 -0.05169823
0.0061989794 0.56373215 0.069221795 100 11 -0.051695924
0.0062970938 0.56373107 -0.069221795 100 4 -0.051693622
0.0060952678 0.53726792 0.08510036 100 12 -0.051691316
0.0061251614 0.53990287 -0.047238413 100 5 -0.051689014
0.0056763901 0.49274418 0.095786124 24 13 -0.051686708
0.0064458139 0.55120587 -0.028889451 100 6 -0.051684406
0.0066947327 0.555875 -0.0097035384 17 7 -0.051679797
0.0061834501 0.50610739 0.13562119 14 15 -0.051677492
0.0072411685 0.53186971 0.0092846798 26 8 -0.051654454
0.0078457016 0.56897807 -0.13137142 15 1 -0.051652148
0.0078482749 0.56916475 0.029831499 100 9 -0.051649846
0.0072364034 0.51824868 -0.10074715 100 2 -0.05164754
0.0074921637 0.5299226 0.046366852 100 10 -0.051645238
0.0078025861 0.54514819 -0.086351842 99 3 -0.051642932
0.0082526095 0.56966168 0.069953009 20 11 -0.05164063
0.0081485854 0.55576611 -0.068246834 100 4 -0.051638324
0.0079928664 0.54514545 0.086351842 100 12 -0.051636022
0.0079507669 0.53589386 -0.046889789 100 5 -0.051633716
0.0076022786 0.50646263 0.098457448 23 13 -0.051631413
0.0083396621 0.54918295 -0.028784778 100 6 -0.051629107
0.0087222047 0.56784654 -0.0099129668 17 7 -0.051624503
0.0079816524 0.51381058 0.13769174 14 15 -0.051622197
0.0088016512 0.51984632 0.0090752514 22 8 -0.051599156
0.0097320722 0.56894898 -0.13137142 15 1 -0.051596854
0.0097313374 0.56314301 0.029517481 17 9 -0.051594548
0.0091825761 0.52607208 -0.10227363 100 2 -0.051592246
0.0093415286 0.52989328 0.046366852 100 10 -0.05158994
0.0094010374 0.53326887 -0.084474623 93 3 -0.051587638
0.0099651031 0.55970734 0.068734311 18 11 -0.051585332
0.010169837 0.56565994 -0.069465533 100 4 -0.051583029
0.009895876 0.54511422 0.086351842 100 12 -0.051580727
0.0097482027 0.53187865 -0.046541166 100 5 -0.051578421
0.0096416296 0.52606386 0.10227363 22 13 -0.051576119
0.0099389767 0.53717083 -0.028156748 100 6 -0.051573813
0.010741878 0.56981206 -0.0099478718 100 7 -0.051569205
0.010730753 0.56399864 0.15115033 12 15 -0.051566903
0.010820247 0.52980882 0.0092497757 21 8 -0.051543862
0.011156337 0.54163492 -0.12507279 16 1 -0.051541556
0.011282372 0.54313731 0.028470764 25 9 -0.051539253
0.011171828 0.53781569 -0.10456334 98 2 -0.051536947
0.011307439 0.53981924 0.047238413 100 10 -0.051534645
0.011429433 0.54113257 -0.085726097 96 3 -0.051532343
0.011961201 0.56165385 0.068978056 22 11 -0.051530037
0.012016342 0.55966705 -0.068734311 100 4 -0.051527735
0.012054726 0.55692577 0.088229045 100 12 -0.051525429
0.011856739 0.54777879 -0.047935657 100 5 -0.051523127
0.011006903 0.50443625 0.098075822 23 13 -0.051520821
0.011857796 0.53912956 -0.028261419 100 6 -0.051518518
0.01273098 0.56977105 -0.0099478718 100 7 -0.05151391
0.01269956 0.56395775 0.15115033 12 15 -0.051511604
0.01300437 0.54376167 0.0094941091 19 8 -0.051488563
0.015393666 0.63900143 -0.14756788 12 1 -0.051486261
0.013129385 0.541098 0.028366093 26 9 -0.051483959
0.012715355 0.52403468 -0.10189201 88 2 -0.051481653
0.012948441 0.5298174 0.046366852 100 10 -0.051479351
0.013415627 0.54503894 -0.086351842 90 3 -0.051477045
0.013626128 0.54970175 0.067515619 100 11 -0.051474743
0.013722326 0.54969937 -0.067515619 100 4 -0.051472437
0.013651348 0.54305708 0.086038962 100 12 -0.051470134
0.013969193 0.55570114 -0.048632905 100 5 -0.051467828
0.01346305 0.53187162 0.10341848 33 13 -0.051465526
0.013892445 0.5450747 -0.028575433 100 6 -0.05146322
0.014616358 0.56572509 -0.0098780626 100 7 -0.051458612
0.015121674 0.55170882 0.0096337292 16 8 -0.051433269
0.015018234 0.54104882 0.028366093 26 9 -0.051428661
0.014435691 0.52006209 -0.10112877 89 2 -0.051426359
0.014797912 0.52976894 0.046366852 100 10 -0.051424053
0.015428971 0.54893798 -0.086977579 96 3 -0.05142175
0.015713366 0.55560368 0.068246834 100 11 -0.051419444
0.01575413 0.55361664 -0.068003103 100 4 -0.051417142
0.015659841 0.54695529 0.086664706 100 12 -0.051414836
0.015680667 0.5476827 -0.047935657 100 5 -0.051412534
0.015771668 0.54752088 0.10647143 43 13 -0.051410228
0.015968746 0.55101222 -0.028889451 100 6 -0.051407926
0.014538566 0.4986656 0.11517494 18 14 -0.05140562
0.016356397 0.55767524 -0.0097384425 100 7 -0.051403318
0.016738202 0.54165894 0.009459205 18 8 -0.051377974
0.016827784 0.54148841 -0.12507279 16 1 -0.051375668
0.017094061 0.54698199 0.028680107 26 9 -0.051373366
0.016619047 0.53178233 -0.10341848 86 2 -0.05137106
0.016646948 0.52971405 0.046366852 100 10 -0.051368758
0.017095603 0.5409832 -0.085726097 90 3 -0.051366452
0.018220248 0.57340223 0.070440486 18 11 -0.05136415
0.017876577 0.55951053 -0.068734311 100 4 -0.051361844
0.017695975 0.55084592 0.087290443 100 12 -0.051359542
0.017208653 0.53567642 -0.046889789 100 5 -0.051357236
0.017682921 0.54746246 0.10647143 65 13 -0.051354934
0.01763262 0.54296827 -0.028470764 100 6 -0.051352628
0.016152095 0.49471641 0.11427514 18 14 -0.051350325
0.018434303 0.56161195 -0.0098082526 100 7 -0.051348023
0.018560246 0.53959864 0.0094242999 16 8 -0.051322676
0.019660333 0.56869245 -0.13137142 15 1 -0.051320374
0.019390758 0.56089473 0.029412812 22 9 -0.051318068
0.01792971 0.51602453 -0.10036553 89 2 -0.051315766
0.018634848 0.53363514 0.046715476 99 10 -0.05131346
0.018914483 0.53894603 -0.085413225 82 3 -0.051311158
0.020011654 0.56738365 0.069709271 100 11 -0.051308852
0.020151595 0.57135129 -0.070196748 100 4 -0.051306549
0.019732356 0.55670667 0.088229045 100 12 -0.051304244
0.019220399 0.53959543 -0.047238413 100 5 -0.051301941
0.019242559 0.53758746 0.10456334 100 13 -0.051299639
0.019527711 0.54290342 -0.028470764 100 6 -0.051297333
0.019053331 0.52971482 0.12237337 17 14 -0.051295031
0.020874571 0.57753485 -0.010087491 100 7 -0.051292725
0.020651143 0.54752725 0.0095639192 100 8 -0.051267382
0.021545963 0.56862414 -0.13137142 15 1 -0.051265076
0.020796785 0.54885238 0.028784778 21 9 -0.051262774
0.019790314 0.5198859 -0.10112877 76 2 -0.051260468
0.02025222 0.52958852 0.046366852 100 10 -0.051258165
0.020853141 0.5428282 -0.086038962 90 3 -0.051255859
0.020668417 0.53557628 0.065809451 100 11 -0.051253557
0.021663565 0.56136334 -0.068978056 100 4 -0.051251255
0.021578507 0.55663818 0.088229045 100 12 -0.051248949
0.021319389 0.54749221 -0.047935657 100 5 -0.051246647
0.021332247 0.54536772 0.10608982 100 13 -0.051244341
0.021249676 0.54083997 -0.028366093 100 6 -0.051242039
0.020809969 0.52964872 0.12237337 17 14 -0.051239733
0.02278924 0.57746243 -0.010087491 100 7 -0.05123743
0.022548581 0.54945379 0.0095988233 100 8 -0.051212084
0.026320457 0.63864464 -0.14756788 12 1 -0.051209781
0.022795249 0.55077201 0.028889451 17 9 -0.051207475
0.021514105 0.51981741 -0.10112877 89 2 -0.051205173
0.022587344 0.5434531 0.047587033 87 10 -0.051202871
0.022488508 0.53880876 -0.085413225 88 3 -0.051200565
0.024439273 0.58310521 0.071659178 100 11 -0.051198263
0.023205472 0.55136758 -0.067759365 100 4 -0.051195957
0.023104245 0.54669142 0.086664706 100 12 -0.051193655
0.023303227 0.55139971 -0.048284281 100 5 -0.051191349
0.02355672 0.55510139 0.1079979 100 13 -0.051189046
0.023212997 0.54475737 -0.028575433 100 6 -0.05118674
0.022491943 0.52567893 0.12147357 17 14 -0.051184438
0.024461657 0.56938809 -0.0099478718 100 7 -0.051182132
0.02500009 0.56135803 0.0098082526 100 8 -0.051156789
0.028549753 0.63854885 -0.14756788 12 1 -0.051154487
0.025076037 0.55867004 0.029308137 100 9 -0.051152181
0.023680745 0.52758425 -0.10265525 87 2 -0.051149879
0.024215043 0.53739989 0.047064099 99 10 -0.051147573
0.024815634 0.54859376 -0.086977579 85 3 -0.05114527
0.025844345 0.56913495 0.069953009 100 11 -0.051142965
0.025401033 0.55723232 -0.06849058 100 4 -0.051140662
0.024561068 0.53674084 0.08510036 100 12 -0.051138356
0.025592281 0.55927622 -0.048981529 100 5 -0.051136054
0.025494389 0.55501574 0.1079979 100 13 -0.051133748
0.025666261 0.5566439 -0.029203467 100 6 -0.051131446
0.025408102 0.54895705 0.12687239 16 14 -0.05112914
0.026077975 0.56130898 -0.0098082526 100 7 -0.051126838
0.026863648 0.55926991 0.0097733475 100 8 -0.051101495
0.030778091 0.63844538 -0.14756788 12 1 -0.051099189
0.027701534 0.57254356 0.03004084 100 9 -0.051096886
0.025806734 0.53338128 -0.1038001 74 2 -0.05109458
0.025511112 0.52537173 0.046018228 100 10 -0.051092278
0.026538014 0.54455781 -0.086351842 85 3 -0.051089972
0.027248895 0.557145 0.06849058 100 11 -0.05108767
0.028124666 0.57300186 -0.070440486 94 4 -0.051085364
0.027211862 0.5524357 0.087603308 100 12 -0.051083062
0.027152156 0.55122358 -0.048284281 100 5 -0.051080756
0.027431484 0.55492342 0.1079979 100 13 -0.051078454
0.027411386 0.55256128 -0.028994123 100 6 -0.051076148
0.026161326 0.52550912 0.12147357 17 14 -0.051073845
0.028635686 0.57319772 -0.010017681 100 7 -0.05107154
0.028506847 0.55318165 0.0096686333 100 8 -0.051046196
0.033006664 0.63833404 -0.14756788 12 1 -0.051043894
0.029803555 0.57443804 0.030145515 100 9 -0.051041588
0.027159953 0.52348483 -0.10189201 75 2 -0.051039286
0.028069792 0.53920746 0.047238413 100 10 -0.05103698
0.0284386 0.54446185 -0.086351842 79 3 -0.051034678
0.029089784 0.55506408 0.068246834 100 11 -0.051032372
0.030854182 0.58677667 -0.072146654 76 4 -0.05103007
0.028827729 0.5464195 0.086664706 100 12 -0.051027764
0.028761102 0.5451566 -0.047761347 98 5 -0.051025461
0.029160956 0.5509032 0.10723466 100 13 -0.051023155
0.028916482 0.54448444 -0.028575433 93 6 -0.051020853
0.029032292 0.54487437 0.12597258 16 14 -0.051018551
0.030636497 0.57309425 -0.010017681 100 7 -0.051016245
0.030108135 0.54708874 0.0095639192 100 8 -0.050990902
0.035234835 0.63821489 -0.14756788 12 1 -0.050988596
0.031476811 0.56834793 0.029831499 100 9 -0.050986294
0.029312426 0.52926761 -0.10303687 75 2 -0.050983988
0.030062471 0.5410955 0.047412723 100 10 -0.050981686
0.030668868 0.55027616 -0.087290443 68 3 -0.05097938
0.031026758 0.55495918 0.068246834 100 11 -0.050977077
0.03145735 0.56089973 -0.068978056 97 4 -0.050974771
0.030846013 0.54828775 0.086977579 99 12 -0.050972469
0.030983403 0.54902595 -0.048109971 98 5 -0.050970167
0.03152588 0.55863863 0.10876114 100 13 -0.050967861
0.030591033 0.5403921 -0.028366093 100 6 -0.050965559
0.031155184 0.54866093 0.12687239 48 14 -0.050963253
0.03354612 0.58895564 -0.01029692 100 7 -0.050960951
0.032952614 0.56295049 0.0098431567 100 8 -0.050935604
0.037462272 0.63808805 -0.14756788 12 1 -0.050933301
0.03322586 0.56424695 0.029622154 100 9 -0.050930995
0.030673729 0.51935738 -0.10112877 76 2 -0.050928693
0.032634433 0.55092621 0.048284281 100 10 -0.050926391
0.032919709 0.55410385 -0.08791618 66 3 -0.050924085
0.032139789 0.54097629 0.066540666 90 11 -0.050921783
0.033415213 0.56078649 -0.068978056 97 4 -0.050919477
0.032759592 0.54817677 0.086977579 82 12 -0.050917175
0.033138227 0.55289215 -0.048458595 97 5 -0.050914869
0.034751609 0.57811648 0.11257731 100 13 -0.050912566
0.032451157 0.53828269 -0.028261419 100 6 -0.050910261
0.033518627 0.55437863 0.12822211 96 14 -0.050907958
0.034153696 0.56488228 -0.0098780626 100 7 -0.050905652
0.034142811 0.56306654 0.15115033 12 15 -0.05090335
0.035139758 0.56482184 0.0098780626 100 8 -0.050880309
0.039800894 0.63794643 -0.14756788 12 1 -0.050878007
0.035195399 0.5641275 0.029622154 100 9 -0.050875701
0.032853849 0.52512544 -0.10227363 63 2 -0.050873399
0.034682229 0.55279744 0.048458595 100 10 -0.050871093
0.034853838 0.55398554 -0.08791618 68 3 -0.050868791
0.034622196 0.54877955 0.067515619 88 11 -0.050866485
0.036122072 0.57255334 -0.070440486 94 4 -0.050864182
0.034049414 0.53820187 0.085413225 90 12 -0.050861876
0.035068125 0.55277306 -0.048458595 97 5 -0.050859574
0.036519721 0.57407308 0.11181407 100 13 -0.050857268
0.03509295 0.55012536 -0.028889451 100 6 -0.050854966
0.034984801 0.54843003 0.12687239 100 14 -0.05085266
0.036380749 0.56875092 -0.0099478718 100 7 -0.050850358
0.036107682 0.56294394 0.15115033 12 15 -0.050848052
0.038937856 0.59567088 -0.15995018 22 0 -0.050827317
0.036489319 0.5567205 0.0097384425 100 8 -0.050825015
0.041916054 0.63781095 -0.14756788 12 1 -0.050822709
0.03785165 0.5759654 0.030250184 100 9 -0.050820407
0.034595191 0.52501363 -0.10227363 63 2 -0.050818101
0.035858322 0.54273903 0.047587033 100 10 -0.050815798
0.036560304 0.5518958 -0.087603308 57 3 -0.050813492
0.036968213 0.5565846 0.06849058 87 11 -0.05081119
0.037889127 0.57044971 -0.070196748 94 4 -0.050808884
0.036096383 0.54202807 0.086038962 76 12 -0.050806582
0.036104713 0.54072595 -0.047412723 100 5 -0.050804276
0.03829224 0.57199001 0.11143246 100 13 -0.050801974
0.037451953 0.55797708 -0.029308137 100 6 -0.050799668
0.03680316 0.548311 0.12687239 100 14 -0.050797366
0.039340906 0.58458853 -0.01022711 100 7 -0.05079506
0.037974428 0.56282109 0.15115033 12 15 -0.050792757
0.037785817 0.54861659 0.0095988233 100 8 -0.050769717
0.044030752 0.63766843 -0.14756788 12 1 -0.050767414
0.040137652 0.57981479 0.030459529 100 9 -0.050765108
0.036335904 0.52489603 -0.10227363 50 2 -0.050762806
0.038347777 0.55255526 0.048458595 100 10 -0.0507605
0.038664103 0.55571282 -0.088229045 57 3 -0.050758198
0.038951725 0.5584392 0.068734311 99 11 -0.050755892
0.040572658 0.58021522 -0.071415439 93 4 -0.05075359
0.038678769 0.55175138 0.087603308 92 12 -0.050751284
0.038689986 0.55053407 -0.048284281 100 5 -0.050748982
0.039500535 0.56206769 0.10952436 100 13 -0.050746676
0.038460031 0.54589587 -0.028680107 100 6 -0.050744373
0.040227283 0.56956208 0.13182132 15 14 -0.050742067
0.040109772 0.56649536 -0.0099129668 100 7 -0.050739765
0.041853838 0.58966315 0.15839727 12 15 -0.050737463
0.040711056 0.56244266 0.0098431567 100 8 -0.050714422
0.046256535 0.63751084 -0.14756788 12 1 -0.050712116
0.041871727 0.57568711 0.030250184 100 9 -0.050709814
0.038259633 0.52475929 -0.10227363 50 2 -0.050707508
0.040663056 0.55638504 0.048807211 26 10 -0.050705206
0.040556442 0.55359733 -0.08791618 57 3 -0.0507029
0.039305527 0.53652221 0.066053197 91 11 -0.050700597
0.041579928 0.56621182 -0.069709271 88 4 -0.050698292
0.040749673 0.55358309 0.08791618 97 12 -0.050695989
0.041198067 0.55834365 -0.048981529 100 5 -0.050693683
0.042139739 0.56975079 0.11105084 100 13 -0.050691381
0.040312793 0.54375947 -0.028575433 100 6 -0.050689079
0.040870257 0.549977 0.1273223 16 14 -0.050686773
0.043865442 0.5902822 -0.010331824 100 7 -0.050684471
0.043624766 0.58566046 0.15736198 12 15 -0.050682165
0.041957136 0.55285156 -0.14856213 24 0 -0.05066143
0.04201401 0.55232 0.0096686333 100 8 -0.050659124
0.048592672 0.63733703 -0.14756788 12 1 -0.050656822
0.043273527 0.56757158 0.029831499 100 9 -0.050654516
0.040091041 0.52462256 -0.10227363 37 2 -0.050652213
0.042909425 0.56021291 0.049155835 26 10 -0.050649907
0.04309332 0.56133074 -0.089167662 52 3 -0.050647605
0.043099124 0.56012547 0.068978056 86 11 -0.050645303
0.04426562 0.5739724 -0.070684224 94 4 -0.050642997
0.041770577 0.54162031 0.086038962 88 12 -0.050640695
0.04376087 0.56614232 -0.049678776 100 5 -0.050638389
0.044734735 0.57742977 0.11257731 100 13 -0.050636087
0.042829242 0.55158049 -0.028994123 91 6 -0.050633781
0.043092076 0.55371678 0.12822211 18 14 -0.050631478
0.044994604 0.5781635 -0.010122396 100 7 -0.050629172
0.045068081 0.57780051 0.15529144 36 15 -0.05062687
0.054896787 0.69135869 -0.18583208 17 0 -0.050606132
0.045269802 0.57011843 0.0099827768 100 8 -0.050603829
0.046207335 0.57936269 0.030459529 100 9 -0.050599221
0.043642897 0.54600656 -0.10647143 24 2 -0.050596919
0.044705462 0.55807376 0.048981529 26 10 -0.050594613
0.046216555 0.57693726 -0.09167061 49 3 -0.050592311
0.044956479 0.55997944 0.068978056 86 11 -0.050590005
0.046168625 0.5738225 -0.070684224 78 4 -0.050587703
0.043502055 0.53950226 0.085726097 82 12 -0.050585397
0.045576479 0.56400013 -0.049504459 94 5 -0.050583094
0.046333209 0.5733645 0.11181407 100 13 -0.050580788
0.045947764 0.56736135 -0.029831499 88 6 -0.050578486
0.045401108 0.55939782 0.12957181 21 14 -0.05057618
0.047012649 0.57800293 -0.010122396 100 7 -0.050573878
0.046299845 0.56801242 0.15270324 75 15 -0.050571572
0.049223933 0.59490925 -0.15995018 22 0 -0.050550837
0.046268027 0.55799979 0.0097733475 100 8 -0.050548535
0.052929774 0.6369915 -0.14756788 12 1 -0.050546229
0.048458979 0.58318704 0.030668873 100 9 -0.050543927
0.043498203 0.52238101 -0.10189201 25 2 -0.050541621
0.046058714 0.55196595 0.048458595 100 10 -0.050539318
0.047242392 0.56496131 -0.089793392 49 3 -0.050537013
0.046413753 0.55388457 0.068246834 100 11 -0.05053471
0.050164532 0.59739542 -0.073609091 75 4 -0.050532404
0.046282526 0.55116564 0.087603308 69 12 -0.050530102
0.047112543 0.55987507 -0.049155835 95 5 -0.050527796
0.048004564 0.56928664 0.11105084 100 13 -0.050525494
0.047255155 0.55923688 -0.029412812 90 6 -0.050523188
0.048340175 0.57088667 0.13227122 21 14 -0.050520886
0.048760552 0.57585126 -0.010087491 100 7 -0.05051858
0.04785667 0.56400579 0.15166797 100 15 -0.050516278
0.048976123 0.56778795 -0.15270324 23 0 -0.050495543
0.04777462 0.5538587 0.0097035384 100 8 -0.050493237
0.055041995 0.63681251 -0.14756788 12 1 -0.050490934
0.050494265 0.58301437 0.030668873 100 9 -0.050488628
0.045661014 0.52613783 -0.10265525 25 2 -0.050486326
0.0479853 0.55180186 0.048458595 100 10 -0.05048402
0.04808896 0.55299389 -0.08791618 57 3 -0.050481718
0.048422199 0.55570531 0.06849058 100 11 -0.050479412
0.052145455 0.59722579 -0.073609091 82 4 -0.05047711
0.048722818 0.55690438 0.088541918 74 12 -0.050474804
0.049762174 0.56764638 -0.049853083 94 5 -0.050472502
0.049034495 0.5593456 0.10914275 95 13 -0.050470196
0.048760012 0.55509788 -0.029203467 91 6 -0.050467893
0.050232921 0.57072324 0.13227122 20 14 -0.050465588
0.050770234 0.57567757 -0.010087491 100 7 -0.050463285
0.049825013 0.56383532 0.15166797 100 15 -0.050460979
0.053375985 0.59455109 -0.15995018 22 0 -0.050422668
0.050162476 0.55766314 0.0097733475 100 8 -0.050420366
0.057375524 0.63660645 -0.14756788 12 1 -0.05041806
0.05155316 0.57089037 0.03004084 100 9 -0.050415758
0.050675433 0.56117052 -0.10952436 11 2 -0.050413452
0.051347323 0.56750518 0.049853083 100 10 -0.05041115
0.051542107 0.56855237 -0.090419129 55 3 -0.050408844
0.050459042 0.55552405 0.06849058 100 11 -0.050406542
0.052894603 0.5812152 -0.071659178 85 4 -0.050404236
0.050046016 0.54885316 0.087290443 70 12 -0.050401933
0.051743481 0.56746918 -0.049853083 94 5 -0.050399628
0.052513618 0.57480299 0.11219569 92 13 -0.050397325
0.050794095 0.55491543 -0.029203467 91 6 -0.050395019
0.052146293 0.56859469 0.13182132 17 14 -0.050392717
0.054709762 0.59540069 -0.01043654 100 7 -0.050390411
0.053307939 0.57903874 0.15580907 100 15 -0.050388109
0.05688652 0.60974908 -0.16409127 21 0 -0.050367374
0.052667242 0.56345779 0.0098780626 100 8 -0.050365068
0.059597515 0.63640231 -0.14756788 12 1 -0.050362766
0.054291788 0.57866108 0.030459529 100 9 -0.05036046
0.050799925 0.54144359 -0.10570819 12 2 -0.050358158
0.053141665 0.56533885 0.049678776 100 10 -0.050355852
0.053526565 0.56836897 -0.090419129 55 3 -0.050353549
0.054448642 0.57708406 0.071171708 22 11 -0.050351243
0.055296879 0.58497953 -0.072146654 83 4 -0.050348941
0.050844256 0.53687567 0.085413225 60 12 -0.050346635
0.05409985 0.57125217 -0.050201707 80 5 -0.050344333
0.054890219 0.57852519 0.11295893 91 13 -0.050342027
0.053675946 0.56467623 -0.029726826 77 6 -0.050339725
0.054130893 0.5684092 0.13182132 15 14 -0.050337419
0.054888107 0.57529956 -0.010087491 98 7 -0.050335117
0.054777537 0.57307982 0.15425615 22 15 -0.050332811
0.055663772 0.57493532 -0.1547738 23 0 -0.050312076
0.055985272 0.57720298 0.010122396 100 8 -0.050309774
0.061818477 0.63619041 -0.14756788 12 1 -0.050307468
0.056311514 0.57846802 0.030459529 100 9 -0.050305165
0.052689753 0.54126292 -0.10570819 12 2 -0.050302859
0.054728117 0.56118393 0.049330153 100 10 -0.050300557
0.055894248 0.57211077 -0.091044866 52 3 -0.050298251
0.056076128 0.57293916 0.070684224 100 11 -0.050295949
0.058113508 0.59268552 -0.073121615 67 4 -0.050293643
0.051945455 0.52883124 0.084161758 54 12 -0.050291341
0.05589867 0.56907701 -0.050027393 80 5 -0.050289035
0.057293992 0.58223766 0.11372217 91 13 -0.050286733
0.055646859 0.56448537 -0.029726826 89 6 -0.050284427
0.056306075 0.5701561 0.13227122 15 14 -0.050282124
0.056502353 0.57112443 -0.010017681 98 7 -0.050279822
0.056015655 0.56519532 0.1521856 25 15 -0.050277516
0.05844171 0.58242631 -0.15684435 23 0 -0.050256781
0.05639936 0.56108665 0.0098431567 100 8 -0.050254475
0.064038984 0.63597071 -0.14756788 12 1 -0.050252173
0.058530726 0.58025515 0.030564202 100 9 -0.050249867
0.057337161 0.5684225 -0.11105084 11 2 -0.050247565
0.056686297 0.56098956 0.049330153 100 10 -0.050245259
0.057891104 0.57191211 -0.091044866 52 3 -0.050242957
0.059277434 0.5845896 0.072146654 100 11 -0.050240651
0.06098403 0.60037881 -0.074096568 73 4 -0.050238349
0.055191021 0.54240334 0.086351842 52 12 -0.050236046
0.057884932 0.56887841 -0.050027393 80 5 -0.05023374
0.058728945 0.57617468 0.11257731 92 13 -0.050231438
0.057616558 0.56428772 -0.029726826 77 6 -0.050229132
0.059089247 0.57771057 0.13407083 15 14 -0.05022683
0.060126308 0.58683807 -0.01029692 81 7 -0.050224524
0.057001639 0.55538768 0.14959741 28 15 -0.050222222
0.062869601 0.605277 -0.16305602 21 0 -0.050201483
0.058150787 0.55889744 0.0098082526 100 8 -0.050199181
0.066258118 0.63574338 -0.14756788 12 1 -0.050196875
0.062110774 0.59594983 0.031401578 100 9 -0.050194573
0.059728839 0.57212418 -0.11181407 11 2 -0.050192267
0.058644321 0.56078821 0.049330153 100 10 -0.050189964
0.059475109 0.56777734 -0.090419129 52 3 -0.050187662
0.060074631 0.57253367 0.070684224 100 11 -0.050185356
0.063909523 0.60805911 -0.075071529 72 4 -0.050183054
0.057608727 0.54811096 0.087290443 58 12 -0.050180748
0.060704369 0.57659864 -0.05072464 78 5 -0.050178446
0.058680717 0.55644196 0.10876114 85 13 -0.05017614
0.059166465 0.56011075 -0.029517481 77 6 -0.050173838
0.061310682 0.57943875 0.13452074 15 14 -0.050171532
0.061651334 0.58265823 -0.01022711 82 7 -0.05016923
0.060472094 0.57056433 0.15373853 32 15 -0.050166924
0.063331842 0.58968735 -0.15891489 45 0 -0.050146189
0.060858145 0.56665456 0.0099478718 100 8 -0.050143883
0.068366125 0.6355201 -0.14756788 12 1 -0.05014158
0.062265079 0.57785749 0.030459529 100 9 -0.050139278
0.0604617 0.56020063 -0.10952436 11 2 -0.050136972
0.061029639 0.56454182 0.049678776 100 10 -0.05013467
0.063056245 0.58328843 -0.092922084 47 3 -0.050132364
0.061759073 0.57035774 0.070440486 100 11 -0.050130062
0.06592574 0.60784382 -0.075071529 65 4 -0.050127756
0.06293495 0.57932776 0.092296347 60 12 -0.050125454
0.062285807 0.57242185 -0.050376017 79 5 -0.050123148
0.060950249 0.5601477 0.10952436 84 13 -0.050120845
0.06102369 0.55991143 -0.029517481 77 6 -0.050118539
0.061962582 0.56760889 0.13182132 15 14 -0.050116237
0.064771175 0.59237868 -0.010401634 81 7 -0.050113931
0.063725404 0.58187193 0.15684435 32 15 -0.050111629
0.068264097 0.61635566 -0.16616184 42 0 -0.050090894
0.063276313 0.57041365 0.010017681 100 8 -0.050088588
0.07058426 0.63527757 -0.14756788 12 1 -0.050086286
0.063398354 0.56969661 0.03004084 100 9 -0.05008398
0.067964584 0.61072862 -0.11944644 10 2 -0.050081678
0.062901281 0.56433636 0.049678776 100 10 -0.050079372
0.065092072 0.58306479 -0.092922084 47 3 -0.05007707
0.063749768 0.57013869 0.070440486 100 11 -0.050074764
0.066942029 0.59774619 -0.073852822 60 4 -0.050072461
0.064296372 0.57321531 0.091357745 88 12 -0.050070155
0.063616402 0.56626111 -0.049853083 54 5 -0.050067853
0.063562863 0.56578451 0.11066923 72 13 -0.050065547
0.062977649 0.55969501 -0.029517481 66 6 -0.050063245
0.064598389 0.57319856 0.13317102 100 14 -0.050060939
0.064820111 0.5742653 -0.010087491 70 7 -0.050058637
0.067275122 0.59508336 0.1604678 30 15 -0.050056331
0.067886204 0.59306949 -0.15995018 44 0 -0.050035596
0.066176854 0.57813621 0.0101573 100 8 -0.050033294
0.07280153 0.63502735 -0.14756788 12 1 -0.050030988
0.067664735 0.58931404 0.031087562 100 9 -0.050028685
0.070202418 0.61047542 -0.11944644 10 2 -0.05002638
0.06542559 0.56806052 0.050027393 100 10 -0.050024077
0.06813398 0.59067184 -0.094173566 45 3 -0.050021771
0.06664931 0.57780081 0.071415439 100 11 -0.050019469
0.070395209 0.60934073 -0.075315259 50 4 -0.050017163
0.066297032 0.57298738 0.091357745 100 12 -0.050014861
0.065133832 0.56207734 -0.049504459 54 5 -0.050012555
0.066993997 0.57724875 0.11295893 70 13 -0.050010253
0.068257131 0.58723503 -0.030982887 63 6 -0.050007947
0.065797381 0.56521529 0.13137142 100 14 -0.050005645
0.064743124 0.55615896 -0.0097733475 58 7 -0.050003342
0.067562088 0.57949406 0.15632671 30 15 -0.050001036
0.07040865 0.59666598 -0.16098545 44 0 -0.049980301
0.06688711 0.56597459 0.0099478718 100 8 -0.049977995
0.075128391 0.63475627 -0.14756788 12 1 -0.049975693
0.069252059 0.58510745 0.030878218 100 9 -0.049973387
0.07880348 0.6648156 -0.13013174 9 2 -0.049971085
0.067642853 0.56980723 0.050201707 100 10 -0.049968779
0.069029503 0.58062249 -0.092609212 44 3 -0.049966477
0.073226035 0.61500478 0.076046474 100 11 -0.049964171
0.07215815 0.60513633 -0.074827783 50 4 -0.049961869
0.068296604 0.57275248 0.091357745 100 12 -0.049959563
0.065441839 0.54799825 -0.048284281 42 5 -0.04995726
0.067376748 0.56336576 0.1102876 63 13 -0.049954958
0.06911882 0.57707781 -0.030459529 64 6 -0.049952652
0.068466365 0.57078677 0.13272113 100 14 -0.04995035
0.073352665 0.61152261 -0.010750683 65 7 -0.049948044
0.069815055 0.5811727 0.15684435 27 15 -0.049945742
0.073423497 0.60408759 -0.16305602 43 0 -0.049925003
0.067798629 0.55780929 0.0098082526 100 8 -0.049922701
0.072985642 0.59874022 0.031610921 100 9 -0.049918093
0.069631316 0.56956768 0.050201707 100 10 -0.049913485
0.07071472 0.5784297 -0.092296347 39 3 -0.049911179
0.070440263 0.57535106 0.071171708 100 11 -0.049908876
0.075130649 0.61277515 -0.075802736 57 4 -0.049906574
0.072461985 0.5901565 0.094173566 100 12 -0.049904268
0.072460458 0.58929384 -0.051944822 25 5 -0.049901966
0.069723651 0.56703645 0.11105084 62 13 -0.04989966
0.07152018 0.58081001 -0.030668873 63 6 -0.049897358
0.071312688 0.57829297 0.13452074 100 14 -0.049895052
0.075486988 0.6112628 -0.010750683 52 7 -0.04989275
0.073028713 0.59051174 0.15943255 24 15 -0.049890444
0.076384284 0.61150855 -0.16512655 42 0 -0.049869709
0.071234703 0.56947452 0.010017681 79 8 -0.049867403
0.079447009 0.6342302 -0.14756788 12 1 -0.049865101
0.072340816 0.57668275 0.030459529 100 9 -0.049862795
0.071023174 0.56537986 0.049853083 100 10 -0.04985819
0.07322637 0.58209914 -0.092922084 37 3 -0.049855884
0.073688887 0.5849492 0.0723904 100 11 -0.049853582
0.077269338 0.61250913 -0.075802736 57 4 -0.049851276
0.073283538 0.58010089 0.092609212 93 12 -0.049848974
0.073767029 0.58310741 -0.051421888 26 5 -0.049846668
0.073181123 0.57847595 0.11334055 60 13 -0.049844366
0.072041214 0.56866831 -0.03004084 55 6 -0.04984206
0.072104476 0.56837422 0.13227122 100 14 -0.049839757
0.076612063 0.6030606 -0.010611064 52 7 -0.049837451
0.07655248 0.60175163 0.16253836 21 15 -0.049835149
0.079610817 0.61888874 -0.16719711 41 0 -0.049814414
0.072966874 0.56723917 0.0099827768 68 8 -0.049812108
0.074097753 0.57444596 0.030354859 100 9 -0.0498075
0.074372679 0.57499546 0.05072464 100 10 -0.049802892
0.077135682 0.59553999 -0.095112167 32 3 -0.04980059
0.077515058 0.59846902 0.074096568 100 11 -0.049798284
0.079406798 0.61223567 -0.075802736 49 4 -0.049795981
0.074290507 0.57200593 0.091357745 77 12 -0.049793676
0.076315798 0.58679789 -0.051770512 25 5 -0.049791373
0.07656841 0.58793795 0.11524864 49 13 -0.049789067
0.074899711 0.57434195 -0.030354859 64 6 -0.049786765
0.074187338 0.56810611 0.13227122 100 14 -0.049784459
0.079234406 0.6067552 -0.010680873 52 7 -0.049782157
0.078652389 0.60148072 0.16253836 20 15 -0.049779851
0.076707616 0.58030319 -0.15684435 23 0 -0.049759116
0.075570345 0.57093263 0.010052586 68 8 -0.049756814
0.083983414 0.63364547 -0.14756788 12 1 -0.049754508
0.078726582 0.59398323 0.031401578 96 9 -0.049752206
0.72193342 5.4395986 -1.0666224 2 2 -0.0497499
0.075067118 0.56485713 0.049853083 100 10 -0.049747597
0.081298485 0.61093199 -0.097615115 32 3 -0.049745291
0.07708621 0.57850385 0.071659178 100 11 -0.049742989
0.082700536 0.61981112 -0.076777697 49 4 -0.049740683
0.076548137 0.57370108 0.09167061 93 12 -0.049738381
0.076252699 0.5707292 -0.050376017 26 5 -0.049736075
0.079401389 0.59350485 0.11639349 58 13 -0.049733773
0.080351651 0.59981138 -0.031715591 61 6 -0.049731467
0.075651675 0.56398088 0.13137142 100 14 -0.049729165
0.080288351 0.59854716 -0.010541254 39 7 -0.049726859
0.079208612 0.58971459 0.15943255 18 15 -0.049724557
0.087047353 0.64128947 -0.17340876 19 0 -0.049703822
0.077193856 0.56869739 0.010017681 45 8 -0.049701516
0.079452991 0.58380967 0.030878218 98 9 -0.049696907
0.73269546 5.3767424 -1.0547922 12 2 -0.049694605
0.076499544 0.56064355 0.049504459 93 10 -0.049692299
0.0835912 0.6126163 -0.097927988 26 3 -0.049689997
0.080347665 0.58807915 0.072877876 100 11 -0.049687691
0.087176897 0.63723439 -0.078971341 40 4 -0.049685389
0.08149913 0.59495854 0.095112167 94 12 -0.049683083
0.077973865 0.56848562 -0.050201707 13 5 -0.049680781
0.082436092 0.60101849 0.11791997 57 13 -0.049678475
0.083155677 0.60547769 -0.03202961 60 6 -0.049676172
0.078849055 0.57337976 0.13362093 100 14 -0.04967387
0.083468422 0.60618722 -0.010680873 26 7 -0.049671564
0.081002921 0.58752072 0.15891489 100 15 -0.049669262
0.079454549 0.57040507 0.010052586 34 8 -0.049646221
0.081766494 0.58550686 0.030982887 73 9 -0.049641613
0.75025135 5.3723388 -1.0544106 19 2 -0.049639307
0.078358166 0.56038678 0.049504459 93 10 -0.049637005
0.084633693 0.60449553 -0.096676514 27 3 -0.049634699
0.080746323 0.57599992 0.071415439 100 11 -0.049632397
0.087745033 0.62513137 -0.077508911 42 4 -0.049630091
0.083025739 0.59075809 0.09448643 96 12 -0.049627788
0.079858765 0.56822389 -0.050201707 13 5 -0.049625486
0.082618423 0.58711833 0.11524864 69 13 -0.04962318
0.08331769 0.59133977 -0.031296905 51 6 -0.049620878
0.07921686 0.5615232 0.13092151 78 14 -0.049618572
0.087821551 0.62173247 -0.010960111 25 7 -0.04961627
0.084946558 0.60062414 0.16253836 100 15 -0.049613964
0.61586303 4.3164759 -1.1683092 0 0 -0.049593229
0.080596916 0.5641855 0.0099478718 34 8 -0.049590923
0.082960524 0.57928658 0.030668873 61 9 -0.049586315
0.77039266 5.3794031 -1.0563186 19 2 -0.049584012
0.081445135 0.56799871 0.050201707 92 10 -0.04958171
0.088427179 0.61592841 -0.098553732 23 3 -0.049579404
0.086993285 0.60518795 0.075071529 100 11 -0.049577102
0.089926787 0.62482125 -0.077508911 42 4 -0.049574796
0.085650451 0.59437513 0.095112167 84 12 -0.049572494
0.094344907 0.65471065 -0.057871412 10 5 -0.049570188
0.086069271 0.59654206 0.11715673 57 13 -0.049567886
0.087094836 0.60290569 -0.031924937 40 6 -0.04956558
0.080897123 0.55931467 0.13047162 63 14 -0.049563278
0.088844754 0.61350596 -0.010820491 12 7 -0.049560972
0.08621116 0.59458834 0.16098545 100 15 -0.049558669
0.62869143 4.2990079 -1.1641681 0 0 -0.049537931
0.084303901 0.57577229 0.0101573 22 8 -0.049535628
0.77052718 5.2560873 -1.2264332 1 1 -0.049533326
0.083432458 0.56912762 0.030145515 37 9 -0.04953102
0.78802669 5.3689117 -1.0547922 48 2 -0.049528718
0.083137527 0.56573975 0.050027393 82 10 -0.049526412
0.091726966 0.62343335 -0.099805199 21 3 -0.04952411
0.086790986 0.58916944 0.073121615 92 11 -0.049521804
0.092577055 0.62844741 -0.077996388 41 4 -0.049519502
0.087909378 0.59604198 0.095425032 89 12 -0.049517196
0.089062475 0.60313088 -0.053339314 12 5 -0.049514893
0.087576956 0.59235364 0.11639349 48 13 -0.049512587
0.089783624 0.6065495 -0.03213428 30 6 -0.049510285
0.084178336 0.56868196 0.13272113 46 14 -0.049507979
0.094396487 0.63694513 -0.01123935 12 7 -0.049505677
0.089883834 0.60576475 0.16409127 100 15 -0.049503371
0.63922459 4.2720618 -1.1574388 1 0 -0.049482636
0.088879019 0.59328824 0.010471444 10 8 -0.049480334
0.77754837 5.1841249 -1.2102367 1 1 -0.049478028
0.088281937 0.5885995 0.031192232 24 9 -0.049475726
0.80553371 5.3643279 -1.0544106 53 2 -0.04947342
0.083828166 0.55757993 0.049330153 83 10 -0.049471118
0.88766193 5.8972306 -0.94455141 6 3 -0.049468812
0.087856703 0.58298957 0.0723904 93 11 -0.049466509
0.097322755 0.64580333 -0.08019004 33 4 -0.049464203
0.089590624 0.59379399 0.095112167 94 12 -0.049461901
1.1254811 7.4506903 -0.65924603 2 5 -0.049459595
0.093063578 0.61535412 0.1209729 55 13 -0.049457293
0.093887433 0.62007165 -0.032866985 9 6 -0.049454987
0.086938798 0.57418001 0.13407083 61 14 -0.049452685
0.095908903 0.63267434 -0.011169541 12 7 -0.049450379
0.086384296 0.56917381 0.15425615 100 15 -0.049448077
0.65105128 4.2546415 -1.1532978 2 0 -0.049427342
0.088423558 0.57717717 0.010192206 11 8 -0.049425036
0.78055316 5.0890598 -1.1886414 8 1 -0.049422733
0.087910749 0.5724948 0.030354859 12 9 -0.049420428
0.8236149 5.3635678 -1.0547922 57 2 -0.049418125
0.085374117 0.55532962 0.049155835 73 10 -0.049415819
0.89879763 5.8395877 -0.93579108 11 3 -0.049413517
0.089789368 0.58269507 0.0723904 81 11 -0.049411211
0.10230027 0.66311663 -0.082383685 31 4 -0.049408909
0.090456873 0.58566862 0.093860693 86 12 -0.049406603
1.1468356 7.4252582 -0.65732861 9 5 -0.049404301
0.090903655 0.58787942 0.11563025 39 13 -0.049401995
0.093498908 0.60396695 -0.03202961 10 6 -0.049399693
0.091031939 0.58735323 0.13722014 73 14 -0.049397387
0.089260079 0.57459569 0.15580907 85 15 -0.049392782
0.66888672 4.2714295 -1.1584741 2 0 -0.049372043
0.090437897 0.57686496 0.010192206 11 8 -0.049369741
0.79861355 5.0882292 -1.1890913 8 1 -0.049367435
0.093628816 0.59586108 0.031610921 11 9 -0.049365133
0.84355003 5.3684177 -1.0563186 25 2 -0.049362827
0.090408392 0.57471007 0.050898954 60 10 -0.049360525
0.91825306 5.8305612 -0.93485248 18 3 -0.049358219
0.095223531 0.6039477 0.075071529 89 11 -0.049355917
0.10182893 0.6451081 -0.08019004 26 4 -0.049353611
0.095892251 0.60681218 0.097302251 87 12 -0.049351308
1.1724349 7.4192424 -0.65715432 27 5 -0.049349003
0.096942946 0.61276734 0.12059129 46 13 -0.0493467
0.094302252 0.59473073 0.13901976 87 14 -0.049342092
0.093691051 0.58954388 0.15995018 82 15 -0.049337484
0.68440479 4.2728829 -1.1595093 3 0 -0.049316749
0.097516663 0.60813731 0.010750683 10 8 -0.049314443
0.82100457 5.1142726 -1.1958399 1 1 -0.049312141
0.096976019 0.60341841 0.03202961 11 9 -0.049309835
0.95169175 5.9217558 -1.165843 28 2 -0.049307533
0.088615991 0.55078584 0.048807211 21 10 -0.049305227
1.1173378 6.937007 -1.1128749 1 3 -0.049302924
