# .PCD v0.7 - Point Cloud Data file format
VERSION 0.7
FIELDS x y z intensity ring time
SIZE 4 4 4 4 2 4
TYPE F F F F U F
COUNT 1 1 1 1 1 1
WIDTH 886
HEIGHT 1
VIEWPOINT 0 0 0 1 0 0 0
POINTS 886
DATA ascii
-0.21848422 0.68501443 -0.037681893 60 6 -0.090888001
-0.24620266 0.77238572 0.18715927 14 14 -0.090885691
-0.20879972 0.65544069 -0.012007256 11 7 -0.090883389
-0.1914905 0.60402018 -0.16978529 100 0 -0.090860352
-0.20001107 0.63166189 -0.15296671 11 1 -0.09085574
-0.19428182 0.61394042 -0.12517071 9 2 -0.090851136
-0.17740613 0.56129348 -0.093234949 37 3 -0.090846524
-0.24813689 0.78555489 0.10115156 61 11 -0.090844221
-0.19541189 0.61901355 -0.079702556 100 4 -0.090841919
-0.24070622 0.76295787 0.12671193 100 12 -0.090839617
-0.20381469 0.64602411 -0.0592659 73 5 -0.090837307
-0.23850638 0.75644511 0.15417367 80 13 -0.090835005
-0.20408678 0.64767438 -0.035588451 34 6 -0.090832703
-0.73988122 2.3494611 0.56867629 8 14 -0.090830401
-0.2101126 0.66761029 -0.012216684 10 7 -0.090828098
-0.19342241 0.61758977 -0.17340876 100 0 -0.090805054
-0.18875469 0.60305393 0.011029921 10 8 -0.090802751
-0.19082372 0.61003774 -0.14756788 12 1 -0.090800449
-0.17456387 0.55840015 -0.11372217 11 2 -0.090795837
-0.17662337 0.5656805 -0.093860693 37 3 -0.090791233
-0.23415823 0.75041169 0.096520528 66 11 -0.090788923
-0.19335793 0.61965817 -0.079702556 99 4 -0.090786621
-0.23935117 0.76752341 0.12733766 100 12 -0.090784319
-0.19978009 0.64102513 -0.05874297 53 5 -0.090782017
-0.23878334 0.76664531 0.15608177 63 13 -0.090779714
-0.19232725 0.61787063 -0.033913702 27 6 -0.090777405
-0.73092818 2.3481805 0.5677765 19 14 -0.090775102
-0.19601755 0.63011467 -0.011518588 11 7 -0.0907728
-0.18908842 0.61084598 -0.17133822 80 0 -0.090749756
-0.1855717 0.59985584 0.010960111 10 8 -0.090747453
-0.18879955 0.61066723 -0.14756788 12 1 -0.090745151
-0.19055051 0.61633068 0.033809032 10 9 -0.090742849
-0.18082525 0.58523655 -0.11906482 10 2 -0.090740547
-0.17358139 0.56248802 -0.093234949 35 3 -0.090735935
-0.23751885 0.77015334 0.098957919 67 11 -0.090733632
-0.18662195 0.60512048 -0.077752642 82 4 -0.09073133
-0.23505896 0.76264977 0.12639906 100 12 -0.090729021
-0.19354755 0.62835538 -0.057522789 22 5 -0.090726718
-0.23855032 0.77493834 0.15760824 60 13 -0.090724416
-0.19027708 0.61850506 -0.033913702 27 6 -0.090722114
-0.72772074 2.3654923 0.57137567 22 14 -0.090719804
-0.19627768 0.63840675 -0.011658208 23 7 -0.090717502
-0.18310586 0.59853822 -0.16771474 83 0 -0.090694465
-0.17948902 0.58708167 0.010715778 31 8 -0.090692163
-0.18677358 0.61128992 -0.14756788 12 1 -0.090689853
-0.18606496 0.60935122 0.033390343 22 9 -0.090687551
-0.16627009 0.54452425 -0.11066923 11 2 -0.090685248
-0.18957588 0.62123734 0.056825541 8 10 -0.090682946
-0.17402022 0.57061839 -0.09448643 35 3 -0.090680636
-0.23438504 0.76903784 0.09871418 67 11 -0.090678334
-0.18624388 0.6114651 -0.078483865 68 4 -0.090676032
-0.22664317 0.74456793 0.12327038 100 12 -0.09067373
-0.18671399 0.61377817 -0.056128301 23 5 -0.09067142
-0.23883589 0.78511655 0.15951632 57 13 -0.090669118
-0.18241541 0.60002363 -0.032866985 38 6 -0.090666816
-0.72455817 2.384799 0.57542479 15 14 -0.090664513
-0.18591414 0.61229998 -0.011169541 24 7 -0.090662204
-0.17950337 0.59155774 0.1656442 11 15 -0.090659901
-0.179794 0.59550655 -0.16667947 84 0 -0.090639167
-0.1791724 0.59344769 0.010820491 51 8 -0.090636864
-0.18463849 0.61193824 -0.14756788 12 1 -0.090634562
-0.18451323 0.61190927 0.033495016 43 9 -0.090632252
-0.16427305 0.54513001 -0.11066923 11 2 -0.09062995
-0.17810498 0.59140396 0.054036558 27 10 -0.090627648
-0.16908097 0.56179458 -0.092922084 40 3 -0.090625346
-0.225978 0.75084275 0.09627679 59 11 -0.090623036
-0.18525167 0.61591339 -0.078971341 60 4 -0.090620734
-0.22688574 0.75481337 0.12483472 100 12 -0.090618432
-0.17597248 0.58580375 -0.053513624 24 5 -0.090616129
-0.23256993 0.77470452 0.15722662 61 13 -0.09061382
-0.18767628 0.62555748 -0.034227718 54 6 -0.090611517
-0.72420698 2.4154387 0.58217329 8 14 -0.090609215
-0.18607299 0.6206069 -0.011309159 48 7 -0.090606913
-0.16191171 0.54036492 0.15115033 12 15 -0.090604603
-0.17937005 0.60168451 -0.16823238 83 0 -0.090583868
-0.17299955 0.5806852 0.010576158 74 8 -0.090581566
-0.18239452 0.61261082 -0.14756788 12 1 -0.090579264
-0.18397816 0.61832434 0.033809032 64 9 -0.090576962
-0.15900993 0.5344097 -0.10837951 23 2 -0.090574652
-0.17831111 0.59966105 0.054733805 54 10 -0.09057235
-0.1643056 0.55291367 -0.091357745 39 3 -0.090570047
-0.21474779 0.72312158 0.092620708 59 11 -0.090567745
-0.18129848 0.61087918 -0.078240126 61 4 -0.090565436
-0.22467954 0.75753361 0.12514758 100 12 -0.090563133
-0.18231741 0.61509842 -0.056128301 23 5 -0.090560831
-0.23098029 0.77927619 0.15798986 60 13 -0.090558529
-0.17584805 0.59365356 -0.032448296 49 6 -0.090556219
-0.71909052 2.4291632 0.58487272 1 14 -0.090553917
-0.18606634 0.62895495 -0.011448778 59 7 -0.090551615
-0.15992995 0.54095477 0.15115033 12 15 -0.090549313
-0.17443782 0.59307122 -0.1656442 42 0 -0.090528578
-0.17209989 0.58512247 0.010645968 73 8 -0.090526268
-0.18025483 0.61324382 -0.14756788 12 1 -0.090523966
-0.17168649 0.58446944 0.031924937 70 9 -0.090521663
-0.16147396 0.55005908 -0.11143246 22 2 -0.090519361
-0.17499015 0.59648705 0.054385182 63 10 -0.090517052
-0.16227807 0.5535121 -0.091357745 47 3 -0.090514749
-0.20049439 0.68386364 0.087502196 59 11 -0.090512447
-0.1774907 0.60579324 -0.077508911 63 4 -0.090510145
-0.22147863 0.75641757 0.12483472 87 12 -0.090507835
-0.17177606 0.58704799 -0.053513624 24 5 -0.090505533
-0.22702031 0.77634895 0.15722662 56 13 -0.090503231
-0.16974954 0.5808745 -0.031715591 61 6 -0.090500928
-0.18050613 0.6180836 -0.01123935 73 7 -0.090496317
-0.16561811 0.56747246 0.15839727 12 15 -0.090494014
-0.17452125 0.6010974 -0.16771474 20 0 -0.090473279
-0.17274041 0.59535176 0.010820491 82 8 -0.090470977
-0.17800611 0.6139003 -0.14756788 12 1 -0.090468667
-0.17020133 0.5869835 0.03202961 81 9 -0.090466365
-0.15190323 0.52421981 -0.10608982 24 2 -0.090464063
-0.16791938 0.57987028 0.052816376 76 10 -0.090461761
-0.16089395 0.55597275 -0.09167061 47 3 -0.090459451
-0.18199305 0.62929243 0.080433771 60 11 -0.090457149
-0.17196231 0.59499741 -0.076046474 64 4 -0.090454847
-0.21554624 0.74579978 0.1229575 84 12 -0.090452544
-0.16862024 0.58381563 -0.053165 24 5 -0.090450242
-0.22757575 0.78845406 0.15951632 47 13 -0.090447932
-0.16938162 0.58722055 -0.03202961 60 6 -0.09044563
-0.17613213 0.61102396 -0.011099731 74 7 -0.090441026
-0.15828875 0.54948342 0.15322088 12 15 -0.090438716
-0.17774378 0.62027395 -0.17289113 19 0 -0.090417981
-0.16856191 0.58823192 0.010680873 94 8 -0.090415679
-0.17596948 0.61448717 -0.14756788 12 1 -0.090413377
-0.16870068 0.58949423 0.03213428 93 9 -0.090411074
-0.15439092 0.53984749 -0.10914275 11 2 -0.090408765
-0.16917941 0.59194702 0.053862248 74 10 -0.090406463
-0.15959233 0.55840254 -0.091983475 49 3 -0.09040416
-0.17227273 0.6031698 0.077021435 64 11 -0.090401858
-0.17216747 0.60319984 -0.077021435 63 4 -0.090399548
-0.20698121 0.72565204 0.11951595 65 12 -0.090397246
-0.16111949 0.56524009 -0.051421888 26 5 -0.090394944
-0.22442152 0.7873165 0.15913472 43 13 -0.090392642
-0.16907473 0.59354162 -0.032343626 69 6 -0.090390332
-0.17071505 0.60009485 -0.010890301 76 7 -0.090385728
-0.15319994 0.53888333 0.15011506 12 15 -0.090383425
-0.18830985 0.66547275 -0.18531445 17 0 -0.09036269
-0.16378672 0.57919568 0.01050635 96 8 -0.090360381
-0.1738233 0.6150977 -0.14756788 12 1 -0.090358078
-0.16891763 0.59773833 0.032552969 91 9 -0.090355776
-0.14406292 0.51012677 -0.10303687 25 2 -0.090353474
-0.16126268 0.57141238 0.051944822 87 10 -0.090351164
-0.15442483 0.54754895 -0.090106264 52 3 -0.090348862
-0.17662837 0.62669533 0.079946294 81 11 -0.09034656
-0.17006098 0.60379714 -0.077021435 63 4 -0.090344258
-0.19118556 0.67879939 0.11169422 37 12 -0.090341948
-0.15978414 0.56768912 -0.051596198 25 5 -0.090339646
-0.22007731 0.78242522 0.15798986 40 13 -0.090337344
-0.16970427 0.60374182 -0.032866985 77 6 -0.090335041
-0.16764268 0.59680724 -0.010820491 77 7 -0.090330429
-0.14410266 0.51334894 0.14286812 13 15 -0.090328127
-0.15971419 0.57203138 0.010366729 97 8 -0.09030509
-0.17178272 0.61567074 -0.14756788 12 1 -0.09030278
-0.16682994 0.59832436 0.032552969 91 9 -0.090300478
-0.14544329 0.52197379 -0.10532658 24 2 -0.090298176
-0.15926722 0.57197177 0.051944822 87 10 -0.090295874
-0.14889914 0.53473717 -0.08791618 60 3 -0.090293564
-0.1708239 0.61389065 0.078240126 94 11 -0.090291262
-0.16912156 0.60818279 -0.077508911 63 4 -0.090288959
-0.16554347 0.5957194 0.097927988 46 12 -0.090286657
-0.16153319 0.58168161 -0.052816376 50 5 -0.090284348
-0.21170278 0.76234251 0.15379207 38 13 -0.090282045
-0.15648569 0.56388623 -0.030668873 74 6 -0.090279743
-0.16983071 0.61280537 -0.011099731 74 7 -0.090275139
-0.14952858 0.53991359 0.15011506 12 15 -0.090272829
-0.15920848 0.57839698 0.010471444 96 8 -0.090252005
-0.16050279 0.58349717 0.031715591 95 9 -0.090247393
-0.15298676 0.55655295 -0.11219569 33 2 -0.09024509
-0.15938054 0.58020914 0.05264207 86 10 -0.090242788
-0.15007554 0.54670876 -0.089793392 60 3 -0.090240486
-0.16542196 0.60302633 0.076777697 96 11 -0.090238176
-0.16164303 0.58965403 -0.075071529 65 4 -0.090235874
-0.16189639 0.59057826 0.096989378 51 12 -0.090233572
-0.15897547 0.5803203 -0.05264207 62 5 -0.09023127
-0.19542947 0.71388006 0.14386998 46 13 -0.09022896
-0.15705286 0.57408834 -0.031192232 72 6 -0.090226658
-0.17138202 0.62689674 -0.011344064 84 7 -0.090222053
-0.14866111 0.54415947 0.15115033 12 15 -0.090219744
-0.157814 0.5808515 0.01050635 96 8 -0.090196706
-0.16748033 0.61685503 -0.14756788 12 1 -0.090194404
-0.16003413 0.5898366 0.03202961 93 9 -0.090192102
-0.14641918 0.54003006 -0.10876114 35 2 -0.090189792
-0.15527022 0.57306975 0.051944822 87 10 -0.09018749
-0.14619553 0.53957695 -0.088541918 63 3 -0.090185188
-0.16445905 0.60740376 0.077265166 95 11 -0.090182886
-0.1581312 0.5844382 -0.074340306 59 4 -0.090180576
-0.15725604 0.5816052 0.095425032 73 12 -0.090178274
-0.15798832 0.58471853 -0.05299069 75 5 -0.090175971
-0.19459754 0.72021008 0.14501485 52 13 -0.090173669
-0.15671 0.58039069 -0.031506252 82 6 -0.090171359
-0.19392468 0.71871597 0.17186262 9 14 -0.090169057
-0.16294573 0.60432231 -0.010925207 89 7 -0.090166755
-0.14676058 0.54467511 0.15115033 12 15 -0.090164453
-0.15785554 0.58912504 0.010645968 94 8 -0.090141408
-0.16532591 0.61743593 -0.14756788 12 1 -0.090139106
-0.15704392 0.58650547 0.031820264 82 9 -0.090136804
-0.13955303 0.5215472 -0.10494495 49 2 -0.090134501
-0.15233952 0.56973201 0.051596198 88 10 -0.090132192
-0.14635073 0.54771763 -0.089793392 60 3 -0.09012989
-0.15875292 0.59454882 0.075558998 88 11 -0.090127587
-0.15711384 0.5888226 -0.074827783 65 4 -0.090125285
-0.15481709 0.58021504 0.095112167 78 12 -0.090122975
-0.14783522 0.55443716 -0.050201707 80 5 -0.090120673
-0.18197258 0.6829437 0.13738248 44 13 -0.090118371
-0.15314151 0.57514405 -0.031192232 93 6 -0.090116069
-0.1849004 0.69490671 0.16601388 20 14 -0.090113766
-0.16094066 0.60485935 -0.010925207 89 7 -0.090111457
-0.1399895 0.5264889 0.14597395 13 15 -0.090109155
-0.15181197 0.57417917 0.010366729 97 8 -0.090086117
-0.16327764 0.61798072 -0.14756788 12 1 -0.090083808
-0.1539761 0.58318788 0.031610921 83 9 -0.090081505
-0.13322416 0.50494653 -0.10151039 37 2 -0.090079203
-0.1493341 0.56640714 0.051247574 90 10 -0.090076901
-0.14151214 0.53673935 -0.08791618 66 3 -0.090074591
-0.15374611 0.58355457 0.074096568 90 11 -0.090072289
-0.15414967 0.58550096 -0.074340306 59 4 -0.090069987
-0.15530394 0.59030366 0.096676514 100 12 -0.090067685
-0.14792548 0.56265748 -0.050898954 78 5 -0.090065382
-0.16023874 0.60949284 0.12249938 18 13 -0.090063073
-0.15224853 0.57951212 -0.031401578 93 6 -0.090060771
-0.18160546 0.69174623 0.16511407 31 14 -0.090058468
-0.15781356 0.60154891 -0.010855397 89 7 -0.090056166
-0.13717116 0.52323693 0.14493866 13 15 -0.090053856
-0.14678024 0.56309539 0.0101573 100 8 -0.090030819
-0.16111933 0.61854696 -0.14756788 12 1 -0.090028517
-0.15596446 0.59918457 0.032448296 80 9 -0.090026207
-0.13154908 0.50538552 -0.10151039 25 2 -0.090023905
-0.14544867 0.5591864 0.05055033 91 10 -0.090021603
-0.13764983 0.52958268 -0.086664706 68 3 -0.090019301
-0.15071024 0.58024496 0.073609091 100 11 -0.090016998
-0.15310219 0.58987838 -0.074827783 58 4 -0.090014689
-0.15324229 0.59084219 0.096676514 100 12 -0.090012386
-0.15045917 0.58052844 -0.05246776 75 5 -0.090010084
-0.15663241 0.60434711 0.12135453 27 13 -0.090007782
-0.15072533 0.58197361 -0.031506252 82 6 -0.090005472
-0.15917107 0.61502612 0.14666808 13 14 -0.09000317
-0.15671402 0.60596818 -0.010925207 89 7 -0.090000868
-0.13244355 0.51249021 0.14183284 13 15 -0.089998566
-0.1721116 0.66984487 -0.18531445 17 0 -0.089977823
-0.14680447 0.57135147 0.01029692 99 8 -0.089975521
-0.15895936 0.61910558 -0.14756788 12 1 -0.089973219
-0.15089364 0.58811784 0.031820264 82 9 -0.089970917
-0.13359636 0.52107829 -0.10456334 36 2 -0.089968614
-0.14636515 0.57129604 0.051596198 88 10 -0.089966305
-0.13766769 0.5377382 -0.08791618 66 3 -0.089964002
-0.14769906 0.57692134 0.073121615 100 11 -0.0899617
-0.14907436 0.58271658 -0.073852822 52 4 -0.089959398
-0.15068981 0.58945966 0.096363649 100 12 -0.089957088
-0.14547317 0.56946766 -0.051421888 91 5 -0.089954786
-0.15344526 0.60111254 0.12059129 37 13 -0.089952484
-0.13970555 0.54768687 -0.029622154 89 6 -0.089950182
-0.13573712 0.53251749 0.12687239 16 14 -0.089947872
-0.15657365 0.61426234 -0.011064826 87 7 -0.08994557
-0.13732967 0.5391584 0.14907978 13 15 -0.089943267
-0.14667167 0.57964003 0.01043654 96 8 -0.08992023
-0.15668899 0.61968404 -0.14756788 12 1 -0.089917921
-0.14883965 0.58864105 0.031820264 94 9 -0.089915618
-0.13321956 0.52725166 -0.10570819 36 2 -0.089913316
-0.14290671 0.56600815 0.051073264 80 10 -0.089911014
-0.13578966 0.53821552 -0.08791618 71 3 -0.089908704
-0.15334815 0.60825658 0.077021435 100 11 -0.089906402
-0.14208803 0.56400961 -0.071415439 54 4 -0.0899041
-0.14814857 0.58806652 0.096050769 100 12 -0.089901797
-0.14348431 0.56997198 -0.051421888 91 5 -0.089899488
-0.15134618 0.60164446 0.12059129 55 13 -0.089897186
-0.14509626 0.57722622 -0.031192232 93 6 -0.089894883
-0.13387731 0.53298807 0.12687239 16 14 -0.089892581
-0.15540266 0.61868417 -0.011134635 99 7 -0.089890271
-0.13544694 0.53963447 0.14907978 13 15 -0.089887969
-0.14378032 0.5762428 0.010366729 100 8 -0.089864932
-0.1546333 0.62020022 -0.14756788 12 1 -0.08986263
-0.14630157 0.58721882 0.031715591 95 9 -0.08986032
-0.12426382 0.49913704 -0.099983923 25 2 -0.089858018
-0.1414112 0.56843698 0.051247574 90 10 -0.089855716
-0.13400424 0.53866285 -0.08791618 77 3 -0.089853413
-0.15420344 0.62032062 0.078483865 100 11 -0.089851104
-0.13925992 0.56062454 -0.070927963 63 4 -0.089848801
-0.14514329 0.58474565 0.095425032 100 12 -0.089846499
-0.13957542 0.56273419 -0.05072464 91 5 -0.089844197
-0.15124057 0.60976517 0.12211777 73 13 -0.089841887
-0.14125952 0.56994975 -0.030773545 95 6 -0.089839585
-0.12648757 0.51072997 0.12147357 17 14 -0.089837283
-0.14747736 0.59592921 -0.010715778 100 7 -0.089834981
-0.12892471 0.52135044 0.1439034 13 15 -0.089832678
-0.13938117 0.5670318 0.010192206 100 8 -0.089809634
-0.15246759 0.62073618 -0.14756788 12 1 -0.089807332
-0.14425074 0.587726 0.031715591 95 9 -0.089805029
-0.12588382 0.51289296 -0.10265525 50 2 -0.08980272
-0.13620323 0.55535752 0.050027393 82 10 -0.089800417
-0.1293021 0.52761567 -0.086038962 79 3 -0.089798115
-0.15298162 0.62471122 0.078971341 100 11 -0.089795813
-0.14296392 0.58424574 -0.073852822 52 4 -0.089793503
-0.14357057 0.58716762 0.095737904 100 12 -0.089791201
-0.13676222 0.55932313 -0.050376017 92 5 -0.089788899
-0.14538351 0.5950321 0.11906482 76 13 -0.089786597
-0.13879532 0.56849915 -0.030668873 100 6 -0.089784294
-0.13024627 0.53388703 0.12687239 16 14 -0.089781985
-0.1463439 0.60032588 -0.010785587 100 7 -0.089779682
-0.12344626 0.50678152 0.13976228 14 15 -0.08977738
-0.1383425 0.57140183 0.010262014 100 8 -0.089754336
-0.15029973 0.62126464 -0.14756788 12 1 -0.089752033
-0.14454468 0.5979327 0.032238953 92 9 -0.089749731
-0.12409259 0.51332927 -0.10265525 62 2 -0.089747429
-0.13519986 0.55970281 0.050376017 81 10 -0.089745119
-0.12653248 0.52422339 -0.085413225 79 3 -0.089742817
-0.14009497 0.58085716 0.073365353 100 11 -0.089740515
-0.1362731 0.56544274 -0.071415439 62 4 -0.089738213
-0.14151995 0.5876652 0.095737904 100 12 -0.08973591
-0.13527532 0.56173426 -0.05055033 100 5 -0.089733601
-0.14146818 0.58790094 0.11753836 77 13 -0.089731298
-0.13587658 0.56509626 -0.030459529 100 6 -0.089728996
-0.12382943 0.51539022 0.12237337 17 14 -0.089726694
-0.14518097 0.60472202 -0.010855397 100 7 -0.089724384
-0.12257817 0.51096642 0.14079757 13 15 -0.089722082
-0.13681071 0.57382649 0.01029692 100 8 -0.089699045
-0.14813003 0.62178552 -0.14756788 12 1 -0.089696735
-0.13783152 0.57900393 0.031192232 100 9 -0.089694433
-0.12411866 0.52139878 -0.10418171 37 2 -0.089692131
-0.13462834 0.56598634 0.050898954 90 10 -0.089689828
-0.12652881 0.53234929 -0.086664706 85 3 -0.089687526
-0.14081882 0.59293073 0.074827783 100 11 -0.089685217
-0.1315482 0.5543263 -0.069953009 72 4 -0.089682914
-0.14174648 0.5977661 0.097302251 100 12 -0.089680612
-0.13377321 0.56414163 -0.05072464 91 5 -0.08967831
-0.13941528 0.58839118 0.11753836 77 13 -0.089676
-0.13390304 0.56556714 -0.030459529 100 6 -0.089673698
-0.11754312 0.49685544 0.11787436 17 14 -0.089671396
-0.14306934 0.60522509 -0.010855397 100 7 -0.089669093
-0.12523462 0.53019232 0.14597395 13 15 -0.089666784
-0.13434972 0.57235378 0.010262014 100 8 -0.089643747
-0.14595911 0.62229872 -0.14756788 12 1 -0.089641444
-0.1353537 0.577537 0.031087562 100 9 -0.089639142
-0.12229775 0.52182889 -0.10418171 49 2 -0.089636832
-0.13174313 0.56257308 0.05055033 91 10 -0.08963453
-0.12557031 0.53663445 -0.087290443 85 3 -0.089632228
-0.14100783 0.60308355 0.076046474 100 11 -0.089629926
-0.12825747 0.54898304 -0.069221795 81 4 -0.089627616
-0.13651599 0.58479154 0.095112167 100 12 -0.089625314
-0.1308977 0.56072462 -0.050376017 92 5 -0.089623012
-0.14137417 0.6060816 0.1209729 83 13 -0.089620709
-0.13011444 0.55825067 -0.03004084 100 6 -0.0896184
-0.1158084 0.49726263 0.11787436 17 14 -0.089616098
-0.1373298 0.59013957 -0.010576158 100 7 -0.089613795
-0.1172576 0.50428313 0.13872701 28 15 -0.089611493
-0.13325147 0.57671595 0.010331824 100 8 -0.089588448
-0.14378582 0.62280446 -0.14756788 12 1 -0.089586146
-0.13513279 0.58579051 0.031506252 100 9 -0.089583844
-0.11606257 0.50312251 -0.10036553 63 2 -0.089581542
-0.12709363 0.55138063 0.049504459 93 10 -0.089579232
-0.12502627 0.54284441 -0.088229045 84 3 -0.08957693
-0.13623045 0.59196496 0.074584045 100 11 -0.089574628
-0.12634049 0.54942739 -0.069221795 81 4 -0.089572325
-0.13358898 0.5814141 0.09448643 100 12 -0.089570016
-0.12626252 0.54952741 -0.049330153 95 5 -0.089567713
-0.13969684 0.60848492 0.12135453 74 13 -0.089565411
-0.12905823 0.56259477 -0.030250184 100 6 -0.089563109
-0.11233022 0.49006593 0.11607475 17 14 -0.089560799
-0.13571528 0.59256464 -0.010611064 100 7 -0.089558497
-0.11420386 0.49903986 0.1371741 28 15 -0.089556195
-0.12946393 0.56937796 0.010192206 100 8 -0.089533158
-0.1416111 0.62330252 -0.14756788 12 1 -0.089530848
-0.1348559 0.59404939 0.031924937 100 9 -0.089528546
-0.11430574 0.50352454 -0.10036553 51 2 -0.089526244
-0.12428655 0.54793483 0.049155835 94 10 -0.089523941
-0.12051095 0.53171849 -0.086351842 90 3 -0.089521632
-0.13723281 0.60598934 0.07629022 100 11 -0.089519329
-0.12573603 0.55567348 -0.069953009 96 4 -0.089517027
-0.13286565 0.58765703 0.095425032 100 12 -0.089514725
-0.12434366 0.54996473 -0.049330153 95 5 -0.089512415
-0.13540931 0.59939384 0.11944644 84 13 -0.089510113
-0.12753326 0.56499016 -0.030354859 96 6 -0.089507811
-0.1149063 0.50946498 0.12057376 17 14 -0.089505509
-0.13320678 0.59108388 -0.010576158 100 7 -0.089503206
-0.11330982 0.50320482 0.13820937 28 15 -0.089500897
-0.12747575 0.56982642 0.010192206 100 8 -0.089477859
-0.13943432 0.62379313 -0.14756788 12 1 -0.089475557
-0.13070661 0.58474755 0.031401578 100 9 -0.089473248
-0.11768252 0.52691305 -0.10494495 61 2 -0.089470945
-0.12237326 0.54836529 0.049155835 94 10 -0.089468643
-0.11779421 0.5282799 -0.085726097 93 3 -0.089466341
-0.12993634 0.58321363 0.073365353 100 11 -0.089464031
-0.12552109 0.56385964 -0.070927963 94 4 -0.089461729
-0.13220373 0.59387904 0.096363649 100 12 -0.089459427
-0.12458597 0.56011975 -0.050201707 80 5 -0.089457124
-0.13289011 0.59794629 0.11906482 76 13 -0.089454822
-0.12382854 0.5576328 -0.02993617 100 6 -0.089452513
-0.11397158 0.51366788 0.12147357 17 14 -0.08945021
-0.13167895 0.59347463 -0.010611064 100 7 -0.089447908
-0.11498563 0.51866621 0.14235048 27 15 -0.089445606
-0.12644573 0.57415169 0.010262014 100 8 -0.089422561
-0.13736512 0.62425202 -0.14756788 12 1 -0.089420259
-0.12866451 0.58520025 0.031401578 100 9 -0.089417957
-0.11584264 0.52732062 -0.10494495 49 2 -0.089415655
-0.12216711 0.55657333 0.049853083 92 10 -0.089413345
-0.11688885 0.53252649 -0.086351842 93 3 -0.089411043
-0.12885195 0.58751929 0.073852822 100 11 -0.08940874
-0.11855169 0.54100376 -0.068003103 99 4 -0.089406438
-0.13139752 0.60012585 0.097302251 100 12 -0.089404128
-0.12050088 0.55081952 -0.049330153 81 5 -0.089401826
-0.12922807 0.59071219 0.11753836 77 13 -0.089399524
-0.1202728 0.55023557 -0.029517481 100 6 -0.089397222
-0.10977259 0.5026198 0.11877415 17 14 -0.089394912
-0.13088538 0.59979182 -0.010715778 100 7 -0.08939261
-0.11029375 0.50585186 0.13872701 28 15 -0.089390308
-0.1223243 0.56481767 0.010087491 100 8 -0.08936727
-0.13518506 0.62472773 -0.14756788 12 1 -0.089364961
-0.12493283 0.57783723 0.030982887 100 9 -0.089362659
-0.11077413 0.51235062 -0.10189201 50 2 -0.089360356
-0.12158272 0.56281781 0.050376017 100 10 -0.089358054
-0.11502914 0.53293127 -0.086351842 99 3 -0.089355744
-0.13014834 0.6034894 0.075802736 100 11 -0.089353442
-0.11749867 0.54529548 -0.06849058 97 4 -0.08935114
-0.1230653 0.57161391 0.092609212 100 12 -0.089348838
-0.11951245 0.55511159 -0.049678776 81 5 -0.089346528
-0.12799118 0.5949983 0.11830158 76 13 -0.089344226
-0.12170872 0.56627345 -0.030354859 100 6 -0.089341924
-0.10719926 0.49918938 0.11787436 35 14 -0.089339621
-0.12711298 0.59242421 -0.010576158 100 7 -0.089337312
-0.10812224 0.50434488 0.13820937 42 15 -0.089335009
-0.12285076 0.57697636 0.01029692 100 8 -0.089311972
-0.13300367 0.6251958 -0.14756788 12 1 -0.08930967
-0.12374568 0.58217698 0.031192232 100 9 -0.08930736
-0.11102606 0.52233589 -0.1038001 74 2 -0.089305058
-0.1192036 0.56128991 0.050201707 100 10 -0.089302756
-0.11480837 0.54105884 -0.087603308 99 3 -0.089300454
-0.12392374 0.58452076 0.073365353 100 11 -0.089298144
-0.11477163 0.54181826 -0.068003103 100 4 -0.089295842
-0.11984232 0.56624234 0.09167061 100 12 -0.08929354
-0.11056093 0.5223887 -0.046715476 58 5 -0.089291237
-0.1263195 0.59736234 0.1186832 66 13 -0.089288928
-0.11890543 0.56278664 -0.030145515 100 6 -0.089286625
-0.10626122 0.50337392 0.11877415 17 14 -0.089284323
-0.12091724 0.57329792 -0.01022711 100 7 -0.089282021
-0.10158069 0.48203528 0.13199772 44 15 -0.089279711
-0.12198245 0.58237237 -0.15943255 22 0 -0.089258976
-0.11673971 0.55782878 0.0099478718 100 8 -0.089256674
-0.13082035 0.62565631 -0.14756788 12 1 -0.089254372
-0.120896 0.57869524 0.030982887 100 9 -0.08925207
-0.1071948 0.51311141 -0.10189201 63 2 -0.08924976
-0.11683637 0.55975223 0.050027393 100 10 -0.089247458
-0.10969264 0.52598619 -0.08510036 93 3 -0.089245155
-0.12188303 0.58494967 0.073365353 100 11 -0.089242853
-0.11490268 0.55193275 -0.069221795 100 4 -0.089240544
-0.11826716 0.56859118 0.091983475 100 12 -0.089238241
-0.1107653 0.53252465 -0.047587033 70 5 -0.089235939
-0.12303555 0.59203297 0.11753836 57 13 -0.089233637
-0.11694033 0.56319821 -0.030145515 100 6 -0.089231327
-0.099753171 0.48084441 0.11337533 18 14 -0.089229025
-0.12053885 0.58154875 -0.010366729 100 7 -0.089226723
-0.10068106 0.48617026 0.13303299 29 15 -0.08922442
-0.1139861 0.55431551 0.0098780626 100 8 -0.089201376
-0.12088312 0.58889616 0.031506252 100 9 -0.089196771
-0.10382383 0.50578988 -0.10036553 51 2 -0.089194469
-0.11328047 0.55234963 0.049330153 100 10 -0.089192159
-0.10706298 0.52249551 -0.084474623 99 3 -0.089189857
-0.11984028 0.58537161 0.073365353 100 11 -0.089187555
-0.11377084 0.55622017 -0.069709271 100 4 -0.089185253
-0.11746834 0.57480669 0.092922084 100 12 -0.089182943
-0.10770911 0.52705193 -0.047064099 57 5 -0.089180641
-0.1197898 0.58668816 0.11639349 39 13 -0.089178339
-0.11417512 0.5596891 -0.02993617 100 6 -0.089176036
-0.10118768 0.49646559 0.11697455 17 14 -0.089173734
-0.12050335 0.59176338 -0.010541254 19 7 -0.089171425
-0.10321991 0.50734258 0.13872701 56 15 -0.089169122
-0.11165492 0.55274975 0.0098431567 100 8 -0.089146085
-0.11566842 0.57365167 0.030668873 100 9 -0.089141473
-0.10205754 0.50614923 -0.10036553 51 2 -0.089139171
-0.11213905 0.5566479 0.049678776 100 10 -0.089136869
-0.10679743 0.53061229 -0.085726097 93 3 -0.089134559
-0.11505661 0.5721634 0.071659178 100 11 -0.089132257
-0.10909187 0.54299039 -0.068003103 100 4 -0.089129955
-0.11546103 0.57521325 0.092922084 100 12 -0.089127652
-0.10469225 0.52156448 -0.046541166 72 5 -0.08912535
-0.11542477 0.57555318 0.11410379 40 13 -0.08912304
-0.1086897 0.54245913 -0.028994123 100 6 -0.089120738
-0.097158842 0.48535076 0.11427514 18 14 -0.089118436
-0.11647594 0.58237612 -0.010366729 23 7 -0.089116134
-0.096527666 0.48307252 0.13199772 44 15 -0.089113824
-0.1124483 0.56686652 0.010087491 100 8 -0.089090787
-0.12426124 0.62699199 -0.14756788 12 1 -0.089088485
-0.11288954 0.57013345 0.030459529 100 9 -0.089086182
-0.10181557 0.51420581 -0.10189201 63 2 -0.089083873
-0.10980849 0.55508149 0.049504459 100 10 -0.089081571
-0.10494446 0.5309819 -0.085726097 90 3 -0.089079268
-0.11651979 0.5900889 0.073852822 100 11 -0.089076966
-0.10642725 0.53947282 -0.067515619 100 4 -0.089074656
-0.11192434 0.56786048 0.09167061 100 12 -0.089072354
-0.10364145 0.52583635 -0.046889789 86 5 -0.089070052
-0.11113925 0.56439495 0.11181407 30 13 -0.08906775
-0.10679535 0.54283524 -0.028994123 100 6 -0.08906544
-0.093960561 0.47803834 0.11247552 18 14 -0.089063138
-0.11251584 0.57296801 -0.010192206 27 7 -0.089060836
-0.098188013 0.5004679 0.13665645 42 15 -0.089058533
-0.1112335 0.57118124 0.0101573 20 8 -0.089035489
-0.11089855 0.5705241 0.030459529 100 9 -0.089030884
-0.097023033 0.49914062 -0.098839059 52 2 -0.089028582
-0.10862999 0.55937308 0.049853083 100 10 -0.089026272
-0.10459568 0.53910178 -0.086977579 88 3 -0.08902397
-0.11597014 0.59828734 0.074827783 100 11 -0.089021668
-0.10529817 0.54373878 -0.068003103 100 4 -0.089019366
-0.10806569 0.55855054 0.090106264 100 12 -0.089017056
-0.10256259 0.53010708 -0.047238413 85 5 -0.089014754
-0.10916831 0.56477952 0.11181407 20 13 -0.089012451
-0.1067932 0.55300987 -0.029517481 100 6 -0.089010149
-0.093768328 0.4860172 0.11427514 36 14 -0.08900784
-0.11013649 0.57139379 -0.0101573 30 7 -0.089005537
-0.092787288 0.48183766 0.13148008 59 15 -0.089003235
-0.10661113 0.55781704 0.0099129668 19 8 -0.088980198
-0.10928103 0.57286954 0.030564202 100 9 -0.088975586
-0.095280461 0.49947619 -0.098839059 78 2 -0.088973284
-0.10369266 0.54409164 0.048458595 100 10 -0.088970982
-0.10049625 0.52782047 -0.08510036 90 3 -0.088968672
-0.11684904 0.61428946 0.076777697 100 11 -0.08896637
-0.10339963 0.54410303 -0.068003103 100 4 -0.088964067
-0.10722055 0.5647465 0.091044866 100 12 -0.088961765
-0.096251853 0.50697279 -0.045146674 90 5 -0.088959455
-0.10024502 0.52850872 0.10456334 22 13 -0.088957153
-0.10597786 0.55926633 -0.029831499 88 6 -0.088954851
-0.10702628 0.56588012 -0.010052586 28 7 -0.088950247
-0.092898294 0.4916499 0.13406827 58 15 -0.088947937
-0.10402311 0.55423671 0.0098431567 23 8 -0.088931881
-0.10738057 0.57322884 0.030564202 100 9 -0.088927269
-0.092900507 0.49593005 -0.098075822 65 2 -0.088924967
-0.10372043 0.55422437 0.049330153 100 10 -0.088922665
-0.097656138 0.52232569 -0.084161758 85 3 -0.088920362
-0.11335324 0.60686821 0.075802736 100 11 -0.088918053
-0.10232314 0.54834574 -0.06849058 100 4 -0.08891575
-0.10788114 0.57869244 0.093234949 100 12 -0.088913448
-0.099681884 0.53471023 -0.047587033 84 5 -0.088911146
-0.097054139 0.52111799 0.10303687 11 13 -0.088908836
-0.10229608 0.54979682 -0.029308137 78 6 -0.088906534
-0.089389309 0.48089647 0.11292543 36 14 -0.088904232
-0.10734016 0.57802838 -0.010262014 28 7 -0.08890193
-0.091619909 0.49385473 0.13458592 58 15 -0.08889962
-0.10172567 0.55262983 0.0098082526 24 8 -0.088876583
-0.11560519 0.62864554 -0.14756788 12 1 -0.08887428
-0.1032135 0.56181383 0.02993617 100 9 -0.088871978
-0.092587665 0.50397509 -0.099602297 51 2 -0.088869669
-0.10250437 0.55850244 0.049678776 100 10 -0.088867366
-0.0958324 0.52266335 -0.084161758 85 3 -0.088865064
-0.10694204 0.58382899 0.072877876 100 11 -0.088862762
-0.098978996 0.54088891 -0.067515619 100 4 -0.088860452
-0.10692632 0.58489501 0.094173566 100 12 -0.08885815
-0.098173209 0.53701484 -0.047761347 84 5 -0.088855848
-0.096645251 0.52917886 0.10456334 11 13 -0.088853545
-0.096074328 0.5265727 -0.028052075 83 6 -0.088851236
-0.087710217 0.48120558 0.11292543 36 14 -0.088848934
-0.10603812 0.58233422 -0.010331824 27 7 -0.088846631
-0.088512331 0.48656887 0.13251536 59 15 -0.088844329
-0.10086157 0.55888528 0.0099129668 25 8 -0.088821284
-0.11340994 0.62904531 -0.14756788 12 1 -0.088818982
-0.10054357 0.55823946 0.029726826 100 9 -0.08881668
-0.091175772 0.50622749 -0.099983923 77 2 -0.088814378
-0.10020151 0.55689591 0.049504459 100 10 -0.088812068
-0.096104309 0.53465998 -0.086038962 79 3 -0.088809766
-0.10560498 0.58810645 0.073365353 100 11 -0.088807464
-0.097090453 0.54123116 -0.067515619 100 4 -0.088805161
-0.10383876 0.57943141 0.093234949 100 12 -0.088802852
-0.095595285 0.53343195 -0.047412723 99 5 -0.08880055
-0.092721485 0.51791781 0.10227363 11 13 -0.088798247
-0.097752035 0.54656553 -0.029098796 79 6 -0.088795945
-0.10119367 0.56695223 -0.010052586 26 7 -0.088791333
-0.087152563 0.48877668 0.13303299 73 15 -0.088789031
-0.10134785 0.5730179 0.0101573 24 8 -0.088765994
-0.10033027 0.5684213 0.030250184 100 9 -0.088761382
-0.088725761 0.50267589 -0.099220686 78 2 -0.08875908
-0.097564869 0.55331802 0.049155835 100 10 -0.088756777
-0.093552157 0.53110129 -0.085413225 77 3 -0.088754468
-0.10389561 0.5904265 0.073609091 100 11 -0.088752165
-0.093825728 0.5337463 -0.066540666 100 4 -0.088749863
-0.10010708 0.5700624 0.09167061 100 12 -0.088747561
-0.092009507 0.52395058 -0.046541166 100 5 -0.088745259
-0.091591619 0.52210575 0.10303687 11 13 -0.088742949
-0.095498659 0.54493612 -0.028994123 91 6 -0.088740647
-0.098869637 0.56533211 -0.010017681 26 7 -0.088736042
-0.084448338 0.48336887 0.13148008 74 15 -0.088733733
-0.095933162 0.55366474 0.0098082526 20 8 -0.088710696
-0.10901561 0.62982172 -0.14756788 12 1 -0.088708393
-0.099706806 0.57664025 0.030668873 100 9 -0.088706084
-0.087974153 0.50878614 -0.10036553 76 2 -0.088703781
-0.093598209 0.5418753 0.048109971 100 10 -0.088701479
-0.089682236 0.51974505 -0.083536014 74 3 -0.088699177
-0.10318293 0.59861046 0.074584045 100 11 -0.088696875
-0.093309581 0.54189575 -0.067515619 100 4 -0.088694565
-0.097446956 0.56651473 0.091044866 100 12 -0.088692263
-0.089504629 0.52034146 -0.046192542 100 5 -0.088689961
-0.083119139 0.48372427 0.095404498 12 13 -0.088687658
-0.093596011 0.54526615 -0.028994123 91 6 -0.088685349
-0.098921478 0.57749981 -0.01022711 22 7 -0.088680744
-0.092661709 0.54611027 0.0096686333 18 8 -0.088655397
-0.096693203 0.57107711 0.030354859 100 9 -0.088650793
-0.086525485 0.51102579 -0.10074715 76 2 -0.088648491
-0.093699597 0.55398566 0.049155835 100 10 -0.088646181
-0.087867297 0.52005494 -0.083536014 77 3 -0.088643879
-0.09977141 0.59113741 0.073609091 100 11 -0.088641576
-0.093727484 0.55592042 -0.069221795 100 4 -0.088639274
-0.095468707 0.5668515 0.091044866 100 12 -0.088636965
-0.0890112 0.52850962 -0.046889789 100 5 -0.088634662
-0.084036 0.49949989 0.098457448 11 13 -0.08863236
-0.09102992 0.54165024 -0.028784778 100 6 -0.088630058
-0.082596138 0.49199253 0.11517494 36 14 -0.088627748
-0.09690515 0.57784158 -0.01022711 22 7 -0.088625446
-0.079795003 0.47632545 0.12940952 75 15 -0.088623144
-0.09108261 0.54840297 0.0097035384 16 8 -0.088600107
-0.094798751 0.57139462 0.030354859 100 9 -0.088595495
-0.085382976 0.51519841 -0.10151039 75 2 -0.088593192
-0.092416197 0.55824065 0.049504459 100 10 -0.08859089
-0.087340705 0.52815408 -0.084787495 77 3 -0.08858858
-0.099324852 0.60127479 0.074827783 25 11 -0.088586278
-0.088648245 0.53664267 -0.066784404 100 4 -0.088583976
-0.094874993 0.57496107 0.092296347 100 12 -0.088581674
-0.088138029 0.53471464 -0.047412723 100 5 -0.088579364
-0.081653856 0.49591586 0.097694211 11 13 -0.088577062
-0.084600799 0.51437378 -0.027319372 97 6 -0.08857476
-0.079382949 0.48264918 0.11292543 36 14 -0.088572457
-0.094988272 0.57815975 -0.01022711 23 7 -0.088570148
-0.080717996 0.49183828 0.13355063 73 15 -0.088567846
-0.091511302 0.5625183 0.0099478718 100 8 -0.088544808
-0.092262819 0.56776303 0.030145515 100 9 -0.088540196
-0.081157401 0.49997565 -0.098457448 78 2 -0.088537894
-0.091202118 0.56247741 0.049853083 100 10 -0.088535592
-0.086220555 0.53234071 -0.085413225 77 3 -0.08853329
-0.092574701 0.5722068 0.071171708 100 11 -0.08853098
-0.085282855 0.52713567 -0.065565713 100 4 -0.088528678
-0.090761654 0.56162196 0.090106264 100 12 -0.088526376
-0.086681984 0.53697085 -0.047587033 100 5 -0.088524073
-0.080008745 0.4961839 0.097694211 11 13 -0.088521764
-0.086705707 0.53831363 -0.028575433 100 6 -0.088519461
-0.092752971 0.57649726 -0.010192206 27 7 -0.088514857
-0.080619104 0.50164014 0.13613883 86 15 -0.088512555
-0.090589158 0.56874299 0.010052586 16 8 -0.08848951
-0.089653291 0.56413662 0.02993617 100 9 -0.088484906
-0.080950998 0.5099507 -0.10036553 76 2 -0.088482596
-0.088087283 0.55490571 0.049155835 100 10 -0.088480294
-0.085073344 0.53652573 -0.086038962 79 3 -0.088477992
-0.093471639 0.59015644 0.073365353 20 11 -0.088475689
-0.085614026 0.54115504 -0.067271888 100 4 -0.08847338
-0.088492446 0.55998415 0.089793392 100 12 -0.088471077
-0.081700459 0.51758999 -0.045843918 100 5 -0.088468775
-0.079499193 0.50421739 0.099220686 11 13 -0.088466473
-0.083583355 0.53072125 -0.028156748 100 6 -0.088464171
-0.08980763 0.57089126 -0.010087491 30 7 -0.088459559
-0.086045146 0.55326372 0.0097733475 20 8 -0.088434212
-0.090035081 0.5802505 0.030773545 100 9 -0.088429607
-0.079983085 0.51606429 -0.10151039 75 2 -0.088427305
-0.085137002 0.54931825 0.048632905 100 10 -0.088424996
-0.081293195 0.52512115 -0.084161758 85 3 -0.088422693
-0.091611452 0.59245682 0.073609091 22 11 -0.088420391
-0.083629623 0.54146528 -0.067271888 100 4 -0.088418089
-0.086439535 0.5603047 0.089793392 78 12 -0.088415787
-0.080409832 0.52182424 -0.046192542 100 5 -0.088413477
-0.081637725 0.53102404 -0.028156748 100 6 -0.088408872
-0.088018253 0.57319313 -0.010122396 27 7 -0.088404261
-0.084316947 0.55555242 0.0098082526 20 8 -0.088378921
-0.095801607 0.63196665 -0.14756788 12 1 -0.088376611
-0.08920633 0.58846009 0.031192232 100 9 -0.088374309
-0.079945058 0.52798706 -0.1038001 74 2 -0.088372007
-0.084612876 0.55947655 0.049504459 100 10 -0.088369705
-0.07877776 0.52150923 -0.083536014 85 3 -0.088367403
-0.088254869 0.58493704 0.072634131 22 11 -0.088365093
-0.081147097 0.53782809 -0.066784404 100 4 -0.088362791
-0.086249232 0.57232302 0.09167061 99 12 -0.088360488
-0.078291133 0.52013153 -0.046018228 100 5 -0.088358186
-0.080080047 0.53328085 -0.028261419 100 6 -0.088353574
-0.072636314 0.4837105 0.11292543 55 14 -0.088351272
-0.08749979 0.58338481 -0.01029692 26 7 -0.08834897
-0.082767822 0.55780697 0.0098431567 20 8 -0.088323623
-0.084911875 0.57294726 0.030354859 100 9 -0.088319018
-0.075606301 0.51077044 -0.10036553 76 2 -0.088316709
-0.082757227 0.55975407 0.049504459 100 10 -0.088314407
-0.077047795 0.52176762 -0.083536014 79 3 -0.088312104
-0.085155912 0.57737118 0.071659178 21 11 -0.088309802
-0.079073347 0.53613037 -0.066540666 100 4 -0.088307492
-0.084350988 0.57260585 0.09167061 99 12 -0.08830519
-0.077725835 0.52827305 -0.046715476 100 5 -0.088302888
-0.072787881 0.49531022 0.097312599 24 13 -0.088300586
-0.07715112 0.52563912 -0.02784273 100 6 -0.088298276
-0.084404379 0.57575756 -0.0101573 22 7 -0.088293672
-0.073047683 0.49889386 0.13510354 87 15 -0.088291369
-0.082926035 0.57193136 0.010087491 20 8 -0.088268325
-0.082339987 0.5692867 0.030145515 100 9 -0.08826372
-0.07531739 0.52073354 -0.10227363 75 2 -0.088261418
-0.080330685 0.55608159 0.049155835 100 10 -0.088259108
-0.07644558 0.52984077 -0.084787495 79 3 -0.088256806
-0.086072259 0.59729838 0.074096568 27 11 -0.088254504
-0.07607013 0.52854377 -0.065565713 100 4 -0.088252202
-0.080665164 0.56116509 0.089793392 78 12 -0.088249892
-0.076447979 0.53248537 -0.047064099 100 5 -0.08824759
-0.069750063 0.48583215 0.095404498 24 13 -0.088245288
-0.074840494 0.52193803 -0.027633386 100 6 -0.088242985
-0.082394488 0.57604861 -0.0101573 22 7 -0.088238373
-0.080649212 0.5702374 0.010052586 19 8 -0.088213034
-0.080352157 0.56957072 0.030145515 100 9 -0.088208422
-0.071764708 0.50934184 -0.099983923 77 2 -0.08820612
-0.078569762 0.5583452 0.049330153 100 10 -0.088203818
-0.075053051 0.5340296 -0.085413225 85 3 -0.088201508
-0.082052715 0.58383477 0.0723904 21 11 -0.088199206
-0.075604469 0.53863519 -0.066784404 100 4 -0.088196903
-0.077334777 0.55166203 0.088229045 69 12 -0.088194601
-0.073759891 0.5268296 -0.046541166 100 5 -0.088192292
-0.068784207 0.49191767 0.096549362 24 13 -0.088189989
-0.075137027 0.53803331 -0.028470764 31 6 -0.088187687
-0.077896975 0.55850804 -0.0098431567 27 7 -0.088183083
-0.076376319 0.55468112 0.0097733475 16 8 -0.088157736
-0.079452001 0.57776225 0.030564202 20 9 -0.088153124
-0.071589187 0.52125919 -0.10227363 88 2 -0.088150822
-0.075807907 0.55269432 0.048807211 100 10 -0.088148519
-0.071848154 0.52450287 -0.083848879 88 3 -0.088146217
-0.078836165 0.57626444 0.071415439 100 11 -0.088143907
-0.074704498 0.54677594 -0.067759365 99 4 -0.088141605
-0.074873686 0.54801422 0.087603308 69 12 -0.088139303
-0.069226921 0.50734288 -0.04479805 100 5 -0.088137001
-0.066536836 0.48826417 0.095786124 24 13 -0.088134699
-0.074874341 0.55016649 -0.029098796 37 6 -0.088132389
-0.074869797 0.55085063 -0.0097035384 33 7 -0.088127784
-0.073205613 0.54502183 0.0095988233 100 8 -0.088102438
-0.084978871 0.63351274 -0.14756788 12 1 -0.088100135
-0.077964962 0.58199519 0.030773545 26 9 -0.088097833
-0.068727739 0.51372224 -0.10074715 89 2 -0.088095531
-0.074669853 0.55888015 0.049330153 26 10 -0.088093221
-0.070369884 0.52669626 -0.084161758 79 3 -0.088090919
-0.077187151 0.57849038 0.071659178 100 11 -0.088088617
-0.07315322 0.54898834 -0.068003103 100 4 -0.088086314
-0.073220998 0.55023038 0.08791618 57 12 -0.088084005
-0.069030248 0.51943159 -0.045843918 100 5 -0.088081703
-0.069896393 0.52665293 -0.02784273 37 6 -0.088077098
-0.064780109 0.48875698 0.11382524 91 14 -0.088074788
-0.071896784 0.54317898 -0.0095639192 34 7 -0.088072486
-0.064049587 0.48454362 0.13096245 89 15 -0.088070184
-0.073117778 0.5591538 0.0098431567 19 8 -0.088047147
-0.082767107 0.63380545 -0.14756788 12 1 -0.088044837
-0.074124865 0.56840044 0.03004084 31 9 -0.088042535
-0.06829305 0.52368116 -0.10265525 100 2 -0.088040233
-0.074102752 0.56900316 0.050201707 34 10 -0.08803793
-0.068531059 0.52693862 -0.084161758 79 3 -0.088035621
-0.075422898 0.5807249 0.071902916 20 11 -0.088033319
-0.070470586 0.54333454 -0.067271888 100 4 -0.088031016
-0.070031062 0.54068762 0.086351842 52 12 -0.088028714
-0.067819066 0.52360946 -0.046192542 100 5 -0.088026404
-0.069081143 0.53481692 -0.028261419 53 6 -0.0880218
-0.071532987 0.55532646 -0.0097733475 33 7 -0.088017188
-0.061864972 0.48093209 0.12992717 100 15 -0.088014886
-0.070913017 0.55742192 0.0098082526 20 8 -0.087991849
-0.071637727 0.56469297 0.029831499 48 9 -0.087987237
-0.065229341 0.5141781 -0.10074715 100 2 -0.087984934
-0.072616763 0.57321161 0.05055033 39 10 -0.087982632
-0.066195302 0.52325517 -0.083536014 79 3 -0.08798033
-0.074888244 0.59280127 0.073365353 22 11 -0.08797802
-0.066088878 0.52388239 -0.06483449 100 4 -0.087975718
-0.065427534 0.51936996 0.082910277 49 12 -0.087973416
-0.06698712 0.53175008 -0.046889789 100 5 -0.087971114
-0.06746266 0.53703648 -0.028366093 52 6 -0.087966502
-0.069842778 0.55755699 -0.0098082526 30 7 -0.087961897
-0.060185704 0.48114511 0.12992717 100 15 -0.087959588
-0.07019411 0.56758893 0.0099827768 38 8 -0.08793655
-0.066398181 0.53766549 -0.12507279 16 1 -0.087934248
-0.068199344 0.55304617 0.029203467 60 9 -0.087931946
-0.062232591 0.50466025 -0.098839059 100 2 -0.087929636
-0.069154546 0.56159681 0.049504459 35 10 -0.087927334
-0.065814987 0.53524667 -0.085413225 85 3 -0.087925032
-0.074269883 0.60488081 0.074827783 22 11 -0.08792273
-0.066192523 0.53987259 -0.066784404 100 4 -0.08792042
-0.062173985 0.50783074 0.081033058 37 12 -0.087918118
-0.063103363 0.51617068 -0.045495298 100 5 -0.087915815
-0.066313557 0.54321635 -0.028680107 45 6 -0.087911204
-0.067171097 0.55184233 -0.0097035384 17 7 -0.087906599
-0.065111712 0.54202002 0.0095290132 42 8 -0.087881252
-0.076125294 0.63463748 -0.14756788 12 1 -0.08787895
-0.066268809 0.55328077 0.029203467 58 9 -0.087876648
-0.060848888 0.50878364 -0.099602297 100 2 -0.087874345
-0.067568086 0.56580317 0.049853083 44 10 -0.087872036
-0.062683418 0.52567691 -0.083848879 88 3 -0.087869734
-0.068397723 0.57359827 0.070927963 100 11 -0.087867431
-0.062899277 0.52827334 -0.065321974 100 4 -0.087865129
-0.061066695 0.5144093 -0.045320988 100 5 -0.087860517
-0.065026499 0.54940599 -0.028994123 39 6 -0.087855913
-0.065010086 0.55008751 -0.0096686333 100 7 -0.087851301
-0.062662341 0.53828245 0.009459205 47 8 -0.087825961
-0.073798858 0.63491219 -0.14756788 12 1 -0.087823652
-0.06548994 0.56342822 0.029726826 62 9 -0.08782135
-0.059751391 0.51484346 -0.10074715 100 2 -0.087819047
-0.065822124 0.56801474 0.050027393 48 10 -0.087816745
-0.060393855 0.52196795 -0.083223142 88 3 -0.087814435
-0.068800479 0.59553695 0.073609091 22 11 -0.087812133
-0.062782533 0.54427648 -0.067271888 100 4 -0.087809831
-0.056816269 0.49255353 0.07853011 44 12 -0.087807529
-0.060182411 0.52253646 -0.046018228 17 5 -0.087805226
-0.061513636 0.53574002 -0.028261419 33 6 -0.087800615
-0.055488955 0.48401469 0.11247552 100 14 -0.087798312
-0.065366969 0.57017785 -0.010017681 100 7 -0.08779601
-0.060877096 0.53848732 0.009459205 36 8 -0.087770663
-0.061956964 0.54976058 0.028994123 58 9 -0.087766059
-0.058393288 0.51895076 -0.10151039 100 2 -0.087763749
-0.064506136 0.5741809 0.05055033 44 10 -0.087761447
-0.059103541 0.52609146 -0.083848879 93 3 -0.087759145
-0.063948758 0.5701164 0.070440486 100 11 -0.087756842
-0.060535546 0.54053617 -0.066784404 100 4 -0.087754533
-0.057915814 0.51878333 -0.045669612 17 5 -0.087749928
-0.054455049 0.48778337 0.095404498 49 13 -0.087747626
-0.060179327 0.53991103 -0.028470764 30 6 -0.087745316
-0.063817777 0.57437754 -0.010087491 100 7 -0.087740712
-0.060303114 0.55062342 0.0096686333 30 8 -0.087715365
-0.06947574 0.63539976 -0.14756788 12 1 -0.087713063
-0.059916839 0.54797757 0.028889451 57 9 -0.087710761
-0.05581972 0.51133496 -0.099983923 100 2 -0.087708458
-0.063465312 0.58231425 0.051247574 44 10 -0.087706149
-0.057693999 0.53022212 -0.084474623 88 3 -0.087703846
-0.062601581 0.57625663 0.071171708 100 11 -0.087701544
-0.057149898 0.52692956 -0.065078236 94 4 -0.087699242
-0.057696395 0.53283817 -0.046889789 19 5 -0.08769463
-0.052752141 0.4879705 0.095404498 49 13 -0.087692328
-0.058508486 0.54210347 -0.028575433 27 6 -0.087690026
-0.059770256 0.55470419 -0.0097384425 100 7 -0.087685414
-0.052070212 0.48403394 0.13044479 100 15 -0.087683111
-0.059321124 0.55877441 0.0098082526 21 8 -0.087660074
-0.058633998 0.55414188 0.029203467 51 9 -0.087655462
-0.054240581 0.51347905 -0.10036553 100 2 -0.08765316
-0.059342857 0.56271821 0.049504459 46 10 -0.087650858
-0.056350101 0.53433943 -0.08510036 93 3 -0.087648548
-0.061937477 0.58830607 0.072634131 21 11 -0.087646246
-0.056647062 0.53896147 -0.066540666 75 4 -0.087643944
-0.055628885 0.53105474 -0.046715476 19 5 -0.087639332
-0.051133778 0.4881427 0.095404498 49 13 -0.08763703
-0.057541259 0.55024028 -0.028994123 27 6 -0.087634727
-0.057419419 0.55093157 -0.0096686333 100 7 -0.087630123
-0.050180249 0.48229128 0.12992717 100 15 -0.087627813
-0.055750992 0.54507285 0.0095639192 16 8 -0.087606035
-0.064927146 0.63588071 -0.14756788 12 1 -0.087603733
-0.057414208 0.5623008 0.029622154 43 9 -0.087601423
-0.052557416 0.5156275 -0.10074715 100 2 -0.087599121
-0.057683222 0.5668962 0.049853083 52 10 -0.087596819
-0.053898595 0.53062129 -0.084474623 93 3 -0.087594517
-0.060478996 0.59643948 0.073609091 23 11 -0.087592207
-0.053177897 0.52534997 -0.06483449 69 4 -0.087589905
-0.053681962 0.53125507 -0.046715476 17 5 -0.0875853
-0.049653027 0.49224216 0.096167736 72 13 -0.087582991
-0.056228604 0.558406 -0.029412812 23 6 -0.087580688
-0.056199621 0.55909699 -0.0098082526 100 7 -0.087576084
-0.052958645 0.53530478 0.0093893949 100 8 -0.087550737
-0.057838485 0.58567059 -0.13587044 14 1 -0.087548435
-0.056430604 0.57243592 0.030145515 38 9 -0.087546133
-0.051333871 0.52166933 -0.10189201 100 2 -0.087543823
-0.054730311 0.55717993 0.048981529 50 10 -0.087541521
-0.05175259 0.52686536 -0.083848879 93 3 -0.087539218
-0.055595238 0.56700242 0.069953009 20 11 -0.087536916
-0.053949088 0.55120695 -0.068003103 82 4 -0.087534606
-0.052214094 0.53540516 -0.047064099 17 5 -0.087530002
-0.052634809 0.54069865 -0.028470764 22 6 -0.08752539
-0.054633889 0.56327051 -0.0098780626 100 7 -0.087520786
-0.052609537 0.55141163 0.0096686333 100 8 -0.087495439
-0.053946137 0.56646931 -0.13137142 15 1 -0.087493137
-0.052638408 0.5527373 0.029098796 33 9 -0.087490834
-0.048860647 0.51401889 -0.10036553 100 2 -0.087488532
-0.05288218 0.55735838 0.048981529 56 10 -0.087486222
-0.04991303 0.52704281 -0.083848879 93 3 -0.08748392
-0.05511006 0.58300334 0.071902916 31 11 -0.087481618
-0.050719522 0.53755766 -0.066296928 100 4 -0.087479316
-0.046389051 0.49166057 0.078217238 58 12 -0.087477006
-0.050811809 0.53954262 -0.047412723 17 5 -0.087474704
-0.045933813 0.48865944 0.095404498 73 13 -0.087472402
-0.050374065 0.53690201 -0.028261419 100 6 -0.087470099
-0.053511359 0.57141238 -0.010017681 100 7 -0.087465487
-0.04530691 0.48471376 0.13044479 100 15 -0.087463185
-0.050230578 0.5456093 0.0095639192 100 8 -0.087440148
-0.058486745 0.63650537 -0.14756788 12 1 -0.087437838
-0.050708789 0.55291766 0.029098796 30 9 -0.087435536
-0.045634527 0.49854568 -0.097312599 100 2 -0.087433234
-0.051480237 0.56349194 0.049504459 57 10 -0.087430932
-0.048884004 0.53507411 -0.08510036 99 3 -0.087428622
-0.051553957 0.56539088 0.069709271 32 11 -0.08742632
-0.047857262 0.52586138 -0.06483449 100 4 -0.087424017
-0.050007295 0.55162227 -0.048458595 100 5 -0.087419413
-0.048593465 0.5370661 -0.028261419 100 6 -0.087414801
-0.049721289 0.55167961 -0.0096686333 100 7 -0.087410197
-0.043441694 0.48294488 0.12992717 100 15 -0.087407887
-0.049031079 0.55374891 0.0097035384 100 8 -0.08738485
-0.047687769 0.53964692 -0.12507279 16 1 -0.087382548
-0.049129207 0.55707031 0.029308137 26 9 -0.087380238
-0.04467079 0.50651687 -0.098839059 100 2 -0.087377936
-0.04908713 0.5577054 0.048981529 63 10 -0.087375633
-0.047361773 0.53917712 -0.085726097 93 3 -0.087373331
-0.051140398 0.58336496 0.071902916 40 11 -0.087371029
-0.046713278 0.53393537 -0.065809451 100 4 -0.087368719
-0.047138333 0.53987598 -0.047412723 100 5 -0.087364115
-0.047756504 0.54917097 -0.028889451 100 6 -0.087359503
-0.047795385 0.55184978 -0.0096686333 100 7 -0.087354898
-0.041589148 0.48116893 0.12940952 100 15 -0.087352596
