# .PCD v0.7 - Point Cloud Data file format
VERSION 0.7
FIELDS x y z intensity ring time
SIZE 4 4 4 4 2 4
TYPE F F F F U F
COUNT 1 1 1 1 1 1
WIDTH 933
HEIGHT 1
VIEWPOINT 0 0 0 1 0 0 0
POINTS 933
DATA ascii
5.883513 0.33409137 1.360504 3 14 -0.096478671
2.6173844 0.14862643 -0.045760211 102 7 -0.096476369
5.8537974 0.33137909 1.5710317 16 15 -0.096474066
3.0496135 0.16836378 -0.81838584 13 0 -0.096453324
2.615643 0.14394715 0.045725305 85 8 -0.096451022
3.0004461 0.16460028 -0.69374907 58 1 -0.09644872
2.6264663 0.14362326 0.13785292 100 9 -0.096446417
2.9894967 0.16347489 -0.58196747 59 2 -0.096444108
2.6161089 0.14259896 0.2292196 94 10 -0.096441805
3.0099852 0.16354297 -0.47743803 57 3 -0.096439503
2.6283808 0.14234775 0.32319754 96 11 -0.096437201
3.0208824 0.16307607 -0.37145779 41 4 -0.096434891
5.9313779 0.31915781 0.94079703 72 12 -0.096432589
2.610239 0.14045273 -0.22869666 79 5 -0.096430287
8.874898 0.47598633 1.7275848 25 13 -0.096427985
2.6386063 0.14105423 -0.13848096 89 6 -0.096425682
7.5036979 0.39982188 1.7348225 37 14 -0.096423373
2.6219053 0.13924368 -0.045830019 99 7 -0.09642107
5.8414693 0.30920535 1.5674082 15 15 -0.096418768
3.7852364 0.19572806 -1.015606 10 0 -0.096398033
2.6061444 0.13430196 0.045550782 90 8 -0.096395724
3.0107331 0.15462472 -0.69599855 10 1 -0.096393421
2.6269515 0.13445613 0.13785292 97 9 -0.096391119
2.6165905 0.13346672 0.2292196 94 10 -0.096386507
2.6209314 0.13277096 0.32222256 96 11 -0.096381903
3.0293634 0.15293123 -0.37243277 30 4 -0.0963796
5.9403477 0.29884696 0.94204849 76 12 -0.096377298
2.6903086 0.13534401 -0.23566914 41 5 -0.096374989
8.8725834 0.44480947 1.7268214 23 13 -0.096372686
2.6191349 0.13084692 -0.13743424 89 6 -0.096370384
7.5069942 0.37372151 1.7352724 22 14 -0.096368082
2.62637 0.13028938 -0.045899831 99 7 -0.096365772
5.856019 0.28948182 1.5710317 11 15 -0.09636347
3.7762482 0.1820478 -1.0130178 7 0 -0.096342735
2.6065974 0.12520331 0.045550782 79 8 -0.096340433
4.2258778 0.20224541 -0.97673744 1 1 -0.096338123
2.6154351 0.12471406 0.1372249 97 9 -0.096335821
4.2515049 0.20272821 -0.82734787 10 2 -0.096333519
2.625001 0.12470978 0.22991684 94 10 -0.096331216
4.423842 0.20939828 -0.7014522 1 3 -0.096328914
2.6074984 0.12296735 0.32051641 92 11 -0.096326604
5.9393811 0.27801833 0.94173563 75 12 -0.096322
3.0350707 0.14206956 -0.265825 34 5 -0.096319698
5.9363198 0.27683675 1.1551577 16 13 -0.096317388
2.6155856 0.12151756 -0.1372249 87 6 -0.096315086
7.5004663 0.34715256 1.7334728 12 14 -0.096312784
2.6288064 0.12121351 -0.045934737 96 7 -0.096310481
5.8666434 0.26948044 1.5736198 9 15 -0.096308172
3.7845805 0.16920927 -1.0150883 7 0 -0.096287437
2.6150093 0.11646149 0.045690399 90 8 -0.096285135
4.3472614 0.19284643 -1.0046314 7 1 -0.096282832
2.6118636 0.11540669 0.13701554 96 9 -0.09628053
4.2286506 0.18684536 -0.82276845 3 2 -0.09627822
2.6214392 0.11537267 0.22956821 90 10 -0.096275918
4.4127049 0.19343469 -0.69957501 1 3 -0.096273616
2.6059287 0.11377745 0.32027265 88 11 -0.096271314
5.9146595 0.25617155 0.93766832 79 12 -0.096266702
5.9437027 0.25742945 -0.52049404 56 5 -0.0962644
8.8990107 0.38387164 1.7314008 7 13 -0.096262097
2.6199844 0.11255997 -0.13743424 89 6 -0.096259788
7.5288897 0.32213676 1.7397714 10 14 -0.096257485
2.6212218 0.11169528 -0.045795113 96 7 -0.096255183
5.8752685 0.24933203 1.5756904 7 15 -0.096252881
3.7774272 0.15568018 -1.0130178 13 0 -0.096232146
2.6134019 0.10725001 0.045655496 95 8 -0.096229836
4.3849039 0.17918108 -1.0131795 38 1 -0.096227534
2.612232 0.10674409 0.13701554 97 9 -0.096225232
4.2351623 0.17232382 -0.82391334 7 2 -0.09622293
2.6138632 0.10589813 0.22887097 90 10 -0.09622062
4.4686193 0.18025847 -0.70833534 1 3 -0.096218318
2.6082933 0.10476058 0.32051641 36 11 -0.096216016
5.9213977 0.23679441 0.93860692 82 12 -0.096211404
5.932621 0.23620334 -0.51944822 57 5 -0.096209101
8.9042177 0.35296333 1.732164 19 13 -0.096206799
2.6203613 0.10341314 -0.13743424 87 6 -0.096204497
5.9001307 0.23181583 1.3632034 16 14 -0.096202187
2.6055925 0.10237359 -0.045515876 99 7 -0.096199885
5.8779931 0.22992145 1.576208 7 15 -0.096197583
3.7740865 0.1423469 -1.0119824 9 0 -0.096176848
2.6097469 0.09843161 0.045585688 95 8 -0.096174546
4.3913155 0.16485941 -1.0145292 63 1 -0.096172236
2.6125886 0.097626843 0.13701554 100 9 -0.096169934
4.2396612 0.1576841 -0.82467651 16 2 -0.096167631
2.6022706 0.096330471 0.22782511 90 10 -0.096165329
4.4533997 0.1648553 -0.70583236 1 3 -0.09616302
5.9314017 0.21853402 0.72877878 75 11 -0.096160717
5.9142914 0.21583368 0.9373554 77 12 -0.096156113
5.9254446 0.21520802 -0.51875097 55 5 -0.096153803
5.972209 0.21690647 1.1616452 15 13 -0.096151501
2.6206899 0.094722405 -0.13743424 89 6 -0.096149199
7.5386982 0.27116188 1.7415711 36 14 -0.096146896
2.6139276 0.093565688 -0.045655496 96 7 -0.096144594
5.8555927 0.20857523 1.5699965 3 15 -0.096142285
3.7745378 0.12983157 -1.0119824 8 0 -0.09612155
2.5980833 0.088911474 0.045376256 95 8 -0.096119247
4.3723884 0.14886768 -1.0100303 66 1 -0.096116945
2.6149099 0.08857353 0.13712022 100 9 -0.096114635
4.2637067 0.1444224 -0.82925594 16 2 -0.096112333
2.6065583 0.087835222 0.22817372 94 10 -0.096110031
4.453948 0.14930998 -0.70583236 1 3 -0.096107729
5.9241924 0.19756199 0.72780377 78 11 -0.096105419
5.9110613 0.19505858 0.93672973 72 12 -0.096100815
5.9261255 0.1955557 -0.51875097 56 5 -0.096098512
5.97293 0.19605666 1.1616452 53 13 -0.09609621
2.6170123 0.085442878 -0.1372249 89 6 -0.096093901
7.5434937 0.24497335 1.7424709 43 14 -0.096091598
2.6142385 0.084440105 -0.045655496 96 7 -0.096089296
5.8871794 0.18912503 1.5782787 7 15 -0.096086994
3.7826917 0.11689465 -1.0140531 7 0 -0.096066251
2.5943804 0.079719648 0.045306448 95 8 -0.096063949
4.3748293 0.13366264 -1.0104802 70 1 -0.096061647
2.6052213 0.079142578 0.13659686 97 9 -0.096059345
4.270072 0.12971815 -0.83040082 9 2 -0.096057042
2.6108322 0.07885696 0.22852236 94 10 -0.096054733
4.4504933 0.13364211 -0.70520669 1 3 -0.096052431
5.912941 0.17652734 0.72634137 75 11 -0.096050128
5.9413233 0.17529622 0.9414227 75 12 -0.096045516
5.9267721 0.1748669 -0.51875097 56 5 -0.096043214
5.9480662 0.17445903 1.1566842 67 13 -0.096040912
2.5933375 0.075610586 -0.13596882 54 6 -0.09603861
7.5423555 0.21858169 1.742021 40 14 -0.0960363
2.618515 0.075428657 -0.045725305 99 7 -0.096033998
5.8781476 0.16830139 1.5756904 5 15 -0.096031696
3.7811456 0.10363594 -1.0135354 13 0 -0.096010961
2.5966418 0.070716828 0.04534135 90 8 -0.096008658
4.3674769 0.1181809 -1.0086806 70 1 -0.096006349
2.5974956 0.069832779 0.13617818 93 9 -0.096004046
4.2665734 0.11470536 -0.82963753 1 2 -0.096001744
2.6051164 0.069582678 0.22799942 86 10 -0.095999442
4.5259705 0.12009827 -0.71709567 1 3 -0.095997132
5.9016151 0.15557081 0.72487891 70 11 -0.09599483
4.9034824 0.12840296 -0.60227835 1 4 -0.095992528
5.8964806 0.15337591 0.93422669 72 12 -0.095990226
5.9313302 0.15428239 -0.51909959 60 5 -0.095987916
5.8819103 0.15196972 1.1437092 67 13 -0.095985614
5.9259138 0.15207173 -0.31066626 66 6 -0.095983312
2.6027699 0.065883614 -0.045446068 102 7 -0.0959787
5.8729057 0.14763458 1.5741374 11 15 -0.095976397
3.7718277 0.090204708 -1.0109472 10 0 -0.095955662
2.5988719 0.061700433 0.045376256 85 8 -0.09595336
4.3698111 0.10298166 -1.0091304 68 1 -0.095951058
2.59373 0.060671296 0.13596882 96 9 -0.095948748
4.337606 0.10146321 -0.8433758 1 2 -0.095946446
2.6033514 0.060443006 0.22782511 90 10 -0.095944144
4.5263619 0.1042999 -0.71709567 1 3 -0.095941842
5.9219675 0.13542163 0.72731632 75 11 -0.095939532
4.921762 0.11169219 -0.60447198 24 4 -0.09593723
5.918704 0.13328287 0.93766832 85 12 -0.095934927
5.9238648 0.13339908 -0.51840234 55 5 -0.095932625
5.972693 0.13345289 1.1612636 50 13 -0.095930316
5.9363923 0.13160808 -0.31118962 64 6 -0.095928013
5.860393 0.12889993 1.3533056 28 14 -0.095925711
2.5989854 0.056709908 -0.045376256 102 7 -0.095923409
5.7401185 0.12424997 1.5384204 9 15 -0.095921099
3.7605312 0.076802135 -1.0078415 7 0 -0.095900364
2.5970721 0.052587133 0.04534135 90 8 -0.095898062
4.3701439 0.087726384 -1.0091304 66 1 -0.09589576
2.6059072 0.051856082 0.13659686 92 9 -0.095893458
4.3379335 0.086322427 -0.8433758 1 2 -0.095891148
2.5995626 0.051275972 0.22747649 94 10 -0.095888846
4.5069485 0.088111989 -0.71396697 1 3 -0.095886543
5.9184346 0.11467361 0.72682881 78 11 -0.095884241
4.9042592 0.094167069 -0.60227835 28 4 -0.095881931
5.897408 0.11220699 0.93422669 72 12 -0.095879629
5.9163256 0.11256693 -0.51770508 56 5 -0.095877327
5.9927511 0.11297479 1.1650798 46 13 -0.095875025
5.9328222 0.11080924 -0.31098029 60 6 -0.095872715
7.6319094 0.14121124 1.7622666 1 14 -0.095870413
2.6031663 0.047711246 -0.045446068 102 7 -0.095868111
5.8544779 0.10627973 1.5689611 13 15 -0.095865808
3.7646396 0.06374117 -1.0088767 7 0 -0.095845073
2.5832438 0.043287348 0.04509702 85 8 -0.095842764
4.3567843 0.072245955 -1.0059811 70 1 -0.095840462
2.6060724 0.04276 0.13659686 97 9 -0.095838159
4.2832446 0.070278764 -0.83269054 3 2 -0.095835857
2.5917575 0.042072684 0.22677925 94 10 -0.095833547
4.4697013 0.071777582 -0.70802242 5 3 -0.095831245
5.9049048 0.093794279 0.72512263 73 11 -0.095828943
4.8827243 0.076703139 -0.59959722 31 4 -0.095826641
5.92344 0.092020631 0.93829399 82 12 -0.095824331
5.9166827 0.091915652 -0.51770508 56 5 -0.095822029
5.9191937 0.089885294 -0.3102476 60 6 -0.095817424
7.5816941 0.11381115 1.7505691 16 14 -0.095815122
2.603317 0.038623519 -0.045446068 102 7 -0.095812812
5.8741298 0.086124793 1.5741374 13 15 -0.09581051
3.7764292 0.050756302 -1.0119824 10 0 -0.095789775
2.5913773 0.034375291 0.045236636 95 8 -0.095787473
4.3531132 0.056985326 -1.0050814 72 1 -0.095785163
2.5862348 0.033405442 0.13555014 96 9 -0.095782861
4.3384304 0.05603791 -0.8433758 1 2 -0.095780559
2.5978649 0.033100966 0.22730216 102 10 -0.095778257
4.4995532 0.056546122 -0.71271551 3 3 -0.095775947
5.9032121 0.073158391 0.72487891 78 11 -0.095773645
4.8472338 0.059223283 -0.59520996 25 4 -0.095771343
5.9039731 0.071103953 0.93516535 74 12 -0.09576904
5.9249368 0.071356423 -0.51840234 60 5 -0.095766738
5.9619837 0.070764787 1.1589739 16 13 -0.095764428
5.9134798 0.069154084 -0.30993357 61 6 -0.095762126
7.564508 0.087141365 1.74652 34 14 -0.095759824
2.607435 0.029581929 -0.045515876 99 7 -0.095757522
5.8859849 0.065750435 1.5772433 11 15 -0.095755212
3.7727196 0.037534349 -1.0109472 10 0 -0.095734477
2.5834832 0.025251852 0.04509702 83 8 -0.095732175
4.3610802 0.04186552 -1.006881 72 1 -0.095729873
2.5903301 0.024414552 0.13575949 96 9 -0.09572757
4.3385997 0.040892459 -0.8433758 1 2 -0.095725261
2.6039417 0.02408712 0.22782511 94 10 -0.095722958
4.5352778 0.041163057 -0.71834713 1 3 -0.095720656
5.9034309 0.052550316 0.72487891 78 11 -0.095718354
4.8077106 0.041955177 -0.59033519 34 4 -0.095716044
5.8923335 0.05039468 0.9332881 71 12 -0.095713742
5.921165 0.050641265 -0.51805371 60 5 -0.09571144
5.8561821 0.049063388 1.1383665 31 13 -0.095709138
5.9176798 0.04854295 -0.3101429 60 6 -0.095706828
7.5725603 0.060799953 1.7483196 40 14 -0.095704526
2.599524 0.020417828 -0.045376256 33 7 -0.095702223
5.8900428 0.045232218 1.5782787 11 15 -0.095699921
3.7573731 0.024264066 -1.0068061 7 0 -0.095679186
2.5975533 0.016322162 0.04534135 100 8 -0.095676877
4.3573022 0.026617285 -1.0059811 72 1 -0.095674574
2.586405 0.015348072 0.13555014 97 9 -0.095672272
2.592056 0.014930454 0.22677925 94 10 -0.09566766
4.5590987 0.025462916 -0.72210157 1 3 -0.095665358
5.8896828 0.03186642 0.72317278 73 11 -0.095663056
4.7740822 0.024999473 -0.58619159 28 4 -0.095660754
5.8904982 0.029814726 0.93297523 78 12 -0.095658444
5.9133363 0.029930321 -0.51735646 55 5 -0.095656142
5.966259 0.029156918 1.1597371 28 13 -0.095653839
5.9277992 0.027937235 -0.31066626 66 6 -0.095651537
5.8617501 0.026600128 1.3533056 16 14 -0.095649227
5.9210424 0.025835816 -0.10335316 57 7 -0.095646925
5.8901649 0.024675908 1.5782787 11 15 -0.095644623
3.7593668 0.011154762 -1.0073237 8 0 -0.095623888
2.575598 0.0071927886 0.044957399 85 8 -0.095621586
4.3651633 0.011426544 -1.0077807 70 1 -0.095619276
2.5904374 0.0063300459 0.13575949 97 9 -0.095616974
2.5841224 0.0058636251 0.226082 94 10 -0.095612369
4.6263223 0.0096879667 -0.73273909 1 3 -0.09561006
5.9056387 0.011339126 0.72512263 71 11 -0.095607758
4.7542892 0.0082987435 -0.58375424 33 4 -0.095605455
5.8747635 0.0092264814 0.93047231 72 12 -0.095603153
5.9054351 0.0092746522 -0.51665926 56 5 -0.095600843
5.954545 0.0083154151 1.1574475 37 13 -0.095598541
5.9258633 0.0072411643 -0.3105616 60 6 -0.095596239
7.6156726 0.007973304 1.7582175 7 14 -0.095593937
5.9230962 0.0051703546 -0.10338806 55 7 -0.095591635
5.8747597 0.0041028834 1.5741374 13 15 -0.095589325
3.7632465 -0.0019704315 -1.0083591 9 0 -0.095570087
2.5676084 -0.0017925291 0.044817779 83 8 -0.095567785
4.3534846 -0.0037991325 -1.0050814 70 1 -0.095565483
2.5904441 -0.0022605893 0.13575949 96 9 -0.095563173
2.5881121 -0.0031619768 0.22643061 94 10 -0.095558569
4.7053432 -0.0065699024 -0.74525392 1 3 -0.095556267
5.8977022 -0.0092640957 0.72414774 71 11 -0.095553957
5.9135809 -0.010321155 -0.72609758 46 4 -0.095551655
5.849082 -0.010208583 0.92640501 82 12 -0.095549352
5.9094162 -0.011345278 -0.51700783 56 5 -0.09554705
5.9506106 -0.012462948 1.1566842 28 13 -0.095544741
5.9138689 -0.013418166 -0.30993357 60 6 -0.095542438
7.5942178 -0.018556211 1.7532685 36 14 -0.095540136
5.9190807 -0.014463072 -0.10331824 56 7 -0.095537834
5.8747411 -0.01538007 1.5741374 11 15 -0.095535524
3.7670829 -0.014464631 -1.0093943 13 0 -0.095514789
2.5735874 -0.010331097 0.044922493 90 8 -0.095512487
4.3476014 -0.018211296 -1.0037316 66 1 -0.095510185
2.5784369 -0.011250624 0.13513145 97 9 -0.095507883
4.3387475 -0.019688748 -0.8433758 1 2 -0.095505573
2.5880854 -0.012196155 0.22643061 94 10 -0.095503271
4.9225845 -0.023197304 -0.77966946 12 3 -0.095500968
5.889699 -0.028782727 0.72317278 73 11 -0.095498666
5.9115295 -0.029921196 -0.72585386 52 4 -0.095496356
5.8628378 -0.030698027 0.92859513 78 12 -0.095494054
5.9093404 -0.031972922 -0.51700783 60 5 -0.095491752
5.8998117 -0.032951109 -0.30920088 60 6 -0.09548714
7.6155505 -0.043862905 1.7582175 10 14 -0.095484838
5.9189944 -0.035124432 -0.10331824 56 7 -0.095482536
5.899765 -0.03604006 1.5808668 5 15 -0.095480233
3.7689414 -0.027628278 -1.009912 7 0 -0.095459498
2.5795348 -0.019359553 0.045027211 85 8 -0.095457189
4.3533578 -0.033432044 -1.0050814 62 1 -0.095454887
2.578382 -0.020250978 0.13513145 96 9 -0.095452584
4.4211125 -0.034724046 -0.85940373 1 2 -0.095450282
2.5940075 -0.020826472 0.22695355 98 10 -0.095447972
4.9659305 -0.040736675 -0.78655261 22 3 -0.09544567
5.8955173 -0.049391326 0.72390395 75 11 -0.095443368
5.8955088 -0.050420284 -0.72390395 57 4 -0.095441066
5.8824482 -0.05133535 0.93172377 72 12 -0.095438756
5.9092021 -0.051568825 -0.51700783 57 5 -0.095436454
9.0168705 -0.080262899 1.7527716 7 13 -0.095434152
5.9036546 -0.053581335 -0.30941018 64 6 -0.095431849
7.5919671 -0.070229545 1.7528186 37 14 -0.095429547
5.9068384 -0.055672284 -0.10310882 57 7 -0.095427237
5.8880124 -0.0565226 1.5777609 3 15 -0.095424935
3.7495046 -0.040575128 -1.0047356 9 0 -0.0954042
2.5774517 -0.028341703 0.044992302 79 8 -0.095401898
4.3571115 -0.048671428 -1.0059811 57 1 -0.095399588
2.5782955 -0.029251089 0.13513145 97 9 -0.095397286
4.5073414 -0.051136363 -0.87619489 1 2 -0.095394984
2.5739965 -0.029651619 0.22521043 86 10 -0.095392682
4.9499555 -0.05788596 -0.78404963 21 3 -0.095390372
5.8933239 -0.069946669 0.72366023 73 11 -0.09538807
5.9072061 -0.071142577 -0.72536635 60 4 -0.095385768
5.856555 -0.071554877 0.92765647 68 12 -0.095383465
5.8930488 -0.072000757 -0.51561338 60 5 -0.095381163
5.9560566 -0.073810257 1.157829 8 13 -0.095378853
5.9054289 -0.074213713 -0.30951488 61 6 -0.095376551
7.6053152 -0.096903823 1.7559679 36 14 -0.095374249
5.8946109 -0.076135702 -0.10289939 57 7 -0.095371947
5.9283452 -0.077606291 1.5886314 11 15 -0.095369637
3.7435453 -0.053580154 -1.0031826 13 0 -0.095348902
4.3491211 -0.06376601 -1.0041815 43 1 -0.095344298
2.5781777 -0.038250841 0.13513145 100 9 -0.095341988
2.5499713 -0.038277514 0.22311871 30 10 -0.095337383
4.9141712 -0.0746243 -0.778418 22 3 -0.095335081
5.8890743 -0.090456799 0.72317278 73 11 -0.095332779
5.910892 -0.091823816 -0.72585386 57 4 -0.095330469
5.8918219 -0.092556126 0.9332881 75 12 -0.095328167
5.8887768 -0.092508294 -0.51526475 55 5 -0.095325865
6.0009122 -0.095317483 1.1666063 2 13 -0.095323563
5.9051337 -0.094827048 -0.30951488 61 6 -0.095321253
7.6224675 -0.12373542 1.760017 34 14 -0.095318951
5.9023066 -0.09684249 -0.10303901 58 7 -0.095316648
5.9821219 -0.099196434 1.6031252 18 15 -0.095314346
3.7510617 -0.066784792 -1.0052532 15 0 -0.095293604
5.8861527 -0.10582612 0.10275977 64 8 -0.095291302
4.3430262 -0.07884077 -1.0028318 31 1 -0.095288999
2.5860162 -0.047396526 0.13555014 97 9 -0.095286697
4.6207252 -0.084688686 -0.89832878 1 2 -0.095284395
5.8845119 -0.10887876 0.51491612 62 10 -0.095282085
4.8783298 -0.0911135 -0.77278632 23 3 -0.095279783
5.8867383 -0.11097554 0.722929 70 11 -0.095277481
5.9184742 -0.11260716 -0.72682881 57 4 -0.095275179
5.8717127 -0.11274265 0.93015939 68 12 -0.095272869
5.8924022 -0.11313991 -0.51561338 57 5 -0.095270567
5.8987765 -0.11532214 -0.30920088 65 6 -0.095265962
5.9347086 -0.11706081 1.3704019 15 14 -0.095263653
5.9059315 -0.11752437 -0.10310882 57 7 -0.09526135
6.5901504 -0.13229057 1.7661812 31 15 -0.095259048
3.7372856 -0.079590119 -1.0016297 7 0 -0.095238313
5.8857474 -0.12637199 0.10275977 61 8 -0.095236011
4.3407769 -0.093958125 -1.0023819 18 1 -0.095233701
2.5698607 -0.05607456 0.13471277 97 9 -0.095231399
4.5909595 -0.1001751 -0.89260459 17 2 -0.095229097
5.8880792 -0.1295065 0.51526475 60 10 -0.095226794
4.8542838 -0.10761613 -0.76903194 22 3 -0.095224485
5.8783765 -0.13134603 0.72195405 68 11 -0.095222183
5.8981991 -0.13281891 -0.72439146 60 4 -0.09521988
5.8475857 -0.13270028 0.92640501 66 12 -0.095217578
5.8879876 -0.13361712 -0.51526475 56 5 -0.095215268
5.8863573 -0.13563593 -0.30857283 58 6 -0.095210664
5.8816614 -0.13655482 1.3582544 61 14 -0.095208362
5.9014869 -0.13804565 -0.10303901 57 7 -0.095206052
6.6050987 -0.15565778 1.7703223 31 15 -0.09520375
3.742779 -0.092778809 -1.0031826 8 0 -0.095183015
5.8872695 -0.1469662 0.10279468 68 8 -0.095180713
4.3501625 -0.10935453 -1.0046314 16 1 -0.09517841
2.5696495 -0.065044709 0.13471277 96 9 -0.095176101
4.5631051 -0.11550441 -0.88726187 9 2 -0.095173799
5.8836083 -0.14995742 0.51491612 27 10 -0.095171496
4.8321562 -0.12400264 -0.76559031 20 3 -0.095169194
5.8758979 -0.15181333 0.72171032 22 11 -0.095166884
5.8897619 -0.15320018 -0.72341651 58 4 -0.095164582
5.835238 -0.1528011 0.92452782 71 12 -0.09516228
5.895452 -0.15437785 -0.51596195 60 5 -0.095159978
5.8249159 -0.15354812 1.1326423 15 13 -0.095157668
5.8898416 -0.15628828 -0.30878216 64 6 -0.095155366
5.8908896 -0.15734498 1.360504 31 14 -0.095153064
5.8929729 -0.15842991 -0.10289939 60 7 -0.095150761
6.6064467 -0.17876519 1.77084 31 15 -0.095148459
3.7405012 -0.10578837 -1.002665 9 0 -0.095127717
5.890718 -0.16762948 0.10286448 78 8 -0.095125414
4.3419628 -0.12431569 -1.0028318 13 1 -0.095123112
2.5733995 -0.074129075 0.1349221 96 9 -0.09512081
4.60781 -0.13273209 -0.89603907 1 2 -0.0951185
5.887032 -0.17060956 0.51526475 30 10 -0.095116198
4.8001013 -0.13994817 -0.76058447 19 3 -0.095113896
5.9050951 -0.17319606 0.72536635 91 11 -0.095111594
5.8911753 -0.17381689 -0.72366023 63 4 -0.095109284
5.8267717 -0.17293453 0.92327636 85 12 -0.095106982
5.8809371 -0.17454213 -0.51474178 61 5 -0.095104679
5.8989148 -0.17610615 1.1471437 1 13 -0.095102377
5.8992414 -0.17714645 -0.30930555 61 6 -0.095100075
5.859139 -0.17696577 1.3533056 16 14 -0.095097765
5.8883862 -0.1788778 -0.10282958 37 7 -0.095095463
6.5941968 -0.20147094 1.7677342 33 15 -0.095093161
3.7323854 -0.11859909 -1.0005945 16 0 -0.095072426
5.882102 -0.18793546 0.10272487 33 8 -0.095070116
4.3473454 -0.13965891 -1.0041815 15 1 -0.095067814
2.5731251 -0.083111458 0.1349221 96 9 -0.095065512
4.677959 -0.15109721 -0.90977734 1 2 -0.09506321
5.8764439 -0.19083478 0.51439321 97 10 -0.0950609
4.7620716 -0.15547806 -0.75463998 16 3 -0.095058598
5.8786626 -0.19296105 0.72219777 84 11 -0.095056295
5.8964849 -0.19457629 -0.72439146 51 4 -0.095053993
5.8577209 -0.19432063 0.92828226 83 12 -0.095051691
5.8842745 -0.1952015 -0.51509041 48 5 -0.095049381
5.9139614 -0.19721961 1.1501967 1 13 -0.095047079
5.9025798 -0.19787142 -0.30951488 49 6 -0.095044777
7.6327806 -0.25720638 1.7631663 25 14 -0.095042475
5.8937221 -0.19963409 -0.10293429 42 7 -0.095040165
6.6108294 -0.22507936 1.772393 1 15 -0.095037863
3.7222955 -0.13128637 -0.99800628 10 0 -0.095017128
5.8834095 -0.20853752 0.10275977 95 8 -0.095014825
4.3234615 -0.1540007 -0.99878263 12 1 -0.095012516
2.5808032 -0.092378631 0.13534079 28 9 -0.095010214
4.7284145 -0.16925135 -0.91969937 1 2 -0.095007911
5.8976436 -0.21213402 0.51631063 100 10 -0.095005609
4.7200437 -0.17060146 -0.7480697 19 3 -0.095003307
5.8938236 -0.21405661 0.72414774 91 11 -0.095000997
5.9195752 -0.21602643 -0.72731632 18 4 -0.094998695
5.8826699 -0.2157077 0.93234956 89 12 -0.094996393
5.8895302 -0.21595925 -0.51561338 22 5 -0.09499409
5.9093132 -0.21771744 1.1494334 1 13 -0.094991781
5.9238076 -0.21928675 -0.31066626 73 6 -0.094989479
7.6454678 -0.28435519 1.7663157 39 14 -0.094987176
5.924962 -0.22140056 -0.10349277 67 7 -0.094984874
6.6640573 -0.25018337 1.7868867 1 15 -0.094982564
3.7372577 -0.14487745 -1.0021474 8 0 -0.094961829
5.8966327 -0.22961785 0.10300411 100 8 -0.094959527
4.3248448 -0.16916764 -0.99923265 11 1 -0.094957225
5.8973503 -0.23170754 0.30930555 96 9 -0.094954923
4.8494234 -0.19053438 -0.94335973 1 2 -0.094952613
5.8948765 -0.23264079 0.51613629 92 10 -0.094950311
4.6937594 -0.1860593 -0.7440024 33 3 -0.094948009
5.8890734 -0.23447065 0.72366023 94 11 -0.094945706
5.9009333 -0.2359744 -0.72512263 42 4 -0.094943397
5.8818812 -0.23624074 0.93234956 89 12 -0.094941095
5.9225841 -0.23787555 -0.51857668 74 5 -0.094938792
5.9045939 -0.2381852 1.1486702 1 13 -0.09493649
5.9050455 -0.23923571 -0.30972421 83 6 -0.09493418
7.6424813 -0.31096187 1.7658658 36 14 -0.094931878
5.9201565 -0.24191789 -0.10342296 75 7 -0.094929576
6.6303296 -0.27209714 1.7780869 12 15 -0.094927274
3.7309389 -0.15767731 -1.0005945 8 0 -0.094906539
5.9077826 -0.25070825 0.10321353 100 8 -0.094904229
4.3378572 -0.1848439 -1.0023819 7 1 -0.094901927
5.8945107 -0.25220636 0.30920088 100 9 -0.094899625
5.0311441 -0.2152658 -0.97885019 20 2 -0.094897322
5.8940291 -0.25321633 0.51613629 92 10 -0.094895013
4.6792674 -0.20184654 -0.74181229 30 3 -0.09489271
5.8882189 -0.25502592 0.72366023 94 11 -0.094890408
5.8980908 -0.25648487 -0.72487891 57 4 -0.094888106
5.8790464 -0.25668472 0.93203664 96 12 -0.094885796
5.9276891 -0.25880849 -0.51909959 70 5 -0.094883494
5.8998036 -0.25862268 1.147907 1 13 -0.094881192
5.9061694 -0.25993454 -0.30982888 86 6 -0.09487889
5.863884 -0.25909895 1.3551052 50 14 -0.09487658
5.9052925 -0.26196128 -0.10317863 78 7 -0.094874278
6.7354865 -0.29996693 1.8065571 1 15 -0.094871975
3.7322958 -0.17078808 -1.0011121 15 0 -0.094851241
5.898881 -0.27096167 0.10307391 100 8 -0.094848938
4.3274517 -0.19953588 -1.0001323 7 1 -0.094846629
5.9055643 -0.2733345 0.30982888 100 9 -0.094844326
5.0205564 -0.2323726 -0.97694212 30 2 -0.094842024
5.8911185 -0.2736963 0.51596195 95 10 -0.094839722
5.696722 -0.26566121 -0.90325272 84 3 -0.094837412
5.8912587 -0.27576372 0.72414774 91 11 -0.09483511
5.8912106 -0.27679196 -0.72414774 63 4 -0.094832808
5.8702221 -0.27683267 0.93078518 96 12 -0.094830506
5.9028668 -0.27837214 -0.51700783 72 5 -0.094828196
5.8380723 -0.27633774 1.1360768 18 13 -0.094825894
5.9112115 -0.28083369 -0.3101429 43 6 -0.094823591
5.8707299 -0.27993742 1.3569047 65 14 -0.094821289
6.6649318 -0.32013965 1.787922 1 15 -0.094816677
3.7220292 -0.18333995 -0.99852395 13 0 -0.094795942
5.8919072 -0.29125479 0.10296919 100 8 -0.09479364
4.3325682 -0.21492995 -1.0014821 6 1 -0.094791338
5.8985906 -0.2936492 0.30951488 98 9 -0.094789028
5.0059896 -0.24921291 -0.97427082 30 2 -0.094786726
5.8781881 -0.29366201 0.51491612 100 10 -0.094784424
5.6799769 -0.28475362 -0.9007498 82 3 -0.094782121
5.8862953 -0.2961269 0.72366023 94 11 -0.094779812
5.9060688 -0.29815507 -0.72609758 24 4 -0.09477751
5.8258171 -0.29512319 0.92390203 93 12 -0.094775207
5.8860898 -0.29920638 1.1456172 1 13 -0.094770603
5.8541479 -0.29963148 1.3533056 16 14 -0.094765991
5.8474021 -0.30030948 -0.1022013 4 7 -0.094763689
6.6676316 -0.34360147 1.7889572 8 15 -0.094761387
3.71365 -0.19592403 -0.99645334 9 0 -0.094740644
5.8589044 -0.31012839 0.10241073 100 8 -0.094738342
4.3123312 -0.22901866 -0.99698305 6 1 -0.09473604
5.8995242 -0.31434363 0.30961955 100 9 -0.094733737
4.9854841 -0.26564094 -0.97045463 30 2 -0.094731435
5.8711586 -0.31385988 0.51439321 100 10 -0.094729125
5.6671128 -0.30394393 -0.89887255 81 3 -0.094726823
5.8654037 -0.31560552 0.72122282 91 11 -0.094724521
5.8594012 -0.31630817 -0.72049159 6 4 -0.094722219
5.8720913 -0.31802109 0.93141097 93 12 -0.094719909
5.8590007 -0.31731212 -0.51334733 2 5 -0.094717607
5.8928509 -0.3201769 1.1471437 1 13 -0.094715305
5.857255 -0.31926817 -0.30742142 7 6 -0.094713002
5.8841996 -0.32176691 1.360504 90 14 -0.094710693
5.8503113 -0.32093793 -0.1022711 4 7 -0.094708391
6.7165442 -0.36963376 1.8024158 94 15 -0.094706088
3.7090857 -0.20866887 -0.99541807 7 0 -0.094685353
5.8777518 -0.33170465 0.10275977 100 8 -0.094683051
4.3076143 -0.24384981 -0.9960832 5 1 -0.094680741
5.8983908 -0.33493489 0.30961955 100 9 -0.094678439
4.9747262 -0.28248543 -0.96854651 33 2 -0.094676137
5.8859401 -0.33525851 0.51578766 100 10 -0.094673835
5.6620727 -0.32349864 -0.89824677 81 3 -0.094671525
5.8682299 -0.33630484 0.72171032 91 11 -0.094669223
5.8503346 -0.33630368 -0.71951669 3 4 -0.094666921
5.8709455 -0.33851656 0.93141097 96 12 -0.094664618
5.8558683 -0.33764723 -0.51317304 4 5 -0.094662309
5.8561044 -0.33971187 -0.30742142 7 6 -0.094657704
5.8511519 -0.34147391 -0.10230601 6 7 -0.094653092
6.728713 -0.39386687 1.8060393 100 15 -0.09465079
3.7256904 -0.22265193 -1.0000768 13 0 -0.094630055
5.8885345 -0.35293758 0.10296919 100 8 -0.094627753
4.3028464 -0.25865087 -0.99518347 3 1 -0.094625451
5.8752556 -0.35419995 0.30846813 100 9 -0.094623141
4.9423547 -0.2979584 -0.96244061 35 2 -0.094620839
5.8847342 -0.35580227 0.51578766 100 10 -0.094618537
5.6648526 -0.34350014 -0.89887255 84 3 -0.094616234
5.8709831 -0.35702771 0.72219777 91 11 -0.094613925
5.8253484 -0.35527304 -0.71659178 4 4 -0.094611622
5.8657846 -0.35876679 0.93078518 96 12 -0.09460932
5.8645973 -0.35869417 -0.51404458 4 5 -0.094607018
5.8588705 -0.36039668 -0.30763078 7 6 -0.094602406
7.6751394 -0.47346544 1.7753137 7 14 -0.094600104
5.8319616 -0.36078492 -0.10199186 6 7 -0.094597802
6.7330813 -0.4177109 1.8075923 109 15 -0.094595492
3.7113945 -0.23480181 -0.99645334 12 0 -0.094574757
5.8872666 -0.37349027 0.10296919 100 8 -0.094572455
4.2785797 -0.27218437 -0.9897846 5 1 -0.094570152
5.8739829 -0.37470627 0.30846813 100 9 -0.09456785
4.9060173 -0.31295893 -0.95557153 33 2 -0.094565541
5.8695383 -0.37545133 0.51456749 100 10 -0.094563238
5.6557336 -0.36276624 -0.8976211 84 3 -0.094560936
5.8697009 -0.37751904 0.72219777 94 11 -0.094558634
5.8260536 -0.3757329 -0.71683556 4 4 -0.094556324
5.8487267 -0.37822017 0.92828226 86 12 -0.094554022
5.8493919 -0.37826318 -0.51282436 4 5 -0.09455172
5.8575768 -0.38084581 -0.30763078 7 6 -0.094547108
5.828671 -0.38100964 -0.10195696 6 7 -0.094542503
6.7373652 -0.44159028 1.8091452 136 15 -0.094540201
3.6970594 -0.24685463 -0.99282992 9 0 -0.094519466
5.8719602 -0.39310339 0.10272487 100 8 -0.094517156
4.2639928 -0.28620416 -0.98663533 8 1 -0.094514854
5.8806109 -0.3957445 0.30888686 100 9 -0.094512552
4.8618007 -0.32718217 -0.94717592 21 2 -0.09451025
5.8622279 -0.39553517 0.51404458 100 10 -0.09450794
5.6386662 -0.38143963 -0.89511812 77 3 -0.094505638
5.8762693 -0.39854318 0.72317278 94 11 -0.094503336
5.8524342 -0.39795271 -0.72024786 1 4 -0.094501033
5.8473711 -0.39863378 0.92828226 86 12 -0.094498724
5.8400855 -0.39813706 -0.51212716 4 5 -0.094496422
5.8172932 -0.39760327 1.1334054 7 13 -0.094494119
5.8522258 -0.40101707 -0.30742142 7 6 -0.094491817
5.9432902 -0.40829936 1.3753507 28 14 -0.094489515
5.8492503 -0.40286458 -0.10234091 6 7 -0.094487205
6.7242193 -0.46430689 1.8060393 89 15 -0.094484903
3.6961751 -0.25975829 -0.99282992 9 0 -0.094464168
5.8565888 -0.41261423 0.10248053 100 8 -0.094461866
4.2571363 -0.30067471 -0.98528558 16 1 -0.094459556
5.8732891 -0.41482097 0.30857283 98 9 -0.094457254
4.8430042 -0.34290302 -0.94374132 31 2 -0.094454952
5.8469 -0.41500831 0.51282436 100 10 -0.094452649
4.5220566 -0.32176521 -0.71803427 19 3 -0.09445034
5.8570223 -0.41778162 0.72097909 89 11 -0.094448037
4.5164642 -0.32295182 -0.55596799 37 4 -0.094445735
5.836165 -0.41731763 0.92671788 89 12 -0.094443433
4.4972382 -0.32236603 -0.39446688 19 5 -0.094441131
9.0782404 -0.65232903 1.7691811 2 13 -0.094438821
5.8348541 -0.42029482 -0.30658406 7 6 -0.094436519
6.0565062 -0.43732339 1.4018949 48 14 -0.094434217
5.8239479 -0.420531 -0.10192205 7 7 -0.094431914
6.6667652 -0.4825581 1.7910279 33 15 -0.094429605
3.7048788 -0.27336958 -0.99541807 12 0 -0.09440887
5.8512001 -0.43173882 0.10241073 100 8 -0.094406568
4.2600031 -0.31507772 -0.98618543 33 1 -0.094404265
5.8698134 -0.43517232 0.30846813 100 9 -0.094401963
4.5148153 -0.33550873 -0.88001108 40 2 -0.094399653
5.8652849 -0.43689525 0.51456749 100 10 -0.094397351
4.5111156 -0.33602545 -0.71646994 43 3 -0.094395049
5.8496661 -0.43675849 0.72024786 94 11 -0.094392747
4.5034909 -0.33703828 -0.55450553 49 4 -0.094390437
5.8425517 -0.4382782 0.92796934 89 12 -0.094388135
4.5040336 -0.33865997 -0.39516413 38 5 -0.094385833
9.0995207 -0.68419635 1.7737606 24 13 -0.09438353
5.8334284 -0.43964159 -0.30658406 7 6 -0.094381221
7.7222915 -0.58335286 1.7879109 82 14 -0.094378918
5.8204503 -0.44070682 -0.10188715 6 7 -0.094376616
6.692009 -0.50787318 1.7982749 12 15 -0.094374314
3.7078044 -0.28595099 -0.99645334 12 0 -0.094353579
5.8636136 -0.45323944 0.10265506 100 8 -0.094351269
4.2802486 -0.33160168 -0.99113435 50 1 -0.094348967
5.8623643 -0.45417216 0.30815417 100 9 -0.094346665
4.4999766 -0.34941465 -0.87733978 55 2 -0.094344363
5.8638039 -0.45634288 0.51456749 100 10 -0.094342053
4.4980984 -0.35084847 -0.71459275 41 3 -0.094339751
5.8560214 -0.4577938 0.72122282 94 11 -0.094337448
4.486455 -0.35151595 -0.55255568 48 4 -0.094335146
5.827281 -0.45657033 0.92577928 93 12 -0.094332837
4.5008988 -0.35343802 -0.39498982 50 5 -0.094330534
9.1107769 -0.71703374 1.7764318 28 13 -0.094328232
5.8358407 -0.46031547 -0.30679342 7 6 -0.09432593
7.6871824 -0.60769439 1.7802627 40 14 -0.09432362
5.8209505 -0.46016327 -0.10192205 6 7 -0.094321318
5.9507742 -0.47147128 1.5995017 1 15 -0.094319016
3.6933043 -0.29780501 -0.99282992 13 0 -0.094298281
5.8680582 -0.47316363 0.10275977 100 8 -0.094295979
4.2849531 -0.34626457 -0.99248403 41 1 -0.094293669
5.8667154 -0.47511652 0.30846813 100 9 -0.094291367
4.4850316 -0.36400867 -0.87466848 63 2 -0.094289064
5.8562174 -0.47632399 0.51404458 100 10 -0.094286762
4.4969101 -0.3657628 -0.71459275 43 3 -0.094284452
5.8584285 -0.47753313 0.72171032 94 11 -0.09428215
4.4892216 -0.36671486 -0.55304313 49 4 -0.094279848
5.8138394 -0.47594148 0.92390203 96 12 -0.094277546
4.4777946 -0.36735496 -0.3930724 44 5 -0.094275236
9.1142178 -0.7477237 1.7775766 27 13 -0.094272934
5.8422441 -0.48031992 -0.30721208 6 6 -0.094270632
7.6928935 -0.63382274 1.7820623 37 14 -0.094268329
5.8173156 -0.48031479 -0.10188715 6 7 -0.094266027
3.680692 -0.30972329 -0.98972404 13 0 -0.094242811
5.8622994 -0.49433181 0.10268996 100 8 -0.094240509
4.2797713 -0.36163923 -0.99158418 18 1 -0.094238207
5.8669248 -0.49678442 0.30857283 100 9 -0.094235897
4.4798217 -0.37933087 -0.8739053 55 2 -0.094233595
5.8525333 -0.49659467 0.51387024 100 10 -0.094231293
4.4837298 -0.38123819 -0.71271551 47 3 -0.09422899
5.8586168 -0.49917063 0.72195405 98 11 -0.094226681
4.4819131 -0.38265961 -0.5523119 52 4 -0.094224378
5.8159919 -0.49758384 0.92452782 93 12 -0.094222076
4.47053 -0.38247362 -0.39254946 60 5 -0.094219774
5.7704334 -0.49470067 1.1257731 13 13 -0.094217464
5.8245249 -0.50036192 -0.3063747 7 6 -0.094215162
7.707993 -0.66351855 1.7861114 72 14 -0.09421286
5.8195014 -0.50197685 -0.10195696 6 7 -0.094210558
6.7190433 -0.5807507 1.8070747 100 15 -0.094208248
3.6815131 -0.32273811 -0.99024171 8 0 -0.094187513
5.8485856 -0.51374215 0.10248053 100 8 -0.094185211
4.2726598 -0.37606362 -0.99023461 16 1 -0.094182909
5.8671441 -0.51743627 0.30867749 100 9 -0.094180606
4.4686918 -0.39410365 -0.87199712 50 2 -0.094178297
5.8507648 -0.51702076 0.51387024 100 10 -0.094175994
4.4626946 -0.39514473 -0.7095868 47 3 -0.094173692
5.8469524 -0.51874089 0.72073537 91 11 -0.09417139
4.4765964 -0.39795053 -0.55182445 57 4 -0.09416908
5.8004465 -0.51665562 0.92233771 89 12 -0.094166778
4.4691677 -0.39807633 -0.39254946 55 5 -0.094164476
9.108634 -0.81292391 1.7775766 24 13 -0.094162174
5.8227429 -0.52069026 -0.3063747 7 6 -0.094159864
7.7056298 -0.69042045 1.7861114 100 14 -0.094157562
5.8137298 -0.52193004 -0.10188715 6 7 -0.094155259
3.6861358 -0.33611333 -0.99179465 9 0 -0.094132222
4.2674394 -0.39062047 -0.98933476 11 1 -0.09412761
5.8454132 -0.53608924 0.30763078 100 9 -0.094125308
4.4672885 -0.40969989 -0.87199712 52 2 -0.094123006
5.8350363 -0.53616452 0.51265007 100 10 -0.094120696
4.4671893 -0.41126329 -0.71052545 50 3 -0.094118394
5.8174314 -0.53659475 0.71732301 91 11 -0.094116092
4.4573894 -0.4119302 -0.54963076 63 4 -0.094113789
5.8045092 -0.5374462 0.92327636 93 12 -0.09411148
4.4558477 -0.41257209 -0.39150357 50 5 -0.094109178
9.1252909 -0.84652758 1.7813929 30 13 -0.094106875
4.5799489 -0.42567524 -0.24105945 3 6 -0.094104573
7.7031727 -0.71731389 1.7861114 117 14 -0.094102271
4.5893688 -0.42816666 -0.080455594 28 7 -0.094099961
5.816565 -0.5436824 1.5653377 9 15 -0.094097659
3.6849399 -0.34897828 -0.99179465 13 0 -0.094076924
4.5787368 -0.43443066 0.080281071 78 8 -0.094074622
4.2582898 -0.4047766 -0.98753518 11 1 -0.094072312
5.8494716 -0.55705833 0.3079448 100 9 -0.09407001
4.4521503 -0.42398828 -0.86932582 53 2 -0.094067708
5.8509793 -0.55823237 0.51421887 100 10 -0.094065405
4.4558949 -0.42591441 -0.70896107 49 3 -0.094063096
5.8431883 -0.55954731 0.72073537 94 11 -0.094060794
4.4499965 -0.42691821 -0.54889959 51 4 -0.094058491
5.7966986 -0.55713749 0.92233771 100 12 -0.094056189
4.4583468 -0.42850462 -0.39185223 60 5 -0.094053887
9.1300974 -0.8791284 1.7829194 28 13 -0.094051577
4.5784349 -0.44165963 -0.24105945 71 6 -0.094049275
7.692863 -0.74344879 1.7843118 100 14 -0.094046973
4.5778942 -0.44322041 -0.080281071 84 7 -0.09404467
6.6702905 -0.64697617 1.7956866 12 15 -0.094042361
3.6779318 -0.36127245 -0.99024171 16 0 -0.094021626
4.5911226 -0.4517816 0.080525406 100 8 -0.094019324
4.2762446 -0.42155007 -0.9920342 8 1 -0.094017021
5.8534536 -0.57806218 0.3082588 100 9 -0.094014712
4.4408746 -0.43856189 -0.86741769 52 2 -0.094012409
5.8430467 -0.5780642 0.5136959 100 10 -0.094010107
4.4465175 -0.44068649 -0.70770961 49 3 -0.094007805
5.8431745 -0.5801366 0.72097909 98 11 -0.094005503
4.4445286 -0.44205606 -0.54841208 57 4 -0.094003193
5.8124094 -0.57913107 0.92515355 96 12 -0.094000891
4.4548416 -0.44386706 -0.39167792 33 5 -0.093998589
9.1347866 -0.91177297 1.7844458 30 13 -0.093996286
4.5649409 -0.45644638 -0.24043141 76 6 -0.093993977
4.5524426 -0.45680174 -0.079862215 73 7 -0.093989372
6.6564589 -0.66909653 1.7925807 15 15 -0.09398707
3.6631944 -0.3727397 -0.98661828 8 0 -0.093966328
4.5596771 -0.46476316 0.080001831 91 8 -0.093964025
4.2728081 -0.43627647 -0.99158418 10 1 -0.093961723
5.8474264 -0.59808457 0.30804947 100 9 -0.093959421
4.4393167 -0.45406073 -0.86741769 50 2 -0.093957119
5.8370295 -0.59805059 0.51334733 100 10 -0.093954809
4.4331622 -0.45499495 -0.70583236 49 3 -0.093952507
5.8430891 -0.60073256 0.72122282 96 11 -0.093950205
4.4390087 -0.45716095 -0.54792464 60 4 -0.093947902
5.8241072 -0.60083556 0.92734367 93 12 -0.093945593
4.4354277 -0.45757446 -0.39010909 59 5 -0.09394329
4.5712667 -0.4732008 -0.24085009 85 6 -0.093938686
7.7049303 -0.79894543 1.7883608 13 14 -0.093936376
4.564743 -0.47413602 -0.080106542 77 7 -0.093934074
6.6502399 -0.69192815 1.7915455 15 15 -0.093931772
3.6695559 -0.38633341 -0.98868877 9 0 -0.093911037
4.5560384 -0.4804669 0.079966925 87 8 -0.093908735
4.2499413 -0.44893679 -0.98663533 11 1 -0.093906425
5.8532476 -0.61933291 0.30846813 100 9 -0.093904123
4.4338002 -0.46914098 -0.86665452 52 2 -0.09390182
5.8349066 -0.61842197 0.51334733 100 10 -0.093899518
4.4256539 -0.46984121 -0.70489377 50 3 -0.093897209
5.8350339 -0.62049526 0.72049159 100 11 -0.093894906
4.4354124 -0.47244295 -0.54768091 61 4 -0.093892604
5.825902 -0.6215809 0.92796934 93 12 -0.093890302
4.425879 -0.47220874 -0.38941187 56 5 -0.093887992
5.9032664 -0.6308772 1.1540129 37 13 -0.09388569
4.5616431 -0.48830426 -0.24043141 88 6 -0.093883388
7.7079077 -0.82645905 1.7897105 13 14 -0.093881086
4.5670371 -0.49049419 -0.080176361 77 7 -0.093878776
6.6727543 -0.71782368 1.7982749 1 15 -0.093876474
3.6739469 -0.39976716 -0.99024171 10 0 -0.093855739
4.5622849 -0.49723411 0.080106542 98 8 -0.093853436
4.2386627 -0.46271181 -0.98438585 11 1 -0.093851134
5.8311958 -0.63758987 0.30742142 100 9 -0.093848825
4.4340868 -0.48482832 -0.8670361 55 2 -0.093846522
5.8366728 -0.63921964 0.5136959 100 10 -0.09384422
4.4180961 -0.48464057 -0.70395517 47 3 -0.093841918
5.8170466 -0.63912523 0.71854174 98 11 -0.093839608
4.4218969 -0.48661968 -0.54621845 61 4 -0.093837306
5.8099527 -0.64039838 0.92577928 89 12 -0.093835004
4.4321251 -0.48852819 -0.39010909 60 5 -0.093832701
5.9224935 -0.6538493 1.1582106 72 13 -0.093830392
4.5479999 -0.50290734 -0.23980337 92 6 -0.09382809
7.7069125 -0.8535741 1.7901604 1 14 -0.093825787
4.569272 -0.50687408 -0.080246165 78 7 -0.093823485
6.6548471 -0.73940486 1.7941337 35 15 -0.093821183
3.6782882 -0.41323617 -0.99179465 17 0 -0.09380044
4.5545597 -0.51248568 0.080001831 85 8 -0.093798138
4.2370219 -0.4775047 -0.98438585 10 1 -0.093795836
5.8229814 -0.6572687 0.30710742 100 9 -0.093793534
4.4109082 -0.49788103 -0.86283833 61 2 -0.093791224
5.8284674 -0.65891814 0.51317304 100 10 -0.093788922
4.4144144 -0.49983743 -0.70364231 50 3 -0.09378662
5.8345051 -0.66166353 0.72097909 98 11 -0.093784317
4.4103093 -0.5009318 -0.54499972 52 4 -0.093782008
5.8174958 -0.66179138 0.92734367 100 12 -0.093779705
4.4264336 -0.50354576 -0.38976046 53 5 -0.093777403
5.9182248 -0.6742965 1.157829 67 13 -0.093775101
4.5541544 -0.51968551 -0.24022207 90 6 -0.093772799
7.6903334 -0.87892222 1.7870111 37 14 -0.093770489
4.5436339 -0.52009177 -0.079827309 82 7 -0.093768187
6.6656609 -0.76417041 1.7977571 36 15 -0.093765885
3.6595523 -0.42407188 -0.98713589 9 0 -0.09374515
4.5587025 -0.52907246 0.080106542 92 8 -0.09374284
4.248879 -0.49386668 -0.98753518 8 1 -0.093740538
5.8444576 -0.68036199 0.30836347 98 9 -0.093738236
4.4013433 -0.51236689 -0.86131191 56 2 -0.093735933
5.8281102 -0.67948997 0.51334733 100 10 -0.093733624
4.4087191 -0.51478535 -0.70301658 51 3 -0.093731321
5.83216 -0.68202567 0.72097909 98 11 -0.093729019
4.4045911 -0.51586187 -0.54451227 58 4 -0.093726717
5.8112264 -0.68163395 0.92671788 93 12 -0.093724415
4.4167337 -0.51806551 -0.38906324 34 5 -0.093722105
5.9119349 -0.6944927 1.1570657 68 13 -0.093719803
4.554296 -0.53581268 -0.24032672 100 6 -0.093717501
7.722055 -0.9098658 1.7951094 9 14 -0.093715198
4.541791 -0.53594887 -0.079827309 82 7 -0.093712889
6.6514416 -0.78607285 1.7946514 38 15 -0.093710586
3.6503768 -0.43592727 -0.98506534 9 0 -0.093689851
4.5488858 -0.54403228 0.079966925 100 8 -0.093687549
4.243259 -0.50823152 -0.98663533 12 1 -0.09368524
5.828166 -0.6990937 0.30763078 100 9 -0.093682937
4.3936801 -0.52702582 -0.86016703 55 2 -0.093680635
5.8257031 -0.6998297 0.51334733 100 10 -0.093678333
4.3872824 -0.527812 -0.69988787 51 3 -0.093676031
5.8297439 -0.70237958 0.72097909 100 11 -0.093673721
4.4007921 -0.53099573 -0.54426849 63 4 -0.093671419
5.8088117 -0.70191473 0.92671788 96 12 -0.093669116
4.3970966 -0.53132844 -0.38749442 48 5 -0.093666814
5.9075255 -0.71488911 1.1566842 66 13 -0.093664505
4.550415 -0.55146658 -0.24022207 100 6 -0.093662202
7.6936827 -0.93376297 1.7892607 36 14 -0.0936599
4.5438628 -0.55228198 -0.079897113 81 7 -0.093657598
6.6544104 -0.80998623 1.7962043 40 15 -0.093655288
3.648833 -0.44866681 -0.98506534 8 0 -0.093634553
4.5350504 -0.55844116 0.079757497 71 8 -0.093632251
4.2298546 -0.52160907 -0.98393589 10 1 -0.093629949
5.8336186 -0.72041267 0.30804947 100 9 -0.093627647
4.3957105 -0.54284066 -0.8609302 55 2 -0.093625337
5.823225 -0.7201609 0.51334733 100 10 -0.093623035
4.3795328 -0.54239494 -0.69894928 47 3 -0.093620732
5.8174062 -0.72150314 0.71976036 99 11 -0.09361843
4.398912 -0.54635417 -0.54426849 63 4 -0.093616121
5.7984853 -0.72121179 0.92546642 42 12 -0.093613818
4.3971925 -0.54691988 -0.38766876 55 5 -0.093611516
5.8270664 -0.7257995 1.1414195 64 13 -0.093609214
4.5444989 -0.56685275 -0.24001274 100 6 -0.093606904
7.7039123 -0.96230406 1.79241 40 14 -0.093604602
4.5419068 -0.56813955 -0.079897113 82 7 -0.0936023
6.6687942 -0.83537054 1.8008629 40 15 -0.093599997
3.6606605 -0.46309808 -0.98868877 14 0 -0.093579262
4.5390258 -0.57502204 0.079862215 82 8 -0.093576953
4.2260752 -0.53612572 -0.983486 10 1 -0.093574651
5.8193088 -0.73824555 0.30742142 100 9 -0.093572348
4.3996315 -0.55892348 -0.86207509 56 2 -0.093570046
5.8186989 -0.74023199 0.51317304 80 10 -0.093567736
4.3776126 -0.55767912 -0.69894928 49 3 -0.093565434
5.7853155 -0.73803729 0.71610433 29 11 -0.093563132
4.3891993 -0.55993366 -0.5432936 64 4 -0.09356083
5.8411288 -0.74619353 0.93266243 28 12 -0.09355852
4.39328 -0.56201279 -0.38749442 46 5 -0.093556218
5.9043379 -0.75636309 1.1570657 68 13 -0.093553916
4.5385303 -0.58220428 -0.23980337 103 6 -0.093551613
7.7122765 -0.98933357 1.7951094 48 14 -0.093549304
4.5399981 -0.58319801 -0.079897113 82 7 -0.093547001
6.6698194 -0.85797346 1.8018982 43 15 -0.093544699
3.6552732 -0.47473705 -0.98765355 10 0 -0.093523964
4.5450253 -0.59110236 0.080001831 100 8 -0.093521662
4.2184768 -0.54938191 -0.98213631 10 1 -0.093519352
5.7910824 -0.75418591 0.3060607 40 9 -0.09351705
4.3704987 -0.56995589 -0.85673243 48 2 -0.093514748
5.8122611 -0.75900751 0.51282436 20 10 -0.093512446
4.3737803 -0.57193649 -0.69863641 50 3 -0.093510136
5.8458214 -0.76546544 0.72390395 28 11 -0.093507834
4.3735404 -0.57268155 -0.54158741 57 4 -0.093505532
5.7857399 -0.75862533 0.92421496 79 12 -0.093503229
4.3933678 -0.57683778 -0.38766876 55 5 -0.09350092
5.9134769 -0.77747405 1.1593555 67 13 -0.093498617
4.5405354 -0.59777284 -0.24001274 100 6 -0.093496315
7.7089534 -1.0149031 1.7951094 49 14 -0.093494013
4.5340743 -0.59772724 -0.079827309 92 7 -0.093491711
6.6745982 -0.88109791 1.8039688 17 15 -0.093489401
3.6326146 -0.48404899 -0.98195946 11 0 -0.093468666
4.5529509 -0.6074934 0.080176361 100 8 -0.093466364
4.2166319 -0.56336778 -0.98213631 11 1 -0.093464062
5.8379049 -0.78101701 0.30867749 48 9 -0.093461752
4.3645911 -0.58468693 -0.85596919 46 2 -0.09345945
5.8413081 -0.7825101 0.51561338 87 10 -0.093457147
4.3699017 -0.58617473 -0.69832355 49 3 -0.093454845
5.8727627 -0.78881055 0.72756004 92 11 -0.093452536
4.3695474 -0.58767998 -0.54134369 63 4 -0.093450233
5.8770256 -0.79147172 0.93923265 100 12 -0.093447931
4.3755312 -0.59003979 -0.38627425 50 5 -0.093445629
5.9048896 -0.79732299 1.1582106 67 13 -0.093443327
4.5344625 -0.61308342 -0.23980337 103 6 -0.093441017
7.713088 -1.0428505 1.796909 49 14 -0.093438715
4.539887 -0.61462367 -0.079966925 99 7 -0.093436413
6.6810546 -0.90568882 1.8065571 1 15 -0.09343411
3.6250741 -0.49657336 -0.98040658 9 0 -0.093413368
4.5328636 -0.6217311 0.079862215 100 8 -0.093411066
4.2126083 -0.57855368 -0.98168641 10 1 -0.093408763
5.8765545 -0.80812281 0.31087559 100 9 -0.093406461
4.3624187 -0.60067993 -0.85596919 46 2 -0.093404159
5.8759031 -0.80907804 0.51892531 100 10 -0.093401849
4.3540263 -0.60029876 -0.69613349 55 3 -0.093399547
5.8855634 -0.81250179 0.72950995 100 11 -0.093397245
4.3673639 -0.60369128 -0.54134369 64 4 -0.093394943
5.8682151 -0.81219435 0.93829399 100 12 -0.093392633
4.3575506 -0.60388494 -0.38487977 53 5 -0.093390331
5.9019279 -0.81896013 1.1582106 66 13 -0.093388028
4.5400977 -0.63079834 -0.24022207 100 6 -0.093385726
5.7519927 -0.79917824 1.3407084 20 14 -0.093383417
4.5376034 -0.63125896 -0.079966925 100 7 -0.093381114
6.6470761 -0.9259057 1.7982749 1 15 -0.093378812
3.6404469 -0.51227945 -0.98506534 10 0 -0.093358077
4.5127325 -0.63582963 0.079548068 100 8 -0.093355775
4.208529 -0.59371746 -0.98123646 11 1 -0.093353465
5.8775086 -0.83021468 0.31108496 100 9 -0.093351163
4.3544636 -0.61508024 -0.8548243 49 2 -0.093348861
5.8689523 -0.83005089 0.51857668 100 10 -0.093346559
4.3439732 -0.61514515 -0.69488198 51 3 -0.093344249
5.8648567 -0.83155996 0.72731632 100 11 -0.093341947
4.3729839 -0.62081051 -0.54231864 63 4 -0.093339644
5.8730226 -0.83480912 0.93954557 100 12 -0.093337342
4.3652787 -0.62049389 -0.38575131 42 5 -0.093335032
5.8951464 -0.83900338 1.1574475 66 13 -0.09333273
4.5299592 -0.64551526 -0.23980337 100 6 -0.093330428
7.7052369 -1.0993618 1.796909 39 14 -0.093328126
4.5392184 -0.64845151 -0.080036737 100 7 -0.093325816
6.6417246 -0.94998854 1.7977571 26 15 -0.093323514
3.6367245 -0.52470797 -0.98454767 9 0 -0.093302779
4.5164232 -0.6524359 0.079652779 98 8 -0.093300477
4.2025738 -0.6078465 -0.98033673 10 1 -0.093298174
5.8646917 -0.84929478 0.3105616 100 9 -0.093295865
4.3561759 -0.63083923 -0.8555876 58 2 -0.093293563
5.8758783 -0.85196179 0.51944822 100 10 -0.09329126
4.3417993 -0.63030475 -0.69488198 51 3 -0.093288958
5.8520961 -0.85059935 0.72609758 99 11 -0.093286648
4.3511462 -0.63321251 -0.53988123 61 4 -0.093284346
5.8700724 -0.85530472 0.93954557 100 12 -0.093282044
4.3709726 -0.63687694 -0.38644853 39 5 -0.093279742
5.8766398 -0.85730898 1.1543945 60 13 -0.093277432
4.5158205 -0.65959185 -0.23917533 100 6 -0.09327513
7.7071371 -1.1270972 1.7982588 37 14 -0.093272828
4.5309916 -0.66342324 -0.079932027 140 7 -0.093270525
6.6421914 -0.97372717 1.7987925 33 15 -0.093268216
3.6348708 -0.53739923 -0.98454767 17 0 -0.093247481
4.5240092 -0.66966128 0.079827309 94 8 -0.093245178
4.2062101 -0.62336957 -0.98168641 10 1 -0.093242876
5.8577399 -0.86917484 0.31035227 100 9 -0.093240574
4.3345275 -0.64315969 -0.85177141 51 2 -0.093238264
5.8728685 -0.87246728 0.51944822 100 10 -0.093235962
4.3395729 -0.64545655 -0.69488198 52 3 -0.09323366
5.8510551 -0.87131435 0.72634137 98 11 -0.093231358
4.3410559 -0.64722604 -0.53890634 63 4 -0.093229048
5.8514209 -0.87345666 0.93704253 100 12 -0.093226746
4.3470469 -0.64889485 -0.38453114 60 5 -0.093224443
5.8969121 -0.88129932 1.1589739 67 13 -0.093222141
4.5174413 -0.67594218 -0.2393847 90 6 -0.093219832
4.5306258 -0.67953193 -0.079966925 123 7 -0.093215227
5.6739831 -0.85203254 1.5373851 1 15 -0.093212925
3.6215122 -0.54834878 -0.98144192 14 0 -0.09319219
4.5216441 -0.68544894 0.079827309 82 8 -0.09318988
4.2020812 -0.63775575 -0.98123646 11 1 -0.093187578
5.842823 -0.88781661 0.30972421 100 9 -0.093185276
4.3264327 -0.65740126 -0.85062653 52 2 -0.093182974
5.861908 -0.89176339 0.51875097 100 10 -0.093180664
4.3372931 -0.6606006 -0.69488198 52 3 -0.093178362
5.8519025 -0.8923313 0.72682881 92 11 -0.093176059
4.3446565 -0.66327381 -0.53963745 60 4 -0.093173757
5.832715 -0.89148897 0.93453962 100 12 -0.093171448
4.3368773 -0.66286081 -0.38383389 53 5 -0.093169145
5.9170876 -0.90544158 1.1635534 52 13 -0.093166843
4.530848 -0.69412643 -0.24022207 81 6 -0.093164541
5.9462252 -0.91202462 1.3888478 31 14 -0.093162239
4.5341558 -0.69625318 -0.080071643 114 7 -0.093159929
5.6576085 -0.86977845 1.5337617 5 15 -0.093157627
3.6138489 -0.56009918 -0.97988898 9 0 -0.093136892
4.5132957 -0.70030844 0.079722598 56 8 -0.093134589
