# .PCD v0.7 - Point Cloud Data file format
VERSION 0.7
FIELDS x y z intensity ring time
SIZE 4 4 4 4 2 4
TYPE F F F F U F
COUNT 1 1 1 1 1 1
WIDTH 953
HEIGHT 1
VIEWPOINT 0 0 0 1 0 0 0
POINTS 953
DATA ascii
4.921823 -3.3310721 -0.1037371 59 7 -0.094266266
5.3429642 -3.6174583 1.7289113 7 15 -0.094263956
2.8409681 -1.9270977 -0.9198429 20 0 -0.094242334
3.3456023 -2.2711089 -0.93354684 1 1 -0.09423773
3.9462283 -2.6808469 -0.92733175 1 2 -0.094233118
5.0117569 -3.4047077 0.53008121 100 10 -0.094230816
4.4635301 -3.0334117 -0.85475802 1 3 -0.094228514
4.9495339 -3.3649631 0.73487222 100 11 -0.094226204
4.3580279 -2.963937 -0.64712632 16 4 -0.094223902
4.9878359 -3.393549 0.95550185 65 12 -0.094221599
4.3565383 -2.9651484 -0.46105388 16 5 -0.094219297
5.5045581 -3.74792 1.2944483 30 13 -0.094216987
4.321579 -2.943562 -0.27403107 25 6 -0.094214685
5.5244174 -3.7628527 1.5431641 64 14 -0.094212383
4.9080286 -3.3442657 -0.10366729 29 7 -0.094210081
5.331573 -3.6342258 1.7289113 10 15 -0.094207771
2.8243172 -1.9309555 -0.91673708 14 0 -0.094187036
3.3469057 -2.2899587 -0.93624628 1 1 -0.094182432
3.9363759 -2.6952925 -0.92733175 1 2 -0.09417782
4.9828053 -3.4117975 0.52833807 57 10 -0.094175518
4.4589009 -3.0542164 -0.85600948 1 3 -0.094173215
4.943718 -3.3875692 0.73584712 91 11 -0.094170913
4.3176632 -2.9596872 -0.64273894 16 4 -0.094168603
4.9802523 -3.415159 0.95644045 91 12 -0.094166301
4.30621 -2.954047 -0.45687038 17 5 -0.094163999
5.0051608 -3.4348092 1.1799629 50 13 -0.094161697
4.2844162 -2.9412954 -0.27235636 25 6 -0.094159387
4.9171672 -3.3769491 -0.10412105 74 7 -0.094154783
5.2927408 -3.6362395 1.7206291 13 15 -0.09415248
2.8888049 -1.9906214 -0.94003081 4 0 -0.094131745
5.3607383 -3.695364 0.11365007 2 8 -0.094129436
3.3224473 -2.2911472 -0.93174726 1 1 -0.094127133
3.9269435 -2.7090168 -0.92733175 1 2 -0.094122529
4.994864 -3.4470124 0.53095281 40 10 -0.094120219
4.5289574 -3.126652 -0.8716529 43 3 -0.094117917
4.96557 -3.4293563 0.74096566 57 11 -0.094115615
4.2839212 -2.9596956 -0.63932663 16 4 -0.094113313
4.9374208 -3.4111886 0.9504959 85 12 -0.094111003
4.2663703 -2.9486697 -0.45373279 17 5 -0.094108701
4.9834514 -3.4455607 1.1776732 79 13 -0.094106399
4.2511258 -2.9403272 -0.27089092 27 6 -0.094104096
5.2242556 -3.6147487 1.4666809 1 14 -0.094101794
4.3149972 -2.9856179 -0.091590226 77 7 -0.094099484
5.2196546 -3.6129124 1.7009588 3 15 -0.094097182
2.8802516 -1.9995912 -0.93951315 5 0 -0.094076447
5.2663221 -3.6561012 0.11190483 2 8 -0.094074145
3.327636 -2.3110449 -0.93534642 1 1 -0.094071835
3.9432573 -2.7406349 -0.93343765 1 2 -0.094067231
5.0187898 -3.4894488 0.5347876 30 10 -0.094064929
4.3628635 -3.0333984 -0.84161752 38 3 -0.094062619
4.996542 -3.4752743 0.74730289 78 11 -0.094060317
4.2447529 -2.9534769 -0.63493931 16 4 -0.094058014
4.9741225 -3.4622576 0.95988196 100 12 -0.094055712
4.2200799 -2.9384968 -0.44989792 17 5 -0.09405341
4.9703865 -3.4609451 1.1772915 53 13 -0.0940511
4.2069359 -2.9304352 -0.26869282 23 6 -0.094048798
5.2282286 -3.643194 1.47118 12 14 -0.094046496
5.2070112 -3.6311104 1.7009588 9 15 -0.094041884
2.8688552 -2.0058107 -0.93796021 5 0 -0.094021149
3.297195 -2.3070059 -0.92904782 1 1 -0.094016545
3.988833 -2.7919731 -0.94641262 1 2 -0.094011933
5.0153508 -3.5117867 0.53565919 17 10 -0.09400963
4.2098703 -2.9488778 -0.81408507 20 3 -0.094007328
5.0120177 -3.5120606 0.75144643 71 11 -0.094005026
4.198657 -2.9432085 -0.6295771 16 4 -0.094002716
4.9787898 -3.4900723 0.96301067 57 12 -0.094000414
4.1874743 -2.93646 -0.44745758 16 5 -0.093998112
4.9743476 -3.4895487 1.1811076 74 13 -0.09399581
4.167254 -2.9244504 -0.26680872 22 6 -0.0939935
4.9826169 -3.4979455 1.4054942 86 14 -0.093991198
4.1816463 -2.9356403 -0.089181796 3 7 -0.093988895
5.1917791 -3.6461368 1.6999235 16 15 -0.093986593
2.8713126 -2.0224876 -0.94106609 5 0 -0.093965851
3.2831545 -2.3134372 -0.92724824 1 1 -0.093961246
4.2264185 -2.9792011 0.27099562 1 9 -0.093958944
3.8988397 -2.7493098 -0.92733175 1 2 -0.093956642
5.0160866 -3.53846 0.53705364 2 10 -0.093954332
4.1742411 -2.9446034 -0.80907917 21 3 -0.09395203
5.0149407 -3.5389621 0.75364012 100 11 -0.093949728
4.1515741 -2.9307842 -0.6239711 18 4 -0.093947425
5.0004621 -3.5313604 0.96958095 68 12 -0.093945116
4.1430264 -2.9269173 -0.44379702 22 5 -0.093942814
4.9932146 -3.5275483 1.1883584 57 13 -0.093940511
4.1265435 -2.9163525 -0.26481998 43 6 -0.093938209
4.9598513 -3.5065742 1.4023448 100 14 -0.093935899
4.1501489 -2.9352083 -0.088728033 4 7 -0.093933597
5.0165844 -3.5493114 1.6466069 43 15 -0.093931295
2.8630142 -2.0308802 -0.94054842 4 0 -0.09391056
4.2287049 -3.0007436 0.090508185 22 8 -0.093908258
3.2655249 -2.3181152 -0.9245488 1 1 -0.093905948
4.2013373 -2.9835284 0.27005357 12 9 -0.093903646
3.934521 -2.7940519 -0.93801707 1 2 -0.093901344
4.1623273 -2.9580114 -0.80876625 41 3 -0.093896732
5.025208 -3.5725493 0.75705242 84 11 -0.09389443
4.1461716 -2.9487095 -0.62470233 46 4 -0.093892127
5.0025907 -3.5590999 0.97239673 91 12 -0.093889825
4.1360307 -2.9436719 -0.44414565 37 5 -0.093887515
5.0000648 -3.5586174 1.1929379 45 13 -0.093885213
4.130981 -2.9411645 -0.265762 45 6 -0.093882911
4.9634533 -3.5351713 1.4068439 80 14 -0.093880609
4.107306 -2.9264696 -0.088029936 6 7 -0.093878299
4.9774208 -3.5477388 1.6378069 84 15 -0.093875997
2.8571231 -2.0424836 -0.94106609 5 0 -0.093855262
4.1921768 -2.9968789 0.089949705 18 8 -0.09385296
3.2700944 -2.3385687 -0.92814809 1 1 -0.093850657
4.1973948 -3.0028236 0.27047226 5 9 -0.093848348
3.8795509 -2.7764618 -0.92733175 1 2 -0.093846045
4.1434274 -2.9674969 -0.80720192 43 3 -0.093841441
5.0482116 -3.6154978 0.76241469 100 11 -0.093839131
4.1439219 -2.968945 -0.62592101 42 4 -0.093836829
5.0077982 -3.5891988 0.9758383 52 12 -0.093834527
4.1176343 -2.9522867 -0.44327411 37 5 -0.093832225
4.8418136 -3.4727926 1.1582106 27 13 -0.093829915
4.125042 -2.9597788 -0.26607603 49 6 -0.093827613
4.7098269 -3.3806155 1.3384588 18 14 -0.09382531
4.0743232 -2.924464 -0.087541275 2 7 -0.093823008
4.9210687 -3.5335424 1.6233131 39 15 -0.093820706
2.8468409 -2.0501866 -0.94003081 5 0 -0.093799964
3.2583389 -2.3482594 -0.92724824 1 1 -0.093795359
3.8698359 -2.7899868 -0.92733175 1 2 -0.093790747
4.1266365 -2.977319 -0.80595046 46 3 -0.093786143
4.9995146 -3.608417 0.75705242 78 11 -0.093783841
4.1394501 -2.9887612 -0.6268959 45 4 -0.093781531
4.5734544 -3.3033357 0.89355379 28 12 -0.093779229
4.12184 -2.9771414 -0.44484288 39 5 -0.093776926
4.5495892 -3.2873065 1.091046 21 13 -0.093774624
4.1324911 -2.9870298 -0.26722744 43 6 -0.093772322
4.540082 -3.2828493 1.2934686 18 14 -0.093770012
4.9800777 -3.603651 1.6471245 16 15 -0.093765408
2.8318484 -2.0544393 -0.93744266 4 0 -0.093744673
4.1301641 -2.9974368 0.089077078 2 8 -0.093742363
3.2501223 -2.3596189 -0.92724824 1 1 -0.093740061
3.8600733 -2.8034782 -0.92733175 1 2 -0.093735456
4.1258054 -2.9986732 -0.80782765 46 3 -0.093730845
4.9724383 -3.6153402 0.75485879 52 11 -0.093728542
4.1257811 -3.0008571 -0.62640852 43 4 -0.09372624
4.5395336 -3.303009 0.88917363 42 12 -0.093723938
4.1259222 -3.0020611 -0.4464117 42 5 -0.093721628
4.5190392 -3.2893033 1.0864664 18 13 -0.093719326
4.5002418 -3.2780247 1.2853703 16 14 -0.093714722
5.0736246 -3.6983945 1.6823239 3 15 -0.09371011
2.8371377 -2.0734305 -0.94158375 4 0 -0.093689375
3.2418656 -2.37095 -0.92724824 1 1 -0.093684763
3.8312507 -2.8030248 -0.92275238 1 2 -0.093680158
4.1280642 -3.0223925 -0.81033063 47 3 -0.093675554
4.9309616 -3.611562 0.75047147 40 11 -0.093673244
4.1248889 -3.0222802 -0.62787092 45 4 -0.093670942
4.4865522 -3.2884719 0.88103902 37 12 -0.09366864
4.1314878 -3.028223 -0.44815481 45 5 -0.093666337
4.485364 -3.288805 1.0811238 18 13 -0.093664028
4.4683466 -3.2787266 1.2795216 20 14 -0.093659423
5.0497842 -3.7080786 1.6787004 1 15 -0.093654811
2.815881 -2.0730138 -0.93692499 4 0 -0.093634076
3.2367077 -2.3845634 -0.92814809 1 1 -0.093629472
3.8087993 -2.8070626 -0.91969937 1 2 -0.09362486
4.1302066 -3.046164 -0.81283355 49 3 -0.093620256
4.1238971 -3.0437331 -0.62933332 42 4 -0.093615644
4.4400845 -3.2782998 0.87415588 35 12 -0.093613341
4.1176858 -3.0402594 -0.44780618 42 5 -0.093611039
4.4596438 -3.2939444 1.0776893 18 13 -0.093608737
4.4286671 -3.273454 1.2714233 22 14 -0.093604125
4.9886627 -3.6900687 1.6626536 50 15 -0.093599521
2.8101797 -2.083981 -0.93744266 4 0 -0.093578786
3.2158453 -2.3865561 -0.9245488 1 1 -0.093574174
3.9093211 -2.9022593 -0.94641262 1 2 -0.093569569
4.1211343 -3.0617409 -0.81314647 40 3 -0.093564957
4.1307707 -3.0711384 -0.63201445 46 4 -0.093560353
4.4095936 -3.2796319 0.87040144 35 12 -0.093558043
4.404016 -3.2766778 1.067004 19 13 -0.093553439
4.3968935 -3.2737634 1.2655747 22 14 -0.093548827
4.9602604 -3.6959174 1.6574773 39 15 -0.093544222
2.7966971 -2.0891531 -0.93537205 3 0 -0.093523487
4.1455774 -3.097904 0.090333655 2 8 -0.093521185
3.2012517 -2.3930998 -0.92274922 1 1 -0.093518876
3.8519993 -2.8806155 -0.93496412 1 2 -0.093514271
4.9898071 -3.73557 0.76533955 96 11 -0.093507357
4.1279697 -3.0914881 -0.63323313 43 4 -0.093505055
4.382309 -3.2831604 0.86727273 37 12 -0.093502752
4.3595595 -3.2673044 1.05899 18 13 -0.093498141
4.3604951 -3.2703838 1.2583762 22 14 -0.093493536
4.9164271 -3.6900163 1.6471245 61 15 -0.093488924
2.7955623 -2.1035488 -0.93744266 4 0 -0.093468189
4.2433791 -3.194133 0.092707187 2 8 -0.093465887
3.1913221 -2.4030876 -0.92229939 1 1 -0.093463585
3.8607383 -2.9082186 -0.93954355 1 2 -0.093458973
4.9418683 -3.72667 0.75997728 98 11 -0.093452059
4.1113553 -3.1003792 -0.63225818 43 4 -0.093449757
4.3445892 -3.2774508 0.86195397 38 12 -0.093447454
4.3261919 -3.2659421 1.0536473 18 13 -0.09344285
4.3076386 -3.2531166 1.2462289 22 14 -0.093438238
2.7901111 -2.1139741 -0.93796021 5 0 -0.093412891
4.1753917 -3.1647027 0.091450609 2 8 -0.093410589
3.1895468 -2.4183664 -0.92409897 1 1 -0.093408287
3.8510728 -2.9210055 -0.93954355 1 2 -0.093403682
4.8915396 -3.7142265 0.75412756 84 11 -0.093396768
4.1105375 -3.1211987 -0.63372064 43 4 -0.093394466
4.3022366 -3.2679424 0.85569662 38 12 -0.093392156
4.3028336 -3.2707655 1.0505943 18 13 -0.093387552
4.2689052 -3.2461512 1.2381306 22 14 -0.09338294
4.4414029 -3.3797686 1.4954566 1 15 -0.093378335
2.7661905 -2.1103258 -0.93226624 3 0 -0.0933576
3.1939013 -2.4383907 -0.92769814 1 1 -0.093352988
3.8351243 -2.9289935 -0.93801707 1 2 -0.093348384
4.8571186 -3.713547 0.7507152 85 11 -0.09334147
4.1153855 -3.147588 -0.63615805 40 4 -0.093339168
4.2547197 -3.2553325 0.84850067 35 12 -0.093336865
3.8050697 -2.9123538 -0.41921914 1 5 -0.093334556
4.2654605 -3.2647312 1.0441068 18 13 -0.093332253
4.245172 -3.2515531 1.2345314 20 14 -0.093327649
4.4326448 -3.3976018 1.4964917 1 15 -0.093323037
2.7599688 -2.1216276 -0.93278384 5 0 -0.093302302
3.1699221 -2.4376452 -0.92319912 1 1 -0.093297698
3.7807984 -2.9095047 -0.92733175 1 2 -0.093293086
4.4792318 -3.4494731 -0.89543104 1 3 -0.093288481
4.8236794 -3.7147336 0.74754661 87 11 -0.093286172
4.1106634 -3.16678 -0.63713294 42 4 -0.093283869
4.227684 -3.2581062 0.84537196 35 12 -0.093281567
4.222374 -3.2563639 1.0364745 18 13 -0.093276955
4.2069998 -3.2468495 1.2268831 22 14 -0.093272351
4.4085245 -3.4036093 1.4923507 1 15 -0.093267739
2.7571285 -2.1347971 -0.93433678 4 0 -0.093247004
3.1455622 -2.4373114 -0.9187001 1 1 -0.093242399
3.7706194 -2.9226847 -0.92733175 1 2 -0.093237787
3.998908 -3.1018708 -0.8015703 1 3 -0.093233183
4.5747848 -3.5498455 0.71098578 43 11 -0.093230881
4.1131415 -3.19278 -0.63932663 36 4 -0.093228571
4.1975598 -3.2583086 0.84161752 34 12 -0.093226269
4.1768718 -3.2445867 1.0280789 18 13 -0.093221664
4.1741004 -3.244771 1.2205844 22 14 -0.093217053
3.5996304 -2.798202 -0.079582974 1 7 -0.09321475
4.4179673 -3.4355798 1.4995975 1 15 -0.093212448
2.7527065 -2.1467841 -0.93537205 4 0 -0.093191713
3.1374626 -2.4477289 -0.9187001 1 1 -0.093187101
3.8037238 -2.9696572 -0.93801707 1 2 -0.093182497
3.9418948 -3.0786376 -0.79218423 1 3 -0.093177885
4.5144954 -3.5271103 0.70342994 78 11 -0.093175583
4.0994034 -3.2039573 -0.63883913 37 4 -0.09317328
4.1643739 -3.2559073 0.83723736 34 12 -0.093170971
4.1475325 -3.2439058 1.0234995 18 13 -0.093166366
4.1295567 -3.2321708 1.2106866 22 14 -0.093161762
3.555202 -2.7836285 -0.078815073 4 7 -0.093159452
4.4181151 -3.4605107 1.5037388 1 15 -0.09315715
2.7394948 -2.1511281 -0.93330151 4 0 -0.093136415
3.1135764 -2.4466252 -0.91420108 1 1 -0.093131803
3.7506382 -2.9482825 -0.92733175 1 2 -0.093127199
3.9963326 -3.1436744 -0.80532473 1 3 -0.093122587
4.4959159 -3.5379372 0.70245498 85 11 -0.093120284
4.1006732 -3.2280705 -0.64078909 37 4 -0.093117982
4.1147504 -3.2391522 0.82941562 37 12 -0.09311568
4.1192193 -3.2449996 1.0193018 18 13 -0.093111068
4.0907021 -3.2248495 1.2025883 22 14 -0.093106464
3.5412405 -2.7916887 -0.078710355 3 7 -0.093104161
4.4278522 -3.4918902 1.5109856 1 15 -0.093101852
2.7349997 -2.1630747 -0.93433678 4 0 -0.093081117
3.1207287 -2.4690278 -0.9187001 1 1 -0.093076512
3.7403238 -2.9613566 -0.92733175 1 2 -0.0930719
3.9146538 -3.100492 -0.79093277 1 3 -0.093067296
4.4857149 -3.5540595 0.70269871 87 11 -0.093064994
4.096169 -3.246583 -0.64176404 36 4 -0.093062684
4.0693655 -3.2264957 0.82253253 34 12 -0.093060382
3.6667671 -2.9083283 -0.40945768 1 5 -0.093058079
4.0838251 -3.2391214 1.0131959 18 13 -0.093055777
4.0570908 -3.2202241 1.1958399 19 14 -0.093051165
3.5862861 -2.8475544 -0.079932027 1 7 -0.093048863
4.4005084 -3.4953094 1.5058093 1 15 -0.093046561
2.7126992 -2.1600983 -0.92916042 3 0 -0.093025826
3.1120913 -2.4799063 -0.9187001 1 1 -0.093021214
3.7304831 -2.9737437 -0.92733175 1 2 -0.09301661
3.826596 -3.0525448 -0.7752893 1 3 -0.093011998
4.474833 -3.5709336 0.70294243 82 11 -0.093009695
4.0972219 -3.2707689 -0.64371389 36 4 -0.093007393
4.0493808 -3.232578 0.82065529 34 12 -0.093005084
4.0852432 -3.2623744 -0.45739332 12 5 -0.093002781
4.0494847 -3.2349763 1.0074716 18 13 -0.093000479
4.0336475 -3.224632 1.1922406 19 14 -0.092995867
3.5783856 -2.8606801 -0.079966925 21 7 -0.092993565
4.4039812 -3.5219486 1.5109856 1 15 -0.092991263
2.7111707 -2.1743889 -0.93123102 4 0 -0.092970528
3.0886507 -2.4780178 -0.91420108 1 1 -0.092965916
3.7200801 -2.9867473 -0.92733175 1 2 -0.092961311
3.8041308 -3.0553217 -0.77278632 2 3 -0.092956699
4.4505868 -3.5758061 0.70099252 82 11 -0.092954397
4.0971842 -3.2930434 -0.64542013 42 4 -0.092952095
4.0119009 -3.225651 0.81533653 31 12 -0.092949793
4.0878034 -3.287853 -0.45896214 1 5 -0.092947483
4.0111985 -3.226239 1.0006025 18 13 -0.092945181
4.0909948 -3.2915959 -0.27518249 22 6 -0.092942879
4.0016794 -3.2208838 1.1859419 21 14 -0.092940576
3.551245 -2.8593585 -0.079582974 21 7 -0.092938274
4.4006872 -3.5445707 1.5140915 1 15 -0.092935964
2.7035642 -2.1838396 -0.93123102 4 0 -0.092904568
3.0674231 -2.4795213 -0.91060191 1 1 -0.092899963
3.7790873 -3.0580606 -0.76997054 6 3 -0.092890747
4.4312797 -3.5870988 0.70001757 85 11 -0.092888437
4.088172 -3.3105366 -0.64590758 33 4 -0.092886135
3.9908419 -3.2328732 0.81345934 45 12 -0.092883833
4.0772729 -3.3040679 -0.45913643 20 5 -0.092881531
3.9764669 -3.2223785 0.99487817 22 13 -0.092879221
4.0804543 -3.3078256 -0.27528715 24 6 -0.092876919
3.9656296 -3.2158904 1.1787435 21 14 -0.092874616
3.5221052 -2.8572373 -0.079164118 22 7 -0.092872314
4.0276523 -3.2685177 1.3898584 1 15 -0.092870004
2.7000368 -2.197392 -0.93278384 4 0 -0.09284927
3.0738618 -2.5025167 -0.91510093 1 1 -0.092844665
3.9908605 -3.2502294 0.26973954 1 9 -0.092842363
3.7571361 -3.0631537 -0.76778048 1 3 -0.092835449
4.4156542 -3.6000364 0.69953007 85 11 -0.092833146
3.9489207 -3.2218091 0.80720192 35 12 -0.092828535
4.0857811 -3.3346572 -0.46140248 13 5 -0.092826232
3.9494221 -3.224515 0.99106199 21 13 -0.09282393
4.0884128 -3.3391833 -0.2766479 9 6 -0.09282162
3.9266529 -3.2082098 1.1706454 21 14 -0.092819318
3.4811394 -2.8442101 -0.078466021 23 7 -0.092817016
3.963866 -3.239768 1.3717409 18 15 -0.092814714
2.6848793 -2.2006803 -0.93019569 4 0 -0.092793979
3.9694521 -3.2547474 0.08960066 100 8 -0.092791669
3.0827491 -2.5285964 -0.92049968 1 1 -0.092789367
3.9681127 -3.2559664 0.26900685 31 9 -0.092787065
3.7158873 -3.0511782 -0.76152301 6 3 -0.09278015
4.4070315 -3.6199758 0.70026129 80 11 -0.092777848
3.7223568 -3.0586667 -0.59155381 1 4 -0.092775546
3.9096177 -3.2136824 0.8015703 35 12 -0.092773236
3.7016432 -3.0427287 -0.41921914 1 5 -0.092770934
3.9184294 -3.2220714 0.98610091 19 13 -0.092768632
4.1399727 -3.4054549 -0.28093943 1 6 -0.09276633
3.8973725 -3.2070382 1.1652465 21 14 -0.092764027
3.4490767 -2.8391576 -0.077977359 23 7 -0.092761718
3.9251215 -3.2321699 1.3624235 20 15 -0.092759416
2.6727118 -2.2063494 -0.92864275 5 0 -0.092738681
3.0528708 -2.5219662 -0.91420108 1 1 -0.092734069
3.9521043 -3.265981 0.26869282 100 9 -0.092731766
4.1937394 -3.4668977 0.47604465 2 10 -0.092727162
3.6732466 -3.0376942 -0.75495279 54 3 -0.092724852
4.3897796 -3.6315415 0.69953007 78 11 -0.09272255
3.8816385 -3.2134533 0.79812872 35 12 -0.092717946
4.0363116 -3.3415008 -0.4584392 8 5 -0.092715643
3.8708687 -3.2056761 0.97694212 18 13 -0.092713334
3.8666482 -3.204457 1.1593977 21 14 -0.092708729
3.428369 -2.8422458 -0.077733018 24 7 -0.092706427
3.8647435 -3.2051549 1.3453414 20 15 -0.092704117
2.6649942 -2.2156653 -0.92864275 5 0 -0.092683382
3.9374082 -3.2747078 0.089391224 88 8 -0.09268108
3.1054692 -2.5837083 -0.93264711 2 1 -0.092678778
3.9591017 -3.2950885 0.2699489 94 9 -0.092676468
3.6668549 -3.051857 -0.92733175 1 2 -0.092674166
4.1969237 -3.4942634 0.47778779 58 10 -0.092671864
4.3755517 -3.6455722 0.69928634 100 11 -0.092667259
4.0760365 -3.3972304 -0.65151358 6 4 -0.09266495
3.844605 -3.2054782 0.79280996 34 12 -0.092662647
4.0812426 -3.4027772 -0.46488872 38 5 -0.092660345
3.8385475 -3.2015636 0.9715994 18 13 -0.092658043
3.8404782 -3.2054474 1.1548988 21 14 -0.092653431
3.406147 -2.8439429 -0.077453777 24 7 -0.092651129
3.8149819 -3.1864274 1.331883 18 15 -0.092648827
2.6631687 -2.2299156 -0.93071336 5 0 -0.092628084
4.3551869 -3.6479638 0.099164575 20 8 -0.092625782
3.0202529 -2.5307019 -0.90970206 1 1 -0.09262348
4.3715687 -3.6642826 0.29894301 38 9 -0.092621177
3.6561797 -3.0646379 -0.92733175 1 2 -0.092618875
4.1831741 -3.5076125 0.47761348 67 10 -0.092616566
4.3506336 -3.650615 0.69733644 100 11 -0.092611961
4.077837 -3.4229245 -0.65370721 40 4 -0.092609659
3.8243155 -3.2112572 0.79093277 35 12 -0.092607349
4.0845981 -3.4298151 -0.46663183 53 5 -0.092605047
3.8168256 -3.206104 0.9689281 18 13 -0.092602745
3.7994311 -3.1937554 1.1459007 21 14 -0.092598133
3.3747721 -2.8377976 -0.076965116 27 7 -0.092595831
3.7920094 -3.1897762 1.3277417 18 15 -0.092593528
2.6612756 -2.2441795 -0.93278384 4 0 -0.092572793
4.3393703 -3.6605656 0.099094771 22 8 -0.092570491
3.0114007 -2.541229 -0.90970206 1 1 -0.092568181
4.3593936 -3.6787591 0.29894301 82 9 -0.092565879
3.6454597 -3.0773818 -0.92733175 1 2 -0.092563577
4.2013493 -3.5479026 0.48109969 30 10 -0.092561275
4.3090568 -3.6414351 0.69270545 98 11 -0.092556663
4.0734434 -3.4435453 -0.65492588 93 4 -0.092554361
3.7910173 -3.2047923 0.78623968 34 12 -0.092552058
4.0847721 -3.4543445 -0.46802634 71 5 -0.092549749
3.7861257 -3.2029238 0.96396708 18 13 -0.092547446
3.767437 -3.1893709 1.1396021 21 14 -0.092542842
3.3348181 -2.823132 -0.076267019 27 7 -0.092540532
3.7666681 -3.1898484 1.3225653 18 15 -0.09253823
2.6445911 -2.2459524 -0.92967808 5 0 -0.092517495
3.0178084 -2.5638185 -0.91420108 1 1 -0.092512891
4.3252192 -3.6758461 0.2974776 84 9 -0.092510581
4.1479607 -3.5276947 0.47639325 56 10 -0.092505977
3.7318344 -3.173794 -0.77591503 1 3 -0.092503674
4.284862 -3.6454139 0.69075549 98 11 -0.092501365
4.0620017 -3.4570343 -0.65492588 28 4 -0.092499062
3.7512295 -3.193676 0.78029525 30 12 -0.09249676
4.0529704 -3.4517879 -0.46576029 31 5 -0.092494458
3.7635269 -3.2052782 0.96091413 18 13 -0.092492148
3.7434914 -3.1904702 1.135553 21 14 -0.092487544
3.3142912 -2.8256743 -0.076022685 28 7 -0.092485242
3.7246435 -3.1766515 1.311695 20 15 -0.092482939
2.6268504 -2.2459216 -0.92605454 4 0 -0.092462197
3.0088406 -2.574337 -0.91420108 1 1 -0.092457592
4.2902417 -3.6706924 0.29590753 70 9 -0.09245529
3.6244283 -3.1021242 -0.92733175 1 2 -0.092452981
4.1165643 -3.524585 0.4741272 100 10 -0.092450678
3.7687423 -3.2279215 -0.78592682 1 3 -0.092448376
4.2344241 -3.6280589 0.68466198 91 11 -0.092446074
4.0273018 -3.4518149 -0.65126985 25 4 -0.092443764
3.7241199 -3.1919565 0.77685362 28 12 -0.092441462
4.0173006 -3.4444597 -0.4629713 27 5 -0.09243916
3.7240016 -3.1941106 0.95366341 19 13 -0.092436858
4.0713873 -3.4933002 -0.28114879 1 6 -0.092434555
3.7116299 -3.1857488 1.1292543 21 14 -0.092432246
3.286694 -2.8210199 -0.075603828 29 7 -0.092429943
3.6965005 -3.1738832 1.3054833 20 15 -0.092427641
2.6175308 -2.2538171 -0.92553693 3 0 -0.092406906
3.8732471 -3.335048 0.089216709 2 8 -0.092404597
2.9914281 -2.5766697 -0.91150165 2 1 -0.092402294
4.2547064 -3.66609 0.29433745 72 9 -0.092399992
3.5749142 -3.0814302 -0.91740966 1 2 -0.09239769
4.0846205 -3.5220191 0.47186115 45 10 -0.09239538
4.2133517 -3.6343019 0.68319964 91 11 -0.092390776
3.9993002 -3.4508858 -0.64858866 19 4 -0.092388473
3.7009926 -3.1946108 0.7743507 31 12 -0.092386171
3.9841406 -3.4402316 -0.46053094 26 5 -0.092383862
3.682184 -3.1794977 0.94564945 19 13 -0.092381559
4.0023456 -3.4571705 -0.27717125 1 6 -0.092379257
3.6804016 -3.1802013 1.1229557 21 14 -0.092376955
3.2616982 -2.8193984 -0.075254776 29 7 -0.092374645
3.6678634 -3.1716044 1.2992717 22 15 -0.092372343
2.6144216 -2.2662807 -0.92708987 4 0 -0.092351608
2.9588623 -2.5666649 -0.90430319 1 1 -0.092346996
4.2132225 -3.6560481 0.29234868 75 9 -0.092344694
3.5498478 -3.0804009 -0.91359347 1 2 -0.092342392
4.0879645 -3.5486057 0.47360432 2 10 -0.092340089
4.1691685 -3.6216486 0.6780811 85 11 -0.092335477
3.9527674 -3.4348767 -0.64298266 18 4 -0.092333175
3.6764011 -3.1958468 0.77153486 33 12 -0.092330873
3.9456446 -3.4298964 -0.45739332 20 5 -0.092328571
3.6562488 -3.1794491 0.94183326 19 13 -0.092326261
3.9510739 -3.4370382 -0.2744498 1 6 -0.092323959
3.6486974 -3.1751196 1.116657 21 14 -0.092321657
3.2382624 -2.8189502 -0.074940629 29 7 -0.092319354
3.6392872 -3.1691644 1.2930601 24 15 -0.092317045
2.6181376 -2.2855568 -0.93123102 4 0 -0.09229631
2.964561 -2.5897985 -0.90880221 1 1 -0.092291705
4.1748681 -3.6483901 0.29056925 73 9 -0.092289403
3.592293 -3.1392815 -0.92733175 1 2 -0.092287093
4.0665526 -3.5549862 0.47255844 2 10 -0.092284791
4.1415606 -3.6231091 0.67564368 85 11 -0.092280187
3.927309 -3.4368885 -0.64078909 19 4 -0.092277877
3.639956 -3.1865408 0.7662161 34 12 -0.092275575
3.9126601 -3.4252753 -0.45495299 23 5 -0.092273273
3.633312 -3.1818445 0.93878025 18 13 -0.09227097
3.9150155 -3.4297512 -0.27277502 1 6 -0.092268661
3.6112113 -3.1647179 1.1085589 21 14 -0.092266358
3.1998327 -2.8051901 -0.074277438 29 7 -0.092264056
3.612226 -3.1678371 1.287366 21 15 -0.092261754
2.5927327 -2.2793756 -0.92501926 4 0 -0.092241019
2.9496505 -2.5949821 -0.90700263 1 1 -0.092236407
4.1411166 -3.6444676 0.28910384 73 9 -0.092234105
3.5429943 -3.1180787 -0.91740966 1 2 -0.092231803
3.9614019 -3.4875338 0.46175113 2 10 -0.092229493
4.1154828 -3.6257336 0.67345005 91 11 -0.092224889
3.8974168 -3.4348261 -0.63786417 21 4 -0.092222586
3.6021395 -3.1757126 0.76058447 31 12 -0.092220277
3.8746769 -3.4171891 -0.45198968 27 5 -0.092217974
3.6030416 -3.1776261 0.93381923 18 13 -0.092215672
3.8760607 -3.4196124 -0.27089092 1 6 -0.09221337
3.5796866 -3.1592512 1.1022601 21 14 -0.09221106
3.1720326 -2.8004608 -0.073858589 28 7 -0.092208758
3.5750821 -3.157408 1.2780485 21 15 -0.092206456
2.5756841 -2.281178 -0.9219135 3 0 -0.092185721
2.9464085 -2.6104319 -0.90880221 1 1 -0.092181109
4.1104341 -3.6430039 0.28784779 73 9 -0.092178807
3.569737 -3.1649065 -0.92733175 1 2 -0.092176504
3.8979123 -3.4570804 0.45582449 10 10 -0.092174202
4.083498 -3.6229508 0.67028147 89 11 -0.09216959
3.8705561 -3.4352324 -0.63542682 21 4 -0.092167288
3.5644426 -3.1646602 0.75495279 16 12 -0.092164986
3.8478286 -3.4174631 -0.45024657 27 5 -0.092162676
3.5664206 -3.1686432 0.92733175 18 13 -0.092160374
3.8605158 -3.4311421 -0.27068159 1 6 -0.092158072
3.5593455 -3.1645808 1.0995607 21 14 -0.092155769
3.1502824 -2.8008866 -0.073579341 28 7 -0.092153467
3.5467169 -3.1544614 1.2718368 29 15 -0.092151158
2.5777977 -2.2991562 -0.92553693 3 0 -0.092130423
2.9164672 -2.6030464 -0.90250361 1 1 -0.092125818
4.0842819 -3.6453605 0.28690574 75 9 -0.092123508
3.5059464 -3.1302762 -0.91359347 1 2 -0.092121206
3.9304004 -3.5104821 0.46105388 2 10 -0.092118904
4.0420704 -3.6127586 0.66565043 91 11 -0.092114292
3.8372219 -3.4308722 -0.63201445 18 4 -0.09211199
3.5548468 -3.1783996 0.75526565 24 12 -0.092109688
3.1765151 -2.84113 -0.37285227 1 5 -0.092107385
3.5319285 -3.1601276 0.92122585 28 13 -0.092105083
3.1401262 -2.8105567 -0.22085775 21 6 -0.092102773
3.5395665 -3.1691868 1.0968614 21 14 -0.092100471
3.1270781 -2.7998612 -0.07326521 30 7 -0.092098169
3.5284889 -3.1603782 1.2692486 19 15 -0.092095867
2.5798166 -2.3171766 -0.92916042 4 0 -0.092075124
2.928113 -2.6309376 -0.90880221 1 1 -0.09207052
4.040338 -3.6315575 0.28470761 71 9 -0.092068218
3.4424424 -3.0952399 -0.89985526 1 2 -0.092065915
3.9151599 -3.5215154 0.46070525 2 10 -0.092063606
3.1473877 -2.8309376 -0.67047822 11 3 -0.092061304
4.0064569 -3.6048985 0.66175061 91 11 -0.092059001
3.1382673 -2.8247166 -0.5184322 21 4 -0.092056699
3.5437303 -3.1907892 0.75526565 39 12 -0.092054389
3.1251268 -2.8148646 -0.36797154 26 5 -0.092052087
3.5170534 -3.1678805 0.92008096 22 13 -0.092049785
3.1159513 -2.807585 -0.21981104 33 6 -0.092047483
3.5015347 -3.1561172 1.0883132 21 14 -0.092045173
3.1083746 -2.8027253 -0.073055774 30 7 -0.092042871
3.5030904 -3.1597364 1.2640723 21 15 -0.092040569
2.562088 -2.316649 -0.92553693 4 0 -0.092019834
2.9507015 -2.6699076 -0.9187001 1 1 -0.092015222
4.0039454 -3.6241941 0.28303289 71 9 -0.092012919
3.1250403 -2.8286481 -0.81933385 19 2 -0.092010617
3.8443849 -3.4809873 0.45373279 17 10 -0.092008315
3.1067417 -2.8140585 -0.663908 23 3 -0.092006005
3.9747255 -3.6015334 0.65858197 89 11 -0.092003703
3.0886762 -2.7996585 -0.51185131 30 4 -0.092001401
3.5018401 -3.1752746 0.74869543 12 12 -0.091999099
3.0862563 -2.7984462 -0.36448529 30 5 -0.091996789
3.4914327 -3.1669481 0.91626483 21 13 -0.091994487
3.0883827 -2.8023391 -0.21855497 15 6 -0.091992185
3.4717381 -3.151294 1.0824645 21 14 -0.091989882
3.0778463 -2.7947381 -0.072567105 31 7 -0.091987573
3.4791696 -3.1602552 1.2594135 21 15 -0.09198527
2.5511291 -2.3229771 -0.92450172 3 0 -0.091964535
3.9737568 -3.6196456 0.093824141 10 8 -0.091962233
2.9586492 -2.6959417 -0.92409897 2 1 -0.091959931
3.9750333 -3.6233478 0.28188148 75 9 -0.091957621
3.0948346 -2.8210235 -0.81399125 31 2 -0.091955319
3.8822658 -3.5400288 0.45965937 2 10 -0.091953017
3.0750082 -2.8049169 -0.65921491 25 3 -0.091950715
3.9459996 -3.6006675 0.6559009 87 11 -0.091948405
3.0598254 -2.7930253 -0.50868267 28 4 -0.091946103
3.4717717 -3.1701629 0.74462813 11 12 -0.0919438
3.0514569 -2.7863629 -0.36152202 28 5 -0.091941498
3.4687603 -3.1685238 0.91321188 19 13 -0.091939189
3.0623631 -2.7982826 -0.21740359 7 6 -0.091936886
3.4506483 -3.1541896 1.0793152 21 14 -0.091934584
3.0503633 -2.7892721 -0.072148249 31 7 -0.091932282
3.4367571 -3.1436946 1.2480254 22 15 -0.091929972
2.5358856 -2.32534 -0.9219135 4 0 -0.091909237
3.9345725 -3.6091633 0.093195848 23 8 -0.091906935
2.9535282 -2.7102056 -0.92544866 2 1 -0.091904633
3.9468083 -3.6216557 0.2807301 73 9 -0.091902331
3.0473645 -2.7972915 -0.80406916 26 2 -0.091900021
3.8214567 -3.5090888 0.4539071 12 10 -0.091897719
3.0419219 -2.7942526 -0.65420902 24 3 -0.091895416
3.9144053 -3.5969589 0.65273225 82 11 -0.091893114
3.0447001 -2.7977839 -0.50770777 28 4 -0.091890804
3.4597857 -3.1803217 0.74431533 16 12 -0.091888502
3.0270464 -2.7835116 -0.35977891 27 5 -0.0918862
3.4287808 -3.1540303 0.90557957 21 13 -0.091883898
3.065804 -2.8211269 -0.21834564 7 6 -0.091881588
3.4200935 -3.1471412 1.0730165 24 14 -0.091879286
3.0322695 -2.7912459 -0.07193882 33 7 -0.091876984
3.4064181 -3.1367536 1.2407786 21 15 -0.091874681
2.5309994 -2.3363571 -0.92294878 4 0 -0.091853946
2.9402299 -2.7160177 -0.92409897 2 1 -0.091849335
3.9215729 -3.6225266 0.27978805 76 9 -0.091847032
3.0308621 -2.800719 -0.80216104 27 2 -0.09184473
3.7790749 -3.493341 0.45024657 23 10 -0.09184242
3.0123346 -2.7855487 -0.64982885 25 3 -0.091840118
3.8776822 -3.5870035 0.64858866 81 11 -0.091837816
3.0150034 -2.7889929 -0.50429535 31 4 -0.091835514
3.4361715 -3.1797025 0.74149948 19 12 -0.091833204
3.0031779 -2.78 -0.3580358 28 5 -0.091830902
3.3981357 -3.1467083 0.9002369 21 13 -0.0918286
3.0066147 -2.7851305 -0.21478678 8 6 -0.091826297
3.3982015 -3.1478705 1.0694174 22 14 -0.091823995
3.0127292 -2.7917719 -0.071694486 36 7 -0.091821685
3.3761628 -3.1296461 1.2335316 21 15 -0.091819383
2.5147469 -2.3368471 -0.9198429 5 0 -0.091798648
2.9140825 -2.7098286 -0.9187001 2 1 -0.091794036
3.8752697 -3.6049056 0.27738059 71 9 -0.091791734
3.0028708 -2.793371 -0.79719996 26 2 -0.091789432
3.6799562 -3.4244165 0.43978783 19 10 -0.09178713
2.9929597 -2.7861011 -0.6476388 23 3 -0.09178482
3.8439751 -3.5795505 0.64493263 82 11 -0.091782518
2.9878199 -2.7832634 -0.50137055 31 4 -0.091780216
3.4120448 -3.1795571 0.73868364 26 12 -0.091777913
2.9822814 -2.7790771 -0.35664126 28 5 -0.091775611
3.3747578 -3.1459115 0.89680237 18 13 -0.091773301
2.9885979 -2.7869127 -0.21415874 8 6 -0.091770999
3.3643928 -3.1384449 1.0622189 24 14 -0.091768697
2.9883454 -2.7886281 -0.071345441 33 7 -0.091766395
3.360981 -3.1374569 1.2319787 26 15 -0.091764085
2.5150378 -2.3535309 -0.92294878 4 0 -0.09174335
2.9017608 -2.7173202 -0.91780037 2 1 -0.091738746
3.8393409 -3.5965638 0.27570584 73 9 -0.091736443
2.9802072 -2.7917566 -0.79376549 26 2 -0.091734134
3.6519878 -3.4222553 0.43787044 25 10 -0.091731831
2.9688046 -2.7830215 -0.64451009 23 3 -0.091729529
3.8213205 -3.583442 0.64322644 87 11 -0.091727227
2.9607131 -2.7773786 -0.49844566 28 4 -0.091724917
3.3879609 -3.1792824 0.7358678 31 12 -0.091722615
2.9609396 -2.778563 -0.35524681 27 5 -0.091720313
3.3594618 -3.153641 0.89565748 19 13 -0.091718011
2.9701164 -2.789125 -0.21353073 11 6 -0.091715701
3.3363731 -3.1341591 1.0568202 21 14 -0.091713399
2.9552777 -2.777132 -0.07078696 33 7 -0.091711096
3.3359332 -3.1359382 1.2268023 26 15 -0.091708794
2.5011835 -2.3569958 -0.92087817 4 0 -0.091688059
3.8094115 -3.591063 0.091380797 20 8 -0.09168575
2.8780804 -2.7140629 -0.91330135 1 1 -0.091683447
3.8151407 -3.5989797 0.27486849 67 9 -0.091681145
2.9518783 -2.7846289 -0.78880447 26 2 -0.091678843
3.6197333 -3.4158385 0.43543008 26 10 -0.091676533
2.949017 -2.7838757 -0.64232004 24 3 -0.091674231
3.7885833 -3.5776782 0.63981414 81 11 -0.091671929
2.939456 -2.7767913 -0.49649575 28 4 -0.091669627
3.3553069 -3.1707377 0.73117477 34 12 -0.091667317
2.9367421 -2.7751973 -0.3535037 28 5 -0.091665015
3.3327396 -3.1505134 0.8914597 19 13 -0.091662712
2.9516551 -2.7912414 -0.21290269 11 6 -0.09166041
3.3112559 -3.1323941 1.0523211 22 14 -0.0916581
2.9339459 -2.7764349 -0.07050772 34 7 -0.091655798
3.3025191 -3.1263144 1.21852 19 15 -0.091653496
2.4985461 -2.3710315 -0.92294878 3 0 -0.091632761
3.7809 -3.5891943 0.090996847 22 8 -0.091630459
2.8544574 -2.7106733 -0.90880221 1 1 -0.091628149
3.7909698 -3.6012702 0.27403107 73 9 -0.091625847
2.9293296 -2.7827463 -0.78536987 26 2 -0.091623545
3.5832353 -3.4051208 0.4324668 24 10 -0.091621242
2.9149425 -2.7710156 -0.63700122 23 3 -0.091618933
3.7602482 -3.5758328 0.63713294 79 11 -0.091616631
2.9225535 -2.7801938 -0.49527705 27 4 -0.091614328
3.3299088 -3.1688135 0.72804612 34 12 -0.091612026
2.9053872 -2.7648294 -0.350889 30 5 -0.091609716
3.3003922 -3.1418231 0.88573539 21 13 -0.091607414
2.9288769 -2.7891314 -0.21196064 18 6 -0.091605112
3.2918355 -3.1358683 1.0496217 19 14 -0.09160281
2.9039695 -2.7673461 -0.070019051 36 7 -0.091600507
3.2790012 -3.1258261 1.2138613 22 15 -0.091598198
2.4846675 -2.3744001 -0.92087817 4 0 -0.091577053
2.8337111 -2.709846 -0.90520304 1 1 -0.091572449
3.7645726 -3.6000183 0.27298436 71 9 -0.091570139
2.9096675 -2.7834551 -0.78269857 26 2 -0.091567837
3.5641298 -3.4107199 0.43159524 26 10 -0.091565534
2.8881285 -2.7647817 -0.63324684 22 3 -0.091563232
3.7262378 -3.5683427 0.63347691 78 11 -0.091560923
2.905664 -2.7835126 -0.49405837 27 4 -0.09155862
3.309397 -3.1702728 0.72585601 33 12 -0.091556318
2.8870873 -2.7666833 -0.34984317 30 5 -0.091554016
3.2667291 -3.1315863 0.87962949 24 13 -0.091551706
2.8931754 -2.7744553 -0.21007656 25 6 -0.091549404
3.263994 -3.131151 1.0442228 24 14 -0.091547102
2.8933337 -2.7755764 -0.069984153 37 7 -0.0915448
3.2532854 -3.1219695 1.2081673 26 15 -0.09154249
2.4763644 -2.3830585 -0.92087817 4 0 -0.091521755
2.7966306 -2.692198 -0.89620501 1 1 -0.09151715
3.7232101 -3.5854292 0.27089092 68 9 -0.091514848
2.8872087 -2.7813363 -0.77926397 27 2 -0.091512538
3.5349867 -3.4065502 0.4295035 24 10 -0.091510236
2.87041 -2.7661195 -0.63136959 23 3 -0.091507934
3.6900878 -3.5572584 0.62933332 76 11 -0.091505632
2.8749838 -2.7724631 -0.49040228 30 4 -0.091503322
3.2812502 -3.1653478 0.72210157 30 12 -0.09150102
2.8659427 -2.7656758 -0.34844866 31 5 -0.091498718
3.249263 -3.1355855 0.87772143 25 13 -0.091496415
2.8724635 -2.7729366 -0.20923917 26 6 -0.091494106
3.2283602 -3.1175914 1.0361246 24 14 -0.091491804
2.8663688 -2.7689872 -0.069565296 34 7 -0.091489501
3.2326438 -3.123909 1.2045439 21 15 -0.091487199
2.4712231 -2.3939459 -0.9219135 4 0 -0.091466464
3.3416514 -3.2382851 0.081223503 7 8 -0.091464154
2.8068049 -2.7209332 -0.90250361 1 1 -0.091461852
3.6949003 -3.5831091 0.26973954 71 9 -0.09145955
2.8540101 -2.7676604 -0.77277648 28 2 -0.091457248
3.5122304 -3.4071553 0.42810899 26 10 -0.091454938
2.8550665 -2.7706194 -0.63011813 23 3 -0.091452636
3.6648293 -3.5576732 0.62713969 78 11 -0.091450334
2.8425028 -2.7603548 -0.48650244 30 4 -0.091448031
3.2418435 -3.1492536 0.71584421 27 12 -0.091445722
2.8453226 -2.7640579 -0.34705415 33 5 -0.091443419
3.2242186 -3.1332264 0.8739053 25 13 -0.091441117
2.8513095 -2.7718091 -0.2084018 25 6 -0.091438815
3.2090757 -3.1206899 1.0334252 22 14 -0.091436513
2.8394854 -2.762243 -0.069146432 34 7 -0.091434203
3.2092588 -3.1230481 1.1998851 26 15 -0.091431901
2.4725318 -2.4120002 -0.92553693 5 0 -0.091411166
3.1485686 -3.0725594 0.076790586 1 8 -0.091408864
2.7889233 -2.7225463 -0.89980417 2 1 -0.091406554
3.6680806 -3.5820308 0.26869282 70 9 -0.091404252
2.8316898 -2.7652612 -0.76934189 27 2 -0.09140195
3.4718113 -3.3915493 0.42462277 30 10 -0.091399647
2.8383136 -2.7736654 -0.62855375 25 3 -0.091397338
3.6467102 -3.5648935 0.62616473 84 11 -0.091395035
2.8271728 -2.7647085 -0.48552752 31 4 -0.091392733
3.2181215 -3.1481183 0.71302837 17 12 -0.091390431
2.8128693 -2.7516813 -0.34426519 31 5 -0.091388129
3.1964238 -3.127984 0.86932582 25 13 -0.091385819
2.8287718 -2.769171 -0.20745975 27 6 -0.091383517
3.1814551 -3.1155105 1.0280263 21 14 -0.091381215
2.8155413 -2.7581444 -0.068797387 34 7 -0.091378912
3.1707425 -3.1071892 1.1895324 26 15 -0.091376603
2.4489377 -2.4057243 -0.9198429 4 0 -0.091355868
3.1378243 -3.0835311 0.076790586 1 8 -0.091353565
2.7877412 -2.7404618 -0.90250361 2 1 -0.091351263
3.6455863 -3.5850101 0.26796013 77 9 -0.091348954
2.8192208 -2.7723756 -0.76857871 30 2 -0.091346651
3.4358058 -3.3798952 0.42165947 28 10 -0.091344349
2.8089032 -2.7641585 -0.62417358 30 3 -0.091342047
3.6243417 -3.567853 0.62445855 82 11 -0.091339745
2.80619 -2.7634172 -0.48357758 31 4 -0.091337435
3.1986694 -3.1510148 0.71115112 12 12 -0.091335133
2.7890532 -2.7475011 -0.34252208 30 5 -0.09133283
3.1673067 -3.1212087 0.8643648 24 13 -0.091330528
2.8133988 -2.7734196 -0.20704105 27 6 -0.091328219
3.1580725 -3.1142824 1.0239772 26 14 -0.091325916
2.7930839 -2.7553167 -0.068483248 31 7 -0.091323614
3.1461263 -3.1046689 1.184356 26 15 -0.091321312
2.4336584 -2.407465 -0.91725475 4 0 -0.091300569
3.254966 -3.2210574 0.079932027 1 8 -0.091298267
2.7809281 -2.7529185 -0.90340346 2 1 -0.091295965
3.6146014 -3.5794439 0.26659939 71 9 -0.091293663
2.7913914 -2.764241 -0.76361769 28 2 -0.091291361
3.4225717 -3.3904655 0.42148519 30 10 -0.091289051
2.7852061 -2.7600422 -0.62104493 31 3 -0.091286749
3.5836701 -3.5525322 0.61958379 82 11 -0.091284446
2.7880695 -2.7648094 -0.48211515 31 4 -0.091282144
3.3349025 -3.3082354 0.7440024 4 12 -0.091279835
2.7681298 -2.745995 -0.34112757 30 5 -0.091277532
3.1368828 -3.1128852 0.85902214 22 13 -0.09127523
2.782439 -2.7621169 -0.20547098 26 6 -0.091272928
3.1375029 -3.115675 1.0208279 24 14 -0.091270618
2.7763557 -2.7580032 -0.068308719 33 7 -0.091268316
3.1215668 -3.1020145 1.1791797 26 15 -0.091266014
2.440295 -2.430943 -0.92294878 4 0 -0.091245279
3.2621169 -3.2507493 0.080385789 45 8 -0.091242976
2.7657809 -2.7571058 -0.90160388 1 1 -0.091240667
3.5794566 -3.5694747 0.26492465 70 9 -0.091238365
2.7761645 -2.7684226 -0.76209116 26 2 -0.091236062
3.4008415 -3.3925416 0.42026496 28 10 -0.09123376
2.7643685 -2.7585847 -0.61854196 30 3 -0.09123145
3.5515785 -3.5453854 0.61617148 82 11 -0.091229148
2.7601409 -2.7562897 -0.47894657 31 4 -0.091226846
3.4938338 -3.4901764 0.78217238 4 12 -0.091224544
2.7542992 -2.751416 -0.34060463 30 5 -0.091222234
3.114888 -3.1127138 0.85596919 22 13 -0.091219932
2.7558303 -2.7548683 -0.20421492 26 6 -0.09121763
3.1018047 -3.1018047 1.0127296 30 14 -0.091215327
2.7554016 -2.7563634 -0.068029478 36 7 -0.091213018
3.1025259 -3.1046929 1.1760738 33 15 -0.091210715
2.4249752 -2.4326053 -0.92036057 5 0 -0.091189981
3.2422805 -3.2536178 0.080176361 35 8 -0.091187678
2.7671425 -2.7777879 -0.90520304 2 1 -0.091185376
3.5500631 -3.5649645 0.26366857 70 9 -0.091183066
2.7470894 -2.7586205 -0.7567485 26 2 -0.091180764
3.384762 -3.4001563 0.41974208 32 10 -0.091178462
2.746362 -2.7598162 -0.61666471 31 3 -0.09117616
3.5321815 -3.5507243 0.61495274 84 11 -0.09117385
2.7365055 -2.7518318 -0.47650915 31 4 -0.091171548
3.4677031 -3.488342 0.77904367 4 12 -0.091169246
2.7348456 -2.751123 -0.33938447 31 5 -0.091166943
3.0943162 -3.1138198 0.85329783 28 13 -0.091164634
2.7391593 -2.7573867 -0.20369156 28 6 -0.091162331
3.0772269 -3.0987854 1.0082307 24 14 -0.091160029
2.7274489 -2.7475157 -0.067575715 32 7 -0.091157727
3.0835052 -3.1072762 1.1729679 31 15 -0.091155425
2.4137511 -2.4383094 -0.91932529 4 0 -0.091134682
3.2224641 -3.2563875 0.079966925 26 8 -0.09113238
2.7478361 -2.7777324 -0.90205371 2 1 -0.091130078
3.519341 -3.5588734 0.26230782 66 9 -0.091127776
2.7236388 -2.7542334 -0.75293231 26 2 -0.091125466
3.4008868 -3.440289 0.42322829 40 10 -0.091123164
2.7228267 -2.7553353 -0.61353606 30 3 -0.091120861
3.4988399 -3.5418494 0.61129665 79 11 -0.091118559
2.710145 -2.7444177 -0.47358429 31 4 -0.09111625
3.4319134 -3.4765267 0.77372491 6 12 -0.091113947
2.7070296 -2.7422197 -0.33711842 28 5 -0.091111645
3.0682595 -3.1092308 0.84910011 24 13 -0.091109343
2.7267125 -2.7640874 -0.20348223 28 6 -0.091107041
3.0527086 -3.0956323 1.0037316 22 14 -0.091104731
2.7023993 -2.7413547 -0.067191765 33 7 -0.091102429
3.0509446 -3.0960047 1.1646857 26 15 -0.091100127
2.4025164 -2.4439647 -0.91829002 4 0 -0.091079392
3.2278967 -3.2847316 0.080385789 19 8 -0.091077082
2.7381234 -2.7873073 -0.90205371 2 1 -0.09107478
3.3557613 -3.4172328 0.25100327 100 9 -0.091072477
2.6975012 -2.7469146 -0.74835294 26 2 -0.091070175
3.4223547 -3.4862628 0.42741176 54 10 -0.091067865
2.6938226 -2.7450843 -0.60915589 30 3 -0.091065563
3.4767239 -3.5441213 0.60959053 78 11 -0.091063261
2.6963794 -2.749609 -0.47285309 30 4 -0.091060959
3.4031632 -3.4715579 0.76997054 8 12 -0.091058657
2.6820984 -2.7360017 -0.335201 30 5 -0.091056347
3.0463946 -3.1087039 0.8460471 24 13 -0.091054045
2.7058661 -2.7621748 -0.20264484 30 6 -0.091051742
3.0337031 -3.0979156 1.0010322 24 14 -0.09104944
2.6788249 -2.7364814 -0.06684272 34 7 -0.091047131
3.0293095 -3.0955899 1.1605446 26 15 -0.091044828
2.3980191 -2.4564834 -0.9198429 5 0 -0.091024093
3.2233942 -3.3031349 0.080560312 17 8 -0.091021791
2.7120476 -2.7801089 -0.8966549 2 1 -0.091019481
3.4741149 -3.561301 0.26073778 77 9 -0.091017179
2.6810429 -2.7492859 -0.74644482 25 2 -0.091014877
3.4379799 -3.5267212 0.43089798 68 10 -0.091012575
2.6718161 -2.7417383 -0.60634005 25 3 -0.091010273
3.4380128 -3.5292192 0.60495949 76 11 -0.091007963
2.6743004 -2.7462049 -0.47065943 31 4 -0.091005661
3.3874981 -3.4785783 0.76903194 8 12 -0.091003358
2.6614137 -2.7339261 -0.33380648 31 5 -0.091001056
3.0136175 -3.096807 0.83994126 33 13 -0.090998746
2.6753178 -2.7501287 -0.20107476 32 6 -0.090996444
3.013361 -3.0987072 0.9978829 35 14 -0.090994142
2.6669474 -2.7424824 -0.066772908 34 7 -0.09099184
3.0082552 -3.0945368 1.1564035 26 15 -0.09098953
2.3880851 -2.4634521 -0.91932529 5 0 -0.090968795
3.2305169 -3.3324709 0.081014074 15 8 -0.090966493
2.7014575 -2.7876878 -0.89620501 2 1 -0.090964191
3.4422073 -3.5533235 0.25927237 75 9 -0.090961888
2.6673326 -2.7543967 -0.74529999 26 2 -0.090959579
3.4284198 -3.5415637 0.43124664 70 10 -0.090957277
2.6448481 -2.7321327 -0.60227275 31 3 -0.090954974
3.4124863 -3.5263355 0.60252208 79 11 -0.090952672
2.6499965 -2.7393641 -0.46797833 49 4 -0.090950362
3.3670959 -3.4818618 0.76715469 8 12 -0.09094806
2.6435459 -2.7346046 -0.3327606 38 5 -0.090945758
3.001967 -3.105372 0.83955961 46 13 -0.090943456
2.6564677 -2.7489319 -0.20034206 32 6 -0.090941146
2.9895296 -3.0946667 0.99338388 39 14 -0.090938844
2.6434674 -2.7373905 -0.066423863 37 7 -0.090936542
2.9867008 -3.0938997 1.1522624 31 15 -0.090934239
2.3825829 -2.4741406 -0.92036057 5 0 -0.090913504
2.6619823 -2.7662091 -0.88630718 1 1 -0.090908892
3.4048591 -3.5394082 0.25738826 19 9 -0.09090659
2.6445732 -2.7490783 -0.74148381 30 2 -0.090904288
3.4028466 -3.5385518 0.4295035 74 10 -0.090901978
2.6503539 -2.7570131 -0.60571432 41 3 -0.090899676
3.3877769 -3.5253437 0.60032845 81 11 -0.090897374
2.6445444 -2.752892 -0.46870953 48 4 -0.090895072
3.3398707 -3.4779212 0.76371318 9 12 -0.090892762
2.6427429 -2.7519782 -0.33380648 35 5 -0.09089046
2.9761531 -3.1002529 0.83536184 52 13 -0.090888157
2.645473 -2.756747 -0.20023739 36 6 -0.090885855
2.9598217 -3.0853953 0.98708516 40 14 -0.090883546
2.6228232 -2.7350547 -0.066144623 37 7 -0.090881243
2.9665248 -3.0945444 1.148639 31 15 -0.090878941
2.3739319 -2.4824424 -0.92036057 5 0 -0.090858206
2.6684666 -2.7923906 -0.89170599 1 1 -0.090853594
3.3607523 -3.5180552 0.2549808 12 9 -0.090851292
2.633605 -2.7568731 -0.74110222 31 2 -0.09084899
3.372586 -3.5316768 0.42723745 76 10 -0.090846688
2.6434419 -2.7691052 -0.60634005 46 3 -0.090844378
3.3658574 -3.5270951 0.59862226 82 11 -0.090842076
2.6458802 -2.7735972 -0.47065943 46 4 -0.090839773
3.3086243 -3.4695444 0.75933295 9 12 -0.090837471
2.6331205 -2.7611866 -0.33380648 37 5 -0.090835162
2.9531212 -3.0978332 0.83192724 48 13 -0.090832859
2.6509907 -2.7818692 -0.20138879 42 6 -0.090830557
2.9382806 -3.0844204 0.983486 42 14 -0.090828255
2.5967119 -2.7268159 -0.065725766 37 7 -0.090825953
2.9397206 -3.0880897 1.1424273 28 15 -0.090823643
2.3492887 -2.4739037 -0.91414887 5 0 -0.090802908
2.9145858 -3.0702589 0.073893487 6 8 -0.090800606
2.6680927 -2.811583 -0.89485526 2 1 -0.090798303
3.3443279 -3.5254183 0.25466678 15 9 -0.090795994
2.626668 -2.7688982 -0.7418654 35 2 -0.090793692
3.3492692 -3.5318618 0.42584294 82 10 -0.090791389
2.6459911 -2.7912183 -0.60915589 41 3 -0.090789087
3.3466983 -3.5316184 0.59740359 84 11 -0.090786777
2.9474211 -3.1124544 0.67892563 22 12 -0.090782173
2.6440158 -2.7920606 -0.33642116 27 5 -0.090779871
2.9206951 -3.0853107 0.82582134 49 13 -0.090777569
2.646755 -2.7969086 -0.20180747 41 6 -0.090775259
2.9221394 -3.0889957 0.98168641 42 14 -0.090772957
2.5761862 -2.7242403 -0.065446526 37 7 -0.090770654
2.9116709 -3.0800822 1.135698 31 15 -0.090768352
2.3419642 -2.4834945 -0.91466653 5 0 -0.09074761
2.9792933 -3.1604438 0.075813256 13 8 -0.090745308
2.6702905 -2.8336437 -0.89890444 3 1 -0.090743005
3.3141975 -3.5181713 0.25330606 14 9 -0.090740703
2.6331406 -2.7951984 -0.74644482 31 2 -0.090738401
3.3246276 -3.530477 0.42427412 100 10 -0.090736091
3.3098626 -3.517257 0.59301627 84 11 -0.090731487
2.9189463 -3.1040163 0.67485833 38 12 -0.090726875
2.8964608 -3.0811827 0.82200515 49 13 -0.09072227
2.900665 -3.0878139 0.97808713 42 14 -0.090717658
2.5639231 -2.7303007 -0.065376714 38 7 -0.090715356
2.8903241 -3.0789592 1.1315569 31 15 -0.090713054
2.3425245 -2.5015249 -0.91829002 5 0 -0.090692319
2.995575 -3.2000213 0.076511353 1 8 -0.090690017
2.6497312 -2.8315642 -0.89530522 4 1 -0.090687707
3.2705152 -3.4961715 0.2508986 1 9 -0.090685405
3.3082013 -3.5376954 0.42375124 100 10 -0.0906808
3.2813005 -3.5113845 0.59009141 87 11 -0.090676188
2.9080932 -3.1141865 0.67485833 42 12 -0.090671584
2.8830085 -3.0884044 0.82124197 46 13 -0.090666972
2.8699296 -3.0765455 0.97133869 43 14 -0.090662368
2.5461943 -2.730459 -0.065167286 40 7 -0.090660058
2.8716552 -3.0805511 1.1284511 31 15 -0.090657756
2.3272004 -2.5026133 -0.91570181 5 0 -0.090637021
2.883636 -3.1020758 0.073928393 4 8 -0.090634719
2.6172795 -2.8165281 -0.88765687 1 1 -0.090632416
3.2732441 -3.5236633 0.25205001 42 9 -0.090630107
3.2822745 -3.5346215 0.42200807 100 10 -0.090625502
3.2568715 -3.5097213 0.58789778 82 11 -0.09062089
2.8716848 -3.0967977 0.66891384 31 12 -0.090616286
1.6351614 -1.7633427 -0.21039395 1 5 -0.090613984
2.8668714 -3.0926895 0.81971544 42 13 -0.090611674
1.6616189 -1.7931293 -0.12811844 1 6 -0.090609372
2.8499029 -3.0765378 0.96818936 45 14 -0.090607069
2.5121913 -2.7129202 -0.064539 36 7 -0.090604767
2.8464491 -3.0749617 1.1227571 31 15 -0.090602458
2.3079655 -2.4993675 -0.91156071 5 0 -0.090581723
2.8849976 -3.1253469 0.07424254 9 8 -0.09057942
3.2514443 -3.5247905 0.25131726 43 9 -0.090574816
3.2375009 -3.5109046 0.41782463 96 10 -0.090570204
2.5599015 -2.7770545 -0.59820545 1 3 -0.090567902
3.1396751 -3.407203 0.56888616 39 11 -0.0905656
2.9572005 -3.2114289 0.6914404 59 12 -0.090560988
1.6289961 -1.7690398 -0.21039395 1 5 -0.090558685
2.8507402 -3.0969005 0.81818902 45 13 -0.090556383
2.8312302 -3.0778618 0.96548992 45 14 -0.090551771
2.50406 -2.7231445 -0.064573906 7 7 -0.090549469
2.8239317 -3.0720787 1.1180983 31 15 -0.090547167
2.2979214 -2.5059845 -0.91104311 4 0 -0.090526432
2.8929875 -3.1560357 0.074731201 32 8 -0.090524122
3.0866761 -3.3696961 0.23948936 17 9 -0.090519518
3.0516531 -3.3326299 0.39533845 30 10 -0.090514906
2.5315192 -2.765574 -0.59382528 1 3 -0.090512604
3.0567381 -3.3405232 0.55596799 36 11 -0.090510301
1.598419 -1.747427 -0.29078028 1 4 -0.090507999
3.027287 -3.3106573 0.71052545 48 12 -0.090505689
2.8187191 -3.0836473 0.81208313 51 13 -0.090501085
2.8099549 -3.0762148 0.9618907 47 14 -0.09049648
2.7975619 -3.0647953 1.1118866 26 15 -0.090491869
2.28916 -2.5139906 -0.91104311 4 0 -0.090471134
2.891376 -3.1764667 0.074975535 61 8 -0.090468831
3.0472569 -3.348892 0.23729126 22 9 -0.090464219
3.0306189 -3.3329427 0.39411828 41 10 -0.090459615
3.0250344 -3.3291352 0.5523119 54 11 -0.090455003
3.025589 -3.3309138 0.71271551 49 12 -0.090450399
2.785506 -3.0687549 0.80559564 54 13 -0.090445787
2.7913446 -3.0773444 0.95919132 50 14 -0.090441182
2.7782998 -3.064038 1.1082631 28 15 -0.09043657
2.286849 -2.5291305 -0.91363126 3 0 -0.090415835
2.88485 -3.1904871 0.075080253 61 8 -0.090413533
3.0355489 -3.359508 0.23729126 56 9 -0.090408929
3.0203011 -3.34498 0.39429256 45 10 -0.090404317
3.0099876 -3.3347275 0.55158067 57 11 -0.090399712
3.0179129 -3.3458552 0.7136541 59 12 -0.0903951
1.6103818 -1.7860013 -0.21039395 1 5 -0.090392798
2.7753146 -3.077975 0.80559564 52 13 -0.090390496
2.7706883 -3.075002 0.9555921 45 14 -0.090385884
1.6033037 -1.7800242 -0.041815966 1 7 -0.090383582
2.765002 -3.0708461 1.1072279 29 15 -0.09038128
2.2719948 -2.5295138 -0.91104311 4 0 -0.090360545
2.8803759 -3.2079775 0.075254776 47 8 -0.090358235
3.0203891 -3.365097 0.23697723 58 9 -0.09035363
3.0145135 -3.3609104 0.39498982 69 10 -0.090349019
2.9983292 -3.3452141 0.55158067 61 11 -0.090344414
