# .PCD v0.7 - Point Cloud Data file format
VERSION 0.7
FIELDS x y z intensity ring time
SIZE 4 4 4 4 2 4
TYPE F F F F U F
COUNT 1 1 1 1 1 1
WIDTH 916
HEIGHT 1
VIEWPOINT 0 0 0 1 0 0 0
POINTS 916
DATA ascii
-0.7248044 -2.6047323 0.33197212 20 11 -0.057155117
-0.7795738 -2.7996643 -0.35683349 50 4 -0.057152811
-0.78684896 -2.8238842 0.46429756 57 12 -0.057150509
-0.78020912 -2.7981672 -0.25414613 49 5 -0.057148203
-0.82838464 -2.9709456 0.59952188 96 13 -0.057145901
-0.77616471 -2.7817845 -0.15135561 47 6 -0.057143595
-0.82591033 -2.9580791 0.70904571 90 14 -0.057141293
-0.64033186 -2.2918661 -0.041536726 72 7 -0.057138987
-0.74123162 -2.6512208 0.7376343 22 15 -0.057136685
-0.84739369 -3.0146997 -0.83909136 36 0 -0.05711595
-0.68613809 -2.4410145 0.044259302 6 8 -0.057113644
-0.78779238 -2.8007846 -0.67170382 50 1 -0.057111342
-0.8322587 -2.9568911 0.16098543 75 9 -0.057109036
-0.78666103 -2.7930214 -0.56403142 45 2 -0.057106733
-0.8345015 -2.9608979 0.26913694 61 10 -0.057104427
-0.79035473 -2.802386 -0.46116886 55 3 -0.057102125
-0.83573222 -2.9632826 0.37803873 72 11 -0.057099819
-0.78880221 -2.7950153 -0.35658973 47 4 -0.057097517
-0.79616421 -2.8192191 0.46398467 56 12 -0.057095211
-0.78672129 -2.7839229 -0.25310028 50 5 -0.057092909
-0.84407657 -2.9848917 0.60295647 102 13 -0.057090603
-0.78744262 -2.7827647 -0.15156494 48 6 -0.057088301
-0.83780861 -2.9587822 0.7099455 90 14 -0.057085995
-0.64723825 -2.285769 -0.041466918 72 7 -0.057083692
-0.74784839 -2.6393239 0.73504615 23 15 -0.057081386
-0.85527068 -3.004441 -0.83702081 36 0 -0.057049274
-0.79983878 -2.807857 0.050961025 9 8 -0.057046972
-0.80076945 -2.809262 -0.67440325 52 1 -0.057044666
-0.85355681 -2.9944508 0.16318353 100 9 -0.057042364
-0.79753429 -2.7960615 -0.56517625 47 2 -0.057040058
-0.84869051 -2.9734416 0.27053142 93 10 -0.057037756
-0.79855824 -2.7959511 -0.46054313 51 3 -0.05703545
-0.8504346 -2.9756167 0.37998864 96 11 -0.057033148
-0.80019152 -2.7979708 -0.35732093 50 4 -0.057030842
-0.80822468 -2.8260598 0.46554902 55 12 -0.057028539
-0.79594898 -2.7812986 -0.25310028 49 5 -0.057026234
-0.85072708 -2.9707522 0.60066676 105 13 -0.057023931
-0.7988674 -2.7878177 -0.15198363 50 6 -0.057021625
-0.84976435 -2.9634805 0.71174508 97 14 -0.057019323
-0.65812182 -2.2951434 -0.041676346 69 7 -0.057017017
-0.75126827 -2.6182604 0.72986972 24 15 -0.057014715
-0.8705712 -3.0181427 -0.84167957 40 0 -0.05699398
-0.8169046 -2.8320885 0.051449694 57 8 -0.056991674
-0.80791944 -2.7991021 -0.67260367 50 1 -0.056989372
-0.85735387 -2.9684272 0.16192746 96 9 -0.056987066
-0.80837941 -2.7970326 -0.56593949 47 2 -0.056984764
-0.85906464 -2.9704609 0.27053142 100 10 -0.056982458
-0.80563045 -2.785697 -0.45929164 52 3 -0.056980155
-0.85864216 -2.9670594 0.37925744 100 11 -0.056977849
-0.81056958 -2.7991154 -0.35780841 49 4 -0.056975547
-0.81973392 -2.8289135 0.46648762 58 12 -0.056973241
-0.80676216 -2.7823308 -0.2534489 48 5 -0.056970939
-0.86057383 -2.9679146 0.60066676 114 13 -0.056968633
-0.80588168 -2.7774806 -0.15156494 48 6 -0.056966331
-0.86176014 -2.9681323 0.71354473 94 14 -0.056964025
-0.66724497 -2.2966728 -0.041746158 70 7 -0.056961723
-0.76363927 -2.6267519 0.73297554 27 15 -0.056959417
-0.8816582 -3.0189481 -0.84271485 39 0 -0.056938682
-0.83015132 -2.8407359 0.051659122 56 8 -0.05693638
-0.81385624 -2.7831719 -0.66945434 49 1 -0.056934074
-0.87387991 -2.9865022 0.16307886 100 9 -0.056931771
-0.81820172 -2.7962208 -0.56632113 49 2 -0.056929465
-0.86891037 -2.9675958 0.27053142 100 10 -0.056927163
-0.81757087 -2.7904508 -0.46054313 51 3 -0.056924857
-0.8667596 -2.9564245 0.37828246 100 11 -0.056922555
-0.81810051 -2.7886496 -0.35683349 50 4 -0.056920249
-0.82793456 -2.8203485 0.46554902 52 12 -0.056917947
-0.81822908 -2.7872868 -0.25414613 49 5 -0.056915641
-0.87203491 -2.9686599 0.60143 117 13 -0.056913339
-0.81557167 -2.7746508 -0.15156494 47 6 -0.056911033
-0.86991614 -2.9576275 0.71174508 94 14 -0.05690873
-0.67525786 -2.2943299 -0.041746158 67 7 -0.056906428
-0.77498651 -2.6314831 0.73504615 34 15 -0.056904122
-0.89328712 -3.019557 -0.84375012 39 0 -0.056883387
-0.84062964 -2.8397384 0.051694028 50 8 -0.056881081
-0.82744074 -2.7933936 -0.67260367 50 1 -0.056878779
-0.88713747 -2.9930081 0.16360222 104 9 -0.056876473
-0.82739949 -2.7914653 -0.56593949 47 2 -0.056874171
-0.88322937 -2.9779155 0.27175158 96 10 -0.056871865
-0.82955456 -2.7951546 -0.46179458 52 3 -0.056869563
-0.87933517 -2.9609928 0.37925744 100 11 -0.056867257
-0.82726401 -2.783874 -0.35658973 46 4 -0.056864955
-0.83833718 -2.819335 0.46586189 51 12 -0.056862652
-0.82908899 -2.7882333 -0.25449476 49 5 -0.056860346
-0.8857519 -2.9768879 0.60371965 108 13 -0.056858044
-0.82582182 -2.7737017 -0.15166962 45 6 -0.056855738
-0.87912214 -2.9508379 0.71084529 90 14 -0.056853436
-0.68211991 -2.288126 -0.041676346 69 7 -0.05685113
-0.78361523 -2.6269104 0.73452848 37 15 -0.056848828
-0.90215844 -3.0108688 -0.84219724 42 0 -0.056828089
-0.85053688 -2.836787 0.051694028 39 8 -0.056825787
-0.83886653 -2.7960877 -0.67395335 49 1 -0.056823481
-0.89815402 -2.991806 0.1637069 100 9 -0.056821179
-0.83657414 -2.7866797 -0.5655579 48 2 -0.056818873
-0.89075297 -2.9652736 0.27088004 100 10 -0.05681657
-0.84158093 -2.799809 -0.46304604 52 3 -0.056814268
-0.89195234 -2.9655092 0.38023239 100 11 -0.056811962
-0.84040952 -2.7923744 -0.35805216 49 4 -0.05680966
-0.84532529 -2.8069339 0.46429756 52 12 -0.056807354
-0.83881676 -2.7853222 -0.25449476 50 5 -0.056805052
-0.8921724 -2.9606197 0.60104835 59 13 -0.056802746
-0.83492255 -2.7688894 -0.15156494 47 6 -0.056800444
-0.8905431 -2.9514823 0.71174508 97 14 -0.056798138
-0.6889466 -2.2819023 -0.041606538 67 7 -0.056795835
-0.79110408 -2.6186113 0.73297554 39 15 -0.05679353
-0.91097975 -3.0021555 -0.8406443 39 0 -0.056772795
-0.86043429 -2.8338006 0.051694028 33 8 -0.056770489
-0.84918785 -2.7950072 -0.67440325 50 1 -0.056768186
-0.90684885 -2.9829202 0.16339287 100 9 -0.056765884
-0.84858036 -2.7912562 -0.56708437 48 2 -0.056763578
-0.8999387 -2.9583342 0.27053142 100 10 -0.056761276
-0.8490482 -2.7892952 -0.46179458 52 3 -0.05675897
-0.90403348 -2.9680748 0.38096359 100 11 -0.056756668
-0.85420239 -2.8027158 -0.35975835 52 4 -0.056754362
-0.85799944 -2.8134134 0.46586189 48 12 -0.05675206
-0.8450473 -2.7709429 -0.2534489 48 5 -0.056749754
-0.89218754 -2.9236875 0.59417921 52 13 -0.056747451
-0.84983194 -2.78315 -0.15250699 53 6 -0.056745145
-0.90425652 -2.9595382 0.71444452 100 14 -0.056742843
-0.69924676 -2.2871327 -0.041746158 69 7 -0.056740537
-0.80306542 -2.6250708 0.73556381 48 15 -0.056738235
-0.92372334 -3.0063438 -0.84271485 39 0 -0.0567175
-0.86855757 -2.8250456 0.051589314 13 8 -0.056715194
-0.85664713 -2.7845757 -0.67260367 46 1 -0.056712892
-0.91960651 -2.9873717 0.16381156 100 9 -0.056710586
-0.85947412 -2.7920296 -0.56784761 48 2 -0.056708284
-0.91143245 -2.9589829 0.27088004 100 10 -0.056705978
-0.85703373 -2.7806513 -0.46085599 57 3 -0.056703676
-0.91263384 -2.9592099 0.38023239 100 11 -0.05670137
-0.86222422 -2.7940266 -0.35902712 47 4 -0.056699067
-0.86839777 -2.812289 0.46617478 47 12 -0.056696761
-0.8594172 -2.7832055 -0.25484338 49 5 -0.056694459
-0.90006918 -2.9130526 0.5926528 41 13 -0.056692153
-0.85659212 -2.7706256 -0.15198363 49 6 -0.056689851
-0.91342998 -2.9526403 0.71354473 94 14 -0.056687545
-0.71077377 -2.2961395 -0.041955583 70 7 -0.056685243
-0.8127954 -2.6240971 0.73608136 47 15 -0.056682937
-0.93535966 -3.0067906 -0.84375012 38 0 -0.056662202
-0.86652708 -2.7838099 0.050891217 1 8 -0.0566599
-0.86694145 -2.7834289 -0.67305356 45 1 -0.056657594
-0.92705703 -2.9746094 0.16328819 100 9 -0.056655291
-0.87155116 -2.79651 -0.56937408 50 2 -0.056652986
-0.92531502 -2.9671955 0.2719259 100 10 -0.056650683
-0.86967695 -2.7870712 -0.46242031 51 3 -0.056648377
-0.92059094 -2.948427 0.37925744 99 11 -0.056646075
-0.86842054 -2.7796314 -0.35756469 46 4 -0.056643769
-0.88056678 -2.8167818 0.46742624 49 12 -0.056641467
-0.87031627 -2.7839923 -0.25519201 49 5 -0.056639161
-0.90144026 -2.8817873 0.58692849 34 13 -0.056636859
-0.86506504 -2.7638066 -0.15177429 47 6 -0.056634553
-0.92606086 -2.9568725 0.71534431 100 14 -0.056632251
-0.71758831 -2.2898283 -0.041885775 69 7 -0.056629948
-0.82368439 -2.6267736 0.7376343 48 15 -0.056627642
-0.94817036 -3.0108778 -0.84582067 39 0 -0.056606907
-0.87263334 -2.7693248 0.050681788 3 8 -0.056604601
-0.87841022 -2.7859614 -0.67440325 43 1 -0.056602299
-0.93803549 -2.9732604 0.16339287 100 9 -0.056599993
-0.87776315 -2.782217 -0.56708437 48 2 -0.056597691
-0.9368661 -2.9677474 0.27227452 100 10 -0.056595385
-0.87940043 -2.7840185 -0.46242031 55 3 -0.056593083
-0.93566376 -2.9603379 0.38120735 100 11 -0.056590777
-0.8793149 -2.7803686 -0.35805216 49 4 -0.056588475
-0.89218158 -2.8193412 0.46836486 48 12 -0.056586169
-0.88051438 -2.7807837 -0.25519201 49 5 -0.056583866
-0.91267973 -2.8823662 0.58769172 51 13 -0.056581564
-0.87953305 -2.7760022 -0.15261166 47 6 -0.056579258
-0.93284291 -2.9424763 0.71264493 92 14 -0.056576956
-0.72557724 -2.2873094 -0.041885775 67 7 -0.05657465
-0.83518642 -2.6312478 0.73970485 48 15 -0.056572348
-0.95685136 -3.0000205 -0.84375012 39 0 -0.056551609
-0.82517624 -2.5871787 0.047400735 1 8 -0.056549307
-0.88931435 -2.7865913 -0.67530304 46 1 -0.056547001
-0.95144659 -2.9794807 0.16391623 100 9 -0.056544699
-0.88795495 -2.778981 -0.56708437 48 2 -0.056542393
-0.94652373 -2.9604983 0.2719259 100 10 -0.056540091
-0.89200616 -2.7883027 -0.46367183 55 3 -0.056537785
-0.94599134 -2.9570539 0.38120735 100 11 -0.056535482
-0.89325112 -2.7905161 -0.35975835 50 4 -0.05653318
-0.90081245 -2.8124471 0.46773914 54 12 -0.056530874
-0.88899922 -2.7738981 -0.25484338 50 5 -0.056528572
-0.92083961 -2.8715239 0.58616525 59 13 -0.056526266
-0.89092243 -2.7765632 -0.152821 47 6 -0.056523964
-0.94600421 -2.9464593 0.71444452 100 14 -0.056521658
-0.73111165 -2.2771468 -0.041746158 67 7 -0.056519356
-0.84200269 -2.6209593 0.7376343 48 15 -0.05651705
-0.96494383 -2.9893081 -0.84167957 39 0 -0.056496315
-0.80515152 -2.4927976 0.045725305 4 8 -0.056494009
-0.90431613 -2.7981474 -0.67890227 42 1 -0.056491707
-0.96113151 -2.9721727 0.1637069 100 9 -0.056489401
-0.90067035 -2.7852046 -0.56899244 47 2 -0.056487098
-0.95317191 -2.9458025 0.27088004 100 10 -0.056484796
-0.90051645 -2.7814131 -0.46304604 52 3 -0.05648249
-0.95804673 -2.9573436 0.38169482 100 11 -0.056480188
-0.90041244 -2.7777817 -0.35853964 47 4 -0.056477882
-0.91111457 -2.8091266 0.46773914 50 12 -0.05647558
-0.89744723 -2.7669878 -0.25449476 48 5 -0.056473274
-0.93328172 -2.8757615 0.58769172 65 13 -0.056470972
-0.89937508 -2.7696373 -0.15261166 49 6 -0.056468666
-0.95869279 -2.9505525 0.71624416 100 14 -0.056466363
-0.74192601 -2.2820587 -0.041885775 66 7 -0.056464057
-0.85100538 -2.6160185 0.73711663 47 15 -0.056461755
-0.98017162 -3.0006125 -0.84582067 39 0 -0.05644102
-0.78961903 -2.415843 0.044364017 74 8 -0.056438714
-0.91286683 -2.7912691 -0.67800248 42 1 -0.056436412
-0.97584838 -2.9820874 0.16443959 100 9 -0.056434106
-0.90977621 -2.7801781 -0.56861085 49 2 -0.056431804
-0.96716851 -2.9538183 0.2719259 100 10 -0.056429498
-0.91022032 -2.7782526 -0.46304604 55 3 -0.056427196
-0.9683637 -2.9539814 0.38169482 108 11 -0.05642489
-0.91381514 -2.7859392 -0.36000207 48 4 -0.056422587
-0.9258427 -2.8209438 0.47024205 60 12 -0.056420282
-0.90834302 -2.7676241 -0.25484338 50 5 -0.056417979
-0.94086421 -2.8650253 0.58616525 66 13 -0.056415673
-0.9077903 -2.762686 -0.15240233 49 6 -0.056413371
-0.9702034 -2.9508908 0.71714395 106 14 -0.056411065
-0.75113714 -2.2832539 -0.041955583 67 7 -0.056408763
-0.86375636 -2.624042 0.74022251 46 15 -0.056406457
-0.99185234 -3.0008414 -0.84685594 40 0 -0.056385722
-0.91954327 -2.7788155 -0.675753 40 1 -0.056381114
-0.98185748 -2.9653904 0.1637069 100 9 -0.056378812
-0.92564642 -2.7956228 -0.57242703 54 2 -0.056376506
-0.97872657 -2.9542067 0.27227452 100 10 -0.056374203
-0.92115557 -2.7788088 -0.46367183 52 3 -0.056371897
-0.97616929 -2.9430466 0.38071984 108 11 -0.056369595
-0.92290944 -2.780848 -0.35975835 49 4 -0.056367289
-0.93692887 -2.8214445 0.47086781 56 12 -0.056364987
-0.92302138 -2.7795637 -0.25623786 50 5 -0.056362681
-0.95209754 -2.8654497 0.58692849 54 13 -0.056360379
-0.91616851 -2.7557099 -0.15219298 50 6 -0.056358073
-0.97680694 -2.9363914 0.71444452 106 14 -0.056355771
-0.76289195 -2.2920024 -0.042165015 64 7 -0.056353465
-0.87291044 -2.621011 0.74022251 47 15 -0.056351162
-1.0059973 -3.0083537 -0.84996176 40 0 -0.056330428
-0.8845107 -2.6435237 0.048657309 1 8 -0.056328122
-0.9329493 -2.7866762 -0.67845237 39 1 -0.056325819
-0.99029952 -2.9562638 0.16339287 100 9 -0.056323513
-0.93041062 -2.777482 -0.56937408 49 2 -0.056321211
-0.99283195 -2.9621069 0.27332041 85 10 -0.056318905
-0.93210614 -2.7793221 -0.46429756 55 3 -0.056316603
-0.98833108 -2.9452667 0.38145107 94 11 -0.056314297
-0.93071496 -2.7719643 -0.35902712 47 4 -0.056311995
-0.94425583 -2.8106666 0.46961632 53 12 -0.056309689
-0.93271858 -2.7763247 -0.25623786 50 5 -0.056307387
-0.98086017 -2.9179368 0.59837705 26 13 -0.056305081
-0.9308756 -2.7676394 -0.15303035 50 6 -0.056302778
-0.98829448 -2.9366574 0.71534431 46 14 -0.056300476
-0.76514453 -2.272269 -0.041850869 63 7 -0.05629817
-0.88205397 -2.6179481 0.74022251 47 15 -0.056295868
-1.0140158 -2.9975038 -0.84789127 40 0 -0.056275129
-0.87065208 -2.5722315 0.047400735 1 8 -0.056272827
-0.94392157 -2.7870941 -0.67935222 36 1 -0.056270521
-0.99240929 -2.9302626 0.16213681 54 9 -0.056268219
-0.94136041 -2.777936 -0.57013732 48 2 -0.056265913
-0.98525167 -2.9057908 0.26843968 37 10 -0.056263611
-0.9462446 -2.7891459 -0.46648762 57 3 -0.056261305
-0.98967296 -2.9154828 0.37803873 46 11 -0.056259003
-0.94166178 -2.7724578 -0.35951459 49 4 -0.056256697
-0.95865291 -2.8224835 0.47211927 56 12 -0.056254394
-0.9411217 -2.7692792 -0.25588927 48 5 -0.056252092
-0.99736017 -2.9330826 0.60219324 45 13 -0.056249786
-0.94053113 -2.7643731 -0.15303035 47 6 -0.056247484
-0.99037486 -2.9092078 0.7094956 43 14 -0.056245178
-0.77331972 -2.2716124 -0.041885775 66 7 -0.056242876
-0.88948488 -2.6113515 0.73918724 47 15 -0.05624057
-1.0207202 -2.9829791 -0.84478539 43 0 -0.056219835
-0.86558169 -2.5295982 0.046667732 2 8 -0.056217529
-0.95757711 -2.7968545 -0.68250149 33 1 -0.056215227
-1.0032787 -2.9286702 0.16224147 57 9 -0.056212921
-0.95232439 -2.7783477 -0.57090056 49 2 -0.056210618
-0.98957193 -2.8853722 0.26687086 42 10 -0.056208316
-0.95356607 -2.7803872 -0.46554902 51 3 -0.05620601
-0.99997967 -2.9140623 0.37828246 37 11 -0.056203708
-0.95471877 -2.7805851 -0.36097702 48 4 -0.056201402
-0.97235084 -2.8303292 0.47399649 56 12 -0.0561991
-0.948192 -2.7584407 -0.25519201 50 5 -0.056196794
-0.99942291 -2.9074793 0.59761381 41 13 -0.056194492
-0.95294076 -2.7706826 -0.15355371 46 6 -0.056192186
-0.99811453 -2.9003799 0.70814592 37 14 -0.056189884
-0.78189558 -2.2707901 -0.041920681 63 7 -0.056187578
-0.89796555 -2.6064038 0.73866957 48 15 -0.056185275
-1.0331323 -2.9868808 -0.84685594 46 0 -0.056164537
-0.88814056 -2.5662456 0.047400735 1 8 -0.056162234
-0.96478361 -2.786129 -0.68070191 24 1 -0.056159932
-1.012188 -2.921376 0.16203214 57 9 -0.056157626
-0.96410352 -2.7825947 -0.57242703 54 2 -0.056155324
-1.0004398 -2.8858399 0.26721951 36 10 -0.056153018
-0.96067601 -2.7695765 -0.46429756 52 3 -0.056150716
-1.0101459 -2.9105537 0.37828246 47 11 -0.05614841
-0.96441883 -2.7772355 -0.36097702 49 4 -0.056146108
-0.98287249 -2.8287835 0.47430936 55 12 -0.056143802
-0.96256512 -2.7703373 -0.25658652 49 5 -0.056141499
-1.0056978 -2.8928466 0.5953241 42 13 -0.056139193
-0.96063799 -2.7616801 -0.1532397 48 6 -0.056136891
-1.0069512 -2.8931971 0.70724607 40 14 -0.056134585
-0.79244792 -2.2756007 -0.042060301 63 7 -0.056132283
-0.91023636 -2.6123748 0.74125779 47 15 -0.056129977
-1.0473799 -2.9941974 -0.84996176 41 0 -0.056109242
-0.88520235 -2.529156 0.04677245 9 8 -0.05610694
-0.97643507 -2.7882619 -0.6820516 23 1 -0.056104634
-1.0170958 -2.9027455 0.16119476 58 9 -0.056102332
-0.97640765 -2.7866235 -0.57395351 55 2 -0.056100026
-1.0131439 -2.8898506 0.26791674 32 10 -0.056097724
-0.97426081 -2.7773907 -0.46617478 51 3 -0.056095418
-1.0104381 -2.8789141 0.3746264 51 11 -0.056093115
-0.97279191 -2.7701063 -0.36048955 47 4 -0.056090809
-0.99798006 -2.840245 0.4768123 55 12 -0.056088507
-0.97223002 -2.7669604 -0.25658652 51 5 -0.056086201
-1.0157894 -2.8893185 0.5953241 42 13 -0.056083899
-0.96828371 -2.7526579 -0.15292569 46 6 -0.056081593
-1.0144567 -2.8823116 0.70544648 39 14 -0.056079291
-0.80304319 -2.2803655 -0.042199921 63 7 -0.056076985
-0.92063349 -2.6128259 0.742293 46 15 -0.056074683
-1.0610461 -2.9996295 -0.85254997 30 0 -0.056053948
-0.90069687 -2.5449018 0.047121495 47 8 -0.056051642
-0.98941487 -2.7940214 -0.68430108 21 1 -0.056049339
-1.0245537 -2.8916473 0.16077606 57 9 -0.056047034
-0.98219442 -2.772095 -0.57166374 48 2 -0.056044731
-1.0112418 -2.852495 0.26477915 38 10 -0.056042425
-0.98593122 -2.7795577 -0.46711335 57 3 -0.056040123
-1.0218092 -2.8791108 0.37511387 51 11 -0.056037817
-0.98245555 -2.7666936 -0.36048955 46 4 -0.056035515
-1.0052427 -2.8292987 0.47556084 55 12 -0.056033209
-0.98636883 -2.7746422 -0.25763237 50 5 -0.056030907
-1.0232384 -2.8783557 0.59379762 41 13 -0.056028601
-0.9805637 -2.756788 -0.15334436 46 6 -0.056026299
-1.0199378 -2.8659015 0.70229721 35 14 -0.056023993
-0.80898577 -2.2718968 -0.042095207 66 7 -0.05602169
-0.93104553 -2.613236 0.74332833 47 15 -0.056019388
-0.9055323 -2.5304458 0.04691207 6 8 -0.055996347
-1.0011324 -2.7960546 -0.68565083 15 1 -0.055994041
-1.0326209 -2.8824127 0.16046207 61 9 -0.055991739
-0.99168611 -2.7666283 -0.57128215 47 2 -0.055989433
-1.0176544 -2.837517 0.2637333 64 10 -0.055987131
-0.99544507 -2.7740662 -0.46680051 51 3 -0.055984825
-1.0285007 -2.8661845 0.37389517 48 11 -0.055982523
-0.99613184 -2.7744572 -0.36195198 49 4 -0.055980217
-1.0144445 -2.8239131 0.47524795 53 12 -0.055977914
-0.99335247 -2.7636824 -0.25693512 48 5 -0.055975609
-1.0311238 -2.8671963 0.59227115 41 13 -0.055973306
-0.9940424 -2.7625721 -0.15386772 48 6 -0.055971004
-1.0264744 -2.8511426 0.69959778 36 14 -0.055968698
-0.81487924 -2.2634144 -0.041990492 61 7 -0.055966396
-0.93754256 -2.6026998 0.74125779 47 15 -0.05596409
-1.0463352 -2.8920465 -0.82407987 1 0 -0.055943355
-0.91684246 -2.5327508 0.047016785 3 8 -0.055941049
-1.0186737 -2.8125215 -0.69059974 13 1 -0.055938747
-1.0452195 -2.8842418 0.16077606 54 9 -0.055936441
-1.0033438 -2.7686872 -0.57242703 54 2 -0.055934139
-1.0241575 -2.8245819 0.2628617 55 10 -0.055931833
-1.0037748 -2.766861 -0.46617478 52 3 -0.05592953
-1.0389986 -2.8623955 0.37389517 52 11 -0.055927228
-1.004939 -2.7670557 -0.3614645 48 4 -0.055924922
-1.0261376 -2.8238893 0.47587368 56 12 -0.05592262
-0.99891084 -2.7489624 -0.25588927 50 5 -0.055920314
-1.0384423 -2.8561995 0.59074467 40 13 -0.055918012
-1.0036796 -2.7590852 -0.15386772 48 6 -0.055915706
-1.0410861 -2.8603606 0.70274711 40 14 -0.055913404
-0.82590663 -2.2679286 -0.042130109 63 7 -0.055911098
-0.94707572 -2.599246 0.74125779 46 15 -0.055908795
-1.0896028 -2.9790916 -0.84996176 8 0 -0.055888057
-0.90987235 -2.4863431 0.046213973 1 8 -0.055885755
-1.026475 -2.8034587 -0.68925005 10 1 -0.055883452
-1.051846 -2.8711989 0.16025271 52 9 -0.055881146
-1.0170543 -2.7762289 -0.57471669 55 2 -0.055878844
-1.0442959 -2.8490498 0.26547641 57 10 -0.055876538
-1.0134269 -2.7633402 -0.46617478 52 3 -0.055874236
-1.0428296 -2.8419793 0.37170154 51 11 -0.05587193
-1.017328 -2.7709851 -0.36243945 47 4 -0.055869628
-1.0373505 -2.8239989 0.47649944 53 12 -0.055867322
-1.0126221 -2.7566803 -0.25693512 48 5 -0.05586502
-1.0436655 -2.8396578 0.58807337 39 13 -0.055862714
-1.0098577 -2.7461927 -0.15334436 46 6 -0.055860411
-1.0490456 -2.8512225 0.70139736 43 14 -0.055858105
-0.83381826 -2.2650316 -0.042130109 63 7 -0.055855803
-0.95747852 -2.59955 0.742293 47 15 -0.055853497
-1.1073647 -2.9952018 -0.85565579 28 0 -0.055832762
-0.91993302 -2.486903 0.046283782 1 8 -0.05583046
-1.0470772 -2.8290999 -0.6964485 7 1 -0.055828154
-1.0549264 -2.8487802 0.15920599 51 9 -0.055825852
-1.0294662 -2.780026 -0.57624322 54 2 -0.055823546
-1.0542344 -2.8453875 0.26547641 51 10 -0.055821244
-1.0230666 -2.7597859 -0.46617478 52 3 -0.055818938
-1.0479114 -2.8252933 0.36999539 48 11 -0.055816635
-1.0269945 -2.7674172 -0.36243945 49 4 -0.05581433
-1.0458266 -2.8166568 0.47587368 53 12 -0.055812027
-1.0263996 -2.7643354 -0.25798097 49 5 -0.055809721
-1.0508363 -2.8286362 0.5865469 39 13 -0.055807419
-1.0201337 -2.7445228 -0.15344904 50 6 -0.055805113
-1.0515196 -2.8274517 0.6964485 40 14 -0.055802811
-0.84729832 -2.2771008 -0.042409346 63 7 -0.055800505
-0.96924299 -2.6034338 0.74436361 45 15 -0.055798203
-1.121194 -3.0003664 -0.858244 34 0 -0.055777468
-0.91600317 -2.4499614 0.045655496 1 8 -0.055775162
-1.0685532 -2.8564563 -0.70409679 6 1 -0.05577286
-1.0627635 -2.839469 0.15889199 54 9 -0.055770554
-1.0350345 -2.7653835 -0.57395351 54 2 -0.055768251
-1.0648593 -2.8435557 0.26565069 49 10 -0.055765945
-1.0368524 -2.7672966 -0.46805197 51 3 -0.055763643
-1.0570701 -2.8197596 0.36975163 51 11 -0.055761337
-1.0373454 -2.7656736 -0.36268318 50 4 -0.055759035
-1.050794 -2.8000431 0.47368363 52 12 -0.055756729
-1.0346428 -2.7570052 -0.25763237 49 5 -0.055754427
-1.0648441 -2.8359787 0.58883661 37 13 -0.055752121
-1.032517 -2.7484236 -0.15386772 47 6 -0.055749819
-1.0586404 -2.8164673 0.69464886 37 14 -0.055747513
-0.85242647 -2.2666423 -0.042269729 60 7 -0.05574521
-0.97968519 -2.603651 0.74539888 45 15 -0.055742905
-1.1282477 -2.9873981 -0.85565579 42 0 -0.055722952
-0.93020409 -2.461714 0.045934737 1 8 -0.05572065
-1.0867875 -2.8745828 -0.7094956 6 1 -0.055718344
-1.0733756 -2.8376098 0.15899664 52 9 -0.055716041
-1.0446817 -2.7617536 -0.57395351 54 2 -0.055713736
-1.0705471 -2.8286412 0.26460484 46 10 -0.055711433
-1.0507027 -2.7747445 -0.46992919 58 3 -0.055709127
-1.0669068 -2.8160522 0.36975163 51 11 -0.055706825
-1.0491036 -2.7676046 -0.36341441 46 4 -0.055704519
-1.0570592 -2.787123 0.47211927 47 12 -0.055702217
-1.0428473 -2.749651 -0.25728375 49 5 -0.055699911
-1.0691653 -2.81756 0.58578366 39 13 -0.055697609
-1.0484849 -2.7616079 -0.15480977 51 6 -0.055695303
-1.0663892 -2.8072896 0.69329917 36 14 -0.055693001
-0.85820186 -2.2580454 -0.042165015 66 7 -0.055690695
-0.98739439 -2.5966039 0.74436361 46 15 -0.055688392
-1.1317804 -2.9653931 -0.85047942 31 0 -0.055667657
-0.95305848 -2.4958143 0.04663283 1 8 -0.055665351
-1.1016837 -2.8835146 -0.71264493 7 1 -0.055663049
-1.0811344 -2.8282487 0.15868263 54 9 -0.055660743
-1.0571194 -2.7654252 -0.57547992 54 2 -0.055658441
-1.0740088 -2.8081386 0.26303601 45 10 -0.055656135
-1.0561461 -2.7599905 -0.46805197 52 3 -0.055653833
-1.0760201 -2.810457 0.36950788 48 11 -0.055651527
-1.0594686 -2.7657795 -0.36365816 48 4 -0.055649225
-1.074558 -2.8037062 0.47556084 56 12 -0.055646919
-1.0538651 -2.7497146 -0.25763237 49 5 -0.055644616
-1.0733702 -2.7991459 0.58273071 39 13 -0.055642311
-1.057403 -2.7560663 -0.15470509 48 6 -0.055640008
-1.0761821 -2.8035505 0.69329917 36 14 -0.055637702
-0.87038016 -2.2662365 -0.042374443 64 7 -0.0556354
-0.99506646 -2.5895348 0.74332833 46 15 -0.055633094
-1.1483806 -2.9776464 -0.85513818 37 0 -0.055612359
-0.94880718 -2.4588912 0.046004545 2 8 -0.055610057
-1.1047238 -2.8614719 -0.70814592 14 1 -0.055607751
-1.0931591 -2.8300474 0.15899664 57 9 -0.055605449
-1.0695955 -2.7690444 -0.57700646 54 2 -0.055603143
-1.0838045 -2.8043725 0.26303601 45 10 -0.055600841
-1.0643491 -2.7526021 -0.46742624 51 3 -0.055598535
-1.0815262 -2.7955759 0.36804545 48 11 -0.055596232
-1.0691162 -2.7620645 -0.36365816 48 4 -0.055593926
-1.0807711 -2.7907281 0.47399649 53 12 -0.055591624
-1.0663348 -2.7534511 -0.25832963 50 5 -0.055589318
-1.0802977 -2.7880592 0.58120424 39 13 -0.055587016
-1.064129 -2.7449098 -0.15428641 49 6 -0.05558471
-1.084552 -2.7961428 0.69239932 36 14 -0.055582408
-0.88117969 -2.2706413 -0.042514063 64 7 -0.055580106
-1.0068965 -2.5932491 0.74539888 45 15 -0.0555778
-1.1580666 -2.9718192 -0.85462052 34 0 -0.055557065
-0.95229954 -2.4425225 0.045760211 3 8 -0.055554759
-1.1005412 -2.8212881 -0.69914788 43 1 -0.055552457
-1.09577 -2.8076084 0.15794992 37 9 -0.055550151
-1.0806828 -2.7689514 -0.57776964 55 2 -0.055547848
-1.0914125 -2.7950046 0.2625131 37 10 -0.055545542
-1.0753888 -2.7525501 -0.46805197 51 3 -0.05554324
-1.0862194 -2.7788413 0.36633927 42 11 -0.055540934
-1.0773052 -2.7546184 -0.36317068 47 4 -0.055538632
-1.0883466 -2.7814195 0.4730579 48 12 -0.05553633
-1.0744877 -2.7460012 -0.25798097 49 5 -0.055534024
-1.0928857 -2.7915843 0.58273071 37 13 -0.055531722
-1.0737041 -2.7411785 -0.15428641 47 6 -0.055529416
-1.0886174 -2.7778249 0.6888001 35 14 -0.055527113
-0.88983011 -2.2694135 -0.042548969 61 7 -0.055524807
-1.0201755 -2.6005092 0.7485047 46 15 -0.055522505
-1.1705559 -2.9731517 -0.8561734 25 0 -0.055501767
-0.96814871 -2.4577889 0.046109259 4 8 -0.055499464
-1.1125263 -2.8228681 -0.70049757 52 1 -0.055497158
-1.1011676 -2.7926183 0.1573219 72 9 -0.055494856
-1.0874606 -2.7578568 -0.57624322 56 2 -0.05549255
-1.1055498 -2.8022978 0.26355895 57 10 -0.055490248
-1.0893421 -2.759804 -0.46992919 57 3 -0.055487946
-1.0966418 -2.7768793 0.36658302 55 11 -0.05548564
-1.0883731 -2.7545333 -0.36365816 46 4 -0.055483337
-1.0995015 -2.7812777 0.47368363 63 12 -0.055481032
-1.0899265 -2.757057 -0.25937548 51 5 -0.055478729
-1.099013 -2.7786243 0.58082259 41 13 -0.055476423
-1.0847359 -2.7411282 -0.15449576 48 6 -0.055474121
-1.0947204 -2.7649484 0.68655062 40 14 -0.055471815
-0.89701027 -2.2644341 -0.042514063 64 7 -0.055469513
-1.0299585 -2.5987282 0.74902231 49 15 -0.055467207
-1.1659333 -2.9313512 -0.84530306 23 0 -0.055446472
-0.98781288 -2.4822643 0.04663283 5 8 -0.055444166
-1.1252567 -2.8262098 -0.70229721 51 1 -0.055441864
-1.1109093 -2.7887571 0.1573219 61 9 -0.055439562
-1.095628 -2.750396 -0.57547992 56 2 -0.055437256
-1.1086859 -2.7817645 0.26199016 50 10 -0.055434953
-1.100432 -2.7596545 -0.47055492 57 3 -0.055432647
-1.1114777 -2.7859404 0.36828917 56 11 -0.055430345
-1.0994531 -2.7544048 -0.36414564 46 4 -0.055428039
-1.1055398 -2.7682502 0.47211927 56 12 -0.055425737
-1.0936319 -2.7384331 -0.25798097 48 5 -0.055423431
-1.1101626 -2.7784169 0.58158582 41 13 -0.055421129
-1.0972632 -2.7447429 -0.15491444 50 6 -0.055418823
-1.1058124 -2.7647293 0.68745047 39 14 -0.055416521
-0.89970833 -2.2482934 -0.042269729 61 7 -0.055414215
-1.0361513 -2.5879433 0.74695182 42 15 -0.055411913
-1.1869626 -2.9541519 -0.85306764 9 0 -0.055391178
-0.99870884 -2.4843674 0.046737548 3 8 -0.055388872
-1.1358423 -2.8240726 -0.70274711 55 1 -0.055386569
-1.125856 -2.7978325 0.15805461 54 9 -0.055384263
-1.1110849 -2.7611253 -0.57853287 54 2 -0.055381961
-1.1191336 -2.7797258 0.26216447 49 10 -0.055379655
-1.1085823 -2.7521317 -0.46992919 56 3 -0.055377353
-1.1204534 -2.7802029 0.36804545 48 11 -0.055375047
-1.1105459 -2.7542322 -0.36463311 47 4 -0.055372745
-1.1181526 -2.7717021 0.47337076 56 12 -0.055370439
-1.1046754 -2.7382944 -0.25832963 48 5 -0.055368137
-1.1139756 -2.7599604 0.57853287 42 13 -0.055365831
-1.1098287 -2.7483041 -0.15533313 48 6 -0.055363528
-1.1212968 -2.7753069 0.69104964 39 14 -0.055361222
-0.91204715 -2.2562628 -0.042479157 63 7 -0.05535892
-1.0444543 -2.5825195 0.74643415 45 15 -0.055356614
-1.175472 -2.8962891 -0.83753842 1 0 -0.055335879
-1.0036136 -2.4716022 0.046563022 6 8 -0.055333577
-1.1456934 -2.8200903 -0.70274711 52 1 -0.055331271
-1.1371193 -2.7975862 0.15826395 57 9 -0.055328969
-1.1229339 -2.7626865 -0.57967776 57 2 -0.055326663
-1.1325825 -2.7850304 0.26303601 50 10 -0.055324361
-1.1181823 -2.7482455 -0.46992919 56 3 -0.055322055
-1.1279057 -2.7707591 0.36731425 54 11 -0.055319753
-1.1216507 -2.7540159 -0.36512056 46 4 -0.055317447
-1.1293116 -2.771441 0.47399649 57 12 -0.055315144
-1.1172341 -2.7418017 -0.25902686 47 5 -0.055312838
-1.1265681 -2.7633271 0.58005941 42 13 -0.055310536
-1.1179068 -2.7407148 -0.1551238 50 6 -0.05530823
-1.1302412 -2.7695718 0.69059974 43 14 -0.055305928
-0.92445314 -2.2641735 -0.042688586 63 7 -0.055303626
-1.056385 -2.5860116 0.7485047 46 15 -0.05530132
-1.1811788 -2.8814435 -0.83443266 1 0 -0.055280585
-1.067627 -2.6031439 0.049111072 6 8 -0.055278279
-1.1584893 -2.8232856 -0.70454669 34 1 -0.055275977
-1.1446027 -2.7880569 0.15794992 61 9 -0.055273671
-1.132571 -2.75875 -0.57967776 52 2 -0.055271368
-1.1468389 -2.7921181 0.2640819 47 10 -0.055269063
-1.1292701 -2.7479799 -0.47055492 56 3 -0.05526676
-1.1405904 -2.7741487 0.36828917 51 11 -0.055264454
-1.1297469 -2.746412 -0.36463311 47 4 -0.055262152
-1.1449929 -2.7820959 0.47649944 56 12 -0.055259846
-1.1267978 -2.7378855 -0.25902686 49 5 -0.055257544
-1.1474192 -2.7866085 0.58578366 36 13 -0.055255242
-1.1251847 -2.7312558 -0.15480977 51 6 -0.055252936
-1.147328 -2.7836268 0.69509876 42 14 -0.055250634
-0.93540019 -2.2683277 -0.04282821 61 7 -0.055248328
-1.0712997 -2.596595 0.75264585 47 15 -0.055246025
-1.2119209 -2.9272809 -0.84892654 4 0 -0.055225287
-1.1233875 -2.7120974 0.051240265 14 8 -0.055222984
-1.1543276 -2.7840447 0.15794992 61 9 -0.055218376
-1.1429458 -2.7565935 -0.58005941 54 2 -0.05521607
-1.1581051 -2.7917783 0.26443052 50 10 -0.055213768
-1.1433992 -2.7549679 -0.47243217 57 3 -0.055211462
-1.1487442 -2.7664838 0.3678017 54 11 -0.05520916
-1.1393266 -2.7424519 -0.36463311 46 4 -0.055206858
-1.1478741 -2.7616651 0.47368363 61 12 -0.055204552
-1.1424659 -2.7486539 -0.26042137 49 5 -0.055202249
-1.1503546 -2.7662716 0.58234906 44 13 -0.055199943
-1.1354789 -2.7291553 -0.15491444 49 6 -0.055197641
-1.1510466 -2.7652118 0.69149953 44 14 -0.055195335
-0.94177479 -2.2613564 -0.042758394 61 7 -0.055193033
-1.080357 -2.5928397 0.75264585 45 15 -0.055190727
-1.1833807 -2.8303511 -0.82200933 43 0 -0.055169992
-0.95844465 -2.2912357 0.043351781 57 8 -0.055167686
-1.206008 -2.8816423 -0.72119308 3 1 -0.055165384
-1.1663529 -2.7855251 0.15826395 57 9 -0.055163078
-1.1510446 -2.7489653 -0.57929617 54 2 -0.055160776
-1.1670735 -2.785881 0.26425621 51 10 -0.055158474
-1.1537721 -2.7527816 -0.472745 55 3 -0.055156168
-1.1637678 -2.7752714 0.36950788 57 11 -0.055153865
-1.1519645 -2.7457805 -0.36560807 51 4 -0.055151559
-1.1598005 -2.7631059 0.47462222 60 12 -0.055149257
-1.1489689 -2.7373009 -0.25972411 50 5 -0.055146951
-1.164565 -2.7730997 0.58463877 41 13 -0.055144649
-1.1488669 -2.7343819 -0.1554378 51 6 -0.055142343
-1.1637124 -2.7683632 0.69329917 43 14 -0.055140041
-0.94966274 -2.258055 -0.042758394 60 7 -0.055137735
-1.0849057 -2.5783689 0.74953997 46 15 -0.055135433
-1.097072 -2.5983982 -0.75575161 33 0 -0.055114698
-0.96799278 -2.2915604 0.043421589 93 8 -0.055112392
-1.2092317 -2.8612602 -0.71714395 1 1 -0.055110089
-1.1799583 -2.7906346 0.15878731 64 9 -0.055107784
-1.1613979 -2.7467387 -0.57967776 52 2 -0.055105481
-1.1729096 -2.7726152 0.26338464 50 10 -0.055103175
-1.1641438 -2.7505567 -0.4730579 56 3 -0.055100873
-1.1749964 -2.7748485 0.36999539 55 11 -0.055098567
-1.1646396 -2.7490537 -0.36658302 50 4 -0.055096265
-1.1678971 -2.755403 0.47399649 57 12 -0.055093959
-1.1569622 -2.7296045 -0.25937548 49 5 -0.055091657
-1.1719382 -2.7635956 0.58349395 39 13 -0.055089351
-1.1638649 -2.7432253 -0.15617052 48 6 -0.055087049
-1.1779376 -2.7750471 0.69599855 44 14 -0.055084743
-0.95910227 -2.2584081 -0.04282821 61 7 -0.05508244
-1.1664227 -2.7452557 0.7992332 20 15 -0.055080134
-1.1038623 -2.5892215 -0.75419873 42 0 -0.055059399
-0.975986 -2.2881675 0.043421589 100 8 -0.055057097
-0.87807769 -2.0576289 -0.5164876 1 1 -0.055054791
-1.1889077 -2.784662 0.15868263 58 9 -0.055052489
-1.1732912 -2.7480848 -0.58082259 54 2 -0.055050183
-1.1857113 -2.7758336 0.2640819 50 10 -0.055047881
-1.1721858 -2.7428434 -0.47243217 56 3 -0.055045575
-1.1838946 -2.7689049 0.36975163 56 11 -0.055043273
-1.1757901 -2.7486219 -0.3670705 50 4 -0.055040967
-1.1837257 -2.7658379 0.47649944 60 12 -0.055038664
-1.1696187 -2.7328763 -0.26007274 51 5 -0.055036359
-1.1792595 -2.7540734 0.58234906 42 13 -0.055034056
-1.1702875 -2.7318025 -0.15575182 48 6 -0.05503175
-1.1891522 -2.7745006 0.69689834 42 14 -0.055029448
-0.96855593 -2.2587218 -0.042898018 59 7 -0.055027142
-1.1851387 -2.7624719 0.8054449 18 15 -0.05502484
-0.90131414 -2.0938342 -0.61081296 20 0 -0.055004105
-0.98080337 -2.2774003 0.043281965 89 8 -0.055001799
-0.89219481 -2.0706584 -0.52053672 23 1 -0.054999497
-1.2009928 -2.7859972 0.15899664 60 9 -0.054997191
-1.1852082 -2.7493811 -0.58196747 51 2 -0.054994889
-1.2009168 -2.7844839 0.26530206 51 10 -0.054992583
-1.1841006 -2.7441764 -0.47337076 55 3 -0.05499028
-1.190406 -2.7574654 0.36877668 56 11 -0.054987974
-1.182229 -2.7372112 -0.36609554 51 4 -0.054985672
-1.19494 -2.7653158 0.4771252 57 12 -0.054983366
-1.1838926 -2.7397501 -0.26111859 50 5 -0.054981064
-1.1935403 -2.7607527 0.58463877 42 13 -0.054978758
-1.1782304 -2.7240343 -0.15554248 48 6 -0.054976456
-1.1957339 -2.7631793 0.69509876 44 14 -0.054974154
-0.98199588 -2.2681727 -0.043142349 48 7 -0.054971848
-1.1978453 -2.7654088 0.80751544 22 15 -0.054969545
-0.90553743 -2.0835879 -0.60874242 27 0 -0.054948807
-0.99193662 -2.2812982 0.043421589 89 8 -0.054946505
-0.89863974 -2.0657446 -0.52008682 32 1 -0.054944199
-1.2067252 -2.7726312 0.15847328 57 9 -0.054941896
-1.1885304 -2.7308259 -0.57891452 30 2 -0.05493959
-1.21222 -2.7839282 0.26565069 49 10 -0.054937288
-1.1968285 -2.7472699 -0.47462222 7 3 -0.054934982
-1.2047826 -2.7642119 0.37023908 56 11 -0.05493268
-1.1973305 -2.7458053 -0.3678017 12 4 -0.054930374
-1.203006 -2.7575066 0.47649944 60 12 -0.054928072
-1.1958395 -2.7410796 -0.26164153 40 5 -0.05492577
-1.2094525 -2.7709644 0.58769172 40 13 -0.054923464
-1.1909288 -2.7272267 -0.15596117 22 6 -0.054921161
-1.2053723 -2.7589881 0.69509876 43 14 -0.054918855
-1.2082649 -2.7629809 0.80803311 22 15 -0.054914247
-0.89960951 -2.0503404 -0.59994256 13 0 -0.054893512
-0.99828601 -2.2741597 0.043351781 100 8 -0.054891206
-0.88860613 -2.0233417 -0.510189 7 1 -0.054888904
-1.2180032 -2.772059 0.15868263 58 9 -0.054886598
-1.2179215 -2.7705603 0.26477915 50 10 -0.054881994
-0.71891582 -1.6346345 -0.28283355 4 3 -0.054879688
-1.2176223 -2.7672575 0.37121406 54 11 -0.054877385
-0.71422714 -1.6224366 -0.21765867 1 4 -0.05487508
-1.2094392 -2.7460592 0.47524795 56 12 -0.054872777
-1.2191178 -2.7667255 0.58769172 44 13 -0.054868169
-0.74443501 -1.6886581 -0.096716851 1 6 -0.054865863
-1.2189274 -2.7636793 0.6973483 45 14 -0.054863561
-0.70637619 -1.6008123 -0.030541712 9 7 -0.054861255
-1.2163421 -2.7552116 0.80699778 28 15 -0.054858953
-0.71429926 -1.6126682 -0.47260359 10 0 -0.054838214
-1.0021676 -2.2615201 0.043177254 100 8 -0.054835912
-0.70926422 -1.5997921 -0.40401211 11 1 -0.05483361
-1.232531 -2.7787449 0.15931067 27 9 -0.054831304
-0.70766407 -1.5954309 -0.33925843 9 2 -0.054829001
-1.2300097 -2.7717555 0.26530206 49 10 -0.054826695
-0.71499842 -1.6104498 -0.27907911 24 3 -0.054824393
-1.2288861 -2.7666187 0.37170154 54 11 -0.054822087
-0.71424317 -1.6072353 -0.2159525 18 4 -0.054819785
-1.224635 -2.754456 0.47743803 55 12 -0.054817479
-0.70258057 -1.5802482 -0.15130237 10 5 -0.054815177
-1.2255764 -2.7552781 0.58616525 40 13 -0.054812871
-0.71297103 -1.6021118 -0.091901943 9 6 -0.054810569
-1.231738 -2.7665281 0.69914788 45 14 -0.054808263
-0.71033227 -1.5946835 -0.0304719 9 7 -0.054805961
-1.2259519 -2.7509489 0.80699778 32 15 -0.054803655
-0.71598166 -1.601347 -0.47001541 42 0 -0.05478292
-1.0027068 -2.2415795 0.042863112 81 8 -0.054780617
-0.71404833 -1.5955278 -0.40356219 43 1 -0.054778311
-1.0112445 -2.2585504 0.12968852 23 9 -0.054776009
-0.71563548 -1.5983263 -0.34040326 40 2 -0.054773703
-1.2404916 -2.7692635 0.26547641 50 10 -0.054771401
-0.71576864 -1.5971283 -0.27720189 52 3 -0.054769095
-1.2360991 -2.7568781 0.37097031 55 11 -0.054766793
-0.7206614 -1.6065437 -0.21619622 50 4 -0.054764487
-1.2366688 -2.7555709 0.47837666 60 12 -0.054762185
-0.71788174 -1.5995989 -0.1533941 41 5 -0.054759879
-1.2335784 -2.747401 0.58540201 41 13 -0.054757576
-0.71446693 -1.5905039 -0.091378585 45 6 -0.05475527
-1.242186 -2.7639894 0.69959778 44 14 -0.054752968
-0.70441395 -1.5666609 -0.029983234 6 7 -0.054750662
-1.2403027 -2.7572236 0.81010365 31 15 -0.05474836
-0.72315639 -1.6023595 -0.47105068 60 0 -0.054727625
-1.0121711 -2.2417107 0.04293292 80 8 -0.054725319
-0.71640438 -1.5859219 -0.4017626 59 1 -0.054723017
-1.0298151 -2.278667 0.13104925 30 9 -0.054720711
-0.72606158 -1.606553 -0.34269297 58 2 -0.054718409
-1.2526133 -2.7703629 0.26599932 49 10 -0.054716103
-0.72215325 -1.5964199 -0.27751476 59 3 -0.054713801
-1.2408042 -2.7416952 0.36950788 50 11 -0.054711495
-0.72626513 -1.6040181 -0.21619622 55 4 -0.054709192
-1.2479099 -2.7548361 0.47900239 57 12 -0.054706886
-0.72263879 -1.5952685 -0.1532198 70 5 -0.054704584
-1.2480233 -2.7538078 0.58769172 41 13 -0.054702278
-0.71506613 -1.5770862 -0.09075056 58 6 -0.054699976
-1.2502164 -2.7560873 0.69869798 44 14 -0.05469767
-0.7007879 -1.544162 -0.029599281 3 7 -0.054695368
-1.2499193 -2.7528772 0.81010365 28 15 -0.054693066
-0.73194861 -1.6068578 -0.47312123 57 0 -0.054672327
-1.0199901 -2.2381639 0.04293292 100 8 -0.054670025
-0.724361 -1.5887308 -0.40311229 61 1 -0.054667719
-1.0568273 -2.3168526 0.13345671 38 9 -0.054665416
-0.72433221 -1.5879328 -0.33925843 62 2 -0.054663111
-1.2647576 -2.7714112 0.26652226 50 10 -0.054660808
-0.72772145 -1.5938894 -0.27751476 59 3 -0.054658502
-0.72525895 -1.5870295 -0.21424633 58 4 -0.054653894
-1.2493052 -2.7324979 0.47587368 47 12 -0.054651592
-0.72737467 -1.5909241 -0.15304548 65 5 -0.054649286
-1.2592617 -2.753005 0.58845496 42 13 -0.054646984
-0.72222894 -1.5782129 -0.090959899 45 6 -0.054644682
-1.2573959 -2.7463906 0.6973483 40 14 -0.054642376
-0.70617384 -1.5417063 -0.029599281 1 7 -0.054640073
-1.2643499 -2.7590351 0.81320947 41 15 -0.054637767
-0.73109734 -1.5902511 -0.4689801 57 0 -0.054617032
-1.0286319 -2.2364068 0.042967826 67 8 -0.054614726
-0.7323463 -1.5915036 -0.40446201 58 1 -0.054612424
-1.2661971 -2.7503796 0.15868263 34 9 -0.054610118
-0.73069197 -1.5871781 -0.33964002 58 2 -0.054607816
-1.2660886 -2.7488828 0.26477915 12 10 -0.05460551
-0.7332806 -1.5913396 -0.27751476 59 3 -0.054603208
-0.73411959 -1.5916984 -0.21522127 60 4 -0.0545986
-1.259663 -2.7299147 0.47618657 26 12 -0.054596297
-0.73320085 -1.5882475 -0.15304548 67 5 -0.054593991
-1.2738013 -2.7592874 0.59074467 44 13 -0.054591689
-0.7260589 -1.5720556 -0.09075056 39 6 -0.054589383
-1.2686092 -2.7455232 0.69824809 42 14 -0.054587081
-1.2707295 -2.747591 0.81113893 41 15 -0.054582473
-0.73366761 -1.5805517 -0.46690959 58 0 -0.054561734
-1.0296967 -2.218292 0.042688586 40 8 -0.054559432
-0.73953879 -1.5924724 -0.4053618 66 1 -0.05455713
-0.73733151 -1.5862697 -0.34002164 59 2 -0.054552522
-0.73827499 -1.5868502 -0.27720189 60 3 -0.054547913
-0.73967129 -1.5891262 -0.21522127 60 4 -0.054543305
-1.2658496 -2.7183375 0.47493511 13 12 -0.054540999
-0.7311675 -1.5694245 -0.15147668 65 5 -0.054538697
-1.2805879 -2.7474825 0.5892182 44 13 -0.054536391
-0.72168696 -1.5476624 -0.089494489 27 6 -0.054534089
-1.2836069 -2.7514513 0.70094746 44 14 -0.054531783
-1.2794956 -2.7413881 0.81062132 40 15 -0.054527175
-0.74327773 -1.5867282 -0.46949777 56 0 -0.05450644
-0.74040699 -1.5791646 -0.4026624 53 1 -0.054501832
-0.74369788 -1.5854636 -0.34040326 58 2 -0.054497223
-0.74129111 -1.578899 -0.2762633 57 3 -0.054492615
-0.75224495 -1.6007774 -0.21717119 60 4 -0.054488007
-1.2724419 -2.7065291 0.47368363 5 12 -0.054485705
-0.7428509 -1.5793544 -0.15269686 65 5 -0.054483399
-1.2884995 -2.7394426 0.58845496 44 13 -0.054481097
-0.70497441 -1.4981475 -0.086773023 21 6 -0.054478791
-1.2956942 -2.7522428 0.70229721 43 14 -0.054476488
-1.2944747 -2.7471657 0.81372708 43 15 -0.05447188
-0.7548697 -1.5962182 -0.47312123 57 0 -0.054451145
-0.70358354 -1.4877706 0.02872666 9 8 -0.054448839
-0.74841511 -1.5818552 -0.40401211 59 1 -0.054446537
-0.70239049 -1.4839072 0.086040318 7 9 -0.054444231
-0.7537052 -1.591599 -0.34231135 61 2 -0.054441929
-1.2326353 -2.6017816 0.25188008 2 10 -0.054439623
-0.75214952 -1.5868818 -0.27814052 59 3 -0.054437321
-0.74932289 -1.5802054 -0.21473379 58 4 -0.054432712
-1.2454743 -2.6253281 0.46023026 1 12 -0.054430407
-0.75006795 -1.5803517 -0.15304548 67 5 -0.054428104
-1.3035841 -2.7453425 0.59074467 40 13 -0.054425798
-0.69332051 -1.4594725 -0.084679581 20 6 -0.054423496
-1.3024265 -2.7404351 0.70049757 41 14 -0.05442119
-1.3106936 -2.7565875 0.81786817 48 15 -0.054416582
-0.75766385 -1.5884752 -0.47156835 65 0 -0.054407835
-0.70446658 -1.4762818 0.028552137 70 8 -0.054405533
-0.75896966 -1.5897846 -0.40671152 61 1 -0.054403227
-0.70498377 -1.4760396 0.085726306 68 9 -0.054400925
-0.75728685 -1.5855478 -0.34154812 61 2 -0.054398619
-1.2653085 -2.6480153 0.25676081 4 10 -0.054396316
-0.75911164 -1.5879431 -0.27876624 59 3 -0.05439401
-0.75483429 -1.5775801 -0.21473379 60 4 -0.054389402
-1.2324551 -2.5746388 0.45209566 1 12 -0.0543871
-0.75702506 -1.5814499 -0.1533941 67 5 -0.054384794
-1.3169209 -2.7498581 0.5926528 45 13 -0.054382492
-0.6921156 -1.4445571 -0.083946884 22 6 -0.054380186
-1.3106647 -2.734344 0.70004767 42 14 -0.054377884
-1.3236498 -2.7589629 0.81993878 48 15 -0.054373275
-0.76571739 -1.5910429 -0.47312123 59 0 -0.054352541
-0.71568805 -1.4864258 0.028796472 100 8 -0.054350235
-0.76451445 -1.5871257 -0.40671152 61 1 -0.054347932
-0.71186596 -1.4771683 0.085935652 98 9 -0.054345626
-0.76281685 -1.5828947 -0.34154812 59 2 -0.054343324
-1.2529123 -2.5987151 0.25240302 2 10 -0.054341018
-0.76636642 -1.588842 -0.279392 55 3 -0.054338716
-0.76724076 -1.589237 -0.21668372 58 4 -0.054334108
-1.2070699 -2.4991703 0.43958092 1 12 -0.054331802
-0.75734162 -1.5680331 -0.15234824 69 5 -0.0543295
-1.3273659 -2.7470119 0.59303439 42 13 -0.054327194
-0.69019973 -1.427747 -0.083109505 22 6 -0.054324891
-1.3244437 -2.738524 0.70229721 43 14 -0.054322585
-1.3240136 -2.7351985 0.81424475 46 15 -0.054317977
-0.77970445 -1.6057385 -0.47829759 57 0 -0.054297242
-0.71737683 -1.4767239 0.028656852 100 8 -0.05429494
-0.79049379 -1.6265123 -0.41750914 37 1 -0.054292634
-0.72051132 -1.4818592 0.086354338 98 9 -0.054290332
-0.77005452 -1.5837535 -0.34231135 44 2 -0.054288026
-1.1722078 -2.4097848 0.23444894 1 10 -0.054285724
-0.76758593 -1.5772762 -0.27782765 10 3 -0.054283418
-0.77452219 -1.5901184 -0.21717119 26 4 -0.05427881
-1.2157865 -2.4949415 0.43958092 1 12 -0.054276507
-0.76455611 -1.5689621 -0.15269686 57 5 -0.054274201
-1.3378072 -2.7441266 0.59341598 45 13 -0.054271899
-0.68817502 -1.4109679 -0.082272127 23 6 -0.054269593
-1.3382678 -2.7426407 0.70454669 46 14 -0.054267291
-1.334401 -2.732296 0.81476241 51 15 -0.054262683
-0.88134319 -1.7990459 -0.53679073 34 0 -0.054241948
-0.71900737 -1.4670281 0.028517231 100 8 -0.054239642
-0.9214251 -1.8792027 -0.48319483 25 1 -0.05423734
-0.72567928 -1.4793352 0.086354338 98 9 -0.054235034
-0.99260122 -2.0234694 -0.43809745 9 2 -0.054232731
-0.79659259 -1.6224632 -0.28627509 1 3 -0.054228123
-1.3412617 -2.7294104 -0.37340769 46 4 -0.054223515
-1.2488906 -2.5403187 0.44834125 1 12 -0.054221213
-1.3482443 -2.7412016 0.59379762 42 13 -0.054216605
-0.68339622 -1.3888445 -0.081120737 21 6 -0.054214299
-1.348694 -2.7397008 0.70499659 43 14 -0.054211996
-1.3507609 -2.7414846 0.81890345 50 15 -0.054207388
-0.89018565 -1.8011543 -0.53834367 33 0 -0.05418665
-0.72589624 -1.4680947 0.028587043 100 8 -0.054184347
-0.93057132 -1.8812151 -0.48454455 23 1 -0.054182041
-0.72375184 -1.4624727 0.085516959 100 9 -0.054179739
-1.0275235 -2.0762987 -0.45030925 19 2 -0.054177433
-1.3511146 -2.7277765 -0.48213109 53 3 -0.054172829
-1.3446085 -2.7122624 -0.37170154 48 4 -0.054168221
-1.2682829 -2.5571799 0.45209566 1 12 -0.054165915
-1.3509122 -2.7237816 -0.26599932 56 5 -0.054163612
-1.3578047 -2.7364786 0.59379762 46 13 -0.054161306
-0.68202335 -1.3739278 -0.080388032 23 6 -0.054159004
-1.3608495 -2.7402124 0.70634627 46 14 -0.054156698
-1.3620423 -2.7402129 0.81993878 48 15 -0.05415209
-0.89129543 -1.7876625 -0.53523779 39 0 -0.054131355
-0.73369414 -1.4709201 0.028691756 100 8 -0.054129049
-0.93626231 -1.8762118 -0.48409468 22 1 -0.054126747
-0.73063666 -1.4635113 0.085726306 98 9 -0.054124445
-1.0330112 -2.0691867 -0.44954604 21 2 -0.054122139
-1.3597445 -2.721277 -0.4818182 56 3 -0.054117531
-1.3576201 -2.7146535 -0.37267649 47 4 -0.054112922
-1.3160914 -2.6304679 0.46586189 3 12 -0.05411062
-1.3550622 -2.7083588 -0.26495346 46 5 -0.054108314
-1.374378 -2.7457676 0.59685057 44 13 -0.054106012
-0.67966121 -1.3572518 -0.079550661 23 6 -0.054103706
-1.3660421 -2.7267339 0.70409679 43 14 -0.054101404
-1.373331 -2.7388954 0.82097405 32 15 -0.054096796
-0.88624591 -1.7621042 -0.52850848 36 0 -0.054076061
-0.74062186 -1.4719228 0.028761568 100 8 -0.054073755
-0.9463107 -1.8798946 -0.48589426 22 1 -0.054071452
-0.73484248 -1.4591681 0.085621633 95 9 -0.054069147
-1.0331634 -2.0515404 -0.44649309 21 2 -0.054066844
-1.3719027 -2.7218058 -0.48275682 52 3 -0.054062236
-1.3715578 -2.71876 -0.37389517 50 4 -0.054057628
-1.2620728 -2.500649 0.44364822 2 12 -0.054055322
-1.364508 -2.7036123 -0.26495346 46 5 -0.05405302
-1.3857247 -2.744458 0.59761381 48 13 -0.054050714
-0.68079233 -1.3477403 -0.079131976 22 6 -0.054048412
-1.3764303 -2.7236886 0.70454669 45 14 -0.054046106
-1.3820106 -2.7323616 0.82045639 27 15 -0.054041497
-0.88365114 -1.7417717 -0.52333212 36 0 -0.054020762
-0.74304014 -1.4639789 0.028656852 100 8 -0.05401846
-0.94757324 -1.8661544 -0.48319483 24 1 -0.054016154
-0.7426452 -1.4619362 0.085935652 100 9 -0.054013852
-1.0403184 -2.0479217 -0.44649309 19 2 -0.054011546
-1.3796047 -2.7134786 -0.48213109 50 3 -0.054006938
-1.3837405 -2.7192633 -0.3746264 49 4 -0.05400233
-1.1946181 -2.3465953 0.41705433 1 12 -0.054000027
-1.3721293 -2.6952815 -0.26460484 46 5 -0.053997722
-1.3970776 -2.7431033 0.59837705 45 13 -0.053995419
-0.67823917 -1.3311189 -0.078294598 22 6 -0.053993113
-1.3956645 -2.7379651 0.7094956 48 14 -0.053990811
-1.3950524 -2.7344036 0.82252699 22 15 -0.053986203
-0.88268536 -1.7249184 -0.51919103 36 0 -0.053965468
-0.73994458 -1.4453562 0.028342709 100 8 -0.053963162
-0.95319337 -1.861101 -0.48274496 23 1 -0.05396086
-0.7486546 -1.4611124 0.086040318 100 9 -0.053958554
-1.0474607 -2.0442777 -0.44649309 15 2 -0.053956252
-1.3890682 -2.7086463 -0.48213109 55 3 -0.053951643
-1.3968501 -2.7214808 -0.37560135 48 4 -0.053947035
-1.2100208 -2.3564692 0.4195573 3 12 -0.053944729
-1.3869898 -2.7011096 -0.26565069 45 5 -0.053942427
-1.4003648 -2.7259858 0.59570575 55 13 -0.053940125
-0.67192596 -1.3074268 -0.077038541 24 6 -0.053937819
-1.4061044 -2.7348099 0.7099455 48 14 -0.053935517
-1.4072402 -2.7346709 0.82407987 45 15 -0.053930908
-0.88604295 -1.7166766 -0.51763809 39 0 -0.05391017
-0.74957269 -1.4516487 0.028517231 100 8 -0.053907868
-0.95521212 -1.8491055 -0.48049545 24 1 -0.053905562
-0.74916548 -1.4496186 0.085516959 98 9 -0.053903259
-1.0527875 -2.0371206 -0.44572985 8 2 -0.053900953
-1.4012374 -2.7090447 -0.48306966 57 3 -0.053896345
-1.4036037 -2.7112997 -0.37487015 51 4 -0.053891741
-1.3991591 -2.7015593 -0.26617363 50 5 -0.053887133
-1.416194 -2.733283 0.59837705 57 13 -0.053884827
-0.66821337 -1.2891146 -0.07609649 25 6 -0.053882524
-1.414745 -2.7281549 0.7094956 58 14 -0.053880218
-1.4176672 -2.7314568 0.82459748 61 15 -0.05387561
-0.89024585 -1.7101462 -0.51660281 40 0 -0.053854875
-0.75555867 -1.450797 0.028552137 100 8 -0.053852569
-0.96166092 -1.8457599 -0.48049545 25 1 -0.053850267
-0.75329787 -1.4452237 0.085412286 95 9 -0.053847961
-1.4101645 -2.705441 -0.59303439 54 2 -0.053845659
-1.4179944 -2.7181478 -0.48557264 76 3 -0.053841051
-1.4167343 -2.7134225 -0.37584507 60 4 -0.053836443
-1.4113481 -2.7019567 -0.26669657 61 5 -0.053831834
-1.4266356 -2.730063 0.5987587 46 13 -0.053829532
-0.67085856 -1.2832341 -0.075887144 25 6 -0.053827226
-1.4215503 -2.7180195 0.70814592 46 14 -0.053824924
-1.430777 -2.7333376 0.82666808 55 15 -0.053820316
