# .PCD v0.7 - Point Cloud Data file format
VERSION 0.7
FIELDS x y z intensity ring time
SIZE 4 4 4 4 2 4
TYPE F F F F U F
COUNT 1 1 1 1 1 1
WIDTH 945
HEIGHT 1
VIEWPOINT 0 0 0 1 0 0 0
POINTS 945
DATA ascii
2.2236161 0.37529868 -0.27688718 89 4 -0.097846776
6.0462375 1.01939 0.97114527 75 12 -0.097844474
2.2201331 0.37391281 -0.19697197 95 5 -0.097842164
6.0443358 1.0168997 1.1914115 9 13 -0.097839862
2.1981151 0.36941668 -0.11681387 97 6 -0.09783756
7.2585983 1.2198848 1.6992803 22 14 -0.097835258
2.2008612 0.36948216 -0.03895377 100 7 -0.097832948
5.631907 0.94448078 1.5301383 16 15 -0.097830646
2.5840411 0.43010333 -0.70191729 24 0 -0.097809911
2.1817126 0.36274502 0.038604725 100 8 -0.097807609
2.5817912 0.42880154 -0.60421854 48 1 -0.097805306
2.1653259 0.3596321 0.11503445 91 9 -0.097802997
5.3610067 0.88943392 -1.0563186 8 2 -0.097800694
2.1562405 0.35734981 0.19121969 100 10 -0.097798392
2.2372816 0.37037945 -0.35917357 90 3 -0.09779609
2.1386745 0.35367274 0.26616266 85 11 -0.09779378
2.2248485 0.36792332 -0.27688718 91 4 -0.097791478
6.0378914 0.99740094 0.96926802 70 12 -0.097789176
2.233156 0.36849526 -0.19801784 93 5 -0.097786874
8.5949812 1.4167299 1.6932391 13 13 -0.097784564
2.1993282 0.3621248 -0.11681387 100 6 -0.097782262
7.2529893 1.1942226 1.6970307 12 14 -0.097779959
2.1902351 0.36023504 -0.038744342 100 7 -0.097777657
5.6483517 0.92799294 1.5337617 1 15 -0.097775355
3.7904725 0.61799711 -1.0290645 10 0 -0.097754613
2.186851 0.35615155 0.038674533 100 8 -0.09775231
2.5735815 0.41867486 -0.601969 45 1 -0.097750008
2.1744535 0.35335341 0.11545313 91 9 -0.097747706
5.3561759 0.87039024 -1.0547922 8 2 -0.097745396
2.1495469 0.34892097 0.19052245 100 10 -0.097743094
2.2423975 0.36359224 -0.35979933 93 3 -0.097740792
6.0373936 0.97784537 0.75095892 66 11 -0.09773849
2.2261193 0.36015433 -0.27688718 91 4 -0.09773618
6.0315857 0.97474134 0.9677037 72 12 -0.097733878
2.2186306 0.35854432 -0.19662334 95 5 -0.097731575
8.5996323 1.3882178 1.6932391 30 13 -0.097729273
2.2044604 0.35546592 -0.11702321 100 6 -0.097726971
7.2821255 1.1729243 1.7028794 42 14 -0.097724661
2.1875308 0.35195267 -0.038674533 100 7 -0.097722359
5.6095953 0.90152574 1.5223737 1 15 -0.097720057
3.7926068 0.60476112 -1.0290645 13 0 -0.097699322
2.1821561 0.34757262 0.038569819 98 8 -0.097697012
2.1776464 0.3460739 0.1155578 95 9 -0.097692408
5.2971363 0.84182662 -1.0425804 10 2 -0.097690105
2.1448483 0.34047887 0.18999951 100 10 -0.097687796
2.2436531 0.35576198 -0.35979933 93 3 -0.097685494
6.032928 0.95552123 0.74998403 80 11 -0.097683191
2.2391272 0.35424319 -0.27834961 91 4 -0.097680889
6.0290976 0.9527604 0.96676511 71 12 -0.097678587
2.2119968 0.34955525 -0.19592611 98 5 -0.097676277
8.598608 1.3572701 1.6920942 30 13 -0.097673975
2.2135794 0.34901351 -0.1174419 100 6 -0.097671673
7.2938752 1.1487155 1.7046791 48 14 -0.09766937
2.1926966 0.34493551 -0.038744342 100 7 -0.097667061
5.6833205 0.89303297 1.5415263 18 15 -0.097664759
3.7966032 0.59181893 -1.0295821 14 0 -0.097644024
2.1774285 0.33902982 0.038465101 100 8 -0.097641721
4.4288616 0.68879056 -1.0347749 8 1 -0.097639412
2.1867354 0.33969718 0.11597649 95 9 -0.097637109
5.3175025 0.82604438 -1.046015 12 2 -0.097634807
2.1499615 0.33360031 0.19034813 100 10 -0.097632505
2.2370729 0.34671718 -0.35854784 90 3 -0.097630203
6.0146475 0.93111724 0.74730289 85 11 -0.097627893
2.2501588 0.34794113 -0.27956831 100 4 -0.097625591
6.0265303 0.93080288 0.96582651 67 12 -0.097623289
2.2210796 0.34304768 -0.19662334 95 5 -0.097620986
8.6149349 1.3290449 1.6943839 13 13 -0.097618677
2.2029405 0.33945888 -0.11681387 100 6 -0.097616374
5.9919715 0.92225361 1.3996454 13 14 -0.097614072
2.1938872 0.33727995 -0.038744342 100 7 -0.09761177
5.7169542 0.87788171 1.5498085 52 15 -0.09760946
3.8005557 0.57885259 -1.0300999 10 0 -0.097588725
2.1825531 0.33202809 0.038534917 100 8 -0.097586423
4.4350915 0.67391318 -1.0356746 8 1 -0.097584121
2.1740851 0.32996455 0.11524379 87 9 -0.097581819
2.1589928 0.32728747 0.19104539 100 10 -0.097577207
2.2421756 0.33949816 -0.35917357 90 3 -0.097574905
6.0237498 0.91100842 0.74803412 84 11 -0.097572602
2.2376201 0.3380084 -0.27786213 95 4 -0.097570293
6.0316958 0.91005671 0.96613932 75 12 -0.09756799
2.2301438 0.33648205 -0.19732061 93 5 -0.097565688
8.6214619 1.2992594 1.6947654 27 13 -0.097563386
2.2080619 0.33236107 -0.11702321 100 6 -0.097561076
5.9970818 0.90162313 1.4000953 3 14 -0.097558774
2.2029614 0.3308081 -0.038883962 100 7 -0.097556472
5.7333574 0.85992473 1.553432 61 15 -0.09755417
3.8025532 0.56558347 -1.0300999 10 0 -0.097533435
2.1935885 0.32587719 0.038709439 98 8 -0.097531125
4.4374175 0.65842652 -1.0356746 8 1 -0.097528823
2.1712725 0.32178742 0.11503445 87 9 -0.09752652
4.5269017 0.67089689 -0.88955158 1 2 -0.097524218
2.1620927 0.32004133 0.19121969 100 10 -0.097521909
2.2472558 0.33224669 -0.35979933 84 3 -0.097519606
6.0268936 0.88997442 0.74803412 84 11 -0.097517304
2.2270031 0.32845816 -0.2763997 94 4 -0.097515002
6.0231104 0.88726777 0.96426219 71 12 -0.097512692
2.2313621 0.32830533 -0.19732061 95 5 -0.09751039
8.6395426 1.2711555 1.697437 29 13 -0.097508088
2.2092085 0.32465196 -0.11702321 100 6 -0.097505786
7.3055043 1.0722703 1.7046791 39 14 -0.097503476
2.1922317 0.32137543 -0.038674533 100 7 -0.097501174
5.8146939 0.85138237 1.5746551 41 15 -0.097498871
3.7950416 0.5502556 -1.0275117 13 0 -0.097478136
2.1986706 0.31879252 0.038779248 100 8 -0.097475834
4.4319739 0.64181679 -1.033875 11 1 -0.097473525
2.180289 0.31535035 0.11545313 91 9 -0.097471222
2.1573353 0.31126165 0.19069678 100 10 -0.097466618
2.2621443 0.32598057 -0.36198941 62 3 -0.097464308
6.029963 0.86893255 0.74803412 84 11 -0.097462006
2.2320657 0.32124853 -0.27688718 89 4 -0.097459704
6.0203047 0.86539298 0.96332359 72 12 -0.097457401
2.2246058 0.31938234 -0.19662334 95 5 -0.097455092
8.6499729 1.2403191 1.6985818 24 13 -0.09745279
2.2103839 0.31655204 -0.11702321 100 6 -0.097450487
7.3228893 1.0474203 1.7078284 39 14 -0.097448185
2.1933401 0.31372163 -0.038674533 100 7 -0.097445883
5.8214555 0.83162504 1.5756904 46 15 -0.097443573
3.7892876 0.53592372 -1.0254411 11 0 -0.097422838
2.1859641 0.30877352 0.038534917 100 8 -0.097420536
4.4285078 0.62475073 -1.0325253 13 1 -0.097418234
2.1814301 0.30735755 0.11545313 91 9 -0.097415924
2.1603818 0.30400634 0.19087107 100 10 -0.09741132
6.0331068 0.84682703 0.74803412 84 11 -0.097406708
2.2469893 0.31499395 -0.27859333 97 4 -0.097404405
6.0195241 0.84277523 0.9626978 72 12 -0.097402103
2.2257071 0.31161448 -0.19662334 98 5 -0.097399801
8.6445284 1.20876 1.6966736 13 13 -0.097397499
2.2114751 0.30883491 -0.11702321 100 6 -0.097395189
5.9773898 0.83368552 1.3933468 15 14 -0.097392887
2.198436 0.30623171 -0.038744342 100 7 -0.097390585
5.8148971 0.80895311 1.5731021 48 15 -0.097388282
3.7987905 0.5237478 -1.0275117 9 0 -0.09736754
2.1791046 0.3000505 0.038395293 94 8 -0.097365238
4.3997722 0.60504168 -1.0253268 16 1 -0.097362936
2.1904044 0.30082747 0.11587181 91 9 -0.097360633
4.409308 0.60556901 -0.86512804 1 2 -0.097358331
2.1634037 0.29673454 0.19104539 100 10 -0.097356021
4.6246281 0.63349617 -0.73930937 1 3 -0.097353719
6.0025907 0.8211866 0.74389052 85 11 -0.097351417
2.2461085 0.30687931 -0.27834961 95 4 -0.097349115
5.9911127 0.81748623 0.95769191 76 12 -0.097346805
2.2307293 0.30438259 -0.19697197 93 5 -0.097344503
5.9603243 0.81222552 1.1692775 34 13 -0.097342201
2.2085819 0.3005743 -0.11681387 100 6 -0.097339898
7.341609 0.99784601 1.7105279 18 14 -0.097337589
2.1994915 0.29855633 -0.038744342 100 7 -0.097335286
5.8234286 0.78942728 1.5746551 16 15 -0.097332984
3.8082542 0.51151204 -1.0295821 14 0 -0.097312249
2.1920302 0.29403782 0.038604725 94 8 -0.097309947
4.3844743 0.58735013 -1.0212778 11 1 -0.097307637
2.1835229 0.29211974 0.11545313 87 9 -0.097305335
4.341342 0.58080077 -0.85138983 1 2 -0.097303033
2.1664009 0.28944531 0.19121969 100 10 -0.097300731
6.0073891 0.80048931 0.74413431 87 11 -0.097296119
2.2392948 0.29799116 -0.27737463 91 4 -0.097293817
6.0213442 0.80020994 0.96207207 72 12 -0.097291514
2.2357285 0.2971184 -0.19732061 91 5 -0.097289205
8.6780567 1.1517341 1.7016346 22 13 -0.097286902
2.2056575 0.29233974 -0.11660452 100 6 -0.0972846
7.339252 0.97144383 1.7091781 34 14 -0.097282298
2.2124152 0.29244855 -0.03895377 100 7 -0.097279988
6.0808749 0.80272496 1.643501 1 15 -0.097277686
3.8023543 0.4972145 -1.0275117 14 0 -0.097256951
2.1950259 0.28664273 0.038639627 100 8 -0.097254649
4.3826332 0.57153666 -1.020378 2 1 -0.097252347
2.1766074 0.28346482 0.11503445 91 9 -0.097250037
4.337503 0.56488347 -0.85024494 9 2 -0.097247735
2.1673982 0.28188083 0.19121969 100 10 -0.097245432
4.5309925 0.58847159 -0.72366595 1 3 -0.09724313
6.0081773 0.77926064 0.74389052 82 11 -0.097240821
2.2363842 0.28966218 -0.27688718 94 4 -0.097238518
6.0162644 0.77817142 0.96082056 78 12 -0.097236216
2.2446558 0.29033414 -0.19801784 93 5 -0.097233914
8.6859188 1.1219399 1.7023981 27 13 -0.097231604
2.2106264 0.28514922 -0.11681387 100 6 -0.097229302
7.3445311 0.94606614 1.709628 43 14 -0.097227
2.2054892 0.28370398 -0.038814154 100 7 -0.097224697
6.3729725 0.81865925 1.7216644 18 15 -0.097222388
3.7944851 0.4827188 -1.0249234 9 0 -0.097201653
2.2019644 0.27973542 0.038744342 100 8 -0.097199351
4.3420696 0.55084229 -1.0104802 1 1 -0.097197048
2.1835277 0.27661777 0.11534845 95 9 -0.097194746
4.3277621 0.54825765 -0.84795523 18 2 -0.097192436
2.1525559 0.27231351 0.18982521 53 10 -0.097190134
4.5330186 0.57265502 -0.72366595 1 3 -0.097187832
6.0049534 0.75753659 0.74315935 84 11 -0.09718553
2.2373817 0.28185338 -0.27688718 89 4 -0.09718322
5.9993448 0.75470465 0.95769191 76 12 -0.097180918
2.229841 0.28050917 -0.19662334 95 5 -0.097178616
8.6936789 1.0921006 1.7031612 25 13 -0.097176313
2.2195351 0.27842474 -0.11723255 97 6 -0.097174004
7.3671246 0.92285043 1.7141271 43 14 -0.097171701
2.1985292 0.27501026 -0.038674533 100 7 -0.097169399
6.3815422 0.79712516 1.7232174 30 15 -0.097167097
3.7942295 0.46923611 -1.0244058 9 0 -0.097146362
2.1949892 0.27106652 0.038604725 100 8 -0.097144052
4.3014164 0.53043413 -1.0005823 1 1 -0.09714175
2.1844797 0.26899564 0.11534845 95 9 -0.097139448
4.3530312 0.53602993 -0.85253465 33 2 -0.097137146
5.979948 0.73530525 0.52711791 60 10 -0.097134836
4.5349898 0.55682713 -0.72366595 1 3 -0.097132534
6.0134711 0.73729956 0.74389052 85 11 -0.097130232
2.2501743 0.27548963 -0.27834961 89 4 -0.097127929
6.0019426 0.73375684 0.95769191 78 12 -0.09712562
2.2228959 0.2717562 -0.19592611 95 5 -0.097123317
8.695488 1.0615155 1.7027797 24 13 -0.097121015
2.2244587 0.27115926 -0.1174419 100 6 -0.097118713
5.9446025 0.72358811 1.3825492 31 14 -0.097116411
2.1994758 0.26733369 -0.038674533 100 7 -0.097114101
6.280725 0.76227695 1.6952648 15 15 -0.097111799
3.7977624 0.45621833 -1.0249234 15 0 -0.097091064
2.1859946 0.26221153 0.038430199 98 8 -0.097088762
4.2780876 0.5124042 -0.99473363 12 1 -0.097086452
2.1973045 0.26279125 0.11597649 95 9 -0.09708415
4.3568254 0.52106375 -0.85291624 37 2 -0.097081847
5.9903922 0.7153703 0.52781516 87 10 -0.097079545
4.4976759 0.53631675 -0.7174086 6 3 -0.097077236
5.9884124 0.71301675 0.74047816 89 11 -0.097074933
2.2511222 0.26763278 -0.27834961 91 4 -0.097072631
5.9848514 0.71047425 0.9545632 76 12 -0.097070329
2.2357018 0.26540485 -0.19697197 93 5 -0.097068027
5.961894 0.70669383 1.1669879 11 13 -0.097065717
2.217458 0.26245317 -0.11702321 100 6 -0.097063415
7.3675814 0.87070954 1.7127774 34 14 -0.097061113
2.212311 0.26106206 -0.038883962 100 7 -0.09705881
5.9015512 0.6953609 1.5922549 13 15 -0.097056501
3.8012505 0.44318157 -1.0254411 13 0 -0.097035766
2.1928554 0.25527459 0.038534917 100 8 -0.097033463
4.2663002 0.49589166 -0.99158418 16 1 -0.097031161
2.1863046 0.25373751 0.11534845 95 9 -0.097028859
4.352767 0.50517219 -0.85177141 36 2 -0.097026549
6.0106649 0.69652379 0.52938396 75 10 -0.097024247
4.5328794 0.52447218 -0.72272736 11 3 -0.097021945
5.9908648 0.69210732 0.74047816 85 11 -0.097019643
2.2402103 0.25840995 -0.27688718 94 4 -0.097017333
6.0069194 0.69183749 0.95769191 76 12 -0.097015031
2.2366147 0.25759858 -0.19697197 93 5 -0.097012728
6.0637956 0.69731587 1.1864504 1 13 -0.097010426
2.2104239 0.25380036 -0.11660452 100 6 -0.097008117
7.3763843 0.84565049 1.7141271 36 14 -0.097005814
2.2132089 0.25333747 -0.038883962 100 7 -0.097003512
5.8962641 0.6738801 1.5901842 15 15 -0.09700121
3.808533 0.43056187 -1.026994 10 0 -0.096980475
2.2016816 0.24851511 0.038674533 100 8 -0.096978165
4.2602596 0.48012239 -0.9897846 11 1 -0.096975863
2.1812229 0.24543482 0.11503445 91 9 -0.096973561
4.3135347 0.48536611 -0.84375745 21 2 -0.096971259
6.0051398 0.67464709 0.52868676 75 10 -0.096968949
4.5091629 0.5057826 -0.71866006 1 3 -0.096966647
5.9971895 0.67163426 0.74096566 85 11 -0.096964344
2.2410986 0.250588 -0.27688718 89 4 -0.096962042
5.9877028 0.6684528 0.9542504 75 12 -0.096959732
2.2493808 0.2511155 -0.19801784 93 5 -0.09695743
6.0759478 0.67723364 1.1883584 4 13 -0.096955128
2.2192361 0.24696705 -0.11702321 100 6 -0.096952826
7.3715448 0.81903422 1.7123275 39 14 -0.096950516
2.2101045 0.24516989 -0.038814154 100 7 -0.096948214
5.8928208 0.65265751 1.5886314 15 15 -0.096945912
3.8080926 0.41705364 -1.0264764 11 0 -0.096925177
2.2025356 0.24082877 0.038674533 100 8 -0.096922874
4.242537 0.46313652 -0.98528558 3 1 -0.096920565
2.1880229 0.23846805 0.11534845 95 9 -0.096918263
4.2878785 0.46732694 -0.83841473 10 2 -0.09691596
5.991612 0.65195811 0.52729225 70 10 -0.096913658
4.5423226 0.49345401 -0.72366595 1 3 -0.096911348
5.9955502 0.65026641 0.74047816 85 11 -0.096909046
2.2518275 0.24383147 -0.27810585 54 4 -0.096906744
5.9782162 0.64627516 0.95237315 75 12 -0.096904442
2.2264736 0.24069299 -0.19592611 98 5 -0.096902132
6.1036496 0.65875757 1.1933196 4 13 -0.09689983
2.2200847 0.23921837 -0.11702321 100 6 -0.096897528
5.9463758 0.63968354 1.3807496 41 14 -0.096895225
2.2029939 0.23659897 -0.038674533 100 7 -0.096892923
5.8873796 0.63125837 1.5865607 15 15 -0.096890613
3.7940865 0.40279251 -1.0223353 14 0 -0.096868038
2.1973562 0.23289067 0.038569819 98 8 -0.096865736
4.2207947 0.44660348 -0.97988683 1 1 -0.096863434
2.1967463 0.23205069 0.11576715 95 9 -0.096861124
4.2815952 0.45228121 -0.83688831 1 2 -0.096858822
5.9838343 0.63103926 0.52642071 67 10 -0.09685652
4.5439339 0.47838932 -0.72366595 1 3 -0.096854217
6.0016222 0.63079703 0.74096566 89 11 -0.096851908
6.0037065 0.62995678 -0.74120939 46 4 -0.096849605
5.9862199 0.62706572 0.95331174 78 12 -0.096847303
2.2312224 0.23372398 -0.19627473 100 5 -0.096845001
8.6500473 0.90457958 1.6905679 2 13 -0.096842691
2.2288117 0.232685 -0.1174419 100 6 -0.096840389
7.3924541 0.77045822 1.7159266 37 14 -0.096838087
2.2117221 0.23012048 -0.038814154 100 7 -0.096835785
5.8759899 0.61033291 1.5829374 16 15 -0.096833475
3.7973907 0.38974425 -1.0228529 10 0 -0.09681274
2.1961668 0.22501571 0.038534917 100 8 -0.096810438
4.2572231 0.43543541 -0.98798501 1 1 -0.096808136
2.1955559 0.22417876 0.11566247 98 9 -0.096805833
4.3573656 0.44491184 -0.85138983 1 2 -0.096803524
5.9681621 0.60832804 0.52485186 65 10 -0.096801221
4.5455761 0.46252394 -0.72366595 1 3 -0.096798919
5.958364 0.60523093 0.73535967 91 11 -0.096796617
5.994019 0.60779291 -0.73974699 45 4 -0.096794307
5.9549618 0.60278255 0.94799298 91 12 -0.096792005
2.2359893 0.22633484 -0.19662334 93 5 -0.096789703
5.9634476 0.602593 1.1650798 8 13 -0.096787401
2.2176874 0.22370027 -0.11681387 100 6 -0.096785091
7.4067326 0.7458185 1.718626 37 14 -0.096782789
2.2164912 0.22279921 -0.038883962 100 7 -0.096780486
5.8857732 0.59059089 1.5850078 16 15 -0.096778184
3.8025727 0.37686652 -1.0238881 13 0 -0.096757449
2.1949487 0.21715081 0.038500007 98 8 -0.09675514
4.2082953 0.41559371 -0.97628754 1 1 -0.096752837
2.1903622 0.21592507 0.11534845 95 9 -0.096750535
4.358892 0.4296979 -0.85138983 1 2 -0.096748233
5.9861112 0.58905369 0.52624637 80 10 -0.096745923
4.5196395 0.44395149 -0.71928573 1 3 -0.096743621
5.9742699 0.585783 0.73706585 85 11 -0.096741319
5.980299 0.58532053 -0.73779708 45 4 -0.096739016
5.9845538 0.58468252 0.95237315 81 12 -0.096736707
2.2407315 0.21891633 -0.19697197 95 5 -0.096734405
6.0808001 0.5930143 1.1875952 2 13 -0.096732102
2.2184546 0.21595819 -0.11681387 97 6 -0.0967298
7.4131699 0.72033817 1.7195259 36 14 -0.096727498
2.2172556 0.21506025 -0.038883962 100 7 -0.096725188
5.8801074 0.56929868 1.5829374 18 15 -0.096722886
3.8134806 0.36451069 -1.0264764 13 0 -0.096702151
2.2056465 0.21043779 0.038674533 100 8 -0.096699849
4.2252402 0.40237838 -0.97988683 1 1 -0.096697539
2.1871262 0.20789939 0.11513911 95 9 -0.096695237
4.2626429 0.40518963 -0.83230883 1 2 -0.096692935
5.9841638 0.5677796 0.52589774 75 10 -0.096690632
4.454298 0.42183888 -0.7086482 7 3 -0.096688323
5.9762778 0.56492382 0.73706585 85 11 -0.09668602
5.9783525 0.56407011 -0.73730958 45 4 -0.096683718
5.9747577 0.56267607 0.9504959 75 12 -0.096681416
2.2494168 0.21184005 -0.19766922 93 5 -0.096679114
6.1023798 0.5736205 1.1914115 2 13 -0.096676804
2.227149 0.20895977 -0.11723255 100 6 -0.096674502
2.2060466 0.20620207 -0.038674533 100 7 -0.096669897
5.8897529 0.5494889 1.5850078 18 15 -0.096667588
3.7993402 0.3497791 -1.0223353 12 0 -0.096646853
2.2143331 0.20346867 0.038814154 94 8 -0.096644551
4.19945 0.3851383 -0.97358811 1 1 -0.096642248
2.1918163 0.20062821 0.11534845 83 9 -0.096639939
4.2464361 0.3886981 -0.82887435 9 2 -0.096637636
5.9662685 0.54507321 0.52415466 70 10 -0.096635334
4.4596777 0.40664974 -0.70927399 10 3 -0.096633032
5.9762373 0.54388064 0.73682213 80 11 -0.09663073
5.9802856 0.54319674 -0.73730958 46 4 -0.09662842
5.9609475 0.54039139 0.94799298 75 12 -0.096626118
2.2382367 0.20290798 -0.19662334 95 5 -0.096623816
6.1454048 0.55603206 1.1994255 4 13 -0.096621513
2.2238865 0.20082447 -0.11702321 100 6 -0.096619204
5.9216042 0.53369898 1.3726513 22 14 -0.096616901
2.2107363 0.19885904 -0.038744342 100 7 -0.096614599
5.8897114 0.52875221 1.5844903 9 15 -0.096612297
3.7870679 0.33532107 -1.0187118 10 0 -0.096591555
2.20507 0.19485831 0.038639627 98 8 -0.096589252
4.2162986 0.3718456 -0.9771874 1 1 -0.09658695
5.9985461 0.52796847 0.31558585 53 9 -0.096584648
4.2516785 0.37421602 -0.82963753 19 2 -0.096582346
5.948287 0.52250159 0.52241153 75 10 -0.096580036
4.4236813 0.3878012 -0.70332944 18 3 -0.096577734
5.9840322 0.52353376 0.73755336 85 11 -0.096575432
5.9821448 0.52231961 -0.73730958 42 4 -0.096573129
5.9627976 0.51958174 0.94799298 72 12 -0.09657082
2.2389314 0.1950943 -0.19662334 93 5 -0.096568517
8.7838259 0.76384956 1.7138464 3 13 -0.096566215
2.2325332 0.19375165 -0.1174419 100 6 -0.096563913
7.4377794 0.64418399 1.723575 37 14 -0.096561603
2.2193861 0.19182912 -0.038883962 100 7 -0.096559301
5.8722739 0.50653106 1.5793139 15 15 -0.096556999
3.8016896 0.323248 -1.0223353 14 0 -0.096536264
2.1977668 0.18648311 0.038500007 98 8 -0.096533962
4.2156291 0.35696015 -0.97673744 2 1 -0.096531652
5.9763827 0.50605267 0.3143298 59 9 -0.09652935
4.2510023 0.35921022 -0.82925594 30 2 -0.096527047
5.9421334 0.5010637 0.52171427 70 10 -0.096524745
4.3954821 0.36987153 -0.69863641 21 3 -0.096522436
5.9660411 0.50098544 0.73511589 85 11 -0.096520133
5.9720631 0.50043863 -0.73584712 59 4 -0.096517831
5.9684243 0.50013369 0.94861871 72 12 -0.096515529
2.2515118 0.18827337 -0.19766922 93 5 -0.096513219
8.8020897 0.7344957 1.7168994 40 13 -0.096510917
2.2252343 0.18529391 -0.11702321 100 6 -0.096508615
7.4496937 0.61902231 1.7258245 37 14 -0.096506312
2.2160244 0.18413757 -0.038814154 100 7 -0.096504003
5.8719964 0.48689663 1.5787963 15 15 -0.096501701
3.8066456 0.31028852 -1.0233705 13 0 -0.096480966
2.2083385 0.18000679 0.038674533 100 8 -0.096478663
4.1993089 0.34155571 -0.97268838 2 1 -0.096476361
5.9542236 0.48325059 0.31307372 62 9 -0.096474051
4.2541871 0.34452659 -0.82963753 21 2 -0.096471749
5.927959 0.47903338 0.52031976 85 10 -0.096469447
4.3907776 0.35481504 -0.69769776 25 3 -0.096467145
5.9518404 0.47992054 0.73316604 85 11 -0.096464835
5.9657745 0.47999623 -0.73487222 57 4 -0.096462533
5.9563503 0.4781889 0.9464286 75 12 -0.096460231
2.248183 0.18009526 -0.19732061 93 5 -0.096457928
8.8220901 0.70671141 1.7203341 48 13 -0.096455619
2.2178729 0.17727767 -0.11660452 100 6 -0.096453317
7.4478202 0.5940029 1.7249247 36 14 -0.096451014
2.2286139 0.17735335 -0.039023582 100 7 -0.096448712
5.8852148 0.46731251 1.5819021 11 15 -0.09644641
3.8018761 0.29721081 -1.0218177 10 0 -0.096425667
2.2129405 0.17260863 0.038744342 100 8 -0.096423365
4.1829896 0.32553732 -0.96863925 3 1 -0.096421063
5.9658303 0.46323496 0.31359708 60 9 -0.096418761
4.249434 0.32996017 -0.82849264 10 2 -0.096416451
5.9414334 0.4603003 0.52136564 80 10 -0.096414149
4.4097147 0.34085935 -0.7005136 16 3 -0.096411847
5.9534798 0.45914021 0.73316604 82 11 -0.096409544
5.959497 0.45855811 -0.73389727 56 4 -0.096407235
5.9540443 0.4570961 0.94580293 75 12 -0.096404932
2.2567141 0.1732495 -0.19801784 86 5 -0.09640263
2.226444 0.17014289 -0.11702321 100 6 -0.096398026
7.4440179 0.56756216 1.723575 33 14 -0.096395716
2.2172558 0.16866232 -0.038814154 100 7 -0.096393414
5.8829575 0.44647247 1.5808668 11 15 -0.096391112
3.7932575 0.28322136 -1.0192294 9 0 -0.096370377
2.219512 0.16532801 0.038849056 98 8 -0.096368067
4.2151947 0.31324357 -0.97583771 10 1 -0.096365765
5.9654193 0.44226116 0.31349242 56 9 -0.096363463
4.2388129 0.31425488 -0.82620305 3 2 -0.09636116
5.9310822 0.43867466 0.52031976 80 10 -0.096358851
4.4187574 0.32604474 -0.70176506 10 3 -0.096356548
5.9609847 0.43879437 0.73389727 84 11 -0.096354246
5.9630413 0.43789944 -0.73414099 50 4 -0.096351944
5.9437828 0.43544227 0.94392568 75 12 -0.096349642
2.251344 0.16493373 -0.19749491 43 5 -0.096347332
6.0757737 0.4440459 1.1841607 1 13 -0.09634503
2.2349923 0.16295153 -0.1174419 100 6 -0.096342728
5.9221673 0.43074155 1.3708518 11 14 -0.096340425
2.2138422 0.16063161 -0.038744342 100 7 -0.096338116
5.865212 0.42454097 1.5756904 15 15 -0.096335813
3.7865152 0.26942924 -1.0171589 13 0 -0.096315078
2.2101023 0.15687096 0.038674533 100 8 -0.096312776
4.2084866 0.29797825 -0.97403812 13 1 -0.096310467
5.9709115 0.42171791 0.31370175 56 9 -0.096308164
4.2516336 0.30028751 -0.82849264 4 2 -0.096305862
5.9246278 0.41740698 0.51962256 75 10 -0.09630356
4.4080453 0.30978844 -0.69988787 3 3 -0.096301258
5.9565396 0.41756877 0.73316604 82 11 -0.096298948
5.9566126 0.41652638 -0.73316604 53 4 -0.096296646
5.943296 0.41455576 0.94361275 72 12 -0.096294343
5.9626808 0.41590789 -0.52293444 61 5 -0.096292041
6.030282 0.41956562 1.1750019 1 13 -0.096289732
2.2395325 0.15542492 -0.11765125 100 6 -0.096287429
7.4750166 0.51746351 1.7298737 37 14 -0.096285127
2.2223692 0.15345542 -0.038883962 100 7 -0.096282825
5.8647313 0.40393066 1.5751728 15 15 -0.096280515
3.7951424 0.25673074 -1.0192294 14 0 -0.09625978
2.202656 0.14861731 0.038534917 100 8 -0.096257478
4.2153349 0.28367752 -0.97538781 12 1 -0.096255176
5.9723468 0.4008714 0.31370175 56 9 -0.096252874
4.2350273 0.2842603 -0.82505816 7 2 -0.096250564
5.9300241 0.39699104 0.51997113 75 10 -0.096248262
4.4189553 0.29505643 -0.7014522 2 3 -0.096245959
5.9579611 0.39677241 0.73316604 82 11 -0.096243657
5.9540687 0.39546949 -0.73267853 55 4 -0.096241347
5.9486489 0.39406678 0.94423854 72 12 -0.096239045
5.9561439 0.39456329 -0.52223718 64 5 -0.096236743
8.8487282 0.58463073 1.7237686 3 13 -0.096234441
2.2360754 0.14734437 -0.1174419 100 6 -0.096232131
7.4806662 0.49162123 1.7307733 33 14 -0.096229829
2.2308729 0.14621951 -0.039023582 100 7 -0.096227527
5.8641772 0.38333166 1.5746551 15 15 -0.096225224
3.7921598 0.24323514 -1.0181942 10 0 -0.096204489
2.2091479 0.14131112 0.038639627 98 8 -0.09620218
4.2085199 0.26846415 -0.97358811 11 1 -0.096199878
5.9537778 0.37875482 0.31265503 62 9 -0.096197575
4.2418709 0.26985037 -0.82620305 10 2 -0.096195273
5.9134784 0.37515494 0.51840234 77 10 -0.096192963
4.3864441 0.27750817 -0.69613349 1 3 -0.096190661
5.9157238 0.37322426 0.72780377 75 11 -0.096188359
5.9554124 0.37468475 -0.73267853 30 4 -0.096186057
5.9480171 0.37317446 0.94392568 75 12 -0.096183747
5.9574852 0.37376848 -0.52223718 67 5 -0.096181445
5.8861074 0.36826181 1.1463805 27 13 -0.096179143
2.2286026 0.13904113 -0.11702321 100 6 -0.09617684
5.9030132 0.36724827 1.3654529 33 14 -0.096174531
2.2313697 0.13843189 -0.039023582 100 7 -0.096172228
5.8616238 0.36261943 1.5736198 16 15 -0.096169926
3.8045554 0.2306971 -1.0213 8 0 -0.096149191
2.2196081 0.13420279 0.038814154 100 8 -0.096146889
4.2249932 0.25471109 -0.9771874 11 1 -0.096144579
5.9530697 0.3578485 0.31255037 66 9 -0.096142277
4.2584648 0.25598311 -0.82925594 18 2 -0.096139975
5.932651 0.35558483 0.51997113 75 10 -0.096137673
4.4189358 0.26408133 -0.70113939 1 3 -0.096135363
5.9486961 0.35445988 0.73170358 78 11 -0.096133061
4.6409025 0.27572072 -0.57083601 10 4 -0.096130759
5.9354801 0.35159332 0.94173563 67 12 -0.096128456
5.9627318 0.35320759 -0.52258581 67 5 -0.096126147
8.8702316 0.52388245 1.727203 2 13 -0.096123844
2.2370498 0.13173003 -0.1174419 100 6 -0.096121542
7.4878073 0.43961278 1.7316732 33 14 -0.09611924
2.2198615 0.12994041 -0.038814154 100 7 -0.096116938
5.8647823 0.34227011 1.5741374 15 15 -0.096114628
3.7899079 0.21653454 -1.0171589 11 0 -0.096093893
2.224056 0.12668094 0.038883962 94 8 -0.096091591
4.2258568 0.23996246 -0.9771874 2 1 -0.096089289
5.9622006 0.3385596 0.31296906 60 9 -0.096086979
4.275013 0.24200529 -0.83230883 34 2 -0.096084677
5.9159532 0.33386192 0.51840234 67 10 -0.096082374
4.4119411 0.24821182 -0.69988787 1 3 -0.096080072
5.955843 0.33402762 0.73243481 80 11 -0.096077763
4.6438193 0.25963107 -0.57107979 10 4 -0.09607546
5.9484468 0.33257145 0.94361275 75 12 -0.096073158
5.9440355 0.33128133 -0.52084273 63 5 -0.096070856
8.8739681 0.49302721 1.7275848 13 13 -0.096068554
2.2374959 0.12392094 -0.1174419 100 6 -0.096066244
5.9268374 0.32721022 1.3704019 9 14 -0.096063942
2.2202804 0.12257775 -0.038814154 100 7 -0.096061639
5.8523822 0.32207519 1.5705141 16 15 -0.096059337
3.7867825 0.20309603 -1.0161237 14 0 -0.096038595
2.2084892 0.11844763 0.038604725 34 8 -0.096036293
4.2363586 0.22646663 -0.97943687 2 1 -0.09603399
5.9613504 0.31764051 0.31286436 62 9 -0.096031688
4.2875948 0.22770481 -0.83459854 18 2 -0.096029386
5.9091239 0.31278649 0.51770508 67 10 -0.096027076
4.4009047 0.23295222 -0.69801068 1 3 -0.096024774
5.9549356 0.31417212 0.73219109 82 11 -0.096022472
4.6605134 0.24506278 -0.5730297 1 4 -0.09602017
5.9337902 0.3109768 0.94110984 76 12 -0.09601786
5.9451551 0.31053486 -0.52084273 59 5 -0.096015558
8.8579082 0.46267748 1.7241502 23 13 -0.096013255
2.2458727 0.11691516 -0.11786059 97 6 -0.096010953
7.4964647 0.38893753 1.7330229 33 14 -0.096008644
2.2246888 0.11503483 -0.038883962 100 7 -0.096006341
5.8418951 0.30104929 1.5674082 13 15 -0.096004039
3.785506 0.19044121 -1.015606 8 0 -0.095983304
5.9396348 0.2977719 0.10380692 61 8 -0.095981002
4.2468553 0.21216467 -0.98168641 1 1 -0.095978692
5.9624233 0.29682797 0.31286436 62 9 -0.09597639
4.266758 0.21241248 -0.83040082 16 2 -0.095974088
5.9200792 0.29368421 0.51857668 65 10 -0.095971785
4.401691 0.21758972 -0.69801068 1 3 -0.095969476
5.9302211 0.29211238 0.7290225 73 11 -0.095967174
4.7406483 0.23268449 -0.58277923 1 4 -0.095964871
5.9289207 0.28997388 0.94017124 71 12 -0.095962569
5.9421725 0.290622 -0.52049404 57 5 -0.095960259
8.8731956 0.43242133 1.7268214 4 13 -0.095957957
2.2342978 0.10849307 -0.11723255 100 6 -0.095955655
7.5114017 0.36342841 1.7361722 13 14 -0.095953353
2.2250767 0.10726793 -0.038883962 100 7 -0.095951043
5.8776436 0.28232226 1.5767257 11 15 -0.095948741
3.7842178 0.17713661 -1.0150883 7 0 -0.095928006
5.9506254 0.27750391 0.10398144 64 8 -0.095925704
4.2631431 0.19806147 -0.98528558 2 1 -0.095923401
5.9474626 0.27527311 0.31202701 62 9 -0.095921092
4.2478614 0.19660857 -0.82658464 6 2 -0.09591879
5.9310193 0.27347761 0.51944822 60 10 -0.095916487
4.3984771 0.20204115 -0.69738495 1 3 -0.095914185
5.9312048 0.27140871 0.7290225 73 11 -0.095911875
5.9121361 0.26846823 0.9373554 74 12 -0.095907271
5.9471316 0.27005735 -0.52084273 63 5 -0.095904969
5.9523902 0.26925519 1.1582106 22 13 -0.095902659
2.2306721 0.10051499 -0.11702321 100 6 -0.095900357
7.5262518 0.33781621 1.7393216 12 14 -0.095898055
2.2334285 0.09985698 -0.039023582 100 7 -0.095895752
5.8650837 0.26120609 1.5731021 7 15 -0.095893443
3.7963934 0.1644267 -1.0181942 9 0 -0.095872708
5.9435673 0.25638434 0.10384182 73 8 -0.095870405
4.3786774 0.18811707 -1.0118299 17 1 -0.095868103
5.9284329 0.25365838 0.31098029 70 9 -0.095865801
4.2426376 0.1815287 -0.82543975 4 2 -0.095863491
5.9199944 0.25226229 0.51840234 67 10 -0.095861189
4.450469 0.18886703 -0.7055195 1 3 -0.095858887
5.9182329 0.25011778 0.72731632 78 11 -0.095856585
5.9268537 0.24840687 0.93954557 70 12 -0.095851973
5.9440999 0.24809335 -0.52049404 63 5 -0.09584967
8.8936529 0.37120107 1.7302561 21 13 -0.095847368
2.2469738 0.093390808 -0.11786059 85 6 -0.095845059
5.8782139 0.24328533 1.3582544 22 14 -0.095842756
2.2297673 0.091896027 -0.03895377 100 7 -0.095840454
5.8929834 0.24183898 1.5803492 9 15 -0.095838152
3.7892489 0.15020588 -1.0161237 14 0 -0.095817417
5.9464235 0.23571631 0.10387672 61 8 -0.095815107
4.3851495 0.17306089 -1.0131795 51 1 -0.095812805
5.9472437 0.2336669 0.31192234 66 9 -0.095810503
4.2373891 0.16574818 -0.82429492 12 2 -0.095808201
5.9348154 0.23110673 0.51962256 65 10 -0.095805891
4.4392877 0.17209159 -0.70364231 1 3 -0.095803589
5.9408894 0.23030205 0.7299974 80 11 -0.095801286
5.9276848 0.22772086 0.93954557 71 12 -0.095796674
5.9329848 0.22688469 -0.51944822 61 5 -0.095794372
8.9165325 0.33942512 1.7344538 12 13 -0.09579207
5.9495592 0.22544171 -0.31202701 55 6 -0.095789768
7.5323715 0.28409782 1.7402214 12 14 -0.095787466
2.226078 0.083960801 -0.038883962 100 7 -0.095785156
5.8532505 0.21974359 1.5694788 3 15 -0.095782854
3.7704444 0.13627921 -1.0109472 7 0 -0.095762119
5.9312606 0.21334344 0.10359748 68 8 -0.095759816
4.3935442 0.15726715 -1.0149791 62 1 -0.095757507
5.9440312 0.21276692 0.31171298 66 9 -0.095755205
4.2536383 0.15151387 -0.82734787 19 2 -0.095752902
5.9316034 0.21024621 0.51927388 62 10 -0.0957506
4.4240689 0.15604056 -0.70113939 1 3 -0.09574829
5.9317741 0.20817925 0.72877878 75 11 -0.095745988
5.9225206 0.20681959 0.93860692 74 12 -0.095741384
5.9337401 0.20617741 -0.51944822 61 5 -0.095739082
5.9745402 0.20654826 1.1620268 33 13 -0.095736772
5.9503102 0.20467092 -0.31202701 59 6 -0.09573447
7.5469499 0.25827134 1.7433707 42 14 -0.095732167
2.2343516 0.076463871 -0.039023582 100 7 -0.095729865
5.863636 0.19964053 1.572067 5 15 -0.095727555
3.7786205 0.12336824 -1.0130178 12 0 -0.09570682
5.927938 0.19354133 0.10352767 68 8 -0.095704518
4.3726168 0.1419998 -1.0100303 72 1 -0.095702216
5.9327598 0.19162862 0.31108496 66 9 -0.095699914
4.2776875 0.13742027 -0.83192724 12 2 -0.095697604
5.9223442 0.18922289 0.51840234 60 10 -0.095695302
4.4403563 0.14187238 -0.70364231 1 3 -0.095693
5.9225116 0.18819357 0.72756004 73 11 -0.095690697
5.9251804 0.18620817 0.93891978 66 12 -0.095686086
5.9304409 0.18533747 -0.51909959 59 5 -0.095683783
5.9594941 0.18624544 1.1589739 66 13 -0.095681481
5.9309936 0.18431582 -0.31098029 60 6 -0.095679171
7.5497131 0.23330505 1.7438205 43 14 -0.095676869
2.2386022 0.068787359 -0.03909339 100 7 -0.095674567
5.8816757 0.17970081 1.5767257 7 15 -0.095672265
3.7867329 0.1110663 -1.0150883 9 0 -0.09565153
5.9245801 0.17273532 0.10345787 68 8 -0.09564922
4.365294 0.12650867 -1.0082307 72 1 -0.095646918
5.9213843 0.17160504 0.31045693 66 9 -0.095644616
4.2643833 0.12283935 -0.82925594 3 2 -0.095642313
5.9309058 0.16981193 0.51909959 60 10 -0.095640004
4.5079603 0.12828104 -0.71427983 1 3 -0.095637701
5.9132109 0.16723683 0.72634137 78 11 -0.095635399
5.9395881 0.16694824 0.94110984 75 12 -0.095630787
5.9230561 0.16544624 -0.51840234 60 5 -0.095628485
5.8953457 0.16364253 1.1463805 63 13 -0.095626183
5.9276075 0.16350277 -0.31077093 60 6 -0.095623881
7.5465856 0.20684141 1.7429208 36 14 -0.095621571
2.2388182 0.061362889 -0.03909339 100 7 -0.095619269
5.8745146 0.15998627 1.5746551 9 15 -0.095616966
3.7870975 0.097846463 -1.0150883 11 0 -0.095596232
5.9191232 0.15293117 0.10335316 64 8 -0.095593929
4.3695855 0.11213299 -1.0091304 72 1 -0.09559162
5.927937 0.15108842 0.31077093 62 9 -0.095589317
4.2961879 0.10874891 -0.83536184 1 2 -0.095587015
5.9115443 0.1486059 0.51735646 67 10 -0.095584713
4.5162601 0.11353088 -0.71553135 1 3 -0.095582403
5.9077797 0.14747956 0.72561014 80 11 -0.095580101
4.9076262 0.12165508 -0.6027658 13 4 -0.095577799
5.898664 0.14519185 0.93453962 78 12 -0.095575497
5.9335566 0.14501171 -0.51927388 61 5 -0.095573187
5.933147 0.14500169 1.1536313 71 13 -0.095570885
5.9201303 0.1436526 -0.31035227 66 6 -0.095568582
2.2350204 0.05345137 -0.039023582 100 7 -0.095563978
5.7977853 0.13764659 1.5539496 13 15 -0.095561668
3.7758424 0.083709322 -1.0119824 7 0 -0.095549107
5.9216657 0.13024764 0.10338806 85 8 -0.095546804
4.3738804 0.095438153 -1.0100303 72 1 -0.095544502
5.9224606 0.1292282 0.31045693 72 9 -0.095542192
4.3397393 0.093937516 -0.84375745 1 2 -0.09553989
5.9279852 0.12727864 0.51875097 60 10 -0.095537588
4.5166626 0.096187785 -0.71553135 1 3 -0.095535286
5.922195 0.12508909 0.72731632 78 11 -0.095532976
4.9120259 0.10289224 -0.6032533 28 4 -0.095530674
5.9110055 0.12381788 0.9364168 77 12 -0.095528372
5.9280725 0.12314034 -0.51875097 57 5 -0.095526069
5.9964705 0.12351701 1.165843 31 13 -0.09552376
5.9346166 0.12120394 -0.31108496 60 6 -0.095521457
5.887886 0.11922158 1.3596041 15 14 -0.095519155
2.2352014 0.045259748 -0.039023582 90 7 -0.095516853
5.7750735 0.11592899 1.547738 7 15 -0.095514543
3.7645226 0.070311204 -1.0088767 9 0 -0.095493808
5.918066 0.11053363 0.10331824 68 8 -0.095491506
4.3722253 0.080898151 -1.0095804 68 1 -0.095489204
5.9308634 0.1087018 0.31087559 72 9 -0.095486902
4.3204112 0.078430928 -0.83994126 1 2 -0.095484592
5.9144483 0.10633586 0.5175308 62 10 -0.09548229
4.4695554 0.080358133 -0.70802242 1 3 -0.095479988
5.9225769 0.10544806 0.72731632 75 11 -0.095477685
4.8964615 0.086323857 -0.60130334 31 4 -0.095475376
5.9153523 0.10325406 0.93704253 72 12 -0.095473073
5.9165134 0.10224146 -0.51770508 56 5 -0.095470771
6.0027361 0.10373144 1.1669879 16 13 -0.095468469
5.9289947 0.10142209 -0.31077093 59 6 -0.095466159
7.5873075 0.12846485 1.7519189 3 14 -0.095463857
5.9362626 0.099473797 -0.10363239 42 7 -0.095461555
5.8642955 0.097244114 1.5715494 13 15 -0.095459253
3.7763245 0.058004189 -1.0119824 8 0 -0.095438518
5.918416 0.089873485 0.10331824 68 8 -0.095436208
4.3627377 0.06549041 -1.0073308 72 1 -0.095433906
5.9272127 0.087937735 0.31066626 72 9 -0.095431603
4.3167214 0.064044051 -0.83917803 3 2 -0.095429301
5.9107847 0.086662211 0.51718217 62 10 -0.095426992
4.4717841 0.064785548 -0.70833534 6 3 -0.095424689
5.9109998 0.084601738 0.72585386 78 11 -0.095422387
4.86696 0.068809256 -0.59764731 27 4 -0.095420085
5.9156771 0.082606249 0.93704253 78 12 -0.095417775
5.9188123 0.082650028 -0.51787943 61 5 -0.095415473
5.9598742 0.082180239 1.1585923 16 13 -0.095413171
5.9173303 0.080560707 -0.3101429 59 6 -0.095410869
7.5838122 0.10192863 1.751019 36 14 -0.095408566
5.9345741 0.078723669 -0.10359748 54 7 -0.095406257
5.880053 0.076974049 1.5756904 11 15 -0.095403954
3.776504 0.044824596 -1.0119824 9 0 -0.095383219
5.9186935 0.069215052 0.10331824 68 8 -0.095380917
4.3590426 0.050215151 -1.006431 72 1 -0.095378608
5.9135036 0.067090012 0.30993357 76 9 -0.095376305
4.3797388 0.049689107 -0.85138983 1 2 -0.095374003
5.9190197 0.066119462 0.51787943 65 10 -0.095371701
4.4996367 0.049478602 -0.71271551 3 3 -0.095369391
5.907289 0.063926257 0.72536635 82 11 -0.095367089
4.8254862 0.051377181 -0.59252882 21 4 -0.095364787
5.9139543 0.06193392 0.93672973 74 12 -0.095362484
5.9170718 0.061966572 -0.51770508 57 5 -0.095360182
5.9660134 0.061437797 1.1597371 16 13 -0.095357873
5.9095869 0.059825256 -0.30972421 60 6 -0.09535557
7.5802245 0.075414769 1.7501192 39 14 -0.095353268
5.926815 0.057930727 -0.10345787 57 7 -0.095350966
5.8841491 0.056486689 1.5767257 11 15 -0.095348656
3.7785695 0.031657044 -1.0125002 8 0 -0.095327921
5.9248981 0.048602168 0.10342296 73 8 -0.095325619
4.3650374 0.035046808 -1.0077807 73 1 -0.095323317
5.9037075 0.047400761 0.30941018 72 9 -0.095321007
4.3798857 0.034401588 -0.85138983 1 2 -0.095318705
5.9192147 0.045456246 0.51787943 62 10 -0.095316403
4.537313 0.034054272 -0.71866006 1 3 -0.0953141
5.9035063 0.043277726 0.72487891 78 11 -0.095311798
4.7898993 0.035114039 -0.5881415 42 4 -0.095309488
5.8588171 0.041924775 0.92796934 85 12 -0.095307186
5.9172521 0.041310184 -0.51770508 57 5 -0.095304884
5.9171114 0.040279303 1.1501967 23 13 -0.095302582
5.9017711 0.039142024 -0.30930555 64 6 -0.095300272
7.5765357 0.05024948 1.7492194 21 14 -0.09529797
5.9029779 0.038119782 -0.10303901 58 7 -0.095295668
5.8997588 0.037072126 1.5808668 11 15 -0.095293365
3.7631989 0.019047411 -1.0083591 8 0 -0.095272623
5.9170284 0.028916329 0.10328334 80 8 -0.095270321
4.3612328 0.020554133 -1.006881 73 1 -0.095268019
5.8878546 0.027748978 0.30857283 72 9 -0.095265716
5.8954244 0.025724035 0.51578766 70 10 -0.095261104
4.5690069 0.019141126 -0.72366595 1 3 -0.095258802
5.9095726 0.023723025 0.72561014 73 11 -0.0952565
4.7582283 0.019101139 -0.58424169 36 4 -0.095254198
5.88658 0.02260337 0.93234956 74 12 -0.095251888
5.9054031 0.021647824 -0.51665926 60 5 -0.095249586
5.9741473 0.020854339 1.1612636 41 13 -0.095247284
5.9238381 0.019644868 -0.31045693 60 6 -0.095244981
7.601994 0.025210034 1.7550682 9 14 -0.095242672
5.9070716 0.018561155 -0.10310882 55 7 -0.095240369
5.9037127 0.017517446 1.5819021 13 15 -0.095238067
3.7555141 0.0065553542 -1.0062885 8 0 -0.095217332
5.9090924 0.0092803966 0.10314372 73 8 -0.09521503
4.3729692 0.0061067729 -1.0095804 73 1 -0.09521272
5.8998981 0.0082391016 0.30920088 66 9 -0.095210418
5.8994622 0.0061765006 0.51613629 62 10 -0.095205814
4.5927496 0.0040090759 -0.72742033 1 3 -0.095203504
5.9116039 0.0041286149 0.72585386 75 11 -0.095201202
4.7642207 0.0033272919 -0.58497292 10 4 -0.0951989
5.8668685 0.0030706744 0.9292208 83 12 -0.095196597
5.8974724 0.0020602632 -0.51596195 56 5 -0.095194288
5.9643669 0.0010427168 1.1593555 28 13 -0.095191985
5.9098897 -0 -0.30972421 60 6 -0.095189683
7.607882 -0 1.7564179 27 14 -0.095187381
5.9071007 -0.0010309835 -0.10310882 56 7 -0.095185071
5.8766923 -0.0020513528 1.5746551 11 15 -0.095182769
3.7671061 -0.005917361 -1.0093943 13 0 -0.095162034
5.9070916 -0.010309829 0.10310882 68 8 -0.095159732
4.3612728 -0.0083730528 -1.006881 68 1 -0.09515743
5.9118757 -0.01135 0.30982888 66 9 -0.09515512
5.8954654 -0.013376409 0.51578766 62 10 -0.095150515
4.8771911 -0.011917249 -0.77247345 10 3 -0.095148213
5.903645 -0.01545574 0.72487891 78 11 -0.095145904
5.9254808 -0.015512906 -0.72756004 54 4 -0.095143601
5.8549943 -0.016350269 0.92734367 86 12 -0.095141299
5.9054165 -0.017521776 -0.51665926 60 5 -0.095138997
5.9623742 -0.018731412 1.1589739 19 13 -0.095136687
5.8938794 -0.019544916 -0.30888686 59 6 -0.095134385
7.5980964 -0.025196334 1.7541683 34 14 -0.095132083
5.9110641 -0.020633588 -0.10317863 54 7 -0.09512978
5.8940401 -0.021602882 1.5793139 9 15 -0.095127478
3.7593319 -0.019683994 -1.0073237 9 0 -0.095106736
5.905014 -0.031949513 0.10307391 73 8 -0.095104434
4.3495207 -0.024292558 -1.0041815 68 1 -0.095102131
5.9097919 -0.034038331 0.30972421 70 9 -0.095099829
5.907331 -0.03505522 0.51683354 62 10 -0.095095217
4.9758811 -0.030396305 -0.78811693 22 3 -0.095092915
5.8956079 -0.037043683 0.72390395 78 11 -0.095090613
5.915452 -0.038200855 -0.72634137 57 4 -0.095088303
5.8805676 -0.039001975 0.93141097 82 12 -0.095086001
5.9053059 -0.040196761 -0.51665926 60 5 -0.095083699
8.9973755 -0.062814549 1.7489554 9 13 -0.095081396
5.8917632 -0.042161297 -0.30878216 61 6 -0.095079094
7.6115842 -0.054468285 1.7573177 16 14 -0.095076784
5.9109411 -0.043330237 -0.10317863 56 7 -0.095074482
5.8939137 -0.044234153 1.5793139 5 15 -0.09507218
3.7727568 -0.03358287 -1.0109472 8 0 -0.095051445
5.9048576 -0.053592253 0.10307391 73 8 -0.095049135
4.3591452 -0.040324304 -1.006431 62 1 -0.095046833
5.9036355 -0.055642098 0.30941018 72 9 -0.095044531
4.4426398 -0.042647593 -0.86360151 3 2 -0.095042229
5.9111476 -0.056744691 0.51718217 70 10 -0.095039919
4.9559836 -0.04844055 -0.78498822 23 3 -0.095037617
5.8934479 -0.058632173 0.72366023 80 11 -0.095035315
5.9013772 -0.059741143 -0.72463518 66 4 -0.095033012
5.8843355 -0.060595747 0.93203664 72 12 -0.09503071
5.9051189 -0.061840512 -0.51665926 67 5 -0.0950284
5.8678346 -0.062474318 1.1406562 9 13 -0.095026098
5.907547 -0.063928306 -0.30961955 61 6 -0.095023796
7.5937958 -0.082175985 1.7532685 34 14 -0.095021494
5.9067435 -0.064950652 -0.10310882 56 7 -0.095019184
5.893712 -0.065836132 1.5793139 1 15 -0.095016882
3.7571547 -0.047216285 -1.0068061 10 0 -0.094996147
5.9126196 -0.075336188 0.10321353 73 8 -0.094993845
4.3628654 -0.056351442 -1.0073308 53 1 -0.094991535
5.9014087 -0.0762235 0.30930555 70 9 -0.094989233
4.575954 -0.059902519 -0.88955158 1 2 -0.09498693
5.8730474 -0.077907622 0.51387024 77 10 -0.094984628
4.9379959 -0.066365898 -0.78217238 24 3 -0.094982326
5.8792987 -0.080043174 0.72195405 82 11 -0.094980016
5.9031177 -0.080367461 -0.72487891 58 4 -0.094977714
5.8761873 -0.081026599 0.93078518 72 12 -0.094975412
5.9008827 -0.082397215 -0.51631063 61 5 -0.09497311
5.9716229 -0.084427454 1.160882 12 13 -0.0949708
5.9072876 -0.084549099 -0.30961955 64 6 -0.094968498
7.6032057 -0.10882223 1.7555181 39 14 -0.094966196
5.8864865 -0.08527898 -0.10275977 58 7 -0.094963893
5.9127626 -0.086691841 1.5844903 15 15 -0.094961584
3.7473195 -0.059521794 -1.0042179 17 0 -0.094940849
5.8963418 -0.09468586 0.10293429 73 8 -0.094938546
4.3431697 -0.070502624 -1.0028318 36 1 -0.094936244
5.913105 -0.095987365 0.30993357 76 9 -0.094933942
4.6306939 -0.075978421 -0.9002369 1 2 -0.094931632
5.8847098 -0.097581133 0.51491612 67 10 -0.09492933
4.8982468 -0.082078584 -0.77591503 24 3 -0.094927028
5.8928947 -0.099774435 0.72366023 80 11 -0.094924726
5.9127426 -0.10011049 -0.72609758 61 4 -0.094922416
5.8877373 -0.100715 0.93266243 70 12 -0.094920114
5.8965926 -0.10189594 -0.51596195 60 5 -0.094917811
6.2716427 -0.10947192 1.2192695 1 13 -0.094915509
5.9029803 -0.1040675 -0.30941018 64 6 -0.0949132
7.626184 -0.13444698 1.7609169 30 14 -0.094910897
5.8981671 -0.10501237 -0.10296919 57 7 -0.094908595
6.5865498 -0.11841844 1.7651459 26 15 -0.094906293
3.7451701 -0.071910948 -1.0037004 12 0 -0.094885558
5.8879986 -0.11408336 0.10279468 73 8 -0.094883248
4.3468089 -0.08498089 -1.0037316 27 1 -0.094880946
5.900753 -0.11639104 0.30930555 70 9 -0.094878644
4.5754557 -0.090249851 -0.88955158 14 2 -0.094876342
5.8863459 -0.11713462 0.51509041 70 10 -0.094874032
4.8604236 -0.097568057 -0.76997054 22 3 -0.09487173
5.8885622 -0.11923505 0.72317278 73 11 -0.094869427
5.9103727 -0.12070867 -0.72585386 60 4 -0.094867125
5.8616748 -0.12073758 0.92859513 71 12 -0.094864815
5.8882546 -0.12128506 -0.51526475 57 5 -0.094862513
5.8986096 -0.12355825 -0.30920088 64 6 -0.094857909
5.9325905 -0.12530594 1.3699518 31 14 -0.094855599
5.8937664 -0.12551504 -0.10289939 55 7 -0.094853297
6.5938225 -0.14157496 1.7672166 33 15 -0.094850995
3.7526219 -0.085158899 -1.0057708 9 0 -0.09483026
5.8895631 -0.13468134 0.10282958 78 8 -0.094827957
4.3542786 -0.10033312 -1.0055312 21 1 -0.094825648
5.8943205 -0.13684872 0.30899152 66 9 -0.094823346
4.5770755 -0.10626619 -0.88993317 6 2 -0.094821043
5.8859015 -0.13768108 0.51509041 62 10 -0.094818741
4.8363552 -0.11397503 -0.7662161 20 3 -0.094816431
5.874218 -0.13945943 0.72146654 28 11 -0.094814129
5.8960233 -0.14100675 -0.72414774 61 4 -0.094811827
5.8375201 -0.14062704 0.92484063 70 12 -0.094809525
5.8897872 -0.14188617 -0.51543909 61 5 -0.094807215
5.8921523 -0.14400111 -0.30888686 65 6 -0.094802611
5.8717246 -0.14452727 1.356005 71 14 -0.094800308
5.901288 -0.14628556 -0.10303901 77 7 -0.094798006
6.5990815 -0.16473545 1.7687694 35 15 -0.094795696
3.7465079 -0.098105773 -1.0042179 9 0 -0.094774961
5.901051 -0.1555551 0.10303901 100 8 -0.094772659
4.3441615 -0.11527333 -1.0032817 15 1 -0.094770357
5.8878174 -0.15726292 0.30867749 46 9 -0.094768047
4.572752 -0.12213768 -0.88916999 13 2 -0.094765745
5.8893681 -0.15833299 0.51543909 22 10 -0.094763443
4.8063073 -0.13005486 -0.76152301 19 3 -0.094761141
5.8935394 -0.16050385 0.72390395 40 11 -0.094758831
5.8895426 -0.1614237 -0.72341651 58 4 -0.094756529
5.8369937 -0.16100293 0.92484063 89 12 -0.094754227
5.8912477 -0.16249943 -0.51561338 60 5 -0.094751924
5.8443208 -0.16222584 1.1364584 10 13 -0.094749622
5.89361 -0.16462342 -0.30899152 59 6 -0.094747312
5.8987427 -0.16682748 -0.10300411 60 7 -0.094742708
6.6100521 -0.18809925 1.7718753 35 15 -0.094740406
3.7345569 -0.11083905 -1.0011121 17 0 -0.094719663
5.8844824 -0.1756753 0.10275977 33 8 -0.094717361
4.3515244 -0.13067055 -1.0050814 15 1 -0.094715059
5.8972144 -0.17811579 0.30920088 34 9 -0.094712757
4.6566796 -0.14064744 -0.90557957 1 2 -0.094710454
5.8867879 -0.17882924 0.51526475 67 10 -0.094708145
4.778182 -0.14598668 -0.7571429 19 3 -0.094705842
5.8969111 -0.18119711 0.72439146 91 11 -0.09470354
5.8889432 -0.18198104 -0.72341651 54 4 -0.094701238
5.8482428 -0.18174502 0.92671788 100 12 -0.094698928
5.878696 -0.18269141 -0.51456749 57 5 -0.094696626
5.9241724 -0.18513964 1.1521047 1 13 -0.094694324
5.8790255 -0.18475582 -0.3082588 58 6 -0.094692022
5.8842068 -0.18594666 1.3591542 5 14 -0.094689712
5.8981247 -0.18741691 -0.10300411 23 7 -0.09468741
6.6093554 -0.21117148 1.7718753 15 15 -0.094685107
3.7322164 -0.12381037 -1.0005945 13 0 -0.094664373
5.9118133 -0.19714798 0.10324844 78 8 -0.09466207
4.3374076 -0.14540236 -1.0019319 13 1 -0.094659761
5.9145217 -0.19930518 0.3101429 88 9 -0.094657458
5.8861279 -0.19937687 0.51526475 97 10 -0.094652854
4.7421074 -0.16145486 -0.75151128 20 3 -0.094650544
5.9002109 -0.20191585 0.72487891 89 11 -0.094648242
5.8981915 -0.20287739 -0.72463518 40 4 -0.09464594
5.8732376 -0.20304535 0.93078518 93 12 -0.094643638
5.8899698 -0.2036238 -0.51561338 19 5 -0.094641328
5.9077945 -0.20527236 1.1490518 1 13 -0.094639026
5.9122777 -0.20646128 -0.31003824 41 6 -0.094636723
7.6402035 -0.26813692 1.7649659 34 14 -0.094634421
5.917419 -0.20870896 -0.10335316 84 7 -0.094632111
6.5950642 -0.23376213 1.7682518 3 15 -0.094629809
3.7356224 -0.13697904 -1.0016297 8 0 -0.094609074
5.9090905 -0.21770924 0.10321353 100 8 -0.094606772
4.3271375 -0.16018142 -0.99968249 11 1 -0.09460447
5.9277611 -0.22046912 0.31087559 100 9 -0.09460216
4.7889929 -0.17811532 -0.93152958 3 2 -0.094599858
5.8873873 -0.21999648 0.51543909 95 10 -0.094597556
4.6980872 -0.17637654 -0.74462813 19 3 -0.094595253
5.8935189 -0.22228573 0.72414774 91 11 -0.094592944
5.9153004 -0.22414114 -0.72682881 21 4 -0.094590642
5.8843369 -0.22399639 0.93266243 93 12 -0.094588339
5.9190869 -0.22531921 -0.51822799 56 5 -0.094586037
5.8991942 -0.22559308 1.1475254 1 13 -0.094583727
5.9155126 -0.22725107 -0.3102476 83 6 -0.094581425
7.652853 -0.29533064 1.7681153 36 14 -0.094579123
5.9186525 -0.22944078 -0.10338806 77 7 -0.094576821
6.6965179 -0.26076579 1.7956866 1 15 -0.094574511
3.7389822 -0.15017304 -1.002665 8 0 -0.094553776
5.9082947 -0.23833446 0.10321353 100 8 -0.094551474
4.3265519 -0.17528497 -0.99968249 10 1 -0.094549172
5.9109907 -0.24050994 0.31003824 100 9 -0.094546869
4.9845047 -0.20281254 -0.9696914 5 2 -0.09454456
5.8985271 -0.24103405 0.51648492 100 10 -0.094542257
4.7013903 -0.19293684 -0.74525392 54 3 -0.094539955
5.8808069 -0.24236615 0.72268528 94 11 -0.094537653
5.9105153 -0.24462387 -0.72634137 64 4 -0.094535343
5.887466 -0.24469924 0.9332881 96 12 -0.094533041
5.922246 -0.2461448 -0.51857668 74 5 -0.094530739
5.8905249 -0.24585624 1.145999 1 13 -0.094528437
5.8947287 -0.2470623 -0.30920088 83 6 -0.094526127
7.6537223 -0.32212415 1.7685652 6 14 -0.094523825
5.9178157 -0.2500993 -0.10338806 81 7 -0.094521523
6.658895 -0.28258318 1.7858515 10 15 -0.09451922
