# .PCD v0.7 - Point Cloud Data file format
VERSION 0.7
FIELDS x y z intensity ring time
SIZE 4 4 4 4 2 4
TYPE F F F F U F
COUNT 1 1 1 1 1 1
WIDTH 910
HEIGHT 1
VIEWPOINT 0 0 0 1 0 0 0
POINTS 910
DATA ascii
-0.89921373 0.80286098 0.32300618 82 15 -0.068027794
-0.45343459 0.40584463 -0.16305602 65 0 -0.068007059
-0.75532573 0.67628849 0.01769674 4 8 -0.068004757
-0.42386875 0.37964842 -0.13137142 90 1 -0.068002455
-0.94010884 0.84232724 0.066152655 100 9 -0.068000153
-0.94212103 0.84442669 0.11068779 100 10 -0.067995541
-0.93542105 0.83901083 0.15428659 100 11 -0.067990936
-0.431438 0.38710707 -0.071171708 7 4 -0.067988627
-0.93790191 0.8418265 0.1996104 100 12 -0.067986324
-0.90278375 0.81059062 0.23583993 83 13 -0.06798172
-0.90162688 0.81012058 0.27983913 90 14 -0.067977108
-0.91077137 0.81891125 0.32818255 79 15 -0.067972504
-0.45488504 0.41001177 -0.16409127 86 0 -0.067951769
-0.74999005 0.67624277 0.01762693 5 8 -0.067949459
-0.4283292 0.38634649 -0.13317102 74 1 -0.067947157
-0.94012845 0.84827965 0.066361994 100 9 -0.067944854
-0.94212574 0.85038018 0.11103641 100 10 -0.067940243
-0.93248683 0.84227073 0.15428659 100 11 -0.067935638
-0.93642288 0.84642017 0.19992328 100 12 -0.067931026
-0.91159874 0.82427067 0.23889288 81 13 -0.067926422
-0.89445853 0.80934036 0.27848941 92 14 -0.067921817
-0.91077137 0.8246789 0.32921785 78 15 -0.067917205
-0.45488152 0.41289556 -0.16460893 64 0 -0.06789647
-0.74614465 0.67751211 0.017592026 4 8 -0.067894168
-0.4327479 0.39308047 -0.13497064 58 1 -0.067891859
-0.94618076 0.85945004 0.066990033 100 9 -0.067889556
-0.93915176 0.85366338 0.11103641 100 10 -0.067884952
-0.94422573 0.85887796 0.15672398 100 11 -0.06788034
-0.42872506 0.39010954 -0.071171708 7 4 -0.067878038
-0.92630595 0.84287304 0.19835892 100 12 -0.067875735
-0.90581262 0.82480407 0.23812963 81 13 -0.067871124
-0.90027064 0.82033265 0.28118882 92 14 -0.067866519
-0.90232074 0.82248902 0.32714728 82 15 -0.067861907
-0.4434562 0.40535697 -0.16098545 66 0 -0.067841172
-0.7379899 0.674586 0.017452406 4 8 -0.06783887
-0.43144199 0.39451337 -0.13497064 73 1 -0.067836568
-0.94317496 0.86274761 0.066990033 100 9 -0.067834266
-0.93175697 0.8529008 0.11051348 100 10 -0.067829654
-0.94283646 0.86334515 0.15696773 100 11 -0.067825049
-0.93209648 0.85410893 0.20023614 100 12 -0.067820437
-0.90307248 0.82780337 0.23812963 83 13 -0.067815833
-0.77136105 0.70731753 -0.05484809 1 6 -0.067813523
-0.90328968 0.82858282 0.28298843 92 14 -0.067811221
-0.89375138 0.82040817 0.32507673 82 15 -0.067806616
-0.44779587 0.41205782 -0.16305602 65 0 -0.067785881
-0.74445826 0.68528396 0.017661836 4 8 -0.067783572
-0.42432806 0.39073676 -0.13317102 89 1 -0.06778127
-0.94471639 0.86992937 0.067304045 100 9 -0.067778967
-0.93624973 0.86273652 0.11138504 100 10 -0.067774355
-0.93689835 0.86393958 0.15648025 100 11 -0.067769751
-0.42605966 0.39301887 -0.071171708 7 4 -0.067767449
-0.93651879 0.86389202 0.20180048 100 12 -0.067765139
-0.89729226 0.82828742 0.23736641 83 13 -0.067760535
-0.76888728 0.71000582 -0.05484809 1 6 -0.067758232
-0.90468627 0.83569783 0.28433815 90 14 -0.067755923
-0.90237665 0.83385623 0.32921785 79 15 -0.067751318
-0.45485675 0.42149687 -0.16616184 63 0 -0.067730583
-0.73924804 0.68503052 0.017592026 3 8 -0.067728281
-0.43160492 0.40009058 -0.13587044 58 1 -0.067725971
-0.94313878 0.87457961 0.067408718 100 9 -0.067723669
-0.93907398 0.87142056 0.11208228 100 10 -0.067719065
-0.92820871 0.86163956 0.15550528 100 11 -0.067714453
-0.42475411 0.39442948 -0.071171708 7 4 -0.067712151
-0.93928665 0.87253362 0.20305197 100 12 -0.067709848
-0.90029323 0.83660412 0.23889288 81 13 -0.067705236
-0.76652879 0.71255147 -0.05484809 1 6 -0.067702934
-0.89905584 0.83603925 0.28343832 90 14 -0.067700632
-0.90511739 0.84226519 0.3312884 78 15 -0.06769602
-0.45754525 0.42711604 -0.16771474 62 0 -0.067678213
-0.75561231 0.70560646 0.018045789 2 8 -0.067675911
-0.42721748 0.39908421 -0.13497064 73 1 -0.067673609
-0.9397735 0.87819487 0.067408718 100 9 -0.067671299
-0.47623086 0.44502583 -0.12669718 9 2 -0.067668997
-0.94024044 0.87893814 0.11260521 100 10 -0.067666695
-0.93649077 0.87604612 0.15745521 100 11 -0.067662083
-0.93304515 0.87343377 0.20242621 100 12 -0.067657478
-0.90280646 0.84542263 0.24041936 81 13 -0.067652866
-0.76378709 0.71548945 -0.05484809 1 6 -0.067650564
-0.88872916 0.83282256 0.28118882 94 14 -0.067648262
-0.90469521 0.84837705 0.33232367 77 15 -0.06764365
-0.44619864 0.4194482 -0.16409127 64 0 -0.067622915
-0.75605822 0.7109797 0.018115599 3 8 -0.067620613
-0.42866054 0.40324363 -0.13587044 72 1 -0.06761831
-0.93961149 0.88420713 0.067618065 100 9 -0.067616008
-0.47467464 0.44668537 -0.12669718 9 2 -0.067613699
-0.9342652 0.87948358 0.1122566 100 10 -0.067611396
-0.93631715 0.8820318 0.15794268 100 11 -0.067606792
-0.92711586 0.8739754 0.20180048 100 12 -0.06760218
-0.90270662 0.85126239 0.24118258 81 13 -0.067597575
-0.76128471 0.71815139 -0.05484809 1 6 -0.067595266
-0.89290327 0.8426072 0.28343832 90 14 -0.067592964
-0.89610982 0.84622461 0.33025309 79 15 -0.067588359
-0.44473177 0.42100319 -0.16409127 64 0 -0.067567624
-0.74485976 0.7053647 0.017906168 2 8 -0.067565314
-0.42725042 0.40473741 -0.13587044 58 1 -0.067563012
-0.94537389 0.89555955 0.068246089 100 9 -0.06756071
-0.47311249 0.44833958 -0.12669718 9 2 -0.067558408
-0.92685139 0.87862748 0.11173366 100 10 -0.067556098
-0.93755317 0.88939345 0.1586739 100 11 -0.067551494
-0.93137699 0.88384384 0.20336483 100 12 -0.067546882
-0.89688247 0.8517046 0.24041936 81 13 -0.067542277
-0.75877321 0.72080439 -0.05484809 1 6 -0.067539975
-0.89560717 0.85108823 0.28523794 90 14 -0.067537673
-0.89329886 0.84919149 0.33025309 79 15 -0.067533061
-0.4432596 0.42255291 -0.16409127 64 0 -0.067512326
-0.76133317 0.72576779 0.018359931 2 8 -0.067510024
-0.42731616 0.40749684 -0.13632034 86 1 -0.067507714
-0.94079685 0.89747542 0.068141423 100 9 -0.067505412
-0.45450085 0.43372372 -0.12211777 10 2 -0.06750311
-0.93242592 0.89011174 0.11277953 100 10 -0.067500807
-0.93029165 0.8883847 0.15794268 100 11 -0.067496195
-0.41913557 0.40039483 -0.071171708 7 4 -0.067493893
-0.9325707 0.89118373 0.20430344 100 12 -0.067491591
-0.8940531 0.85467416 0.24041936 83 13 -0.067486979
-0.75637877 0.72331673 -0.05484809 1 6 -0.067484677
-0.90122896 0.86213613 0.28793734 90 14 -0.067482375
-0.89312005 0.85497653 0.3312884 77 15 -0.067477763
-0.4544006 0.43605906 -0.16875002 61 0 -0.067457028
-0.76600772 0.7353453 0.018534455 3 8 -0.067454726
-0.42448556 0.40763623 -0.13587044 72 1 -0.067452423
-0.93477774 0.89798677 0.067932077 100 9 -0.067450114
-0.4558917 0.4379487 -0.122881 10 2 -0.067447811
-0.93377882 0.89734054 0.11330246 100 10 -0.067445509
-0.92289251 0.88749892 0.15721147 100 11 -0.067440905
-0.9379943 0.90265191 0.20618065 100 12 -0.067436293
-0.89672178 0.86323601 0.2419458 78 13 -0.067431688
-0.88979322 0.85716474 0.28523794 88 14 -0.067427076
-1.0050602 0.96854359 -0.024363559 2 7 -0.067424774
-0.8956936 0.86345166 0.33335894 77 15 -0.067422472
-0.45426503 0.43898499 -0.16926767 61 0 -0.06740173
-0.80369276 0.77693075 0.019511791 3 8 -0.067399427
-0.41465485 0.40098736 -0.13317102 59 1 -0.067397125
-0.9330731 0.90263271 0.06803675 100 9 -0.067394823
-0.46000445 0.44499737 -0.12440747 9 2 -0.067392521
-0.93350416 0.90336561 0.11365108 100 10 -0.067390211
-0.93547511 0.90590543 0.15989259 100 11 -0.067385606
-0.9291634 0.9004218 0.20492917 100 12 -0.067380995
-0.89652228 0.86909389 0.24270906 78 13 -0.06737639
-0.88259959 0.85619491 0.28388825 94 14 -0.067371778
-0.90121901 0.87456262 -0.021920223 4 7 -0.067369476
-0.89821863 0.87195545 0.33542949 77 15 -0.067367174
-0.44857627 0.43652618 -0.16771474 62 0 -0.067346439
-0.93566597 0.91084915 0.022792844 8 8 -0.067344137
-0.42162946 0.41058967 -0.13587044 58 1 -0.067341827
-0.93563896 0.91145915 0.068455435 100 9 -0.067339525
-0.42751002 0.41646183 -0.11601188 10 2 -0.067337222
-0.92749143 0.90383762 0.11330246 100 10 -0.06733492
-0.93799204 0.91470909 0.16086754 100 11 -0.067330308
-0.92177361 0.8995207 0.20399056 100 12 -0.067325704
-0.8934831 0.87221807 0.24270906 78 13 -0.067321092
-0.92309326 0.90143818 -0.067618065 1 6 -0.06731879
-0.88657546 0.86607939 0.28613773 88 14 -0.067316487
-0.94535702 0.92382455 -0.023072081 17 7 -0.067314178
-0.88964379 0.8696838 0.33335894 77 15 -0.067311876
-0.43877113 0.42997658 -0.16460893 64 0 -0.067291141
-0.93962097 0.92110872 0.022967368 36 8 -0.067288838
-0.42854181 0.42024565 -0.13856986 56 1 -0.067286536
-0.93672895 0.91891551 0.068769448 100 9 -0.067284226
-0.4428716 0.43444964 -0.12059129 10 2 -0.067281924
-0.92148679 0.90427846 0.11295383 100 10 -0.067279622
-0.93762618 0.9207595 0.16135503 100 11 -0.06727501
-0.9284904 0.91242498 0.20618065 100 12 -0.067270406
-0.89043307 0.87533158 0.24270906 78 13 -0.067265794
-0.92136532 0.90605503 -0.06772273 6 6 -0.067263491
-0.88910377 0.87463528 0.28793734 88 14 -0.067261189
-0.93785071 0.92291117 -0.022967368 12 7 -0.067258887
-0.88660276 0.87278378 0.33335894 77 15 -0.067256585
-0.44689298 0.44100401 -0.16823238 62 0 -0.067235842
-0.93497676 0.9229781 0.022932461 60 8 -0.06723354
-0.42429906 0.41900042 -0.13767006 71 1 -0.067231238
-0.94062024 0.92919773 0.069292814 100 9 -0.067228936
-0.45811266 0.45254955 -0.12517071 9 2 -0.067226626
-0.92541051 0.91449183 0.1138254 100 10 -0.067224324
-0.93017209 0.9198392 0.1606238 100 11 -0.067219719
-0.92951214 0.91982895 0.20711927 100 12 -0.067215107
-0.89016277 0.88119662 0.24347228 78 13 -0.067210503
-0.93806493 0.92894095 -0.06918814 9 6 -0.067208201
-0.8943519 0.88596231 0.29063675 86 14 -0.067205891
-0.93604398 0.9275865 -0.023002272 17 7 -0.067203589
-0.89315438 0.88539386 0.3369824 73 15 -0.067201287
-0.44946179 0.44664645 -0.16978529 61 0 -0.067180552
-0.93600363 0.93046588 0.023037177 84 8 -0.067178242
-0.41454309 0.41223419 -0.13497064 58 1 -0.06717594
-0.92745918 0.92261541 0.068560109 100 9 -0.067173637
-0.45653015 0.45414588 -0.12517071 9 2 -0.067171335
-0.92927384 0.92474377 0.11469696 100 10 -0.067169026
-0.91992253 0.9160769 0.15940511 100 11 -0.067164421
-0.93329203 0.93003953 0.20868361 100 12 -0.067159817
-0.88708144 0.8842985 0.24347228 81 13 -0.067155205
-0.92915964 0.92656857 -0.068769448 14 6 -0.067152902
-0.88297623 0.88082093 0.28793734 88 14 -0.0671506
-0.95544773 0.95344871 -0.023560748 25 7 -0.067148291
-0.88732392 0.88577652 0.33594716 76 15 -0.067145988
-0.45336214 0.45367867 -0.17185585 100 0 -0.067125253
-0.93840313 0.93938619 0.023176797 100 8 -0.067122951
-0.42411765 0.42471015 -0.13856986 56 1 -0.067120641
-0.92846608 0.9300878 0.068874128 100 9 -0.067118339
-0.44107193 0.44184232 -0.12135453 10 2 -0.067116037
-0.93166989 0.93362296 0.1153942 100 10 -0.067113735
-0.9265309 0.92912203 0.16111128 100 11 -0.067109123
-0.92306811 0.92629552 0.20711927 100 12 -0.067104518
-0.88814569 0.89156258 0.24461715 76 13 -0.067099907
-0.92310119 0.92697561 -0.068560109 25 6 -0.067097604
-0.88264579 0.88665986 0.28883713 86 14 -0.067095302
-0.94506109 0.94969082 -0.023386225 68 7 -0.067093
-0.88967621 0.89434689 0.3380177 72 15 -0.06709069
-0.44769344 0.4511447 -0.17030294 60 0 -0.067069955
-0.93652666 0.94407582 0.023211701 100 8 -0.067067653
-0.41988814 0.42342058 -0.13767006 71 1 -0.067065351
-0.92943203 0.93757832 0.06918814 100 9 -0.067063048
-0.45334849 0.457322 -0.12517071 9 2 -0.067060739
-0.92279553 0.93120861 0.11469696 100 10 -0.067058437
-0.93026608 0.93940294 0.16232997 100 11 -0.067053832
-0.92399746 0.93372428 0.20805787 100 12 -0.06704922
-0.89193183 0.90163577 0.24652523 78 13 -0.067044616
-0.92969036 0.94013327 -0.069292814 7 6 -0.067042306
-0.88502514 0.89527923 0.29063675 88 14 -0.067040004
-0.93190122 0.9430275 -0.023141891 80 7 -0.067037702
-0.87976086 0.89057505 0.33542949 76 15 -0.067035399
-0.44069198 0.44720069 -0.16823238 62 0 -0.067014664
-0.92340219 0.93736726 0.022967368 100 8 -0.067012355
-0.41840756 0.42488366 -0.13767006 71 1 -0.067010053
-0.93752891 0.95203996 0.070025519 100 9 -0.06700775
-0.42971283 0.43651628 -0.11906482 10 2 -0.067005448
-0.92233419 0.9372642 0.11504558 100 10 -0.067003138
-0.93254882 0.94830596 0.16330492 100 11 -0.066998534
-0.92089599 0.93678319 0.20805787 100 12 -0.066993922
-0.59490246 0.6053769 -0.074256696 5 5 -0.06699162
-0.88602746 0.90194273 0.24576201 78 13 -0.066989318
-0.88189471 0.89836311 0.29063675 88 14 -0.066984706
-0.93157059 0.94896662 -0.023211701 91 7 -0.066982403
-0.88356823 0.9003818 0.3380177 73 15 -0.066980101
-0.4310213 0.44045192 -0.16512655 64 0 -0.066959366
-0.91609269 0.93613648 0.022862652 83 8 -0.066957064
-0.41699639 0.42626876 -0.13767006 71 1 -0.066954754
-0.93419993 0.95530677 0.070025519 100 9 -0.066952452
-0.44465515 0.45486024 -0.12364423 19 2 -0.06695015
-0.9232347 0.94475281 0.11556852 100 10 -0.066947848
-0.9266246 0.94855332 0.16281746 100 11 -0.066943236
-0.92727929 0.94988698 0.21024795 100 12 -0.066938631
-0.6233989 0.63882053 -0.078091539 4 5 -0.066936322
-0.88028926 0.90206575 0.24499875 81 13 -0.066934019
-0.8702721 0.8921122 -0.065315276 1 6 -0.066931717
-0.88707399 0.90965366 0.29333615 88 14 -0.066929415
-0.9338361 0.9579401 -0.023351319 42 7 -0.066927113
-0.87367851 0.89654273 0.33542949 76 15 -0.066924803
-0.45245019 0.46542725 -0.17392641 58 0 -0.066904068
-0.92675579 0.95366931 0.023211701 59 8 -0.066901766
-0.40192714 0.41374397 -0.13317102 74 1 -0.066899464
-0.9280768 0.95569634 0.069816172 100 9 -0.066897154
-0.43220255 0.44506487 -0.12059129 20 2 -0.066894852
-0.92425996 0.95209789 0.11609145 100 10 -0.066892549
-0.92054343 0.94893241 0.16232997 100 11 -0.066887937
-0.92533302 0.95453602 0.21056081 98 12 -0.066883333
-0.62405062 0.6437453 -0.078440167 4 5 -0.066881031
-0.87986755 0.90795279 0.24576201 83 13 -0.066878729
-0.93663645 0.96687084 -0.070548877 1 6 -0.066876419
-0.87982649 0.90854478 0.29198647 92 14 -0.066874117
-0.965258 0.99711305 -0.024223939 28 7 -0.066871814
-0.88263434 0.91208154 0.34008822 73 15 -0.066869512
-0.44143072 0.45727441 -0.17030294 60 0 -0.06684877
-0.92064399 0.95402062 0.023141891 32 8 -0.066846468
-0.41536316 0.43057212 -0.13811995 84 1 -0.066844165
-0.92612177 0.96036756 0.069920845 100 9 -0.066841863
-0.43064642 0.44657072 -0.12059129 10 2 -0.066839561
-0.92784476 0.96249038 0.116963 100 10 -0.066837251
-0.9227345 0.95785826 0.16330492 100 11 -0.066832647
-0.92062545 0.95633727 0.21024795 96 12 -0.066828035
-0.63009036 0.65453207 -0.079486035 4 5 -0.066825733
-0.88213831 0.91667676 0.24728847 83 13 -0.06682343
-0.93325549 0.97013462 -0.070548877 1 6 -0.066821128
-0.87529886 0.91020572 0.29153654 88 14 -0.066818818
-0.94652736 0.9846186 -0.023839988 54 7 -0.066816516
-0.88346118 0.91933554 0.34164116 76 15 -0.066814214
-0.43715808 0.4560234 -0.16926767 61 0 -0.066793479
-0.91315728 0.95289737 0.023037177 27 8 -0.066791177
-0.41790196 0.436241 -0.13946965 55 1 -0.066788867
-0.9241451 0.96503699 0.070025519 100 9 -0.066786565
-0.44673723 0.4665046 -0.12555233 28 2 -0.066784263
-0.92172366 0.96284521 0.11661438 100 10 -0.06678196
-0.92350203 0.96537679 0.16403615 100 11 -0.066777349
-0.9159168 0.95811689 0.20993507 82 12 -0.066772744
-0.62218124 0.65107518 -0.078788787 4 5 -0.066770434
-0.88435858 0.92542797 0.24881494 81 13 -0.066768132
-0.94090033 0.98494005 -0.071386255 1 6 -0.06676583
-0.87615389 0.91748363 0.29288626 92 14 -0.066763528
-0.9458462 0.99080962 -0.023909798 90 7 -0.066761218
-0.87891293 0.92101622 0.34112352 76 15 -0.066758916
-0.44214249 0.46461987 -0.17185585 60 0 -0.066738181
-0.91809672 0.96477038 0.023246605 38 8 -0.066735879
-0.41100407 0.43204939 -0.13767006 71 1 -0.066733576
-0.92902863 0.97694111 0.070653543 100 9 -0.066731267
-0.44367167 0.4667159 -0.12517071 19 2 -0.066728964
-0.91818869 0.9662168 0.11661438 100 10 -0.066726662
-0.92696238 0.97579092 0.16525485 100 11 -0.06672205
-0.91528672 0.96417344 0.21056081 69 12 -0.066717446
-0.67202049 0.70816189 -0.085412621 2 5 -0.066715144
-0.88096058 0.92866331 0.24881494 81 13 -0.066712834
-0.92766398 0.97823703 -0.070653543 3 6 -0.066710532
-0.88082933 0.92917436 0.29558566 92 14 -0.066708229
-0.93963033 0.99120271 -0.023839988 100 7 -0.066705927
-0.87702149 0.9254809 0.34164116 78 15 -0.066703618
-0.43919107 0.46475631 -0.17133822 60 0 -0.066682883
-0.9076885 0.96086073 0.023072081 60 8 -0.06668058
-0.42145947 0.44630447 -0.14171916 81 1 -0.066678278
-0.9310981 0.98598635 0.071072236 100 9 -0.066675976
-0.45551667 0.48253807 -0.1289869 18 2 -0.066673666
-0.91754514 0.97231406 0.116963 100 10 -0.066671364
-0.91657031 0.97196048 0.16403615 100 11 -0.06666676
-0.92411029 0.98029929 0.21337664 61 12 -0.066662148
-0.75426233 0.80040377 -0.096219942 1 5 -0.066659845
-0.87771374 0.93173254 0.24881494 81 13 -0.066657543
-0.92424339 0.98146951 -0.070653543 14 6 -0.066655234
-0.88025206 0.9350813 0.29648548 94 14 -0.066652931
-0.93479401 0.99302047 -0.023805084 100 7 -0.066650629
-0.87908137 0.93416393 0.3437117 78 15 -0.066648327
-0.44946364 0.47896498 -0.17599694 57 0 -0.066627592
-0.91954935 0.97990566 0.023456035 68 8 -0.066625282
-0.41464397 0.44201469 -0.13991956 83 1 -0.06662298
-0.92355216 0.98485988 0.070758224 100 9 -0.066620678
-0.45114413 0.48126054 -0.12822366 18 2 -0.066618375
-0.92231953 0.98423421 0.11800887 100 10 -0.066616066
-0.9146992 0.97644335 0.16427989 100 11 -0.066611461
-0.92743266 0.99072969 0.21494098 60 12 -0.066606849
-0.85492641 0.91359389 -0.10946761 1 5 -0.066604547
-0.87998497 0.94037205 0.25034142 81 13 -0.066602245
-0.91961944 0.98307025 -0.070548877 17 6 -0.066599943
-0.87980831 0.94084191 0.29738528 94 14 -0.066597641
-0.93951559 1.0050422 -0.024014512 100 7 -0.066595331
-0.87845296 0.94005001 0.34474698 78 15 -0.066593029
-0.44919017 0.481866 -0.1765146 57 0 -0.066572294
-0.92975622 0.9977389 0.023805084 84 8 -0.066569991
-0.41442686 0.44488516 -0.14036946 82 1 -0.066567682
-0.92028111 0.98791713 0.070758224 100 9 -0.06656538
-0.42412499 0.45545533 -0.1209729 41 2 -0.066563077
-0.9231236 0.99166179 0.1185318 100 10 -0.066560775
-0.91534138 0.98399073 0.16501111 100 11 -0.066556163
-0.91338062 0.98222709 0.21243803 57 12 -0.066551559
-0.846466 0.91058695 -0.10877036 2 5 -0.066549256
-0.88471574 0.9520672 0.25263113 85 13 -0.066546947
-0.92841589 0.99944443 -0.071490921 8 6 -0.066544645
-0.86856276 0.93533903 0.29468587 94 14 -0.066542342
-0.93345612 1.0052216 -0.023944702 100 7 -0.06654004
-0.87795961 0.9457894 0.34578225 77 15 -0.06653773
-0.43438217 0.46925408 -0.17133822 60 0 -0.066516995
-0.92508405 0.99934924 0.023770178 100 8 -0.066514693
-0.40765509 0.44053578 -0.13856986 70 1 -0.066512391
-0.9236083 0.99845427 0.071281582 100 9 -0.066510089
-0.43319595 0.4684644 -0.12402585 39 2 -0.066507779
-0.91559887 0.99048924 0.11800887 100 10 -0.066505477
-0.92015654 0.99576825 0.16647354 100 11 -0.066500872
-0.90994668 0.9854092 0.21243803 56 12 -0.06649626
-0.84057945 0.91060811 -0.10842174 2 5 -0.066493958
-0.88155359 0.95499587 0.25263113 78 13 -0.066491656
-0.92916012 1.0069209 -0.071804941 26 6 -0.066489346
-0.86942023 0.94251144 0.29603559 90 14 -0.066487044
-0.92451912 1.0025935 -0.023805084 100 7 -0.066484742
-0.87203395 0.94600767 0.34474698 78 15 -0.06648244
-0.43151602 0.46926993 -0.17082058 60 0 -0.066461705
-0.92023665 1.0011001 0.023735272 100 8 -0.066459395
-0.41402617 0.45056564 -0.14126927 68 1 -0.066457093
-0.91894072 1.0000409 0.071176901 100 9 -0.066454791
-0.43960884 0.47857344 -0.12631556 28 2 -0.066452488
-0.91096169 0.99205256 0.11783457 100 10 -0.066450179
-0.91935939 1.0018995 0.16696103 100 11 -0.066445574
-0.90133262 0.98259848 0.21118654 57 12 -0.066440962
-0.88199133 0.96185017 -0.11417402 2 5 -0.06643866
-0.87556136 0.95517272 0.25186789 83 13 -0.066436358
-0.93238628 1.0175209 -0.072328299 50 6 -0.066434056
-0.87533897 0.95559943 0.29918489 96 14 -0.066431746
-0.92659223 1.0115521 -0.023944702 100 7 -0.066429444
-0.87541538 0.95601785 0.34733516 74 15 -0.066427141
-0.43769124 0.47933292 -0.17392641 58 0 -0.066406406
-0.91421503 1.0011929 0.023665464 100 8 -0.066404104
-0.41252974 0.45193616 -0.14126927 68 1 -0.066401795
-0.92352182 1.0120947 0.071804941 100 9 -0.066399492
-0.42205876 0.46269941 -0.12173614 40 2 -0.06639719
-0.9128629 1.0011152 0.1185318 100 10 -0.066394888
-0.91202003 1.0005414 0.1662298 100 11 -0.066390276
-0.89523679 0.98281813 0.21056081 57 12 -0.066385671
-0.87728703 0.96344995 -0.11399971 2 5 -0.066383362
-0.87238908 0.95807093 0.25186789 83 13 -0.06638106
-0.91825128 1.0087912 -0.071490921 43 6 -0.066378757
-0.88003439 0.96714503 0.30188429 94 14 -0.066376455
-0.92978334 1.0221767 -0.024119226 100 7 -0.066374153
-0.87597191 0.96335572 0.34888807 77 15 -0.066371843
-0.44371581 0.4895221 -0.17703223 56 0 -0.066348791
-0.91304946 1.0076596 0.023735272 100 8 -0.066346489
-0.4081749 0.45062813 -0.14036946 82 1 -0.066344187
-0.92248768 1.0184333 0.07201428 100 9 -0.066341877
-0.43090186 0.47588584 -0.12478909 39 2 -0.066339575
-0.9118619 1.0074084 0.11888044 100 10 -0.066337273
-0.90817142 1.0040359 0.1662298 100 11 -0.066332661
-0.89692825 0.99195337 0.2118123 57 12 -0.066328056
-0.87660116 0.97015375 0.25415757 78 13 -0.066323444
-0.91838765 1.0167558 -0.071804941 8 6 -0.066321142
-0.87125903 0.96457934 0.30008471 92 14 -0.06631884
-0.93273133 1.0329988 -0.024293751 100 7 -0.066316538
-0.87243509 0.96655989 0.34888807 77 15 -0.066314228
-0.44467536 0.49386212 -0.17806751 93 0 -0.066293493
-0.91639185 1.0181133 0.023909798 100 8 -0.066291191
-0.41449913 0.46067104 -0.14306886 80 1 -0.066288888
-0.91509789 1.0170325 0.071700267 100 9 -0.066286586
-0.42406973 0.47147343 -0.12326261 39 2 -0.066284277
-0.91517687 1.0178347 0.11975199 100 10 -0.066281974
-0.90881723 1.011472 0.16696103 100 11 -0.06627737
-0.88571388 0.98610467 0.20993507 57 12 -0.066272758
-0.87600195 0.97597742 0.25492084 81 13 -0.066268153
-0.91767848 1.0227689 -0.07201428 1 6 -0.066265844
-0.86805552 0.96746325 0.30008471 94 14 -0.066263542
-0.92395973 1.0301316 -0.02415413 100 7 -0.066261239
-0.87954235 0.98095459 0.35302919 78 15 -0.066258937
-0.43788359 0.48957431 -0.17599694 76 0 -0.066238202
-0.91700912 1.0256187 0.024014512 100 8 -0.066235892
-0.41686514 0.46640196 -0.14441857 78 1 -0.06623359
-0.91819549 1.0276678 0.072223626 100 9 -0.066231288
-0.42242151 0.47295079 -0.12326261 39 2 -0.066228986
-0.91046923 1.0193778 0.11957768 100 10 -0.066226676
-0.91206717 1.0218852 0.16817972 100 11 -0.066222072
-0.87832177 0.98476779 0.20899647 61 12 -0.06621746
-0.8752026 0.98196036 0.25568405 78 13 -0.066212855
-0.86726582 0.97339743 0.3009845 92 14 -0.066208251
-0.9203583 1.0333506 -0.02415413 100 7 -0.066205941
-0.86712062 0.97391868 0.34940571 76 15 -0.066203639
-0.42710814 0.48106343 -0.17237349 59 0 -0.066182904
-0.9105894 1.0259814 0.023944702 100 8 -0.066180602
-0.42808601 0.48250389 -0.1489176 100 1 -0.066178292
-0.91442299 1.031026 0.072223626 100 9 -0.06617599
-0.42849967 0.48331013 -0.12555233 48 2 -0.066173688
-0.90408307 1.0197266 0.11922905 100 10 -0.066171385
-0.91489792 1.0326501 0.16939841 100 11 -0.066166773
-0.87863481 0.99241745 0.20993507 60 12 -0.066162169
-0.87159741 0.98516178 0.25568405 83 13 -0.066157557
-0.89181197 1.0083642 -0.070548877 1 6 -0.066155255
-0.86885643 0.98240858 0.30278412 94 14 -0.066152953
-0.91921389 1.0397129 -0.024223939 100 7 -0.06615065
-0.86098635 0.97419542 0.34837046 72 15 -0.066148341
-0.4342832 0.49277088 -0.17599694 57 0 -0.066127606
-0.90946633 1.0323131 0.024014512 100 8 -0.066125304
-0.41601095 0.47237009 -0.14531837 78 1 -0.066123001
-0.91873854 1.0432048 0.072851658 100 9 -0.066120692
-0.41902635 0.47596145 -0.12326261 39 2 -0.066118389
-0.90560502 1.0290159 0.1199263 100 10 -0.066116087
-0.90193021 1.0255619 0.16769223 100 11 -0.066111483
-0.87907803 0.99992913 0.21087368 63 12 -0.066106871
-0.8655619 0.98524821 0.25492084 81 13 -0.066102266
-0.87296349 0.9943735 0.30548352 94 14 -0.066097654
-0.9234944 1.0519321 -0.024433369 100 7 -0.066095352
-0.86904913 0.99026275 0.35302919 72 15 -0.06609305
-0.44019386 0.50300652 -0.17910279 55 0 -0.066072308
-0.91262257 1.0428475 0.024189034 100 8 -0.066070005
-0.40802673 0.46641353 -0.14306886 80 1 -0.066067703
-0.91246188 1.0433985 0.072642311 100 9 -0.066065401
-0.43545237 0.49811441 -0.12860526 37 2 -0.066063099
-0.91118491 1.0426725 0.12114649 100 10 -0.066060789
-0.9011364 1.0315372 0.16817972 100 11 -0.066056184
-0.88077861 1.0089442 0.21212517 68 12 -0.066051573
-0.87003505 0.99698836 0.25721052 85 13 -0.066046968
-0.86453825 0.99138778 0.30368391 96 14 -0.066042356
-0.92507321 1.0611786 -0.024572989 100 7 -0.066040054
-0.87193304 1.0005724 0.35561737 76 15 -0.066037752
-0.44105828 0.50737953 -0.18013807 54 0 -0.066017017
-0.91684681 1.0550835 0.024398465 100 8 -0.066014715
-0.4038403 0.46489251 -0.14216907 81 1 -0.066012405
-0.90899706 1.0464184 0.072642311 100 9 -0.066010103
-0.42478749 0.48917916 -0.12593395 57 2 -0.0660078
-0.91425264 1.0532113 0.12201804 100 10 -0.066005498
-0.90143239 1.039175 0.16891092 100 11 -0.066000886
-0.87354547 1.007382 0.21118654 73 12 -0.065996282
-0.8716923 1.0059541 0.258737 83 13 -0.06599167
-0.86107242 0.99439961 0.30368391 96 14 -0.065987065
-0.91238594 1.0536585 -0.024328655 100 7 -0.065984756
-0.87493193 1.0107615 0.35820559 77 15 -0.065982454
-0.42918593 0.49721673 -0.17599694 57 0 -0.065961719
-0.91464949 1.0596317 0.024433369 100 8 -0.065959416
-0.41375408 0.47950792 -0.14621818 90 1 -0.065957114
-0.91316569 1.0586596 0.073270351 100 9 -0.065954804
-0.41666707 0.48322478 -0.12402585 58 2 -0.065952502
-0.90536737 1.0503597 0.12132079 100 10 -0.0659502
-0.90834767 1.0541893 0.17086083 100 11 -0.065945588
-0.86615705 1.0059345 0.21024795 76 12 -0.065940984
-0.88115919 1.0237188 0.26255319 81 13 -0.065936372
-0.86539477 1.0061141 0.30638334 92 14 -0.065931767
-0.90609497 1.0538044 -0.024258846 56 7 -0.065929465
-0.8638429 1.0050193 0.35509977 70 15 -0.065927163
-0.42627743 0.4971706 -0.17547932 77 0 -0.06590642
-0.91094536 1.0628178 0.024433369 100 8 -0.065904118
-0.4171496 0.48686859 -0.14801779 88 1 -0.065901816
-0.91466194 1.0679082 0.073689036 100 9 -0.065899514
-0.42144802 0.49205914 -0.12593395 57 2 -0.065897204
-0.90447098 1.0563829 0.12166941 100 10 -0.065894902
-0.90724361 1.0603701 0.1713483 100 11 -0.065890297
-0.87034225 1.0179605 0.21212517 70 12 -0.065885685
-0.86227393 1.0088792 0.25797379 87 13 -0.065881081
-0.86693966 1.0150563 0.30818295 92 14 -0.065876469
-0.90241122 1.0569607 -0.024258846 14 7 -0.065874167
-0.85907561 1.006559 0.35458213 69 15 -0.065871865
-0.43822524 0.51491255 -0.18117334 54 0 -0.06585113
-0.90723008 1.065991 0.024433369 100 8 -0.06584882
-0.4002943 0.47051069 -0.14261897 81 1 -0.065846518
-0.91351616 1.0741374 0.073898375 100 9 -0.065844215
-0.42472839 0.49958348 -0.12746042 56 2 -0.065841913
-0.90575385 1.0657638 0.12236666 100 10 -0.065839604
-0.90096587 1.060505 0.17086083 100 11 -0.065834999
-0.86934066 1.024004 0.2127509 70 12 -0.065830395
-0.86365038 1.0180213 0.25950024 85 13 -0.065825783
-0.67690682 0.79818112 -0.05484809 1 6 -0.06582348
-0.86573398 1.0211997 0.30908275 94 14 -0.065821178
-0.85216373 1.0051925 -0.023002272 19 7 -0.065818869
-0.86055243 1.0154469 0.35665265 69 15 -0.065816566
-0.42769656 0.50611043 -0.17754988 56 0 -0.065795831
-0.90718806 1.0738919 0.024538083 94 8 -0.065793529
-0.40233919 0.47644126 -0.14396867 79 1 -0.065791219
-0.90699673 1.0744259 0.073689036 100 9 -0.065788917
-0.42424822 0.50256336 -0.12784202 56 2 -0.065786615
-0.90716809 1.0750096 0.12306391 100 10 -0.065784313
-0.89579344 1.0622824 0.1706171 100 11 -0.065779701
-0.87067354 1.0332253 0.21400237 70 12 -0.065775096
-0.86515123 1.0270357 0.26102671 83 13 -0.065770485
-0.60207367 0.71498513 -0.048986461 2 6 -0.065768182
-0.86216426 1.0242152 0.30908275 96 14 -0.06576588
-0.67980921 0.80787116 -0.018429741 23 7 -0.065763578
-0.86553025 1.0289426 0.36027613 72 15 -0.065761268
-0.44082841 0.52535897 -0.18376154 35 0 -0.065740533
-0.90728897 1.0816486 0.024642797 71 8 -0.065738231
-0.41069058 0.48978874 -0.14756788 89 1 -0.065735929
-0.90580642 1.0806469 0.073898375 100 9 -0.065733626
-0.41492423 0.49501368 -0.12555233 57 2 -0.065731317
-0.90980786 1.0858055 0.12393546 100 10 -0.065729015
-0.89590281 1.0699691 0.1713483 100 11 -0.06572441
-0.86199081 1.0301986 0.2127509 70 12 -0.065719798
-0.8716374 1.0420971 0.26407966 87 13 -0.065715194
-0.60854197 0.72780818 -0.049719162 8 6 -0.065712884
-0.85858357 1.0272188 0.30908275 96 14 -0.065710582
-0.63210899 0.75653046 -0.017208073 68 7 -0.06570828
-0.87060177 1.0423367 0.36389959 67 15 -0.065705977
-0.42167959 0.50611556 -0.1765146 38 0 -0.065685242
-0.9099068 1.0924915 0.024817321 52 8 -0.065682933
-0.41895339 0.50320047 -0.15116711 72 1 -0.065680631
-0.90841722 1.0914776 0.074421734 100 9 -0.065678328
-0.40565839 0.48740497 -0.12326261 59 2 -0.065676026
-0.8996411 1.0813166 0.12306391 100 10 -0.065673716
-0.90358442 1.0868276 0.17354195 100 11 -0.065669112
-0.86091441 1.0362399 0.21337664 70 12 -0.0656645
-0.87301195 1.0511743 0.26560614 90 13 -0.065659896
-0.61875576 0.74529469 -0.050765883 6 6 -0.065657593
-0.85997105 1.0362077 0.31088236 96 14 -0.065655284
-0.61925012 0.74642009 -0.016928835 98 7 -0.065652981
-0.85955894 1.036447 0.36079377 67 15 -0.065650679
-0.41991046 0.50758427 -0.1765146 19 0 -0.065629944
-0.90226477 1.0910378 0.024712607 35 8 -0.065627642
-0.4196775 0.50766385 -0.15206692 72 1 -0.065625332
-0.90969121 1.1008002 0.074840426 100 9 -0.06562303
-0.41646102 0.50395161 -0.12707879 56 2 -0.065620728
-0.89459175 1.0829146 0.12288959 100 10 -0.065618426
-0.90610415 1.0976293 0.17476064 100 11 -0.065613814
-0.86357683 1.0468581 0.21494098 65 12 -0.065609209
-0.86309242 1.0466418 0.26369804 100 13 -0.065604597
-0.60344613 0.7320388 -0.049719162 6 6 -0.065602295
-0.86626279 1.0512348 0.31448159 96 14 -0.065599993
-0.62554091 0.75938112 -0.017173167 100 7 -0.065597691
-0.85839164 1.0424241 0.36182904 66 15 -0.065595381
-0.43407664 0.52845353 -0.18324389 35 0 -0.065574646
-0.90479559 1.1019082 0.024887133 29 8 -0.065572344
-0.40182975 0.48954383 -0.14621818 90 1 -0.065570042
-0.90856981 1.1068985 0.075049765 100 9 -0.065567732
-0.42341661 0.51602644 -0.12975012 63 2 -0.06556543
-0.89838779 1.0952733 0.12393546 100 10 -0.065563127
-0.8984918 1.0961801 0.17402944 100 11 -0.065558515
-0.8663606 1.0573556 0.21650532 68 12 -0.065553911
-0.85943341 1.0496484 0.26369804 100 13 -0.065549307
-0.60974246 0.74495959 -0.050451867 1 6 -0.065546997
-0.86524075 1.0571175 0.31538138 90 14 -0.065544695
-0.6230191 0.76145154 -0.017173167 96 7 -0.065542392
-0.86471486 1.0572275 0.36597013 64 15 -0.06554009
-0.46041068 0.56431788 -0.19514956 30 0 -0.065519348
-0.90492845 1.1095514 0.024991846 50 8 -0.065517046
-0.40759268 0.49993587 -0.1489176 87 1 -0.065514743
-0.90363246 1.1083572 0.074945092 100 9 -0.065512441
-0.41178074 0.50525284 -0.12669718 66 2 -0.065510139
-0.89978433 1.1044253 0.12463271 100 10 -0.065507829
-0.89234537 1.0960745 0.17354195 100 11 -0.065503225
-0.8628493 1.060223 0.21650532 70 12 -0.065498613
-0.86461902 1.0631545 0.26636937 100 13 -0.065494008
-0.59718943 0.73457968 -0.049614493 2 6 -0.065491706
-0.85681301 1.0539327 0.31358176 100 14 -0.065489396
-0.62301308 0.76661694 -0.017242977 90 7 -0.065487094
-0.86364067 1.0630879 0.36700544 63 15 -0.065484792
-0.47191569 0.58235168 -0.20084359 28 0 -0.065464057
-0.90753734 1.1203156 0.02516637 56 8 -0.065461755
-0.40961155 0.5058282 -0.1502673 99 1 -0.065459445
-0.89473116 1.1052954 0.074526407 90 9 -0.065457143
-0.43224415 0.53415829 -0.13356631 60 2 -0.065454841
-0.9011305 1.1135981 0.12532996 100 10 -0.065452538
-0.89494634 1.1067457 0.17476064 100 11 -0.065447927
-0.85666031 1.0601554 0.21587959 70 12 -0.065443322
-0.86830276 1.0753311 0.26865909 93 13 -0.06543871
-0.85557717 1.0599498 0.31448159 100 14 -0.065434106
-0.61531013 0.7625621 -0.017103357 74 7 -0.065431796
-0.86962724 1.0781256 0.3711465 61 15 -0.065429494
-0.46856743 0.58257198 -0.20032595 28 0 -0.065408759
-0.90091932 1.1205173 0.025096562 23 8 -0.065406457
-0.41385907 0.51492071 -0.15251681 96 1 -0.065404154
-0.90068185 1.1210229 0.075363785 84 9 -0.065401845
-0.41553101 0.51737064 -0.1289869 63 2 -0.065399542
-0.8883096 1.1060194 0.12410977 100 10 -0.06539724
-0.90330935 1.1254996 0.17719805 100 11 -0.065392628
-0.85524088 1.0663699 0.21650532 76 12 -0.065388024
-0.87172246 1.0876979 0.2709488 93 13 -0.065383412
-0.8589974 1.0722034 0.31718099 86 14 -0.065378807
-0.61001122 0.76169044 -0.017033549 54 7 -0.065376505
-0.86325538 1.0782894 0.37011126 59 15 -0.065374196
-0.49053377 0.61448121 -0.21067871 24 0 -0.065353461
-0.90054846 1.1285006 0.025201276 9 8 -0.065351158
-0.41439939 0.51948106 -0.15341662 83 1 -0.065348856
-0.90423596 1.1335284 0.075991817 84 9 -0.065346554
-0.41861847 0.5249579 -0.13051336 63 2 -0.065344244
-0.89418513 1.1217318 0.12550427 100 10 -0.065341942
-0.89670414 1.1256976 0.17671056 100 11 -0.065337338
-0.85397404 1.0724396 0.21713105 78 12 -0.065332726
-0.86669773 1.0891981 0.27056718 83 13 -0.065328121
-0.86597717 1.0890726 0.32123011 82 14 -0.065323509
-0.6073485 0.76381528 -0.017033549 37 7 -0.065321207
-0.86429423 1.0873456 0.3721818 59 15 -0.065318905
-0.56278384 0.71005636 -0.24277227 10 0 -0.06529817
-0.9005273 1.1361824 0.025305988 54 8 -0.06529586
-0.39815229 0.50252318 -0.14801779 88 1 -0.065293558
-0.90523416 1.1429403 0.076410502 86 9 -0.065291256
-0.42409557 0.53565127 -0.13280307 60 2 -0.065288953
-0.8976832 1.1342196 0.12655014 100 10 -0.065286644
-0.89050317 1.1255513 0.17622308 100 11 -0.065282039
-0.86002642 1.0878105 0.21963401 78 12 -0.065277427
-0.85821193 1.0859048 0.2690407 70 13 -0.065272823
-0.86236107 1.0919381 0.32123011 80 14 -0.065268219
-0.60963511 0.77220863 -0.017173167 25 7 -0.065265909
-0.86647707 1.0979385 0.37476999 57 15 -0.065263607
-0.58551991 0.74379551 -0.25364268 9 0 -0.065242872
-0.89408278 1.1361759 0.02523618 48 8 -0.065240569
-0.40362468 0.51309991 -0.1507172 85 1 -0.06523826
-0.89506644 1.1382431 0.075887144 74 9 -0.065235958
-0.42474422 0.54014111 -0.13356631 60 2 -0.065233655
-0.89268547 1.1356242 0.12637582 100 10 -0.065231353
-0.88656896 1.1286527 0.17622308 100 11 -0.065226741
-0.86110252 1.0970216 0.22088549 78 12 -0.065222137
-0.85926419 1.0950719 0.27056718 64 13 -0.065217525
-0.8609488 1.0980089 0.32212991 76 14 -0.06521292
-0.61187047 0.78062719 -0.017312787 20 7 -0.065210618
-0.86978841 1.1100802 0.3778758 57 15 -0.065208308
-0.61979848 0.79302049 -0.26968947 6 0 -0.065187573
-0.85810143 1.0983196 0.024328655 12 8 -0.065185271
-0.40662929 0.52064896 -0.15251681 84 1 -0.065182969
-0.88985837 1.1397865 0.07578247 15 9 -0.065180667
-0.41319072 0.52924067 -0.13051336 63 2 -0.065178357
-0.89116782 1.1418744 0.12672445 100 10 -0.065176055
-0.88506514 1.1348714 0.17671056 100 11 -0.06517145
-0.85241109 1.093788 0.21963401 76 12 -0.065166838
-0.86146891 1.1058087 0.27247527 55 13 -0.065162234
-0.85711104 1.1010073 0.32212991 82 14 -0.065157622
-0.60422921 0.77644587 -0.017173167 18 7 -0.06515532
-0.87183934 1.1207334 0.38046399 61 15 -0.065153018
-0.63479143 0.81807286 -0.27745402 10 0 -0.065132283
-0.69615662 0.8974793 0.019825934 6 8 -0.065129973
-0.41078013 0.52976513 -0.15476632 93 1 -0.065127671
-0.89688623 1.157093 0.076724522 18 9 -0.065125369
-0.41134065 0.53067982 -0.13051336 63 2 -0.065123066
-0.8920579 1.1512777 0.12742169 100 10 -0.065120757
-0.87745208 1.1332455 0.17597936 100 11 -0.065116152
-0.84858817 1.0967567 0.21963401 76 12 -0.06511154
-0.86601114 1.1196798 0.27514657 14 13 -0.065106936
-0.86041313 1.1132437 0.32482934 75 14 -0.065102324
-0.58562136 0.75797904 -0.016719406 15 7 -0.065100022
-0.86319822 1.1176543 0.37839344 63 15 -0.065097719
-0.64136356 0.83252698 -0.28159514 12 0 -0.065076984
-0.83455145 1.0836872 0.023874892 12 8 -0.065074682
-0.41011703 0.53274012 -0.15521623 93 1 -0.065072373
-0.90015042 1.1697135 0.077352546 69 9 -0.06507007
-0.40948588 0.53211236 -0.13051336 63 2 -0.065067768
-0.87224084 1.1338555 0.12515564 61 10 -0.065065466
-0.89768761 1.1677778 0.18085413 100 11 -0.065060854
-0.84956771 1.1059785 0.22088549 68 12 -0.065056249
-0.84655374 1.1024531 0.27018553 1 13 -0.065051638
-0.85770798 1.1177865 0.32527924 83 14 -0.065047033
-0.58784032 0.76636523 -0.016859025 7 7 -0.065044731
-0.86164296 1.1237266 0.37942874 66 15 -0.065042421
-0.64681667 0.84538901 -0.2852186 14 0 -0.065002441
-0.87104332 1.1388649 0.02502675 66 8 -0.065000139
-0.40953183 0.53564525 -0.15566613 92 1 -0.064997837
-0.89747959 1.1742787 0.077457219 46 9 -0.064995527
-0.41248783 0.53970665 -0.13203983 61 2 -0.064993225
-0.88420081 1.1573231 0.12742169 19 10 -0.064990923
-0.88658297 1.1612811 0.1793917 100 11 -0.064986311
-0.47209379 0.61859077 -0.095545575 4 4 -0.064984009
-0.84949011 1.1135012 0.22182411 73 12 -0.064981706
-0.82860649 1.0865213 0.26560614 1 13 -0.064977095
-0.85754025 1.1252744 0.32662892 82 14 -0.06497249
-0.59014267 0.77467328 -0.016998643 3 7 -0.064970188
-0.857912 1.1265775 0.37942874 69 15 -0.064967878
-0.64955491 0.85544711 -0.28780681 16 0 -0.064947143
-0.85013223 1.1196023 0.024538083 84 8 -0.064944841
-0.40176868 0.52931023 -0.15341662 83 1 -0.064942539
-0.8994112 1.1853602 0.077980585 9 9 -0.064940237
-0.41999829 0.55372864 -0.13509277 58 2 -0.064937927
-0.89078665 1.174845 0.12899049 73 10 -0.064935625
-0.8801254 1.1612049 0.17890421 67 11 -0.06493102
-0.46993148 0.62023503 -0.095545575 4 4 -0.06492871
-0.85275382 1.125908 0.22370131 73 12 -0.064926408
-0.82461888 1.0895509 0.26560614 1 13 -0.064921804
-0.85340989 1.12841 0.32662892 78 14 -0.064917192
-0.59949744 0.79267764 -0.017347692 2 7 -0.06491489
-0.86795449 1.1480578 0.38564041 61 15 -0.064912587
-0.65819401 0.87313563 -0.29298317 11 0 -0.064891852
-0.61375803 0.81448418 0.017801456 22 8 -0.064889543
-0.39396331 0.52299666 -0.15116711 97 1 -0.064887241
-0.90368015 1.1996592 0.078713283 31 9 -0.064884938
-0.40979618 0.54421282 -0.13242145 70 2 -0.064882636
-0.89147341 1.1843144 0.12968774 100 10 -0.064880326
-0.86989737 1.1564907 0.17768551 16 11 -0.064875722
-0.83813429 1.114668 0.22088549 33 12 -0.06487111
-0.82081032 1.092423 0.26560614 1 13 -0.064866506
-0.84946603 1.131382 0.32662892 82 14 -0.064861901
-0.68557572 0.91310072 -0.01993065 2 7 -0.064859591
-0.87785721 1.1696216 0.39185205 53 15 -0.064857289
-0.6516698 0.8707875 -0.29143026 11 0 -0.064836554
-0.59907234 0.80050462 0.017452406 36 8 -0.064834252
-0.4074021 0.5445857 -0.15701583 78 1 -0.064831942
-0.90187949 1.2060051 0.078922629 71 9 -0.06482964
-0.40906939 0.54721254 -0.13280307 60 2 -0.064827338
-0.89091158 1.1922072 0.13021068 100 10 -0.064825036
-0.88862979 1.1895856 0.18231656 86 11 -0.064820424
-0.46558997 0.62350065 -0.095545575 4 4 -0.064818121
-0.84250945 1.1286681 0.22307558 13 12 -0.064815819
-0.48376486 0.64831102 -0.070770465 6 5 -0.064813517
-0.82657701 1.1077261 0.26865909 1 13 -0.064811207
-0.84687418 1.1357552 0.32707885 83 14 -0.064806603
-0.6847741 0.91869497 -0.020000458 2 7 -0.064804301
-0.88300335 1.1850716 0.39599317 62 15 -0.064801991
-0.64186424 0.86364084 -0.28832445 13 0 -0.064781256
-0.58792645 0.79135489 0.017208073 42 8 -0.064778954
-0.41363198 0.55695581 -0.16016515 87 1 -0.064776652
-0.90123564 1.2139571 0.079236642 92 9 -0.064774342
-0.41661477 0.56117672 -0.135856 57 2 -0.06477204
-0.88339138 1.1903551 0.12968774 100 10 -0.064769737
-0.89038396 1.200653 0.18353525 100 11 -0.064765133
-0.46341085 0.62512201 -0.095545575 4 4 -0.064762823
-0.84444529 1.1395373 0.22463992 41 12 -0.064760521
-0.48161212 0.64991182 -0.070770465 6 5 -0.064758219
-0.80400705 1.0853637 0.26255319 1 13 -0.064755917
-0.85102075 1.1496683 0.33022815 82 14 -0.064751305
-0.70059478 0.9467991 -0.020558937 2 7 -0.064749002
-0.88460577 1.1959121 0.39858136 68 15 -0.0647467
-0.6399923 0.86743075 -0.28884208 16 0 -0.064725958
-0.57803899 0.78374612 0.016998643 50 8 -0.064723656
-0.40474692 0.548985 -0.15746574 90 1 -0.064721353
-0.89699233 1.2170959 0.079236642 100 9 -0.064719051
-0.41465321 0.56262767 -0.135856 57 2 -0.064716749
-0.88395816 1.1998475 0.13038498 100 10 -0.064714439
-0.88618714 1.2037539 0.18353525 100 11 -0.064709835
-0.46122578 0.62673587 -0.095545575 4 4 -0.064707533
-0.85216832 1.1583898 0.22776861 70 12 -0.064705223
-0.82114905 1.1166333 0.26942232 1 13 -0.064700618
-0.85161853 1.1589131 0.33202776 80 14 -0.064696006
-0.89380372 1.2167666 -0.026353134 12 7 -0.064693704
-0.88728601 1.2083356 0.40168718 73 15 -0.064691402
-0.63696069 0.86965936 -0.28884208 24 0 -0.064670667
-0.58475006 0.79866707 0.017277883 33 8 -0.064668365
-0.40167701 0.54882205 -0.15701583 78 1 -0.064666055
-0.89273858 1.2202194 0.079236642 100 9 -0.064663753
-0.41268685 0.56407154 -0.135856 57 2 -0.064661451
-0.88799727 1.2141833 0.13160518 100 10 -0.064659148
-0.88080883 1.205237 0.18329151 100 11 -0.064654537
-0.84578919 1.158167 0.22714287 78 12 -0.064649932
-0.83345252 1.1416923 0.27476496 1 13 -0.06464532
-0.84182531 1.1540072 0.32977825 83 14 -0.064640716
-0.89544225 1.2279575 -0.026527658 21 7 -0.064638406
-0.8910287 1.2223531 0.40531066 77 15 -0.064636104
-0.63051313 0.86718976 -0.28728914 30 0 -0.064615369
-0.58431005 0.80393833 0.017347692 27 8 -0.064613067
-0.4054859 0.55810374 -0.15926534 99 1 -0.064610764
-0.88025832 1.2120159 0.078503944 86 9 -0.064608455
-0.40840808 0.56233156 -0.13509277 58 2 -0.064606152
-0.88492435 1.2188877 0.13177948 100 10 -0.06460385
-0.88359076 1.2179447 0.18475394 100 11 -0.064599238
-0.45683941 0.62994033 -0.095545575 4 4 -0.064596936
-0.83942223 1.1579139 0.22651713 70 12 -0.064594634
-0.83061439 1.1461841 0.27514657 1 13 -0.064590022
-0.84122062 1.1616741 0.33112797 80 14 -0.064585418
-0.88411528 1.2213565 -0.026318228 21 7 -0.064583115
-0.88675618 1.2254562 0.40531066 64 15 -0.064580813
-0.62182903 0.86155325 -0.28470096 30 0 -0.064560071
-0.59203064 0.82056803 0.017661836 25 8 -0.064557768
-0.41949445 0.5816434 -0.16556399 80 1 -0.064555466
-0.8666777 1.2021205 0.077666566 42 9 -0.064553164
-0.40414628 0.56056887 -0.13432954 59 2 -0.064550854
-0.87483948 1.2138878 0.13090792 84 10 -0.064548552
-0.88281381 1.2258545 0.18548515 100 11 -0.064543948
-0.83883703 1.165647 0.22745575 73 12 -0.064539336
-0.84036583 1.1682014 0.279726 1 13 -0.064534731
-0.84398538 1.1740972 0.33382738 73 14 -0.064530119
-0.87284482 1.2146919 -0.0261088 13 7 -0.064527817
-0.88021934 1.2254058 0.40427536 52 15 -0.064525515
-0.61769289 0.86214811 -0.28418332 40 0 -0.06450478
-0.57868332 0.807998 0.017347692 13 8 -0.06450247
-0.41405845 0.57835048 -0.16421427 92 1 -0.064500168
-0.60326862 0.84294724 0.054324731 22 9 -0.064497866
-0.41132778 0.57474828 -0.13738248 56 2 -0.064495564
-0.87407482 1.2217951 0.13143085 55 10 -0.064493254
-0.88545632 1.2386178 0.18694758 99 11 -0.064488649
-0.83017027 1.1621383 0.22620426 48 12 -0.064484045
-0.8385644 1.1743234 0.28048924 1 13 -0.064479433
-0.84440982 1.1833812 0.33562699 75 14 -0.064474829
-0.86743784 1.2161036 -0.026073895 1 7 -0.064472519
-0.87817985 1.2316166 0.40531066 59 15 -0.064470217
-0.60460275 0.85013032 -0.27952456 38 0 -0.064449482
-0.82381457 1.1587915 0.024817321 7 8 -0.064447179
-0.39510393 0.55596536 -0.15746574 100 1 -0.06444487
-0.59569556 0.83853513 0.053906042 32 9 -0.064442568
-0.40931886 0.5761807 -0.13738248 65 2 -0.064440265
-0.87672585 1.2345858 0.13247673 97 10 -0.064437963
-0.88457346 1.246558 0.1876788 33 11 -0.064433351
-0.83867705 1.1827544 0.22964582 29 12 -0.064428747
-0.82764846 1.1676331 0.27819952 1 13 -0.064424135
-0.84477901 1.1926827 0.3374266 73 14 -0.06441953
-0.88280356 1.2472895 0.40945172 72 15 -0.064414918
-0.60608834 0.8585484 -0.28159514 20 0 -0.064394183
-0.88202548 1.2498872 0.026702182 20 8 -0.064391881
-0.40102419 0.56848788 -0.16061506 96 1 -0.064389579
-0.58010405 0.82265449 0.052754648 31 9 -0.064387277
-0.41635653 0.59044158 -0.14043543 54 2 -0.064384967
-0.87700301 1.2441523 0.13317397 100 10 -0.064382665
-0.88136017 1.2512609 0.18792254 100 11 -0.06437806
-0.84591335 1.201828 0.23277451 62 12 -0.064373448
-0.83486515 1.1865714 0.28201571 1 13 -0.064368844
-0.84061092 1.1956241 0.3374266 75 14 -0.064364232
-0.89066064 1.2677516 0.41514575 95 15 -0.064359628
-0.613065 0.87489766 -0.28625387 20 0 -0.064338893
-0.8937192 1.2758884 0.027190849 24 8 -0.064336583
-0.41021472 0.5858475 -0.16511407 91 1 -0.064334281
-0.57164466 0.81639344 0.052231289 33 9 -0.064331979
-0.40303481 0.57580739 -0.13661924 66 2 -0.064329676
-0.87836605 1.2553682 0.13404553 100 10 -0.064327367
-0.87584931 1.2527031 0.1876788 100 11 -0.064322762
-0.44577587 0.63781732 -0.095545575 4 4 -0.06432046
-0.84531838 1.2094837 0.23371312 73 12 -0.06431815
-0.85095185 1.218451 0.28888482 1 13 -0.064313546
-0.83643198 1.1985513 0.3374266 71 14 -0.064308934
-0.683209 0.97899306 -0.020838173 2 7 -0.064306632
-0.88203019 1.2643605 0.41307521 100 15 -0.064304329
-0.59677047 0.85800087 -0.2800422 20 0 -0.064283594
-0.89176655 1.2821286 0.027260659 45 8 -0.064281292
-0.40938231 0.58880454 -0.16556399 80 1 -0.064278983
-0.57677072 0.8298642 0.052963994 15 9 -0.06427668
-0.40550324 0.58365995 -0.13814571 56 2 -0.064274378
-0.87284178 1.2567903 0.13387121 100 10 -0.064272076
-0.878483 1.2653842 0.18914123 100 11 -0.064267464
-0.47534806 0.68495595 -0.10237025 3 4 -0.064265162
-0.83433539 1.2026892 0.23183592 73 12 -0.06426286
-0.84019428 1.2115862 0.28659514 1 13 -0.064258248
-0.83911264 1.2109288 0.34012601 71 14 -0.064253643
-0.65929168 0.95178276 -0.020209888 9 7 -0.064251341
-0.87981111 1.2706081 0.41411048 100 15 -0.064249031
-0.6027047 0.87269175 -0.28418332 20 0 -0.064228296
-0.88274157 1.2786509 0.027121039 60 8 -0.064225994
-0.4084312 0.59183395 -0.16601388 90 1 -0.064223692
-0.76440465 1.108067 0.070548877 6 9 -0.064221382
-0.39910635 0.57853723 -0.13661924 66 2 -0.06421908
-0.8720628 1.2645984 0.13439415 100 10 -0.064216778
-0.87856627 1.2749813 0.1901162 100 11 -0.064212166
-0.48196301 0.69968927 -0.10432017 3 4 -0.064209864
-0.83461297 1.2121023 0.23308739 73 12 -0.064207561
-0.84486526 1.2274489 0.28964809 16 13 -0.064202957
-0.83598459 1.2154562 0.3405759 68 14 -0.064198345
-0.65709841 0.95572597 -0.020244792 9 7 -0.064196043
-0.87865287 1.278448 0.41566339 100 15 -0.06419374
-0.60074675 0.87638384 -0.28470096 22 0 -0.064172998
-0.8703602 1.2701776 0.026876707 22 8 -0.064170696
-0.40636295 0.59325594 -0.16601388 90 1 -0.064168394
-0.85644466 1.2508057 0.079445995 24 9 -0.064166091
-0.40373936 0.5896464 -0.13890895 55 2 -0.064163789
-0.87439501 1.2774998 0.13544002 100 10 -0.064161479
-0.87298948 1.276402 0.18987246 100 11 -0.064156875
-0.50864708 0.74397391 -0.11065737 2 4 -0.064154573
-0.83595002 1.2231625 0.23465173 76 12 -0.064152263
-0.83946764 1.2287697 0.28926644 58 13 -0.064147659
-0.84272432 1.2344614 0.34507492 72 14 -0.064143047
-0.64586782 0.94645172 -0.020000458 2 7 -0.064140745
-0.87853968 1.2878907 0.41773397 88 15 -0.064138442
-0.60203099 0.88486433 -0.28677151 28 0 -0.064117707
-0.87716705 1.2897429 0.027225753 2 8 -0.064115405
-0.39442903 0.58016652 -0.16196476 95 1 -0.064113095
-0.87901652 1.293433 0.081958115 62 9 -0.064110793
-0.41381738 0.60891348 -0.14310676 59 2 -0.064108491
-0.87440902 1.2871362 0.13613726 100 10 -0.064106189
-0.87075812 1.2827265 0.19035992 100 11 -0.064101577
-0.46814936 0.68989605 -0.10237025 3 4 -0.064099275
-0.8383289 1.2358814 0.23652895 70 12 -0.064096972
-0.84398752 1.2446922 0.29231939 66 13 -0.06409236
-0.83075869 1.2261025 0.34192562 70 14 -0.064087756
-0.66947341 0.98843682 -0.020838173 2 7 -0.064085446
-0.87078977 1.2861502 0.41618103 73 15 -0.064083144
-0.60326278 0.89336461 -0.28884208 24 0 -0.064062409
-0.8816098 1.3060567 0.027504994 22 8 -0.064060107
-0.40439135 0.59930921 -0.16691369 98 1 -0.064057805
-0.87226224 1.293182 0.081748769 80 9 -0.064055495
-0.40510219 0.60058874 -0.14081705 61 2 -0.064053193
-0.87659347 1.3000927 0.13718314 100 10 -0.064050891
-0.86738479 1.2874044 0.19060367 70 11 -0.064046279
-0.46352038 0.68823314 -0.10188278 3 4 -0.064043976
-0.83180314 1.2355232 0.23590319 76 12 -0.064041674
-0.53520304 0.7949667 -0.083843827 2 5 -0.064039372
-0.83963782 1.2476305 0.29231939 66 13 -0.064037062
