# .PCD v0.7 - Point Cloud Data file format
VERSION 0.7
FIELDS x y z intensity ring time
SIZE 4 4 4 4 2 4
TYPE F F F F U F
COUNT 1 1 1 1 1 1
WIDTH 952
HEIGHT 1
VIEWPOINT 0 0 0 1 0 0 0
POINTS 952
DATA ascii
2.3656297 -2.485024 -0.91932529 5 0 -0.095092468
2.9169559 -3.0652471 0.073858589 9 8 -0.095090166
2.6621239 -2.7984378 -0.89170599 2 1 -0.095087856
3.3169765 -3.4880414 0.25225934 8 9 -0.095085554
2.6273429 -2.7628417 -0.74110222 37 2 -0.095083252
3.3618186 -3.5364318 0.42688882 76 10 -0.095080949
2.6439562 -2.7822556 -0.60790437 48 3 -0.095078647
3.3441741 -3.5203309 0.59618485 82 11 -0.095076337
2.6477821 -2.7882302 -0.47212186 27 4 -0.095074035
3.0110617 -3.1718876 0.69269186 8 12 -0.095071733
2.6405663 -2.7816036 -0.33554959 35 5 -0.095069431
2.9379764 -3.0959811 0.82963753 49 13 -0.095067121
2.6419227 -2.7849789 -0.20117943 46 6 -0.095064819
2.9218879 -3.0811808 0.98033673 40 14 -0.095062517
2.5877666 -2.7297981 -0.065655954 36 7 -0.095060214
2.9313779 -3.0933495 1.1419097 31 15 -0.095057905
2.3476508 -2.4834392 -0.91570181 4 0 -0.09503717
2.9652972 -3.137907 0.075359493 11 8 -0.095034868
2.642972 -2.7977972 -0.88855666 1 1 -0.095032565
3.3239787 -3.5199277 0.25372472 22 9 -0.095030263
2.6271183 -2.7819874 -0.74377352 38 2 -0.095027953
3.3344092 -3.5322082 0.4249714 86 10 -0.095025651
2.6491413 -2.8072715 -0.61134595 23 3 -0.095023349
3.3250546 -3.5247629 0.59496623 87 11 -0.095021047
2.9240913 -3.1018853 0.6751712 39 12 -0.095016435
2.9190731 -3.0976453 0.82734787 51 13 -0.09501183
2.6458802 -2.808722 -0.20222615 23 6 -0.095009521
2.9057715 -3.0856867 0.97853714 42 14 -0.095007218
2.5672569 -2.7271664 -0.065376714 38 7 -0.095004916
2.8914356 -3.0726118 1.1305215 29 15 -0.095002614
2.3389678 -2.4916189 -0.91570181 4 0 -0.094981879
3.0159025 -3.2138572 0.076930203 1 8 -0.094979569
2.6585214 -2.8340096 -0.8971048 5 1 -0.094977267
3.1660774 -3.3750691 0.24252485 1 9 -0.094974965
3.3097956 -3.5307438 0.42340261 100 10 -0.094970353
2.6028562 -2.7775836 -0.60289848 1 3 -0.094968051
3.3032308 -3.5262065 0.59325999 91 11 -0.094965748
2.9056878 -3.1029134 0.67329407 45 12 -0.094961137
2.8894622 -3.0877466 0.82200515 48 13 -0.094956532
2.88221 -3.0810745 0.97403812 42 14 -0.09495192
2.5500042 -2.7269013 -0.065167286 38 7 -0.094949618
2.8746347 -3.0751274 1.1279335 31 15 -0.094947316
2.3280575 -2.4965358 -0.91466653 4 0 -0.094926581
2.9370515 -3.1507046 0.075184964 1 8 -0.094924279
2.6384804 -2.8314047 -0.89350557 3 1 -0.094921969
3.2923913 -3.5331292 0.25309673 19 9 -0.094919667
3.2763443 -3.5183704 0.42061362 100 10 -0.094915062
3.2658257 -3.5095301 0.58862901 84 11 -0.09491045
2.8846188 -3.1009617 0.67079103 37 12 -0.094905846
2.8685138 -3.0858083 0.81895226 45 13 -0.094901234
2.8640177 -3.0820498 0.97133869 47 14 -0.094896629
2.5273378 -2.7206914 -0.064818241 38 7 -0.094894327
2.8552194 -3.0747335 1.12431 31 15 -0.094892018
2.3263297 -2.5113282 -0.91725475 5 0 -0.094871283
2.8790338 -3.1090739 0.073963299 10 8 -0.09486898
3.269186 -3.5328724 0.25225934 45 9 -0.094864368
3.2578943 -3.521903 0.41974208 100 10 -0.094859764
3.224525 -3.4882712 0.58326674 74 11 -0.094855152
2.9099665 -3.1501894 0.6792385 30 12 -0.094850548
1.6290691 -1.7635518 -0.21004534 1 5 -0.094848245
2.8502734 -3.0866494 0.81666255 40 13 -0.094845943
2.8373828 -3.0748425 0.96593982 48 14 -0.094841331
2.5164692 -2.7280269 -0.064783335 23 7 -0.094839029
2.8339922 -3.0733199 1.1201688 31 15 -0.094836727
2.3175492 -2.5194335 -0.91725475 4 0 -0.094815984
2.8830526 -3.1352959 0.07434725 13 8 -0.094813682
3.2068329 -3.4898486 0.24838647 30 9 -0.094809078
3.1242757 -3.401197 0.40405402 33 10 -0.094804466
2.5532293 -2.7805092 -0.59789258 1 3 -0.094802164
3.0525851 -3.3254809 0.55426186 36 11 -0.094799861
3.0084484 -3.2796955 0.70489377 45 12 -0.094795249
2.8235595 -3.0792158 0.81208313 37 13 -0.094790645
2.8161001 -3.0732341 0.96234065 48 14 -0.094786033
2.815419 -3.0746448 1.117063 29 15 -0.094781429
2.2865918 -2.5032599 -0.9084549 3 0 -0.094760694
2.8977106 -3.1733975 0.075010449 39 8 -0.094758391
3.058661 -3.3520103 0.23781461 21 9 -0.094753779
3.0439069 -3.3370104 0.39516413 37 10 -0.094749175
2.5435078 -2.7894046 -0.59789258 1 3 -0.094746865
3.0369465 -3.3317151 0.55353063 39 11 -0.094744563
3.0235858 -3.3193839 0.71115112 55 12 -0.094739959
1.6164079 -1.775164 -0.21004534 1 5 -0.094737649
2.796932 -3.0716338 0.80750376 46 13 -0.094735347
2.7974861 -3.0743973 0.95964122 50 14 -0.094730742
2.7851751 -3.0630143 1.1092985 26 15 -0.09472613
2.2722106 -2.5058992 -0.90638429 3 0 -0.094705395
2.8893018 -3.1864562 0.075080253 65 8 -0.094703093
3.0429184 -3.3582265 0.23750059 40 9 -0.094698481
3.0169449 -3.3318985 0.39324668 56 10 -0.094693877
3.0252981 -3.3422959 0.55353063 45 11 -0.094689265
3.014631 -3.3328483 0.71177691 55 12 -0.09468466
1.6102016 -1.7807955 -0.21004534 1 5 -0.094682358
2.7764401 -3.0716691 0.8048324 54 13 -0.094680049
2.7770555 -3.074507 0.95649189 52 14 -0.094675444
1.6031066 -1.7748159 -0.041746158 1 7 -0.094673142
2.770582 -3.0684161 1.1077455 28 15 -0.094670832
2.2686203 -2.5195584 -0.9084549 5 0 -0.094650097
2.8776038 -3.1970243 0.075080253 43 8 -0.094647795
3.0359318 -3.3752964 0.23791927 39 9 -0.094643191
3.0119572 -3.3498168 0.39411828 56 10 -0.094638579
3.0063939 -3.3459783 0.5523119 58 11 -0.094633974
3.0050349 -3.3468149 0.71240264 55 12 -0.094629362
1.6039758 -1.7864051 -0.21004534 1 5 -0.09462706
2.7552097 -3.0696535 0.80177945 54 13 -0.094624758
2.7598004 -3.0769281 0.95424235 45 14 -0.094620146
1.5298437 -1.7062364 -0.040000916 1 7 -0.094617844
2.7477124 -3.065603 1.1030868 31 15 -0.094615541
2.2688251 -2.5375428 -0.91207838 5 0 -0.094594806
2.8570983 -3.1966131 0.074835919 30 8 -0.094592497
3.0121577 -3.3724673 0.23697723 53 9 -0.094587892
2.5240662 -2.8259912 -0.73652273 1 2 -0.09458559
3.0015726 -3.3617961 0.39429256 69 10 -0.09458328
2.985445 -3.3460836 0.55060571 61 11 -0.094578676
2.997278 -3.3617072 0.7133413 61 12 -0.094574064
1.5977303 -1.7919931 -0.21004534 1 5 -0.094571762
2.7327216 -3.0660615 0.79834485 34 13 -0.09456946
1.557163 -1.7477214 -0.12267549 1 6 -0.094567157
2.72701 -3.0618041 0.94659406 29 14 -0.094564855
1.5079216 -1.693644 -0.039582059 1 7 -0.094562545
2.7292881 -3.0665169 1.099981 33 15 -0.094560243
2.2638013 -2.5497808 -0.91363126 4 0 -0.094539508
2.8153925 -3.1721678 0.074033104 13 8 -0.094537206
2.5141864 -2.8347845 -0.73652273 1 2 -0.094530292
2.9884975 -3.3707623 0.39411828 76 10 -0.09452799
2.980329 -3.3639138 0.55182445 73 11 -0.094523378
2.9795649 -3.364234 0.71177691 63 12 -0.094518773
1.5914652 -1.7975595 -0.21004534 1 5 -0.094516471
2.7141957 -3.0667613 0.7960552 18 13 -0.094514161
1.617224 -1.8279392 -0.12790908 1 6 -0.094511859
2.7046862 -3.0581667 0.94254488 32 14 -0.094509557
1.5181944 -1.7166102 -0.040000916 1 7 -0.094507255
2.7114272 -3.0668674 1.0968752 33 15 -0.094504945
2.2433891 -2.5446253 -0.9089725 4 0 -0.09448421
2.7598956 -3.130487 0.072846346 13 8 -0.094481908
2.9561253 -3.3554261 0.23436043 9 9 -0.094477303
2.9753962 -3.379678 0.39394394 82 10 -0.094472691
2.9757147 -3.3812292 0.55304313 72 11 -0.094468087
2.9664986 -3.3731308 0.71146405 67 12 -0.094463475
1.5851808 -1.8031038 -0.21004534 1 5 -0.094461173
2.6975296 -3.0683727 0.79414707 40 13 -0.094458871
2.6880994 -3.0597992 0.94029546 35 14 -0.094454259
1.4963585 -1.7038687 -0.039582059 1 7 -0.094451956
2.6815875 -3.0545366 1.0891106 33 15 -0.094449654
2.2400296 -2.557864 -0.91104311 4 0 -0.094428919
2.7831976 -3.1792214 0.073753871 18 8 -0.09442661
2.9726036 -3.3967731 0.23655853 17 9 -0.094422005
2.9615495 -3.3865271 0.39359534 82 10 -0.094417393
2.9691186 -3.3975744 0.55401808 72 11 -0.094412789
2.9539969 -3.3814616 0.71115112 71 12 -0.094408177
1.5791929 -1.8083504 -0.21004534 1 5 -0.094405875
2.6726005 -3.061501 0.7899493 37 13 -0.094403572
2.6671538 -3.0574155 0.93669617 35 14 -0.09439896
1.4907001 -1.7088214 -0.039582059 1 7 -0.094396658
2.6600161 -3.0503082 1.0844518 31 15 -0.094394356
2.2310874 -2.5656676 -0.91104311 4 0 -0.094373621
2.7634552 -3.1778708 0.073509537 18 8 -0.094371319
2.9672785 -3.4146669 0.2370819 71 9 -0.094366707
2.9510167 -3.3983483 0.39376962 84 10 -0.094362102
2.9422204 -3.3894134 0.55109322 72 11 -0.094357491
2.9447644 -3.394737 0.71177691 71 12 -0.094352886
1.4919431 -1.7205249 -0.19923802 1 5 -0.094350576
2.6482852 -3.0540309 0.78575146 34 13 -0.094348274
1.5332267 -1.7687572 -0.12267549 1 6 -0.094345972
2.6467907 -3.0544617 0.933097 34 14 -0.09434367
1.4847261 -1.7140146 -0.039582059 1 7 -0.094341367
2.6405001 -3.0493517 1.0808283 33 15 -0.094339058
2.2158053 -2.5661292 -0.9084549 5 0 -0.094317436
2.7478688 -3.1834369 0.073404826 18 8 -0.094315134
2.9351754 -3.4028337 0.23551181 68 9 -0.094310522
2.9391363 -3.4086287 0.39376962 84 10 -0.094305918
2.9245946 -3.3941593 0.55011827 75 11 -0.094301306
1.5429716 -1.7913386 -0.2902928 1 4 -0.094299003
2.9374576 -3.4114947 0.71302837 82 12 -0.094296701
1.5015286 -1.7438402 -0.20132977 1 5 -0.094294399
2.6255469 -3.0503254 0.78231698 33 13 -0.094292089
2.6241407 -3.0508449 0.92904782 32 14 -0.094287485
1.4680042 -1.7073148 -0.039302818 1 7 -0.094285183
2.6217504 -3.0502191 1.0777225 35 15 -0.094282873
2.2156363 -2.5841143 -0.91207838 5 0 -0.094262138
2.7354381 -3.1914904 0.073369913 18 8 -0.094259836
2.9193821 -3.4085085 0.23519783 78 9 -0.094255231
2.9362907 -3.4294617 0.39498982 82 10 -0.094250619
1.5580704 -1.8204025 -0.37951005 1 3 -0.094248317
2.9230533 -3.416414 0.55206817 72 11 -0.094246015
1.5367092 -1.7967137 -0.2902928 1 4 -0.094243705
2.9191132 -3.4142208 0.71146405 82 12 -0.094241403
1.5057905 -1.7611858 -0.20272426 1 5 -0.094239101
2.6136074 -3.0579791 0.78193527 33 13 -0.094236799
1.5205307 -1.7796835 -0.12267549 1 6 -0.094234489
2.5982883 -3.0422046 0.92364907 34 14 -0.094232187
1.4542449 -1.7033037 -0.03909339 1 7 -0.094229884
2.602308 -3.0490661 1.0740991 33 15 -0.094227582
2.1928267 -2.5756519 -0.90638429 4 0 -0.094206847
2.713913 -3.1888366 0.07309068 13 8 -0.094204538
2.9307568 -3.4460638 0.2370819 100 9 -0.094199933
2.9113967 -3.4245105 0.39324668 86 10 -0.094195321
1.5517067 -1.82583 -0.37951005 1 3 -0.094193019
2.9188213 -3.4356732 0.55353063 72 11 -0.094190717
2.9046206 -3.4213779 0.71083826 63 12 -0.094186105
1.4893178 -1.7542804 -0.20132977 1 5 -0.094183803
2.6003771 -3.0640905 0.7811721 33 13 -0.0941815
1.4497056 -1.7088294 -0.1174419 1 6 -0.094179198
2.5800905 -3.0423386 0.92094964 32 14 -0.094176896
1.4301867 -1.6870152 -0.038604725 1 7 -0.094174586
2.5791595 -3.0433931 1.0689226 33 15 -0.094172284
2.1763399 -2.5744386 -0.90327853 4 0 -0.094151549
2.6911485 -3.1845443 0.072776534 19 8 -0.094149247
2.9096894 -3.4455914 0.23634921 91 9 -0.094144635
1.4959421 -1.7714624 -0.4506909 1 2 -0.094142333
2.8981402 -3.43313 0.3930724 75 10 -0.09414003
1.5453237 -1.8312354 -0.37951005 1 3 -0.094137721
2.901691 -3.4397719 0.55255568 63 11 -0.094135419
2.8977528 -3.4375372 0.71208972 70 12 -0.094130814
1.5473924 -1.8356357 -0.21004534 1 5 -0.094128512
2.5681586 -3.0476265 0.77468461 33 13 -0.094126202
2.5694554 -3.051326 0.92094964 30 14 -0.094121598
1.4758008 -1.7531904 -0.040000916 1 7 -0.094119295
2.5523503 -3.0331616 1.0621934 31 15 -0.094116986
2.1772764 -2.593857 -0.90741962 4 0 -0.094096251
2.6735895 -3.1862597 0.072602011 28 8 -0.094093949
2.3832514 -2.8412557 -0.85616374 1 1 -0.094091646
2.8989279 -3.457258 0.23645388 86 9 -0.094089337
1.5275925 -1.821805 -0.46213943 1 2 -0.094087034
2.8912578 -3.4493332 0.39376962 84 10 -0.094084732
2.8896663 -3.4498796 0.55255568 93 11 -0.094080128
2.8958793 -3.4597499 0.71459275 100 12 -0.094075516
1.4770344 -1.764635 -0.20132977 1 5 -0.094073214
2.5486856 -3.0460324 0.77201319 33 13 -0.094070911
1.4710569 -1.7587404 -0.12016336 1 6 -0.094068602
2.5450382 -3.0438311 0.91600066 34 14 -0.094066299
1.4363284 -1.718439 -0.03909339 1 7 -0.094063997
2.5343151 -3.0331576 1.0590875 29 15 -0.094061695
2.1682086 -2.6014416 -0.90741962 3 0 -0.094040953
2.6611707 -3.1940365 0.072567105 22 8 -0.09403865
2.3383992 -2.8076298 -0.84356648 1 1 -0.094036348
2.8587275 -3.4335876 0.23415108 47 9 -0.094034046
1.5136868 -1.8180733 -0.45984969 1 2 -0.094031744
2.8855724 -3.4670615 0.39464122 95 10 -0.094029434
2.8801451 -3.4629979 0.55304313 93 11 -0.09402483
2.879997 -3.4652798 0.7136541 86 12 -0.094020218
1.4377552 -1.7299409 -0.19679767 1 5 -0.094017915
2.5305102 -3.0458503 0.76972359 33 13 -0.094015613
1.4317317 -1.7239166 -0.1174419 1 6 -0.094013311
2.5231948 -3.0392025 0.9119516 34 14 -0.094011001
1.4354297 -1.7295973 -0.03923301 2 7 -0.094008699
2.5187781 -3.0360384 1.057017 35 15 -0.094006397
2.1628096 -2.6134591 -0.9089725 4 0 -0.093985662
2.6423578 -3.1940615 0.072357684 19 8 -0.09398336
2.3285844 -2.8157754 -0.84356648 10 1 -0.09398105
2.7824113 -3.3645527 0.22881283 49 9 -0.093978748
1.5398546 -1.8626879 -0.46977177 1 2 -0.093976445
2.8734527 -3.477113 0.39464122 86 10 -0.093974143
2.8579273 -3.4607854 0.55109322 96 11 -0.093969531
1.4596233 -1.7681483 -0.28151822 1 4 -0.093967229
2.8521414 -3.4550071 0.7095868 82 12 -0.093964927
1.4291719 -1.7318754 -0.19644904 1 5 -0.093962617
2.5173638 -3.0516355 0.7689603 33 13 -0.093960315
1.410457 -1.7104127 -0.11618583 1 6 -0.093958013
2.4952166 -3.0269396 0.90565288 40 14 -0.093955711
1.4067909 -1.7065737 -0.038604725 2 7 -0.093953401
2.5025539 -3.0369198 1.0544289 33 15 -0.093951099
2.1475415 -2.6135297 -0.90638429 5 0 -0.093930364
2.6266727 -3.1966259 0.072218053 13 8 -0.093928061
2.3192341 -2.8234818 -0.84356648 28 1 -0.093925759
2.8074062 -3.4190087 0.23184831 56 9 -0.09392345
2.3106027 -2.8149767 -0.70790142 1 2 -0.093921147
2.8499236 -3.4732594 0.3930724 90 10 -0.093918845
1.4798316 -1.8035007 -0.36949828 1 3 -0.093916543
2.8275514 -3.447221 0.54743713 63 11 -0.093914233
1.4990637 -1.8282405 -0.2902928 1 4 -0.093911931
2.8212805 -3.4420257 0.70489377 86 12 -0.093909629
1.4104903 -1.7214423 -0.19470593 1 5 -0.093907326
2.4997649 -3.0508549 0.76667058 34 13 -0.093905017
1.4199642 -1.7336222 -0.1174419 1 6 -0.093902715
2.4814615 -3.030674 0.90430319 37 14 -0.093900412
1.4008251 -1.7114741 -0.038604725 1 7 -0.09389811
2.4760342 -3.0262001 1.0476996 33 15 -0.093895808
2.1486349 -2.6326098 -0.91052544 5 0 -0.093875065
2.595273 -3.180985 0.071659587 13 8 -0.093872763
2.3081324 -2.83005 -0.84311652 29 1 -0.093870461
2.8452833 -3.4886622 0.23593052 81 9 -0.093868159
2.2838871 -2.8013201 -0.70255876 3 2 -0.093865849
2.825803 -3.467247 0.39132929 84 10 -0.093863547
1.4610502 -1.7933406 -0.36636955 1 3 -0.093861245
2.7966976 -3.4339821 0.5437811 48 11 -0.093858942
1.4199817 -1.7441747 -0.27615595 1 4 -0.093856633
2.7986267 -3.4375753 0.70207798 82 12 -0.09385433
1.4148349 -1.7384727 -0.19610041 1 5 -0.093852028
2.4767103 -3.044333 0.7628544 27 13 -0.093849726
1.398782 -1.7199738 -0.11618583 1 6 -0.093847424
2.4634919 -3.0302451 0.90160388 37 14 -0.093845114
1.3825278 -1.7005935 -0.038255677 3 7 -0.093842812
2.4586751 -3.025399 1.0445937 35 15 -0.09384051
2.1467302 -2.6490996 -0.91363126 5 0 -0.093819775
2.3694222 -2.9239051 0.06569086 1 8 -0.093817465
2.2827888 -2.8180032 -0.83726782 30 1 -0.093815163
2.8230329 -3.4861553 0.23509313 78 9 -0.093812861
2.807416 -3.4693453 0.39045769 89 10 -0.093808249
1.4451542 -1.7858911 -0.36386663 1 3 -0.093805946
2.7902887 -3.4494107 0.544756 57 11 -0.093803644
1.4541318 -1.7982686 -0.2839556 1 4 -0.093801342
2.7766755 -3.4350333 0.69957501 78 12 -0.09379904
1.4162712 -1.7526989 -0.19714628 1 5 -0.09379673
2.4579639 -3.0418403 0.7601831 28 13 -0.093794428
1.3855406 -1.7152808 -0.1155578 1 6 -0.093792126
2.4509811 -3.0353651 0.90070403 37 14 -0.093789823
1.3916553 -1.7240814 -0.038674533 4 7 -0.093787514
2.4383943 -3.021935 1.0404526 35 15 -0.093785211
2.1330886 -2.6501842 -0.91156071 5 0 -0.093764476
2.5509961 -3.1705322 0.071031295 13 8 -0.093762174
2.2668312 -2.818362 -0.83501828 29 1 -0.093759865
2.7895718 -3.4695272 0.23331371 76 9 -0.093757562
2.7859108 -3.4662127 0.38906324 89 10 -0.093752958
1.4166412 -1.7632062 -0.35823497 1 3 -0.093750656
2.7682862 -3.4467478 0.54280609 57 11 -0.093748346
1.4031055 -1.7476082 -0.275181 1 4 -0.093746044
2.7597222 -3.4385426 0.69832355 78 12 -0.093743742
1.3951828 -1.7389834 -0.19505455 1 5 -0.093741439
2.4436452 -3.0458076 0.75903821 26 13 -0.09373913
1.3795449 -1.7201067 -0.1155578 2 6 -0.093736827
2.4245241 -3.0241365 0.89485526 36 14 -0.093734525
1.3806266 -1.7226871 -0.038534917 5 7 -0.093732223
2.4229994 -3.0243979 1.0383821 35 15 -0.093729913
2.1209493 -2.6549656 -0.91052544 5 0 -0.093709178
2.2753131 -2.8481956 0.063631475 4 8 -0.093706876
2.762491 -3.4605124 0.23205765 73 9 -0.093702272
2.765733 -3.4670548 0.38801736 85 10 -0.09369766
1.4249482 -1.78692 -0.36198941 1 3 -0.093695357
2.7450993 -3.4424214 0.54061246 43 11 -0.093693055
1.4019462 -1.7587043 -0.27615595 1 4 -0.093690746
2.7280061 -3.4234371 0.69331765 78 12 -0.093688443
1.401518 -1.7594268 -0.19679767 1 5 -0.093686141
2.4263508 -3.0470643 0.75713015 28 13 -0.093683839
1.3732309 -1.7251515 -0.1155578 2 6 -0.093681529
2.4037166 -3.0208035 0.89125609 36 14 -0.093679227
1.3708692 -1.7228014 -0.038430199 11 7 -0.093676925
2.4112251 -3.0313253 1.0378644 36 15 -0.093674622
2.1032653 -2.651758 -0.90690196 5 0 -0.093653888
2.2561619 -2.8455474 0.063387141 9 8 -0.093651578
2.7491543 -3.4685693 0.23195298 78 9 -0.093646973
2.7400064 -3.4595077 0.38609993 84 10 -0.093642361
1.4039878 -1.7732983 -0.35823497 1 3 -0.093640059
2.7090566 -3.4228852 0.53598142 22 11 -0.093637757
1.3807107 -1.7451496 -0.27323109 1 4 -0.093635455
2.7062345 -3.4205456 0.69081473 77 12 -0.093633145
1.3953679 -1.7643083 -0.19679767 2 5 -0.093630843
2.4132643 -3.0524352 0.75636691 28 13 -0.093628541
1.3647238 -1.7268003 -0.11534845 2 6 -0.093626238
2.3859093 -3.0200009 0.88855666 36 14 -0.093623929
1.3561697 -1.7165926 -0.038185868 6 7 -0.093621626
2.3838665 -3.0184982 1.0306175 34 15 -0.093619324
2.089215 -2.6530125 -0.90483141 6 0 -0.093598589
2.2380533 -2.8420162 0.063142806 9 8 -0.093596287
2.725914 -3.4640183 0.23101093 69 9 -0.093591675
2.713135 -3.4502573 0.3840082 84 10 -0.093587071
1.3956574 -1.7748388 -0.35760921 1 3 -0.093584761
2.6976912 -3.4318497 0.53598142 36 11 -0.093582459
1.3675569 -1.7403535 -0.27176866 1 4 -0.093580157
2.6881766 -3.4222038 0.68925035 74 12 -0.093577854
1.3596694 -1.7315598 -0.19261418 1 5 -0.093575545
2.3885794 -3.0418923 0.75178748 27 13 -0.093573242
1.3836542 -1.762738 -0.1174419 1 6 -0.09357094
2.3698666 -3.0202308 0.88630718 34 14 -0.093568638
1.3551061 -1.7276096 -0.038325485 6 7 -0.093566336
2.3637793 -3.0146394 1.0264764 34 15 -0.093564026
2.0756454 -2.6538393 -0.90276086 6 0 -0.093543291
2.2121072 -2.8293319 0.062689044 15 8 -0.093540989
2.7051983 -3.4624956 0.23027822 66 9 -0.093536377
2.6930943 -3.4482436 0.382788 89 10 -0.093531772
1.3943162 -1.785928 -0.3588607 1 3 -0.09352947
2.6856952 -3.4412456 0.53598142 79 11 -0.093527161
1.3858948 -1.776419 -0.27664346 1 4 -0.093524858
2.6749997 -3.4300086 0.68893749 77 12 -0.093522556
1.3661726 -1.7517699 -0.19435729 1 5 -0.093520254
2.3670828 -3.0362761 0.74835294 26 13 -0.093517952
1.3725817 -1.7612555 -0.11702321 2 6 -0.093515642
2.3545191 -3.0223353 0.88450754 34 14 -0.09351334
1.350296 -1.7339071 -0.038360391 6 7 -0.093511038
2.3532417 -3.022872 1.0264764 35 15 -0.093508735
2.0734782 -2.6702237 -0.90586674 4 0 -0.093487993
2.1948602 -2.8275583 0.062479615 11 8 -0.093485691
2.6771817 -3.4514015 0.22891749 61 9 -0.093481086
2.6773784 -3.4528999 0.38226506 84 10 -0.093476474
1.4679453 -1.8938282 -0.37951005 1 3 -0.093474172
2.6566451 -3.4286311 0.53256911 87 11 -0.09347187
1.3796854 -1.7812461 -0.27664346 1 4 -0.093469568
2.6521258 -3.4252682 0.68612164 74 12 -0.093467258
1.362489 -1.759679 -0.19470593 1 5 -0.093464956
2.3528647 -3.0398626 0.74720806 22 13 -0.093462653
1.3407589 -1.7328634 -0.11482509 3 6 -0.093460351
2.3284554 -3.0104969 0.87865883 36 14 -0.093458042
1.3564668 -1.7544298 -0.038709439 6 7 -0.093455739
2.3284993 -3.0127258 1.0202647 34 15 -0.093453437
2.1861978 -2.8367865 0.062514521 12 8 -0.0934304
2.6568015 -3.4511731 0.38104489 85 10 -0.093421184
1.4613256 -1.8989407 -0.37951005 1 3 -0.093418874
2.6349773 -3.4252965 0.53061914 78 11 -0.093416572
1.3419968 -1.7451372 -0.27030623 1 4 -0.093414269
2.6293185 -3.4204097 0.6833058 78 12 -0.093411967
1.3502671 -1.7565262 -0.19383438 2 5 -0.093409657
2.3422391 -3.0480571 0.74720806 23 13 -0.093407355
1.334702 -1.7375331 -0.11482509 3 6 -0.093405053
2.3096244 -3.007787 0.8755095 33 14 -0.093402751
1.3320702 -1.7353603 -0.038185868 6 7 -0.093400441
2.3132646 -3.0147049 1.0181942 34 15 -0.093398139
1.5181934 -1.983561 -0.6693061 1 0 -0.093377404
2.1799273 -2.849165 0.062619232 8 8 -0.093375102
2.4953201 -3.2637429 0.21531016 9 9 -0.09337049
1.4178032 -1.8544093 -0.45374379 1 2 -0.093368188
2.6278007 -3.4382644 0.37860456 80 10 -0.093365885
1.4546882 -1.9040302 -0.37951005 1 3 -0.093363583
2.6230049 -3.4344733 0.53061914 72 11 -0.093361273
1.3527613 -1.7719005 -0.27371857 1 4 -0.093358971
2.6101725 -3.4201455 0.68142867 78 12 -0.093356669
1.3513798 -1.7707317 -0.19488023 2 5 -0.093354367
2.3232496 -3.0452883 0.74453676 33 13 -0.093352057
1.345585 -1.7644154 -0.11629051 5 6 -0.093349755
2.2943857 -3.0096319 0.87370992 33 14 -0.093347453
1.3260045 -1.7399997 -0.038185868 6 7 -0.09334515
2.2863376 -3.0012469 1.0109472 34 15 -0.093342841
1.5206108 -2.0011542 -0.67344719 1 0 -0.093322106
2.1784356 -2.8679037 0.062863566 8 8 -0.093319803
1.5850524 -2.0874724 -0.60511833 1 1 -0.093317501
2.4597614 -3.2406158 0.21321672 10 9 -0.093315199
1.4160695 -1.8656025 -0.45527029 2 2 -0.093312889
2.6025352 -3.4299562 0.37668711 78 10 -0.093310587
1.4468392 -1.9075227 -0.37919718 1 3 -0.093308285
2.5918105 -3.418299 0.52671933 39 11 -0.093305983
1.3513644 -1.78294 -0.27469352 1 4 -0.093303673
2.5874817 -3.4150655 0.67861283 86 12 -0.093301371
1.3379713 -1.76591 -0.19383438 3 5 -0.093299069
2.2983813 -3.0345991 0.73995733 30 13 -0.093296766
1.3442401 -1.775471 -0.11670919 4 6 -0.093294457
2.2756341 -3.0067451 0.87056059 31 14 -0.093292154
1.3199227 -1.7446176 -0.038185868 6 7 -0.093289852
2.2688558 -2.9999645 1.0078415 34 15 -0.09328755
1.5112891 -2.003365 -0.67241186 1 0 -0.093266815
2.2009199 -2.9185989 0.063805997 1 8 -0.093264505
1.5003346 -1.9902883 -0.57542479 1 1 -0.093262203
2.3859315 -3.1662381 0.20777377 1 9 -0.093259901
1.506433 -1.9991041 -0.48656297 1 2 -0.093257599
2.5905466 -3.4390199 0.37668711 84 10 -0.093255289
1.440172 -1.9125614 -0.37919718 1 3 -0.093252987
2.5380788 -3.3718159 0.51818854 19 11 -0.093250684
1.335584 -1.7749567 -0.27274361 1 4 -0.093248382
2.5696077 -3.4161835 0.67704844 82 12 -0.093246073
1.3401825 -1.7817153 -0.19505455 3 5 -0.09324377
2.2818756 -3.0347576 0.73804927 30 13 -0.093241468
1.328434 -1.76738 -0.11587181 3 6 -0.093239166
2.2616127 -3.0099962 0.86921084 33 14 -0.093236864
1.3198295 -1.7572091 -0.038360391 6 7 -0.093234554
2.2548902 -3.0032315 1.0062885 32 15 -0.093232252
1.4950227 -1.9962579 -0.66827077 3 0 -0.093211517
2.1955123 -2.932667 0.063945621 1 8 -0.093209215
1.4863722 -1.9861519 -0.57272536 3 1 -0.093206905
2.3617043 -3.156955 0.20662238 19 9 -0.093204603
1.4829812 -1.9823418 -0.4812203 1 2 -0.0932023
2.5713675 -3.4384687 0.37564126 84 10 -0.093199998
1.4334872 -1.9175768 -0.37919718 1 3 -0.093197688
2.4965863 -3.3409011 0.51209503 13 11 -0.093195386
1.3341321 -1.7859693 -0.27371857 1 4 -0.093193084
2.5517578 -3.4172182 0.67548412 83 12 -0.093190782
1.3327628 -1.7847859 -0.19488023 3 5 -0.09318848
2.2583497 -3.0253983 0.73385143 33 13 -0.09318617
1.3210623 -1.7704059 -0.11576715 2 6 -0.093183868
2.2359452 -2.997566 0.86336219 36 14 -0.093181565
1.3124924 -1.7602021 -0.038325485 6 7 -0.093179263
2.2351568 -2.998693 1.0021474 32 15 -0.093176953
1.4915032 -2.0061154 -0.66982371 3 0 -0.093156219
2.1828763 -2.9371026 0.063875809 11 8 -0.093153916
1.4980248 -2.0163567 -0.57992381 1 1 -0.093151614
2.3435252 -3.1555591 0.20599434 34 9 -0.093149312
1.4994632 -2.0190287 -0.48885265 1 2 -0.093147002
2.553411 -3.4394248 0.37476969 85 10 -0.0931447
1.410304 -1.9003612 -0.37481701 1 3 -0.093142398
2.4789953 -3.3416243 0.51087636 30 11 -0.093140095
1.3278898 -1.7906153 -0.27371857 1 4 -0.093137786
2.5221684 -3.4023013 0.67079103 82 12 -0.093135484
1.3217788 -1.7830251 -0.19418299 2 5 -0.093133181
2.2477753 -3.033263 0.73385143 31 13 -0.093130879
1.3089302 -1.7669817 -0.11524379 4 6 -0.093128569
2.2231486 -3.0022204 0.86246234 36 14 -0.093126267
1.3027709 -1.7599511 -0.038220771 8 7 -0.093123965
2.2223775 -3.003371 1.0011121 32 15 -0.093121663
1.4810497 -2.0066464 -0.66827077 1 0 -0.093100928
2.2034781 -2.986542 0.064783335 1 8 -0.093098618
1.5094845 -2.0466669 -0.58712226 1 1 -0.093096316
2.3289402 -3.1588976 0.20568034 36 9 -0.093094014
2.5295694 -3.4322784 0.37302658 89 10 -0.093089402
1.3825716 -1.8766458 -0.36918539 1 3 -0.093087099
2.4637849 -3.3454621 0.51014513 43 11 -0.093084797
1.3310462 -1.8080283 -0.27566847 1 4 -0.093082495
2.4973977 -3.3935838 0.66734952 86 12 -0.093080185
1.3202704 -1.7940468 -0.19488023 3 5 -0.093077883
2.2325201 -3.0347652 0.73232496 33 13 -0.093075581
1.3145868 -1.7876303 -0.11629051 4 6 -0.093073279
2.2034214 -2.997401 0.85886312 36 14 -0.093070969
1.291883 -1.7580423 -0.038081151 8 7 -0.093068667
2.1947255 -2.9877563 0.99334759 34 15 -0.093066365
1.4808869 -2.0211542 -0.67137665 1 0 -0.09304563
2.1930399 -2.994215 0.064783335 1 8 -0.093043327
1.490819 -2.0361998 -0.58262324 1 1 -0.093041018
2.3084626 -3.154114 0.20484295 33 9 -0.093038715
2.5081618 -3.4282231 0.3716321 89 10 -0.093034111
1.3783448 -1.884649 -0.36981112 1 3 -0.093031801
2.456778 -3.3604517 0.51112008 9 11 -0.093029499
1.3200419 -1.8062531 -0.27469352 1 4 -0.093027197
2.4808755 -3.3959002 0.66609806 79 12 -0.093024895
1.3151753 -1.8002533 -0.19505455 3 5 -0.093022585
2.2045455 -3.0187571 0.72660065 34 13 -0.093020283
1.3083386 -1.7922082 -0.11629051 4 6 -0.09301798
2.1860526 -2.9956293 0.85616374 36 14 -0.093015678
1.2928094 -1.7722343 -0.038290579 6 7 -0.093013376
2.1774533 -2.9860334 0.99024171 34 15 -0.093011066
2.2060938 -3.0341997 0.065481432 1 8 -0.092971407
1.9878172 -2.7349916 -0.78058016 28 1 -0.092969105
2.2956419 -3.1585205 0.20463361 3 9 -0.092966795
2.4903255 -3.4288969 0.37076053 92 10 -0.092962191
1.3787209 -1.8990401 -0.37168834 1 3 -0.092959888
2.4205475 -3.3352687 0.50600159 12 11 -0.092957579
1.307049 -1.8009809 -0.27323109 1 4 -0.092955276
2.4719205 -3.407306 0.66672373 83 12 -0.092952974
1.3053741 -1.7999945 -0.19453162 2 5 -0.092950672
2.1870809 -3.016897 0.72431099 34 13 -0.092948362
1.3020747 -1.7967643 -0.11629051 4 6 -0.09294606
2.1738198 -2.9997063 0.85526395 36 14 -0.092943758
1.2904449 -1.7813698 -0.038395293 2 7 -0.092941456
2.163007 -2.986979 0.9881711 34 15 -0.092939146
1.9783729 -2.739049 -0.90534908 11 0 -0.092918411
2.1410024 -2.9652989 0.063840903 12 8 -0.092916109
1.9718937 -2.7320874 -0.77788073 36 1 -0.092913806
2.278142 -3.156399 0.20400558 1 9 -0.092911504
1.414048 -1.9599049 -0.46977177 1 2 -0.092909195
2.4614589 -3.4128966 0.36814582 81 10 -0.092906892
1.3770367 -1.9100109 -0.3729398 1 3 -0.09290459
2.3804581 -3.3030162 0.49990809 25 11 -0.092902288
1.3057121 -1.8117471 -0.27420604 1 4 -0.092899978
2.4444425 -3.3930459 0.66234362 79 12 -0.092897676
1.2912478 -1.7929962 -0.19331144 2 5 -0.092895374
2.1770644 -3.0241332 0.72431099 34 13 -0.092893071
1.2844431 -1.7848608 -0.11524379 4 6 -0.092890762
2.1502008 -2.9879172 0.84986508 34 14 -0.09288846
1.3382472 -1.8603116 -0.040000916 1 7 -0.092886157
2.15309 -2.9941354 0.9881711 34 15 -0.092883855
1.9760348 -2.7550135 -0.9084549 10 0 -0.09286312
2.135818 -2.9788833 0.06398052 2 8 -0.09286081
1.9560115 -2.7291079 -0.77518129 36 1 -0.092858508
2.2554784 -3.1480961 0.20295887 1 9 -0.092856206
1.3663783 -1.9071299 -0.45603353 2 2 -0.092853904
2.4501278 -3.4210403 0.36814582 91 10 -0.092851594
1.3936937 -1.9466906 -0.37919718 1 3 -0.092849292
2.3533182 -3.2882924 0.49649575 58 11 -0.09284699
1.3132401 -1.8356676 -0.27713093 1 4 -0.092844687
2.4210927 -3.3854902 0.65921491 79 12 -0.092842378
1.3015203 -1.8199569 -0.19575179 2 5 -0.092840075
2.1613154 -3.0233505 0.72240293 31 13 -0.092837773
1.2854847 -1.7988602 -0.11587181 4 6 -0.092835471
2.132962 -2.9858906 0.8471657 34 14 -0.092833169
2.1381357 -2.9953434 0.98610061 34 15 -0.092828557
1.9507192 -2.739862 -0.90120792 15 0 -0.092807822
2.1149714 -2.9716578 0.063666381 1 8 -0.09280552
1.9464731 -2.735919 -0.77518129 38 1 -0.09280321
2.225955 -3.1299081 0.20128411 1 9 -0.092800908
1.3619883 -1.9150875 -0.45679674 1 2 -0.092798606
2.4220092 -3.4068387 0.36570549 79 10 -0.092796303
1.3868898 -1.9515437 -0.37919718 1 3 -0.092793994
2.3475733 -3.3045781 0.49771443 82 11 -0.092791691
1.2930319 -1.8208183 -0.27420604 1 4 -0.092789389
2.4001129 -3.3810346 0.656712 79 12 -0.092787087
1.2836266 -1.8082423 -0.19400868 2 5 -0.092784785
2.1473403 -3.026073 0.72125804 17 13 -0.092782475
1.2849755 -1.8114818 -0.11639518 3 6 -0.092780173
2.1180172 -2.986959 0.84536606 33 14 -0.092777871
2.1142642 -2.9838736 0.97988898 34 15 -0.092773259
1.9344536 -2.7371888 -0.89810216 15 0 -0.092752524
2.1172776 -2.9969876 0.064050332 8 8 -0.092750221
1.9279181 -2.7299623 -0.77158207 31 1 -0.092747919
2.2219272 -3.1474493 0.20191215 1 9 -0.09274561
1.9644421 -2.7827113 -0.66210729 25 2 -0.092743307
1.3800694 -1.9563729 -0.37919718 1 3 -0.092738703
2.3405998 -3.3192415 0.49868938 96 11 -0.092736401
1.2981052 -1.8415459 -0.27664346 1 4 -0.092734091
2.3848827 -3.3845477 0.6557734 78 12 -0.092731789
1.2750115 -1.8094547 -0.19366007 2 5 -0.092729487
2.1412864 -3.0399702 0.72278452 9 13 -0.092727184
1.2843938 -1.8241214 -0.11691854 3 6 -0.092724875
2.1086996 -2.9959278 0.84581596 5 14 -0.092722572
1.8652714 -2.6510613 -0.0565807 7 7 -0.09272027
2.0927224 -2.9754341 0.97471261 35 15 -0.092717968
1.9259969 -2.7455058 -0.89861977 24 0 -0.092697226
2.2112823 -3.1533504 0.067226671 27 8 -0.092694923
1.9015982 -2.7127392 -0.76483357 28 1 -0.092692621
2.1925883 -3.1290154 0.20023739 1 9 -0.092690319
1.9502099 -2.7831204 -0.66058075 33 2 -0.092688017
2.25071 -3.2131529 0.34321931 1 10 -0.092685707
1.3732319 -1.9611784 -0.37919718 1 3 -0.092683405
2.3107865 -3.3013713 0.4947896 84 11 -0.092681102
1.287117 -1.8395599 -0.27566847 1 4 -0.0926788
2.373054 -3.3928518 0.6557734 77 12 -0.092676491
1.2732552 -1.8204248 -0.19435729 1 5 -0.092674188
2.2139087 -3.1664915 0.75102425 4 13 -0.092671886
1.2700094 -1.8171343 -0.11618583 2 6 -0.092669584
2.0959969 -3.0000753 0.84491616 38 14 -0.092667274
1.8376868 -2.6313248 -0.056022223 38 7 -0.092664972
2.0823233 -2.9827209 0.97471261 35 15 -0.09266267
1.911986 -2.7458708 -0.89654922 33 0 -0.092641935
2.1979766 -3.1577675 0.067156859 52 8 -0.092639633
1.8876654 -2.7129622 -0.76303399 30 1 -0.092637323
2.1822002 -3.1362691 0.20023739 1 9 -0.092635021
1.9449673 -2.7963576 -0.66210729 45 2 -0.092632718
2.2736013 -3.2700653 0.34844866 1 10 -0.092630416
1.3663777 -1.9659598 -0.37919718 1 3 -0.092628106
2.2856567 -3.2898543 0.49186471 73 11 -0.092625804
1.3010703 -1.8733897 -0.28005576 1 4 -0.092623502
2.3527753 -3.3877223 0.65327036 78 12 -0.0926212
1.2828002 -1.8477713 -0.19679767 2 5 -0.09261889
2.2330639 -3.2177489 0.76132792 4 13 -0.092616588
1.2659357 -1.8248386 -0.11639518 2 6 -0.092614286
2.0666335 -2.98015 0.83726782 33 14 -0.092611983
1.8221136 -2.6275449 -0.055812798 44 7 -0.092609674
2.068018 -2.9832587 0.972642 34 15 -0.092607372
1.8914056 -2.7366359 -0.89137286 36 0 -0.092586637
1.87312 -2.7111907 -0.76078445 29 1 -0.092582032
2.1508095 -3.1142857 0.19835329 1 9 -0.092579722
1.9218098 -2.7837422 -0.6575278 47 2 -0.09257742
2.2101166 -3.2025504 0.34043032 1 10 -0.092575118
1.3598508 -1.9704802 -0.37919718 1 3 -0.092572816
2.2679713 -3.2876115 0.49040228 76 11 -0.092570506
1.2869623 -1.8662547 -0.27834961 2 4 -0.092568204
2.33533 -3.3877826 0.6517061 83 12 -0.092565902
1.2763425 -1.8522379 -0.19679767 1 5 -0.092563599
2.2658262 -3.2881842 0.77621108 4 13 -0.09256129
1.2644092 -1.8356057 -0.11681387 2 6 -0.092558987
2.0368464 -2.9580958 0.82916957 34 14 -0.092556685
1.8072617 -2.6256533 -0.055638272 49 7 -0.092554383
2.0466416 -2.974544 0.96746564 37 15 -0.092552081
1.8713892 -2.7269642 -0.88619649 36 0 -0.092531338
2.151545 -3.1363776 0.066388957 4 8 -0.092529036
1.8592364 -2.7112834 -0.75898486 39 1 -0.092526734
2.1467011 -3.1316588 0.19898133 9 9 -0.092524432
1.9054226 -2.7807169 -0.65523815 42 2 -0.092522122
2.1904747 -3.1967134 0.33903584 3 10 -0.09251982
1.3529643 -1.975215 -0.37919718 1 3 -0.092517518
2.246388 -3.2807665 0.48820862 36 11 -0.092515215
1.2725912 -1.8592688 -0.27664346 4 4 -0.092512906
2.3101046 -3.3763502 0.6479516 83 12 -0.092510603
1.2586215 -1.8402364 -0.19505455 2 5 -0.092508301
2.2437868 -3.2818804 0.77277648 6 13 -0.092505999
1.2644346 -1.8501214 -0.1174419 1 6 -0.092503697
2.0243092 -2.9619701 0.82826978 33 14 -0.092501387
1.7913172 -2.6220388 -0.055428844 49 7 -0.092499085
2.0264409 -2.9673123 0.96280694 37 15 -0.092496783
1.8526837 -2.7210305 -0.88205534 34 0 -0.092476048
2.1400354 -3.144242 0.066388957 5 8 -0.092473738
2.128469 -3.1295967 0.19835329 36 9 -0.092469133
1.8941143 -2.7860579 -0.6548565 43 2 -0.092466831
2.167542 -3.1882436 0.3372927 18 10 -0.092464522
1.3457158 -1.9801605 -0.37919718 1 3 -0.092462219
2.1953058 -3.2315073 0.47967777 12 11 -0.092459917
1.270229 -1.8704895 -0.27761838 5 4 -0.092457615
2.2932765 -3.3782573 0.64670014 86 12 -0.092455313
1.2529869 -1.8464857 -0.19522884 2 5 -0.092453003
2.2339473 -3.2933319 0.77353972 6 13 -0.092450701
2.0112519 -2.9661441 0.82736999 35 14 -0.092446096
1.7772071 -2.6219654 -0.055289224 51 7 -0.092443787
2.0047152 -2.9587266 0.95763052 34 15 -0.092441484
1.8394539 -2.723 -0.88050246 33 0 -0.092420749
2.119544 -3.1388066 0.066109717 4 8 -0.092418447
1.2821759 -1.8994732 -0.52908486 1 1 -0.092416137
2.1125157 -3.1307542 0.1979346 33 9 -0.092413835
1.881083 -2.7877703 -0.65371162 42 2 -0.092411533
2.1614122 -3.2044253 0.33816427 58 10 -0.092409231
1.3395532 -1.9867173 -0.37951005 1 3 -0.092406929
2.1778996 -3.2313013 0.47845906 23 11 -0.092404619
1.2622555 -1.8734862 -0.27737463 2 4 -0.092402317
2.2764652 -3.3800859 0.64544868 86 12 -0.092400014
1.2520988 -1.859111 -0.19610041 2 5 -0.092397712
2.2279198 -3.3092523 0.77544779 6 13 -0.092395402
1.9960158 -2.9670279 0.82557034 35 14 -0.092390798
1.7653533 -2.6251428 -0.055219412 52 7 -0.092388496
1.990624 -2.9612446 0.95607764 36 15 -0.092386186
1.8310133 -2.731009 -0.88102001 34 0 -0.092365451
2.1030083 -3.1378806 0.065935194 8 8 -0.092363149
1.2733684 -1.9006994 -0.52818507 1 1 -0.092360847
2.0926838 -3.1248336 0.19709724 36 9 -0.092358544
1.8713404 -2.7943196 -0.65371162 41 2 -0.092356235
2.1491053 -3.2102952 0.33798996 25 10 -0.092353933
2.1544662 -3.2207344 0.47577798 37 11 -0.092349328
1.2391568 -1.8531286 -0.27371857 1 4 -0.092347018
2.2591639 -3.3798001 0.64388436 89 12 -0.092344716
1.2500305 -1.870096 -0.19679767 1 5 -0.092342414
2.2152641 -3.3153768 0.7750662 7 13 -0.092340112
2.1243627 -3.1805351 -0.20044672 25 6 -0.092337802
1.9791543 -2.9642532 0.82287097 33 14 -0.0923355
1.7539591 -2.6279626 -0.055149604 51 7 -0.092333198
1.9802755 -2.9681752 0.95607764 36 15 -0.092330895
1.813978 -2.7261255 -0.87739658 31 0 -0.09231016
2.096472 -3.1518624 0.066074811 2 8 -0.092307851
1.7857168 -2.6856854 -0.74458802 13 1 -0.092305548
2.0712514 -3.1151242 0.19605052 31 9 -0.092303246
1.8441871 -2.7746742 -0.64760572 13 2 -0.092300944
2.1577327 -3.2476485 0.34112757 6 10 -0.092298634
2.1530919 -3.2431192 0.47797161 35 11 -0.09229403
1.2524384 -1.8872145 -0.27810585 1 4 -0.092291728
2.2348356 -3.3675225 0.64012986 89 12 -0.092289418
2.1928275 -3.3067274 0.77125001 9 13 -0.092284814
2.1077302 -3.1796076 -0.19992337 33 6 -0.092282511
1.9580311 -2.9548988 0.81837195 34 14 -0.092280202
1.7319798 -2.6137612 -0.054730747 51 7 -0.092277899
1.9640206 -2.9650621 0.95297176 36 15 -0.092275597
1.7884824 -2.7082596 -0.86963201 34 0 -0.092254862
2.0760911 -3.143779 0.065760665 1 8 -0.09225256
1.7832425 -2.7013502 -0.74728745 30 1 -0.09225025
2.0581648 -3.1190012 0.19584116 1 9 -0.092247948
1.8269235 -2.7696228 -0.64493442 2 2 -0.092245646
2.1529636 -3.2651405 0.34217343 4 10 -0.092243344
2.1466954 -3.2568712 0.47894657 27 11 -0.092238732
2.2143753 -3.3621051 0.63762695 89 12 -0.092234127
2.1926458 -3.3303788 0.7750662 7 13 -0.092229515
2.0949788 -3.183243 -0.19971403 35 6 -0.092227213
1.941795 -2.9516075 0.81567252 35 14 -0.092224911
1.716253 -2.6097662 -0.054521319 51 7 -0.092222609
1.9483527 -2.9638283 0.95038354 39 15 -0.092220299
1.7646626 -2.6915576 -0.86238509 34 0 -0.092199564
2.0585277 -3.1409721 0.065551244 1 8 -0.092197262
1.7673944 -2.6977782 -0.74458802 34 1 -0.09219496
2.0472651 -3.1261663 0.19584116 1 9 -0.09219265
1.3552301 -2.0694315 -0.48083872 1 2 -0.092190348
2.1650405 -3.3072686 0.34583399 4 10 -0.092188045
2.1494408 -3.2859406 0.48211515 13 11 -0.092183433
2.1993835 -3.3648539 0.63668835 83 12 -0.092178829
2.0755241 -3.1753604 -0.33188906 12 5 -0.092176527
2.1681209 -3.3182898 0.77048677 9 13 -0.092174225
2.0838544 -3.1905365 -0.19971403 38 6 -0.092171915
1.9304147 -2.9567361 0.81522262 37 14 -0.092169613
1.7093185 -2.6190908 -0.05459113 51 7 -0.09216731
1.9295506 -2.9576676 0.94624245 39 15 -0.092165008
1.7457744 -2.6831276 -0.85772634 33 0 -0.092144266
2.0410094 -3.1380806 0.065341808 1 8 -0.092141964
1.7505316 -2.6924944 -0.74143869 36 1 -0.092139661
2.0254564 -3.1165471 0.19479445 4 9 -0.092137359
2.1762767 -3.3498919 0.34949452 9 10 -0.092132747
2.1466043 -3.3067436 0.48406506 19 11 -0.092128143
2.1876245 -3.3725109 0.63668835 83 12 -0.092123531
2.0611746 -3.1775718 -0.33136615 33 5 -0.092121229
2.1586611 -3.3291321 0.77125001 9 13 -0.092118926
2.0542371 -3.1692991 -0.1979346 40 6 -0.092116624
1.9264401 -2.9732692 0.81792206 30 14 -0.092114314
1.6958174 -2.6183274 -0.054451507 51 7 -0.092112012
1.917115 -2.9611413 0.94520718 39 15 -0.09210971
1.73535 -2.6875823 -0.85720873 34 0 -0.092088975
2.0224521 -3.1334248 0.065097481 9 8 -0.092086673
1.7305572 -2.6822135 -0.73693967 38 1 -0.092084363
2.0102353 -3.1168845 0.19437577 4 9 -0.092082061
1.308827 -2.0293458 -0.46939012 1 2 -0.092079759
2.1710477 -3.3675153 0.3505404 78 10 -0.092077456
2.0898964 -3.2441278 0.47382805 13 11 -0.092072845
2.1672854 -3.3668387 0.63418543 83 12 -0.09206824
2.0500703 -3.1847472 -0.33136615 37 5 -0.09206593
2.1342788 -3.3168349 0.76667058 9 13 -0.092063628
2.034518 -3.1630123 -0.19709724 40 6 -0.092061326
1.9002407 -2.9553883 0.8111735 15 14 -0.092059024
1.6845052 -2.6208668 -0.054381698 49 7 -0.092056714
1.9025903 -2.9613142 0.94313669 37 15 -0.092054412
1.7228314 -2.6887438 -0.85565579 39 0 -0.092033677
2.0212088 -3.1556208 0.06541162 1 8 -0.092031375
1.7169808 -2.681673 -0.73514003 36 1 -0.092029072
2.0079565 -3.1373403 0.19521314 1 9 -0.092026763
1.3186686 -2.0603592 -0.47549605 1 2 -0.09202446
2.173238 -3.3968914 0.35280645 99 10 -0.092022158
2.0785596 -3.2514033 0.47382805 9 11 -0.092017546
2.1438222 -3.3560715 0.6307438 82 12 -0.092012942
2.0303605 -3.1784515 -0.32997164 38 5 -0.09201064
2.1216311 -3.3226104 0.766289 10 13 -0.09200833
2.0234647 -3.1700947 -0.19709724 33 6 -0.092006028
1.8741897 -2.937361 0.804425 23 14 -0.092003725
1.660292 -2.6031272 -0.05389303 51 7 -0.092001423
1.8880874 -2.9614215 0.94106609 40 15 -0.091999114
1.7051427 -2.6816993 -0.8515147 40 0 -0.091978379
2.0273442 -3.1896591 0.0659701 2 8 -0.091976076
1.7055194 -2.6843607 -0.73424023 39 1 -0.091973774
2.0114655 -3.1658969 0.19657388 3 9 -0.091971472
1.7472215 -2.7510569 -0.63348591 1 2 -0.091969162
2.143214 -3.3758619 0.34984317 94 10 -0.09196686
1.7072958 -2.6902673 -0.50465763 1 3 -0.091964558
2.0586903 -3.245229 0.47187814 6 11 -0.091962256
2.1231604 -3.3481481 0.62792808 83 12 -0.091957644
2.1058168 -3.3233628 0.76476252 10 13 -0.091953039
1.6586424 -2.6186507 -0.16245082 26 6 -0.091950729
1.8717381 -2.9550841 0.80757427 27 14 -0.091948427
1.6473715 -2.6018608 -0.053753413 48 7 -0.091946125
1.867925 -2.9513426 0.93588972 40 15 -0.091943823
1.6879916 -2.6742699 -0.8473736 40 0 -0.091923088
2.0199571 -3.2014382 0.066074811 4 8 -0.091920778
1.6914103 -2.6817603 -0.73199075 37 1 -0.091918476
2.0137413 -3.1928217 0.19782993 9 9 -0.091916174
1.7307595 -2.7452104 -0.63081461 23 2 -0.091913871
2.1245711 -3.3711512 0.34862295 91 10 -0.091911562
1.6625657 -2.6390879 -0.4940201 37 3 -0.09190926
2.0479176 -3.2520378 0.47187814 19 11 -0.091906957
2.1099412 -3.3518267 0.62730229 83 12 -0.091902345
1.6521461 -2.6255953 -0.27140298 46 5 -0.091900043
2.0958302 -3.331989 0.76514411 12 13 -0.091897741
1.6414444 -2.61061 -0.16161345 33 6 -0.091895439
1.8588161 -2.9563255 0.80622458 37 14 -0.091893137
1.6366062 -2.6039231 -0.053683605 50 7 -0.091890827
1.852989 -2.9493418 0.93330151 43 15 -0.091888525
1.6719337 -2.6683936 -0.84375012 31 0 -0.09186779
2.0093298 -3.2081189 0.066074811 15 8 -0.091865487
1.6483824 -2.6328473 -0.71714395 39 1 -0.091863178
2.0089414 -3.2099898 0.19845797 19 9 -0.091860875
1.6466563 -2.6311121 -0.60333806 38 2 -0.091858573
2.1080973 -3.3697326 0.34775141 79 10 -0.091856271
1.6412364 -2.6244884 -0.49026567 46 3 -0.091853961
2.0213387 -3.233562 0.46822205 4 11 -0.091851659
2.0982282 -3.3591714 0.62730229 83 12 -0.091847055
1.6275976 -2.6057122 -0.26878831 46 5 -0.091844752
2.0754111 -3.3239329 0.76170951 12 13 -0.091842443
1.6285487 -2.6092615 -0.16119476 33 6 -0.091840141
1.8433282 -2.954529 0.80397505 37 14 -0.091837838
1.6211578 -2.5994394 -0.053474173 50 7 -0.091835536
1.838595 -2.9492345 0.93123102 43 15 -0.091833226
1.6401689 -2.6381195 -0.83236206 42 0 -0.091812491
1.993897 -3.2083194 0.065935194 23 8 -0.091810189
1.6278702 -2.6203766 -0.71219504 37 1 -0.091807887
1.9924561 -3.2084987 0.1979346 31 9 -0.091805585
1.6343551 -2.6318402 -0.60219324 43 2 -0.091803275
2.0931692 -3.3719923 0.34722847 78 10 -0.091800973
1.6278991 -2.6234875 -0.48901421 45 3 -0.091798671
2.0288732 -3.270963 0.47260937 1 11 -0.091796368
2.0750425 -3.3480058 0.62386072 78 12 -0.091791756
1.620591 -2.6147647 -0.26913694 40 5 -0.091789454
2.0575919 -3.3211439 0.75941986 12 13 -0.091787152
1.6068116 -2.5945542 -0.15993871 37 6 -0.091784842
1.8258234 -2.9493473 0.80082577 40 14 -0.09178254
1.612074 -2.6050825 -0.053474173 48 7 -0.091780238
1.8252399 -2.9507053 0.92967808 40 15 -0.091777936
1.6218219 -2.6290314 -0.82770336 44 0 -0.091757201
1.9805863 -3.2118556 0.065865383 35 8 -0.091754891
1.6207584 -2.6293609 -0.71309483 42 1 -0.091752589
1.9760057 -3.2069323 0.19741124 19 9 -0.091750287
1.6210388 -2.6308436 -0.60066676 38 2 -0.091747984
2.0782514 -3.3741891 0.34670553 81 10 -0.091745675
1.6083752 -2.6123328 -0.4858855 42 3 -0.091743372
2.0028772 -3.2543571 0.46919701 1 11 -0.09174107
2.0602386 -3.3501804 0.62292212 79 12 -0.091736458
1.5968423 -2.5966458 -0.26669657 40 5 -0.091734156
2.052155 -3.3383412 0.76170951 16 13 -0.091731854
1.5987908 -2.6018491 -0.16004337 38 6 -0.091729552
1.8063375 -2.940758 0.79677659 38 14 -0.091727242
1.5946001 -2.5970609 -0.053194933 49 7 -0.09172494
1.8118973 -2.9521196 0.92812514 43 15 -0.091722637
1.6065837 -2.6247902 -0.82459748 41 0 -0.091701902
1.9662321 -3.2136323 0.065760665 39 8 -0.0916996
1.5983522 -2.6133904 -0.70724607 39 1 -0.091697291
1.956465 -3.2001784 0.19657388 21 9 -0.091694988
1.5852202 -2.5929353 -0.59074467 38 2 -0.091692686
2.0529542 -3.3593223 0.34443948 78 10 -0.091690384
1.5848297 -2.5943308 -0.48150533 45 3 -0.091688074
1.9625375 -3.2138908 0.46237233 1 11 -0.091685772
2.0423589 -3.347234 0.62104493 83 12 -0.091681167
1.5773911 -2.585196 -0.26495346 41 5 -0.091678858
2.0394678 -3.3438082 0.76132792 20 13 -0.091676556
1.58658 -2.6022978 -0.15972935 33 6 -0.091674253
1.7940328 -2.9437172 0.7958768 37 14 -0.091671951
1.5751213 -2.5855339 -0.052845888 51 7 -0.091669649
1.7905287 -2.9402761 0.92243111 40 15 -0.091667339
1.592398 -2.6221263 -0.82200933 45 0 -0.091628551
1.9487762 -3.2102201 0.065551244 35 8 -0.091626249
1.5821435 -2.6072917 -0.70409679 42 1 -0.091623947
1.946318 -3.2086957 0.19667853 19 9 -0.091621637
1.5751412 -2.5967743 -0.59036303 39 2 -0.091619335
2.0339847 -3.3545423 0.34321931 81 10 -0.091617033
1.5655253 -2.5829542 -0.47837666 42 3 -0.091614731
1.943078 -3.2071397 0.4604224 1 11 -0.091612421
1.5846589 -2.6165826 -0.37560135 1 4 -0.091610119
2.0265703 -3.3475833 0.61979342 83 12 -0.091607817
1.5617164 -2.5807326 -0.26390758 43 5 -0.091605514
2.0105038 -3.3223526 0.75484043 26 13 -0.091603205
1.5754192 -2.6044023 -0.15952002 34 6 -0.091600902
1.779713 -2.9432912 0.79407722 35 14 -0.0915986
1.5640178 -2.5875933 -0.05277608 51 7 -0.091596298
1.7742606 -2.9365876 0.91932529 39 15 -0.091593988
1.5877603 -2.6362195 -0.82459748 37 0 -0.091573253
1.9313685 -3.2067251 0.065341808 39 8 -0.091570951
1.5680071 -2.6044509 -0.70184726 46 1 -0.091568649
1.9299569 -3.2069135 0.19615518 27 9 -0.091566347
1.5615653 -2.5958009 -0.58883661 41 2 -0.091564037
2.0206487 -3.3602672 0.343045 84 10 -0.091561735
1.5540123 -2.5852885 -0.47775093 42 3 -0.091559432
1.9216442 -3.1968889 0.45798501 8 11 -0.09155713
1.5622244 -2.599978 -0.37243277 37 4 -0.091554821
2.0128384 -3.3512504 0.61916769 83 12 -0.091552518
1.5506471 -2.5827518 -0.26355895 43 5 -0.091550216
1.9962925 -3.3263326 0.7540772 28 13 -0.091547914
1.5576432 -2.5964575 -0.15868263 34 6 -0.091545604
1.7689139 -2.9497945 0.79407722 38 14 -0.091543302
1.5570328 -2.5964673 -0.052845888 50 7 -0.091541
1.7620124 -2.9394488 0.91829002 40 15 -0.091538697
1.5765665 -2.6384289 -0.82356226 31 0 -0.091517963
1.9196022 -3.2137823 0.065341808 49 8 -0.091515653
1.5504588 -2.5967948 -0.69824809 43 1 -0.091513351
1.9136313 -3.2050564 0.19563182 37 9 -0.091511048
1.5524946 -2.6012359 -0.58883661 42 2 -0.091508746
2.0068655 -3.3638783 0.34269637 84 10 -0.091506436
1.538908 -2.5805178 -0.47587368 41 3 -0.091504134
1.895684 -3.1800389 0.45457271 11 11 -0.091501832
1.5374422 -2.5801072 -0.36877668 38 4 -0.09149953
1.9950608 -3.3480742 0.61729044 86 12 -0.09149722
1.5416224 -2.5881488 -0.26355895 43 5 -0.091494918
1.983665 -3.331594 0.75369561 33 13 -0.091492616
1.5414199 -2.5898652 -0.15794992 32 6 -0.091490313
1.7506351 -2.942553 0.79047799 36 14 -0.091488011
1.5459149 -2.5984492 -0.05277608 50 7 -0.091485702
1.749766 -2.9422607 0.91725475 42 15 -0.091483399
1.5614362 -2.6339455 -0.82045639 33 0 -0.091462664
1.9068946 -3.2166901 0.065272003 39 8 -0.091460362
1.5378652 -2.5952165 -0.6964485 43 1 -0.091458052
1.9044677 -3.2151537 0.19584116 37 9 -0.09145575
1.5384039 -2.5981929 -0.58692849 45 2 -0.091453448
1.9910523 -3.3640046 0.34199914 84 10 -0.091451146
1.5283298 -2.5822067 -0.47524795 42 3 -0.091448836
1.8861389 -3.1880162 0.45481643 15 11 -0.091446534
1.5238255 -2.5766478 -0.36755794 39 4 -0.091444232
1.9753196 -3.3414147 0.61478752 86 12 -0.091441929
1.5325787 -2.5935144 -0.26355895 45 5 -0.091439627
1.9696101 -3.3330829 0.75255072 37 13 -0.091437317
1.52876 -2.588084 -0.15753125 30 6 -0.091435015
1.7349226 -2.9382739 0.78777856 37 14 -0.091432713
1.5307369 -2.5934968 -0.052566648 51 7 -0.091430411
1.739485 -2.9483507 0.91725475 40 15 -0.091428101
1.5448564 -2.6257882 -0.81631529 40 0 -0.091407366
1.902751 -3.2353923 0.065516338 42 8 -0.091405064
1.5317595 -2.6056087 -0.69779819 49 1 -0.091402762
1.9018925 -3.2352259 0.19667853 40 9 -0.091400452
1.5198328 -2.5863538 -0.58311236 43 2 -0.09139815
1.9697944 -3.3534093 0.34025604 90 10 -0.091395847
1.5173066 -2.5841193 -0.47462222 41 3 -0.091393545
1.86897 -3.1843088 0.453354 35 11 -0.091391243
1.5218536 -2.5939367 -0.36926416 46 4 -0.091388933
1.9532329 -3.3292048 0.61134595 89 12 -0.091386631
1.5159065 -2.5848331 -0.26216447 43 5 -0.091384329
1.9579632 -3.3399377 0.75255072 42 13 -0.091382027
1.522746 -2.5985737 -0.15784526 33 6 -0.091379717
1.7226858 -2.9409487 0.78687876 37 14 -0.091377415
1.5120209 -2.5813041 -0.052217599 52 7 -0.091375113
1.7199374 -2.9374318 0.91207838 42 15 -0.09137281
1.5162053 -2.5977957 -0.8059625 40 0 -0.091352068
1.8910034 -3.2399571 0.065481432 45 8 -0.091349766
1.5201647 -2.605624 -0.6964485 46 1 -0.091347463
1.8936064 -3.247021 0.19699256 36 9 -0.091345161
1.5107957 -2.5916431 -0.58311236 45 2 -0.091342859
