# .PCD v0.7 - Point Cloud Data file format
VERSION 0.7
FIELDS x y z intensity ring time
SIZE 4 4 4 4 2 4
TYPE F F F F U F
COUNT 1 1 1 1 1 1
WIDTH 955
HEIGHT 1
VIEWPOINT 0 0 0 1 0 0 0
POINTS 955
DATA ascii
5.5212007 -2.5231421 -0.74535298 34 4 -0.05802539
5.5099092 -2.5191445 0.9595691 97 12 -0.058023084
5.5174985 -2.5226145 -0.53077847 66 5 -0.058020782
5.5024395 -2.5168905 1.1761467 35 13 -0.058018476
5.5083079 -2.5207376 -0.31746995 66 6 -0.058016174
7.4772711 -3.423362 1.898587 21 14 -0.058013868
4.9887295 -2.2850718 -0.095778808 25 7 -0.058011565
5.530364 -2.5343337 1.6300424 3 15 -0.058009259
3.1787467 -1.461388 -0.93744266 7 0 -0.057988524
4.8488784 -2.2302349 0.09316095 17 8 -0.057986222
3.6663001 -1.6870849 -0.93174726 10 1 -0.057983916
5.4699178 -2.5181949 0.31558585 97 9 -0.057981614
4.3370981 -1.9966768 -0.92809504 10 2 -0.057979308
5.5158615 -2.5405128 0.53130138 100 10 -0.057977006
4.7489014 -2.1882684 -0.82816416 47 3 -0.0579747
5.489368 -2.5306332 0.74218434 75 11 -0.057972398
5.4781103 -2.5266027 -0.74072188 23 4 -0.057970092
5.46521 -2.5218096 0.95331174 61 12 -0.057967789
5.5122781 -2.5435283 -0.5311271 68 5 -0.057965484
5.4989676 -2.5385506 1.1772915 16 13 -0.057963181
5.5031013 -2.5416243 -0.31767929 66 6 -0.057960875
5.4875083 -2.5355847 1.3955964 16 14 -0.057958573
5.5302505 -2.5576773 1.6326306 5 15 -0.057953965
3.1823885 -1.4765404 -0.94003081 8 0 -0.05793323
5.5176153 -2.5611918 0.10618044 100 8 -0.057930924
3.6550865 -1.6974102 -0.93039757 10 1 -0.057928622
5.4687829 -2.5396848 0.31600451 61 9 -0.057926316
4.3247604 -2.0093222 -0.92695016 10 2 -0.057924014
5.49612 -2.5547125 0.5302555 25 10 -0.057921708
4.7340693 -2.2015002 -0.8269127 47 3 -0.057919405
5.4751015 -2.547267 0.74145311 21 11 -0.057917099
5.4980526 -2.5591123 -0.74462175 27 4 -0.057914797
5.4765167 -2.5490882 0.95675331 23 12 -0.057912491
5.5033655 -2.5627542 -0.5311271 61 5 -0.057910189
5.4989715 -2.5618758 1.1791997 41 13 -0.057907887
5.5050578 -2.5658808 -0.31830731 66 6 -0.057905581
7.4708495 -3.4837146 1.9030858 13 14 -0.057903279
5.5185738 -2.5733533 -0.10628515 72 7 -0.057900973
6.4023457 -2.9868231 1.8930025 43 15 -0.05789867
3.1632183 -1.4810865 -0.93588972 8 0 -0.057877932
5.48736 -2.5692995 0.10576159 22 8 -0.05787563
3.6600261 -1.7144816 -0.933097 11 1 -0.057873324
5.4616933 -2.5596063 0.31610921 21 9 -0.057871021
4.3141646 -2.0227392 -0.92618686 10 2 -0.057868715
5.469131 -2.5654209 0.52851242 22 10 -0.057866413
4.7267427 -2.2171867 -0.8269127 49 3 -0.057864107
5.4810009 -2.5721562 0.74340308 42 11 -0.057861805
5.5128961 -2.5882981 -0.74779034 38 4 -0.057859503
5.4854646 -2.5765874 0.95988196 75 12 -0.057857197
5.5015998 -2.5853386 -0.53182435 67 5 -0.057854895
5.4993291 -2.5842717 1.1811076 59 13 -0.057852589
5.4965191 -2.5841222 -0.31830731 35 6 -0.057850286
7.4610205 -3.5092993 1.903536 15 14 -0.05784798
5.4824176 -2.5798297 -0.10576159 28 7 -0.057845678
6.3918805 -3.0091534 1.8930025 43 15 -0.057843372
3.1547959 -1.4899181 -0.93485445 10 0 -0.057822637
5.4602776 -2.5798955 0.10541254 30 8 -0.057820331
3.6504953 -1.7255812 -0.93219715 8 1 -0.057818029
5.4725862 -2.5880482 0.31726059 27 9 -0.057815723
4.303884 -2.0353558 -0.92542368 10 2 -0.057813421
5.4677978 -2.5869517 0.52920967 72 10 -0.057811119
4.7261162 -2.2370534 -0.82816416 45 3 -0.057808813
5.5024881 -2.6057155 0.74754661 91 11 -0.05780651
5.4984455 -2.6049764 -0.74705911 12 4 -0.057804205
5.4889326 -2.6016421 0.96207207 85 12 -0.057801902
5.4965973 -2.6052752 -0.53217298 17 5 -0.057799596
5.5009184 -2.6084993 1.1833974 67 13 -0.057797294
5.5019011 -2.6101415 -0.3191447 19 6 -0.057794988
7.4592876 -3.5403349 1.9062351 13 14 -0.057792686
5.4896359 -2.6066709 -0.10607573 14 7 -0.05779038
6.3795929 -3.030618 1.8924849 47 15 -0.057788078
3.1513197 -1.5017524 -0.93537205 8 0 -0.057767343
5.4981704 -2.6213148 0.10632006 82 8 -0.057765037
3.6321371 -1.7324406 -0.92904782 11 1 -0.057762735
5.5175953 -2.6329401 0.32040074 87 9 -0.057760429
4.3073845 -2.0554399 -0.92771345 10 2 -0.057758126
5.4875021 -2.6197557 0.53199863 85 10 -0.05775582
4.7111487 -2.2501314 -0.8269127 47 3 -0.057753518
5.4915681 -2.6240511 0.74730289 91 11 -0.057751212
5.4749918 -2.6173043 -0.74510926 16 4 -0.05774891
5.4922919 -2.6267524 0.96426219 81 12 -0.057746604
5.4784818 -2.6201475 -0.53130138 15 5 -0.057744302
5.4970927 -2.6302273 1.1845423 71 13 -0.057741996
5.471139 -2.6189826 -0.31788865 33 6 -0.057739694
7.4539151 -3.5697181 1.9080348 3 14 -0.057737388
5.5219812 -2.64569 -0.10687853 74 7 -0.057735085
6.3724594 -3.0545385 1.8935202 47 15 -0.05773278
3.1495407 -1.5144176 -0.93640739 8 0 -0.057712045
5.4961948 -2.6439583 0.10645968 100 8 -0.057709742
3.631336 -1.7476439 -0.93039757 8 1 -0.057707436
5.4993734 -2.6478517 0.31987742 93 9 -0.057705134
4.2860322 -2.0636494 -0.92466044 10 2 -0.057702828
5.4890938 -2.6440825 0.53304452 80 10 -0.057700526
4.713943 -2.2717083 -0.82878989 47 3 -0.05769822
5.4823751 -2.6432045 0.74730289 94 11 -0.057695918
5.4890656 -2.6476107 -0.74827784 28 4 -0.057693612
5.4813099 -2.6450496 0.96394926 78 12 -0.05769131
5.4980125 -2.6531096 -0.5340904 51 5 -0.057689004
5.4949503 -2.6528139 1.1860688 71 13 -0.057686701
5.4835453 -2.6484883 -0.3191447 68 6 -0.057684395
7.4343901 -3.5923238 1.9062351 10 14 -0.057682093
5.5073118 -2.6623385 -0.10677383 67 7 -0.057679787
6.3826275 -3.0868571 1.8997319 17 15 -0.057677485
3.1546633 -1.5304617 -0.93951315 11 0 -0.05765675
5.5013237 -2.6701128 0.10673892 100 8 -0.057654444
3.6182013 -1.7569041 -0.92859799 8 1 -0.057652142
5.4883003 -2.6661594 0.31977272 97 9 -0.057649836
4.2752709 -2.0768821 -0.92389715 10 2 -0.057647534
5.4923744 -2.6693232 0.53426468 77 10 -0.057645228
4.7255259 -2.2976506 -0.83223146 51 3 -0.057642926
5.4820409 -2.6666667 0.74852157 89 11 -0.05764062
5.4672956 -2.6606746 -0.74657166 16 4 -0.057638317
5.4862528 -2.6710844 0.96645224 81 12 -0.057636011
5.486927 -2.6714129 -0.53391606 20 5 -0.057633709
5.4997768 -2.6788566 1.1891217 68 13 -0.057631403
5.4724708 -2.666738 -0.31904003 60 6 -0.057629101
7.4218049 -3.618253 1.9062351 10 14 -0.057626799
5.4889984 -2.6771634 -0.1065993 60 7 -0.057624493
3.126745 -1.5304234 -0.93278384 10 0 -0.057601452
5.4991531 -2.6928174 0.10687853 90 8 -0.05759915
3.6172967 -1.7720952 -0.92994767 10 1 -0.057596844
5.4794288 -2.6843443 0.31977272 68 9 -0.057594541
4.2627063 -2.089201 -0.92275238 7 2 -0.057592236
5.4705009 -2.682339 0.53304452 80 10 -0.057589933
4.7334385 -2.3219614 -0.8350473 57 3 -0.057587627
5.4851727 -2.6919086 0.75022775 87 11 -0.057585325
5.47223 -2.6867418 -0.74852157 4 4 -0.057583019
5.4755917 -2.6883924 0.96613932 85 12 -0.057580717
5.4793568 -2.6914279 -0.5340904 16 5 -0.057578415
5.4657245 -2.6859159 1.1837791 72 13 -0.057576109
5.4864297 -2.6972797 -0.32040074 65 6 -0.057573806
5.5747714 -2.741919 1.4342879 58 14 -0.057571501
5.4818845 -2.696233 -0.1066342 59 7 -0.057569198
6.3493347 -3.1242599 1.8961084 17 15 -0.057566892
3.1161876 -1.5387625 -0.93123102 11 0 -0.057546157
5.4453688 -2.6889038 0.10600592 17 8 -0.057543851
3.609653 -1.7832177 -0.92949772 8 1 -0.057541549
4.2501082 -2.1014574 -0.92160755 10 2 -0.057536941
5.4503899 -2.6961179 0.53199863 85 10 -0.057534639
4.7345653 -2.3420246 -0.83661157 59 3 -0.057532333
5.4833331 -2.7136054 0.7512027 91 11 -0.057530031
5.4828591 -2.7145622 -0.7512027 13 4 -0.057527725
5.4750247 -2.7118731 0.9677037 91 12 -0.057525422
5.4717135 -2.7114224 -0.53426468 26 5 -0.057523116
5.4919701 -2.7214601 1.1914115 70 13 -0.057520814
5.4917712 -2.7225556 -0.32123813 66 6 -0.057518508
5.5481906 -2.7517319 1.4297889 50 14 -0.057516206
5.4831872 -2.7206852 -0.10684364 60 7 -0.0575139
6.3418512 -3.1481223 1.8971437 8 15 -0.057511598
3.1110678 -1.5490876 -0.93123102 8 0 -0.057490859
5.4520583 -2.7159202 0.10632006 2 8 -0.057488557
3.5999184 -1.7940685 -0.92859799 8 1 -0.057486255
4.8385344 -2.4124041 0.28334689 13 9 -0.057483949
4.2519011 -2.1199195 -0.92351556 8 2 -0.057481647
5.4556823 -2.7212918 0.53339314 75 10 -0.057479341
4.7245941 -2.357655 -0.83629876 49 3 -0.057477038
5.4773798 -2.7345023 0.75169015 91 11 -0.057474732
5.4964371 -2.7452149 -0.75437129 37 4 -0.05747243
5.4761281 -2.7362659 0.96958095 91 12 -0.057470124
5.4894271 -2.7429109 -0.53687936 65 5 -0.057467822
5.4824371 -2.7406142 1.1914115 68 13 -0.057465516
5.4786611 -2.7399218 -0.3210288 68 6 -0.057463214
5.5193801 -2.7614903 1.42484 75 14 -0.057460908
5.491539 -2.748759 -0.10719268 67 7 -0.057458606
6.3290963 -3.1693752 1.8966261 19 15 -0.0574563
3.1090939 -1.5616721 -0.93226624 14 0 -0.057435565
5.460413 -2.7439139 0.10666911 10 8 -0.057433262
3.5831871 -1.8013718 -0.92589855 11 1 -0.057430957
5.45994 -2.7460637 0.32029608 19 9 -0.057428654
4.3725109 -2.1991436 -0.9513737 1 2 -0.057426348
5.4497094 -2.74211 0.53374171 75 10 -0.057424046
4.7675042 -2.3998899 -0.84537196 41 3 -0.05742174
5.4678011 -2.7536054 0.75169015 91 11 -0.057419438
5.4815025 -2.7617049 -0.75364012 59 4 -0.057417132
5.473599 -2.7589209 0.97083241 91 12 -0.05741483
5.4780397 -2.7611594 -0.53670508 65 5 -0.057412524
5.4868603 -2.7668064 1.1944643 68 13 -0.057410222
5.4690633 -2.7590292 -0.3210288 66 6 -0.057407916
5.506228 -2.7789838 1.4239402 88 14 -0.057405613
5.4801254 -2.7670102 -0.10715777 64 7 -0.057403307
6.331789 -3.1984167 1.9007671 29 15 -0.057401005
3.1019003 -1.5716422 -0.93174857 10 0 -0.05738027
5.3901577 -2.7322176 0.10548234 20 8 -0.057377964
3.5716631 -1.8112242 -0.9245488 7 1 -0.057375662
4.3648076 -2.2143934 -0.9513737 1 2 -0.057371054
4.7908015 -2.4326155 -0.85100359 38 3 -0.057366446
5.4439974 -2.7654827 0.7497403 91 11 -0.05736414
5.4470534 -2.7682309 -0.75022775 77 4 -0.057361837
5.4674568 -2.7798011 0.9714582 91 12 -0.057359532
5.4790239 -2.785682 -0.5377509 65 5 -0.057357229
5.480669 -2.7877223 1.1952276 68 13 -0.057354923
5.4665194 -2.7817264 -0.32144746 65 6 -0.057352621
5.4843378 -2.7919986 1.4207909 61 14 -0.057350315
5.4668694 -2.7843072 -0.10708796 61 7 -0.057348013
6.3309135 -3.2257617 1.903873 1 15 -0.057345711
3.0929551 -1.5807021 -0.93071336 8 0 -0.057324972
5.3592224 -2.7400923 0.10506349 20 8 -0.05732267
3.5739937 -1.8281178 -0.9267984 10 1 -0.057320364
4.7685575 -2.4401941 0.2807301 1 9 -0.057318062
4.4199691 -2.2618124 -0.96511191 1 2 -0.057315756
5.451715 -2.7909842 0.53583348 5 10 -0.057313453
4.8332686 -2.4754376 -0.86007679 25 3 -0.057311147
5.4696441 -2.8025732 0.75461507 94 11 -0.057308845
5.4373574 -2.7872279 -0.75022775 63 4 -0.057306539
5.4559617 -2.7979674 0.97114527 87 12 -0.057304237
5.4692664 -2.8047905 -0.5377509 63 5 -0.057301931
5.4778919 -2.8104212 1.1967541 67 13 -0.057299629
5.474545 -2.8099113 -0.32249418 68 6 -0.057297327
5.4589562 -2.8031139 1.4167417 75 14 -0.057295021
5.466011 -2.8079419 -0.10726249 60 7 -0.057292718
6.3144608 -3.2451918 1.90232 11 15 -0.057290412
3.0788329 -1.5870631 -0.92812514 12 0 -0.057269678
5.3496246 -2.7587826 0.10506349 25 8 -0.057267372
3.5658586 -1.8396887 -0.92634839 10 1 -0.057265069
4.7742085 -2.4641528 0.28156745 1 9 -0.057262763
5.4260068 -2.8017702 0.53426468 10 10 -0.057258155
4.9246354 -2.5439715 -0.87791038 6 3 -0.057255853
5.4721727 -2.8280284 0.75632119 98 11 -0.057253551
5.4434652 -2.8143964 -0.75242138 55 4 -0.057251245
5.4566894 -2.8224404 0.97302246 87 12 -0.057248943
5.4629827 -2.8256953 -0.53809953 67 5 -0.057246637
5.4697919 -2.8304279 1.1971357 67 13 -0.057244334
5.4753451 -2.8345132 -0.32312223 66 6 -0.057242028
5.4422164 -2.8185673 1.4149421 88 14 -0.057239726
5.461503 -2.8297648 -0.10736721 46 7 -0.05723742
6.3099546 -3.2707696 1.9043906 13 15 -0.057235118
3.0732744 -1.5978006 -0.92812514 9 0 -0.057214379
5.3381882 -2.7765167 0.10502858 17 8 -0.057212077
3.5490432 -1.8467278 -0.92364907 8 1 -0.057209775
4.8187261 -2.5084698 0.28470761 1 9 -0.057207469
5.4391661 -2.8326573 0.53653073 22 10 -0.057202861
5.0295959 -2.6204736 -0.89824677 4 3 -0.057200558
5.4517055 -2.8416073 0.75485879 92 11 -0.057198253
5.45297 -2.8434765 -0.75510252 60 4 -0.05719595
5.460815 -2.8487799 0.97552538 87 12 -0.057193644
5.4460196 -2.8410616 -0.53740233 63 5 -0.057191342
5.4651003 -2.8522289 1.1982806 68 13 -0.057189036
5.4654174 -2.8536084 -0.32312223 72 6 -0.057186734
5.4254351 -2.8339379 1.4131424 86 14 -0.057184428
6.3070593 -3.297251 1.9069788 1 15 -0.05717982
3.0711 -1.6103127 -0.92916042 9 0 -0.057159085
5.2629423 -2.7607636 0.1037371 2 8 -0.057156783
3.532222 -1.8536716 -0.92094964 10 1 -0.057154477
4.8064036 -2.5234184 0.2844983 1 9 -0.057152174
5.4504118 -2.8627436 0.5386225 30 10 -0.057147566
5.0116749 -2.6334202 -0.8966825 4 3 -0.05714526
5.4540529 -2.8670857 0.75656492 100 11 -0.057142958
5.4377403 -2.8597219 -0.75437129 61 4 -0.057140652
5.4578309 -2.8715038 0.97677696 95 12 -0.05713835
5.4607544 -2.8730419 -0.53984267 66 5 -0.057136044
5.4585853 -2.8731174 1.1990438 70 13 -0.057133742
5.4448199 -2.8670855 -0.32249418 65 6 -0.057131436
5.4051657 -2.8474095 1.4104432 90 14 -0.057129133
5.4593053 -2.8771474 -0.10771625 7 7 -0.057126828
6.3160176 -3.3300581 1.9131904 1 15 -0.057124525
3.06546 -1.6210231 -0.92916042 9 0 -0.05710379
5.3345823 -2.8221321 0.10534272 15 8 -0.057101484
3.5257299 -1.86599 -0.92094964 10 1 -0.057099182
4.8469892 -2.5663486 0.28742909 1 9 -0.057096876
4.3879585 -2.3233044 -0.96511191 1 2 -0.057094574
5.4456677 -2.8845496 0.53914541 22 10 -0.057092268
4.9780159 -2.637949 -0.89230233 2 3 -0.057089966
5.4247193 -2.8758786 0.75388384 85 11 -0.05708766
5.425971 -2.8777554 -0.75412756 59 4 -0.057085358
5.4477744 -2.8905373 0.97677696 87 12 -0.057083052
5.4612532 -2.8976889 -0.54088855 63 5 -0.057080749
5.4623957 -2.8995173 1.2020967 71 13 -0.057078443
5.4524183 -2.8954411 -0.3235409 68 6 -0.057076141
5.3797045 -2.8580313 1.406394 90 14 -0.057073835
5.4421654 -2.8924322 -0.10757664 7 7 -0.057071533
6.3947582 -3.4001534 1.9406252 16 15 -0.057069227
3.0546694 -1.6289866 -0.92760748 10 0 -0.057044029
5.2823558 -2.8181462 0.10450501 4 8 -0.057041727
3.5174754 -1.8773681 -0.92049968 8 1 -0.057039421
4.9018841 -2.6162629 0.29119727 1 9 -0.057037119
4.3798218 -2.3386071 -0.96511191 1 2 -0.057034813
5.4250216 -2.8979084 0.53809953 25 10 -0.057032511
4.9861999 -2.6646197 -0.89543104 3 3 -0.057030205
5.4636645 -2.9210026 0.76070851 100 11 -0.057027902
5.4286523 -2.9022841 -0.75583369 48 4 -0.057025596
5.4416428 -2.9104502 0.97740263 95 12 -0.057023294
5.4475904 -2.9148545 -0.54053992 65 5 -0.057020988
5.4522409 -2.9185669 1.2020967 67 13 -0.057018686
5.4528422 -2.9201136 -0.32416895 66 6 -0.05701638
5.3890939 -2.8859751 1.4113429 71 14 -0.057014078
5.4395947 -2.9142408 -0.10771625 7 7 -0.057011772
3.039041 -1.6336193 -0.92450172 9 0 -0.056988735
3.5198114 -1.8936385 -0.92274922 10 1 -0.056984127
4.9459472 -2.6608915 0.29433745 2 9 -0.056981821
4.3098073 -2.3196218 -0.9513737 1 2 -0.056979518
5.4031024 -2.9092705 0.53687936 20 10 -0.056977212
4.9634228 -2.6736455 -0.892928 3 3 -0.05697491
5.4452105 -2.934396 0.75948983 94 11 -0.056972604
5.4458714 -2.9359787 0.97990561 95 12 -0.056967996
5.4494438 -2.9403601 1.2036232 71 13 -0.056963388
5.3914986 -2.9103098 1.4144921 60 14 -0.05695878
4.9777021 -2.6880662 -0.098745719 1 7 -0.056956477
6.3482723 -3.4296346 1.9333783 100 15 -0.056954172
3.0387025 -1.6464489 -0.92605454 8 0 -0.056933437
4.9892955 -2.7044582 0.099059857 2 8 -0.056931134
3.5015211 -1.8987976 -0.91959995 8 1 -0.056928828
4.9015179 -2.6590922 0.29224399 1 9 -0.056926526
5.4337006 -2.9490309 0.54088855 30 10 -0.056921918
4.9632096 -2.6948032 -0.89449239 3 3 -0.056919612
5.4337058 -2.9514897 0.75924611 98 11 -0.05691731
5.0721412 -2.7562404 -0.70879221 4 4 -0.056915004
5.4147635 -2.9436486 0.97615117 85 12 -0.056912702
5.0635653 -2.7538705 -0.50428313 6 5 -0.056910396
5.4465623 -2.9621673 1.2051498 70 13 -0.056908093
5.2280917 -2.8445323 -0.31192234 6 6 -0.056905787
5.3898644 -2.9337699 1.4167417 78 14 -0.056903485
5.1509333 -2.8048823 -0.10237581 2 7 -0.056901183
3.0377333 -1.660355 -0.92760748 13 0 -0.056878142
5.3114629 -2.9031231 0.10565687 17 8 -0.056875836
3.4880326 -1.9072689 -0.91780037 8 1 -0.056873534
5.4420791 -2.9794507 0.54280597 40 10 -0.05686662
4.9255786 -2.697793 -0.88948649 2 3 -0.056864318
5.4251108 -2.9713922 0.75948983 96 11 -0.056862012
5.4071836 -2.9628003 -0.75705242 26 4 -0.056859709
5.4477606 -2.9862702 0.98397291 100 12 -0.056857407
5.4417448 -2.9842076 -0.54298031 62 5 -0.056855101
5.4459958 -2.9877756 1.2074393 71 13 -0.056852799
5.4399924 -2.9857175 -0.32521567 54 6 -0.056850493
5.4354458 -2.9844568 1.4315885 43 14 -0.056848191
5.4338369 -2.9835734 -0.10820492 21 7 -0.056845885
5.4690986 -3.0041766 1.6719712 1 15 -0.056843583
3.0403786 -1.6756105 -0.93019569 11 0 -0.056822844
5.3147955 -2.9302945 0.1059361 22 8 -0.056820542
3.4793119 -1.9190991 -0.91735035 10 1 -0.056818236
4.938323 -2.7249763 0.2955935 2 9 -0.056815933
5.4264126 -2.9955406 0.542283 30 10 -0.056811325
4.916132 -2.7149701 -0.88948649 1 3 -0.056809023
5.4141836 -2.9912565 0.75948983 96 11 -0.056806717
5.4067121 -2.9883604 -0.75851488 26 4 -0.056804415
5.4264064 -3.0004821 0.98209572 91 12 -0.056802109
5.4434996 -3.0099335 -0.54420048 65 5 -0.056799807
5.4235082 -3.0001154 1.2047681 66 13 -0.056797501
5.433033 -3.0066226 -0.32542503 61 6 -0.056795198
5.4369292 -3.0100186 1.4347378 35 14 -0.056792893
5.431612 -3.0083139 -0.10837945 27 7 -0.05679059
5.4648104 -3.0279469 1.6740416 15 15 -0.056788284
3.0260677 -1.6815218 -0.92760748 8 0 -0.056767549
4.9707074 -2.763252 0.099269286 2 8 -0.056765243
3.4811075 -1.9359682 -0.91959995 8 1 -0.056762941
4.9951034 -2.7790973 0.29957107 2 9 -0.056760639
4.3387618 -2.4139323 -0.96511191 1 2 -0.056758333
5.3811054 -2.9950845 0.53879678 15 10 -0.056756031
4.9273348 -2.7436459 -0.89324087 1 3 -0.056753725
5.4297218 -3.0246272 0.76314586 98 11 -0.056751423
5.41012 -3.0149455 -0.76046479 24 4 -0.056749117
5.4331536 -3.0290244 0.98522437 95 12 -0.056746814
5.4347 -3.0298865 -0.54437476 63 5 -0.056744508
5.4455795 -3.0371983 1.2120188 72 13 -0.056742206
5.4015751 -3.0138912 -0.32416895 66 6 -0.0567399
5.4383006 -3.0356276 1.4378871 13 14 -0.056737598
5.318069 -2.9697323 -0.10632006 21 7 -0.056735292
6.2704835 -3.5030184 1.9245785 8 15 -0.05673299
3.0100677 -1.6864091 -0.92450172 13 0 -0.056712255
4.8947453 -2.7434337 0.097942911 6 8 -0.056709949
3.4760282 -1.9490608 -0.92004979 10 1 -0.056707647
4.8813343 -2.7370369 0.2932907 2 9 -0.056705341
4.2138758 -2.3637497 -0.93916196 1 2 -0.056703039
4.8180928 -2.7037873 0.48336574 2 10 -0.056700733
4.8970585 -2.7492247 -0.88948649 1 3 -0.05669843
5.4312468 -3.0503671 0.76485211 94 11 -0.056696124
5.4012938 -3.0347846 -0.76070851 22 4 -0.056693822
5.4265232 -3.04896 0.98585016 95 12 -0.056691516
5.4015121 -3.0361476 -0.54210871 65 5 -0.056689214
5.4349451 -3.0561883 1.2120188 71 13 -0.056686908
5.4432435 -3.0621049 -0.3273091 68 6 -0.056684606
5.451447 -3.0679727 1.4441857 22 14 -0.0566823
5.3291035 -2.9991202 -0.10673892 18 7 -0.056679998
6.3026004 -3.548435 1.9380372 21 15 -0.056677692
3.0024805 -1.6959558 -0.92398405 11 0 -0.056656957
5.3870668 -3.0428929 0.10799549 20 8 -0.056654654
3.4593658 -1.9548247 -0.91735035 10 1 -0.056652348
5.3238049 -3.0096109 0.32050541 2 9 -0.056650046
4.2021809 -2.3765116 -0.93839866 1 2 -0.05664774
5.4224916 -3.0678983 0.54507202 47 10 -0.056645438
4.8913527 -2.7673943 -0.89011216 1 3 -0.056643132
5.4228292 -3.0693388 0.76509583 98 11 -0.05664083
5.4188385 -3.0683289 -0.76460832 11 4 -0.056638524
5.4261594 -3.0737247 0.98772728 95 12 -0.056636222
5.3874145 -3.053019 -0.54176009 63 5 -0.056633916
5.4145327 -3.0683868 1.2097291 68 13 -0.056631614
5.4261088 -3.0761988 -0.32689041 68 6 -0.056629308
5.4480238 -3.0898793 1.4459854 52 14 -0.056627005
5.3446908 -3.0325065 -0.10726249 23 7 -0.056624703
3.0035555 -1.7097255 -0.92605454 8 0 -0.056601662
5.3329701 -3.0369403 0.10712288 12 8 -0.056599356
3.4508283 -1.9659237 -0.91690052 8 1 -0.056597054
4.2283907 -2.4098756 -0.94603103 1 2 -0.056592446
5.405365 -3.0819154 0.54437476 27 10 -0.05659014
4.9502983 -2.8236001 -0.90262699 1 3 -0.056587838
5.362082 -3.0597179 0.75802737 99 11 -0.056585532
5.3908553 -3.0773842 -0.76217091 5 4 -0.056583229
5.4051051 -3.0867696 0.98585016 87 12 -0.056580923
5.3698044 -3.0678527 -0.54106283 75 5 -0.056578621
5.3850369 -3.0765555 1.2055314 61 13 -0.056576319
5.3806577 -3.075299 -0.32479697 69 6 -0.056574013
5.4608889 -3.1224198 1.452284 82 14 -0.056571711
5.3583736 -3.0650446 -0.10775116 28 7 -0.056569405
6.2508469 -3.5769966 1.9297549 157 15 -0.056567103
3.002295 -1.7236083 -0.92760748 9 0 -0.056546364
5.3656921 -3.0804272 0.10799549 12 8 -0.056544062
3.4439449 -1.9779572 -0.91690052 11 1 -0.056541756
5.4130321 -3.1126316 0.54629219 30 10 -0.056534845
4.8988214 -2.818085 -0.89511812 1 3 -0.056532539
5.4184761 -3.1170204 0.76753318 100 11 -0.056530237
5.3680367 -3.0892518 -0.76046479 1 4 -0.056527935
5.4148407 -3.117445 0.98960453 97 12 -0.056525629
5.3866868 -3.102488 -0.54385179 55 5 -0.056523327
5.3890347 -3.1050935 1.2089659 31 13 -0.056521021
5.3555069 -3.0870202 -0.32395959 53 6 -0.056518719
5.4730425 -3.1560426 1.4585826 80 14 -0.056516413
5.3268547 -3.071743 -0.1073323 15 7 -0.05651411
2.9845562 -1.7273041 -0.92398405 11 0 -0.056491069
5.363019 -3.105083 0.10817002 15 8 -0.056488764
3.4501622 -1.9983804 -0.92049968 11 1 -0.056486461
5.3991499 -3.1272602 0.32699507 2 9 -0.056484155
4.8992076 -2.8411138 -0.89699531 1 3 -0.056477245
5.4052982 -3.1358633 0.76728946 59 11 -0.056474943
5.3463769 -3.1029274 -0.75900233 1 4 -0.056472637
5.3885493 -3.1274035 0.98678869 20 12 -0.056470335
5.3689322 -3.1172709 -0.5431546 48 5 -0.056468029
5.3917441 -3.1317739 1.2120188 33 13 -0.056465726
5.3602405 -3.114727 -0.32490164 53 6 -0.05646342
5.5024266 -3.198633 1.4693804 73 14 -0.056461118
5.3109131 -3.0873036 -0.10722758 13 7 -0.056458812
2.9801774 -1.7386851 -0.92450172 9 0 -0.056435775
5.3388748 -3.1147885 0.10789078 15 8 -0.056433469
3.4351015 -2.004899 -0.9182502 10 1 -0.056431167
5.3813019 -3.1420591 0.32657638 2 9 -0.056428861
5.2965589 -3.0950589 0.53670508 2 10 -0.056424253
5.3982968 -3.1557741 0.76777691 26 11 -0.056419645
4.948791 -2.8941574 -0.70391744 13 4 -0.056417342
5.3554344 -3.1332264 0.98272139 53 12 -0.056415036
5.3545794 -3.1339803 -0.54280597 51 5 -0.056412734
5.3948846 -3.1575706 1.2150718 19 13 -0.056410428
5.3636708 -3.1405582 -0.32573903 53 6 -0.056408126
5.5220566 -3.234591 1.4774785 45 14 -0.05640582
5.2690492 -3.0876253 -0.1065993 7 7 -0.056403518
5.4230828 -3.1791596 1.6843945 9 15 -0.056401212
2.969399 -1.745621 -0.92294878 8 0 -0.056380477
5.2504029 -3.0877883 0.10632006 2 8 -0.056378175
3.4784703 -2.0465231 -0.93174726 2 1 -0.056375869
4.1943316 -2.4686782 -0.94603103 1 2 -0.05637126
5.365242 -3.1591074 0.54472339 2 10 -0.056368958
4.2244687 -2.4884026 -0.77654076 2 3 -0.056366652
5.3821177 -3.1715751 0.76704568 28 11 -0.05636435
5.0070605 -2.9517388 -0.71366698 1 4 -0.056362044
5.3989134 -3.1840117 0.99273324 77 12 -0.056359742
5.3590512 -3.1617634 -0.54437476 90 5 -0.056357436
5.3736844 -3.1703968 1.212782 53 13 -0.056355134
5.3492355 -3.1572313 -0.32552966 51 6 -0.056352828
5.5258346 -3.2627645 1.4815277 45 14 -0.056350525
5.3322744 -3.1497312 -0.10810021 69 7 -0.05634822
6.1853261 -3.6550777 1.9250962 14 15 -0.056345917
2.9613192 -1.7555075 -0.92243111 13 0 -0.056325182
5.2911973 -3.1366885 0.10736721 10 8 -0.056322876
3.4914193 -2.0705814 -0.93714613 2 1 -0.056320574
5.3695416 -3.1856656 0.32720444 8 9 -0.056318268
4.1548662 -2.4659984 -0.93916196 1 2 -0.056315966
5.3861766 -3.1980779 0.54803526 15 10 -0.05631366
4.1898446 -2.4887366 -0.77184772 12 3 -0.056311358
5.3880811 -3.2004802 0.76948309 87 11 -0.056309052
5.4047465 -3.2129323 0.99586189 85 12 -0.056304444
5.375381 -3.1967456 -0.54716372 42 5 -0.056302141
5.4042087 -3.2151666 1.2223225 67 13 -0.056299835
5.339344 -3.1778376 -0.32563433 50 6 -0.056297533
5.3748622 -3.2002478 1.4441857 65 14 -0.056295231
5.4209027 -3.2276607 -0.11012468 33 7 -0.056292925
6.1725297 -3.6766462 1.9250962 4 15 -0.056290623
2.963465 -1.7707884 -0.92501926 12 0 -0.056269884
5.3466048 -3.1960762 0.1087285 10 8 -0.056267582
3.4938414 -2.089365 -0.93984544 2 1 -0.056265276
4.9401398 -2.9542711 0.3016645 2 9 -0.056262974
4.1664505 -2.4925814 -0.94374132 5 2 -0.056260668
5.3647237 -3.210721 0.54698944 10 10 -0.056258366
4.1896057 -2.5084207 -0.77341211 18 3 -0.05625606
5.3967505 -3.2324476 0.77240795 89 11 -0.056253757
5.3901095 -3.2297485 0.99523622 85 12 -0.056249149
5.4034939 -3.2390499 -0.55117291 51 5 -0.056246847
5.4081059 -3.243098 1.225757 71 13 -0.056244541
5.3316445 -3.1985111 -0.32584369 74 6 -0.056242239
5.3358116 -3.2010109 1.4365374 88 14 -0.056239933
5.4216051 -3.2537665 -0.11036902 67 7 -0.056237631
6.1712518 -3.7051311 1.9287195 29 15 -0.056235325
2.9443362 -1.7726344 -0.92087817 7 0 -0.05621459
5.3274117 -3.2086296 0.10855397 5 8 -0.056212284
3.5102623 -2.1150196 -0.94614416 2 1 -0.056209981
4.9457121 -2.9799135 0.30260652 2 9 -0.056207675
4.1430287 -2.4972627 -0.94030684 10 2 -0.056205373
5.3762274 -3.241868 0.54925549 10 10 -0.056203071
4.1812649 -2.5223 -0.77341211 19 3 -0.056200765
5.401298 -3.259557 0.77460164 91 11 -0.056198463
5.3523121 -3.2312696 0.99023032 87 12 -0.056193855
5.4148946 -3.2703407 -0.55343896 65 5 -0.056191549
5.4040432 -3.265075 1.2272835 71 13 -0.056189246
5.3603215 -3.2399359 -0.32825115 62 6 -0.056186941
5.3568549 -3.2378407 1.4450855 15 14 -0.056184638
5.4022293 -3.2665536 -0.11019449 60 7 -0.056182332
6.140749 -3.7145765 1.9230256 34 15 -0.05618003
2.9384418 -1.7823887 -0.92087817 12 0 -0.056159291
5.3423858 -3.2418394 0.10907754 15 8 -0.056156989
3.4649158 -2.10339 -0.93579644 1 1 -0.056154687
4.9421091 -3.0013061 0.30302522 2 9 -0.056152381
4.1460319 -2.5188451 -0.94297814 10 2 -0.056150079
5.3654475 -3.2596784 0.54925549 12 10 -0.056147773
4.1678138 -2.5330739 -0.77247345 16 3 -0.056145471
5.397244 -3.2815757 0.77557659 91 11 -0.056143165
5.366313 -3.2653358 0.99492329 81 12 -0.056138556
5.4017439 -3.2881868 -0.55326468 66 5 -0.056136254
5.3188338 -3.2389896 1.2104924 70 13 -0.056133948
5.3865047 -3.2814877 -0.33055395 62 6 -0.056131646
6.3440609 -3.8648362 1.7150269 61 14 -0.05612934
5.3873792 -3.2833099 -0.11012468 57 7 -0.056127038
6.1277452 -3.7359891 1.9230256 34 15 -0.056124732
2.9351854 -1.7951623 -0.9219135 13 0 -0.056103997
5.3321738 -3.2624416 0.10911245 15 8 -0.056101695
3.473804 -2.1262488 -0.94029546 1 1 -0.056099389
4.9481082 -3.0298293 0.30407193 2 9 -0.056097087
4.1217046 -2.5247943 -0.93954355 10 2 -0.056094781
5.3738518 -3.2918103 0.5513472 22 10 -0.056092478
4.1517639 -2.544204 -0.771222 16 3 -0.056090172
5.376718 -3.2961476 0.77435786 89 11 -0.05608787
5.3829331 -3.3025432 1.0002421 87 12 -0.056083262
5.3964481 -3.3121321 -0.55396187 17 5 -0.056080956
5.3838873 -3.3057163 1.2280468 71 13 -0.056078654
5.3931618 -3.3127069 -0.33170533 63 6 -0.056076348
6.2916613 -3.8646033 1.7046791 66 14 -0.056074046
5.4025693 -3.3197844 -0.11068317 58 7 -0.05607174
2.9269416 -1.8048944 -0.92139584 8 0 -0.056048702
5.3576226 -3.3050611 0.10988036 12 8 -0.056046396
3.4593539 -2.1348727 -0.93849587 1 1 -0.056044094
5.151104 -3.1801443 0.31726059 2 9 -0.056041788
4.1429362 -2.5577302 -0.94641262 5 2 -0.056039486
4.1474528 -2.5625193 -0.77216065 18 3 -0.056034878
5.3764215 -3.3231382 0.7760641 94 11 -0.056032572
4.234488 -2.6183369 -0.61129665 1 4 -0.05603027
5.3489528 -3.3087413 0.99617481 75 12 -0.056027964
5.0798588 -3.1422856 -0.52258581 2 5 -0.056025662
5.3673067 -3.3213904 1.2269019 64 13 -0.056023356
5.3951507 -3.3399229 -0.33254269 66 6 -0.056021053
6.2227812 -3.8537786 1.6898323 64 14 -0.056018747
5.3886652 -3.33851 -0.11064825 22 7 -0.056016445
2.9255459 -1.8181595 -0.92294878 11 0 -0.055993404
5.0777316 -3.1569216 0.10436539 2 8 -0.055991102
3.4419522 -2.1407602 -0.93579644 1 1 -0.055988796
5.3672094 -3.339494 0.33128664 17 9 -0.055986494
4.0989771 -2.550396 -0.93839866 3 2 -0.055984188
4.1485438 -2.5832455 -0.77403784 19 3 -0.05597958
5.3833222 -3.353431 0.77874517 98 11 -0.055977277
4.2152138 -2.6268024 -0.60983425 4 4 -0.055974972
5.3457518 -3.332618 0.99773914 78 12 -0.055972669
5.3985543 -3.3655357 -0.55657655 30 5 -0.055970363
5.3373561 -3.3286774 1.2227042 72 13 -0.055968061
5.3563476 -3.34182 -0.33086795 55 6 -0.055965759
6.1646557 -3.8476176 1.6776849 73 14 -0.055963453
5.2294083 -3.2651596 -0.10761154 2 7 -0.055961151
2.9093583 -1.8222077 -0.9198429 12 0 -0.05593811
5.3174734 -3.3317661 0.10953131 10 8 -0.055935804
3.4311564 -2.1506915 -0.93489659 1 1 -0.055933502
5.3476439 -3.35197 0.33076328 6 9 -0.055931196
4.0900493 -2.5646884 -0.93839866 1 2 -0.055928893
5.3334384 -3.345659 0.55082428 30 10 -0.055926587
4.1378279 -2.5966609 -0.77372491 16 3 -0.055924285
5.3278718 -3.3447595 0.77240795 85 11 -0.055921983
4.2132049 -2.6449881 -0.61080921 13 4 -0.055919677
5.3647823 -3.3692379 1.0033708 87 12 -0.055917375
5.3439884 -3.3587794 1.2269019 67 13 -0.055912767
5.3784657 -3.3817589 -0.33296138 63 6 -0.055910461
6.1023703 -3.8369205 1.6641879 78 14 -0.055908158
5.2050109 -3.2739654 -0.1073323 2 7 -0.055905852
2.8967645 -1.8277222 -0.91777241 9 0 -0.055882812
5.3638897 -3.3856714 0.11071807 30 8 -0.055880509
3.4404826 -2.1724622 -0.93939561 1 1 -0.055878207
4.9903021 -3.151082 0.30930555 2 9 -0.055875901
4.0914812 -2.5845287 -0.94068843 3 2 -0.055873599
5.3610525 -3.3878069 0.55483341 65 10 -0.055871293
4.132534 -2.6124792 -0.7743507 16 3 -0.055868991
5.340239 -3.3772631 0.77582031 89 11 -0.055866685
4.2178326 -2.6674333 -0.61275911 46 4 -0.055864383
5.3719425 -3.3986266 1.0068123 91 12 -0.055862077
5.0556507 -3.1997554 -0.52345741 1 5 -0.055859774
5.3577018 -3.3922362 1.2326262 68 13 -0.055857468
5.3975925 -3.4188128 -0.33484548 69 6 -0.055855166
6.0501027 -3.8321099 1.6533903 76 14 -0.05585286
5.3106761 -3.3650594 -0.10974073 6 7 -0.055850558
2.8923178 -1.8383541 -0.91829002 10 0 -0.055827517
5.3627577 -3.4098778 0.1109275 30 8 -0.055825215
3.4266827 -2.1796758 -0.93759602 1 1 -0.055822909
5.0017328 -3.1815484 0.31066626 52 9 -0.055820607
4.0795755 -2.595974 -0.93992513 1 2 -0.055818301
5.3581929 -3.4109159 0.55570501 30 10 -0.055815998
4.1205153 -2.6240466 -0.77372491 16 3 -0.055813693
5.3340325 -3.3981538 0.77655149 87 11 -0.05581139
4.2407737 -2.7016711 -0.61739016 78 4 -0.055809084
5.3756356 -3.4259768 1.0096282 95 12 -0.055806782
4.739253 -3.0215633 -0.49173269 15 5 -0.055804476
5.369597 -3.4247642 1.2379688 72 13 -0.055802174
5.3761234 -3.4302471 -0.33421743 68 6 -0.055799868
6.0077906 -3.8332839 1.6452919 43 14 -0.055797566
5.3601689 -3.4213841 -0.1109973 12 7 -0.05579526
5.9560266 -3.8031812 1.8935202 8 15 -0.055792958
2.8894596 -1.8500191 -0.91932529 10 0 -0.055772223
5.3682599 -3.4384282 0.11127654 50 8 -0.055769917
3.4227173 -2.1931295 -0.93849587 1 1 -0.055767614
4.9962006 -3.2013497 0.31098029 54 9 -0.055765308
4.0874729 -2.6200831 -0.94374132 1 2 -0.055763006
5.3602691 -3.4372692 0.55709946 40 10 -0.0557607
4.1184421 -2.6419632 -0.77497649 16 3 -0.055758398
5.3628306 -3.4415543 0.7824012 94 11 -0.055756092
4.2317915 -2.715719 -0.61739016 100 4 -0.05575379
5.2977524 -3.4010968 0.99711335 72 12 -0.055751484
4.7727942 -3.0652556 -0.49626479 2 5 -0.055749182
5.3714242 -3.4510412 1.2410218 65 13 -0.055746876
5.3495975 -3.4383376 -0.33327541 62 6 -0.055744573
5.358984 -3.4443705 1.4707299 19 14 -0.055742268
5.3555222 -3.4434664 -0.11113693 13 7 -0.055739965
5.2057395 -3.348444 1.6585126 1 15 -0.055737659
2.8872035 -1.8642437 -0.92087817 10 0 -0.055727482
5.3634162 -3.4644399 0.11145107 30 8 -0.05572518
3.4109979 -2.2041407 -0.93759602 1 1 -0.055722874
4.987226 -3.2226779 0.31118962 44 9 -0.055720571
4.0641923 -2.6272321 -0.94068843 1 2 -0.055718265
4.9890013 -3.226295 0.51979685 92 10 -0.055715963
4.11656 -2.6631217 -0.77654076 14 3 -0.055713657
5.369575 -3.4750631 0.78532612 100 11 -0.055711355
4.215857 -2.7294478 -0.61665893 66 4 -0.055709049
5.357615 -3.4686499 1.0108796 95 12 -0.055706747
4.9800587 -3.2254448 -0.51909959 1 5 -0.055704441
5.3746099 -3.4823158 1.2448379 66 13 -0.055702139
5.3782554 -3.486011 -0.3358922 63 6 -0.055699833
5.6312556 -3.6513934 1.5494629 3 14 -0.055697531
4.6392436 -3.0081573 -0.096511811 1 7 -0.055695225
5.8508639 -3.7952409 1.8686736 45 15 -0.055692922
2.8628666 -1.8627212 -0.9151842 8 0 -0.055672187
4.971415 -3.2346463 0.10352767 68 8 -0.055669881
3.4069359 -2.2175658 -0.93849587 1 1 -0.055667579
4.980967 -3.2433364 0.31150365 46 9 -0.055665273
4.054997 -2.6414027 -0.94068843 1 2 -0.055662971
4.9676938 -3.2371633 0.51875097 100 10 -0.055660665
4.1192908 -2.6843073 -0.77873087 16 3 -0.055658363
5.3480439 -3.4863458 0.78386366 99 11 -0.055656057
4.19348 -2.7347386 -0.61470902 25 4 -0.055653755
5.355401 -3.4938066 1.0127568 95 12 -0.055651449
4.5750051 -2.9858229 -0.47796208 9 5 -0.055649146
5.3728971 -3.5065577 1.2471277 66 13 -0.05564684
4.5639234 -2.9797266 -0.28564969 22 6 -0.055644538
5.8361144 -3.8117764 1.6092998 61 14 -0.055642232
4.5902119 -2.999176 -0.095708996 42 7 -0.05563993
5.8020048 -3.792388 1.8572855 45 15 -0.055637624
2.8518264 -1.8690275 -0.91363126 9 0 -0.055616889
4.960094 -3.2519801 0.10352767 52 8 -0.055614587
3.3991745 -2.2294447 -0.93849587 1 1 -0.055612281
4.9785352 -3.2653131 0.31202701 44 9 -0.055609979
4.0462151 -2.654835 -0.94068843 1 2 -0.055607673
4.9785848 -3.2678313 0.52101701 75 10 -0.055605371
4.5804949 -3.0076785 -0.86789852 11 3 -0.055603065
5.347456 -3.5126219 0.78556985 89 11 -0.055600762
4.3580999 -2.8638253 -0.64030159 18 4 -0.055598456
5.3602943 -3.5223944 1.0158856 97 12 -0.055596154
4.5284514 -2.9768996 -0.4741272 17 5 -0.055593848
5.3639054 -3.5274489 1.2478909 66 13 -0.055591546
4.5301352 -2.9802721 -0.28418428 24 6 -0.05558924
5.7723112 -3.798914 1.5953529 69 14 -0.055586938
4.5835819 -3.0165794 -0.095778808 42 7 -0.055584636
5.726469 -3.7701774 1.8370978 21 15 -0.05558233
2.8581817 -1.8874876 -0.91777241 11 0 -0.055561595
4.9392705 -3.2617986 0.10331824 38 8 -0.055559289
3.3689992 -2.2256665 -0.93219715 1 1 -0.055556986
4.9787707 -3.2903802 0.3127597 26 9 -0.055554681
3.9779665 -2.6299641 -0.92695016 1 2 -0.055552378
4.977118 -3.2917848 0.5220629 100 10 -0.055550072
4.5886192 -3.034838 -0.87134004 48 3 -0.05554777
4.9715619 -3.2893572 0.73194736 100 11 -0.055545464
4.5223894 -2.9933045 -0.66589415 15 4 -0.055543162
5.3018489 -3.5105479 1.0071251 78 12 -0.05554086
4.4947782 -2.9772856 -0.47168687 17 5 -0.055538554
5.3554516 -3.547385 1.2486541 61 13 -0.055536252
4.4769392 -2.9665937 -0.28146279 24 6 -0.055533946
5.7320681 -3.799731 1.5877045 74 14 -0.055531643
4.5830235 -3.0391917 -0.095988236 41 7 -0.055529337
5.6182938 -3.7271342 1.8065571 14 15 -0.055527035
2.8535149 -1.8980253 -0.91829002 9 0 -0.055506296
4.8978882 -3.2590804 0.10268996 2 8 -0.055503994
3.357965 -2.2352531 -0.93129742 1 1 -0.055501688
4.5450053 -3.0265594 0.28617305 15 9 -0.055499386
4.9661751 -3.3082714 0.5220629 57 10 -0.055494778
4.592792 -3.0606959 -0.87415588 50 3 -0.055492476
4.9666557 -3.3110957 0.73292232 70 11 -0.05549017
4.465672 -2.9782331 -0.65906948 16 4 -0.055487867
5.3602209 -3.576175 1.0205785 91 12 -0.055485561
4.4550476 -2.972271 -0.46854928 17 5 -0.055483259
5.3936582 -3.5998435 1.2604843 52 13 -0.055480953
4.4283524 -2.9566948 -0.27905536 22 6 -0.055478651
5.6669135 -3.7850797 1.5733078 80 14 -0.055476345
5.4285793 -3.6286314 1.7496167 7 15 -0.055471737
2.8500819 -1.9101254 -0.91932529 10 0 -0.055451002
4.5393457 -3.0434186 0.09539485 42 8 -0.055448696
3.3760371 -2.2643287 -0.93849587 1 1 -0.055446394
4.5360713 -3.0435188 0.28627771 45 9 -0.055444092
3.9599729 -2.6569803 -0.92695016 1 2 -0.055441786
5.0174599 -3.3677812 0.52868676 100 10 -0.055439483
4.9946165 -3.3549774 0.73877203 100 11 -0.055434875
4.4157047 -2.9672303 -0.6532197 16 4 -0.055432569
5.2608175 -3.5364559 1.0039965 76 12 -0.055430267
4.4148817 -2.9677961 -0.46541166 17 5 -0.055427961
5.4527416 -3.6668534 1.2772754 82 13 -0.055425659
4.394805 -2.9565275 -0.27758995 22 6 -0.055423353
4.9399004 -3.3257365 -0.10394654 9 7 -0.055418745
5.3806291 -3.6238172 1.7382288 5 15 -0.055416442
2.8369927 -1.915738 -0.91725475 15 0 -0.055395707
4.5303521 -3.060365 0.095429763 19 8 -0.055393402
3.3584251 -2.2695529 -0.93579644 1 1 -0.055391099
4.5882959 -3.1018403 0.29025525 1 9 -0.055388793
3.9506743 -2.6707869 -0.92695016 1 2 -0.055386491
5.0106249 -3.3886232 0.52920967 100 10 -0.055384185
4.9565711 -3.3545895 0.73487222 98 11 -0.055379577
4.3790197 -2.964819 -0.64931989 15 4 -0.055377275
4.9622216 -3.3609405 0.94924444 100 12 -0.055374969
4.3676877 -2.9593709 -0.46157682 16 5 -0.055372667
5.5276756 -3.7453322 1.2978829 53 13 -0.055370361
4.3513923 -2.9494383 -0.27549651 22 6 -0.055368058
5.5726085 -3.7786162 1.5544118 80 14 -0.055365752
4.9100575 -3.3306115 -0.10356259 59 7 -0.05536345
5.3471661 -3.6284752 1.7314996 10 15 -0.055361144
2.8331466 -1.928297 -0.91829002 20 0 -0.055340409
3.3247094 -2.2637141 -0.92859799 1 1 -0.055335801
3.9408586 -2.6852489 -0.92695016 1 2 -0.055331193
4.9899397 -3.4013541 0.52833807 100 10 -0.055328891
4.4505997 -3.0348554 -0.8531937 1 3 -0.055326585
4.9448309 -3.371871 0.73487222 77 11 -0.055324282
4.345686 -2.9644258 -0.64590758 16 4 -0.055321977
4.9928832 -3.4071906 0.95737904 75 12 -0.055319674
4.32442 -2.952132 -0.45809054 16 5 -0.055317368
5.4441967 -3.7179577 1.2814733 8 13 -0.055315066
4.3174648 -2.9495933 -0.27403107 23 6 -0.05531276
5.5024109 -3.7605302 1.5386652 26 14 -0.055310458
5.3057613 -3.6274924 1.722182 20 15 -0.05530585
2.8359578 -1.9447302 -0.92139584 10 0 -0.055285115
5.2850103 -3.6255009 0.11186992 2 8 -0.055282809
3.3260305 -2.2825 -0.93129742 1 1 -0.055280507
3.9314613 -2.6989884 -0.92695016 1 2 -0.055275898
4.9977446 -3.432287 0.53042984 55 10 -0.055273592
4.4497476 -3.0570831 -0.85507089 4 3 -0.05527129
4.942255 -3.3967178 0.73633462 85 11 -0.055268984
4.3151622 -2.9668374 -0.64298266 16 4 -0.055266682
4.9630542 -3.4122877 0.95393753 97 12 -0.055264376
4.2911067 -2.9514019 -0.45565021 16 5 -0.055262074
4.9880214 -3.4320183 1.1769099 57 13 -0.055259772
4.2676578 -2.9374685 -0.27151898 23 6 -0.055257466
5.2886195 -3.641567 1.4824274 1 14 -0.055255163
4.9212728 -3.3886242 -0.10429558 93 7 -0.055252858
5.2787485 -3.6361279 1.7175232 5 15 -0.055250555
2.8974965 -2.0018361 -0.9436543 5 0 -0.055229817
5.3552203 -3.6998396 0.11361516 2 8 -0.055227514
3.3216496 -2.295733 -0.93219715 1 1 -0.055225208
3.980144 -2.7529004 -0.94068843 1 2 -0.0552206
5.0103097 -3.4667161 0.53304452 37 10 -0.055218298
4.5061874 -3.1179056 -0.86789852 74 3 -0.055215992
4.9962535 -3.4582798 0.74608415 85 11 -0.05521369
4.2661314 -2.9540095 -0.63713294 16 4 -0.055211388
4.9576082 -3.4340909 0.95518899 56 12 -0.055209082
4.2513013 -2.9459362 -0.45251262 16 5 -0.055206779
4.976613 -3.4485404 1.1769099 74 13 -0.055204473
4.2267056 -2.929985 -0.26953021 24 6 -0.055202171
5.22367 -3.6224382 1.4675807 10 14 -0.055199865
4.3031316 -2.9851887 -0.091415711 58 7 -0.055197563
5.193017 -3.6038663 1.6937119 3 15 -0.055195257
2.8781562 -2.0026062 -0.93951315 4 0 -0.055174522
5.3422728 -3.7185102 0.11361516 2 8 -0.055172216
3.3328068 -2.3206768 -0.93759602 1 1 -0.055169914
3.9129989 -2.7256868 -0.92695016 1 2 -0.055165306
5.024941 -3.5015366 0.53583348 27 10 -0.055163004
4.2651653 -2.9732075 -0.82347113 19 3 -0.055160698
5.0053186 -3.4904599 0.7492528 73 11 -0.055158395
4.2232323 -2.9461677 -0.63225818 16 4 -0.055156089
4.9763689 -3.4728541 0.96113342 91 12 -0.055153787
4.2213879 -2.947072 -0.45042086 16 5 -0.055151481
4.9919109 -3.4849963 1.1833974 59 13 -0.055149179
4.1918902 -2.9275675 -0.26796013 23 6 -0.055146873
5.1327162 -3.5859623 1.4455354 15 14 -0.055144571
5.196238 -3.6330414 1.6988882 3 15 -0.055139963
2.8834505 -2.0220153 -0.9436543 5 0 -0.055119228
3.2991602 -2.3143899 -0.93039757 1 1 -0.055114619
3.9608285 -2.7806196 -0.94068843 1 2 -0.055110011
5.008812 -3.5176404 0.53548485 10 10 -0.055107705
4.2025156 -2.952482 -0.81345934 20 3 -0.055105403
5.0223417 -3.5284517 0.75364012 94 11 -0.055103097
4.1804404 -2.9380627 -0.62738341 16 4 -0.055100795
4.9803758 -3.5015655 0.96426219 48 12 -0.055098489
4.1703329 -2.9331343 -0.44606307 16 5 -0.055096187
4.975893 -3.5010104 1.1826342 81 13 -0.055093881
4.158267 -2.9268177 -0.26649469 23 6 -0.055091579
4.9761343 -3.5037773 1.4050443 95 14 -0.055089273
4.164463 -2.9322662 -0.088902563 4 7 -0.05508697
5.0398011 -3.5499218 1.6517832 52 15 -0.055084664
2.8574412 -2.018692 -0.93744266 5 0 -0.055063929
4.2181282 -2.9810779 0.090159133 4 8 -0.055061627
3.2938378 -2.3287163 -0.93129742 1 1 -0.055059321
4.2418242 -2.998935 0.27225167 9 9 -0.055057019
5.090838 -3.6018469 0.54559493 2 10 -0.055052411
4.1567116 -2.9420266 -0.80657619 24 3 -0.055050105
5.0223365 -3.5560122 0.75559002 91 11 -0.055047803
4.1469655 -2.9373016 -0.6239711 25 4 -0.055045497
5.0035858 -3.5440471 0.97114527 81 12 -0.055043194
4.1340585 -2.9292436 -0.44327411 34 5 -0.055040888
4.990871 -3.537658 1.1891217 44 13 -0.055038586
4.1382494 -2.9343834 -0.2658667 48 6 -0.05503628
4.9654632 -3.5222533 1.4054942 100 14 -0.055033978
4.1264749 -2.9271166 -0.088309184 6 7 -0.055031672
4.9864159 -3.538425 1.6383246 80 15 -0.05502937
2.8456552 -2.0252934 -0.93588972 4 0 -0.055008635
4.2000732 -2.9892516 0.089984603 12 8 -0.055006329
3.2860973 -2.3396263 -0.93129742 1 1 -0.055004027
4.2053008 -2.9951847 0.27057692 15 9 -0.055001721
3.9413195 -2.8082035 -0.94068843 1 2 -0.054999419
4.1517582 -2.9592342 -0.80751479 48 3 -0.05499481
5.0444589 -3.596849 0.76070851 100 11 -0.054992504
4.1485147 -2.9591067 -0.62567729 37 4 -0.054990202
5.0008321 -3.5683761 0.97302246 81 12 -0.054987896
4.1286731 -2.947129 -0.44379702 35 5 -0.054985594
4.9807096 -3.5553296 1.1895033 30 13 -0.054983288
4.121994 -2.9434474 -0.26544797 48 6 -0.054980986
4.9331412 -3.5239742 1.3996454 76 14 -0.054978684
4.0934544 -2.9252257 -0.087820508 6 7 -0.054976378
4.9771776 -3.5580554 1.6393598 26 15 -0.054974075
2.8577659 -2.0482235 -0.94210136 5 0 -0.054953337
4.1879883 -3.0027297 0.089949705 10 8 -0.054951034
3.2525737 -2.3329098 -0.92409897 1 1 -0.054948729
3.8745608 -2.780055 -0.92695016 1 2 -0.05494412
4.1462169 -2.977165 -0.80845338 48 3 -0.054939512
4.9964032 -3.5889578 0.7553463 87 11 -0.05493721
4.1333237 -2.9700947 -0.62494606 40 4 -0.054934904
4.97293 -3.5734127 0.96989381 45 12 -0.054932602
4.125349 -2.9654555 -0.44449428 38 5 -0.0549303
4.6335444 -3.3319926 1.1093636 18 13 -0.054927994
4.1165586 -2.9613168 -0.265762 49 6 -0.054925691
4.5680814 -3.2873373 1.2993174 15 14 -0.054923385
4.9120445 -3.536166 1.6217602 13 15 -0.054918777
2.8459001 -2.0547938 -0.94054842 4 0 -0.054898042
3.2606175 -2.3550937 -0.92859799 1 1 -0.054893434
4.1459632 -2.9956663 0.2680648 1 9 -0.054891128
3.8330107 -2.7705607 -0.91931778 1 2 -0.054888826
4.1315193 -2.9874256 -0.80751479 46 3 -0.054884218
5.0021667 -3.6183047 0.75802737 73 11 -0.054881915
4.1234522 -2.9837849 -0.62494606 45 4 -0.054879609
4.5555911 -3.2976978 0.89073795 38 12 -0.054877307
4.1294951 -2.9903545 -0.44606307 39 5 -0.054875001
4.549324 -3.2943716 1.0918092 18 13 -0.054872699
4.121273 -2.985497 -0.26670405 10 6 -0.054870393
4.5224395 -3.2773108 1.2894194 16 14 -0.054868091
5.090466 -3.6916573 1.6849121 39 15 -0.054863483
2.834383 -2.0608118 -0.93899554 4 0 -0.054842744
4.1577492 -3.0241089 0.089740276 2 8 -0.054840442
3.2271645 -2.3481164 -0.92139953 1 1 -0.05483814
3.8365006 -2.7924993 -0.92237073 1 2 -0.054833531
4.1370335 -3.0134597 -0.81064349 49 3 -0.054828923
4.9702539 -3.6217144 0.75510252 43 11 -0.054826617
4.1290531 -3.0098534 -0.62738341 42 4 -0.054824315
4.5089388 -3.2879746 0.88385481 37 12 -0.054822009
4.1195564 -3.0040319 -0.44606307 39 5 -0.054819707
4.5108337 -3.2905629 1.0853217 18 13 -0.054817401
4.4857888 -3.2746925 1.282221 16 14 -0.054812793
5.0588303 -3.6957285 1.6787004 3 15 -0.054808185
2.8209381 -2.0661271 -0.93692499 4 0 -0.05478745
3.2472401 -2.3801031 -0.92949772 1 1 -0.054782841
3.8203964 -2.8012307 -0.92084426 3 2 -0.054778233
4.1296744 -3.0302198 -0.81126922 47 3 -0.054773625
4.9287767 -3.6178982 0.7507152 49 11 -0.054771323
4.1281219 -3.0312979 -0.62884587 42 4 -0.054769017
4.4687777 -3.2826438 0.87822318 35 12 -0.054766715
4.1138625 -3.0219324 -0.44658601 44 5 -0.054764409
4.4724259 -3.2865248 1.0788342 18 13 -0.054762106
4.4539213 -3.2753222 1.2763723 20 14 -0.054757498
5.0147796 -3.6904633 1.6683476 11 15 -0.05475289
2.8105996 -2.0736675 -0.93588972 3 0 -0.054732155
3.2138288 -2.3729038 -0.92229939 1 1 -0.054727547
3.8990302 -2.8798685 -0.94221485 1 2 -0.054722939
4.1222486 -3.0469644 -0.81189495 46 3 -0.054718331
4.7628884 -3.5217798 0.72731632 100 11 -0.054716025
4.1334748 -3.0574942 -0.63128328 45 4 -0.054713722
4.4398251 -3.2852979 0.87478167 35 12 -0.054711416
4.1161017 -3.0457554 -0.44798052 39 5 -0.054709114
4.4277887 -3.2775869 1.0708202 18 13 -0.054706808
4.4205384 -3.2746098 1.2700737 20 14 -0.0547022
4.9832439 -3.6941402 1.662136 67 15 -0.054697596
2.8110967 -2.0892274 -0.93847787 4 0 -0.054676857
3.2023988 -2.3817816 -0.92139953 1 1 -0.054672249
3.8921041 -2.8958051 -0.94297814 1 2 -0.05466764
4.1195097 -3.0672338 -0.81345934 29 3 -0.054663032
4.9129515 -3.6593339 0.75217766 47 11 -0.05466073
4.122777 -3.0719039 -0.63128328 43 4 -0.054658424
4.4093246 -3.2866092 0.87102723 35 12 -0.054656122
4.3927126 -3.2754197 1.0650959 18 13 -0.054651514
4.3747206 -3.2643809 1.2601758 22 14 -0.054646906
4.9440036 -3.6918628 1.6533362 39 15 -0.054642297
2.8006938 -2.0967119 -0.93744266 3 0 -0.054621562
4.1695404 -3.1226213 0.090927035 2 8 -0.054619256
3.21278 -2.4069669 -0.9267984 1 1 -0.054616954
3.87883 -2.9070179 -0.94221485 1 2 -0.054612346
4.977953 -3.7348371 0.76412088 96 11 -0.054605436
4.1136165 -3.0874681 -0.63152701 39 4 -0.05460313
4.3583331 -3.2723289 0.86320543 38 12 -0.054600827
4.3545661 -3.2706892 1.0586084 18 13 -0.054596219
4.3305864 -3.2550433 1.2507279 22 14 -0.054591611
4.9141045 -3.6963241 1.6476421 37 15 -0.054587003
2.7837367 -2.0999823 -0.93433678 4 0 -0.054566264
4.1793685 -3.1528125 0.091380797 2 8 -0.054563962
3.1888037 -2.4064281 -0.92229939 1 1 -0.05456166
3.8368154 -2.897552 -0.93458253 1 2 -0.054557052
4.9395471 -3.7330401 0.76022106 98 11 -0.054550137
4.1202326 -3.1149774 -0.63420814 42 4 -0.054547835
4.3169494 -3.264883 0.857261 37 12 -0.054545529
4.3221984 -3.2712252 1.0536473 18 13 -0.054540921
4.2968779 -3.2544215 1.2444292 22 14 -0.054536313
4.4346137 -3.3599591 1.4907978 1 15 -0.054531705
2.7779279 -2.1108551 -0.93485445 5 0 -0.05451097
3.2016792 -2.4346135 -0.92859799 1 1 -0.054506361
3.8391783 -2.9204364 -0.93763542 1 2 -0.054501753
4.898983 -3.7306743 0.75607747 94 11 -0.054494843
4.1182623 -3.137275 -0.63567054 40 4 -0.054492537
4.2829576 -3.2639205 0.85288078 37 12 -0.054490235
4.2842116 -3.2660582 1.0471598 18 13 -0.054485627
4.2622519 -3.2516708 1.2376807 22 14 -0.054481018
4.4130554 -3.3691568 1.4876919 1 15 -0.05447641
2.7763081 -2.1257205 -0.93692499 5 0 -0.054455675
3.1622198 -2.4220753 -0.91959995 1 1 -0.054451067
3.8284485 -2.9344881 -0.93763542 1 2 -0.054446459
4.8402534 -3.7127147 0.74900907 85 11 -0.054439545
4.11831 -3.1600904 -0.63737667 39 4 -0.054437242
4.2558684 -3.2668231 0.84975213 34 12 -0.054434936
3.7198975 -2.8564415 -0.41032922 1 5 -0.054432634
4.2379594 -3.2554271 1.0387642 18 13 -0.054430328
4.2302203 -3.2518311 1.231832 22 14 -0.05442572
4.4227085 -3.4010277 1.494939 1 15 -0.054421112
2.7604351 -2.1273565 -0.93381917 4 0 -0.054397345
3.1634295 -2.4396887 -0.92229939 1 1 -0.054392736
3.7756867 -2.9129224 -0.92695016 1 2 -0.054388128
4.4734507 -3.4537356 -0.89511812 1 3 -0.05438352
4.7933512 -3.7020507 0.7436468 89 11 -0.054381218
4.1046672 -3.1713028 -0.63688928 39 4 -0.054378912
4.2168789 -3.2591743 0.8441205 34 12 -0.05437661
4.2090731 -3.2543149 1.0341848 18 13 -0.054372001
4.195323 -3.2460244 1.2246336 22 14 -0.054367393
4.4144607 -3.4180405 1.4959742 1 15 -0.054362785
2.7606225 -2.1429021 -0.93640739 3 0 -0.05434205
3.1456602 -2.4435434 -0.91959995 1 1 -0.054337442
3.7654958 -2.9260843 -0.92695016 1 2 -0.054332834
4.0153871 -3.1225178 -0.8056376 1 3 -0.054328226
4.5203056 -3.5164282 0.70318621 68 11 -0.05432592
4.1029716 -3.1929264 -0.63835168 39 4 -0.054323617
4.1805363 -3.2544587 0.83911461 35 12 -0.054321311
