# .PCD v0.7 - Point Cloud Data file format
VERSION 0.7
FIELDS x y z intensity ring time
SIZE 4 4 4 4 2 4
TYPE F F F F U F
COUNT 1 1 1 1 1 1
WIDTH 912
HEIGHT 1
VIEWPOINT 0 0 0 1 0 0 0
POINTS 912
DATA ascii
-1.0444285 0.1258349 0.092036456 100 10 -0.076318853
-1.0504134 0.12692796 0.12991273 100 11 -0.076314248
-1.0563033 0.12782672 -0.13064395 3 4 -0.076311938
-1.0275789 0.12453241 0.16394335 100 12 -0.076309636
-1.0364289 0.12560494 -0.091339223 12 5 -0.076307334
-1.0446388 0.12678513 0.20454726 92 13 -0.076305032
-1.0409006 0.12651579 -0.054952759 29 6 -0.076302722
-1.0484786 0.12762254 0.24384695 100 14 -0.07630042
-1.0639611 0.12969553 -0.01870898 90 7 -0.076298118
-0.99907792 0.12196331 0.26968947 14 15 -0.076295815
-0.49083608 0.060528025 -0.13251536 56 0 -0.07627508
-1.0359713 0.12793532 0.018220313 74 8 -0.076272771
-0.48736963 0.060273267 -0.11337533 53 1 -0.076270469
-1.0703657 0.13237271 0.056522839 100 9 -0.076268166
-1.0400285 0.12898922 0.091687836 100 10 -0.076263554
-1.046024 0.1301038 0.12942526 100 11 -0.07625895
-1.0637301 0.13249433 -0.1316189 5 4 -0.076256648
-1.0310807 0.12842765 0.16456908 100 12 -0.076254338
-1.035984 0.12922226 -0.091339223 12 5 -0.076252036
-1.0422417 0.13018751 0.20416564 100 13 -0.076249734
-1.0345073 0.12940452 -0.054638743 46 6 -0.076247431
-1.0557612 0.13225053 0.24564654 100 14 -0.076245122
-1.083367 0.13570859 -0.019058026 17 7 -0.076242819
-1.0120857 0.12695889 0.2733129 85 15 -0.076240517
-0.50020427 0.063456528 -0.13510354 55 0 -0.076219782
-1.0375253 0.13162173 0.018255217 100 8 -0.07621748
-1.0520655 0.13383973 0.055580791 100 9 -0.076212868
-1.0415483 0.13287096 0.09186215 100 10 -0.076208264
-0.49967164 0.063743427 -0.079781592 2 3 -0.076205954
-1.0377104 0.13256566 0.12845029 100 11 -0.076203652
-1.0573777 0.13526542 -0.13088769 6 4 -0.076201349
-1.0365041 0.13277929 0.16550769 36 12 -0.076199047
-1.0375029 0.13309127 -0.091513529 10 5 -0.076196738
-1.0495934 0.13464224 0.20569211 100 13 -0.076194435
-1.0380344 0.13334335 -0.05484809 49 6 -0.076192133
-1.0417871 0.13401049 0.24249724 100 14 -0.076189831
-1.0947866 0.14102231 -0.019267458 50 7 -0.076187529
-1.0058885 0.12974933 0.27176002 100 15 -0.076185219
-0.50382245 0.065613911 -0.13613883 54 0 -0.076164484
-1.0628372 0.13860428 0.01870898 100 8 -0.076162182
-1.0476313 0.13699315 0.055371448 100 9 -0.07615757
-1.0450531 0.13684154 0.092210777 100 10 -0.076152965
-1.0392095 0.13644536 0.12869403 100 11 -0.076148354
-1.0568991 0.13895556 -0.13088769 6 4 -0.076146051
-1.026242 0.1351074 0.16394335 33 12 -0.076143749
-1.0449572 0.13757131 -0.092210777 10 5 -0.076141447
-1.0607954 0.13984452 0.20798181 100 13 -0.076139145
-1.0435028 0.13775012 -0.055162102 51 6 -0.076136835
-1.0413131 0.13764621 0.24249724 100 14 -0.076134533
-1.0804108 0.14300597 -0.019023122 100 7 -0.07613223
-0.9939388 0.13173705 0.2686542 100 15 -0.076129928
-0.49784601 0.06660369 -0.13458592 55 0 -0.076109186
-1.0623469 0.14231345 0.01870898 100 8 -0.076106884
-0.48865464 0.065547653 -0.11382524 53 1 -0.076104581
-1.0471466 0.14064926 0.055371448 100 9 -0.076102279
-1.0327213 0.1388952 0.091164902 100 10 -0.076097667
-1.0465961 0.14113322 0.12966898 100 11 -0.076093063
-1.0387025 0.14025359 -0.12869403 5 4 -0.076090761
-1.0335945 0.13974729 0.16519481 70 12 -0.076088451
-1.0267009 0.13881524 -0.090641975 9 5 -0.076086149
-1.0603008 0.14354657 0.20798181 100 13 -0.076083846
-1.0489531 0.14219697 -0.055476118 49 6 -0.076081544
-1.0446882 0.14180425 0.24339703 100 14 -0.076079234
-1.0382941 0.14112085 -0.018290123 100 7 -0.076076932
-1.0011297 0.13624781 0.27072471 100 15 -0.07607463
-0.50909376 0.069918208 -0.13769174 54 0 -0.076053895
-1.0459952 0.14384146 0.018429741 100 8 -0.076051593
-0.49614495 0.068316281 -0.11562484 52 1 -0.076049283
-1.060499 0.14621316 0.05610415 100 9 -0.076046981
-1.0263091 0.14168186 0.090641975 100 10 -0.076042376
-1.0225009 0.14151984 0.12674414 68 11 -0.076037765
-1.0755664 0.1490557 -0.13332509 3 4 -0.076035462
-1.0428835 0.14471191 0.16675916 100 12 -0.07603316
-1.0005547 0.13883831 -0.088375926 6 5 -0.07603085
-1.0461814 0.14535564 0.20531049 100 13 -0.076028548
-1.0484504 0.14585739 -0.055476118 49 6 -0.076026246
-1.0480472 0.14598778 0.24429685 100 14 -0.076023944
-1.0457171 0.1458495 -0.018429741 100 7 -0.076021634
-0.98916829 0.13813846 0.26761889 100 15 -0.076019332
-0.50310779 0.07088615 -0.13613883 54 0 -0.075998597
-1.0415266 0.14693315 0.018359931 100 8 -0.075996295
-1.0520718 0.14879537 0.055685461 78 9 -0.075991683
-1.0218629 0.14470479 0.090293348 75 10 -0.075987078
-1.0455594 0.14861888 -0.12966898 3 4 -0.075980164
-1.042372 0.1483514 0.16675916 100 12 -0.075977862
-0.99414647 0.1414879 -0.087852985 3 5 -0.07597556
-1.0456676 0.14900662 0.20531049 100 13 -0.07597325
-1.0380486 0.14810579 -0.054952759 52 6 -0.075970948
-1.0552478 0.15074764 0.24609646 100 14 -0.075968646
-1.0531199 0.15063146 -0.01856936 100 7 -0.075966343
-1.0058912 0.14405508 0.27227765 100 15 -0.075964034
-0.51624119 0.074575461 -0.13976228 53 0 -0.075943299
-1.0231954 0.14799164 0.018045789 44 8 -0.075940996
-1.0136304 0.14751132 0.12576917 13 11 -0.075927176
-1.0587846 0.1542712 -0.13137516 1 4 -0.075924866
-1.0359838 0.15113361 0.16582055 100 12 -0.075922564
-0.9916749 0.14466965 -0.087678678 1 5 -0.075920261
-1.0509689 0.15350704 0.20645534 100 13 -0.075917959
-1.0315967 0.15086135 -0.054638743 48 6 -0.07591565
-1.043146 0.15273656 0.24339703 100 14 -0.075913347
-1.0624803 0.15575662 -0.018743884 100 7 -0.075911045
-0.99582535 0.14616272 0.26968947 100 15 -0.075908743
-0.51597774 0.076377042 -0.13976228 53 0 -0.075888008
-1.0687876 0.158778 0.056627508 49 9 -0.075881094
-1.0188571 0.15154187 0.090119034 4 10 -0.075876482
-0.50213474 0.07477577 -0.080407321 2 3 -0.07587418
-1.0111459 0.15075594 0.12552544 11 11 -0.075871877
-1.0268263 0.15327673 -0.12747534 1 4 -0.075869575
-1.0198205 0.15241314 0.16331759 100 12 -0.075867265
-0.99116391 0.1481304 -0.087678678 1 5 -0.075864963
-1.0504267 0.15717469 0.20645534 100 13 -0.075862661
-1.0468656 0.15682837 -0.055476118 37 6 -0.075860359
-1.0387522 0.15579857 0.24249724 100 14 -0.075858057
-1.0540202 0.15827665 -0.018604266 100 7 -0.075855747
-1.0029505 0.15078703 0.27176002 100 15 -0.075853445
-0.49469769 0.074992552 -0.13406827 55 0 -0.07583271
-1.0557474 0.16023207 0.018639171 60 8 -0.075830407
-1.0425578 0.15860257 0.055266771 100 9 -0.075825796
-1.0301399 0.15689741 0.091164902 5 10 -0.075821191
-0.49405944 0.075337 -0.079155855 2 3 -0.075818881
-1.0616348 0.16207346 0.13186264 30 11 -0.075816579
-1.0851542 0.1658581 -0.1347875 1 4 -0.075814277
-1.009519 0.15447809 0.16175325 96 12 -0.075811975
-1.0024575 0.15339755 -0.088724539 1 5 -0.075809672
-1.0576341 0.1620294 0.20798181 100 13 -0.075807363
-1.0420543 0.16001512 0.24339703 100 14 -0.075802758
-1.0534613 0.16195494 -0.018604266 100 7 -0.075800456
-1.0005089 0.15399298 0.27124238 100 15 -0.075798146
-0.49634197 0.077015147 -0.13458592 55 0 -0.075777411
-1.0413496 0.1617679 0.018394835 100 8 -0.075775109
-0.48139793 0.074868433 -0.11247552 36 1 -0.075772807
-1.0676531 0.16623542 0.056627508 100 9 -0.075770505
-1.0473034 0.16325441 0.092733704 27 10 -0.075765893
-0.50160044 0.078279383 -0.080407321 2 3 -0.075763591
-1.0394884 0.16240759 0.12918152 70 11 -0.075761288
-1.0148284 0.15891767 0.16269186 36 12 -0.075756676
-0.97829527 0.15319674 -0.086632803 1 5 -0.075754374
-1.0454248 0.16389586 0.20569211 100 13 -0.075752072
-0.99444437 0.1560815 -0.052754648 1 6 -0.075749762
-1.0530403 0.16546662 0.24609646 100 14 -0.07574746
-1.0430125 0.16407746 -0.018429741 99 7 -0.075745158
-0.98469853 0.15508014 0.26710126 100 15 -0.075742856
-0.4922542 0.078141496 -0.13355063 55 0 -0.075722121
-1.0407786 0.16540167 0.018394835 100 8 -0.075719811
-1.0414251 0.16587737 0.055266771 33 9 -0.075715207
-1.0349221 0.16502655 0.091687836 63 10 -0.075710595
-0.50132418 0.08002983 -0.080407321 2 3 -0.075708292
-1.038915 0.16603537 0.12918152 100 11 -0.07570599
-1.0396242 0.16652061 0.16675916 31 12 -0.075701378
-0.87545431 0.14022489 -0.077568613 4 5 -0.075699076
-1.0390308 0.16661182 0.20454726 100 13 -0.075696774
-0.99783754 0.16018498 -0.052963994 2 6 -0.075694472
-1.0524563 0.16914119 0.24609646 100 14 -0.075692162
-0.99940938 0.16097409 0.27124238 100 15 -0.075687557
-0.52058172 0.084502295 -0.14131519 52 0 -0.075666822
-1.0244045 0.16646773 0.018115599 40 8 -0.07566452
-1.0625241 0.17304291 0.056418166 12 9 -0.075659908
-1.0343398 0.16863811 0.091687836 97 10 -0.075655304
-1.0246153 0.16742006 0.12747534 100 11 -0.075650692
-1.0526824 0.17238343 0.16894925 62 12 -0.075646088
-0.89068902 0.14585599 -0.078963101 4 5 -0.075643778
-1.0481298 0.17182575 0.20645534 100 13 -0.075641476
-1.0248649 0.16819522 -0.054429401 6 6 -0.075639173
-1.0403216 0.17091858 0.24339703 100 14 -0.075636871
-1.0497344 0.17265321 -0.01856936 15 7 -0.075634569
-1.0007476 0.16477534 0.27176002 100 15 -0.075632259
-0.49550828 0.082208551 -0.13458592 55 0 -0.075627327
-1.0198717 0.16938728 0.018045789 9 8 -0.075625025
-0.48635462 0.080864333 -0.11382524 53 1 -0.075622723
-1.056003 0.175767 0.05610415 63 9 -0.075620413
-1.0494671 0.17486736 0.093082331 100 10 -0.075615808
-1.0318567 0.17230321 0.12845029 100 11 -0.075611196
-1.0384363 0.17377475 0.16675916 100 12 -0.075606592
-0.84301293 0.14107208 -0.074779622 5 5 -0.07560429
-1.0475236 0.17548314 0.20645534 100 13 -0.07560198
-1.0262412 0.17210199 -0.054534074 3 6 -0.075599678
-1.0358748 0.17390372 0.24249724 100 14 -0.075597376
-1.0412371 0.1749905 -0.018429741 49 7 -0.075595073
-1.0039763 0.16890888 0.27279529 100 15 -0.075592764
-0.50283694 0.085229047 -0.13665645 54 0 -0.075572029
-1.0488471 0.17796385 0.01856936 60 8 -0.075569727
-0.48414811 0.08223521 -0.11337533 35 1 -0.075567424
-1.0455381 0.17777811 0.055580791 100 9 -0.075565122
-1.0272448 0.17485183 0.091164902 100 10 -0.07556051
-0.50824785 0.086602479 -0.081658795 2 3 -0.075558208
-1.04299 0.17790677 0.12991273 100 11 -0.075555906
-1.0300348 0.17606696 0.16550769 100 12 -0.075551294
-0.86608219 0.14804205 -0.076871365 4 5 -0.075548992
-1.0585157 0.1811254 0.20874506 100 13 -0.075546689
-1.0391029 0.178177 0.24339703 100 14 -0.075542077
-1.0347074 0.17760918 -0.018325027 57 7 -0.075539775
-0.99957281 0.1717581 0.27176002 100 15 -0.075537473
-0.49111518 0.085006759 -0.13355063 55 0 -0.075516738
-1.0324568 0.178893 0.018290123 100 8 -0.075514428
-0.49537861 0.085922934 -0.11607475 52 1 -0.075512126
-1.0606859 0.18397491 0.056418166 100 9 -0.075509824
-1.0187764 0.17707209 0.090467662 100 10 -0.075505212
-0.50599629 0.088037483 -0.081345931 2 3 -0.07550291
-1.0404069 0.18120556 0.12966898 100 11 -0.075500607
-1.0274992 0.17914248 0.16519481 100 12 -0.075495996
-0.91855371 0.1603132 -0.08157777 6 5 -0.075493693
-1.0443392 0.18245409 0.20607373 100 13 -0.075491391
-1.0423456 0.1822933 0.24429685 100 14 -0.075486787
-1.0400219 0.18207394 -0.018429741 39 7 -0.075484477
-0.99138629 0.17373802 0.26968947 100 15 -0.075482175
-0.50605011 0.089321263 -0.13769174 54 0 -0.07546144
-1.0397346 0.18370728 0.018429741 100 8 -0.075459138
-1.0423692 0.18436065 0.055476118 100 9 -0.075454526
-1.0260308 0.18184027 0.091164902 100 10 -0.075449921
-0.49403155 0.087644614 -0.07946872 2 3 -0.075447612
-1.0358913 0.18396077 0.12918152 100 11 -0.075445309
-1.021065 0.18151164 0.16425622 100 12 -0.075440705
-0.96509475 0.17173575 -0.085761249 4 5 -0.075438403
-1.0398628 0.18522769 0.20531049 100 13 -0.075436093
-1.0494094 0.18711719 0.24609646 100 14 -0.075431488
-1.0453181 0.18657592 -0.018534455 15 7 -0.075429186
-0.98890311 0.17668465 0.26917183 92 15 -0.075426877
-0.50765246 0.091341004 -0.13820937 53 0 -0.075406142
-1.0430558 0.18786313 0.018499551 100 8 -0.075403839
-1.0397539 0.18764314 0.055371448 100 9 -0.075399227
-1.0332648 0.18665826 0.09186215 100 10 -0.075394623
-0.48596275 0.087876394 -0.078217238 3 3 -0.075392321
-1.0313687 0.18668777 0.12869403 100 11 -0.075390019
-1.0320871 0.18718986 0.16613342 100 12 -0.075385407
-0.9644894 0.17510352 -0.085761249 4 5 -0.075383104
-1.0508327 0.19077921 0.20760021 76 13 -0.075380802
-1.0449152 0.19008164 0.24519664 100 14 -0.07537619
-1.0407258 0.18950719 -0.018464647 7 7 -0.075373888
-0.99208128 0.18082832 0.27020708 92 15 -0.075371586
-0.49591392 0.091106638 -0.13510354 55 0 -0.075350843
-1.0502609 0.19294828 0.018639171 100 8 -0.075348541
-0.48106721 0.088465877 -0.11292543 53 1 -0.075346239
-1.035164 0.1905483 0.055162102 100 9 -0.075343937
-1.0286551 0.18972164 0.091513529 100 10 -0.075339325
-0.49340767 0.091091357 -0.07946872 2 3 -0.075337023
-1.015094 0.18740344 0.12674414 100 11 -0.07533472
-1.0236577 0.1893542 0.16488194 100 12 -0.075330108
-0.94819969 0.17556703 -0.084366761 5 5 -0.075327806
-1.063639 0.19713385 0.21027151 15 13 -0.075325504
-1.0365477 0.19248675 0.24339703 100 14 -0.075320892
-1.059719 0.19678965 -0.018813694 17 7 -0.07531859
-1.0047394 0.1867616 0.27383056 82 15 -0.075316288
-0.48989642 0.091770187 -0.13355063 55 0 -0.075295553
-1.0416847 0.19532225 0.018499551 100 8 -0.07529325
-0.48073974 0.090228483 -0.11292543 53 1 -0.075290941
-1.0462363 0.19655399 0.055790137 100 9 -0.075288638
-1.0338607 0.19441555 0.092036456 100 10 -0.075284034
-1.0222034 0.19259313 0.12771909 100 11 -0.075279422
-1.0151924 0.19163914 0.16363046 100 12 -0.075274818
-0.926045 0.17481068 -0.082449332 3 5 -0.075272508
-1.0629444 0.20084548 0.21027151 25 13 -0.075270206
-1.0416136 0.19719154 0.24474674 100 14 -0.075265601
-1.0511315 0.19918343 -0.018674076 31 7 -0.075263292
-0.99455804 0.18864265 0.27124238 86 15 -0.075260989
-0.47439253 0.090580985 -0.12940952 57 0 -0.075240254
-1.0292118 0.19670491 0.018290123 100 8 -0.075237952
-0.49956217 0.095567763 -0.11742445 34 1 -0.07523565
-1.0416205 0.19945335 0.055580791 100 9 -0.07523334
-1.0253488 0.1965231 0.091339223 100 10 -0.075228736
-0.53155971 0.1019775 -0.085726097 2 3 -0.075226434
-1.0371207 0.1991547 0.12966898 100 11 -0.075224124
-1.018397 0.19592808 0.16425622 100 12 -0.075219519
-0.84325582 0.16223289 -0.07512825 5 5 -0.075217217
-1.0448865 0.20121324 0.20683697 67 13 -0.075214908
-1.033265 0.1993496 0.24294713 100 14 -0.075210303
-1.0543567 0.20360945 -0.018743884 40 7 -0.075208001
-0.99009991 0.19138014 0.27020708 86 15 -0.075205699
-0.496829 0.096663736 -0.13562119 54 0 -0.075184956
-1.0344074 0.20144284 0.018394835 100 8 -0.075182654
-0.47818533 0.093209639 -0.11247552 36 1 -0.075180352
-1.0526797 0.20538288 0.056208819 100 9 -0.07517805
-1.0227009 0.19971943 0.091164902 100 10 -0.075173438
-0.50405884 0.098526962 -0.081345931 2 3 -0.075171135
-1.0364193 0.20277373 0.12966898 100 11 -0.075168833
-1.0254607 0.20100139 0.16550769 100 12 -0.075164221
-1.0306921 0.20221357 0.20416564 100 13 -0.075159617
-1.0363873 0.20370664 0.24384695 100 14 -0.075155005
-1.0477533 0.20613061 -0.018639171 63 7 -0.075152703
-0.99321681 0.19558163 0.27124238 90 15 -0.0751504
-0.48701355 0.096519485 -0.13303299 56 0 -0.075129665
-1.0356592 0.20544173 0.018429741 100 8 -0.075127356
-1.0304079 0.20477386 0.055057433 100 9 -0.075122751
-1.0337224 0.20562008 0.092210777 100 10 -0.075118139
-0.50371182 0.10028587 -0.081345931 2 3 -0.075115837
-1.0142901 0.20212284 0.12698787 100 11 -0.075113535
-1.0286272 0.20535317 0.16613342 100 12 -0.07510893
-1.0357555 0.20696449 0.20531049 100 13 -0.075104319
-1.033759 0.20694056 0.24339703 91 14 -0.075099714
-1.0529094 0.21096553 -0.018743884 90 7 -0.075097404
-1.0019988 0.20094651 0.27383056 79 15 -0.075095102
-0.5093978 0.10280501 -0.13924466 53 0 -0.075074367
-1.0329758 0.20865969 0.018394835 100 8 -0.075072065
-0.47752297 0.096545726 -0.11247552 36 1 -0.075069755
-1.0355597 0.20955788 0.055371448 100 9 -0.075067453
-1.034951 0.20962273 0.092385083 100 10 -0.075062849
-0.48787075 0.098903753 -0.078842975 2 3 -0.075060546
-1.0135784 0.20566218 0.12698787 100 11 -0.075058237
-1.0201609 0.20736858 0.16488194 100 12 -0.075053632
-1.0465698 0.21292694 0.20760021 100 13 -0.07504902
-1.0311209 0.21015863 0.24294713 55 14 -0.075044416
-1.0482479 0.21383996 -0.018674076 100 7 -0.075042114
-1.0012913 0.20444295 0.27383056 78 15 -0.075039804
-0.49389714 0.10147237 -0.13510354 55 0 -0.075019069
-1.0381173 0.21347256 0.018499551 100 8 -0.075016767
-0.47909182 0.098604761 -0.11292543 35 1 -0.075014465
-1.0387341 0.21397732 0.055580791 100 9 -0.075012162
-1.0322616 0.21283181 0.092210777 100 10 -0.07500755
-0.51847643 0.10699372 -0.083848879 2 3 -0.075005248
-1.0109103 0.20879747 0.12674414 100 11 -0.075002946
-1.0116932 0.2093274 0.16363046 100 12 -0.074998334
-1.0438977 0.21618076 0.20721859 100 13 -0.07499373
-1.047554 0.21731928 0.24699625 9 14 -0.074989118
-1.0357475 0.21505854 -0.018464647 100 7 -0.074986815
-0.98922282 0.2055784 0.27072471 79 15 -0.074984513
-0.50110376 0.10477734 -0.1371741 54 0 -0.074963778
-1.0314939 0.21586591 0.018394835 100 8 -0.074961469
-0.48255941 0.10107566 -0.11382524 53 1 -0.074959166
-1.0418904 0.21842152 0.055790137 100 9 -0.074956864
-1.0178628 0.21356958 0.090990596 100 10 -0.074952252
-0.5335654 0.11205088 -0.086351842 2 3 -0.07494995
-1.0354298 0.2176331 0.12991273 100 11 -0.074947648
-1.0206213 0.2148926 0.16519481 100 12 -0.074943036
-1.0373735 0.21860886 0.20607373 100 13 -0.074938431
-1.0429757 0.22016965 0.24609646 25 14 -0.074933819
-1.0545557 0.22280639 -0.018813694 100 7 -0.074931517
-0.98471904 0.20823109 0.26968947 78 15 -0.074929215
-0.50451416 0.10732975 -0.13820937 53 0 -0.07490848
-1.0268224 0.21863233 0.018325027 100 8 -0.074906178
-1.037215 0.22122359 0.055580791 100 9 -0.074901566
-1.0210081 0.21795347 0.091339223 100 10 -0.074896961
-0.50226253 0.10730906 -0.081345931 2 3 -0.074894652
-1.0288401 0.22000058 0.12918152 100 11 -0.07489235
-1.0217966 0.21886769 0.16550769 100 12 -0.074887745
-1.0327649 0.22140534 0.20531049 100 13 -0.074883133
-1.0536325 0.22626393 0.24879587 76 14 -0.074878529
-1.0479064 0.22522531 -0.01870898 100 7 -0.074876226
-0.99342948 0.2136983 0.27227765 45 15 -0.074873917
-0.50980085 0.11031592 -0.13976228 53 0 -0.074853182
-1.026053 0.22221555 0.018325027 100 8 -0.07485088
-1.0286291 0.22314911 0.055162102 100 9 -0.074846268
-1.0182941 0.22109339 0.091164902 100 10 -0.074841663
-0.50188488 0.10906153 -0.081345931 2 3 -0.074839361
-1.0222466 0.22232497 0.12845029 100 11 -0.074837051
-1.0210264 0.22243287 0.16550769 100 12 -0.074832447
-1.0415767 0.22710046 0.20721859 100 13 -0.074827842
-1.02999 0.22495052 0.24339703 88 14 -0.074823231
-1.0510209 0.22973613 -0.01877879 100 7 -0.074820928
-0.49243224 0.1083583 -0.13510354 55 0 -0.074797884
-1.0291768 0.22665574 0.018394835 100 8 -0.074795581
-0.48147452 0.10612329 -0.11382524 35 1 -0.074793279
-1.0317446 0.2275991 0.055371448 100 9 -0.074790977
-1.0291895 0.22722356 0.092210777 100 10 -0.074786365
-0.54007816 0.11933684 -0.087603308 2 3 -0.074784063
-1.0214642 0.22589219 0.12845029 100 11 -0.074781761
-1.0163865 0.22514117 0.16488194 100 12 -0.074777149
-1.0388609 0.23030995 0.20683697 100 13 -0.074772544
-1.0349057 0.22981188 0.24474674 78 14 -0.074767932
-1.034596 0.22993283 -0.018499551 100 7 -0.07476563
-0.98437017 0.21895072 0.27020708 32 15 -0.074763328
-0.48450997 0.10838956 -0.13303299 56 0 -0.074742593
-1.0400877 0.23286828 0.018604266 100 8 -0.074740291
-0.4791995 0.10737721 -0.11337533 35 1 -0.074737981
-1.0348415 0.23207304 0.055580791 100 9 -0.074735679
-1.0167258 0.22819678 0.091164902 100 10 -0.074731074
-0.53965825 0.12122135 -0.087603308 2 3 -0.074728765
-1.0342269 0.23250401 0.13015647 100 11 -0.074726462
-1.0136672 0.22825398 0.16456908 100 12 -0.074721858
-1.0380507 0.23393464 0.20683697 95 13 -0.074717246
-1.035998 0.23385233 0.24519664 33 14 -0.074712642
-1.033787 0.23354286 -0.018499551 100 7 -0.074710332
-0.97229433 0.21982914 0.26710126 55 15 -0.07470803
-0.49354759 0.11222183 -0.13562119 54 0 -0.074687295
-1.0217199 0.2325041 0.018290123 100 8 -0.074684992
-0.49022233 0.11164571 -0.11607475 34 1 -0.07468269
-1.0359725 0.23612778 0.055685461 100 9 -0.074680381
-1.0139805 0.23130134 0.090990596 100 10 -0.074675776
-0.50071532 0.11431122 -0.081345931 2 3 -0.074673474
-1.0372795 0.23699705 0.13064395 100 11 -0.074671164
-1.0186411 0.23311272 0.16550769 100 12 -0.07466656
-1.0410552 0.23843332 0.20760021 69 13 -0.074661948
-1.0329655 0.23714982 -0.018499551 100 7 -0.074655041
-0.97340369 0.2236546 0.26761889 47 15 -0.074652731
-0.49879959 0.11524866 -0.1371741 54 0 -0.074631996
-1.0306436 0.23832148 0.018464647 100 8 -0.074629694
-1.0409791 0.24109453 0.05599948 100 9 -0.07462509
-1.017049 0.23573922 0.091339223 100 10 -0.074620478
-0.48491898 0.11248733 -0.078842975 2 3 -0.074618176
-1.0113081 0.23478055 0.12747534 100 11 -0.074615873
-1.006277 0.23398274 0.16363046 76 12 -0.074611261
-1.0477108 0.24438813 -0.01877879 100 7 -0.074599743
-0.98578602 0.23012528 0.27124238 34 15 -0.074597441
-0.49275213 0.11566459 -0.13562119 54 0 -0.074576706
-1.0395389 0.24420449 0.018639171 100 8 -0.074574396
-0.4780488 0.11238944 -0.11337533 35 1 -0.074572094
-1.0323546 0.2428968 0.055580791 100 9 -0.074569792
-1.0259166 0.24157126 0.092210777 100 10 -0.07456518
-0.5191322 0.12233501 -0.084474623 2 3 -0.074562877
-1.0066183 0.23739773 0.12698787 100 11 -0.074560575
-1.0169889 0.24021851 0.16550769 13 12 -0.074555963
-1.0487971 0.24850518 -0.018813694 100 7 -0.074544445
-0.99813479 0.23668483 0.27486584 28 15 -0.074542142
-0.50737876 0.12096815 -0.13976228 53 0 -0.074521407
-1.0464604 0.2496881 0.01877879 100 8 -0.074519105
-1.0237728 0.2444634 0.055162102 100 9 -0.074514493
-1.0231291 0.24468747 0.092036456 100 10 -0.074509889
-1.0154359 0.24322231 0.12820657 43 11 -0.074505277
-1.0382459 0.24964406 -0.018639171 100 7 -0.074489154
-0.99170971 0.2386376 0.2733129 30 15 -0.074486844
-0.48444265 0.11719893 -0.13355063 55 0 -0.074466109
-1.0417396 0.25221586 0.01870898 100 8 -0.074463807
-0.49431822 0.11977074 -0.11742445 51 1 -0.074461505
-1.0248976 0.24832736 0.055266771 100 9 -0.074459203
-0.99907792 0.24244086 0.089944728 74 10 -0.074454591
-0.49909166 0.121204 -0.081345931 2 3 -0.074452288
-0.74785227 0.18230671 0.17771132 8 14 -0.074436158
-1.0354697 0.25261173 -0.018604266 100 7 -0.074433856
-0.9815293 0.23963401 0.27072471 27 15 -0.074431553
-0.48405132 0.11880478 -0.13355063 55 0 -0.074410819
-1.0311875 0.25328407 0.018534455 100 8 -0.074408509
-0.48634869 0.11954863 -0.11562484 52 1 -0.074406207
-1.0298871 0.25315496 0.055580791 84 9 -0.074403904
-0.49868694 0.1228584 -0.081345931 2 3 -0.07439699
-0.75093567 0.18555947 0.1503575 5 13 -0.074385472
-0.74724358 0.18478571 0.17771132 8 14 -0.07438086
-1.0385085 0.25700486 -0.018674076 100 7 -0.074378558
-0.9826045 0.24335179 0.27124238 28 15 -0.074376255
-0.49115321 0.12227613 -0.13562119 54 0 -0.07435552
-1.0186999 0.25380144 0.018325027 100 8 -0.074353218
-0.47838616 0.11927502 -0.11382524 53 1 -0.074350908
-0.5136084 0.12834257 -0.083848879 2 3 -0.074341692
-0.74913269 0.18733524 -0.09481436 4 4 -0.074337088
-0.68986148 0.17264143 0.11263283 4 12 -0.074334785
-0.7503162 0.18804866 0.1503575 5 13 -0.074330173
-0.74662673 0.18726265 0.17771132 8 14 -0.074325569
-1.0473481 0.2628814 -0.0188486 82 7 -0.074323267
-0.98179215 0.24660893 0.27124238 30 15 -0.074320957
-0.48691297 0.1232983 -0.13458592 27 0 -0.074305534
-0.99441159 0.25199407 0.017906168 32 8 -0.074303232
-0.51308906 0.13040328 -0.083848879 2 3 -0.074291714
-0.71593189 0.18235555 0.11701299 3 12 -0.074284799
-0.74955523 0.19105928 0.1503575 5 13 -0.074280187
-0.74583584 0.19038829 0.17771132 8 14 -0.074275583
-0.98636538 0.25215489 0.27279529 22 15 -0.074270971
-0.50144821 0.12884314 -0.13872701 53 0 -0.074250236
-0.49732831 0.12824744 -0.081345931 2 3 -0.074236415
-0.70349687 0.18154381 0.089208372 8 11 -0.074234113
-0.55546838 0.14344695 -0.070440486 7 4 -0.074231803
-0.69425303 0.17941666 0.11357144 8 12 -0.074229501
-0.72987652 0.18875897 0.14654131 6 13 -0.074224897
-0.74516666 0.19299059 0.17771132 8 14 -0.074220285
-0.97986937 0.25414121 0.27124238 1 15 -0.07421568
-0.49912599 0.13010558 -0.13820937 53 0 -0.074194945
-0.47704577 0.12452774 -0.11382524 35 1 -0.074190333
-0.72863829 0.19047517 0.065889739 6 10 -0.074183419
-0.7143811 0.18701455 0.090670794 7 11 -0.074178815
-0.59337014 0.15544631 -0.075315259 7 4 -0.074176513
-0.68597925 0.17983541 0.11231996 8 12 -0.074174203
-0.72921324 0.19130541 0.14654131 6 13 -0.074169599
-0.74448842 0.19559073 0.17771132 8 14 -0.074164994
-0.47625673 0.12592138 -0.13199772 56 0 -0.074139647
-0.48225966 0.12768866 -0.11517494 35 1 -0.074135035
-0.6778971 0.17974113 0.061357643 7 10 -0.074128129
-0.49642086 0.13171631 -0.081345931 2 3 -0.074125819
-0.66384006 0.17626198 0.084333591 9 11 -0.074123517
-0.59282386 0.15751663 -0.075315259 7 4 -0.074121214
-0.67962021 0.18070588 0.11138135 8 12 -0.074118912
-0.72854102 0.1938497 0.14654131 6 13 -0.0741143
-0.74380118 0.19818813 0.17771132 8 14 -0.074109696
-0.48514399 0.13008459 -0.13458592 55 0 -0.074084349
-0.68177599 0.18293627 0.012321399 8 8 -0.074082047
-0.47240061 0.12684451 -0.11292543 35 1 -0.074079745
-0.69634491 0.1869759 0.037786566 8 9 -0.074077435
-0.66187316 0.17796756 0.059963148 7 10 -0.07407283
-0.49595806 0.13344836 -0.081345931 2 3 -0.074070528
-0.69772351 0.18786836 0.088720888 8 11 -0.074068226
-0.60763282 0.16361062 -0.077265166 7 4 -0.074065916
-0.68664664 0.18501432 0.11263283 8 12 -0.074063614
-0.73165083 0.19741449 0.14730455 6 13 -0.07405901
-0.76571625 0.20674941 0.18311015 7 14 -0.074054398
-0.93990266 0.25413314 0.26088959 1 15 -0.074049793
-0.49962401 0.13574487 -0.13872701 53 0 -0.074029051
-0.62327617 0.16945708 0.011274255 9 8 -0.074026749
-0.63790494 0.17355409 0.034646407 10 9 -0.074022144
-0.68050259 0.18539855 0.061706264 7 10 -0.074017532
-0.49551278 0.1350923 -0.081345931 2 3 -0.07401523
-0.71241748 0.19436088 0.090670794 7 11 -0.074012928
-0.58027554 0.15831009 -0.073852822 7 4 -0.074010625
-0.71461397 0.19509396 0.11732586 7 12 -0.074008316
-0.65154362 0.17799772 -0.059091594 10 5 -0.074006014
-0.7840175 0.21433581 0.15798986 5 13 -0.074003711
-0.74247038 0.20311688 0.17771132 8 14 -0.073999099
-0.50289625 0.13842635 -0.13976228 53 0 -0.07397376
-0.65741295 0.18108159 0.011902542 17 8 -0.073971458
-0.471549 0.12997471 -0.11292543 35 1 -0.073969148
-0.63922054 0.17631081 0.03475108 20 9 -0.073966846
-0.66451943 0.18341342 0.060311772 7 10 -0.073962241
-0.71368247 0.19725114 0.09091454 15 11 -0.07395763
-0.58737248 0.16245115 -0.074827783 7 4 -0.073955327
-0.69108278 0.1912646 0.11357144 8 12 -0.073953025
-0.5817942 0.16112714 -0.052816376 12 5 -0.073950715
-0.71518916 0.19807069 0.14425161 6 13 -0.073948413
-0.7417568 0.20570736 0.17771132 8 14 -0.073943809
-0.48563936 0.13559289 -0.13510354 55 0 -0.073918462
-0.64329463 0.17961101 0.011658208 36 8 -0.07391616
-0.47296923 0.13214442 -0.11337533 35 1 -0.073913857
-0.64244825 0.17961644 0.034960423 20 9 -0.073911548
-0.66000545 0.18477368 0.059963148 7 10 -0.073906943
-0.49455765 0.13854823 -0.081345931 2 3 -0.073904641
-0.71872407 0.2013475 0.091645755 7 11 -0.073902331
-0.59827036 0.1677155 -0.07629022 7 4 -0.073900029
-0.68660706 0.19260871 0.1129457 8 12 -0.073897727
-0.57163703 0.16046451 -0.051944822 25 5 -0.073895425
-0.74470001 0.20918551 0.1503575 5 13 -0.073893115
-0.74099797 0.20842449 0.17771132 8 14 -0.07388851
-0.47215101 0.13360536 -0.13148008 56 0 -0.073863164
-0.61569536 0.17434023 0.011169541 39 8 -0.073860861
-0.46873188 0.13281444 -0.11247552 36 1 -0.073858559
-0.6341309 0.17967999 0.034541734 20 9 -0.073856257
-0.65935647 0.18707626 0.059963148 7 10 -0.073851645
-0.51687425 0.14674789 -0.08510036 2 3 -0.073849343
-0.69506693 0.19747056 0.088720888 8 11 -0.073847041
-0.57858592 0.16437796 -0.073852822 7 4 -0.073844731
-0.70493144 0.20040587 0.11607439 7 12 -0.073842429
-0.55765897 0.15864278 -0.05072464 52 5 -0.073840126
-0.74396527 0.21178374 0.1503575 5 13 -0.073837824
-0.77028966 0.21942262 0.18490976 7 14 -0.073833212
-0.9363094 0.26706818 0.26088959 1 15 -0.073828608
-0.49213362 0.14102407 -0.1371741 54 0 -0.073807873
-0.62664717 0.17968816 0.011378969 38 8 -0.073805563
-0.47016206 0.13490558 -0.11292543 53 1 -0.073803261
-0.65272945 0.18729042 0.035588451 29 9 -0.073800959
-0.66256231 0.19036211 0.060311772 7 10 -0.073796347
-0.49360311 0.14191136 -0.081345931 2 3 -0.073794045
-0.70203918 0.20196977 0.089695849 8 11 -0.073791742
-0.60093021 0.17288172 -0.076777697 7 4 -0.07378944
-0.69287324 0.19946359 0.11419717 8 12 -0.073787138
-0.54372805 0.15663059 -0.049504459 40 5 -0.073784828
-0.72062159 0.20772433 0.14577809 6 13 -0.073782526
-0.7770474 0.22413617 0.18670937 7 14 -0.073777921
-0.93170667 0.26909953 0.25985435 1 15 -0.07377331
-0.49537393 0.14373192 -0.13820937 53 0 -0.073752575
-0.64141101 0.18622571 0.011658208 45 8 -0.073750272
-0.47345486 0.13755132 -0.11382524 53 1 -0.073747963
-0.65782535 0.1912404 0.03590247 19 9 -0.07374566
-0.65427506 0.19033211 0.059614524 7 10 -0.073741056
-0.47985324 0.13968271 -0.079155855 2 3 -0.073738754
-0.6670596 0.19430378 0.085308552 9 11 -0.073736444
-0.57364213 0.16720138 -0.073365353 7 4 -0.073734142
-0.70924008 0.20685886 0.11701299 3 12 -0.07373184
-0.56807077 0.16568504 -0.051770512 38 5 -0.073729537
-0.74254435 0.21671309 0.1503575 5 13 -0.073727228
-0.73885012 0.21591483 0.17771132 8 14 -0.073722623
-0.92334527 0.27017984 0.25778377 2 15 -0.073718011
-0.50413644 0.14818411 -0.14079757 52 0 -0.073697276
-0.61389899 0.18056388 0.011169541 39 8 -0.073694974
-0.48605803 0.14305465 -0.11697455 34 1 -0.073692672
-0.64182657 0.18902139 0.035065092 30 9 -0.07369037
-0.69182926 0.20387885 0.063100755 7 10 -0.073685758
-0.55136186 0.16258834 -0.091044866 2 3 -0.073683456
-0.68541664 0.20224912 0.087745935 8 11 -0.073681153
-0.56924731 0.16807848 -0.072877876 7 4 -0.073678844
-0.68009734 0.2009376 0.11231996 8 12 -0.073676541
-0.56557816 0.16710244 -0.051596198 25 5 -0.073674239
-0.74178338 0.21930376 0.1503575 5 13 -0.073671937
-0.73809195 0.2184926 0.17771132 8 14 -0.073667325
-0.92054427 0.2728523 0.25726613 2 15 -0.073662721
-0.49250689 0.14663552 -0.13769174 54 0 -0.073641986
-0.64392823 0.19184099 0.011728018 36 8 -0.073639676
-0.65647417 0.19582823 0.03590247 19 9 -0.073635072
-0.69111341 0.20629257 0.063100755 7 10 -0.07363046
-0.55079097 0.16451184 -0.091044866 2 3 -0.073628157
-0.70372605 0.2103249 0.090183318 8 11 -0.073625855
-0.5686571 0.17006452 -0.072877876 7 4 -0.073623553
-0.68128425 0.20387653 0.11263283 8 12 -0.073621243
-0.55923593 0.16745968 -0.051073264 13 5 -0.073618941
-0.74101329 0.22189176 0.1503575 5 13 -0.073616639
-0.73732471 0.2210677 0.17771132 8 14 -0.073612027
-0.91218519 0.2738421 0.25519559 4 15 -0.073607422
-0.46977219 0.14174302 -0.13148008 56 0 -0.073586687
-0.63176799 0.19062157 0.011518588 37 8 -0.073584385
-0.49624082 0.14982396 -0.11967396 50 1 -0.073582076
-0.66534621 0.20100659 0.036425829 18 9 -0.073579773
-0.69035268 0.20882425 0.063100755 7 10 -0.073575169
-0.49346426 0.14936163 -0.081658795 2 3 -0.073572859
-0.69538784 0.2104798 0.089208372 8 11 -0.073570557
-0.57945919 0.1755008 -0.074340306 7 4 -0.073568255
-0.69191122 0.20969117 0.11451004 4 12 -0.073565952
-0.57771444 0.1751927 -0.052816376 12 5 -0.073563643
-0.7401951 0.22460605 0.1503575 5 13 -0.073561341
-0.7365095 0.22376867 0.17771132 8 14 -0.073556736
-0.90752715 0.27590054 0.25416031 3 15 -0.073552124
-0.491445 0.15015595 -0.13769174 54 0 -0.073531389
-0.63106507 0.192936 0.011518588 37 8 -0.073529087
-0.67224419 0.20578216 0.036844518 18 9 -0.073524475
-0.6705693 0.20539762 0.061357643 7 10 -0.073519871
-0.49293989 0.15108311 -0.081658795 2 3 -0.073517568
-0.69840741 0.21419121 0.089695849 8 11 -0.073515259
-0.59399408 0.1822826 -0.07629022 7 4 -0.073512957
-0.69491482 0.21338531 0.11513578 3 12 -0.073510654
-0.73940653 0.22718863 0.1503575 5 13 -0.07350605
-0.73572403 0.22633806 0.17771132 8 14 -0.073501438
-0.92681849 0.28548074 0.25985435 4 15 -0.073496833
-0.49830002 0.15415439 -0.13976228 53 0 -0.073476091
-0.63993907 0.19809413 0.011693113 27 8 -0.073473789
-0.47654113 0.1476052 -0.11517494 35 1 -0.073471487
-0.6581676 0.20398876 0.036111813 9 9 -0.073469184
-0.688878 0.21363856 0.063100755 7 10 -0.073464572
-0.69386387 0.2154505 0.089208372 8 11 -0.073459968
-0.54027456 0.167863 -0.069465533 8 4 -0.073457666
-0.71680152 0.222847 0.11889021 7 12 -0.073455356
-0.73860902 0.22976829 0.1503575 5 13 -0.073450752
-0.73492938 0.22890502 0.17771132 8 14 -0.07344614
-0.92212778 0.28756392 0.25881904 5 15 -0.073441535
-0.5088203 0.15935703 -0.14286812 51 0 -0.0734208
-0.6239782 0.19554286 0.011413874 28 8 -0.073418498
-0.47974196 0.15043391 -0.11607475 52 1 -0.073416188
-0.64601761 0.20269723 0.035483781 9 9 -0.073413886
-0.68812805 0.21604191 0.063100755 7 10 -0.073409282
-0.54087192 0.16991381 -0.089793392 2 3 -0.073406972
-0.7082575 0.22263327 0.091158278 7 11 -0.07340467
-0.53589803 0.16855668 -0.068978056 8 4 -0.073402368
-0.69717652 0.21941771 0.11576151 3 12 -0.073400065
-0.73780245 0.23234496 0.1503575 5 13 -0.073395453
-0.73412591 0.23146902 0.17771132 8 14 -0.073390849
-0.92111844 0.29078084 0.25881904 3 15 -0.073386237
-0.48247957 0.15295881 -0.13562119 54 0 -0.073365502
-0.64044666 0.20316158 0.011728018 27 8 -0.0733632
-0.46621197 0.14798066 -0.11292543 35 1 -0.073360898
-0.65672749 0.20857851 0.036111813 9 9 -0.073358588
-0.69116741 0.21964951 0.063449383 7 10 -0.073353983
-0.51392066 0.16342014 -0.085413225 2 3 -0.073351681
-0.70369267 0.22390044 0.090670794 7 11 -0.073349372
-0.5466556 0.17403956 -0.070440486 7 4 -0.073347069
-0.69264215 0.22065084 0.11513578 3 12 -0.073344767
-0.73698694 0.23491898 0.1503575 5 13 -0.073340155
-0.73331344 0.2340302 0.17771132 8 14 -0.073335551
-0.91457719 0.29223064 0.25726613 5 15 -0.073330939
-0.48194271 0.15464208 -0.13562119 54 0 -0.073310204
-0.65115732 0.20906371 0.011937446 25 8 -0.073307902
-0.47682464 0.15318342 -0.11562484 52 1 -0.073305599
-0.66553992 0.21380958 0.036635175 18 9 -0.073303297
-0.67901623 0.21840045 0.062403511 7 10 -0.073298685
-0.50582558 0.16279238 -0.084161758 2 3 -0.073296383
-0.70290685 0.22635543 0.090670794 7 11 -0.073294081
-0.56493902 0.18203497 -0.072877876 7 4 -0.073291771
-0.71070832 0.22900485 0.11826447 3 12 -0.073289469
-0.73616242 0.23749013 0.1503575 5 13 -0.073284864
-0.73249209 0.23658837 0.17771132 8 14 -0.073280253
-0.91911781 0.29704395 0.25881904 6 15 -0.073275648
-0.49977407 0.16228987 -0.14079757 52 0 -0.073254913
-0.60861808 0.1976344 0.011169541 29 8 -0.073252603
-0.47075397 0.15295723 -0.11427514 52 1 -0.073250301
-0.66668892 0.21674897 0.036739845 9 9 -0.073247999
-0.68582797 0.22323605 0.063100755 7 10 -0.073243387
-0.4827424 0.15713198 -0.080407321 2 3 -0.073241085
-0.69460243 0.2262262 0.089695849 8 11 -0.073238783
-0.58320624 0.19005814 -0.075315259 7 4 -0.07323648
-0.67985582 0.22168587 0.11325856 4 12 -0.073234171
-0.73537081 0.23993006 0.1503575 5 13 -0.073229566
-0.73170352 0.23901615 0.17771132 8 14 -0.073224962
-0.91256678 0.29844922 0.25726613 5 15 -0.07322035
-0.50473928 0.16575451 -0.14235048 52 0 -0.073199615
-0.63072157 0.20724875 0.011588398 27 8 -0.073197313
-0.64695603 0.21283326 0.035693128 9 9 -0.073192701
-0.65858895 0.21678779 0.060660396 7 10 -0.073188096
-0.48969588 0.16128798 -0.081658795 2 3 -0.073185787
-0.70134985 0.23113458 0.090670794 7 11 -0.073183484
-0.54483449 0.17965944 -0.070440486 7 4 -0.073181182
-0.72409958 0.23891231 0.12076741 3 12 -0.07317888
-0.7345289 0.24249537 0.1503575 5 13 -0.073174268
-0.7308647 0.24156882 0.17771132 8 14 -0.073169664
-0.91885579 0.30406031 0.25933671 4 15 -0.073165052
-0.49499115 0.16446966 -0.13976228 53 0 -0.073144317
-0.62430161 0.20755652 0.011483684 28 8 -0.073142014
-0.46782559 0.15562476 -0.11382524 53 1 -0.073139712
-0.6386289 0.21256723 0.035274439 10 9 -0.07313741
-0.68051195 0.22664008 0.062752135 7 10 -0.073132798
-0.50412244 0.16799229 -0.084161758 2 3 -0.073130496
-0.70807141 0.23609316 0.091645755 7 11 -0.073128194
-0.52537346 0.17527783 -0.068003103 8 4 -0.073125884
-0.69702893 0.23268162 0.11638726 3 12 -0.073123582
-0.79326588 0.26496127 0.16256927 4 13 -0.073118977
-0.73001701 0.24411857 0.17771132 8 14 -0.073114365
-0.94343561 0.31585214 0.26658365 4 15 -0.073109761
-0.47244006 0.15881011 -0.13355063 55 0 -0.073089026
-0.66337585 0.22312164 0.012216684 24 8 -0.073086716
-0.47097343 0.15849999 -0.11472505 35 1 -0.073084414
-0.67573959 0.22754282 0.037367877 8 9 -0.073082112
-0.65705949 0.22138017 0.060660396 7 10 -0.0730775
-0.50353295 0.169751 -0.084161758 2 3 -0.073075198
-0.69595712 0.23475648 0.090183318 8 11 -0.073072895
-0.54356694 0.18345873 -0.070440486 7 4 -0.073070593
-0.69995558 0.23637721 0.11701299 3 12 -0.073068283
-0.73281801 0.2476176 0.1503575 5 13 -0.073063679
-0.92402959 0.31294647 0.26140723 4 15 -0.073054463
-0.47919887 0.16294591 -0.13562119 54 0 -0.073033728
-0.62662369 0.21319798 0.011553493 18 8 -0.073031425
-0.48886499 0.16642326 -0.11922406 50 1 -0.073029116
-0.6522541 0.22217235 0.036111813 9 9 -0.073026814
-0.6826849 0.23267071 0.063100755 7 10 -0.073022209
-0.47676218 0.16258171 -0.079781592 2 3 -0.073019899
-0.71767837 0.24487692 0.093108192 7 11 -0.073017597
-0.54292327 0.18535489 -0.070440486 7 4 -0.073015295
-0.70286483 0.24009636 0.11763873 3 12 -0.073012993
-0.73194921 0.25017413 0.1503575 5 13 -0.073008381
-0.72829497 0.24920909 0.17771132 8 14 -0.073003776
-0.91196615 0.31241336 0.25830141 5 15 -0.072999164
-0.49324173 0.16964412 -0.13976228 53 0 -0.072979212
-0.5994035 0.20627411 0.011064826 29 8 -0.07297691
-0.47169793 0.16241868 -0.11517494 52 1 -0.072974607
-0.6930595 0.23863961 0.038414594 8 9 -0.072972298
-0.68563586 0.23635098 0.063449383 7 10 -0.072967693
-0.68679541 0.23701896 0.089208372 8 11 -0.072963081
-0.54227293 0.18724906 -0.070440486 7 4 -0.072960779
-0.70206475 0.24242586 0.11763873 3 12 -0.072958477
-0.73107147 0.25272742 0.1503575 5 13 -0.072953865
-0.72742063 0.25174981 0.17771132 8 14 -0.07294926
-0.91092509 0.31543589 0.25830141 5 15 -0.072944649
-0.49629581 0.17263421 -0.14079757 52 0 -0.072923914
-0.62704664 0.21811529 0.011588398 18 8 -0.072921611
-0.46195444 0.16077925 -0.11292543 53 1 -0.072919309
-0.68090534 0.23711628 0.037786566 8 9 -0.072917007
-0.6772812 0.23611948 0.062752135 7 10 -0.072912395
-0.48683605 0.16972488 -0.081658795 2 3 -0.072910093
-0.71599495 0.24975617 0.093108192 7 11 -0.072907791
-0.54164904 0.18904617 -0.070440486 7 4 -0.072905481
-0.69748437 0.24357252 0.11701299 3 12 -0.072903179
-0.73022938 0.25515038 0.1503575 5 13 -0.072898574
-0.92258143 0.32308349 0.26192489 5 15 -0.072889358
-0.49207553 0.17299759 -0.13976228 53 0 -0.072868623
-0.62628144 0.22030263 0.011588398 18 8 -0.072866313
-0.64616406 0.22755022 0.03590247 9 9 -0.072861709
-0.71031928 0.25028202 0.065889739 6 10 -0.072857097
-0.70014244 0.24697113 0.091158278 7 11 -0.072852492
-0.51477891 0.18168639 -0.067028143 8 4 -0.07285019
-0.70035529 0.2473211 0.11763873 3 12 -0.07284788
-0.72933429 0.25769782 0.1503575 5 13 -0.072843276
-0.93055332 0.32952628 0.26451308 4 15 -0.07283406
-0.48418769 0.17212576 -0.13769174 54 0 -0.072813325
-0.64811736 0.23052931 0.012007256 17 8 -0.072811022
-0.47918019 0.17053415 -0.11742445 34 1 -0.072808713
-0.64536583 0.22980423 0.03590247 9 9 -0.07280641
-0.67941201 0.24206132 0.063100755 7 10 -0.072801806
-0.50052482 0.17842573 -0.084161758 2 3 -0.072799496
-0.72545218 0.25874993 0.094570614 7 11 -0.072797194
-0.52161998 0.18615092 -0.068003103 8 4 -0.072794892
-0.69948769 0.24976432 0.11763873 3 12 -0.07279259
-0.72843033 0.26024213 0.1503575 5 13 -0.072787978
-0.93121612 0.3334235 0.26503071 5 15 -0.072778761
-0.49994576 0.17969579 -0.14235048 52 0 -0.072758026
-0.63790017 0.2294067 0.011832732 26 8 -0.072755724
-0.46207914 0.16626762 -0.11337533 35 1 -0.072753422
-0.67838496 0.24423361 0.037786566 8 9 -0.072751112
-0.65981811 0.23767921 0.061357643 7 10 -0.072746508
-0.51476586 0.1855301 -0.086664706 2 3 -0.072744206
-0.70213598 0.25319985 0.091645755 7 11 -0.072741903
-0.52096701 0.18797059 -0.068003103 8 4 -0.072739594
-0.69861156 0.25220448 0.11763873 3 12 -0.072737291
-0.77921915 0.28145823 0.16104279 4 13 -0.072732687
-0.91551465 0.33141157 0.26088959 4 15 -0.072723471
-0.48660558 0.17682149 -0.13872701 53 0 -0.072702728
-0.61642277 0.22411592 0.011448778 18 8 -0.072700426
-0.47065267 0.17121042 -0.11562484 52 1 -0.072698124
-0.66626745 0.24250153 0.037158534 9 9 -0.072695822
-0.68144977 0.24816215 0.063449383 7 10 -0.07269121
-0.49926704 0.1819156 -0.084161758 2 3 -0.072688907
-0.69751787 0.25428939 0.091158278 7 11 -0.072686605
-0.50911826 0.18570651 -0.066540666 8 4 -0.072684303
-0.69401562 0.25328711 0.11701299 3 12 -0.072681993
-0.72659576 0.2653212 0.1503575 5 13 -0.072677389
-0.91072387 0.33327749 0.25985435 5 15 -0.072668172
-0.49686569 0.1825157 -0.14183284 52 0 -0.072647437
-0.64942169 0.23868319 0.012077065 17 8 -0.072645135
-0.4609071 0.16948949 -0.11337533 53 1 -0.072642826
-0.6766634 0.24896367 0.037786566 8 9 -0.072640523
-0.67683995 0.2491626 0.063100755 7 10 -0.072635919
-0.47267801 0.17409901 -0.079781592 2 3 -0.072633609
-0.69290066 0.25534979 0.090670794 7 11 -0.072631307
-0.71166009 0.26254526 0.12014168 3 12 -0.072626702
-0.72566515 0.26785588 0.1503575 5 13 -0.072622091
-0.91136682 0.33712476 0.26037198 4 15 -0.072612874
-0.4889814 0.18155909 -0.13976228 53 0 -0.072592139
-0.6485846 0.24094866 0.012077065 17 8 -0.072589837
-0.46944585 0.17449214 -0.11562484 52 1 -0.072587535
-0.66455823 0.24714689 0.037158534 9 9 -0.072585225
-0.72078151 0.26819929 0.067284234 6 10 -0.072580621
-0.71060747 0.264696 0.093108192 7 11 -0.072576009
-0.4780477 0.17816435 -0.062640846 9 4 -0.072573707
-0.72184455 0.26916888 0.1220189 3 12 -0.072571404
-0.72472578 0.27038714 0.1503575 5 13 -0.072566792
-0.93913668 0.35112879 0.2686542 4 15 -0.072557583
-0.48291859 0.18122859 -0.13820937 53 0 -0.072536841
-0.66084403 0.2481318 0.012321399 8 8 -0.072534539
-0.46700969 0.17544432 -0.11517494 52 1 -0.072532237
-0.67490888 0.25368145 0.037786566 8 9 -0.072529934
-0.67508394 0.2538819 0.063100755 7 10 -0.072525322
-0.46775341 0.17600323 -0.079155855 2 3 -0.07252302
-0.72082591 0.27137133 0.094570614 7 11 -0.072520718
-0.53686851 0.20222351 -0.070440486 7 4 -0.072518408
-0.702416 0.2647205 0.11889021 3 12 -0.072516106
-0.72377753 0.27291527 0.1503575 5 13 -0.072511502
-0.92706239 0.35030767 0.26554835 4 15 -0.072502285
-0.49131462 0.18633854 -0.14079757 79 0 -0.07248155
-0.64875621 0.24618022 0.012111969 8 8 -0.072479241
-0.47550368 0.18053189 -0.11742445 51 1 -0.072476938
-0.68895584 0.26170987 0.03862394 8 9 -0.072474636
-0.67046887 0.25482103 0.062752135 7 10 -0.072470024
-0.48560005 0.18465608 -0.08228454 11 3 -0.072467722
-0.73471695 0.27953318 0.096520528 6 11 -0.07246542
-0.46937138 0.17867245 -0.061665896 9 4 -0.072463118
-0.69779563 0.26576459 0.11826447 3 12 -0.072460815
-0.7228204 0.27544028 0.1503575 5 13 -0.072456203
-0.90056759 0.34389308 0.25830141 5 15 -0.072446987
-0.47803384 0.18321285 -0.1371741 54 0 -0.072426252
-0.63295597 0.24271552 0.011832732 8 8 -0.07242395
-0.4621346 0.17730428 -0.11427514 35 1 -0.07242164
-0.66570753 0.25540781 0.037367877 8 9 -0.072419338
-0.70305401 0.27001786 0.065889739 6 10 -0.072414733
-0.46282542 0.17784737 -0.07853011 20 3 -0.072412431
-0.70409089 0.27069816 0.092620708 7 11 -0.072410122
-0.53547961 0.20587306 -0.070440486 7 4 -0.072407819
-0.70797253 0.27233234 0.12014168 3 12 -0.072405517
-0.72185463 0.27796155 0.1503575 5 13 -0.072400905
-0.91744667 0.35382909 0.2634778 4 15 -0.072391689
-0.50084448 0.19386247 -0.1439034 51 0 -0.072370954
-0.62468857 0.24192451 0.011693113 9 8 -0.072368652
-0.45972702 0.17813174 -0.11382524 53 1 -0.072366349
-0.68720502 0.26627329 0.03862394 8 9 -0.072364047
-0.6872943 0.26658383 0.064495243 6 10 -0.072359435
-0.46775779 0.18152519 -0.07946872 23 3 -0.072357133
-0.70318931 0.27303153 0.092620708 7 11 -0.072354831
-0.53479397 0.20764765 -0.070440486 7 4 -0.072352521
-0.70706552 0.27467859 0.12014168 3 12 -0.072350219
-0.72092885 0.28035381 0.1503575 5 13 -0.072345614
-0.91266811 0.35546732 0.26244253 4 15 -0.072336398
-0.47141042 0.18426922 -0.13562119 54 0 -0.072315663
-0.63878161 0.24982147 0.011972351 8 8 -0.072313353
-0.4682076 0.1832058 -0.11607475 34 1 -0.072311051
-0.67139292 0.26284552 0.037786566 8 9 -0.072308749
-0.70124769 0.27467477 0.065889739 6 10 -0.072304137
-0.46715328 0.18307534 -0.07946872 23 3 -0.072301835
-0.71706492 0.28115883 0.094570614 7 11 -0.072299533
-0.70610243 0.27714506 0.12014168 3 12 -0.072294921
-0.91861242 0.36148059 0.26451308 4 15 -0.0722811
-0.48151195 0.19025533 -0.13872701 53 0 -0.072260365
-0.66766226 0.26380718 0.012530828 7 8 -0.072258063
-0.47118983 0.1862718 -0.11697455 51 1 -0.072255753
-0.70390195 0.27841032 0.039670657 7 9 -0.072253451
-0.68171155 0.26990852 0.06414663 6 10 -0.072248846
-0.46647912 0.18478633 -0.07946872 23 3 -0.072246537
-0.73453474 0.29097119 0.097008012 6 11 -0.072244234
-0.7161485 0.28397685 0.1220189 3 12 -0.07223963
-0.81019187 0.32159573 0.16943841 3 13 -0.072235018
-0.91016424 0.36183026 0.26244253 4 15 -0.072225802
-0.47187394 0.188354 -0.13613883 54 0 -0.072205067
-0.63697767 0.25438595 0.011972351 8 8 -0.072202764
-0.4705039 0.18799767 -0.11697455 34 1 -0.072200462
-0.70663518 0.28234786 0.039880004 7 9 -0.072198153
-0.72146308 0.28856468 0.067981474 5 10 -0.072193548
-0.75926363 0.30399108 0.10042035 5 11 -0.072188936
-0.72982258 0.29235157 0.12452185 3 12 -0.072184332
-0.91785914 0.3686046 0.26503071 4 15 -0.072170511
-0.47658867 0.1921673 -0.13769174 54 0 -0.072149768
-0.63613057 0.25649688 0.011972351 8 8 -0.072147466
-0.71675789 0.28929785 0.040508036 7 9 -0.072142862
-0.50607854 0.20436616 -0.10608982 12 2 -0.07214056
-0.67981058 0.27466136 0.06414663 6 10 -0.07213825
-0.75088972 0.30353141 0.099445395 6 11 -0.072133645
-0.7141484 0.28896976 0.1220189 3 12 -0.072129034
-0.80798417 0.3271029 0.16943841 3 13 -0.072124429
-0.91656679 0.37180653 0.26503071 3 15 -0.072115213
-0.49563083 0.20175877 -0.14338575 51 0 -0.072094478
-0.64634323 0.2632415 0.012181779 8 8 -0.072092175
-0.69724894 0.28425807 0.039461315 7 9 -0.072087564
-0.74162006 0.30249867 0.070073217 5 10 -0.072082959
-0.69469136 0.28363961 0.092133231 7 11 -0.072078347
-0.71313542 0.29146069 0.1220189 3 12 -0.072073743
-0.91168821 0.37353885 0.26399544 3 15 -0.072059914
-0.49310145 0.20283908 -0.14286812 25 0 -0.07203918
-0.64542043 0.26549605 0.012181779 8 8 -0.072036877
-0.66670334 0.27452299 0.037786566 8 9 -0.072032265
-0.47922593 0.19742477 -0.10074715 12 2 -0.072029963
-0.7534008 0.31052932 0.071293391 5 10 -0.072027661
-0.74875236 0.30876622 0.099445395 6 11 -0.072023049
-0.71211368 0.29394826 0.1220189 3 12 -0.072018445
-0.91930395 0.38041231 0.26658365 4 15 -0.072004616
-0.47811821 0.19862986 -0.13872701 26 0 -0.071983881
-0.65182912 0.2709299 0.012321399 8 8 -0.071981579
-0.69524747 0.28911883 0.039461315 7 9 -0.071976975
-0.6971305 0.29018733 0.066064052 6 10 -0.071972363
-0.75494522 0.3145625 0.10042035 5 11 -0.071967758
-0.52952254 0.22074424 -0.070440486 7 4 -0.071965449
-0.71108323 0.2964322 0.1220189 3 12 -0.071963146
-0.916188 0.38287383 0.26606598 3 15 -0.071949326
-0.64355117 0.26999545 0.012181779 8 8 -0.071926281
-0.7236976 0.3039172 0.041136064 7 9 -0.071921676
-0.69611323 0.2926192 0.066064052 6 10 -0.071917064
-0.46071982 0.19366889 -0.079155855 2 3 -0.071914762
-0.79964411 0.33630362 0.10651381 4 11 -0.07191246
-0.52878755 0.222499 -0.070440486 7 4 -0.071910158
-0.75009793 0.3157745 0.12890202 3 12 -0.071907848
-0.91484588 0.38606963 0.26606598 3 15 -0.071894027
-0.46252361 0.19585346 -0.13458592 27 0 -0.071873292
-0.63892227 0.27067998 0.012111969 8 8 -0.07187099
-0.7116524 0.30163884 0.040508036 7 9 -0.071866378
-0.75016332 0.31827071 0.071293391 5 10 -0.071861774
-0.7619223 0.32357374 0.10163904 5 11 -0.071857162
-0.73813832 0.31362498 0.1270248 3 12 -0.071852557
-0.92067009 0.3921293 0.26813653 3 15 -0.071838729
-0.46894231 0.2005046 -0.13665645 27 0 -0.071817994
-0.64905322 0.27751422 0.012321399 8 8 -0.071815692
-0.69223344 0.29626271 0.039461315 7 9 -0.071811087
