# .PCD v0.7 - Point Cloud Data file format
VERSION 0.7
FIELDS x y z intensity ring time
SIZE 4 4 4 4 2 4
TYPE F F F F U F
COUNT 1 1 1 1 1 1
WIDTH 982
HEIGHT 1
VIEWPOINT 0 0 0 1 0 0 0
POINTS 982
DATA ascii
4.4921579 3.9036014 -0.52066839 35 5 -0.045820273
6.0100632 5.220787 1.547461 30 13 -0.045817968
4.6432438 4.0320449 -0.32228485 22 6 -0.045815665
5.1948338 4.5094423 1.5881544 3 14 -0.045813359
6.6308675 5.7560096 -0.15326704 38 7 -0.045811057
4.2138586 3.6566012 1.494939 37 15 -0.045808751
3.1160128 2.6963189 -1.1041222 14 0 -0.045788016
6.8465905 5.9223442 0.1580141 97 8 -0.045785714
3.6984532 3.1980569 -1.1288043 1 1 -0.045783408
6.5356154 5.6513543 0.45281073 9 9 -0.045781106
6.8110962 5.8854098 0.78753924 72 10 -0.045776498
5.7344346 4.9533277 -1.2001654 13 3 -0.045774192
8.9006853 7.6855736 1.4439081 34 11 -0.045771889
4.3638544 3.7667801 -0.7078172 33 4 -0.045769583
6.5511289 5.6547856 1.3706789 2 12 -0.045767281
4.5178251 3.8983083 -0.5220629 34 5 -0.045764975
6.0297379 5.2010565 1.5478426 31 13 -0.045762673
4.7102299 4.0614619 -0.32594836 57 6 -0.045760367
5.0053701 4.3144279 1.5256181 21 14 -0.045758065
6.5903335 5.6806026 -0.15187085 42 7 -0.045755759
4.5719848 3.9394727 1.6171014 28 15 -0.045753457
3.1283343 2.6879456 -1.1051573 12 0 -0.045732722
3.6972127 3.1756163 -1.1252052 1 1 -0.045728114
11.658923 10.010567 0.80534577 2 9 -0.045725808
4.5228806 3.8820617 -1.1585923 2 2 -0.045723505
6.7711167 5.8097014 0.78056681 76 10 -0.045721199
5.7133508 4.9021254 -1.1923436 25 3 -0.045718897
8.9261217 7.6560173 1.4439081 26 11 -0.045716591
4.3627582 3.7406604 -0.70562357 34 4 -0.045714289
6.5243349 5.5920315 1.36098 3 12 -0.045711983
4.5404844 3.8902915 -0.52310878 35 5 -0.045709681
5.4222784 4.6458135 1.3879447 23 13 -0.045707375
4.7297392 4.0510182 -0.32636705 74 6 -0.045705073
5.1647186 4.4220109 1.5697085 40 14 -0.04570277
6.6329122 5.6770663 -0.15239441 34 7 -0.045700464
4.4477234 3.8054364 1.5684435 20 15 -0.045698162
3.1284151 2.6700315 -1.1020516 13 0 -0.045677423
6.6068325 5.6367898 0.15159161 18 8 -0.045675121
3.7082744 3.1626918 -1.1252052 2 1 -0.045672815
11.836419 10.094977 0.81528962 71 9 -0.045670513
4.5372243 3.8683143 -1.1589739 11 2 -0.045668207
6.7994428 5.7949719 0.78161269 54 10 -0.045665905
5.7409544 4.8911176 -1.1945337 43 3 -0.045663599
6.5952015 5.6169295 1.0636758 21 11 -0.045661297
4.3706055 3.7223098 -0.70489234 37 4 -0.045658991
6.5052381 5.5383525 1.3531584 2 12 -0.045656689
4.6777782 3.9810991 -0.53740233 65 5 -0.045654386
4.7590666 4.0474215 -0.3274138 71 6 -0.045649778
5.2313104 4.4490485 1.5854551 42 14 -0.045647472
6.5999031 5.6109991 -0.15120766 36 7 -0.04564517
4.1556044 3.5316989 1.4612924 37 15 -0.045642864
3.1313567 2.6546462 -1.099981 12 0 -0.045622129
6.5522628 5.5527902 0.14991617 18 8 -0.045619823
3.7217147 3.1528974 -1.126105 8 1 -0.045617521
11.903354 10.084075 0.81759238 30 9 -0.045615215
4.5410371 3.8456352 -1.1566842 14 2 -0.045612913
11.601089 9.821044 1.3298223 22 10 -0.04561061
5.7480922 4.8644009 -1.1926565 36 3 -0.045608304
9.0280371 7.6373949 1.4519515 4 11 -0.045606002
4.3874712 3.711643 -0.70562357 45 4 -0.045603696
6.506978 5.502717 1.3497167 3 12 -0.045601394
4.7016025 3.9745724 -0.5386225 75 5 -0.045599088
5.5377469 4.6797633 1.4093152 1 13 -0.045596786
4.7922978 4.0483718 -0.32877451 60 6 -0.04559448
5.2519908 4.4367051 1.5872546 47 14 -0.045592178
6.6169453 5.5877938 -0.15117276 38 7 -0.045589872
4.1495776 3.5029459 1.4550807 9 15 -0.045587569
3.1490099 2.6517129 -1.1030868 13 0 -0.045566831
6.6119452 5.5658035 0.1508586 2 8 -0.045564529
3.7217133 3.1317546 -1.1229557 8 1 -0.045562226
11.993508 10.088745 0.82136059 79 9 -0.04555992
4.5694604 3.8423948 -1.1605004 11 2 -0.045557618
11.644265 9.7914982 1.3310424 27 10 -0.045555312
5.7823377 4.8605633 -1.1964109 9 3 -0.04555301
9.0335579 7.5908108 1.4487829 11 11 -0.045550704
4.4019213 3.6975811 -0.70586729 46 4 -0.045548402
6.5155559 5.4710793 1.3475267 3 12 -0.045546096
4.7490215 3.986316 -0.54245734 56 5 -0.045543794
5.5059242 4.6200209 1.3971035 12 13 -0.045541488
4.8094597 4.0341873 -0.32898384 60 6 -0.045539185
5.2853618 4.4333749 1.5926535 45 14 -0.045536879
6.6486669 5.5749421 -0.15145199 40 7 -0.045534577
4.0522218 3.396605 1.4167756 1 15 -0.045532271
3.1527781 2.6351981 -1.1010163 14 0 -0.045511536
6.5494337 5.4722962 0.14897373 23 8 -0.045509234
3.7241936 3.1105962 -1.1202562 6 1 -0.045506928
12.062597 10.071604 0.82355869 85 9 -0.045504626
4.5850191 3.82688 -1.160882 14 2 -0.04550232
6.571188 5.484633 0.74884212 65 10 -0.045500018
4.6413054 3.8724816 -0.95737904 1 3 -0.045497712
9.0491219 7.5474806 1.446833 11 11 -0.04549541
4.4093447 3.6763384 -0.70489234 46 4 -0.045493104
6.5416365 5.4522195 1.3487781 2 12 -0.045490801
4.7773757 3.9803622 -0.54402614 100 5 -0.045488495
5.5213108 4.5985541 1.3967218 20 13 -0.045486193
4.8349586 4.0254769 -0.32971656 43 6 -0.045483887
4.7534475 3.9576123 1.4279894 22 14 -0.045481585
6.6444626 5.5300703 -0.15089351 48 7 -0.045479279
4.6601591 3.8771889 1.6243484 39 15 -0.045476977
3.1653898 2.6260915 -1.1020516 14 0 -0.045456242
6.6340961 5.5018678 0.15043975 15 8 -0.045453936
3.735569 3.0969265 -1.1202562 8 1 -0.045451634
12.134803 10.056633 0.82596612 100 9 -0.045449328
4.5847459 3.7995763 -1.1574475 14 2 -0.045447025
6.5774388 5.4490705 0.74727333 83 10 -0.045444719
4.6280818 3.8327661 -0.95174736 6 3 -0.045442417
6.5445399 5.4179645 1.0432017 15 11 -0.045440111
4.4197316 3.6576204 -0.70440483 46 4 -0.045437809
6.5478754 5.4168749 1.3459623 1 12 -0.045435503
4.8019881 3.9725509 -0.54524636 86 5 -0.045433201
5.6235676 4.6505675 1.4184742 12 13 -0.045430895
6.9502048 5.745626 -0.47259375 53 6 -0.045428593
5.2966871 4.3771329 1.5863549 53 14 -0.045426287
6.7356057 5.5642633 -0.15249914 67 7 -0.045423985
4.6877437 3.8711543 1.6290071 30 15 -0.045421682
3.1685719 2.6101134 -1.099981 13 0 -0.045400944
6.6764154 5.497746 0.15096332 70 8 -0.045398641
3.7568879 3.0925386 -1.1234056 8 1 -0.045396335
12.213014 10.04975 0.82889694 49 9 -0.045394033
4.5919156 3.7785602 -1.1559209 14 2 -0.045391727
6.5348706 5.3754511 0.74030089 78 10 -0.045389425
4.7451868 3.9019012 -0.97302246 1 3 -0.045387119
9.1197681 7.4963994 1.4495142 14 11 -0.045384817
4.4432092 3.650991 -0.70611101 43 4 -0.045382511
6.5728517 5.3989997 1.3472137 1 12 -0.045380209
4.8158269 3.9557636 -0.54524636 77 5 -0.045377903
5.6245928 4.6184521 1.414658 29 13 -0.0453756
6.9825702 5.7314653 -0.47343111 57 6 -0.045373298
5.3270001 4.3709774 1.5908539 50 14 -0.045370992
6.6328435 5.4405322 -0.14974165 67 7 -0.04536869
4.175384 3.4236009 1.4467984 30 15 -0.045366384
3.1716831 2.5941441 -1.0979104 13 0 -0.045345649
6.7590365 5.5263047 0.15239441 21 8 -0.045343343
3.7616251 3.0744712 -1.1216059 8 1 -0.045341041
12.295762 10.049638 0.83224642 100 9 -0.045338735
4.6081195 3.7649915 -1.1566842 11 2 -0.045336433
6.5628519 5.3601708 0.74134672 69 10 -0.045334127
5.7901006 4.7273412 -1.1838962 6 3 -0.045331825
9.1658745 7.480834 1.4526827 4 11 -0.045329522
4.4614429 3.6412582 -0.70708597 45 4 -0.045327216
7.4463148 6.0752368 1.5221075 13 12 -0.045324914
4.8203406 3.9313743 -0.54420048 83 5 -0.045322608
5.6726356 4.6248412 1.4226719 50 13 -0.045320306
7.0334973 5.7322941 -0.47552454 62 6 -0.045318
5.341465 4.3532891 1.5908539 50 14 -0.045315698
6.733016 5.4854469 -0.15159161 51 7 -0.045313392
4.6930137 3.8220768 1.6217602 37 15 -0.04531109
3.1877649 2.5897033 -1.1004987 11 0 -0.045290351
6.9046144 5.6072292 0.15525661 21 8 -0.045288049
3.7566695 3.0496988 -1.1171069 9 1 -0.045285746
12.361582 10.035246 0.83444458 85 9 -0.045283441
4.6053362 3.7373173 -1.152868 14 2 -0.045281138
6.5542884 5.3170376 0.73838341 72 10 -0.045278832
5.790401 4.6956735 -1.1807675 7 3 -0.04527653
6.5907321 5.342783 1.0417392 67 11 -0.045274224
4.4858308 3.6364429 -0.70903593 43 4 -0.045271922
7.4679561 6.0517521 1.5224204 27 12 -0.045269616
4.8457355 3.9254019 -0.54559493 77 5 -0.045267314
5.7093024 4.6232996 1.4280145 46 13 -0.045265008
7.0726466 5.725276 -0.47688529 65 6 -0.045262706
4.8605733 3.9346128 1.4437358 15 14 -0.0452604
6.71386 5.4329009 -0.15075389 10 7 -0.045258097
4.7131739 3.812567 1.6243484 39 15 -0.045255791
3.1993427 2.5815434 -1.1015339 11 0 -0.045235056
6.5200443 5.2591381 0.14621626 23 8 -0.045232754
3.7713139 3.0408931 -1.1184566 8 1 -0.045230448
6.5068011 5.2465763 0.43805203 81 9 -0.045228146
4.6360459 3.7368107 -1.1574475 14 2 -0.04522584
6.5517139 5.2790232 0.73611736 100 10 -0.045223538
5.8044038 4.6752057 -1.1804546 9 3 -0.045221232
6.5960426 5.3109398 1.0397893 93 11 -0.04521893
4.5009565 3.624038 -0.70952338 45 4 -0.045216624
7.489521 6.028194 1.5227332 28 12 -0.045214321
4.858727 3.9093101 -0.54559493 73 5 -0.045212016
5.7368402 4.6141863 1.4310676 38 13 -0.045209713
5.1864514 4.1700182 1.5364157 40 14 -0.045205105
6.5993552 5.3041215 -0.14778697 15 7 -0.045202799
4.7288017 3.7993374 1.6253836 35 15 -0.045200497
3.2093918 2.5721304 -1.1020516 12 0 -0.045179762
6.9931521 5.6025724 0.15640847 10 8 -0.045177456
3.7798555 3.027153 -1.1180067 11 1 -0.045175154
6.5210443 5.2224741 0.43784264 100 9 -0.045172848
4.6468801 3.7201877 -1.1570657 14 2 -0.045170546
6.5505185 5.2423277 0.7340256 92 10 -0.04516824
5.8090768 4.6472945 -1.1782646 7 3 -0.045165937
6.6244721 5.2977147 1.0414956 49 11 -0.045163631
4.525353 3.61901 -0.71147329 45 4 -0.045161329
7.5017576 5.9971557 1.5211689 27 12 -0.045159023
4.8778892 3.8981526 -0.54629219 55 5 -0.045156721
6.0159411 4.8058991 1.4967059 30 13 -0.045154415
6.4424925 5.1448174 -0.43208569 1 6 -0.045152113
4.8835168 3.8998575 1.4428362 30 14 -0.045149807
6.6716051 5.3258743 -0.14900865 9 7 -0.045147505
4.7353358 3.7788141 1.6233131 35 15 -0.045145199
3.209728 2.5531318 -1.0989457 12 0 -0.045125961
12.052 9.5831661 0.26876706 2 8 -0.045123659
3.798552 3.0193427 -1.1202562 11 1 -0.045121353
6.549521 5.205996 0.43847069 87 9 -0.045119051
4.6435752 3.6896975 -1.152868 14 2 -0.045116745
6.5228848 5.1811094 0.7287963 54 10 -0.045114443
5.8260698 4.6259732 -1.1782646 9 3 -0.045112137
6.5365591 5.1882463 1.0246775 18 11 -0.045109835
4.5594306 3.6176481 -0.71464187 48 4 -0.045107529
7.5190468 5.9659348 1.5202303 31 12 -0.045105226
4.8890209 3.877773 -0.54594356 35 5 -0.04510292
6.2811923 4.980196 1.5581464 35 13 -0.045100618
6.4268718 5.0938754 -0.42978293 1 6 -0.045098312
5.1733909 4.0989122 1.5238184 38 14 -0.04509601
6.6816754 5.2939363 -0.14879921 18 7 -0.045093704
4.2069988 3.3320355 1.4379987 18 15 -0.045091402
3.2171028 2.5407174 -1.0984281 12 0 -0.045070667
6.4969568 5.1309929 0.14450593 21 8 -0.045068361
3.813133 3.0103507 -1.1216059 9 1 -0.045066059
6.5801973 5.1929989 0.43930805 33 9 -0.045063753
4.6656728 3.6807654 -1.1551577 11 2 -0.04506145
6.5252862 5.1459684 0.72705317 83 10 -0.045059144
5.8196645 4.5895014 -1.1738844 7 3 -0.045056842
9.3130274 7.3418002 1.4560951 14 11 -0.045054536
4.5807543 3.609884 -0.71610433 51 4 -0.045052234
7.5506864 5.9482102 1.5224204 30 12 -0.045049928
4.9197464 3.8742414 -0.54786098 7 5 -0.045047626
6.2837906 4.94841 1.5547118 33 13 -0.04504532
6.4217529 5.055243 -0.42831749 0 6 -0.045043018
5.4059505 4.254065 1.5881544 39 14 -0.045040712
6.6891131 5.2619243 -0.14855488 36 7 -0.04503841
4.2064562 3.3077755 1.4338576 71 15 -0.045036104
3.2239907 2.528842 -1.0979104 12 0 -0.045015369
12.12954 9.5107803 0.26904631 2 8 -0.045013066
3.8144166 2.9898083 -1.1189066 9 1 -0.04501076
12.754795 9.9938545 0.84920329 100 9 -0.045008458
4.6577635 3.6495304 -1.1501967 2 2 -0.045006152
6.5313344 5.1157036 0.725833 72 10 -0.04500385
5.8294291 4.5642862 -1.1726329 7 3 -0.045001544
9.3276548 7.3006849 1.454389 24 11 -0.044999242
4.6136532 3.6097732 -0.71927297 52 4 -0.044996936
6.5195618 5.0991378 1.310921 8 12 -0.044994634
6.2822366 4.9135189 -0.69776887 1 5 -0.044992328
6.3072109 4.931283 1.5562382 30 13 -0.044990025
6.4204788 5.0180359 -0.42706147 0 6 -0.04498772
4.963151 3.8776376 1.4540836 18 14 -0.044985417
6.7815104 5.2963948 -0.1501954 11 7 -0.044983115
4.2286339 3.3013971 1.437481 45 15 -0.044980809
3.2358475 2.5199459 -1.0989457 13 0 -0.044960074
12.224207 9.5162849 0.27040759 48 8 -0.044957768
3.8279033 2.9788713 -1.1198063 9 1 -0.044955466
6.482295 5.042696 0.43041092 56 9 -0.04495316
4.5836983 3.565743 -1.1288261 4 2 -0.044950858
6.5224161 5.0720801 0.72286975 83 10 -0.044948552
5.8328466 4.534215 -1.17013 11 3 -0.04494625
9.3562174 7.2705135 1.4548763 14 11 -0.044943944
4.6356325 3.6009517 -0.72073537 57 4 -0.044941641
6.5201588 5.0630245 1.3074795 2 12 -0.044939339
6.2836123 4.8793421 -0.69602579 1 5 -0.044937033
5.8296642 4.5252123 1.434502 9 13 -0.044934731
6.3937745 4.9613085 -0.42413062 0 6 -0.044932425
5.4509158 4.2281647 1.5926535 58 14 -0.044930123
6.6529918 5.158731 -0.14694926 10 7 -0.044927817
4.5882607 3.5564559 1.5555025 9 15 -0.044925515
3.2461517 2.5098171 -1.0994633 10 0 -0.044904776
6.5440035 5.0577826 0.14436631 13 8 -0.044902474
3.8274844 2.9571505 -1.116657 9 1 -0.044900168
6.4840517 5.0078278 0.42936423 27 9 -0.044897866
4.6116557 3.5617201 -1.1326423 2 2 -0.04489556
6.5258865 5.0383244 0.7213009 63 10 -0.044893257
5.8752241 4.5343432 -1.1754488 9 3 -0.044890955
9.3815422 7.2378073 1.4548763 29 11 -0.044888649
4.6513166 3.5871739 -0.72122282 57 4 -0.044886347
7.6125598 5.8688159 1.5224204 34 12 -0.044884041
6.2911372 4.85008 -0.69497991 1 5 -0.044881739
5.82832 4.4916511 1.4303043 28 13 -0.044879433
6.3952312 4.9267721 -0.42308393 1 6 -0.044877131
5.4656405 4.2091126 1.5926535 47 14 -0.044874825
6.5093365 5.0110526 -0.14338897 10 7 -0.044872522
4.6955681 3.6134663 1.5875961 7 15 -0.044870216
3.2441657 2.4902375 -1.0958399 9 0 -0.044849481
6.8471837 5.2540283 0.15064916 2 8 -0.044847175
3.8377829 2.9437728 -1.116657 9 1 -0.044844873
6.4872274 4.9742274 0.42842221 24 9 -0.044842571
4.6957264 3.6005538 -1.1501967 2 2 -0.044840265
6.5292039 5.0046043 0.71973211 83 10 -0.044837963
5.9458957 4.5558586 -1.1863991 12 3 -0.044835657
9.4177799 7.2134676 1.4565825 22 11 -0.044833355
4.6843004 3.5866029 -0.72439146 61 4 -0.044831049
7.6377068 5.8458076 1.5233591 34 12 -0.044828746
6.2542367 4.7869163 -0.6890533 1 5 -0.044826441
5.8439627 4.4712801 1.4303043 41 13 -0.044824138
6.4028721 4.8971367 -0.42245588 1 6 -0.044821832
5.4911375 4.1982923 1.5958028 13 14 -0.04481953
6.4902444 4.9603724 -0.14258616 13 7 -0.044817224
4.7173643 3.604089 1.5907019 5 15 -0.044814922
3.2528389 2.4788973 -1.0958399 12 0 -0.044794187
3.8588884 2.938622 -1.1198063 9 1 -0.044789579
6.4854803 4.9370365 0.42716613 58 9 -0.044787273
4.7082653 3.5841415 -1.1501967 14 2 -0.044784971
6.5180922 4.9600658 0.71659446 96 10 -0.044782665
5.9460411 4.5231147 -1.1832705 7 3 -0.044780362
6.5006847 4.9432378 1.0027411 13 11 -0.044778056
4.7110147 3.5810428 -0.72658509 54 4 -0.044775754
7.6564918 5.8179173 1.523046 33 12 -0.044773448
6.2582164 4.755414 -0.68765879 1 5 -0.044771146
5.8564076 4.4484801 1.4295411 9 13 -0.04476884
6.4103818 4.8675108 -0.42182785 0 6 -0.044766538
5.5383549 4.2038422 1.6052507 16 14 -0.044764232
6.4979606 4.9304361 -0.14237672 33 7 -0.04476193
4.8391991 3.6704888 1.6274542 37 15 -0.044759624
3.2660935 2.4710252 -1.0973928 12 0 -0.044738889
6.4594474 4.8852401 0.1413645 21 8 -0.044736587
3.8582423 2.9169066 -1.116657 8 1 -0.044734281
13.158312 9.9443426 0.86438072 100 9 -0.044731978
4.7411089 3.5830741 -1.1551577 9 2 -0.044729672
6.5099325 4.9180665 0.71380556 83 10 -0.04472737
5.6796269 4.289237 -1.1272669 13 3 -0.044725064
9.4805803 7.1571159 1.4585325 19 11 -0.044722762
4.7567616 3.5896859 -0.73170358 23 4 -0.044720456
7.6877942 5.7994814 1.5252361 31 12 -0.044718154
6.2652354 4.7263384 -0.6866129 1 5 -0.044715848
6.4079881 4.8322778 1.5600544 8 13 -0.044713546
6.3858685 4.8138447 -0.41910636 0 6 -0.04471124
5.0471888 3.803329 1.4590325 18 14 -0.044708937
6.5071454 4.90171 -0.14220221 14 7 -0.044706635
4.8596978 3.6593862 1.6300424 45 15 -0.044704329
3.2746997 2.4596083 -1.0973928 11 0 -0.044683594
6.4572692 4.8482556 0.14094563 15 8 -0.044681288
3.8606071 2.8975728 -1.1144075 9 1 -0.044678986
13.223301 9.9211206 0.86636949 69 9 -0.04467668
4.7457356 3.5606101 -1.1532496 14 2 -0.044674378
6.4983687 4.873796 0.71066791 63 10 -0.044672072
5.6392455 4.2279134 -1.1163164 12 3 -0.04466977
9.4959764 7.1168337 1.45707 14 11 -0.044667464
6.1450725 4.6037979 -0.94278133 1 4 -0.044665162
7.7095723 5.773797 1.5255492 30 12 -0.044662856
6.2569962 4.6842399 -0.68382394 1 5 -0.044660553
6.4232464 4.8087015 1.5596728 24 13 -0.044658251
6.3706508 4.767592 -0.41701293 1 6 -0.044655945
5.0245438 3.7588406 1.4486848 37 14 -0.044653643
6.5098038 4.8681855 -0.14188807 11 7 -0.044651337
4.3602853 3.2595382 1.4587041 39 15 -0.044649035
3.2960832 2.4568262 -1.1015339 11 0 -0.044628296
6.4789629 4.8292727 0.14105035 36 8 -0.044625994
3.8769493 2.8887355 -1.1162071 9 1 -0.044623688
13.302703 9.9083042 0.86930031 94 9 -0.044621386
4.7634778 3.5467107 -1.1543945 7 2 -0.04461908
6.5129924 4.8475642 0.71031928 90 10 -0.044616777
5.6578746 4.2095733 -1.1169422 13 3 -0.044614471
9.5382824 7.0966749 1.4597511 26 11 -0.044612169
6.1228757 4.5538878 -0.93693155 1 4 -0.044609867
7.7122426 5.7338834 1.5221075 19 12 -0.044607561
6.2733107 4.6623688 -0.68382394 1 5 -0.044605259
6.4502826 4.7921534 1.5619626 33 13 -0.044602953
6.3720489 4.7323008 -0.41596621 0 6 -0.044600651
5.0680161 3.7624683 1.457233 33 14 -0.044598345
6.4400558 4.7810636 -0.1400032 24 7 -0.044596042
4.2987242 3.1901894 1.4343752 60 15 -0.044593737
3.2828987 2.4292173 -1.0942869 11 0 -0.044573002
6.5384183 4.8364143 0.14195788 15 8 -0.044570696
3.8859432 2.8733487 -1.1157572 8 1 -0.044568393
13.382173 9.8950605 0.87223113 77 9 -0.044566087
4.7663569 3.5230582 -1.1521047 11 2 -0.044563785
5.6693554 4.1874518 -1.1163164 13 3 -0.044559177
9.5706148 7.0663862 1.4607261 33 11 -0.044556875
6.0876331 4.4947548 -0.92913198 1 4 -0.044554569
7.7337985 5.7081027 1.5224204 12 12 -0.044552267
6.2510681 4.6120553 -0.67964047 1 5 -0.044549961
5.9281893 4.3722363 1.4318308 33 13 -0.044547658
6.3724546 4.6981754 -0.4149195 0 6 -0.044545352
5.5290651 4.0763755 1.585905 14 14 -0.04454305
6.5210948 4.8060107 -0.1413994 13 7 -0.044540744
4.3051682 3.1717257 1.4328223 61 15 -0.044538442
3.2847102 2.4137409 -1.0922165 10 0 -0.044517707
6.4851222 4.7637982 0.14045697 52 8 -0.044515401
3.9033036 2.8662143 -1.1180067 9 1 -0.044513099
13.480915 9.8990993 0.87652272 100 9 -0.044510793
4.7748494 3.5049088 -1.1513416 9 2 -0.044508491
6.4269671 4.7159004 0.6974203 40 10 -0.044506185
5.678431 4.1651244 -1.1153778 19 3 -0.044503883
6.4546962 4.7327771 0.98275441 15 11 -0.044501577
6.1057076 4.4768882 -0.92961943 1 4 -0.044499274
7.773396 5.697607 1.5264877 18 12 -0.044496968
6.240612 4.5724607 -0.67685145 1 5 -0.044494666
5.9125633 4.3305111 1.4245801 22 13 -0.04449236
6.3525429 4.6510644 -0.41261673 0 6 -0.044490058
5.5818596 4.0868025 1.5971525 17 14 -0.044487752
6.5563593 4.7985334 -0.14181826 74 7 -0.04448545
3.300498 2.4085293 -1.0948045 11 0 -0.044462409
6.5057302 4.7458038 0.14056168 31 8 -0.044460107
3.9080641 2.8498092 -1.116657 8 1 -0.044457801
13.555738 9.8813896 0.87913948 60 9 -0.044455498
4.8165889 3.5110292 -1.1585923 7 2 -0.044453193
6.4184155 4.6769629 0.69480556 20 10 -0.04445089
5.6826329 4.1392913 -1.1135007 20 3 -0.044448584
9.6268988 7.0097666 1.4621885 35 11 -0.044446282
6.1148748 4.4508796 -0.92864448 1 4 -0.044443976
6.4594908 4.6999888 1.2652421 7 12 -0.044441674
6.2202992 4.5259504 -0.67301667 1 5 -0.044439368
5.9459429 4.3247395 1.4291594 56 13 -0.044437066
6.3679304 4.6299748 -0.41261673 0 6 -0.04443476
5.1799321 3.764823 1.4783784 14 14 -0.044432458
6.6232219 4.8120532 -0.1429003 67 7 -0.044430152
4.9315753 3.5816886 1.6331483 11 15 -0.044427849
3.3167074 2.4026616 -1.0973928 11 0 -0.044407114
6.4785271 4.6913962 0.13961925 76 8 -0.044404808
3.9037812 2.8258648 -1.1126078 9 1 -0.044402506
13.632215 9.8644571 0.88186091 37 9 -0.0444002
4.8081374 3.4792337 -1.1536313 7 2 -0.044397898
6.4217887 4.6451864 0.69341105 29 10 -0.044395592
5.692246 4.1159563 -1.1125621 23 3 -0.04439329
9.6384373 6.9668188 1.4602386 15 11 -0.044390984
6.1110668 4.4155545 -0.92571962 1 4 -0.044388682
6.4902701 4.68782 1.2680578 26 12 -0.044386376
6.2360606 4.5042086 -0.67301667 1 5 -0.044384073
6.0947065 4.400496 1.4612154 26 13 -0.044381768
6.3484259 4.5820012 -0.41031393 1 6 -0.044379465
5.6387029 4.0682549 1.6052507 1 14 -0.044377163
6.5410433 4.7175517 -0.14077111 50 7 -0.044374857
4.9581523 3.5746188 1.6378069 7 15 -0.044372555
3.3219378 2.3888128 -1.0963575 12 0 -0.044351816
6.5046048 4.6757584 0.13982868 94 8 -0.044349514
3.9183676 2.815635 -1.1139576 9 1 -0.044347208
13.721723 9.8564253 0.88541979 94 9 -0.044344906
4.8074975 3.4532647 -1.1505783 7 2 -0.0443426
6.4687152 4.6448197 0.69672298 13 10 -0.044340298
5.7065759 4.0960655 -1.1125621 33 3 -0.044337992
9.6772156 6.9435449 1.4624323 14 11 -0.044335689
6.1006346 4.3756828 -0.92181975 1 4 -0.044333383
7.8695564 5.6423683 1.5336838 13 12 -0.044331081
6.2096429 4.4522324 -0.66848457 1 5 -0.044328779
6.5344944 4.6834154 1.5627258 29 13 -0.044326473
6.354641 4.5528321 -0.40968591 1 6 -0.044324171
5.6275177 4.0303969 1.5980524 13 14 -0.044321865
6.5493431 4.688869 -0.1405966 56 7 -0.044319563
4.9831686 3.5662832 1.6419481 15 15 -0.044317257
3.3176768 2.3682241 -1.0922165 12 0 -0.044296522
6.4964714 4.6356001 0.13930511 85 8 -0.044294216
3.9250002 2.7996762 -1.1130579 9 1 -0.044291914
13.822716 9.8560104 0.88971132 34 9 -0.044289608
4.8243175 3.439883 -1.1517231 4 2 -0.044287305
6.4475718 4.5956154 0.69271386 15 10 -0.044285003
5.7079697 4.0669489 -1.110059 36 3 -0.044282697
9.7094765 6.9154825 1.4636509 10 11 -0.044280395
6.1029344 4.3451519 -0.9198699 1 4 -0.044278089
7.8972521 5.6205893 1.5352479 13 12 -0.044275787
6.2121611 4.4212856 -0.66709006 1 5 -0.044273481
6.5508037 4.6605754 1.5627258 26 13 -0.044271179
6.3509622 4.5167332 -0.40842983 1 6 -0.044268873
5.6606121 4.0242767 1.6034511 11 14 -0.04426657
6.6993308 4.7609644 -0.14345878 57 7 -0.044264264
5.0097604 3.5589373 1.6466069 16 15 -0.044261962
3.3211942 2.3532791 -1.0906636 11 0 -0.044241223
6.4734507 4.5851536 0.1384674 95 8 -0.044238921
3.9395194 2.7893374 -1.1144075 9 1 -0.044236619
13.910831 9.8457804 0.89316547 100 9 -0.044234313
4.8330894 3.4207544 -1.1509598 7 2 -0.044232011
6.4489374 4.5627222 0.691145 18 10 -0.044229705
5.709228 4.0378761 -1.1075561 38 3 -0.044227403
6.4479742 4.5586691 0.96959257 18 11 -0.044225097
6.1115813 4.3192377 -0.91889495 1 4 -0.044222794
7.861968 5.5542374 1.5246104 88 12 -0.044220489
6.2112832 4.3880796 -0.66534692 1 5 -0.044218186
5.9977264 4.2356391 1.4272513 34 13 -0.04421588
6.3438482 4.4784098 -0.40696445 1 6 -0.044213578
5.1046143 3.602247 1.4423862 1 14 -0.044211272
6.6734214 4.7075858 -0.14255126 58 7 -0.04420897
4.3811617 3.0894246 1.4364457 5 15 -0.044206664
3.3372893 2.3472273 -1.0932516 12 0 -0.044185929
6.4746923 4.5521793 0.13815325 100 8 -0.044183627
3.946044 2.7733264 -1.1135077 9 1 -0.044181321
13.977803 9.8201227 0.89525896 25 9 -0.044179019
4.8385763 3.3993475 -1.1494334 4 2 -0.044176713
6.4648242 4.540185 0.691145 6 10 -0.04417441
5.7135892 4.0111108 -1.1056789 37 3 -0.044172104
9.7526445 6.8441081 1.4629197 3 11 -0.044169802
6.0941181 4.2750788 -0.91402018 1 4 -0.044167496
7.8845444 5.529026 1.5252361 18 12 -0.044165194
6.2135134 4.3572183 -0.66395247 1 5 -0.044162888
6.3561697 4.4539471 -0.40675509 0 6 -0.04415828
5.1235423 3.5888774 1.4441857 1 14 -0.044155978
4.3871708 3.0707905 1.4348928 54 15 -0.044151369
3.3549662 2.3421996 -1.0963575 11 0 -0.044130635
6.4675846 4.5135303 0.13766459 100 8 -0.044128329
3.94771 2.7539594 -1.1112581 8 1 -0.044126026
14.067695 9.8101168 0.89881784 28 9 -0.04412372
4.8665152 3.3936677 -1.1532496 7 2 -0.044121418
6.4038124 4.4640417 0.6829524 20 10 -0.044119112
5.7243147 3.9888818 -1.1050532 41 3 -0.04411681
9.7911339 6.8202372 1.4651133 3 11 -0.044114504
6.0894537 4.2401695 -0.91109526 1 4 -0.044112202
6.5905509 4.587378 1.2718123 42 12 -0.044109896
6.2025223 4.3172894 -0.66116345 1 5 -0.044107594
6.0513234 4.2104831 1.4329756 6 13 -0.044105288
6.3224902 4.3975182 -0.40361494 1 6 -0.044102985
5.1200399 3.5598452 1.4396867 1 14 -0.044100679
6.5813284 4.5741463 -0.13989849 6 7 -0.044098377
4.3978639 3.0554564 1.4348928 15 15 -0.044096075
3.3567705 2.3260722 -1.0942869 12 0 -0.044075336
6.4701481 4.4818182 0.13738534 100 8 -0.044073034
3.9540944 2.7379451 -1.1103585 8 1 -0.044070728
14.165903 9.8052788 0.90289998 100 9 -0.044068426
4.8492761 3.3565459 -1.1463805 7 2 -0.04406612
6.4144416 4.4382586 0.68242943 36 10 -0.044063818
5.7398276 3.970001 -1.1053661 48 3 -0.044061512
6.4333124 4.4479961 0.96033055 27 11 -0.04405921
6.0878887 4.2075996 -0.90865791 1 4 -0.044056904
6.5886459 4.5519948 1.2683709 35 12 -0.044054601
6.2339458 4.3069382 -0.66290659 1 5 -0.044052295
6.0659852 4.189333 1.4329756 30 13 -0.044049993
6.3213644 4.3640757 -0.40256822 1 6 -0.044047691
5.1356421 3.5441661 1.4405866 1 14 -0.044045385
6.4458218 4.4466763 -0.13668725 18 7 -0.044043083
4.4212251 3.048861 1.439034 16 15 -0.044040777
3.3569109 2.3088675 -1.0916989 11 0 -0.044020042
6.4709244 4.4490085 0.13707121 100 8 -0.044017736
3.9700511 2.7285419 -1.1121581 9 1 -0.044015434
14.251072 9.7908344 0.90614486 100 9 -0.044013128
4.8625803 3.3407114 -1.1467621 7 2 -0.044010825
6.4249668 4.4124584 0.68190652 15 10 -0.04400852
5.7455087 3.9443491 -1.1038017 46 3 -0.044006217
6.4782596 4.4457312 0.96471781 87 11 -0.044003915
6.1189075 4.1975536 -0.91109526 1 4 -0.044001609
6.5719132 4.5066237 1.2621135 12 12 -0.043999307
6.209507 4.2581072 -0.65872312 1 5 -0.043997001
6.0983853 4.1803417 1.4371735 53 13 -0.043994699
6.326673 4.3352108 -0.40194017 0 6 -0.043992393
5.1704912 3.5416336 1.4468851 1 14 -0.04399009
6.4596558 4.423017 -0.13665235 13 7 -0.043987785
4.4398108 3.038866 1.4416221 50 15 -0.043985482
3.3569729 2.2916889 -1.0891106 11 0 -0.043964744
6.4517293 4.4027209 0.1363382 90 8 -0.043962441
3.9811599 2.7157657 -1.1126078 8 1 -0.043960139
4.8742127 3.3237159 -1.1467621 7 2 -0.043955531
6.4205756 4.3765364 0.67981476 13 10 -0.043953225
5.7429152 3.9131505 -1.100673 49 3 -0.043950923
6.4756932 4.4107966 0.96203667 67 11 -0.043948617
6.0875797 4.1448855 -0.90427065 1 4 -0.043946315
6.5353451 4.4480934 1.2521017 17 12 -0.043944009
6.2111535 4.2274418 -0.65732861 1 5 -0.043941706
6.093461 4.1457777 1.4325941 42 13 -0.0439394
6.3318591 4.3063593 -0.40131214 1 6 -0.043937098
5.2118282 3.5432889 1.4549835 1 14 -0.043934792
6.4303994 4.3700953 -0.13570991 28 7 -0.04393249
4.5031252 3.0591726 1.4587041 43 15 -0.043930184
3.3697495 2.2832084 -1.0906636 11 0 -0.043909449
6.4488454 4.3678393 0.13595425 80 8 -0.043907147
3.9857755 2.6985738 -1.1112581 8 1 -0.043904841
6.4425125 4.3602667 0.40769714 12 9 -0.043902539
4.8922896 3.3110819 -1.1482886 7 2 -0.043900233
6.4193106 4.3429346 0.67807168 24 10 -0.043897931
5.7549047 3.8919721 -1.1003602 50 3 -0.043895625
6.4302025 4.3470283 0.95301831 81 11 -0.043893322
6.1151676 4.132504 -0.9062205 1 4 -0.043891016
6.5901179 4.4517899 1.2596104 17 12 -0.043888714
6.2093635 4.1945806 -0.65558547 1 5 -0.043886408
6.1257935 4.1365662 1.4367918 21 13 -0.043884106
6.3435411 4.2819972 -0.40110281 1 6 -0.0438818
5.253243 3.5446932 1.4630816 1 14 -0.043879498
6.6876583 4.5108805 -0.14080602 1 7 -0.043877192
5.0599785 3.4117157 1.6352189 28 15 -0.04387489
3.3825073 2.2746665 -1.0922165 11 0 -0.043854155
6.4524369 4.3374915 0.13570991 60 8 -0.043851849
3.9741442 2.6705136 -1.1054094 9 1 -0.043849546
6.4278474 4.3177094 0.40581304 61 9 -0.043847241
4.9038153 3.2939878 -1.1482886 7 2 -0.043844938
6.4460111 4.3282733 0.67929184 27 10 -0.043842632
5.7635355 3.8685555 -1.0994215 47 3 -0.04384033
6.5112715 4.3688016 0.9627679 46 11 -0.043838024
6.6999779 4.4937162 -0.99055409 46 4 -0.043835722
6.4595933 4.3308539 1.2317652 42 12 -0.043833416
6.1908712 4.1506886 -0.65209925 1 5 -0.043831114
6.6718535 4.4714818 1.5611992 29 13 -0.043828808
6.3053527 4.2242541 -0.3977533 1 6 -0.043826506
5.2736812 3.531755 1.4653312 7 14 -0.0438242
6.847929 4.5842943 -0.14384274 6 7 -0.043821897
5.0702524 3.392957 1.6347013 43 15 -0.043819591
3.3900325 2.2634363 -1.0922165 12 0 -0.043799639
6.4285288 4.2905393 0.13490711 52 8 -0.043797337
3.992703 2.6638122 -1.1081089 9 1 -0.043795031
6.4371457 4.2930436 0.40549901 100 9 -0.043792728
4.8902125 3.2613671 -1.1425643 4 2 -0.043790422
6.4205408 4.2803507 0.67510837 20 10 -0.04378812
5.7746897 3.8483248 -1.0991087 50 3 -0.043785814
6.4712057 4.3108654 0.95472455 52 11 -0.043783512
6.7181463 4.4736753 -0.99104154 50 4 -0.043781206
6.562717 4.3685155 1.2486601 12 12 -0.043778904
6.2211876 4.1411743 -0.65384239 7 5 -0.043776598
6.222455 4.1404557 1.4528197 19 13 -0.043774296
6.3226519 4.2055349 -0.39796266 1 6 -0.04377199
5.2999697 3.5239568 1.4693804 7 14 -0.043769687
6.4417496 4.2815108 -0.13501182 10 7 -0.043767381
4.4973788 2.9880531 1.4467984 46 15 -0.043765079
3.3882511 2.2451859 -1.0891106 12 0 -0.043744344
6.4417982 4.2669702 0.1348722 27 8 -0.043742038
4.0052276 2.6520095 -1.1090087 9 1 -0.043739736
6.4870691 4.2936959 0.40769714 44 9 -0.04373743
4.9081163 3.2486103 -1.1440908 4 2 -0.043735128
6.4387655 4.2601132 0.675457 18 10 -0.043732822
5.7814946 3.8237891 -1.0978571 51 3 -0.04373052
10.021591 6.6256018 1.4751067 77 11 -0.043728214
6.2832599 4.1524973 -0.92474467 24 4 -0.043725912
6.5086989 4.2998538 1.2355195 26 12 -0.043723606
6.2771621 4.146893 -0.65820014 15 5 -0.043721303
6.191 4.0884156 1.4421345 33 13 -0.043718997
6.303957 4.1614308 -0.3958692 1 6 -0.043716695
5.3089828 3.5032921 1.4684805 21 14 -0.043714389
6.7471061 4.4505863 -0.14108525 1 7 -0.043712087
4.5464902 2.9978578 1.4592218 45 15 -0.043709781
3.3944516 2.2322855 -1.088593 13 0 -0.043689046
6.4065251 4.2115026 0.13382505 22 8 -0.043686744
4.0209751 2.642292 -1.1108083 9 1 -0.043684438
6.5237155 4.285285 0.40905789 25 9 -0.043682136
4.9259877 3.2357728 -1.1456172 4 2 -0.04367983
6.4386091 4.2277679 0.67388821 20 10 -0.043677527
5.7882018 3.799247 -1.0966057 59 3 -0.043675222
10.046313 6.5916753 1.4753504 78 11 -0.043672919
6.7807536 4.44735 -0.99567258 37 4 -0.043670613
6.4427223 4.2240353 1.220189 61 12 -0.043668311
6.3015966 4.1315093 -0.65924603 28 5 -0.043666005
6.1723914 4.045258 1.434502 23 13 -0.043663703
6.3050785 4.1306462 -0.39503184 7 6 -0.043661397
5.332592 3.4922104 1.4716297 71 14 -0.043659095
6.5300412 4.2747688 -0.13623348 9 7 -0.043656792
5.1065373 3.3416259 1.6352189 46 15 -0.043654487
3.398988 2.2183106 -1.0875577 13 0 -0.043633752
6.3927164 4.1705379 0.13323167 82 8 -0.043631446
4.0089536 2.6144028 -1.1049596 9 1 -0.043629143
14.899322 9.7127504 0.93210351 30 9 -0.043626837
4.9175177 3.2056913 -1.1410379 6 2 -0.043624535
6.4232826 4.1856861 0.67075062 36 10 -0.043622229
5.7931519 3.7736297 -1.0950414 66 3 -0.043619927
6.8211932 4.4398956 -0.99932873 44 4 -0.043615319
6.8286734 4.4430728 -0.71275967 7 5 -0.043610711
6.267117 4.0761395 1.4532013 45 13 -0.043608408
7.1566968 4.6529412 -0.44736779 1 6 -0.043606102
5.364357 3.4863195 1.4770286 22 14 -0.0436038
6.6136751 4.2966156 -0.13766459 2 7 -0.043601494
5.1311326 3.3321958 1.6393598 46 15 -0.043599192
3.4148192 2.2116826 -1.0901459 12 0 -0.043578453
4.0164199 2.5993328 -1.1045097 9 1 -0.043573845
14.990152 9.6975641 0.93566227 100 9 -0.043571543
4.9369206 3.1938372 -1.1429459 6 2 -0.043569237
6.4512353 4.1718984 0.67214507 27 10 -0.043566935
5.8062901 3.7533834 -1.0950414 66 3 -0.043564633
10.175454 6.5752425 1.4875373 158 11 -0.043562327
6.789959 4.3859005 -0.992504 55 4 -0.043560024
6.5849004 4.2518172 1.241464 7 12 -0.043557718
6.8391199 4.4159646 -0.7122367 38 5 -0.043555416
6.2631636 4.0425253 1.4490036 45 13 -0.04355311
6.342154 4.0919418 -0.3955552 13 6 -0.043550808
5.5255227 3.5636878 1.5179697 89 14 -0.043548502
6.6000624 4.2550812 -0.13707121 13 7 -0.0435462
5.1459799 3.3163586 1.6403952 46 15 -0.043543894
3.4241431 2.2007942 -1.0906636 11 0 -0.043523159
6.3543792 4.0825734 0.13183548 5 8 -0.043520853
4.0221887 2.5831916 -1.1036098 9 1 -0.043518551
15.050802 9.6624479 0.9373371 36 9 -0.043516248
4.9265604 3.1627975 -1.1379849 4 2 -0.043513943
6.4540219 4.1418204 0.6709249 29 10 -0.04351164
5.8143692 3.7298913 -1.0941027 67 3 -0.043509334
6.573092 4.2117524 1.2364582 25 12 -0.043502424
6.8830128 4.4103365 -0.71520001 34 5 -0.043500118
6.2788882 4.0216985 1.4493852 42 13 -0.043497816
7.1856399 4.6007142 -0.44715846 12 6 -0.04349551
5.7857742 3.7030015 1.585905 22 14 -0.043493208
6.54918 4.1899891 -0.13570991 47 7 -0.043490902
4.5667448 2.920557 1.4524926 11 15 -0.043488599
3.4220321 2.1825943 -1.0875577 11 0 -0.043467864
4.0361123 2.5722771 -1.1049596 8 1 -0.043463256
15.175404 9.6677971 0.94298941 78 9 -0.04346095
4.9541297 3.1561284 -1.1418011 6 2 -0.043458648
6.4348288 4.0978632 0.66743869 27 10 -0.043456342
5.827353 3.7095737 -1.0941027 69 3 -0.04345404
6.1772289 3.9292729 -0.89890838 46 4 -0.043449432
6.414391 4.0785527 1.2039198 47 12 -0.043447126
6.9269471 4.4044585 -0.71816331 40 5 -0.043444823
6.8429794 4.349391 1.5760823 33 13 -0.043442518
6.3098783 4.009007 -0.39178702 12 6 -0.043440215
5.3281908 3.3839827 1.457233 16 14 -0.043437909
6.5722075 4.1724596 -0.13588443 46 7 -0.043435607
4.5850677 2.9097731 1.4550807 41 15 -0.043433301
3.4279971 2.1696036 -1.0870401 11 0 -0.043412566
6.2847118 3.9761021 0.129811 15 8 -0.043410264
4.0549483 2.5644233 -1.107659 9 1 -0.043407958
15.264766 9.6499872 0.94644356 66 9 -0.043405656
4.9617972 3.136719 -1.1410379 4 2 -0.04340335
6.4137244 4.0530233 0.66377813 27 10 -0.043401048
5.8319149 3.6839366 -1.0925384 77 3 -0.043398742
8.2295275 5.1924477 1.5411925 22 12 -0.043391831
6.21772 3.9230912 -0.64320934 18 5 -0.043389525
6.8614392 4.3275738 1.5768455 30 13 -0.043387223
7.2243409 4.5546975 -0.44757712 0 6 -0.043384917
5.5097814 3.4723828 1.5035729 12 14 -0.043382615
6.5918074 4.1526918 -0.13598914 50 7 -0.043380313
4.5853877 2.8875744 1.4519749 45 15 -0.043378007
3.4371862 2.1586509 -1.0875577 11 0 -0.043357272
4.0556207 2.5450747 -1.1054094 9 1 -0.043352664
15.374496 9.6444006 0.95115381 100 9 -0.043350358
4.9793692 3.1235518 -1.1425643 4 2 -0.043348055
6.3923869 4.0083814 0.66011757 45 10 -0.043345749
5.8330216 3.6562142 -1.0903484 76 3 -0.043343447
6.3535466 3.9809372 0.92060113 13 11 -0.043341141
7.0238171 4.3992014 -1.0176091 45 4 -0.043338839
8.2559729 5.1689329 1.5427569 18 12 -0.043336533
6.2111106 3.8886774 -0.64111763 15 5 -0.043334231
6.298769 3.9404948 -0.38937956 0 6 -0.043329623
5.2938552 3.3105412 1.4414864 5 14 -0.04332732
6.6266122 4.142375 -0.13640802 55 7 -0.043325014
3.447979 2.148684 -1.088593 11 0 -0.043301973
6.2563062 3.8972392 0.12865914 30 8 -0.043299671
4.05621 2.5257511 -1.10316 8 1 -0.043297365
15.472498 9.630785 0.95513123 99 9 -0.043295063
4.9769073 3.0978529 -1.1395113 4 2 -0.043292757
6.3894224 3.9755192 0.65837449 36 10 -0.043290455
5.8558145 3.6420889 -1.0922256 77 3 -0.043288149
10.219539 6.353683 1.4775441 12 11 -0.043285847
6.1725154 3.8360775 -0.89232743 13 4 -0.043283544
8.2974577 5.1546736 1.547137 22 12 -0.043281239
6.2060313 3.8554058 -0.63920021 1 5 -0.043278936
6.3360968 3.9346745 1.4497669 1 13 -0.04327663
6.2581835 3.8847773 -0.38603005 0 6 -0.043274328
5.5289211 3.4307504 1.5022231 49 14 -0.043272022
6.5373726 4.0549202 -0.13427882 46 7 -0.04326972
5.2096419 3.2301164 1.6424657 45 15 -0.043267414
3.4521716 2.1346037 -1.0875577 11 0 -0.043246679
6.3004909 3.8942997 0.12928744 22 8 -0.043244373
4.0600276 2.5085049 -1.1018102 9 1 -0.043242071
4.9860196 3.0794306 -1.1391298 6 2 -0.043237463
6.355792 3.9238837 0.6534937 47 10 -0.04323516
5.8550444 3.6133254 -1.0897226 73 3 -0.043232854
10.260239 6.3294382 1.4802252 15 11 -0.043230552
7.0949106 4.3750653 -1.0234588 41 4 -0.043228246
8.2724724 5.1012073 1.5393152 13 12 -0.043225944
7.113277 4.3846774 -0.73106235 28 5 -0.043223638
6.3263917 3.8981161 1.4444242 3 13 -0.043221336
5.7748446 3.5554869 1.5656594 19 14 -0.043216728
6.5575933 4.0374136 -0.13441843 52 7 -0.043214422
5.230196 3.218899 1.6455716 46 15 -0.043212119
3.448076 2.1154678 -1.0839342 9 0 -0.043191385
6.2826891 3.8545632 0.12865914 45 8 -0.043189079
4.0616784 2.490953 -1.1000106 8 1 -0.043186776
6.20997 3.8069656 0.38173848 27 9 -0.04318447
4.9984131 3.0630319 -1.1395113 4 2 -0.043182168
6.3609529 3.8964746 0.65262216 29 10 -0.043179862
5.8653078 3.5928614 -1.0894097 77 3 -0.04317756
10.304873 6.3098884 1.4836376 14 11 -0.043175254
7.1466269 4.3743138 -1.0288211 39 4 -0.043172952
8.3020201 5.0795221 1.5415053 36 12 -0.043170646
7.1472349 4.3712573 -0.73297983 31 5 -0.043168344
6.3275609 3.8699436 1.4417528 3 13 -0.043166038
6.2367682 3.8129194 -0.38309923 7 6 -0.043163735
5.3975048 3.2985287 1.4603822 20 14 -0.043161429
6.4231825 3.9238067 -0.13138172 55 7 -0.043159127
5.2315083 3.1945806 1.6424657 46 15 -0.043156821
3.4583728 2.1060309 -1.0849695 12 0 -0.043136086
6.3251429 3.8502862 0.12925252 40 8 -0.043133784
4.0753441 2.4797981 -1.1013604 8 1 -0.043131478
15.442873 9.3931017 0.94728088 24 9 -0.043129176
4.9968028 3.0392969 -1.13684 6 2 -0.04312687
6.3023386 3.8318841 0.6453011 56 10 -0.043124568
5.8727503 3.5692863 -1.0884712 82 3 -0.043122262
10.345501 6.2852149 1.4863187 5 11 -0.04311996
6.1777549 3.7517071 -0.88745266 11 4 -0.043117654
6.3710647 3.8675816 1.1804546 20 12 -0.043115351
6.192605 3.7592468 -0.63379657 10 5 -0.043113045
6.315856 3.8325539 1.4360286 2 13 -0.043110743
6.2210088 3.7735181 -0.38131982 16 6 -0.043108437
5.3823223 3.2635059 1.4531839 67 14 -0.043106135
6.5548382 3.972878 -0.13379015 50 7 -0.043103829
5.2376704 3.1732981 1.6409128 46 15 -0.043101527
3.4690084 2.0959461 -1.0860047 11 0 -0.043080792
6.3231397 3.8188782 0.12893838 25 8 -0.043078486
4.0706291 2.4574988 -1.0977612 8 1 -0.043076184
6.1662841 3.7212124 0.37744695 2 9 -0.043073878
5.0073795 3.0218396 -1.13684 6 2 -0.043071575
6.2627907 3.7779567 0.63989747 29 10 -0.04306927
5.868258 3.538563 -1.0853424 82 3 -0.043066967
6.3448725 3.8244557 0.90963286 39 11 -0.043064661
6.1772113 3.7219222 -0.8855027 23 4 -0.043062359
6.3811431 3.8432782 1.1798289 13 12 -0.043060053
7.2194915 4.3482046 -0.73733753 52 5 -0.043057751
6.3090091 3.798337 1.4314492 1 13 -0.043055445
6.2050524 3.7342706 -0.37954038 16 6 -0.043053143
5.4120502 3.2557466 1.4581327 50 14 -0.04305084
6.5498128 3.9386418 -0.13340619 45 7 -0.043048535
5.2487159 3.1549942 1.6409128 46 15 -0.043046232
3.4796181 2.0858099 -1.0870401 11 0 -0.043025494
6.3004107 3.7751973 0.12820537 62 8 -0.043023191
4.0858693 2.4472809 -1.0995607 8 1 -0.043020885
6.8296905 4.0907259 0.41722229 2 9 -0.043018583
5.0364265 3.0154345 -1.1410379 4 2 -0.043016277
6.2485876 3.7397001 0.63710845 47 10 -0.043013975
5.8839641 3.520087 -1.0859681 82 3 -0.043011669
6.3326297 3.7870009 0.90597677 58 11 -0.043009367
6.1629047 3.6840389 -0.88160288 22 4 -0.043007061
6.3904634 3.8200679 1.1792032 8 12 -0.043004759
7.2072597 4.3066273 -0.73454857 45 5 -0.043002456
6.310432 3.7692425 1.4287778 2 13 -0.04300015
6.2694964 3.7433026 -0.38268054 7 6 -0.042997848
5.3999543 3.2228541 1.4518342 15 14 -0.042995542
6.59203 3.9343204 -0.13399959 38 7 -0.04299324
4.6652131 2.7832348 1.4555984 37 15 -0.042990934
3.4818962 2.0706894 -1.0854871 13 0 -0.042970199
6.2647681 3.7256682 0.12722805 30 8 -0.042967893
4.097312 2.4357109 -1.1004605 8 1 -0.042965591
6.8198915 4.0525751 0.41575688 12 9 -0.042963285
5.0334172 2.9898155 -1.1379849 4 2 -0.042960983
6.2307639 3.6995604 0.63397086 71 10 -0.042958681
5.8922067 3.4985397 -1.0853424 78 3 -0.042956375
6.3041835 3.741662 0.90012699 49 11 -0.042954072
6.2177677 3.6889048 -0.88769639 55 4 -0.042951766
6.3765707 3.7816203 1.1741973 55 12 -0.042949464
6.3893089 3.787663 -0.6498332 55 5 -0.042947158
6.2908106 3.7292719 1.421527 2 13 -0.042944856
6.2956204 3.7306385 -0.38351792 63 6 -0.04294255
5.9873853 3.5465779 1.6066004 42 14 -0.042940248
6.6212106 3.9204538 -0.13431372 33 7 -0.042937942
4.6765637 2.7679157 1.4561161 54 15 -0.04293564
3.4820895 2.0552032 -1.0834166 13 0 -0.042914901
6.2674022 3.6976788 0.12701862 25 8 -0.042912599
4.1057901 2.4213924 -1.1004605 9 1 -0.042910296
6.1561012 3.629117 0.37451613 17 9 -0.042907991
5.0314665 2.9661274 -1.1353136 6 2 -0.042905688
6.2550149 3.6859572 0.63519108 61 10 -0.042903382
5.9077883 3.4799545 -1.0859681 94 3 -0.04290108
6.3223372 3.7226565 0.90085822 67 11 -0.042898774
6.2750859 3.6933599 -0.89403361 67 4 -0.042896472
6.4135695 3.7733605 1.1785774 57 12 -0.042894166
6.4093599 3.7693784 -0.65053046 51 5 -0.042891864
6.3071737 3.7092819 1.4222903 2 13 -0.042889558
6.3154907 3.7126901 -0.38393661 60 6 -0.042887256
6.0417333 3.5503376 1.617848 40 14 -0.04288495
6.5934739 3.8730083 -0.133476 15 7 -0.042882647
4.6961923 2.7574451 1.4592218 15 15 -0.042880341
3.4779284 2.0355949 -1.0797932 12 0 -0.042859606
6.2302232 3.6464841 0.12600638 60 8 -0.042857304
4.1175809 2.4090149 -1.1013604 8 1 -0.042854998
15.747679 9.2095833 0.9560734 42 9 -0.042852696
5.0406098 2.9466741 -1.134932 6 2 -0.04285039
6.2254763 3.6378772 0.63083327 49 10 -0.042848088
5.9068565 3.4503083 -1.0834652 84 3 -0.042845782
6.3027253 3.6815426 0.89622724 75 11 -0.04284348
6.3136544 3.6864455 -0.89768964 61 4 -0.042841174
6.4369369 3.7569261 1.1804546 13 12 -0.042838871
6.4568963 3.7670643 -0.65401667 51 5 -0.042836566
6.3122473 3.6811934 1.4203823 2 13 -0.042834263
6.2255263 3.6291671 -0.37765631 49 6 -0.042831957
6.4341769 3.7492914 -0.12998553 106 7 -0.042827349
5.2933874 3.0832989 1.6414305 43 15 -0.042825047
3.4950361 2.029263 -1.0828989 11 0 -0.042804312
6.2677584 3.6376791 0.12649503 77 8 -0.042802006
4.1213264 2.3909721 -1.1000106 9 1 -0.042799704
15.843653 9.1916361 0.95994622 54 9 -0.042797398
5.0423727 2.9241374 -1.1330239 6 2 -0.042795096
6.2209001 3.6061306 0.62909013 57 10 -0.04279279
5.9120293 3.4257057 -1.0822138 84 3 -0.042790487
6.3247657 3.6633902 0.89744592 49 11 -0.042788181
6.5075054 3.767719 -0.92328221 60 4 -0.042785879
6.3457322 3.6740558 1.1613696 15 12 -0.042783573
6.5113935 3.7684534 -0.65820014 55 5 -0.042781271
6.3199596 3.656189 1.4192374 1 13 -0.042778965
6.2744665 3.6284091 -0.37985441 51 6 -0.042776663
5.4815435 3.1685998 1.4617319 22 14 -0.042774357
6.53725 3.7788498 -0.13180058 58 7 -0.042772055
5.31248 3.0696361 1.6440187 45 15 -0.042769752
3.5020981 2.0170515 -1.0828989 14 0 -0.042749014
6.2728553 3.6128836 0.12635542 95 8 -0.042746712
4.1174116 2.3704851 -1.0968614 9 1 -0.042744406
15.939688 9.1731386 0.96381903 24 9 -0.042742103
5.0559521 2.9084778 -1.1337872 9 2 -0.042739797
6.2662678 3.6032624 0.63240206 26 10 -0.042737495
5.9199324 3.4041109 -1.081588 81 3 -0.042735189
6.3145046 3.6295376 0.89427733 42 11 -0.042732887
6.5406194 3.7579842 -0.92620707 60 4 -0.042730581
6.3465285 3.644994 1.1591796 18 12 -0.042728279
6.4277458 3.6901519 -0.64843875 55 5 -0.042725973
6.3456697 3.6430326 1.4222903 1 13 -0.042723671
6.4198508 3.6841259 -0.38791415 46 6 -0.042721368
5.9839206 3.4325726 1.5926535 58 14 -0.042719062
6.2849841 3.6038187 -0.12646013 54 7 -0.04271676
5.3214874 3.0501113 1.643501 35 15 -0.042714454
3.5154772 2.0092607 -1.0849695 14 0 -0.042693719
6.2298656 3.5592232 0.12523846 85 8 -0.042691413
4.1205835 2.3531997 -1.0955117 8 1 -0.042689111
16.051401 9.1629858 0.96863401 27 9 -0.042686805
5.0689797 2.8936408 -1.1345503 9 2 -0.042684503
6.3335547 3.6140656 0.63797998 28 10 -0.042682197
5.9249144 3.3795118 -1.0803366 81 3 -0.042679895
6.3064427 3.5956731 0.89135242 58 11 -0.042677592
6.2260118 3.5483751 -0.8798967 59 4 -0.042675287
8.5167103 4.8519387 1.5524559 24 12 -0.042672984
6.6067977 3.7623408 -0.66517264 54 5 -0.042670678
6.353231 3.6179433 1.4211454 2 13 -0.042668376
6.2261171 3.5441179 -0.37545818 49 6 -0.04266607
5.472497 3.1138673 1.4536338 18 14 -0.042663768
6.2523322 3.5561516 -0.12555261 28 7 -0.042661462
5.3774452 3.0572979 1.6574773 13 15 -0.04265916
3.5093713 1.9887432 -1.0808283 11 0 -0.042638421
6.299665 3.5699887 0.12639034 100 8 -0.042636119
4.1372499 2.343605 -1.0977612 8 1 -0.042633817
16.171925 9.157093 0.9739722 33 9 -0.042631511
5.0727162 2.8711755 -1.1330239 6 2 -0.042629208
6.2791319 3.5525601 0.6311819 80 10 -0.042626902
5.9510164 3.3655541 -1.0828395 59 3 -0.0426246
6.2999477 3.5628898 0.88867134 47 11 -0.042622294
6.6271768 3.7464254 -0.93473798 55 4 -0.042619992
8.533597 4.8221779 1.5524559 15 12 -0.042617686
6.6563196 3.759835 -0.66883314 33 5 -0.042615384
6.4126058 3.6206968 1.4314492 1 13 -0.042613078
6.6582508 3.7578566 -0.40068412 48 6 -0.042610776
5.4652047 3.0832546 1.4486848 41 14 -0.04260847
6.3796573 3.599153 -0.12785633 13 7 -0.042606167
5.3813529 3.0347142 1.6554067 18 15 -0.042603862
3.5129244 1.9745871 -1.0797932 14 0 -0.042583127
6.2917862 3.5351224 0.12597147 100 8 -0.042580824
4.1407151 2.3255615 -1.0964113 8 1 -0.042578518
16.268078 9.1329517 0.97774047 25 9 -0.042576216
5.086133 2.8553717 -1.1337872 9 2 -0.04257391
6.3557796 3.5667009 0.63763142 57 10 -0.042571608
6.2852621 3.52424 0.88477147 56 11 -0.042567
8.5632763 4.7976289 1.5546459 15 12 -0.042562392
7.1275086 3.9915967 1.5879126 20 13 -0.042557783
6.4447651 3.6077688 -0.38707677 32 6 -0.042555477
5.4708309 3.061305 1.4473351 43 14 -0.042553175
6.2741299 3.5093677 -0.12548281 29 7 -0.042550869
4.741569 2.651063 1.4555984 28 15 -0.042548567
3.5201378 1.9616991 -1.0797932 14 0 -0.042527832
4.1454039 2.309196 -1.0955117 9 1 -0.042523224
6.2121282 3.4590478 0.37263206 2 9 -0.042520918
5.1017098 2.8395765 -1.134932 6 2 -0.042518616
6.3897047 3.5550013 0.63972312 54 10 -0.04251631
5.5088291 3.0636582 -0.99836493 5 3 -0.042514008
10.632928 5.9133539 1.4938745 21 11 -0.042511702
5.5451355 3.0825825 -0.7789889 1 4 -0.042509399
6.469945 3.5952091 1.17232 26 12 -0.042507093
6.2754865 3.4857235 -0.62804425 1 5 -0.042504791
7.1438065 3.9664011 1.5882941 25 13 -0.042502485
6.1994901 3.4406762 -0.37158534 10 6 -0.042500183
5.4734936 3.0365071 1.4450855 48 14 -0.042497877
6.3562856 3.5262501 -0.12687899 13 7 -0.042495575
4.7778263 2.6494844 1.4638805 11 15 -0.042493269
3.5350769 1.9546881 -1.0823812 9 0 -0.042454481
6.1517997 3.4001789 0.12269042 15 8 -0.042452179
4.1414976 2.2881181 -1.0923624 8 1 -0.042449873
6.17696 3.4112709 0.3698059 4 9 -0.042447571
5.1042242 2.818845 -1.1334054 4 2 -0.042445265
6.4241328 3.5463114 0.64198917 51 10 -0.042442963
5.4912848 3.0301049 -0.99335897 5 3 -0.042440657
10.653505 5.8761992 1.4938745 17 11 -0.042438354
5.4932809 3.028702 -0.77021432 1 4 -0.042436048
6.4616919 3.5611656 1.1685656 68 12 -0.042433746
7.1699491 3.9515002 -0.71624589 46 5 -0.04243144
7.1672382 3.9483712 1.5905839 25 13 -0.042429138
6.1776233 3.4017954 -0.36959657 21 6 -0.042426832
5.4818254 3.0174012 1.4446357 13 14 -0.04242453
6.4421415 3.5445261 -0.128345 84 7 -0.042422224
4.756577 2.6160319 1.4545631 39 15 -0.042419922
3.5384893 1.9404809 -1.0813459 12 0 -0.042399187
6.1864257 3.3911812 0.12314418 50 8 -0.042396881
4.1511683 2.2745829 -1.0928122 8 1 -0.042394578
6.6950746 3.6669705 0.40005609 21 9 -0.042392273
5.1036992 2.7953558 -1.1311158 4 2 -0.04238997
6.6514292 3.6415524 0.6634295 85 10 -0.042387664
5.4602404 2.988157 -0.98585016 6 3 -0.042385362
6.2486782 3.4182143 0.87453443 14 11 -0.042383056
5.479435 2.9961762 -0.76680195 5 4 -0.042380754
6.4706178 3.5366921 1.1679399 81 12 -0.042378448
7.1749582 3.9216683 -0.71537429 46 5 -0.042376146
7.1913152 3.9289749 1.5928736 25 13 -0.04237384
6.2122469 3.3926568 -0.37095729 6 6 -0.042371538
5.4632473 2.9823728 1.4369874 1 14 -0.042369232
6.4843168 3.5382988 -0.12893838 59 7 -0.042366929
4.7521114 2.5920126 1.4504219 52 15 -0.042364623
3.5384538 1.9244248 -1.0792755 13 0 -0.042343888
6.287827 3.4182742 0.12492433 2 8 -0.042341586
4.1625075 2.2619405 -1.0937121 11 1 -0.04233928
6.7001791 3.6409321 0.3996374 8 9 -0.042336978
5.1117015 2.7765851 -1.1307341 6 2 -0.042334672
6.6518445 3.6116557 0.66220933 78 10 -0.04233237
5.4376502 2.9511771 -0.97990561 37 3 -0.042330064
6.2762733 3.4049053 0.87672812 27 11 -0.042327762
5.460196 2.960943 -0.76265842 2 4 -0.042325456
6.4441085 3.4944971 1.1610568 75 12 -0.042323153
7.2049837 3.9038537 1.5928736 25 13 -0.042318545
6.2047343 3.360487 -0.3698059 7 6 -0.042316239
6.2516546 3.3844881 1.641243 6 14 -0.042313937
