# .PCD v0.7 - Point Cloud Data file format
VERSION 0.7
FIELDS x y z intensity ring time
SIZE 4 4 4 4 2 4
TYPE F F F F U F
COUNT 1 1 1 1 1 1
WIDTH 927
HEIGHT 1
VIEWPOINT 0 0 0 1 0 0 0
POINTS 927
DATA ascii
0.88438541 -2.8324678 0.79509211 46 15 -0.025247263
0.77252924 -2.4848874 -0.69725859 46 0 -0.025232315
0.94991529 -3.0573425 0.055882607 20 8 -0.025230011
0.77494055 -2.4957161 -0.60331875 53 1 -0.025227707
0.95775461 -3.0863764 0.16935916 27 9 -0.025225403
0.77329087 -2.4919398 -0.50717038 49 2 -0.025223099
0.95193166 -3.0695031 0.28116441 25 10 -0.025220795
0.76666445 -2.473635 -0.41017124 51 3 -0.025218491
0.94032919 -3.0358374 0.39022568 25 11 -0.025216186
0.7719155 -2.4936552 -0.32051641 48 4 -0.025213882
0.98779881 -3.1930351 0.5293743 95 12 -0.025211578
0.76371694 -2.4686959 -0.226082 51 5 -0.025209274
0.99336088 -3.2130003 0.65371162 87 13 -0.025206972
0.80186486 -2.5952165 -0.1423538 37 6 -0.025204668
0.88256121 -2.8581567 0.69059974 64 14 -0.025202364
0.76596683 -2.4821048 -0.04534135 56 7 -0.02520006
0.87164623 -2.8263078 0.79250389 51 15 -0.025197756
0.76498479 -2.4912627 -0.69829381 49 0 -0.025177019
0.9357177 -3.0491691 0.055673175 25 8 -0.025174715
0.76279575 -2.4872274 -0.60061932 55 1 -0.025172411
0.94697559 -3.0897009 0.16935916 12 9 -0.025170106
0.76286203 -2.4889927 -0.50602549 51 2 -0.025167802
0.94237834 -3.0766177 0.28151307 27 10 -0.025165498
0.75802511 -2.4762962 -0.41017124 50 3 -0.025163194
0.9268232 -3.0296102 0.38900697 63 11 -0.025160892
0.76436669 -2.5001311 -0.32100388 48 4 -0.025158588
0.98241901 -3.2153556 0.53250295 100 12 -0.025156284
0.7562592 -2.475158 -0.22643061 52 5 -0.02515398
0.97869968 -3.2051823 0.65142196 87 13 -0.025151676
0.79338384 -2.59991 -0.14245848 10 6 -0.025149371
0.87371582 -2.8649478 0.69149953 63 14 -0.025147067
0.75729823 -2.4847631 -0.04534135 56 7 -0.025144763
0.86290103 -2.8330293 0.79353923 48 15 -0.025142459
0.75516295 -2.4902201 -0.69725859 46 0 -0.025121722
0.9250679 -3.052417 0.055673175 23 8 -0.025119418
0.75071985 -2.4786844 -0.59791994 53 1 -0.025117114
0.93209302 -3.0775323 0.16852181 24 9 -0.025114812
0.75473803 -2.4935191 -0.50640708 50 2 -0.025112508
0.92874873 -3.070353 0.2806415 7 10 -0.025110204
0.74937654 -2.4789271 -0.41017124 51 3 -0.0251079
0.91509432 -3.0290263 0.3885195 76 11 -0.025105596
0.75104517 -2.4875813 -0.31905395 46 4 -0.025103291
0.97003865 -3.2129226 0.53156441 100 12 -0.025100987
0.74646384 -2.4739676 -0.226082 49 5 -0.025098683
0.96863854 -3.2123387 0.6521852 85 13 -0.025096379
0.78603268 -2.6084006 -0.14277251 9 6 -0.025094075
0.8592146 -2.8530524 0.6879003 64 14 -0.025091771
0.74905419 -2.4872608 -0.04534135 56 7 -0.025089467
0.85461491 -2.8395748 0.7945745 48 15 -0.025087163
0.7459113 -2.4909904 -0.69674093 48 0 -0.025066428
0.91723514 -3.0631306 0.055812798 31 8 -0.025064124
0.7436136 -2.484894 -0.59881973 55 1 -0.02506182
0.92077261 -3.0788534 0.16841713 18 9 -0.025059516
0.74209374 -2.4829714 -0.50373578 52 2 -0.025057212
0.91232365 -3.0544856 0.27889836 7 10 -0.025054907
0.74002147 -2.477613 -0.40954545 50 3 -0.025052603
0.90561229 -3.0339463 0.38876322 27 11 -0.025050299
0.73825228 -2.4748402 -0.31710407 49 4 -0.025047995
0.95430267 -3.2011447 0.52906144 100 12 -0.025045691
0.73896122 -2.4803772 -0.22643061 49 5 -0.025043387
0.95685995 -3.2117698 0.65142196 87 13 -0.025041083
0.77965826 -2.6186497 -0.14319119 13 6 -0.025038779
0.84641427 -2.8446794 0.68520093 66 14 -0.025036475
0.73751765 -2.4802766 -0.045166828 54 7 -0.025034171
0.84469801 -2.8425405 0.7945745 48 15 -0.025031867
0.73655093 -2.4897454 -0.69570565 50 0 -0.025011132
0.9031359 -3.0548077 0.055603366 28 8 -0.025008827
0.73438293 -2.4856057 -0.59836978 52 1 -0.025006523
0.90888864 -3.0782177 0.16820778 18 9 -0.025004219
0.73274422 -2.481653 -0.50297254 51 2 -0.025001915
0.89655089 -3.0383849 0.27715525 21 10 -0.024999611
0.73136818 -2.480181 -0.40954545 51 3 -0.024997307
0.89782155 -3.0466096 0.38998193 54 11 -0.024995003
0.72792673 -2.4716892 -0.31637284 47 4 -0.024992699
0.9397763 -3.1930859 0.52718419 100 12 -0.024990395
0.72692537 -2.471473 -0.22538476 49 5 -0.024988091
0.94453484 -3.2113233 0.65065867 87 13 -0.024985787
0.77727181 -2.6443496 -0.14444725 22 6 -0.024983482
0.8375777 -2.851356 0.68610072 66 14 -0.024981178
0.72716552 -2.4770799 -0.045062114 58 7 -0.024978874
0.82933223 -2.8269348 0.78939813 50 15 -0.02497657
0.72200853 -2.4738832 -0.69052929 47 0 -0.024955835
0.89078665 -3.0521827 0.055498652 60 8 -0.024953531
0.72624767 -2.490025 -0.59881973 55 1 -0.024951227
0.89254904 -3.062197 0.16716106 88 9 -0.024948923
0.72254509 -2.4805522 -0.50220931 52 2 -0.024946619
0.88318115 -3.0339985 0.27645802 60 10 -0.024944315
0.71896255 -2.4714644 -0.40766826 51 3 -0.024942011
0.8877362 -3.051631 0.39022568 74 11 -0.024939707
0.72151071 -2.4818399 -0.31734779 47 4 -0.024937402
0.92752266 -3.192553 0.52655846 60 12 -0.024935098
0.71496093 -2.4625151 -0.22433887 50 5 -0.024932794
0.93057007 -3.207222 0.64913225 92 13 -0.02493049
0.77814221 -2.6836271 -0.14643602 25 6 -0.024928188
0.82712162 -2.8544066 0.68610072 63 14 -0.024925884
0.72074097 -2.4872859 -0.045201734 61 7 -0.02492358
0.81730986 -2.8223898 0.78732753 50 15 -0.024921276
0.7149725 -2.4819574 -0.69208211 49 0 -0.024900539
0.87848735 -3.0515838 0.055428844 86 8 -0.024898235
0.71334517 -2.4795606 -0.5956704 50 1 -0.024895931
0.88461584 -3.0748909 0.16768442 30 9 -0.024893627
0.71388221 -2.4830592 -0.50220931 51 2 -0.024891322
0.70815051 -2.4663644 -0.40641677 51 3 -0.024886714
0.86888045 -3.0281513 0.38681334 15 11 -0.02488441
0.71240968 -2.4844675 -0.31734779 46 4 -0.024882108
0.70526278 -2.4611652 -0.22399026 49 5 -0.0248775
0.91396451 -3.1915767 0.64531606 90 13 -0.024875196
0.7704187 -2.6920877 -0.14675003 23 6 -0.024872892
0.81715244 -2.8572767 0.68610072 64 14 -0.024870588
0.7115041 -2.4878638 -0.045166828 64 7 -0.024868283
0.80426794 -2.8140807 0.78422177 51 15 -0.024865979
0.70577651 -2.4825797 -0.6915645 45 0 -0.024845243
0.86781627 -3.0525572 0.055393942 52 8 -0.024842938
0.70192295 -2.4706652 -0.59297097 52 1 -0.024840634
0.86787623 -3.0568256 0.16653302 15 9 -0.02483833
0.70574641 -2.4874246 -0.50259089 49 2 -0.024836026
0.86252189 -3.0420072 0.27663234 27 10 -0.024833724
0.70104551 -2.4725001 -0.40704253 52 3 -0.02483142
0.86153966 -3.0405655 0.38803205 56 11 -0.024829116
0.69929975 -2.4696264 -0.31515417 49 4 -0.024826812
0.89284116 -3.1552334 0.51936251 1 12 -0.024824508
0.69775194 -2.4674463 -0.22433887 49 5 -0.024822203
0.90390998 -3.1964791 0.64569765 90 13 -0.024819899
0.7636596 -2.7023156 -0.14716873 23 6 -0.024817595
0.8034361 -2.8449674 0.68250149 66 14 -0.024815291
0.7011863 -2.4845586 -0.045062114 59 7 -0.024812987
0.79548836 -2.8205898 0.78525704 51 15 -0.024810683
0.69753999 -2.4849067 -0.6915645 48 0 -0.024789946
0.85391438 -3.0440154 0.05518451 58 8 -0.024787644
0.69276863 -2.4712238 -0.59252107 49 1 -0.02478534
0.85504574 -3.0521436 0.16611435 36 9 -0.024783036
0.69325697 -2.4746275 -0.49953794 49 2 -0.024780732
0.85350358 -3.0486882 0.27698094 30 10 -0.024778428
0.69666845 -2.4901507 -0.40954545 38 3 -0.024776123
0.85199016 -3.0473776 0.3885195 52 11 -0.024773819
0.69281119 -2.4796999 -0.31612909 29 4 -0.024771515
0.86163551 -3.0860319 0.50747347 1 12 -0.024769211
0.69224453 -2.4793415 -0.22521043 36 5 -0.024766907
0.89274693 -3.1996145 0.64569765 92 13 -0.024764603
0.75904989 -2.7222795 -0.14811078 24 6 -0.024762299
0.79193109 -2.8421228 0.68115181 67 14 -0.024759995
0.68929106 -2.4754326 -0.044852685 60 7 -0.024757691
0.78667396 -2.8270714 0.78629225 51 15 -0.024755387
0.68679953 -2.4798791 -0.68949395 34 0 -0.024734652
0.84435064 -3.0508323 0.055254318 58 8 -0.024732348
0.68621606 -2.4811399 -0.59432071 30 1 -0.024730043
0.85396367 -3.089761 0.16799843 33 9 -0.024727739
0.68461466 -2.4770324 -0.49953794 34 2 -0.024725435
0.84179586 -3.0478077 0.27663234 25 10 -0.024723131
0.69007421 -2.5001843 -0.41079697 39 3 -0.024720827
0.84134716 -3.0503333 0.3885195 78 11 -0.024718523
0.68626142 -2.4897583 -0.31710407 32 4 -0.024716219
0.8603006 -3.1233008 0.51310509 1 12 -0.024713915
0.68623149 -2.4913468 -0.226082 36 5 -0.024711611
0.88261437 -3.2064972 0.64646095 92 13 -0.024709307
0.75854814 -2.7576501 -0.14989018 22 6 -0.024707003
0.7814889 -2.8429909 0.68070191 66 14 -0.024704698
0.67852688 -2.4701107 -0.044713065 57 7 -0.024702394
0.77270955 -2.8148968 0.78215116 52 15 -0.02470009
0.68577534 -2.510215 -0.69725859 40 0 -0.024679355
0.83211643 -3.0479736 0.055149604 60 8 -0.024677051
0.68421882 -2.5079608 -0.60016942 27 1 -0.024674747
0.84107172 -3.0850153 0.16757976 18 9 -0.024672443
0.68474275 -2.5116072 -0.50602549 29 2 -0.024670139
0.82591456 -3.0315042 0.2748892 41 10 -0.024667835
0.68756968 -2.5254495 -0.41455138 22 3 -0.024665531
0.82965237 -3.0494206 0.38803205 75 11 -0.024663227
0.6900655 -2.5381117 -0.32295379 19 4 -0.024660923
0.85094678 -3.1320035 0.51404375 2 12 -0.024658618
0.68170995 -2.5091088 -0.22747649 21 5 -0.024656314
0.86730111 -3.1944013 0.643408 90 13 -0.02465401
0.75571597 -2.7853398 -0.15125093 15 6 -0.024651706
0.77207005 -2.8475823 0.68115181 69 14 -0.024649404
0.67094666 -2.4763243 -0.044782877 60 7 -0.0246471
0.76186925 -2.8138475 0.78111589 51 15 -0.024644796
0.68002468 -2.5237854 -0.70036435 15 0 -0.024624059
0.81887192 -3.0412049 0.054975081 61 8 -0.024621755
0.67748582 -2.5178609 -0.601969 17 1 -0.024619451
0.83237261 -3.0956471 0.16799843 13 9 -0.024617147
0.6795401 -2.5272534 -0.50869679 16 2 -0.024614843
0.81481057 -3.032445 0.27471489 27 10 -0.024612539
0.68233573 -2.5411887 -0.41674146 16 3 -0.024610234
0.81488758 -3.0369596 0.38608211 50 11 -0.02460793
0.68480033 -2.5539265 -0.32465994 16 4 -0.024605626
0.85176784 -3.1788406 0.5212397 3 12 -0.024603322
0.68119794 -2.5422652 -0.23026547 20 5 -0.02460102
0.85411364 -3.1898234 0.64188147 90 13 -0.024598716
0.76715535 -2.8670652 -0.15554248 7 6 -0.024596412
0.76262909 -2.8521426 0.6816017 66 14 -0.024594108
0.6622982 -2.4786515 -0.044782877 61 7 -0.024591804
0.74855405 -2.8034246 0.77749246 53 15 -0.024589499
0.67865217 -2.5541499 -0.70812893 14 0 -0.024568763
0.80722499 -3.0401793 0.054905269 61 8 -0.024566459
0.67668897 -2.5503476 -0.60916746 16 1 -0.024564154
0.82053745 -3.0946729 0.16778909 15 9 -0.02456185
0.68077695 -2.5675635 -0.51632917 18 2 -0.024559546
0.80371028 -3.0333443 0.27454057 21 10 -0.024557242
0.67548388 -2.5511935 -0.41799295 16 3 -0.02455494
0.80377346 -3.0378666 0.38583836 28 11 -0.024552636
0.67131484 -2.5390291 -0.32246631 19 4 -0.024550332
0.83662951 -3.1665156 0.51873678 51 12 -0.024548028
0.67333752 -2.5484803 -0.2306141 21 5 -0.024545724
0.84397656 -3.1965821 0.64264476 90 13 -0.024543419
0.76223785 -2.8890374 -0.1565892 7 6 -0.024541115
0.74621004 -2.8302908 0.675753 69 14 -0.024538811
0.65211385 -2.475147 -0.044678163 64 7 -0.024536507
0.74220657 -2.8190975 0.78111589 52 15 -0.024534203
0.67218024 -2.5658472 -0.71071708 18 0 -0.024513466
0.79711425 -3.0449131 0.054940179 62 8 -0.024511162
0.66580963 -2.5451527 -0.60736781 20 1 -0.02450886
0.79710203 -3.0492103 0.16517229 49 9 -0.024506556
0.65741116 -2.5148411 -0.50526226 23 2 -0.024504252
0.79210991 -3.0322759 0.27419198 30 10 -0.024501948
0.64561921 -2.4732599 -0.40485242 43 3 -0.024499644
0.79817522 -3.0598619 0.38827574 58 11 -0.02449734
0.64241886 -2.4645209 -0.31271678 45 4 -0.024495035
0.826069 -3.1713283 0.51904958 62 12 -0.024492731
0.64535308 -2.4775491 -0.22399026 43 5 -0.024490427
0.83182448 -3.1957085 0.64188147 90 13 -0.024488123
0.74913198 -2.8800831 -0.15596117 7 6 -0.024485819
0.73485512 -2.8272202 0.67440325 64 14 -0.024483515
0.64095664 -2.4677308 -0.044503637 63 7 -0.024481211
0.73333216 -2.8254111 0.78215116 52 15 -0.024478907
0.64099979 -2.4821353 -0.68690574 49 0 -0.024458172
0.78797948 -3.0534856 0.055044889 61 8 -0.024455868
0.63745689 -2.471981 -0.58937174 43 1 -0.024453564
0.79143757 -3.0713148 0.16621901 28 9 -0.02445126
0.6358915 -2.4676905 -0.4953402 46 2 -0.024448955
0.77804255 -3.0215166 0.27297178 29 10 -0.024446651
0.64042771 -2.4888902 -0.40704253 50 3 -0.024444347
0.78353423 -3.0472491 0.38632584 92 11 -0.024442043
0.63578838 -2.4744387 -0.31369171 51 4 -0.024439739
0.81548554 -3.1761057 0.51936251 68 12 -0.024437435
0.63224173 -2.4624183 -0.22242144 47 5 -0.024435131
0.81968802 -3.1947894 0.64111823 94 13 -0.024432827
0.73709017 -2.8749416 -0.15554248 6 6 -0.024430523
0.72353113 -2.8241045 0.67305356 69 14 -0.024428219
0.63035458 -2.4622042 -0.044364017 61 7 -0.024425915
0.71867716 -2.809238 0.7769748 52 15 -0.02442361
0.62899572 -2.4712527 -0.68328232 52 0 -0.024402875
0.7728802 -3.0387757 0.054730747 56 8 -0.024400571
0.63074452 -2.4817457 -0.59117132 51 1 -0.024398267
0.78071141 -3.0740588 0.16621901 39 9 -0.024395963
0.62679017 -2.4679923 -0.49495855 50 2 -0.024393659
0.76651084 -3.0203516 0.27262318 50 10 -0.024391355
0.62396663 -2.4604743 -0.40203664 52 3 -0.024389051
0.7704547 -3.0403442 0.38510716 67 11 -0.024386747
0.62665975 -2.4747186 -0.31344795 50 4 -0.024384443
0.80342466 -3.1751029 0.51873678 77 12 -0.024382139
0.62119859 -2.4549525 -0.22154988 45 5 -0.024379835
0.8056438 -3.1862109 0.63882852 92 13 -0.02437753
0.72802871 -2.8813696 -0.15575182 7 6 -0.024375226
0.71653068 -2.8379498 0.675753 67 14 -0.024372922
0.62175626 -2.4643893 -0.044364017 63 7 -0.024370618
0.70603341 -2.8004901 0.77386898 46 15 -0.024368316
0.61707604 -2.4603167 -0.67965883 46 0 -0.024347579
0.75935125 -3.0298169 0.054521319 56 8 -0.024345275
0.61829031 -2.4688096 -0.58757216 52 1 -0.024342971
0.76949161 -3.0748279 0.16611435 28 9 -0.024340667
0.61864829 -2.47207 -0.4953402 51 2 -0.024338363
0.75789607 -3.0307405 0.27332041 45 10 -0.024336059
0.61489522 -2.4607208 -0.40172374 57 3 -0.024333755
0.75599027 -3.0276072 0.38315722 59 11 -0.02433145
0.61609519 -2.4691868 -0.31247303 38 4 -0.024329146
0.79472595 -3.1874716 0.5203011 91 12 -0.024326842
0.61310738 -2.4590392 -0.22172421 40 5 -0.024324538
0.79261869 -3.1813836 0.6373021 94 13 -0.024322236
0.71989638 -2.8916461 -0.15617052 7 6 -0.024319932
0.70473838 -2.8328691 0.67395335 67 14 -0.024317628
0.6155619 -2.476248 -0.044538539 66 7 -0.024315324
0.69765061 -2.808562 0.77542186 36 15 -0.02431302
0.61172837 -2.4755836 -0.68328232 48 0 -0.024292283
0.74972928 -3.0363319 0.05459113 56 8 -0.024289979
0.60500044 -2.4520328 -0.58307308 50 1 -0.024287675
0.75731903 -3.0716777 0.16580033 19 9 -0.02428537
0.61001503 -2.4742143 -0.4953402 51 2 -0.024283066
0.75160187 -3.0507784 0.2748892 20 10 -0.024280762
0.60583001 -2.4609342 -0.40141091 56 3 -0.024278458
0.7468394 -3.0360107 0.38388845 30 11 -0.024276156
0.60510331 -2.4616838 -0.31125432 18 4 -0.024273852
0.78406614 -3.1921444 0.52061397 95 12 -0.024271548
0.60309446 -2.4553597 -0.22120127 35 5 -0.024269244
0.78150833 -3.1841311 0.6373021 92 13 -0.02426694
0.70313781 -2.8669844 -0.15470509 7 6 -0.024264636
0.69067121 -2.8182774 0.66990423 64 14 -0.024262331
0.6054877 -2.4725547 -0.044433825 61 7 -0.024260027
0.68876094 -2.8147333 0.77645719 30 15 -0.024257723
0.60125536 -2.4701958 -0.68121177 47 0 -0.024236986
0.73959845 -3.0408735 0.054626033 58 8 -0.024234682
0.59735829 -2.457917 -0.58397293 52 1 -0.024232378
0.7405259 -3.0470009 0.16433492 39 9 -0.024230074
0.59952164 -2.4686971 -0.49381369 51 2 -0.024227772
0.73577976 -3.0320852 0.27297178 36 10 -0.024225468
0.59816694 -2.4668732 -0.40203664 55 3 -0.024223164
0.73717237 -3.0424576 0.38437593 58 11 -0.02422086
0.5969367 -2.4636767 -0.31125432 22 4 -0.024218556
0.76929283 -3.177448 0.51779813 100 12 -0.024216251
0.59639359 -2.4651964 -0.22189851 35 5 -0.024213947
0.77177316 -3.1925647 0.63844693 99 13 -0.024211643
0.69031245 -2.8577728 -0.15407708 7 6 -0.024209339
0.67949122 -2.8129749 0.66810459 66 14 -0.024207035
0.59587753 -2.4687176 -0.044329114 64 7 -0.024204731
0.67851746 -2.8132455 0.77542186 19 15 -0.024202427
0.58990616 -2.4590259 -0.67758828 46 0 -0.024181692
0.73044294 -3.0471983 0.054695841 58 8 -0.024179388
0.59056568 -2.46557 -0.58532268 53 1 -0.024177084
0.73413908 -3.0649788 0.16517229 31 9 -0.02417478
0.58767587 -2.4553971 -0.49076074 54 2 -0.024172476
0.72340405 -3.0248194 0.27210024 24 10 -0.024170171
0.5890649 -2.4650009 -0.40141091 55 3 -0.024167867
0.72431272 -3.0333006 0.38291353 87 11 -0.024165563
0.58784133 -2.4617813 -0.31076685 45 4 -0.024163259
0.75783473 -3.1761386 0.5171724 100 12 -0.024160955
0.58405703 -2.4497178 -0.22032972 33 5 -0.024158651
0.76072681 -3.1931965 0.63806528 92 13 -0.024156347
0.67528152 -2.8367305 -0.152821 9 6 -0.024154043
0.67106187 -2.8190045 0.66900444 59 14 -0.024151739
0.58537412 -2.4609528 -0.044154592 60 7 -0.024149435
0.66605753 -2.8023238 0.77179843 11 15 -0.024147131
0.58174843 -2.4609687 -0.67758828 49 0 -0.024126396
0.71711612 -3.0359809 0.054451507 56 8 -0.024124091
0.58372909 -2.4732046 -0.58667231 50 1 -0.024121787
0.72343612 -3.0675228 0.16517229 39 9 -0.024119483
0.57907993 -2.4554217 -0.49037915 49 2 -0.024117179
0.70971334 -3.0116878 0.27070573 51 10 -0.024114875
0.57907629 -2.4592495 -0.40015942 57 3 -0.024112571
0.7156142 -3.0414832 0.38364473 65 11 -0.024110267
0.58015341 -2.4676828 -0.31125432 50 4 -0.024107963
0.74719495 -3.1806877 0.51748526 100 12 -0.024105659
0.57410759 -2.4438829 -0.21963248 30 5 -0.024103355
0.74789029 -3.1861453 0.63615721 99 13 -0.024101051
0.66450292 -2.8331208 -0.15250699 11 6 -0.024098746
0.66210681 -2.8251245 0.66990423 56 14 -0.024096442
0.5749563 -2.455193 -0.044014968 60 7 -0.024094138
0.65539086 -2.8008699 0.77076316 9 15 -0.024091834
0.57227874 -2.4592214 -0.67655301 46 0 -0.024071099
0.70379716 -3.0267792 0.054242078 53 8 -0.024068795
0.56980044 -2.4524488 -0.5812735 50 1 -0.024066491
0.71136898 -3.0641925 0.16485828 13 9 -0.024064187
0.57183719 -2.4631653 -0.49152401 51 2 -0.024061883
0.69964641 -3.0160875 0.27088004 54 10 -0.024059579
0.56781232 -2.4497097 -0.39828217 55 3 -0.024057275
0.70185763 -3.0304248 0.38193855 64 11 -0.024054971
0.57198328 -2.4716272 -0.31149808 49 4 -0.024052667
0.73386282 -3.1736534 0.51592094 100 12 -0.024050362
0.56736904 -2.4536364 -0.22032972 33 5 -0.024048058
0.73411256 -3.1772594 0.63386756 88 13 -0.024045754
0.65595686 -2.8412614 -0.152821 13 6 -0.024043452
0.65705997 -2.8483059 0.67485321 52 14 -0.024041148
0.56817913 -2.4649794 -0.044154592 63 7 -0.024038844
0.64821178 -2.814436 0.77386898 6 15 -0.02403654
0.562397 -2.4555545 -0.67500007 45 0 -0.024015803
0.69322699 -3.0292177 0.054242078 53 8 -0.024013499
0.56123656 -2.454423 -0.5812735 50 1 -0.024011195
0.69977874 -3.062763 0.16464894 13 9 -0.024008891
0.56323558 -2.4651463 -0.49152401 51 2 -0.024006587
0.69842625 -3.0593021 0.27454057 19 10 -0.024004282
0.56013638 -2.4555285 -0.39890796 55 3 -0.024001978
0.69127512 -3.0328562 0.38193855 36 11 -0.023999674
0.55894428 -2.4542532 -0.30906066 49 4 -0.02399737
0.72278017 -3.1761956 0.51592094 100 12 -0.023995068
0.55924284 -2.457545 -0.22050403 29 5 -0.023992764
0.72258198 -3.1778879 0.63348591 94 13 -0.02399046
0.64869022 -2.8552196 -0.15344904 12 6 -0.023988156
0.6548785 -2.8847892 0.68295145 52 14 -0.023985852
0.56045586 -2.4708481 -0.0442244 60 7 -0.023983547
0.63496774 -2.8016088 0.76972789 6 15 -0.023981243
0.55552119 -2.4650414 -0.67707068 45 0 -0.023960507
0.68264908 -3.0316188 0.054242078 56 8 -0.023958202
0.55052644 -2.446861 -0.57902402 49 1 -0.023955898
0.68382657 -3.0418036 0.16339287 28 9 -0.023953594
0.55032104 -2.447943 -0.48770785 54 2 -0.023951292
0.67944682 -3.0247865 0.27122867 24 10 -0.023948986
0.55156147 -2.4574687 -0.39890796 56 3 -0.023946684
0.67720908 -3.0197551 0.37998864 46 11 -0.02394438
0.5477699 -2.444567 -0.30759826 48 4 -0.023942076
0.70694125 -3.1574953 0.51247936 100 12 -0.023939772
0.55240208 -2.4672589 -0.22120127 28 5 -0.023937467
0.71234173 -3.1842225 0.63424915 94 13 -0.023935163
0.64351183 -2.8789077 -0.15460044 11 6 -0.023932859
0.66349494 -2.9707403 0.70274711 58 14 -0.023930555
0.54834354 -2.457176 -0.04394516 63 7 -0.023928251
0.62854749 -2.818893 0.77386898 6 15 -0.023925947
0.54273182 -2.4481049 -0.67189431 47 0 -0.023905277
0.67249495 -3.0359356 0.054276984 61 8 -0.023902973
0.54450887 -2.4601839 -0.58172345 47 1 -0.023900669
0.67751747 -3.0636735 0.16443959 40 9 -0.023898365
0.54134905 -2.447932 -0.4873262 50 2 -0.023896061
0.66931355 -3.0290852 0.27140298 14 10 -0.023893757
0.54212844 -2.4555211 -0.39828217 55 3 -0.023891453
0.66965771 -3.03567 0.38169482 55 11 -0.023889149
0.54094219 -2.4542184 -0.30857319 48 4 -0.023886845
0.6954903 -3.1580145 0.5121665 100 12 -0.02388454
0.53864413 -2.445823 -0.21910954 27 5 -0.023882236
0.7012223 -3.1866899 0.63424915 92 13 -0.023879934
0.63517445 -2.8889389 -0.15501912 15 6 -0.02387763
0.69702476 -3.1728904 0.74998683 48 14 -0.023875326
0.53804815 -2.4512622 -0.043805543 59 7 -0.023873022
0.61539334 -2.8059735 0.76972789 6 15 -0.023870718
0.53335989 -2.4462092 -0.67085898 45 0 -0.023849981
0.66019082 -3.0304494 0.054137368 61 8 -0.023847677
0.53343099 -2.4506447 -0.57902402 49 1 -0.023845373
0.66597015 -3.0621166 0.16423026 100 9 -0.023843069
0.53405249 -2.4555621 -0.48847106 51 2 -0.023840765
0.6528132 -3.0041459 0.26896262 33 10 -0.02383846
0.53187716 -2.4496772 -0.39703071 55 3 -0.023836156
0.65863621 -3.0360489 0.38145107 51 11 -0.023833854
0.53447491 -2.4657922 -0.30979189 51 4 -0.02383155
0.68404424 -3.1584923 0.51185364 100 12 -0.023829246
0.5284164 -2.4398992 -0.21841228 28 5 -0.023826942
0.68677258 -3.1737673 0.6311962 87 13 -0.023824638
0.62972933 -2.912612 -0.15617052 28 6 -0.023822334
0.68429905 -3.167685 0.74818724 50 14 -0.02382003
0.53117591 -2.4609442 -0.04394516 60 7 -0.023817725
0.60233676 -2.7929971 0.76558679 6 15 -0.023815421
0.52481771 -2.4480562 -0.67085898 45 0 -0.023794685
0.64625818 -3.0170927 0.053858127 61 8 -0.02379238
0.52405769 -2.4486806 -0.57812423 49 1 -0.023790076
0.65622997 -3.0662608 0.16433492 99 9 -0.023787774
0.52465659 -2.4535716 -0.48770785 51 2 -0.02378547
0.64315557 -3.0103028 0.26931125 48 10 -0.023783166
0.52084857 -2.4399278 -0.39515349 57 3 -0.023780862
0.64720625 -3.034447 0.38096359 54 11 -0.023778558
0.5225541 -2.4521108 -0.30784199 52 4 -0.023776254
0.6743899 -3.1646075 0.51247936 100 12 -0.02377395
0.51989657 -2.4417291 -0.21841228 25 5 -0.023771646
0.67323911 -3.1646235 0.62890649 90 13 -0.023769341
0.60627002 -2.8522768 -0.152821 22 6 -0.023767037
0.67364269 -3.1719604 0.74863708 55 14 -0.023764733
0.52218151 -2.4587798 -0.043875352 63 7 -0.023762429
0.59627974 -2.8100972 0.76972789 7 15 -0.023760125
0.51746446 -2.455544 -0.67241186 44 0 -0.02373939
0.63831115 -3.0290024 0.05403265 62 8 -0.023737086
0.51312405 -2.4370565 -0.57497489 46 1 -0.023734782
0.63894439 -3.037261 0.16266017 73 9 -0.023732478
0.51649284 -2.457309 -0.48808944 50 2 -0.023730174
0.63796657 -3.0378778 0.2715773 25 10 -0.02372787
0.51437843 -2.4493744 -0.39640498 54 3 -0.023725566
0.63184059 -3.0113201 0.37779501 21 11 -0.023723261
0.51319808 -2.4480014 -0.30711079 49 4 -0.023720957
0.66333956 -3.1669424 0.51247936 100 12 -0.023718653
0.51218635 -2.4474292 -0.21876092 25 5 -0.023716349
0.66354525 -3.1706822 0.62966973 94 13 -0.023714045
0.59517336 -2.8464515 -0.15240233 23 6 -0.023711741
0.66152626 -3.1665466 0.7468375 55 14 -0.023709437
0.5127784 -2.4566727 -0.043805543 60 7 -0.023707133
0.58488905 -2.8045969 0.76765728 24 15 -0.023704829
0.50814241 -2.4515717 -0.67085898 45 0 -0.023684094
0.62651747 -3.0253377 0.053927936 61 8 -0.02368179
0.50658846 -2.4483745 -0.57722443 49 1 -0.023679486
0.6279341 -3.0375173 0.1625555 37 9 -0.023677181
0.50595647 -2.4474726 -0.4857997 50 2 -0.023674877
0.63030708 -3.0516841 0.27262318 12 10 -0.023672573
0.50502717 -2.4472859 -0.39577925 55 3 -0.023670269
0.62252778 -3.01934 0.37852621 32 11 -0.023667965
0.50304765 -2.4420006 -0.3061358 49 4 -0.023665661
0.65148467 -3.1653688 0.51185364 100 12 -0.023663357
0.50283742 -2.4452989 -0.21841228 25 5 -0.023661053
0.65326428 -3.176825 0.63043296 87 13 -0.023658749
0.59407645 -2.8915524 -0.15470509 22 6 -0.023656445
0.64811772 -3.1573827 0.74413806 54 14 -0.023654141
0.5041998 -2.4584477 -0.043805543 58 7 -0.023651836
0.57548368 -2.8085139 0.76817495 34 15 -0.023649532
0.49684262 -2.4420593 -0.66775316 45 0 -0.023628797
0.61874384 -3.041223 0.05417227 70 8 -0.023626493
0.49842733 -2.4520373 -0.57767427 50 1 -0.023624189
0.61732727 -3.0396907 0.1625555 57 9 -0.023621885
0.49542102 -2.4416146 -0.48427325 50 2 -0.023619581
0.61397165 -3.0285892 0.2703571 25 10 -0.023617277
0.49605399 -2.4491203 -0.39577925 58 3 -0.023614973
0.61316699 -3.0273314 0.37925744 64 11 -0.023612669
0.4953081 -2.447633 -0.30662328 49 4 -0.023610365
0.63769078 -3.1540704 0.50966352 100 12 -0.023608061
0.4931151 -2.4411805 -0.21788934 22 5 -0.023605756
0.64006299 -3.1715002 0.62890649 90 13 -0.023603452
0.59176463 -2.9348254 -0.15690321 26 6 -0.02360115
0.63731062 -3.163558 0.74503791 57 14 -0.023598846
0.49324554 -2.4484308 -0.043596111 57 7 -0.023596542
0.56338978 -2.7991424 0.76506913 42 15 -0.023594238
0.48680124 -2.4362011 -0.66568261 47 0 -0.023573501
0.60093772 -3.0101335 0.053578887 62 8 -0.023571197
0.48791179 -2.4462035 -0.57587469 50 1 -0.023568893
0.60827559 -3.0496616 0.16297418 21 9 -0.023566589
0.48689511 -2.4433291 -0.48427325 50 2 -0.023564285
0.60767579 -3.0522079 0.27227452 10 10 -0.023561981
0.48673111 -2.4469621 -0.39515349 55 3 -0.023559676
0.60168016 -3.0276113 0.37901369 92 11 -0.023557372
0.4847874 -2.441644 -0.30564833 49 4 -0.02355507
0.62552333 -3.1504643 0.50872493 100 12 -0.023552766
0.48304033 -2.4350696 -0.2171921 20 5 -0.023550462
0.62669802 -3.1621604 0.62661678 90 13 -0.023548158
0.58578414 -2.9584246 -0.15805461 31 6 -0.023545854
0.62550777 -3.1619399 0.74413806 58 14 -0.02354355
0.4862484 -2.4579842 -0.043735731 60 7 -0.023541246
0.55398965 -2.8029871 0.76558679 47 15 -0.023538942
0.47940981 -2.4435728 -0.66723549 46 0 -0.023518205
0.59018242 -3.0081854 0.053509079 62 8 -0.023515901
0.47867286 -2.442071 -0.574525 49 1 -0.023513597
0.59916186 -3.0596068 0.16339287 46 9 -0.023511292
0.47836328 -2.445014 -0.48427325 50 2 -0.023508988
0.59319609 -3.0347569 0.27053142 21 10 -0.023506686
0.47634053 -2.4369307 -0.3932763 52 3 -0.023504382
0.58973444 -3.0198483 0.37779501 74 11 -0.023502078
0.4782083 -2.4510312 -0.30662328 49 4 -0.023499774
0.61527812 -3.1565063 0.50935066 100 12 -0.02349747
0.47606075 -2.4445636 -0.21788934 21 5 -0.023495166
0.61470765 -3.156513 0.6250903 90 13 -0.023492862
0.57673317 -2.9642718 -0.15826395 33 6 -0.023490557
0.61390293 -3.1582577 0.74278837 63 14 -0.023488253
0.47690299 -2.4557407 -0.043665919 60 7 -0.023485949
0.54457021 -2.8068001 0.7661044 41 15 -0.023483645
0.47093853 -2.4432521 -0.66671789 45 0 -0.023462908
0.57967854 -3.0102272 0.053509079 62 8 -0.023460606
0.46977702 -2.4418132 -0.5740751 50 1 -0.023458302
0.58244663 -3.0302978 0.16171812 15 9 -0.023455998
0.47173512 -2.4542985 -0.4857997 50 2 -0.023453694
0.59177077 -3.0817099 0.27454057 41 10 -0.02345139
0.46931949 -2.4463384 -0.39452776 54 3 -0.023449086
0.5795632 -3.0238385 0.37803873 58 11 -0.023446782
0.46741 -2.4409878 -0.30516088 49 4 -0.023444477
0.60425597 -3.1586347 0.50935066 100 12 -0.023442173
0.46645409 -2.4383011 -0.2171921 22 5 -0.023439869
0.6036855 -3.1586394 0.6250903 92 13 -0.023437565
0.56338596 -2.9505723 -0.15742657 37 6 -0.023435261
0.60324031 -3.1622958 0.74323827 74 14 -0.023432957
0.46832791 -2.4573903 -0.043665919 63 7 -0.023430653
0.53513026 -2.8105819 0.76662207 43 15 -0.023428349
0.46312508 -2.4486775 -0.66775316 47 0 -0.023407614
0.56805378 -3.0063374 0.053404365 60 8 -0.02340531
0.46016636 -2.4376934 -0.57272536 47 1 -0.023403006
0.5729757 -3.0382001 0.16203214 15 9 -0.023400702
0.45879903 -2.4327793 -0.4812203 50 2 -0.023398397
0.59576541 -3.1620748 0.28151307 48 10 -0.023396093
0.46077752 -2.4479618 -0.39452776 54 3 -0.023393789
0.56460238 -3.0024319 0.37511387 34 11 -0.023391485
0.45742005 -2.4348006 -0.3041859 47 4 -0.023389181
0.57901573 -3.0850072 0.49714881 86 12 -0.023386877
0.46014544 -2.4516637 -0.21823798 46 5 -0.023384573
0.59265643 -3.1607273 0.6250903 90 13 -0.023382269
0.55602455 -2.968226 -0.15826395 37 6 -0.023379965
0.58933032 -3.1490586 0.73963904 75 14 -0.023377661
0.45754206 -2.4472163 -0.043456491 61 7 -0.023375357
0.52389771 -2.804837 0.76455152 46 15 -0.023373052
0.45281279 -2.4407821 -0.66516501 49 0 -0.023352318
0.55974227 -3.0200992 0.053613789 60 8 -0.023350013
0.45271906 -2.4450333 -0.5740751 50 1 -0.023347709
0.56091362 -3.0323257 0.16161345 34 9 -0.023345405
0.44887581 -2.4266438 -0.47969386 50 2 -0.023343101
0.55394936 -2.9976015 0.26669657 30 10 -0.023340797
0.45151246 -2.4456701 -0.39390203 54 3 -0.023338493
0.55663878 -3.01805 0.37682006 56 11 -0.023336189
0.44927818 -2.4383347 -0.30442965 50 4 -0.023333885
0.55966079 -3.0403838 0.48963994 100 12 -0.023331581
0.44797775 -2.4336605 -0.21649487 41 5 -0.023329277
0.58232951 -3.1666386 0.62585354 90 13 -0.023326972
0.54493868 -2.9662199 -0.15805461 36 6 -0.023324668
0.57833433 -3.1510963 0.73963904 86 14 -0.023322366
0.44683295 -2.4369969 -0.043247063 60 7 -0.023320062
0.51271176 -2.7990472 0.76248091 46 15 -0.023317758
0.44394457 -2.4404471 -0.66464734 47 0 -0.023297021
0.54633665 -3.006295 0.053334557 60 8 -0.023294717
0.44452932 -2.4485161 -0.574525 49 1 -0.023292413
0.55709755 -3.0716043 0.16360222 31 9 -0.023290109
0.44040245 -2.4281962 -0.47969386 48 2 -0.023287805
0.54703486 -3.0191216 0.26843968 16 10 -0.023285501
0.44156528 -2.4394565 -0.39265057 54 3 -0.023283197
0.54751331 -3.0277879 0.37779501 48 11 -0.023280893
0.44111714 -2.4418416 -0.30467337 53 4 -0.023278588
0.55150014 -3.0559266 0.49182999 85 12 -0.023276284
0.43806449 -2.4273663 -0.21579762 41 5 -0.023273982
0.56918257 -3.1570594 0.62356383 94 13 -0.023271678
0.53422683 -2.9661386 -0.15794992 38 6 -0.023269374
0.56733173 -3.153096 0.73963904 96 14 -0.02326707
0.43903133 -2.4424782 -0.043316875 59 7 -0.023264766
0.50157195 -2.7932143 0.76041043 46 15 -0.023262462
0.43406662 -2.4343746 -0.66257679 47 0 -0.023241725
0.53618962 -3.0101526 0.053369459 61 8 -0.023239421
0.43256584 -2.430867 -0.57002598 49 1 -0.023237117
0.54077947 -3.0420673 0.16192746 88 9 -0.023234813
0.43261123 -2.4335845 -0.48045707 50 2 -0.023232508
0.53196353 -2.9955106 0.26617363 56 10 -0.023230204
0.43235737 -2.4370925 -0.39202482 55 3 -0.023227902
0.53659487 -3.0277259 0.37755126 60 11 -0.023225598
0.4339748 -2.4511855 -0.30564833 53 4 -0.023223294
0.5401414 -3.0539427 0.49120426 76 12 -0.02322099
0.43028262 -2.4328046 -0.21614623 40 5 -0.023218686
0.55747563 -3.1551604 0.62280059 87 13 -0.023216382
0.5221343 -2.9581509 -0.15742657 36 6 -0.023214078
0.55733705 -3.1608145 0.74098879 100 14 -0.023211773
0.43119651 -2.4479344 -0.043386683 58 7 -0.023209469
0.49248865 -2.7987533 0.76144564 47 15 -0.023207165
0.42689624 -2.4434867 -0.66464734 47 0 -0.023186428
0.52567923 -3.0120058 0.053369459 61 8 -0.023184124
0.42307368 -2.4266028 -0.56867629 52 1 -0.023181822
0.53255612 -3.0577097 0.16266017 72 9 -0.023179518
0.42546114 -2.442816 -0.48198354 48 2 -0.023177214
0.52287036 -3.0052006 0.26687086 75 10 -0.02317491
0.42384762 -2.4385867 -0.39202482 52 3 -0.023172606
0.5246641 -3.0217576 0.3765763 60 11 -0.023170302
0.42236286 -2.435082 -0.30345467 49 4 -0.023167998
0.52947783 -3.0558097 0.49120426 72 12 -0.023165694
0.42178789 -2.4342918 -0.21614623 41 5 -0.023163389
0.54578888 -3.153218 0.62203735 90 13 -0.023161085
0.50908309 -2.944211 -0.1565892 33 6 -0.023158781
0.54364669 -3.1473782 0.73738956 100 14 -0.023156477
0.42400908 -2.4573073 -0.043526303 63 7 -0.023154173
0.48304427 -2.8023593 0.76196331 42 15 -0.023151869
0.4183642 -2.444962 -0.66464734 48 0 -0.023131134
0.51482552 -3.0118513 0.053334557 60 8 -0.02312883
0.41525659 -2.4319067 -0.56957608 52 1 -0.023126526
0.52053612 -3.0516748 0.16224147 66 9 -0.023124222
0.41396049 -2.4268687 -0.478549 47 2 -0.023121918
0.51304603 -3.010936 0.26721951 78 10 -0.023119614
0.4136754 -2.4303148 -0.39046046 51 3 -0.023117309
0.51111847 -3.0059574 0.37438264 21 11 -0.023115005
0.41286269 -2.4306707 -0.3027235 49 4 -0.023112701
0.51748627 -3.049849 0.4899528 72 12 -0.023110397
0.41262168 -2.4318206 -0.21579762 40 5 -0.023108093
0.53412288 -3.1512327 0.62127411 87 13 -0.023105789
0.49880236 -2.9459701 -0.1565892 34 6 -0.023103485
0.53200686 -3.1454141 0.73648977 100 14 -0.023101181
0.41176453 -2.437083 -0.043142349 64 7 -0.023098877
0.47325915 -2.8040283 0.76196331 39 15 -0.023096573
0.40823147 -2.4368811 -0.66205913 49 0 -0.023075838
0.50331849 -3.0077133 0.053229842 58 8 -0.023073534
0.40805057 -2.4410295 -0.57137567 50 1 -0.023071229
0.51843375 -3.1046932 0.16496295 25 9 -0.023068925
0.40451679 -2.4224896 -0.47740412 49 2 -0.023066621
0.50384426 -3.0205691 0.26791674 23 10 -0.023064317
0.40551406 -2.4336925 -0.39077336 49 3 -0.023062013
0.50127435 -3.0116398 0.37487015 23 11 -0.023059709
0.4053525 -2.4379714 -0.30345467 49 4 -0.023057405
0.50424796 -3.0360475 0.48744985 72 12 -0.023055101
0.40282473 -2.4253843 -0.21510038 41 5 -0.023052797
0.52376199 -3.1569517 0.62203735 90 13 -0.023050493
0.49047554 -2.9595158 -0.15721723 37 6 -0.023048189
0.52038783 -3.1434066 0.73558998 103 14 -0.023045884
0.40292835 -2.4365325 -0.043107443 60 7 -0.02304358
0.46220922 -2.7980387 0.75989276 36 15 -0.023041278
0.39878505 -2.4325721 -0.66050619 48 0 -0.023020541
0.49249363 -3.0074782 0.053194933 62 8 -0.023018237
0.39952725 -2.4424391 -0.57137567 52 1 -0.023015933
0.49717292 -3.0393786 0.1614041 55 9 -0.023013629
0.39605787 -2.423887 -0.47740412 49 2 -0.023011325
0.49169293 -3.0124779 0.2670452 33 10 -0.023009021
0.39638063 -2.4311941 -0.39014763 53 3 -0.023006717
0.49107772 -3.0153301 0.37511387 21 11 -0.023004413
0.39620265 -2.4354527 -0.30296722 49 4 -0.023002109
0.49512908 -3.0435522 0.48838848 71 12 -0.022999804
0.39116031 -2.40711 -0.21335725 40 5 -0.0229975
0.51148099 -3.1510091 0.62051088 85 13 -0.022995198
0.4795025 -2.9572668 -0.15700789 37 6 -0.022992894
0.51003516 -3.1490512 0.73648977 103 14 -0.02299059
0.39548597 -2.4418035 -0.043177254 59 7 -0.022988286
0.45169386 -2.7919283 0.75782222 40 15 -0.022985982
0.39120889 -2.4396715 -0.66205913 49 0 -0.022965245
0.47935155 -2.9893501 0.052845888 60 8 -0.022962941
0.38834316 -2.4245086 -0.56687665 52 1 -0.022960637
0.49066243 -3.0667341 0.16276483 100 9 -0.022958333
0.38821441 -2.429132 -0.47816736 48 2 -0.022956029
0.48211622 -3.0200782 0.26756814 30 10 -0.022953724
0.3870706 -2.4246924 -0.38889611 49 3 -0.02295142
0.48076352 -3.014982 0.37487015 30 11 -0.022949118
0.38874865 -2.4406741 -0.30345467 51 4 -0.022946814
0.48481199 -3.0472128 0.48870131 78 12 -0.02294451
0.38525712 -2.424202 -0.21475175 40 5 -0.022942206
0.50102895 -3.1526878 0.62051088 85 13 -0.022939902
0.46906716 -2.9548953 -0.15679854 37 6 -0.022937598
0.49897924 -3.1468759 0.73558998 106 14 -0.022935294
0.38633433 -2.4392188 -0.043107443 63 7 -0.02293299
0.44254944 -2.7973042 0.75885749 39 15 -0.022930685
0.38251731 -2.4371386 -0.66102386 49 0 -0.022909949
0.47046265 -3.0008829 0.05302041 61 8 -0.022907645
0.38017938 -2.4277744 -0.56732655 53 1 -0.02290534
0.4743987 -3.0329094 0.16088074 67 9 -0.022903036
0.3801569 -2.4304061 -0.47816736 48 2 -0.022900734
0.46564022 -2.9803216 0.26390758 69 10 -0.02289843
0.3792139 -2.4299321 -0.38952184 49 3 -0.022896126
0.46779025 -3.0009506 0.37292022 9 11 -0.022893822
0.37839395 -2.4302475 -0.30199227 51 4 -0.022891518
0.4735654 -3.0449827 0.48807558 100 12 -0.022889214
0.37660387 -2.4215286 -0.21440312 41 5 -0.02288691
0.48881578 -3.1466577 0.6189844 82 13 -0.022884605
0.45568696 -2.9367783 -0.15575182 37 6 -0.022882301
0.48679796 -3.1408956 0.73379034 106 14 -0.022879997
0.37904146 -2.448457 -0.043247063 59 7 -0.022877693
0.43219149 -2.7950137 0.75782222 38 15 -0.022875389
0.3743009 -2.4403684 -0.66154152 48 0 -0.022854654
0.4599843 -3.0025067 0.05302041 61 8 -0.02285235
0.37111321 -2.4252341 -0.56642675 53 1 -0.022850046
0.4668265 -3.0542903 0.16192746 73 9 -0.022847742
0.36989105 -2.4200737 -0.47587767 50 2 -0.022845438
0.45763949 -2.9976854 0.26530206 85 10 -0.022843134
0.37072948 -2.431241 -0.38952184 50 3 -0.02284083
0.46089882 -3.0261147 0.37584507 7 11 -0.022838525
0.36841595 -2.421741 -0.30077356 49 4 -0.022836221
0.46144968 -3.0368524 0.48651123 116 12 -0.022833917
0.36874741 -2.4267683 -0.21475175 40 5 -0.022831613
0.47782883 -3.1483445 0.6189844 80 13 -0.022829309
0.44692996 -2.9482245 -0.15627518 40 6 -0.022827005
0.47466382 -3.1348686 0.73199075 103 14 -0.022824701
0.36869794 -2.437902 -0.043037634 59 7 -0.022822397
0.42329833 -2.8022358 0.75937515 46 15 -0.022820093
0.36463517 -2.4340179 -0.65947098 48 0 -0.022799358
0.45009294 -3.0080497 0.053090218 65 8 -0.022797054
0.3637971 -2.4342241 -0.56822634 53 1 -0.02279475
0.4543933 -3.044049 0.16129944 34 9 -0.022792445
0.36115152 -2.4194083 -0.47549605 51 2 -0.022790141
0.45686871 -3.0642946 0.27105436 43 10 -0.022787837
0.36282247 -2.4364281 -0.39014763 47 3 -0.022785533
0.44566008 -2.996289 0.37194526 10 11 -0.022783229
0.36054391 -2.4269392 -0.30126104 47 4 -0.022780925
0.44939658 -3.0286748 0.48494691 78 12 -0.022778621
0.3575137 -2.4123366 -0.21335725 37 5 -0.022776317
0.46683609 -3.1499934 0.6189844 78 13 -0.022774013
0.43663558 -2.9497666 -0.15627518 41 6 -0.022771709
0.46485853 -3.1442173 0.73379034 100 14 -0.022769405
0.35901758 -2.4312613 -0.042898018 60 7 -0.0227671
0.41069487 -2.7845843 0.75419873 47 15 -0.022764796
0.35403633 -2.4238687 -0.6563651 48 0 -0.022744061
0.43641096 -2.9878368 0.052706268 70 8 -0.022741757
0.35501677 -2.4335511 -0.5677765 52 1 -0.022739453
0.44117293 -3.0278289 0.16035739 24 9 -0.022737149
0.35312939 -2.4265444 -0.47664091 49 2 -0.022734845
0.43417114 -2.987082 0.2640819 28 10 -0.022732541
0.34934962 -2.4064631 -0.3851417 49 3 -0.022730237
0.43405789 -2.9899683 0.37097031 34 11 -0.022727933
0.35206974 -2.4281831 -0.30126104 51 4 -0.022725629
0.43825582 -3.026315 0.48432118 18 12 -0.022723325
0.34909111 -2.4135699 -0.21335725 37 5 -0.022721021
0.43367404 -3.0020659 0.58959985 56 13 -0.022718716
0.42696238 -2.9592545 -0.15669388 41 6 -0.022716414
0.45333123 -3.1459002 0.73379034 100 14 -0.02271411
0.35052863 -2.4324996 -0.042898018 60 7 -0.022711806
0.39987186 -2.7783525 0.75212818 47 15 -0.022709502
0.34639084 -2.4308274 -0.65791804 49 0 -0.022688765
0.42404822 -2.9795175 0.052531745 61 8 -0.022686461
0.34472373 -2.425189 -0.56552696 55 1 -0.022684157
0.43119529 -3.0373352 0.16077606 39 9 -0.022681853
0.34410536 -2.4238746 -0.47587767 49 2 -0.022679549
0.42597914 -3.0043604 0.26547641 21 10 -0.022677245
0.34039339 -2.4037564 -0.38451597 47 3 -0.022674941
0.4217062 -2.9817116 0.36975163 16 11 -0.022672636
0.34372285 -2.4333882 -0.30174851 48 4 -0.022670332
0.42550477 -3.016165 0.48244393 27 12 -0.02266803
0.34079847 -2.4187789 -0.21370588 37 5 -0.022665726
0.41908386 -2.9744008 0.58387554 52 13 -0.022663422
0.41384688 -2.9409492 -0.15564716 38 6 -0.022661118
0.443432 -3.1551826 0.73558998 100 14 -0.022658814
0.34161094 -2.433768 -0.042898018 60 7 -0.02265651
0.39022231 -2.7836256 0.75316346 47 15 -0.022654206
0.33694798 -2.4282534 -0.65688276 49 0 -0.022633469
0.36747068 -2.6482189 0.046667732 45 8 -0.022631165
0.33545354 -2.4205866 -0.56417727 56 1 -0.022628861
0.41812626 -3.0210164 0.15983403 88 9 -0.022626556
0.33575672 -2.4290092 -0.47664091 50 2 -0.022624254
0.41142264 -2.9802437 0.26321036 54 10 -0.022621948
0.33212015 -2.4089015 -0.3851417 49 3 -0.022619646
0.41319296 -2.9969308 0.37145779 30 11 -0.022617342
0.33333144 -2.4208076 -0.30004236 51 4 -0.022615038
0.41416678 -3.011761 0.48150533 33 12 -0.022612734
0.33343726 -2.4278491 -0.21440312 36 5 -0.02261043
0.40924636 -2.9836967 0.58540201 52 13 -0.022608126
0.40252313 -2.9384885 -0.1554378 38 6 -0.022605821
0.42922327 -3.1374791 0.73109096 100 14 -0.022603517
0.33311307 -2.4349458 -0.042898018 61 7 -0.022601213
0.38076469 -2.7868848 0.75368112 48 15 -0.022598909
0.3311345 -2.4427006 -0.66050619 48 0 -0.022576332
0.35922334 -2.6533864 0.046737548 85 8 -0.022574028
0.32768607 -2.4236171 -0.56462717 55 1 -0.022571724
0.40676948 -3.0124898 0.15931067 75 9 -0.02256942
0.32759884 -2.4261608 -0.47587767 50 2 -0.022567116
0.40365535 -2.9933686 0.26425621 84 10 -0.022564812
0.32560545 -2.4177637 -0.38639316 53 3 -0.022562508
0.40272388 -2.9943497 0.37097031 30 11 -0.022560203
0.32530186 -2.4218998 -0.30004236 49 4 -0.022557899
0.40233868 -2.999413 0.47931525 47 12 -0.022555595
0.32474899 -2.4209859 -0.21370588 40 5 -0.022553291
0.3993493 -2.981076 0.58463877 52 13 -0.022550989
0.39328948 -2.9397385 -0.1554378 40 6 -0.022548685
0.41884851 -3.1349487 0.73019111 100 14 -0.022546381
0.32397866 -2.4281082 -0.042758394 63 7 -0.022544077
0.37203154 -2.7919621 0.75471634 48 15 -0.022541773
0.31957191 -2.4208589 -0.65429455 48 0 -0.022521036
0.34891391 -2.6466939 0.046597924 87 8 -0.022518732
0.32024145 -2.4324741 -0.56642675 53 1 -0.022516428
0.39937556 -3.0376537 0.16056673 27 9 -0.022514123
0.31759241 -2.4156103 -0.47358796 50 2 -0.022511819
0.39216685 -2.9868577 0.26355895 69 10 -0.022509515
0.3176775 -2.4228032 -0.38701892 49 3 -0.022507211
0.39407283 -3.0095153 0.37267649 32 11 -0.022504909
0.31633127 -2.4190838 -0.29955488 50 4 -0.022502605
0.39033148 -2.9890466 0.47743803 36 12 -0.022500301
0.31526414 -2.4142022 -0.21300863 39 5 -0.022497997
0.3894487 -2.9863453 0.58540201 53 13 -0.022495693
0.38225162 -2.9351521 -0.1551238 37 6 -0.022493389
0.40890822 -3.1441216 0.73199075 100 14 -0.022491084
0.31498617 -2.4252584 -0.042688586 60 7 -0.02248878
0.36079255 -2.781749 0.75161052 48 15 -0.022486476
0.31087336 -2.4200432 -0.65377688 49 0 -0.022465739
0.33789229 -2.6340115 0.046353593 94 8 -0.022463435
0.3102628 -2.4219794 -0.56372732 55 1 -0.022461131
0.38471472 -3.0073318 0.15889199 10 9 -0.022458829
0.30890921 -2.4147568 -0.47320631 51 2 -0.022456525
0.38098052 -2.9822795 0.26303601 32 10 -0.022454221
0.30821875 -2.416059 -0.38576743 49 3 -0.022451917
0.37854841 -2.971489 0.3678017 25 11 -0.022449613
0.30888686 -2.42805 -0.30052981 50 4 -0.022447309
0.37939778 -2.9864714 0.4768123 33 12 -0.022445004
0.30583093 -2.4073818 -0.21231139 39 5 -0.0224427
0.378034 -2.9798961 0.58387554 52 13 -0.022440396
0.37325868 -2.9463756 -0.15564716 38 6 -0.022438092
0.39695227 -3.1377964 0.73019111 100 14 -0.022435788
0.30701995 -2.4303107 -0.042758394 60 7 -0.022433484
0.34987122 -2.7734079 0.74902231 47 15 -0.02243118
0.30290309 -2.4249477 -0.65481222 49 0 -0.022410445
0.32646781 -2.617316 0.046039447 79 8 -0.022408141
0.30180657 -2.4230478 -0.56372732 53 1 -0.022405837
0.37298253 -2.9987466 0.15836863 40 9 -0.022403533
0.30096313 -2.4197171 -0.47396958 51 2 -0.022401229
0.36958611 -2.9756825 0.26233879 48 10 -0.022398924
0.29929689 -2.4131994 -0.3851417 49 3 -0.02239662
0.36744162 -2.9668825 0.3670705 58 11 -0.022394316
0.29992247 -2.4251733 -0.30004236 49 4 -0.022392012
0.37090749 -3.0034618 0.47931525 35 12 -0.022389708
0.29693729 -2.4044802 -0.21196276 41 5 -0.022387404
0.36618775 -2.9695063 0.58158582 52 13 -0.0223851
0.36028683 -2.9258552 -0.15449576 36 6 -0.022382796
0.38742417 -3.150768 0.73289055 100 14 -0.022380492
0.29902181 -2.4353375 -0.04282821 61 7 -0.022378188
0.3408936 -2.7803648 0.75057524 49 15 -0.022375884
0.29397067 -2.4221544 -0.65377688 49 0 -0.022355149
0.31805167 -2.6243951 0.046144161 83 8 -0.022352844
0.29241046 -2.4163482 -0.56192774 55 1 -0.02235054
0.35915783 -2.9722705 0.15690321 48 9 -0.022348236
0.29251456 -2.420753 -0.47396958 51 2 -0.022345932
0.35895839 -2.9749763 0.26216447 42 10 -0.022343628
0.2918165 -2.4220741 -0.38639316 49 3 -0.022341324
0.35542318 -2.9543505 0.36536431 42 11 -0.02233902
0.29121834 -2.4242344 -0.29979861 49 4 -0.022336716
0.3611269 -3.010622 0.48025388 38 12 -0.022334412
0.28949133 -2.4134147 -0.21266 40 5 -0.022332108
0.35488641 -2.9629693 0.58005941 52 13 -0.022329804
0.3495971 -2.9231288 -0.15428641 36 6 -0.022327499
0.37411273 -3.1327515 0.72839153 100 14 -0.022325195
0.29004571 -2.432395 -0.042758394 63 7 -0.022322891
0.33095747 -2.7796197 0.75005764 47 15 -0.022320587
0.28664452 -2.4327588 -0.6563651 50 0 -0.022299852
0.30888849 -2.6254895 0.046144161 85 8 -0.022297548
0.28351927 -2.4134834 -0.56102794 53 1 -0.022295244
0.31969631 -2.7255485 0.14381923 11 9 -0.02229294
0.28314811 -2.4139595 -0.4724431 51 2 -0.022290636
0.28336003 -2.4230781 -0.38639316 49 3 -0.022286028
0.28183484 -2.4173493 -0.29882365 49 4 -0.022281419
0.34993035 -3.0059779 0.47931525 41 12 -0.022279115
0.28106511 -2.4144106 -0.21266 39 5 -0.022276811
0.34454182 -2.96419 0.58005941 53 13 -0.022274507
0.33939126 -2.9243312 -0.15428641 34 6 -0.022272205
0.36272636 -3.1301668 0.72749174 100 14 -0.022269901
0.28040373 -2.4234605 -0.042583872 64 7 -0.022267597
0.3214747 -2.7826769 0.75057524 49 15 -0.022265293
0.27639621 -2.4183898 -0.65222406 50 0 -0.022244556
0.29926875 -2.6225781 0.046074353 82 8 -0.022242252
0.27575463 -2.4202669 -0.56237763 56 1 -0.022239948
0.31153485 -2.7385547 0.14444725 17 9 -0.022237644
0.27427623 -2.411032 -0.47167987 52 2 -0.02223534
0.35571897 -3.1318231 0.27576074 7 10 -0.022233035
0.27490041 -2.4240525 -0.38639316 49 3 -0.022230731
0.35243329 -3.1125867 0.38461968 7 11 -0.022228427
0.2731722 -2.4163458 -0.2985799 49 4 -0.022226125
0.33921409 -3.005218 0.47900239 38 12 -0.022223821
0.27218881 -2.4114172 -0.21231139 40 5 -0.022221517
0.33507174 -2.9731784 0.58158582 53 13 -0.022219213
0.3296279 -2.9294677 -0.15449576 34 6 -0.022216909
0.35179776 -3.1314137 0.72749174 100 14 -0.022214605
0.27105123 -2.4164758 -0.042444255 66 7 -0.0222123
0.3104693 -2.7722631 0.74746948 48 15 -0.022209996
0.26752707 -2.4154997 -0.65118873 50 0 -0.02218926
0.28923357 -2.6156566 0.045934737 82 8 -0.022186955
0.26794612 -2.4270256 -0.56372732 55 1 -0.022184651
0.29781589 -2.701906 0.14245848 30 9 -0.022182347
0.26585841 -2.4119749 -0.47167987 52 2 -0.022180043
0.3445667 -3.1310656 0.27558646 30 10 -0.022177741
0.26514274 -2.4132161 -0.38451597 49 3 -0.022175437
0.34459683 -3.1414235 0.38803205 37 11 -0.022173133
0.2651681 -2.4212315 -0.29906741 49 4 -0.022170829
0.32936591 -3.0122747 0.47994098 35 12 -0.022168525
0.26247033 -2.4004693 -0.2112655 40 5 -0.02216622
0.32383946 -2.9665232 0.58005941 52 13 -0.022163916
0.31983286 -2.9345713 -0.15470509 36 6 -0.022161612
0.34128645 -3.1364973 0.72839153 100 14 -0.022159308
0.26261473 -2.417407 -0.042444255 64 7 -0.022157004
0.29974875 -2.7637267 0.74488121 46 15 -0.0221547
0.25888804 -2.4144979 -0.65067112 49 0 -0.022133963
0.27903685 -2.6067085 0.045760211 79 8 -0.022131661
0.25802296 -2.4143822 -0.56057805 56 1 -0.022129357
0.28732347 -2.6929991 0.14193512 70 9 -0.022127053
0.25743768 -2.4128881 -0.47167987 52 2 -0.022124749
0.333213 -3.1282871 0.27523783 78 10 -0.022122445
0.25546408 -2.4023411 -0.38263875 49 3 -0.02212014
0.33216244 -3.1287892 0.38632584 99 11 -0.022117836
0.25692394 -2.4241161 -0.29931113 49 4 -0.022115532
0.31739405 -2.9996552 0.47775093 33 12 -0.022113228
0.25450876 -2.4053338 -0.21161415 39 5 -0.022110924
0.31183207 -2.9520164 0.57700646 54 13 -0.02210862
0.30812138 -2.9217663 -0.1539724 32 6 -0.022106316
0.33074433 -3.1415453 0.72929132 100 14 -0.022104012
0.25521955 -2.4282527 -0.042618778 61 7 -0.022101708
0.2905032 -2.7685993 0.74591655 47 15 -0.022099404
0.25105569 -2.4211516 -0.65222406 50 0 -0.022078669
0.27014217 -2.6096556 0.045795113 82 8 -0.022076365
0.24819162 -2.4016993 -0.55742872 55 1 -0.022074061
0.27710119 -2.686039 0.14151645 40 9 -0.022071756
0.24901319 -2.4137721 -0.47167987 51 2 -0.022069452
0.32351616 -3.1413221 0.27628368 96 10 -0.022067148
0.24707699 -2.4032183 -0.38263875 52 3 -0.022064844
0.32042775 -3.1220307 0.38535091 100 11 -0.02206254
0.24724658 -2.4131496 -0.2978487 50 4 -0.022060236
0.3079266 -3.0105708 0.47931525 33 12 -0.022057932
0.24611124 -2.4062076 -0.21161415 40 5 -0.022055628
0.30232364 -2.9608991 0.57853287 53 13 -0.022053324
0.29771802 -2.9208369 -0.15386772 33 6 -0.02205102
0.31859255 -3.1310484 0.72659194 100 14 -0.022048716
0.24714619 -2.4331076 -0.042688586 61 7 -0.022046411
0.28083715 -2.7695963 0.74591655 47 15 -0.022044107
0.24298808 -2.4258578 -0.65325934 50 0 -0.022023372
0.26103106 -2.6105828 0.045795113 85 8 -0.022021068
