# .PCD v0.7 - Point Cloud Data file format
VERSION 0.7
FIELDS x y z intensity ring time
SIZE 4 4 4 4 2 4
TYPE F F F F U F
COUNT 1 1 1 1 1 1
WIDTH 986
HEIGHT 1
VIEWPOINT 0 0 0 1 0 0 0
POINTS 986
DATA ascii
0.96832049 6.9962316 -0.1232838 6 7 -0.083635181
0.81704462 5.89569 1.594843 43 15 -0.083632872
0.59759676 4.2683306 -1.1548507 3 0 -0.083604813
2.2056274 15.733735 0.27731875 2 8 -0.08360251
0.74111354 5.2799945 -1.2309321 4 1 -0.083600208
2.6370549 18.763597 0.99302256 40 9 -0.083597898
0.75712734 5.3872342 -1.0574635 68 2 -0.083595596
1.99561 14.181574 1.2529509 28 10 -0.083593294
0.82156807 5.8310046 -0.93266243 69 3 -0.083590992
1.5764562 11.1746 1.3856546 37 11 -0.083588682
0.99785256 7.0642953 -0.87599689 56 4 -0.08358638
1.2940545 9.1497564 1.4636011 15 12 -0.083584078
1.048233 7.4116483 -0.65488827 116 5 -0.083581775
0.98133379 6.9211831 -0.36635172 65 6 -0.083577164
0.82829082 5.8344898 1.360504 45 14 -0.083574861
0.99536198 7.0025349 -0.12345833 6 7 -0.083572559
0.83647186 5.8773551 1.5907019 37 15 -0.083570249
0.61496025 4.2834287 -1.1595093 4 0 -0.083549514
2.2605393 15.72594 0.27731875 2 8 -0.083547212
0.75287849 5.2310824 -1.2201345 3 1 -0.08354491
2.6931226 18.689043 0.98956835 3 9 -0.083542608
0.77480406 5.3767872 -1.0559371 38 2 -0.083540298
2.0456734 14.178466 1.2532996 28 10 -0.083537996
0.84191859 5.8281012 -0.93266243 72 3 -0.083535694
1.614877 11.165099 1.385167 37 11 -0.083533391
1.024211 7.0725565 -0.87745935 61 4 -0.083531082
1.3282553 9.1608229 1.466104 30 12 -0.083528779
1.0766732 7.4256902 -0.65645707 132 5 -0.083526477
1.1327149 7.80264 1.532578 206 13 -0.083524175
1.5740163 10.829189 -0.57349747 100 6 -0.083521865
0.84977603 5.8392768 1.3623036 46 14 -0.083519563
1.0180712 6.9871449 -0.1232489 6 7 -0.083517261
0.85753906 5.8782225 1.5917372 37 15 -0.083514959
0.62934721 4.2774339 -1.1584741 4 0 -0.083494224
2.3154235 15.717954 0.27731875 2 8 -0.083491914
0.77283871 5.2399902 -1.222834 3 1 -0.083489612
2.8677599 19.420465 1.0288203 31 9 -0.08348731
0.7944296 5.3798757 -1.0570819 63 2 -0.083485007
2.0948656 14.169267 1.2531252 28 10 -0.083482698
0.86312389 5.8309894 -0.93360102 72 3 -0.083480395
1.6538435 11.159394 1.385167 37 11 -0.083478093
1.0465636 7.0532298 -0.87550944 64 4 -0.083475791
1.3602225 9.1561308 1.466104 30 12 -0.083473481
1.1014144 7.4140034 -0.65575975 125 5 -0.083471179
1.1582134 7.7869868 1.5302882 145 13 -0.083468877
1.612399 10.82758 -0.57370681 135 6 -0.083466575
0.86785358 5.8208556 1.3587044 54 14 -0.083464272
1.0433357 6.9894824 -0.12335361 6 7 -0.083461963
0.87919647 5.8828359 1.5938078 43 15 -0.08345966
0.64542705 4.2828517 -1.1605446 3 0 -0.083438925
2.3490827 15.569386 0.2748405 48 8 -0.083436623
0.78035682 5.165966 -1.2061876 3 1 -0.083434314
2.927175 19.35504 1.0258895 25 9 -0.083432011
0.81203109 5.3693047 -1.0555553 63 2 -0.083429709
2.1454961 14.169749 1.2538224 28 10 -0.083427407
0.88347411 5.8279409 -0.93360102 67 3 -0.083425097
1.693386 11.157479 1.3856546 37 11 -0.083422795
1.06998 7.0416837 -0.87453443 66 4 -0.083420493
1.3903949 9.1396093 1.4642268 30 12 -0.08341819
1.1290872 7.4219317 -0.65680563 129 5 -0.083415888
1.1877549 7.7984228 1.5333412 149 13 -0.083413579
0.88905066 5.8235693 1.3600541 67 14 -0.083408974
1.0659162 6.9739366 -0.12314418 7 7 -0.083406672
0.90089363 5.8873696 1.5958784 43 15 -0.083404362
0.65978301 4.2767539 -1.1595093 3 0 -0.083383627
2.4064722 15.580853 0.27518955 17 8 -0.083381325
0.78409183 5.0707693 -1.1845922 11 1 -0.083379023
3.0331614 19.615637 1.0402296 9 9 -0.083376713
0.82896537 5.3547974 -1.0532657 61 2 -0.083374411
2.1915917 14.140515 1.2519051 28 10 -0.083372109
0.90502506 5.8326287 -0.93485248 67 3 -0.083369806
1.7323202 11.1515 1.3856546 40 11 -0.083367504
1.0963857 7.049675 -0.87599689 63 4 -0.083365194
1.420997 9.1368999 1.4645396 31 12 -0.083362892
1.1531506 7.4061327 -0.65575975 127 5 -0.08336059
1.2149675 7.79423 1.5333412 149 13 -0.083358288
0.90997648 5.8242812 1.3609538 60 14 -0.083353676
1.0844084 6.9407282 -0.12262061 9 7 -0.083351374
0.91802239 5.869081 1.5917372 43 15 -0.083349071
0.67380518 4.2687001 -1.1579564 3 0 -0.083328329
3.1425045 19.90844 0.3518056 6 8 -0.083326027
0.80485374 5.0931649 -1.190441 5 1 -0.083323725
3.0625892 19.358341 1.0271456 15 9 -0.083321422
0.85011035 5.3673825 -1.0563186 17 2 -0.08331912
2.2412472 14.134748 1.2520794 28 10 -0.08331681
0.92219239 5.8159394 -0.93266243 48 3 -0.083314508
1.7702218 11.151576 1.3863858 42 11 -0.083312206
1.1203824 7.049921 -0.87648439 63 4 -0.083309904
1.4522638 9.1279821 1.4639139 31 12 -0.083307594
1.1783675 7.398128 -0.65541118 131 5 -0.083305292
1.2417362 7.7959747 1.5344861 139 13 -0.08330299
0.93020594 5.8270049 1.3623036 56 14 -0.083298378
1.110837 6.9507232 -0.12286495 10 7 -0.083296075
0.8579312 5.3622365 1.4550807 48 15 -0.083293773
0.68887872 4.2721639 -1.1595093 3 0 -0.083273038
3.2097437 19.88353 0.35156128 39 8 -0.083270736
0.82356137 5.0960956 -1.1917907 1 1 -0.083268426
3.1307867 19.351477 1.027355 25 9 -0.083266124
0.957892 5.9207563 -1.165843 26 2 -0.083263822
2.2877927 14.125271 1.2519051 2 10 -0.08326152
1.8078679 11.137489 1.3854109 39 11 -0.083256908
1.141162 7.0224547 -0.87355953 55 4 -0.083254606
1.4853845 9.1306562 1.4651654 28 12 -0.083252303
1.2041723 7.4020457 -0.65610844 130 5 -0.083249994
1.2676777 7.7838416 1.5329596 136 13 -0.083247691
0.95116693 5.827569 1.3632034 56 14 -0.083243087
1.1370262 6.9586449 -0.12307438 10 7 -0.083240777
0.95960045 5.8663416 1.5927725 31 15 -0.083238475
0.70284373 4.2640152 -1.1579564 3 0 -0.08321774
3.2797773 19.87615 0.35163108 100 8 -0.083215438
0.83880538 5.0778074 -1.1881914 2 1 -0.083213136
3.1970096 19.33255 1.0269363 21 9 -0.083210826
0.97887266 5.9193139 -1.1662247 21 2 -0.083208524
2.3494546 14.191893 1.2585289 2 10 -0.083206221
1.1497756 6.9377112 -1.1138135 4 3 -0.083203919
1.8412083 11.09782 1.3812673 9 11 -0.08320161
1.1682719 7.0340948 -0.87550944 64 4 -0.083199307
1.5166017 9.1215181 1.4645396 28 12 -0.083197005
1.2306585 7.4017282 -0.65645707 117 5 -0.083194703
0.96829844 5.8049917 1.3587044 54 14 -0.083187789
1.1616373 6.9566059 -0.12310927 12 7 -0.083185486
0.9797523 5.8610511 1.5922549 39 15 -0.083183184
0.71772474 4.2615356 -1.1579564 3 0 -0.083162442
3.3491433 19.864578 0.35163108 87 8 -0.08316014
0.86236185 5.109437 -1.1962898 1 1 -0.083157837
3.2577822 19.302145 1.0258895 21 9 -0.083155535
0.9965868 5.898438 -1.1627901 35 2 -0.083153225
2.3870144 14.112884 1.2522538 28 10 -0.083150923
1.1693676 6.9063892 -1.1094334 11 3 -0.083148621
1.879607 11.089369 1.3810235 3 11 -0.083146319
1.1934808 7.0338879 -0.87599689 63 4 -0.083144009
1.5458483 9.1105976 1.4636011 16 12 -0.083141707
1.2574872 7.4032803 -0.65697998 124 5 -0.083139405
1.3117862 7.7148023 1.5211295 26 13 -0.083137102
2.6027143 15.290787 -0.81288213 6 6 -0.0831348
0.98888177 5.8034968 1.3591542 48 14 -0.083132491
1.1833582 6.9448304 -0.12296966 12 7 -0.083130188
1.0004809 5.865387 1.5943254 39 15 -0.083127886
0.73292255 4.2609086 -1.1584741 3 0 -0.083107151
3.4166896 19.86322 0.3518056 84 8 -0.083104841
0.87797689 5.0988679 -1.1944902 1 1 -0.083102539
3.3258233 19.29459 1.0260988 21 9 -0.083100237
1.0181732 5.9007273 -1.1639349 19 2 -0.083097935
2.435921 14.102503 1.2520794 28 10 -0.083095625
1.1811666 6.8382373 -1.0991087 2 3 -0.083093323
1.2168015 7.029891 -0.87599689 61 4 -0.083088718
1.5732548 9.0798435 1.4595338 6 12 -0.083086416
1.2816212 7.38903 -0.65610844 126 5 -0.083084106
1.3376998 7.7123437 1.5215111 25 13 -0.083081804
2.6523852 15.276167 -0.81256813 1 6 -0.083079502
1.0087878 5.8040261 1.3600541 13 14 -0.0830772
1.2069093 6.9367166 -0.12289985 11 7 -0.08307489
0.98846561 5.6753454 1.5435969 20 15 -0.083072588
0.74771488 4.26226 -1.1595093 3 0 -0.083051853
3.4849718 19.845261 0.3517009 87 8 -0.083049551
0.89374691 5.0842562 -1.1917907 1 1 -0.083047241
3.3897843 19.283457 1.0260988 21 9 -0.083044939
1.0384116 5.901186 -1.1646981 21 2 -0.083042637
2.4802575 14.080611 1.2508591 28 10 -0.083040334
1.1967986 6.7873831 -1.0915998 3 3 -0.083038032
1.9550413 11.076319 1.3810235 19 11 -0.083035722
1.2420224 7.0295115 -0.87648439 64 4 -0.08303342
1.3314919 7.5358849 1.2120544 1 12 -0.083031118
1.3054216 7.3808155 -0.65575975 113 5 -0.083028816
1.363242 7.6998949 1.5199846 26 13 -0.083026506
2.6202979 14.784995 -0.78692347 9 6 -0.083024204
1.0327874 5.8215761 1.365003 1 14 -0.083021902
1.2281578 6.922832 -0.12272533 5 7 -0.083019599
0.95998907 5.4057436 1.4711276 80 15 -0.08301729
0.76293004 4.2615256 -1.160027 3 0 -0.082996555
3.5500531 19.829659 0.35163108 87 8 -0.082994252
0.91197836 5.0889368 -1.1935903 1 1 -0.08299195
3.4577768 19.27544 1.0263082 25 9 -0.082989648
1.0642107 5.9265103 -1.1704224 19 2 -0.082987338
2.5304542 14.07775 1.2513821 28 10 -0.082985036
1.2255923 6.8183732 -1.0972315 21 3 -0.082982734
1.9886 11.052189 1.3788298 26 11 -0.082980432
1.264621 7.0214462 -0.87599689 64 4 -0.082978122
1.6718286 9.2730474 1.492385 1 12 -0.08297582
1.2795141 7.0899496 -0.6303103 24 5 -0.082973517
2.6558175 14.701539 -0.78294599 70 6 -0.082968906
1.2036252 6.656127 1.5616102 43 14 -0.082966603
2.5765755 14.234485 -0.25250143 18 7 -0.082964301
1.0591023 5.8452697 1.5917372 45 15 -0.082961999
0.77913922 4.2703748 -1.1631329 3 0 -0.082941264
3.6210518 19.826982 0.3518056 84 8 -0.082938954
0.90380007 4.9438672 -1.1602976 9 1 -0.082936652
3.5257638 19.267181 1.0265175 12 9 -0.08293435
1.0827993 5.9171548 -1.1692775 16 2 -0.082932048
2.576762 14.067322 1.2512078 28 10 -0.082929738
1.2451056 6.7907386 -1.093477 11 3 -0.082927436
2.0260952 11.039323 1.3780986 27 11 -0.082925133
1.2884073 7.0130844 -0.87550944 64 4 -0.082922831
1.6705974 9.0845318 1.4629753 11 12 -0.082920521
1.2983323 7.0601935 -0.62804425 13 5 -0.082918219
1.2233419 6.6458659 1.3135291 7 13 -0.082915917
2.70278 14.668608 -0.78168994 13 6 -0.082913615
1.2229595 6.6308055 1.5566614 42 14 -0.082911305
2.6284294 14.237203 -0.25271085 84 7 -0.082909003
1.0798523 5.8434367 1.5922549 43 15 -0.082906701
0.79510212 4.2733264 -1.1646857 4 0 -0.082885966
3.6909666 19.818153 0.35187542 84 8 -0.082883663
0.91819608 4.9253559 -1.1566983 9 1 -0.082881354
3.5908041 19.242975 1.0258895 21 9 -0.082879052
1.1149732 5.9750967 -1.1814893 7 2 -0.082876749
2.6254816 14.056284 1.2510335 23 10 -0.082874447
1.2571868 6.724215 -1.0834652 43 3 -0.082872137
2.0664461 11.041939 1.3793174 26 11 -0.082869835
1.3136091 7.0124464 -0.87599689 64 4 -0.082867533
1.7033927 9.0844698 1.4639139 26 12 -0.082865231
1.2516048 6.6685686 1.3188719 1 13 -0.082860619
2.7609701 14.69638 -0.78367871 36 6 -0.082858317
1.0798538 5.73142 1.5627494 11 15 -0.082851402
0.80533093 4.2458515 -1.1579564 6 0 -0.082830667
3.7619925 19.81497 0.35204995 87 8 -0.082828365
0.93392688 4.914463 -1.1548988 9 1 -0.082826063
3.6568198 19.22444 1.0255755 21 9 -0.082823753
1.1446241 6.0174575 -1.1906482 4 2 -0.082821451
2.6737895 14.043118 1.2506849 26 10 -0.082819149
1.3050604 6.8478556 -1.1041147 19 3 -0.082816847
2.1064575 11.042459 1.3802923 26 11 -0.082814537
1.3395703 7.0156178 -0.8769719 64 4 -0.082812235
1.7354662 9.0804081 1.4642268 22 12 -0.082809933
1.2682303 6.6294508 1.3120028 2 13 -0.082805328
2.9166789 15.231981 -0.81277746 9 6 -0.082803018
1.2714255 6.6335888 1.5593606 5 14 -0.082800716
2.9334648 15.290786 -0.27176887 2 7 -0.082798414
1.1191635 5.828166 1.5901842 39 15 -0.082796112
0.80328315 4.1557646 -1.1341451 11 0 -0.082775369
3.8299839 19.795832 0.35194522 94 8 -0.082773067
0.9544118 4.9283919 -1.1589478 8 1 -0.082770765
3.7277093 19.231165 1.0266222 21 9 -0.082768463
1.1686124 6.0288439 -1.1937011 2 2 -0.08276616
2.720886 14.023923 1.2498133 21 10 -0.082763851
1.3093722 6.7424226 -1.0878454 5 3 -0.082761548
2.14272 11.023347 1.3788298 26 11 -0.082759246
1.364808 7.0147963 -0.87745935 61 4 -0.082756944
1.7690384 9.0839901 1.4657912 23 12 -0.082754634
2.9690931 15.246255 -1.3589324 3 5 -0.082752332
1.2894875 6.6153483 1.3100946 6 13 -0.08275003
2.9709823 15.227589 -0.81309152 7 6 -0.082747728
1.3177292 6.7476926 1.5872546 1 14 -0.082745418
2.9921963 15.307928 -0.27225754 2 7 -0.082743116
1.1383896 5.8185363 1.5886314 35 15 -0.082740813
0.81629056 4.1453528 -1.1320745 18 0 -0.082720079
3.8998396 19.786264 0.35201502 81 8 -0.082717776
0.96821588 4.9078231 -1.1548988 9 1 -0.082715467
3.7948115 19.218037 1.0266222 21 9 -0.082713164
1.2044036 6.0938563 -1.2074393 2 2 -0.082710862
2.7725298 14.02802 1.2510335 26 10 -0.08270856
1.3313681 6.7300591 -1.0865939 43 3 -0.08270625
2.1807978 11.013854 1.3785861 27 11 -0.082703948
1.390828 7.0177784 -0.8784343 61 4 -0.082701646
1.8003546 9.0758209 1.4654782 16 12 -0.082699344
3.02495 15.235271 -1.3589324 50 5 -0.082697034
1.313341 6.6086526 1.309713 10 13 -0.082694732
1.4405217 7.2419882 -0.3869721 1 6 -0.082692429
1.3321526 6.6971803 1.576457 1 14 -0.082690127
3.0440476 15.289546 -0.27211791 2 7 -0.082687818
1.0371194 5.2044668 1.4219519 24 15 -0.082685515
0.83147967 4.142333 -1.1320745 15 0 -0.08266478
3.9727323 19.773796 0.35204995 71 8 -0.082662478
0.98542804 4.9004202 -1.1539989 9 1 -0.082660176
3.8640468 19.198124 1.0263082 21 9 -0.082657866
1.2499954 6.2048769 -1.2303365 2 2 -0.082655564
2.8239303 14.017763 1.2510335 16 10 -0.082653262
1.3540723 6.7154522 -1.0850296 48 3 -0.082650959
2.2207613 11.00384 1.3783424 26 11 -0.08264865
1.4141836 7.0009589 -0.8769719 63 4 -0.082646348
1.834388 9.0730343 1.466104 15 12 -0.082644045
3.0230782 14.938971 -1.3334829 11 5 -0.082641743
1.3371662 6.6018696 1.3093314 15 13 -0.082639433
1.4670537 7.23666 -0.3869721 45 6 -0.082637131
1.338491 6.602488 1.5553117 21 14 -0.082634829
3.1072278 15.313561 -0.27274621 2 7 -0.082632527
1.0573425 5.2063103 1.4235048 46 15 -0.082630217
0.84549415 4.1335802 -1.1305215 11 0 -0.082609482
3.231817 15.786125 0.28126299 72 8 -0.08260718
1.0065107 4.9120488 -1.1575981 8 1 -0.082604878
3.9278255 19.168867 1.0254709 21 9 -0.082602575
2.8748918 14.005366 1.2508591 26 10 -0.082597964
1.3810604 6.7220545 -1.0869068 37 3 -0.082595661
2.2618744 10.999516 1.3788298 26 11 -0.082593359
1.4390354 6.9918399 -0.87648439 63 4 -0.082591049
1.8636608 9.054966 1.4642268 12 12 -0.082588747
3.0498784 14.805388 -1.3225012 1 5 -0.082586445
1.3602015 6.5971622 1.3093314 21 13 -0.082584143
1.3626798 6.597538 1.5553117 40 14 -0.082579531
3.1525702 15.263455 -0.27204812 2 7 -0.082577229
0.85794842 4.1211476 -1.1279335 15 0 -0.082554191
3.28862 15.796857 0.28164694 87 8 -0.082551882
1.0220004 4.9048681 -1.1566983 11 1 -0.082549579
3.9959416 19.160904 1.0257849 6 9 -0.082547277
2.9217219 13.985496 1.2499877 26 10 -0.082542665
1.4053655 6.7271056 -1.0884712 32 3 -0.082540363
2.3007786 11.003613 1.3802923 24 11 -0.082538061
1.4638382 6.994801 -0.87745935 63 4 -0.082535759
1.8940403 9.0426064 1.4632881 12 12 -0.082533449
3.0917327 14.747851 -1.3183178 82 5 -0.082531147
1.3812672 6.5887723 1.3085681 26 13 -0.082528844
3.1855373 15.182114 -0.81298679 9 6 -0.082526542
1.3833508 6.5872617 1.5539619 36 14 -0.08252424
3.209125 15.268012 -0.27232736 2 7 -0.08252193
1.2284826 5.8396721 1.5989841 1 15 -0.082519628
0.87201101 4.1201696 -1.1284511 11 0 -0.082498893
3.3437455 15.78528 0.28164694 99 8 -0.082496591
1.0407311 4.908896 -1.1584979 9 1 -0.082494281
4.0635982 19.167086 1.0268315 18 9 -0.082491979
2.9660113 13.965985 1.2491161 23 10 -0.082487375
2.3399982 10.999398 1.3807799 24 11 -0.082482763
1.4886576 6.9915905 -0.87770307 60 4 -0.08248046
1.9248372 9.0401402 1.4639139 12 12 -0.082478158
3.1476779 14.770646 -1.3212811 33 5 -0.082475856
1.4018023 6.5723896 1.3062785 33 13 -0.082473546
3.2414291 15.184575 -0.81371951 9 6 -0.082471244
1.4087811 6.5938268 1.5566614 42 14 -0.082468942
3.2639203 15.276841 -0.27267641 2 7 -0.08246664
1.1036274 5.1611409 1.4141873 3 15 -0.08246433
0.88760871 4.122766 -1.130004 12 0 -0.082443595
4.2487798 19.734737 0.35236409 81 8 -0.082441293
1.0557737 4.8997025 -1.1571481 9 1 -0.08243899
4.1313171 19.156691 1.0270408 21 9 -0.082436688
3.0172715 13.967231 1.250162 23 10 -0.082432076
1.5762558 7.2966352 -1.1823319 2 3 -0.082429774
2.373522 10.977998 1.3790736 21 11 -0.082427472
1.5130959 6.9924355 -0.8784343 66 4 -0.082425162
1.9551295 9.0275736 1.4629753 11 12 -0.08242286
1.596653 7.3661542 -0.65942037 1 5 -0.082420558
1.4219216 6.5600314 1.304752 51 13 -0.082418256
3.0631154 14.119739 -0.75719666 105 6 -0.082415946
1.4298109 6.58531 1.5557615 42 14 -0.082413644
3.3303797 15.325934 -0.27375844 14 7 -0.082411341
1.2620453 5.8028588 1.5912195 39 15 -0.082409039
0.9004488 4.1160254 -1.1289687 9 0 -0.082388304
4.3227692 19.743229 0.35278293 100 8 -0.082385994
1.0707837 4.8864698 -1.1548988 9 1 -0.082383692
4.1935425 19.13703 1.0267268 21 9 -0.08238139
1.3433191 6.1250591 -1.2188879 2 2 -0.082379088
3.0631421 13.955204 1.2499877 23 10 -0.082376778
1.5474623 7.0441294 -1.1422846 4 3 -0.082374476
2.402879 10.928929 1.373955 11 11 -0.082372174
1.5379233 6.9890504 -0.87867808 75 4 -0.082369871
1.9863315 9.0268278 1.4639139 9 12 -0.082367562
1.5649378 7.1059237 -0.63658553 3 5 -0.08236526
1.445236 6.5569448 1.3051336 62 13 -0.082362957
3.0943172 14.027044 -0.75280046 100 6 -0.082360655
1.4536281 6.584085 1.5566614 42 14 -0.082358345
3.7295241 16.892563 -0.30196151 70 7 -0.082356043
1.2825305 5.8043013 1.5927725 37 15 -0.082353741
0.9164899 4.1204 -1.1310393 15 0 -0.082333006
4.3890901 19.732687 0.35285276 84 8 -0.082330704
1.0874044 4.8847947 -1.1553485 8 1 -0.082328394
4.2585859 19.114479 1.0263082 21 9 -0.082326092
1.377511 6.1778188 -1.2303365 2 2 -0.08232379
3.112267 13.946371 1.250162 26 10 -0.082321487
1.500252 6.722775 -1.0909741 7 3 -0.082319178
2.4486301 10.963522 1.3793174 22 11 -0.082316875
2.0169599 9.0159855 1.4632881 9 12 -0.082312271
1.5235682 6.8048906 -0.6100902 7 5 -0.082309961
1.4742655 6.5846844 1.3116212 52 13 -0.082307659
3.1386294 14.006962 -0.75227708 100 6 -0.082305357
1.4728938 6.5678201 1.5539619 42 14 -0.082303055
3.7911 16.89115 -0.30217096 99 7 -0.082300752
1.302785 5.7997885 1.5927725 37 15 -0.082298443
0.92972004 4.1154542 -1.1305215 11 0 -0.082278013
4.4588208 19.721148 0.35292256 81 8 -0.082275711
1.1070307 4.8923731 -1.158048 8 1 -0.082273409
4.327033 19.10729 1.0267268 21 9 -0.082271099
1.3979857 6.1732178 -1.2303365 2 2 -0.082268797
3.15674 13.928201 1.2494646 23 10 -0.082266495
1.5101653 6.6577768 -1.0812751 41 3 -0.082264192
2.4860086 10.951035 1.3788298 22 11 -0.082261883
1.5093731 6.6435342 -0.83651125 41 4 -0.08225958
2.0475459 9.0050364 1.4626625 9 12 -0.082257278
1.5103425 6.6424346 -0.59597093 38 5 -0.082254976
1.4955006 6.5718408 1.3100946 40 13 -0.082252666
3.1901617 14.007605 -0.75290513 100 6 -0.082250364
3.8464842 16.862213 -0.30189171 100 7 -0.08224576
1.321731 5.789556 1.5912195 39 15 -0.08224345
0.94278431 4.1065354 -1.1289687 15 0 -0.082222715
4.5262957 19.699615 0.35281786 78 8 -0.082220413
1.1280309 4.9055719 -1.1620972 9 1 -0.082218111
4.392365 19.086229 1.0264128 18 9 -0.082215808
1.4195274 6.1683002 -1.2303365 2 2 -0.082213499
3.2040014 13.911271 1.2489418 26 10 -0.082211196
2.52332 10.938425 1.3783424 24 11 -0.082206592
2.0794096 8.9997597 1.4629753 8 12 -0.08220198
1.5193117 6.5704074 1.3108579 30 13 -0.082197376
3.2390413 13.996383 -0.75290513 100 6 -0.082195066
1.3076587 5.6461024 1.3380089 5 14 -0.082192764
3.9062123 16.852583 -0.30196151 97 7 -0.082190461
1.3410606 5.7811422 1.5901842 39 15 -0.082188159
0.95623654 4.0994568 -1.1279335 13 0 -0.082167424
4.5963821 19.689539 0.35292256 81 8 -0.082165115
1.1398288 4.8788323 -1.1566983 8 1 -0.082162812
4.4635143 19.090229 1.0274596 3 9 -0.08216051
1.4410517 6.1633067 -1.2303365 2 2 -0.082158208
3.2534397 13.903884 1.2492903 21 10 -0.082155898
1.9462111 8.3107624 -1.3519068 1 3 -0.082153596
2.5614898 10.929549 1.3783424 24 11 -0.082151294
2.1099114 8.9885998 1.4623495 8 12 -0.082146682
1.9974111 8.5093279 -0.76470447 20 5 -0.08214438
1.5373002 6.5440397 1.3066601 27 13 -0.082142077
3.2851262 13.97333 -0.75227708 90 6 -0.082139775
1.3278042 5.6434002 1.3384588 22 14 -0.082137473
3.9686861 16.854416 -0.30224079 89 7 -0.082135163
1.3607854 5.7745466 1.5896666 37 15 -0.082132861
0.97232121 4.1036129 -1.130004 15 0 -0.082112126
4.6678576 19.685049 0.35313201 81 8 -0.082109824
1.1546038 4.8653436 -1.1544489 9 1 -0.082107514
4.533812 19.090076 1.0282969 6 9 -0.082105212
1.4625556 6.1582394 -1.2303365 2 2 -0.08210291
3.3033395 13.898257 1.2498133 19 10 -0.082100607
1.9770401 8.3116055 -1.3531584 1 3 -0.082098298
2.5968649 10.908956 1.3768799 24 11 -0.082095996
2.1435678 8.9907866 1.4639139 6 12 -0.082091391
2.0280287 8.5061798 -0.76505315 49 5 -0.082089089
1.5633221 6.5520015 1.3093314 10 13 -0.082086779
1.3479497 5.640626 1.3389087 48 14 -0.082082175
4.6986623 19.646879 -0.35260841 87 7 -0.082079872
1.2145579 5.0746093 1.3981405 18 15 -0.082077563
0.98799646 4.1058283 -1.1315569 9 0 -0.082056828
4.7370157 19.670578 0.35316688 78 8 -0.082054526
1.1765989 4.8821235 -1.1593977 9 1 -0.082052223
4.5966806 19.058603 1.0274596 18 9 -0.082049914
1.4840447 6.1530967 -1.2303365 2 2 -0.082047611
3.3523045 13.888578 1.2499877 26 10 -0.082045309
1.9967589 8.2662525 -1.3469009 1 3 -0.082043007
2.6349313 10.899824 1.3768799 24 11 -0.082040705
2.1679597 8.9544516 1.4592208 9 12 -0.082036093
2.0549674 8.4812632 -0.7634843 55 5 -0.082033791
1.5875721 6.5522285 1.3104763 1 13 -0.082031488
1.3644129 5.6226301 1.3357594 48 14 -0.082026877
4.7223883 19.445753 -0.34929249 21 7 -0.082024574
1.2336341 5.0759702 1.3996935 16 15 -0.082022272
1.0007434 4.0927968 -1.1289687 11 0 -0.08200153
4.8094463 19.669464 0.35344613 81 8 -0.081999227
1.1940981 4.879879 -1.1598476 8 1 -0.081996925
4.6603246 19.0308 1.0268315 18 9 -0.081994623
1.4972395 6.1094794 -1.2227042 2 2 -0.081992321
3.4036577 13.878133 1.250162 26 10 -0.081990011
1.9578323 7.9768658 -1.3009092 3 3 -0.081987709
2.673912 10.894415 1.3773675 24 11 -0.081985407
2.2001491 8.9506674 1.4598466 11 12 -0.081980795
2.0759952 8.4392118 -0.76034665 54 5 -0.081978492
1.9189661 7.7950172 1.560436 23 13 -0.08197619
2.9272761 11.881931 -0.64132488 1 6 -0.081973888
1.3859462 5.6213756 1.3366592 28 14 -0.081971578
4.1047602 16.648842 -0.29930878 100 7 -0.081969276
1.2467163 5.0528774 1.3945172 50 15 -0.081966974
1.0150249 4.0892782 -1.1289687 13 0 -0.081946239
4.8795738 19.643944 0.35330653 81 8 -0.081943937
1.2119746 4.8754702 -1.1598476 8 1 -0.081941627
4.7329431 19.025223 1.0274596 18 9 -0.081939325
1.5280372 6.1423192 -1.2303365 2 2 -0.081937023
3.4511151 13.862302 1.2498133 23 10 -0.08193472
1.9880472 7.9795685 -1.3024734 1 3 -0.081932411
2.7171834 10.898026 1.3790736 21 11 -0.081930108
2.2295926 8.9291267 1.4576566 12 12 -0.081925504
2.0967512 8.3971205 -0.75720912 49 5 -0.081923194
1.9452143 7.7844615 1.5596728 31 13 -0.081920892
3.4959095 13.979741 -0.7552079 10 6 -0.08191859
1.4069782 5.6221752 1.3380089 28 14 -0.081916288
4.1638064 16.625925 -0.29916915 92 7 -0.081913978
1.2661681 5.052021 1.3955523 39 15 -0.081911676
1.0297641 4.087584 -1.1294864 14 0 -0.081890941
4.9515414 19.640364 0.35355085 87 8 -0.081888638
1.2285104 4.8693199 -1.1593977 9 1 -0.081886336
4.7963862 18.996965 1.0268315 18 9 -0.081884027
1.5369714 6.0874562 -1.2204144 2 2 -0.081881724
3.4994862 13.85017 1.2498133 23 10 -0.081879422
2.0846534 8.2445259 -1.3469009 1 3 -0.08187712
2.752284 10.876928 1.3776112 24 11 -0.08187481
2.2622011 8.9270334 1.4585952 13 12 -0.081870206
2.1172383 8.3549852 -0.75407147 50 5 -0.081867903
1.9627218 7.7395649 1.5520406 18 13 -0.081865594
2.1636572 8.5256643 -0.46097517 35 6 -0.081863292
1.4347482 5.6493387 1.3456572 1 14 -0.081860989
4.0632057 15.987229 -0.2879298 100 7 -0.081858687
1.4566493 5.7271957 1.5834551 31 15 -0.081856385
1.0445037 4.0858364 -1.130004 12 0 -0.081835642
5.0220561 19.630707 0.35369048 84 8 -0.08183334
1.2440491 4.8593388 -1.158048 6 1 -0.081831038
4.8608389 18.986761 1.0271456 21 9 -0.081828736
1.558213 6.0820541 -1.2204144 2 2 -0.081826426
3.5502884 13.847519 1.2506849 26 10 -0.081824124
2.1134176 8.2371988 -1.3469009 1 3 -0.081821822
2.786782 10.853794 1.375905 26 11 -0.081819519
2.2932692 8.9252234 1.4595338 16 12 -0.081814907
2.0913143 8.133357 -0.73472291 47 5 -0.081812605
1.6560682 6.435966 1.291777 8 13 -0.081810303
2.1889238 8.5006514 -0.46003309 46 6 -0.081808001
1.678146 6.5123596 1.5526122 38 14 -0.081805691
4.1171937 15.97754 -0.2879996 100 7 -0.081803389
1.4823884 5.7485223 1.5907019 37 15 -0.081801087
1.0587606 4.0821652 -1.130004 12 0 -0.081780352
5.0911388 19.629433 0.35396972 84 8 -0.081778042
1.2596681 4.8533001 -1.1575981 9 1 -0.08177574
4.9260859 18.965811 1.0269363 21 9 -0.081773438
1.577457 6.0689774 -1.2188879 2 2 -0.081771135
3.5996041 13.838899 1.2510335 26 10 -0.081768826
2.1407239 8.2301445 -1.3469009 1 3 -0.081766523
2.8252571 10.854098 1.3771237 27 11 -0.081764221
2.3239098 8.9152508 1.4592208 22 12 -0.081759617
4.1775327 16.014885 -1.4480054 14 5 -0.081757307
1.6798778 6.4399371 1.2936851 1 13 -0.081755005
2.2060013 8.4508314 -0.45773032 39 6 -0.081752703
1.6997344 6.5067587 1.5526122 33 14 -0.0817504
4.1719337 15.959203 -0.2879298 100 7 -0.081748091
1.5053779 5.7545271 1.5938078 35 15 -0.081745788
1.0732734 4.0823689 -1.1310393 14 0 -0.081725053
5.1642017 19.628946 0.35428387 91 8 -0.081722751
1.2815645 4.8677182 -1.1620972 8 1 -0.081720442
4.9937816 18.954294 1.0272502 6 9 -0.081718139
1.6125779 6.1206679 -1.2303365 2 2 -0.081715837
3.6429334 13.817254 1.250162 26 10 -0.081713535
2.1754889 8.2455416 -1.3506554 1 3 -0.081711233
2.8626239 10.842251 1.3768799 14 11 -0.081708923
2.354008 8.903265 1.4585952 22 12 -0.081704319
1.7043576 6.4416251 1.2952114 1 13 -0.081699707
2.2257721 8.4063959 -0.45574155 27 6 -0.081697404
1.7244351 6.5083199 1.5544118 24 14 -0.081695102
4.2286448 15.948405 -0.2879996 100 7 -0.0816928
1.517032 5.7174945 1.5850078 18 15 -0.08169049
1.0855271 4.0711308 -1.1289687 13 0 -0.081669755
5.2332087 19.61273 0.35431874 87 8 -0.081667453
1.2960312 4.8538022 -1.1598476 6 1 -0.081665151
5.058373 18.93096 1.0269363 21 9 -0.081662849
1.633935 6.1150012 -1.2303365 2 2 -0.081660539
3.6896019 13.798678 1.249639 26 10 -0.081658237
2.1930189 8.1959171 -1.3437722 1 3 -0.081655934
2.9045579 10.847532 1.3788298 22 11 -0.081653632
2.386601 8.9007206 1.4595338 28 12 -0.08164902
1.7263225 6.4337411 1.2948298 3 13 -0.081644416
2.2374949 8.3329916 -0.45218271 19 6 -0.081642106
1.7476469 6.5041432 1.5548617 21 14 -0.081639804
4.2905178 15.956723 -0.28841847 100 7 -0.081637502
1.5414996 5.7289534 1.5896666 37 15 -0.081635199
1.100741 4.0710464 -1.130004 14 0 -0.081614465
5.2995453 19.586626 0.35417914 87 8 -0.081612155
1.3139862 4.8530107 -1.1607474 9 1 -0.081609853
5.1232061 18.921793 1.027355 21 9 -0.08160755
1.655272 6.1092601 -1.2303365 2 2 -0.081605248
3.7367001 13.78187 1.2492903 16 10 -0.081602938
2.2267895 8.2072763 -1.3469009 1 3 -0.081600636
2.9392877 10.825833 1.3773675 29 11 -0.081598334
2.4202495 8.9080057 1.4620367 31 12 -0.081593722
3.6773214 13.525475 -1.2262813 3 5 -0.08159142
1.7451639 6.4144149 1.2921586 7 13 -0.081589118
2.2219701 8.1613264 -0.44328558 36 6 -0.081586815
1.523946 5.5936232 1.3384588 1 14 -0.081584506
4.3434052 15.94241 -0.28841847 100 7 -0.081582204
1.5625232 5.7312651 1.5917372 37 15 -0.081579901
1.1154528 4.0690427 -1.1305215 16 0 -0.081559166
5.3692217 19.5863 0.35449326 81 8 -0.081556864
1.3269802 4.8373499 -1.158048 8 1 -0.081554554
5.1865854 18.894161 1.0268315 21 9 -0.081552252
1.6765831 6.103446 -1.2303365 2 2 -0.08154995
2.2539959 8.1998463 -1.3469009 1 3 -0.081545338
2.9756956 10.817942 1.3776112 35 11 -0.081543036
2.4529054 8.9052162 1.4629753 35 12 -0.081538431
3.8685193 14.035002 -1.2736939 1 5 -0.081536122
1.7643373 6.401022 1.2906321 37 13 -0.081533819
3.8379388 13.914601 -0.756464 12 6 -0.081531517
1.7861756 6.4714332 1.5499128 3 14 -0.081529215
4.4038234 15.944496 -0.28873262 100 7 -0.081526913
1.5835449 5.7295008 1.5927725 37 15 -0.081524603
1.1320429 4.0764899 -1.1336274 12 0 -0.081503868
5.4413109 19.580923 0.35473761 84 8 -0.081501566
1.3443809 4.8345656 -1.1584979 8 1 -0.081499264
5.2503614 18.868246 1.0264128 21 9 -0.081496954
1.6862891 6.0600243 -1.2227042 2 2 -0.081494652
3.8357685 13.77531 1.2510335 21 10 -0.08149235
2.2826071 8.1919279 -1.3469009 1 3 -0.081490047
3.0134368 10.807489 1.3776112 35 11 -0.081487738
2.4807906 8.8851833 1.4610981 38 12 -0.081483133
3.7355528 13.379232 -1.2152996 3 5 -0.081480831
1.7914236 6.4118423 1.2940667 31 13 -0.081478529
3.9155295 14.004987 -0.76211625 3 6 -0.081476219
1.8098062 6.4689121 1.5508126 7 14 -0.081473917
4.4594498 15.929028 -0.28873262 100 7 -0.081471615
1.6035364 5.723938 1.5927725 37 15 -0.081469312
1.140509 4.0520577 -1.1279335 9 0 -0.08144857
5.5117927 19.569513 0.35487723 84 8 -0.081446268
1.3660029 4.8467255 -1.162547 8 1 -0.081443965
5.3161969 18.849804 1.0264128 18 9 -0.081441663
1.699973 6.027647 -1.2173615 2 2 -0.081439361
3.8800392 13.748415 1.2498133 26 10 -0.081437051
2.317625 8.2067242 -1.3506554 1 3 -0.081434749
3.0538454 10.806454 1.3788298 34 11 -0.081432447
2.5101709 8.8707695 1.4601595 37 12 -0.081427835
3.747504 13.243419 -1.2041438 3 5 -0.081425533
1.817005 6.416883 1.2963563 33 13 -0.08142323
3.9415274 13.910524 -0.75772005 9 6 -0.081420928
1.8318398 6.4606814 1.5503626 10 14 -0.081418619
4.5166674 15.919135 -0.28883734 100 7 -0.081416316
1.6219257 5.7127299 1.5912195 39 15 -0.081414014
1.1557034 4.0517678 -1.1289687 12 0 -0.081393279
5.5806227 19.552074 0.35491213 81 8 -0.081390977
1.3839846 4.845675 -1.1634469 8 1 -0.081388667
5.386898 18.848415 1.027355 21 9 -0.081386365
1.7242388 6.0330024 -1.2196511 2 2 -0.081384063
3.929106 13.738617 1.250162 26 10 -0.081381761
2.3397381 8.1757936 -1.3469009 1 3 -0.081379451
3.0926394 10.799546 1.3793174 34 11 -0.081377149
2.5454783 8.8771429 1.4626625 37 12 -0.081372544
3.8167779 13.310695 -1.2114648 5 5 -0.081370234
1.8356012 6.3972917 1.2936851 43 13 -0.081367932
3.9624979 13.800698 -0.75248641 9 6 -0.08136563
1.8554587 6.4579935 1.5512625 15 14 -0.081363328
4.5788426 15.926332 -0.28925619 100 7 -0.081361018
1.638117 5.6940379 1.5875961 37 15 -0.081358716
1.1703771 4.0495648 -1.1294864 10 0 -0.081337981
5.6505108 19.538237 0.35501686 84 8 -0.081335679
1.3949307 4.8202233 -1.1584979 8 1 -0.081333376
5.4465442 18.808397 1.0262035 9 9 -0.081331067
1.7605766 6.0797496 -1.2303365 2 2 -0.081328765
3.9759333 13.72099 1.2498133 28 10 -0.081326462
2.3682609 8.1675777 -1.3469009 1 3 -0.08132416
3.1286561 10.782966 1.3785861 35 11 -0.08132185
2.5769994 8.870101 1.4629753 35 12 -0.081317246
3.8698854 13.32025 -1.2135565 8 5 -0.081314944
1.86066 6.4002724 1.2955931 61 13 -0.081312634
4.0123248 13.792534 -0.75280046 9 6 -0.081310332
1.8785331 6.4533482 1.5517124 21 14 -0.08130803
4.6232119 15.871857 -0.2885581 85 7 -0.081305727
1.441749 4.9464149 1.3805408 1 15 -0.081303418
1.1866781 4.0528703 -1.1315569 10 0 -0.081282683
5.7242956 19.537586 0.3553659 64 8 -0.08128038
1.4150387 4.8265448 -1.1611973 9 1 -0.081278078
5.5177913 18.808434 1.0272502 18 9 -0.081275776
1.7751576 6.0509596 -1.225757 2 2 -0.081273466
4.028852 13.724234 1.2513821 28 10 -0.081271164
2.3911912 8.1403065 -1.3437722 1 3 -0.081268862
3.1657197 10.770075 1.3783424 34 11 -0.08126656
3.9157994 13.304749 -1.2133822 10 5 -0.081259646
1.8824366 6.3918543 1.2952114 66 13 -0.081257343
4.0485859 13.738214 -0.75060236 7 6 -0.081255034
1.6634874 5.6411414 1.3578045 3 14 -0.081252731
4.6848168 15.876719 -0.28894207 78 7 -0.081250429
1.6838465 5.7028437 1.5932901 11 15 -0.081248127
1.2019159 4.0524082 -1.1325922 9 0 -0.081227392
4.6488709 15.664216 0.28520724 63 8 -0.081225082
1.4302149 4.8159709 -1.1598476 6 1 -0.08122278
5.5794249 18.775658 1.0265175 21 9 -0.081220478
1.8029783 6.0673103 -1.2303365 2 2 -0.081218176
4.0755954 13.706268 1.2510335 26 10 -0.081215866
2.4252276 8.1508436 -1.3469009 1 3 -0.081213564
3.2055588 10.766569 1.3793174 34 11 -0.081211261
2.6354797 8.8405352 1.4610981 34 12 -0.08120665
3.967344 13.308182 -1.214951 10 5 -0.081204347
1.9092253 6.4002957 1.2982645 61 13 -0.081202045
4.0799475 13.668497 -0.74756688 13 6 -0.081199743
1.9274472 6.4531465 1.5548617 54 14 -0.081197441
4.7384872 15.854522 -0.28883734 76 7 -0.081195131
1.7015303 5.6895275 1.5912195 13 15 -0.081192829
1.2138319 4.0407867 -1.1305215 14 0 -0.081172094
4.7075472 15.661299 0.28545156 81 8 -0.081169792
1.4464546 4.8090835 -1.1593977 8 1 -0.081167482
5.6445384 18.766613 1.0270408 18 9 -0.08116518
1.8241478 6.0609789 -1.2303365 2 2 -0.081162877
4.1205387 13.682421 1.250162 26 10 -0.081160575
3.991405 13.245233 -2.1910214 1 3 -0.081158265
3.2448435 10.761015 1.3800485 30 11 -0.081155963
2.6653502 8.8336382 1.4614109 31 12 -0.081151359
4.0126195 13.290439 -1.2146025 5 5 -0.081149057
1.9343954 6.4029884 1.3001726 61 13 -0.081146747
4.1293716 13.659907 -0.74788088 9 6 -0.081144445
1.9465792 6.4392586 1.5530621 56 14 -0.081142142
4.5866618 15.163062 -0.27651593 25 7 -0.08113984
1.494845 4.9387035 1.3826115 1 15 -0.081137531
1.2255385 4.0311942 -1.1289687 9 0 -0.081116796
4.7606244 15.649426 0.28552136 78 8 -0.081114493
1.4635284 4.8079896 -1.1602976 8 1 -0.081112191
5.7055726 18.743971 1.0268315 18 9 -0.081109889
1.8350829 6.0248475 -1.2242306 2 2 -0.081107579
4.1653118 13.666775 1.2499877 23 10 -0.081105277
4.0353036 13.231924 -2.1910214 1 3 -0.081102975
3.2828259 10.757792 1.3810235 29 11 -0.081100672
2.6969347 8.8323078 1.4626625 34 12 -0.081096061
4.0578322 13.28087 -1.214951 5 5 -0.081093758
1.9544686 6.3927841 1.2994094 56 13 -0.081091456
4.483726 14.656469 -0.80325234 55 6 -0.081089146
1.9702009 6.4402218 1.5548617 57 14 -0.081086844
4.62638 15.113352 -0.27588764 51 7 -0.081084542
1.501597 4.902317 1.3738115 28 15 -0.08108224
1.2383327 4.0252614 -1.1284511 11 0 -0.081061505
4.8119025 15.631644 0.28548649 75 8 -0.081059195
1.4777446 4.7975221 -1.1589478 6 1 -0.081056893
5.6301255 18.278296 1.0023383 18 9 -0.081054591
1.8643057 6.0487475 -1.2303365 2 2 -0.081052288
4.2094321 13.649079 1.249639 23 10 -0.081049979
2.507611 8.1258764 -1.3469009 1 3 -0.081047677
3.3149712 10.735465 1.3795611 29 11 -0.081045374
2.7250409 8.8195429 1.4620367 31 12 -0.081040762
4.1136241 13.305409 -1.2184372 3 5 -0.08103846
1.973338 6.3787656 1.2978829 57 13 -0.081036158
4.4189048 14.275198 -0.78315532 39 6 -0.081033856
1.9926978 6.437377 1.5557615 63 14 -0.081031546
4.680027 15.109386 -0.27609706 23 7 -0.081029244
1.5195602 4.9028468 1.3753644 54 15 -0.081026942
1.2551183 4.0322003 -1.1315569 10 0 -0.081006207
6.0726585 19.497066 0.35644796 67 8 -0.081003904
1.491905 4.7870145 -1.1575981 8 1 -0.081001595
5.8303566 18.707626 1.0269363 21 9 -0.080999292
1.8703251 5.99755 -1.2211776 2 2 -0.08099699
4.2552681 13.636947 1.2498133 26 10 -0.080994688
2.5345418 8.1175165 -1.3469009 1 3 -0.080992378
2.7578115 8.8217688 1.4639139 34 12 -0.080985472
4.1565318 13.287893 -1.2180886 3 5 -0.080983162
1.9921359 6.3646913 1.2963563 71 13 -0.08098086
4.4608502 14.243311 -0.78221327 18 6 -0.080978557
2.0117061 6.4232945 1.5539619 56 14 -0.080976255
4.9794641 15.8895 -0.29065239 59 7 -0.080973953
1.5410138 4.9143705 1.3800232 16 15 -0.080971643
1.2710515 4.0312576 -1.1325922 12 0 -0.080958605
6.1500902 19.49375 0.35679698 87 8 -0.080956303
1.5117857 4.7889476 -1.1593977 8 1 -0.080954
5.8973374 18.669863 1.0260988 9 9 -0.080951691
1.9064887 6.0355849 -1.2303365 2 2 -0.080949388
4.3070264 13.626957 1.2503363 23 10 -0.080947086
2.5642753 8.1081734 -1.3469009 1 3 -0.080944784
3.4078052 10.768837 1.3868732 1 11 -0.080942474
4.0838318 12.897289 -1.6610793 1 4 -0.080940172
2.7886789 8.8016996 1.4623495 35 12 -0.08093787
4.2076101 13.280167 -1.2187859 3 5 -0.080935568
2.0225685 6.3798046 1.3009357 55 13 -0.080933258
4.5329576 14.289688 -0.78566748 21 6 -0.080930956
1.7409818 5.4849563 1.3285609 13 14 -0.080928653
5.0422583 15.875979 -0.29075709 30 7 -0.080926351
1.5575309 4.9010534 1.3779527 22 15 -0.080924042
1.2851127 4.0267973 -1.1325922 10 0 -0.080903307
6.22297 19.4874 0.35707623 87 8 -0.080901004
1.5290875 4.7854972 -1.1598476 6 1 -0.080898702
5.9910455 18.738581 1.0310184 3 9 -0.0808964
1.9203664 6.006454 -1.225757 2 2 -0.08089409
4.3509221 13.600454 1.2492903 26 10 -0.080891788
2.5925648 8.0991716 -1.3469009 1 3 -0.080889486
3.4302294 10.709617 1.3807799 19 11 -0.080887184
4.1239767 12.867832 -1.6591294 1 4 -0.080884874
2.8193877 8.7919111 1.4623495 33 12 -0.080882572
4.2563782 13.272987 -1.2194831 3 5 -0.080880269
2.0508261 6.3913994 1.304752 48 13 -0.080877967
4.577312 14.256664 -0.78472537 16 6 -0.080875657
1.7577347 5.4714241 1.3267614 5 14 -0.080873355
6.2310042 19.384035 -0.3554008 28 7 -0.080871053
1.8153771 5.6440859 1.5886314 43 15 -0.080868751
1.2961932 4.0130949 -1.130004 13 0 -0.080848016
6.2928061 19.471268 0.35718095 84 8 -0.080845706
1.5493795 4.791256 -1.162547 8 1 -0.080843404
6.0330596 18.645342 1.0270408 18 9 -0.080841102
1.9328613 5.9735632 -1.2204144 2 2 -0.080838799
4.3989868 13.587078 1.2494646 26 10 -0.08083649
2.6202097 8.0881939 -1.3465881 1 3 -0.080834188
3.4675949 10.697577 1.3807799 19 11 -0.080831885
4.1725469 12.864687 -1.6605918 1 4 -0.080829583
2.8524978 8.7895327 1.4636011 35 12 -0.080827273
4.3051414 13.265631 -1.2201804 3 5 -0.080824971
2.0713 6.3786011 1.3036071 30 13 -0.080822669
4.9004669 15.082079 -0.8310951 1 6 -0.080820367
1.7774241 5.4671082 1.3272111 9 14 -0.080818065
5.8476539 17.975897 -0.32995519 6 7 -0.080815755
1.8344711 5.6358767 1.5881137 39 15 -0.080813453
1.3119953 4.0140543 -1.1315569 10 0 -0.080792718
6.362586 19.454887 0.35728565 87 8 -0.080790415
1.5648836 4.7821136 -1.1616472 8 1 -0.080788106
6.1005979 18.631762 1.0274596 21 9 -0.080785803
1.9695864 6.0152898 -1.2303365 2 2 -0.080783501
4.4488597 13.579217 1.250162 28 10 -0.080781199
2.6484289 8.0789976 -1.3465881 1 3 -0.080778889
3.503062 10.679748 1.3800485 16 11 -0.080776587
4.2124667 12.834958 -1.6586419 1 4 -0.080774285
2.8843963 8.7832747 1.4642268 33 12 -0.080771983
4.3483162 13.241056 -1.2193089 1 5 -0.08076968
2.0917158 6.365736 1.3024622 31 13 -0.080767371
5.1583071 15.68911 -0.8655321 61 6 -0.080765069
1.7995434 5.4701262 1.3294607 13 14 -0.080762766
5.9178743 17.97817 -0.33037403 9 7 -0.080760464
1.8577551 5.6404495 1.5912195 41 15 -0.080758154
1.3284246 4.0167871 -1.1336274 10 0 -0.080737419
6.4373741 19.453444 0.35766962 87 8 -0.080735117
1.5760553 4.7599721 -1.1575981 8 1 -0.080732815
6.1610985 18.607634 1.0272502 21 9 -0.080730505
1.9806916 5.97856 -1.2242306 2 2 -0.080728203
4.4962368 13.563603 1.250162 57 10 -0.080725901
2.6766157 8.0697031 -1.3465881 1 3 -0.080723599
3.536566 10.656151 1.3785861 17 11 -0.080721296
4.2497396 12.797567 -1.655717 1 4 -0.080718987
2.9159951 8.7811604 1.4654782 35 12 -0.080716684
4.2977643 12.93462 -1.1924649 1 5 -0.080714382
2.111445 6.350944 1.3009357 33 13 -0.08071208
5.2073712 15.653951 -0.86459005 69 6 -0.08070977
1.8161665 5.4564147 1.3276612 13 14 -0.080707468
6.4631138 19.417507 -0.35721585 79 7 -0.080705166
1.8758403 5.6324248 1.5907019 43 15 -0.080702864
1.3430518 4.0139575 -1.1341451 13 0 -0.080682121
6.5050259 19.441467 0.35784414 84 8 -0.080679819
1.5930651 4.7584167 -1.1584979 8 1 -0.080677517
6.2253666 18.584126 1.0271456 21 9 -0.080675215
1.9890717 5.9343801 -1.2165983 2 2 -0.080672912
4.5467262 13.557269 1.2510335 28 10 -0.080670603
2.7033596 8.0607824 -1.3465881 1 3 -0.0806683
3.5756705 10.655657 1.3800485 29 11 -0.080665998
2.9472609 8.7728004 1.4657912 38 12 -0.080661386
4.3581157 12.964868 -1.1966484 1 5 -0.080659084
2.141876 6.3718219 1.3066601 23 13 -0.080656782
5.2548008 15.623343 -0.86385739 60 6 -0.08065448
1.8336279 5.4485154 1.3272111 16 14 -0.08065217
6.5321255 19.398619 -0.35728565 87 7 -0.080649868
1.8973418 5.6313348 1.5922549 41 15 -0.080647565
1.3520207 3.9966717 -1.1305215 12 0 -0.08062683
6.5779748 19.433796 0.35812336 84 8 -0.080624528
1.6134175 4.7639008 -1.1611973 8 1 -0.080622219
6.2876401 18.554712 1.0267268 25 9 -0.080619916
2.0087388 5.9277515 -1.2165983 2 2 -0.080617614
4.5942149 13.549665 1.2517307 83 10 -0.080615312
2.7314789 8.0512981 -1.3465881 1 3 -0.080613002
2.9708719 8.7418861 1.4623495 37 12 -0.080606095
4.3985243 12.942798 -1.1959511 1 5 -0.080603786
2.1672664 6.3736 1.3085681 25 13 -0.080601484
5.297729 15.57087 -0.86197329 60 6 -0.080599181
1.8545184 5.4476161 1.3285609 41 14 -0.080596879
6.6036649 19.38706 -0.3574951 83 7 -0.080594569
1.9138726 5.6155334 1.5896666 43 15 -0.080592267
1.3665882 3.9937561 -1.1310393 9 0 -0.080571532
6.6483579 19.418285 0.35826302 84 8 -0.08056923
1.6300381 4.7582393 -1.1611973 8 1 -0.080566928
6.3581948 18.549658 1.027669 25 9 -0.080564618
2.0243242 5.9058461 -1.2135452 2 2 -0.080562316
4.642128 13.535432 1.2519051 73 10 -0.080560014
2.7595687 8.0417137 -1.3465881 1 3 -0.080557711
3.6570652 10.651087 1.3827296 34 11 -0.080555402
4.3297005 12.602935 -1.636218 1 4 -0.0805531
3.0032973 8.7370663 1.4632881 38 12 -0.080550797
4.4436793 12.927364 -1.1959511 3 5 -0.080548495
2.1837533 6.3492875 1.3051336 30 13 -0.080546185
6.6583738 19.348288 -1.0723639 47 6 -0.080543883
1.8779656 5.4540071 1.3317102 11 14 -0.080541581
6.6778073 19.382799 -0.35784414 83 7 -0.080539279
1.7005146 4.9330583 1.3981405 1 15 -0.080536976
1.3811536 3.9907866 -1.1315569 9 0 -0.080516234
6.720686 19.408186 0.35850734 73 8 -0.080513932
1.6453606 4.7488384 -1.1602976 8 1 -0.08051163
6.4137526 18.500929 1.0262035 18 9 -0.080509327
2.0552175 5.9284225 -1.2196511 2 2 -0.080507018
4.692615 13.528556 1.2527766 61 10 -0.080504715
2.787621 8.032032 -1.3465881 1 3 -0.080502413
4.3293605 12.460237 -1.6196437 1 4 -0.080497801
3.0350728 8.7302618 1.4639139 38 12 -0.080495499
4.505785 12.960705 -1.2004832 1 5 -0.080493197
2.2039697 6.3360624 1.3039887 31 13 -0.080490895
6.7265239 19.326815 -1.0724685 53 6 -0.080488592
1.8950684 5.4418983 1.3303605 13 14 -0.080486283
6.7487206 19.368813 -0.3580187 87 7 -0.08048398
1.954299 5.6056843 1.5907019 37 15 -0.080481678
1.3982677 3.9950583 -1.1341451 17 0 -0.080460943
6.7936754 19.399708 0.35878655 80 8 -0.080458634
1.6574175 4.7301917 -1.1571481 8 1 -0.080456331
6.4888711 18.508583 1.0278783 25 9 -0.080454029
2.0836952 5.9434443 -1.2242306 2 2 -0.080451727
4.7384882 13.508334 1.2524281 100 10 -0.080449417
2.8156431 8.0222521 -1.3465881 1 3 -0.080447115
3.7333126 10.630913 1.3834609 47 11 -0.080444813
4.3583479 12.403847 -1.6142814 1 4 -0.080442511
3.066186 8.7214766 1.4642268 11 12 -0.080440208
4.5562887 12.959932 -1.2018777 3 5 -0.080437899
2.2260749 6.32833 1.3039887 66 13 -0.080435596
6.7972569 19.312639 -1.0729918 52 6 -0.080433294
1.9172906 5.4444404 1.33261 16 14 -0.080430992
6.8222756 19.36211 -0.35833281 83 7 -0.080428682
1.9744958 5.6006513 1.5912195 39 15 -0.08042638
1.4115591 3.9883318 -1.1336274 11 0 -0.080405645
6.8680315 19.394724 0.35913563 87 8 -0.080403343
1.6765189 4.7317262 -1.1589478 8 1 -0.080401033
6.5514326 18.480173 1.0275643 28 9 -0.080398731
2.097868 5.9176311 -1.2204144 2 2 -0.080396429
4.7942748 13.516121 1.2546941 49 10 -0.080394126
2.8436272 8.0123758 -1.3465881 1 3 -0.080391824
4.3923182 12.36237 -1.6108691 1 4 -0.080387212
3.1356478 8.8205357 1.482686 1 12 -0.08038491
4.6014967 12.94395 -1.2018777 1 5 -0.080382608
2.2632823 6.3630648 1.312766 33 13 -0.080380298
6.8693218 19.301964 -1.0737246 53 6 -0.080377996
1.9369359 5.4395504 1.3330599 16 14 -0.080375694
6.8166628 19.132854 -0.35452819 70 7 -0.080373392
1.9966298 5.6010032 1.5932901 45 15 -0.080371082
1.4235207 3.9779229 -1.1320745 13 0 -0.080350347
6.9424267 19.38946 0.35948467 87 8 -0.080348045
1.6930268 4.7258449 -1.1589478 8 1 -0.080345742
6.6192751 18.466591 1.0280876 28 9 -0.08034344
2.1158633 5.9028792 -1.2188879 2 2 -0.08034113
4.845458 13.510557 1.2557399 100 10 -0.080338828
2.8715765 8.0024014 -1.3465881 1 3 -0.080336526
4.4408102 12.361908 -1.612819 1 4 -0.080331914
3.1243219 8.6924238 1.4629753 5 12 -0.080329612
6.5571995 18.243305 -1.6960508 12 5 -0.08032731
2.2868104 6.3588204 1.3135291 22 13 -0.080325007
6.9461284 19.304174 -1.0751899 58 6 -0.080322698
1.9545904 5.4290895 1.3321601 37 14 -0.080320396
6.9288187 19.234991 -0.35686684 43 7 -0.080318093
2.0109301 5.5794592 1.589149 43 15 -0.080315791
1.4360803 3.9692979 -1.1310393 12 0 -0.080295056
7.0134754 19.37451 0.35965919 91 8 -0.080292746
1.712832 4.7290668 -1.1611973 8 1 -0.080290444
6.6864042 18.450888 1.0285063 28 9 -0.080288142
2.1565182 5.9508328 -1.2303365 2 2 -0.08028584
4.8905554 13.48794 1.255217 117 10 -0.08028353
4.4893594 12.361258 -1.614769 1 4 -0.080276623
3.1553221 8.683321 1.4632881 34 12 -0.080274314
6.6228876 18.225922 -1.6965737 27 5 -0.080272011
2.3089886 6.350801 1.3135291 10 13 -0.080269709
7.0202947 19.298584 -1.0762367 55 6 -0.080267407
7.0390139 19.329067 -0.35906583 76 7 -0.080262795
2.0303926 5.5724063 1.589149 45 15 -0.080260493
1.4545732 3.9769607 -1.1346627 10 0 -0.080239758
7.0858774 19.36305 0.35990354 100 8 -0.080237456
1.7273182 4.7175698 -1.1598476 8 1 -0.080235146
6.7576447 18.446188 1.0295531 28 9 -0.080232844
2.177279 5.9432688 -1.2303365 2 2 -0.080230542
4.9396682 13.476398 1.2557399 57 10 -0.080228239
2.9273739 7.9821587 -1.3465881 1 3 -0.08022593
3.1910605 8.687089 1.4657912 33 12 -0.080219023
6.8108082 18.541201 -1.728124 100 5 -0.080216713
2.3311446 6.3427014 1.3135291 52 13 -0.080214411
7.0890002 19.277706 -1.0764461 60 6 -0.080212109
2.0126319 5.4701781 1.3456572 1 14 -0.080209807
7.1126652 19.321266 -0.35937995 83 7 -0.080207504
2.0505006 5.5670972 1.5896666 43 15 -0.080205195
1.4637582 3.9591746 -1.1310393 9 0 -0.08018446
7.1575732 19.349457 0.36011297 91 8 -0.080182157
1.7403942 4.7023735 -1.1575981 8 1 -0.080179855
6.8254657 18.43185 1.0300764 31 9 -0.080177546
2.1843777 5.8988099 -1.2227042 2 2 -0.080175243
4.9928999 13.47589 1.2573087 100 10 -0.080172941
2.9552209 7.9718904 -1.3465881 1 3 -0.080170639
3.2193041 8.6703405 1.4648525 34 12 -0.080163725
6.9164095 18.62751 -1.7384084 27 5 -0.080161422
2.3553233 6.3400464 1.314674 16 13 -0.08015912
2.3407862 6.2941847 1.5503626 15 14 -0.080154508
7.1898341 19.322559 -0.35986862 21 7 -0.080152206
1.4809496 3.9630895 -1.1336274 15 0 -0.080129161
7.1417408 19.10146 0.3559593 23 8 -0.080126859
1.7602086 4.7053967 -1.1598476 8 1 -0.080124557
6.8862586 18.398561 1.0295531 28 9 -0.080122255
2.2187176 5.9279232 -1.2303365 2 2 -0.080119953
5.049695 13.484501 1.2597491 100 10 -0.080117643
2.9830322 7.9615259 -1.3465881 1 3 -0.080115341
3.2474699 8.6535006 1.4639139 30 12 -0.080108427
2.380199 6.3391385 1.3162005 11 13 -0.080103822
6.9445519 18.485489 -1.0348912 24 6 -0.08010152
2.3627446 6.285975 1.5503626 45 14 -0.08009921
6.9615951 18.511227 -0.34520859 74 7 -0.080096908
2.0927155 5.5616884 1.5922549 41 15 -0.080094606
1.4920452 3.9506662 -1.1315569 10 0 -0.080073871
7.0726557 18.717257 0.34925756 100 8 -0.080071568
1.7800697 4.7083373 -1.1620972 8 1 -0.080069259
6.9528794 18.390574 1.0303905 28 9 -0.080066957
2.239398 5.9201422 -1.2303365 2 2 -0.080064654
5.0833316 13.431387 1.2564372 54 10 -0.080062352
3.0107996 7.951067 -1.3465881 1 3 -0.080060042
3.2740417 8.637145 1.4629753 34 12 -0.080053136
5.5074434 14.521363 -1.3587581 1 5 -0.080050826
2.4050999 6.3381329 1.317727 11 13 -0.080048524
7.0189662 18.487274 -1.0363567 36 6 -0.080046222
7.0257788 18.495516 -0.34534821 74 7 -0.08004161
2.1104624 5.5529113 1.5917372 43 15 -0.080039307
1.5030704 3.9382153 -1.1294864 11 0 -0.080018573
7.120429 18.656334 0.34855944 100 8 -0.08001627
1.7942842 4.6987672 -1.1611973 8 1 -0.080013968
7.0227394 18.381113 1.0312277 28 9 -0.080011658
2.2306058 5.835268 -1.2143085 2 2 -0.080009356
3.0371521 7.9410381 -1.3465881 1 3 -0.080004752
3.3077061 8.6348858 1.4645396 30 12 -0.079997838
6.1271038 15.986671 -1.4978585 2 5 -0.079995535
2.4225905 6.3209567 1.3158189 15 13 -0.079993226
7.0852361 18.476954 -1.0370895 19 6 -0.079990923
2.0871644 5.4400887 1.3452073 3 14 -0.079988621
7.1010518 18.49888 -0.34587181 43 7 -0.079986319
2.1270611 5.5382972 1.5896666 39 15 -0.079984009
1.516121 3.9332094 -1.1294864 14 0 -0.079963274
7.1833472 18.625771 0.34845477 100 8 -0.079960972
1.8099749 4.6906567 -1.1607474 9 1 -0.07995867
7.0933285 18.373257 1.0321698 31 9 -0.079956368
2.2796404 5.9047627 -1.2303365 2 2 -0.079954058
5.1832533 13.418778 1.2585289 2 10 -0.079951756
4.080739 10.553549 1.3893106 100 11 -0.079947151
