# .PCD v0.7 - Point Cloud Data file format
VERSION 0.7
FIELDS x y z intensity ring time
SIZE 4 4 4 4 2 4
TYPE F F F F U F
COUNT 1 1 1 1 1 1
WIDTH 895
HEIGHT 1
VIEWPOINT 0 0 0 1 0 0 0
POINTS 895
DATA ascii
0.38788542 -2.9662807 0.36731425 23 11 -0.003183689
0.31590879 -2.4191391 -0.29955488 49 4 -0.0031813849
0.38955441 -2.9871562 0.4771252 33 12 -0.0031790808
0.31613106 -2.4241357 -0.2138802 37 5 -0.0031767769
0.38765982 -2.9766793 0.58349395 53 13 -0.0031744728
0.38251209 -2.9411602 -0.1554378 38 6 -0.003172169
0.40735552 -3.1364627 0.73019111 100 14 -0.0031698649
0.31559175 -2.4332459 -0.04282821 61 7 -0.0031675608
0.36080337 -2.7856436 0.75264585 48 15 -0.0031652569
0.31069711 -2.4220138 -0.65429455 49 0 -0.0031445208
0.33743227 -2.6340704 0.046353593 82 8 -0.0031422169
0.31058195 -2.4278326 -0.56507707 53 1 -0.0031399128
0.38216475 -2.9915497 0.15805461 10 9 -0.003137609
0.30823871 -2.4128635 -0.47282472 51 2 -0.0031353049
0.38146898 -2.9902515 0.2637333 27 10 -0.0031330008
0.30854598 -2.4219913 -0.38670605 49 3 -0.0031306969
0.38078511 -2.9932165 0.37048283 30 11 -0.0031283929
0.30746272 -2.4202268 -0.29955488 49 4 -0.003126089
0.37887654 -2.9865377 0.4768123 33 12 -0.0031237849
0.30616301 -2.4133649 -0.21283433 39 5 -0.0031214808
0.37776026 -2.9819095 0.58425713 54 13 -0.003119177
0.3724938 -2.944459 -0.15554248 36 6 -0.0031168729
0.39591652 -3.1339989 0.72929132 100 14 -0.003114569
0.30659553 -2.4303644 -0.042758394 61 7 -0.0031122649
0.34987009 -2.7773027 0.75005764 47 15 -0.0031099608
0.30104488 -2.4134986 -0.6517064 48 0 -0.0030892249
0.32675254 -2.6233261 0.046144161 82 8 -0.0030869208
0.30210555 -2.4289021 -0.56507707 55 1 -0.0030846167
0.37122789 -2.9889011 0.15784526 55 9 -0.0030823129
0.30005658 -2.4158728 -0.47320631 50 2 -0.003080009
0.36882156 -2.9737697 0.26216447 50 10 -0.0030777049
0.29960412 -2.4191332 -0.38608032 49 3 -0.0030754008
0.36984751 -2.9905875 0.36999539 64 11 -0.0030730967
0.29949921 -2.4252257 -0.30004236 51 4 -0.0030707929
0.36941594 -2.9956844 0.47806379 38 12 -0.0030684888
0.2962735 -2.4025545 -0.21178845 40 5 -0.0030661849
0.36542994 -2.9676218 0.58120424 52 13 -0.0030638808
0.3622137 -2.9457414 -0.15554248 37 6 -0.0030615767
0.38544896 -3.1392303 0.73019111 100 14 -0.0030592729
0.29762363 -2.4274504 -0.042688586 61 7 -0.0030569688
0.3392342 -2.7708366 0.74798709 47 15 -0.0030546649
0.2930834 -2.4183702 -0.65274167 50 0 -0.0030339288
0.31663272 -2.6165099 0.046004545 82 8 -0.0030316249
0.2926898 -2.4222033 -0.56327748 55 1 -0.0030293209
0.35816094 -2.9683673 0.15669388 38 9 -0.0030270168
0.29162198 -2.4169056 -0.47320631 50 2 -0.0030247129
0.35772386 -2.9691048 0.26164153 39 10 -0.0030224088
0.28974217 -2.4083965 -0.38420308 49 3 -0.003020105
0.3553811 -2.9583545 0.36585179 40 11 -0.0030178009
0.29103169 -2.4262564 -0.30004236 50 4 -0.0030154968
0.35966179 -3.0028393 0.47900239 35 12 -0.0030131929
0.28835931 -2.4075303 -0.21213706 37 5 -0.0030108888
0.35506871 -2.9688792 0.58120424 52 13 -0.003008585
0.34956056 -2.9271562 -0.15449576 34 6 -0.0030062809
0.37495041 -3.1444268 0.73109096 100 14 -0.0030039768
0.28914809 -2.4284744 -0.042688586 61 7 -0.0030016729
0.3300162 -2.7758405 0.74902231 47 15 -0.0029993688
0.28576821 -2.4289718 -0.65532982 49 0 -0.0029786329
0.30726409 -2.6156132 0.045969639 79 8 -0.0029763288
0.28287104 -2.4115973 -0.56057805 55 1 -0.002974025
0.31991729 -2.7315555 0.14413324 15 9 -0.0029717209
0.28364006 -2.421809 -0.47396958 50 2 -0.0029694168
0.28225017 -2.4172416 -0.3854546 49 3 -0.0029648088
0.28141293 -2.4173985 -0.29882365 49 4 -0.0029602009
0.35145873 -3.0236983 0.48213109 45 12 -0.0029578968
0.27995393 -2.4085224 -0.21213706 37 5 -0.0029555927
0.3437978 -2.9622998 0.57967776 55 13 -0.0029532888
0.33842105 -2.9204228 -0.15407708 34 6 -0.002950985
0.36217973 -3.1302299 0.72749174 100 14 -0.0029486809
0.2806696 -2.4294691 -0.042688586 63 7 -0.0029463768
0.3205463 -2.7788949 0.74953997 48 15 -0.0029440727
0.277069 -2.4280353 -0.65481222 50 0 -0.0029233368
0.29835832 -2.6186566 0.046004545 83 8 -0.0029210327
0.27467147 -2.4145064 -0.56102794 56 1 -0.0029187289
0.31105691 -2.7386091 0.14444725 19 9 -0.002916425
0.27429855 -2.4149809 -0.4724431 50 2 -0.0029141209
0.35539693 -3.1338651 0.27593508 9 10 -0.0029118168
0.27469933 -2.4260635 -0.38670605 49 3 -0.0029095127
0.35278237 -3.120538 0.38559461 7 11 -0.0029072089
0.27185988 -2.4085033 -0.29760498 50 4 -0.002904905
0.34023783 -3.0190179 0.48119247 43 12 -0.0029026009
0.27109832 -2.4055254 -0.21178845 39 5 -0.0029002968
0.33433336 -2.9712858 0.58120424 52 13 -0.0028979927
0.32911664 -2.9295251 -0.15449576 34 6 -0.0028956889
0.3516857 -3.1353481 0.72839153 100 14 -0.002893385
0.27174225 -2.4264593 -0.042618778 63 7 -0.0028910809
0.31127346 -2.7838366 0.75057524 48 15 -0.0028887768
0.26753047 -2.4193869 -0.65222406 49 0 -0.0028680409
0.28965449 -2.6236575 0.046074353 83 8 -0.0028657368
0.26645502 -2.4173872 -0.56147784 53 1 -0.0028634327
0.29690742 -2.6979873 0.14224915 33 9 -0.0028611289
0.26436368 -2.4022636 -0.46977177 52 2 -0.002858825
0.34532583 -3.1430085 0.27663234 33 10 -0.0028565209
0.26579857 -2.4230804 -0.38608032 49 3 -0.0028542168
0.34404859 -3.1414835 0.38803205 37 11 -0.0028519128
0.26452976 -2.4193041 -0.29882365 48 4 -0.0028496089
0.32648215 -2.9907315 0.47649944 35 12 -0.002847305
0.26226759 -2.4024956 -0.21143983 39 5 -0.0028450009
0.32481036 -2.9802415 0.58273071 54 13 -0.0028426968
0.3188886 -2.9306562 -0.15449576 34 6 -0.0028403928
0.34073943 -3.1365566 0.72839153 100 14 -0.0028380889
0.26240811 -2.4194407 -0.042479157 63 7 -0.002835785
0.29989037 -2.7695413 0.74643415 48 15 -0.0028334809
0.25805515 -2.4107015 -0.64963585 50 0 -0.002812745
0.28006938 -2.6206758 0.046004545 82 8 -0.002810441
0.25801536 -2.4183025 -0.56147784 55 1 -0.0028081369
0.28643009 -2.6890774 0.14172579 70 9 -0.0028058328
0.25660038 -2.4090285 -0.47091663 50 2 -0.0028035289
0.33287773 -3.1303263 0.27541214 83 10 -0.0028012248
0.2556707 -2.4082787 -0.38357735 49 3 -0.002798921
0.33224365 -3.134769 0.38705707 86 11 -0.0027966169
0.25608313 -2.4202127 -0.29882365 49 4 -0.0027943128
0.31687018 -2.9997106 0.47775093 33 12 -0.0027920089
0.2538794 -2.4033966 -0.21143983 39 5 -0.0027897048
0.3123467 -2.9618328 0.57891452 53 13 -0.002787401
0.30886617 -2.9337378 -0.15460044 32 6 -0.0027850969
0.32897347 -3.1299748 0.72659194 100 14 -0.0027827928
0.25479603 -2.428297 -0.042618778 60 7 -0.0027804889
0.28921494 -2.7609644 0.74384594 47 15 -0.0027781848
0.25023562 -2.4173522 -0.65118873 49 0 -0.0027574487
0.26927561 -2.6057246 0.045725305 82 8 -0.0027551448
0.24837212 -2.407558 -0.55877846 55 1 -0.002752841
0.27704197 -2.6900606 0.14172579 36 9 -0.0027505369
0.24899445 -2.417721 -0.4724431 50 2 -0.0027482328
0.32317168 -3.1433606 0.27645802 100 10 -0.0027459287
0.24645558 -2.4012961 -0.38232586 50 3 -0.0027436248
0.32109687 -3.1339352 0.38681334 100 11 -0.002741321
0.24844159 -2.4289911 -0.29979861 49 4 -0.0027390169
0.30639756 -3.0007985 0.47775093 36 12 -0.0027367128
0.24589339 -2.4082322 -0.21178845 39 5 -0.0027344087
0.30160782 -2.9589989 0.57815129 53 13 -0.0027321049
0.29720825 -2.9208889 -0.15386772 34 6 -0.002729801
0.31883383 -3.138859 0.72839153 100 14 -0.0027274969
0.24631809 -2.4291718 -0.042618778 61 7 -0.0027251928
0.28113165 -2.7773333 0.74798709 46 15 -0.0027228887
0.24141146 -2.4143662 -0.65015346 49 0 -0.0027021528
0.26017821 -2.6066484 0.045725305 83 8 -0.0026998487
0.23880763 -2.3967755 -0.55607903 55 1 -0.0026975449
0.26685944 -2.6830614 0.14130709 15 9 -0.002695241
0.24055344 -2.4185755 -0.4724431 50 2 -0.0026929369
0.31101581 -3.1325738 0.27541214 92 10 -0.0026906328
0.23846187 -2.4060733 -0.38295162 49 3 -0.0026883287
0.30839643 -3.1172578 0.38461968 100 11 -0.0026860249
0.23898552 -2.4199662 -0.2985799 49 4 -0.002683721
0.29553366 -2.9979181 0.4771252 33 12 -0.0026814169
0.23670398 -2.401145 -0.21109121 41 5 -0.0026791128
0.290508 -2.9522185 0.57662481 54 13 -0.0026768087
0.28622958 -2.9139578 -0.15344904 33 6 -0.0026745049
0.30673414 -3.1283162 0.72569209 100 14 -0.002672201
0.23783714 -2.4300168 -0.042618778 61 7 -0.0026698969
0.27068415 -2.770607 0.74591655 47 15 -0.0026675928
0.2333532 -2.4190402 -0.65118873 49 0 -0.0026116371
0.25165266 -2.6135125 0.045830019 78 8 -0.002609333
0.23137228 -2.4072933 -0.55832851 56 1 -0.0026070292
0.25768283 -2.6859646 0.14141177 23 9 -0.0026047251
0.2307971 -2.4057205 -0.46977177 51 2 -0.0026024212
0.30007946 -3.1336403 0.27541214 92 10 -0.0026001171
0.23006129 -2.4068911 -0.38295162 50 3 -0.002597813
0.29789066 -3.1222675 0.38510716 99 11 -0.0025955092
0.22978427 -2.4128811 -0.29760498 49 4 -0.0025932051
0.28450596 -2.993032 0.47618657 33 12 -0.0025909012
0.22907476 -2.4098902 -0.21178845 40 5 -0.0025885971
0.28131366 -2.9649413 0.57891452 53 13 -0.002586293
0.2760565 -2.9149392 -0.15344904 36 6 -0.0025839892
0.29507875 -3.1216075 0.72389251 100 14 -0.0025816851
0.22785054 -2.4149053 -0.042339537 63 7 -0.0025793812
0.26209828 -2.7830751 0.74902231 45 15 -0.0025770771
0.22383529 -2.4082987 -0.64808291 49 0 -0.002556341
0.24308266 -2.6203485 0.045934737 75 8 -0.0025540371
0.22368616 -2.415848 -0.56012809 56 1 -0.0025517331
0.25381923 -2.7465112 0.14455192 60 9 -0.0025494292
0.22167546 -2.3986921 -0.46824533 51 2 -0.0025471251
0.28859046 -3.1287167 0.2748892 87 10 -0.002544821
0.22202069 -2.4116137 -0.38357735 50 3 -0.0025425171
0.28717163 -3.1252651 0.38535091 100 11 -0.0025402131
0.22099769 -2.4097149 -0.2971175 49 4 -0.0025379092
0.27333662 -2.9861383 0.47493511 32 12 -0.0025356051
0.21920858 -2.3948023 -0.21039395 41 5 -0.002533301
0.27060539 -2.9619951 0.57815129 54 13 -0.0025309972
0.26587933 -2.915885 -0.15344904 34 6 -0.0025286931
0.28382757 -3.1187372 0.72299272 100 14 -0.0025263892
0.21923889 -2.4136946 -0.042304631 66 7 -0.0025240851
0.25063738 -2.7647333 0.74384594 45 15 -0.002521781
0.21491112 -2.4032929 -0.64653003 50 0 -0.0025010451
0.23304524 -2.611222 0.045760211 63 8 -0.002498741
0.21473347 -2.4107912 -0.55877846 53 1 -0.0024964372
0.24754547 -2.7791681 0.14622667 100 9 -0.0024941331
0.21364871 -2.403362 -0.46900854 52 2 -0.0024918292
0.27625844 -3.1138287 0.27349472 58 10 -0.0024895251
0.21255606 -2.4005675 -0.38170013 49 3 -0.002487221
0.27626058 -3.1262484 0.38535091 94 11 -0.0024849172
0.21275917 -2.4124489 -0.29736122 13 4 -0.0024826131
0.26343259 -2.9870284 0.47493511 31 12 -0.0024803092
0.21049839 -2.3915837 -0.21004534 42 5 -0.0024780051
0.26181048 -2.9805229 0.58158582 36 13 -0.002475701
0.25639731 -2.9247539 -0.15386772 34 6 -0.0024733972
0.2742981 -3.1352396 0.72659194 100 14 -0.0024710931
0.21105923 -2.4124165 -0.042269729 63 7 -0.002468789
0.24113196 -2.7617002 0.74281067 46 15 -0.0024664851
0.20685136 -2.4078779 -0.64756525 50 0 -0.002445749
0.22558312 -2.625927 0.046004545 29 8 -0.0024434451
0.20623834 -2.4056649 -0.55742872 50 1 -0.0024411411
0.23954496 -2.7999151 0.14727339 64 9 -0.0024388372
0.20592637 -2.4119177 -0.47053501 46 2 -0.0024365331
0.2655569 -3.1167588 0.27366903 60 10 -0.002434229
0.20694208 -2.4288151 -0.38608032 29 3 -0.0024319252
0.26505104 -3.1172578 0.38413221 100 11 -0.0024296211
0.2074433 -2.4447889 -0.30126104 11 4 -0.0024273172
0.25300458 -2.9879298 0.47493511 38 12 -0.0024250131
0.20382644 -2.4121571 -0.21178845 36 5 -0.002422709
0.25622308 -3.0322382 0.59150791 15 13 -0.0024204052
0.2453544 -2.9096663 -0.15303035 34 6 -0.0024181011
0.26390001 -3.1361318 0.72659194 99 14 -0.0024157972
0.20313895 -2.4191165 -0.042374443 64 7 -0.0024134931
0.23149028 -2.7625253 0.74281067 45 15 -0.002411189
0.20029603 -2.4258785 -0.65222406 20 0 -0.0023904531
0.22462548 -2.7263455 0.047749784 23 8 -0.002388149
0.19815934 -2.4102547 -0.55832851 33 1 -0.0023858452
0.22993354 -2.8027248 0.14737807 63 9 -0.0023835411
0.19937167 -2.4301977 -0.47396958 29 2 -0.0023812372
0.25521973 -3.1176224 0.27366903 57 10 -0.0023789331
0.2008747 -2.4590547 -0.39077336 10 3 -0.002376629
0.25336206 -3.1082711 0.38291353 100 11 -0.0023743252
0.20051764 -2.4652839 -0.30369842 9 4 -0.0023720211
0.24241297 -2.9868255 0.47462222 17 12 -0.0023697172
0.19953322 -2.4584944 -0.21579762 13 5 -0.0023674131
0.25086704 -3.0976901 0.6041013 45 13 -0.002365109
0.23471394 -2.9045331 -0.15271634 31 6 -0.0023628052
0.25169778 -3.1214943 0.72299272 100 14 -0.0023605011
0.19453298 -2.4178174 -0.042339537 63 7 -0.0023581972
0.22184579 -2.7633164 0.74281067 47 15 -0.0023558931
0.19365408 -2.4496729 -0.6584357 9 0 -0.0023351572
0.22045356 -2.7948921 0.04893655 67 8 -0.0023328532
0.19326103 -2.4556143 -0.56867629 8 1 -0.0023305491
0.21983634 -2.7995281 0.14716873 63 9 -0.0023282452
0.19211724 -2.4465365 -0.4770225 8 2 -0.0023259411
0.24417996 -3.1165082 0.27349472 55 10 -0.002323637
0.19583099 -2.5050364 -0.39796934 10 3 -0.0023213332
0.24281926 -3.1130946 0.38340098 100 11 -0.0023190291
0.19483733 -2.503572 -0.30832946 7 4 -0.0023167252
0.23320921 -3.0034094 0.4771252 11 12 -0.0023144211
0.19388108 -2.4969177 -0.21910954 8 5 -0.002312117
0.24096233 -3.1102912 0.60639101 82 13 -0.0023098132
0.2254969 -2.9172826 -0.15334436 26 6 -0.0023075091
0.23990142 -3.1106961 0.72029328 100 14 -0.0023052052
0.18578513 -2.414494 -0.042269729 61 7 -0.0023029011
0.21249433 -2.7679262 0.74384594 46 15 -0.002300597
0.18888511 -2.5004194 -0.67189431 8 0 -0.0022798611
0.2112976 -2.8036208 0.049076166 63 8 -0.002277557
0.18790288 -2.4990256 -0.57857406 7 1 -0.0022752532
0.20976362 -2.7962952 0.14695938 63 9 -0.0022729491
0.18754096 -2.5000517 -0.4873262 7 2 -0.002270645
0.23315103 -3.1153545 0.27332041 57 10 -0.0022683411
0.18988033 -2.5431328 -0.40391383 7 3 -0.002266037
0.23239335 -3.1198626 0.38413221 100 11 -0.0022637332
0.18815653 -2.5319514 -0.3117418 7 4 -0.0022614291
0.22506097 -3.0357244 0.48213109 27 12 -0.002259125
0.18766846 -2.5313573 -0.22207282 8 5 -0.0022568211
0.23024862 -3.1130712 0.6067726 104 13 -0.0022545171
0.21398984 -2.9001253 -0.15240233 23 6 -0.0022522132
0.22932726 -3.1154015 0.72119308 99 14 -0.0022499091
0.17677024 -2.4071505 -0.042130109 63 7 -0.002247605
0.20170222 -2.7532377 0.73970485 47 15 -0.0022453011
0.18182161 -2.5241857 -0.67810595 8 0 -0.002224565
0.2003632 -2.7883852 0.048796929 50 8 -0.0022222612
0.18168607 -2.5346539 -0.58667231 7 1 -0.0022199571
0.20042904 -2.8029866 0.14727339 59 9 -0.0022176532
0.18161374 -2.539856 -0.49495855 7 2 -0.0022153491
0.21617973 -3.0306938 0.265825 9 10 -0.002213045
0.17721614 -2.4905794 -0.39546639 11 3 -0.0022107412
0.2216424 -3.1226344 0.38437593 100 11 -0.0022084371
0.17665364 -2.4949703 -0.30711079 10 4 -0.0022061332
0.21599337 -3.0581665 0.48557264 13 12 -0.0022038291
0.17616384 -2.4942355 -0.21876092 9 5 -0.002201525
0.21910453 -3.1099391 0.60600942 111 13 -0.0021992212
0.1712411 -2.4366381 -0.12801376 21 6 -0.0021969171
0.21899648 -3.1239591 0.72299272 99 14 -0.0021946132
0.16878504 -2.4137375 -0.042234823 66 7 -0.0021923091
0.19209032 -2.7539248 0.73970485 46 15 -0.002190005
0.16970769 -2.4766219 -0.66516501 12 0 -0.0021692691
0.18994683 -2.7790918 0.048622403 45 8 -0.002166965
0.16554768 -2.4283402 -0.56192774 21 1 -0.0021646612
0.19064349 -2.8036695 0.14727339 61 9 -0.0021623571
0.16502182 -2.4268682 -0.47282472 23 2 -0.0021600532
0.20115021 -2.9658318 0.26007274 9 10 -0.0021577491
0.16425517 -2.4281149 -0.3854546 61 3 -0.0021554451
0.20993915 -3.1115055 0.38291353 94 11 -0.0021531412
0.16421106 -2.4401147 -0.30028611 56 4 -0.0021508371
0.20571421 -3.0648146 0.48651123 28 12 -0.0021485332
0.16225265 -2.4173064 -0.21196276 54 5 -0.0021462291
0.20706718 -3.0930555 0.60257488 44 13 -0.0021439251
0.16087168 -2.4093218 -0.12654836 45 6 -0.0021416212
0.20627791 -3.0974822 0.71669406 33 14 -0.0021393171
0.15996087 -2.4083259 -0.042130109 63 7 -0.0021370132
0.18273148 -2.7584341 0.74074018 46 15 -0.0021347092
0.15792806 -2.4290047 -0.65222406 43 0 -0.0021139733
0.18140928 -2.7976978 0.04893655 11 8 -0.0021116692
0.15581284 -2.4094565 -0.55742872 45 1 -0.0021093651
0.18072708 -2.8023245 0.14716873 26 9 -0.002107061
0.15604399 -2.4195926 -0.47129822 50 2 -0.0021047571
0.19054045 -2.9625394 0.25972411 11 10 -0.002102453
0.15451397 -2.4089601 -0.38232586 46 3 -0.0021001492
0.1965422 -3.0725989 0.37803873 40 11 -0.0020978451
0.15404983 -2.4149191 -0.2971175 48 4 -0.002095541
0.19137739 -3.0083439 0.47743803 58 12 -0.0020932371
0.1526749 -2.3999627 -0.21039395 46 5 -0.002090933
0.19266471 -3.0369391 0.59150791 10 13 -0.0020886292
0.15208249 -2.4038885 -0.12623434 47 6 -0.0020863251
0.19362344 -3.0690103 0.7099455 25 14 -0.002084021
0.15205544 -2.4168527 -0.042269729 63 7 -0.0020817171
0.17334382 -2.7629108 0.74177545 45 15 -0.002079413
0.15039739 -2.4449666 -0.6563651 50 0 -0.0020586771
0.17286693 -2.8182733 0.049285594 10 8 -0.0020563731
0.1479958 -2.4197114 -0.55967826 50 1 -0.0020540692
0.17143063 -2.8109128 0.14758742 11 9 -0.0020517651
0.14735828 -2.4162035 -0.47053501 54 2 -0.002049461
0.18056118 -2.9691525 0.26024702 23 10 -0.0020471571
0.14658238 -2.417372 -0.38357735 46 3 -0.0020448531
0.18509673 -3.061377 0.3765763 34 11 -0.0020425492
0.14526081 -2.409498 -0.29638627 49 4 -0.0020402451
0.17814925 -2.9636416 0.47024205 18 12 -0.002037941
0.14573136 -2.4243467 -0.2124857 51 5 -0.0020356372
0.18006574 -3.0042777 0.58502042 42 13 -0.0020333331
0.14404753 -2.4103861 -0.12654836 52 6 -0.0020310292
0.1818665 -3.05216 0.70589644 25 14 -0.0020287251
0.14290679 -2.4053917 -0.042060301 60 7 -0.002026421
0.16346952 -2.7596426 0.74074018 46 15 -0.0020241172
0.14040746 -2.4204049 -0.64963585 48 0 -0.002003381
0.16487554 -2.8508015 0.049844075 24 8 -0.0020010772
0.13977312 -2.424104 -0.56057805 53 1 -0.0019987731
0.17193361 -2.9909511 0.15700789 16 9 -0.0019964692
0.13869785 -2.4127829 -0.46977177 52 2 -0.0019941651
0.16928339 -2.9538515 0.25885254 8 10 -0.001991861
0.13859421 -2.4257574 -0.38482881 39 3 -0.0019895572
0.17384489 -3.0520952 0.3753576 30 11 -0.0019872531
0.13808708 -2.4317911 -0.29906741 41 4 -0.0019849492
0.16891986 -2.9839678 0.47337076 30 12 -0.0019826451
0.13681772 -2.4168837 -0.21178845 45 5 -0.001980341
0.17013077 -3.0146887 0.58692849 33 13 -0.0019780372
0.13552085 -2.4088798 -0.12644368 50 6 -0.0019757331
0.1703383 -3.0372107 0.70229721 24 14 -0.0019734292
0.13417457 -2.3998859 -0.041955583 67 7 -0.0019711251
0.15340582 -2.7524807 0.73866957 46 15 -0.001968821
0.13164233 -2.4150934 -0.64808291 42 0 -0.0019480851
0.16338548 -3.0071061 0.052566648 32 8 -0.0019457811
0.13162664 -2.4304149 -0.56192774 52 1 -0.0019434772
0.163753 -3.0334144 0.15920599 88 9 -0.0019411731
0.13080391 -2.4230545 -0.47167987 50 2 -0.0019388691
0.15822241 -2.9404979 0.25763237 6 10 -0.0019365652
0.12927918 -2.4104459 -0.38232586 46 3 -0.0019342611
0.1625545 -3.0407898 0.37389517 30 11 -0.0019319572
0.12928106 -2.4263113 -0.29833618 51 4 -0.0019296531
0.15871194 -2.9884846 0.47399649 47 12 -0.0019273491
0.12774608 -2.4054093 -0.21074259 50 5 -0.0019250452
0.15721957 -2.9701722 0.57815129 74 13 -0.0019227411
0.12763782 -2.4193108 -0.12696704 52 6 -0.0019204371
0.15891671 -3.0222185 0.69869798 24 14 -0.0019181331
0.12600584 -2.4043338 -0.042025398 66 7 -0.0019158291
0.14399873 -2.7568579 0.73970485 46 15 -0.0019135252
0.12360483 -2.4232552 -0.65015346 49 0 -0.001892789
0.14740597 -2.8998137 0.050681788 60 8 -0.0018904852
0.12274767 -2.4230745 -0.56012809 56 1 -0.0018881811
0.15417032 -3.0539145 0.16025271 37 9 -0.0018858771
0.12204804 -2.417614 -0.47053501 51 2 -0.0018835731
0.15025991 -2.9867995 0.26164153 22 10 -0.001881269
0.12046897 -2.4029911 -0.3810744 46 3 -0.0018789652
0.15124576 -3.0274606 0.37218902 34 11 -0.0018766611
0.12081051 -2.4267478 -0.29833618 49 4 -0.0018743571
0.14847521 -2.9929662 0.47462222 53 12 -0.0018720531
0.1195465 -2.4098206 -0.21109121 49 5 -0.001869749
0.14830504 -3.0001161 0.58387554 68 13 -0.0018674452
0.11840562 -2.4037828 -0.12612967 51 6 -0.0018651411
0.14779328 -3.0110762 0.69599855 25 14 -0.0018628371
0.11780796 -2.4087536 -0.042095207 66 7 -0.0018605331
0.13409212 -2.7515552 0.73815197 48 15 -0.0018582291
0.11514556 -2.423672 -0.65015346 49 0 -0.0018374932
0.13775514 -2.9102979 0.050856311 50 8 -0.0018351891
0.11383004 -2.4137552 -0.55787861 53 1 -0.0018328852
0.14200938 -3.0225134 0.15857796 37 9 -0.0018305811
0.11388461 -2.4239087 -0.47167987 50 2 -0.0018282771
0.14113693 -3.0151689 0.2640819 38 10 -0.0018259732
0.11235622 -2.4093168 -0.38201302 42 3 -0.0018236691
0.13947929 -3.0021915 0.3690204 32 11 -0.0018213651
0.11188016 -2.4172399 -0.2971175 46 4 -0.0018190611
0.13638906 -2.9579473 0.46899059 25 12 -0.0018167571
0.1113174 -2.4142036 -0.21143983 49 5 -0.0018144532
0.13855238 -3.016305 0.58692849 39 13 -0.0018121491
0.11019694 -2.4081717 -0.126339 43 6 -0.0018098451
0.1362168 -2.9882133 0.69059974 24 14 -0.0018075411
0.10939877 -2.4091501 -0.042095207 67 7 -0.001805237
0.12439953 -2.7500765 0.7376343 47 15 -0.0018029332
0.1066846 -2.4240592 -0.65015346 44 0 -0.001782197
0.12400518 -2.8288522 0.049425215 76 8 -0.0017798932
0.10514841 -2.4082975 -0.55652893 26 1 -0.0017775891
0.1306773 -3.0050321 0.15763591 13 9 -0.0017752851
0.10525253 -2.4203687 -0.47091663 25 2 -0.0017729811
0.1303528 -3.0096712 0.26355895 31 10 -0.001770677
0.10794654 -2.5024507 -0.39671785 7 3 -0.0017683732
0.12848754 -2.9907606 0.36755794 32 11 -0.0017660691
0.10827887 -2.5306625 -0.31101057 7 4 -0.0017637651
0.12656757 -2.9702468 0.47086781 47 12 -0.0017614611
0.12735668 -3.0010781 0.58387554 32 13 -0.0017568532
0.11722276 -2.7737143 -0.14549398 10 6 -0.0017545491
0.12471979 -2.9633594 0.68475103 23 14 -0.0017522451
0.10065386 -2.4015253 -0.041955583 67 7 -0.0017499411
0.11512104 -2.7582147 0.73970485 47 15 -0.0017476371
0.11372714 -2.8192773 0.049250688 31 8 -0.0017245971
0.11543281 -2.8740234 -0.66405553 22 1 -0.0017222931
0.11986768 -2.9974873 0.15721723 36 9 -0.0017199891
0.11453209 -2.8640621 -0.55716228 23 2 -0.0017176851
0.11881541 -2.9842274 0.2612929 46 10 -0.0017153812
0.11634596 -2.9350803 -0.46523616 48 3 -0.0017130771
0.11742108 -2.9753225 0.36560807 29 11 -0.0017107731
0.11479723 -2.9217865 -0.35902712 43 4 -0.0017084691
0.11488643 -2.9371145 0.46554902 39 12 -0.001706165
0.1140848 -2.9166203 -0.25536633 47 5 -0.0017038612
0.11642209 -2.9897337 0.58158582 30 13 -0.0017015571
0.11334275 -2.9237885 -0.15334436 52 6 -0.0016992531
0.1143749 -2.9637766 0.68475103 23 14 -0.0016969491
0.091963254 -2.3938696 -0.041815966 69 7 -0.001694645
0.10504971 -2.7470171 0.73659903 46 15 -0.0016923412
0.11076932 -2.9923208 -0.80233908 2 0 -0.001671605
0.10167618 -2.7597072 0.048203547 56 8 -0.0016693012
0.10739928 -2.928937 -0.67665279 57 1 -0.0016669971
0.10882097 -2.98192 0.15637985 33 9 -0.0016646931
0.10703982 -2.9331129 -0.57051897 46 2 -0.0016623891
0.10731337 -2.9547579 0.25867823 30 10 -0.0016600851
0.10609983 -2.9354684 -0.46523616 52 3 -0.0016577812
0.10717718 -2.979682 0.36609554 39 11 -0.0016554771
0.10488191 -2.930105 -0.36000207 46 4 -0.0016531731
0.10484416 -2.9434202 0.46648762 45 12 -0.0016508691
0.10376126 -2.9130187 -0.2550177 51 5 -0.0016485651
0.10480258 -2.9567676 0.57509834 36 13 -0.0016462612
0.10271401 -2.9121904 -0.15271634 49 6 -0.0016439571
0.10327676 -2.9427347 0.67980206 26 14 -0.0016416531
0.083606467 -2.394176 -0.041815966 69 7 -0.0016393492
0.095259182 -2.741575 0.73504615 48 15 -0.0016370451
0.098770022 -2.9463506 -0.78991574 23 0 -0.0016163092
0.095774993 -2.8719659 0.050158214 85 8 -0.0016140051
0.096916199 -2.9215033 -0.67485321 52 1 -0.0016117011
0.098279648 -2.9782896 0.15617052 45 9 -0.0016093971
0.096735865 -2.9315064 -0.57013732 48 2 -0.0016070931
0.09712968 -2.9590971 0.25902686 32 10 -0.0016047892
0.09533672 -2.9200265 -0.46273321 57 3 -0.0016024851
0.095744513 -2.948293 0.36219573 32 11 -0.0016001811
0.094781026 -2.9344213 -0.36048955 48 4 -0.0015978771
0.094632424 -2.9457426 0.46680051 51 12 -0.0015955732
0.093464278 -2.90938 -0.25466907 50 5 -0.0015932691
0.093666136 -2.9316061 0.57013732 44 13 -0.0015909651
0.092293777 -2.9045463 -0.15229765 50 6 -0.0015886611
0.092758134 -2.9352863 0.67800248 38 14 -0.0015863571
0.075374559 -2.3984504 -0.041885775 67 7 -0.0015840532
0.085748658 -2.7438216 0.73556381 47 15 -0.0015817491
0.088311054 -2.9408846 -0.78836286 52 0 -0.0015610132
0.081452549 -2.7283688 0.04764507 42 8 -0.0015587091
0.086544484 -2.9159803 -0.67350346 50 1 -0.0015564051
0.087117404 -2.9526615 0.15480977 52 9 -0.0015541011
0.086502671 -2.9318264 -0.57013732 48 2 -0.0015517971
0.086682655 -2.955435 0.25867823 45 10 -0.0015494932
0.084970556 -2.9144177 -0.46179458 52 3 -0.0015471891
0.085337728 -2.9446409 0.36170825 48 11 -0.0015448851
0.084023252 -2.9168758 -0.35829589 49 4 -0.0015425811
0.084179595 -2.9401314 0.46586189 51 12 -0.0015402772
0.08365012 -2.9216385 -0.25571495 50 5 -0.0015379731
0.083767332 -2.9436901 0.57242703 46 13 -0.0015356691
0.082098261 -2.902854 -0.15219298 51 6 -0.0015333651
0.082566172 -2.9375401 0.67845237 43 14 -0.0015310611
0.067224935 -2.4066949 -0.042025398 67 7 -0.0015287572
0.076277867 -2.7479665 0.73659903 47 15 -0.0015264531
0.077839851 -2.9334502 -0.78629225 48 0 -0.0015057172
0.07098002 -2.6926546 0.047016785 15 8 -0.0015034131
0.07667128 -2.9279528 -0.67620283 58 1 -0.0015011091
0.077273153 -2.9509373 0.15470509 12 9 -0.0014988051
0.075961784 -2.9203348 -0.56784761 49 2 -0.0014965012
0.076417461 -2.9577112 0.25885254 49 10 -0.0014941971
0.075151809 -2.9285195 -0.46398467 49 3 -0.0014918931
0.074956901 -2.9409518 0.36122078 56 11 -0.0014895891
0.073790967 -2.9151671 -0.35805216 43 4 -0.0014872851
0.074279584 -2.9344702 0.46492329 46 12 -0.0014849812
0.073451109 -2.9219127 -0.25571495 44 5 -0.0014826771
0.073589325 -2.9478898 0.57319027 47 13 -0.0014803731
0.072261788 -2.9151027 -0.152821 39 6 -0.0014780691
0.072167806 -2.9319661 0.67710268 44 14 -0.0014757651
0.058948632 -2.3949101 -0.041815966 67 7 -0.0014734612
0.067164756 -2.7482045 0.73659903 47 15 -0.0014711571
0.067288116 -2.9201846 -0.78266883 39 0 -0.0014504212
0.06771642 -2.9387722 0.051310074 10 8 -0.0014481171
0.066738889 -2.9184499 -0.67395335 45 1 -0.0014458131
0.06701722 -2.953186 0.15480977 53 9 -0.0014435091
0.065678969 -2.9166567 -0.56708437 43 2 -0.0014412052
0.065780677 -2.9440169 0.25763237 48 10 -0.0014389011
0.065395497 -2.9267781 -0.46367183 52 3 -0.0014365971
0.065248176 -2.9431689 0.3614645 48 11 -0.0014342931
0.06416706 -2.9173801 -0.35829589 49 4 -0.0014319891
0.063647658 -2.9169371 0.46210748 51 12 -0.0014296852
0.063079089 -2.9141834 -0.2550177 51 5 -0.0014273811
0.063941069 -2.9540062 0.5743351 50 13 -0.0014250771
0.062423307 -2.9073391 -0.15240233 48 6 -0.0014227731
0.062693492 -2.9438789 0.67980206 46 14 -0.0014204691
0.050419502 -2.387104 -0.041676346 67 7 -0.0014181652
0.057369284 -2.738765 0.73401088 48 15 -0.0014158611
0.057528112 -2.9165287 -0.78163356 49 0 -0.0013951251
0.057340793 -2.9329929 0.051205363 6 8 -0.0013928211
0.05666402 -2.9245102 -0.67530304 56 1 -0.0013905171
0.057301003 -2.9573858 0.15501912 66 9 -0.0013882131
0.056006514 -2.9168584 -0.56708437 50 2 -0.0013859092
0.055980295 -2.9422269 0.25745806 49 10 -0.0013836051
0.055030067 -2.9190884 -0.46242031 52 3 -0.0013813011
0.05497412 -2.9433787 0.3614645 50 11 -0.0013789971
0.053909589 -2.9136169 -0.35780841 48 4 -0.0013766931
0.054193888 -2.9289823 0.46398467 51 12 -0.0013743892
0.053268801 -2.9064083 -0.25432047 49 5 -0.0013720851
0.053379744 -2.9404705 0.57166374 46 13 -0.0013697811
0.052309897 -2.9095364 -0.15250699 49 6 -0.0013674771
0.052521396 -2.9499252 0.68115181 43 14 -0.0013651731
0.042574689 -2.3912568 -0.041746158 69 7 -0.0013628692
0.048286792 -2.7389402 0.73401088 49 15 -0.0013605651
0.047315739 -2.9147801 -0.78111589 48 0 -0.0013398291
0.042161457 -2.5972624 0.04534135 3 8 -0.0013375251
0.04687205 -2.9188364 -0.67395335 53 1 -0.0013352211
0.04707288 -2.9635587 0.15533313 60 9 -0.0013329171
0.045824707 -2.9170361 -0.56708437 50 2 -0.0013306132
0.045740176 -2.9443965 0.25763237 30 10 -0.0013283091
0.045288239 -2.9153044 -0.46179458 55 3 -0.0013260051
0.045182973 -2.9415598 0.36122078 40 11 -0.0013237011
0.04430756 -2.9177494 -0.35829589 49 4 -0.0013213971
0.044088017 -2.9370544 0.46523616 48 12 -0.0013190932
0.043064024 -2.9025919 -0.25397182 51 5 -0.0013167891
0.043803141 -2.9524097 0.57395351 43 13 -0.0013144851
0.042485792 -2.8977118 -0.15187897 50 6 -0.0013121811
0.042908065 -2.9617746 0.68385124 41 14 -0.0013098771
0.03434179 -2.3993888 -0.041885775 67 7 -0.0013075732
0.038753044 -2.7410235 0.73452848 46 15 -0.0013052691
0.037805434 -2.9670832 -0.79509211 17 0 -0.001295567
0.032440659 -2.581403 0.045062114 50 8 -0.001293263
0.036077023 -2.9111946 -0.67215377 53 1 -0.0012909591
0.036234926 -2.9657085 0.1554378 61 9 -0.001288655
0.035689957 -2.9211047 -0.56784761 48 2 -0.001286351
0.035534289 -2.9505148 0.25815532 6 10 -0.001284047
0.034508992 -2.9075501 -0.46054313 52 3 -0.0012817431
0.034401264 -2.9417057 0.36122078 43 11 -0.0012794391
0.033476278 -2.9059825 -0.35683349 46 4 -0.001277135
0.033300418 -2.935221 0.46492329 49 12 -0.001274831
0.032976951 -2.9067092 -0.25432047 51 5 -0.001272527
0.033025529 -2.9564767 0.57471669 42 13 -0.0012702231
0.031843193 -2.8958507 -0.15177429 51 6 -0.001267919
0.031904668 -2.9482715 0.68070191 40 14 -0.001265615
0.025589895 -2.4034977 -0.041955583 69 7 -0.001263311
0.028786981 -2.7488744 0.73659903 43 15 -0.001261007
0.023684001 -2.6094952 0.045550782 40 8 -0.0012379671
0.025862718 -2.9054565 -0.67080402 50 1 -0.0012356631
0.025864938 -2.9638197 0.15533313 53 9 -0.001233359
0.025390306 -2.9094322 -0.5655579 48 2 -0.001231055
0.025251808 -2.9526134 0.25832963 7 10 -0.001228751
0.024425995 -2.9155538 -0.46179458 51 3 -0.0012264471
0.024262771 -2.9576883 0.36317068 43 11 -0.001224143
0.023331871 -2.9060817 -0.35683349 49 4 -0.001221839
0.023008104 -2.9293933 0.46398467 48 12 -0.001219535
0.022955891 -2.9227455 -0.25571495 49 5 -0.001217231
0.022811107 -2.9703164 0.57738805 39 13 -0.0012149271
0.021764146 -2.8999386 -0.15198363 51 6 -0.001212623
0.021727635 -2.9639542 0.68430108 37 14 -0.001210319
0.017085711 -2.3875751 -0.041676346 70 7 -0.001208015
0.019205179 -2.7508898 0.73711663 42 15 -0.001205711
0.017669313 -3.0677297 -0.82200933 1 0 -0.001184975
0.015166555 -2.715544 0.047400735 6 8 -0.0011826711
0.015763065 -2.9133241 -0.67260367 52 1 -0.0011803671
0.015581784 -2.9758754 0.15596117 53 9 -0.001178063
0.015223978 -2.9075401 -0.56517625 47 2 -0.001175759
0.014985365 -2.9606528 0.25902686 1 10 -0.001173455
0.014306504 -2.9274738 -0.46367183 55 3 -0.0011711511
0.014041183 -2.9795904 0.36585179 56 11 -0.0011688471
0.01322391 -2.9140856 -0.35780841 51 4 -0.001166543
0.01280825 -2.9353821 0.46492329 49 12 -0.001164239
0.01264906 -2.8988991 -0.25362319 49 5 -0.001161935
0.012491887 -2.9821572 0.57967776 37 13 -0.0011596311
0.011633587 -2.8979998 -0.15187897 49 6 -0.0011573271
0.011380936 -2.9640119 0.68430108 37 14 -0.001155023
0.0087217456 -2.3796217 -0.041536726 72 7 -0.001152719
0.009589429 -2.7470765 0.73608136 39 15 -0.001150415
0.0068906108 -3.0368629 -0.81372708 2 0 -0.001129679
0.005993438 -2.8615582 0.049948789 1 8 -0.0011273751
0.0056081065 -2.9211562 -0.67440325 52 1 -0.001125071
0.0052043195 -2.9819033 0.15627518 46 9 -0.001122767
0.0050780214 -2.9095385 -0.5655579 50 2 -0.001120463
0.0046102484 -2.9347861 0.25676081 2 10 -0.001118159
0.0040627229 -2.9097271 -0.46085599 57 3 -0.0011158551
0.0036475775 -2.9855766 0.36658302 55 11 -0.001113551
0.0030520377 -2.914114 -0.35780841 49 4 -0.001111247
0.0025547999 -2.9275076 0.46367183 47 12 -0.001108943
0.0025298567 -2.8989258 -0.25362319 49 5 -0.001106639
0.0020806857 -2.9802196 0.57929617 40 13 -0.0011043351
0.0015192743 -2.9020174 -0.1520883 49 6 -0.001102031
0.0010395668 -2.977675 0.68745047 36 14 -0.001099727
0.00041687628 -2.3876364 -0.041676346 70 7 -0.001097423
-1.1991037e-07 -2.7432294 0.73504615 34 15 -0.001095119
-0.0036959851 -3.0252774 -0.81062132 1 0 -0.001074383
-0.0040871683 -2.9275515 0.051100649 2 8 -0.0010720791
-0.0045730942 -2.9114144 -0.67215377 53 1 -0.0010697751
-0.0049567367 -2.8400981 0.14884347 74 9 -0.001067471
-0.0050847819 -2.913465 -0.56632113 48 2 -0.001065167
-0.0060731946 -2.8998468 -0.45929164 51 3 -0.0010605591
-0.0067827874 -2.9895415 0.3670705 55 11 -0.0010582551
-0.0071108649 -2.9101369 -0.35732093 49 4 -0.001055951
-0.0076590339 -2.925523 0.46335894 48 12 -0.001053647
-0.0075789467 -2.8949323 -0.25327459 49 5 -0.001051343
-0.0083000334 -2.9723558 0.57776964 40 13 -0.001049039
-0.0085866973 -2.8940158 -0.15166962 48 6 -0.0010467351
-0.009415769 -2.9971478 0.69194949 36 14 -0.001044431
-0.0079308618 -2.3916228 -0.041746158 70 7 -0.001042127
-0.009555297 -2.7374172 0.73349321 28 15 -0.0010398231
-0.014256235 -3.0252461 -0.81062132 1 0 -0.001019087
-0.014365268 -2.9395173 0.051310074 14 8 -0.0010167831
-0.014696427 -2.9035859 -0.67035419 53 1 -0.001014479
-0.01561306 -2.9818671 0.15627518 46 9 -0.001012175
-0.015254723 -2.9134295 -0.56632113 49 2 -0.001009871
-0.016449859 -3.0403419 0.26599932 1 10 -0.001007567
-0.016217658 -2.9037585 -0.45991737 52 3 -0.0010052631
-0.017149678 -2.9775894 0.36560807 50 11 -0.001002959
-0.01722171 -2.902154 -0.35634598 49 4 -0.001000655
-0.017931385 -2.9353552 0.46492329 52 12 -0.00099835102
-0.017708521 -2.8988726 -0.25362319 51 5 -0.00099604705
-0.018762225 -2.9860511 0.580441 39 13 -0.00099374307
-0.018649688 -2.8879764 -0.15135561 41 6 -0.00099143898
-0.019813171 -2.9873531 0.68969995 37 14 -0.00098913501
-0.016279202 -2.3915803 -0.041746158 69 7 -0.00098683103
-0.019164631 -2.7450943 0.73556381 28 15 -0.00098452705
-0.024911394 -3.0367687 -0.81372708 1 0 -0.00096379104
-0.024759762 -2.9554462 0.051589314 4 8 -0.00096148707
-0.024848489 -2.9054654 -0.67080402 58 1 -0.00095918303
-0.02593456 -2.9718082 0.15575182 27 9 -0.000956879
-0.025321685 -2.9015794 -0.56403142 48 2 -0.00095457502
-0.026920384 -3.0243275 0.26460484 32 10 -0.00095227105
-0.026389506 -2.9076352 -0.46054313 52 3 -0.00094996701
-0.02769028 -2.9933913 0.36755794 52 11 -0.00094766304
-0.027277604 -2.8941362 -0.35537103 47 4 -0.000945359
-0.028082501 -2.9253983 0.46335894 51 12 -0.00094305503
-0.027903605 -2.9067624 -0.25432047 46 5 -0.00094075105
-0.02941536 -3.0095253 0.58502042 36 13 -0.00093844702
-0.030299762 -2.9931114 0.69104964 33 14 -0.00093383901
-0.024441738 -2.3735127 -0.041432012 14 7 -0.00093153503
-0.028847909 -2.7546694 0.73815197 21 15 -0.00092923106
-0.035375729 -3.0250731 -0.81062132 1 0 -0.00090849504
-0.034886617 -2.9393451 0.051310074 2 8 -0.00090619107
-0.035083912 -2.9131556 -0.67260367 50 1 -0.00090388703
-0.036234479 -2.9657085 0.1554378 37 9 -0.000901583
-0.035425685 -2.8995104 -0.56364983 47 2 -0.00089927902
-0.037428156 -3.0202305 0.26425621 46 10 -0.00089697505
-0.036538966 -2.9075253 -0.46054313 52 3 -0.00089467101
-0.03826518 -3.003201 0.36877668 46 11 -0.00089236698
-0.03740523 -2.8960083 -0.35561478 46 4 -0.00089006301
-0.038216386 -2.9193568 0.46242031 55 12 -0.00088775903
-0.039972547 -3.0133305 0.58578366 39 13 -0.00088315102
-0.040959798 -3.0085759 0.69464886 36 14 -0.00087854301
-0.032864898 -2.3834105 -0.041606538 1 7 -0.00087623904
-0.038274262 -2.7410302 0.73452848 20 15 -0.00087393506
-0.045935072 -3.024931 -0.81062132 1 0 -0.00085319905
-0.043518644 -2.8332343 0.04946012 1 8 -0.00085089501
-0.045252588 -2.9130154 -0.67260367 52 1 -0.00084859104
-0.04768496 -3.0354593 0.15910132 55 9 -0.000846287
-0.045577914 -2.9013319 -0.56403142 50 2 -0.00084398303
-0.048128437 -3.0300422 0.26512775 55 10 -0.00084167905
-0.046624199 -2.9034295 -0.45991737 52 3 -0.00083937502
-0.048941836 -3.0149581 0.37023908 27 11 -0.00083707098
-0.047806788 -2.9137235 -0.35780841 51 4 -0.00083476701
-0.048341189 -2.9152553 0.46179458 52 12 -0.00083246303
-0.050688237 -3.0249505 0.58807337 36 13 -0.00082785502
-0.051628176 -3.018157 0.69689834 40 14 -0.00082324701
-0.047842089 -2.74088 0.73452848 16 15 -0.00081863906
-0.058189392 -3.1155334 -0.83495027 15 0 -0.00079790305
-0.050958049 -2.7031083 0.047191311 30 8 -0.00079559901
-0.055309501 -2.9069943 -0.67125398 53 1 -0.00079329504
-0.058740225 -3.059237 0.16035739 54 9 -0.00079099101
-0.055855662 -2.9090068 -0.5655579 49 2 -0.00078868703
-0.058898397 -3.0398159 0.26599932 54 10 -0.000786383
-0.056565795 -2.893374 -0.45835301 57 3 -0.00078407902
-0.059622023 -3.0227079 0.37121406 14 11 -0.00078177504
-0.057977721 -2.9135389 -0.35780841 46 4 -0.00077947101
-0.058636054 -2.920994 0.46273321 54 12 -0.00077716704
-0.061167203 -3.0208292 0.58731008 36 13 -0.00077255903
-0.062404066 -3.0296485 0.69959778 37 14 -0.00076795102
-0.057409327 -2.7406962 0.73452848 12 15 -0.00076334301
-0.069534987 -3.1365566 -0.8406443 38 0 -0.00074260705
-0.059187651 -2.6489353 0.046248876 11 8 -0.00074030302
-0.065193318 -2.8950942 -0.66855454 49 1 -0.00073799904
-0.069191754 -3.0490298 0.15983403 52 9 -0.00073569501
-0.066053927 -2.9107568 -0.56593949 47 2 -0.00073339103
-0.069508702 -3.0395918 0.26599932 42 10 -0.000731087
-0.066938326 -2.9050083 -0.46023026 57 3 -0.00072878302
-0.070495486 -3.0363731 0.37292022 30 11 -0.00072647905
-0.067868717 -2.9014113 -0.35634598 49 4 -0.00072417501
-0.068971224 -2.9266961 0.46367183 52 12 -0.00072187104
-0.07208471 -3.036299 0.59036303 37 13 -0.00071726303
-0.072931923 -3.0274639 0.69914788 33 14 -0.00071265502
-0.066975869 -2.7404792 0.73452848 10 15 -0.00070804701
-0.08038453 -3.1324325 -0.83960903 33 0 -0.000687311
-0.071945615 -2.7846463 0.048622403 2 8 -0.00068500702
-0.0753491 -2.8967969 -0.66900444 52 1 -0.00068270304
-0.079991728 -3.0547593 0.16014804 49 9 -0.00068039901
-0.075854644 -2.8967705 -0.56326818 49 2 -0.00067809504
-0.080485672 -3.0532725 0.26721951 41 10 -0.000675791
-0.077025972 -2.9027822 -0.45991737 51 3 -0.00067348703
-0.08146508 -3.0499992 0.3746264 43 11 -0.00067118305
-0.077836156 -2.8952036 -0.35561478 50 4 -0.00066887902
-0.078812927 -2.9126146 0.46148172 56 12 -0.00066657504
-0.083056793 -3.0497665 0.59303439 42 13 -0.00066196703
-0.08366058 -3.0330348 0.70049757 42 14 -0.00065735902
-0.077134944 -2.761471 0.74022251 9 15 -0.00065275101
-0.091036491 -3.1224775 -0.83702081 34 0 -0.000632015
-0.084772997 -2.890317 0.05047236 22 8 -0.00062971102
-0.085690312 -2.9043078 -0.67080402 50 1 -0.00062740705
-0.091424331 -3.0804145 0.16150878 72 9 -0.00062510301
-0.085732572 -2.8886387 -0.56174171 49 2 -0.00062279904
-0.091678627 -3.0708966 0.26878831 54 10 -0.000620495
-0.087039605 -2.8985467 -0.45929164 55 3 -0.00061819103
-0.092710078 -3.0695381 0.37706378 52 11 -0.00061588705
-0.088002183 -2.8968985 -0.3558585 27 4 -0.00061358302
-0.088738151 -2.9044242 0.46023026 56 12 -0.00061127904
-0.094606139 -3.0788932 0.5987587 82 13 -0.00060667103
-0.094852738 -3.0522022 0.70499659 74 14 -0.00060206302
-0.087259002 -2.7766318 0.74436361 9 15 -0.00059745501
-0.10136776 -3.104763 -0.83236206 33 0 -0.000576719
-0.094074063 -2.8660197 0.0500535 7 8 -0.00057441503
-0.095634982 -2.8981481 -0.66945434 49 1 -0.00057211105
-0.10290528 -3.1020341 0.16266017 100 9 -0.00056980702
-0.096010968 -2.894208 -0.56288654 46 2 -0.00056750304
-0.1022644 -3.0665753 0.26843968 93 10 -0.00056519901
-0.097024255 -2.8942766 -0.45866591 51 3 -0.00056289503
-0.10362522 -3.0751476 0.37779501 100 11 -0.000560591
-0.099144541 -2.9119935 0.46148172 56 12 -0.00055598305
-0.10501762 -3.0687335 0.59685057 92 13 -0.00055137504
-0.10617936 -3.0713284 0.7094956 93 14 -0.00054676703
-0.096613698 -2.7666571 0.74177545 11 15 -0.00054215902
-0.11248437 -3.112113 -0.83443266 33 0 -0.000521423
-0.10523877 -2.8976481 0.050611977 1 8 -0.00051911903
-0.10532449 -2.886112 -0.66675496 47 1 -0.00051681505
-0.11268132 -3.0877044 0.16192746 42 9 -0.00051451102
-0.10611279 -2.8938553 -0.56288654 47 2 -0.00051220704
-0.11318828 -3.0721729 0.26896262 100 10 -0.00050990301
-0.10698052 -2.8899724 -0.45804018 52 3 -0.00050759903
-0.11421101 -3.0707998 0.37730753 108 11 -0.000505295
-0.1086531 -2.9077005 0.46085599 56 12 -0.00050068705
-0.11528461 -3.056577 0.59456086 99 13 -0.00049607904
-0.11636414 -3.0709596 0.7094956 94 14 -0.00049147103
-0.1060828 -2.7740433 0.74384594 10 15 -0.00048686302
-0.12303218 -3.1175137 -0.8359856 36 0 -0.00046612701
-0.11484725 -2.8972831 0.050611977 1 8 -0.00046382303
-0.11504977 -2.889641 -0.66765475 49 1 -0.000461519
-0.12339677 -3.099288 0.1625555 78 9 -0.00045921502
-0.11610094 -2.903296 -0.56479466 49 2 -0.00045691105
-0.12377489 -3.0817342 0.26983419 92 10 -0.00045460701
-0.11672276 -2.893549 -0.45866591 52 3 -0.00045230304
-0.12383115 -3.05652 0.37560135 104 11 -0.000449999
-0.11861578 -2.9152193 0.46210748 56 12 -0.00044539105
-0.12582257 -3.0659862 0.59646893 89 13 -0.00044078304
-0.12622631 -3.0627685 0.70769602 94 14 -0.00043617503
-0.11760787 -2.8296516 0.75885749 9 15 -0.00043156702
-0.13336967 -3.1170886 -0.8359856 36 0 -0.00041083101
-0.11587139 -2.6971009 0.047121495 22 8 -0.00040852703
-0.12446368 -2.88535 -0.66675496 45 1 -0.000406223
-0.13386856 -3.0908566 0.16213681 100 9 -0.00040391902
-0.12521803 -2.8911266 -0.56250495 48 2 -0.00040161505
-0.13373405 -3.0753353 0.26931125 100 10 -0.00039931101
-0.12614527 -2.8891993 -0.45804018 52 3 -0.00039700704
-0.13431375 -3.0640254 0.3765763 104 11 -0.00039470301
-0.1284427 -2.9068937 0.46085599 58 12 -0.000390095
-0.13598917 -3.065552 0.59646893 93 13 -0.00038548704
-0.13656817 -3.054522 0.70589644 90 14 -0.00038087904
-0.12974554 -2.8794012 0.7723161 9 15 -0.00037627103
-0.1446142 -3.1127193 -0.83495027 36 0 -0.00035553501
-0.13057524 -2.8105402 0.049111072 87 8 -0.00035323104
-0.13498831 -2.8946311 -0.66900444 50 1 -0.000350927
-0.14475033 -3.0923655 0.16224147 100 9 -0.00034862303
-0.13544518 -2.8828039 -0.56097847 48 2 -0.00034631905
-0.14481716 -3.0708442 0.26896262 106 10 -0.00034401502
-0.13692035 -2.8926637 -0.45866591 55 3 -0.00034171104
-0.14529002 -3.0694864 0.37730753 100 11 -0.00033940701
-0.13821228 -2.8985353 0.45960453 58 12 -0.000334799
-0.14741251 -3.0689547 0.59723216 93 13 -0.00033019105
-0.14776269 -3.0540011 0.70589644 92 14 -0.00032558304
-0.10552961 -2.1811159 -0.038116053 1 7 -0.000323279
-0.13876514 -2.8577051 0.76662207 9 15 -0.00032097503
-0.15480411 -3.0986893 -0.83132678 33 0 -0.00030023907
-0.13536838 -2.7001975 0.047191311 72 8 -0.00029793498
-0.14579262 -2.8980093 -0.66990423 50 1 -0.00029563101
-0.15558 -3.0818408 0.16171812 100 9 -0.00029332703
-0.14570528 -2.8862352 -0.56174171 45 2 -0.00029102305
-0.15503161 -3.0603707 0.26809105 100 10 -0.00028871908
-0.14661574 -2.8842766 -0.45741442 52 3 -0.00028641499
-0.15684271 -3.0748808 0.37803873 104 11 -0.00028411101
-0.14913903 -2.9039278 0.46054313 57 12 -0.00027950306
-0.12262782 -2.3877206 -0.20917378 1 5 -0.00027719897
-0.15751775 -3.0566576 0.59494245 96 13 -0.00027489499
-0.15862426 -3.0573587 0.70679623 90 14 -0.00027028704
-0.14994366 -2.870682 0.77024549 9 15 -0.00026567897
-0.16644432 -3.1135631 -0.83546793 20 0 -0.00024494308
-0.14607853 -2.72367 0.047610167 100 8 -0.00024263898
-0.15496504 -2.8799694 -0.66585511 49 1 -0.00024033501
-0.16644406 -3.0832734 0.1618228 100 9 -0.00023803103
-0.1558848 -2.8876693 -0.5621233 46 2 -0.00023572706
-0.16582119 -3.0618005 0.26826537 79 10 -0.00023342308
-0.1564686 -2.8798027 -0.45678869 55 3 -0.00023111899
-0.16703458 -3.0644038 0.37682006 100 11 -0.00022881501
-0.15938298 -2.9053614 0.46085599 58 12 -0.00022420706
-0.13096184 -2.3872781 -0.20917378 1 5 -0.00022190297
-0.16797119 -3.0521684 0.59417921 87 13 -0.00021959899
-0.16972624 -3.0645695 0.70859581 100 14 -0.00021499104
-0.12113462 -2.180305 -0.038116053 1 7 -0.00021268707
-0.16017805 -2.8739991 0.77128083 9 15 -0.00021038298
-0.17731176 -3.112963 -0.83546793 8 0 -0.00018964708
-0.15535666 -2.719151 0.047540355 100 8 -0.00018734299
-0.16457117 -2.8716288 -0.66405553 49 1 -0.00018503901
-0.17663305 -3.0727038 0.16129944 100 9 -0.00018273504
-0.16630213 -2.8929875 -0.56326818 49 2 -0.00018043106
-0.17685165 -3.0671701 0.26878831 72 10 -0.00017812697
-0.16674821 -2.8831828 -0.45741442 55 3 -0.00017582299
-0.17704102 -3.0519116 0.3753576 100 11 -0.00017351902
-0.17021424 -2.9166198 0.46273321 56 12 -0.00016891106
-0.17885341 -3.0554833 0.59494245 93 13 -0.000164303
-0.1795062 -3.0483954 0.70499659 88 14 -0.00015969505
-0.12992334 -2.199831 -0.038465101 1 7 -0.00015739107
-0.16998081 -2.8695655 0.77024549 9 15 -0.00015508698
-0.18747748 -3.100755 -0.83236206 1 0 -0.00013435108
-0.16605772 -2.7385523 0.047889404 120 8 -0.00013204699
-0.17494896 -2.8768723 -0.66540521 50 1 -0.00012974301
-0.18735743 -3.0720687 0.16129944 100 9 -0.00012743904
-0.17580171 -2.8825915 -0.56136012 46 2 -0.00012513506
-0.18792233 -3.0725002 0.26931125 90 10 -0.00012283097
-0.17729488 -2.89047 -0.45866591 50 3 -0.00012052699
-0.18793657 -3.0552378 0.37584507 108 11 -0.00011822302
-0.17941841 -2.9002349 0.46023026 58 12 -0.00011361507
-0.19000393 -3.0626786 0.59646893 96 13 -0.000109007
-0.13852732 -2.2266333 -0.11691854 1 6 -0.00010670302
-0.18990338 -3.0438602 0.70409679 92 14 -0.00010439905
-0.13635254 -2.1794062 -0.038116053 1 7 -0.00010209507
-0.18205291 -2.9017315 0.7790454 8 15 -9.9790981e-05
-0.1757441 -2.7399514 0.047924306 130 8 -7.6750992e-05
-0.18574059 -2.8879123 -0.66810459 50 1 -7.4447016e-05
-0.19782244 -3.0674095 0.16109009 34 9 -7.2143041e-05
-0.18573615 -2.8800011 -0.56097847 48 2 -6.9839065e-05
-0.19851737 -3.0698373 0.26913694 100 10 -6.7534973e-05
-0.19898704 -3.0605056 0.3765763 100 11 -6.2927022e-05
-0.18889651 -2.889735 0.45866591 59 12 -5.831907e-05
-0.15257464 -2.3340838 -0.20464167 1 5 -5.6014978e-05
-0.20043717 -3.0580788 0.59570575 93 13 -5.3711003e-05
-0.14629866 -2.2261364 -0.11691854 1 6 -5.1407027e-05
-0.20103955 -3.0509572 0.70589644 103 14 -4.9103051e-05
-0.14606889 -2.2108426 -0.038674533 1 7 -4.6799076e-05
-0.19179775 -2.8952956 0.77749246 10 15 -4.4494984e-05
-0.18436225 -2.7253554 0.047679976 134 8 -2.1454995e-05
-0.19568805 -2.8853021 -0.66765475 49 1 -1.9151019e-05
-0.20934191 -3.0786562 0.16171812 100 9 -1.6847043e-05
-0.19565533 -2.8773766 -0.56059688 47 2 -1.4543068e-05
-0.20828338 -3.0552113 0.26791674 100 10 -1.2238976e-05
-0.1652766 -2.4181457 -0.38389024 1 3 -9.935e-06
-0.20994012 -3.0637534 0.37706378 104 11 -7.6310243e-06
-0.19966117 -2.8989117 0.46023026 58 12 -3.0230731e-06
-0.15634044 -2.2699313 -0.19906372 1 5 -7.1898103e-07
-0.21083985 -3.053443 0.59494245 91 13 1.5849946e-06
-0.1540685 -2.2256122 -0.11691854 1 6 3.8889702e-06
-0.21168859 -3.0502367 0.70589644 94 14 6.1929459e-06
-0.15378508 -2.2103193 -0.038674533 1 7 8.4969215e-06
-0.20230637 -2.9003899 0.7790454 8 15 1.0801014e-05
-0.19344902 -2.7187111 0.047575258 133 8 2.304e-06
-0.20561987 -2.8826575 -0.6672048 46 1 4.6079999e-06
-0.22054443 -3.0918901 0.16245082 100 9 6.9120001e-06
-0.20611787 -2.882551 -0.56174171 49 2 9.2159999e-06
-0.2188044 -3.0524781 0.26774243 100 10 1.152e-05
-0.170885 -2.3781481 -0.37763283 1 3 1.3824e-05
-0.22006257 -3.0550821 0.37608883 104 11 1.6128e-05
-0.20898877 -2.8942931 0.45960453 61 12 2.0736001e-05
-0.1639754 -2.2653973 -0.19871511 1 5 2.304e-05
-0.22050263 -3.0389817 0.59227115 99 13 2.5343999e-05
-0.16183646 -2.2250607 -0.11691854 1 6 2.7648e-05
-0.22236758 -3.0572922 0.70769602 92 14 2.9952e-05
-0.16111399 -2.2097971 -0.038674533 1 7 3.2256001e-05
-0.21093771 -2.8862159 0.77542186 9 15 3.4559998e-05
-0.23107086 -3.1094346 -0.83546793 1 0 5.5296001e-05
-0.21474278 -2.8761299 -0.66585511 47 1 5.9903999e-05
-0.22871448 -3.0632582 0.16098543 100 9 6.2207997e-05
-0.21582225 -2.8838091 -0.5621233 47 2 6.4512002e-05
-0.22937286 -3.0576966 0.26826537 100 10 6.6815999e-05
-0.18410209 -2.4484816 -0.38889611 1 3 6.9119997e-05
-0.22974496 -3.0483973 0.3753576 108 11 7.1424001e-05
-0.21903196 -2.8994937 0.46054313 59 12 7.6032004e-05
-0.1705841 -2.2529211 -0.19766922 1 5 7.8336001e-05
-0.23132163 -3.0480218 0.59417921 87 13 8.0639998e-05
-0.16921422 -2.2245119 -0.11691854 1 6 8.2944003e-05
-0.23161796 -3.0448792 0.70499659 94 14 8.5248001e-05
-0.16600879 -2.1773481 -0.038116053 1 7 8.7551998e-05
-0.22153778 -2.8989842 0.7790454 10 15 8.9856003e-05
-0.24197879 -3.1163557 -0.83753842 7 0 0.000110592
-0.22047433 -2.8330014 0.049599741 7 8 0.000112896
-0.22443084 -2.8773448 -0.66630501 50 1 0.0001152
-0.23925029 -3.0604498 0.16088074 100 9 0.000117504
