# .PCD v0.7 - Point Cloud Data file format
VERSION 0.7
FIELDS x y z intensity ring time
SIZE 4 4 4 4 2 4
TYPE F F F F U F
COUNT 1 1 1 1 1 1
WIDTH 911
HEIGHT 1
VIEWPOINT 0 0 0 1 0 0 0
POINTS 911
DATA ascii
-0.77690035 -1.4326608 0.028447423 64 8 -0.036377512
-0.98594564 -1.8173984 -0.47734615 25 1 -0.036375206
-0.78026408 -1.4376661 0.085726306 100 9 -0.036372904
-1.1228429 -2.0688806 -0.45755997 3 2 -0.036370598
-1.4171355 -2.608953 -0.47024205 28 3 -0.03636599
-1.186662 -2.1837416 0.30516088 1 11 -0.036363687
-0.55938929 -1.0289819 -0.14380583 10 4 -0.036361381
-1.1683996 -2.1483467 0.38733178 1 12 -0.036359079
-1.409776 -2.5921676 -0.25815532 12 5 -0.036356777
-1.4064955 -2.5850608 0.57204539 40 13 -0.036354471
-0.66457361 -1.2209418 -0.072851658 27 6 -0.036352169
-1.4044486 -2.5791538 0.67800248 40 14 -0.036349863
-1.4116588 -2.5902417 0.79043341 47 15 -0.036345255
-0.90059441 -1.647699 -0.50314426 28 0 -0.03632452
-0.7790184 -1.4246765 0.028342709 52 8 -0.036322214
-0.99041295 -1.8105264 -0.47644633 25 1 -0.036319911
-0.78719532 -1.4384377 0.085935652 100 9 -0.036317606
-1.1592754 -2.1183374 -0.46939012 6 2 -0.036315303
-0.5712527 -1.0429822 -0.18834713 9 3 -0.036310695
-1.1837845 -2.1604362 0.30247974 8 11 -0.036308393
-0.55916095 -1.0200601 -0.14283088 33 4 -0.036306087
-1.2005873 -2.1892879 0.39546639 1 12 -0.036303785
-1.4130677 -2.5767491 -0.25710943 28 5 -0.036301479
-1.4022902 -2.5560379 0.56670272 40 13 -0.036299177
-0.66306567 -1.2081093 -0.072223626 27 6 -0.036296871
-1.4021881 -2.5537374 0.67260367 42 14 -0.036294568
-1.4048754 -2.5565162 0.78163356 48 15 -0.03628996
-0.90727293 -1.6462371 -0.50366187 31 0 -0.036269221
-0.77529687 -1.4061881 0.028028565 45 8 -0.036266919
-0.99202091 -1.7985262 -0.47419682 26 1 -0.036264617
-0.79221171 -1.435681 0.085935652 100 9 -0.036262311
-1.3639522 -2.4718144 -0.54876673 6 2 -0.036260009
-0.56820518 -1.0288774 -0.18615703 35 3 -0.036255401
-1.1951585 -2.1632409 0.30345467 21 11 -0.036253095
-0.56559908 -1.0233142 -0.14356211 21 4 -0.036250792
-1.1929281 -2.1574244 0.39046046 1 12 -0.036248486
-0.55628812 -1.0060536 -0.10057773 34 5 -0.036246184
-0.65760797 -1.1883121 -0.071176901 27 6 -0.036241576
-1.4025989 -2.533483 0.66855454 43 14 -0.03623927
-1.4025552 -2.5313189 0.77542186 45 15 -0.036234662
-0.91395181 -1.6447489 -0.50417954 30 0 -0.036213927
-0.78020102 -1.4034731 0.028028565 39 8 -0.036211625
-0.99450397 -1.7882404 -0.47239724 26 1 -0.036209319
-0.79042077 -1.4206898 0.08520294 100 9 -0.036207017
-1.3706626 -2.4636073 -0.54800349 1 2 -0.036204711
-0.56987125 -1.0234361 -0.1855313 41 3 -0.036200102
-1.1988384 -2.1521192 0.30247974 38 11 -0.0361978
-1.4098736 -2.5299246 -0.35561478 40 4 -0.036195494
-1.2158421 -2.1808527 0.39546639 1 12 -0.036193192
-0.5578562 -1.0006253 -0.10022911 46 5 -0.036190886
-1.3904555 -2.4930332 0.55487263 27 13 -0.036188584
-0.65396672 -1.1720563 -0.070339531 27 6 -0.036186278
-1.3933873 -2.4962413 0.6600064 42 14 -0.036183976
-1.3953657 -2.4977369 0.76662207 42 15 -0.036179367
-0.91968751 -1.6415486 -0.50417954 28 0 -0.036158632
-0.78998363 -1.4094634 0.028203089 29 8 -0.036156327
-1.0007402 -1.784758 -0.47239724 26 1 -0.036154024
-0.79805809 -1.4232872 0.085516959 100 9 -0.036151718
-1.3946221 -2.4862037 -0.55410933 20 2 -0.036149416
-0.57924235 -1.0317756 -0.18740851 9 3 -0.036144808
-1.213148 -2.1600368 0.3041859 47 11 -0.036142502
-1.4046465 -2.5010042 -0.35220242 40 4 -0.0361402
-1.2346784 -2.1974752 0.39922079 1 12 -0.036137894
-1.410686 -2.5097055 -0.25188008 11 5 -0.036135592
-1.3962625 -2.4830306 0.55372775 43 13 -0.036133286
-0.65413707 -1.1628035 -0.069920845 27 6 -0.036130983
-1.3863703 -2.4644318 0.65280795 40 14 -0.036128677
-0.67867601 -1.2059319 -0.02415413 2 7 -0.036126375
-1.3941634 -2.4762621 0.76144564 41 15 -0.036124073
-0.91562796 -1.6216675 -0.49900314 34 0 -0.036103334
-0.79071933 -1.3998713 0.028063469 17 8 -0.036101032
-1.0037769 -1.7763398 -0.47104752 25 1 -0.036098726
-0.7988432 -1.4136775 0.085098274 100 9 -0.036096424
-0.57099819 -1.0100586 -0.22553624 7 2 -0.036094118
-1.4104474 -2.4929566 -0.45366001 1 3 -0.03608951
-1.2244389 -2.1624277 0.39358914 1 12 -0.036082599
-1.3954327 -2.463408 -0.24769662 1 5 -0.036080293
-1.3899698 -2.4527659 0.54800349 37 13 -0.036077991
-0.63040876 -1.1119789 -0.066990033 28 6 -0.036075689
-1.3849236 -2.4428687 0.64830893 42 14 -0.036073383
-0.65702182 -1.1584498 -0.023246605 2 7 -0.036071081
-1.3899739 -2.4497821 0.75471634 43 15 -0.036068775
-0.92577761 -1.6270176 -0.50159132 33 0 -0.03604804
-0.7429269 -1.3051348 0.026213516 6 8 -0.036045734
-1.0086976 -1.7713078 -0.47059759 6 1 -0.036043432
-0.80575037 -1.4143512 0.08530762 100 9 -0.036041126
-0.5803532 -1.0182935 -0.22782594 40 2 -0.036038823
-0.88840348 -1.5581692 -0.28408504 1 3 -0.036034215
-0.91791523 -1.6086247 -0.22740822 3 4 -0.036029607
-1.241773 -2.1752956 0.39671785 1 12 -0.036027305
-0.90307993 -1.5813437 -0.1593207 5 5 -0.036024999
-1.3839141 -2.4223294 0.54227924 40 13 -0.036022697
-0.59266168 -1.0369427 -0.06259381 33 6 -0.036020391
-1.385707 -2.424484 0.64470971 37 14 -0.036018088
-1.3841282 -2.4197621 0.74695182 41 15 -0.03601348
-0.94135016 -1.6403691 -0.50676769 27 0 -0.035992742
-0.72281516 -1.2590473 0.025340894 6 8 -0.035990439
-0.57358819 -0.99871022 -0.26589215 1 1 -0.035988137
-0.81789386 -1.4235108 0.086040318 100 9 -0.035985831
-0.58505994 -1.0178616 -0.22820757 52 2 -0.035983529
-1.3884284 -2.4145515 -0.44114524 22 3 -0.035978921
-1.403035 -2.4379838 -0.34537774 9 4 -0.035974313
-1.2694496 -2.2049687 0.40297523 1 12 -0.035972007
-0.90787542 -1.5762967 -0.15914638 1 5 -0.035969704
-1.3790611 -2.3934257 0.53693652 42 13 -0.035967398
-0.56653565 -0.98285228 -0.059453651 49 6 -0.035965096
-1.3809593 -2.395752 0.6384111 40 14 -0.03596279
-1.3871957 -2.4046326 0.74384594 40 15 -0.035958182
-0.9599359 -1.6586441 -0.51349699 10 0 -0.035937447
-0.72441912 -1.2511981 0.02523618 8 8 -0.035935145
-0.58701199 -1.0134642 -0.27039117 31 1 -0.035932839
-0.81609643 -1.4084067 0.08530762 100 9 -0.035930537
-1.3873591 -2.3923581 -0.43801656 36 3 -0.035923623
-0.59188783 -1.0198292 -0.1447808 2 4 -0.035919014
-1.2616528 -2.1729679 0.39796934 1 12 -0.035916712
-1.3869818 -2.3878646 -0.24159572 21 5 -0.035914406
-1.3809196 -2.3764725 0.53426522 45 13 -0.035912104
-0.58017153 -0.99803644 -0.060500368 50 6 -0.035909798
-1.3779778 -2.3704576 0.63301229 44 14 -0.035907496
-1.3853137 -2.3811641 0.73815197 43 15 -0.035902888
-0.60278159 -1.0327781 -0.32041797 12 0 -0.035882153
-0.74210805 -1.2709839 0.025689943 9 8 -0.035879847
-0.58777398 -1.0062578 -0.26904148 58 1 -0.035877544
-0.82024533 -1.4036816 0.08520294 100 9 -0.035875238
-1.3861459 -2.3711543 -0.53388357 40 2 -0.035872936
-0.57041407 -0.97536504 -0.17896105 7 3 -0.035868328
-0.57656986 -0.9851017 -0.14014976 28 4 -0.03586372
-1.2855787 -2.1956038 0.40297523 1 12 -0.035861414
-0.57702035 -0.98508257 -0.099880479 9 5 -0.035859112
-1.378702 -2.3527629 0.53006744 46 13 -0.035856806
-0.6292792 -1.073439 -0.065210611 35 6 -0.035854504
-1.3718737 -2.340174 0.62626374 49 14 -0.035852198
-1.3823009 -2.3560755 0.73194027 46 15 -0.035847589
-0.59836853 -1.0174518 -0.31627688 65 0 -0.035827875
-0.77268291 -1.3133278 0.026597466 7 8 -0.035825573
-0.58023447 -0.98582929 -0.26409253 22 1 -0.035823267
-0.82489562 -1.4009539 0.08520294 100 9 -0.035820965
-0.55384928 -0.94062477 -0.21217963 8 2 -0.035818659
-0.56863105 -0.96495873 -0.1773967 26 3 -0.035814051
-0.57579982 -0.97634482 -0.1391748 62 4 -0.035809442
-1.3249731 -2.2457714 0.41298702 2 12 -0.03580714
-0.58011228 -0.98326492 -0.099880479 61 5 -0.035804834
-1.3800994 -2.3382757 0.52777767 45 13 -0.035802532
-0.62554002 -1.059418 -0.064477906 36 6 -0.035800226
-1.3677331 -2.3154771 0.62086493 44 14 -0.035797924
-0.60225743 -1.0191736 -0.020663649 2 7 -0.035795618
-1.3724105 -2.3215446 0.72262281 46 15 -0.035793316
-0.58319873 -0.98378283 -0.30644175 48 0 -0.035772581
-0.75788236 -1.277943 0.025934275 1 8 -0.035770275
-0.55980819 -0.94357443 -0.25329489 43 1 -0.035767972
-0.83181936 -1.4015012 0.085412286 100 9 -0.035765667
-0.55913311 -0.94206238 -0.21294285 15 2 -0.035763364
-1.2470877 -2.1003349 0.21370588 1 10 -0.035761058
-0.56896949 -0.95787287 -0.17645809 8 3 -0.035758756
-1.2757003 -2.1468177 0.30662328 1 11 -0.03575645
-0.57616127 -0.96920979 -0.13844359 40 4 -0.035754148
-1.3469402 -2.2649024 0.41736722 9 12 -0.035751842
-0.5753938 -0.96753424 -0.098485984 70 5 -0.03574954
-1.3701847 -2.3030736 0.52090853 44 13 -0.035747234
-0.59552532 -1.0005907 -0.061023727 43 6 -0.035744932
-1.3688285 -2.2989676 0.6177156 46 14 -0.035742626
-0.58534485 -0.982705 -0.019965554 2 7 -0.035740323
-1.3686392 -2.2968252 0.71641117 47 15 -0.035738017
-0.57473838 -0.96184081 -0.30023012 11 0 -0.035717282
-0.55609709 -0.92990726 -0.25014558 30 1 -0.035712674
-0.84080833 -1.4054446 0.085830979 80 9 -0.035710372
-1.3324679 -2.2272732 -0.50449902 22 2 -0.035708066
-1.2093915 -2.0207467 0.20603617 9 10 -0.035705764
-1.3242265 -2.2117462 -0.40829399 31 3 -0.035703458
-1.2576865 -2.099777 0.30052981 23 11 -0.035701156
-1.3396784 -2.2357817 -0.32002893 28 4 -0.03569885
-1.3497598 -2.2517154 0.41580287 16 12 -0.035696547
-1.3660995 -2.2780721 0.51632917 43 13 -0.035691939
-0.60826164 -1.0139201 -0.061965775 44 6 -0.035689633
-1.3708286 -2.2841501 0.61501622 45 14 -0.035687331
-0.57024378 -0.9497959 -0.019337267 10 7 -0.035685029
-1.3627229 -2.2688487 0.70916426 45 15 -0.035682723
-0.57011843 -0.94658989 -0.29608899 45 0 -0.035661988
-1.0271326 -1.7040423 -0.45935005 11 1 -0.03565738
-0.84055209 -1.3939495 0.08530762 66 9 -0.035655074
-1.3331374 -2.21084 -0.50182766 42 2 -0.035652772
-1.3309189 -2.2054186 -0.40798113 43 3 -0.035648163
-1.3361857 -2.2124002 -0.31734779 46 4 -0.035643555
-1.3657838 -2.2605157 0.41830578 16 12 -0.035641253
-0.63777208 -1.0555799 -0.10789881 1 5 -0.035638947
-1.3659183 -2.2598484 0.51327622 44 13 -0.035636645
-0.63556635 -1.0511001 -0.064373232 34 6 -0.035634339
-1.363664 -2.2543399 0.60826766 43 14 -0.035632037
-0.56734395 -0.93753463 -0.019127838 22 7 -0.035629731
-1.3666323 -2.2574673 0.70709366 45 15 -0.035627428
-0.56339437 -0.92808002 -0.29091263 67 0 -0.03560669
-1.1099734 -1.8270224 -0.49354258 30 1 -0.035602082
-0.84437573 -1.3892999 0.08520294 34 9 -0.035599779
-1.3459454 -2.2145612 -0.50373578 51 2 -0.035597473
-1.3207675 -2.1722815 0.22242144 1 10 -0.035595171
-1.3416882 -2.2058227 -0.40891972 52 3 -0.035592869
-1.3135902 -2.158778 0.31027937 4 11 -0.035590563
-1.3469964 -2.2128098 -0.31807902 55 4 -0.035588261
-1.3572268 -2.2287402 0.41329992 19 12 -0.035585955
-0.6424889 -1.0550489 -0.10807312 8 5 -0.035583653
-1.3697133 -2.2483599 0.51174974 44 13 -0.035581347
-0.63715273 -1.0454643 -0.064163886 32 6 -0.035579044
-1.3603655 -2.2312636 0.60331875 45 14 -0.035576738
-0.56124175 -0.92018366 -0.018813694 42 7 -0.035574436
-1.3664544 -2.2394903 0.70295256 45 15 -0.03557213
-0.55957288 -0.91457266 -0.28728914 14 0 -0.035551395
-1.1896138 -1.9427958 -0.52593553 24 1 -0.035546787
-1.357769 -2.2165465 -0.50526226 62 2 -0.035542179
-1.3137679 -2.1438749 0.21998109 12 10 -0.035539877
-1.3607365 -2.2196512 -0.41236129 57 3 -0.035537571
-1.3346089 -2.1761787 0.31344795 22 11 -0.035535268
-1.3588648 -2.2148623 -0.31905395 56 4 -0.035532963
-1.3556992 -2.2088366 0.41048408 39 12 -0.03553066
-0.63783044 -1.0392152 -0.10667863 12 5 -0.035528354
-1.3652256 -2.2234886 0.50717038 47 13 -0.035526052
-0.63975263 -1.041532 -0.06405922 34 6 -0.035523746
-1.3599845 -2.2132185 0.59971952 45 14 -0.035521444
-0.55083632 -0.89607275 -0.018359931 63 7 -0.035519138
-1.3580716 -2.2083771 0.69467032 43 15 -0.035516836
-1.0048597 -1.6295501 -0.51297939 25 0 -0.035496101
-1.2189039 -1.9751155 -0.53583342 28 1 -0.035491493
-0.83097148 -1.345983 0.082900167 1 9 -0.035489187
-1.3634353 -2.2084522 -0.50449902 41 2 -0.035486884
-1.3484641 -2.1833496 0.2245132 7 10 -0.035484578
-1.3632851 -2.2064855 -0.41079697 52 3 -0.035482276
-1.3693331 -2.2154098 0.31978518 48 11 -0.03547997
-1.3738959 -2.2219245 -0.32076016 52 4 -0.035477668
-1.3571658 -2.1940117 0.40860689 59 12 -0.035475362
-0.63621324 -1.0285106 -0.10580707 16 5 -0.03547306
-1.3574823 -2.1936677 0.50144607 49 13 -0.035470754
-0.63707674 -1.0291033 -0.063431181 34 6 -0.035468452
-1.3594929 -2.195204 0.5961203 47 14 -0.035466146
-0.54764217 -0.88394499 -0.018150503 63 7 -0.035463843
-1.3555951 -2.1872029 0.68949395 43 15 -0.035461538
-1.0074826 -1.6211101 -0.51142645 33 0 -0.035440803
-0.68734318 -1.1055529 0.022723034 1 8 -0.0354385
-1.2144696 -1.9526459 -0.5308845 26 1 -0.035436194
-0.84621614 -1.3600322 0.083946884 1 9 -0.035433892
-1.3524669 -2.1736746 -0.49762988 22 2 -0.035431586
-1.3636696 -2.1899753 -0.40860689 11 3 -0.035426978
-1.3550168 -2.1752329 0.31466666 49 11 -0.035424676
-1.3753443 -2.2070065 -0.3192977 49 4 -0.03542237
-1.3501855 -2.1657922 0.40422669 54 12 -0.035420068
-0.63031328 -1.0110667 -0.10423827 22 5 -0.035417762
-1.3495477 -2.163928 0.49572179 48 13 -0.035415459
-0.63220745 -1.0133172 -0.06259381 34 6 -0.035413153
-1.3599249 -2.1788728 0.59297097 49 14 -0.035410851
-0.54966509 -0.88033199 -0.018115599 49 7 -0.035408549
-1.3529867 -2.1660731 0.68431759 47 15 -0.035406243
-1.0110844 -1.614309 -0.51039118 36 0 -0.035385508
-0.69119811 -1.1031469 0.022723034 1 8 -0.035383202
-1.2150682 -1.9384876 -0.52818507 26 1 -0.0353809
-0.82549328 -1.3164594 0.081434757 1 9 -0.035378594
-1.3652612 -2.1772568 -0.49953794 45 2 -0.035376292
-0.90629256 -1.4447541 0.14921063 1 10 -0.035373986
-1.3618557 -2.1701427 -0.40579104 41 3 -0.035371684
-1.3488808 -2.1486337 0.31149808 48 11 -0.035369378
-1.3493304 -2.1476848 0.40172374 51 12 -0.035364769
-0.6327787 -1.0071732 -0.10406395 28 5 -0.035362467
-1.3487353 -2.1459064 0.49266884 48 13 -0.035360165
-0.63148838 -1.004341 -0.062175125 34 6 -0.035357859
-1.3446956 -2.1378222 0.58307308 50 14 -0.035355557
-0.53569472 -0.85132784 -0.017557122 47 7 -0.035353251
-1.3492188 -2.1433532 0.67862362 49 15 -0.035350949
-1.0218687 -1.6189382 -0.51297939 40 0 -0.03533021
-0.71639776 -1.1345439 0.023421129 1 8 -0.035327908
-1.2155832 -1.9243491 -0.52548569 26 1 -0.035325602
-0.82154799 -1.3000627 0.080597378 2 9 -0.035323299
-1.363414 -2.1575413 -0.49610341 51 2 -0.035320994
-0.87300324 -1.3809545 0.14293543 5 10 -0.035318691
-1.3651994 -2.1586976 -0.40453959 50 3 -0.035316385
-1.3489434 -2.1321692 0.30979189 49 11 -0.035314083
-1.3567469 -2.1436753 -0.31149808 43 4 -0.035311781
-1.3473086 -2.1279409 0.39890796 52 12 -0.035309475
-0.63415903 -1.0015916 -0.10371533 31 5 -0.035307173
-1.3499148 -2.1312342 0.49037915 49 13 -0.035304867
-0.63071436 -0.99538219 -0.061756436 37 6 -0.035302565
-1.3458899 -2.1232398 0.5803737 49 14 -0.035300259
-0.52474141 -0.82749861 -0.017103357 81 7 -0.035297956
-1.352553 -2.1321054 0.67655301 50 15 -0.03529565
-1.027514 -1.6153611 -0.51297939 50 0 -0.035274915
-0.74397159 -1.1691524 0.024189034 1 8 -0.035272609
-1.2003164 -1.8855723 -0.5160377 15 1 -0.035270307
-0.78295285 -1.2299376 0.076410502 1 9 -0.035268001
-1.356173 -2.129585 -0.49076074 52 2 -0.035265699
-0.86925423 -1.3644557 0.14154093 9 10 -0.035263397
-1.3621093 -2.1372612 -0.40141091 52 3 -0.035261091
-1.3489076 -2.1157305 0.30808574 50 11 -0.035258789
-1.3595794 -2.1324689 -0.31052312 50 4 -0.035256483
-1.3384241 -2.0984795 0.39421493 54 12 -0.03525418
-0.62800628 -0.98425531 -0.10214653 34 5 -0.035251874
-1.3478392 -2.1116152 0.48694456 49 13 -0.035249572
-0.6320352 -0.98980772 -0.061547089 36 6 -0.035247266
-1.3424357 -2.1023405 0.57587469 51 14 -0.035244964
-0.52532971 -0.82238358 -0.017033549 100 7 -0.035242658
-1.3450524 -2.1048183 0.6693061 50 15 -0.035240356
-1.0297379 -1.6070652 -0.51142645 48 0 -0.035219621
-0.70036244 -1.092604 0.022653224 5 8 -0.035217315
-1.1655374 -1.8176043 -0.49849153 10 1 -0.035215013
-0.78487098 -1.2239718 0.076201163 5 9 -0.035212707
-1.352627 -2.1085515 -0.48694456 52 2 -0.035210405
-0.87054569 -1.3565354 0.14101799 3 10 -0.035208099
-1.3499801 -2.1028111 -0.39577925 55 3 -0.035205796
-1.3516253 -2.1045647 0.30711079 50 11 -0.03520349
-1.3559161 -2.1112456 -0.30808574 49 4 -0.035201188
-1.3400365 -2.0857203 0.39265057 55 12 -0.035198882
-0.6258803 -0.97378719 -0.10127497 37 5 -0.03519658
-1.3399693 -2.0840149 0.48160195 49 13 -0.035194274
-0.63099229 -0.98098737 -0.061128404 34 6 -0.035191972
-1.3409663 -2.0847654 0.57227546 48 14 -0.035189666
-0.52480769 -0.81559205 -0.016928835 100 7 -0.035187364
-1.3373857 -2.0776048 0.66205913 51 15 -0.035185058
-1.0392522 -1.6101341 -0.51349699 50 0 -0.035164323
-0.73869282 -1.1440333 0.023770178 8 8 -0.03516202
-1.0901414 -1.6876848 -0.46384907 7 1 -0.035159715
-0.79997855 -1.2379997 0.07724788 5 9 -0.035157412
-1.3482548 -2.085681 -0.48274681 50 2 -0.035155106
-0.90856999 -1.4055113 0.14642164 12 10 -0.035152804
-1.3419284 -2.0750999 -0.39139909 52 3 -0.035150498
-1.3435011 -2.0767372 0.30369842 54 11 -0.035148196
-1.3546487 -2.0931678 -0.3061358 49 4 -0.03514589
-1.3376473 -2.0661058 0.38983473 50 12 -0.035143588
-0.62169427 -0.95989037 -0.10005479 33 5 -0.035141282
-1.3376275 -2.0644963 0.47816736 48 13 -0.03513898
-0.62137687 -0.9586668 -0.05987234 36 6 -0.035136674
-1.3418757 -2.07026 0.56957608 51 14 -0.035134371
-0.53200322 -0.82046652 -0.017068453 100 7 -0.035132065
-1.3383214 -2.0631995 0.65895331 51 15 -0.035129763
-1.0472537 -1.6095527 -0.51453227 58 0 -0.035109028
-0.74833524 -1.1496978 0.023944702 17 8 -0.035106722
-1.0856862 -1.6673473 -0.45935005 7 1 -0.03510442
-0.80560082 -1.2367327 0.077352546 5 9 -0.035102114
-1.3494591 -2.0708563 -0.48045707 49 2 -0.035099812
-1.3412035 -2.0581877 0.21492605 34 10 -0.035097506
-1.3387375 -2.0536196 -0.38827038 46 3 -0.035095204
-1.3402606 -2.055171 0.30126104 54 11 -0.035092898
-1.349296 -2.068238 -0.30321094 49 4 -0.035090595
-1.3365735 -2.0479555 0.38733178 52 12 -0.03508829
-0.62411904 -0.95593697 -0.099880479 36 5 -0.035085987
-1.3365966 -2.0464299 0.47511441 49 13 -0.035083681
-0.6205163 -0.94969505 -0.059453651 33 6 -0.035081379
-1.3323994 -2.0392263 0.56237763 49 14 -0.035079077
-0.53500682 -0.81851107 -0.017068453 100 7 -0.035076771
-1.3363599 -2.0437284 0.65429455 52 15 -0.035074469
-1.0563246 -1.6105498 -0.51608521 53 0 -0.03505373
-0.73938006 -1.1268841 0.023525843 26 8 -0.035051428
-1.1580889 -1.764364 -0.48724398 1 1 -0.035049122
-0.81232077 -1.2371109 0.0775619 11 9 -0.03504682
-1.3426708 -2.0447989 -0.47549605 47 2 -0.035044514
-1.3454565 -2.0482621 0.21440312 41 10 -0.035042211
-1.3408312 -2.0404449 -0.38670605 44 3 -0.035039905
-1.3379699 -2.0353162 0.29906741 7 11 -0.035037603
-1.3470509 -2.0483513 -0.30101728 49 4 -0.035035297
-1.3353853 -2.0298409 0.38482881 52 12 -0.035032995
-0.62964195 -0.95708174 -0.10022911 36 5 -0.035030693
-1.3372562 -2.0319121 0.47282472 48 13 -0.035028387
-0.61723816 -0.93751413 -0.058825623 24 6 -0.035026085
-1.3312896 -2.0213094 0.55877846 49 14 -0.035023779
-0.5358026 -0.81320512 -0.016998643 100 7 -0.035021476
-1.3385257 -2.0307517 0.6517064 50 15 -0.03501917
-1.0715263 -1.6213579 -0.52074397 11 0 -0.034998436
-0.71353269 -1.0792577 0.022583414 19 8 -0.03499613
-1.2889423 -1.9488572 -0.53943259 2 1 -0.034993827
-0.80340934 -1.2142797 0.076305829 32 9 -0.034991521
-1.344384 -2.031913 -0.47358796 13 2 -0.034989219
-1.3512174 -2.040693 -0.38764465 14 3 -0.034984611
-0.83093739 -1.2544581 0.18475394 11 11 -0.034982309
-1.3487102 -2.0353627 -0.29979861 42 4 -0.034980003
-1.3195426 -1.9905909 0.37825859 49 12 -0.034977701
-0.6186682 -0.93328947 -0.097963057 31 5 -0.034975395
-1.3400007 -2.0206871 0.47129822 48 13 -0.034973092
-0.61277795 -0.92370361 -0.058092915 20 6 -0.034970786
-1.3351046 -2.0117788 0.55742872 47 14 -0.034968484
-0.53642595 -0.807998 -0.016928835 100 7 -0.034966178
-1.3306426 -2.0035372 0.64445943 45 15 -0.034963876
-1.0728965 -1.6111759 -0.51867342 9 0 -0.034943137
-0.63082105 -0.94695002 0.019860838 13 8 -0.034940835
-1.2481874 -1.8729942 -0.51963693 3 1 -0.034938533
-0.80542731 -1.2081442 0.07609649 32 9 -0.034936227
-1.3699816 -2.0549779 -0.48007545 1 2 -0.034933925
-0.81915051 -1.2282643 0.12916481 25 10 -0.034931619
-1.3484657 -2.0211749 -0.38482881 4 3 -0.034929316
-0.81547534 -1.2218297 0.18036664 43 11 -0.034927011
-1.3188027 -1.974474 0.3760685 8 12 -0.034922402
-0.61306918 -0.91786975 -0.096568562 30 5 -0.0349201
-1.3350482 -1.9980412 0.46710047 49 13 -0.034917794
-0.59713018 -0.89333111 -0.056313496 27 6 -0.034915492
-1.3334529 -1.9941467 0.55382949 48 14 -0.034913186
-0.54146683 -0.80944473 -0.016998643 100 7 -0.034910884
-1.3247359 -1.9796138 0.63824779 43 15 -0.034908578
-0.53064609 -0.79087669 -0.25519559 2 0 -0.034887843
-0.62966466 -0.93810093 0.019721219 33 8 -0.034885541
-0.53339082 -0.79436809 -0.22090194 1 1 -0.034883235
-0.85975486 -1.2799326 0.080806725 6 9 -0.034880932
-1.3410212 -1.9964025 -0.46748206 4 2 -0.034878626
-0.82676667 -1.2303586 0.12968774 58 10 -0.034876324
-1.3334718 -1.9836675 -0.37857145 11 3 -0.034874018
-0.82970518 -1.233801 0.18256028 14 11 -0.034871716
-0.82055837 -1.2192802 0.23277451 22 12 -0.034867108
-0.61960661 -0.92068297 -0.097091496 33 5 -0.034864802
-1.3288575 -1.9738259 0.46252102 51 13 -0.0348625
-0.57793093 -0.85810959 -0.054220054 27 6 -0.034860194
-1.3371391 -1.9846313 0.5524798 48 14 -0.034857891
-0.54317141 -0.80589157 -0.016963739 100 7 -0.034855586
-1.3251576 -1.9653672 0.63514197 44 15 -0.034853283
-0.54422307 -0.80502409 -0.26037198 4 0 -0.034832548
-0.63181549 -0.93424076 0.019686313 42 8 -0.034830242
-0.5165047 -0.76344842 -0.21280369 3 1 -0.03482794
-0.93586248 -1.3827828 0.087505728 6 9 -0.034825634
-0.50618088 -0.74790716 -0.17554428 3 2 -0.034823332
-0.82770538 -1.2225157 0.12916481 15 10 -0.034821026
-0.52507764 -0.77524495 -0.14829989 10 3 -0.034818724
-1.3250579 -1.9556313 0.29004908 2 11 -0.034816418
-1.3309679 -1.963616 -0.29126775 1 4 -0.034814116
-0.81815779 -1.2065986 0.23089729 45 12 -0.03481181
-0.61834401 -0.91191828 -0.096394248 24 5 -0.034809507
-1.3291268 -1.9594269 0.46023133 51 13 -0.034807201
-0.57195109 -0.84286565 -0.053382684 27 6 -0.034804899
-1.3221686 -1.9477051 0.54348177 51 14 -0.034802593
-0.54822803 -0.8072992 -0.017033549 43 7 -0.034800291
-1.3276677 -1.9543377 0.63307142 45 15 -0.034797989
-0.51440364 -0.75521982 -0.24484283 5 0 -0.03477725
-0.63282055 -0.92872465 0.019616505 22 8 -0.034774948
-0.50160503 -0.73587698 -0.20560527 4 1 -0.034772642
-0.91142797 -1.3366044 0.084784262 12 9 -0.03477034
-0.51210672 -0.75100183 -0.17668915 28 2 -0.034768034
-0.83196747 -1.2196192 0.12916481 30 10 -0.034765732
-0.52666712 -0.77177566 -0.14798702 39 3 -0.034763426
-1.3385916 -1.960831 0.29151151 1 11 -0.034761123
-0.53512549 -0.78358328 -0.1165071 6 4 -0.034758817
-0.81456441 -1.1923178 0.22870721 8 12 -0.034756515
-0.61478001 -0.89988357 -0.095348388 12 5 -0.034754209
-1.324881 -1.9385666 0.45641515 52 13 -0.034751907
-0.57714421 -0.84416145 -0.053592026 23 6 -0.034749605
-1.3157579 -1.9237759 0.53808296 52 14 -0.034747299
-0.56120533 -0.82023382 -0.017347692 48 7 -0.034744997
-1.3257523 -1.9369376 0.62893027 46 15 -0.034742691
-1.1062182 -1.6119676 -0.52384979 3 0 -0.034721956
-0.63153142 -0.91991568 0.019476885 7 8 -0.03471965
-0.51299626 -0.74697286 -0.20920448 42 1 -0.034717347
-0.85819006 -1.2496089 0.079445995 47 9 -0.034715042
-0.51250154 -0.74597341 -0.17592591 61 2 -0.034712739
-0.83057749 -1.2084975 0.12829326 50 10 -0.034710433
-0.53159612 -0.77318823 -0.14861277 64 3 -0.034708131
-1.318429 -1.916893 0.28566176 1 11 -0.034705829
-0.52647167 -0.76544875 -0.11406972 32 4 -0.034703523
-1.3078308 -1.9007726 0.36543098 43 12 -0.034701221
-0.60436171 -0.87803781 -0.093256645 1 5 -0.034698915
-1.3294129 -1.930696 0.45565188 50 13 -0.034696613
-0.59028423 -0.85694498 -0.054534074 10 6 -0.034694307
-1.3199191 -1.9161922 0.53718311 53 14 -0.034692004
-0.55371046 -0.80354881 -0.017033549 84 7 -0.034689698
-1.3223003 -1.9182156 0.62427157 47 15 -0.034687396
-1.1104592 -1.606701 -0.52333212 3 0 -0.034666657
-0.61524552 -0.88985419 0.018883504 6 8 -0.034664355
-0.5154705 -0.74526757 -0.20920448 87 1 -0.034662053
-0.86346537 -1.2483987 0.079550661 56 9 -0.034659747
-0.50938708 -0.73619747 -0.17401782 31 2 -0.034657445
-0.84591961 -1.2221191 0.13003637 54 10 -0.034655139
-0.51728898 -0.74706036 -0.14391972 31 3 -0.034652837
-1.3304303 -1.9206694 0.28688046 11 11 -0.034650531
-0.53013742 -0.76533043 -0.11431345 90 4 -0.034648228
-1.3130013 -1.8948016 0.36511809 51 12 -0.034645922
-0.60726988 -0.87602901 -0.093256645 9 5 -0.03464362
-0.59995335 -0.86482906 -0.055162102 4 6 -0.034639012
-1.3173802 -1.8989954 0.53358394 52 14 -0.034636706
-0.5586521 -0.80499399 -0.017103357 81 7 -0.034634404
-1.3198407 -1.901125 0.62013048 51 15 -0.034632098
-0.531955 -0.76424396 -0.24950157 8 0 -0.034611363
-0.60333806 -0.86647534 0.018429741 6 8 -0.034609061
-0.50791448 -0.72916275 -0.20515537 37 1 -0.034606755
-0.90641427 -1.3012495 0.083109505 22 9 -0.034604453
-1.3222163 -1.8974693 -0.44954604 20 2 -0.034602147
-0.86591882 -1.2421895 0.13247673 8 10 -0.034599844
-1.3208917 -1.8934541 0.28346813 18 11 -0.034595236
-0.52926522 -0.75868404 -0.11358224 74 4 -0.03459293
-1.3147556 -1.8839575 0.36386663 49 12 -0.034590628
-0.59762603 -0.85604006 -0.091339223 21 5 -0.034588322
-0.84195912 -1.205574 0.28583187 3 13 -0.03458602
-0.59252292 -0.84809959 -0.054220054 1 6 -0.034583714
-1.299116 -1.8594718 0.52368605 50 14 -0.034581412
-0.55788189 -0.79821986 -0.016998643 81 7 -0.034579106
-1.2940359 -1.8508232 0.60511893 48 15 -0.034576803
-0.53005081 -0.7561481 -0.24743101 39 0 -0.034556068
-0.61998558 -0.88411683 0.0188486 6 8 -0.034553763
-1.32059 -1.8824996 -0.5308845 31 1 -0.03455146
-0.92334151 -1.3162222 0.084260903 33 9 -0.034549154
-1.3251179 -1.888253 -0.44840118 45 2 -0.034546852
-0.97535318 -1.3893331 0.14851339 1 10 -0.034544546
-1.3328278 -1.8978301 -0.36730817 57 3 -0.034542244
-1.3100458 -1.8646986 0.27981204 48 11 -0.034539938
-0.56150019 -0.79863775 -0.085412621 29 5 -0.034533028
-0.82449269 -1.1722646 0.27858114 30 13 -0.034530722
-0.59533209 -0.84612995 -0.054220054 1 6 -0.034528419
-1.298547 -1.8455909 0.52098668 51 14 -0.034526113
-0.56973368 -0.80944741 -0.017277883 36 7 -0.034523811
-1.3035024 -1.8512608 0.60667187 50 15 -0.034521505
-0.53170407 -0.75262249 -0.24691339 49 0 -0.034504175
-0.62668431 -0.88673776 0.018953314 8 8 -0.034501873
-1.3196062 -1.8665082 -0.52773517 51 1 -0.034499567
-0.92723531 -1.3110365 0.084156223 44 9 -0.034497265
-1.3184263 -1.8641491 -0.44382176 53 2 -0.034494959
-1.3237979 -1.8703592 -0.362928 51 3 -0.034490351
-1.3191658 -1.8631248 0.28029951 58 11 -0.034488048
-1.3240805 -1.8693742 -0.28127447 52 4 -0.034485742
-1.3099304 -1.8487127 0.3588607 5 12 -0.03448344
-0.54023397 -0.7624355 -0.081752084 71 5 -0.034481134
-0.82537782 -1.1644298 0.27743632 59 13 -0.034478832
-0.59958464 -0.84557164 -0.054324731 1 6 -0.034476526
-1.305624 -1.8405913 0.52098668 51 14 -0.034474224
-0.60061151 -0.84639347 -0.018115599 21 7 -0.034471918
-1.3195474 -1.8588445 0.61081296 51 15 -0.034469616
-0.5309673 -0.74604028 -0.24536048 14 0 -0.034448881
-0.63789439 -0.89594769 0.019197647 18 8 -0.034446575
-1.3193302 -1.8523667 -0.52503574 55 1 -0.034444273
-0.92601097 -1.2996589 0.083632864 33 9 -0.034441967
-1.3123933 -1.8419477 -0.43962395 54 2 -0.034439664
-1.3199973 -1.8512512 -0.36011216 53 3 -0.034435056
-1.3060646 -1.831035 0.27615595 51 11 -0.03443275
-1.3282917 -1.861509 -0.28078699 54 4 -0.034430448
-1.3083421 -1.8328744 0.35667065 20 12 -0.034428142
-0.55678284 -0.78000468 -0.083843827 31 5 -0.03442584
-0.56770408 -0.79471767 -0.051184569 1 6 -0.034421232
-1.3052428 -1.8265094 0.51828724 52 14 -0.034418926
-0.61402869 -0.85893261 -0.018429741 15 7 -0.034416623
-1.3102953 -1.8322276 0.60356599 51 15 -0.034414317
-1.1549392 -1.6108247 -0.5310967 45 0 -0.034393582
-0.63752133 -0.88884091 0.019092934 25 8 -0.03439128
-1.3212435 -1.8414171 -0.52323616 59 1 -0.034388974
-0.89327401 -1.2444967 0.080283366 86 9 -0.034386672
-1.3145555 -1.8307457 -0.43809745 54 2 -0.034384366
-1.3149265 -1.8305887 -0.35698348 49 3 -0.034379758
-1.323195 -1.8407427 -0.27834961 52 4 -0.03437515
-1.2962795 -1.8026359 0.35166472 37 12 -0.034372848
-0.59919649 -0.83294958 -0.089770414 19 5 -0.034370542
-1.3187655 -1.8325554 0.43886071 6 13 -0.034368239
-0.57294685 -0.79587346 -0.051393915 2 6 -0.034365933
-1.3070562 -1.8156158 0.5164876 53 14 -0.034363631
-0.60300004 -0.83731169 -0.018010885 5 7 -0.034361329
-1.3031323 -1.8088332 0.59735435 49 15 -0.034359023
-1.1642293 -1.6112787 -0.53264964 68 0 -0.034338288
-0.62671781 -0.86705023 0.018674076 19 8 -0.034335982
-1.3188488 -1.8239287 -0.51963693 59 1 -0.03433368
-0.83695954 -1.1570642 0.074840426 43 9 -0.034331374
-1.3166531 -1.8195534 -0.436571 54 2 -0.034329072
-0.96476841 -1.3332651 0.14398128 1 10 -0.034326766
-1.3123608 -1.812956 -0.35448053 50 3 -0.034324463
-0.89533442 -1.2364016 0.18743508 34 11 -0.034322158
-1.3241099 -1.8278424 -0.27713093 54 4 -0.034319855
-1.3121511 -1.8106689 0.35416767 60 12 -0.034317553
-0.60341489 -0.83236092 -0.089944728 25 5 -0.034315247
-1.2966586 -1.7879765 0.42932025 7 13 -0.034312945
-0.55357629 -0.76305211 -0.04940515 18 6 -0.034310639
-1.3102692 -1.8060811 0.51513791 47 14 -0.034308337
-0.64599937 -0.89012164 -0.019197647 2 7 -0.034306031
-1.3097533 -1.8040448 0.59735435 49 15 -0.034303728
-1.1678529 -1.6038773 -0.53161436 69 0 -0.03428299
-0.63224626 -0.86798012 0.018743884 20 8 -0.034280688
-1.3174915 -1.8080578 -0.5164876 66 1 -0.034278382
-0.70707399 -0.96999633 0.062907822 30 9 -0.034276079
-1.3160574 -1.8054276 -0.43428129 52 2 -0.034273773
-0.96612692 -1.3248905 0.14345835 2 10 -0.034271471
-1.3120122 -1.7985582 -0.35260335 51 3 -0.034269169
-0.88932818 -1.21868 0.18524142 52 11 -0.034266863
-1.3179256 -1.8053404 -0.2744498 52 4 -0.034264561
-1.3117888 -1.7962757 0.35229045 62 12 -0.034262255
-0.60631669 -0.83024955 -0.089944728 24 5 -0.034259953
-0.87554324 -1.1984717 0.28850323 12 13 -0.034257647
-0.54445177 -0.74498975 -0.048358425 66 6 -0.034255344
-0.69883704 -0.95553952 -0.020663649 2 7 -0.034250736
-1.308372 -1.7883184 0.59373093 48 15 -0.03424843
-1.1768723 -1.6044642 -0.5331673 64 0 -0.034227695
-0.64118707 -0.87382925 0.01891841 26 8 -0.034225389
-1.3064979 -1.7798836 -0.5097391 62 1 -0.034223087
-0.71754861 -0.97718126 0.063535862 37 9 -0.034220785
-1.3165419 -1.7929101 -0.4323732 55 2 -0.034218479
-0.9601298 -1.3070587 0.14188954 2 10 -0.034216177
-1.3089242 -1.7812332 -0.35010037 52 3 -0.034213871
-0.8559528 -1.1643863 0.17744178 42 11 -0.034211569
-1.3089304 -1.7799393 -0.27128118 53 4 -0.034209263
-1.289957 -1.7534972 0.34478158 49 12 -0.03420696
-0.61157221 -0.83133787 -0.090293348 22 5 -0.034204654
-1.3032912 -1.7709746 0.42741215 48 13 -0.034202352
-0.55178535 -0.74951839 -0.048777115 100 6 -0.034200046
-0.84243083 -1.1438988 0.32797864 1 14 -0.034197744
-1.3146064 -1.7837404 0.59373093 48 15 -0.034193136
-1.1836137 -1.6019 -0.53368485 66 0 -0.034172401
-0.64779925 -0.87640995 0.019023122 29 8 -0.034170095
-1.3045927 -1.764344 -0.50658977 55 1 -0.034167793
-0.76015025 -1.0276594 0.066990033 18 9 -0.034165487
-1.3111168 -1.7725201 -0.42855701 59 2 -0.034163184
-0.91491151 -1.2364322 0.13456847 4 10 -0.034160879
-1.3139586 -1.7750657 -0.3497875 53 3 -0.034158576
-0.85528648 -1.1550102 0.17646682 27 11 -0.03415627
-1.3139541 -1.7737643 -0.27103746 51 4 -0.034153968
-1.2925422 -1.7442223 0.34384301 10 12 -0.034151662
-0.60498071 -0.81639183 -0.08889886 24 5 -0.03414936
-1.2977731 -1.7506431 0.42359596 50 13 -0.034147054
-0.54963952 -0.74117059 -0.048358425 100 6 -0.034144752
-1.2899469 -1.7388159 0.49984124 18 14 -0.034142446
-0.64590549 -0.87034732 -0.01891841 2 7 -0.034140144
-1.3150671 -1.771385 0.59114271 49 15 -0.034137838
-1.193812 -1.6039575 -0.53575546 71 0 -0.034117103
-0.64488339 -0.86612368 0.0188486 31 8 -0.0341148
-1.3153998 -1.7660307 -0.50838935 66 1 -0.034112494
-0.85442615 -1.1467185 0.074945092 13 9 -0.034110192
-1.3102582 -1.758487 -0.42626733 62 2 -0.034107886
-0.88469154 -1.1869049 0.12951343 9 10 -0.034105584
-1.3036157 -1.7482979 -0.34540737 55 3 -0.034103278
-1.315389 -1.7628032 -0.27006248 44 4 -0.03409867
-0.9134078 -1.2236471 0.24184772 7 12 -0.034096368
-0.60305935 -0.80788869 -0.088201612 24 5 -0.034094062
-1.2968286 -1.7366638 0.42130631 53 13 -0.034091759
-0.56417608 -0.75524873 -0.04940515 49 6 -0.034089454
-1.2936752 -1.7311809 0.49894145 51 14 -0.034087151
-0.63936138 -0.85527414 -0.018639171 2 7 -0.034084849
-1.3027312 -1.7420303 0.58286053 68 15 -0.034082543
-1.2133098 -1.6183287 -0.54196709 69 0 -0.034061808
-0.64070398 -0.85426885 0.018639171 34 8 -0.034059502
-1.2946575 -1.7255762 -0.4980416 56 1 -0.0340572
-0.86301875 -1.1502692 0.075363785 13 9 -0.034054894
-1.3069605 -1.741341 -0.42321438 62 2 -0.034052592
-0.88045537 -1.1726567 0.12829326 11 10 -0.034050286
-1.3025922 -1.7342598 -0.34353012 57 3 -0.034047984
-0.92295122 -1.2283627 0.18865377 1 11 -0.034045678
-1.3236122 -1.7616053 -0.27054995 38 4 -0.034043375
-0.91746056 -1.2206115 0.24184772 7 12 -0.034041069
-0.60587579 -0.80577868 -0.088201612 22 5 -0.034038767
-1.2863603 -1.7101612 0.41596362 55 13 -0.034036465
-0.57761675 -0.76763797 -0.050347198 13 6 -0.034034159
-1.2900352 -1.714424 0.49534222 48 14 -0.034031857
-0.63978863 -0.84995401 -0.01856936 2 7 -0.034029551
-1.301311 -1.7237661 -0.57871938 51 0 -0.03400651
-0.64594358 -0.855331 0.01870898 38 8 -0.034004208
-1.299198 -1.7197186 -0.49759173 63 1 -0.034001902
-0.8547892 -1.1314648 0.074317068 13 9 -0.0339996
-1.3127278 -1.7369974 -0.42321438 62 2 -0.033997294
-0.88914543 -1.1760876 0.12899049 13 10 -0.033994991
-1.3035699 -1.7236285 -0.34227866 57 3 -0.033992685
-0.92342663 -1.2205461 0.18792254 3 11 -0.033990383
-1.3042953 -1.7239622 -0.26543146 19 4 -0.033988081
-0.91554266 -1.2096866 0.24028336 6 12 -0.033985775
-0.60613918 -0.80058813 -0.087852985 24 5 -0.033983473
-1.2896538 -1.702756 0.41520041 54 13 -0.033981167
-0.58257151 -0.76890212 -0.050556537 1 6 -0.033978865
-1.2945366 -1.7085834 0.4948923 48 14 -0.033976559
-0.65468276 -0.86376435 -0.01891841 2 7 -0.033974256
-1.328262 -1.7518249 0.58907217 41 15 -0.03397195
-1.3128655 -1.727131 -0.58130759 51 0 -0.033951215
-0.65845966 -0.86591828 0.018988218 47 8 -0.033948909
-1.2954546 -1.7029932 -0.49399251 53 1 -0.033946607
-0.85147673 -1.1189377 0.073689036 13 9 -0.033944301
-1.3021348 -1.7105345 -0.41787171 62 2 -0.033941999
-0.88700652 -1.165206 0.12811893 16 10 -0.033939697
-1.3020979 -1.7098668 -0.34040144 55 3 -0.033937391
-0.9082219 -1.1922116 0.18402272 7 11 -0.033935089
-1.2982727 -1.7036097 -0.26299405 11 4 -0.033932783
-0.90778369 -1.190774 0.23715468 8 12 -0.03393048
-0.61134648 -0.80163598 -0.088201612 21 5 -0.033928175
-0.84413809 -1.1060861 0.32123011 26 14 -0.033921264
-0.62129015 -0.81379074 -0.017871264 2 7 -0.033918958
-1.3320239 -1.7441069 0.58803689 10 15 -0.033916656
-1.2968674 -1.6931683 -0.57147247 48 0 -0.033895921
-0.65798026 -0.85873717 0.018883504 47 8 -0.033893615
-1.2981312 -1.6935935 -0.49264279 59 1 -0.033891313
-0.85435647 -1.1142246 0.073584363 13 9 -0.033889007
-1.2976416 -1.6917306 -0.41443717 61 2 -0.033886705
-0.87671995 -1.1429766 0.12602721 14 10 -0.033884399
-1.3023434 -1.6972469 -0.33883709 60 3 -0.033882096
-0.91500294 -1.1920241 0.1845102 12 11 -0.03387979
-0.58878171 -0.76676089 -0.11870075 1 4 -0.033877488
-0.89048165 -1.159241 0.23152302 8 12 -0.033875182
-0.6045686 -0.78675121 -0.086807117 26 5 -0.03387288
-0.94644117 -1.2312001 0.30185983 7 13 -0.033870574
-0.84343469 -1.0968055 0.3194305 55 14 -0.033865966
-0.6059795 -0.78773338 -0.017347692 8 7 -0.033863664
-1.3336948 -1.7330892 0.58596635 9 15 -0.033861358
-1.3007038 -1.6853448 -0.57043719 29 0 -0.033840623
-0.65256888 -0.84524006 0.018639171 48 8 -0.033838321
-1.2971834 -1.6795702 -0.48994341 59 1 -0.033836015
-0.84847438 -1.0985898 0.072746992 14 9 -0.033833712
-1.2987373 -1.6809764 -0.41291067 61 2 -0.033831406
-0.86628246 -1.1208385 0.12393546 14 10 -0.033829104
-1.2916397 -1.6705836 -0.33445692 60 3 -0.033826798
-0.91207868 -1.1792414 0.18304777 13 11 -0.033824496
-0.60238481 -0.77883315 -0.12089439 2 4 -0.03382219
-0.87155533 -1.1264412 0.22557852 11 12 -0.033819888
-0.59755516 -0.77203149 -0.085412621 31 5 -0.033817582
-0.95433897 -1.2325459 0.30300471 6 13 -0.03381528
-0.85919142 -1.109261 0.32392952 61 14 -0.033810671
-0.60137677 -0.77612913 -0.017138263 21 7 -0.033808365
-1.3302681 -1.7162081 0.58182526 9 15 -0.033806063
-1.2908757 -1.6611919 -0.56370795 31 0 -0.033785328
-0.65168631 -0.83833492 0.018534455 49 8 -0.033783022
-1.2895865 -1.6583378 -0.48499447 50 1 -0.03378072
-0.82023495 -1.0547774 0.070025519 25 9 -0.033778414
-1.3006881 -1.6720117 -0.41176581 58 2 -0.033776112
-0.85408753 -1.0975187 0.12166941 13 10 -0.033773806
-1.2862512 -1.652263 -0.33164111 59 3 -0.033771504
-0.90866613 -1.1668133 0.18158534 16 11 -0.033769198
-0.61960047 -0.79562563 -0.12381926 7 4 -0.033766896
-0.88621187 -1.1375697 0.22839434 23 12 -0.03376459
-0.60501099 -0.77633178 -0.086109869 30 5 -0.033762287
-0.94272876 -1.2092463 0.29804367 5 13 -0.033759981
-0.8856352 -1.1356026 0.33247766 31 14 -0.033755377
-0.60148722 -0.77097726 -0.017068453 26 7 -0.033753071
-1.324066 -1.6965582 0.57664889 9 15 -0.033750769
-1.2559026 -1.6051712 -0.54610825 18 0 -0.03373003
-0.66185808 -0.84561729 0.018743884 60 8 -0.033727728
-1.2746553 -1.627968 -0.47734615 9 1 -0.033725422
-0.76726019 -0.97957915 0.065210611 41 9 -0.03372312
-1.2904881 -1.6475966 -0.40680483 43 2 -0.033720814
-0.82945937 -1.0586092 0.11766025 18 10 -0.033718511
-1.2490721 -1.5935739 -0.32069072 32 3 -0.033716206
-0.89905685 -1.1466099 0.17890421 12 11 -0.033713903
-0.6015467 -0.76690507 -0.1196757 11 4 -0.033711597
-0.87066638 -1.1096045 0.22338845 12 12 -0.033709295
-0.60512197 -0.77118635 -0.085761249 30 5 -0.033706993
-0.9358238 -1.1922145 0.2946091 4 13 -0.033704687
-0.94135612 -1.1984012 0.35182345 8 14 -0.033700079
-0.59799713 -0.7610113 -0.016893929 31 7 -0.033697776
-1.3180417 -1.6767379 0.57147247 6 15 -0.033695471
-0.66109169 -0.83859086 0.018639171 58 8 -0.03367243
-1.2187874 -1.5454698 -0.45440111 4 1 -0.033670127
-0.7385121 -0.93612552 0.062489137 60 9 -0.033667821
-1.2086815 -1.5321043 -0.37932828 18 2 -0.033665519
-0.79612046 -1.0087873 0.11243091 25 10 -0.033663217
-1.2203543 -1.5457915 -0.31193036 14 3 -0.033660911
-0.89075089 -1.1278858 0.17646682 10 11 -0.033658609
-0.59437513 -0.7523396 -0.11772579 16 4 -0.033656303
-0.87453431 -1.1065584 0.22338845 6 12 -0.033654001
-0.600398 -0.75969052 -0.084715381 35 5 -0.033651695
-0.92902166 -1.1750796 0.29117453 4 13 -0.033649392
-0.97938907 -1.2378994 0.36442071 7 14 -0.033644784
-0.5845167 -0.73853505 -0.016440166 34 7 -0.033642478
-1.0420806 -1.3161942 0.44982749 1 15 -0.033640176
-0.51523846 -0.64913768 -0.22206675 9 0 -0.033619437
-0.66774523 -0.84097618 0.018743884 63 8 -0.033617135
-0.53451574 -0.67294258 -0.19840683 5 1 -0.033614833
-0.73680514 -0.92728722 0.062070452 64 9 -0.033612527
-1.2032939 -1.5138322 -0.37589374 5 2 -0.033610225
-0.77112275 -0.97012913 0.10842174 39 10 -0.033607919
-1.212219 -1.5245144 -0.30848882 1 3 -0.033605617
-0.88850349 -1.1170021 0.17524813 10 11 -0.033603311
-0.60317779 -0.75802696 -0.1189445 22 4 -0.033601008
-0.87716168 -1.1019533 0.22307558 7 12 -0.033598702
-0.59697288 -0.74969184 -0.083843827 36 5 -0.0335964
-0.92842919 -1.1655246 0.28964809 4 13 -0.033594094
-0.98248994 -1.2329489 0.36397079 7 14 -0.033589486
-0.59332341 -0.74430871 -0.01661469 24 7 -0.033587184
-1.0237842 -1.2838507 0.4399924 7 15 -0.033584878
-1.2077662 -1.5102383 -0.51815575 2 0 -0.033564143
-0.66332793 -0.82915419 0.018534455 63 8 -0.033561841
-0.53089064 -0.66337132 -0.19615732 33 1 -0.033559535
-0.7564258 -0.94484949 0.063431181 51 9 -0.033557232
-0.5571683 -0.69570857 -0.17325458 3 2 -0.033554927
-0.77093691 -0.96263087 0.10789881 51 10 -0.033552624
-0.57061148 -0.71223962 -0.14454547 6 3 -0.033550318
-0.89507443 -1.1168361 0.17573561 10 11 -0.033548016
-0.61091888 -0.76200628 -0.11991944 25 4 -0.03354571
-0.86883539 -1.0833211 0.21994688 7 12 -0.033543408
-0.5947293 -0.74128258 -0.08314658 40 5 -0.033541102
-0.92409289 -1.151396 0.28697675 3 13 -0.0335388
-0.98456204 -1.2263006 0.36307099 7 14 -0.033534192
-0.6098218 -0.75927895 -0.016998643 16 7 -0.033531886
-1.0163831 -1.2650298 0.434816 6 15 -0.033529583
-0.51271051 -0.63631755 -0.21896091 10 0 -0.033508848
-0.66636246 -0.82671738 0.018534455 60 8 -0.033506542
-0.5369879 -0.66597229 -0.19750702 68 1 -0.03350424
-0.79624784 -0.98715329 0.066466674 20 9 -0.033501934
-0.53001136 -0.65708488 -0.16409574 38 2 -0.033499632
-0.77571112 -0.96134937 0.10807312 33 10 -0.033497326
-0.53599614 -0.66403019 -0.13515939 21 3 -0.033495024
-0.88544369 -1.096559 0.17305449 10 11 -0.033492718
-0.59624439 -0.73814273 -0.1165071 39 4 -0.033490416
-0.86907554 -1.07552 0.21900828 6 12 -0.03348811
-0.60232222 -0.74540079 -0.083843827 36 5 -0.033485807
-0.91329616 -1.1298416 0.28239733 4 13 -0.033483502
-0.98047096 -1.2120781 0.35992166 7 14 -0.033478893
-0.63775861 -0.78812879 -0.01769674 7 7 -0.033476591
-1.0234438 -1.2642993 0.43585131 6 15 -0.033474289
-0.49545139 -0.61052305 -0.21067871 12 0 -0.03345355
-0.66924399 -0.82438648 0.018534455 60 8 -0.033451248
-0.51228255 -0.6308133 -0.18760918 13 1 -0.033448942
-0.82991332 -1.0215722 0.068978801 12 9 -0.03344664
-0.53725344 -0.66132593 -0.16562222 81 2 -0.033444334
-0.8268109 -1.0173911 0.11469696 11 10 -0.033442032
-0.53955698 -0.66368794 -0.13547227 72 3 -0.033439726
-0.87674111 -1.0780606 0.1706171 10 11 -0.033437423
-0.59004796 -0.72527802 -0.11480093 58 4 -0.033435117
-0.87157774 -1.0709476 0.21869542 7 12 -0.033432815
-0.59737474 -0.73402184 -0.082797952 39 5 -0.033430509
-0.90731853 -1.1144668 0.27934438 6 13 -0.033428207
-0.97115636 -1.1920294 0.35497275 5 14 -0.033423599
-0.63418913 -0.77814722 -0.017522216 2 7 -0.033421297
-1.0229683 -1.2547297 0.43378076 5 15 -0.033418991
-0.50002444 -0.6117816 -0.21171398 11 0 -0.033398256
-0.6746493 -0.82514143 0.018604266 60 8 -0.03339595
-0.51201391 -0.62600434 -0.18670937 6 1 -0.033393648
-0.82823855 -1.0126306 0.068560109 12 9 -0.033391342
-0.52463979 -0.64121318 -0.16104279 51 2 -0.033389039
-0.85054851 -1.0391672 0.11748594 10 10 -0.033386733
-0.53311032 -0.65110165 -0.13328218 70 3 -0.033384431
-0.87798303 -1.0719225 0.17012961 9 11 -0.033382129
-0.55860692 -0.68175566 -0.10821999 74 4 -0.033379823
-0.86636055 -1.0573556 0.21650532 7 12 -0.033377521
-0.59488124 -0.72576851 -0.082100704 40 5 -0.033375215
-0.89377558 -1.0900388 0.27400175 16 13 -0.033372913
-0.96295011 -1.1735669 0.35047373 5 14 -0.033368304
-0.62408155 -0.76058096 -0.017173167 3 7 -0.033365998
-1.0124147 -1.233412 0.42756909 7 15 -0.033363696
-0.49356258 -0.59959179 -0.20809051 37 0 -0.033342957
-0.68246526 -0.82907534 0.018743884 67 8 -0.033340655
-0.49922183 -0.60625088 -0.18131055 7 1 -0.033338353
-0.82922828 -1.0066503 0.06835077 12 9 -0.033336047
-0.52437782 -0.63634765 -0.16027956 5 2 -0.033333745
-0.85163617 -1.0331172 0.11713732 10 10 -0.033331439
-0.52898413 -0.64170897 -0.13171785 14 3 -0.033329137
-0.88026994 -1.0674735 0.16988587 10 11 -0.033326831
-0.53307414 -0.64621079 -0.10285773 100 4 -0.033324528
-0.86375976 -1.0467072 0.21494098 7 12 -0.033322223
-0.57457983 -0.6960308 -0.078963101 53 5 -0.03331992
-0.89488572 -1.0840408 0.27323848 18 13 -0.033317614
-0.95070195 -1.1508361 0.34462503 3 14 -0.033313006
-1.0068672 -1.2179587 0.42342797 6 15 -0.033308398
-0.50171179 -0.605389 -0.21067871 84 0 -0.033287663
-0.67897397 -0.81899065 0.01856936 72 8 -0.033285361
-0.51875097 -0.62550485 -0.18760918 6 1 -0.033283055
-0.82746202 -0.99774551 0.067932077 12 9 -0.033280753
-0.53400648 -0.64367104 -0.16256927 4 2 -0.033278447
-0.8372438 -1.008823 0.11469696 12 10 -0.033276144
-0.51103181 -0.61554098 -0.12671193 5 3 -0.033273838
-0.88272256 -1.0628672 0.16964214 10 11 -0.033271536
-0.53405803 -0.64281923 -0.102614 21 4 -0.03326923
-0.86470139 -1.0407982 0.21431525 7 12 -0.033266928
-0.545048 -0.65581465 -0.074605316 61 5 -0.033264622
-0.91372567 -1.0990263 0.2778179 6 13 -0.03326232
-0.95097399 -1.1430165 0.34327531 3 14 -0.033257712
-0.99854243 -1.1997646 0.4182516 6 15 -0.033253103
-0.50134611 -0.60066777 -0.20964344 73 0 -0.033232369
-0.67784184 -0.81212908 0.018464647 78 8 -0.033230063
-0.48959804 -0.58638418 -0.17636162 33 1 -0.03322776
-0.83350039 -0.99791676 0.068141423 12 9 -0.033225454
-1.1996391 -1.4357708 -0.36368197 6 2 -0.033223152
-0.81648266 -0.97684896 0.11138504 18 10 -0.033220846
-0.51687074 -0.6183899 -0.12765054 1 3 -0.033218544
-0.87350893 -1.0447052 0.16720475 9 11 -0.033216238
-0.55529082 -0.6638847 -0.10627007 24 4 -0.033213936
-0.86072302 -1.0286837 0.21243803 7 12 -0.03321163
-0.54989147 -0.65696371 -0.074953936 60 5 -0.033209328
-0.91232479 -1.0899682 0.27629143 5 13 -0.033207022
-0.55647939 -0.66459835 -0.045427613 4 6 -0.033204719
-0.94725126 -1.1308932 0.3405759 5 14 -0.033202413
-0.99776024 -1.1903495 0.41618103 5 15 -0.033197805
-0.50706369 -0.60343891 -0.21119635 35 0 -0.033176661
-0.6793859 -0.80822724 0.018429741 73 8 -0.033174358
-0.48286262 -0.57423103 -0.17321232 79 1 -0.033172052
-0.82155055 -0.97666019 0.06688536 11 9 -0.03316975
-0.53837544 -0.64002126 -0.16256927 4 2 -0.033167444
-0.80560654 -0.95736676 0.10946761 24 10 -0.033165142
-0.86692119 -1.0295022 0.16525485 9 11 -0.033160534
-0.58446181 -0.69382495 -0.11138859 23 4 -0.033158228
-0.86048996 -1.0211413 0.21149944 8 12 -0.033155926
-0.58171666 -0.69007725 -0.078963101 28 5 -0.03315362
-0.90979713 -1.0792717 0.27438337 5 13 -0.033151317
-0.54463273 -0.64585662 -0.044276223 18 6 -0.033149011
-0.93360168 -1.1067263 0.33427727 5 14 -0.033146709
-0.99443239 -1.1780021 0.41307521 6 15 -0.033142101
-0.51676136 -0.61042315 -0.21430218 45 0 -0.033121366
-0.68478721 -0.80890328 0.018499551 76 8 -0.03311906
-0.48990169 -0.5784905 -0.17501192 77 1 -0.033116758
-0.81204456 -0.95854723 0.065838635 12 9 -0.033114452
-0.50644672 -0.59760433 -0.15226559 18 2 -0.03311215
-0.7962262 -0.93921006 0.1077245 36 10 -0.033109844
-0.55450159 -0.65384591 -0.13578513 1 3 -0.033107542
-0.86794168 -1.0234419 0.16476737 10 11 -0.033105236
-0.59458536 -0.70086306 -0.11285102 53 4 -0.033102933
-0.85382372 -1.0060824 0.20899647 8 12 -0.033100627
-0.55446458 -0.65310878 -0.074953936 33 5 -0.033098325
-0.90993416 -1.0714406 0.27323848 4 13 -0.033096019
-0.54182374 -0.63776767 -0.043857537 38 6 -0.033093717
-0.93008018 -1.0943872 0.33157787 6 14 -0.033091411
-0.99603558 -1.1715804 0.41203994 6 15 -0.033086803
-0.52390236 -0.61449587 -0.21637273 32 0 -0.033066068
-0.69553298 -0.81551701 0.01870898 85 8 -0.033063766
-0.48442969 -0.56779599 -0.17231251 9 1 -0.03306146
-0.82057095 -0.96178436 0.066257328 13 9 -0.033059157
-0.49323556 -0.57791305 -0.14768617 54 2 -0.033056851
-0.80079329 -0.93794036 0.10789881 30 10 -0.033054549
-0.54138577 -0.63388127 -0.13203071 10 3 -0.033052243
-0.85750264 -1.003652 0.16208623 17 11 -0.033049941
-0.58812213 -0.68811578 -0.11114486 68 4 -0.033047635
-0.84577978 -0.98958087 0.20618065 7 12 -0.033045333
-0.55544627 -0.64965498 -0.074779622 16 5 -0.033043027
-0.90473616 -1.0578138 0.27056718 3 13 -0.033040725
-0.54534525 -0.6373899 -0.043962207 66 6 -0.033038419
-0.93262726 -1.0896537 0.33112797 7 14 -0.033036117
-0.98755467 -1.1534218 0.40686354 5 15 -0.033031508
-0.51975167 -0.605335 -0.21378455 34 0 -0.033010773
-0.69432557 -0.80865455 0.018604266 89 8 -0.033008467
-0.55995476 -0.65192747 -0.19840683 5 1 -0.033006165
-0.81611353 -0.94982499 0.065629296 11 9 -0.033003859
-0.50164831 -0.58363223 -0.14959426 58 2 -0.033001557
-0.81835145 -0.95175725 0.10981624 11 10 -0.032999251
-0.51901513 -0.60362381 -0.12608619 31 3 -0.032996949
-0.83623117 -0.97220838 0.15745521 30 11 -0.032994643
-0.5865162 -0.68164772 -0.11041363 65 4 -0.032992341
-0.84536278 -0.98213124 0.20524204 7 12 -0.032990038
-0.5616107 -0.65224159 -0.075302556 16 5 -0.032987732
-0.89030492 -1.0339794 0.26522452 5 13 -0.03298543
-0.55657989 -0.64617121 -0.044694912 43 6 -0.032983124
