# .PCD v0.7 - Point Cloud Data file format
VERSION 0.7
FIELDS x y z intensity ring time
SIZE 4 4 4 4 2 4
TYPE F F F F U F
COUNT 1 1 1 1 1 1
WIDTH 982
HEIGHT 1
VIEWPOINT 0 0 0 1 0 0 0
POINTS 982
DATA ascii
2.9516389 4.0049701 -1.1486001 1 1 -0.093506716
9.6879148 13.140372 0.85558832 69 9 -0.093504414
3.6465502 4.9460621 -1.1944643 4 2 -0.093502112
8.6791096 11.767762 1.279272 30 10 -0.09349981
4.9749351 6.7429109 -1.3271902 1 3 -0.0934975
6.7900462 9.1997089 1.403935 24 11 -0.093495198
6.0535312 8.198823 -1.2513546 67 4 -0.093492895
5.1028676 6.9087334 1.3603542 28 12 -0.093490593
5.5682201 7.5387707 -0.81996119 50 5 -0.093488283
3.9783995 5.3843579 1.3013173 17 13 -0.093485981
6.1305704 8.2940655 -0.54052579 67 6 -0.093483679
3.5233264 4.7649822 1.3681523 13 14 -0.093481377
6.1682944 8.3390198 -0.18105127 70 7 -0.093479075
3.5656874 4.818748 1.6062311 15 15 -0.093476765
2.4930792 3.3606076 -1.1212041 12 0 -0.09345603
6.1861525 8.3357439 0.18119089 60 8 -0.093453728
2.9656019 3.9946418 -1.1486001 1 1 -0.093451425
9.677866 13.036008 0.85087812 74 9 -0.093449116
3.6684763 4.9396062 -1.1959908 4 2 -0.093446814
8.7225084 11.740596 1.2796206 30 10 -0.093444511
4.9701643 6.6874528 -1.3196814 1 3 -0.093442209
6.8256736 9.1807289 1.4046662 24 11 -0.093439899
6.3083844 8.4818764 -1.2979087 47 4 -0.093437597
5.0361543 6.7713122 1.3365762 7 12 -0.093435295
5.5623913 7.4761267 -0.81525475 56 5 -0.093432993
3.9737275 5.3389387 1.2936851 27 13 -0.09343069
6.1833353 8.3046589 -0.54261923 65 6 -0.093428381
3.5469234 4.7620311 1.3708518 28 14 -0.093426079
6.2102504 8.3377628 -0.18147013 66 7 -0.093423776
3.564333 4.7836614 1.5984664 11 15 -0.093421474
2.514045 3.3642647 -1.1253452 17 0 -0.093400732
2.9834986 3.9910293 -1.1503997 1 1 -0.093396127
9.6539268 12.909382 0.84480709 66 9 -0.093393825
3.6845195 4.9251995 -1.1956092 7 2 -0.093391523
8.7682152 11.716455 1.2803178 30 10 -0.093389213
5.0041475 6.6867504 -1.3228099 1 3 -0.093386911
6.8548927 9.1564522 1.4044224 24 11 -0.093384609
6.4221554 8.5753098 -1.3154578 53 4 -0.093382306
5.0692368 6.7663369 1.3390791 36 12 -0.093379997
6.5790124 8.7783604 -0.959759 66 5 -0.093377694
3.9984763 5.3351574 1.2959747 41 13 -0.093375392
6.6062088 8.8114519 -0.57716101 74 6 -0.09337309
4.0911937 5.4549069 1.5742074 43 14 -0.09337078
6.6545534 8.8694744 -0.19354719 73 7 -0.093368478
3.2574649 4.3401151 1.4540454 35 15 -0.093366176
2.5275102 3.3589978 -1.1263806 15 0 -0.093345441
6.5975223 8.7647486 0.1914878 86 8 -0.093343139
2.9903774 3.9712508 -1.1477003 1 1 -0.093340829
9.6424541 12.800624 0.8398875 71 9 -0.093338527
3.6925623 4.9019785 -1.1929379 4 2 -0.093336225
8.8130188 11.695268 1.2811894 30 10 -0.093333922
5.0298347 6.6723971 -1.3234357 1 3 -0.093331613
6.885612 9.1308889 1.4041786 26 11 -0.09332931
5.0999627 6.7580628 1.3409564 50 12 -0.093324706
6.6192126 8.7680683 -0.96115357 42 5 -0.093322396
6.6513729 8.8074627 -0.57841706 78 6 -0.093317792
4.1125607 5.4437013 1.5751073 43 14 -0.09331549
6.7071691 8.8749123 -0.19417547 75 7 -0.09331318
3.6139529 4.7802353 1.6057135 41 15 -0.093310878
2.5374691 3.3466327 -1.1253452 14 0 -0.093290143
6.6304874 8.7448578 0.19155762 100 8 -0.09328784
2.999512 3.954577 -1.1459007 1 1 -0.093285538
9.6230955 12.682557 0.83433986 66 9 -0.093283229
3.7069421 4.8837209 -1.1917931 7 2 -0.093280926
8.8654613 11.675583 1.2825838 30 10 -0.093278624
5.063817 6.6665006 -1.3259387 1 3 -0.093276322
6.9234486 9.1147003 1.4053974 29 11 -0.093274012
5.8020883 7.635673 -1.1775017 1 4 -0.09327171
5.1067882 6.7182021 1.3365762 21 12 -0.093269408
4.7497172 6.2439408 1.5249456 26 13 -0.093264796
6.7077961 8.8148146 -0.5805105 81 6 -0.093262494
4.1372056 5.4347949 1.5769069 11 14 -0.093260191
6.7526445 8.8705378 -0.19459434 79 7 -0.093257889
3.2853427 4.3141961 1.4530102 35 15 -0.093255579
2.5421016 3.3285429 -1.1222395 17 0 -0.093234845
6.6770692 8.7395601 0.19197647 100 8 -0.093232542
3.0187185 3.9497502 -1.1477003 1 1 -0.09323024
9.6151543 12.580656 0.82983899 85 9 -0.093227938
3.7299302 4.8785486 -1.1937011 4 2 -0.093225628
8.9085865 11.647729 1.2829325 30 10 -0.093223326
5.0438433 6.5923061 -1.3146753 1 3 -0.093221024
6.9688725 9.1050282 1.4078349 30 11 -0.093218721
6.4030137 8.3657169 -1.2935213 28 4 -0.093216412
5.907321 7.7125015 -0.8499428 8 5 -0.093211807
4.7846198 6.2444639 1.5291433 10 13 -0.093209505
6.7531071 8.8103666 -0.58176655 81 6 -0.093207195
4.2038131 5.484458 1.5953529 8 14 -0.093204893
6.783566 8.8469133 -0.19459434 76 7 -0.093202591
3.6378284 4.7426271 1.6015723 46 15 -0.093200289
2.5554814 3.3231566 -1.1232747 12 0 -0.093179554
6.6974773 8.7062769 0.19173212 100 8 -0.093177244
3.0460608 3.9582515 -1.1530992 1 1 -0.093174942
9.5971327 12.471145 0.82471007 74 9 -0.09317264
3.7389033 4.8568182 -1.1914115 4 2 -0.093170337
8.9386511 11.607075 1.2817123 27 10 -0.093168028
5.0656748 6.5755453 -1.3146753 1 3 -0.093165725
6.9966063 9.078722 1.4073473 30 11 -0.093163423
5.5897722 7.2532291 -1.1243666 1 4 -0.093161121
5.1282773 6.6519961 1.3303189 1 12 -0.093158811
5.9279952 7.6865597 -0.84924555 8 5 -0.093156509
4.079771 5.2881379 1.2982645 1 13 -0.093154207
6.6407332 8.6045141 -0.5696246 63 6 -0.093151905
3.6016574 4.6667299 1.3609538 22 14 -0.093149602
6.8226404 8.8370342 -0.19487357 75 7 -0.093147293
3.6665263 4.7473555 1.6072664 48 15 -0.093144991
2.5676694 3.3161917 -1.1237923 16 0 -0.093124256
6.7275343 8.6856012 0.19176705 100 8 -0.093121953
3.0496221 3.9358041 -1.1494999 1 1 -0.093119644
9.5855494 12.366531 0.81999987 77 9 -0.093117341
3.7549877 4.8443937 -1.1914115 4 2 -0.093115039
8.9844151 11.586818 1.2827581 17 10 -0.093112737
5.0874538 6.5587087 -1.3146753 1 3 -0.093110427
7.0266728 9.0554724 1.4073473 29 11 -0.093108125
5.6114068 7.2289662 -1.1236354 9 4 -0.093105823
5.1441956 6.6246943 1.3284416 15 12 -0.093103521
5.9523478 7.6626725 -0.84889692 6 5 -0.093101218
4.064765 5.2327189 1.2879608 15 13 -0.093098909
6.3653059 8.191328 -0.54366595 16 6 -0.093096606
3.6143363 4.6495152 1.3596041 61 14 -0.093094304
6.8730898 8.8384199 -0.19543205 76 7 -0.093092002
3.6890075 4.7421513 1.6098546 46 15 -0.093089692
2.584559 3.3128519 -1.125863 16 0 -0.093068957
6.7602696 8.6652193 0.19183685 100 8 -0.093066655
3.0561495 3.9159167 -1.1468004 1 1 -0.093064353
9.5635128 12.249559 0.81445223 74 9 -0.093062051
3.7775507 4.8367882 -1.1929379 4 2 -0.093059741
9.0439987 11.575789 1.2851986 17 10 -0.093057439
5.1114573 6.5400195 -1.3146753 1 3 -0.093055137
7.0545697 9.0261974 1.4066161 30 11 -0.093052834
6.3151946 8.0772753 -1.2589104 60 4 -0.093050525
5.1782432 6.6206999 1.3312575 47 12 -0.093048222
5.6414313 7.2103281 -0.80096126 13 5 -0.09304592
4.0790777 5.2116008 1.2864343 22 13 -0.093043618
6.2450671 7.9760904 -0.53089595 13 6 -0.093041308
3.6469758 4.6561794 1.3654529 11 14 -0.093039006
6.9211645 8.8364124 -0.19592072 73 7 -0.093036704
3.7091117 4.733808 1.6114074 35 15 -0.093034402
2.5901401 3.2962143 -1.1232747 13 0 -0.093013667
6.8043442 8.6561031 0.19218589 100 8 -0.093011357
3.07289 3.9077535 -1.1477003 1 1 -0.093009055
9.5490761 12.139074 0.80942798 82 9 -0.093006752
3.7798462 4.8050547 -1.1883584 4 2 -0.09300445
9.086813 11.547283 1.2855473 15 10 -0.093002141
5.1342568 6.5221357 -1.3146753 1 3 -0.092999838
7.0937486 9.0080767 1.4078349 30 11 -0.092997536
5.1939139 6.590816 1.3290673 27 12 -0.092992924
5.8207731 7.3836188 -0.82257593 2 5 -0.092990622
4.1081824 5.2112069 1.2898688 37 13 -0.09298832
5.664382 7.1826582 -0.47939742 8 6 -0.092986017
4.2208338 5.3502622 1.5733078 40 14 -0.092983708
6.9572191 8.8156967 -0.19602543 72 7 -0.092981406
3.7276328 4.7216983 1.611925 11 15 -0.092979103
2.5962076 3.2791266 -1.1206865 14 0 -0.092958368
6.8419638 8.6417065 0.19239533 100 8 -0.092956066
3.0840929 3.8939471 -1.1468004 1 1 -0.092953756
9.5306139 12.028963 0.80429906 49 9 -0.092951454
3.7974334 4.7911673 -1.1883584 4 2 -0.092949152
9.1253643 11.509214 1.2850242 15 10 -0.09294685
5.1581259 6.5032754 -1.3146753 1 3 -0.09294454
7.127615 8.9863729 1.4083222 21 11 -0.092942238
6.1852913 7.795505 -1.2218621 1 4 -0.092939936
5.2046094 6.5571728 1.3259387 8 12 -0.092937633
6.1401362 7.7330575 -0.86388773 2 5 -0.092935324
4.1358037 5.2068748 1.2925402 11 13 -0.092933021
5.9814167 7.5277576 -0.50389063 56 6 -0.092930719
4.2501144 5.346961 1.5769069 43 14 -0.092928417
6.9966574 8.8023167 -0.19626977 25 7 -0.092926115
3.3653555 4.2323475 1.448869 1 15 -0.092923805
2.6082723 3.2720089 -1.1212041 13 0 -0.09290266
6.8671026 8.611516 0.19225572 100 8 -0.092900358
3.0952351 3.8801119 -1.1459007 1 1 -0.092898056
9.5414028 11.956591 0.80168223 38 9 -0.092895746
3.818198 4.784687 -1.1898849 4 2 -0.092893444
9.1672068 11.483564 1.2855473 12 10 -0.092891142
5.1796651 6.4861336 -1.3146753 1 3 -0.09288884
7.1577034 8.9598846 1.4080786 11 11 -0.09288653
6.1418247 7.6854763 -1.2079691 3 4 -0.092884228
5.2200642 6.5297089 1.3240615 1 12 -0.092881925
6.1458426 7.6877527 -0.86109871 6 5 -0.092879623
4.9034643 6.1314836 1.5260904 21 13 -0.092877313
6.2209468 7.7761326 -0.52189422 60 6 -0.092875011
4.2678237 5.3328366 1.5769069 35 14 -0.092872709
5.7475996 7.1793137 -0.16052724 11 7 -0.092870407
3.3523326 4.1858935 1.4369633 50 15 -0.092868097
2.6196771 3.2628851 -1.1212041 13 0 -0.092847362
3.1258492 3.8905511 -1.1521993 1 1 -0.092842758
9.5818281 11.921658 0.80157757 57 9 -0.092840455
3.8299561 4.7652102 -1.1883584 4 2 -0.092838146
9.2222157 11.470129 1.2876389 12 10 -0.092835844
5.2022762 6.4680123 -1.3146753 1 3 -0.092833541
7.2051144 8.9549494 1.4112471 27 11 -0.092831239
6.1262946 7.6114144 -1.199682 6 4 -0.092828929
5.2205276 6.4837503 1.3184298 11 12 -0.092826627
6.1289096 7.6119351 -0.85499781 8 5 -0.092824325
6.2467971 7.7528152 -0.52178955 56 6 -0.092819713
4.2925291 5.3254919 1.5791564 39 14 -0.092817411
9.5733471 11.872855 -0.26621902 29 7 -0.092815109
3.7562537 4.6568427 1.6031252 18 15 -0.092812806
2.6346958 3.2582266 -1.1227571 16 0 -0.092792071
5.7775769 7.1423564 0.16035272 13 8 -0.092789762
3.109988 3.8432612 -1.1414016 1 1 -0.092787459
9.5622568 11.816848 0.79665804 38 9 -0.092785157
3.8515084 4.7579145 -1.1898849 4 2 -0.092782855
9.2534227 11.427026 1.2864187 25 10 -0.092780545
5.2571464 6.4897256 -1.3228099 1 3 -0.092778243
7.2263284 8.917407 1.4092971 24 11 -0.092775941
5.3778782 6.6363893 -1.0488076 13 4 -0.092773639
5.2681217 6.4986286 1.325 40 12 -0.092771329
5.3849101 6.6403332 -0.74797058 27 5 -0.092769027
4.1644635 5.1335187 1.2849078 11 13 -0.092766725
6.2851515 7.7449198 -0.5227316 73 6 -0.092764422
8.6220322 10.620768 -0.23878384 3 7 -0.09275981
3.794816 4.672853 1.6129603 16 15 -0.092757508
2.6491444 3.2539668 -1.12431 12 0 -0.092736773
9.5491753 11.725143 0.2639502 34 8 -0.092734471
3.1374867 3.8510556 -1.1468004 1 1 -0.092732161
9.545886 11.716939 0.79205245 44 9 -0.092729859
3.867264 4.7451172 -1.1898849 4 2 -0.092727557
9.3076344 11.416349 1.2886847 42 10 -0.092725255
5.3123493 6.513587 -1.3312575 5 3 -0.092722945
7.2671533 8.9072399 1.4114909 29 11 -0.092720643
5.3371096 6.541615 -1.0366207 12 4 -0.09271834
5.2896447 6.481122 1.325 28 12 -0.092716038
5.3539796 6.5576177 -0.74064946 13 5 -0.092713736
4.1702862 5.1059966 1.2814733 15 13 -0.092711426
6.3095374 7.7224855 -0.52262688 15 6 -0.092709124
3.7026346 4.5317969 1.3510561 28 14 -0.092706822
5.8617396 7.1718607 -0.1616791 7 7 -0.09270452
3.823741 4.6766953 1.6186544 15 15 -0.09270221
2.6525733 3.2361989 -1.1212041 16 0 -0.092681475
13.107745 15.98605 0.36084595 84 8 -0.092679173
3.1477675 3.8376176 -1.1459007 1 1 -0.092676871
9.5284538 11.612519 0.78723752 44 9 -0.092674561
3.8763316 4.7224832 -1.1875952 4 2 -0.092672259
9.3504953 11.391583 1.289382 62 10 -0.092669956
5.2900434 6.4425025 -1.320307 10 3 -0.092667654
7.3004322 8.8876915 1.412222 32 11 -0.092665352
5.2490096 6.3879747 -1.0151716 12 4 -0.092663042
5.2783637 6.4214196 1.3165526 10 12 -0.09266074
5.2831969 6.4250073 -0.72775042 15 5 -0.092658438
4.1793547 5.0807939 1.2788019 8 13 -0.092656136
6.2882266 7.6418138 -0.5186494 21 6 -0.092653826
3.7159514 4.5158372 1.3501562 11 14 -0.092651524
8.5835581 10.427513 -0.2357471 14 7 -0.092649221
3.8302193 4.6513882 1.6145133 15 15 -0.092646919
2.6607256 3.2219863 -1.1196512 17 0 -0.092626177
13.180256 15.954862 0.36122993 100 8 -0.092623875
3.1494009 3.8110304 -1.1414016 1 1 -0.092621572
9.5238638 11.520563 0.78336465 39 9 -0.09261927
3.898618 4.7142963 -1.1891217 7 2 -0.092616968
9.4099588 11.378733 1.2918224 30 10 -0.092614658
5.2317805 6.3241324 -1.2999705 27 3 -0.092612356
7.341815 8.8715801 1.4139282 34 11 -0.092610054
5.2103577 6.2937694 -1.0032285 16 4 -0.092607751
5.2187114 6.3016143 1.2959032 3 12 -0.092605442
5.2075653 6.2859278 -0.71415412 27 5 -0.09260314
4.2054639 5.074512 1.2810917 15 13 -0.092600837
6.3888569 7.7063522 -0.52461565 58 6 -0.092598535
3.7349687 4.5051856 1.3510561 48 14 -0.092596225
8.5757618 10.340572 -0.23449054 14 7 -0.092593923
3.844774 4.6343455 1.6134779 15 15 -0.092591621
2.6725163 3.2122133 -1.1196512 13 0 -0.092570886
13.255271 15.926431 0.36168367 100 8 -0.092568584
3.1633472 3.7994623 -1.1414016 1 1 -0.092566274
9.5231295 11.438128 0.78001517 52 9 -0.092563972
3.9163058 4.7021685 -1.1895033 7 2 -0.09256167
9.4375706 11.327332 1.289905 75 10 -0.092559367
5.1815691 6.2169051 -1.2818241 54 3 -0.092557058
7.362844 8.8308887 1.4117346 32 11 -0.092554756
5.1687365 6.1993079 -0.99104154 16 4 -0.092552453
5.2748342 6.3243217 1.3043507 11 12 -0.092550151
5.1694856 6.1958089 -0.70596153 46 5 -0.092547841
4.235733 5.074873 1.2849078 31 13 -0.092545539
5.6822329 6.8055296 -0.46463865 11 6 -0.092543237
5.7313771 6.861948 -0.15605941 5 7 -0.092538625
3.4732256 4.1568789 1.4514573 13 15 -0.092536323
2.6856344 3.206296 -1.1206865 18 0 -0.092515588
5.7755404 6.8927894 0.15696694 13 8 -0.092513286
3.1759286 3.7889524 -1.1414016 1 1 -0.092510983
9.4942894 11.326894 0.77457225 39 9 -0.092508674
3.9369242 4.6951723 -1.1910298 11 2 -0.092506371
9.425148 11.236438 1.2831068 85 10 -0.092504069
5.1373987 6.1225142 -1.2658678 70 3 -0.092501767
7.3908105 8.8049059 1.4114909 30 11 -0.092499457
5.1382146 6.1213169 -0.98129201 59 4 -0.092497155
5.3427796 6.3627672 1.3159269 31 12 -0.092494853
5.1425872 6.1221857 -0.69951195 60 5 -0.092492551
4.2613788 5.0713205 1.2875792 23 13 -0.092490241
5.7111969 6.7942915 -0.46516204 4 6 -0.092487939
4.3950176 5.228507 1.5769069 40 14 -0.092485636
8.552 10.170233 -0.23194249 7 7 -0.092483334
3.4496851 4.1009865 1.4359281 9 15 -0.092481032
2.6987433 3.2003253 -1.1217217 13 0 -0.09246029
13.44055 15.932934 0.36384779 100 8 -0.092457987
3.2136126 3.8081851 -1.1503997 1 1 -0.092455685
9.4796562 11.229587 0.77017599 52 9 -0.092453383
3.9284098 4.6535883 -1.1837791 14 2 -0.092451073
9.4237909 11.159457 1.2778774 95 10 -0.092448771
5.152576 6.0994077 -1.2646164 66 3 -0.092446469
7.4263725 8.7879314 1.4127096 29 11 -0.092444167
5.163394 6.1078935 -0.9820233 99 4 -0.092441857
5.357306 6.3350272 1.3140497 8 12 -0.092439555
5.1667223 6.1096616 -0.70003492 57 5 -0.092437252
4.2705636 5.0481696 1.2852895 17 13 -0.09243495
6.9503632 8.2130127 -0.56386763 16 6 -0.092432648
4.4132433 5.2131324 1.5769069 43 14 -0.092430338
8.5422144 10.086909 -0.2307208 15 7 -0.092428036
3.9072752 4.6121984 1.6196897 1 15 -0.092425734
2.7023957 3.1820495 -1.1186159 12 0 -0.092404999
13.525867 15.920969 0.36465058 100 8 -0.092402689
3.2016456 3.7672465 -1.1414016 1 1 -0.092400387
9.4786959 11.149254 0.76693118 47 9 -0.092398085
3.9382727 4.6323671 -1.1818709 11 2 -0.092395782
9.3994417 11.052122 1.2693362 57 10 -0.092393473
5.1853547 6.0949268 -1.2674322 82 3 -0.092391171
7.4634376 8.7695103 1.4139282 24 11 -0.092388868
5.1846848 6.0898314 -0.9820233 77 4 -0.092386566
5.3717008 6.3072658 1.3121724 3 12 -0.092384264
5.1905999 6.0946236 -0.70038354 56 5 -0.092381954
4.2805214 5.0242643 1.2829998 11 13 -0.092379652
6.9453077 8.1491776 -0.56114614 16 6 -0.09237735
5.8497443 6.8588629 -0.1573509 7 7 -0.092372738
3.4744678 4.0723963 1.4343752 31 15 -0.092370436
2.7059524 3.1637895 -1.1155102 9 0 -0.092349701
13.599556 15.894933 0.36513925 100 8 -0.092347398
3.2325156 3.7767756 -1.1477003 1 1 -0.092345089
9.4630032 11.052376 0.76253498 42 9 -0.092342786
3.9684653 4.634995 -1.1860688 14 2 -0.092340484
9.3848228 10.957205 1.2621894 90 10 -0.092338182
5.209167 6.0797901 -1.2680578 59 3 -0.09233588
7.4952974 8.7449102 1.4141719 17 11 -0.09233357
5.2149544 6.0822463 -0.98372942 100 4 -0.092331268
5.3808222 6.2734833 1.3090436 10 12 -0.092328966
5.2170296 6.0825181 -0.7010808 56 5 -0.092326663
5.1290045 5.9777727 1.5310514 12 13 -0.092324354
6.9346857 8.0794191 -0.55800605 16 6 -0.092322052
3.8147879 4.4429398 1.3519558 16 14 -0.092319749
5.8671379 6.8308158 -0.15717638 52 7 -0.092317447
3.7026894 4.3093386 1.5223737 15 15 -0.092315137
2.7195017 3.1572509 -1.1165454 6 0 -0.092294402
13.681067 15.877659 0.36583737 100 8 -0.0922921
3.2278662 3.7448046 -1.1414016 1 1 -0.092289798
9.4558735 10.966339 0.75887144 55 9 -0.092287496
3.9679523 4.6017861 -1.1811076 11 2 -0.092285186
9.383976 10.879115 1.2569602 100 10 -0.092282884
5.2226143 6.052598 -1.2661808 72 3 -0.092280582
7.523181 8.7156897 1.4136845 14 11 -0.092278279
5.2387495 6.0670085 -0.98421687 82 4 -0.09227597
5.3781548 6.2262578 1.3030992 7 12 -0.092273667
5.2434411 6.0703006 -0.70177799 54 5 -0.092271365
5.1511216 5.9613194 1.531433 9 13 -0.092269063
6.9275837 8.0143652 -0.55517989 3 6 -0.092266753
4.4777884 5.1784258 1.5805061 42 14 -0.092264451
8.5675755 9.904645 -0.22859162 22 7 -0.092262149
3.9465122 4.560802 1.6160662 13 15 -0.092259847
2.7305052 3.1477394 -1.1165454 6 0 -0.092239112
13.773102 15.872099 0.3668147 100 8 -0.092236802
3.2332544 3.7246838 -1.1387023 1 1 -0.0922345
9.4358864 10.870068 0.75437051 47 9 -0.092232198
3.9994376 4.6056967 -1.1856872 14 2 -0.092229895
9.3683214 10.784626 1.2498133 97 10 -0.092227586
5.2488937 6.0402932 -1.2674322 69 3 -0.092225283
7.5496502 8.6848831 1.4129534 16 11 -0.092222981
5.2546844 6.042695 -0.98324198 92 4 -0.092220679
5.4182148 6.2307496 1.3077923 22 12 -0.092218369
5.2724433 6.0609808 -0.70282388 55 5 -0.092216067
5.1783423 5.9507089 1.5333412 6 13 -0.092213765
5.5077605 6.3270307 -0.43962207 14 6 -0.092211463
4.4971161 5.1642346 1.580956 39 14 -0.092209153
8.6148176 9.8927708 -0.22897558 19 7 -0.092206851
3.9641533 4.550602 1.6171014 13 15 -0.092204548
2.7452884 3.1425543 -1.1180983 6 0 -0.092183813
13.863807 15.870013 0.36782691 100 8 -0.092181511
3.2532833 3.7227447 -1.1414016 1 1 -0.092179202
9.4264536 10.782929 0.75060236 47 9 -0.092176899
4.0038571 4.5784078 -1.1822525 14 2 -0.092174597
9.3626213 10.702372 1.2440611 100 10 -0.092172295
5.2845049 6.0406938 -1.2711866 82 3 -0.092169985
7.58887 8.6717482 1.4149032 11 11 -0.092167683
5.2746925 6.0252376 -0.98324198 100 4 -0.092165381
5.2961955 6.045536 -0.70317256 60 5 -0.092160769
4.3610311 4.9780583 1.2864343 2 13 -0.092158467
5.4141874 6.1780519 -0.43051565 55 6 -0.092156164
3.8410676 4.3814406 1.3452073 18 14 -0.092153862
7.4125552 8.4523993 -0.19623485 40 7 -0.09215156
3.9698186 4.5251217 1.6129603 13 15 -0.09214925
2.7429376 3.1189258 -1.112922 7 0 -0.092128515
9.3252058 10.599728 0.24642798 19 8 -0.092126213
3.2611077 3.7055151 -1.1396021 1 1 -0.092123911
9.3346958 10.60305 0.74034452 63 9 -0.092121601
4.0229111 4.5695252 -1.1833974 9 2 -0.092119299
9.3440685 10.609962 1.2369143 100 10 -0.092116997
5.3055577 6.0222116 -1.2711866 73 3 -0.092114694
7.6427169 8.6720142 1.4192905 9 11 -0.092112385
5.3061957 6.0186996 -0.98519188 79 4 -0.092110083
5.4733438 6.2061028 1.310608 23 12 -0.09210778
5.3214869 6.0339155 -0.70386976 57 5 -0.092105478
4.3705873 4.9539728 1.2841446 21 13 -0.092103176
5.4330769 6.1561179 -0.43030626 64 6 -0.092100866
3.8602083 4.3723874 1.3465569 48 14 -0.092098564
7.3890634 8.3665218 -0.19483867 39 7 -0.092096262
3.5558228 4.0247869 1.439034 7 15 -0.092093959
2.756371 3.1122241 -1.1139573 12 0 -0.092073217
9.3422556 10.544663 0.24590442 100 8 -0.092070915
3.2585111 3.676609 -1.1342032 1 1 -0.092068613
9.3478041 10.543498 0.73846042 97 9 -0.09206631
4.0258145 4.5407639 -1.1795813 11 2 -0.092064008
9.3255253 10.514673 1.2295932 97 10 -0.092061698
5.3331003 6.011045 -1.272751 91 3 -0.092059396
7.6439533 8.6126175 1.4139282 8 11 -0.092057094
5.3364005 6.0105309 -0.98689806 72 4 -0.092054792
5.479228 6.1692386 1.3068537 12 12 -0.092052482
5.3345742 6.0063686 -0.70282388 61 5 -0.09205018
4.3917665 4.9430881 1.2852895 15 13 -0.092047878
5.4571891 6.1401005 -0.43051565 69 6 -0.092045575
3.9013412 4.3880162 1.3555551 43 14 -0.092043266
7.3663964 8.282402 -0.19347738 37 7 -0.092040963
4.0231452 4.5218306 1.6217602 5 15 -0.092038661
2.7723589 3.1083522 -1.1160278 14 0 -0.092017926
9.3124437 10.43738 0.24415916 99 8 -0.092015624
3.2843022 3.6797502 -1.1387023 1 1 -0.092013314
9.3313351 10.451217 0.73427355 100 9 -0.092011012
4.0416369 4.5266862 -1.1795813 9 2 -0.09200871
9.3276625 10.443424 1.2250611 100 10 -0.092006408
5.352736 5.9909182 -1.2724382 78 3 -0.092004098
7.6805792 8.5932884 1.4151469 9 11 -0.092001796
5.3652859 6.0007467 -0.98836046 77 4 -0.091999494
5.4743929 6.1206264 1.3005962 8 12 -0.091997191
5.3687921 6.0025597 -0.70456702 65 5 -0.091994882
4.4194679 4.9394317 1.2883424 32 13 -0.091992579
5.4759226 6.1180377 -0.43030626 66 6 -0.091990277
3.9179358 4.3758221 1.356005 18 14 -0.091987975
7.3418975 8.197053 -0.19208118 37 7 -0.091985665
4.0775785 4.5509248 1.6372893 9 15 -0.091983363
2.7819023 3.0972183 -1.1155102 12 0 -0.091962628
9.3194208 10.372083 0.24339128 68 8 -0.091960326
3.276283 3.6450746 -1.1315038 1 1 -0.091958024
9.3797808 10.431945 0.73521554 100 9 -0.091955714
4.06004 4.5154696 -1.1803445 11 2 -0.091953412
9.3880453 10.437462 1.2281988 100 10 -0.091951109
5.372292 5.9707284 -1.2721251 61 3 -0.091948807
7.7171717 8.573801 1.4163656 9 11 -0.091946498
5.3795595 5.9746046 -0.98714179 52 4 -0.091944195
5.473249 6.0765305 1.2952776 2 12 -0.091941893
5.3990445 5.9941468 -0.70578718 63 5 -0.091939591
4.4445648 4.9327288 1.2906321 43 13 -0.091937281
5.4959097 6.0974011 -0.43020159 72 6 -0.091934979
4.6156855 5.1190505 1.5913037 24 14 -0.091932677
7.3369765 8.1342573 -0.19120856 35 7 -0.091930375
4.0792046 4.5208855 1.6315954 11 15 -0.091928065
2.795289 3.0903533 -1.1165454 13 0 -0.09190733
9.3059196 10.284633 0.24209979 46 8 -0.091905028
3.307296 3.6538422 -1.1378024 1 1 -0.091902725
9.41078 10.393216 0.73479688 100 9 -0.091900423
4.0626011 4.4867153 -1.1765283 11 2 -0.091898113
9.4484911 10.431214 1.2313362 100 10 -0.091895811
5.3970823 5.9563298 -1.2730639 56 3 -0.091893509
7.7630529 8.5644588 1.4192905 11 11 -0.091891207
5.4003782 5.9557934 -0.98714179 61 4 -0.091888897
5.5196443 6.0851855 1.3012221 26 12 -0.091886595
5.4346619 5.9914956 -0.70770466 59 5 -0.091884293
4.4762692 4.933176 1.2948298 40 13 -0.09188199
5.5252099 6.0870571 -0.43082964 55 6 -0.091879681
4.6243577 5.0928073 1.5881544 13 14 -0.091877379
7.3034801 8.0405064 -0.18960294 35 7 -0.091875076
4.0793676 4.4894643 1.6253836 11 15 -0.091872774
2.7995546 3.073437 -1.1139573 14 0 -0.091852039
9.298666 10.204783 0.24098283 41 8 -0.091849729
3.3121545 3.6336329 -1.135103 1 1 -0.091847427
9.481988 10.398676 0.73751837 100 9 -0.091845125
4.088819 4.4841132 -1.1795813 14 2 -0.091842823
9.5049887 10.420247 1.233951 100 10 -0.091840513
5.4218369 5.9418302 -1.2740024 48 3 -0.091838211
7.8330483 8.5812941 1.4266026 4 11 -0.091835909
5.4452305 5.9632916 -0.99152911 74 4 -0.091833606
5.5448499 6.0702558 1.3021606 56 12 -0.091831297
5.4501691 5.9666028 -0.70700741 61 5 -0.091828994
4.4934607 4.917522 1.2948298 15 13 -0.091826692
5.5625968 6.0854225 -0.43208569 56 6 -0.09182439
4.6223822 5.0550609 1.5814059 19 14 -0.091822088
7.2815623 7.960371 -0.18831147 34 7 -0.091819778
3.6385643 3.9763687 1.4442104 18 15 -0.091817476
2.8063486 3.0593741 -1.1124043 13 0 -0.091796741
9.2828522 10.116277 0.23965645 41 8 -0.091794439
3.3432651 3.6421504 -1.1414016 1 1 -0.091792129
9.5479498 10.397876 0.73982114 100 9 -0.091789827
4.0964804 4.4611354 -1.1772915 9 2 -0.091787525
9.5642195 10.411946 1.2369143 100 10 -0.091785222
5.4646707 5.9427848 -0.99128538 79 4 -0.091778308
5.5833869 6.0697665 1.3062279 57 12 -0.091776006
5.4736571 5.9504781 -0.70735598 65 5 -0.091773704
4.5305409 4.9234757 1.3005542 1 13 -0.091771394
5.5797482 6.0615573 -0.43177167 61 6 -0.091769092
4.6492391 5.0489306 1.5845551 13 14 -0.09176679
7.290338 7.9143119 -0.18782279 34 7 -0.091764487
4.066103 4.4125714 1.607784 45 15 -0.091762178
2.8209429 3.0538173 -1.1139573 16 0 -0.091741443
9.2760401 10.038281 0.2385744 44 8 -0.09173914
3.3374395 3.6104228 -1.135103 1 1 -0.091736838
9.6099491 10.392347 0.7418099 100 9 -0.091734536
4.1066952 4.4410439 -1.175765 11 2 -0.091732226
9.6221504 10.401901 1.2397033 100 10 -0.091729924
4.7923603 5.178906 -1.117568 2 3 -0.091727622
7.9237814 8.5599051 1.4322087 131 11 -0.09172532
5.4961705 5.9353266 -0.99323523 77 4 -0.09172301
5.5870905 6.0313997 1.3021606 47 12 -0.091720708
5.4998121 5.9371805 -0.70805323 60 5 -0.091718405
5.4257483 5.8551712 1.5516587 11 13 -0.091716103
5.5927243 6.0332561 -0.43114361 66 6 -0.091713794
3.9976823 4.3110652 1.3573546 24 14 -0.091711491
7.3356018 7.9078722 -0.18827656 35 7 -0.091709189
4.1077614 4.4266734 1.6181368 46 15 -0.091706887
2.8355322 3.0481958 -1.1155102 17 0 -0.091686152
9.260623 9.9516735 0.23728292 38 8 -0.091683842
3.3420546 3.590194 -1.1324036 1 1 -0.09168154
9.6556911 10.368973 0.74254262 100 9 -0.091679238
4.1275229 4.4324298 -1.1772915 9 2 -0.091676936
9.6950722 10.40761 1.2444097 100 10 -0.091674626
5.4016089 5.7965765 -1.2549174 11 3 -0.091672324
7.9482012 8.5263844 1.4312336 106 11 -0.091670021
5.5168562 5.9161034 -0.99323523 74 4 -0.091667719
5.5959821 5.9988618 1.2993449 8 12 -0.09166541
5.5313745 5.9296026 -0.70944774 55 5 -0.091663107
4.5862341 4.9146929 1.3066601 1 13 -0.091660805
5.619204 6.019536 -0.43156233 64 6 -0.091658503
6.6983728 7.1705694 -0.17127791 1 7 -0.091653891
4.1297841 4.4193635 1.6207249 43 15 -0.091651589
2.8408725 3.0326388 -1.1134396 14 0 -0.091630854
9.2720566 9.8944826 0.23668954 63 8 -0.091628551
3.3678949 3.5927224 -1.1369027 1 1 -0.091626242
9.735548 10.381824 0.74589211 100 9 -0.09162394
4.142971 4.417994 -1.1772915 9 2 -0.091621637
9.7490606 10.392596 1.2466757 100 10 -0.091619335
5.4082942 5.7632799 -1.2517889 11 3 -0.091617025
8.022748 8.5463505 1.4392771 143 11 -0.091614723
5.5361142 5.8953648 -0.99299151 13 4 -0.091612421
5.616889 5.9792895 1.2993449 2 12 -0.091610119
5.560225 5.9189696 -0.71049362 42 5 -0.091607809
4.5818496 4.8757639 1.3005542 13 13 -0.091605507
5.6456523 6.0057068 -0.43198103 63 6 -0.091603205
4.6764898 4.9729958 1.5760071 37 14 -0.091600902
6.6808858 7.1019945 -0.17019588 28 7 -0.0915986
4.1491566 4.409143 1.6222779 43 15 -0.09159629
2.8482637 3.0203898 -1.1124043 17 0 -0.091559887
9.3308868 9.8913212 0.23735273 71 8 -0.091557585
3.3664167 3.5673604 -1.1324036 1 1 -0.091555282
9.7411327 10.318979 0.74369401 31 9 -0.091552973
4.1468191 4.3928094 -1.1742386 11 2 -0.091550671
9.7998829 10.377596 1.2487675 100 10 -0.091548368
5.4273777 5.7453127 -1.2517889 11 3 -0.091546066
4.8178816 5.0965514 -0.86112887 1 4 -0.091541454
5.6299014 5.9534526 1.2977805 17 12 -0.091539152
5.5825624 5.9033928 -0.71084219 41 5 -0.09153685
4.5885501 4.8505588 1.2978829 8 13 -0.09153454
4.7076931 4.9730268 1.580956 39 14 -0.091529936
6.6659026 7.0391431 -0.16921853 28 7 -0.091527633
4.1438255 4.3743234 1.6145133 20 15 -0.091525324
2.8534682 3.0048268 -1.1103338 15 0 -0.091504589
7.2953405 7.6796274 0.18489081 65 8 -0.091502286
3.3949547 3.5725412 -1.1378024 1 1 -0.091499984
9.653245 10.154635 0.73427355 18 9 -0.091497682
4.1675372 4.3839998 -1.175765 9 2 -0.091495372
9.8607635 10.369309 1.2519051 100 10 -0.09149307
5.4378676 5.7163148 -1.2495986 11 3 -0.091490768
7.9999962 8.4067001 1.4248965 105 11 -0.091488466
5.6007504 5.8834243 -0.99737877 75 4 -0.091486156
5.6547341 5.9380569 1.298719 55 12 -0.091483854
5.6072564 5.8882003 -0.71136516 60 5 -0.091481552
5.4639816 5.7357426 1.5398288 21 13 -0.091479249
6.0253534 6.322825 -0.45773032 6 6 -0.09147694
4.7250223 4.9565644 1.580956 39 14 -0.091474637
6.655931 6.9796548 -0.16834593 26 7 -0.091472335
3.7416966 3.9223101 1.4524926 18 15 -0.091470033
2.8666103 2.9976392 -1.111369 13 0 -0.091449298
7.2986016 7.6295524 0.18429741 47 8 -0.091446988
3.4181843 3.5719318 -1.1414016 1 1 -0.091444686
9.9133272 10.359221 0.75143975 100 9 -0.091442384
4.1882467 4.3750973 -1.1772915 9 2 -0.091440082
9.9285917 10.367925 1.2559142 100 10 -0.091437772
5.4523206 5.6915932 -1.2483472 11 3 -0.09143547
8.0238018 8.3729887 1.4239216 43 11 -0.091433167
5.6257257 5.8705511 -0.99835372 66 4 -0.091430865
5.6743932 5.9192739 1.298719 57 12 -0.091428556
5.6277747 5.8685927 -0.71136516 33 5 -0.091426253
5.4907665 5.7237167 1.5417367 14 13 -0.091423951
6.0390916 6.2931061 -0.45710227 6 6 -0.091421649
4.0897231 4.2617435 1.3636533 22 14 -0.091419347
6.6554956 6.9330211 -0.16775253 28 7 -0.091417037
4.1815352 4.3543744 1.6176192 35 15 -0.091414735
2.8778741 2.9895089 -1.1118866 14 0 -0.091394
7.3099899 7.5909047 0.18394837 23 8 -0.091391698
3.4137876 3.5437343 -1.1360028 1 1 -0.091389388
9.9684134 10.347863 0.7530098 100 9 -0.091387086
4.2000065 4.3583584 -1.1765283 9 2 -0.091384783
9.9891901 10.3622 1.2592262 100 10 -0.091382481
5.4807649 5.6834335 -1.2505373 11 3 -0.091380171
5.6630783 5.8704371 -1.0015223 37 4 -0.091375567
5.711822 5.9189038 1.3027864 60 12 -0.091373265
4.6791673 4.8454199 1.3093314 3 13 -0.091368653
6.0391083 6.2515025 -0.45553222 6 6 -0.091366351
4.0862288 4.2299409 1.3578045 35 14 -0.091364048
6.643712 6.8749614 -0.16687991 40 7 -0.091361746
4.1905799 4.3349285 1.6155485 30 15 -0.091359437
2.8904614 2.982723 -1.112922 14 0 -0.091338702
7.3323402 7.5637484 0.18387856 31 8 -0.091336399
3.4255195 3.5323951 -1.1360028 1 1 -0.091334097
4.1925654 4.3218589 -1.1704224 11 2 -0.091329485
5.4913249 5.6567245 -1.2486601 11 3 -0.091324881
6.6256833 6.8228598 1.1677521 6 11 -0.091322578
5.7471604 5.9161325 -1.0127343 71 4 -0.091320269
5.7489696 5.9159284 1.3065407 56 12 -0.091317967
6.0345316 6.2097836 -0.75755769 2 5 -0.091315664
4.6787891 4.812983 1.304752 2 13 -0.091313362
6.0542369 6.2257118 -0.4551135 6 6 -0.091311052
4.1131997 4.2282219 1.3618537 39 14 -0.09130875
6.6620932 6.8459945 -0.1667403 21 7 -0.091306448
3.7839041 3.8870022 1.4535278 41 15 -0.091304146
2.8954568 2.967087 -1.1108514 14 0 -0.091283403
6.6407099 6.8026109 0.16593748 5 8 -0.091281101
3.4351068 3.5176268 -1.135103 1 1 -0.091278799
6.6545258 6.8120117 0.49907571 2 9 -0.091276497
4.2131104 4.3128181 -1.1719489 9 2 -0.091274194
6.6325274 6.7871161 0.83024555 2 10 -0.091271885
5.5068965 5.6332827 -1.2477214 10 3 -0.091269583
6.6466784 6.7968554 1.1672646 10 11 -0.09126728
5.7594495 5.8875189 -1.0112718 11 4 -0.091264978
5.7668238 5.8929996 1.3059151 56 12 -0.091262668
5.894526 6.0234962 -0.73733753 23 5 -0.091260366
5.5429282 5.6622334 1.5402104 20 13 -0.091258064
6.0857158 6.2145281 -0.45584619 2 6 -0.091255762
6.6453562 6.7812839 -0.16572805 3 7 -0.09125115
3.8272021 3.904119 1.4649159 28 15 -0.091248848
2.9017348 2.9528275 -1.1092985 13 0 -0.091228113
6.6279616 6.7423162 0.16502996 18 8 -0.09122581
3.4446313 3.5028367 -1.1342032 1 1 -0.091223501
6.6446505 6.7545691 0.49656361 20 9 -0.091221198
4.2281408 4.2980843 -1.1719489 9 2 -0.091218896
6.6477895 6.7554083 0.82919973 27 10 -0.091216594
5.5237536 5.6112113 -1.2470957 15 3 -0.091214284
6.6703649 6.7736115 1.1672646 12 11 -0.091211982
5.7855401 5.8730345 -1.0122468 41 4 -0.09120968
5.765173 5.8503227 1.3009092 65 12 -0.091207378
5.8987336 5.9858556 -0.73524588 61 5 -0.091205068
5.5667953 5.6470437 1.5413551 10 13 -0.091202766
4.8676682 4.93611 -0.36331624 6 6 -0.091200463
4.8077364 4.8736386 1.5805061 42 14 -0.091198161
6.6507287 6.7395406 -0.16527429 30 7 -0.091195852
4.2276034 4.282558 1.6124427 37 15 -0.091193549
2.9120238 2.9426811 -1.1092985 12 0 -0.091172814
6.6416101 6.7091894 0.16478562 23 8 -0.091170512
3.4403839 3.4741738 -1.1288043 1 1 -0.09116821
6.6709971 6.7341728 0.49677294 29 9 -0.0911659
4.2486439 4.2888794 -1.1734754 9 2 -0.091163598
6.6601119 6.7208381 0.82780522 15 10 -0.091161296
5.5335736 5.5820732 -1.2449056 6 3 -0.091158994
6.6855803 6.7418303 1.1658022 7 11 -0.091156684
5.8073988 5.8542161 -1.0124906 42 4 -0.091154382
5.7813864 5.8259544 1.2999705 51 12 -0.091152079
5.9322238 5.9779549 -0.73681462 36 5 -0.091149777
4.7773399 4.8124919 1.3181087 2 13 -0.091147467
6.0951743 6.1378808 -0.45333412 2 6 -0.091145165
6.2062454 6.2453628 -0.1536859 28 7 -0.091140561
3.854363 3.8773067 1.4649159 26 15 -0.091138259
2.9290967 2.9393394 -1.1118866 16 0 -0.091117516
6.7031093 6.7242017 0.16572805 18 8 -0.091115214
3.4772582 3.4869826 -1.1369027 1 1 -0.091112912
6.6608572 6.6794844 0.49436548 9 9 -0.091110609
4.2608171 4.2712417 -1.1727122 11 2 -0.0911083
6.8214545 6.8357573 0.84488773 49 10 -0.091105998
5.4427729 5.452281 -1.220189 3 3 -0.091103695
8.3067417 8.3183498 1.4434206 48 11 -0.091101393
5.8095622 5.8156505 -1.009322 38 4 -0.091099083
5.8341799 5.8402939 1.3074795 22 12 -0.091096781
5.9460115 5.9501657 -0.73594308 23 5 -0.091094479
4.7788424 4.7805123 1.3139107 15 13 -0.091092177
6.1250377 6.1250401 -0.45396215 6 6 -0.091089875
4.1925077 4.1910458 1.3686022 3 14 -0.091087565
6.2255058 6.2233348 -0.153651 19 7 -0.091085263
4.2662196 4.2632432 1.6160662 39 15 -0.09108296
2.9379716 2.9277327 -1.111369 14 0 -0.091062225
6.8542709 6.8303838 0.16890439 100 8 -0.091059916
3.4694729 3.4561784 -1.1306039 1 1 -0.091057613
10.341084 10.297864 0.76483774 100 9 -0.091055311
4.2757015 4.2563415 -1.1727122 9 2 -0.091053009
6.8240881 6.7908249 0.84227312 60 10 -0.091050699
5.5518355 5.5247736 -1.2405255 54 3 -0.091048397
8.2723551 8.2291594 1.4326961 9 11 -0.091046095
5.8245935 5.7921519 -1.0085907 34 4 -0.091043793
5.837718 5.8031826 1.303725 43 12 -0.09104149
5.9653306 5.9279709 -0.7357688 19 5 -0.091039181
4.7932754 4.7632561 1.3135291 1 13 -0.091036879
6.1297312 6.0892096 -0.45281073 5 6 -0.091034576
4.8521342 4.8183818 1.5787065 40 14 -0.091032274
4.8876243 4.8519306 -0.12021218 7 7 -0.091029964
4.2920461 4.2592101 1.6202073 39 15 -0.091027662
2.9394248 2.9098213 -1.1082631 12 0 -0.091006927
3.4870589 3.4495277 -1.1324036 1 1 -0.091002315
10.412474 10.296811 0.7674545 100 9 -0.091000013
4.2814159 4.2338572 -1.1704224 11 2 -0.090997711
6.7077127 6.6308875 0.82519054 69 10 -0.090995409
5.5331521 5.4678702 -1.232078 40 3 -0.090993106
8.2911472 8.190465 1.43099 8 11 -0.090990797
5.8480997 5.7730532 1.3015349 53 12 -0.090986192
5.965107 5.8885593 -0.7333284 31 5 -0.09098389
6.1566353 6.0733876 -0.45322946 5 6 -0.090979278
4.8786392 4.8109927 1.5818559 39 14 -0.090976976
6.2388949 6.1502404 -0.15291798 6 7 -0.090974674
4.3000064 4.2374234 1.6176192 37 15 -0.090972364
2.9509425 2.900897 -1.1087809 14 0 -0.090951629
3.499078 3.4373355 -1.1324036 1 1 -0.090947025
10.469726 10.281394 0.76902461 100 9 -0.090944722
4.2961679 4.2188873 -1.1704224 9 2 -0.090942413
6.8019075 6.6772218 0.83390617 60 10 -0.09094011
5.4986272 5.3959475 -1.220189 37 3 -0.090937808
8.3182678 8.1600857 1.4307462 3 11 -0.090935506
5.8025246 5.690196 -0.99786633 24 4 -0.090933196
5.8865561 5.7705803 1.3056022 41 12 -0.090930894
5.9827819 5.8649101 -0.73297983 30 5 -0.090928592
4.8740878 4.7763963 1.3265042 13 13 -0.09092629
6.182076 6.0560536 -0.45354342 6 6 -0.09092398
4.8981886 4.796659 1.5827556 39 14 -0.090921678
6.301765 6.1689935 -0.15393023 55 7 -0.090919375
4.3106284 4.2183356 1.6160662 39 15 -0.090917073
2.9555213 2.8851795 -1.1067102 10 0 -0.090896338
4.9332328 4.8141441 0.12031689 2 8 -0.090894029
3.508266 3.4223781 -1.1315038 1 1 -0.090891726
10.518424 10.257333 0.76996666 26 9 -0.090889424
4.3108697 4.2038641 -1.1704224 9 2 -0.090887122
6.8109055 6.6395316 0.83216298 60 10 -0.090884812
5.5032825 5.3629327 -1.2170602 52 3 -0.09088251
8.3339062 8.1185312 1.4285525 11 11 -0.090880208
5.8180833 5.6657524 -0.99713504 33 4 -0.090877905
5.9293089 5.7720447 1.310608 38 12 -0.090875596
4.9076157 4.7757821 1.3310837 1 13 -0.090870991
6.1745448 6.0065856 -0.45144999 1 6 -0.090868689
4.2904096 4.1722412 1.3816494 11 14 -0.090866379
6.2960191 6.1204739 -0.15326704 50 7 -0.090864077
3.9471045 3.8357117 1.474751 24 15 -0.090861775
2.971123 2.8802247 -1.1087809 14 0 -0.09084104
3.5229897 3.4128234 -1.1324036 1 1 -0.090836428
6.5985036 6.3899322 0.48138618 54 9 -0.090834126
4.3311582 4.1942549 -1.1719489 9 2 -0.090831824
6.7896657 6.5727553 0.82675934 72 10 -0.090829521
5.5020947 5.3244591 -1.2126801 47 3 -0.090827212
8.3650455 8.0921526 1.4290401 17 11 -0.09082491
5.7992983 5.6081491 -0.99055409 19 4 -0.090822607
5.9735641 5.7746544 1.3159269 60 12 -0.090820305
5.2557688 5.08076 -0.63954884 1 5 -0.090817995
4.9242558 4.7586236 1.3310837 1 13 -0.090815693
6.1782374 5.9683418 -0.45019394 6 6 -0.090813391
4.2853231 4.1382866 1.3753507 5 14 -0.090811089
4.3594351 4.2069197 1.6233131 18 15 -0.090806477
2.9853346 2.8738544 -1.1103338 14 0 -0.090785742
6.9911642 6.727746 0.16935815 100 8 -0.09078344
3.5236452 3.3896978 -1.1288043 1 1 -0.090781137
6.6178908 6.364089 0.48117682 100 9 -0.090778828
4.3316226 4.1655011 -1.1681327 9 2 -0.090776525
6.6962252 6.437171 0.81264013 42 10 -0.090774223
5.4850383 5.2710042 -1.2048583 29 3 -0.090771921
8.4089909 8.0780287 1.4317211 29 11 -0.090769611
5.7987952 5.5686207 -0.98714179 1 4 -0.090767309
5.9780087 5.7387199 1.3124853 42 12 -0.090765007
6.1602883 5.9137039 -0.74709904 6 5 -0.090762705
4.949337 4.7495608 1.3333733 3 13 -0.090760402
6.2105656 5.9577985 -0.4510313 0 6 -0.090758093
4.8946986 4.6938515 1.5656594 12 14 -0.09075579
4.8690677 4.6676373 -0.11773393 4 7 -0.090753488
3.9319427 3.7679636 1.4592218 1 15 -0.090751186
2.9841743 2.8527386 -1.1061926 13 0 -0.090730444
6.5939016 6.30127 0.15920086 39 8 -0.090728141
3.5382752 3.3800685 -1.1297042 1 1 -0.090725839
6.6458416 6.3464684 0.48159552 18 9 -0.090723537
4.3518147 4.1557798 -1.1696591 9 2 -0.090721235
6.6653299 6.3628554 0.80619055 78 10 -0.090718925
5.4619627 5.212275 -1.1957852 43 3 -0.090716623
8.4428844 8.0541058 1.4326961 17 11 -0.090714321
5.7923379 5.5236864 -0.98275441 13 4 -0.090712018
6.0237417 5.7423511 1.318117 57 12 -0.090709709
6.1808949 5.8921628 -0.74709904 5 5 -0.090707406
4.9971552 4.7620511 1.341769 13 13 -0.090705104
4.8661876 4.6356297 -0.35222104 1 6 -0.090702802
4.9505692 4.7143645 1.5782566 27 14 -0.090700492
6.7566195 6.4319901 -0.16283096 26 7 -0.09069819
3.9450705 3.7542164 1.4592218 1 15 -0.090695888
2.9913125 2.8396437 -1.1051573 12 0 -0.090675153
7.8154459 7.4165783 0.18806714 70 8 -0.090672851
3.5698445 3.3864744 -1.1360028 1 1 -0.090670541
4.3577466 4.1324596 -1.1673695 9 2 -0.090665936
6.6658125 6.3189883 0.80357593 96 10 -0.090663634
5.4571805 5.1714387 -1.1907793 49 3 -0.090661325
6.6897097 6.3372159 1.131435 16 11 -0.090659022
5.7712274 5.4652138 -0.9759298 13 4 -0.09065672
6.0556612 5.7345662 1.3209327 62 12 -0.090654418
6.1869564 5.8568521 -0.74535584 2 5 -0.090652108
5.0009098 4.7324371 1.3383343 13 13 -0.090649806
4.8620276 4.5993981 -0.3507556 9 6 -0.090647504
4.9825706 4.7117825 1.5832055 50 14 -0.090645202
3.9771514 3.7596936 1.4664688 1 15 -0.09064059
3.0040188 2.8318343 -1.1061926 12 0 -0.090619855
7.8036184 7.3563304 0.18719451 60 8 -0.090617552
3.5838909 3.3772914 -1.1369027 1 1 -0.09061525
4.3807216 4.1252971 -1.1696591 9 2 -0.090610638
6.6326976 6.2437906 0.79695207 69 10 -0.090608336
5.4843669 5.1627922 -1.1929693 39 3 -0.090606034
8.5003996 7.9991751 1.4331836 13 11 -0.090603724
5.7806425 5.4378862 -0.97446734 13 4 -0.090601422
6.0885892 5.7255769 1.3237487 38 12 -0.09059912
4.8587561 4.5674663 -0.58342052 1 5 -0.090596817
5.0280209 4.7265835 1.3413873 10 13 -0.090594508
4.5264859 4.2536283 -0.32552966 41 6 -0.090592206
4.3860002 4.1201739 1.3892977 20 14 -0.090589903
5.23174 4.9129319 -0.12527338 1 7 -0.090587601
3.9592652 3.7166984 1.4550807 1 15 -0.090585291
3.0162139 2.8244972 -1.1072279 12 0 -0.090564556
7.8117294 7.3126478 0.18677565 76 8 -0.090562254
3.5871217 3.3567708 -1.1342032 1 1 -0.090559952
10.926085 10.220869 0.78409737 100 9 -0.09055765
4.391511 4.1080642 -1.168896 11 2 -0.09055534
6.6679206 6.2353687 0.79869521 69 10 -0.090553038
5.3955708 5.0437918 -1.1698171 41 3 -0.090550736
6.6616249 6.2251182 1.1194919 10 11 -0.090548433
5.7705755 5.3905745 -0.96959257 12 4 -0.090546124
6.1374154 5.7312517 1.330006 38 12 -0.090543821
4.8549447 4.5336528 -0.58115447 11 5 -0.090541519
5.0674524 4.7304373 1.3474932 13 13 -0.090539217
4.5427656 4.2391658 -0.32563433 44 6 -0.090536907
4.3832569 4.0888863 1.383899 1 14 -0.090534605
6.8590541 6.3961692 -0.16370356 13 7 -0.090532303
3.9806924 3.7107594 1.4581866 1 15 -0.090530001
3.0232234 2.8113225 -1.1061926 12 0 -0.090509266
7.8123102 7.262187 0.18618228 23 8 -0.090506956
3.5788326 3.3256562 -1.1279047 1 1 -0.090504654
10.993883 10.212582 0.7864002 100 9 -0.090502352
4.4000678 4.0873685 -1.1673695 9 2 -0.090500049
6.6998672 6.2215443 0.79991537 76 10 -0.09049774
5.3986678 5.0114861 -1.1666883 37 3 -0.090495437
8.5793152 7.9612446 1.4370835 30 11 -0.090493135
4.8171887 4.4685807 -0.80677515 1 4 -0.090490833
6.1704206 5.721879 1.3328218 53 12 -0.090488523
5.0940089 4.7220659 1.3501645 30 13 -0.090483919
4.5047975 4.1744103 -0.32186615 23 6 -0.090481617
5.0222468 4.6522808 1.5805061 40 14 -0.090479314
6.8138418 6.3096933 -0.16209795 28 7 -0.090477005
4.021976 3.7230875 1.4685394 1 15 -0.090474702
3.0259233 2.7941985 -1.1036046 10 0 -0.090453967
5.1736465 4.7757773 0.12289985 2 8 -0.090451665
3.5904188 3.3131444 -1.1279047 1 1 -0.090449356
4.4200816 4.0773077 -1.168896 9 2 -0.090444751
6.7698808 6.2426882 0.8056677 78 10 -0.090442449
5.4045076 4.9819012 -1.1641854 37 3 -0.090440139
8.6070538 7.9312463 1.4370835 16 11 -0.090437837
4.8356786 4.4544268 -0.8072626 12 4 -0.090435535
6.2194176 5.7270689 1.3390791 35 12 -0.090433232
6.2451344 5.7507496 -0.74274123 4 5 -0.09043093
5.1321292 4.7241988 1.3558888 28 13 -0.090428621
4.5046453 4.1451349 -0.32081944 22 6 -0.090426318
6.7533975 6.2100706 -0.16014329 13 7 -0.090421714
4.0349483 3.7090244 1.4685394 1 15 -0.090419404
3.0342336 2.7823138 -1.1030868 12 0 -0.090398669
3.6019626 3.3005903 -1.1279047 1 1 -0.090394065
4.4313912 4.0592027 -1.1681327 9 2 -0.090389453
6.6990528 6.1342559 0.79468602 76 10 -0.090387151
8.6551886 7.9199176 1.4404957 35 11 -0.090382546
5.669981 5.1864896 -0.94351256 12 4 -0.090380237
6.256866 5.7213187 1.3428336 53 12 -0.090377934
5.1587334 4.7155261 1.3585601 37 13 -0.09037333
4.5102401 4.1213031 -0.32019141 23 6 -0.09037102
4.45749 4.0716743 1.3937967 41 14 -0.090368718
4.0478702 3.6949182 1.4685394 1 15 -0.090364113
3.0496414 2.7769072 -1.1051573 12 0 -0.090343378
7.9456024 7.2324786 0.18754356 34 8 -0.090341069
3.5961649 3.2722592 -1.1225058 1 1 -0.090338767
11.213992 10.200373 0.79445988 2 9 -0.090336464
4.4426303 4.0410662 -1.1673695 9 2 -0.090334162
6.8044505 6.1872349 0.80462182 78 10 -0.090331852
4.809144 4.3713846 -1.029339 16 3 -0.09032955
8.6680927 7.8763046 1.4380584 16 11 -0.090327248
5.6454391 5.1279578 -0.9364441 11 4 -0.090324946
6.322134 5.7406111 1.3525326 57 12 -0.090322636
4.4442849 4.03549 -0.52520049 51 5 -0.090320334
5.1853371 4.706728 1.3612314 31 13 -0.090318032
4.5127649 4.0947981 -0.31935403 22 6 -0.090315729
4.4846649 4.0678744 1.3978459 31 14 -0.09031342
6.6084509 5.9921803 -0.15571038 10 7 -0.090311117
4.0979571 3.7144995 1.481998 1 15 -0.090308815
3.0621827 2.7688358 -1.1061926 12 0 -0.09028808
6.7617531 6.1118608 0.15909614 39 8 -0.090285778
3.6335909 3.2832036 -1.1306039 1 1 -0.090283468
11.233229 10.146439 0.7933085 35 9 -0.090281166
4.4596238 4.0281649 -1.1681327 9 2 -0.090278864
6.7476301 6.092679 0.79538327 67 10 -0.090276562
5.5033064 4.9673862 -1.1741973 19 3 -0.090274252
8.7058516 7.8553061 1.4397645 34 11 -0.09027195
4.436893 4.0020165 -0.73365355 17 4 -0.090269648
6.3714767 5.7449617 1.35879 15 12 -0.090267345
4.4124746 3.9785905 -0.51979685 79 5 -0.090265036
5.2119441 4.6977987 1.3639028 23 13 -0.090262733
4.5121922 4.0656524 -0.31830731 26 6 -0.090260431
4.5104222 4.0626278 1.4014452 18 14 -0.090258129
5.3334818 4.8022881 -0.12527338 1 7 -0.090255827
4.1309996 3.7182667 1.4892448 1 15 -0.090253517
3.0718284 2.7581306 -1.1061926 13 0 -0.090229988
8.0524511 7.2275896 0.18886994 86 8 -0.090227686
3.6392286 3.2652934 -1.1288043 1 1 -0.090225384
11.335484 10.167178 0.79801875 85 9 -0.090223074
4.4736567 4.0125737 -1.1681327 9 2 -0.090220772
6.7896256 6.0877075 0.79782367 20 10 -0.09021847
5.6677098 5.0799918 -1.2054842 11 3 -0.090216167
8.7273035 7.8195724 1.4387896 14 11 -0.090213858
4.410912 3.9507434 -0.72707254 28 4 -0.090211555
6.4533005 5.7780304 1.3719305 65 12 -0.090209253
4.42485 3.9618361 -0.51962256 85 5 -0.090206951
5.2502527 4.6992183 1.3696271 6 13 -0.090204641
4.544219 4.0658569 -0.31956339 27 6 -0.090202339
4.5274801 4.049458 1.4023448 22 14 -0.090200037
6.5934758 5.8952494 -0.15438399 11 7 -0.090197735
4.132432 3.6935241 1.4851037 37 15 -0.090195425
3.0799952 2.7461059 -1.105675 9 0 -0.09017469
3.6506038 3.2525711 -1.1288043 1 1 -0.090170085
6.5862966 5.8661127 0.46223122 13 9 -0.090167783
4.4671121 3.9786518 -1.1627901 9 2 -0.090165474
6.7230406 5.9858003 0.78753924 83 10 -0.090163171
5.7296743 5.0995774 -1.2148702 20 3 -0.090160869
8.7812433 7.8128099 1.443177 34 11 -0.090158567
4.408361 3.9208097 -0.72439146 30 4 -0.090156257
6.5560994 5.8289719 1.389451 68 12 -0.090153955
4.4267397 3.935776 -0.51822799 79 5 -0.090151653
5.3033113 4.7134666 1.3791674 1 13 -0.09014935
4.5703292 4.0605812 -0.32040074 28 6 -0.090147041
4.5488725 4.0401011 1.4045944 67 14 -0.090144739
6.6020527 5.8615756 -0.15410475 10 7 -0.090142436
4.1496353 3.6829231 1.4866567 11 15 -0.090140134
3.0808828 2.7276554 -1.1025692 14 0 -0.090119399
6.9436851 6.1454148 0.16185361 21 8 -0.090117089
3.65026 3.2294772 -1.1252052 1 1 -0.090114787
4.4868522 3.96824 -1.1643165 9 2 -0.090110183
6.7841949 5.9979286 0.79224569 76 10 -0.090107873
5.7356 5.0690799 -1.2123673 11 3 -0.090105571
8.7906036 7.7663436 1.4402521 13 11 -0.090103269
4.3997011 3.8856878 -0.72073537 31 4 -0.090100966
4.4509077 3.9295294 -0.51944822 64 5 -0.090096354
5.3079553 4.6845345 1.3761146 12 13 -0.090094052
4.5889678 4.0485678 -0.32071477 35 6 -0.09009175
4.5877948 4.0461092 1.4122428 33 14 -0.090089448
6.6049552 5.8251019 -0.1537208 13 7 -0.090087138
4.1618247 3.669143 1.4866567 46 15 -0.090084836
3.0990913 2.7245367 -1.105675 14 0 -0.090064101
6.7732916 5.9546752 0.15742071 74 8 -0.090061799
3.6902258 3.2430823 -1.1342032 1 1 -0.090059489
6.5645509 5.7671013 0.45793965 9 9 -0.090057187
4.4756002 3.9305294 -1.157829 2 2 -0.090054885
6.7991037 5.9689517 0.79154849 76 10 -0.090052582
5.7390194 5.038301 -1.2095515 10 3 -0.090050273
8.8401842 7.7580981 1.4441519 32 11 -0.09004797
4.3886857 3.8501315 -0.71683556 31 4 -0.090045668
6.5198841 5.717783 1.3734949 25 12 -0.090043366
4.4765816 3.9244771 -0.52084273 30 5 -0.090041064
5.3027921 4.6487894 1.3707719 13 13 -0.090038754
4.5903506 4.0227981 -0.31987742 32 6 -0.090036452
4.6217089 4.0488496 1.4185413 13 14 -0.09003415
6.6282558 5.8046465 -0.15379061 40 7 -0.090031847
4.1818738 3.6609561 1.4892448 76 15 -0.090029538
3.1110198 2.7167852 -1.1067102 15 0 -0.090008803
6.86936 5.9967475 0.15916595 100 8 -0.0900065
3.6721561 3.2045574 -1.1252052 1 1 -0.090004198
11.300001 9.8576183 0.78587681 2 9 -0.090001889
4.3820915 3.822742 -1.1303525 2 2 -0.089999586
6.7587938 5.8939943 0.784576 38 10 -0.089997284
5.7312546 4.9961743 -1.2042327 11 3 -0.089994982
8.8552399 7.7167568 1.442202 21 11 -0.08999268
4.3781505 3.8139253 -0.71293575 33 4 -0.08999037
4.4940777 3.913537 -0.52136564 34 5 -0.089985766
6.0031123 5.2257881 1.5470794 27 13 -0.089983463
4.6224456 4.0224824 -0.32113346 21 6 -0.089981154
5.2062821 4.5289483 1.5931033 3 14 -0.089978851
6.6424437 5.7762241 -0.153651 37 7 -0.089976549
4.213582 3.6628115 1.4959742 48 15 -0.089974247
3.1234045 2.7084398 -1.1077455 12 0 -0.089953505
6.8554955 5.9426079 0.15836313 100 8 -0.089951202
3.7068846 3.2121377 -1.1324036 1 1 -0.0899489
6.5699344 5.691052 0.45553222 2 9 -0.089946598
6.8019176 5.8899307 0.78719068 54 10 -0.089941986
