# .PCD v0.7 - Point Cloud Data file format
VERSION 0.7
FIELDS x y z intensity
SIZE 4 4 4 4
TYPE F F F F
COUNT 1 1 1 1
WIDTH 1668
HEIGHT 1
VIEWPOINT 0 0 0 1 0 0 0
POINTS 1668
DATA ascii
-4.3994226 2.7680292 -1.2 0
-4.4086785 2.7532632 -1.2 0
-4.4178853 2.7384663 -1.2 0
-4.427042 2.7236385 -1.2 0
-4.4361486 2.7087803 -1.2 0
-4.4452057 2.6938915 -1.2 0
-4.4542131 2.6789725 -1.2 0
-4.4631701 2.6640232 -1.2 0
-4.4720769 2.649044 -1.2 0
-4.4809337 2.6340351 -1.2 0
-4.4897399 2.6189966 -1.2 0
-4.4984956 2.6039286 -1.2 0
-4.5072007 2.5888314 -1.2 0
-4.5158553 2.573705 -1.2 0
-4.5244589 2.5585499 -1.2 0
-4.5330119 2.5433657 -1.2 0
-4.5415139 2.5281532 -1.2 0
-4.5499649 2.512912 -1.2 0
-4.5583644 2.4976428 -1.2 0
-4.5667129 2.4823453 -1.2 0
-4.5750103 2.46702 -1.2 0
-4.5832558 2.4516671 -1.2 0
-4.5914502 2.4362864 -1.2 0
-4.5995927 2.4208786 -1.2 0
-4.6076837 2.4054434 -1.2 0
-4.6157227 2.3899813 -1.2 0
-4.6237102 2.3744922 -1.2 0
-4.6316452 2.3589764 -1.2 0
-4.6395283 2.3434341 -1.2 0
-4.6473594 2.3278654 -1.2 0
-4.655138 2.3122706 -1.2 0
-4.6628647 2.2966497 -1.2 0
-4.6705384 2.2810032 -1.2 0
-4.6781602 2.265331 -1.2 0
-4.685729 2.2496333 -1.2 0
-4.6932454 2.2339101 -1.2 0
-4.7007089 2.2181621 -1.2 0
-4.7081194 2.202389 -1.2 0
-4.7154775 2.1865911 -1.2 0
-4.7227821 2.1707687 -1.2 0
-4.7300334 2.154922 -1.2 0
-4.7372322 2.139051 -1.2 0
-4.7443771 2.1231558 -1.2 0
-4.7514691 2.1072371 -1.2 0
-4.7585077 2.0912943 -1.2 0
-4.7654924 2.0753281 -1.2 0
-4.7724237 2.0593388 -1.2 0
-4.7793016 2.0433261 -1.2 0
-4.7861257 2.0272906 -1.2 0
-4.7928958 2.0112321 -1.2 0
-4.7996125 1.9951513 -1.2 0
-4.8062749 1.9790478 -1.2 0
-4.8128829 1.9629222 -1.2 0
-4.8194375 1.9467745 -1.2 0
-4.8259373 1.9306048 -1.2 0
-4.8323832 1.9144136 -1.2 0
-4.8387747 1.8982008 -1.2 0
-4.8451118 1.8819665 -1.2 0
-4.8513947 1.8657112 -1.2 0
-4.8576226 1.8494349 -1.2 0
-4.8637962 1.8331379 -1.2 0
-4.869915 1.8168201 -1.2 0
-4.8759789 1.800482 -1.2 0
-4.881988 1.7841237 -1.2 0
-4.8879428 1.7677453 -1.2 0
-4.8938422 1.7513469 -1.2 0
-4.8996863 1.734929 -1.2 0
-4.9054761 1.7184916 -1.2 0
-4.9112101 1.7020347 -1.2 0
-4.9168892 1.6855588 -1.2 0
-4.922513 1.6690639 -1.2 0
-4.928081 1.6525502 -1.2 0
-4.9335942 1.636018 -1.2 0
-4.9390516 1.6194675 -1.2 0
-4.9444537 1.6028986 -1.2 0
-4.9498 1.5863118 -1.2 0
-4.955091 1.5697072 -1.2 0
-4.9603262 1.5530849 -1.2 0
-4.9655051 1.5364451 -1.2 0
-4.9706287 1.519788 -1.2 0
-4.9756966 1.5031139 -1.2 0
-4.9807081 1.4864229 -1.2 0
-4.9856639 1.4697151 -1.2 0
-4.9905634 1.4529909 -1.2 0
-4.9954071 1.4362503 -1.2 0
-5.0001945 1.4194936 -1.2 0
-5.0049257 1.4027209 -1.2 0
-5.0096006 1.3859324 -1.2 0
-5.0142193 1.3691285 -1.2 0
-5.0187817 1.352309 -1.2 0
-5.0232873 1.3354744 -1.2 0
-5.0277367 1.3186247 -1.2 0
-5.0321293 1.3017603 -1.2 0
-5.0364656 1.2848812 -1.2 0
-5.0407453 1.2679876 -1.2 0
-5.0449686 1.2510798 -1.2 0
-5.0491347 1.234158 -1.2 0
-5.0532441 1.2172222 -1.2 0
-5.0572968 1.2002728 -1.2 0
-5.0612926 1.1833099 -1.2 0
-5.0652318 1.1663337 -1.2 0
-5.0691137 1.1493444 -1.2 0
-5.0729389 1.1323421 -1.2 0
-5.0767069 1.1153272 -1.2 0
-5.0804176 1.0982996 -1.2 0
-5.0840716 1.0812598 -1.2 0
-5.0876684 1.0642078 -1.2 0
-5.091208 1.0471438 -1.2 0
-5.0946898 1.030068 -1.2 0
-5.098115 1.0129808 -1.2 0
-5.1014829 0.99588203 -1.2 0
-5.1047931 0.97877216 -1.2 0
-5.1080461 0.96165127 -1.2 0
-5.1112413 0.94451952 -1.2 0
-5.1143794 0.92737716 -1.2 0
-5.1174603 0.91022444 -1.2 0
-5.1204834 0.89306146 -1.2 0
-5.1234488 0.87588841 -1.2 0
-5.1263566 0.85870552 -1.2 0
-5.1292067 0.84151298 -1.2 0
-5.1319995 0.82431102 -1.2 0
-5.1347342 0.80709976 -1.2 0
-5.1374116 0.78987938 -1.2 0
-5.1400309 0.77265018 -1.2 0
-5.1425924 0.75541228 -1.2 0
-5.1450963 0.73816592 -1.2 0
-5.1475425 0.7209112 -1.2 0
-5.1499305 0.70364845 -1.2 0
-5.1522608 0.68637776 -1.2 0
-5.1545334 0.66909933 -1.2 0
-5.1567478 0.65181339 -1.2 0
-5.1589041 0.63452011 -1.2 0
-5.1610026 0.61721975 -1.2 0
-5.163043 0.59991241 -1.2 0
-5.1650252 0.58259833 -1.2 0
-5.1669497 0.5652777 -1.2 0
-5.1688156 0.54795069 -1.2 0
-5.1706238 0.53061754 -1.2 0
-5.1723738 0.51327842 -1.2 0
-5.1740656 0.49593356 -1.2 0
-5.1756992 0.4785831 -1.2 0
-5.1772752 0.46122727 -1.2 0
-5.1787925 0.44386625 -1.2 0
-5.1802516 0.42650026 -1.2 0
-5.1816521 0.40912944 -1.2 0
-5.1829948 0.39175403 -1.2 0
-5.184279 0.37437424 -1.2 0
-5.1855054 0.35699022 -1.2 0
-5.1866732 0.3396022 -1.2 0
-5.1877823 0.32221034 -1.2 0
-5.1888337 0.30481488 -1.2 0
-5.1898265 0.28741598 -1.2 0
-5.1907611 0.27001387 -1.2 0
-5.191637 0.25260872 -1.2 0
-5.1924548 0.23520072 -1.2 0
-5.1932144 0.21779007 -1.2 0
-5.1939154 0.20037697 -1.2 0
-5.1945577 0.18296164 -1.2 0
-5.1951423 0.16554424 -1.2 0
-5.1956677 0.14812498 -1.2 0
-5.1961355 0.13070405 -1.2 0
-5.1965446 0.11328165 -1.2 0
-5.1968951 0.095857985 -1.2 0
-5.1971874 0.078433238 -1.2 0
-5.1974211 0.061007608 -1.2 0
-5.1975961 0.043581292 -1.2 0
-5.1977134 0.026154488 -1.2 0
-5.1977715 0.0087273913 -1.2 0
-5.1977792 1.3792774e-05 -1.2 0
-6.1734653 -0.010365644 -1.2 0
-6.1733961 -0.031064048 -1.2 0
-6.1732574 -0.051762108 -1.2 0
-6.173049 -0.072459579 -1.2 0
-6.1727715 -0.093156241 -1.2 0
-6.1724243 -0.11385185 -1.2 0
-6.172008 -0.13454619 -1.2 0
-6.1715221 -0.15523902 -1.2 0
-6.1709671 -0.17593008 -1.2 0
-6.1703424 -0.19661918 -1.2 0
-6.1696486 -0.21730608 -1.2 0
-6.1688852 -0.23799051 -1.2 0
-6.1680527 -0.2586723 -1.2 0
-6.1671505 -0.27935115 -1.2 0
-6.1661792 -0.30002686 -1.2 0
-6.1651387 -0.32069921 -1.2 0
-6.1640286 -0.34136796 -1.2 0
-6.1628494 -0.36203286 -1.2 0
-6.1616011 -0.38269371 -1.2 0
-6.1602836 -0.40335023 -1.2 0
-6.1588964 -0.42400223 -1.2 0
-6.1574402 -0.44464949 -1.2 0
-6.1559148 -0.46529171 -1.2 0
-6.1543202 -0.48592871 -1.2 0
-6.1526566 -0.50656027 -1.2 0
-6.1509233 -0.5271861 -1.2 0
-6.1491213 -0.54780602 -1.2 0
-6.1472502 -0.56841981 -1.2 0
-6.1453094 -0.58902717 -1.2 0
-6.1433001 -0.6096279 -1.2 0
-6.1412215 -0.63022184 -1.2 0
-6.1390743 -0.65080863 -1.2 0
-6.1368575 -0.67138815 -1.2 0
-6.134572 -0.6919601 -1.2 0
-6.1322174 -0.71252424 -1.2 0
-6.1297941 -0.73308045 -1.2 0
-6.1273017 -0.75362831 -1.2 0
-6.1247406 -0.77416778 -1.2 0
-6.1221104 -0.79469854 -1.2 0
-6.1194115 -0.81522036 -1.2 0
-6.1166439 -0.835733 -1.2 0
-6.1138077 -0.85623628 -1.2 0
-6.1109023 -0.87672991 -1.2 0
-6.1079288 -0.89721364 -1.2 0
-6.1048861 -0.91768736 -1.2 0
-6.1017747 -0.9381507 -1.2 0
-6.0985951 -0.95860356 -1.2 0
-6.0953469 -0.97904557 -1.2 0
-6.09203 -0.99947667 -1.2 0
-6.088645 -1.0198965 -1.2 0
-6.0851908 -1.0403048 -1.2 0
-6.0816689 -1.0607015 -1.2 0
-6.0780783 -1.0810862 -1.2 0
-6.0744195 -1.1014588 -1.2 0
-6.0706925 -1.1218189 -1.2 0
-6.0668969 -1.1421665 -1.2 0
-6.0630336 -1.1625012 -1.2 0
-6.0591016 -1.1828229 -1.2 0
-6.0551019 -1.2031313 -1.2 0
-6.051034 -1.2234261 -1.2 0
-6.0468979 -1.2437073 -1.2 0
-6.0426941 -1.2639744 -1.2 0
-6.0384221 -1.2842273 -1.2 0
-6.0340824 -1.3044658 -1.2 0
-6.029675 -1.3246895 -1.2 0
-6.0251999 -1.3448985 -1.2 0
-6.0206566 -1.3650923 -1.2 0
-6.016046 -1.3852707 -1.2 0
-6.0113678 -1.4054337 -1.2 0
-6.0066218 -1.4255807 -1.2 0
-6.0018082 -1.4457117 -1.2 0
-5.9969273 -1.4658265 -1.2 0
-5.9919786 -1.4859248 -1.2 0
-5.9869633 -1.5060065 -1.2 0
-5.9818802 -1.5260712 -1.2 0
-5.9767299 -1.5461187 -1.2 0
-5.9715123 -1.5661489 -1.2 0
-5.966228 -1.5861614 -1.2 0
-5.9608765 -1.6061561 -1.2 0
-5.9554577 -1.6261328 -1.2 0
-5.9499722 -1.6460912 -1.2 0
-5.9444194 -1.6660311 -1.2 0
-5.9388003 -1.6859522 -1.2 0
-5.9331141 -1.7058544 -1.2 0
-5.9273615 -1.7257375 -1.2 0
-5.9215422 -1.7456011 -1.2 0
-5.9156561 -1.7654451 -1.2 0
-5.9097037 -1.7852693 -1.2 0
-5.9036846 -1.8050734 -1.2 0
-5.8975997 -1.8248571 -1.2 0
-5.891448 -1.8446203 -1.2 0
-5.8852301 -1.864363 -1.2 0
-5.8789463 -1.8840846 -1.2 0
-5.8725963 -1.903785 -1.2 0
-5.8661804 -1.9234639 -1.2 0
-5.8596983 -1.9431213 -1.2 0
-5.8531504 -1.9627569 -1.2 0
-5.8465366 -1.9823704 -1.2 0
-5.8398571 -2.0019615 -1.2 0
-5.8331122 -2.0215302 -1.2 0
-5.8263016 -2.0410762 -1.2 0
-5.8194256 -2.0605991 -1.2 0
-5.8124843 -2.0800991 -1.2 0
-5.8054771 -2.0995755 -1.2 0
-5.7984052 -2.1190283 -1.2 0
-5.7912679 -2.1384575 -1.2 0
-5.7840652 -2.1578624 -1.2 0
-5.7767982 -2.1772432 -1.2 0
-5.7694659 -2.1965995 -1.2 0
-5.7620683 -2.2159312 -1.2 0
-5.7546067 -2.2352378 -1.2 0
-5.7470798 -2.2545192 -1.2 0
-5.7394886 -2.2737756 -1.2 0
-5.7318325 -2.2930062 -1.2 0
-5.7241125 -2.312211 -1.2 0
-5.7163281 -2.3313899 -1.2 0
-5.7084789 -2.3505425 -1.2 0
-5.7005663 -2.3696687 -1.2 0
-5.6925888 -2.3887684 -1.2 0
-5.6845479 -2.4078412 -1.2 0
-5.6764431 -2.4268868 -1.2 0
-5.6682739 -2.4459052 -1.2 0
-5.6600418 -2.4648962 -1.2 0
-5.6517453 -2.4838593 -1.2 0
-5.6433859 -2.5027945 -1.2 0
-5.6349626 -2.5217018 -1.2 0
-5.6264763 -2.5405805 -1.2 0
-5.6179266 -2.5594308 -1.2 0
-5.6093135 -2.5782523 -1.2 0
-5.6006379 -2.5970447 -1.2 0
-5.5918989 -2.615808 -1.2 0
-5.583097 -2.6345417 -1.2 0
-5.5742326 -2.6532462 -1.2 0
-5.5653052 -2.6719205 -1.2 0
-5.5563159 -2.6905649 -1.2 0
-5.5472636 -2.7091792 -1.2 0
-5.5381489 -2.7277627 -1.2 0
-5.5289721 -2.7463157 -1.2 0
-5.519733 -2.764838 -1.2 0
-5.5104322 -2.783329 -1.2 0
-5.5010691 -2.8017888 -1.2 0
-5.4916444 -2.8202171 -1.2 0
-5.4821577 -2.8386137 -1.2 0
-5.47261 -2.8569784 -1.2 0
-5.4630003 -2.8753111 -1.2 0
-5.4533291 -2.8936112 -1.2 0
-5.4435968 -2.9118791 -1.2 0
-5.4338031 -2.930114 -1.2 0
-5.4239483 -2.9483161 -1.2 0
-5.4140329 -2.966485 -1.2 0
-5.4040561 -2.9846206 -1.2 0
-5.3940191 -3.0027225 -1.2 0
-5.3839211 -3.0207908 -1.2 0
-5.3737626 -3.038825 -1.2 0
-5.363544 -3.0568252 -1.2 0
-5.3532648 -3.074791 -1.2 0
-5.3429255 -3.0927222 -1.2 0
-5.3325262 -3.1106186 -1.2 0
-5.3220668 -3.12848 -1.2 0
-5.3115478 -3.1463063 -1.2 0
-5.3009691 -3.1640973 -1.2 0
-5.2903304 -3.1818526 -1.2 0
-5.2796326 -3.1995723 -1.2 0
-5.2688756 -3.2172558 -1.2 0
-5.258059 -3.2349033 -1.2 0
-5.2471833 -3.2525144 -1.2 0
-5.236249 -3.2700889 -1.2 0
-5.2252555 -3.2876267 -1.2 0
-5.2142034 -3.3051276 -1.2 0
-5.2030926 -3.3225913 -1.2 0
-5.1919231 -3.3400176 -1.2 0
-5.1806955 -3.3574064 -1.2 0
-5.1694098 -3.3747573 -1.2 0
-5.1580658 -3.3920703 -1.2 0
-5.1466637 -3.4093454 -1.2 0
-5.1352038 -3.4265819 -1.2 0
-5.1236863 -3.4437802 -1.2 0
-5.1121111 -3.4609394 -1.2 0
-5.1004786 -3.47806 -1.2 0
-5.0887885 -3.4951413 -1.2 0
-5.0770416 -3.5121834 -1.2 0
-5.0652375 -3.529186 -1.2 0
-5.0533762 -3.546149 -1.2 0
-5.0414581 -3.5630722 -1.2 0
-5.0294833 -3.5799551 -1.2 0
-5.0174522 -3.5967979 -1.2 0
-5.0053649 -3.6136003 -1.2 0
-4.9932208 -3.630362 -1.2 0
-4.9810209 -3.647083 -1.2 0
-4.9687648 -3.6637628 -1.2 0
-4.9564533 -3.6804016 -1.2 0
-4.9440856 -3.6969991 -1.2 0
-4.9316626 -3.7135549 -1.2 0
-4.9191837 -3.7300689 -1.2 0
-4.9066501 -3.746541 -1.2 0
-4.8940611 -3.7629709 -1.2 0
-4.8814168 -3.7793586 -1.2 0
-4.8687181 -3.7957039 -1.2 0
-4.8559642 -3.8120065 -1.2 0
-4.8431563 -3.8282661 -1.2 0
-4.8302937 -3.8444829 -1.2 0
-4.8173766 -3.8606563 -1.2 0
-4.8044052 -3.8767865 -1.2 0
-4.7913804 -3.8928728 -1.2 0
-4.7783012 -3.9089155 -1.2 0
-4.7651687 -3.9249144 -1.2 0
-4.7519822 -3.9408691 -1.2 0
-4.7387424 -3.9567792 -1.2 0
-4.7254496 -3.9726453 -1.2 0
-4.7121034 -3.9884665 -1.2 0
-4.6987042 -4.0042429 -1.2 0
-4.6852527 -4.0199742 -1.2 0
-4.6717482 -4.0356603 -1.2 0
-4.6581907 -4.051301 -1.2 0
-4.6445813 -4.0668964 -1.2 0
-4.6309199 -4.0824461 -1.2 0
-4.6172061 -4.0979495 -1.2 0
-4.6034408 -4.1134071 -1.2 0
-4.589623 -4.1288185 -1.2 0
-4.5757542 -4.1441836 -1.2 0
-4.5618339 -4.159502 -1.2 0
-4.5478621 -4.1747732 -1.2 0
-4.5338392 -4.1899981 -1.2 0
-4.5197659 -4.2051754 -1.2 0
-4.505641 -4.2203059 -1.2 0
-4.491466 -4.2353888 -1.2 0
-4.4772401 -4.2504239 -1.2 0
-4.4629641 -4.2654114 -1.2 0
-4.448638 -4.2803507 -1.2 0
-4.4342618 -4.2952423 -1.2 0
-4.4198356 -4.3100853 -1.2 0
-4.4053597 -4.3248801 -1.2 0
-4.3908348 -4.3396263 -1.2 0
-4.3762598 -4.3543234 -1.2 0
-4.3616362 -4.3689718 -1.2 0
-4.3469634 -4.3835707 -1.2 0
-4.3322415 -4.3981209 -1.2 0
-4.317471 -4.412621 -1.2 0
-4.3026524 -4.427072 -1.2 0
-4.2877851 -4.441473 -1.2 0
-4.2728696 -4.4558244 -1.2 0
-4.257906 -4.4701252 -1.2 0
-4.2428946 -4.4843764 -1.2 0
-4.2278352 -4.4985766 -1.2 0
-4.2127285 -4.5127263 -1.2 0
-4.1975746 -4.5268254 -1.2 0
-4.1823735 -4.540874 -1.2 0
-4.1671252 -4.5548711 -1.2 0
-4.1518302 -4.5688171 -1.2 0
-4.1364884 -4.5827117 -1.2 0
-4.1211004 -4.5965548 -1.2 0
-4.1056657 -4.6103463 -1.2 0
-4.0901852 -4.6240859 -1.2 0
-4.0746584 -4.6377735 -1.2 0
-4.0590858 -4.6514091 -1.2 0
-4.043468 -4.6649923 -1.2 0
-4.0278044 -4.6785231 -1.2 0
-4.0120955 -4.6920009 -1.2 0
-3.9963415 -4.7054267 -1.2 0
-3.9805427 -4.7187991 -1.2 0
-3.964699 -4.7321186 -1.2 0
-3.9488108 -4.7453847 -1.2 0
-3.9328783 -4.7585979 -1.2 0
-3.9169014 -4.7717571 -1.2 0
-3.9008806 -4.784863 -1.2 0
-3.8848159 -4.797915 -1.2 0
-3.8687077 -4.8109131 -1.2 0
-3.8525558 -4.8238573 -1.2 0
-3.8363607 -4.8367467 -1.2 0
-3.8201225 -4.8495822 -1.2 0
-3.8038411 -4.8623633 -1.2 0
-3.7875173 -4.8750896 -1.2 0
-3.7711506 -4.8877606 -1.2 0
-3.7547417 -4.9003773 -1.2 0
-3.7382905 -4.9129386 -1.2 0
-3.7217975 -4.9254451 -1.2 0
-3.7052624 -4.9378958 -1.2 0
-3.6886857 -4.9502912 -1.2 0
-3.6720676 -4.9626307 -1.2 0
-3.6554081 -4.9749146 -1.2 0
-3.6387076 -4.9871426 -1.2 0
-3.6219664 -4.9993143 -1.2 0
-3.6051843 -5.0114298 -1.2 0
-3.5883615 -5.0234895 -1.2 0
-3.5714986 -5.0354919 -1.2 0
-3.5545955 -5.0474386 -1.2 0
-3.5376525 -5.0593281 -1.2 0
-3.5206695 -5.0711608 -1.2 0
-3.5036471 -5.0829363 -1.2 0
-3.4865854 -5.0946546 -1.2 0
-3.4694843 -5.1063161 -1.2 0
-3.4523442 -5.1179199 -1.2 0
-3.4351654 -5.1294661 -1.2 0
-3.417948 -5.1409545 -1.2 0
-3.4006922 -5.1523857 -1.2 0
-3.3833981 -5.1637583 -1.2 0
-3.366066 -5.1750731 -1.2 0
-3.348696 -5.1863298 -1.2 0
-3.3312883 -5.1975284 -1.2 0
-3.3138433 -5.2086682 -1.2 0
-3.296361 -5.2197499 -1.2 0
-3.2788417 -5.2307725 -1.2 0
-3.2612853 -5.2417364 -1.2 0
-3.2436926 -5.2526417 -1.2 0
-3.2260633 -5.2634873 -1.2 0
-3.2083976 -5.2742743 -1.2 0
-3.190696 -5.2850018 -1.2 0
-3.1729584 -5.29567 -1.2 0
-3.1551852 -5.3062782 -1.2 0
-3.1373765 -5.3168273 -1.2 0
-3.1195326 -5.3273163 -1.2 0
-3.1016536 -5.3377457 -1.2 0
-3.0837395 -5.348115 -1.2 0
-3.0657911 -5.3584242 -1.2 0
-3.0478079 -5.3686728 -1.2 0
-3.0297906 -5.3788614 -1.2 0
-3.0117395 -5.3889894 -1.2 0
-2.9936543 -5.3990574 -1.2 0
-2.9755354 -5.4090638 -1.2 0
-2.9573832 -5.4190102 -1.2 0
-2.9391975 -5.428895 -1.2 0
-2.920979 -5.4387193 -1.2 0
-2.9027276 -5.448482 -1.2 0
-2.8844435 -5.4581838 -1.2 0
-2.866127 -5.467824 -1.2 0
-2.8477783 -5.4774027 -1.2 0
-2.8293977 -5.4869204 -1.2 0
-2.8109851 -5.4963756 -1.2 0
-2.792541 -5.5057697 -1.2 0
-2.7740655 -5.5151014 -1.2 0
-2.7555587 -5.5243716 -1.2 0
-2.7370212 -5.5335793 -1.2 0
-2.7184527 -5.5427246 -1.2 0
-2.6998537 -5.5518084 -1.2 0
-2.6812243 -5.5608292 -1.2 0
-2.662565 -5.5697875 -1.2 0
-2.6438756 -5.5786834 -1.2 0
-2.6251564 -5.5875163 -1.2 0
-2.6064076 -5.5962863 -1.2 0
-2.5876298 -5.6049938 -1.2 0
-2.5688226 -5.6136379 -1.2 0
-2.5499868 -5.6222196 -1.2 0
-2.5311222 -5.6307373 -1.2 0
-2.5122292 -5.6391921 -1.2 0
-2.4933081 -5.6475835 -1.2 0
-2.4743586 -5.6559114 -1.2 0
-2.4553816 -5.6641755 -1.2 0
-2.4363768 -5.6723762 -1.2 0
-2.4173448 -5.6805129 -1.2 0
-2.3982854 -5.6885858 -1.2 0
-2.3791993 -5.6965952 -1.2 0
-2.3600862 -5.7045398 -1.2 0
-2.3409467 -5.7124209 -1.2 0
-2.3217809 -5.7202373 -1.2 0
-2.3025889 -5.7279897 -1.2 0
-2.2833712 -5.7356777 -1.2 0
-2.2641277 -5.7433014 -1.2 0
-2.2448587 -5.7508602 -1.2 0
-2.2255647 -5.7583547 -1.2 0
-2.2062454 -5.7657838 -1.2 0
-2.1869013 -5.7731485 -1.2 0
-2.1675329 -5.7804484 -1.2 0
-2.14814 -5.7876835 -1.2 0
-2.1287229 -5.7948532 -1.2 0
-2.1092818 -5.8019576 -1.2 0
-2.089817 -5.8089972 -1.2 0
-2.070329 -5.8159714 -1.2 0
-2.0508175 -5.8228798 -1.2 0
-2.0312829 -5.8297234 -1.2 0
-2.0117254 -5.8365011 -1.2 0
-1.9921455 -5.8432131 -1.2 0
-1.9725431 -5.8498597 -1.2 0
-1.9529185 -5.8564401 -1.2 0
-1.933272 -5.8629551 -1.2 0
-1.9136038 -5.8694038 -1.2 0
-1.893914 -5.8757873 -1.2 0
-1.874203 -5.8821039 -1.2 0
-1.8544708 -5.8883548 -1.2 0
-1.8347179 -5.8945394 -1.2 0
-1.8149443 -5.9006577 -1.2 0
-1.7951503 -5.9067097 -1.2 0
-1.7753361 -5.9126954 -1.2 0
-1.755502 -5.9186144 -1.2 0
-1.7356482 -5.9244671 -1.2 0
-1.7157748 -5.930253 -1.2 0
-1.6958821 -5.9359722 -1.2 0
-1.6759703 -5.9416251 -1.2 0
-1.6560398 -5.9472108 -1.2 0
-1.6360906 -5.9527297 -1.2 0
-1.6161231 -5.9581819 -1.2 0
-1.5961373 -5.9635668 -1.2 0
-1.5761336 -5.9688849 -1.2 0
-1.5561122 -5.9741359 -1.2 0
-1.5360733 -5.9793196 -1.2 0
-1.5160172 -5.984436 -1.2 0
-1.4959439 -5.9894853 -1.2 0
-1.4758539 -5.9944673 -1.2 0
-1.4557474 -5.999382 -1.2 0
-1.4356244 -6.0042291 -1.2 0
-1.4154853 -6.0090089 -1.2 0
-1.3953302 -6.0137205 -1.2 0
-1.3751595 -6.0183654 -1.2 0
-1.3549733 -6.0229421 -1.2 0
-1.3347719 -6.027451 -1.2 0
-1.3145555 -6.0318923 -1.2 0
-1.2943243 -6.0362659 -1.2 0
-1.2740786 -6.0405717 -1.2 0
-1.2538185 -6.0448093 -1.2 0
-1.2335443 -6.0489793 -1.2 0
-1.2132564 -6.053081 -1.2 0
-1.1929547 -6.0571151 -1.2 0
-1.1726396 -6.0610809 -1.2 0
-1.1523113 -6.0649781 -1.2 0
-1.1319702 -6.0688076 -1.2 0
-1.1116163 -6.0725689 -1.2 0
-1.0912498 -6.076262 -1.2 0
-1.0708711 -6.0798864 -1.2 0
-1.0504804 -6.0834427 -1.2 0
-1.0300778 -6.0869308 -1.2 0
-1.0096637 -6.0903502 -1.2 0
-0.98923826 -6.0937009 -1.2 0
-0.96880168 -6.0969834 -1.2 0
-0.94835418 -6.1001973 -1.2 0
-0.92789602 -6.1033425 -1.2 0
-0.90742749 -6.1064196 -1.2 0
-0.8869487 -6.1094275 -1.2 0
-0.86645997 -6.1123672 -1.2 0
-0.84596145 -6.1152377 -1.2 0
-0.82545346 -6.1180396 -1.2 0
-0.80493623 -6.1207728 -1.2 0
-0.78440988 -6.1234374 -1.2 0
-0.76387477 -6.1260328 -1.2 0
-0.74333102 -6.1285596 -1.2 0
-0.72277898 -6.1310172 -1.2 0
-0.70221871 -6.1334062 -1.2 0
-0.68165064 -6.135726 -1.2 0
-0.66107488 -6.1379771 -1.2 0
-0.64049166 -6.1401591 -1.2 0
-0.6199013 -6.142272 -1.2 0
-0.5993039 -6.1443157 -1.2 0
-0.57869983 -6.1462908 -1.2 0
-0.5580892 -6.1481967 -1.2 0
-0.53747237 -6.150033 -1.2 0
-0.5168494 -6.1518006 -1.2 0
-0.49622068 -6.1534991 -1.2 0
-0.47558638 -6.155128 -1.2 0
-0.45494673 -6.1566882 -1.2 0
-0.43430194 -6.1581788 -1.2 0
-0.4136523 -6.1596003 -1.2 0
-0.39299801 -6.1609526 -1.2 0
-0.37233928 -6.1622357 -1.2 0
-0.35167637 -6.1634493 -1.2 0
-0.33100951 -6.1645937 -1.2 0
-0.31033894 -6.165669 -1.2 0
-0.28966486 -6.1666746 -1.2 0
-0.26898754 -6.1676111 -1.2 0
-0.2483072 -6.1684785 -1.2 0
-0.22762406 -6.1692762 -1.2 0
-0.20693836 -6.1700048 -1.2 0
-0.18625033 -6.1706638 -1.2 0
-0.16556022 -6.1712537 -1.2 0
-0.14486824 -6.1717744 -1.2 0
-0.12417462 -6.172225 -1.2 0
-0.10347962 -6.1726069 -1.2 0
-0.082783461 -6.1729193 -1.2 0
-0.062086359 -6.173162 -1.2 0
-0.041388564 -6.1733356 -1.2 0
-0.020690303 -6.1734395 -1.2 0
8.1909338e-06 -6.1734743 -1.2 0
0.020706685 -6.1734395 -1.2 0
0.041404944 -6.1733356 -1.2 0
0.062102739 -6.173162 -1.2 0
0.082799837 -6.1729188 -1.2 0
0.10349601 -6.1726065 -1.2 0
0.12419101 -6.172225 -1.2 0
0.14488462 -6.1717739 -1.2 0
0.16557659 -6.1712532 -1.2 0
0.18626671 -6.1706634 -1.2 0
0.20695473 -6.1700044 -1.2 0
0.22764044 -6.1692758 -1.2 0
0.24832356 -6.168478 -1.2 0
0.2690039 -6.1676106 -1.2 0
0.28968123 -6.1666741 -1.2 0
0.31035531 -6.165668 -1.2 0
0.33102587 -6.1645927 -1.2 0
0.35169274 -6.1634483 -1.2 0
0.37235564 -6.1622348 -1.2 0
0.39301434 -6.1609516 -1.2 0
0.41366866 -6.1595993 -1.2 0
0.4343183 -6.1581774 -1.2 0
0.45496306 -6.1566868 -1.2 0
0.47560272 -6.1551266 -1.2 0
0.49623701 -6.1534977 -1.2 0
0.51686573 -6.1517992 -1.2 0
0.53748864 -6.1500316 -1.2 0
0.55810553 -6.1481948 -1.2 0
0.57871616 -6.1462893 -1.2 0
0.59932023 -6.1443143 -1.2 0
0.61991757 -6.1422706 -1.2 0
0.640508 -6.1401572 -1.2 0
0.66109115 -6.1379752 -1.2 0
0.68166691 -6.1357245 -1.2 0
0.70223504 -6.1334043 -1.2 0
0.72279519 -6.1310153 -1.2 0
0.74334729 -6.1285577 -1.2 0
0.76389098 -6.1260309 -1.2 0
0.78442615 -6.123435 -1.2 0
0.80495244 -6.1207709 -1.2 0
0.82546973 -6.1180377 -1.2 0
0.84597772 -6.1152353 -1.2 0
0.86647618 -6.1123648 -1.2 0
0.88696492 -6.1094251 -1.2 0
0.9074437 -6.1064172 -1.2 0
0.92791224 -6.1033401 -1.2 0
0.9483704 -6.1001949 -1.2 0
0.96881783 -6.096981 -1.2 0
0.98925442 -6.0936985 -1.2 0
1.0096799 -6.0903473 -1.2 0
1.030094 -6.0869279 -1.2 0
1.0504966 -6.0834398 -1.2 0
1.0708872 -6.0798836 -1.2 0
1.0912659 -6.0762591 -1.2 0
1.1116323 -6.072566 -1.2 0
1.1319863 -6.0688047 -1.2 0
1.1523274 -6.0649753 -1.2 0
1.1726557 -6.0610776 -1.2 0
1.1929708 -6.0571117 -1.2 0
1.2132725 -6.0530782 -1.2 0
1.2335604 -6.0489759 -1.2 0
1.2538346 -6.0448065 -1.2 0
1.2740946 -6.0405684 -1.2 0
1.2943404 -6.0362625 -1.2 0
1.3145715 -6.031889 -1.2 0
1.3347878 -6.0274477 -1.2 0
1.3549893 -6.0229383 -1.2 0
1.3751755 -6.0183616 -1.2 0
1.3953462 -6.0137172 -1.2 0
1.4155011 -6.0090051 -1.2 0
1.4356402 -6.0042253 -1.2 0
1.4557632 -5.9993782 -1.2 0
1.4758698 -5.9944634 -1.2 0
1.4959599 -5.9894814 -1.2 0
1.5160331 -5.9844322 -1.2 0
1.5360892 -5.9793153 -1.2 0
1.556128 -5.9741316 -1.2 0
1.5761495 -5.9688807 -1.2 0
1.5961531 -5.9635625 -1.2 0
1.6161388 -5.9581776 -1.2 0
1.6361064 -5.9527254 -1.2 0
1.6560556 -5.9472065 -1.2 0
1.6759862 -5.9416203 -1.2 0
1.6958978 -5.9359679 -1.2 0
1.7157905 -5.9302483 -1.2 0
1.7356639 -5.9244623 -1.2 0
1.7555177 -5.9186096 -1.2 0
1.7753518 -5.9126906 -1.2 0
1.795166 -5.9067049 -1.2 0
1.81496 -5.9006529 -1.2 0
1.8347335 -5.8945346 -1.2 0
1.8544865 -5.88835 -1.2 0
1.8742186 -5.8820992 -1.2 0
1.8939296 -5.875782 -1.2 0
1.9136194 -5.8693991 -1.2 0
1.9332876 -5.8629498 -1.2 0
1.952934 -5.8564353 -1.2 0
1.9725586 -5.8498545 -1.2 0
1.992161 -5.8432078 -1.2 0
2.0117409 -5.8364959 -1.2 0
2.0312984 -5.8297181 -1.2 0
2.0508327 -5.8228745 -1.2 0
2.0703442 -5.8159657 -1.2 0
2.0898325 -5.8089914 -1.2 0
2.1092973 -5.8019524 -1.2 0
2.1287382 -5.7948475 -1.2 0
2.1481552 -5.7876778 -1.2 0
2.1675482 -5.7804427 -1.2 0
2.1869168 -5.7731428 -1.2 0
2.2062607 -5.7657781 -1.2 0
2.22558 -5.7583485 -1.2 0
2.244874 -5.750854 -1.2 0
2.264143 -5.7432952 -1.2 0
2.2833865 -5.7356715 -1.2 0
2.3026042 -5.727984 -1.2 0
2.3217962 -5.7202315 -1.2 0
2.3409619 -5.7124147 -1.2 0
2.3601015 -5.7045336 -1.2 0
2.3792143 -5.6965885 -1.2 0
2.3983006 -5.6885796 -1.2 0
2.4173598 -5.6805067 -1.2 0
2.4363918 -5.6723695 -1.2 0
2.4553967 -5.6641688 -1.2 0
2.4743736 -5.6559048 -1.2 0
2.4933228 -5.6475768 -1.2 0
2.5122442 -5.6391854 -1.2 0
2.5311372 -5.6307306 -1.2 0
2.5500019 -5.6222124 -1.2 0
2.5688376 -5.6136312 -1.2 0
2.5876446 -5.6049871 -1.2 0
2.6064227 -5.5962796 -1.2 0
2.6251712 -5.5875092 -1.2 0
2.6438904 -5.5786762 -1.2 0
2.6625798 -5.5697803 -1.2 0
2.6812391 -5.560822 -1.2 0
2.6998684 -5.5518007 -1.2 0
2.7184675 -5.5427175 -1.2 0
2.7370358 -5.5335717 -1.2 0
2.7555735 -5.524364 -1.2 0
2.77408 -5.5150943 -1.2 0
2.7925556 -5.5057621 -1.2 0
2.8109996 -5.4963684 -1.2 0
2.8294122 -5.4869127 -1.2 0
2.8477929 -5.4773955 -1.2 0
2.8661416 -5.4678164 -1.2 0
2.8844581 -5.4581761 -1.2 0
2.9027419 -5.4484744 -1.2 0
2.9209933 -5.4387112 -1.2 0
2.9392118 -5.4288874 -1.2 0
2.9573975 -5.4190021 -1.2 0
2.9755497 -5.4090562 -1.2 0
2.9936686 -5.3990493 -1.2 0
3.0117538 -5.3889818 -1.2 0
3.0298049 -5.3788533 -1.2 0
3.0478222 -5.3686647 -1.2 0
3.0658052 -5.3584161 -1.2 0
3.0837538 -5.3481069 -1.2 0
3.1016676 -5.3377376 -1.2 0
3.1195467 -5.3273082 -1.2 0
3.1373906 -5.3168192 -1.2 0
3.1551993 -5.3062701 -1.2 0
3.1729724 -5.2956614 -1.2 0
3.1907098 -5.2849932 -1.2 0
3.2084115 -5.2742658 -1.2 0
3.2260771 -5.2634788 -1.2 0
3.2437065 -5.2526331 -1.2 0
3.2612994 -5.2417278 -1.2 0
3.2788556 -5.2307639 -1.2 0
3.2963748 -5.2197409 -1.2 0
3.3138571 -5.2086596 -1.2 0
3.3313022 -5.1975198 -1.2 0
3.3487098 -5.1863213 -1.2 0
3.3660796 -5.1750646 -1.2 0
3.3834116 -5.1637497 -1.2 0
3.4007058 -5.1523767 -1.2 0
3.4179616 -5.1409454 -1.2 0
3.435179 -5.129457 -1.2 0
3.4523578 -5.1179104 -1.2 0
3.4694979 -5.1063066 -1.2 0
3.4865987 -5.0946455 -1.2 0
3.5036607 -5.0829268 -1.2 0
3.5206831 -5.0711513 -1.2 0
3.5376658 -5.0593185 -1.2 0
3.5546088 -5.0474291 -1.2 0
3.571512 -5.0354829 -1.2 0
3.5883749 -5.0234799 -1.2 0
3.6051974 -5.0114202 -1.2 0
3.6219797 -4.9993048 -1.2 0
3.638721 -4.9871325 -1.2 0
3.6554215 -4.974905 -1.2 0
3.6720808 -4.9626207 -1.2 0
3.688699 -4.9502811 -1.2 0
3.7052755 -4.9378858 -1.2 0
3.7218106 -4.9254351 -1.2 0
3.7383037 -4.9129286 -1.2 0
3.7547548 -4.9003673 -1.2 0
3.7711637 -4.8877506 -1.2 0
3.7875302 -4.8750792 -1.2 0
3.803854 -4.8623533 -1.2 0
3.8201354 -4.8495722 -1.2 0
3.8363736 -4.8367367 -1.2 0
3.8525686 -4.8238468 -1.2 0
3.8687203 -4.8109031 -1.2 0
3.8848288 -4.7979045 -1.2 0
3.9008934 -4.7848525 -1.2 0
3.9169142 -4.7717466 -1.2 0
3.9328909 -4.7585874 -1.2 0
3.9488235 -4.7453742 -1.2 0
3.9647117 -4.7321081 -1.2 0
3.9805551 -4.7187886 -1.2 0
3.9963539 -4.7054157 -1.2 0
4.0121078 -4.6919904 -1.2 0
4.0278168 -4.6785121 -1.2 0
4.0434804 -4.6649814 -1.2 0
4.0590982 -4.6513982 -1.2 0
4.0746708 -4.6377625 -1.2 0
4.0901976 -4.6240749 -1.2 0
4.1056781 -4.6103354 -1.2 0
4.1211123 -4.5965438 -1.2 0
4.1365008 -4.5827007 -1.2 0
4.1518426 -4.5688062 -1.2 0
4.1671376 -4.5548601 -1.2 0
4.1823854 -4.5408626 -1.2 0
4.1975865 -4.5268145 -1.2 0
4.2127409 -4.5127153 -1.2 0
4.2278471 -4.4985652 -1.2 0
4.2429066 -4.484365 -1.2 0
4.2579179 -4.4701142 -1.2 0
4.272881 -4.4558129 -1.2 0
4.287797 -4.4414616 -1.2 0
4.3026638 -4.4270606 -1.2 0
4.3174829 -4.4126096 -1.2 0
4.3322535 -4.3981094 -1.2 0
4.3469748 -4.3835592 -1.2 0
4.3616476 -4.3689599 -1.2 0
4.3762717 -4.3543119 -1.2 0
4.3908463 -4.3396144 -1.2 0
4.4053712 -4.3248682 -1.2 0
4.419847 -4.3100739 -1.2 0
4.4342732 -4.2952304 -1.2 0
4.4486494 -4.2803392 -1.2 0
4.4629755 -4.2653995 -1.2 0
4.4772515 -4.250412 -1.2 0
4.491477 -4.2353768 -1.2 0
4.5056524 -4.220294 -1.2 0
4.5197768 -4.2051635 -1.2 0
4.5338507 -4.1899862 -1.2 0
4.5478735 -4.1747613 -1.2 0
4.5618448 -4.1594896 -1.2 0
4.5757651 -4.1441712 -1.2 0
4.5896339 -4.1288061 -1.2 0
4.6034513 -4.1133947 -1.2 0
4.6172171 -4.0979371 -1.2 0
4.6309309 -4.0824337 -1.2 0
4.6445923 -4.066884 -1.2 0
4.6582017 -4.0512886 -1.2 0
4.6717587 -4.0356479 -1.2 0
4.6852632 -4.0199618 -1.2 0
4.6987152 -4.0042305 -1.2 0
4.7121139 -3.9884539 -1.2 0
4.7254601 -3.9726326 -1.2 0
4.7387528 -3.9567668 -1.2 0
4.7519927 -3.9408565 -1.2 0
4.7651792 -3.9249017 -1.2 0
4.7783117 -3.9089029 -1.2 0
4.7913904 -3.8928602 -1.2 0
4.8044157 -3.8767736 -1.2 0
4.8173866 -3.8606436 -1.2 0
4.8303037 -3.84447 -1.2 0
4.8431664 -3.8282533 -1.2 0
4.8559747 -3.8119936 -1.2 0
4.8687282 -3.795691 -1.2 0
4.8814268 -3.7793458 -1.2 0
4.8940711 -3.762958 -1.2 0
4.9066601 -3.7465279 -1.2 0
4.9191937 -3.7300558 -1.2 0
4.9316721 -3.7135417 -1.2 0
4.9440956 -3.696986 -1.2 0
4.9564629 -3.6803885 -1.2 0
4.9687748 -3.6637497 -1.2 0
4.9810305 -3.6470697 -1.2 0
4.9932303 -3.6303487 -1.2 0
5.0053744 -3.6135869 -1.2 0
5.0174618 -3.5967846 -1.2 0
5.0294929 -3.5799417 -1.2 0
5.0414677 -3.5630589 -1.2 0
5.0533857 -3.5461357 -1.2 0
5.0652466 -3.5291727 -1.2 0
5.0770507 -3.5121701 -1.2 0
5.088798 -3.4951279 -1.2 0
5.1004877 -3.4780464 -1.2 0
5.1121206 -3.4609258 -1.2 0
5.1236954 -3.4437666 -1.2 0
5.1352129 -3.4265683 -1.2 0
5.1466727 -3.4093318 -1.2 0
5.1580749 -3.3920567 -1.2 0
5.1694188 -3.3747437 -1.2 0
5.1807046 -3.3573925 -1.2 0
5.1919322 -3.3400037 -1.2 0
5.2031012 -3.3225775 -1.2 0
5.2142119 -3.3051138 -1.2 0
5.2252641 -3.2876129 -1.2 0
5.2362576 -3.2700751 -1.2 0
5.2471919 -3.2525005 -1.2 0
5.2580676 -3.2348893 -1.2 0
5.2688842 -3.2172418 -1.2 0
5.2796412 -3.1995583 -1.2 0
5.290339 -3.1818385 -1.2 0
5.3009772 -3.1640832 -1.2 0
5.3115563 -3.1462922 -1.2 0
5.3220754 -3.1284659 -1.2 0
5.3325343 -3.1106045 -1.2 0
5.3429337 -3.0927079 -1.2 0
5.3532729 -3.0747766 -1.2 0
5.3635521 -3.0568109 -1.2 0
5.3737707 -3.0388107 -1.2 0
5.3839293 -3.0207765 -1.2 0
5.3940272 -3.0027082 -1.2 0
5.4040642 -2.984606 -1.2 0
5.4140406 -2.9664705 -1.2 0
5.4239564 -2.9483016 -1.2 0
5.4338107 -2.9300995 -1.2 0
5.4436045 -2.9118645 -1.2 0
5.4533367 -2.8935969 -1.2 0
5.4630079 -2.8752966 -1.2 0
5.4726171 -2.8569639 -1.2 0
5.4821653 -2.8385992 -1.2 0
5.491652 -2.8202026 -1.2 0
5.5010767 -2.8017743 -1.2 0
5.5104394 -2.7833145 -1.2 0
5.5197406 -2.7648234 -1.2 0
5.5289793 -2.7463012 -1.2 0
5.538156 -2.7277482 -1.2 0
5.5472708 -2.7091644 -1.2 0
5.5563231 -2.6905501 -1.2 0
5.5653124 -2.6719058 -1.2 0
5.5742397 -2.6532314 -1.2 0
5.5831041 -2.634527 -1.2 0
5.5919056 -2.6157932 -1.2 0
5.6006446 -2.5970299 -1.2 0
5.6093206 -2.5782373 -1.2 0
5.6179333 -2.5594158 -1.2 0
5.626483 -2.5405655 -1.2 0
5.1373911 -2.299017 -1.0940378 0
5.1373386 -2.2783506 -1.0923938 0
5.1372871 -2.257746 -1.0907669 0
5.1372352 -2.2372026 -1.0891572 0
5.1371837 -2.2167194 -1.0875645 0
5.1371322 -2.1962957 -1.0859885 0
5.1370811 -2.175931 -1.0844293 0
5.1370296 -2.1556244 -1.0828867 0
5.1369786 -2.1353753 -1.0813607 0
5.1369281 -2.1151829 -1.079851 0
5.1368775 -2.0950465 -1.0783577 0
5.1546736 -2.0821745 -1.080622 0
5.2045426 -2.0820491 -1.089607 0
5.255249 -2.0819213 -1.0987551 0
5.3068142 -2.0817914 -1.1080706 0
5.359262 -2.0816593 -1.1175582 0
5.4126163 -2.0815251 -1.1272224 0
5.4669023 -2.0813882 -1.1370682 0
5.776804 -2.177228 -1.2 0
5.784071 -2.1578472 -1.2 0
5.7912736 -2.138442 -1.2 0
5.7984109 -2.1190131 -1.2 0
5.8054829 -2.09956 -1.2 0
5.8124895 -2.0800836 -1.2 0
5.8194313 -2.0605838 -1.2 0
5.8263073 -2.0410607 -1.2 0
5.8331175 -2.0215147 -1.2 0
5.8398628 -2.001946 -1.2 0
5.8465419 -1.9823549 -1.2 0
5.8531556 -1.9627414 -1.2 0
5.8597035 -1.9431058 -1.2 0
5.8661852 -1.9234483 -1.2 0
5.8726015 -1.9037694 -1.2 0
5.8789511 -1.884069 -1.2 0
5.8852353 -1.8643473 -1.2 0
5.8914528 -1.8446047 -1.2 0
5.8976045 -1.8248415 -1.2 0
5.9036894 -1.8050576 -1.2 0
5.9097085 -1.7852535 -1.2 0
5.9156609 -1.7654294 -1.2 0
5.9215469 -1.7455853 -1.2 0
5.9273663 -1.7257217 -1.2 0
5.9331188 -1.7058387 -1.2 0
5.9388046 -1.6859365 -1.2 0
5.9444242 -1.6660153 -1.2 0
5.9499764 -1.6460754 -1.2 0
5.955462 -1.626117 -1.2 0
5.9608808 -1.6061404 -1.2 0
5.9662323 -1.5861456 -1.2 0
5.9715166 -1.566133 -1.2 0
5.9767342 -1.5461029 -1.2 0
5.981884 -1.5260553 -1.2 0
5.9869671 -1.5059906 -1.2 0
5.9919829 -1.485909 -1.2 0
5.9969311 -1.4658107 -1.2 0
6.001812 -1.4456958 -1.2 0
6.0066252 -1.4255648 -1.2 0
6.0113711 -1.4054177 -1.2 0
1.8910892 -0.43544194 -0.37720883 0
1.8925921 -0.42911115 -0.3772195 0
1.8940949 -0.42277995 -0.3772344 0
1.8955979 -0.41644815 -0.37725353 0
1.8971009 -0.4101156 -0.37727687 0
1.8986039 -0.40378216 -0.37730443 0
1.9001071 -0.39744771 -0.3773362 0
1.9016106 -0.39111212 -0.37737224 0
1.9031142 -0.38477519 -0.37741247 0
1.9046179 -0.37843686 -0.37745696 0
1.9061221 -0.37209693 -0.37750566 0
1.9076264 -0.36575526 -0.37755862 0
1.9091312 -0.35941172 -0.37761581 0
1.9106362 -0.35306615 -0.37767723 0
1.9121417 -0.34671846 -0.37774292 0
1.9136475 -0.34036845 -0.37781283 0
1.915154 -0.334016 -0.37788701 0
1.9166608 -0.32766098 -0.37796545 0
1.9181683 -0.32130322 -0.37804815 0
1.9196762 -0.3149426 -0.37813511 0
1.9211848 -0.30857894 -0.37822634 0
1.9226941 -0.30221212 -0.37832186 0
1.924204 -0.29584202 -0.37842166 0
1.9257145 -0.28946847 -0.37852573 0
1.9272258 -0.28309131 -0.37863412 0
1.928738 -0.27671042 -0.37874681 0
1.9302509 -0.27032563 -0.37886378 0
1.9317647 -0.26393682 -0.37898508 0
1.9332794 -0.25754383 -0.37911069 0
1.9347949 -0.25114653 -0.37924063 0
1.9363114 -0.24474472 -0.37937492 0
1.9378289 -0.23833832 -0.37951353 0
1.9393474 -0.23192714 -0.37965649 0
1.9408669 -0.22551104 -0.37980381 0
1.9423876 -0.21908988 -0.3799555 0
1.9439094 -0.2126635 -0.38011158 0
1.9454323 -0.20623177 -0.38027203 0
1.9469565 -0.19979452 -0.38043687 0
1.9484818 -0.19335158 -0.38060611 0
1.9500084 -0.18690285 -0.38077977 0
1.9515364 -0.18044813 -0.38095784 0
1.9530656 -0.1739873 -0.38114035 0
1.9545963 -0.1675202 -0.3813273 0
1.9561282 -0.16104665 -0.38151869 0
1.9576617 -0.15456653 -0.38171455 0
1.9591968 -0.14807966 -0.38191491 0
1.9607333 -0.14158592 -0.38211975 0
1.9622713 -0.13508511 -0.38232908 0
1.9638109 -0.1285771 -0.38254291 0
1.9653522 -0.12206172 -0.38276127 0
1.9668951 -0.11553882 -0.38298416 0
1.9684397 -0.10900825 -0.38321161 0
1.9699861 -0.10246982 -0.38344359 0
1.9715343 -0.095923409 -0.38368019 0
1.9730842 -0.08936882 -0.38392136 0
1.9746361 -0.082805917 -0.38416713 0
1.9761899 -0.076234527 -0.3844175 0
1.9777454 -0.069654487 -0.38467255 0
1.9793031 -0.063065626 -0.38493222 0
1.9808627 -0.056467794 -0.38519654 0
1.9824244 -0.049860813 -0.38546553 0
1.9839882 -0.043244522 -0.38573924 0
1.9855541 -0.036618754 -0.38601765 0
1.9871221 -0.029983336 -0.3863008 0
1.9886924 -0.0233381 -0.38658866 0
1.9902649 -0.016682878 -0.38688132 0
1.9918396 -0.010017497 -0.38717872 0
1.9934168 -0.0033417845 -0.38748094 0
1.9949963 0.0033444325 -0.38778797 0
1.9965782 0.010041328 -0.38809982 0
1.9981625 0.016749078 -0.3884165 0
1.9997494 0.023467859 -0.3887381 0
2.0013387 0.030197848 -0.38906455 0
2.0029306 0.036939222 -0.38939592 0
2.0045252 0.043692168 -0.38973221 0
2.0061226 0.050456855 -0.39007345 0
2.0077224 0.057233475 -0.39041966 0
2.009325 0.064022206 -0.39077085 0
2.0109305 0.070823237 -0.39112705 0
2.0125389 0.077636749 -0.39148831 0
2.0141501 0.084462926 -0.39185461 0
2.015764 0.091301963 -0.39222598 0
2.0173812 0.098154046 -0.39260244 0
2.0190012 0.10501937 -0.39298403 0
2.0206244 0.11189812 -0.39337078 0
2.0222507 0.1187905 -0.39376268 0
2.02388 0.12569669 -0.39415979 0
2.0255125 0.13261689 -0.39456213 0
2.0271482 0.13955131 -0.39496967 0
2.0287874 0.14650014 -0.39538252 0
2.0304296 0.15346359 -0.39580065 0
2.0320754 0.16044183 -0.39622411 0
2.0337245 0.16743509 -0.39665291 0
2.0353773 0.17444359 -0.39708707 0
2.0370336 0.1814675 -0.39752665 0
2.0386932 0.18850707 -0.39797166 0
2.0403566 0.19556247 -0.39842212 0
2.0420237 0.20263392 -0.39887807 0
2.0436945 0.20972165 -0.39933953 0
2.0453689 0.21682586 -0.39980653 0
2.0470474 0.22394678 -0.40027913 0
2.0487294 0.23108461 -0.40075731 0
2.0504155 0.2382396 -0.40124115 0
2.0521057 0.24541193 -0.40173063 0
6.1273041 0.7536121 -1.2 0
6.1247425 0.77415156 -1.2 0
6.1221128 0.79468226 -1.2 0
6.1194139 0.81520408 -1.2 0
6.1166463 0.83571678 -1.2 0
6.1138101 0.85622001 -1.2 0
6.1109047 0.87671369 -1.2 0
6.1079311 0.89719743 -1.2 0
6.1048884 0.91767114 -1.2 0
6.1017776 0.93813455 -1.2 0
6.0985975 0.95858735 -1.2 0
6.0953493 0.97902942 -1.2 0
6.0920329 0.99946046 -1.2 0
6.0886474 1.0198803 -1.2 0
6.0851936 1.0402887 -1.2 0
6.0816717 1.0606853 -1.2 0
6.0780811 1.0810701 -1.2 0
6.0744224 1.1014426 -1.2 0
6.0706954 1.1218028 -1.2 0
6.0669003 1.1421504 -1.2 0
6.0630364 1.1624851 -1.2 0
6.0591049 1.1828068 -1.2 0
6.0551052 1.2031152 -1.2 0
6.0510373 1.2234101 -1.2 0
6.0469012 1.2436912 -1.2 0
6.0426974 1.2639583 -1.2 0
6.0384259 1.2842113 -1.2 0
6.0340862 1.3044498 -1.2 0
6.0296783 1.3246735 -1.2 0
6.0252032 1.3448825 -1.2 0
6.0206604 1.3650763 -1.2 0
6.0160494 1.3852547 -1.2 0
6.0113711 1.4054177 -1.2 0
6.0066252 1.4255648 -1.2 0
6.001812 1.4456958 -1.2 0
5.9969311 1.4658107 -1.2 0
5.9919829 1.485909 -1.2 0
5.9869671 1.5059906 -1.2 0
5.981884 1.5260553 -1.2 0
5.9767342 1.5461029 -1.2 0
5.9715166 1.566133 -1.2 0
5.9662323 1.5861456 -1.2 0
5.9608808 1.6061404 -1.2 0
5.955462 1.626117 -1.2 0
5.9499764 1.6460754 -1.2 0
5.9444242 1.6660153 -1.2 0
5.9388046 1.6859365 -1.2 0
5.9331188 1.7058387 -1.2 0
5.9273663 1.7257217 -1.2 0
5.9215469 1.7455853 -1.2 0
5.9156609 1.7654294 -1.2 0
5.9097085 1.7852535 -1.2 0
5.9036894 1.8050576 -1.2 0
5.8976045 1.8248415 -1.2 0
5.8914528 1.8446047 -1.2 0
5.8852353 1.8643473 -1.2 0
5.8789511 1.884069 -1.2 0
5.8726015 1.9037694 -1.2 0
5.8661852 1.9234483 -1.2 0
5.8597035 1.9431058 -1.2 0
5.8531556 1.9627414 -1.2 0
5.8465419 1.9823549 -1.2 0
4.7462292 1.6270407 -0.97527552 0
4.6947174 1.6269928 -0.96580619 0
4.644196 1.6269459 -0.95652962 0
4.5946355 1.6268997 -0.94744009 0
4.5460072 1.6268545 -0.93853217 0
4.4982843 1.6268101 -0.92980051 0
4.4514408 1.6267666 -0.92124015 0
4.4481769 1.6425004 -0.92169923 0
4.4481611 1.6594629 -0.92284369 0
4.4481454 1.6764679 -0.92400134 0
4.4481297 1.6935158 -0.92517233 0
4.4481134 1.7106071 -0.92635673 0
4.4480977 1.7277424 -0.92755461 0
4.448082 1.7449223 -0.92876601 0
4.4480658 1.7621473 -0.92999113 0
4.4480495 1.7794181 -0.93122989 0
4.4480338 1.796735 -0.93248248 0
4.4480176 1.8140988 -0.93374896 0
4.4480014 1.8315102 -0.93502939 0
5.7005725 2.3696537 -1.2 0
5.6925955 2.3887532 -1.2 0
5.6845541 2.4078259 -1.2 0
5.6764493 2.4268718 -1.2 0
5.6682806 2.4458902 -1.2 0
5.660048 2.4648812 -1.2 0
5.651752 2.4838443 -1.2 0
5.6433926 2.5027797 -1.2 0
5.6349692 2.5216868 -1.2 0
5.626483 2.5405655 -1.2 0
5.6179333 2.5594158 -1.2 0
5.6093206 2.5782373 -1.2 0
5.6006446 2.5970299 -1.2 0
5.5919056 2.6157932 -1.2 0
5.5831041 2.634527 -1.2 0
5.5742397 2.6532314 -1.2 0
5.5653124 2.6719058 -1.2 0
5.5563231 2.6905501 -1.2 0
5.5472708 2.7091644 -1.2 0
5.538156 2.7277482 -1.2 0
5.5289793 2.7463012 -1.2 0
5.5197406 2.7648234 -1.2 0
5.5104394 2.7833145 -1.2 0
5.5010767 2.8017743 -1.2 0
5.491652 2.8202026 -1.2 0
5.4821653 2.8385992 -1.2 0
5.4726171 2.8569639 -1.2 0
5.4630079 2.8752966 -1.2 0
5.4533367 2.8935969 -1.2 0
5.4436045 2.9118645 -1.2 0
5.4338107 2.9300995 -1.2 0
5.4239564 2.9483016 -1.2 0
5.4140406 2.9664705 -1.2 0
5.4040642 2.984606 -1.2 0
5.3940272 3.0027082 -1.2 0
5.3839293 3.0207765 -1.2 0
5.3737707 3.0388107 -1.2 0
5.3635521 3.0568109 -1.2 0
5.3532729 3.0747766 -1.2 0
5.3429337 3.0927079 -1.2 0
5.3325343 3.1106045 -1.2 0
5.3220754 3.1284659 -1.2 0
5.3115563 3.1462922 -1.2 0
5.3009772 3.1640832 -1.2 0
5.290339 3.1818385 -1.2 0
5.2796412 3.1995583 -1.2 0
5.2688842 3.2172418 -1.2 0
5.2580676 3.2348893 -1.2 0
5.2471919 3.2525005 -1.2 0
5.2362576 3.2700751 -1.2 0
5.2252641 3.2876129 -1.2 0
5.2142119 3.3051138 -1.2 0
5.2031012 3.3225775 -1.2 0
5.1919322 3.3400037 -1.2 0
5.1807046 3.3573925 -1.2 0
5.1694188 3.3747437 -1.2 0
5.1580749 3.3920567 -1.2 0
5.1466727 3.4093318 -1.2 0
5.1352129 3.4265683 -1.2 0
5.1236954 3.4437666 -1.2 0
5.1121206 3.4609258 -1.2 0
5.1004877 3.4780464 -1.2 0
5.088798 3.4951279 -1.2 0
5.0770507 3.5121701 -1.2 0
5.0652466 3.5291727 -1.2 0
5.0533857 3.5461357 -1.2 0
5.0414677 3.5630589 -1.2 0
5.0294929 3.5799417 -1.2 0
5.0174618 3.5967846 -1.2 0
5.0053744 3.6135869 -1.2 0
4.9932303 3.6303487 -1.2 0
4.9810305 3.6470697 -1.2 0
4.9687748 3.6637497 -1.2 0
4.9564629 3.6803885 -1.2 0
4.9440956 3.696986 -1.2 0
4.9316721 3.7135417 -1.2 0
4.9191937 3.7300558 -1.2 0
4.9066601 3.7465279 -1.2 0
4.8940711 3.762958 -1.2 0
4.8814268 3.7793458 -1.2 0
4.8687282 3.795691 -1.2 0
4.8559747 3.8119936 -1.2 0
4.8431664 3.8282533 -1.2 0
4.8303037 3.84447 -1.2 0
4.8173866 3.8606436 -1.2 0
4.8044157 3.8767736 -1.2 0
4.7913904 3.8928602 -1.2 0
4.7783117 3.9089029 -1.2 0
4.7651792 3.9249017 -1.2 0
4.7519927 3.9408565 -1.2 0
4.7387528 3.9567668 -1.2 0
4.7254601 3.9726326 -1.2 0
4.7121139 3.9884539 -1.2 0
4.6987152 4.0042305 -1.2 0
4.6852632 4.0199618 -1.2 0
4.6717587 4.0356479 -1.2 0
4.6582017 4.0512886 -1.2 0
4.6445923 4.066884 -1.2 0
4.6309309 4.0824337 -1.2 0
4.6172171 4.0979371 -1.2 0
4.6034513 4.1133947 -1.2 0
4.5896339 4.1288061 -1.2 0
4.5757651 4.1441712 -1.2 0
4.5618448 4.1594896 -1.2 0
4.5478735 4.1747613 -1.2 0
4.5338507 4.1899862 -1.2 0
4.5197768 4.2051635 -1.2 0
4.5056524 4.220294 -1.2 0
4.491477 4.2353768 -1.2 0
4.4772515 4.250412 -1.2 0
4.4629755 4.2653995 -1.2 0
4.4486494 4.2803392 -1.2 0
4.4342732 4.2952304 -1.2 0
4.419847 4.3100739 -1.2 0
4.4053712 4.3248682 -1.2 0
4.3908463 4.3396144 -1.2 0
4.3762717 4.3543119 -1.2 0
4.3616476 4.3689599 -1.2 0
4.3469748 4.3835592 -1.2 0
4.3322535 4.3981094 -1.2 0
4.3174829 4.4126096 -1.2 0
4.3026638 4.4270606 -1.2 0
4.287797 4.4414616 -1.2 0
4.272881 4.4558129 -1.2 0
4.2579179 4.4701142 -1.2 0
4.2429066 4.484365 -1.2 0
4.2278471 4.4985652 -1.2 0
4.2127409 4.5127153 -1.2 0
4.1975865 4.5268145 -1.2 0
4.1823854 4.5408626 -1.2 0
4.1671376 4.5548601 -1.2 0
4.1518426 4.5688062 -1.2 0
4.1365008 4.5827007 -1.2 0
4.1211123 4.5965438 -1.2 0
4.1056781 4.6103354 -1.2 0
4.0901976 4.6240749 -1.2 0
4.0746708 4.6377625 -1.2 0
4.0590982 4.6513982 -1.2 0
4.0434804 4.6649814 -1.2 0
4.0278168 4.6785121 -1.2 0
4.0121078 4.6919904 -1.2 0
3.9963539 4.7054157 -1.2 0
3.9805551 4.7187886 -1.2 0
3.9647117 4.7321081 -1.2 0
3.9488235 4.7453742 -1.2 0
3.9328909 4.7585874 -1.2 0
3.9169142 4.7717466 -1.2 0
3.9008934 4.7848525 -1.2 0
3.8848288 4.7979045 -1.2 0
3.8687203 4.8109031 -1.2 0
3.8525686 4.8238468 -1.2 0
3.8363736 4.8367367 -1.2 0
3.8201354 4.8495722 -1.2 0
3.803854 4.8623533 -1.2 0
3.7875302 4.8750792 -1.2 0
3.7711637 4.8877506 -1.2 0
3.7547548 4.9003673 -1.2 0
3.7383037 4.9129286 -1.2 0
3.7218106 4.9254351 -1.2 0
3.7052755 4.9378858 -1.2 0
3.688699 4.9502811 -1.2 0
3.6720808 4.9626207 -1.2 0
3.6554215 4.974905 -1.2 0
3.638721 4.9871325 -1.2 0
3.6219797 4.9993048 -1.2 0
3.6051974 5.0114202 -1.2 0
3.5883749 5.0234799 -1.2 0
3.571512 5.0354829 -1.2 0
3.5546088 5.0474291 -1.2 0
3.5376658 5.0593185 -1.2 0
3.5206831 5.0711513 -1.2 0
3.5036607 5.0829268 -1.2 0
3.4865987 5.0946455 -1.2 0
3.4694979 5.1063066 -1.2 0
3.4523578 5.1179104 -1.2 0
3.435179 5.129457 -1.2 0
3.4179616 5.1409454 -1.2 0
3.4007058 5.1523767 -1.2 0
3.3834116 5.1637497 -1.2 0
3.3660796 5.1750646 -1.2 0
3.3487098 5.1863213 -1.2 0
3.3313022 5.1975198 -1.2 0
3.3138571 5.2086596 -1.2 0
3.2963748 5.2197409 -1.2 0
3.2788556 5.2307639 -1.2 0
3.2612994 5.2417278 -1.2 0
3.2437065 5.2526331 -1.2 0
3.2260771 5.2634788 -1.2 0
3.2084115 5.2742658 -1.2 0
3.1907098 5.2849932 -1.2 0
3.1729724 5.2956614 -1.2 0
3.1551993 5.3062701 -1.2 0
3.1373906 5.3168192 -1.2 0
3.1195467 5.3273082 -1.2 0
3.1016676 5.3377376 -1.2 0
3.0837538 5.3481069 -1.2 0
3.0658052 5.3584161 -1.2 0
3.0478222 5.3686647 -1.2 0
3.0298049 5.3788533 -1.2 0
3.0117538 5.3889818 -1.2 0
2.9936686 5.3990493 -1.2 0
2.9755497 5.4090562 -1.2 0
2.9573975 5.4190021 -1.2 0
2.9392118 5.4288874 -1.2 0
2.9209933 5.4387112 -1.2 0
2.9027419 5.4484744 -1.2 0
2.8844581 5.4581761 -1.2 0
2.8661416 5.4678164 -1.2 0
2.8477929 5.4773955 -1.2 0
2.8294122 5.4869127 -1.2 0
2.8109996 5.4963684 -1.2 0
2.7925556 5.5057621 -1.2 0
2.77408 5.5150943 -1.2 0
2.7555735 5.524364 -1.2 0
2.7370358 5.5335717 -1.2 0
2.7184675 5.5427175 -1.2 0
2.6998684 5.5518007 -1.2 0
2.6812391 5.560822 -1.2 0
2.6625798 5.5697803 -1.2 0
2.6438904 5.5786762 -1.2 0
2.6251712 5.5875092 -1.2 0
2.6064227 5.5962796 -1.2 0
2.5876446 5.6049871 -1.2 0
2.5688376 5.6136312 -1.2 0
2.5500019 5.6222124 -1.2 0
2.5311372 5.6307306 -1.2 0
2.5122442 5.6391854 -1.2 0
2.4933228 5.6475768 -1.2 0
2.4743736 5.6559048 -1.2 0
2.4553967 5.6641688 -1.2 0
2.4363918 5.6723695 -1.2 0
2.4173598 5.6805067 -1.2 0
2.3983006 5.6885796 -1.2 0
2.3792143 5.6965885 -1.2 0
2.3601015 5.7045336 -1.2 0
2.3409619 5.7124147 -1.2 0
2.3217962 5.7202315 -1.2 0
2.3026042 5.727984 -1.2 0
2.2833865 5.7356715 -1.2 0
2.264143 5.7432952 -1.2 0
2.244874 5.750854 -1.2 0
2.22558 5.7583485 -1.2 0
2.2062607 5.7657781 -1.2 0
2.1869168 5.7731428 -1.2 0
2.1675482 5.7804427 -1.2 0
2.1481552 5.7876778 -1.2 0
2.1287382 5.7948475 -1.2 0
2.1092973 5.8019524 -1.2 0
2.0898325 5.8089914 -1.2 0
2.0703442 5.8159657 -1.2 0
2.0508327 5.8228745 -1.2 0
2.0312984 5.8297181 -1.2 0
2.0117409 5.8364959 -1.2 0
1.992161 5.8432078 -1.2 0
1.9725586 5.8498545 -1.2 0
1.952934 5.8564353 -1.2 0
1.9332876 5.8629498 -1.2 0
1.9136194 5.8693991 -1.2 0
1.8939296 5.875782 -1.2 0
1.8742186 5.8820992 -1.2 0
1.8544865 5.88835 -1.2 0
1.8347335 5.8945346 -1.2 0
1.81496 5.9006529 -1.2 0
1.795166 5.9067049 -1.2 0
1.7753518 5.9126906 -1.2 0
1.7555177 5.9186096 -1.2 0
1.7356639 5.9244623 -1.2 0
1.7157905 5.9302483 -1.2 0
1.6958978 5.9359679 -1.2 0
1.6759862 5.9416203 -1.2 0
1.6560556 5.9472065 -1.2 0
1.6361064 5.9527254 -1.2 0
1.6161388 5.9581776 -1.2 0
1.5961531 5.9635625 -1.2 0
1.5761495 5.9688807 -1.2 0
1.556128 5.9741316 -1.2 0
1.5360892 5.9793153 -1.2 0
1.5160331 5.9844322 -1.2 0
1.4959599 5.9894814 -1.2 0
1.4758698 5.9944634 -1.2 0
1.4557632 5.9993782 -1.2 0
1.4356402 6.0042253 -1.2 0
1.4155011 6.0090051 -1.2 0
1.3953462 6.0137172 -1.2 0
1.3751755 6.0183616 -1.2 0
1.3549893 6.0229383 -1.2 0
1.3347878 6.0274477 -1.2 0
1.3145715 6.031889 -1.2 0
1.2943404 6.0362625 -1.2 0
1.2740946 6.0405684 -1.2 0
1.2538346 6.0448065 -1.2 0
1.2335604 6.0489759 -1.2 0
1.2132725 6.0530782 -1.2 0
1.1929708 6.0571117 -1.2 0
1.1726557 6.0610776 -1.2 0
1.1523274 6.0649753 -1.2 0
1.1319863 6.0688047 -1.2 0
1.1116323 6.072566 -1.2 0
1.0912659 6.0762591 -1.2 0
1.0708872 6.0798836 -1.2 0
1.0504966 6.0834398 -1.2 0
1.030094 6.0869279 -1.2 0
1.0096799 6.0903473 -1.2 0
0.98925442 6.0936985 -1.2 0
0.96881783 6.096981 -1.2 0
0.9483704 6.1001949 -1.2 0
0.92791224 6.1033401 -1.2 0
0.9074437 6.1064172 -1.2 0
0.88696492 6.1094251 -1.2 0
0.86647618 6.1123648 -1.2 0
0.84597772 6.1152353 -1.2 0
0.82546973 6.1180377 -1.2 0
0.80495244 6.1207709 -1.2 0
0.78442615 6.123435 -1.2 0
0.76389098 6.1260309 -1.2 0
0.74334729 6.1285577 -1.2 0
0.72279519 6.1310153 -1.2 0
0.70223504 6.1334043 -1.2 0
0.68166691 6.1357245 -1.2 0
0.66109115 6.1379752 -1.2 0
0.640508 6.1401572 -1.2 0
0.61991757 6.1422706 -1.2 0
0.59932023 6.1443143 -1.2 0
0.57871616 6.1462893 -1.2 0
0.55810553 6.1481948 -1.2 0
0.53748864 6.1500316 -1.2 0
0.51686573 6.1517992 -1.2 0
0.49623701 6.1534977 -1.2 0
0.47560272 6.1551266 -1.2 0
0.45496306 6.1566868 -1.2 0
0.4343183 6.1581774 -1.2 0
0.41366866 6.1595993 -1.2 0
0.39301434 6.1609516 -1.2 0
0.37235564 6.1622348 -1.2 0
0.35169274 6.1634483 -1.2 0
0.33102587 6.1645927 -1.2 0
0.31035531 6.165668 -1.2 0
0.28968123 6.1666741 -1.2 0
0.2690039 6.1676106 -1.2 0
0.24832356 6.168478 -1.2 0
0.22764044 6.1692758 -1.2 0
0.20695473 6.1700044 -1.2 0
0.18626671 6.1706634 -1.2 0
0.16557659 6.1712532 -1.2 0
0.14488462 6.1717739 -1.2 0
0.12419101 6.172225 -1.2 0
0.10349601 6.1726065 -1.2 0
0.082799837 6.1729188 -1.2 0
0.062102739 6.173162 -1.2 0
0.041404944 6.1733356 -1.2 0
0.020706685 6.1734395 -1.2 0
8.1909338e-06 6.1734743 -1.2 0
-0.020690303 6.1734395 -1.2 0
-0.041388564 6.1733356 -1.2 0
-0.062086359 6.173162 -1.2 0
-0.082783461 6.1729193 -1.2 0
-0.10347962 6.1726069 -1.2 0
-0.12417462 6.172225 -1.2 0
-0.14486824 6.1717744 -1.2 0
-0.16556022 6.1712537 -1.2 0
-0.18625033 6.1706638 -1.2 0
-0.20693836 6.1700048 -1.2 0
-0.22762406 6.1692762 -1.2 0
-0.2483072 6.1684785 -1.2 0
-0.26898754 6.1676111 -1.2 0
-0.28966486 6.1666746 -1.2 0
-0.31033894 6.165669 -1.2 0
-0.33100951 6.1645937 -1.2 0
-0.35167637 6.1634493 -1.2 0
-0.37233928 6.1622357 -1.2 0
-0.39299801 6.1609526 -1.2 0
-0.4136523 6.1596003 -1.2 0
-0.43430194 6.1581788 -1.2 0
-0.45494673 6.1566882 -1.2 0
-0.47558638 6.155128 -1.2 0
-0.49622068 6.1534991 -1.2 0
-0.5168494 6.1518006 -1.2 0
-0.53747237 6.150033 -1.2 0
-0.5580892 6.1481967 -1.2 0
-0.57869983 6.1462908 -1.2 0
-0.5993039 6.1443157 -1.2 0
-0.6199013 6.142272 -1.2 0
-0.64049166 6.1401591 -1.2 0
-0.66107488 6.1379771 -1.2 0
-0.68165064 6.135726 -1.2 0
-0.70221871 6.1334062 -1.2 0
-0.72277898 6.1310172 -1.2 0
-0.74333102 6.1285596 -1.2 0
-0.76387477 6.1260328 -1.2 0
-0.78440988 6.1234374 -1.2 0
-0.80493623 6.1207728 -1.2 0
-0.82545346 6.1180396 -1.2 0
-0.84596145 6.1152377 -1.2 0
-0.86645997 6.1123672 -1.2 0
-0.8869487 6.1094275 -1.2 0
-0.90742749 6.1064196 -1.2 0
-0.92789602 6.1033425 -1.2 0
-0.94835418 6.1001973 -1.2 0
-0.96880168 6.0969834 -1.2 0
-0.98923826 6.0937009 -1.2 0
-1.0096637 6.0903502 -1.2 0
-1.0300778 6.0869308 -1.2 0
-1.0504804 6.0834427 -1.2 0
-1.0708711 6.0798864 -1.2 0
-1.0912498 6.076262 -1.2 0
-1.1116163 6.0725689 -1.2 0
-1.1319702 6.0688076 -1.2 0
-1.1523113 6.0649781 -1.2 0
-1.1726396 6.0610809 -1.2 0
-1.1929547 6.0571151 -1.2 0
-1.2132564 6.053081 -1.2 0
-1.2335443 6.0489793 -1.2 0
-1.2538185 6.0448093 -1.2 0
-1.2740786 6.0405717 -1.2 0
-1.2943243 6.0362659 -1.2 0
-1.3145555 6.0318923 -1.2 0
-1.3347719 6.027451 -1.2 0
-1.3549733 6.0229421 -1.2 0
-1.3751595 6.0183654 -1.2 0
-1.3953302 6.0137205 -1.2 0
-1.4154853 6.0090089 -1.2 0
-1.4356244 6.0042291 -1.2 0
-1.4557474 5.999382 -1.2 0
-1.4758539 5.9944673 -1.2 0
-1.4959439 5.9894853 -1.2 0
-1.5160172 5.984436 -1.2 0
-1.5360733 5.9793196 -1.2 0
-1.5561122 5.9741359 -1.2 0
-1.5761336 5.9688849 -1.2 0
-1.5961373 5.9635668 -1.2 0
-1.6161231 5.9581819 -1.2 0
-1.6360906 5.9527297 -1.2 0
-1.6560398 5.9472108 -1.2 0
-1.6759703 5.9416251 -1.2 0
-1.6958821 5.9359722 -1.2 0
-1.7157748 5.930253 -1.2 0
-1.7356482 5.9244671 -1.2 0
-1.755502 5.9186144 -1.2 0
-1.7753361 5.9126954 -1.2 0
-1.7951503 5.9067097 -1.2 0
-1.8149443 5.9006577 -1.2 0
-1.8347179 5.8945394 -1.2 0
-1.8544708 5.8883548 -1.2 0
-1.874203 5.8821039 -1.2 0
-1.893914 5.8757873 -1.2 0
