# .PCD v0.7 - Point Cloud Data file format
VERSION 0.7
FIELDS x y z intensity
SIZE 4 4 4 4
TYPE F F F F
COUNT 1 1 1 1
WIDTH 1428
HEIGHT 1
VIEWPOINT 0 0 0 1 0 0 0
POINTS 1428
DATA ascii
2.8640606 2.5580697 -0.74644482 7
3.1680562 2.8285933 -0.67266828 1
4.8206301 4.3025789 0.79336947 1
3.5208676 3.141392 -0.57936692 2
3.9200776 3.4951186 -0.45948508 1
4.5311418 4.0385208 -0.31809795 1
4.6679978 4.1575718 -0.10911245 2
2.4150548 2.1449413 -0.86549091 9
4.6461101 4.1250086 0.10844925 2
2.6132798 2.3193626 -0.80667448 7
4.6090169 4.0892043 0.32291287 1
2.887213 2.5615883 -0.75026101 6
3.171999 2.8122745 -0.67141682 1
4.835619 4.2857265 0.79336947 1
3.5303266 3.1277654 -0.5791232 2
3.9763927 3.5217283 -0.46471441 1
4.5033345 3.9856157 -0.31516716 1
2.4283235 2.141609 -0.86756152 9
2.6213593 2.3102269 -0.80667448 7
4.6262612 4.0757298 0.32312223 1
2.8961377 2.5514934 -0.75026101 6
4.5648546 4.020216 0.53217298 1
3.1817956 2.8011858 -0.67141682 1
4.8743935 4.2898035 0.79726928 1
3.5307908 3.1062438 -0.57741702 2
3.9826763 3.5025644 -0.46401718 1
4.5727296 4.0186534 -0.31904003 1
2.437237 2.1343925 -0.86807907 9
2.6411402 2.3113286 -0.81027371 7
2.8872957 2.525856 -0.74568158 6
3.2004786 2.7978623 -0.67329407 1
4.9102659 4.291049 0.80068165 1
3.5446002 3.0965147 -0.57790446 2
3.9828734 3.4781556 -0.46262267 1
10.654616 9.3011646 2.7491763 2
4.5566301 3.9764056 -0.31694657 1
2.4373844 2.1195328 -0.86549091 9
2.6609583 2.3123231 -0.81387293 7
2.9049871 2.5234876 -0.7479713 6
3.1982894 2.7763162 -0.67079103 1
4.9551997 4.2999043 0.80555642 1
3.5838795 3.1088364 -0.58253551 2
3.9980018 3.4668412 -0.4629713 1
4.6278415 4.0101771 -0.32092413 1
2.4433064 2.1097488 -0.86497331 9
2.6690142 2.3030198 -0.81387293 7
2.9197252 2.5184603 -0.74949777 5
3.2109542 2.7677135 -0.67141682 1
5.0152955 4.3214536 0.8128686 1
3.5751557 3.0794661 -0.57936692 2
5.0027266 4.3075862 1.0456082 50
3.9979985 3.4424675 -0.46157682 1
4.9608712 4.2700353 1.2723144 2
4.5842795 3.9444976 -0.31694657 1
2.4565208 2.1062388 -0.86704385 9
2.6681585 2.2860806 -0.8111735 7
2.9344611 2.5133636 -0.75102425 6
3.2205966 2.7564874 -0.67141682 1
5.0212965 4.2961812 0.8114062 1
3.603987 3.0824504 -0.58229178 2
4.0190768 3.4362578 -0.46262267 1
4.9682813 4.2463183 1.2704064 100
4.5980215 3.9284704 -0.31694657 1
4.9567332 4.2334514 1.5049226 18
4.7449155 4.0511136 -0.10890301 2
4.9225879 4.2013173 1.7340877 4
2.4697423 2.1026597 -0.8691144 9
4.7649817 4.0553155 0.10921716 2
2.6776061 2.2780166 -0.81162345 7
4.7484164 4.0383639 0.32668105 1
2.9491994 2.5081921 -0.75255072 6
3.2271879 2.7426713 -0.67079103 1
5.0544176 4.2940488 0.814331 1
3.6056473 3.0621402 -0.58082932 2
5.0176187 4.2597713 1.0424794 5
4.0614238 3.4479976 -0.46610889 1
4.9725966 4.2200565 1.2677351 12
4.6117072 3.912395 -0.31694657 1
4.9595895 4.2060404 1.5013233 14
4.9224868 4.171618 1.7289113 16
2.4770665 2.0940266 -0.8691144 9
4.8310361 4.0825462 0.11040393 2
2.6989398 2.2799735 -0.81567252 7
4.707551 3.975373 0.32291287 1
2.9519372 2.4928145 -0.75102425 6
4.6541352 3.9288776 0.53287023 1
3.2276843 2.7237444 -0.66891384 1
10.128132 8.5437956 1.6269559 2
3.6102424 3.0444193 -0.57985443 2
5.1185474 4.3148003 1.060313 2
4.0825758 3.4415033 -0.46715477 1
5.0173235 4.2279735 1.2753674 2
4.6253352 3.8962746 -0.31694657 1
4.9340606 4.1519227 1.7278759 4
2.4828818 2.0841243 -0.86859673 9
2.7053883 2.2692869 -0.81522262 7
2.954603 2.4774501 -0.74949777 5
3.2583697 2.7302237 -0.67329407 1
9.9478865 8.332489 1.5933199 2
3.6208479 3.0317979 -0.57985443 2
4.076231 3.4118848 -0.46506307 1
9.9556904 8.3301601 2.5232584 2
4.6940589 3.9262369 -0.32071477 1
4.9566951 4.1429729 1.7309818 2
2.482722 2.0692599 -0.86600858 9
2.7248759 2.2702825 -0.81882185 6
2.9753036 2.4771702 -0.75255072 5
3.2643685 2.7168767 -0.67266828 1
9.8900108 8.2283545 1.5796705 2
3.6354613 3.023581 -0.5805856 2
4.0973091 3.405277 -0.46610889 1
9.8111372 8.1540442 2.4797537 2
4.7101269 3.9132009 -0.32092413 1
9.8114357 8.1427193 3.4164116 4
2.5014746 2.0708714 -0.87014967 7
2.7117634 2.243366 -0.81252325 6
2.9804757 2.4647884 -0.75178748 5
3.282969 2.7130151 -0.67454553 1
9.796236 8.0926409 1.5601715 2
3.6505847 3.0146651 -0.58131683 2
4.1300888 3.4094293 -0.46854928 1
9.7123432 8.0147858 2.4476981 2
4.7237568 3.8967364 -0.32092413 1
9.7086 8.0003109 3.3708594 1
2.5116725 2.0645812 -0.87118495 7
2.7150607 2.2301753 -0.8111735 6
2.9920952 2.4568617 -0.75255072 6
3.2847841 2.6952724 -0.67298114 2
9.6709414 7.9325056 1.5357976 2
3.658016 2.9993854 -0.58082932 2
4.1419659 3.3949907 -0.46854928 1
9.5883989 7.8564072 2.4095361 1
4.7373314 3.8802226 -0.32092413 1
4.8775444 3.9922273 -0.11001997 2
9.5929346 7.8489299 3.321166 3
2.5233545 2.0594649 -0.87273788 9
4.8481722 3.9554861 0.10921716 2
2.7243385 2.2219167 -0.81162345 6
2.9854376 2.4339962 -0.74873453 5
3.2926407 2.682543 -0.67266828 2
9.5754366 7.7984118 1.5162985 2
3.6623054 2.9815862 -0.57985443 2
4.1568809 3.3830278 -0.46889788 1
9.5183001 7.7435937 2.3851125 1
4.7694407 3.8787851 -0.32218018 1
9.4853249 7.7057686 3.2745786 3
2.5200212 2.0421309 -0.8691144 7
2.744194 2.2222035 -0.81522262 6
4.8201427 3.9018843 0.32500634 1
3.0091743 2.4359133 -0.75255072 5
4.7626047 3.8539319 0.53600776 1
3.3050568 2.673517 -0.67329407 3
3.6773217 2.9725287 -0.5805856 2
4.162467 3.363487 -0.46820062 1
9.4230938 7.6116257 2.354583 1
4.7611947 3.8445475 -0.32071477 1
9.3858547 7.5707321 3.231097 3
2.5331554 2.0381653 -0.87118495 7
2.7671199 2.224824 -0.8197217 6
3.0191898 2.4266233 -0.75293231 3
4.8319445 3.8822069 0.542283 1
3.3251483 2.6706252 -0.67548412 3
4.9146647 3.9458461 0.77387041 3
3.7108982 2.9783108 -0.58424169 2
4.8858161 3.9198844 0.99210751 2
4.1866121 3.3589141 -0.46959516 1
4.7777038 3.8304021 -0.32092413 1
9.2946129 7.443727 3.1907215 3
2.5462921 2.0341327 -0.87325549 7
2.762686 2.2054241 -0.81612247 7
3.026108 2.4148445 -0.75255072 5
3.3220952 2.6491482 -0.67298114 2
4.8989162 3.9051552 0.76923937 3
3.7026415 2.950495 -0.58131683 2
4.8979249 3.9015737 0.99179459 4
4.2014294 3.3467612 -0.46994376 1
4.8516521 3.8633261 1.2055314 3
4.7910447 3.8137026 -0.32092413 1
2.5533757 2.025234 -0.87325549 9
2.7657864 2.1921351 -0.81477273 6
3.039134 2.4079263 -0.75369561 3
6.8862171 5.4540353 0.76853937 1
3.3359687 2.6412134 -0.67391974 3
4.9374204 3.9077456 0.77313918 3
3.7222593 2.9449408 -0.58277923 2
4.9046412 3.8804061 0.99054313 4
4.2099614 3.3296022 -0.46959516 1
4.8389244 3.8256719 1.1990438 3
4.8388019 3.8241987 -0.3232269 1
4.8044286 3.7943134 1.6403952 3
2.5634658 2.0186987 -0.87429082 7
2.7745702 2.1841586 -0.81522262 6
3.0506074 2.39973 -0.75445884 5
3.3540268 2.6374617 -0.67579699 3
5.2921338 4.1600151 0.826518 1
3.7429302 2.9411681 -0.58448541 2
5.1434045 4.040195 1.0359092 2
4.2372284 3.3271923 -0.47133827 1
4.8932762 3.84234 1.2093475 3
4.8168926 3.7810028 -0.32092413 1
4.8477015 3.8038149 1.4225905 1
4.9782839 3.9048789 -0.11043882 2
4.8237262 3.7822866 1.6424657 3
2.5594947 2.0018547 -0.87066728 9
4.9828362 3.8958228 0.11040393 2
2.785249 2.1768594 -0.81612247 6
3.0539079 2.3859737 -0.75331396 5
3.3709962 2.6318185 -0.67736137 3
5.3066235 4.1415153 0.826518 1
3.7422171 2.919538 -0.58277923 2
5.2914333 4.1266932 1.0628159 2
4.2105312 3.2837172 -0.46715477 1
5.2627759 4.1028628 1.2971196 44
4.8647203 3.7911732 -0.3232269 1
5.1514964 4.0132232 1.5076219 10
4.8567176 3.7808514 1.649195 3
2.5740955 1.9988331 -0.87325549 7
2.8066878 2.1778753 -0.82017154 6
4.9253879 3.8205233 0.32668105 1
3.0606658 2.3740962 -0.75293231 5
4.8668089 3.7737246 0.53879678 1
3.3661118 2.609143 -0.67454553 3
5.3179083 4.1205354 0.82603049 1
3.7539558 2.9076722 -0.58302301 2
4.2314205 3.2763169 -0.46820062 1
4.8621273 3.7619486 -0.32218018 1
5.2348418 4.0488667 1.5278676 12
5.1985183 4.0178733 1.7604873 23
2.5810566 1.989836 -0.87325549 7
2.8003786 2.1573617 -0.81612247 6
3.0829332 2.3741796 -0.75636691 5
3.3861566 2.6058109 -0.67673558 3
5.3007903 4.0777411 0.82115573 1
3.7782459 2.9054406 -0.58521664 2
4.2491493 3.2663844 -0.46889788 1
4.8752303 3.7449524 -0.32218018 1
5.2385674 4.0196934 1.7692871 2
2.5925896 1.9843363 -0.87480837 9
2.8140843 2.1523082 -0.81792206 6
3.0912025 2.3634028 -0.75636691 5
3.3999414 2.5975718 -0.67767417 3
5.2929068 4.0423436 0.81774336 1
3.7757418 2.8825982 -0.58326674 2
4.2668614 3.2563663 -0.46959516 1
4.8882718 3.7279127 -0.32218018 1
2.6041143 1.9787813 -0.87636131 7
2.8293395 2.148365 -0.82017154 6
3.1009967 2.3537858 -0.7567485 5
6.9979992 5.3098488 0.76853937 1
3.412137 2.5880749 -0.67829996 3
5.3228021 4.0358377 0.82018077 1
3.7921083 2.8741982 -0.58424169 2
4.2718506 3.2366383 -0.46889788 3
4.9394712 3.7397623 -0.32469231 1
2.6079218 1.9673517 -0.87532604 7
2.836822 2.1384752 -0.82017154 6
3.1154666 2.3476722 -0.75827497 3
7.0164905 5.2853899 0.76853937 1
3.4321959 2.5844672 -0.68049002 3
5.4002976 4.0649853 0.82993031 1
3.8021173 2.8609445 -0.58424169 2
4.2958603 3.2312896 -0.47029239 1
4.9940062 3.7536969 -0.3274138 1
5.0781574 3.8141751 -0.11085769 2
2.6116805 1.9559209 -0.87429082 7
5.0537271 3.7834239 0.11019449 2
2.8489497 2.1320632 -0.82152128 6
5.022644 3.7587867 0.32877451 1
3.1189256 2.3332555 -0.75713015 6
3.4301205 2.5641923 -0.67829996 3
3.8248048 2.8571584 -0.58619159 2
4.310307 3.2186573 -0.47064099 1
5.0070777 3.7362428 -0.3274138 1
2.6184926 1.9467918 -0.87429082 7
2.8544409 2.1214406 -0.82107133 6
5.0838304 3.7769654 0.33191466 1
3.1317804 2.3258653 -0.75827497 5
4.9831667 3.6994767 0.54298031 1
3.4417775 2.5551574 -0.67892563 3
3.840636 2.8491888 -0.58716655 1
4.3279161 3.2083411 -0.47133827 1
4.9392071 3.6601598 -0.32218018 1
2.6373663 1.947278 -0.87843186 7
2.8539875 2.1056798 -0.81882185 6
3.1394756 2.3154676 -0.75827497 5
3.4459047 2.5396128 -0.67798704 3
3.8393698 2.8275242 -0.58546036 2
4.3481593 3.2010572 -0.4723841 1
5.0323954 3.7020714 -0.3274138 1
2.6379149 1.9334924 -0.87636131 7
2.8782456 2.1088741 -0.82377076 7
3.1491225 2.3056548 -0.75865656 5
3.4734356 2.5421724 -0.68174148 2
3.8567362 2.8206365 -0.58667904 2
4.3400044 3.171752 -0.47029239 1
2.6380641 1.9201874 -0.87429082 9
2.8745582 2.0907896 -0.82062149 6
3.1535747 2.292891 -0.75789338 5
7.1058645 5.1646085 0.76853937 1
3.4838872 2.5311925 -0.68205434 3
3.8729832 2.8118227 -0.58765399 1
4.3639483 3.1659458 -0.47168687 1
5.0574765 3.6677337 -0.3274138 1
2.6576138 1.9195527 -0.87843186 7
2.9007981 2.0944324 -0.8260203 6
3.1715119 2.2882071 -0.7601831 6
7.182919 5.1804876 0.77481455 1
3.478719 2.5080099 -0.6792385 2
3.8924384 2.8052495 -0.58911645 1
4.3749743 3.1506925 -0.47168687 1
5.0708842 3.6491737 -0.3274138 1
5.1815996 3.7274752 -0.11141616 2
2.6642969 1.9102658 -0.87843186 7
5.1604681 3.6986206 0.11082278 2
2.8926141 2.0724361 -0.82152128 6
5.148973 3.6876657 0.33191466 1
3.1858628 2.281697 -0.76170951 5
3.4954851 2.5015991 -0.68080288 3
3.8994641 2.7886555 -0.58862901 1
4.3929758 3.1392705 -0.4723841 1
5.9340425 4.2405343 1.4177109 2
5.0835924 3.6314492 -0.3274138 1
2.6712818 1.900486 -0.87843186 7
2.8998303 2.0623269 -0.82152128 6
3.195806 2.2711401 -0.76209116 3
5.0952826 3.6196923 0.5468151 1
3.5030196 2.487628 -0.68049002 2
3.9075563 2.7738764 -0.58838522 2
4.4039078 3.1239157 -0.4723841 1
5.0968676 3.6127937 -0.3274138 1
2.6838796 1.896078 -0.88050246 7
2.9165642 2.0589347 -0.82422066 6
3.1985061 2.2571361 -0.76094633 5
3.5193219 2.4816885 -0.68205434 3
5.329937 3.7570713 0.80068165 1
3.9026105 2.7499299 -0.58619159 2
4.4468217 3.1322403 -0.47587034 1
5.1088209 3.5958707 -0.3274138 1
2.6778286 1.8778237 -0.87636131 7
2.9265668 2.0514891 -0.82512045 7
3.20315 2.2437041 -0.7601831 5
3.5404766 2.4790692 -0.68455732 3
5.3228502 3.7257173 0.79775679 1
3.9344783 2.7529066 -0.58960396 2
5.2786679 3.6920471 1.0202657 2
4.4479303 3.1098504 -0.47482449 1
5.2887483 3.6977234 1.2543784 2
5.1190791 3.5777662 -0.3273091 1
2.6840403 1.8689338 -0.87636131 7
2.9465067 2.0501659 -0.82871968 6
3.2137971 2.2353108 -0.76094633 6
3.540998 2.4610596 -0.68299294 2
5.3684292 3.7297654 0.80263156 1
3.9538474 2.7459486 -0.59106636 1
5.2882771 3.6713467 1.01964 2
4.4554853 3.0920322 -0.47447586 1
5.2387209 3.6355841 1.2394953 1
5.1315374 3.5598741 -0.3273091 1
5.2431674 3.6332498 1.709241 2
2.7067671 1.8700641 -0.88153768 9
2.9376109 2.0287931 -0.82422066 6
3.2348945 2.2324381 -0.76399928 5
3.5467422 2.4458208 -0.68236721 3
5.3683414 3.7019892 0.80068165 1
3.9732144 2.7388914 -0.59252882 2
5.3498597 3.6864891 1.029026 2
4.469533 3.0787222 -0.47482449 1
5.2681799 3.6274943 1.2433115 1
5.1445503 3.5410435 -0.3273091 1
5.3969088 3.7133563 -0.11434817 2
5.2144332 3.5864627 1.6957825 4
2.7196519 1.864974 -0.88360828 7
5.2598863 3.6055646 0.11131145 2
2.9514565 2.0224195 -0.8260203 6
5.2079725 3.5686464 0.33086795 1
3.2442875 2.2222412 -0.76438087 4
5.3543377 3.6661904 0.56773251 1
3.5454774 2.4267321 -0.68049002 2
5.5227699 3.7786875 0.82164317 1
3.9729211 2.7182786 -0.59106636 2
5.460526 3.7347009 1.0477982 2
4.5032778 3.0788453 -0.47726485 1
5.3067451 3.6268053 1.2494174 2
5.2269216 3.568238 1.6957825 4
2.7210305 1.8526837 -0.88205534 9
2.9645922 2.017005 -0.82781988 6
5.3816066 3.6614568 0.34112579 1
3.2565086 2.2147834 -0.7655257 5
5.2082868 3.5408812 0.55099863 1
3.5698438 2.4260635 -0.68361872 2
5.4860086 3.7268887 0.814331 1
3.9917653 2.7117829 -0.59252882 2
5.5382471 3.7609637 1.060313 2
4.5134635 3.0638938 -0.47726485 1
5.5250592 3.749191 1.2978829 2
5.1949801 3.5238824 -0.32898384 1
5.3293748 3.6136878 -0.11239351 2
5.2611122 3.5660608 1.7030294 4
2.7255592 1.8425676 -0.88153768 9
5.4062886 3.6534581 0.11389441 2
2.9744937 2.0093451 -0.82871968 6
5.3314576 3.6001747 0.33714828 1
3.2573278 2.1995766 -0.76399928 5
5.3554139 3.6149948 0.56529218 1
3.5975182 2.4274716 -0.6873731 2
5.3798466 3.6287508 0.79678184 1
3.9979143 2.6956136 -0.59204131 2
5.4989233 3.7062809 1.0503011 2
4.500999 3.0325336 -0.47482449 1
5.4853601 3.6957438 1.2856711 2
5.2530212 3.5378766 -0.33191466 1
5.3535705 3.6028769 -0.11263783 4
5.3953495 3.6296253 1.7423699 4
2.7274804 1.8293377 -0.8799848 9
5.329329 3.5744135 0.11200955 2
2.9863458 2.0022047 -0.83006936 6
5.3041711 3.5548601 0.33463615 1
3.262105 2.1854384 -0.76323599 5
5.3156543 3.559864 0.5597142 1
3.5998244 2.4098752 -0.68612164 2
5.3297944 3.5679903 0.78751975 1
4.0023508 2.678329 -0.59131008 2
5.3180847 3.5574598 1.0133826 2
4.5380545 3.0345266 -0.47761348 1
5.3748212 3.5926981 1.2566681 2
5.1928844 3.469775 -0.3273091 1
5.3910546 3.600831 -0.1131614 2
5.4304786 3.6257892 1.7496167 4
2.7434988 1.826228 -0.88309062 9
5.3490529 3.559289 0.11214916 5
2.977438 1.9804538 -0.82557034 6
5.3232007 3.5407465 0.33505484 3
3.2729843 2.1762114 -0.76399928 5
5.2666526 3.5004823 0.55326468 3
3.5901167 2.3852692 -0.68268013 2
5.2733865 3.5023012 0.77728271 1
4.0253701 2.6724262 -0.59325999 2
5.2481833 3.4842467 0.99773914 2
4.5220594 3.0010388 -0.47482449 1
5.2662668 3.4936008 1.2284284 1
5.2049637 3.4516282 -0.3273091 1
5.3635907 3.5554729 -0.11232369 7
5.3754663 3.5619915 1.7278759 2
2.7546916 1.8198369 -0.88464355 7
5.344141 3.5305097 0.11180011 2
2.9904943 1.9748641 -0.82736999 6
5.3521967 3.5331452 0.33610156 1
3.2953072 2.1745076 -0.76743382 5
5.3021245 3.4974346 0.55570501 4
3.6359336 2.3983669 -0.68987608 2
5.2468538 3.4596627 0.77167672 3
4.0325522 2.6579711 -0.59301627 1
5.2240252 3.441994 0.99085599 2
4.5790973 3.0159194 -0.47970518 1
5.238472 3.4502017 1.2192695 1
5.2597532 3.4629054 -0.33003056 1
5.3759694 3.5367272 -0.11232369 40
5.2555089 3.4561682 1.6854297 2
2.7607117 1.8106912 -0.88464355 7
5.3547606 3.5107362 0.11176521 37
3.002259 1.9676187 -0.82871968 6
5.3227296 3.4870796 0.33348474 7
3.2910049 2.1560359 -0.76476252 5
5.2786903 3.4569113 0.55204445 1
3.6409771 2.3834972 -0.68925035 2
5.2804918 3.4554582 0.77484536 7
4.0285163 2.6351845 -0.59106636 1
5.2293963 3.4194121 0.98960453 4
4.5895963 2.999918 -0.47970518 1
5.1946092 3.3953753 1.2062945 1
5.2718101 3.4445231 -0.33003056 1
5.3631649 3.5015428 -0.11180011 83
5.1963587 3.3913441 1.6626536 1
2.7640908 1.7984542 -0.88360828 7
5.3485451 3.4800279 0.11138126 76
3.0074749 1.9560648 -0.82826978 6
5.3131022 3.4543245 0.33212399 35
3.3005307 2.1450298 -0.76514411 4
5.292995 3.4386277 0.55221879 15
3.6463759 2.3679836 -0.68862462 2
5.3025112 3.4434903 0.77630776 12
4.0610003 2.6362391 -0.59447873 2
5.2595258 3.4129694 0.99304616 7
4.5866685 2.9752038 -0.4783107 1
5.2333741 3.393404 1.2124004 3
5.2743421 3.4186609 -0.32940254 1
5.1762362 3.3537855 1.4239402 1
5.3787127 3.4849741 -0.11186992 95
5.1497936 3.3353767 1.6440187 3
2.7768435 1.7929856 -0.88567883 7
5.3528643 3.4549775 0.11120673 78
3.0309994 1.9555931 -0.8327688 6
5.3391542 3.4434891 0.33296138 80
3.317898 2.1398795 -0.76743382 4
5.2882214 3.4093332 0.55047566 53
3.6529584 2.3541715 -0.6883117 2
5.286726 3.4057577 0.77216423 26
4.0672979 2.6191864 -0.59399122 2
5.2670178 3.3904603 0.99210751 21
4.6104279 2.9678035 -0.47970518 1
5.2286792 3.3644905 1.2085842 12
5.2862444 3.4002278 -0.32940254 1
5.2043023 3.3462369 1.4284393 7
5.4082704 3.4760494 -0.11221898 95
5.1668587 3.3196132 1.6455716 3
2.786339 1.7853655 -0.8867141 7
5.3699422 3.4395082 0.11131145 83
3.0246773 1.9365953 -0.82916957 6
5.3545065 3.4269824 0.33317071 70
3.3187337 2.1240504 -0.76590741 4
5.3000894 3.3908544 0.55047566 68
3.6661458 2.3445997 -0.68925035 2
5.2684779 3.3680356 0.76777691 61
4.089797 2.6135252 -0.59594113 1
5.2588429 3.3592944 0.98835307 30
4.6409078 2.9645638 -0.48179695 1
5.2354279 3.3430476 1.2074393 31
5.3081818 3.3882034 -0.33003056 1
5.2175932 3.3290994 1.428889 18
5.4304881 3.4636006 -0.1124284 90
5.1784139 3.3015583 1.6455716 13
2.7958143 1.777702 -0.88774931 7
5.3937302 3.4282498 0.11155578 92
3.0330644 1.9270697 -0.82961947 6
5.3596921 3.4039893 0.33275205 68
3.3360705 2.1187689 -0.768197 4
5.3287144 3.3830104 0.55221879 73
3.6693046 2.3286119 -0.6883117 2
5.2684679 3.3421819 0.76607072 64
4.0754261 2.5843494 -0.59252882 1
5.2571902 3.3324554 0.98585016 76
4.6444969 2.944078 -0.48109969 1
5.2172146 3.3058388 1.2005702 63
5.3368502 3.3803394 -0.33107728 1
5.2061324 3.2962708 1.4225905 30
5.4493032 3.4489026 -0.11256802 95
5.1964383 3.2875922 1.6476421 33
2.8052697 1.7699943 -0.88878465 7
5.4191947 3.4179368 0.11183503 92
3.0546081 1.9258249 -0.83366859 6
5.3816791 3.3916502 0.33338007 70
3.3451071 2.1081586 -0.76857871 5
5.3438616 3.366514 0.55256736 73
3.6824248 2.318948 -0.68925035 2
5.300261 3.3364627 0.76899564 70
4.1045842 2.5827932 -0.59545368 1
5.2604294 3.308826 0.98428577 83
4.6716099 2.9384568 -0.48284283 1
5.2386951 3.2938759 1.20286 80
5.331708 3.3510604 -0.33003056 1
5.1895547 3.2604547 1.4149421 80
5.4613099 3.4298582 -0.11256802 90
5.1767964 3.2499158 1.6378069 52
2.8048811 1.7560914 -0.8867141 7
5.4344835 3.4011195 0.11190483 97
3.0629647 1.9161834 -0.83411849 6
5.3996701 3.3780208 0.33379877 70
3.3474514 2.0933468 -0.76743382 4
5.350513 3.3446701 0.55204445 67
3.6955233 2.3092194 -0.69018894 2
5.3236599 3.3253038 0.77070183 66
4.1102066 2.5663478 -0.59496623 2
5.2797518 3.2965932 0.98585016 90
4.6784587 2.9200206 -0.48249418 1
5.2501593 3.275573 1.20286 84
5.46878 3.410641 -0.3377763 1
5.212481 3.2495353 1.4180914 75
5.476047 3.4138463 -0.11263783 95
5.1760674 3.2255802 1.6341835 88
2.8208404 1.7524055 -0.88981992 7
5.4474306 3.384136 0.11193974 90
3.0759237 1.9101285 -0.83591807 5
5.4182158 3.3633661 0.33421743 70
3.3630793 2.0868242 -0.76934189 4
5.3723154 3.3322728 0.55309033 69
3.7031615 2.2969508 -0.69018894 2
5.346468 3.3149521 0.77240795 70
4.125443 2.5568879 -0.59594113 2
5.2895489 3.2771018 0.98553723 78
4.6750717 2.8952813 -0.48109969 1
5.260993 3.2581434 1.20286 91
5.3951497 3.3399241 -0.33254269 1
5.2348289 3.239409 1.4212408 80
5.5049357 3.4052308 -0.11298689 95
5.1905808 3.2095258 1.6352189 91
2.8266366 1.7430409 -0.88981992 7
5.471127 3.3724439 0.11218407 97
3.0643225 1.8881356 -0.83096921 6
5.4435291 3.3528109 0.33505484 70
3.3800113 2.0818367 -0.7716316 4
5.3952117 3.3217523 0.5543105 72
3.7044258 2.2798712 -0.68893749 2
5.3495536 3.2910671 0.77118921 64
4.1411076 2.5466299 -0.59691608 2
5.3278794 3.2751729 0.99054313 83
4.698225 2.8881099 -0.48249418 1
5.2656441 3.2356465 1.2013335 78
5.3897576 3.310616 -0.33149597 1
5.2477632 3.2221394 1.4216906 76
5.5304236 3.3943613 -0.11326612 95
5.2066936 3.194417 1.6367717 93
2.839294 1.7371984 -0.89189047 7
5.4931006 3.3595867 0.11239351 97
3.0725577 1.8784432 -0.83141905 6
5.4517913 3.3317044 0.33484548 70
3.3855829 2.0690012 -0.77125001 4
5.4203753 3.3112097 0.55570501 73
3.7325928 2.2792792 -0.69269186 2
5.3711767 3.278578 0.77265167 71
4.1398039 2.5259564 -0.59545368 2
5.3409662 3.2575824 0.99085599 80
4.7014747 2.8675413 -0.48179695 1
5.2936702 3.2274649 1.2051498 78
5.3944583 3.2876256 -0.33107728 1
5.255651 3.2017727 1.4207909 75
5.5490713 3.3791947 -0.11340573 95
5.2244124 3.1802418 1.6388422 93
2.8486438 1.7292811 -0.89292574 7
5.5167623 3.3476522 0.11263783 100
3.0874264 1.8727604 -0.83366859 6
5.4702168 3.3167996 0.33526415 68
3.3944619 2.0581908 -0.7716316 4
5.4387164 3.2963982 0.55640227 72
3.7354577 2.2631667 -0.69175333 2
5.3910766 3.2649543 0.77387041 64
4.1621823 2.5197139 -0.59740359 2
5.3556862 3.2409635 0.99148178 80
4.7182751 2.8552375 -0.48249418 1
5.3133006 3.214051 1.2070577 80
5.4708486 3.3080449 -0.33505484 1
5.2734671 3.1874385 1.4225905 71
5.5539846 3.3556712 -0.11326612 90
5.2503657 3.1709731 1.643501 91
2.8480437 1.7153392 -0.89085519 7
5.5335507 3.3314726 0.11274255 97
3.1139815 1.8740292 -0.83906746 6
5.5022998 3.3100381 0.33652022 73
3.3982615 2.0443044 -0.77086836 4
5.4467726 3.2753434 0.55605364 73
3.746721 2.2521477 -0.692379 2
5.4211578 3.2573609 0.77655149 71
4.1777573 2.5092607 -0.59837854 2
5.3720465 3.2253003 0.99242038 83
4.7487102 2.8510582 -0.48458594 1
5.3396387 3.2045758 1.2104924 84
5.5268903 3.3156459 -0.3377763 1
5.2945886 3.1750255 1.4252899 76
5.5759559 3.3424313 -0.11347555 95
5.2514601 3.1466677 1.6403952 90
2.8473804 1.7014242 -0.88878465 7
5.5520139 3.3162367 0.11288217 97
3.1154852 1.8601501 -0.83771771 6
5.5275397 3.299001 0.33735761 70
3.4104338 2.0354488 -0.77201319 4
5.4684396 3.2624342 0.55709946 72
3.7562571 2.2400663 -0.69269186 4
5.4307895 3.2374024 0.77630776 64
4.1967235 2.5007584 -0.599841 1
5.4002438 3.2166362 0.99554908 87
4.7415166 2.8242676 -0.48284283 1
5.3507919 3.1859186 1.2104924 84
5.5384316 3.2963319 -0.3377763 1
5.3173628 3.1634977 1.4284393 80
5.6013384 3.3311253 -0.11375479 95
5.274034 3.1352313 1.6440187 93
2.8632731 1.6973845 -0.89189047 7
5.5721588 3.3019319 0.11305669 100
3.106868 1.8403274 -0.83366859 6
5.54246 3.2817202 0.33756694 70
3.4259655 2.0285325 -0.77392131 4
5.4917974 3.250428 0.55831969 75
3.7572513 2.2229199 -0.6914404 5
5.4454751 3.2204449 0.77679521 70
4.2173896 2.4931641 -0.60154712 2
5.4250436 3.2058065 0.998052 83
4.7684989 2.8178363 -0.48458594 1
5.3585 3.1652226 1.2097291 78
5.463913 3.226203 -0.33254269 1
5.3451543 3.1548238 1.4329382 86
5.6232662 3.3176479 -0.11396421 90
5.2932668 3.1217074 1.6466069 90
2.8855364 1.697677 -0.89706683 7
5.5934191 3.2895191 0.11326612 100
3.114634 1.8310013 -0.83411849 6
5.5481458 3.260288 0.33725294 66
3.4360585 2.0191503 -0.77468461 4
5.5162907 3.2402704 0.5597142 75
3.7663066 2.2114477 -0.69175333 2
5.4612598 3.2053854 0.77752644 66
4.1896787 2.4580688 -0.59642857 1
5.4339399 3.186801 0.99773914 80
4.7783051 2.8011751 -0.48458594 1
5.3875966 3.1583588 1.2139269 80
5.5607419 3.258554 -0.3377763 1
5.342134 3.1292026 1.4293389 80
5.6480422 3.3070669 -0.11424346 95
5.3119268 3.109015 1.649195 86
2.8850644 1.6831962 -0.89499629 7
5.6204123 3.2790453 0.11358026 97
3.121007 1.8201172 -0.83411849 5
5.5715699 3.2479436 0.33798563 68
3.4349551 2.0015998 -0.77277648 4
5.5332937 3.2230401 0.56023711 70
3.7897496 2.2065747 -0.69456911 2
5.4895697 3.1962917 0.77996385 64
4.2085271 2.4494212 -0.59789103 2
5.4484472 3.1697989 0.99836493 80
4.7880549 2.7844772 -0.48458594 1
5.4110188 3.1454964 1.2165983 90
5.5726471 3.2381523 -0.3377763 1
5.3636789 3.1154728 1.4320384 80
5.6578231 3.2863255 -0.11420855 87
5.3394532 3.1001554 1.6543714 84
2.8742027 1.6634378 -0.88981992 7
5.6254697 3.2544165 0.11344065 97
3.1495874 1.8213488 -0.83996725 6
5.5863323 3.2304738 0.338195 68
3.4521189 1.9954933 -0.7750662 4
5.5445099 3.2037067 0.56023711 70
3.802561 2.1962955 -0.69550771 2
5.5081258 3.1801193 0.78093886 61
4.2381077 2.4458876 -0.60081595 2
5.4680319 3.155699 0.99992919 87
4.7977448 2.7677481 -0.48458594 1
5.4253664 3.1285517 1.2173615 84
5.5839157 3.2186813 -0.3377763 1
5.3880286 3.1045156 1.4356377 80
5.6692591 3.266557 -0.11420855 87
5.3452191 3.0786066 1.6528184 88
2.8917189 1.6601282 -0.89344335 7
5.6431675 3.2397277 0.11358026 92
3.1522303 1.8089536 -0.83906746 6
5.6131682 3.2198968 0.33913705 64
3.4607661 1.9844081 -0.77544779 4
5.5660315 3.1902761 0.56128299 70
3.813252 2.1856375 -0.69613349 2
5.528976 3.1677551 0.7824012 61
4.2496395 2.4337938 -0.60130334 1
5.4807296 3.1375728 1.0002421 80
4.8073773 2.7509828 -0.48458594 1
5.4391193 3.1124921 1.2181247 84
5.5945578 3.2001479 -0.3377763 1
5.4033704 3.0895317 1.4369874 76
5.6962533 3.2556767 -0.11452269 90
5.3643198 3.0647225 1.6554067 86
2.90728 1.6562667 -0.89654922 7
5.668344 3.2279241 0.1138595 92
3.1534441 1.7950478 -0.83771771 6
5.6342278 3.2071943 0.33976504 64
3.4707408 1.974862 -0.77621108 4
5.5904346 3.1796825 0.56267744 72
3.8174229 2.1703615 -0.69550771 2
5.5417252 3.1494184 0.78264499 60
4.2546582 2.4169831 -0.60081595 1
5.5048437 3.1271877 1.002745 85
4.8303332 2.742897 -0.48598042 1
5.4550729 3.0963955 1.2192695 86
5.6056952 3.1805983 -0.3377763 1
5.4361577 3.0831506 1.4428362 80
5.7191935 3.2436764 -0.11476702 85
5.381176 3.0507264 1.6574773 86
2.9063165 1.6423057 -0.89447862 6
5.680759 3.2100918 0.11389441 90
3.1559856 1.7826645 -0.83681792 5
5.6453881 3.1875091 0.33976504 61
3.4810331 1.9646636 -0.77697426 4
5.6049709 3.1621053 0.56302613 72
3.8142767 2.1518657 -0.69363046 2
5.5590544 3.1349256 0.78361994 60
4.28686 2.4165065 -0.60422826 1
5.5294948 3.1157093 1.005248 80
4.8433499 2.7279761 -0.48632905 1
5.4789948 3.0859978 1.2223225 78
5.6788664 3.1972647 -0.34154451 1
5.437861 3.0603263 1.4405866 82
5.7409372 3.2295768 -0.11497645 87
5.4069486 3.0404449 1.662136 82
2.9252267 1.6402183 -0.89861977 7
5.7076268 3.1990459 0.11420855 92
3.1621895 1.7716364 -0.83681792 5
5.6599669 3.169734 0.3399744 64
3.4806771 1.9492729 -0.77544779 4
5.6293321 3.1512909 0.56442058 70
3.8562412 2.1578314 -0.69988787 4
5.5786271 3.1203458 0.78483868 61
4.2883368 2.397656 -0.6032533 1
5.5437851 3.0983171 1.0058737 70
4.8493643 2.7091081 -0.48598042 1
5.5000176 3.072597 1.2246122 82
5.6620913 3.1618433 -0.33986974 1
5.4553161 3.0451267 1.4423862 82
5.7486839 3.207567 -0.11490664 73
5.4276519 3.0271969 1.6652418 82
2.922776 1.6247932 -0.89603156 7
5.7222552 3.1810448 0.11427836 92
3.1836855 1.7691056 -0.84086704 6
5.6832175 3.1567473 0.34070709 73
3.4877977 1.9365033 -0.77544779 4
5.6408467 3.1306329 0.56442058 72
3.8503048 2.1360176 -0.69738495 2
5.6051064 3.1095216 0.78703225 60
4.2966809 2.3826711 -0.6032533 1
5.5545669 3.0789454 1.0058737 75
4.8692474 2.6979589 -0.48702627 1
5.5249815 3.060029 1.2276652 78
5.7120843 3.1623502 -0.3421725 1
5.4869008 3.0364356 1.447785 75
5.7580953 3.1865139 -0.11487174 16
5.4314218 3.0044956 1.6631712 78
2.9284301 1.6145802 -0.89603156 7
5.7286215 3.157156 0.11417364 25
3.1952686 1.7602465 -0.84221673 6
5.7104964 3.1445656 0.34164914 61
3.5048549 1.9299978 -0.7777375 4
5.6604652 3.1157315 0.56529218 85
3.8681223 2.1282771 -0.69926214 2
5.6303821 3.0966086 0.78898221 56
4.3053842 2.3669078 -0.6032533 1
5.5744705 3.0633245 1.0074381 77
4.875144 2.6790252 -0.48667765 1
5.5321884 3.0388324 1.2269019 84
5.7230859 3.142396 -0.3421725 1
5.5060086 3.0219505 1.4500345 73
5.7679834 3.1644249 -0.11483683 19
5.4593358 2.9938586 1.6683476 78
2.9357431 1.6052758 -0.89654922 6
5.7431169 3.1390567 0.11424346 20
3.1945531 1.7453439 -0.84041709 5
5.7214379 3.1246142 0.34164914 17
3.5184624 1.9215167 -0.77926397 4
5.6870461 3.1045439 0.56686091 69
3.8651245 2.1090834 -0.69738495 2
5.6324425 3.0721846 0.78776348 69
4.3205919 2.3556645 -0.60422826 1
5.6024752 3.0532987 1.0105668 77
4.8809676 2.6600835 -0.48632905 1
5.5479336 3.0223219 1.2280468 82
5.7234964 3.116667 -0.34154451 1
5.5285063 3.009233 1.4531839 75
5.8000722 3.155741 -0.11525569 19
5.4799361 2.98032 1.6714535 88
2.9566128 1.6033056 -0.90120792 7
5.7645869 3.1247094 0.11445288 22
3.1989117 1.7332562 -0.83996725 6
5.7340665 3.1055732 0.34175381 15
3.5251489 1.9092222 -0.77926397 5
5.6908407 3.0808778 0.56616372 19
3.8898346 2.1049831 -0.7005136 2
5.6588469 3.0610034 0.78995717 52
4.3148198 2.3330142 -0.60227835 1
5.628737 3.0421805 1.0133826 100
4.9007382 2.6487167 -0.48737493 1
5.5739965 3.0113347 1.2314813 84
5.758945 3.1099544 -0.34300989 1
5.5372591 2.9889946 1.4527339 80
5.8128133 3.1364238 -0.1152906 16
5.5005088 2.9666743 1.6745592 88
2.9672954 1.595721 -0.90276086 6
5.7895503 3.1121409 0.11473212 20
3.2100928 1.7248455 -0.84131694 5
5.7413526 3.0836499 0.34154451 14
3.521414 1.8913326 -0.77697426 4
5.705071 3.0628805 0.56651235 15
3.9076028 2.0969956 -0.70239085 4
5.6642489 3.0384181 0.78922594 13
4.3369327 2.3254437 -0.60422826 1
5.6253943 3.0150476 1.0108796 52
4.9169788 2.6353576 -0.48807216 1
5.6000495 3.0002019 1.2349159 100
5.7697654 3.089834 -0.34300989 1
5.5510964 2.9714854 1.4536338 86
5.8343053 3.1217732 -0.11550003 19
5.5244589 2.9547462 1.6787004 91
2.9609151 1.5789908 -0.89913744 7
5.8092022 3.0966144 0.11490664 17
3.2229729 1.7172959 -0.84311652 5
5.7691731 3.073987 0.34259123 14
3.5418568 1.8864132 -0.78002721 4
5.7139692 3.0420094 0.566338 13
3.9114106 2.0814874 -0.70176506 4
5.6818304 3.0223577 0.79020089 13
4.352035 2.3140175 -0.60520321 1
5.6231537 2.9898832 1.0086895 20
4.9085541 2.6088283 -0.48632905 1
5.6087527 2.9797187 1.2345343 39
5.7805161 3.0696733 -0.34300989 1
5.5769258 2.960315 1.4576828 82
5.8587537 3.1099131 -0.11577927 16
5.5359325 2.9373169 1.6792181 95
2.9732399 1.5722572 -0.90120792 7
5.8247418 3.0801389 0.11501136 20
3.232096 1.7084192 -0.84401631 6
5.7869325 3.0575607 0.34300989 14
3.5588365 1.8795383 -0.78231698 5
5.7280765 3.0239069 0.56668663 15
3.8868482 2.0519047 -0.69613349 2
5.7093787 3.0127621 0.79263824 11
4.3667078 2.3032784 -0.60617816 2
5.6475344 2.977608 1.0111924 20
4.9352574 2.6009662 -0.48807216 1
5.5942883 2.9482868 1.2291917 20
5.8047996 3.0579357 -0.34384724 1
5.5867128 2.9418035 1.4576828 35
5.8695745 3.0894418 -0.11577927 16
5.5495715 2.9197721 1.6802533 97
2.9801486 1.5632855 -0.90172559 6
5.8443127 3.0644324 0.11518589 17
3.2311356 1.6935087 -0.84221673 6
5.8223395 3.0503166 0.3444753 14
3.5615723 1.8659034 -0.78155369 4
5.7592525 3.0159881 0.5687784 15
3.9254882 2.0548151 -0.70176506 2
5.7128258 2.9891315 0.79166335 13
4.3958287 2.2990625 -0.60910302 1
5.6648951 2.9615381 1.0124439 20
4.9826989 2.6048942 -0.49190697 1
5.6167259 2.9351044 1.2318629 18
5.7835722 3.0210111 -0.34196317 1
5.5986753 2.9231844 1.4581327 16
5.8980513 3.0781851 -0.11612831 16
5.5426011 2.8914485 1.6750768 18
2.9890151 1.5546567 -0.90276086 7
5.8585234 3.0458562 0.11525569 17
3.2404852 1.6840175 -0.84311652 5
5.8205438 3.0235307 0.34374261 12
3.5732899 1.8561755 -0.78269857 4
5.7909641 3.0068822 0.5708701 13
3.9466639 2.0483789 -0.70426804 2
5.7320352 2.9737442 0.79288203 13
4.3826809 2.272737 -0.60617816 1
5.6892295 2.949017 1.0149469 20
5.0059137 2.5948198 -0.49330151 1
5.6495976 2.927223 1.236824 18
5.8437419 3.0265214 -0.34489399 1
5.6053834 2.9018328 1.457233 16
5.9229679 3.0649319 -0.11640756 17
5.5663891 2.8791826 1.6792181 18
2.9927061 1.5433289 -0.9022432 7
5.8975582 3.0400488 0.11581416 17
3.2532737 1.6762654 -0.84491616 5
5.8488178 3.0123408 0.34478933 12
3.5692749 1.8382983 -0.7804088 4
5.8120532 2.9921227 0.57191598 13
3.959059 2.0373025 -0.70520669 4
5.7600336 2.9627957 0.79531944 13
4.4117723 2.2683179 -0.60910302 2
5.7012448 2.9300439 1.0152597 17
4.9830427 2.5609379 -0.49016386 1
5.6737523 2.9146597 1.2398769 16
5.8755922 3.0170507 -0.34615004 1
5.627614 2.888479 1.4603822 16
5.9371896 3.046062 -0.11647736 15
5.585 2.864141 1.6818062 16
2.9946346 1.5311147 -0.90120792 7
5.918819 3.0249026 0.1160236 17
3.2625763 1.6666713 -0.84581596 5
5.8735266 2.9991736 0.34562668 14
3.5844119 1.8302929 -0.78231698 4
5.8153648 2.9681919 0.57121873 13
3.9819837 2.0315487 -0.70802242 2
5.7862544 2.9507918 0.79751301 11
4.4373493 2.2619181 -0.61154038 1
5.7149591 2.9119172 1.0158856 17
5.0239067 2.5598085 -0.49330151 1
5.6803913 2.8930588 1.2391137 16
5.8504896 2.9784017 -0.34405661 1
5.6394 2.8697 1.4608321 16
5.9584785 3.0307624 -0.11668679 17
5.6052961 2.8498826 1.6849121 20
3.0034075 1.5223982 -0.9022432 7
5.9329104 3.0060296 0.11609341 17
3.2683737 1.6552733 -0.84581596 5
5.905344 2.9894764 0.34688276 10
3.592531 1.8186556 -0.78269857 4
5.8434687 2.9568686 0.57296187 13
3.9855251 2.0158544 -0.70739675 2
5.8071489 2.9359484 0.79897547 11
4.4700227 2.2589488 -0.61495274 1
5.7462459 2.9026394 1.01964 17
5.0185833 2.5350704 -0.49190697 1
5.695714 2.8758662 1.2402586 18
5.9607015 3.0083542 -0.34991825 1
5.6702604 2.8605311 1.466231 20
5.9904485 3.0207481 -0.11710566 17
5.6083102 2.8268197 1.6828415 18
3.0138824 1.5145065 -0.90379614 6
5.9505124 2.9888959 0.11623303 17
3.2706494 1.6421047 -0.84491616 5
5.9246697 2.9733226 0.34740612 14
3.6041219 1.8087451 -0.7838434 4
5.8679996 2.9436038 0.57435632 10
3.992538 2.001929 -0.70739675 2
5.806715 2.9103215 0.79751301 11
4.4672298 2.2379999 -0.61349034 1
5.7634096 2.8861003 1.0208914 17
5.0416551 2.5246727 -0.49330151 1
5.7197633 2.8629951 1.2433115 16
5.9425859 2.9732347 -0.34824347 1
5.6871839 2.8442059 1.4680306 18
6.0045347 3.0016055 -0.11717546 17
5.6457915 2.8210454 1.6911237 18
3.0381715 1.5134528 -0.90949017 7
5.9716506 2.9734528 0.11644246 17
3.2868276 1.6358901 -0.84761554 5
5.9350119 2.9526248 0.34740612 14
3.6174443 1.799652 -0.78536987 4
5.8889432 2.9284239 0.5754022 13
4.0101156 1.9932548 -0.70927399 2
5.8275046 2.8953354 0.79897547 9
4.4607921 2.2153277 -0.61154038 1
5.7946815 2.8765028 1.0246458 17
5.0861301 2.524775 -0.49678773 2
5.7437911 2.8499947 1.2463645 16
5.9243002 2.9382725 -0.34656873 1
5.6953321 2.8234694 1.4675807 18
6.0328922 2.9895074 -0.1175245 17
5.6729164 2.8098938 1.6963001 18
3.031311 1.4968503 -0.90586674 7
5.9927516 2.9579015 0.11665189 17
3.290771 1.6235441 -0.8471657 4
5.9596133 2.9389548 0.34824347 14
3.6289873 1.7896178 -0.7865147 4
5.9116387 2.9140174 0.57662237 15
4.0241351 1.9827396 -0.71052545 2
5.8571663 2.8846221 0.80165666 13
4.4791837 2.2050047 -0.61300284 2
5.8082304 2.8580065 1.0252717 10
5.1020613 2.5105278 -0.49748495 2
5.7713223 2.8385909 1.2501806 18
5.9631991 2.9316723 -0.34824347 1
5.7191434 2.8104517 1.47118 18
6.0397024 2.966666 -0.1174547 15
5.6861591 2.7917759 1.6973354 18
3.0347812 1.4854126 -0.90534908 6
6.0138183 2.9422359 0.11686131 17
3.306922 1.6171829 -0.84986508 6
5.9788055 2.9225237 0.34876686 14
3.6211004 1.7700444 -0.78346181 4
5.9271455 2.8959866 0.57714534 13
4.0452318 1.9756144 -0.71302837 2
5.8832517 2.8720005 0.80385023 13
4.5118299 2.2015419 -0.6164152 1
5.8234987 2.8403108 1.0262102 20
5.1215386 2.497942 -0.49853083 2
5.7776651 2.8167083 1.2494174 14
5.9733958 2.91084 -0.34824347 1
5.7481909 2.7998562 1.4761288 16
6.053616 2.9473171 -0.1175245 17
5.6993432 2.7736025 1.6983706 18
3.034734 1.4722797 -0.90379614 6
6.0348487 2.9264596 0.11707074 17
3.3143003 1.6064805 -0.85031497 5
6.0141354 2.913826 0.35023224 11
3.6519926 1.7693769 -0.78880447 4
5.9408054 2.8770146 0.57749397 13
4.0432134 1.9571795 -0.71146405 2
5.9039636 2.8566329 0.80531269 13
4.5266366 2.1892354 -0.61739016 1
5.8458261 2.825985 1.0284003 17
5.1194634 2.4748476 -0.49748495 2
5.803371 2.8042123 1.252852 20
6.0374746 2.9160287 -0.35138363 1
5.7596831 2.7806225 1.4765787 12
6.0998864 2.9435511 -0.1182226 17
5.715951 2.7570467 1.7004411 18
3.0468194 1.4650254 -0.90586674 6
6.0522346 2.9088454 0.11721037 17
3.316375 1.5932131 -0.84941518 5
6.0309663 2.8973243 0.35065094 11
3.6599166 1.757467 -0.78918606 4
5.9687734 2.8648825 0.57923704 13
4.0998893 1.9669782 -0.72022432 1
5.9210596 2.8394384 0.80628765 11
4.5270896 2.1699898 -0.6164152 2
5.8711982 2.8142674 1.0312161 20
5.1532269 2.469013 -0.49992532 2
5.8166666 2.7856319 1.2536151 20
6.0223956 2.882865 -0.34991825 1
5.7974811 2.7739568 1.4837772 18
6.1168303 2.9267576 -0.11836223 17
5.7390046 2.7447462 1.7045823 14
3.0606341 1.4585371 -0.9084549 7
6.072679 2.893919 0.11741979 17
3.3251586 1.5838835 -0.85031497 6
6.0482559 2.8796902 0.35106963 11
3.685529 1.7539618 -0.79338378 4
5.989532 2.8491664 0.58028293 13
4.1456337 1.9720407 -0.72710747 1
5.9376149 2.8231959 0.8072626 11
4.5342603 2.1549664 -0.6164152 2
5.898828 2.8022332 1.0343448 17
5.1546154 2.4475901 -0.49922809 2
5.8400602 2.7730632 1.2566681 18
6.0048566 2.8500333 -0.34834814 1
5.7978439 2.7505412 1.4815277 18
6.1504984 2.9165246 -0.11881598 22
5.7677522 2.7337995 1.7102764 20
3.0654538 1.4483802 -0.9084549 7
6.1044436 2.8829501 0.11783865 17
3.3377156 1.575595 -0.85211456 6
6.0654969 2.861968 0.35148832 11
3.6735699 1.7333517 -0.78956765 4
6.0133643 2.8360863 0.58167744 14
4.1524916 1.9575586 -0.72710747 1
5.9635944 2.8100691 0.80945623 11
4.5417557 2.1391246 -0.6164152 1
5.9246583 2.7891989 1.0371606 17
5.1699123 2.4338813 -0.49992532 2
5.8674684 2.7610209 1.2604843 18
5.8127017 2.7327721 1.4828774 18
6.2040772 2.9154506 -0.1196537 82
5.7912488 2.7202184 1.7144175 18
3.0739901 1.4393085 -0.90949017 7
6.1561255 2.8811207 0.11864146 42
3.3467262 1.5655853 -0.85301441 5
6.0863051 2.845855 0.35211635 11
3.686712 1.7238454 -0.79109418 4
6.0304465 2.818454 0.58237463 14
4.1593003 1.9430506 -0.72710747 1
5.9967494 2.8001549 0.81262481 11
4.275775 1.995645 -0.57936692 3
5.9271979 2.7651589 1.0359092 17
5.2000446 2.4259269 -0.50201708 2
5.8877454 2.7455022 1.262774 18
5.8469353 2.7239881 1.489176 18
6.2214665 2.8971546 -0.11979332 92
5.7972054 2.6983573 1.7133821 18
3.0772429 1.427757 -0.9089725 6
6.1842866 2.868026 0.11899051 84
3.3627791 1.5588099 -0.85571378 5
6.1541915 2.8514626 0.35546586 39
3.6891439 1.7093157 -0.79033089 4
6.0510964 2.8024087 0.58342052 14
4.1517172 1.9218805 -0.72460455 1
6.0100894 2.7808738 0.81311232 11
4.2448797 1.9632078 -0.57424843 9
5.9583316 2.7543974 1.0396636 17
4.2210402 1.9512882 -0.40684301 6
5.9133325 2.7323461 1.2662085 18
5.8723326 2.7109113 1.4932251 18
6.2460666 2.8821239 -0.12007255 90
5.8206239 2.6845763 1.7175232 18
3.0839636 1.4178129 -0.90949017 7
6.2087955 2.853102 0.11926974 91
3.3540325 1.5405557 -0.85211456 6
6.1913352 2.8424616 0.35703593 61
3.7004411 1.6988842 -0.79147577 4
6.1278415 2.8120167 0.58987004 55
4.1727638 1.9139659 -0.72710747 1
6.0161519 2.7582216 0.81262481 11
4.2264409 1.9368013 -0.57083601 9
5.9840732 2.7409873 1.0424794 15
4.2151456 1.9307351 -0.40562281 10
5.9156942 2.7084174 1.2646821 18
4.2115936 1.92733 -0.24273418 9
5.9047971 2.7009356 1.4990739 18
6.2579088 2.8611333 -0.12010746 35
5.8457737 2.6714671 1.722182 18
3.0941677 1.4094423 -0.91104311 6
6.235096 2.838871 0.11958389 86
3.3664849 1.5320666 -0.8539142 6
6.1884923 2.8150446 0.35630322 60
3.7242186 1.6940867 -0.79529196 4
6.1557565 2.7988572 0.59161317 81
4.1614361 1.8912146 -0.72397882 1
6.0871944 2.7651169 0.820912 40
4.1861806 1.9006997 -0.5644989 9
6.0043974 2.7249784 1.0443566 15
4.1819453 1.897894 -0.40178797 10
5.9483557 2.698293 1.2696431 16
4.1819153 1.8961228 -0.24064074 10
5.9053144 2.6762836 1.4968243 18
4.1840372 1.8953221 -0.080176361 12
5.8621006 2.6542368 1.7242525 16
3.1008298 1.3994269 -0.91156071 7
3.3771408 1.5227114 -0.85526395 6
6.2110286 2.7991686 0.35703593 53
3.7283204 1.6802688 -0.79491037 4
6.1654897 2.7773509 0.59161317 79
4.1554022 1.8710026 -0.7217887 8
6.1221519 2.7552586 0.82432431 56
4.1656346 1.873859 -0.56084275 10
6.0607138 2.7250683 1.0524912 50
4.170372 1.8751173 -0.40004486 10
5.970273 2.6831479 1.2723144 18
4.173934 1.8749653 -0.23980337 10
5.9323988 2.6636348 1.5013233 16
4.1632609 1.8684248 -0.079652779 14
5.8889575 2.6416633 1.7294289 18
3.102169 1.3870167 -0.91052544 7
4.1753192 1.8659627 0.079827309 14
3.3842149 1.5117075 -0.85571378 5
3.7467122 1.6728462 -0.79758167 4
6.1824245 2.7590618 0.59231043 76
4.1438684 1.8484379 -0.71866006 8
6.1407981 2.7379115 0.82554299 56
4.1594582 1.8536514 -0.55913663 9
6.0900393 2.7127359 1.0559328 85
4.1368523 1.842712 -0.39620999 10
6.0387897 2.6886411 1.2849078 55
4.1622057 1.8522646 -0.23875666 10
5.9559031 2.6492505 1.5049226 16
4.136868 1.8392569 -0.079024501 14
5.8999076 2.6218767 1.7299466 18
3.1122899 1.3785288 -0.91207838 6
4.1415801 1.8335662 0.0790594 14
3.4090743 1.5085588 -0.86066276 6
4.1572647 1.8387771 0.23823328 10
3.7525275 1.6597601 -0.79758167 4
4.1213865 1.8211861 -0.7136541 13
6.1684742 2.7244837 0.82798034 56
4.1368475 1.8262924 -0.55523676 9
6.115737 2.6986365 1.0587486 77
4.1104493 1.8137814 -0.3930724 12
6.0660987 2.675472 1.2887239 89
4.1503711 1.8296667 -0.23770994 12
6.0257473 2.6551595 1.5202192 59
4.1176405 1.8135238 -0.078535825 15
5.9196324 2.6059346 1.7330524 18
3.1170833 1.3676558 -0.91207838 6
4.1223173 1.8078532 0.078570738 13
3.3875473 1.484915 -0.8539142 6
4.1398764 1.8138335 0.23687255 12
3.7708864 1.6521653 -0.80025297 4
4.139225 1.8126849 0.39533845 11
4.109622 1.7988684 -0.71052545 12
4.1231914 1.8030909 -0.55255568 10
6.1377897 2.682812 1.0609387 75
4.0984993 1.7914433 -0.39132929 10
6.0825982 2.6574235 1.2902504 87
4.1201262 1.7991815 -0.23561651 10
6.0492659 2.640347 1.5238184 87
4.1056175 1.7911422 -0.07818678 15
5.9765058 2.6061027 1.7470287 56
3.1342404 1.3621575 -0.91570181 7
4.1029239 1.7823011 0.078082062 13
3.4052229 1.4785131 -0.85706353 6
4.109539 1.7834699 0.23477912 12
3.7730281 1.63743 -0.79948968 4
4.1235914 1.7887133 0.39324668 11
4.0868788 1.7719388 -0.7055195 11
4.1018257 1.7775688 0.54889959 9
4.0930276 1.7729099 -0.54768091 10
4.0937576 1.7723753 -0.39028341 10
6.0972433 2.6385128 1.2913953 89
4.1025491 1.7744838 -0.23425576 12
6.0512915 2.6161203 1.5220188 82
4.0934892 1.768867 -0.077837728 14
6.0121675 2.596719 1.7547932 87
3.1407509 1.3519716 -0.91621947 6
4.0907516 1.7600641 0.077733018 13
3.4139431 1.4681581 -0.85796332 6
4.086381 1.7564934 0.23310436 12
3.7715065 1.6211475 -0.79796326 4
4.0968599 1.7601507 0.39010909 12
4.0676279 1.7467507 -0.70113939 11
4.0897641 1.7554113 0.54646218 9
4.0663543 1.7445229 -0.5432936 10
4.0794349 1.7492918 0.70301658 14
4.0724521 1.7462976 -0.38766876 12
4.0940313 1.7538593 -0.23341838 12
6.067553 2.598048 1.5238184 82
4.0665469 1.7404057 -0.07720945 15
6.0478382 2.5871122 1.7625577 99
3.1383429 1.3379687 -0.91414887 6
4.0729551 1.7355839 0.077279255 14
3.4226325 1.4577602 -0.85886312 6
4.070436 1.7328298 0.23184831 12
3.7988193 1.6171995 -0.80254269 4
4.0644794 1.7294583 0.38644853 12
4.0555215 1.7248111 -0.69801068 11
4.0721173 1.7310277 0.5432936 11
4.0541487 1.7225562 -0.54085618 10
4.0600605 1.7242317 0.69863641 12
4.0510144 1.72039 -0.38505405 10
4.0752029 1.7298206 0.86054862 12
4.059679 1.7223973 -0.23111561 12
4.0578685 1.7199559 -0.076930203 15
6.0461583 2.5614653 1.759452 89
3.1447737 1.3277578 -0.91466653 7
4.0421419 1.7058054 0.076581158 14
3.4564295 1.457921 -0.86606157 6
4.0562153 1.7100766 0.2306969 13
3.8171046 1.6092689 -0.80521399 1
4.0447869 1.7044274 0.3840082 12
4.028749 1.6968411 -0.692379 11
4.0543504 1.7067909 0.54012495 11
4.0418396 1.700694 -0.53841883 10
4.0551295 1.705453 0.69675916 12
4.0294466 1.6946517 -0.38243937 12
4.0395889 1.6980876 0.85177141 13
4.0398879 1.6973834 -0.22965018 11
4.0552316 1.7029977 1.0154291 12
4.0306582 1.6918508 -0.076301925 14
3.1636477 1.3227347 -0.91880763 7
4.0222411 1.6808896 0.076092489 14
3.4399192 1.4368347 -0.86066276 6
4.0400424 1.6866747 0.22944085 12
3.8589325 1.6110631 -0.81284636 1
4.0286484 1.6810899 0.38191649 12
4.005477 1.6706023 -0.6873731 10
4.0273032 1.6788784 0.53573769 11
4.025764 1.6774119 -0.53549391 10
4.0337043 1.6798967 0.69206619 14
4.0059094 1.6683211 -0.37965041 12
4.0201178 1.6734129 0.84642875 13
4.0162845 1.670995 -0.22797546 11
4.0395584 1.6798536 1.0100303 12
4.0051489 1.6647222 -0.075708538 14
4.0318918 1.6750127 1.169862 13
3.1628904 1.3094672 -0.91725475 6
4.0022149 1.6561352 0.075603828 14
3.4521172 1.4277966 -0.86246234 6
4.0163732 1.6603544 0.22776611 12
3.853646 1.5930836 -0.81055665 1
4.016077 1.6594092 0.38017333 12
4.0003295 1.6520852 -0.68549597 10
4.0056148 1.6534498 0.5320816 11
4.002233 1.6512364 -0.5315941 10
4.0139775 1.6552622 0.68768603 14
3.9859216 1.6436926 -0.37721002 11
4.0150437 1.654882 0.84413904 13
4.0036259 1.6493585 -0.22692874 11
4.0219731 1.656096 1.0041815 13
3.996141 1.6446438 -0.075429298 14
4.0180616 1.6528455 1.1641681 16
3.1781673 1.3028142 -0.92036057 6
3.9968688 1.6376067 0.075394399 14
3.4715068 1.4216466 -0.86606157 6
3.9999635 1.6372445 0.22651003 12
3.8301127 1.567722 -0.80445075 1
3.9997172 1.6363264 0.37808162 12
3.9768174 1.6261499 -0.68049002 10
3.9948239 1.6326993 0.52988791 10
3.9822454 1.6267452 -0.52818179 11
3.9941268 1.6307876 0.6833058 14
3.9768782 1.6237451 -0.37581557 11
4.0098886 1.6364067 0.84184933 13
3.9908652 1.6278286 -0.22588199 11
3.9970524 1.6295388 0.99653322 13
3.968524 1.6171027 -0.074801013 14
4.0041265 1.6307932 1.1584741 17
3.1791162 1.2902586 -0.91932529 6
3.980324 1.6146257 0.074975535 14
3.4710305 1.4073225 -0.86471182 6
3.9868619 1.6164653 0.22546332 12
3.8355622 1.5543418 -0.80445075 1
3.9795504 1.611886 0.37564126 12
3.9604969 1.6033618 -0.67673558 10
3.9820974 1.6112977 0.52745056 10
3.9731767 1.6068834 -0.52623188 11
3.9647186 1.6034627 0.67736137 13
3.9529676 1.5979054 -0.37302658 11
3.9773507 1.6069542 0.83383536 13
3.9668911 1.6019251 -0.22420727 11
3.9828377 1.6075542 0.99158418 13
3.9553218 1.5964482 -0.074451968 16
3.9718893 1.602329 1.1476036 16
3.1836002 1.2791543 -0.91932529 7
3.9522574 1.5879968 0.07434725 13
3.4811032 1.3979839 -0.86606157 6
3.9739459 1.595098 0.2244166 12
3.8446085 1.5424067 -0.80521399 1
3.9592633 1.5876025 0.37320086 12
3.9327898 1.5769871 -0.67110395 11
3.965308 1.5892208 0.5245257 10
3.9600565 1.5863161 -0.52379447 11
3.9501193 1.5815357 0.67391974 13
3.9400239 1.5766938 -0.37128347 11
3.9425583 1.577708 0.82543975 13
3.9499288 1.5798597 -0.2229512 11
3.964623 1.5849346 0.9857356 15
3.9478719 1.5774368 -0.074207634 14
3.959517 1.5812907 1.1424273 16
3.2003889 1.2735907 -0.92294878 7
3.9429126 1.5682778 0.074068017 13
3.4823406 1.3843833 -0.86516178 6
3.9569416 1.5730581 0.22316055 13
3.8752446 1.5397991 -0.81055665 1
3.9385827 1.5641677 0.37076053 13
3.9199102 1.5559603 -0.66797519 11
3.9431522 1.5643916 0.52086961 11
3.9360447 1.5607746 -0.51989466 12
3.9443247 1.5640579 0.67204249 13
3.9155951 1.5518748 -0.36849448 11
3.9261367 1.5552622 0.82086033 13
3.9275644 1.5550327 -0.22138111 12
3.9538238 1.5646313 0.98168641 13
3.9363465 1.5577151 -0.073893487 16
3.944978 1.5603367 1.1367333 17
3.2048154 1.2624106 -0.92294878 7
3.9294851 1.5478657 0.073718965 13
3.4850979 1.3721162 -0.86471182 5
3.9326715 1.5475354 0.22148579 12
3.8751152 1.5241057 -0.80941176 4
3.9310381 1.5453105 0.36954033 13
3.9066634 1.5357287 -0.66484654 11
3.9150624 1.5382394 0.51648235 11
3.8968534 1.5303 -0.51404494 11
3.9313726 1.5430616 0.66891384 13
3.9080043 1.5331048 -0.36727428 12
3.9203079 1.5379314 0.81857067 13
3.9048083 1.5310646 -0.21981104 12
3.922703 1.5372893 0.97268838 13
3.921278 1.5359436 -0.073509537 16
3.9396076 1.5423301 1.1336274 20
3.212584 1.2531794 -0.92398405 7
3.9162328 1.5268767 0.073369913 13
3.5007613 1.3641871 -0.86741126 5
3.9080062 1.5228837 0.21981104 13
3.878319 1.5105333 -0.80903018 9
3.9212873 1.5264827 0.36814582 13
3.8935912 1.5149187 -0.66171783 12
3.9093075 1.5202459 0.51501989 11
3.8873689 1.5109357 -0.51209503 12
3.9070086 1.5185691 0.663908 14
3.8907804 1.5114801 -0.36518255 12
3.9091811 1.517841 0.81513608 13
3.9045424 1.515258 -0.21949703 12
3.9080584 1.5158378 0.9677394 13
3.8909266 1.5091928 -0.072846346 17
3.9248877 1.5215752 1.1279335 20
3.2133336 1.2405684 -0.92294878 7
3.8988888 1.50524 0.072951064 15
3.5198109 1.3581821 -0.87101048 5
3.8946636 1.5020449 0.21876432 13
3.8725762 1.4927523 -0.80674046 15
3.8931274 1.4998918 0.36500823 13
