# .PCD v0.7 - Point Cloud Data file format
VERSION 0.7
FIELDS x y z intensity
SIZE 4 4 4 4
TYPE F F F F
COUNT 1 1 1 1
WIDTH 1390
HEIGHT 1
VIEWPOINT 0 0 0 1 0 0 0
POINTS 1390
DATA ascii
9.4269819 7.6120553 3.2466261 3
2.5384624 2.0438955 -0.87325549 9
1.6419021 1.3215404 0.036789671 100
1.6245821 1.3071314 -0.48139524 1
1.6481444 1.3256156 0.11084756 100
1.6353818 1.3153507 -0.40794963 100
1.6536726 1.3295882 0.18564174 100
1.6351637 1.3142354 -0.33226684 100
1.6403415 1.317926 0.25836304 100
1.629737 1.3089392 -0.25665686 100
1.6558762 1.3294564 0.33633414 100
1.6344039 1.312217 -0.18337567 100
1.638857 1.3148531 -0.11011487 100
1.6413162 1.3158834 -0.036719862 100
9.3251743 7.4735546 3.2021093 3
2.5395455 2.0301976 -0.87118495 7
1.6465055 1.3158005 0.036789671 100
1.636748 1.3075337 -0.48364475 54
1.6465186 1.3148696 0.11042888 100
1.6338267 1.3047342 -0.40642318 100
1.6614182 1.3262931 0.18599035 100
1.6381978 1.3072873 -0.331954 100
1.6511388 1.317144 0.25933796 100
1.6311922 1.3007665 -0.25616938 100
1.6496946 1.3150486 0.33414406 100
1.6420907 1.3089871 -0.1837243 100
4.8426247 3.8589044 1.2036232 3
1.6528105 1.3165905 -0.1107429 100
1.636512 1.3026742 -0.036510434 100
9.3330669 7.4265213 3.1958976 1
1.818796 1.4436283 -0.62220097 1
1.6573547 1.3150164 0.036929294 100
1.629087 1.2921257 -0.48004553 94
1.6542287 1.3115954 0.11063822 100
1.6352947 1.2965832 -0.40565994 100
1.6519854 1.3093474 0.18442155 100
1.6458467 1.3040155 -0.33257973 100
1.6588393 1.3138372 0.25982547 100
1.6419485 1.299993 -0.25714433 100
1.6511761 1.3068314 0.33351833 100
1.6388377 1.2970661 -0.18285275 100
4.8822408 3.8626838 1.2101108 1
1.6542633 1.3083346 -0.11053354 100
1.6457562 1.300673 -0.036615148 100
4.8037682 3.7951493 1.6403952 3
1.7949941 1.414553 -0.6123659 12
1.6462263 1.296849 0.036580246 100
1.6473669 1.2972817 -0.48409468 100
1.6635041 1.3095205 0.11095224 100
1.642895 1.2932969 -0.40642318 100
1.6596769 1.3060373 0.18477017 100
1.6457311 1.2945981 -0.33164111 100
1.6634157 1.3080382 0.25982547 100
1.6464761 1.2942541 -0.25714433 100
1.655728 1.3010594 0.33351833 100
1.6433556 1.2913373 -0.18285275 100
1.6556782 1.3000857 -0.1103242 100
1.6424206 1.2887477 -0.036440626 100
4.8033056 3.7676287 1.6357363 3
1.8090501 1.4154208 -0.61547172 33
1.6538938 1.2935582 0.036650054 100
1.6380681 1.2807209 -0.48004553 100
1.6662643 1.3027662 0.11084756 100
1.6504934 1.2899716 -0.40718642 100
1.6642261 1.3002356 0.18477017 100
1.6424556 1.2827663 -0.33007675 100
1.6585822 1.2948954 0.25836304 100
1.653888 1.2912304 -0.25763181 100
1.6647053 1.299207 0.33445692 100
1.6462822 1.2843679 -0.18267845 100
1.6673244 1.3003162 0.41100258 18
1.6523308 1.2881579 -0.10980085 100
1.6498396 1.2857529 -0.036510434 100
4.8340602 3.7659276 1.6419481 3
1.8076327 1.404672 -0.61340117 12
1.6613325 1.2905203 0.036719862 100
1.6376889 1.2716959 -0.47869584 100
1.6595333 1.2886585 0.11011487 100
1.6609659 1.2893064 -0.40871289 100
1.6685284 1.29471 0.18477017 100
1.654505 1.2833658 -0.33164111 100
1.6628675 1.2893878 0.25836304 100
1.6518865 1.2808731 -0.25665686 100
1.6736883 1.2973105 0.33539551 100
1.6568322 1.2837822 -0.18337567 100
1.6581725 1.2838947 -0.10990552 100
5.2388844 4.0563788 1.5296671 29
1.6588382 1.283947 -0.036615148 100
5.1780791 4.0064082 1.7542756 8
1.8382794 1.4187356 -0.62220097 1
1.6719363 1.2898895 0.036859483 100
1.6496123 1.2722088 -0.48094535 100
1.6574711 1.2782696 0.10969618 100
1.6527933 1.2742021 -0.40565994 100
1.6791253 1.2940341 0.18546741 100
1.6571865 1.276667 -0.33132821 100
1.6734248 1.2887114 0.25933796 100
1.6498333 1.2705436 -0.2556819 100
1.6654592 1.2821127 0.33289257 100
1.6547643 1.2734209 -0.18267845 100
1.679024 1.2916235 0.41176581 100
1.6655877 1.2808235 -0.11011487 100
1.6519886 1.2699084 -0.036370814 100
5.2173762 4.0092268 1.7630754 2
2.5835373 1.9802694 -0.87222022 7
1.6714418 1.2806907 0.036754768 100
1.6553695 1.2679161 -0.48139524 100
1.6712146 1.2800525 0.1103242 100
1.65701 1.2687138 -0.40565994 100
1.6691676 1.2775605 0.18389861 100
1.6629803 1.2723646 -0.33164111 100
1.6745361 1.2807428 0.25885051 100
1.654038 1.2650651 -0.2556819 100
1.6681321 1.2753834 0.33257973 100
1.6558121 1.2655063 -0.1823298 100
1.6754979 1.2800885 0.40985772 100
1.6730002 1.2777179 -0.1103242 100
1.6498334 1.2595689 -0.036231197 100
2.5950456 1.9747492 -0.87377316 9
1.6663529 1.2675837 0.03654534 100
1.6597852 1.2621304 -0.48139524 100
1.6790749 1.2763363 0.11053354 100
1.6614283 1.2629224 -0.40565994 100
1.6672713 1.266905 0.18320136 100
1.6595461 1.2605779 -0.33007675 100
1.6789961 1.2748899 0.25885051 100
1.6649882 1.2637954 -0.25665686 100
1.6617794 1.2609029 0.33038962 100
1.6620272 1.2606326 -0.18250412 100
1.6752641 1.2706727 0.40871289 100
1.6806328 1.274284 -0.11053354 100
1.6608146 1.2583436 -0.036370814 100
2.5976417 1.9617313 -0.87222022 9
1.6723638 1.2629641 0.036580246 100
1.6486273 1.2445879 -0.47689623 100
1.6867088 1.2728733 0.1107429 100
1.6691809 1.2591887 -0.40642318 100
1.6814481 1.2679836 0.18424724 100
1.6625781 1.2532974 -0.32976389 100
1.6739254 1.2618514 0.25738806 100
1.6757311 1.2627538 -0.25763181 100
1.686682 1.2705457 0.33445692 100
1.6648256 1.2536252 -0.1823298 100
1.6704985 1.2574402 0.40642318 100
1.6693325 1.2561074 -0.10948683 100
1.6651967 1.252539 -0.036370814 100
2.6137474 1.9596057 -0.87532604 6
1.6737807 1.2544279 0.036510434 100
1.6578569 1.2420419 -0.47824594 100
1.6815507 1.259793 0.11011487 100
1.6735659 1.2533548 -0.40642318 100
1.6874593 1.2633002 0.18442155 100
1.6732687 1.2522209 -0.33101538 100
1.681718 1.2580863 0.25787556 100
1.6644505 1.2447156 -0.25519443 100
1.6895254 1.2634671 0.33414406 100
1.6787658 1.2549641 -0.18337567 100
1.6811677 1.2563025 0.40794963 100
1.6753074 1.2514675 -0.10959151 100
1.6759681 1.2515041 -0.036510434 100
1.7573795 1.3080025 -0.58700162 1
1.6891608 1.2572279 0.036754768 100
1.6650939 1.2388635 -0.47914574 100
1.6763221 1.2467643 0.10948683 100
1.671629 1.2428194 -0.40489674 100
1.6934581 1.2585901 0.18459585 100
1.6742414 1.2443081 -0.33038962 100
1.6858805 1.2525029 0.25787556 100
1.6606009 1.2332709 -0.25397575 100
1.681237 1.2481415 0.33164111 100
1.6783363 1.2455348 -0.18285275 100
1.6853243 1.2507209 0.40794963 100
1.6794485 1.2459046 -0.10959151 100
1.6690806 1.2373114 -0.0362661 100
1.7399577 1.2860917 -0.57975465 18
1.6935382 1.2513251 0.036754768 100
1.6741105 1.2365174 -0.48049545 100
1.6870912 1.2456502 0.10990552 100
1.6757407 1.2372696 -0.40489674 100
1.6864008 1.2446856 0.18337567 100
1.6817535 1.2408024 -0.33101538 100
1.6902426 1.24661 0.25787556 100
1.6792761 1.2380682 -0.25616938 100
1.6887636 1.2446094 0.33226684 100
1.680854 1.23878 -0.18267845 100
1.696003 1.2494881 0.40947613 100
1.685396 1.2412187 -0.10969618 100
1.6701685 1.2291067 -0.036196291 100
1.741321 1.277725 -0.57871938 26
1.686609 1.2371264 0.036510434 100
1.6799883 1.2318178 -0.48094535 100
1.6946507 1.2421153 0.11011487 100
1.6832162 1.2337343 -0.40565994 100
1.690735 1.2387918 0.18337567 100
1.6797003 1.230255 -0.32976389 100
1.6977869 1.2430482 0.25836304 100
1.6819849 1.2310278 -0.25592566 100
1.67875 1.228209 0.32945102 100
1.678736 1.2281988 -0.18198119 100
1.6876771 1.2342881 0.40642318 100
1.6897175 1.2353292 -0.10969618 100
1.6809078 1.2279872 -0.036335908 100
1.7879318 1.3023489 -0.59269565 15
1.681218 1.2241685 0.036301006 100
1.6700971 1.215626 -0.47689623 100
1.7019897 1.2388399 0.1103242 100
1.6875128 1.2278508 -0.40565994 100
1.7014941 1.2375696 0.18407291 100
1.6807882 1.2220621 -0.32913816 100
1.6924813 1.2301111 0.25690058 100
1.6798481 1.2204812 -0.25495067 100
1.7067851 1.2400522 0.33414406 100
1.6814002 1.221162 -0.18180689 100
1.6919749 1.2283899 0.40642318 100
1.6859374 1.2235572 -0.10917282 100
1.6914445 1.2271047 -0.036475532 100
1.9224015 1.3900524 -0.63565958 25
1.6949914 1.2256165 0.036510434 100
1.6678019 1.2055143 -0.47509661 100
1.6965908 1.2258725 0.10969618 100
1.6949718 1.2242515 -0.40642318 100
1.7090344 1.233956 0.18442155 100
1.6896365 1.2199502 -0.33007675 100
1.6933317 1.2221687 0.25641313 100
1.6838864 1.2149035 -0.25495067 100
1.699888 1.2259986 0.331954 100
1.6985822 1.2246062 -0.18320136 100
1.7008164 1.226217 0.40756804 100
1.689986 1.2179594 -0.10917282 100
1.6924727 1.2188554 -0.036405724 100
1.9348463 1.389304 -0.63824779 24
1.7025076 1.2220258 0.036580246 100
1.6815002 1.2065011 -0.47779605 100
1.7008598 1.2199425 0.10969618 100
1.6894498 1.2117586 -0.40413347 100
1.709878 1.22596 0.18407291 100
1.6954905 1.2151952 -0.33038962 100
1.7040424 1.2208745 0.25738806 100
1.6800468 1.2032402 -0.253732 100
1.691308 1.2108576 0.32945102 100
1.702634 1.2189662 -0.18320136 100
1.7114727 1.2248424 0.40909451 100
1.6926019 1.210892 -0.10906815 100
1.6885834 1.2071249 -0.036231197 100
1.9302449 1.3758146 -0.63514197 3
1.703506 1.2137541 0.036510434 100
1.6904629 1.2040162 -0.47914574 68
1.7083616 1.2163149 0.10990552 100
1.6936692 1.2058543 -0.40413347 100
1.7011616 1.2107415 0.18267845 100
1.7013319 1.2104142 -0.33070248 100
1.7066758 1.2137687 0.25714433 100
1.6955624 1.2054194 -0.25543818 100
1.692304 1.2026573 0.32882527 100
1.6938865 1.203782 -0.18180689 100
1.7173382 1.2199984 0.40947613 100
1.7065893 1.2119143 -0.10969618 100
1.687894 1.1977519 -0.036126483 100
2.6762478 1.8934864 -0.87843186 7
1.7012016 1.2031821 0.036370814 100
1.7125973 1.2103438 0.10990552 100
1.7010752 1.2022008 -0.40489674 100
1.70375 1.2036467 0.18250412 100
1.6974779 1.1987716 -0.32913816 100
1.7157677 1.2112381 0.25787556 100
1.6997595 1.1994939 -0.25543818 100
1.7190894 1.2126855 0.33320546 100
1.698287 1.1975658 -0.18180689 100
1.7119596 1.2072072 0.40718642 100
1.7108098 1.2059493 -0.10969618 100
1.7018739 1.1987615 -0.036335908 100
2.6752639 1.8781153 -0.87584364 9
1.7053915 1.1972359 0.036370814 100
2.9302778 2.0563796 -0.8264702 7
1.7200816 1.2066528 0.11011487 100
1.7054697 1.1959584 -0.40489674 100
1.7195705 1.2053989 0.1837243 100
1.6953896 1.1880072 -0.3278867 100
1.7069795 1.1961286 0.25592566 100
1.7039365 1.1935529 -0.25543818 100
1.7087492 1.1964794 0.33038962 100
1.7024567 1.1916308 -0.18180689 100
1.7099383 1.1964229 0.40565994 100
1.7086712 1.1950922 -0.10927749 100
1.7060477 1.1928139 -0.036335908 100
2.6992388 1.8809141 -0.88153768 9
1.7097678 1.1909777 0.036370814 100
2.9170046 2.0311499 -0.82062149 6
1.7177266 1.1960764 0.10969618 100
1.7096343 1.1899974 -0.40489674 100
1.725403 1.2005275 0.18389861 100
1.7027701 1.1843375 -0.32851243 100
1.7113523 1.1898637 0.25592566 100
1.6985189 1.1805024 -0.25397575 100
1.7129151 1.1905079 0.33038962 100
1.7131512 1.1902276 -0.18250412 100
1.718942 1.1938059 0.40680483 100
1.7046289 1.1834259 -0.10875413 100
1.7167728 1.1914115 -0.036475532 100
2.7089653 1.8736789 -0.88257295 7
1.7169974 1.1875759 0.036440626 100
2.936548 2.0303311 -0.82422066 6
1.7186054 1.1878015 0.10948683 100
1.7073166 1.179559 -0.40337023 100
1.7263047 1.1922326 0.18355 100
1.7115641 1.1820524 -0.32945102 100
1.7250899 1.1909492 0.25738806 100
1.7024246 1.174863 -0.25397575 100
1.7105565 1.1800343 0.32913816 100
1.7222159 1.187634 -0.18302706 100
1.71481 1.1825269 0.40489674 66
1.7167665 1.1834339 -0.10927749 100
1.702806 1.1729338 -0.036091577 100
5.2189193 3.5935752 1.6978531 4
2.6960537 1.8515619 -0.87636131 4
1.7244298 1.1838384 0.036510434 100
2.9516509 2.0255818 -0.8264702 6
1.7276818 1.185185 0.10980085 100
1.7079806 1.17167 -0.40260699 100
1.7220333 1.1808671 0.18267845 100
1.7205678 1.1794207 -0.33038962 100
1.7275989 1.1837984 0.25714433 100
1.7048779 1.1677909 -0.253732 100
1.7146655 1.1740556 0.32913816 100
1.7146374 1.1740364 -0.18180689 100
1.7225355 1.1785614 -0.10938216 100
1.7068896 1.1669831 -0.036091577 100
5.2122931 3.5622537 1.6916413 4
1.8676468 1.2730672 -0.6056366 7
1.7169832 1.1699309 0.0362661 100
1.9456258 1.3252264 -0.54348177 1
1.730158 1.1780226 0.10969618 100
1.7185514 1.17012 -0.40413347 100
1.7228497 1.1726078 0.1823298 100
1.7197747 1.1700746 -0.32945102 100
1.7333623 1.1788766 0.25738806 100
1.717151 1.1674142 -0.25495067 100
1.7187531 1.1680635 0.32913816 100
1.7137814 1.1646847 -0.18128395 100
5.4386492 3.6947153 1.2780387 2
1.7266388 1.1725419 -0.10938216 100
1.7192266 1.1666317 -0.0362661 100
5.2534723 3.5635593 1.7009588 4
1.8848796 1.2752006 -0.60977769 32
1.7194004 1.1628097 0.036231197 100
1.850145 1.2507588 -0.51558781 14
1.7359138 1.1730946 0.10980085 100
1.7226251 1.1641145 -0.40413347 100
1.7351875 1.1721627 0.18320136 100
1.7156632 1.1585363 -0.3278867 100
1.7275947 1.1661556 0.25592566 100
1.721216 1.1614126 -0.25495067 100
1.7260956 1.1642656 0.32976389 100
1.7277472 1.1653796 -0.1823298 100
5.4743013 3.6910751 1.2833813 2
1.7274086 1.1642755 -0.10917282 100
1.7199709 1.1583896 -0.036196291 100
5.3716455 3.6164067 1.735123 4
1.8893198 1.2686129 -0.60977769 30
1.7267699 1.1590291 0.036301006 100
1.8577353 1.2464657 -0.5164876 38
1.7383399 1.1659151 0.10969618 100
1.7266785 1.1580938 -0.40413347 98
1.7425787 1.1683173 0.18355 100
1.7262597 1.1569408 -0.32913816 100
1.7267076 1.1568031 0.25519443 100
1.7104156 1.1454558 -0.25275704 100
1.7301483 1.1582346 0.32976389 100
1.7301483 1.1582346 -0.1821555 100
5.4186249 3.6260843 1.2673534 2
1.7281421 1.1560171 -0.10896347 100
1.7289917 1.155712 -0.036301006 100
5.4452758 3.6384172 1.7547932 4
1.8776611 1.2512966 -0.60460132 3
1.7374618 1.1574293 0.036440626 100
1.8588313 1.2378126 -0.51558781 23
1.7355467 1.1557164 0.10927749 100
1.7388823 1.1574985 -0.40604156 35
1.7532811 1.1666428 0.18424724 100
1.7352223 1.1541896 -0.33007675 100
1.7423065 1.1584619 0.25690058 100
1.7210162 1.1438739 -0.253732 100
1.7208188 1.1437427 0.32726091 100
1.7424785 1.1577005 -0.18302706 100
5.2709785 3.5007019 1.2299548 1
1.7354946 1.1521876 -0.10917282 100
1.7228175 1.143338 -0.036091577 100
5.3929186 3.5776207 1.7340877 4
2.7440703 1.8148847 -0.88153768 7
1.744626 1.1538681 0.036510434 100
1.8564237 1.2273425 -0.51378822 1
1.7429025 1.1518539 0.10948683 100
1.7423799 1.1506337 0.18267845 100
1.7373922 1.1473399 -0.32976389 100
1.747795 1.1537718 0.25714433 100
1.7264565 1.1392542 -0.25397575 100
1.7445884 1.1507809 0.33101538 100
1.731539 1.1417396 -0.18145825 100
5.2530551 3.4637516 1.2230858 1
1.7409734 1.1475255 -0.10927749 100
1.7234584 1.1351171 -0.036021769 100
5.2375631 3.4482961 1.6802533 1
2.7452292 1.8025931 -0.8799848 9
1.7352695 1.1389924 0.036231197 100
3.0191498 1.9809511 -0.83366859 6
1.7535934 1.1501441 0.10990552 100
1.8501447 1.2134701 -0.43008351 2
1.7461857 1.1448499 0.18267845 100
1.7314733 1.1347719 -0.3278867 100
1.7518115 1.1476642 0.25714433 100
1.7304231 1.1332203 -0.25397575 100
1.7535529 1.1479305 0.331954 100
1.7305125 1.132416 -0.18093532 100
5.1862597 3.3937945 1.2047681 1
1.7483114 1.1436276 -0.10948683 100
1.7324314 1.1323767 -0.036126483 100
5.1784105 3.3834972 1.6574773 1
2.7631485 1.799901 -0.88360828 7
1.7392346 1.1329286 0.036231197 100
3.004817 1.9565759 -0.82781988 6
1.75425 1.1418364 0.10969618 100
1.8529339 1.2056105 -0.42970186 2
1.7537103 1.140615 0.18302706 100
1.7389334 1.1305712 -0.32851243 100
1.747486 1.1361316 0.25592566 100
1.7426904 1.1325823 -0.25519443 100
1.7409837 1.131041 0.32882527 100
1.7428098 1.1317936 -0.18180689 100
5.2019563 3.3769021 1.2055314 3
1.7407629 1.129602 -0.10875413 100
5.1957335 3.3702817 1.4297889 1
1.7414069 1.1295868 -0.036231197 100
5.144803 3.335973 1.6429834 1
2.7775271 1.7954879 -0.88619649 9
1.7433757 1.126546 0.036231197 100
3.0136056 1.946606 -0.82826978 6
1.7550671 1.1332327 0.10948683 100
1.8620793 1.2023296 -0.43084675 1
1.7576814 1.134486 0.18302706 100
1.742869 1.1244947 -0.32851243 100
1.7466334 1.1264918 0.25519443 100
1.7384878 1.1208087 -0.25397575 100
1.7600617 1.1342827 0.33164111 100
1.7519708 1.1286358 -0.1823298 100
5.225266 3.3661647 1.2082026 12
1.7430167 1.122437 -0.10864946 100
5.1861634 3.3384132 1.4239402 5
1.7354454 1.1167046 -0.036021769 100
5.1618705 3.3202276 1.6445363 3
2.7954724 1.7925961 -0.88981992 7
1.7641305 1.1312484 0.036580246 100
3.0220225 1.9371272 -0.82871968 6
1.7573308 1.1260215 0.10938216 100
1.8664733 1.195497 -0.43084675 1
1.7668611 1.1312594 0.18355 100
1.7469791 1.1180986 -0.32851243 100
1.762259 1.1278781 0.25690058 100
1.7440617 1.1158037 -0.25421947 100
1.7556894 1.122811 0.33007675 100
1.757579 1.1235861 -0.18250412 100
5.2557654 3.3586202 1.2124004 33
1.7471188 1.1160414 -0.10864946 100
5.2115049 3.3277717 1.4275393 13
1.7443893 1.1138681 -0.036126483 100
5.1848273 3.3094664 1.6481597 11
2.7880538 1.7755038 -0.88567883 7
1.754377 1.1168005 0.036301006 100
3.043227 1.9365098 -0.8327688 6
1.7644248 1.1223328 0.10959151 100
1.8801588 1.19595 -0.43313646 1
1.7552749 1.1160811 0.18198119 100
1.753817 1.1147244 -0.32913816 100
1.7626383 1.1198994 0.25641313 100
1.7427254 1.1068208 -0.25348827 100
1.7627388 1.1190999 0.33070248 100
1.7476434 1.1095163 -0.18110962 100
5.2281661 3.3178959 1.2036232 52
1.7573626 1.1148262 -0.10906815 100
5.2169957 3.308253 1.4261897 30
1.746384 1.107007 -0.036091577 100
5.1892462 3.2881169 1.6460892 30
2.7942348 1.7657602 -0.88567883 7
1.751502 1.1063986 0.036161385 100
3.0466723 1.9237951 -0.83186901 6
1.7700212 1.1172326 0.10969618 100
1.9142058 1.2082416 -0.44000554 1
1.7574748 1.1088846 0.18180689 100
1.7460016 1.1012195 -0.32694808 100
1.7698948 1.1158576 0.25690058 100
1.7549752 1.1060232 -0.25470695 100
1.7683057 1.1139932 0.33101538 100
1.7498199 1.1023476 -0.18093532 100
5.2247639 3.2902114 1.2001886 84
1.7680041 1.1129413 -0.10948683 100
5.1988244 3.2713394 1.4180914 73
1.7553154 1.1040987 -0.036196291 100
5.1679845 3.2494161 1.6357363 43
2.8134756 1.7642055 -0.88981992 7
1.7553532 1.1002783 0.036161385 100
3.0434613 1.9069395 -0.82916957 6
1.7705251 1.1089264 0.10948683 100
1.8851351 1.1807097 -0.4323732 1
1.7714669 1.1090871 0.18285275 100
1.7464863 1.0930218 -0.32632235 70
1.7636821 1.1033553 0.25543818 100
1.7537756 1.0967331 -0.25397575 100
1.7604582 1.1004837 0.32882527 47
1.7587255 1.0994005 -0.18145825 100
5.2312236 3.2688313 1.1990438 78
1.7583264 1.0982989 -0.10864946 100
5.211864 3.254205 1.4185413 80
1.7574627 1.0969055 -0.036161385 100
5.1727376 3.2272694 1.6336659 75
2.8130553 1.7502921 -0.88774931 7
1.7625797 1.096256 0.036231197 100
3.0567186 1.9004205 -0.83096921 6
1.7675996 1.0985228 0.10906815 100
3.3666241 2.0922801 -0.77048677 1
1.7770203 1.1039478 0.18302706 100
1.7675227 1.0971925 0.25543818 100
1.7474731 1.0843244 -0.25251329 100
5.296226 3.2850771 0.98710161 68
1.7676321 1.0964049 -0.18198119 100
5.255949 3.2588282 1.2020967 91
1.760452 1.0911018 -0.10854478 100
5.2165661 3.2318859 1.4167417 80
1.7663809 1.0939232 -0.0362661 100
5.1839719 3.2091923 1.6336659 93
2.8257236 1.7445207 -0.88981992 7
1.7732027 1.0942971 0.036370814 100
3.0666506 1.891786 -0.83186901 6
1.7729323 1.0937041 0.10917282 100
3.3688943 2.0774233 -0.76934189 4
1.7791672 1.0966921 0.18285275 100
3.7183678 2.291137 -0.69175333 2
1.7730323 1.0920566 0.2556819 100
1.7628912 1.0858104 -0.25421947 100
5.3104534 3.269568 0.98772728 87
1.7663574 1.0870963 -0.18145825 100
5.2789989 3.2476614 1.2047681 80
1.7710553 1.0891343 -0.10896347 100
5.2305741 3.2166121 1.4176416 73
1.7580738 1.0807294 -0.036021769 100
5.2094002 3.2010853 1.6383246 91
2.8281984 1.7331223 -0.88878465 7
1.776821 1.088412 0.036370814 100
3.0828793 1.887711 -0.83456844 6
1.7799563 1.0899043 0.10938216 100
3.3791134 2.0682909 -0.77010518 4
1.7776949 1.0876679 0.1823298 100
3.7259457 2.2787929 -0.69175333 2
1.7851119 1.0913485 0.25690058 100
1.7664819 1.0799589 -0.25421947 100
5.3330665 3.2591491 0.9899174 90
1.7631521 1.0770779 -0.18076101 100
5.2997918 3.2362776 1.2070577 87
1.7780674 1.0853362 -0.10917282 100
5.2545199 3.2073703 1.4212408 80
1.7565269 1.0717683 -0.035917051 100
5.2183366 3.1827874 1.6378069 97
2.8306293 1.7217255 -0.88774931 7
1.7701689 1.0762802 0.036161385 100
3.0957828 1.8815266 -0.83636802 6
1.7871641 1.085758 0.10959151 100
3.3963807 2.062598 -0.7723949 4
1.7812923 1.0817662 0.1823298 100
3.730104 2.2643752 -0.69112754 2
1.7887214 1.0854224 0.25690058 100
1.7702407 1.0737865 -0.25421947 100
5.3460975 3.2415414 0.99023032 80
1.770309 1.0729817 -0.18110962 100
5.3060184 3.2147074 1.2059129 84
1.7818443 1.0791241 -0.10917282 100
5.2790165 3.1970885 1.42484 80
1.7705218 1.0718436 -0.036126483 100
5.2277632 3.1635516 1.6372893 90
2.8501539 1.7193227 -0.89189047 7
1.7741021 1.0697845 0.036161385 100
3.1026578 1.8701681 -0.83636802 6
1.7911313 1.0792007 0.10959151 100
3.402236 2.0491219 -0.77201319 4
1.7903656 1.0783136 0.18285275 100
3.7383776 2.250689 -0.69112754 2
1.7824824 1.072718 0.25543818 100
1.7775667 1.0693371 -0.25470695 100
5.3816419 3.2361779 0.99461043 99
1.7810601 1.0705922 -0.18180689 100
5.3261805 3.2002926 1.207821 87
1.7755142 1.0664161 -0.10854478 100
5.2973804 3.1817331 1.4266397 80
1.7778668 1.0674059 -0.036196291 100
5.252574 3.1523237 1.6414305 88
2.8597517 1.710849 -0.89292574 7
1.7848758 1.0673805 0.036301006 100
3.0927663 1.8487825 -0.83186901 6
1.7899312 1.0695558 0.10927749 100
3.4093678 2.0372343 -0.77201319 4
1.7977265 1.073788 0.18320136 100
3.7567799 2.2430453 -0.69300479 2
1.7829926 1.0641433 0.25495067 100
1.7712452 1.0567129 -0.25324452 100
5.3832898 3.210357 0.99273324 78
1.7813641 1.0623271 -0.18145825 100
5.3474369 3.1877143 1.2101108 87
1.7775104 1.0591892 -0.10844011 100
5.3090091 3.1622922 1.4266397 80
1.7852035 1.0629292 -0.0362661 100
5.2723918 3.1379921 1.6440187 97
2.8690293 1.7028276 -0.89396101 7
1.7920307 1.0631839 0.036370814 100
3.1176372 1.8489122 -0.83681792 5
1.795372 1.0643191 0.10938216 100
3.4249032 2.0303259 -0.77392131 4
1.8014641 1.0675058 0.18320136 100
3.7628853 2.2289138 -0.69269186 5
1.7901131 1.0599355 0.25543818 100
1.7783399 1.0525453 -0.253732 100
5.4114623 3.2016084 0.99586189 87
1.7884904 1.0581328 -0.18180689 100
5.3703609 3.1760228 1.212782 84
1.7897935 1.0580595 -0.10896347 100
5.3300805 3.1496902 1.4293389 80
1.7785724 1.0505884 -0.036056671 100
5.2916317 3.1244786 1.6466069 91
2.8649671 1.6869218 -0.89085519 7
1.7957307 1.0569226 0.036370814 100
3.1274319 1.8399938 -0.83771771 6
1.799076 1.058046 0.10938216 100
3.4218149 2.0123873 -0.7716316 4
1.798309 1.0571727 0.18250412 100
3.7621281 2.2107604 -0.69112754 2
1.8006488 1.0577016 0.25641313 100
1.7854266 1.0483421 -0.25421947 98
5.4260135 3.1846981 0.99648768 95
1.7853001 1.0478488 -0.18110962 100
5.3881888 3.1612301 1.2143085 91
1.7969215 1.0538267 -0.10917282 100
5.3444037 3.133038 1.4302388 80
1.7770534 1.0413402 -0.035951961 100
5.302505 3.1059895 1.6466069 88
2.8675017 1.6749628 -0.88981992 7
1.7821406 1.0405644 0.036021769 100
3.1254199 1.824155 -0.83546823 6
1.8010329 1.0507536 0.10927749 100
3.438993 2.0063677 -0.77392131 4
1.7968249 1.0478772 0.18198119 100
3.7681153 2.1966207 -0.69081473 2
1.8111902 1.0554078 0.25738806 100
5.4268532 3.1597753 0.99461043 80
1.7889467 1.041611 -0.18110962 100
5.3924026 3.1384532 1.212782 84
1.8023158 1.0485517 -0.10927749 100
5.3738394 3.1251383 1.4351877 76
1.7858635 1.038146 -0.036056671 100
5.3199973 3.0913424 1.6486773 90
2.8867035 1.6726907 -0.89396101 7
1.7892224 1.0363419 0.036091577 100
3.1334553 1.8142097 -0.83591807 6
1.8116047 1.0484618 0.10969618 100
3.447675 1.9953336 -0.7743029 4
1.8056456 1.0445923 0.18250412 100
3.7894409 2.1913643 -0.69331765 2
1.7976768 1.039145 0.25495067 100
5.4686408 3.1585953 1.0002421 87
1.7960224 1.0373524 -0.18145825 100
5.4135265 3.1255023 1.2150718 90
1.7938557 1.0352662 -0.10854478 100
5.3897786 3.1092837 1.4365374 80
1.7981381 1.0369011 -0.036231197 100
5.3491654 3.0833666 1.6543714 84
2.9042485 1.6693437 -0.8975845 7
1.7962972 1.0320822 0.036161385 100
3.1330099 1.7993778 -0.83411849 6
1.8083247 1.0381545 0.10927749 100
3.458024 1.9852425 -0.7750662 5
1.8179214 1.0432409 0.18337567 100
3.7919269 2.1751733 -0.692379 2
1.799571 1.0318766 0.25470695 100
4.2591248 2.4411979 -0.6027658 2
5.4899178 3.1453774 1.0021193 87
1.8030906 1.0330575 -0.18180689 100
5.4346242 3.1124415 1.2173615 90
1.7974588 1.0289977 -0.10854478 100
5.3972173 3.0885139 1.4356377 80
1.8000103 1.0296255 -0.036196291 100
5.3682823 3.069469 1.6569597 88
2.9033453 1.6553675 -0.89551395 7
1.8103127 1.031747 0.036370814 100
3.1545105 1.7971129 -0.83816761 6
1.8100222 1.031163 0.10917282 100
3.4581094 1.9692727 -0.77353972 4
1.8180888 1.034918 0.18302706 100
3.8200991 2.1736479 -0.69613349 2
1.8169664 1.0334396 0.25665686 64
4.2382832 2.4096377 -0.59862226 1
5.5020347 3.1281323 1.0024322 80
1.8032209 1.0247886 -0.18145825 100
5.4591126 3.1012087 1.2204144 90
1.8079865 1.0266623 -0.10896347 100
5.4164386 3.074466 1.4378871 84
1.7947201 1.0187147 -0.036021769 100
5.3935528 3.0602312 1.6616182 84
2.907424 1.6442726 -0.89499629 7
1.8137239 1.0257384 0.036370814 100
3.1706309 1.792397 -0.84086704 6
1.8153498 1.0258206 0.10927749 100
3.4666712 1.9581559 -0.77392131 4
1.8060753 1.0197494 0.18145825 100
3.8376067 2.1667962 -0.69801068 2
5.5683336 3.1427171 0.7850824 43
4.2600827 2.4033718 -0.60057223 1
5.5129199 3.1089089 1.0024322 85
1.8085229 1.0194659 -0.18163256 100
5.4813395 3.0898356 1.2230858 86
1.8096415 1.0196804 -0.1088588 100
5.441885 3.0650959 1.4419363 80
1.7947801 1.0104811 -0.035951961 100
5.400836 3.0394893 1.660583 86
2.9128604 1.6346227 -0.89499629 7
1.8068293 1.0135307 0.036161385 100
3.1666701 1.7755991 -0.83816761 6
1.8257098 1.0237027 0.10969618 100
3.481708 1.9514493 -0.77582937 4
1.8094473 1.0137541 0.18145825 100
3.8279121 2.143734 -0.69488198 2
5.5792675 3.1232648 0.7850824 56
4.2926979 2.4020586 -0.60398453 1
5.5352669 3.0973613 1.0046222 77
1.8014604 1.0076277 -0.1805867 100
5.4955168 3.0726035 1.2238491 86
1.8201635 1.0172551 -0.10927749 100
5.4678636 3.0546339 1.4459854 82
1.8016126 1.0064749 -0.036021769 100
5.4125719 3.0225058 1.6611006 88
2.9253008 1.6282023 -0.89706683 7
1.8066857 1.0055888 0.036091577 100
3.17765 1.7679298 -0.8395173 5
1.8292719 1.017324 0.10969618 100
3.4970789 1.9440525 -0.7777375 4
1.8199418 1.0113025 0.1821555 100
3.8350005 2.1310272 -0.69488198 2
5.5861244 3.1028168 0.78459489 60
4.2798133 2.3762479 -0.60105962 1
5.5598636 3.0856876 1.0071251 77
1.8101931 1.0042334 -0.18110962 100
5.5108261 3.0572181 1.2249938 84
1.8147931 1.006371 -0.10875413 100
5.4830766 3.0393176 1.4473351 80
1.8226061 1.009872 -0.036370814 100
5.4366078 3.0110831 1.6652418 78
2.9340668 1.6203598 -0.89810216 7
1.8276916 1.0089399 0.036440626 100
3.1838007 1.7568291 -0.8395173 6
1.8258165 1.0070734 0.10927749 100
3.5121021 1.937185 -0.77964556 4
1.8302641 1.00911 0.18285275 100
3.8493347 2.1214442 -0.69613349 2
5.6108322 3.09096 0.7865448 60
4.2950377 2.365123 -0.60203457 1
5.5844431 3.0738859 1.0096282 77
1.8067055 0.99406618 -0.1804124 100
5.5335064 3.0445867 1.2276652 82
1.8200454 1.0009922 -0.1088588 100
5.4902349 3.0182858 1.4464353 80
1.8121002 0.99579871 -0.036091577 100
5.4657116 3.0023167 1.6709359 84
2.9365966 1.6077402 -0.89706683 7
1.8206782 0.99679255 0.036231197 100
3.2018807 1.7522529 -0.84266669 6
1.829321 1.0006934 0.10927749 100
3.5053983 1.9167653 -0.77659267 4
1.8391949 1.005262 0.18337567 100
3.8605525 2.1092129 -0.69675916 4
5.6372662 3.0799203 0.78873843 74
4.2858443 2.3406024 -0.59959722 1
5.5968733 3.0553186 1.009941 75
5.5532451 3.0289867 1.2295732 76
1.8254551 0.99527097 -0.10896347 100
5.5166631 3.006532 1.4504844 75
1.8138093 0.98850977 -0.036056671 100
5.4795508 2.9850693 1.6719712 93
2.9421911 1.5974789 -0.89706683 7
1.8313493 0.99392855 0.036370814 100
3.2117071 1.7423649 -0.84356648 6
1.8328023 0.99430311 0.10927749 100
3.5241487 1.9110677 -0.77926397 4
1.8269281 0.99029112 0.18180689 100
3.8852582 2.1051371 -0.69988787 2
5.6642256 3.0677474 0.79093212 66
4.3258176 2.3418884 -0.60398453 1
5.6127162 3.038583 1.0108796 100
5.5775995 3.0170548 1.2326262 90
1.8324323 0.99079239 -0.10917282 100
5.5391226 2.9937463 1.4536338 80
1.8172481 0.98217362 -0.036056671 100
5.4933376 2.9677589 1.6730064 84
2.9409444 1.5835376 -0.89499629 7
1.8240708 0.98216224 0.036161385 100
3.2174678 1.731704 -0.84356648 6
1.8432977 0.99168402 0.10969618 100
3.5273397 1.8968956 -0.7785008 4
1.830374 0.98390746 0.18180689 100
3.8748193 2.0828876 -0.69675916 2
5.6638751 3.0433109 0.78946966 14
4.3475499 2.3350458 -0.60593444 1
5.6285095 3.0217769 1.0118183 67
4.8839984 2.6209733 -0.48493454 1
5.5979524 3.0041132 1.2349159 100
1.8357077 0.98471075 -0.10917282 100
5.5558901 2.9790435 1.4554334 80
1.8206657 0.97582376 -0.036056671 100
5.5121784 2.9531255 1.6755946 91
2.9632199 1.5828778 -0.90017265 7
1.8274884 0.97578859 0.036161385 100
3.2097397 1.7131209 -0.83996725 6
1.8501003 0.98744625 0.10990552 100
3.5474677 1.8925817 -0.78155369 4
1.8336265 0.97783267 0.18180689 100
3.913444 2.0860741 -0.70239085 2
5.6762152 3.0244565 0.78971344 13
4.3486652 2.316124 -0.60495949 1
5.6350117 3.0012395 1.0111924 22
4.9208026 2.6197424 -0.48772353 1
5.5980053 2.9790218 1.2326262 56
1.8320802 0.97454542 -0.10875413 100
5.5783005 2.9660344 1.4585826 91
1.8274235 0.97165811 -0.036126483 100
5.537292 2.9429939 1.6802533 97
2.9857988 1.5815666 -0.90534908 7
1.8342487 0.97159463 0.036231197 100
3.2171249 1.70338 -0.84041709 6
1.842944 0.9753769 0.10927749 100
3.5471115 1.876514 -0.78002721 4
1.8475966 0.97701395 0.18285275 100
3.9203398 2.073086 -0.70239085 2
5.689724 3.0074706 0.79020089 14
4.3422813 2.2942705 -0.60300958 1
5.6472006 2.9824722 1.0115054 20
4.9757271 2.6267345 -0.49225563 1
5.6043816 2.9586072 1.2318629 20
1.8353021 0.96846414 -0.10875413 100
5.5725918 2.9393382 1.4545335 46
1.841417 0.97086936 -0.036335908 100
5.556077 2.928149 1.6828415 100
2.9847336 1.5670211 -0.90327853 7
1.8415068 0.96640331 0.036301006 100
3.2288191 1.6937296 -0.84176683 4
1.8449064 0.96736628 0.10917282 100
3.550487 1.8616779 -0.77926397 4
1.8546942 0.97208577 0.18320136 100
3.9352705 2.0616834 -0.70364231 2
5.7152982 2.9929702 0.7921508 13
4.365128 2.2849464 -0.60495949 1
5.6638627 2.9635124 1.0124439 17
4.9464841 2.5881574 -0.48842075 1
5.6209188 2.9397972 1.2330078 18
1.8478569 0.96603703 -0.10927749 100
5.5855651 2.9188209 1.4549835 16
1.8362688 0.95916301 -0.036161385 100
5.54673 2.8960626 1.6766298 24
2.9833314 1.5530238 -0.90120792 7
1.8484167 0.96181589 0.036370814 100
3.2468138 1.6887439 -0.84491616 5
1.8571328 0.96552652 0.10969618 100
3.5674164 1.8547059 -0.78155369 4
1.8474686 0.9600938 0.1821555 97
3.9494548 2.0515776 -0.70489377 2
5.7345195 2.9775739 0.79336947 13
4.3942208 2.2806678 -0.60788435 1
5.6794324 2.946454 1.0133826 20
4.9660993 2.5763814 -0.48946664 1
5.6485758 2.9291949 1.236824 20
1.8476716 0.95774221 -0.10906815 100
5.609561 2.9064789 1.4585826 16
1.8431575 0.95458627 -0.036231197 100
5.5550895 2.8757966 1.6761122 18
2.9853005 1.5408292 -0.90017265 7
1.8464317 0.9526068 0.0362661 100
3.2630801 1.6827599 -0.84761554 6
1.8604916 0.95903844 0.10969618 100
3.5686331 1.8395441 -0.7804088 4
1.8508091 0.95363855 0.1821555 71
3.9249809 2.0214992 -0.69926214 2
5.7607627 2.9657176 0.79556316 13
4.409215 2.2689493 -0.6088593 1
5.7019796 2.9329345 1.0155727 17
4.9715195 2.5572069 -0.48911804 1
5.6622577 2.9112566 1.2375872 16
1.8581088 0.95493889 -0.10948683 100
5.6248732 2.88955 1.4599323 16
1.8535941 0.95179981 -0.036370814 100
5.5788431 2.8634465 1.6802533 18
3.0009799 1.5356786 -0.90327853 7
1.8479656 0.94524467 0.036231197 100
3.2602582 1.6669244 -0.84536606 6
1.867385 0.9543556 0.10990552 100
3.5907667 1.835116 -0.7838434 4
1.8629981 0.95170361 0.18302706 12
3.9601617 2.0221605 -0.70426804 2
5.7710805 2.9455891 0.79556316 11
4.417109 2.2535434 -0.6088593 2
5.7227397 2.9184017 1.0174499 17
4.9946132 2.5470819 -0.49051252 1
5.6741352 2.8923638 1.2379688 16
1.854313 0.94481969 -0.10906815 24
5.6488156 2.8769772 1.4635316 20
1.8551228 0.94441682 -0.036335908 100
5.5939703 2.8465822 1.6818062 18
3.0097673 1.5269426 -0.9043138 7
1.8583875 0.94240636 0.036370814 100
3.2625811 1.6537708 -0.84446627 6
1.8635787 0.94422007 0.10948683 100
3.597151 1.8225697 -0.7838434 4
5.8353252 2.9553101 0.57226461 13
3.9777713 2.0136766 -0.70614529 4
5.7848711 2.9272175 0.79605067 11
4.4320335 2.2416956 -0.60983425 2
5.7487588 2.9064276 1.0202657 20
5.0603724 2.5583968 -0.4960905 2
5.6929588 2.8769658 1.2398769 16
5.6588244 2.85724 1.4635316 18
1.8601937 0.93883604 -0.036370814 100
5.6228452 2.836611 1.6875002 20
3.0133529 1.5155599 -0.90379614 7
1.8688124 0.93950582 0.036510434 100
3.2665932 1.6414962 -0.84401631 5
1.8632931 0.93591756 0.10927749 100
3.5999806 1.8082422 -0.78308016 4
5.8634119 2.943861 0.57400775 13
3.9953697 2.0050945 -0.70802242 2
5.8145695 2.9168015 0.79873174 11
4.4398317 2.2262101 -0.60983425 1
5.7606354 2.8872263 1.0205785 20
5.0300865 2.521076 -0.49225563 1
5.7275391 2.8693914 1.2452196 16
5.9469061 2.9779885 -0.3485575 1
5.6722493 2.8392124 1.4644314 18
1.8545171 0.92786455 -0.036196291 100
5.6413517 2.821285 1.6900884 18
3.0238121 1.5076172 -0.90534908 7
1.8685004 0.93119413 0.036440626 100
3.2827687 1.635298 -0.84671575 5
1.880852 0.93652916 0.11011487 100
3.616816 1.8009145 -0.78536987 4
5.8772173 2.9251554 0.57435632 13
4.0129557 1.996416 -0.70989966 2
5.8389359 2.9035566 0.80068165 11
4.4689078 2.2213006 -0.61275911 1
5.7689095 2.8662229 1.0202657 17
5.0674043 2.5176873 -0.49504462 2
5.744554 2.8528724 1.2467461 18
5.9930453 2.9749713 -0.35065094 1
5.7013278 2.8289249 1.4693804 18
1.8577448 0.92138493 -0.036196291 100
5.649436 2.8007164 1.6895708 20
3.0307877 1.4979095 -0.90586674 6
1.8681543 0.9228943 0.036370814 100
3.3024361 1.6307307 -0.85031497 6
1.8769456 0.92642254 0.10969618 100
3.6336432 1.793493 -0.78765959 4
5.896327 2.9090285 0.57522792 16
4.0163574 1.9806474 -0.70927399 2
5.8614984 2.889302 0.80238777 11
4.4873166 2.2109549 -0.61422157 1
5.7966013 2.8547943 1.0233943 15
5.1047606 2.5140667 -0.49783361 2
5.7579999 2.8345382 1.2475092 16
6.0105596 2.9575648 -0.35106963 1
5.7251577 2.8158853 1.4729795 18
1.8609501 0.91489404 -0.036196291 100
5.6713128 2.7869473 1.6931943 18
3.0359983 1.4873202 -0.90586674 6
1.8641808 0.91284943 0.036231197 100
3.3063567 1.6183386 -0.84986508 6
1.8782132 0.91931552 0.10959151 100
3.6310642 1.7764833 -0.78575146 4
5.9207649 2.8954294 0.57662237 15
4.0161462 1.9631485 -0.70802242 2
5.8715491 2.8688223 0.80238777 11
4.5128455 2.2039881 -0.61665893 1
5.8255606 2.845093 1.0268359 17
5.0884371 2.4839993 -0.49539325 2
5.7731528 2.817003 1.2486541 15
5.9777646 2.9155514 -0.3485575 1
5.7489648 2.8027165 1.4765787 18
1.8711632 0.9122234 -0.036335908 100
5.7013636 2.7782788 1.6994059 18
3.0515985 1.4817758 -0.9089725 7
1.8707955 0.90840888 0.036301006 100
3.2924209 1.5980047 -0.84491616 5
1.8796141 0.91188145 0.10948683 100
3.64431 1.7672234 -0.787278 4
5.9397998 2.879091 0.57749397 13
4.0404105 1.9584345 -0.71115112 4
5.888176 2.8527994 0.80336279 13
4.5058365 2.1820877 -0.61470902 1
5.8461237 2.829906 1.0287131 20
5.1221862 2.47837 -0.49783361 2
5.8054361 2.8089604 1.2536151 18
6.0179672 2.9104939 -0.35033691 1
5.745945 2.7777007 1.4734293 14
1.8815382 0.90916681 -0.036475532 100
5.7232041 2.76424 1.7030294 18
3.0495324 1.468298 -0.90690196 6
1.8811619 0.90534306 0.036440626 100
3.3102722 1.5924147 -0.8480655 6
1.879186 0.90358335 0.10927749 100
3.6483803 1.7542785 -0.78689629 4
5.9726586 2.870599 0.57976002 15
4.0810533 1.9605705 -0.71709567 1
5.9159932 2.8408196 0.8058002 13
4.5205841 2.1697829 -0.61568397 2
5.8595295 2.8111897 1.029339 17
5.1411557 2.4665399 -0.49887949 2
5.8346796 2.7980151 1.257813 20
6.0533037 2.9015567 -0.35180232 1
5.7731814 2.7660453 1.4779284 18
1.8666652 0.89395571 -0.036126483 97
5.7345605 2.7450807 1.703547 14
3.0581262 1.4593073 -0.90793723 6
1.8843108 0.89877057 0.036440626 100
3.3140509 1.5800121 -0.84761554 5
1.8823284 0.89701861 0.10927749 100
3.6597981 1.7440671 -0.78804117 4
5.9790454 2.8480179 0.57941139 15
4.1235423 1.9632974 -0.72335303 1
5.9437976 2.8286831 0.80823755 11
4.5173745 2.1488745 -0.61422157 1
5.8871469 2.7991996 1.0324676 17
5.1317415 2.4400222 -0.49713635 2
5.84973 2.7801607 1.2589579 18
6.0092735 2.8547003 -0.34866217 1
5.7968855 2.752562 1.4815277 18
1.8571281 0.88143277 -0.035882145 25
5.7615609 2.7333281 1.7087234 20
3.0562165 1.4453192 -0.90586674 6
1.8802052 0.88876975 0.036301006 100
3.3442135 1.58009 -0.8539142 5
1.8944782 0.89470667 0.10980085 100
3.6747406 1.7354724 -0.7899493 4
6.0051656 2.8347859 0.58098018 13
4.1017866 1.9354032 -0.71834713 1
5.9715905 2.8163846 0.81067497 11
4.5428033 2.1415584 -0.61665893 1
5.9076033 2.7836857 1.0343448 17
5.1222038 2.4136026 -0.49539325 2
5.8593998 2.7597227 1.2589579 18
6.0192013 2.8337078 -0.34866217 1
5.8258538 2.7414386 1.4864765 18
6.1849637 2.9091051 -0.11930466 80
5.7780609 2.7164862 1.710794 18
3.0717382 1.4395616 -0.9089725 7
1.8832963 0.88220066 0.036301006 100
3.3426495 1.5651006 -0.85211456 5
1.9030166 0.89062852 0.11011487 98
3.6878884 1.7259641 -0.79147577 4
6.027658 2.8197145 0.58220035 16
4.1478848 1.939482 -0.72523028 1
5.9813848 2.7955241 0.81067497 13
4.3020563 2.0097404 -0.58302301 2
5.9459214 2.7764211 1.0393507 17
5.238914 2.4462872 -0.50585192 2
5.8778915 2.7434056 1.2608659 18
5.8442178 2.7252049 1.4887261 18
6.2331424 2.9052393 -0.12003765 95
5.8085213 2.7060916 1.7170056 18
3.0872579 1.4337118 -0.91207838 7
1.8936195 0.87898862 0.036440626 100
3.3410213 1.550143 -0.85031497 5
1.8952427 0.87893808 0.10948683 79
3.6974533 1.7147316 -0.79223901 4
6.0537333 2.8061967 0.58376914 14
4.1904764 1.9416014 -0.73148763 1
5.9911075 2.7746265 0.81067497 11
4.2387896 1.9621874 -0.5735172 9
5.9609537 2.7581387 1.0402893 17
4.2203579 1.9527633 -0.40684301 3
5.9123797 2.7344072 1.2662085 18
6.0388389 2.7916141 -0.34866217 1
5.8519254 2.7039721 1.4882761 18
6.2396159 2.8817856 -0.11996785 85
5.823195 2.6882272 1.7185585 18
3.0922425 1.4229286 -0.91207838 7
1.9039433 0.87571615 0.036580246 100
3.3605771 1.5449824 -0.8539142 5
6.1649346 2.8329468 0.35557052 37
3.6998479 1.7001758 -0.79147577 4
6.1196179 2.8108292 0.58917278 45
4.1756859 1.9170706 -0.72773325 1
6.0260139 2.7652888 0.81408727 11
4.2239604 1.9374489 -0.57059228 9
5.9669552 2.7356663 1.0396636 17
4.2217159 1.9355274 -0.40632007 10
5.9361663 2.7202969 1.2692615 16
4.2109208 1.9288 -0.24273418 3
5.875504 2.6900167 1.4918754 18
6.2532725 2.8616531 -0.12003765 65
5.8501101 2.6759212 1.7237349 18
3.0954332 1.4113237 -0.91156071 7
1.9033493 0.86740577 0.036510434 100
3.3677225 1.5340508 -0.8543641 6
6.2020512 2.8238256 0.3571406 58
3.7164805 1.6921326 -0.79376549 4
6.1402736 2.7944007 0.59021866 87
4.1715631 1.8975765 -0.72585601 1
6.0771918 2.7631359 0.81969327 21
4.1909389 1.9046226 -0.56523001 9
5.9962521 2.7238061 1.0431051 17
4.1849108 1.9010017 -0.40213659 10
5.9456248 2.6995604 1.2692615 16
4.2048974 1.9083104 -0.24200147 10
5.9097042 2.6807599 1.4981741 18
5.8558965 2.6538875 1.7226996 18
3.0915387 1.3965327 -0.9089725 6
1.8990749 0.85746628 0.036370814 100
3.3872669 1.5286981 -0.85796332 6
6.2100511 2.8013363 0.35703593 63
3.7331026 1.6839919 -0.7960552 4
6.1554375 2.7754111 0.59074163 81
4.1583519 1.8740741 -0.72241443 5
6.1229992 2.7582104 0.82456803 55
4.1722198 1.8785747 -0.56181771 9
6.0363464 2.7166419 1.0484239 25
4.1660848 1.8749356 -0.39969626 10
5.9621744 2.6820099 1.270788 18
4.1823864 1.8805192 -0.24032672 10
5.9314675 2.6657081 1.5013233 18
4.1662569 1.8715167 -0.079722598 15
5.8721752 2.6365943 1.7247702 18
3.1105008 1.3920465 -0.91311359 7
1.9020567 0.85083157 0.036370814 100
3.3747928 1.5089099 -0.85346431 6
3.7479193 1.6749566 -0.79796326 4
6.1741838 2.7579691 0.59161317 78
4.1450276 1.8506875 -0.71897286 6
6.1289635 2.7352035 0.82408053 55
4.1569977 1.8542944 -0.55889291 10
6.0963101 2.7180762 1.0571842 70
4.1398497 1.8457766 -0.39655861 10
6.0235038 2.6843584 1.2818549 44
4.163383 1.8545299 -0.23886132 10
5.9549794 2.6513264 1.5049226 16
4.1435323 1.8439547 -0.079164118 14
5.8954616 2.6223655 1.7289113 18
3.1206396 1.3835286 -0.91466653 7
1.9031868 0.84337622 0.036335908 84
3.390729 1.5018581 -0.85616374 6
4.1566234 1.8402261 0.23823328 10
3.7591295 1.664247 -0.79910809 4
4.1315889 1.8274208 -0.71553135 13
6.1529994 2.7202127 0.82603049 60
4.1343942 1.8269339 -0.55499303 9
6.1256356 2.7055628 1.0606258 85
4.1207504 1.8200477 -0.39411828 10
6.0633702 2.6767936 1.2883424 85
4.1405954 1.8270836 -0.23718657 10
6.0105543 2.650974 1.5166199 40
4.1243277 1.8181857 -0.078675449 14
5.9222584 2.6095586 1.7340877 18
3.132524 1.3757364 -0.91673708 7
3.3977358 1.4907951 -0.85661358 6
4.138926 1.8160008 0.23687255 12
3.7523303 1.6455946 -0.79643679 4
4.1349416 1.8125316 0.39498982 11
4.1126122 1.8018881 -0.71115112 13
6.1588216 2.697124 0.82554299 11
4.1134677 1.8005518 -0.55133694 10
6.1291456 2.6828568 1.0596871 77
4.1088257 1.7976655 -0.39237517 10
6.0924644 2.6642632 1.2925402 95
4.1249866 1.8030211 -0.23593052 12
6.0429873 2.6401179 1.5224687 82
4.0973496 1.7900894 -0.078047164 15
5.9804521 2.6115508 1.7485816 48
3.1302218 1.3617102 -0.91466653 7
4.1093254 1.7876401 0.078221686 13
3.4223194 1.4880663 -0.86156255 6
4.1195951 1.7903978 0.23540714 12
3.7652535 1.635618 -0.79796326 4
4.1083474 1.7838027 0.39185223 12
4.0968223 1.7787986 -0.70739675 12
4.1191034 1.7876209 0.55133694 9
4.1012044 1.7790024 -0.54889959 10
6.1330361 2.6590865 1.0587486 15
4.0748577 1.7658819 -0.3885403 10
6.1030664 2.6448274 1.2929219 95
4.121779 1.7853637 -0.23540714 12
6.0445566 2.6169655 1.5206691 76
4.0742102 1.7630681 -0.077488683 14
5.9966221 2.5937312 1.7506521 76
3.1293981 1.3490273 -0.91311359 7
4.0806475 1.7582493 0.077558495 14
3.414964 1.4707162 -0.85841322 6
4.1053319 1.7680358 0.23425576 13
3.790493 1.6316605 -0.80216104 4
4.0922775 1.7607205 0.38976046 12
4.0667129 1.7488801 -0.70113939 11
4.105258 1.7646075 0.54865587 11
4.0818558 1.7537042 -0.54548723 10
4.0927324 1.7583772 0.7055195 12
4.0697064 1.7476432 -0.38749442 10
6.0978279 2.6173139 1.2898688 17
4.0912771 1.7552152 -0.23331371 12
6.0715642 2.6035316 1.5251682 80
4.0671687 1.744032 -0.077244349 15
6.021172 2.5806789 1.7553109 100
3.1411955 1.3411288 -0.9151842 6
4.0662265 1.7360694 0.077174544 13
3.4216142 1.4601492 -0.85886312 6
4.0765729 1.7388073 0.23226699 12
3.799778 1.6199582 -0.80292428 4
4.0745707 1.7362725 0.38749442 12
4.0470476 1.7245442 -0.69675916 11
4.0782123 1.7369833 0.54426849 11
4.0584254 1.7277167 -0.54158741 10
4.0733976 1.7332531 0.70113939 12
4.0464458 1.7209512 -0.38470542 10
4.0541205 1.7242153 0.85635084 12
4.0603142 1.7260102 -0.23122028 12
4.0658693 1.7266986 -0.077104732 15
6.0532613 2.5694566 1.76204 95
3.1636508 1.3376801 -0.92036057 7
4.0430903 1.7086999 0.076616064 14
3.4215579 1.4453228 -0.85751343 6
4.0534792 1.7114234 0.23059224 12
3.825304 1.6150852 -0.80712205 1
4.0585794 1.7127421 0.38540271 12
4.0296803 1.699718 -0.69269186 11
4.0516272 1.7081423 0.53988123 11
4.0354609 1.7004974 -0.5376876 10
4.0615182 1.7106429 0.69801068 12
4.0303955 1.6975346 -0.38261372 10
4.0423183 1.7017258 0.85253465 12
4.0371575 1.6987239 -0.22954552 11
4.0543389 1.7051207 1.0154291 12
4.0279284 1.6931859 -0.076267019 14
3.1629546 1.324391 -0.91880763 7
4.0398059 1.6907171 0.076441541 14
3.433773 1.4363794 -0.85931301 6
4.0465298 1.6918714 0.22985955 12
3.8454092 1.6077821 -0.81017506 1
4.0424738 1.6893448 0.38331094 12
4.0228291 1.6803128 -0.69050181 11
4.0410776 1.6871068 0.5376876 11
4.0157251 1.6756972 -0.53427523 10
4.032824 1.6820084 0.69206619 14
4.0087128 1.671952 -0.37999901 12
4.04461 1.6860932 0.85177141 12
4.0283146 1.6784748 -0.22870816 11
4.0386782 1.6819682 1.0100303 12
4.0061226 1.6675874 -0.075743444 14
4.0417166 1.6815761 1.1729679 12
3.1622045 1.3111229 -0.91725475 7
4.021668 1.6666517 0.075987779 13
3.4621716 1.4340783 -0.86516178 6
4.0228844 1.6655129 0.22818479 12
3.8509977 1.5943501 -0.81017506 1
4.0115261 1.659988 0.37982473 12
4.0031147 1.6556894 -0.68612164 10
4.0212588 1.6623741 0.53427523 10
4.0068722 1.6556058 -0.53232533 10
4.0094585 1.6558553 0.68706024 14
3.9850605 1.6457793 -0.37721002 11
4.0323234 1.6644747 0.84795523 13
4.0193777 1.6583099 -0.22787078 11
4.0247087 1.6596874 1.0050814 13
3.9952796 1.6467358 -0.075429298 14
4.0225544 1.6571565 1.1657211 17
3.1685495 1.3008097 -0.91777241 6
3.984911 1.6351445 0.075184964 14
3.4743679 1.424943 -0.86696136 6
4.0028019 1.6408535 0.22671939 12
3.863806 1.5838755 -0.81170154 1
3.987797 1.6338898 0.37703574 12
3.9796207 1.6297288 -0.68111575 11
4.0049911 1.6393024 0.53135037 11
3.9869053 1.631085 -0.52891296 11
3.9932725 1.6328787 0.6833058 14
3.9649627 1.6213025 -0.37476969 11
3.99631 1.6333066 0.83917803 13
3.9955592 1.6321839 -0.22619602 11
4.0088272 1.6367897 0.99968249 13
3.9750826 1.6222025 -0.074940629 14
3.9961171 1.6299708 1.1564035 16
3.183809 1.2941053 -0.92087817 7
3.9757731 1.6152042 0.074905731 14
3.45946 1.4047407 -0.86201245 6
4.0048041 1.6253679 0.22651003 12
3.8802264 1.5748074 -0.81399125 1
3.9860909 1.6169651 0.37633851 12
3.9486732 1.6009818 -0.67485833 10
3.972055 1.6096548 0.52623188 10
3.9815338 1.6126895 -0.52745056 11
3.980638 1.6115158 0.68017709 14
3.9558241 1.6014701 -0.37337521 11
3.9637697 1.6038817 0.83116406 13
3.9697549 1.6054995 -0.2244166 12
3.9928358 1.6140212 0.99428362 13
3.9640343 1.6015739 -0.07462649 14
3.9928246 1.6123978 1.1538154 16
3.1883066 1.2829845 -0.92087817 7
3.9628351 1.5938536 0.074556686 13
3.4769995 1.3977435 -0.86516178 6
3.9622681 1.592019 0.22378856 12
3.8674824 1.5539347 -0.81017506 1
3.980618 1.5985851 0.37529263 12
3.9359064 1.5798295 -0.67172968 11
3.9592252 1.5883894 0.52379447 11
3.9392347 1.5795714 -0.52111334 11
3.9679039 1.5902612 0.67704844 13
3.9428966 1.5802388 -0.3716321 11
3.9511189 1.582736 0.82734787 13
3.9475229 1.5804962 -0.22284654 11
3.9586427 1.5841446 0.98438585 13
3.9454637 1.5780739 -0.074172728 14
3.9786973 1.590561 1.1481214 15
3.1981499 1.2739913 -0.92243111 7
3.9386482 1.5681764 0.073998205 13
3.4818566 1.3856003 -0.86516178 6
3.9489684 1.5714869 0.22274184 13
3.8509927 1.5317171 -0.80559564 1
3.9528477 1.5714307 0.37215498 12
3.923038 1.5587893 -0.66860098 11
3.9499862 1.5686966 0.52184457 10
3.9225845 1.5570219 -0.51818854 11
3.9437788 1.5654346 0.67204249 13
3.9261642 1.5576518 -0.36954033 11
3.9511447 1.5667622 0.82620305 13
3.9437323 1.5630265 -0.22232316 12
3.9424059 1.5617069 0.97898698 13
3.928365 1.556145 -0.073753871 14
3.9516184 1.5645564 1.1388038 17
3.1971853 1.2606961 -0.92087817 7
3.9326649 1.5507063 0.073788777 13
3.5081887 1.3826199 -0.87056059 6
3.9246976 1.5459799 0.22106709 13
3.8800628 1.5276177 -0.81055665 2
3.9212289 1.5430326 0.36866876 13
3.9134805 1.5399836 -0.66609806 11
3.9440823 1.5512308 0.52038211 11
3.9092507 1.5367457 -0.51575112 11
3.9234791 1.5415463 0.66766238 13
3.9093232 1.5351969 -0.3674486 12
3.9307346 1.5436052 0.82086033 13
3.926584 1.5411822 -0.22106709 12
3.9294221 1.5415069 0.97448796 13
3.898401 1.5285523 -0.07309068 16
3.9390697 1.5437032 1.1336274 20
3.2067471 1.252194 -0.92243111 7
3.9119744 1.5267897 0.073300108 13
3.5129938 1.3703647 -0.87056059 6
3.918905 1.5279186 0.22043908 13
3.8796201 1.512602 -0.80941176 9
3.9096162 1.5235111 0.3671 15
3.8967445 1.5177096 -0.66234362 11
3.9198751 1.5259329 0.51648235 11
3.8960917 1.5158916 -0.51331371 12
3.9141083 1.5221128 0.66515946 13
3.8921106 1.5135584 -0.36535689 12
3.9049902 1.5177847 0.81437284 13
3.905875 1.5173439 -0.21960169 12
3.9256959 1.5242532 0.97223842 15
3.8925271 1.5105951 -0.072881252 16
3.9210188 1.5208648 1.1268982 22
3.2201087 1.2444741 -0.92501926 7
3.8892996 1.5023158 0.072776534 15
3.5050294 1.353183 -0.86741126 6
3.898128 1.5041625 0.21897365 13
3.8757188 1.4955155 -0.80750376 13
3.8926039 1.5012505 0.36500823 13
3.8725264 1.4927331 -0.65733767 12
3.8881307 1.4979666 0.51160759 11
3.8865395 1.4965746 -0.5113638 12
3.8935864 1.4985101 0.66077924 13
3.8657582 1.4878 -0.36239356 12
3.8901093 1.4963902 0.81017506 13
3.8850491 1.4936656 -0.2181363 12
3.9146214 1.5042509 0.96818936 13
3.8716424 1.4869602 -0.072392583 16
3.9082687 1.5002444 1.1217217 22
3.23526 1.237366 -0.92812514 7
3.8721056 1.4801632 0.072357684 16
3.515193 1.3430257 -0.868761 6
3.873502 1.4791455 0.21729892 13
3.8680778 1.4770741 -0.8048324 13
3.8810668 1.4812604 0.36343944 13
3.855566 1.4707568 -0.65358323 13
3.8747873 1.4773123 0.50917011 11
3.8583498 1.4702762 -0.50697654 11
3.8784878 1.4771749 0.65733767 14
