# .PCD v0.7 - Point Cloud Data file format
VERSION 0.7
FIELDS x y z intensity
SIZE 4 4 4 4
TYPE F F F F
COUNT 1 1 1 1
WIDTH 1345
HEIGHT 1
VIEWPOINT 0 0 0 1 0 0 0
POINTS 1345
DATA ascii
2.6397829 -0.44838169 0.046737548 1
2.6580684 -0.45244232 0.14130709 1
2.5965147 -0.44243127 0.23043977 1
2.5809805 -0.44071144 0.32149133 1
2.5584598 -0.43778515 0.41110981 2
2.5542936 -0.43753114 0.50373578 1
2.5474062 -0.43818223 0.69259977 2
2.6564732 -0.4617179 0.14130709 1
2.6341324 -0.45878226 0.233926 1
2.6107161 -0.45517337 0.32539117 1
2.578321 -0.4504528 0.41455138 1
2.5449378 -0.44553599 0.50220931 1
2.5515692 -0.44807407 0.69415271 2
2.6090302 -0.46473902 0.32539117 1
2.5922101 -0.46267658 0.41705433 1
2.5433671 -0.45441678 0.50220931 1
2.5537131 -0.45810521 0.69518799 1
2.529295 -0.46284366 0.68897635 1
2.4998178 -0.54139316 -0.68535286 1
2.5367162 -0.55031151 -0.59926957 1
2.5696054 -0.5659048 -0.70502311 1
2.53478 -0.55916291 -0.59926957 1
2.5880682 -0.57139182 -0.51518428 1
2.6289217 -0.58137393 -0.42644039 1
2.5176084 -0.55767936 -0.31661656 1
2.4017184 -0.53772795 -0.65947098 1
2.5328126 -0.56800753 -0.59926957 1
2.5285897 -0.56752408 -0.50373578 1
2.5729129 -0.57841551 -0.41768005 1
2.5427587 -0.57256913 -0.32002893 1
2.5403438 -0.57249117 -0.22782511 1
2.5241504 -0.57439953 -0.69363505 1
2.5132527 -0.57238108 0.044992302 1
2.5004144 -0.56991625 -0.59207118 1
2.5648751 -0.58507961 -0.5113681 1
2.5015509 -0.57155329 -0.40641677 1
2.5020435 -0.57258487 -0.31515417 1
2.5383298 -0.58135509 -0.22782511 1
2.5170767 -0.57741231 -0.13534079 1
2.5394342 -0.58347422 -0.045480974 1
2.529659 -0.58494794 -0.69570565 1
2.5112395 -0.58115047 0.044992302 1
2.4756279 -0.57336444 -0.58667231 1
2.6266634 -0.60882789 0.14130709 1
2.4863153 -0.57629693 -0.49610341 1
2.5075839 -0.58168787 0.22521043 1
2.5380247 -0.58921611 -0.41267416 1
2.4884284 -0.57861763 -0.31369171 1
2.5362849 -0.59021199 -0.22782511 1
2.4839237 -0.57894123 -0.13366605 1
2.5062246 -0.58506143 -0.044922493 1
2.4899886 -0.58493853 -0.68535286 1
2.5403416 -0.59723526 0.045550782 1
2.4963748 -0.58735842 -0.59207118 1
2.488436 -0.58594888 0.13398007 1
2.5148644 -0.59217197 -0.50220931 1
2.6025014 -0.61328715 0.233926 1
2.4859641 -0.58628279 -0.40453959 1
2.4632103 -0.5818243 -0.31076685 1
2.5342093 -0.59906167 -0.22782511 1
2.5207582 -0.59681112 -0.13575949 1
2.4963844 -0.59196073 -0.044782877 1
2.4992061 -0.59631681 -0.68845868 1
2.5071211 -0.59866786 0.044992302 1
2.4867277 -0.594257 -0.59027153 1
2.4941452 -0.59648979 0.13439874 1
2.5089631 -0.60003352 -0.50144607 1
2.5034616 -0.5991798 0.22521043 1
2.4954288 -0.59771764 -0.40641677 1
2.4998755 -0.59924418 0.31564164 1
2.4573033 -0.5894928 -0.31027937 1
2.5220065 -0.60548025 0.41079697 1
2.4701083 -0.59302056 -0.22224714 1
2.4854259 -0.59715676 0.49686664 1
2.5536139 -0.61401129 -0.13764358 1
2.447644 -0.58943486 -0.04394516 1
2.3544176 -0.57046354 -0.64911819 1
2.4661489 -0.59799117 0.044294208 1
2.4732759 -0.60017639 -0.58757216 1
2.4960356 -0.60569936 0.13460809 1
2.4648817 -0.59859502 -0.49305046 1
2.4703784 -0.6003865 0.22242144 1
2.4779716 -0.60268998 -0.40391383 1
2.5749195 -0.62674558 0.32539117 1
2.4861956 -0.60514987 -0.31417918 2
2.519985 -0.6138401 0.41079697 1
2.4641514 -0.60069537 -0.22189851 1
2.4833264 -0.60582894 0.49686664 1
2.4971278 -0.60965759 -0.13471277 1
2.4534459 -0.59944671 -0.044084776 1
2.4650731 -0.60593623 -0.68017644 1
2.4758031 -0.60903198 0.044503637 1
2.4447803 -0.60185313 -0.5812735 1
2.4862556 -0.61206347 0.13418941 1
2.4781332 -0.61052269 -0.49610341 1
2.4606359 -0.60666752 0.22172421 1
2.4548631 -0.6056987 -0.40047228 1
2.4918842 -0.61529458 0.31515417 1
2.4456313 -0.60387379 -0.30930442 2
2.5179355 -0.6221934 0.41079697 1
2.4737508 -0.6117332 -0.22294438 1
2.4317541 -0.6017983 0.48694456 1
2.4834599 -0.61505419 -0.13408473 1
2.4514446 -0.60757941 -0.044084776 1
2.435673 -0.60412169 0.67241186 1
2.5192845 -0.62812817 -0.69570565 1
2.4621284 -0.61433405 0.044294208 1
2.4503336 -0.61184537 -0.58307308 1
2.4879794 -0.62170678 0.13439874 1
2.4646666 -0.61588132 -0.49381369 1
2.4818051 -0.62062418 0.22381593 1
2.4566734 -0.61479509 -0.40109801 1
2.4763508 -0.6201787 0.31344795 1
2.4589126 -0.61626756 -0.31125432 2
2.4544351 -0.61560076 0.40078515 1
2.440788 -0.61217791 -0.22015539 1
2.4487867 -0.61463839 0.49076074 1
2.4891551 -0.62523252 -0.13450342 1
2.4531875 -0.61710852 -0.044154592 1
2.4822581 -0.62488204 0.68587047 1
2.4646373 -0.62364912 -0.68121177 1
2.4444609 -0.61899769 0.044014968 1
2.4670734 -0.62518197 -0.58757216 1
2.4509463 -0.62155044 0.13251466 1
2.4510839 -0.62158531 -0.49152401 1
2.4525874 -0.62242216 0.22137558 1
2.4391954 -0.61947674 -0.39859506 1
2.4587796 -0.62490726 0.31149808 1
2.4394319 -0.62044328 -0.30906066 2
2.4178133 -0.61539412 0.39515349 1
2.4618065 -0.6265915 -0.22224714 1
2.4580417 -0.62609011 0.49305046 1
2.4714744 -0.62997091 -0.13366605 1
2.4006417 -0.61280835 -0.043247063 1
2.4763181 -0.6325866 0.68483526 1
2.4774146 -0.63609195 -0.68535286 1
2.4577796 -0.63150781 0.044294208 1
2.4346788 -0.6260252 -0.5803737 1
2.464236 -0.63408375 0.13335203 1
2.4565046 -0.63209432 -0.49305046 1
2.4542584 -0.63197315 0.22172421 1
2.4561474 -0.63291663 -0.40172374 1
2.4488943 -0.63150346 0.31052312 1
2.4468617 -0.63143474 -0.31027937 2
2.4309511 -0.62778145 0.39765644 1
2.4480293 -0.63219178 -0.22120127 1
2.4254284 -0.6268068 0.48694456 1
2.4885969 -0.64359492 -0.13471277 1
2.4255893 -0.62820345 -0.043735731 1
2.4479139 -0.6344412 0.67758828 1
2.3405774 -0.60967475 -0.64808291 1
2.4245994 -0.63201278 0.043735731 1
2.4890478 -0.64927626 -0.59387076 1
2.4426825 -0.63763714 0.13230531 1
2.4428854 -0.63769007 -0.49076074 1
2.4501097 -0.64003265 0.22154988 2
2.4692121 -0.64548308 -0.40422669 1
2.4274702 -0.63502389 0.30808574 1
2.4446428 -0.63997203 -0.31027937 2
2.4134581 -0.63225847 0.39515349 1
2.4342437 -0.63770372 -0.22015539 1
2.4156294 -0.63327789 0.48541811 1
2.4592886 -0.64518231 -0.13324735 1
2.392437 -0.62853676 -0.043177254 1
2.4270008 -0.63807011 0.67241186 1
2.4243517 -0.64054132 -0.67189431 1
2.4223788 -0.64047235 0.043735731 1
2.4603915 -0.65098238 -0.58757216 1
2.4674723 -0.65331668 0.13377072 1
2.4899888 -0.65927845 -0.50068283 1
2.4208977 -0.64143717 0.21910954 2
2.44785 -0.64903563 -0.40109801 1
2.4444258 -0.64858443 0.31052312 1
2.4347198 -0.64646393 -0.30930442 2
2.3997815 -0.63763565 0.3932763 1
2.4204495 -0.6431272 -0.21910954 1
2.4209933 -0.64372408 0.48694456 1
2.4493012 -0.65170866 -0.13282867 1
2.3979573 -0.63894355 -0.043316875 1
2.4247587 -0.64653808 0.67241186 1
2.5154021 -0.67399997 -0.69777614 1
2.4278543 -0.65099579 0.043875352 1
2.4317539 -0.65249634 -0.5812735 1
2.4574606 -0.65985394 0.13335203 1
2.4649193 -0.66185665 -0.49610341 1
2.4263406 -0.65195185 0.21980678 2
2.4417546 -0.65655041 -0.40047228 1
2.4651499 -0.66330254 0.31344795 1
2.4324484 -0.65495872 -0.30930442 1
2.4089851 -0.64909208 0.39515349 1
2.4181895 -0.65157217 -0.21910954 1
2.430105 -0.65523762 0.4892343 1
2.4701509 -0.66649789 -0.13408473 1
2.4304609 -0.656699 -0.04394516 1
2.4448657 -0.66104895 0.67862362 1
2.4571061 -0.66758096 -0.68224704 1
2.437145 -0.66261441 0.044084776 1
2.5046768 -0.68144453 -0.59926957 1
2.4359872 -0.6627562 0.13230531 1
2.4202054 -0.65936995 0.21945816 2
2.4470708 -0.66714811 -0.40172374 1
2.413027 -0.65831918 0.30711079 1
2.4186571 -0.66030866 -0.30784199 1
2.3953857 -0.65395546 0.3932763 1
2.4735594 -0.67576128 -0.22433887 1
2.4050777 -0.6575036 0.4846549 1
2.4601035 -0.67300814 -0.13366605 1
2.3935528 -0.65525091 -0.043316875 1
2.4016697 -0.65792364 0.66723549 1
2.4659359 -0.67923194 -0.68535286 1
2.4195113 -0.66644442 0.043805543 1
2.4452112 -0.67444175 0.13293335 1
2.4351733 -0.67258787 0.22102696 2
2.4753106 -0.68367368 -0.40672967 1
2.460578 -0.68006682 0.31344795 1
2.4394133 -0.67467552 -0.31076685 1
2.4045115 -0.6654743 0.39515349 1
2.5095875 -0.69502687 -0.22782511 1
2.4180205 -0.66966748 0.48770785 1
2.5155997 -0.69716465 -0.1368062 1
2.4297884 -0.67429656 -0.044014968 1
2.3993585 -0.66630304 0.66723549 1
2.2775922 -0.63548666 -0.63358909 1
2.3979096 -0.6695084 0.043456491 1
2.4620769 -0.6883508 0.13398007 1
2.423336 -0.67797554 0.22015539 2
2.472909 -0.69230992 -0.40672967 1
2.5155342 -0.70471668 0.32076016 1
2.4370434 -0.68318659 -0.31076685 1
2.4021738 -0.67386359 0.39515349 1
2.5072689 -0.70334518 -0.22782511 1
2.415668 -0.67810386 0.48770785 1
2.4274199 -0.68277407 -0.044014968 1
2.3970182 -0.67467427 0.66723549 1
2.4301927 -0.68767518 0.044084776 1
2.440443 -0.69149595 0.13293335 1
2.4113703 -0.68371296 0.21928383 1
2.4704773 -0.70093781 -0.40672967 1
2.4557703 -0.69722813 0.31344795 1
2.4346437 -0.69168919 -0.31076685 1
2.4340084 -0.69196779 0.40078515 1
2.394403 -0.68116015 0.48389161 1
2.4020793 -0.68515694 0.6693061 1
2.4777553 -0.71048492 0.044992302 1
2.4319484 -0.69872814 0.22137558 1
2.4093232 -0.69359362 -0.30784199 1
2.3974106 -0.69061738 0.39515349 1
2.4561496 -0.70800251 0.49686664 1
2.4072244 -0.69526476 -0.043735731 1
2.3996732 -0.69353759 0.6693061 1
2.4752603 -0.71912944 0.044992302 1
2.4294946 -0.70721304 0.22137558 1
2.4068873 -0.70199949 -0.30784199 1
2.3972378 -0.70190978 0.6693061 1
2.4155447 -0.71230805 0.22032972 1
2.4044223 -0.71039677 -0.30784199 1
2.3688433 -0.70258296 0.66205913 1
2.4092257 -0.71959513 0.21998109 1
2.4033799 -0.72196311 0.67241186 1
2.4448402 -0.73953772 0.22346732 1
2.4009726 -0.72992897 0.67241186 1
2.4041433 -0.73639703 0.21998109 1
2.4130366 -0.83134627 -0.49610341 1
2.4513385 -0.85364634 -0.59926957 1
2.41012 -0.83976424 -0.49610341 1
2.4128447 -0.84875011 -0.68535286 1
2.3565838 -0.82942182 -0.57677448 1
2.3257003 -0.81946456 -0.47931221 1
2.2643964 -0.80497956 -0.64394182 1
2.3059397 -0.82065481 -0.56507707 1
2.3174217 -0.82519674 -0.47816736 1
2.4524043 -0.87567413 -0.22782511 1
2.2942965 -0.82464075 -0.65325934 1
2.2883921 -0.82342058 -0.56147784 1
2.2905135 -0.82463557 -0.47320631 2
2.3861346 -0.86000234 -0.40172374 1
2.358356 -0.8509208 -0.30784199 1
2.299412 -0.83010668 -0.2138802 1
2.3610921 -0.85330528 -0.1315726 1
2.2841411 -0.83000523 -0.65118873 1
2.2726843 -0.82674032 -0.55832851 4
2.3461609 -0.85346901 0.1308399 1
2.3023798 -0.83799767 -0.47625926 4
2.3459978 -0.85480088 -0.39546639 1
2.3350062 -0.85125762 0.30516088 1
2.3553715 -0.85914773 -0.30784199 1
2.2852705 -0.83402956 -0.21283433 1
2.3236313 -0.84848922 0.48083872 1
2.3093238 -0.84372163 -0.12885113 1
2.2594051 -0.82593071 -0.041990492 1
2.2739766 -0.83530891 -0.64911819 5
2.351958 -0.86395413 0.043735731 1
2.280905 -0.83830583 -0.56102794 6
2.3244221 -0.85476017 0.12979318 1
2.2718031 -0.83586085 -0.47053501 6
2.2727077 -0.83664393 -0.38357735 2
2.3098173 -0.85076278 0.30223599 1
2.3078063 -0.85047948 -0.30199227 1
2.2778296 -0.8398841 0.38451597 1
2.2748682 -0.83924311 -0.21213706 2
2.3392236 -0.86298507 0.4846549 1
2.2690394 -0.83754277 -0.1267577 2
2.2602599 -0.83519876 -0.042060301 1
2.2621381 -0.83948433 -0.64653003 6
2.3076859 -0.8568455 0.042967826 1
2.2651775 -0.84151202 -0.55787861 8
2.2858543 -0.84964752 0.12780441 2
2.261658 -0.84065378 -0.46900854 9
2.293205 -0.8528353 0.2140545 1
2.2790301 -0.8480165 -0.3851417 4
2.2919509 -0.85327965 0.30028611 2
2.2713394 -0.84605759 -0.29760498 1
2.2711818 -0.84645027 0.38389024 1
2.2534032 -0.83982426 -0.21039395 3
2.2920482 -0.85468268 0.47549605 1
2.2717156 -0.84755242 -0.12707172 3
2.26933 -0.84711373 0.5592283 1
2.2648242 -0.84588206 -0.042199921 3
2.350709 -0.87842649 0.67241186 1
2.2338707 -0.83787739 -0.63928306 8
2.2634928 -0.84943861 0.042199921 1
2.2622263 -0.84941387 -0.55787861 10
2.2810047 -0.85691893 0.12769975 3
2.2605474 -0.84923363 -0.46939012 10
2.2846191 -0.85873193 0.21353155 2
2.2649624 -0.85179454 -0.38326448 6
2.279669 -0.8577795 0.29906741 3
2.2795191 -0.8581773 -0.29906741 2
2.2534249 -0.84880263 0.38138729 1
2.2485936 -0.84698278 -0.21021965 6
2.274354 -0.85713929 0.4724431 2
2.2650056 -0.85406768 -0.12686236 6
2.2700059 -0.85640568 0.56012809 3
2.2599866 -0.85307646 -0.042165015 3
2.282567 -0.86205488 0.65377688 1
2.2580287 -0.85594124 -0.64704764 10
2.2567739 -0.85591614 0.042130109 2
2.2410278 -0.85039157 -0.5533796 14
2.2781506 -0.86447829 0.12769975 5
2.2612405 -0.858513 -0.47015342 16
2.2462194 -0.85325873 0.21021965 2
2.2490497 -0.85478306 -0.3810744 7
2.2358403 -0.85020924 0.29370514 5
2.2598116 -0.85977614 -0.29687375 3
2.2524438 -0.85697293 0.38170013 2
2.2363131 -0.85128266 -0.2093481 8
2.2511666 -0.85738683 0.46824533 5
2.2433469 -0.85485679 -0.12581564 7
2.2560773 -0.8601588 0.55742872 6
2.2421973 -0.85486686 -0.041885775 6
2.2544262 -0.85998011 0.64653003 1
2.2586355 -0.86520022 -0.64808291 12
2.2389841 -0.85767251 0.041850869 4
2.2436547 -0.85991067 -0.55472928 19
2.2583356 -0.86598951 0.1267577 7
2.2545636 -0.86499441 -0.46939012 20
2.2543876 -0.86537838 0.2112655 3
2.2554238 -0.86577606 -0.38263875 9
2.2348619 -0.85833061 0.29394889 6
2.2476828 -0.86370498 -0.29565504 5
2.2383759 -0.86057699 0.37982294 3
2.240766 -0.86194479 -0.21004534 10
2.2428138 -0.86273253 0.46710047 7
2.2442281 -0.8637262 -0.12602501 9
2.2277524 -0.85783172 0.55113006 7
2.2410657 -0.86340743 -0.041920681 9
2.2442 -0.86506486 0.64445943 1
2.2431414 -0.86780602 -0.64445943 20
2.2341123 -0.86476111 0.041815966 7
2.2406392 -0.86773729 -0.55472928 22
2.2517264 -0.87203109 0.12654836 10
2.2406993 -0.8682102 -0.46710047 26
2.2347865 -0.86636788 0.20969671 4
2.2394962 -0.86864322 -0.38044867 13
2.2355533 -0.86756289 0.29443637 7
2.2391028 -0.86939001 -0.29492384 9
2.2263026 -0.86442 0.37825859 5
2.2360384 -0.86864936 -0.20987104 13
2.2342989 -0.86842245 0.46595559 8
2.2467837 -0.87372637 -0.126339 12
2.2229285 -0.8648963 0.55068022 9
2.2325995 -0.86865908 -0.041815966 12
2.2197161 -0.86409253 0.63824779 2
2.2329018 -0.87281764 -0.64238888 23
2.234957 -0.87362093 0.041885775 9
2.2395644 -0.87587255 -0.55517924 26
2.2449489 -0.87843007 0.126339 13
2.2376549 -0.87602645 -0.46710047 31
2.2261834 -0.87198347 0.20917378 5
2.2366035 -0.87606496 -0.38044867 19
2.2382085 -0.8771444 0.2951676 9
2.2380557 -0.87753505 -0.2951676 11
2.2085602 -0.86641479 0.37575564 7
2.2367017 -0.87790513 -0.21021965 17
2.2240968 -0.87295765 0.46442911 11
2.2382967 -0.87898201 -0.12602501 16
2.2218618 -0.87297559 0.55113006 11
2.2202482 -0.87278891 -0.041641444 13
2.2346644 -0.87890637 0.64342415 2
2.2117209 -0.87389654 -0.63721251 27
2.2185686 -0.87704992 0.041641444 12
2.2343726 -0.88374859 -0.55472928 27
2.2361424 -0.88444859 0.12602501 20
2.2253017 -0.88060999 -0.46519238 34
2.2285297 -0.88233733 0.20969671 9
2.2240403 -0.8810088 -0.37888432 24
2.2385151 -0.88719475 0.29565504 14
2.2272882 -0.88319504 -0.29419261 16
2.2218962 -0.8810569 0.37857145 10
2.231617 -0.88536233 -0.21004534 23
2.2116048 -0.87786949 0.46252102 14
2.2237678 -0.88314688 -0.12539697 23
2.2257376 -0.88437885 0.5529297 12
2.2263265 -0.8846128 -0.041815966 20
2.2027049 -0.87567222 0.63514197 4
2.2230105 -0.88734108 -0.64135361 33
2.2100763 -0.88217825 0.041536726 16
2.2205713 -0.88681674 -0.55202991 33
2.229332 -0.89076656 0.12581564 23
2.231329 -0.89201617 -0.46710047 37
2.2272861 -0.8908509 0.20987104 11
2.2211065 -0.88837916 -0.37888432 24
2.2245026 -0.89018792 0.29419261 21
2.2114472 -0.88541132 -0.29248646 19
2.2206411 -0.8895421 0.37888432 14
2.222965 -0.8909232 -0.2095224 25
2.2050369 -0.88373798 0.46175778 18
2.2152658 -0.88828635 -0.12508295 28
2.220984 -0.89102912 0.5524798 17
2.2269363 -0.89386845 -0.041885775 23
2.199635 -0.88335574 0.63514197 6
2.2290149 -0.89831853 -0.64394182 42
2.2051287 -0.88913953 0.04150182 21
2.2138474 -0.89310437 -0.55113006 41
2.2113924 -0.89256269 0.12497827 24
2.2174354 -0.89500177 -0.46481073 44
2.2317095 -0.90121603 0.21056828 15
2.2198234 -0.89686686 -0.37919718 29
2.2213817 -0.89794749 0.29419261 28
2.2120235 -0.89461392 -0.29297391 23
2.2193534 -0.89802903 0.37919718 18
2.225539 -0.90053189 -0.21004534 32
2.1964791 -0.8892194 0.46061292 21
2.204747 -0.89301443 -0.12466426 32
2.2016056 -0.89218938 0.54843068 25
2.2200963 -0.90013379 -0.041815966 31
2.2054889 -0.89465952 0.63773018 8
2.2151299 -0.9017235 -0.64083594 42
2.2075675 -0.89909428 0.041606538 27
2.2107165 -0.90082669 -0.55113006 49
2.2008653 -0.89726049 0.12455959 34
2.2052076 -0.89903075 -0.46290264 45
2.2267051 -0.90824813 0.21039395 24
2.2166793 -0.90460998 -0.37919718 37
2.207207 -0.90119392 0.29273018 27
2.1960237 -0.897075 -0.29126775 27
2.1997485 -0.89904457 0.37638137 23
2.2223821 -0.90829498 -0.21004534 37
2.2060823 -0.90208262 0.46328428 29
2.1997676 -0.89994866 -0.12455959 36
2.1930673 -0.89765435 0.54708099 26
2.2076881 -0.90408874 -0.041641444 43
2.2023525 -0.90235263 0.63773018 11
2.2066085 -0.90724647 -0.63928306 44
2.1970184 -0.90375167 0.041466918 30
2.211163 -0.91002136 -0.55202991 52
2.203419 -0.90683424 0.12487361 37
2.1929791 -0.90298539 -0.46099457 47
2.2069416 -0.90918511 0.20882516 32
2.2098553 -0.91083664 -0.37857145 41
2.2095535 -0.91116339 0.29346141 38
2.2150588 -0.91343361 -0.29419261 36
2.1967549 -0.90633422 0.37638137 31
2.1934149 -0.90540421 -0.20760499 41
2.1992908 -0.90827894 0.46252102 35
2.2058425 -0.91143537 -0.12508295 41
2.1954818 -0.90715444 0.54843068 28
2.2083738 -0.91293263 -0.041711252 47
2.1832814 -0.90300572 0.63307142 14
2.1946666 -0.91085607 -0.63669485 51
2.1884689 -0.90873176 0.041362204 42
2.208133 -0.91734886 -0.55202991 53
2.2022438 -0.91490227 0.12497827 42
2.1954114 -0.9125132 -0.46213943 50
2.1947162 -0.91267347 0.2079536 31
2.1904085 -0.91133064 -0.37575564 44
2.2046869 -0.91772258 0.29321766 45
2.1918585 -0.9123826 -0.29151151 34
2.1864431 -0.91057605 0.37512988 34
2.1940784 -0.91420537 -0.2079536 46
2.187206 -0.91178995 0.46061292 41
2.1880608 -0.91259456 -0.12424557 47
2.1942599 -0.91518003 0.54888058 39
2.1961069 -0.91640049 -0.041536726 52
2.1731441 -0.90726376 0.63100088 19
2.1934159 -0.9188754 -0.63721251 53
2.1817551 -0.91443813 0.041292395 45
2.1817162 -0.91486949 -0.5461812 59
2.1990368 -0.922584 0.12497827 47
2.1941836 -0.9205479 -0.46252102 51
2.1935146 -0.92071736 0.2081279 34
2.1873746 -0.91858923 -0.37575564 49
2.1851604 -0.91810811 0.291024 46
2.1904902 -0.92079729 -0.29175523 42
2.1796095 -0.91667104 0.37450415 38
2.1928711 -0.92224848 -0.2081279 47
2.1678843 -0.91218519 0.45717838 50
2.1795001 -0.91752064 -0.12393155 52
2.1766844 -0.91678256 0.54528135 41
2.1947374 -0.92483717 -0.041571636 56
2.1681838 -0.91409338 0.63048321 24
2.1955326 -0.92878431 -0.63876545 56
2.1859159 -0.92516583 0.041432012 51
2.1874819 -0.92627889 -0.54843068 68
2.1792519 -0.92324251 0.12403623 49
2.1909571 -0.92820138 -0.46252102 54
2.1957908 -0.93070132 0.20865084 41
2.1932476 -0.93007493 -0.37731999 52
2.1764605 -0.92340434 0.2902928 49
2.1653354 -0.91913033 -0.28883037 47
2.1618507 -0.91809654 0.3720012 38
2.1933064 -0.93145519 -0.20847654 58
2.1737218 -0.92358565 0.45908648 52
2.1689317 -0.92199749 -0.12351287 52
2.1716778 -0.92361224 0.54483145 48
2.1841357 -0.92936087 -0.041432012 58
2.1703122 -0.92392623 0.63203615 26
2.1869476 -0.93416578 -0.63721251 60
2.1808345 -0.93200475 0.04139711 55
2.175276 -0.93007833 -0.5461812 62
2.1796885 -0.93241501 0.12424557 49
2.1786783 -0.93198287 -0.46061292 56
2.1870334 -0.93600851 0.2081279 46
2.1881719 -0.93694764 -0.3770071 54
2.1823473 -0.93490434 0.29151151 58
2.1675875 -0.92902917 -0.2895616 52
2.1531863 -0.9233017 0.37106261 44
2.1843848 -0.93713123 -0.2079536 64
2.1758971 -0.93348992 0.46023133 59
2.1712065 -0.93192619 -0.12382689 55
2.1612778 -0.92811143 0.54303181 48
2.1716919 -0.93303239 -0.041257489 62
2.1670737 -0.9314965 0.63203615 34
2.1728661 -0.93758279 -0.6341067 67
2.177568 -0.93961155 0.04139711 55
2.18454 -0.94307244 -0.54933047 67
2.1727536 -0.93843395 0.12403623 51
2.1752479 -0.93996185 -0.46061292 65
2.1653004 -0.93611175 0.20638479 50
2.1792836 -0.94260871 -0.3760685 55
2.1772485 -0.94172847 0.29126775 56
2.1661532 -0.93737817 -0.28980532 61
2.1535757 -0.93238181 0.37168834 50
2.1737874 -0.94158274 -0.20725635 63
2.1544473 -0.93365228 0.45641515 59
2.1787705 -0.94464469 -0.12445491 61
2.172164 -0.9422307 0.54663104 55
2.1610835 -0.93742424 -0.041117873 70
2.1478596 -0.93213344 0.62737739 38
2.1713512 -0.94593334 -0.6346243 65
2.1631105 -0.94279259 0.041187681 60
2.168565 -0.94562036 -0.5461812 65
2.1712952 -0.9468109 0.1241409 55
2.1719534 -0.94754916 -0.46061292 64
2.1583672 -0.94207036 0.20603617 57
2.1669288 -0.94625753 -0.37450415 59
2.1756012 -0.95049691 0.29151151 64
2.1736166 -0.95008147 -0.29126775 66
2.1629782 -0.94543147 0.37387842 58
2.1668365 -0.94756842 -0.20690772 66
2.1439805 -0.93801922 0.45488867 65
2.1718009 -0.95064253 -0.12424557 61
2.1581514 -0.94511688 0.54393166 52
2.1577981 -0.94496214 -0.041117873 70
2.1481318 -0.94117588 0.62841266 48
2.1715729 -0.95506257 -0.63565958 65
2.1544807 -0.94754523 0.041082963 70
2.1564987 -0.94888216 -0.54393166 67
2.1624932 -0.95197022 0.12382689 59
2.1686327 -0.95512491 -0.46061292 65
2.1641819 -0.95361561 0.20690772 59
2.163779 -0.95343804 -0.37450415 59
2.1542733 -0.94969857 0.28907412 64
2.1668215 -0.95568216 -0.29078028 66
2.1578577 -0.95217848 0.37356552 60
2.1726289 -0.95914954 -0.20777929 68
2.1354699 -0.94274503 0.45374379 71
2.1485393 -0.94896287 -0.12309418 62
2.153223 -0.95148069 0.54348177 62
2.1508286 -0.95087135 -0.041048057 72
2.1466 -0.94944978 0.62893027 51
2.1719253 -0.96382564 -0.63669485 65
2.1511598 -0.95506006 0.041082963 67
2.1531734 -0.95640391 -0.54393166 67
2.1536813 -0.95707965 0.12351287 67
2.1618655 -0.96071655 -0.45984969 64
2.1610076 -0.96078712 0.20690772 64
2.1604376 -0.9609853 -0.37450415 68
2.1545722 -0.95882684 0.2895616 64
2.1525912 -0.95839542 -0.28931785 64
2.1436939 -0.95488244 0.37168834 65
2.1657963 -0.96472764 -0.20743066 70
2.1393394 -0.95339012 0.45527029 71
2.1488624 -0.95808357 -0.12330353 64
2.1356509 -0.95264006 0.53988254 62
2.1529746 -0.96081817 -0.041152775 74
2.1432726 -0.95693702 0.62893027 52
2.1597326 -0.96745241 -0.6341067 67
2.1496379 -0.96338105 0.041117873 72
2.1569343 -0.96710318 -0.54573125 67
2.1539719 -0.96622646 0.12372221 67
2.1513338 -0.96504295 -0.45832324 65
2.1594584 -0.96914041 0.20708205 66
2.1642783 -0.97175729 -0.37575564 70
2.1566446 -0.96878213 0.2902928 67
2.1419904 -0.96264863 -0.28834289 66
2.1385462 -0.9615494 0.37137547 67
2.1533301 -0.96819657 -0.20655911 73
2.1413696 -0.96326822 0.45641515 76
2.1382194 -0.96229982 -0.12288483 66
2.1340895 -0.96088922 0.54033244 64
2.1350214 -0.961757 -0.040873535 76
2.1399193 -0.96441263 0.62893027 57
2.1493013 -0.97180182 -0.63203615 67
2.1462619 -0.9708789 0.041117873 76
2.1499946 -0.97301942 -0.54483145 70
2.1543951 -0.97501093 0.12393155 67
2.1443748 -0.970927 -0.45755997 65
2.1488028 -0.9733839 0.20638479 66
2.1500776 -0.97441363 -0.37387842 70
2.1514418 -0.97548455 0.29004908 73
2.1422324 -0.97175986 -0.28883037 68
2.1317477 -0.96700376 0.37074974 67
2.1354227 -0.96912009 -0.20516461 73
2.1344187 -0.96911383 0.45565188 78
2.1421211 -0.97306204 -0.12330353 62
2.1378188 -0.97155768 0.54213202 70
2.1372819 -0.97131371 -0.040978249 85
2.1314337 -0.96910483 0.62737739 65
2.149411 -0.98090249 -0.63307142 70
2.1321154 -0.97300947 0.040908441 76
2.141438 -0.97771555 -0.54348177 65
2.1546123 -0.98418498 0.1241409 68
2.1445441 -0.98003852 -0.45832324 64
2.139956 -0.97839338 0.20586187 70
2.1432414 -0.97989547 -0.37325269 70
2.1445849 -0.98096216 0.2895616 64
2.1389983 -0.97885841 -0.28883037 68
2.1283596 -0.97443908 0.37074974 70
2.1284041 -0.97490877 -0.204816 66
2.1240537 -0.97291613 0.45412543 78
2.1388826 -0.98016012 -0.12330353 66
2.138128 -0.98026592 0.54303181 70
2.1284256 -0.97626728 -0.040873535 81
2.1227705 -0.97412187 0.62582451 71
2.1461463 -0.98802483 -0.63307142 67
2.1250732 -0.97877288 0.040838633 78
2.1327024 -0.98273802 -0.54213202 72
2.1511636 -0.99169999 0.1241409 68
2.1448481 -0.98878855 -0.45908648 65
2.1403182 -0.98715323 0.20621049 70
2.1398082 -0.98737079 -0.37325269 70
2.1321361 -0.98428208 0.28834289 71
2.1319642 -0.98465419 -0.28834289 66
2.1249452 -0.98186243 0.37074974 74
2.1468632 -0.99199003 -0.20690772 72
2.1117344 -0.97620559 0.45221734 81
2.1245716 -0.9825899 -0.12267549 62
2.1346931 -0.98772347 0.54303181 70
2.1322637 -0.98705119 -0.041013155 78
2.1193573 -0.98152584 0.62582451 69
2.1426845 -0.99551028 -0.63307142 70
2.1252706 -0.98787069 0.040908441 76
2.1292591 -0.99017644 -0.54213202 67
2.131391 -0.99162036 0.12319885 72
2.1378236 -0.99461305 -0.45832324 64
2.1368594 -0.9946183 0.20621049 70
2.138139 -0.99566793 -0.37356552 72
2.1250885 -0.99004203 0.28785542 71
2.1285141 -0.99209011 -0.28834289 68
2.1250854 -0.99094361 0.37137547 77
2.127136 -0.99189985 -0.20533893 78
2.1172099 -0.98772103 0.45412543 78
2.1247482 -0.99168944 -0.12288483 64
2.108278 -0.9844504 0.53718311 66
2.1251817 -0.99279541 -0.040943347 74
2.1229186 -0.99218959 0.62789506 69
2.1391964 -1.0029835 -0.63307142 67
2.1254301 -0.9969815 0.040978249 80
2.1257896 -0.997603 -0.54213202 67
2.1315324 -1.000752 0.12340819 72
2.1236758 -0.99706328 -0.45603353 67
2.1333745 -1.0020713 0.20621049 70
2.1310749 -1.0014451 -0.3729398 74
2.1252127 -0.99914312 0.28834289 69
2.1178527 -0.9961344 -0.28736794 64
2.114464 -0.99499112 0.37012401 74
2.1182525 -0.99677384 -0.204816 74
2.1190779 -0.9976142 0.45527029 81
2.1212738 -0.99910015 -0.12288483 62
2.1136429 -0.99595696 0.53943259 70
2.1144681 -0.99679685 -0.040803727 76
2.1194425 -0.99959397 0.62789506 71
2.1286974 -1.0071398 -0.63100088 70
2.1183221 -1.0026836 0.040908441 80
2.1293395 -1.0083535 -0.54393166 67
2.1262212 -1.0073313 0.12330353 70
2.1237307 -1.0061513 -0.45679674 67
2.1154606 -1.0026853 0.204816 70
2.1293511 -1.0097243 -0.37325269 70
2.1288857 -1.0099587 0.28931785 65
2.1215363 -1.0069257 -0.28834289 68
2.107409 -1.0006714 0.36949828 74
2.1093607 -1.0015981 -0.20429306 76
2.1067159 -1.0007929 0.4533622 76
2.1213808 -1.0082134 -0.12309418 66
2.1119134 -1.0041656 0.53988254 73
2.1073642 -1.0024536 -0.040733919 78
2.0950077 -0.99702412 0.62168342 73
2.1251688 -1.0145642 -0.63100088 70
2.1075916 -1.0066245 0.040768825 76
2.1222899 -1.0140996 -0.54303181 67
2.1226921 -1.0147469 0.12330353 70
2.1131208 -1.0101714 -0.45527029 65
2.1155424 -1.0117828 0.20516461 70
2.116904 -1.012888 -0.37168834 72
2.1146045 -1.0122412 0.28785542 69
2.1180084 -1.0143251 -0.28834289 68
2.1074662 -1.0097286 0.37012401 70
2.1112421 -1.0115377 -0.204816 73
2.0978987 -1.0055948 0.45221734 81
2.1142471 -1.0138849 -0.12288483 66
2.1083953 -1.0115316 0.53988254 73
2.1110632 -1.0132648 -0.040873535 81
2.093256 -1.0051672 0.62220097 75
2.1216142 -1.0219762 -0.63100088 70
2.1040649 -1.0139753 0.040768825 76
2.1099603 -1.0172702 -0.54078233 67
2.1227348 -1.0238856 0.12351287 68
2.1166546 -1.0209529 -0.45679674 67
2.1119976 -1.0191612 0.20516461 70
2.1169133 -1.0219887 -0.37231407 74
2.1074829 -1.0178896 0.28736794 69
2.114455 -1.0217122 -0.28834289 70
2.1039288 -1.0170789 0.37012401 74
2.1005232 -1.0154325 -0.20411874 73
2.0943758 -1.0129118 0.45221734 81
2.0999079 -1.0160396 -0.12225681 64
2.1048517 -1.0188851 0.53988254 73
2.1111131 -1.0223708 -0.040943347 76
2.0932119 -1.0141526 0.6232363 79
2.124984 -1.0327536 -0.63307142 67
2.0969157 -1.0195646 0.040699009 74
2.1028919 -1.0229242 -0.53988254 70
2.1011889 -1.0225495 0.12246615 70
2.1060169 -1.024899 -0.45527029 65
2.1102188 -1.0273994 0.20533893 66
2.1097813 -1.0276419 -0.37168834 74
2.0985634 -1.0226312 0.28663671 64
2.1001694 -1.0238674 -0.28688046 66
2.1003656 -1.0244168 0.37012401 77
2.1005473 -1.0245054 -0.20446737 74
2.0890627 -1.0193554 0.45183572 78
2.0963485 -1.0233634 -0.12225681 64
2.089025 -1.0202399 0.53673321 70
2.1003447 -1.0262222 -0.040803727 78
2.0913947 -1.0223016 0.62375391 73
2.1144278 -1.0367628 -0.63100088 67
2.093344 -1.026878 0.040699009 78
2.0993083 -1.0302584 -0.53988254 67
2.0993996 -1.030758 0.12257081 72
2.1006641 -1.0313789 -0.45488867 69
2.1048312 -1.0338808 0.20516461 70
2.1097271 -1.0367426 -0.37231407 74
2.1003253 -1.0325778 0.28736794 67
2.0965827 -1.0311919 -0.28688046 68
2.0808251 -1.0238928 0.36730817 72
2.0987461 -1.032711 -0.20464167 78
2.0907762 -1.0292426 0.45298058 81
2.0927634 -1.0306749 -0.12225681 66
2.0906951 -1.0301096 0.53808296 73
2.085988 -1.0282428 -0.040594298 81
2.084348 -1.0278866 0.62271863 73
2.1057832 -1.0412002 -0.62944794 74
2.0970969 -1.0373608 0.040838633 74
2.1063597 -1.0424005 -0.54258198 67
2.1049192 -1.042145 0.12309418 70
2.0972323 -1.0383393 -0.45488867 73
2.09425 -1.0373178 0.20446737 70
2.1098173 -1.045487 -0.3729398 72
2.1004469 -1.0413005 0.28785542 69
2.0931516 -1.0381389 -0.28688046 70
2.0827267 -1.0334215 0.36824676 74
2.0828164 -1.033466 -0.2034215 74
2.0873516 -1.0361702 0.45298058 81
2.0964892 -1.0411625 -0.12267549 64
2.0855224 -1.0361699 0.537633 68
2.0825667 -1.0351546 -0.040594298 76
2.0757387 -1.0322124 0.62116575 75
2.0969493 -1.0459574 -0.62789506 70
2.0791488 -1.0375317 0.040559392 80
2.0957341 -1.0462648 -0.54078233 70
2.1048424 -1.0512711 0.12330353 68
2.0971079 -1.047408 -0.45565188 73
2.0870516 -1.0428405 0.20411874 70
2.0920198 -1.0457792 -0.37043685 74
2.0932484 -1.0468501 0.28736794 67
2.089515 -1.045439 -0.28688046 70
2.0791068 -1.0406853 0.36824676 77
2.0791962 -1.0407301 -0.2034215 82
2.0731893 -1.0381757 0.4506909 81
2.0892711 -1.046685 -0.12246615 64
2.0836351 -1.0443165 0.53808296 73
2.0896659 -1.0477957 -0.040803727 78
2.0703962 -1.0385855 0.62064809 73
2.1001885 -1.056744 -0.62996554 70
2.082659 -1.0483793 0.040699009 72
2.0816264 -1.0483149 -0.53808296 72
2.0940251 -1.0550172 0.12288483 70
2.0899324 -1.0529553 -0.45488867 69
2.0869572 -1.051913 0.20446737 70
2.0918844 -1.0548544 -0.37106261 72
2.0824921 -1.0505742 0.28639299 67
2.0858531 -1.0527264 -0.28688046 68
2.082515 -1.0514978 0.36949828 77
2.0791078 -1.0497775 -0.20377012 74
2.0678 -1.044521 0.45030925 78
2.0784743 -1.0503682 -0.12204745 64
2.0747597 -1.0489457 0.53673321 69
2.0824268 -1.0532784 -0.040733919 81
2.0667582 -1.0458063 0.62064809 71
2.096487 -1.0640687 -0.62996554 70
2.0789866 -1.0556428 0.040699009 76
2.0744793 -1.0538095 -0.53718311 72
2.0778663 -1.0559863 0.12215213 74
2.0844941 -1.0593547 -0.45450708 67
2.0903764 -1.0628031 0.20516461 72
2.0917108 -1.0639411 -0.37168834 74
2.0752738 -1.0560365 0.28590551 67
2.0715513 -1.0545974 -0.285418 66
2.0788319 -1.0587608 0.36949828 77
2.0807571 -1.0597413 -0.20429306 80
2.0658908 -1.052624 0.4506909 81
2.074795 -1.0576171 -0.12204745 64
2.0606694 -1.0508696 0.53403378 68
2.0823002 -1.0623586 -0.040803727 81
2.07514 -1.059162 0.62427157 75
2.0910404 -1.0704999 -0.62944794 74
2.0717297 -1.0610703 0.040629201 80
2.0777256 -1.064599 -0.53898275 70
2.0777221 -1.0650551 0.12236147 72
2.0790362 -1.0657288 -0.45412543 71
2.0795624 -1.0664569 0.20446737 72
2.0844691 -1.0694326 -0.37106261 72
2.0751071 -1.065087 0.28639299 69
2.0678575 -1.0618221 -0.285418 64
2.0610666 -1.0587896 0.3669953 74
2.0717285 -1.0642666 -0.20377012 71
2.0622039 -1.0598289 0.4506909 81
2.0746431 -1.0666795 -0.12225681 64
2.0621874 -1.0607305 0.53538352 73
2.0572422 -1.0586408 -0.04038487 78
2.0594068 -1.0602094 0.62064809 73
2.0769918 -1.0724745 -0.62634212 74
2.0751197 -1.0719668 0.040768825 78
2.0774591 -1.0736345 -0.53988254 67
2.0704434 -1.0704668 0.12215213 72
2.0753036 -1.0729796 -0.45412543 69
2.0722878 -1.0718787 0.20411874 72
2.0842321 -1.0785179 -0.37168834 74
2.0713766 -1.072324 0.28639299 67
2.0676639 -1.0708597 -0.28590551 68
2.0573583 -1.0659776 0.3669953 74
2.0573869 -1.0659925 -0.20272426 74
2.0567489 -1.0661173 0.45030925 78
2.0709071 -1.0739149 -0.12225681 64
2.049823 -1.0634353 0.53313398 72
2.0570838 -1.0676579 -0.040454678 76
2.0539792 -1.0665014 0.62013048 75
2.0732355 -1.079718 -0.62634212 72
2.0571778 -1.0718118 0.040489584 78
2.0667865 -1.0772768 -0.53808296 67
2.0737782 -1.0813812 0.12257081 74
2.0715456 -1.0802171 -0.45412543 69
2.0632341 -1.0763413 0.20359582 68
2.0699475 -1.080303 -0.36981112 72
2.0711401 -1.0813855 0.28688046 69
2.0674324 -1.0799087 -0.28639299 64
2.0623784 -1.0777271 0.36855966 79
2.0536532 -1.0731676 -0.20272426 74
2.0443156 -1.0687424 0.44840118 81
2.0671458 -1.0811372 -0.12225681 64
2.053005 -1.0741978 0.53493357 69
2.0604312 -1.0785414 -0.040594298 76
2.0433979 -1.0700797 0.61805987 75
2.0711644 -1.0878466 -0.62685978 69
2.0534241 -1.0789862 0.040489584 74
2.0509391 -1.0781373 -0.53493357 65
2.0735261 -1.0904729 0.12278017 72
2.0712376 -1.0892693 -0.45488867 73
2.055938 -1.0816813 0.20324717 68
2.0609198 -1.0847616 -0.36887249 70
2.056814 -1.083059 0.285418 67
2.0566249 -1.0834179 -0.285418 68
2.058604 -1.0849196 0.36855966 72
2.0534198 -1.0821874 -0.20307288 74
2.0440459 -1.0777031 0.44916439 81
2.0527599 -1.0827554 -0.12162878 66
2.0544136 -1.0840859 0.53628331 73
2.056654 -1.0857272 -0.040594298 78
2.0481915 -1.0817169 0.62064809 73
2.0656471 -1.0941656 -0.62634212 72
2.053179 -1.0880201 0.040559392 82
2.0488849 -1.0862026 -0.53538352 70
2.0591204 -1.0920893 0.12215213 74
2.0639539 -1.0946528 -0.45412543 69
2.0556698 -1.0907189 0.20359582 66
2.062355 -1.0947274 -0.36981112 72
2.0495145 -1.08837 0.28493056 69
2.0493243 -1.0887277 -0.28493056 66
2.0495715 -1.0893176 0.36762103 74
2.051389 -1.0902836 -0.20324717 76
2.0402715 -1.0848317 0.44916439 83
2.0524945 -1.0917902 -0.12183812 66
2.0316935 -1.0811803 0.5313344 72
2.0510864 -1.0919598 -0.040559392 83
2.0461082 -1.0897681 0.62116575 75
2.0652232 -1.1031896 -0.62737739 72
2.0493686 -1.0951804 0.040559392 74
2.0485179 -1.0951855 -0.53628331 67
2.0552957 -1.0992703 0.12215213 74
2.0566578 -1.0999988 -0.4533622 71
2.0588768 -1.1016479 0.20429306 78
2.0620041 -1.1037841 -0.37043685 74
2.0527027 -1.0992662 0.28590551 67
2.0455115 -1.0958745 -0.28493056 64
2.03531 -1.0908663 0.36574382 70
2.0475707 -1.0974376 -0.20324717 76
2.039933 -1.0938023 0.44992763 83
2.048671 -1.0989481 -0.12183812 66
2.0279069 -1.0882657 0.5313344 71
2.036691 -1.0934376 -0.040349964 83
2.0303786 -1.090505 0.61754227 73
2.0494542 -1.1039789 -0.62375391 69
2.0420125 -1.10043 0.040489584 78
2.0481131 -1.1041789 -0.53718311 67
2.051446 -1.1064379 0.12215213 72
2.0458937 -1.1034434 -0.45183572 69
2.039238 -1.1003129 0.20272426 70
2.0581386 -1.1109751 -0.37043685 72
2.0523465 -1.1083112 0.28639299 67
2.0416739 -1.103008 -0.28493056 68
2.0280142 -1.0960858 0.36511809 67
2.033211 -1.0988945 -0.20220132 76
2.0395563 -1.1027839 0.4506909 83
2.0518494 -1.1098937 -0.12225681 64
2.036093 -1.1018301 0.53448373 73
2.0275862 -1.0976843 -0.040245246 76
2.0214634 -1.0948256 0.61598933 79
2.0421927 -1.1092818 -0.62271863 69
2.0241027 -1.0999129 0.040210344 82
2.0408223 -1.10946 -0.53628331 67
2.0475712 -1.113592 0.12215213 72
2.0489283 -1.1143301 -0.4533622 71
2.0318844 -1.1055201 0.20237562 74
2.0473082 -1.1143752 -0.36918539 74
2.0414915 -1.1116711 0.285418 67
2.0447841 -1.1139268 -0.28590551 64
2.0259104 -1.1041036 0.36543098 72
2.0293627 -1.105985 -0.20220132 78
2.0253522 -1.1042577 0.44840118 83
2.0409489 -1.1132237 -0.12183812 66
2.039077 -1.1126643 0.53628331 77
2.0360289 -1.1114622 -0.040489584 83
2.0176294 -1.1018752 0.61598933 75
2.0467801 -1.1210437 -0.62530684 72
2.0272653 -1.1108153 0.040349964 76
2.0301018 -1.1128302 -0.53448373 67
2.04737 -1.122296 0.12236147 72
2.0450261 -1.1214753 -0.4533622 75
2.0384936 -1.1183559 0.2034215 70
2.036479 -1.1177131 -0.3679339 76
2.0271583 -1.113058 0.2839556 71
2.0374033 -1.119146 -0.285418 66
2.0326259 -1.1165217 0.36730817 72
2.0289819 -1.1149811 -0.20254995 76
2.0146036 -1.1075376 0.44687468 81
2.0300505 -1.1164912 -0.12141944 66
2.0198145 -1.1113207 0.53223419 72
2.0270758 -1.1153159 -0.04038487 81
2.0173492 -1.110423 0.6170246 75
2.0411632 -1.1272475 -0.62478918 69
2.0200698 -1.1155984 0.040280156 80
2.0264003 -1.1195562 -0.53448373 67
2.0399439 -1.1275036 0.12215213 74
2.037663 -1.1267072 -0.45259899 69
2.0380642 -1.1273935 0.20377012 70
2.0396757 -1.1282848 -0.36918539 72
2.0251932 -1.1207353 0.28419933 73
2.0232608 -1.1201272 -0.2839556 66
2.0235319 -1.120739 0.36636955 70
2.0250776 -1.1220568 -0.20254995 78
2.0143542 -1.1161153 0.44763795 83
2.0263369 -1.1232169 -0.12141944 68
2.0058925 -1.1123421 0.52953476 69
2.0231702 -1.1223849 -0.04038487 81
2.0134609 -1.117458 0.6170246 77
2.0391021 -1.1349494 -0.62530684 76
2.0266461 -1.1284801 0.040489584 76
2.0156701 -1.1228293 -0.53268409 72
2.0290172 -1.1307285 0.12173345 74
2.0236256 -1.1277237 -0.45030925 73
2.0238733 -1.1283247 0.20272426 70
2.0426252 -1.1392465 -0.37043685 74
2.0264692 -1.1306994 0.28493056 69
2.0193386 -1.127183 -0.2839556 66
2.007535 -1.1210538 0.36417946 72
2.0248246 -1.1307088 -0.20289856 78
2.0138741 -1.1250548 0.44840118 86
2.022404 -1.1302832 -0.12141944 68
2.0105021 -1.1240922 0.5317843 73
2.0087686 -1.1235832 -0.040175438 76
2.0095479 -1.1244797 0.6170246 79
2.0250196 -1.1363879 -0.62220097 80
2.0226946 -1.1355474 0.040489584 78
2.0253315 -1.1374928 -0.53628331 72
2.025058 -1.1378043 0.12173345 78
2.0196769 -1.1347808 -0.45030925 71
2.012975 -1.1314776 0.20202701 74
2.0351925 -1.1444333 -0.36981112 76
2.0277004 -1.140686 0.28566176 73
2.0188515 -1.1361719 -0.28444308 64
2.0053308 -1.1290239 0.36449236 74
2.0104485 -1.1319051 -0.20185271 76
2.0133557 -1.1340047 0.44916439 81
2.0219262 -1.1392968 -0.12162878 68
2.006566 -1.1311033 0.5317843 77
2.0083177 -1.1325529 -0.040245246 81
2.0022452 -1.1295888 0.61598933 77
2.0210404 -1.1434497 -0.62220097 76
2.0082767 -1.1366911 0.040280156 84
2.0145655 -1.1407148 -0.53448373 70
2.0280252 -1.1488035 0.12215213 76
2.0225363 -1.1456943 -0.45183572 73
2.01248 -1.1404617 0.20237562 72
2.022593 -1.1466593 -0.36824676 78
2.0185261 -1.1448191 0.28493056 71
2.0183263 -1.1451714 -0.28493056 64
2.0099671 -1.1408924 0.36605671 72
1.9995543 -1.1349819 -0.20115545 80
1.9957273 -1.1332703 0.44611144 81
2.0214102 -1.1483207 -0.12183812 68
2.0009115 -1.1371378 0.5313344 72
2.0130446 -1.1444981 -0.040419776 83
1.9982901 -1.136571 0.61598933 77
2.0237494 -1.1543261 -0.62427157 72
2.0042968 -1.1436943 0.040280156 82
1.9987246 -1.1409773 -0.5313344 65
2.0240026 -1.1558757 0.12215213 82
2.0253441 -1.1566417 -0.4533622 71
2.0050268 -1.145503 0.20202701 74
2.0185783 -1.1537124 -0.36824676 74
2.0007315 -1.1439756 0.28298062 71
2.0108702 -1.1502384 -0.28444308 66
2.0042579 -1.1469204 0.36574382 74
2.0059559 -1.1478921 -0.20220132 80
1.9883516 -1.138279 0.44534823 83
2.0069907 -1.1494144 -0.12121009 68
1.993548 -1.1421778 0.53043455 72
2.012507 -1.1535066 -0.040489584 83
1.9909589 -1.1416178 0.61495411 77
2.0130084 -1.1575313 -0.62220097 76
2.0002923 -1.1506836 0.040280156 82
1.9997966 -1.1508631 -0.53268409 67
2.0130322 -1.1589477 0.12173345 80
2.0144887 -1.1597862 -0.45183572 71
2.0079222 -1.1564724 0.20272426 72
2.0162504 -1.1617379 -0.36855966 78
2.0018854 -1.1539265 0.28371185 71
2.0034037 -1.1552675 -0.2839556 66
1.9968201 -1.1519353 0.36511809 74
2.000211 -1.1538916 -0.20202701 82
1.9843662 -1.1452127 0.44534823 81
2.0029662 -1.1564131 -0.12121009 68
1.9895489 -1.1491296 0.53043455 71
1.9980794 -1.1545218 -0.040280156 83
1.9903067 -1.150494 0.61598933 79
2.0122988 -1.1664888 -0.6232363 72
1.9962635 -1.1576589 0.040280156 78
1.9957671 -1.1578367 -0.53268409 72
2.0089743 -1.1659676 0.12173345 78
2.0002401 -1.1608983 -0.44954604 73
2.0038731 -1.1634744 0.20272426 70
2.0104747 -1.1677766 -0.36824676 76
1.9995617 -1.1619047 0.2839556 73
1.9993589 -1.1622536 -0.2839556 64
1.9927869 -1.1588984 0.36511809 77
1.9927262 -1.1588632 -0.20167838 74
1.9905385 -1.1580559 0.44763795 83
2.0058219 -1.1674162 -0.12162878 66
1.9855256 -1.1560675 0.53043455 81
1.9888536 -1.1584699 -0.040175438 78
1.9896169 -1.1593798 0.6170246 77
1.9948709 -1.1657084 -0.61909521 76
1.9956629 -1.1666385 0.040349964 80
1.9984423 -1.1687312 -0.53448373 67
2.0014441 -1.1709559 0.1215241 82
1.9995644 -1.1698562 -0.45030925 73
1.9946411 -1.167443 0.20220132 76
2.0029769 -1.1727911 -0.36762103 76
1.9972066 -1.1698806 0.28419933 71
1.9987152 -1.1712328 -0.28444308 66
1.9853213 -1.1638497 0.36449236 77
1.98695 -1.1648046 -0.20150407 76
1.983097 -1.1630107 0.44687468 86
2.0017347 -1.1744108 -0.12162878 68
1.9781168 -1.1610184 0.52953476 72
1.9847976 -1.1654053 -0.040175438 78
1.9705663 -1.1575116 0.6123659 81
1.9957831 -1.1756061 -0.62064809 69
1.9812417 -1.1675065 0.040140536 76
1.9909929 -1.1737208 -0.53358394 67
2.0042262 -1.1819934 0.1219428 80
1.9988509 -1.1788232 -0.45107248 73
1.9888378 -1.1733859 0.20202701 72
1.9988708 -1.1797757 -0.36762103 76
1.9948201 -1.1778543 0.28444308 73
1.9946145 -1.1782026 -0.28444308 68
1.9863485 -1.1737875 0.36543098 79
1.9811568 -1.1707196 -0.20132977 74
1.9773352 -1.168927 0.44649309 89
1.9941849 -1.1793575 -0.12141944 68
1.9774064 -1.1699008 0.53043455 74
1.9789966 -1.1713078 -0.040140536 83
1.9698384 -1.1663518 0.61340117 73
1.9916673 -1.1825656 -0.62064809 67
1.9771543 -1.174415 0.040140536 76
1.9667803 -1.1687173 -0.52818507 60
1.9966544 -1.1869411 0.12173345 76
1.9913486 -1.183787 -0.45030925 71
1.9847298 -1.1803212 0.20202701 74
1.9913452 -1.184726 -0.3669953 76
1.9804617 -1.1787189 0.28298062 73
1.9836674 -1.1810957 -0.28346813 68
1.9788446 -1.178692 0.36480519 72
1.9856172 -1.182726 -0.20220132 76
1.96481 -1.1707971 0.444585 86
1.9849094 -1.1832435 -0.12110542 71
1.9749844 -1.1777942 0.5308845 77
1.9851996 -1.1843557 -0.040349964 83
1.9723904 -1.1771808 0.61547172 81
1.9925002 -1.1924869 -0.62220097 63
1.9730427 -1.1813095 0.040140536 82
1.9693761 -1.179581 -0.52998471 58
1.9822196 -1.187744 0.12110542 80
1.9821522 -1.1877037 -0.44916439 67
1.9874332 -1.1913394 0.20272426 72
1.9871975 -1.1916697 -0.3669953 72
1.9780374 -1.186646 0.28322437 71
1.9761281 -1.1859697 -0.28298062 66
1.9747181 -1.1855924 0.36480519 82
1.9797682 -1.1886244 -0.20202701 73
1.9640772 -1.1796702 0.44534823 86
1.980767 -1.1901649 -0.12110542 74
1.9591695 -1.1776533 0.52773517 69
1.9741985 -1.1871562 -0.040210344 83
1.9699247 -1.1850544 0.61598933 77
1.983363 -1.1964411 -0.62064809 69
1.9757555 -1.1923223 0.040280156 80
1.9635781 -1.185441 -0.52953476 62
1.9748504 -1.1922463 0.12089607 78
1.9746333 -1.1925855 -0.44840118 62
1.9798517 -1.1962088 0.20237562 70
1.9847163 -1.1996208 -0.36730817 68
1.975582 -1.1945707 0.28346813 77
1.9753735 -1.1949155 -0.28346813 64
1.9623249 -1.1870223 0.36324087 85
1.9687887 -1.1914017 -0.20132977 74
1.9633065 -1.1885524 0.44611144 86
1.9783088 -1.1981064 -0.12121009 77
1.9600469 -1.1875141 0.52908486 77
1.9634097 -1.1895515 -0.040070724 85
1.9676361 -1.1925818 0.61650699 81
1.9742227 -1.2003461 -0.61909521 80
1.9683735 -1.1967897 0.040210344 80
1.9662962 -1.1959969 -0.5313344 75
1.9775014 -1.2032853 0.12131476 78
1.9687814 -1.1984501 -0.44801953 71
1.9637523 -1.1958586 0.20115545 76
1.9773531 -1.204141 -0.36668244 68
1.9750001 -1.2031808 0.2839556 75
1.9747901 -1.2035254 -0.2839556 64
1.9581695 -1.1938648 0.36324087 74
1.9544122 -1.1920421 -0.20028389 66
1.9610306 -1.1960788 0.44649309 89
1.9743249 -1.2046601 -0.12121009 69
1.9577615 -1.1950227 0.52953476 69
1.9592453 -1.1963979 -0.040070724 85
1.9420297 -1.1863507 0.60977769 75
1.9669365 -1.204868 -0.61805987 72
1.9539536 -1.1973844 0.040000916 82
1.9687549 -1.2069272 -0.53313398 77
1.9732891 -1.2101808 0.12131476 74
1.9698172 -1.2080514 -0.44916439 77
1.9597759 -1.202364 0.20115545 76
1.9647199 -1.2058694 -0.36511809 72
1.9707882 -1.2100674 0.2839556 73
1.9671943 -1.2083335 -0.28346813 64
1.9539901 -1.2006928 0.36324087 77
1.9606336 -1.2047751 -0.20132977 63
1.9417906 -1.1936634 0.44305849 81
1.9667051 -1.2094519 -0.12100074 66
1.9585577 -1.2049128 0.5308845 77
1.9550571 -1.2032295 -0.040070724 72
1.9493923 -1.2002124 0.61340117 83
1.9692942 -1.215786 -0.62013048 76
1.9463596 -1.2020961 0.039931107 72
1.9496094 -1.2045734 -0.52908486 72
1.9690528 -1.2170614 0.12131476 78
1.9705982 -1.2180166 -0.45030925 75
1.958956 -1.2112933 0.20150407 76
1.9688985 -1.2179161 -0.36668244 80
1.9564242 -1.210672 0.28249314 77
1.9595885 -1.2131033 -0.28298062 68
1.9514664 -1.2085464 0.36355373 82
1.9564161 -1.2116116 -0.20132977 72
1.9426188 -1.203536 0.44420335 89
1.9556808 -1.212101 -0.12058206 66
1.9493712 -1.2086612 0.52953476 69
1.9542441 -1.212155 -0.040140536 70
1.9369832 -1.2019168 0.61081296 75
1.9683187 -1.2246939 -0.62116575 80
1.9421517 -1.2088829 0.039931107 76
1.9420843 -1.2093112 -0.52818507 70
1.9548334 -1.2172499 0.12068672 74
1.9663345 -1.224888 -0.45030925 73
1.9597889 -1.2212852 0.20202701 74
1.9612824 -1.2226914 -0.36605671 80
1.9521862 -1.2174938 0.28249314 75
1.9519738 -1.2178346 -0.28249314 70
1.952476 -1.2181479 0.36449236 85
1.9555553 -1.2205433 -0.20167838 86
1.9350754 -1.2082304 0.44344014 77
1.9531319 -1.2199783 -0.12068672 71
1.936877 -1.2102951 0.52728528 73
1.9451263 -1.2154498 -0.040035821 74
1.9477298 -1.2175494 0.61547172 81
1.9640317 -1.2315571 -0.62116575 76
1.9499912 -1.2227529 0.040175438 68
1.9479685 -1.2219582 -0.5308845 70
1.9522641 -1.2251278 0.1207914 68
1.9520704 -1.225481 -0.44801953 75
1.9521391 -1.2259996 0.20167838 70
1.9655813 -1.2344416 -0.36762103 76
1.9565425 -1.2292409 0.28371185 67
1.9512858 -1.2264134 -0.28298062 74
1.9365059 -1.2175957 0.36230227 72
1.94791 -1.2252405 -0.20132977 82
1.9476764 -1.2250936 0.4472563 89
1.950766 -1.227512 -0.1207914 83
1.9394497 -1.2208638 0.52908486 73
1.9357952 -1.2190354 -0.039931107 87
1.9385647 -1.2212518 0.61391884 79
1.9468707 -1.2298095 -0.6170246 76
1.9355685 -1.2231427 0.039966013 89
1.9552214 -1.2360395 -0.53403378 75
1.949664 -1.2330027 0.12089607 74
1.9479958 -1.2319475 -0.44801953 75
1.9396445 -1.2271402 0.20080683 68
1.9579221 -1.2391821 -0.3669953 76
1.9539168 -1.237125 0.2839556 62
1.9503472 -1.2353418 -0.28346813 66
1.9289064 -1.2222333 0.36167651 65
1.94047 -1.2295604 -0.20098113 82
1.933439 -1.2255781 0.44496658 74
1.9565896 -1.2407317 -0.12141944 83
1.9302397 -1.2244948 0.52773517 70
1.9349051 -1.2279279 -0.040000916 85
1.927766 -1.2238694 0.61184824 79
1.9458253 -1.2386726 -0.61805987 80
1.9279137 -1.2277433 0.039896201 89
1.942677 -1.2376219 -0.5317843 72
1.9554536 -1.2462412 0.1215241 82
1.9536172 -1.2450708 -0.45030925 75
1.940389 -1.2371166 0.20132977 70
1.9435918 -1.2396356 -0.36511809 76
1.9445662 -1.2407347 0.28322437 67
1.9426763 -1.240006 -0.28298062 66
1.9246284 -1.2289587 0.36167651 65
1.9344872 -1.2352539 -0.20080683 78
1.9208769 -1.2270353 0.44305849 71
1.9438319 -1.2421765 -0.12089607 81
1.9308791 -1.234374 0.52908486 62
1.9339761 -1.2368292 -0.040070724 87
1.921855 -1.2295502 0.61133063 83
1.9479939 -1.2496299 -0.62013048 76
1.9252993 -1.2355456 0.039931107 79
1.9252261 -1.2359732 -0.52818507 72
1.9443696 -1.2487422 0.12110542 76
1.9492592 -1.2518826 -0.45030925 75
1.9377351 -1.2449591 0.20150407 80
1.9375908 -1.2453444 -0.36480519 78
1.9302049 -1.2410734 0.28176194 82
1.9383361 -1.2467796 -0.28298062 68
1.9269717 -1.2399453 0.362928 72
1.9301636 -1.2419993 -0.20080683 78
1.9132804 -1.2316077 0.44229528 71
1.9260505 -1.2403034 -0.1200587 81
1.9216441 -1.2379404 0.52773517 58
1.9262854 -1.2414061 -0.040000916 83
1.9143039 -1.2341576 0.6102953 70
1.9436201 -1.256422 -0.62013048 76
1.924333 -1.2444305 0.040000916 82
1.9176277 -1.2405688 -0.52728528 67
1.9332917 -1.2511811 0.12068672 80
1.9382846 -1.2544124 -0.44878277 73
1.9400676 -1.2560468 0.20220132 76
1.9398642 -1.2563958 -0.36605671 78
1.9258611 -1.2478034 0.28176194 80
1.9306407 -1.2513789 -0.28249314 68
1.9242891 -1.2477388 0.36324087 89
1.9325031 -1.2530649 -0.20150407 78
1.9106168 -1.2393471 0.4426769 78
1.9267354 -1.2502805 -0.12037271 77
1.9124076 -1.2414573 0.52638549 62
1.9252943 -1.2503008 -0.040070724 87
1.9164643 -1.245042 0.6123659 69
1.935985 -1.2610899 -0.61909521 76
1.913276 -1.246773 0.039861299 86
1.9230807 -1.2536404 -0.52998471 72
1.9289124 -1.2579221 0.12068672 78
1.9322497 -1.2600985 -0.44840118 79
1.9273279 -1.2573681 0.20132977 72
1.9371209 -1.264239 -0.36636955 76
1.9264803 -1.2577741 0.28249314 77
1.9229368 -1.2559394 -0.2820057 68
1.9099997 -1.2479653 0.36136368 79
1.9197778 -1.2543541 -0.20063251 82
1.921069 -1.2556762 0.44611144 92
1.9257025 -1.2591847 -0.12058206 76
1.9129549 -1.2513258 0.52773517 81
1.9075323 -1.2482541 -0.039791487 83
1.9104902 -1.2506659 0.61184824 67
1.9218808 -1.2614795 -0.61598933 72
1.9189413 -1.2600294 0.040070724 82
