# .PCD v0.7 - Point Cloud Data file format
VERSION 0.7
FIELDS x y z intensity
SIZE 4 4 4 4
TYPE F F F F
COUNT 1 1 1 1
WIDTH 1415
HEIGHT 1
VIEWPOINT 0 0 0 1 0 0 0
POINTS 1415
DATA ascii
1.9936631 2.8314416 -0.79947603 7
2.1802647 3.0941625 -0.7357595 6
3.575736 5.0726905 0.54298031 1
2.4207535 3.4341834 -0.66547227 1
3.5303488 5.0064416 0.75217766 31
2.6650069 3.7778907 -0.56766742 2
3.481777 4.9339085 0.95644045 4
2.9852219 4.2286863 -0.45286122 1
3.4714584 4.9174595 1.1700408 60
3.3780704 4.7834039 -0.30689809 1
3.4441221 4.8751287 1.3780502 10
3.4750679 4.9152913 1.6129603 1
1.8433138 2.6005197 -0.85410291 9
1.9990253 2.8181071 -0.79767644 7
2.1905127 3.0869157 -0.7357595 6
3.5925395 5.0608044 0.54298031 1
2.4235775 3.4128273 -0.66296935 1
3.5432034 4.9876156 0.7512027 61
2.6816287 3.7734187 -0.56839865 2
3.5092809 4.936214 0.95925629 21
3.0022731 4.221488 -0.45320985 1
3.4851875 4.9005132 1.168896 100
3.3947477 4.7715821 -0.30689809 1
3.4622498 4.8646636 1.3785001 12
3.4518592 4.8464828 1.5943254 1
1.8573252 2.6000335 -0.8561734 9
2.0065837 2.8079412 -0.79677659 7
2.2098083 3.0900433 -0.73843086 7
2.4383681 3.4071348 -0.66359508 1
3.5605905 4.9752173 0.7512027 100
2.6924739 3.7608061 -0.56791121 2
3.5253386 4.9223285 0.95894337 16
3.0123484 4.204505 -0.45251262 1
3.5054142 4.8908963 1.1696591 100
3.4122128 4.7591085 -0.30689809 1
3.4902773 4.8661938 1.3825492 21
3.4732618 4.8406816 1.596396 1
1.8686472 2.5966702 -0.85720873 9
2.0100281 2.7910802 -0.79407722 7
3.498889 4.8566866 0.31370175 1
2.2205808 3.0823112 -0.73843086 7
3.4690707 4.8135257 0.51909959 4
2.4479353 3.3953984 -0.66296935 1
3.571836 4.9524727 0.7497403 100
2.7015934 3.7444742 -0.56693625 2
3.5549181 4.9253912 0.96207207 16
3.0293396 4.1971941 -0.45286122 1
3.5270615 4.8849983 1.1711857 105
3.4288056 4.7471681 -0.30689809 1
3.4924068 4.8334455 1.3767005 12
3.5342195 4.8895159 -0.10530782 4
3.5136189 4.8592291 1.6067487 1
1.8776994 2.590132 -0.85720873 9
3.5430689 4.8855772 0.10534272 4
2.0289142 2.7966654 -0.79767644 7
3.5076082 4.8331294 0.31296906 5
2.2209475 3.0602415 -0.73499632 6
3.5057497 4.8287959 0.5220629 6
2.4690599 3.3996186 -0.66547227 1
3.5972681 4.9512172 0.75144643 100
2.7169807 3.7382326 -0.5674237 3
3.5627952 4.9001713 0.9595691 9
3.0510011 4.1962638 -0.4539071 1
3.5464001 4.875833 1.1719489 105
3.4876575 4.7933106 -0.31066626 1
3.5069625 4.8180752 1.3758006 8
3.6842749 5.0598211 -0.10925207 2
1.8821714 2.5773218 -0.85513818 10
2.0409644 2.7927125 -0.79857624 7
2.2397261 3.0635648 -0.73766762 7
3.6166773 4.9451838 0.53600776 1
2.4809129 3.3909786 -0.66547227 1
3.6145282 4.9386311 0.75144643 100
2.7347047 3.7351317 -0.56839865 2
3.5717092 4.8765483 0.95737904 14
3.0491495 4.163084 -0.45146674 1
3.5575957 4.8555064 1.1700408 100
3.5208995 4.803659 -0.31213167 1
3.5364361 4.8230901 1.3807496 15
1.8911572 2.5707355 -0.85513818 9
2.048389 2.7824328 -0.79767644 7
2.2527356 3.0588889 -0.73843086 7
3.6575518 4.9646111 0.53949404 1
2.485702 3.3727574 -0.66359508 1
3.6305687 4.9243851 0.7512027 68
2.7453687 3.7223685 -0.56791121 2
3.591054 4.8672309 0.95800477 7
3.0660274 4.155622 -0.45181534 1
3.5686953 4.8351598 1.1681327 27
3.4783282 4.7110023 -0.30689809 1
3.5486181 4.8044467 1.3789499 14
1.8978181 2.5610144 -0.85410291 9
2.0557683 2.7721343 -0.79677659 7
2.2622306 3.0494297 -0.73804927 6
3.6986055 4.9838133 0.54298031 1
2.4833312 3.345027 -0.6598407 1
3.639452 4.9005251 0.74949652 38
2.7583447 3.7127633 -0.56791121 2
3.6115582 4.8594217 0.95894337 7
3.0924008 4.1608853 -0.4535585 1
3.5925808 4.8321252 1.1704224 58
3.4947507 4.698833 -0.30689809 1
3.5630417 4.7889028 1.3780502 10
1.9113692 2.5605659 -0.8561734 9
2.0700953 2.7711878 -0.79857624 9
2.2763863 3.0462327 -0.7391941 7
3.715981 4.9708714 0.54298031 1
2.509186 3.3553231 -0.66359508 1
3.6601021 4.8925605 0.75022775 17
2.7712889 3.7031116 -0.56791121 2
3.6320515 4.8515282 0.95988196 7
3.1069071 4.1500645 -0.4535585 1
3.6164861 4.8289847 1.1727122 74
3.5111327 4.686604 -0.30689809 1
3.5797377 4.7764354 1.3780502 5
1.9198494 2.554214 -0.8561734 9
2.0769315 2.7611928 -0.79767644 7
2.2805727 3.0308239 -0.73728597 7
3.6725347 4.8789291 0.53426468 1
2.5274293 3.356451 -0.66547227 1
3.6846659 4.8914957 0.75193387 12
2.7847493 3.6954858 -0.56815493 2
3.6330087 4.8211637 0.95612758 4
3.1254468 4.1461048 -0.45425573 1
3.6253865 4.8075614 1.1704224 29
3.5266559 4.6749344 -0.30689809 1
3.589685 4.756763 1.3758006 3
3.6570473 4.8460264 -0.10597102 2
3.6269081 4.8043442 1.6129603 1
1.9264221 2.5444162 -0.85513818 9
3.6308584 4.7956343 0.10499368 4
2.086076 2.7542906 -0.79767644 7
3.6076016 4.7614622 0.31307372 7
2.2863958 3.0165858 -0.7357595 6
3.5848124 4.7279592 0.51909959 8
2.5266106 3.3323116 -0.66234362 1
3.6948698 4.8713417 0.7507152 5
2.7885888 3.6751618 -0.56644875 2
3.6701155 4.8352036 0.96144634 2
3.1326718 4.125648 -0.45320985 1
3.646059 4.8017654 1.1719489 19
3.5421381 4.6632147 -0.30689809 1
3.6136909 4.7556949 1.3789499 3
3.6666811 4.8236785 -0.10576159 2
1.9325073 2.5349407 -0.85410291 9
2.0968602 2.7485406 -0.79812634 7
2.3011515 3.015229 -0.73728597 6
3.6693869 4.8063111 0.52903533 1
2.5502176 3.3391697 -0.66547227 1
3.7154682 4.8631454 0.75144643 3
2.8218918 3.6922185 -0.57059228 2
3.6713748 4.8019614 0.95737904 4
3.1349511 4.0988612 -0.45146674 1
3.6639924 4.7905679 1.1723305 21
3.5583932 4.6508226 -0.30689809 1
3.6338241 4.7476935 1.3802997 3
1.9370774 2.521713 -0.8520323 9
2.1052537 2.73966 -0.79767644 7
2.3181708 3.0145569 -0.7391941 7
2.5407536 3.3016222 -0.6598407 1
3.7227325 4.837563 0.74949652 1
2.8190217 3.6618962 -0.5674237 2
3.7001684 4.8047667 0.96050775 4
3.1565328 4.0973659 -0.45251262 1
3.6779296 4.7724423 1.1711857 27
3.5754166 4.6377482 -0.30689809 1
1.955325 2.5271597 -0.8561734 9
2.1152818 2.7319248 -0.79767644 7
2.3286788 3.0064471 -0.7391941 7
2.5740469 3.3208354 -0.66547227 1
3.7647674 4.8552604 0.75437129 1
2.8324234 3.6515398 -0.5674237 2
3.7310739 4.8083405 0.96394926 2
3.1805882 4.0989141 -0.4539071 1
3.6897519 4.7533698 1.1696591 11
3.5915828 4.6252398 -0.30689809 1
1.9641339 2.5203195 -0.8561734 9
2.1212091 2.7199149 -0.79632676 6
2.3355355 2.9936569 -0.73804927 7
2.6464031 3.3896825 -0.68111575 1
3.7743604 4.8327031 0.75290889 1
2.8353763 3.6291158 -0.56547379 2
3.7502673 4.7984009 0.96457505 2
3.1875143 4.0783687 -0.45286122 1
3.7051094 4.7389174 1.1692775 8
3.6692302 4.6913347 -0.31213167 1
1.9729203 2.5134473 -0.8561734 9
2.1318948 2.7140257 -0.79677659 7
2.3459721 2.9854856 -0.73804927 6
2.597168 3.3027842 -0.66547227 1
3.8157544 4.8507023 0.75778365 1
2.8652124 3.6410367 -0.56888616 2
3.7466145 4.7610993 0.9595691 2
3.2017322 4.0672159 -0.45286122 1
3.7289181 4.735209 1.1715673 14
3.6237855 4.6000533 -0.30689809 1
1.9816813 2.5065455 -0.8561734 9
3.7255323 4.7122693 0.10485406 2
2.1505535 2.7191696 -0.80037582 7
3.7213986 4.7036614 0.3143298 1
2.3563783 2.9772789 -0.73804927 6
3.691699 4.6627812 0.52031976 2
2.6228199 3.3127389 -0.66922677 1
3.8318202 4.8380208 0.75778365 1
2.8760378 3.6299605 -0.56864244 2
3.7681203 4.7541833 0.96082056 2
3.2233381 4.0653815 -0.4539071 1
3.7446015 4.7228165 1.1715673 13
3.755708 4.7317338 -0.10544744 4
1.9851705 2.4939141 -0.85410291 9
3.7444508 4.702364 0.10492387 2
2.1551747 2.7055497 -0.79857624 7
3.7353044 4.6875191 0.31412044 3
2.3613453 2.9633062 -0.73652273 7
3.7021749 4.6442809 0.51962256 5
2.6343684 3.3035629 -0.66922677 1
2.8985975 3.6323111 -0.57059228 2
3.7970157 4.7564402 0.96394926 2
3.2293429 4.0453286 -0.45286122 1
3.7512622 4.697444 1.1685143 9
1.9962801 2.4899843 -0.85513818 9
2.1597283 2.6919293 -0.79677659 7
2.3839638 2.970356 -0.74033892 6
2.6928878 3.3528724 -0.68111575 1
2.8901172 3.5958679 -0.56644875 2
3.8284481 4.7616315 0.9677037 2
3.2459402 4.0371375 -0.45320985 1
3.7750206 4.6934996 1.170804 3
3.6709628 4.5624928 -0.30689809 1
2.0098135 2.4890132 -0.85720873 9
2.178911 2.6964996 -0.80037582 7
2.3844423 2.9498034 -0.73728597 6
2.704576 3.3434513 -0.68111575 1
2.9163911 3.6027286 -0.56912988 2
3.8127253 4.708324 0.9595691 2
3.2625215 4.0288787 -0.4535585 1
3.7975569 4.6879239 1.1727122 3
2.0136149 2.475987 -0.85513818 9
2.1907699 2.691901 -0.80127567 7
2.3922465 2.9384167 -0.73652273 6
2.6688175 3.2757957 -0.66922677 1
2.9302049 3.5940647 -0.56937367 2
3.8366272 4.7041721 0.96144634 2
3.2740455 4.0143785 -0.45320985 1
3.8275506 4.6913714 1.1769099 1
3.7027256 4.5367541 -0.30689809 1
2.0271425 2.4749205 -0.85720873 9
2.1976831 2.6812222 -0.80037582 7
2.4024894 2.9300475 -0.73652273 7
2.6526701 3.2328627 -0.66234362 1
2.9490285 3.5914872 -0.57059228 2
3.9224043 4.776917 0.97896701 2
3.2829809 3.9967663 -0.45251262 1
3.8227158 4.6521945 1.1704224 4
3.7185361 4.5238037 -0.30689809 1
2.0357687 2.4678297 -0.85720873 9
2.1966388 2.6618958 -0.79677659 7
2.4277034 2.9398098 -0.74110222 7
3.9527004 4.7847924 0.54298031 1
2.6759562 3.2392778 -0.66547227 1
2.9672472 3.5893373 -0.57181102 2
3.8937361 4.7083931 0.9677037 2
3.3045332 3.9944923 -0.4535585 1
3.8431292 4.6455421 1.1719489 4
3.7335181 4.5114465 -0.30689809 1
3.8659217 4.6681156 -0.10579649 4
2.0414722 2.4580934 -0.8561734 9
3.8476918 4.6312752 0.1050984 7
2.2059166 2.6542122 -0.79677659 7
3.8229096 4.5981841 0.31338775 5
2.4361832 2.9302337 -0.74072057 7
3.813117 4.5847735 0.52171427 6
2.6998804 3.2451036 -0.66860098 1
2.9543567 3.5484459 -0.56693625 2
3.910147 4.6947737 0.9677037 2
3.3279591 3.9957616 -0.45495299 1
3.8568053 4.6290851 1.1711857 3
3.7492447 4.4983859 -0.30689809 1
2.0574775 2.4598429 -0.85927927 9
2.2226737 2.6554615 -0.79947603 7
2.4451368 2.9202061 -0.74033892 5
3.9212079 4.6814094 0.53426468 1
2.7289538 3.2568562 -0.67298114 1
2.9692748 3.5411544 -0.5674237 2
3.9265122 4.6810951 0.9677037 2
3.3393269 3.9810662 -0.45460433 1
3.8767271 4.6201043 1.1723305 1
3.7649233 4.4852719 -0.30689809 1
2.0560939 2.4408264 -0.85513818 9
2.2369545 2.6536462 -0.80127567 7
2.4540491 2.9101529 -0.73995733 7
2.7403069 3.2473097 -0.67298114 1
2.9969862 3.5489688 -0.57034856 2
3.9428296 4.6673594 0.9677037 2
3.3454897 3.9602532 -0.4535585 1
3.9055018 4.6215405 1.1761467 1
3.7805557 4.4721036 -0.30689809 1
2.0696011 2.4395266 -0.85720873 9
2.2462032 2.6458223 -0.80127567 7
2.460381 2.8970792 -0.73881245 6
2.7465079 3.2317045 -0.67172968 1
3.0196455 3.5505822 -0.57229847 2
3.3592925 3.9485519 -0.4535585 1
3.9216115 4.6078782 1.1761467 1
3.7961445 4.4588785 -0.30689809 1
2.0781035 2.4322877 -0.85720873 9
2.2503591 2.6320412 -0.79947603 7
2.4755821 2.8944414 -0.74033892 6
2.7449265 3.2070909 -0.66860098 1
3.0229809 3.5294671 -0.57059228 2
3.3834248 3.9489059 -0.45495299 1
3.9530044 4.6120477 1.1807261 1
3.8584859 4.5001855 -0.31066626 1
2.089102 2.4279473 -0.858244 9
2.2582607 2.6226935 -0.79902619 7
2.4856715 2.8857818 -0.74033892 6
2.7741597 3.2184377 -0.67298114 1
3.0236144 3.5053637 -0.56839865 2
3.3997908 3.9400895 -0.45530161 1
3.9536846 4.5803881 1.1761467 1
3.8271809 4.4322677 -0.30689809 1
3.9824457 4.6088271 -0.10632006 2
2.1000938 2.4235606 -0.85927927 9
3.9634838 4.5723462 0.10562197 4
2.2661257 2.6133218 -0.79857624 7
3.9196775 4.5186229 0.31349242 3
2.493156 2.8741221 -0.73957568 6
3.9122131 4.5084281 0.52223718 4
2.769839 3.1908331 -0.66922677 1
3.0254169 3.4827998 -0.56644875 2
4.0076098 4.6118555 0.9677037 2
3.4082968 3.9221811 -0.45460433 1
3.9851041 4.5843401 1.1807261 1
3.8898091 4.4731388 -0.31066626 1
4.0037594 4.6009331 -0.10645968 2
2.1034596 2.4103932 -0.85720873 9
4.0320249 4.6187401 0.10701816 2
2.2829258 2.614202 -0.80127567 7
3.9748456 4.5500383 0.31663257 1
2.4954228 2.8565309 -0.73728597 6
3.9187503 4.4842415 0.52101701 4
2.7965624 3.1989906 -0.67298114 1
3.0584693 3.4961226 -0.57034856 2
3.4088473 3.8952658 -0.45286122 1
3.9855635 4.5526762 1.1761467 1
3.8922427 4.4445071 -0.30961955 1
2.1093106 2.4001334 -0.8561734 9
2.2920368 2.6062176 -0.80127567 7
2.5209413 2.8654907 -0.7418654 6
2.7763839 3.153626 -0.66547227 1
3.078527 3.4943626 -0.57181102 2
3.4276922 3.889323 -0.4535585 1
4.0014324 4.5387354 1.1761467 1
3.9209447 4.4458718 -0.31066626 1
2.1227968 2.3985431 -0.858244 9
2.301121 2.5982006 -0.80127567 7
2.5283237 2.853735 -0.74110222 7
2.7873762 3.1439145 -0.66547227 1
3.0907052 3.4835961 -0.57181102 2
3.4438934 3.8803136 -0.4539071 1
4.0172524 4.5247393 1.1761467 1
3.8886902 4.3784013 -0.30689809 1
2.1285861 2.3882334 -0.85720873 9
2.3049858 2.5843365 -0.79947603 7
2.5356562 2.8419614 -0.74033892 6
2.8114877 3.1489029 -0.66860098 1
3.0843306 3.4520609 -0.56839865 2
3.4627254 3.874213 -0.45460433 1
4.033021 4.5106897 1.1761467 1
3.9385703 4.4035053 -0.30961955 1
2.142072 2.386539 -0.85927927 9
2.3135438 2.576678 -0.79947603 7
2.5403135 2.8272512 -0.73881245 6
2.8087101 3.1248698 -0.66547227 1
3.1090369 3.4565718 -0.57083601 2
3.489558 3.8769097 -0.45634744 1
4.047956 4.4972916 1.1761467 1
2.144793 2.3736892 -0.85720873 9
4.1112223 4.548388 0.10701816 2
2.3342876 2.5815952 -0.80352521 7
4.0877037 4.5191922 0.31935403 1
2.5523086 2.8217242 -0.73957568 7
2.8355093 3.1326206 -0.66922677 1
3.1264122 3.4515858 -0.57181102 2
3.4890182 3.8505514 -0.45460433 1
3.9818668 4.3913918 -0.31066626 1
4.0850105 4.5019808 -0.10611063 4
2.1504648 2.3633306 -0.8561734 9
4.0840006 4.4866862 0.1059012 4
2.3367257 2.5662262 -0.80127567 7
4.0429301 4.4384527 0.3146438 5
2.5634639 2.8142495 -0.73995733 7
4.0163999 4.4077821 0.52171427 6
2.8570735 3.1343818 -0.67172968 1
3.1250646 3.4259849 -0.56937367 2
3.5078108 3.8442352 -0.45530161 1
3.9837048 4.3627162 -0.30961955 1
2.1639225 2.3615067 -0.858244 9
2.3483014 2.5609281 -0.80217546 7
2.5865438 2.8197513 -0.74377352 7
2.8733382 3.1302123 -0.67298114 1
3.1450624 3.4238257 -0.57083601 2
3.5292938 3.8407717 -0.45634744 1
3.9637611 4.3105578 -0.30689809 1
2.1747723 2.3567786 -0.85927927 9
2.354583 2.5498514 -0.80127567 7
2.5950379 2.8092635 -0.74339187 6
2.884248 3.1201627 -0.67298114 1
3.1542983 3.4099131 -0.57034856 2
3.5372674 3.8225787 -0.45565021 1
4.0276356 4.3494525 -0.31066626 1
2.1882453 2.3548341 -0.86134982 9
2.3634686 2.5416174 -0.80127567 7
2.6008162 2.7958765 -0.74224705 7
2.8951211 3.1100767 -0.67298114 1
3.1764102 3.4110568 -0.57229847 2
3.5397222 3.798548 -0.45425573 1
4.0618644 4.3558154 -0.31213167 1
2.1828456 2.333456 -0.8561734 9
2.3745484 2.5366104 -0.80217546 7
2.6033642 2.7800705 -0.74033892 7
2.9405382 3.1379342 -0.68111575 1
3.1849899 3.3976076 -0.57181102 2
3.563205 3.7984126 -0.45565021 1
4.0762854 4.3423228 -0.31213167 1
2.195869 2.3318307 -0.858244 9
2.3829463 2.5287228 -0.80217546 7
2.6179554 2.7771373 -0.7418654 6
2.9183955 3.0936809 -0.67360687 1
3.202282 3.3922422 -0.57278597 2
3.5791798 3.7888474 -0.45599884 1
4.1592526 4.4013619 -0.31736526 1
4.1960921 4.437242 -0.1065993 2
2.2123785 2.3321755 -0.86134982 9
4.1562643 4.38132 0.10541254 2
2.3917594 2.5203886 -0.80217546 7
4.167851 4.3904676 0.31726059 3
2.6308212 2.7703698 -0.74262863 6
4.1207981 4.3378639 0.52345741 2
2.9106634 3.0629172 -0.66922677 1
3.2168386 3.3839216 -0.57327342 2
3.611608 3.7965412 -0.4584392 1
4.1065011 4.3137593 -0.31213167 1
2.2258444 2.3300257 -0.86342037 9
2.4036739 2.5144231 -0.80307525 7
2.6431899 2.7640064 -0.74339187 6
4.1524405 4.3407302 0.52554911 1
2.9158747 3.0470285 -0.66797519 1
3.2154889 3.3577719 -0.57083601 2
3.6165681 3.7752795 -0.45739332 1
4.0524263 4.2273102 -0.30689809 1
2.2259264 2.31389 -0.86031455 9
2.4151397 2.5088246 -0.80397505 7
2.6555436 2.7575934 -0.74415511 6
2.9073038 3.0169175 -0.66359508 1
3.2313251 3.3508136 -0.57156724 2
3.6214254 3.7540274 -0.45634744 1
4.2058749 4.356833 -0.31736526 1
2.2313023 2.3033302 -0.85927927 9
2.421169 2.4975812 -0.80307525 7
2.6487532 2.7313938 -0.73957568 7
2.9260707 3.0152569 -0.66547227 1
3.2416201 3.3380888 -0.57132351 2
3.6150706 3.7213571 -0.4539071 1
4.1514502 4.2705193 -0.31213167 1
2.2379792 2.2941451 -0.85876161 9
2.4325957 2.4919026 -0.80397505 7
2.674732 2.7389858 -0.74415511 6
2.9503853 3.0191517 -0.66860098 1
3.2712927 3.3452053 -0.57449216 2
3.6447589 3.7258055 -0.45599884 1
4.1858888 4.2759852 -0.31359708 1
2.248682 2.2890749 -0.85979694 9
2.4330807 2.4750597 -0.80127567 7
2.6884055 2.7338326 -0.74529999 7
2.9470484 2.9947569 -0.66547227 1
3.2871294 3.3380089 -0.57522333 2
3.649354 3.7045431 -0.45495299 1
4.1811609 4.2414346 -0.31213167 1
4.3169427 4.3761172 -0.1072974 2
2.2620935 2.2867045 -0.86186743 9
4.2984924 4.3437467 0.10666911 4
2.44719 2.4720905 -0.80307525 7
4.2680702 4.309989 0.31788865 1
2.6882629 2.7146659 -0.74262863 6
4.2668247 4.3072324 0.53042984 1
2.957485 2.9844508 -0.66547227 1
3.2777936 3.3053718 -0.57156724 2
3.6819046 3.711587 -0.45739332 1
4.2662945 4.2976861 -0.31736526 1
4.368835 4.3979058 -0.10820492 2
2.2673335 2.2760587 -0.86083221 9
4.3559761 4.3712082 0.10771625 2
2.4640598 2.4718134 -0.80577469 7
4.2851577 4.2986417 0.31809795 1
2.7004943 2.7080464 -0.74339187 5
4.2480645 4.2584577 0.52624637 5
3.0013735 3.0076666 -0.67298114 1
3.2907152 3.2953138 -0.57181102 2
3.6863904 3.6902535 -0.45634744 1
4.21067 4.212141 -0.31213167 1
2.2697928 2.2626743 -0.85876161 9
2.480526 2.4718814 -0.80847406 7
2.7099299 2.6986039 -0.74339187 6
2.9777324 2.9642491 -0.66547227 1
3.318512 3.3011835 -0.57473588 2
3.6907706 3.6689363 -0.45530161 1
4.2586145 4.2319436 -0.3146438 1
2.2800295 2.2578528 -0.85979694 9
2.4863684 2.4604669 -0.80757427 7
2.7160735 2.6868405 -0.74262863 6
2.9880607 2.9538374 -0.66547227 1
3.3286037 3.2881837 -0.57449216 2
3.7256002 3.6790752 -0.45809054 1
4.2392435 4.183382 -0.31213167 1
2.2934062 2.2552991 -0.86186743 9
2.489382 2.4463096 -0.80577469 7
2.7338386 2.6855991 -0.74491841 6
3.0124495 2.9572284 -0.66860098 1
3.3584828 3.2946174 -0.57766074 2
3.7270391 3.6548889 -0.45669609 1
11.197555 10.976942 3.0479832 9
4.2737904 4.1881304 -0.31359708 1
2.3012655 2.2472792 -0.86186743 9
2.4923265 2.4321616 -0.80397505 7
2.7474129 2.6801517 -0.74606317 7
3.0453851 2.9687579 -0.67360687 1
3.3472128 3.26071 -0.57376093 2
3.7454832 3.6474175 -0.45739332 1
4.2683454 4.1536846 -0.31213167 1
4.501513 4.3775301 -0.10960111 2
2.3146424 2.2446125 -0.86393797 9
4.4624381 4.3259144 0.10848416 2
2.5036006 2.4261584 -0.80487484 7
4.4542055 4.3149195 0.32500634 1
2.7525208 2.6664476 -0.74491841 6
4.4584093 4.3174839 0.54298031 1
3.0557303 2.9581084 -0.67360687 1
4.4635525 4.3194466 0.76265842 3
3.3614275 3.2517676 -0.57424843 2
3.7495995 3.6260099 -0.45634744 1
4.354629 4.2081566 -0.31736526 1
4.3799057 4.2311053 1.4059441 1
4.4362135 4.2839994 -0.10764644 2
2.311331 2.2257996 -0.85979694 9
4.4227681 4.2576103 0.10715777 4
2.5162673 2.4214578 -0.80622458 7
4.4030285 4.235652 0.32019141 1
2.7618113 2.6568241 -0.74491841 7
4.3398962 4.1734576 0.52676928 2
3.0574934 2.9392095 -0.67172968 1
4.472877 4.2983389 0.76168346 1
3.3885057 3.2551405 -0.57692951 2
3.7622347 3.6128983 -0.45634744 1
4.4131494 4.2364993 1.1891217 111
4.3808212 4.2039924 -0.31820264 1
4.4554672 4.2726431 -0.10775116 4
4.3566275 4.1763964 1.6171014 40
2.3218791 2.2203875 -0.86083221 9
4.4433813 4.2476764 0.1072974 7
2.5317485 2.4193916 -0.80847406 7
4.4264531 4.2285328 0.32081944 5
2.7753279 2.6512346 -0.74606317 7
4.3746104 4.1775489 0.52920967 5
3.0905955 2.9503434 -0.67673558 1
4.3657851 4.1662083 0.74096566 3
3.3955388 3.239181 -0.57619828 2
4.4516521 4.2451825 0.97427392 26
3.8065438 3.6299944 -0.46018231 1
4.4264908 4.2197132 1.1887401 100
4.4128208 4.2052078 -0.31945869 1
4.4877334 4.273612 -0.10817002 6
2.3296154 2.2122695 -0.86083221 9
4.4654341 4.2390232 0.10747192 7
2.540179 2.4105389 -0.80847406 7
4.444798 4.2179542 0.32113346 5
2.7874136 2.6442339 -0.74682647 7
4.4122963 4.1841893 0.53199863 8
3.0492663 2.8906121 -0.66547227 1
4.3644505 4.1359248 0.73828453 8
3.4039412 3.2245808 -0.57571083 2
4.3395061 4.1108489 0.94674152 9
3.8018327 3.6002443 -0.45809054 1
4.3841648 4.1502481 1.1734754 27
4.3984561 4.1623259 -0.31736526 1
4.3659315 4.1300993 1.3874981 15
4.5164084 4.2724476 -0.10851907 4
4.2895074 4.056385 1.5819021 3
2.345757 2.2120759 -0.86393797 9
4.4838328 4.2283063 0.10757664 4
2.528306 2.3833885 -0.80217546 7
4.4478631 4.1914587 0.32029608 5
2.8037727 2.6412182 -0.74873453 6
4.4283271 4.1701269 0.53217298 6
3.0760922 2.8967361 -0.66922677 1
4.3868136 4.1295938 0.73974699 7
3.4218445 3.2200761 -0.57692951 2
4.3610239 4.1024423 0.94830585 9
3.8172772 3.5896842 -0.4584392 1
4.3206692 4.0630631 1.152868 11
4.4122362 4.147716 -0.31736526 1
4.2929764 4.0341945 1.3600541 12
4.2670255 4.0070043 1.5684435 7
2.3558991 2.2069271 -0.86497331 9
2.5565269 2.3931937 -0.80847406 7
2.7981806 2.6184921 -0.74491841 6
4.4537721 4.1663065 0.53356743 1
3.1121547 2.9102674 -0.67485833 1
4.4186049 4.1305218 0.74267185 5
3.4200108 3.1959128 -0.57473588 2
4.365212 4.0777564 0.94611579 7
3.8437204 3.5906057 -0.46018231 1
4.3434362 4.055995 1.1551577 9
4.3070312 4.019186 1.3600541 8
4.2781615 3.989449 1.5674082 8
2.3551021 2.1907947 -0.86186743 9
2.5620112 2.3816009 -0.80757427 7
2.8073044 2.6087081 -0.74491841 6
3.1309803 2.9074504 -0.67673558 1
4.5726647 4.2447224 0.76607072 1
3.4471502 3.1988108 -0.57741702 2
4.5343804 4.2062383 0.97959268 2
3.8474674 3.5690358 -0.45913643 1
4.3791623 4.0608311 1.160882 4
1.67273 1.5505942 -0.11953534 1
4.3381882 4.02002 1.3654529 8
4.5476971 4.2126889 -0.10820492 2
4.2948933 3.9771192 1.5684435 8
2.3627343 2.1825607 -0.86186743 9
4.527864 4.1811213 0.10757664 2
2.581764 2.3832183 -0.8111735 7
4.5017877 4.1541314 0.3210288 1
2.8192785 2.6015563 -0.74568158 7
4.4505291 4.1053939 0.52973258 1
3.1614418 2.9152501 -0.68111575 1
4.610806 4.2502632 0.7699706 1
3.4466171 3.1759958 -0.57546705 2
4.61587 4.2519479 0.9939847 2
3.8452492 3.542084 -0.45739332 1
4.5117354 4.154572 1.1921747 1
1.6531515 1.5217499 -0.1177559 20
4.4168253 4.0614815 1.607784 3
2.3803043 2.1834404 -0.86549091 9
2.5785744 2.363658 -0.80757427 7
2.8355803 2.5983303 -0.74758971 7
4.4854007 4.108676 0.53217298 1
3.1715965 2.9041994 -0.68111575 1
4.6636863 4.2689905 0.77630776 1
3.4737916 3.1786876 -0.57814825 2
3.8811092 3.5501587 -0.46018231 1
4.5580859 4.167943 1.2005702 1
1.6496089 1.5078845 -0.11712788 76
4.5108657 4.1189866 1.6367717 1
2.3879111 2.1751189 -0.86549091 9
2.5810456 2.3493948 -0.80577469 7
2.8489885 2.592381 -0.74873453 6
3.1817157 2.8931098 -0.68111575 1
4.6844339 4.2580271 0.77728271 1
3.4857831 3.1684847 -0.57839197 2
3.8934786 3.5365882 -0.46018231 1
1.6578197 1.5048022 -0.11733723 79
4.5502548 4.1273685 1.6460892 1
2.4008405 2.1723738 -0.86756152 9
2.5946047 2.3460503 -0.80757427 7
2.854656 2.5802865 -0.7479713 6
3.1473155 2.8428197 -0.67172968 1
4.7279949 4.2690778 0.78215748 1
3.4785898 3.1409447 -0.57546705 2
3.9051862 3.5236566 -0.46018231 1
1.6642846 1.5006335 -0.1174419 87
2.3994112 2.156651 -0.86445564 9
2.6052694 2.3400381 -0.80847406 7
2.8690407 2.5760517 -0.74949777 7
3.1684873 2.8429215 -0.67423266 1
4.7775927 4.2851844 0.7880072 1
3.5072696 3.1446846 -0.57839197 2
3.9263649 3.517982 -0.46122819 1
1.664788 1.4911089 -0.11712788 96
2.407299 2.1478429 -0.86445564 9
2.6279645 2.3439016 -0.81297308 7
2.8711348 2.5589881 -0.74758971 7
3.211339 2.8601923 -0.68111575 1
4.8192062 4.2922459 0.79239452 1
3.527122 3.1403422 -0.57985443 2
3.9207594 3.4883614 -0.45913643 1
1.6702417 1.4849975 -0.11712788 94
4.657402 4.1393967 -0.1087634 2
2.4176743 2.1419883 -0.86549091 9
4.6406674 4.1100492 0.10820492 2
2.6219463 2.3213365 -0.80847406 7
4.6073151 4.0790796 0.32249418 1
2.8903415 2.5580578 -0.75026101 7
4.6094418 4.0780897 0.53844815 1
3.1857889 2.8175597 -0.67360687 1
4.8586998 4.2955918 0.79629439 1
3.5371196 3.1260796 -0.57961065 2
1.6694266 1.4738703 -0.11670919 91
2.4265873 2.1348112 -0.86600858 9
2.6325574 2.3152025 -0.80937392 7
2.908102 2.5557282 -0.75255072 7
4.581737 4.025156 0.53356743 1
3.1951156 2.8069787 -0.67360687 1
4.8848491 4.2899365 0.79824424 1
3.5400088 3.1077833 -0.57839197 2
1.6864419 1.4794915 -0.19627473 1
1.6652956 1.4604245 -0.11608116 96
2.4423809 2.1343806 -0.8691144 9
2.643559 2.3085618 -0.81027371 7
2.90325 2.534451 -0.74911612 7
3.1989405 2.7906134 -0.67235541 1
4.9267254 4.2963419 0.80263156 1
3.5643008 3.1071501 -0.5805856 2
1.665804 1.4516381 -0.19331144 20
10.649547 9.2771072 2.7453599 2
1.6764071 1.4598503 -0.11649985 94
1.6774544 1.4597318 -0.038814154 3
2.4337661 2.1119151 -0.86342037 9
2.6604354 2.3069794 -0.81297308 7
2.9105952 2.5230162 -0.74873453 6
3.2176213 2.7871895 -0.67423266 1
4.9657025 4.299911 0.80653143 1
3.5691216 3.0894914 -0.57961065 2
1.6618214 1.4379916 -0.19226557 80
1.6814932 1.4539891 -0.11649985 96
1.6795131 1.4512528 -0.038744342 33
2.4499047 2.1109722 -0.86652619 9
2.6684709 2.2976806 -0.81297308 7
2.9253366 2.5179632 -0.75026101 6
3.2153482 2.7656381 -0.67172968 1
5.0107865 4.3084345 0.8114062 1
3.579885 3.077013 -0.57961065 2
4.9967465 4.293334 1.043418 30
1.659274 1.4256911 -0.191394 87
4.9638505 4.2635589 1.2719328 22
1.6865585 1.4481103 -0.11649985 96
1.689122 1.4492874 -0.038849056 79
2.4572568 2.1024094 -0.86652619 9
2.6735129 2.2858183 -0.81207329 7
2.9370914 2.5102894 -0.75102425 5
3.2159705 2.7466991 -0.66985244 1
5.0257926 4.2909207 0.8114062 1
3.6041927 3.076097 -0.58180428 2
5.0177145 4.2809925 1.0446695 7
1.6627251 1.4185969 -0.19121969 97
1.679444 1.4318483 -0.11566247 96
4.9626465 4.2295227 1.5053725 16
1.6911268 1.4407884 -0.038779248 99
4.9211016 4.1911502 1.7320172 26
2.4748874 2.1025739 -0.87014967 9
4.7402663 4.0257292 0.10855397 2
2.6814754 2.2764728 -0.81207329 7
4.7069588 3.9946196 0.3235409 1
2.9458365 2.5000212 -0.75102425 6
3.2406039 2.7482338 -0.67298114 1
5.0467978 4.2784848 0.81238109 1
3.6179385 3.0660634 -0.58229178 2
5.0476985 4.2762213 1.0477982 2
1.670954 1.4150687 -0.19156833 92
1.6813835 1.4233959 -0.11545313 94
4.9535785 4.1920328 1.4981741 6
1.6915648 1.4310031 -0.038674533 91
4.9386525 4.1764407 1.7330524 10
2.4870071 2.0972257 -0.87170261 9
2.6894059 2.2670982 -0.81207329 7
4.7728033 4.0219221 0.32709977 1
2.9519775 2.4866769 -0.75026101 6
4.6772213 3.9385867 0.53496194 1
3.2491446 2.735065 -0.67266828 2
10.030767 8.4436998 1.6098942 2
3.6103914 3.038079 -0.57936692 2
1.6774086 1.4105092 -0.19174263 99
5.0435247 4.2395263 1.2807101 2
1.6865889 1.4172242 -0.11545313 96
1.6873627 1.417372 -0.038465101 95
4.9295292 4.1393008 1.7247702 4
2.4824638 2.0786092 -0.86756152 9
2.7066641 2.2647295 -0.81477273 7
2.9636509 2.4788773 -0.75102425 6
3.2510931 2.7173734 -0.67110395 1
9.9336853 8.2999649 1.5894201 2
3.6316369 3.0343683 -0.58107305 2
1.6685572 1.3931532 -0.19017383 94
9.9538021 8.3079271 2.5202053 2
1.7007276 1.419005 -0.11608116 94
1.6922996 1.4114738 -0.038465101 97
5.0151682 4.1814508 1.7496167 2
2.4893436 2.0703652 -0.86756152 9
2.7126613 2.2544951 -0.81432283 6
2.9839363 2.4790716 -0.7540772 5
3.2509682 2.6990058 -0.66922677 1
9.8145113 8.1452713 1.5660212 2
3.6401527 3.02104 -0.58082932 2
1.6731683 1.3876119 -0.19017383 90
9.7999315 8.1245098 2.4744112 2
1.7023476 1.4108088 -0.11587181 91
1.7000514 1.4084053 -0.038534917 95
9.7812719 8.1004038 3.4029529 2
2.5021524 2.0670204 -0.86963201 9
2.7156136 2.2417657 -0.81297308 7
2.9860835 2.4641652 -0.75255072 6
3.253803 2.6831834 -0.66797519 1
9.7005453 7.9965158 1.5435972 2
3.6889746 3.0398762 -0.58692282 1
9.7412291 8.0243435 1.9989198 5
1.6780015 1.3817633 -0.19017383 92
9.6995115 7.9871383 2.4423552 2
1.7008486 1.4000789 -0.11545313 96
1.7018682 1.3999219 -0.038465101 93
9.6931019 7.9705038 3.3625772 1
2.5186753 2.0651846 -0.87273788 9
2.7158873 2.2260957 -0.8107236 6
2.9981332 2.4556913 -0.75331396 5
3.2789018 2.6837523 -0.67110395 2
9.6085796 7.8645377 1.5245856 2
1.7115092 1.4003552 -0.27152494 1
1.6828142 1.3758979 -0.19017383 90
9.5919132 7.8397136 2.4080098 1
1.6997824 1.3887805 -0.11503445 91
1.7036467 1.3914434 -0.038395293 97
9.5532618 7.7997832 3.3046017 3
2.5258684 2.0563807 -0.87273788 9
1.7246848 1.403614 0.038814154 11
2.7240274 2.2161269 -0.8107236 6
4.8174763 3.9178505 0.32542503 1
3.0066864 2.4452116 -0.75331396 6
3.2959156 2.6785185 -0.67266828 3
9.5202456 7.734138 1.5060616 2
1.675024 1.360285 -0.26494396 13
1.6909409 1.3722304 -0.19052245 90
9.4942179 7.7047372 2.3767169 1
1.7046195 1.382839 -0.11503445 91
1.7025225 1.3801515 -0.038255677 95
9.4917297 7.6917424 3.2735434 3
2.5243735 2.0398235 -0.86963201 9
1.7264634 1.3950711 0.038744342 66
2.7560024 2.2261965 -0.81792206 6
4.8559842 3.9210875 0.32709977 1
3.0095186 2.4292421 -0.75178748 5
4.7648821 3.844774 0.53565919 1
3.3180101 2.6763427 -0.6751712 3
4.958231 3.9993627 0.78215748 1
1.687489 1.3606594 -0.26616266 79
1.686411 1.3588204 -0.18947658 92
9.3847857 7.5590539 2.3423715 1
1.712788 1.3790866 -0.11524379 96
1.7010977 1.3691859 -0.038116053 97
9.3559666 7.5277691 3.2176385 3
2.5277562 2.0294642 -0.86859673 9
1.7186035 1.3793253 0.038465101 82
2.766408 2.2194858 -0.81882185 6
3.0201979 2.4222324 -0.75255072 5
3.3186944 2.6597297 -0.67360687 3
4.9017515 3.9270444 0.77118921 3
1.6997387 1.3612608 -0.26738134 96
4.879127 3.9061193 0.9899174 4
1.6877971 1.3507304 -0.18912795 94
4.8774519 3.9033856 1.2143085 1
1.7139927 1.3712039 -0.11503445 88
1.711877 1.3685317 -0.038255677 100
9.2933474 7.4267545 3.1876156 1
2.5366879 2.0213907 -0.8691144 9
1.7202798 1.3708259 0.038395293 99
2.771091 2.2073867 -0.81792206 6
3.0413432 2.4209287 -0.75560367 6
3.3361521 2.6536942 -0.6751712 3
4.8890209 3.8889012 0.76704568 3
1.6982647 1.3503778 -0.26640642 100
4.8819046 3.8804636 0.98772728 4
1.692502 1.3448302 -0.18912795 94
4.8394566 3.8439667 1.2013335 1
1.7096215 1.3574612 -0.11440641 96
4.8523293 3.8514266 1.4302388 1
1.7166439 1.3625473 -0.038255677 95
4.8366704 3.8376219 1.6543714 1
2.5588794 2.0245092 -0.87429082 7
1.7284297 1.3669919 0.038465101 98
2.7791622 2.197216 -0.81792206 6
3.040534 2.402993 -0.75331396 5
3.351594 2.6469324 -0.67642272 3
4.9686799 3.9226191 0.77728271 1
1.6967365 1.3395211 -0.26543146 100
4.9155803 3.8793066 0.99179459 4
1.6971852 1.3389153 -0.18912795 94
4.8651781 3.8367748 1.2043865 3
1.7112131 1.3490119 -0.11419707 94
4.8421178 3.8172185 1.4234902 1
1.7182474 1.3540725 -0.038185868 100
4.8136148 3.7920256 1.6419481 3
2.5701351 2.019594 -0.87584364 9
1.7360991 1.3637229 0.038534917 96
2.7833683 2.1855803 -0.81702226 6
3.051574 2.3953221 -0.7540772 5
3.3665705 2.6406789 -0.67767417 2
5.3034601 4.1584463 0.82749295 1
1.6980444 1.3314377 -0.26494396 97
5.267345 4.1286397 1.0600001 20
1.7047528 1.335737 -0.18947658 94
4.9211502 3.8545179 1.2150718 1
1.7156775 1.3433294 -0.11419707 96
1.7132804 1.3409716 -0.037976436 100
4.8215981 3.7724714 1.6403952 3
2.5631125 2.0003622 -0.87118495 7
1.7406108 1.3579596 0.038534917 94
2.8121135 2.1931167 -0.82332087 6
4.9223394 3.8374584 0.32709977 1
3.062598 2.3876028 -0.75484043 6
3.3706334 2.625859 -0.67673558 3
5.3172216 4.1408348 0.82749295 1
1.6995492 1.3230629 -0.26445648 100
5.3051052 4.1284289 1.0646931 2
1.6965935 1.3202877 -0.18808208 97
5.2732677 4.1021714 1.2986461 25
1.7295822 1.3449893 -0.11482509 96
5.2310858 4.066431 1.5296671 42
1.7179511 1.3349824 -0.037976436 100
4.8698277 3.7828741 1.6523008 3
2.5822954 2.0008695 -0.87532604 7
1.7326933 1.3420787 0.038255677 96
2.8105075 2.1761279 -0.82062149 6
3.0864382 2.3889151 -0.75865656 6
4.889668 3.7832572 0.54088855 1
3.3563414 2.5959485 -0.67204249 3
5.3127975 4.1076794 0.82456803 1
1.704157 1.3171227 -0.26445648 100
1.7074989 1.3192297 -0.18877934 94
5.307755 4.0993385 1.3036071 2
1.7311045 1.3365029 -0.11461575 99
1.7241844 1.3301986 -0.038011342 100
5.210371 4.0183258 1.7630754 19
2.5831387 1.9871322 -0.87325549 9
1.731027 1.3311458 0.038116053 96
2.7964559 2.1496775 -0.81432283 7
1.7766535 1.3657402 0.1174419 7
3.088531 2.3733428 -0.75713015 6
3.3841829 2.5986545 -0.67579699 2
5.301908 4.0697708 0.82066822 1
1.7071697 1.3099571 -0.26421279 94
1.7120931 1.3132617 -0.18877934 97
1.7230783 1.3207315 -0.11377838 96
1.7301724 1.3256911 -0.038046245 100
2.599272 1.9851381 -0.87636131 9
1.7417885 1.3302536 0.038255677 96
2.8035698 2.1403913 -0.81432283 7
1.7623577 1.3449892 0.11618583 49
3.0967972 2.3625462 -0.75713015 5
6.9913411 5.3317633 0.76923656 1
5.3153753 4.052165 0.82066822 1
1.7036095 1.298273 -0.26299405 100
1.7198374 1.3096911 -0.18912795 94
1.7242699 1.3125911 -0.11356904 99
1.7316065 1.3172218 -0.037976436 97
2.6027629 1.9741721 -0.87532604 7
1.7512014 1.3277903 0.038360391 100
2.8281074 2.1435413 -0.81927174 7
1.7543068 1.3291795 0.11534845 92
3.1046154 2.3522632 -0.75713015 5
7.0089827 5.3085513 0.76923656 1
1.7134959 1.2973186 -0.34040144 10
5.332655 4.0359807 0.82115573 1
1.7081307 1.2923188 -0.26299405 100
1.7209933 1.3015766 -0.18877934 94
1.7320276 1.3089731 -0.11377838 94
1.731407 1.3075534 -0.037871722 100
2.600378 1.9581027 -0.87222022 7
1.7494352 1.3168584 0.038220771 100
2.8480291 2.1430304 -0.82287097 6
1.7717046 1.3326529 0.11618583 100
3.112807 2.3414125 -0.75713015 6
7.0274715 5.2840509 0.76923656 1
1.7148563 1.2889553 -0.33977571 72
5.4101911 4.0650406 0.83090526 1
1.7126317 1.2863479 -0.26299405 100
1.7191525 1.2907765 -0.18808208 97
1.739782 1.3053161 -0.11398773 99
1.7327604 1.299103 -0.037801914 100
2.6087441 1.950171 -0.87273788 9
1.7396045 1.299971 0.037906628 94
2.8539317 2.1319087 -0.82242107 6
1.7699449 1.3216798 0.11576715 94
3.1304002 2.3375795 -0.75941986 6
1.7035129 1.2711481 -0.33664703 88
1.7202941 1.2827356 -0.26348156 100
1.7172577 1.2800052 -0.18738484 97
1.7411244 1.2968485 -0.11377838 99
1.7388892 1.2942402 -0.03783682 97
2.6294973 1.9514149 -0.87739658 7
1.7457377 1.2950815 0.03794153 100
2.8550956 2.1172898 -0.82062149 6
1.7825689 1.3214418 0.11629051 100
3.1385391 2.3266404 -0.75941986 5
4.97999 3.6903818 0.542283 1
1.7095271 1.2663693 -0.33695987 90
1.7247615 1.2767223 -0.26348156 100
1.7281219 1.278743 -0.18808208 94
1.7327929 1.2812637 -0.112941 100
1.7450036 1.2893519 -0.037871722 100
2.6300721 1.9376404 -0.87532604 7
1.7502481 1.2889794 0.03794153 100
2.8624685 2.1073112 -0.82062149 6
1.7694764 1.302189 0.11513911 96
3.152967 2.3203242 -0.76094633 6
1.7107542 1.2580541 -0.33633414 100
1.7164109 1.2612896 -0.26153165 100
1.7277577 1.2691649 -0.18755916 99
1.7372551 1.2752068 -0.112941 99
1.7494941 1.2832525 -0.037871722 100
2.6368203 1.9284471 -0.87532604 7
1.7611933 1.2875841 0.038081151 100
2.8666608 2.0950065 -0.8197217 7
1.7675606 1.2912914 0.11472043 96
3.1483655 2.3000383 -0.75789338 5
1.7151357 1.2520744 -0.33633414 100
1.7175947 1.252952 -0.26104417 100
1.7370071 1.2666472 -0.18808208 97
1.7449235 1.2714887 -0.11315035 100
1.7426473 1.2688978 -0.037627388 100
2.6513517 1.9249066 -0.87791425 9
1.7656773 1.281428 0.038081151 100
2.880264 2.0895662 -0.82152128 6
1.781758 1.2921491 0.11534845 98
3.1627319 2.2936454 -0.75941986 5
1.719496 1.2460793 -0.33633414 100
1.7251738 1.249277 -0.26153165 97
1.7301209 1.252398 -0.1868619 99
1.752588 1.2677306 -0.1133597 99
1.7438244 1.2604645 -0.03755758 100
2.650219 1.9099917 -0.87532604 7
1.7571594 1.2659061 0.037801914 100
2.9065173 2.0931647 -0.82692009 7
1.7846369 1.2847544 0.11524379 100
3.164346 2.2780027 -0.75789338 5
1.772423 1.2754934 0.19104539 4
1.7206271 1.2377635 -0.33570841 100
1.7359712 1.2478824 -0.26250657 100
1.7280093 1.2417016 -0.18616466 100
1.7570028 1.2616048 -0.1133597 100
1.7514634 1.2567008 -0.037627388 100
2.6568687 1.900731 -0.87532604 7
1.7615678 1.2597643 0.037801914 100
2.8947828 2.069406 -0.82152128 6
1.7953863 1.2834756 0.11566247 100
3.1818609 2.2737942 -0.7601831 5
1.793077 1.2808793 0.1927885 34
1.7152921 1.2248619 -0.33383119 100
1.7417158 1.2432717 -0.26275033 100
1.7355777 1.2379758 -0.18651329 100
5.9400802 4.2354555 1.4180925 7
1.7483845 1.2461904 -0.11252232 99
1.7572495 1.2520466 -0.03766229 100
2.6726069 1.898622 -0.87843186 7
1.7689962 1.2562319 0.037871722 100
2.8984518 2.0575383 -0.82062149 6
1.7866039 1.2682654 0.11482509 100
3.2150018 2.2814078 -0.766289 1
1.8005646 1.2772321 0.19313712 88
1.7257905 1.223737 -0.33508268 100
1.7344924 1.2294538 -0.26104417 100
1.7461771 1.2368195 -0.18721053 100
1.7525071 1.240386 -0.11252232 100
1.7630244 1.2473668 -0.0376972 100
5.9619699 4.2166286 1.9566721 2
2.6915166 1.898658 -0.88257295 7
1.7731527 1.2503581 0.037871722 100
2.9180009 2.0568979 -0.82422066 6
1.7893873 1.2608713 0.11472043 98
1.7268246 1.2167872 -0.41062099 7
1.8129349 1.2769903 0.19400868 100
1.7266083 1.2157329 -0.33445692 100
5.2806129 3.7167873 0.79288203 1
1.7355266 1.2211068 -0.26055667 98
5.3206892 3.7422187 1.0302775 2
1.7470094 1.2287302 -0.1868619 100
1.7598792 1.236864 -0.11273166 99
1.7608217 1.2366085 -0.03755758 100
2.6823037 1.87817 -0.87739658 7
1.7742296 1.2418681 0.037801914 100
2.9379361 2.0556378 -0.82781988 6
1.7937775 1.2546178 0.11472043 94
1.7246261 1.2062515 -0.40909451 60
1.794521 1.2546717 0.19156833 100
1.7356987 1.2130939 -0.33539551 100
5.3098264 3.7097018 0.79531944 1
1.7397788 1.2150407 -0.26055667 100
5.26893 3.6783936 1.0177628 2
1.7463863 1.2192031 -0.18633896 100
5.2694335 3.6773772 1.2490358 2
1.7641863 1.2307129 -0.11273166 96
1.7618464 1.2281678 -0.037487768 100
2.6856704 1.866591 -0.87636131 7
1.7719852 1.2311029 0.03766229 100
2.9418931 2.0431459 -0.82692009 7
1.7981458 1.2483492 0.11472043 96
1.7320513 1.2024636 -0.40985772 81
1.7988901 1.2483995 0.19156833 100
1.7269382 1.1980196 -0.33289257 100
5.3618927 3.7182949 0.80116916 1
1.7521664 1.2146152 -0.26177537 100
5.2914801 3.6667283 1.01964 2
1.7391685 1.2051558 -0.18511879 100
5.2386618 3.6287777 1.238732 1
1.7684712 1.2245476 -0.11273166 100
1.769412 1.2242856 -0.03755758 100
5.2113824 3.604497 1.6978531 2
2.6985307 1.8615922 -0.87843186 7
1.772979 1.22264 0.037592482 100
2.9393799 2.0262291 -0.82422066 7
1.8024927 1.2420644 0.11472043 98
1.7346221 1.1952959 -0.40947613 97
1.8048773 1.2432431 0.19174263 100
1.7262286 1.1886239 -0.331954 100
5.4925733 3.780591 0.81871831 1
1.75476 1.2073669 -0.26153165 100
5.3595843 3.6862972 1.0302775 2
1.7433645 1.1990778 -0.18511879 100
5.2739468 3.6260402 1.2440747 1
1.7595667 1.2093173 -0.11189428 100
1.7720262 1.21697 -0.037522674 100
5.2080069 3.5753486 1.6926767 4
2.716171 1.8598005 -0.88205534 9
1.7805362 1.218703 0.03766229 100
2.9593017 2.0247588 -0.82781988 7
1.8002234 1.2312542 0.11430173 92
1.7371637 1.1881249 -0.40909451 100
1.8157848 1.2414336 0.19243988 100
1.7368909 1.1870487 -0.33320546 100
5.5450759 3.788269 0.82456803 1
1.7491276 1.1945175 -0.26006919 100
5.5355668 3.7789395 1.0615644 2
1.7607039 1.2019715 -0.18651329 100
5.3238707 3.6330595 1.252852 2
1.7571774 1.1986662 -0.1114756 96
1.772959 1.208524 -0.037452865 100
5.2300315 3.563678 1.6957825 4
2.7290373 1.854652 -0.88412589 9
1.7847797 1.2124798 0.03766229 100
2.9566784 2.0078485 -0.82512045 6
1.7962475 1.2193544 0.11377838 100
1.7315539 1.1754383 -0.40680483 100
1.8184588 1.2339685 0.19226557 97
1.7410235 1.180979 -0.33320546 100
1.7532871 1.1884042 -0.26006919 100
5.4963923 3.7241371 1.0515525 2
1.763239 1.1947007 -0.18633896 100
5.5120735 3.7333586 1.2940667 2
1.7712742 1.1992433 -0.11210363 99
1.7655728 1.1944845 -0.037208531 100
5.2808461 3.5713723 1.7082058 4
2.7287664 1.8412703 -0.88205534 9
1.7937644 1.2099088 0.037767008 98
2.9762461 2.0067487 -0.82871968 6
1.8052496 1.2167404 0.11409239 92
1.7354422 1.1696901 -0.40680483 100
1.8109747 1.2201383 0.19104539 100
1.7465687 1.1763029 -0.33351833 100
1.8360524 1.236104 0.27176866 11
1.7572187 1.1825831 -0.26006919 100
5.4792109 3.6860416 1.045921 2
1.7475587 1.1751972 -0.18424724 100
5.460886 3.6723335 1.2791836 2
1.7752417 1.1933625 -0.11210363 99
1.764544 1.1852783 -0.037103817 100
5.4402146 3.652916 1.7558285 4
2.7322855 1.8291079 -0.88102001 9
1.7846822 1.194742 0.037487768 100
2.9864724 1.9985144 -0.82961947 6
1.8128062 1.212652 0.11430173 96
1.7429813 1.1655045 -0.40756804 100
1.8253727 1.220136 0.19209124 100
1.7393712 1.1622108 -0.33132821 100
1.7613351 1.1764433 -0.26006919 100
5.3047581 3.5418489 1.0102539 2
1.7582793 1.1735138 -0.1849445 100
5.2913961 3.5302615 1.2364424 1
1.77628 1.1846317 -0.11189428 96
1.7786537 1.1857665 -0.037313245 100
5.4207816 3.6124759 1.7454758 4
2.7434814 1.8227657 -0.88257295 7
1.7873844 1.187085 0.037452865 100
2.9775414 1.9767772 -0.82512045 6
1.8205669 1.2082088 0.11451109 92
1.750311 1.1615839 -0.40833127 100
1.8246403 1.2104523 0.19156833 100
1.748356 1.1594077 -0.33226684 100
1.8365779 1.2174499 0.27054995 100
1.7689455 1.1721715 -0.26055667 100
5.2584167 3.4831123 0.9989906 2
1.7656868 1.1695698 -0.18529311 100
5.2480311 3.474916 1.2234674 1
1.7804047 1.1784238 -0.11189428 99
1.7879915 1.1825494 -0.037417959 100
5.3308482 3.5243981 1.7123468 2
2.7611175 1.8206215 -0.88619649 9
1.7981949 1.1852419 0.037592482 100
2.9860513 1.9674428 -0.82557034 6
1.8181014 1.1974516 0.11409239 96
1.7510762 1.153307 -0.40756804 100
1.8271894 1.2029812 0.191394 100
1.7490927 1.1511254 -0.33164111 100
1.8325247 1.2055761 0.26933128 100
1.7697084 1.1638093 -0.26006919 100
5.2375307 3.4430325 0.99273324 2
1.7714236 1.1644932 -0.18546741 100
5.2109084 3.4242294 1.2120188 1
1.7711521 1.1634308 -0.11105692 99
1.7921088 1.1763004 -0.037417959 100
5.2171292 3.4231088 1.6719712 1
2.7658389 1.8099149 -0.88567883 7
1.8023214 1.1789573 0.037592482 100
1.8104199 1.1838025 -0.49939132 1
1.8120331 1.1848572 0.11346437 96
1.745231 1.1407429 -0.40527833 100
1.8363816 1.1998647 0.19191694 100
1.7547545 1.1460927 -0.331954 100
1.8367217 1.1991725 0.26933128 100
1.7637862 1.1511148 -0.25860679 100
5.2340302 3.4159298 0.9899174 4
1.7738094 1.1572138 -0.18529311 100
5.203095 3.393151 1.2074393 3
1.7852414 1.1637849 -0.11168494 99
1.7842724 1.1627083 -0.037173625 100
5.1475172 3.3530664 1.6460892 1
2.7689002 1.7981443 -0.88464355 9
1.8028674 1.1707954 0.037522674 100
1.7522224 1.1374727 -0.48229504 30
1.8161571 1.1785262 0.11346437 98
1.7459084 1.1325067 -0.40451509 100
1.8288563 1.1858598 0.19069678 100
1.7635168 1.1434926 -0.33289257 100
1.8406879 1.1930753 0.26933128 100
1.7675941 1.1452591 -0.25860679 98
5.2492394 3.3997853 0.99054313 7
1.7678025 1.1445193 -0.18424724 100
5.2275023 3.3844154 1.2104924 5
1.7874147 1.1567729 -0.11158027 100
5.1916656 3.358639 1.4275393 1
1.7916777 1.158646 -0.037243433 100
5.1397228 3.3224916 1.6398776 3
2.7748473 1.7889529 -0.88464355 9
1.8019003 1.1612458 0.037417959 100
1.7316092 1.1155186 -0.47554654 75
1.8252976 1.1754228 0.11377838 100
1.7562566 1.130963 -0.40604156 100
1.8277532 1.1765529 0.19017383 100
1.7542084 1.128778 -0.33038962 100
1.8415025 1.1844946 0.2688438 100
1.7749201 1.1412295 -0.25909427 100
5.2643976 3.3835783 0.99116892 28
1.7766166 1.1418821 -0.18477017 100
5.2326784 3.3619013 1.2089659 15
1.7897607 1.1494476 -0.1114756 99
5.2033567 3.3404975 1.4275393 11
1.7923455 1.1502243 -0.037173625 100
5.15942 3.3097444 1.6424657 5
2.7875838 1.7834212 -0.8867141 7
1.8025733 1.1527945 0.037348151 100
1.7387767 1.1115662 -0.47644633 100
1.8327553 1.1711955 0.11398773 100
1.7635021 1.1269403 -0.40680483 100
1.8368859 1.1733837 0.19069678 100
1.7581382 1.1226474 -0.33038962 100
1.8322394 1.1695153 0.26689389 100
1.7822396 1.1371628 -0.25958171 100
5.2445335 3.3449979 0.98522437 38
1.7805918 1.135673 -0.18477017 100
5.2245159 3.3309512 1.2043865 33
1.7836566 1.1367521 -0.11084756 99
5.2264919 3.3296421 1.4306886 22
1.7980363 1.1450354 -0.037208531 100
5.1823483 3.2989771 1.6460892 16
2.7937927 1.7736791 -0.8867141 7
1.8082751 1.1475664 0.037383057 100
1.734418 1.1002707 -0.47419682 95
1.8250256 1.1573033 0.11325502 96
1.7607933 1.1165717 -0.40527833 100
1.8460193 1.1701643 0.19121969 100
1.7653834 1.1186185 -0.33101538 100
1.8430191 1.1673609 0.26786885 100
1.772781 1.122439 -0.25763181 100
5.3029137 3.3562515 0.9939847 2
1.781178 1.1273202 -0.18442155 100
5.219521 3.3021958 1.2005702 77
1.7876135 1.1305195 -0.11084756 96
5.1952548 3.2843049 1.4189912 37
1.8020225 1.1387516 -0.037208531 100
5.1905656 3.2788055 1.645054 31
2.7852559 1.7546492 -0.88205534 1
1.8173459 1.1444443 0.037487768 100
1.7415463 1.0962864 -0.47509661 100
1.8290546 1.1509253 0.11325502 96
1.7646805 1.1104182 -0.40527833 100
1.8467195 1.1615921 0.19087107 100
1.7676053 1.1113975 -0.33070248 100
1.847083 1.16092 0.26786885 100
1.7733263 1.1141322 -0.25714433 100
1.8635386 1.1703553 0.34853604 11
1.7918515 1.1253338 -0.18511879 100
5.2393308 3.2891741 1.2024784 84
1.7915487 1.1242731 -0.11084756 100
5.1934819 3.2578642 1.415392 80
1.8009043 1.129267 -0.037103817 100
5.1741519 3.2432261 1.6362541 61
1.9624732 1.2267656 -0.62013048 8
1.8196341 1.1370336 0.037452865 100
1.7503207 1.0932983 -0.47644633 100
1.836449 1.1466496 0.11346437 94
1.765215 1.1021723 -0.40451509 100
1.8406222 1.1488087 0.18982521 100
1.7731491 1.1062673 -0.33101538 100
1.8544927 1.1565666 0.26835632 100
1.7873123 1.1142361 -0.25860679 100
1.7754773 1.1064278 -0.18302706 100
5.2507796 3.2708669 1.2024784 84
1.7988535 1.1201235 -0.11105692 100
5.2081304 3.2417767 1.4162918 80
1.7963456 1.117692 -0.036929294 100
5.1821613 3.2231028 1.6352189 88
1.9667438 1.2199074 -0.62013048 25
1.8167936 1.1264602 0.037313245 100
1.7508138 1.0851282 -0.47554654 100
1.8438364 1.1423355 0.11367371 94
1.7723898 1.0980712 -0.40527833 100
1.8412329 1.1402792 0.18947658 100
1.770282 1.0959116 -0.32976389 100
1.8551427 1.1479967 0.26786885 100
1.7878139 1.105902 -0.25811929 100
1.8615824 1.1510844 0.34665883 96
1.7776337 1.0991759 -0.18285275 100
5.2554855 3.2483876 1.2009518 85
1.8112479 1.119087 -0.11158027 100
5.2343359 3.232794 1.4203409 76
1.8070426 1.1156162 -0.037068911 100
5.1917372 3.2039783 1.6347013 95
1.9627631 1.2079732 -0.61754227 12
1.8207148 1.1201111 0.037313245 100
1.7462914 1.0739055 -0.47329703 95
1.8461102 1.1348475 0.11356904 100
1.7762111 1.0918789 -0.40527833 100
1.8553873 1.1401031 0.19052245 100
1.774097 1.089725 -0.32976389 100
1.854063 1.1383992 0.26713762 100
1.7916638 1.0996542 -0.25811929 100
1.8672731 1.1456118 0.34697169 100
1.7865547 1.0960892 -0.18337567 100
5.2734852 3.2341321 1.2024784 85
1.7998185 1.1033623 -0.11063822 94
5.2489128 3.2165382 1.4212408 76
1.8143353 1.111392 -0.037138719 100
5.2094793 3.1898725 1.6367717 93
1.9851044 1.2121888 -0.6232363 1
1.824614 1.1137484 0.037313245 100
1.7450386 1.0647585 -0.47194731 100
1.8415351 1.1231961 0.11304568 96
1.7833642 1.0877162 -0.40604156 100
1.8542526 1.1305077 0.18999951 100
1.7846369 1.087638 -0.33101538 100
1.8529397 1.1288215 0.26640642 100
1.7887098 1.0892631 -0.25714433 100
1.8678857 1.1370329 0.34634593 100
1.7971771 1.0939906 -0.18407291 100
5.294806 3.2218261 1.2047681 85
1.8002465 1.0949969 -0.11042888 99
5.2651033 3.2012348 1.4225905 80
1.8199129 1.1060901 -0.037173625 100
5.2304893 3.1776855 1.6398776 93
2.8435428 1.7227905 -0.89085519 7
1.8336215 1.1104815 0.037417959 100
1.752079 1.0606786 -0.4728471 100
1.8403186 1.1136584 0.11273166 100
1.7703539 1.0713198 -0.40222538 100
1.8581867 1.1240296 0.18999951 100
1.785042 1.0793571 -0.33038962 100
1.856869 1.1223462 0.26640642 100
1.7891026 1.0809609 -0.25665686 100
1.8616982 1.1243778 0.34446874 100
1.7975743 1.0856501 -0.1837243 100
5.3194666 3.2114403 1.207821 85
1.804057 1.0887074 -0.11042888 96
5.2712402 3.1798153 1.4212408 76
1.8134884 1.0935345 -0.036964197 100
5.2514749 3.1653957 1.6429834 93
2.8495395 1.7128533 -0.89085519 7
1.8340586 1.1020138 0.037348151 100
1.764123 1.0595744 -0.47509661 100
1.8510439 1.1113404 0.11315035 100
1.7774488 1.067155 -0.40298861 100
1.8569742 1.1144601 0.18947658 100
1.7837166 1.0700723 -0.32945102 100
1.8777997 1.1260672 0.2688438 100
1.7928652 1.0747087 -0.25665686 100
1.8656119 1.1178721 0.34446874 100
1.7945172 1.0752722 -0.18302706 100
5.3441172 3.2009239 1.210874 85
1.8164147 1.0875329 -0.11095224 100
5.2956858 3.1694007 1.42484 76
1.8138623 1.0851448 -0.036894388 100
5.2608347 3.1460524 1.6424657 91
2.8538423 1.7019058 -0.89033753 6
1.827588 1.0894618 0.037138719 100
1.7661371 1.052412 -0.47464675 98
1.8530031 1.104174 0.11304568 98
1.7811635 1.0609436 -0.40298861 100
1.8522933 1.1028751 0.18860501 100
1.7823488 1.0608082 -0.32851243 100
1.8714832 1.1134152 0.26738134 100
1.8068422 1.0745322 -0.25811929 100
1.8710057 1.1126902 0.34478158 100
1.7982588 1.0690029 -0.18302706 100
5.3434443 3.1752281 1.2082026 59
1.8184823 1.080166 -0.11084756 99
5.3201199 3.158859 1.4284393 82
1.8226089 1.0821871 -0.036999103 100
5.2762227 3.131546 1.6440187 95
2.0018353 1.184355 -0.6232363 1
1.8346328 1.0854322 0.037208531 100
1.7528441 1.0366291 -0.47014773 100
