# .PCD v0.7 - Point Cloud Data file format
VERSION 0.7
FIELDS x y z intensity
SIZE 4 4 4 4
TYPE F F F F
COUNT 1 1 1 1
WIDTH 1340
HEIGHT 1
VIEWPOINT 0 0 0 1 0 0 0
POINTS 1340
DATA ascii
-0.98821598 2.55969 -0.63346219 29
-0.96994078 2.513659 0.14120242 10
-0.98876518 2.5624435 -0.53388357 30
-0.97359067 2.5244293 0.23671499 33
-0.98828655 2.5638671 -0.43520072 36
-0.96843332 2.5136697 0.33075345 57
-0.98012125 2.5453312 -0.33489698 28
-0.96352983 2.503547 0.42487606 10
-0.98327833 2.5548594 -0.23950398 39
-1.0875795 2.827338 0.58883661 2
-0.98263609 2.5558555 -0.1435052 10
-0.96860367 2.521981 -0.047156405 3
-1.0869321 2.8315563 0.81269181 1
-0.98202723 2.5676374 -0.73659903 29
-0.97106618 2.5403106 0.047470544 4
-0.97996974 2.5649443 -0.63391209 27
-0.97255987 2.5468831 0.14287716 10
-0.98121458 2.5695477 -0.53464681 29
-0.9640618 2.5259514 0.23654069 31
-0.98355454 2.5783756 -0.43707794 34
-0.96248108 2.5244546 0.33172837 58
-0.97476411 2.5580122 -0.33611569 32
-1.0525128 2.7634921 0.46836486 4
-0.96938962 2.545243 -0.2382838 28
-1.076306 2.8274477 0.58807337 2
-0.97299892 2.5574031 -0.14340053 2
-0.963346 2.5346932 -0.047330927 2
-1.0674379 2.8100498 0.8054449 1
-0.97442538 2.5746634 -0.7376343 28
-0.96077842 2.5399437 0.047400735 4
-0.97583503 2.581109 -0.63706136 29
-0.96295828 2.5483942 0.14277251 10
-0.97293371 2.5747933 -0.53502846 28
-0.95312744 2.5237093 0.23601775 29
-0.97036326 2.5707042 -0.43520072 36
-0.97188216 2.5760887 0.33806559 56
-0.97073221 2.5744009 -0.33782184 28
-1.0686358 2.8355422 0.47994098 3
-0.95698655 2.5392895 -0.23741224 9
-1.0581259 2.8091402 0.58349395 2
-0.96477008 2.5626526 -0.1435052 1
-0.95871633 2.5492706 -0.047540355 2
-1.0617013 2.8246086 0.80855072 1
-0.96814144 2.5852859 -0.73970485 28
-0.94349432 2.5208085 0.046981879 2
-0.96340597 2.5753732 -0.63481188 27
-0.95940113 2.5646675 0.1435052 9
-0.9694398 2.5928855 -0.53808141 27
-0.94849598 2.5382192 0.2370636 28
-0.96345794 2.579627 -0.43613935 37
-1.0607685 2.8416898 0.37243277 58
-0.96566021 2.5869045 -0.33904055 20
-1.0578452 2.8353691 0.47931525 2
-0.95229405 2.5538149 -0.2384581 1
-1.049684 2.8164961 0.58425713 1
-0.95024085 2.5510321 -0.14266783 1
-0.95025665 2.5524359 -0.047540355 2
-1.0617598 2.853462 0.81579769 1
-0.96157795 2.5939162 -0.74125779 27
-0.94346726 2.5464246 0.047400735 3
-0.95756662 2.5858641 -0.63661146 26
-0.94534177 2.5528514 0.14266783 7
-0.96219951 2.5997684 -0.53884465 28
-0.9718709 2.6273079 0.24508193 9
-0.95626765 2.5865138 -0.43676507 32
-1.05478 2.8545017 0.37365144 62
-0.95294863 2.5789204 -0.33757812 7
-1.0566498 2.8610978 0.48306966 2
-0.95623797 2.5906031 -0.24159572 1
-1.0430572 2.8273292 0.58578366 1
-0.94592237 2.5654125 -0.14329587 1
-0.94455361 2.5630782 -0.047679976 2
-1.0643107 2.8895974 0.82511514 1
-0.95496798 2.6025312 -0.74281067 28
-0.94190234 2.5683138 0.047749784 2
-0.95234013 2.5981736 -0.638861 29
-0.93779951 2.5598862 0.14287716 7
-0.95019698 2.5937274 -0.53693652 30
-1.0501512 2.8681238 0.26721951 7
-0.94768566 2.5896704 -0.43676507 12
-1.0514457 2.8747623 0.37584507 72
-0.94871092 2.5952826 -0.33928427 1
-1.0398779 2.8462141 0.47994098 2
-0.95721477 2.6199596 -0.24403608 1
-1.0356965 2.8363049 0.58692849 1
-0.94151777 2.5797927 -0.14392389 1
-0.93354559 2.5607238 -0.047575258 1
-1.0423123 2.8606231 0.81579769 1
-0.94455993 2.6022167 -0.74177545 28
-0.93429619 2.5753458 0.047819596 2
-0.94326437 2.6014824 -0.638861 29
-1.0302492 2.842931 0.15847328 1
-0.94180566 2.5988746 -0.53731817 27
-1.0394553 2.8698983 0.2670452 7
-0.93796718 2.5911057 -0.43645221 3
-1.0427545 2.8821487 0.37633255 80
-0.9490968 2.6247129 -0.34269661 1
-1.0312786 2.8535426 0.48056671 2
-0.9480629 2.6232853 -0.24403608 1
-1.0357933 2.8676004 0.5926528 1
-0.93522006 2.5905776 -0.14434259 1
-0.92053169 2.55268 -0.047365833 1
-1.0388713 2.8824179 0.82097405 1
-0.93677562 2.6091347 -0.74281067 29
-0.92935371 2.589884 0.048029024 2
-0.93746769 2.6139305 -0.64111048 27
-1.0445811 2.9141941 0.16224147 1
-0.93405348 2.6058419 -0.53808141 9
-1.0327915 2.8828871 0.26791674 6
-0.92758548 2.5906439 -0.43582645 1
-1.0326881 2.8857708 0.37633255 80
-0.9399296 2.6280096 -0.34269661 1
-1.0213108 2.8571253 0.48056671 2
-0.92503595 2.5892172 -0.24054985 1
-1.0178517 2.8490126 0.58807337 1
-0.93020195 2.6051118 -0.14497061 1
-0.91295969 2.5596445 -0.047435641 1
-1.0275067 2.8823869 0.81993878 1
-0.93043643 2.621654 -0.74539888 30
-1.0192934 2.8720231 0.053194933 1
-0.92638248 2.6116774 -0.63976079 25
-1.0317321 2.9102931 0.1618228 2
-0.925807 2.6129494 -0.53884465 1
-1.0275382 2.9016786 0.26931125 8
-0.91808343 2.5940266 -0.43582645 1
-1.0232701 2.8912296 0.3765763 88
-0.94663745 2.6761901 -0.34854636 1
-1.0218667 2.8904712 0.48557264 2
-0.92926681 2.6300023 -0.24403608 1
-1.0074019 2.8527243 0.58807337 1
-0.92064685 2.6085041 -0.14497061 1
-0.91466194 2.5929887 -0.047994118 1
-1.0148691 2.8786688 0.81786817 1
-0.92639822 2.6394684 -0.74953997 30
-1.0299422 2.9361224 0.05431189 1
-0.91229147 2.6021819 -0.63661146 8
-1.0169421 2.9006832 0.16109009 2
-0.9218747 2.6309874 -0.54189759 1
-1.0220133 2.9184103 0.27053142 7
-0.90902352 2.5972154 -0.43582645 1
-1.0107008 2.8893392 0.37584507 103
-0.92765117 2.6534073 -0.34513399 1
-1.0124234 2.8958855 0.4858855 2
-0.92008132 2.6332297 -0.24403608 1
-1.0039113 2.874758 0.59188956 1
-0.90627116 2.596616 -0.14413324 1
-1.0057163 2.8831599 -0.053299651 1
-1.0086294 2.8931391 0.82097405 1
-0.91844523 2.6463361 -0.75057524 23
-1.0372461 2.9886398 0.055219412 1
-0.91706777 2.643857 -0.64605945 1
-1.0113907 2.9174247 0.1618228 2
-0.91011357 2.6267693 -0.54037106 1
-1.0111673 2.9200778 0.2703571 6
-0.90040517 2.6002157 -0.43582645 1
-1.0069574 2.9095583 0.37803873 88
-0.91235727 2.6377087 -0.34269661 1
-1.0016625 2.8975348 0.48557264 3
-0.91088456 2.636425 -0.24403608 1
-1.0059134 2.9114723 0.5987587 1
-0.94459105 2.7355347 -0.15166962 1
-1.0034696 2.909338 -0.053718507 1
-1.0035616 2.911253 0.82511514 1
-0.9033916 2.6310959 -0.74539888 8
-1.0268081 2.9922421 0.055219412 1
-0.91289157 2.6617885 -0.64965868 1
-1.0050857 2.9322736 0.16245082 1
-0.90012527 2.6260583 -0.53960788 1
-0.99954182 2.9177599 0.26983419 5
-0.8913238 2.6033428 -0.43582645 1
-0.9980796 2.9168119 0.37852621 112
-0.93526262 2.734792 -0.35488355 1
-0.99218166 2.9028828 0.4858855 2
-0.90213615 2.6394315 -0.24403608 1
-0.99828202 2.9223976 0.60028511 1
-0.99956673 2.9278288 -0.16213681 1
-1.0010538 2.9355352 -0.054137368 1
-0.99339396 2.9147382 0.82511514 1
-0.89171726 2.6269162 -0.74332833 1
-1.0163575 2.9958079 0.055219412 1
-0.89984053 2.6538854 -0.64695925 1
-0.99868923 2.947114 0.16307886 1
-0.89095241 2.6291847 -0.53960788 1
-0.98935145 2.921231 0.26983419 5
-0.88223147 2.6064379 -0.43582645 1
-0.99107176 2.9296803 0.37974492 133
-0.92571127 2.7380397 -0.35488355 1
-0.98520362 2.9156859 0.48744985 2
-0.97676748 2.8923838 0.59341598 1
-1.0123343 2.9994256 -0.165905 1
-0.99079996 2.9390121 -0.054137368 1
-0.9832142 2.9181879 0.82511514 1
-0.89114684 2.6556532 -0.75057524 1
-1.0058933 2.9993374 0.055219412 1
-0.89057058 2.6570106 -0.64695925 1
-0.99145025 2.9579842 0.16349754 1
-0.88426441 2.6397247 -0.54113436 1
-0.98357534 2.9378922 0.27105436 6
-0.88190258 2.6357281 -0.44020665 1
-0.97643304 2.9199436 0.37803873 141
-0.89349532 2.6734765 -0.34610897 1
-0.98179144 2.9376719 0.49057853 2
-1.0099283 3.023617 -0.27889836 1
-0.9716391 2.9106734 0.59646893 1
-0.97910237 2.9347358 -0.16213681 1
-0.99369955 2.9802215 -0.054835461 1
-0.97108787 2.9141011 0.8230446 1
-0.87943941 2.6514134 -0.7485047 1
-0.99090594 2.9874725 0.054940179 1
-0.88543439 2.6710474 -0.64965868 1
-0.97735083 2.9500515 0.16286951 1
-0.87257677 2.63534 -0.53960788 1
-0.97832221 2.9564395 0.27244884 6
-0.88681054 2.6798959 -0.44708973 1
-0.96986187 2.9325888 0.37925744 165
-0.97462821 2.9504595 0.49214289 1
-0.96567494 2.925065 0.5987587 1
-0.96936554 2.9379661 -0.16213681 1
-0.99831128 3.0292532 -0.055673175 1
-0.96332794 2.9248128 0.82511514 1
-0.87064141 2.6543152 -0.7485047 1
-0.99417502 3.0327179 0.055708081 1
-0.86397016 2.6370845 -0.64066058 1
-0.96704656 2.9534454 0.16286951 1
-0.87238503 2.6643405 -0.54495054 1
-0.96851206 2.9596677 0.27244884 5
-0.96146864 2.9416173 0.37998864 167
-0.95512819 2.9256761 0.48744985 2
-0.9652012 2.9582808 0.60486454 1
-0.95910347 2.9413323 -0.16213681 1
-0.98773175 3.0327194 -0.055673175 1
-0.95311171 2.9281578 0.82511514 1
-0.8518402 2.6279345 -0.74022251 1
-0.96756011 2.9867079 0.054800555 1
-0.87756985 2.7105355 -0.65775687 1
-0.96042097 2.968204 0.16349754 2
-0.86428875 2.6711051 -0.54571378 1
-0.95756257 2.9611344 0.27227452 3
-0.95912701 2.9695122 0.38315722 180
-0.94854945 2.9402721 0.48932707 2
-0.97874027 3.0338562 -0.27889836 1
-0.95005012 2.9466834 0.60181159 1
-0.97714025 3.0361485 -0.055673175 1
-0.94288397 2.9314673 0.82511514 1
-0.86387634 2.697124 -0.75885749 1
-0.95712781 2.9900675 0.054800555 1
-0.86810231 2.7135828 -0.65775687 1
-0.95066303 2.9734409 0.16360222 2
-0.94721967 2.9644589 0.27227452 3
-0.94996333 2.9766243 0.38364473 185
-0.93947923 2.9473293 0.4899528 2
-0.94094956 2.9537237 0.60257488 1
-0.95805168 3.0128617 -0.05518451 1
-0.9326461 2.9347403 0.82511514 1
-0.84746146 2.6780214 -0.75264585 1
-0.94909739 3.0010166 0.054940179 1
-0.86567301 2.738894 -0.66315573 1
-0.94268358 2.9843595 0.1640209 2
-0.93986559 2.9772472 0.27314609 2
-0.94076031 2.9837086 0.38413221 191
-0.93511957 2.9694321 0.49308151 2
-0.92827642 2.9494989 0.60104835 1
-0.94992685 3.0238185 -0.055324126 1
-0.93744224 2.9858997 0.83857375 1
-0.93384606 2.9890416 0.054660939 1
-0.93642431 3.0009785 0.16475362 2
-0.93599272 3.0014322 0.27506351 3
-0.93092895 2.9888699 0.38437593 203
-0.92474782 2.9726787 0.49308151 2
-0.94638449 3.0441046 -0.27889836 1
-0.91914004 2.956471 0.60181159 1
-0.94529182 3.0462146 -0.055673175 1
-0.92014623 2.9670119 0.83236206 1
-0.92812312 3.0075696 0.054940179 1
-0.92417902 2.9985025 0.16443959 2
-0.92674339 3.0105555 0.27558646 5
-0.92516041 3.0072796 0.38632584 198
-0.91204548 2.9683352 0.49182999 2
-0.91751403 2.9898496 0.60791749 1
-0.92996556 3.0342007 -0.055393942 1
-0.91883701 2.9997602 0.8406443 1
-0.92175543 3.0262542 0.055219412 1
-0.91545212 3.0074425 0.16475362 2
-0.91390997 3.0061474 0.2748892 2
-0.91009408 2.9973545 0.38461968 185
-0.89651537 2.9544885 0.48901421 2
-0.90137696 2.9742458 0.6041013 1
-0.91589326 3.0259445 -0.05518451 1
-0.89941013 2.9733634 0.83236206 1
-0.91171414 3.0292945 0.055219412 1
-0.91007525 3.0257626 0.16559097 2
-0.90221721 3.0034368 0.27436629 3
-0.90186137 3.0060599 0.38535091 174
-0.94407374 3.1467609 -0.40338758 1
-0.89295417 2.9782588 0.49245578 2
-0.89263594 2.9809799 0.60486454 1
-0.90585303 3.028965 -0.05518451 1
-0.89065224 2.9800317 0.83339739 1
-0.90736383 3.0514686 0.055568464 1
-0.9040572 3.0442376 0.16642836 2
-0.89451915 3.0140526 0.27506351 2
-0.8907603 3.0052273 0.38486344 169
-0.89040309 3.0078752 0.49683592 2
-0.88608807 2.995219 0.60715425 1
-0.8930099 3.024437 -0.055044889 1
-0.88243061 2.9905341 0.83546793 15
-0.89557928 3.0507801 0.055498652 1
-0.88331169 3.012876 0.16454425 1
-0.88514638 3.023047 0.27558646 2
-0.88082129 3.0102239 0.38510716 162
-0.87768108 3.003381 0.49558446 2
-0.87840354 3.0097544 0.60944396 1
-0.87631983 3.0065167 0.72299272 2
-0.8981145 3.081291 -0.056022223 1
-0.88171178 3.0269818 0.84478539 1
-0.88550472 3.0578833 0.055568464 1
-0.88003057 3.0429544 0.16600966 1
-0.87403595 3.024204 0.27541214 2
-0.87253547 3.0229678 0.38632584 140
-0.86557359 3.0027812 0.4949587 2
-0.87441421 3.0354407 0.61402339 1
-0.85989386 2.9889565 0.71804374 3
-0.88129026 3.0653429 -0.055673175 1
-0.86420912 3.0079124 0.83857375 1
-0.86933082 3.0417283 0.055219412 1
-0.86720979 3.0383258 0.16559097 1
-0.85800833 3.0080771 0.27366903 2
-0.86687177 3.0431778 0.3885195 90
-0.858329 3.0171845 0.49683592 2
-0.86005437 3.0252557 0.61135209 10
-0.87058407 3.0684009 -0.055673175 1
-0.85897475 3.0294967 0.84375012 1
-0.86630625 3.0716894 0.055708081 1
-0.86579901 3.0719426 0.16726573 1
-0.85776013 3.0474932 0.27698094 2
-0.85731876 3.0500071 0.38900697 77
-0.85045642 3.0276213 0.49808741 3
-0.84895933 3.0263488 0.61097044 2
-0.86040473 3.0712707 -0.055673175 1
-0.84371626 3.013725 0.83857375 1
-0.85933459 3.0861034 0.055917513 1
-0.85400116 3.0710974 0.16705638 1
-0.8423183 3.0331912 0.27541214 2
-0.84613889 3.0490074 0.3885195 60
-0.87796533 3.1658421 -0.40338758 1
-0.84410244 3.0458007 0.50059032 32
-0.83682358 3.0215793 0.60944396 1
-0.8352477 3.0241005 0.8406443 1
-0.85173404 3.1006541 0.056126937 1
-0.83957636 3.0605772 0.16632369 2
-0.83805007 3.0571043 0.27732956 2
-0.83706236 3.0576868 0.38925073 42
-0.83294523 3.046823 0.50027746 2
-0.83661819 3.0623591 0.61707634 1
-0.86524147 3.1736672 -0.057418417 1
-0.82874966 3.0419087 0.84478539 1
-0.8388145 3.0958879 0.055987321 2
-0.83358175 3.0808408 0.16726573 3
-0.83359635 3.0851595 0.27959561 5
-0.83155769 3.0797548 0.39168811 80
-0.82333398 3.0535264 0.50090319 2
-0.82845175 3.0767791 0.61936599 1
-0.82819486 3.0801127 -0.055673175 1
-0.8311609 3.0932906 0.858244 1
-0.827461 3.0989416 0.055987321 2
-0.82745737 3.1010995 0.16820778 8
-0.8228212 3.0880508 0.27959561 47
-0.81975448 3.0808632 0.39144436 57
-0.81216168 3.0544727 0.50059032 2
-0.82677484 3.1138074 0.62623513 1
-0.82973891 3.1293745 -0.056510892 1
-0.80155551 3.0252113 0.83857375 1
-0.81616169 3.097801 0.055917513 2
-0.8186608 3.1116946 0.16862647 7
-0.81155038 3.0912449 0.39241934 58
-0.80399996 3.066843 0.50215465 2
-0.80748957 3.0823469 0.61936599 1
-0.80270821 3.07285 0.85099703 1
-0.80936575 3.1161149 0.056196753 1
-0.80929744 3.1203337 0.16894048 6
-0.80428171 3.1032233 0.28046718 2
-0.80174893 3.0979028 0.39290681 50
-0.7987259 3.0906692 0.50559622 2
-0.79868811 3.0927508 0.62089252 1
-0.80886954 3.1389639 -0.0565807 1
-0.79486817 3.0868583 0.85410291 1
-0.79749078 3.1150465 0.056126937 10
-0.79840118 3.1231394 0.16894048 1
-0.79739022 3.121455 0.28186166 2
-0.79191226 3.1045291 0.39339426 46
-0.78793323 3.0934381 0.50559622 3
-0.78885663 3.0993247 0.62165576 1
-0.78510869 3.0913758 -0.055673175 1
-0.78408879 3.0896139 0.85410291 1
-0.79835206 3.1643462 0.056964654 1
-0.80115533 3.1801362 0.1718713 1
-0.78648865 3.1242194 0.28186166 2
-0.78397334 3.1188259 0.39485672 40
-0.77713096 3.0961697 0.50559622 3
-0.77612191 3.0944426 0.62012929 1
-0.78159565 3.1231959 -0.056196753 8
-0.7779851 3.1110735 0.85927927 1
-0.794056 3.1942821 0.057453319 1
-0.79005033 3.1829133 0.1718713 1
-0.77222145 3.113409 0.2806415 2
-0.77355969 3.1234701 0.39510044 33
-0.76679194 3.1007812 0.50590914 2
-0.76719999 3.1047564 0.62165576 1
-0.78951126 3.1974494 -0.17260399 1
-0.77308303 3.1356127 -0.056371275 1
-0.76804405 3.117522 0.86031455 1
-0.80002475 3.2669573 0.058709893 1
-0.79853565 3.2633483 -0.77563125 1
-0.78518683 3.208796 0.17312735 1
-0.76560557 3.1335046 0.28221029 3
-0.76359212 3.1300085 0.39558792 28
-0.75884503 3.1129026 0.50747347 3
-0.76007134 3.1226761 0.62470871 1
-0.76843518 3.1594312 -0.17040588 2
-0.78345871 3.2236571 -0.057907082 1
-0.75952607 3.1275611 0.86238509 1
-0.7711758 3.199867 0.17249933 1
-0.76212019 3.1671517 0.28499928 3
-0.75228244 3.1286628 0.39510044 28
-0.75350726 3.1385822 0.51122791 3
-0.76316398 3.1812446 -0.28621945 1
-0.74696624 3.1137245 0.62241894 1
-0.75219953 3.1452236 0.86652619 1
-0.75723362 3.1908798 0.1718713 1
-0.75345117 3.1774163 0.28569651 2
-0.74547207 3.1486552 0.3972941 27
-0.74163872 3.1373484 0.51060218 3
-0.74331295 3.146884 0.62852484 1
-0.74121523 3.1478305 0.86652619 1
-0.73791111 3.1584959 0.1699872 1
-0.74326342 3.183907 0.28604513 3
-0.73672885 3.1609049 0.39851278 25
-0.74698496 3.2074332 -0.4043625 2
-0.72799563 3.1283743 0.50872493 3
-0.72876579 3.1341615 0.62547189 1
-0.73196983 3.1579261 0.86859673 1
-0.74210006 3.2272322 0.17354605 1
-0.72991329 3.1767731 0.28517357 3
-0.74832416 3.2595153 -0.52968717 1
-0.72702295 3.1692617 0.39924401 22
-0.72059834 3.146301 0.51122791 3
-0.72439116 3.1653931 0.6311962 1
-0.75439686 3.3044646 -0.059163656 1
-0.72781557 3.1905975 0.87687898 1
-0.72554004 3.2064266 0.17228998 1
-0.72101748 3.1890182 0.28604513 2
-0.73694402 3.2621071 -0.52968717 1
-0.71770322 3.1795256 0.40021896 17
-0.71439058 3.1699944 0.51466948 5
-0.70859265 3.1468344 0.62699842 1
-0.71480775 3.182209 -0.056929749 1
-0.70482719 3.1403401 0.86238509 1
-0.7180773 3.2204113 0.057592943 1
-0.7126078 3.2011414 0.1718713 1
-0.7243647 3.2539551 -0.64798737 1
-0.71420634 3.2109642 0.28778824 2
-0.70703119 3.1839495 0.40046272 13
-0.7007547 3.1608973 0.51279223 3
-0.69760448 3.1492887 0.62699842 1
-0.70552325 3.195601 0.87687898 1
-0.70854431 3.2307115 0.05773256 1
-0.71914101 3.2817583 -0.77563125 1
-0.70826495 3.2348261 0.17354605 1
-0.70583719 3.2291319 0.28918275 2
-0.69802988 3.196095 0.40168139 13
-0.69602972 3.1922746 0.51748526 3
-0.69273722 3.1825175 0.63310426 1
-0.71975076 3.3121836 -0.059163656 1
-0.69436342 3.1980443 0.87687898 1
-0.7017538 3.2567449 0.05815142 1
-0.69890404 3.2462704 -0.76663321 1
-0.69949037 3.2489939 0.17417407 1
-0.69539756 3.2354722 0.28953138 2
-0.69005966 3.2161 0.40387502 11
-0.68156892 3.1792328 0.51498228 3
-0.6779269 3.1676383 0.62966973 1
-0.6880362 3.22312 0.88309062 1
-0.72800773 3.4338505 -0.94054842 1
-0.69758499 3.2903533 0.058709893 1
-0.68814564 3.2514155 0.17417407 1
-0.68492228 3.2417786 0.28988001 2
-0.68308169 3.2358513 0.40606871 11
-0.67413229 3.1989894 0.51779813 5
-0.67389143 3.2006071 0.63577563 1
-0.71912014 3.418385 -0.1830712 1
-0.67995405 3.2406278 0.88723171 1
-0.71661735 3.4362457 -0.94054842 1
-0.6860975 3.2927678 0.058709893 1
-0.68004483 3.2694411 0.17501146 1
-0.67579216 3.2518346 0.29057723 3
-0.67218459 3.2401597 0.40631241 10
-0.66456467 3.20906 0.51904958 5
-0.66350985 3.2067852 0.63653886 1
-0.67019904 3.2505493 0.88930225 1
-0.67941141 3.3186519 0.059128754 1
-0.67422748 3.2991905 0.17647687 1
-0.66363901 3.2502697 0.29022861 3
-0.65849227 3.2308156 0.40485001 10
-0.65414572 3.2152321 0.51967537 7
-0.65192163 3.2071574 0.63615721 1
-0.66421819 3.2793767 0.89654922 1
-0.66034776 3.2897749 0.17584883 1
-0.65189672 3.2506127 0.29005429 2
-0.64954764 3.2447734 0.40631241 10
-0.64601719 3.2329919 0.52217829 8
-0.64725584 3.2421434 0.64264476 1
-0.66183591 3.3242404 -0.059163656 1
-0.64899719 3.262728 0.89137286 1
-0.64808702 3.288141 0.1756395 1
-0.64747572 3.2880557 0.29319191 2
-0.64051354 3.258708 0.40777487 10
-0.63320595 3.2274737 0.52092683 6
-0.63668907 3.2482359 0.643408 1
-0.63834542 3.2687654 0.89240813 1
-0.6499483 3.3530688 0.059617419 1
-0.64249635 3.3177233 0.17710489 1
-0.63561535 3.2883401 0.2930176 2
-0.63252139 3.278466 0.4099685 10
-0.62661147 3.2508926 0.52436841 8
-0.63017076 3.275501 0.64836901 1
-0.62823087 3.2746589 0.89344335 1
-0.63298601 3.3276837 0.17752358 1
-0.62433636 3.2884722 0.29284328 3
-0.62312359 3.2883472 0.41094348 8
-0.61950272 3.2723613 0.52749711 8
-0.61711735 3.2659984 0.6460793 1
-0.62815046 3.3307698 -0.059163656 1
-0.62595189 3.3222871 0.90586674 1
-0.63651568 3.4044809 0.060455136 1
-0.62429643 3.3455801 0.17836095 1
-0.61561781 3.3022764 0.29388916 3
-0.61076379 3.282589 0.4099685 8
-0.60879833 3.2783883 0.52812284 8
-0.60986525 3.2873297 0.64989549 1
-0.60803115 3.2902577 0.89654922 1
-0.62030095 3.3830791 0.060036276 1
-0.61045641 3.3359511 0.17773293 1
-0.60587919 3.3142047 0.29476073 2
-0.60250753 3.3022768 0.41216215 8
-0.60053492 3.2979839 0.53093863 9
-0.60049403 3.3010283 0.6521852 2
-0.60067612 3.3151708 0.90276086 1
-0.61432558 3.4245603 0.18233849 1
-0.59501034 3.3202217 0.29510933 2
-0.59307432 3.3160841 0.41362458 8
-0.58936536 3.3020053 0.53125149 11
-0.58931297 3.3050368 0.65256679 2
-0.5850476 3.2944221 0.89654922 7
-0.58853531 3.348 0.17815161 1
-0.58479452 3.3301277 0.29580659 2
-0.58423585 3.3337767 0.41557449 8
-0.57987815 3.3157172 0.53312874 11
-0.57878536 3.3128755 0.65371162 2
-0.57938343 3.3231401 0.77878052 1
-0.5848406 3.389389 0.060036276 1
-0.59040266 3.4287658 0.18233849 1
-0.5748561 3.3419662 0.29667813 2
-0.57494676 3.3494911 0.41728067 8
-0.57030231 3.3294032 0.53500593 12
-0.56754798 3.3168111 0.65409327 2
-0.56876469 3.330905 0.78013027 67
-0.57233864 3.3874664 0.059966467 1
-0.57842952 3.4308057 0.18233849 1
-0.56649506 3.3636003 0.29842126 2
-0.56226343 3.3456047 0.41654944 8
-0.56292504 3.3566997 0.53907323 20
-0.55661613 3.3226445 0.6548565 26
-0.5555284 3.3232596 0.77788073 60
-0.59119499 3.5404329 -0.062654138 1
-0.54733753 3.2813127 0.89137286 7
-0.56507903 3.4170642 0.060455136 1
-0.56645095 3.4328039 0.18233849 1
-0.55766743 3.3832498 0.29999006 2
-0.55090457 3.3495057 0.41679317 8
-0.54960406 3.3488979 0.5375089 35
-0.57883203 3.5424752 -0.062654138 1
-0.53370255 3.2698567 0.88774931 3
-0.55506313 3.4308603 0.060664564 1
-0.55446553 3.4347603 0.18233849 1
-0.54458475 3.3773081 0.29929283 2
-0.54141724 3.3651273 0.41849938 10
-0.52707869 3.2943449 0.77023244 8
-0.52137083 3.2659769 0.88619649 17
-0.54371107 3.4367268 0.060734376 1
-0.54247171 3.4366748 0.18233849 1
-0.53651518 3.4028056 0.30138457 2
-0.52376062 3.3370411 0.53500593 124
-0.52209622 3.3302307 0.65523815 17
-0.5125652 3.276911 0.76573336 8
-0.53865427 3.4476433 -0.060908899 1
-0.50549829 3.2391458 0.87843186 10
-0.53354394 3.4504609 0.060943801 1
-0.52864575 3.4267039 0.18171045 1
-0.52069157 3.3790581 0.29911849 5
-0.50660253 3.3068049 0.65027708 10
-0.50171155 3.2825332 0.76663321 15
-0.53204763 3.485085 -0.061537188 1
-0.49972376 3.2771759 0.88826698 1
-0.51850855 3.4325299 0.060594756 1
-0.51370448 3.4047391 0.1804544 2
-0.50220597 3.3483434 0.53625745 53
-0.49098986 3.2813699 0.64493442 37
-0.49111572 3.2900465 0.7679829 2
-0.51163322 3.4274962 -0.060490038 1
-0.48942235 3.2826366 0.88930225 1
-0.51249379 3.4706078 -0.94003081 1
-0.50770634 3.4381871 0.060664564 1
-0.50385326 3.4203434 0.18118709 85
-0.50056475 3.4062655 0.30121022 70
-0.49323845 3.3604879 0.41703692 33
-0.48565063 3.3168485 0.53093863 23
-0.47982231 3.2810376 0.64455283 10
-0.50600815 3.472795 -0.061257947 1
-0.47684714 3.2766786 0.88723171 1
-0.50098276 3.4722881 -0.94003081 1
-0.49399281 3.4280627 0.060455136 15
-0.49279177 3.4239724 0.18129177 92
-0.48756826 3.3960736 0.30016437 10
-0.48178571 3.3641548 0.41728067 11
-0.47548866 3.3243072 0.53187722 38
-0.47058395 3.2982411 0.64760572 3
-0.49617875 3.4863324 -0.061467376 1
-0.46271691 3.25529 0.88102001 1
-0.48885989 3.4740155 -0.94003081 1
-0.47488111 3.3918357 0.29964143 11
-0.4665027 3.3362443 0.41362458 53
-0.46278942 3.3181212 0.53062576 23
-0.45774713 3.2861722 0.64493442 2
-0.49123806 3.5311015 -0.18683939 1
-0.47878316 3.4504099 -0.060804185 9
-0.44551751 3.214787 0.86963201 1
-0.47672939 3.4757009 -0.94003081 1
-0.46692595 3.4175169 0.18076842 8
-0.4579213 3.3559647 0.29632953 12
-0.45668161 3.3556342 0.41581824 11
-0.44956109 3.3119652 0.5293743 17
-0.44517288 3.283937 0.64417118 2
-0.4729327 3.4932945 -0.18474595 1
-0.46452874 3.4402509 -0.060594756 56
-0.43218189 3.204911 0.86652619 1
-0.47738642 3.5730855 -0.9659127 1
-0.45700878 3.4251192 0.060315516 5
-0.45288682 3.4032872 0.17993104 5
-0.44804043 3.3713679 0.29754972 18
-0.44235787 3.3375292 0.41338086 7
-0.43903363 3.3213477 0.53062576 13
-0.42908296 3.2504361 0.6373021 2
-0.45838726 3.4771025 -0.18380389 43
-0.41747189 3.1795845 0.85927927 1
-0.46491188 3.5747299 -0.9659127 1
-0.44659457 3.4385922 0.060524948 3
-0.43869448 3.3870208 0.17898898 26
-0.43575734 3.3689597 0.29720107 3
-0.42943442 3.3292091 0.41216215 6
-0.42340556 3.2915123 0.52561986 15
-0.44967568 3.4957335 -0.308357 8
-0.41598237 3.2382834 0.63463074 2
-0.44624621 3.4786813 -0.18380389 8
-0.44075373 3.4453938 -0.060629662 4
-0.4004944 3.1350317 0.84685594 1
-0.44418633 3.5111675 -0.94831306 1
-0.43007833 3.4044194 0.059896659 10
-0.42101142 3.3467383 0.29510933 2
-0.416576 3.3208396 0.41094348 7
-0.44190368 3.5277305 -0.43653604 1
-0.40946072 3.2733693 0.52249116 13
-0.43771693 3.4992592 -0.30853131 20
-0.40321672 3.2280269 0.63234103 2
-0.43385419 3.4782362 -0.18369922 1
-0.42798465 3.440958 -0.060524948 2
-0.39145425 3.1517475 0.85099703 1
-0.43357849 3.5261185 -0.95193648 3
-0.41770372 3.4019303 0.059826851 11
-0.41795215 3.4137902 0.18024506 1
-0.40739146 3.3323662 0.29371485 2
-0.40258023 3.3025682 0.4085061 7
-0.42934611 3.5272813 -0.43629229 13
-0.39612442 3.2590911 0.51998824 11
-0.42838335 3.5244999 -0.31062305 1
-0.39171052 3.2274659 0.63195944 2
-0.42098841 3.4737811 -0.18338521 2
-0.41069397 3.3987553 -0.059757043 15
-0.37535822 3.1109002 0.83960903 1
-0.4224118 3.5372016 -0.9545247 5
-0.41009048 3.4391086 0.060455136 1
-0.40461758 3.4033287 0.17961702 1
-0.39294067 3.3100259 0.29162312 1
-0.41900659 3.5348823 -0.56378984 5
-0.39058211 3.3000107 0.40801859 7
-0.41982913 3.5524144 -0.43921715 2
-0.38312587 3.2467217 0.51779813 11
-0.40860701 3.4626565 -0.3050451 2
-0.37653577 3.1956673 0.62547189 2
-0.40769401 3.4653115 -0.18286185 2
-0.40045741 3.4140708 -0.060001373 5
-0.36494693 3.116029 0.8406443 1
-0.41139713 3.5501685 -0.95763052 6
-0.39808235 3.4405193 0.060455136 1
-0.39090505 3.3888476 0.17877965 1
-0.41979498 3.6393008 -0.71209919 1
-0.38366291 3.3311703 0.29336622 1
-0.40576136 3.5284736 -0.56253839 7
-0.37747619 3.287549 0.40631241 6
-0.40539056 3.5361087 -0.43702352 2
-0.36976767 3.230376 0.51498228 11
-0.39651668 3.4640617 -0.3050451 1
-0.36381873 3.1833084 0.62280059 2
-0.39265227 3.4409163 -0.18150112 11
-0.39170268 3.443264 -0.060490038 1
-0.35624862 3.1364789 0.84582067 1
-0.39900127 3.5515833 -0.95763052 9
-0.38606933 3.4418879 0.060455136 1
-0.37685308 3.3703427 0.17773293 1
-0.39879781 3.5666027 -0.69759774 8
-0.37203172 3.3324895 0.29336622 1
-0.39497638 3.5436108 -0.5647285 1
-0.36204532 3.2533343 0.40192512 6
-0.38953647 3.5059352 -0.43312368 1
-0.35718477 3.2198672 0.51310509 11
-0.38464448 3.4674046 -0.30521941 11
-0.35119101 3.1708999 0.62012929 2
-0.38393065 3.4720438 -0.1830712 1
-0.39326367 3.5678453 -0.062654138 1
-0.33895767 3.0800955 0.83029151 5
-0.3870185 3.5567956 -0.95866579 13
-0.36887011 3.3955026 0.059617419 1
-0.38789046 3.576401 -0.83051926 2
-0.36379513 3.3597236 0.17710489 1
-0.38380849 3.5445509 -0.69301832 1
-0.35568652 3.2901893 0.28953138 1
-0.38345143 3.552824 -0.56597996 1
-0.34983534 3.2466836 0.40095019 6
-0.37687218 3.5033262 -0.4326362 2
-0.34320006 3.1955612 0.50903779 11
-0.3736015 3.4786313 -0.30609095 2
-0.3384451 3.1564901 0.61707634 2
-0.33298713 3.1158316 0.72344255 2
-0.32984164 3.0966277 0.83443266 1
-0.37338945 3.5465972 -0.95555997 11
-0.36203104 3.4444995 0.060455136 1
-0.37581158 3.5816092 -0.83141905 2
-0.34998685 3.3411088 0.17605817 1
-0.37102672 3.5419638 -0.69225508 1
-0.34171188 3.2676315 0.28743961 1
-0.36858511 3.5305643 -0.56222552 1
-0.33726773 3.2360382 0.39948773 6
-0.36258575 3.4848762 -0.43019882 9
-0.33000171 3.1770918 0.50590914 11
-0.37051257 3.5671103 -0.31376067 1
-0.32621205 3.1459351 0.61478662 3
-0.31990454 3.0956528 0.7184937 6
-0.31982121 3.1054471 0.83650321 1
-0.36276633 3.5651762 -0.96021873 6
-0.34717685 3.4178894 0.059966467 1
-0.36369941 3.5867772 -0.8323189 1
-0.33791891 3.3383362 0.17584883 1
-0.35905522 3.5471439 -0.69301832 1
-0.3307049 3.272769 0.28778824 1
-0.35130334 3.4826944 -0.55440378 12
-0.32398012 3.2174451 0.39705035 5
-0.36272916 3.6085792 -0.44531062 1
-0.31772691 3.1664312 0.5040319 11
-0.35805953 3.5683818 -0.31376067 1
-0.3128798 3.1236129 0.6102072 24
-0.30897838 3.1065447 0.83650321 1
-0.34994236 3.5625756 -0.95918339 6
-0.32821986 3.3474352 0.058709893 1
-0.34965745 3.5725091 -0.82871968 1
-0.32471094 3.3235929 0.17501146 1
-0.34476292 3.5288363 -0.68920213 8
-0.31695887 3.2501075 0.28569651 1
-0.34124869 3.5055263 -0.55784535 1
-0.30967602 3.1869435 0.39315054 5
-0.3066712 3.167521 0.5040319 22
-0.30159742 3.1207778 0.60944396 5
-0.29850373 3.11145 0.83753842 1
-0.33713928 3.5599287 -0.95814812 3
-0.31653225 3.3485603 0.058709893 1
-0.33315846 3.5310249 -0.81882185 2
-0.31030977 3.2888598 0.17312735 1
-0.3328101 3.5339274 -0.68996537 8
-0.30449235 3.2392926 0.28465065 1
-0.29651284 3.1662645 0.39046943 7
-0.29543093 3.1606534 0.50278044 36
-0.29161134 3.1315856 0.61135209 5
-0.28889576 3.1201174 0.83960903 1
-0.32506067 3.5649319 -0.95918339 3
-0.30905706 3.3894205 0.05940799 1
-0.32144806 3.5321102 -0.81882185 9
-0.30027369 3.3058355 0.17396474 1
-0.31798989 3.5076942 -0.6846227 1
-0.28923407 3.1966813 0.28081581 1
-0.28744039 3.1830468 0.39241934 35
-0.28439704 3.1616652 0.50278044 31
-0.28368327 3.1599107 0.61669469 5
-0.2836155 3.1715858 0.73514003 1
-0.27937308 3.1365008 0.84375012 2
-0.31138009 3.5448215 -0.95348942 10
-0.29373196 3.3506374 0.058709893 1
-0.31387141 3.587568 -0.83141905 1
-0.2897754 3.3188016 0.17459276 1
-0.27811217 3.1916683 0.28029287 15
-0.27598363 3.1800752 0.39193183 8
-0.27267778 3.1547666 0.50152892 27
-0.27298802 3.164794 0.61745793 6
-0.27270886 3.1744983 0.73558998 2
-0.28951955 3.3770964 -0.059163656 1
-0.27072906 3.1644042 0.85099703 2
-0.29770491 3.5304866 -0.94934833 13
-0.27733997 3.2958479 0.05773256 1
-0.27001575 3.2222691 0.16946384 2
-0.2666381 3.1886487 0.27994424 5
-0.26504678 3.1829975 0.39217559 8
-0.2641131 3.1852286 0.50622195 30
-0.2625874 3.1735535 0.6189844 5
-0.26226532 3.1831994 0.73738956 2
-0.26047054 3.174957 0.85358524 26
-0.28568965 3.5353553 -0.95038354 10
-0.26390564 3.2728772 0.057313703 1
-0.25812611 3.2152286 0.16904517 2
-0.25582486 3.193532 0.28029287 3
-0.25424922 3.187861 0.39266306 8
-0.25377393 3.195977 0.50778633 25
-0.25119707 3.170537 0.61822122 4
-0.25268531 3.2035224 0.74188858 19
-0.25105205 3.197032 0.85927927 30
-0.27185914 3.5170698 -0.94520718 7
-0.24848086 3.2219405 0.056406178 5
-0.2467491 3.2141187 0.16894048 1
-0.24665305 3.2202308 0.28255892 2
-0.2437243 3.1966465 0.39363801 8
-0.2433629 3.2066917 0.50935066 23
-0.24190769 3.194886 0.62280059 10
-0.24150053 3.204385 0.74188858 21
-0.24364451 3.2403584 -0.056720324 1
-0.24046801 3.2055945 0.86134982 28
-0.25815812 3.4987316 -0.94003081 5
-0.23869982 3.2427313 0.056755226 1
-0.23581924 3.2189443 0.16914983 1
-0.23453866 3.2091501 0.28151307 3
-0.23429163 3.2212362 0.39656287 8
-0.23159975 3.1996408 0.5080992 25
-0.23259124 3.2211671 0.62776166 24
-0.23087455 3.2129834 0.74368823 21
-0.23004365 3.209276 -0.056161843 1
-0.22968943 3.2121954 0.8629027 27
-0.24486263 3.484194 -0.93588972 2
-0.22737983 3.2435448 0.056755226 1
-0.22541764 3.2317023 0.16977786 1
-0.24507648 3.5135415 -0.6846227 1
-0.22485702 3.2318122 0.28343046 2
-0.22400475 3.2358968 0.39826906 8
-0.22273611 3.233932 0.51341796 25
-0.22215232 3.2337112 0.63005131 24
-0.22515447 3.2857749 -0.17260399 1
-0.22085285 3.2312675 0.74773729 22
-0.22264718 3.2659211 -0.057139181 1
-0.21873815 3.2168319 0.86393797 27
-0.23372774 3.5004485 -0.94003081 1
-0.21525823 3.2323472 0.056545798 1
-0.21730311 3.2802987 0.17228998 1
-0.2142304 3.2425179 0.28430203 2
-0.21440253 3.2624097 0.40143764 22
-0.21157575 3.236661 0.51373082 27
-0.21573725 3.300323 -0.28935707 1
-0.21086544 3.2344668 0.63005131 25
-0.21705189 3.3383603 -0.17532547 1
-0.21007581 3.2397976 0.74953693 22
-0.21124786 3.2666783 -0.057139181 1
-0.20812878 3.2272153 0.86652619 30
-0.22150655 3.5012429 -0.94003081 1
-0.20624255 3.2690017 0.057174087 1
-0.20510019 3.2690775 0.17166196 2
-0.20428136 3.2651196 0.28621945 10
-0.2027659 3.2591755 0.40095019 25
-0.20198314 3.2649822 0.51811105 26
-0.20913561 3.3805993 -0.29632953 1
-0.19981465 3.2391021 0.63081461 25
-0.20662609 3.3590324 -0.17637219 1
-0.19948204 3.2521815 0.75223631 25
-0.19935457 3.2594121 -0.05699956 1
-0.19756873 3.2394917 0.86963201 28
-0.20928432 3.5019948 -0.94003081 1
-0.19839779 3.3295865 0.058221228 1
-0.19522375 3.2956922 0.17302269 6
-0.19464386 3.2956464 0.28883412 28
-0.19162138 3.2638268 0.40143764 26
-0.19383578 3.3114214 -0.40728739 1
-0.19127464 3.2774997 0.51998824 27
-0.18976198 3.2613392 0.63501233 27
-0.19489872 3.3597331 -0.17637219 1
-0.18812771 3.2528582 0.75223631 25
-0.19004856 3.2960227 -0.057627846 1
-0.18747984 3.2613771 0.87532604 27
-0.19705786 3.5027039 -0.94003081 1
-0.18408588 3.2823415 0.057383511 2
-0.18405101 3.3023365 0.17333671 25
-0.18313783 3.2963059 0.28883412 27
-0.18537471 3.3470848 -0.53093863 1
-0.18143016 3.2862787 0.40411878 26
-0.18052939 3.280364 -0.40338758 1
-0.17961715 3.2742023 0.51936251 27
-0.17912614 3.2757041 0.63768369 28
-0.18469088 3.3883135 -0.1778376 1
-0.17740703 3.2651701 0.75493574 26
-0.17789243 3.2846856 -0.057418417 1
-0.17671829 3.2735858 0.87843186 27
-0.18483068 3.5033705 -0.94003081 1
-0.17441303 3.3169119 0.057976898 23
-0.17273162 3.3069477 0.17354605 23
-0.17613997 3.3722003 -0.65638298 1
-0.17152759 3.2949357 0.28865981 27
-0.17046948 3.2968044 0.40533748 26
-0.16909951 3.2925644 0.52217829 31
-0.16819161 3.2861133 0.63959181 27
-0.17164209 3.3650012 -0.17658153 1
-0.16640478 3.2735543 0.75673532 26
-0.16672827 3.2912781 -0.057523135 3
-0.16490135 3.2664652 0.87636131 27
-0.16302896 3.3214953 0.058046706 28
-0.1623529 3.3314691 0.17480211 26
-0.17134286 3.5159426 -0.68424112 1
-0.16070062 3.3094444 0.28988001 28
-0.15963024 3.3112586 0.40704364 26
-0.15807812 3.303 0.52374262 30
-0.16191591 3.3831897 -0.29632953 1
-0.15700112 3.2925632 0.64073664 27
-0.1604628 3.3775499 -0.17720957 1
-0.15589744 3.2935808 0.76123434 26
-0.15768841 3.3437738 -0.058430657 28
-0.15395072 3.2766695 0.87894952 26
-0.16036803 3.5045755 -0.94003081 1
-0.15179871 3.3300343 0.058186322 27
-0.15381758 3.3873174 -0.7828297 1
-0.15166752 3.3399699 0.17522079 26
-0.14977603 3.3239179 0.29110017 27
-0.14816019 3.3137791 0.40728739 26
-0.14765052 3.315347 0.52561986 30
-0.15010449 3.3837345 -0.29632953 1
-0.14559431 3.2950523 0.64111823 27
-0.14779453 3.3581362 -0.17616285 16
-0.14508319 3.30968 0.76483357 26
-0.14686258 3.3502722 -0.058535371 31
-0.1435903 3.2887423 0.88205534 26
-0.14813454 3.5051141 -0.94003081 1
-0.14151569 3.3485007 0.058500469 27
-0.14000703 3.3404791 0.17522079 26
-0.14384711 3.4464376 -0.67050284 1
-0.13932991 3.3522899 0.29354054 27
-0.14708157 3.5387955 -0.56097406 1
-0.13774419 3.3281357 0.40899354 26
-0.13741015 3.33411 -0.40972477 1
-0.136562 3.3276844 0.52749711 30
-0.13723372 3.3583581 -0.29406345 8
-0.13530709 3.3112099 0.64417118 30
-0.136902 3.3645949 -0.17647687 25
-0.13410617 3.3101428 0.76483357 26
-0.13589156 3.3687468 -0.058849517 33
-0.13296309 3.3104565 0.88774931 27
-0.13350257 3.4283705 -0.91932529 1
-0.13013534 3.356967 0.058640085 27
-0.12849979 3.344939 0.17543015 26
-0.13241656 3.4468956 -0.67050284 1
-0.1281371 3.3507423 0.29336622 28
-0.13097164 3.4405899 -0.54533058 1
-0.126728 3.3444657 0.41094348 27
-0.12681767 3.3623407 -0.41313711 1
-0.12509431 3.3320887 0.52812284 28
-0.12736762 3.3926418 -0.29702678 23
-0.12448179 3.3312809 0.64798737 27
-0.12589796 3.385011 -0.17752358 25
-0.12283987 3.3183806 0.76663321 26
-0.12383781 3.3612072 -0.058709893 31
-0.12161811 3.3166921 0.88930225 25
-0.12084927 3.4095089 -0.91414887 2
-0.11891064 3.3713899 0.05888442 26
-0.11765853 3.3693197 0.17668621 25
-0.12093106 3.4630334 -0.67355579 1
-0.11657911 3.3551517 0.29371485 28
-0.12046321 3.4844584 -0.55221373 1
-0.11559788 3.360759 0.41289338 26
-0.11636923 3.4004579 -0.41776815 21
-0.11346309 3.3325052 0.52812284 30
-0.11518604 3.3831096 -0.29615521 25
-0.11338349 3.3473923 0.65104032 27
-0.11461852 3.4013991 -0.17836095 25
-0.11151767 3.3265796 0.7684328 25
-0.11236997 3.3696136 -0.058849517 30
-0.10991097 3.3132348 0.88826698 26
-0.11005995 3.4446654 -0.92346638 1
-0.10707717 3.3697858 0.058849517 26
-0.10640091 3.38568 0.17752358 26
-0.10835112 3.447736 -0.67050284 1
-0.10517702 3.3654952 0.29458639 27
-0.10608958 3.4137783 -0.54095048 23
-0.10411352 3.3690784 0.41386834 26
-0.10486522 3.4127481 -0.41923055 22
-0.10249248 3.3546002 0.53156441 31
-0.10380109 3.3974314 -0.29737538 23
-0.1015813 3.343843 0.65027708 27
-0.10274544 3.4017785 -0.17836095 23
-0.10031361 3.3405836 0.77158207 23
-0.10126262 3.3919721 -0.059233464 30
-0.098861456 3.3309774 0.89292574 23
-0.098363943 3.4566152 -0.9265722 1
-0.095765129 3.3861303 0.059128754 26
-0.09502726 3.4020028 0.17836095 26
-0.09625987 3.4461308 -0.67012119 11
-0.093925253 3.3837664 0.29615521 28
-0.094500154 3.4259758 -0.54282767 26
-0.092406102 3.3714061 0.41411206 26
-0.093275219 3.4249997 -0.42069301 22
-0.091049984 3.3648105 0.53312874 30
-0.092426963 3.4156976 -0.29894418 21
-0.089907601 3.3441772 0.65027708 27
-0.091082796 3.4101024 -0.17877965 25
-0.089169823 3.3603938 0.77608109 23
-0.08984571 3.4082968 -0.059512705 30
-0.087637238 3.3467517 0.89706683 23
-0.086103752 3.4492128 -0.92450172 1
-0.084293962 3.4004376 0.059373088 26
-0.084011659 3.4131591 -0.78822851 1
-0.083150566 3.4023137 0.17836095 26
-0.084660828 3.4641099 -0.67355579 25
-0.082550444 3.402 0.29772401 30
-0.082920358 3.4420829 -0.54533058 26
-0.080873534 3.3816304 0.41533077 26
-0.081604213 3.4372115 -0.42215544 22
-0.079628929 3.3789315 0.53531879 28
-0.08069025 3.4239671 -0.29964143 21
-0.078737825 3.3660605 0.65447485 27
-0.079459257 3.42238 -0.17940767 25
-0.077438414 3.3606849 0.77608109 22
-0.078175656 3.4185853 -0.059687231 30
-0.076263472 3.3605568 0.90069032 23
-0.074188352 3.4552863 -0.92605454 4
-0.072763413 3.4167051 0.059652328 25
-0.072919101 3.4523976 -0.79722655 19
-0.071358144 3.4065766 0.1785703 26
-0.072363466 3.4545698 -0.67164773 25
-0.071004868 3.4182031 0.29911849 27
-0.071229257 3.4581511 -0.54783356 26
-0.069475003 3.4017391 0.41776815 27
-0.069685072 3.4414446 -0.42264292 22
-0.067951806 3.385114 0.53625745 30
-0.069016866 3.4381716 -0.30086163 23
-0.067261741 3.380055 0.65714622 26
-0.067826636 3.4386113 -0.18024506 23
-0.065858431 3.3687282 0.77788073 22
-0.066242807 3.4188375 -0.059687231 28
-0.064754099 3.3723915 0.90379614 23
-0.062160511 3.4574556 -0.9265722 15
-0.061015155 3.426935 0.059826851 23
-0.061179072 3.4701672 -0.80127567 21
-0.059814196 3.4267747 0.17961702 26
-0.060646035 3.474431 -0.67546391 25
-0.059038971 3.4164376 0.29894418 27
-0.059362721 3.4702294 -0.54971075 26
-0.057801016 3.4138696 0.41923055 27
-0.05780388 3.4496062 -0.42361787 22
-0.056235727 3.3912561 0.53719604 28
-0.057083428 3.4423759 -0.30121022 23
-0.0557517 3.3979361 0.66058075 23
-0.056114066 3.4568002 -0.18118709 26
-0.054351617 3.3845255 0.78147995 22
-0.05449808 3.4310448 -0.059896659 30
-0.053041656 3.3764598 0.90483141 22
-0.05037193 3.4769683 -0.93174857 21
-0.048965778 3.4211285 0.059722137 25
-0.049202379 3.4801023 -0.80352521 22
-0.04796442 3.4349508 0.1800357 26
-0.04873766 3.4903262 -0.67851686 23
-0.047249462 3.4265842 0.29981574 27
-0.047301859 3.4743657 -0.55033648 26
-0.046098173 3.4299297 0.42118049 26
-0.045999859 3.4676511 -0.42581153 21
-0.044629499 3.4092083 0.54001182 27
-0.045222506 3.4545076 -0.30225611 22
-0.043941781 3.4020362 0.66134399 23
-0.044226091 3.4709544 -0.1819198 23
-0.04278107 3.4041803 0.78597897 21
-0.042668927 3.4432113 -0.060106091 26
-0.041397609 3.3882148 0.90793723 23
-0.038277954 3.4809864 -0.93278384 7
-0.037152432 3.4332764 0.059931565 26
-0.037096478 3.4841502 -0.804425 22
-0.036786776 3.4550626 0.18108243 26
-0.036677942 3.5022535 -0.68080652 23
-0.035430863 3.4406743 0.30103594 27
-0.035274487 3.484386 -0.55190086 25
-0.034165423 3.4340398 0.42166796 26
-0.034049504 3.4836707 -0.42776144 21
-0.033438809 3.4211893 0.54188907 27
-0.033298358 3.4685905 -0.30347627 21
-0.032066904 3.4021688 0.66134399 21
-0.032090534 3.4690907 -0.18181513 22
-0.030969465 3.4121037 0.78777856 20
-0.031452563 3.4653294 -0.060490038 27
-0.030213924 3.394129 0.90949017 23
-0.02609689 3.4772353 -0.93174857 5
-0.025917834 3.453377 0.060280614 26
-0.025584307 3.4900999 -0.80577469 21
-0.024725214 3.4551699 0.18108243 26
-0.024574995 3.5200293 -0.68424112 22
-0.023543231 3.458708 0.30260473 27
-0.023866592 3.5062125 -0.55534244 26
-0.022855591 3.4460444 0.42313039 26
-0.022536203 3.4897199 -0.42849267 21
-0.021571616 3.4331372 0.54376626 27
-0.021347815 3.4945862 -0.30574232 22
-0.020891726 3.4199255 0.66477859 23
-0.020658243 3.4811614 -0.18244316 22
-0.019619735 3.4063413 0.78642887 18
-0.01944454 3.4814155 -0.060769279 26
-0.018490544 3.4173956 0.91570181 23
-0.014598886 3.4850302 -0.93381917 2
-0.013960198 3.4774425 0.06069947 26
-0.013506926 3.5174501 -0.81207329 21
-0.012736549 3.4752076 0.18212914 26
-0.012886657 3.5161653 -0.68347788 23
-0.012102124 3.4667368 0.30330199 27
-0.011660974 3.5161514 -0.55690676 25
-0.010863011 3.4580138 0.42459282 23
-0.010361295 3.4917619 -0.42873639 20
-0.0096048722 3.4391177 0.54470485 28
-0.0091588032 3.4986241 -0.30609095 23
-0.0089940364 3.4356837 0.66783154 22
-0.0085463757 3.4971902 -0.18328053 22
-0.007763728 3.421979 0.7900281 18
-0.0072868988 3.4794626 -0.060734376 28
-0.006588181 3.4309623 0.91932529 26
-0.0018084389 3.4541504 -0.92553693 2
-0.0018269297 3.4894683 0.060908899 25
-0.0012341597 3.531117 -0.81522262 22
-0.00060785835 3.4832199 0.18254784 25
4.2070599e-08 3.5279682 -0.68576753 22
0.00060480228 3.4747274 0.30399922 27
0.0012328591 3.5319736 -0.55940974 25
0.0012125922 3.4739115 0.42654276 25
0.001835497 3.5056725 -0.43044254 20
0.0024063785 3.447032 0.54595637 28
0.0030634247 3.5105891 -0.30713683 23
0.0036202888 3.457289 0.67202932 23
0.0042919395 3.5131762 -0.18411791 22
0.0048022349 3.4395232 0.79407722 18
0.0048663798 3.4854658 -0.060839087 30
0.0053738947 3.4213049 0.91673708 25
0.010316859 3.4773178 -0.93174857 1
0.010961852 3.4894516 0.060908899 25
0.011754177 3.544739 -0.81837195 21
0.0116031 3.4991789 0.18338521 25
0.012382734 3.5475793 -0.68958372 21
0.01274939 3.4786887 0.30434784 26
0.01354751 3.527997 -0.55878401 25
0.013992147 3.4857941 0.42800516 22
0.014741845 3.5195382 -0.43214872 20
0.01447112 3.4549038 0.54720783 61
0.015362053 3.5205188 -0.3080084 21
0.015678821 3.4552922 0.67164773 22
0.016592093 3.5211289 -0.18453661 21
0.016895011 3.4570239 0.79812634 26
0.01716087 3.5114233 -0.061292849 30
0.017385805 3.4347882 0.92036057 22
0.022505729 3.484988 -0.93381917 1
0.022611676 3.5013938 0.061118327 28
0.023522794 3.5466292 -0.81882185 19
0.023952646 3.519089 0.18443193 25
0.024849202 3.5592935 -0.69187343 22
0.024992928 3.4925694 0.30556804 27
0.025359072 3.543735 -0.56128693 25
0.025521584 3.4817584 0.42751768 25
0.026548026 3.5373352 -0.43434238 20
0.026622836 3.4666841 0.54908502 44
0.027789267 3.5383749 -0.3095772 22
0.027182462 3.4611111 0.67279255 25
0.02826946 3.5210545 -0.18453661 21
0.028422073 3.4647436 0.79992598 18
0.029549519 3.527339 -0.06157209 30
0.029539837 3.4540246 0.92553693 22
0.033948258 3.4733036 -0.93071336 1
0.034953982 3.5132911 0.061327755 28
0.036000583 3.5562685 -0.82107133 21
0.036237348 3.5189841 0.18443193 25
0.036732256 3.567044 -0.69339991 21
0.036763314 3.5103979 0.30713683 26
0.037854299 3.5554767 -0.56316411 25
0.037847802 3.4975281 0.42946759 23
0.039005548 3.5471456 -0.43556106 20
0.038899444 3.482372 0.551588 44
0.039724056 3.5561934 -0.31114599 20
0.039554279 3.4865155 0.67775363 26
0.040676031 3.5309198 -0.18505996 17
0.040560957 3.4685204 0.80082577 18
0.041981649 3.5372121 -0.061746612 26
0.041783489 3.4693539 0.92967808 22
0.046225157 3.4847541 -0.93381917 1
0.047537498 3.5371418 0.061746612 27
0.048653763 3.5736585 -0.82512045 19
0.048631765 3.5268242 0.1848506 25
0.04931964 3.5767097 -0.69530803 20
0.049153347 3.5202093 0.3080084 24
0.050461423 3.569149 -0.56535423 23
0.050256014 3.5112689 0.43117377 21
0.051528495 3.5569124 -0.43677977 20
0.05114276 3.4881406 0.55252659 42
0.052313447 3.5679862 -0.31219187 20
0.051812552 3.4922452 0.67889845 23
0.053418241 3.5587146 -0.18652536 18
0.052964922 3.4878428 0.80532479 22
0.054329507 3.537044 -0.061746612 26
0.054311246 3.4962299 0.93692499 22
0.058130927 3.4691186 -0.92967808 1
0.060189754 3.5549493 0.062060758 28
0.061392043 3.5890546 -0.82871968 19
0.060666073 3.5466135 0.18589734 23
0.062074997 3.5922194 -0.69836092 18
0.061580893 3.5279844 0.30870563 23
0.063161053 3.582777 -0.56754434 22
0.062758952 3.5249655 0.43287995 22
0.064337596 3.5785432 -0.4394609 20
0.062957436 3.5017772 0.55471671 46
0.064768672 3.5677817 -0.31219187 20
0.064289518 3.5077465 0.6819514 23
0.066062786 3.5704882 -0.1871534 18
0.065322332 3.4973786 0.80757427 21
0.066246167 3.5468411 -0.061921138 28
0.065796591 3.4902358 0.93537205 21
0.069771662 3.4457171 -0.92346638 1
0.071776628 3.5447338 0.061886236 28
0.073572971 3.6024694 -0.83186901 18
0.073375672 3.5623546 0.18673471 22
0.07494095 3.6076832 -0.70141387 21
0.073978186 3.5317321 0.30905426 26
0.075125344 3.5864978 -0.56817007 22
0.074866295 3.5445845 0.43531734 22
0.076627769 3.5981567 -0.44189829 20
0.075561419 3.5193102 0.55753249 50
0.07765086 3.5874531 -0.31393498 21
0.075920567 3.507514 0.6819514 23
0.0782957 3.5882204 -0.18809544 20
0.077260137 3.5127289 0.8111735 21
0.078978665 3.562582 -0.062200375 26
0.078411862 3.5092988 0.94054842 21
0.080832891 3.4300163 -0.91932529 2
0.084764168 3.5704501 0.062339999 26
0.086148441 3.6021907 -0.83186901 16
0.08557146 3.5780652 0.18757208 22
0.08728157 3.6231165 -0.70446682 21
0.08631701 3.5573606 0.3113203 26
0.088031158 3.6020119 -0.57067299 21
0.08723969 3.5443015 0.43531734 22
0.089578263 3.6137431 -0.44384819 21
0.087671317 3.5368135 0.56034833 46
0.089796461 3.5971351 -0.31480655 18
0.088164553 3.5072277 0.6819514 25
0.090769157 3.5859289 -0.18799078 18
0.090118133 3.5358152 0.81657231 21
0.091302671 3.5822909 -0.062549427 26
0.090295784 3.5186758 0.94313669 21
0.093118191 3.4413002 -0.92243111 1
0.096767001 3.5761464 0.062444709 28
0.098516956 3.6174695 -0.83546823 18
0.097842783 3.5697587 0.1871534 22
0.10030624 3.6365271 -0.70713818 21
0.099287763 3.5769539 0.31306344 26
0.10041314 3.617497 -0.57317597 22
0.099326082 3.5558987 0.43677977 22
0.10145083 3.6094575 -0.44336072 21
0.10046427 3.5522826 0.56285131 44
0.10257991 3.6047657 -0.31550378 18
0.10057726 3.5343904 0.68729407 20
0.10300227 3.5975866 -0.18861879 20
0.10144934 3.5218616 0.81342304 18
0.10415517 3.5939436 -0.062758856 28
0.10308365 3.535718 0.94779539 18
0.10602646 3.4505904 -0.92501926 3
0.11099096 3.5917382 0.06272395 24
0.11307301 3.63849 -0.84041709 18
0.11142147 3.5853465 0.18799078 23
0.11375768 3.6400599 -0.70790142 21
0.11246078 3.5785573 0.31323773 26
0.11498977 3.638803 -0.57661748 23
0.11348252 3.5713634 0.43872967 22
0.11493257 3.6169977 -0.44433567 21
0.11329503 3.5459673 0.56191266 42
0.11636632 3.622288 -0.3170726 18
0.11497068 3.5594873 0.69225508 22
0.11752919 3.619123 -0.18977019 20
0.11505359 3.5428908 0.81837195 18
0.11719564 3.5895407 -0.062689044 28
0.11654993 3.5507629 0.95193648 18
0.11641764 3.419328 -0.91673708 6
0.12310714 3.5973461 0.06282866 23
0.12560627 3.6517284 -0.84356648 21
0.12385885 3.6009259 0.18882816 22
0.12636985 3.6553593 -0.71095431 22
0.12474149 3.5901117 0.31428361 26
0.12719297 3.64235 -0.57724321 23
0.12629901 3.598742 0.44214204 22
0.127413 3.6304839 -0.44604182 20
0.12574883 3.5653136 0.56504136 42
0.12844746 3.6238732 -0.31724688 18
0.12698437 3.5649722 0.69339991 21
0.13010082 3.6346812 -0.19060758 20
0.12721914 3.5541749 0.82107133 20
0.12996018 3.6131129 -0.0631079 28
0.12846459 3.5542183 0.95297176 18
0.12833232 3.4343674 -0.92087817 7
0.13511001 3.5989165 0.062863566 22
0.13823029 3.6649232 -0.84671575 19
0.13725878 3.6224258 0.18997954 21
0.13930774 3.6765003 -0.71515214 21
0.13717756 3.603615 0.31550378 26
0.13972467 3.6537519 -0.57912046 22
0.13815525 3.5963199 0.44189829 21
0.14115763 3.6577876 -0.44945419 19
0.13872992 3.5786703 0.56723142 44
0.1414057 3.6313665 -0.31794414 20
0.13895594 3.5684555 0.6941632 21
0.14254446 3.6442082 -0.19113094 18
0.1405438 3.577076 0.8264702 22
0.14320159 3.6286223 -0.063387141 22
0.14102262 3.5576086 0.95400703 20
0.14076149 3.4300132 -0.9198429 7
0.14816467 3.6104109 0.063072994 22
0.15142287 3.6741538 -0.84896529 21
0.15064685 3.6398845 0.19092159 22
0.1533535 3.6896961 -0.71782345 21
0.15113151 3.6210041 0.3170726 24
0.1535282 3.6630836 -0.58068478 21
0.15112449 3.6057324 0.44311696 22
0.15417449 3.6632228 -0.45018539 21
0.15172064 3.5900059 0.56910866 33
0.15501085 3.6527469 -0.31986156 18
0.15270361 3.5836139 0.69721615 20
