# .PCD v0.7 - Point Cloud Data file format
VERSION 0.7
FIELDS x y z intensity
SIZE 4 4 4 4
TYPE F F F F
COUNT 1 1 1 1
WIDTH 1419
HEIGHT 1
VIEWPOINT 0 0 0 1 0 0 0
POINTS 1419
DATA ascii
2.5612562 2.0090046 -0.87222022 9
3.8784671 3.0422018 0.086040363 61
2.7940946 2.1908514 -0.8197217 6
3.7301862 2.9237871 0.24838647 40
3.0552087 2.3938694 -0.75445884 5
3.6374075 2.8490195 0.4042283 56
3.3559723 2.6285837 -0.6751712 3
3.5651886 2.7914467 0.55596799 48
3.7391906 2.926636 -0.58302301 2
3.5455959 2.7741134 0.71302837 61
4.2059441 3.2895904 -0.46715477 1
3.6866956 2.883471 0.90977734 40
4.8320093 3.777899 -0.32144746 1
3.6711853 2.8692782 1.0757159 9
5.0235925 3.9248595 -0.11127654 2
4.8279333 3.7706413 1.6414305 3
2.56638 1.9993134 -0.87170261 7
3.8795972 3.0212717 0.085830934 50
2.7848108 2.1679161 -0.81477273 7
3.7340627 2.9058447 0.24796779 45
3.0646791 2.3849308 -0.75484043 5
3.6562717 2.8442807 0.40527418 60
3.3635685 2.6156397 -0.67485833 3
3.5733421 2.7777693 0.55572426 31
3.7666261 2.9269633 -0.58570409 2
3.5646186 2.7689898 0.71490556 54
4.2357101 3.2902927 -0.46924651 1
3.6672752 2.8477075 0.90252656 52
4.7978368 3.7242677 -0.31830731 1
3.7042737 2.8743653 1.0824645 1
5.0044203 3.8804286 1.6968178 4
2.5779278 1.9938878 -0.87325549 9
3.8110197 2.9465544 0.084085695 26
2.7892771 2.1557992 -0.81387293 6
3.728379 2.8805809 0.24692108 52
3.0900753 2.3874211 -0.75903821 3
3.6724858 2.8363709 0.40597141 59
3.3867502 2.6147478 -0.67767417 3
3.6474483 2.8150046 0.56571752 59
3.7705343 2.9089463 -0.58472919 2
3.5695691 2.7529118 0.71396697 49
4.247169 3.2754881 -0.46924651 1
3.6523156 2.8157108 0.89642078 27
4.8740878 3.7562628 -0.32249418 1
5.2077546 4.0090618 1.7610049 12
2.5848718 1.9848775 -0.87325549 9
3.7943153 2.9125352 0.083492316 33
2.8184302 2.1626573 -0.82017154 6
3.7336564 2.8639026 0.24660707 58
3.0874853 2.3682568 -0.75636691 6
3.6823635 2.8235352 0.40597141 56
3.3927221 2.6005058 -0.67704844 3
3.6714332 2.813122 0.56791121 46
3.7869685 2.9005961 -0.58570409 2
3.5775893 2.7392335 0.7136541 64
4.2680693 3.2679095 -0.47029239 1
3.6652405 2.8053303 0.89718395 30
4.9030313 3.7513635 -0.3235409 1
2.5841036 1.9699858 -0.87066728 7
3.8012781 2.8968475 0.083422504 42
2.827512 2.1539874 -0.82062149 7
3.7452202 2.8520613 0.24671172 57
3.0941718 2.3562748 -0.75598526 3
3.6763437 2.7985966 0.4042283 50
3.3986342 2.5862553 -0.67642272 3
3.6733315 2.7942791 0.56669247 41
3.806551 2.8945699 -0.58716655 2
3.5871289 2.7267294 0.7136541 61
4.2921391 3.2626376 -0.47168687 1
3.6640677 2.7842052 0.89451259 18
4.9160957 3.7342267 -0.3235409 1
2.5940459 1.9632846 -0.87170261 7
3.8065822 2.8799422 0.083317786 40
2.8365684 2.1452792 -0.82107133 6
3.7626235 2.8456492 0.24723509 51
3.1039448 2.346643 -0.75636691 5
3.6876793 2.7869492 0.40440264 50
3.4139464 2.579138 -0.67767417 3
3.6783116 2.7778499 0.56596124 46
3.7992032 2.868109 -0.58448541 2
3.6008804 2.7183902 0.71459275 52
4.2812371 3.2308319 -0.46924651 1
3.6753318 2.7725794 0.89489418 16
4.9290996 3.7170446 -0.3235409 1
3.8738797 2.920238 -0.084679075 3
2.6039715 1.9565392 -0.87273788 7
3.80652 2.8600948 0.083108358 42
2.8327591 2.1276691 -0.81792206 6
3.7645469 2.8265023 0.24671172 33
3.1215377 2.3428652 -0.75865656 5
3.7133229 2.7860157 0.40614575 48
3.4256403 2.5701745 -0.67829996 3
3.6763856 2.7573001 0.56425512 42
3.835695 2.875737 -0.58862901 2
3.6277356 2.7188346 0.71803427 40
4.3148117 3.2325933 -0.47168687 1
3.6892192 2.7639086 0.89603907 15
4.9414001 3.7006774 -0.3235409 1
3.9000595 2.91868 -0.085028127 60
2.6197348 1.9548259 -0.87584364 7
3.8309071 2.8575497 0.083422504 38
2.8354816 2.114274 -0.81657231 6
3.7663829 2.8073769 0.24618836 36
3.1292892 2.3325016 -0.75865656 5
3.7337253 2.7820184 0.40736595 42
3.4377601 2.5605602 -0.67892563 3
3.6971333 2.7527499 0.56596124 37
3.8250089 2.8469212 -0.58546036 2
3.6562231 2.7203038 0.7217887 54
4.3350997 3.2254016 -0.47273275 1
3.7177479 2.7650745 0.90061849 9
4.9767284 3.7000883 -0.32500634 1
3.9086182 2.903857 -0.084993221 76
2.6265428 1.9456687 -0.87584364 7
3.842464 2.8453529 0.083457403 42
2.8616409 2.1182759 -0.82197118 6
3.777766 2.7953999 0.24629304 34
3.1279438 2.3145568 -0.75636691 5
3.7466154 2.7713406 0.40771458 44
3.4546185 2.5544178 -0.68049002 3
3.7274725 2.7551658 0.56912988 34
3.8429039 2.839453 -0.58667904 2
3.6736405 2.7133934 0.72335303 45
4.3367152 3.2031484 -0.47168687 1
4.9671149 3.66609 -0.3235409 1
3.909075 2.8830726 -0.084783792 46
2.6270928 1.9319109 -0.87377316 7
3.8459284 2.827184 0.083317786 42
2.8690183 2.1082733 -0.82197118 6
3.8015013 2.7935002 0.24723509 34
3.1486614 2.312923 -0.75941986 6
3.7594788 2.760603 0.40806317 35
3.4571445 2.5376666 -0.6792385 3
3.7498705 2.7515337 0.57107979 34
3.8426969 2.8196468 -0.58521664 2
3.7128816 2.7233956 0.72929758 47
4.3639383 3.1997707 -0.47342998 1
4.9798808 3.6487303 -0.3235409 1
3.9073224 2.8618219 -0.084539458 43
2.6366048 1.9254677 -0.87480837 7
3.8601289 2.817951 0.083422504 38
2.8822899 2.1033432 -0.82377076 6
3.8220365 2.7891207 0.24796779 34
3.1531413 2.3001554 -0.75865656 5
3.783102 2.7586854 0.409632 37
3.4639442 2.5250254 -0.67892563 3
3.775017 2.7507749 0.5735172 34
3.8696735 2.8197489 -0.58789778 2
3.7458434 2.7285128 0.73399061 60
4.3938522 3.1993563 -0.47552174 1
5.0081043 3.6439457 -0.32458761 1
3.9151733 2.8476734 -0.084504552 46
2.6461036 1.9189813 -0.87584364 9
3.8759279 2.8098304 0.083562121 36
2.8829377 2.0891988 -0.82197118 6
3.8463054 2.7863083 0.24890982 34
3.1766515 2.3012033 -0.76247281 6
3.8132071 2.761317 0.41189805 33
3.4851003 2.5227904 -0.68142867 3
3.7889438 2.7417314 0.57424843 31
3.8907523 2.8143668 -0.58960396 2
3.7761552 2.7304671 0.73805791 45
4.3850641 3.1707575 -0.47342998 1
5.0266356 3.6319981 -0.32500634 1
3.9299529 2.837502 -0.084609263 56
2.6559222 1.9119898 -0.87687898 9
3.9019425 2.8079648 0.083911166 33
2.8917933 2.0802627 -0.82242107 7
3.8560088 2.7728643 0.24890982 33
3.175102 2.2832229 -0.7601831 6
3.839 2.7596197 0.41364115 30
3.4842587 2.5036957 -0.67955142 3
3.8162267 2.7412269 0.57692951 24
3.8844287 2.7891893 -0.58716655 2
4.3863916 3.1484637 -0.4723841 1
5.0327916 3.609772 -0.32458761 1
3.9447105 2.8272605 -0.084713981 50
2.6657224 1.9049556 -0.87791425 9
2.8974519 2.0690227 -0.82197118 7
3.8916733 2.7779546 0.25058457 28
3.1926396 2.2789702 -0.76247281 6
3.8761811 2.7658746 0.41660443 20
3.5187085 2.509871 -0.68455732 3
3.8483996 2.7440243 0.58034182 9
3.924854 2.7975056 -0.59179759 2
4.2610545 3.0360167 -0.45774195 1
5.9582882 4.2437344 1.4219086 2
4.034987 2.8728197 -0.25958636 3
3.9480383 2.8088357 -0.084574364 50
2.6660533 1.8911672 -0.87584364 9
2.9126053 2.0645311 -0.82422066 7
3.9160128 2.7747462 0.25152662 9
3.2005749 2.2678127 -0.76247281 5
3.8923166 2.756933 0.41730168 2
3.51455 2.4884419 -0.68205434 3
3.9378366 2.7860799 -0.59228504 2
4.0959454 2.8968747 -0.43891633 24
4.0303121 2.8483424 -0.25864434 19
3.9594507 2.7961936 -0.084609263 45
2.6789575 1.8862976 -0.87791425 7
2.9245758 2.0577149 -0.82557034 6
3.2116835 2.2588844 -0.76323599 6
3.5167511 2.4716141 -0.68080288 3
5.3147154 3.7338598 0.79751301 1
3.9410393 2.7677548 -0.59131008 2
5.3352699 3.7455192 1.0324676 2
4.0978794 2.8768342 -0.43804473 21
4.0304193 2.8273757 -0.25801629 30
3.9888372 2.7961283 -0.085028127 33
2.6918588 1.881362 -0.8799848 7
2.9333389 2.0486088 -0.8260203 7
3.2227683 2.2499084 -0.76399928 6
3.5399387 2.4694943 -0.68361872 3
5.3146896 3.7062025 0.79556316 1
3.9897594 2.7812264 -0.5971598 2
5.2737603 3.674921 1.0180756 2
4.1144361 2.8670681 -0.43874201 24
5.2549195 3.6604338 1.2448379 1
4.0255113 2.8030183 -0.25707424 30
4.0034971 2.785615 -0.085132837 7
2.7095213 1.8796617 -0.88360828 9
2.9260578 2.0283659 -0.82197118 6
3.2354436 2.2419989 -0.76514411 4
3.5517848 2.4593725 -0.68424439 3
5.3537116 3.7057033 0.79946297 1
3.9749579 2.7503395 -0.59350377 2
5.3508945 3.7023728 1.0305904 2
4.1162252 2.8470225 -0.43787044 21
5.2628212 3.6387177 1.2436931 1
4.0385585 2.7912199 -0.2572836 32
5.2315874 3.614424 1.4680306 2
5.2828302 3.6498268 -0.11207936 2
5.1916428 3.5854883 1.6906061 4
2.7049274 1.8625236 -0.8799848 9
5.2704387 3.6290498 0.1116954 2
2.9456093 2.0274913 -0.82557034 6
3.2351615 2.2251289 -0.76323599 5
3.5534093 2.443105 -0.68299294 3
5.5590138 3.8206062 0.82822412 1
4.0102348 2.7551291 -0.59740359 2
5.360528 3.6814361 1.0299646 2
4.1228542 2.8303804 -0.43752185 28
5.2991381 3.6379111 1.2494174 2
4.0642595 2.789114 -0.25833032 21
5.4802475 3.7580249 -0.11598869 2
5.2200618 3.5782657 1.6957825 4
2.7078993 1.8513633 -0.87894952 9
5.4646816 3.7347443 0.11553493 2
2.9639328 2.0248911 -0.82871968 7
5.2350125 3.5751045 0.33222869 1
3.236037 2.2099605 -0.76170951 5
5.1735072 3.5317738 0.54803526 1
3.5814965 2.444047 -0.68674743 2
5.523119 3.7676198 0.820912 1
4.0165477 2.7388759 -0.59691608 2
5.5398355 3.7761867 1.0618773 2
4.1239853 2.8110831 -0.43665028 36
5.3718314 3.6602988 1.2635372 2
4.0855265 2.7827797 -0.25906301 29
5.4338174 3.6983705 -0.11473212 2
5.2293253 3.5578501 1.6947472 4
2.7271342 1.8505769 -0.88309062 9
5.418108 3.6752355 0.11427836 2
2.9661438 2.0112524 -0.82736999 6
5.3896422 3.6531801 0.34123048 1
3.2469826 2.2008533 -0.76247281 5
5.2418842 3.5516925 0.55396187 1
3.5671077 2.4160223 -0.68236721 3
5.4540486 3.6926701 0.808725 1
4.0080009 2.712599 -0.594235 2
5.5006275 3.7214065 1.0518655 2
4.1387224 2.8000205 -0.43717319 26
5.488658 3.7119126 1.2879608 2
4.1465096 2.8031766 -0.26230782 14
5.3472729 3.6122167 -0.11263783 4
5.2833395 3.567682 1.7082058 2
2.7079396 1.8237802 -0.87480837 9
5.3048344 3.5714269 0.1116256 2
2.9699135 1.9987096 -0.8264702 6
5.3592758 3.6053574 0.33850899 1
3.2693064 2.1993678 -0.76590741 4
5.3402219 3.5911894 0.56302613 1
3.5853565 2.4101675 -0.68424439 2
5.3614569 3.6027489 0.79312575 1
4.022387 2.7019153 -0.59496623 2
5.4119062 3.633908 1.0324676 2
4.1650128 2.7966621 -0.43891633 21
5.4298582 3.6445873 1.2711695 2
5.2094316 3.4953191 -0.32877451 1
5.3764591 3.6046636 -0.11298689 4
5.4498172 3.652472 1.757899 4
2.7448056 1.8347136 -0.88464355 9
5.347198 3.5728841 0.11225387 2
2.9736297 1.9861676 -0.82557034 7
5.2954192 3.5356135 0.3336941 1
3.2655337 2.1803119 -0.76323599 5
5.253294 3.5061624 0.55256736 1
3.6167514 2.4129884 -0.68862462 2
5.3145452 3.5443618 0.78435117 1
4.0251875 2.6834521 -0.59399122 2
4.1797247 2.7854202 -0.43943924 21
5.3052979 3.534183 1.2391137 1
5.2216015 3.4771121 -0.32877451 1
5.3890085 3.5858757 -0.11298689 2
5.4014111 3.5927684 1.7382288 4
2.7560229 1.8283244 -0.88619649 7
5.3863015 3.5718808 0.11281236 2
2.980545 1.9757748 -0.82557034 6
5.3077297 3.5171065 0.3336941 3
3.2878544 2.1786592 -0.76667058 5
5.2804499 3.4977071 0.55413622 4
3.6317413 2.4047103 -0.68987608 4
5.2507401 3.4753881 0.77313918 1
4.0411515 2.6737678 -0.59496623 2
5.2723804 3.4870689 1.0011806 2
4.2110233 2.7851043 -0.44170532 8
5.2553701 3.4744971 1.2246122 1
5.2603664 3.4764845 -0.33044925 1
5.3714576 3.5472057 -0.11235859 33
5.2720423 3.480233 1.6926767 2
2.7446382 1.8070092 -0.88050246 9
5.3536367 3.5233738 0.11186992 22
3.0134723 1.9824945 -0.8327688 6
5.3233089 3.5007553 0.33390343 1
3.2839553 2.15962 -0.76399928 5
5.2876329 3.4759686 0.55361325 3
3.6434147 2.3941867 -0.69050181 2
5.2727923 3.4635813 0.77460164 3
4.0454831 2.6563756 -0.594235 2
5.2201161 3.4263682 0.98897886 4
4.3173265 2.8337972 -0.45181534 1
5.2050891 3.4152086 1.2101108 1
5.245749 3.4405739 -0.32877451 1
5.3486834 3.5054169 -0.1116256 54
5.1968961 3.4046423 1.6647241 1
2.7687192 1.8090403 -0.88619649 9
5.3307452 3.4816997 0.11113693 40
3.0138471 1.9677029 -0.83096921 6
5.3304791 3.4788764 0.3335894 22
3.299695 2.1535082 -0.76590741 4
5.2913918 3.4520459 0.55274171 4
3.6385126 2.372823 -0.68799889 2
5.2964916 3.4527414 0.77630776 10
4.0663738 2.6498232 -0.59594113 2
5.2519059 3.4210649 0.99273324 4
4.5675912 2.9753058 -0.47691619 1
5.1939464 3.3820195 1.2047681 1
5.2577276 3.4222403 -0.32877451 1
5.3675919 3.4910872 -0.11176521 85
5.160161 3.3548894 1.649195 1
2.765291 1.7930591 -0.88309062 7
5.344542 3.4641621 0.11117183 78
3.0157914 1.9539908 -0.82961947 6
5.3325338 3.4537325 0.33296138 75
3.3187275 2.1494467 -0.76857871 5
5.3000622 3.4313922 0.55239308 36
3.6401405 2.3558137 -0.68674743 2
5.2885118 3.4212918 0.7733829 21
4.0705957 2.6323817 -0.59520996 2
5.2671347 3.404855 0.99335897 9
4.5980291 2.9723225 -0.47900796 1
5.2172632 3.3713257 1.2074393 10
5.2696409 3.4038677 -0.32877451 1
5.2044172 3.3604503 1.4302388 1
5.3965473 3.4831724 -0.11211426 80
5.1442432 3.3190527 1.6403952 3
2.7910285 1.7959391 -0.88930225 7
5.3633299 3.4498107 0.11131145 92
3.019315 1.9413445 -0.82871968 6
5.3254766 3.4241493 0.33181 73
3.3344674 2.1431572 -0.77048677 4
5.2985988 3.404254 0.55099863 78
3.6666243 2.3548357 -0.69018894 2
5.2670116 3.3813634 0.76850814 38
4.0814314 2.6192279 -0.59545368 1
5.2634335 3.377769 0.99054313 26
4.6117315 2.9584045 -0.47935659 1
5.2405682 3.3605134 1.2101108 19
5.2814898 3.3854537 -0.32877451 1
5.2079129 3.3370049 1.4279894 13
5.4198546 3.4728084 -0.11235859 97
5.1649814 3.3082285 1.643501 7
2.7940247 1.7841058 -0.88826698 7
5.3831682 3.4373863 0.11148597 85
3.0388768 1.9397099 -0.8323189 6
5.3424473 3.4087629 0.33212399 64
3.3319969 2.1251693 -0.768197 5
5.3171687 3.390023 0.55169582 67
3.6627529 2.3352311 -0.68799889 2
5.2798705 3.3649437 0.76875186 80
4.0800495 2.599278 -0.59399122 1
5.2302041 3.3307273 0.98209572 66
4.6590052 2.9658275 -0.48319143 1
5.2284975 3.3283546 1.2047681 38
5.2926884 3.3679194 -0.32877451 1
5.2173033 3.3186738 1.4275393 31
5.4268813 3.4506502 -0.11225387 90
5.1911721 3.2995043 1.6481597 22
2.7901351 1.7686254 -0.88516116 7
5.4018898 3.4228566 0.1116256 85
3.0505686 1.9322177 -0.83366859 6
5.364439 3.396503 0.33275205 66
3.3323908 2.1099083 -0.76667058 4
5.3216481 3.3681087 0.55099863 66
3.6909153 2.335104 -0.69175333 2
5.303328 3.3539219 0.7704581 70
4.1058769 2.5956285 -0.59642857 2
5.246809 3.3156147 0.98303431 80
4.6317606 2.9269471 -0.47935659 1
5.2301245 3.3037941 1.2024784 87
5.3483195 3.3771503 -0.33149597 1
5.1860108 3.273396 1.4158419 45
5.4473486 3.4370227 -0.1124284 97
5.1781473 3.2659059 1.6403952 35
2.7913859 1.7557902 -0.88360828 9
5.4188843 3.4071715 0.11173031 97
3.0638947 1.925705 -0.83546823 6
5.3914828 3.3873205 0.3336941 70
3.3413973 2.099308 -0.76705217 4
5.3451843 3.3569279 0.55221879 69
3.6923518 2.3180037 -0.69050181 2
5.3217282 3.3396108 0.771433 66
4.1283655 2.5897181 -0.59837854 2
5.2784338 3.3098712 0.98678869 80
4.6554537 2.9192278 -0.48075107 1
5.229979 3.2782192 1.199807 78
5.360076 3.3584592 -0.33149597 1
5.2040129 3.2594101 1.4176416 90
5.4677863 3.4232936 -0.11260293 95
5.1649528 3.2324362 1.6326306 75
2.8253582 1.7634234 -0.89240813 7
5.4341354 3.3903556 0.11180011 92
3.0689442 1.9139675 -0.83501828 6
5.4100542 3.3727055 0.33411276 68
3.3636997 2.0969787 -0.77048677 4
5.3670144 3.344573 0.55326468 75
3.7037737 2.3071909 -0.69112754 2
5.3232436 3.3147171 0.7699706 68
4.1272678 2.5689988 -0.59691608 2
5.2983413 3.2966449 0.98835307 87
4.6825314 2.913486 -0.48249418 1
5.2397242 3.2589049 1.1994255 80
5.2219782 3.2453403 1.4194412 75
5.5017853 3.4179032 -0.11305669 97
5.1794863 3.2164268 1.6336659 95
2.8117874 1.7413455 -0.88619649 7
5.45784 3.3787329 0.11204445 90
3.0656643 1.8970898 -0.8323189 6
5.4217935 3.353801 0.33411276 68
3.3726683 2.0862577 -0.77086836 4
5.388823 3.3321061 0.5543105 75
3.7151663 2.2963245 -0.69175333 2
5.3516684 3.3065505 0.77240795 66
4.134521 2.553534 -0.59667236 2
5.3148599 3.2812419 0.98929167 80
4.6994548 2.9013083 -0.48319143 1
5.2610936 3.2467802 1.2017151 80
5.4003892 3.3314457 -0.33254269 1
5.2332754 3.2270911 1.4194412 75
5.5153861 3.3997257 -0.1130916 95
5.2038393 3.2064359 1.6378069 95
2.8376005 1.7436559 -0.89240813 7
5.4781208 3.3648925 0.11221898 97
3.0656238 1.8823004 -0.83051926 6
5.4402771 3.3390326 0.33453146 70
3.3765843 2.0724175 -0.77010518 5
5.4072156 3.3174417 0.55500776 75
3.7197897 2.2812791 -0.69112754 2
5.3665638 3.2899232 0.77289546 64
4.1417174 2.538048 -0.59642857 2
5.3279634 3.263705 0.98960453 87
4.6964631 2.8757422 -0.48179695 1
5.2824402 3.2345481 1.2040049 80
5.4119859 3.3125732 -0.33254269 1
5.2478304 3.2108417 1.4203409 75
5.5221014 3.3773236 -0.11298689 87
5.2100563 3.1852276 1.6362541 91
2.8241761 1.7211801 -0.88619649 7
5.4966626 3.3499136 0.11235859 92
3.0871542 1.8807119 -0.83456844 5
5.4672527 3.3293703 0.33547351 75
3.3891878 2.0630908 -0.77125001 4
5.4193377 3.2976022 0.55500776 76
3.7483802 2.2799459 -0.69488198 2
5.3898878 3.2783902 0.77460164 70
4.1658163 2.5328577 -0.59862226 2
5.3443885 3.2481637 0.99054313 76
4.7030678 2.8572607 -0.48144829 1
5.3093615 3.2243378 1.2074393 84
5.4650655 3.3175907 -0.33505484 1
5.2695622 3.1976476 1.4230404 76
5.547534 3.3663249 -0.11326612 97
5.2227941 3.1680245 1.6367717 95
2.8367801 1.715309 -0.88826698 7
5.5106163 3.3307784 0.11239351 90
3.0990298 1.872408 -0.83591807 6
5.4908056 3.3174992 0.33620623 68
3.3997302 2.0532768 -0.77201319 4
5.4359326 3.2817526 0.55553067 73
3.7495489 2.2627676 -0.69363046 2
5.4069662 3.2616904 0.77533287 66
4.1852727 2.5237217 -0.60008472 2
5.3675361 3.2366273 0.99273324 95
4.7300744 2.851115 -0.48319143 1
5.3172216 3.2037573 1.2066761 85
5.4389734 3.2758219 -0.33275205 1
5.2957153 3.1882839 1.4270895 73
5.5712404 3.3541636 -0.11351045 95
5.2454076 3.1567454 1.6403952 91
2.8626285 1.7173243 -0.89447862 7
5.5387774 3.322777 0.11274255 100
3.0985374 1.8581114 -0.83411849 6
5.5092049 3.3024185 0.33662489 73
3.413614 2.0454328 -0.77353972 4
5.466156 3.2740204 0.55744815 75
3.7434754 2.2422001 -0.69112754 2
5.4160485 3.2427237 0.77508909 70
4.1953225 2.5108471 -0.60032845 2
5.3821912 3.2199008 0.99335897 85
4.7570987 2.8448112 -0.48493454 1
5.3379259 3.1921542 1.2089659 84
5.49438 3.2844105 -0.33547351 1
5.3096061 3.172703 1.4279894 80
5.5983667 3.3439233 -0.1138246 97
5.2646899 3.1433671 1.6429834 97
2.8616683 1.7038679 -0.89240813 7
5.5572162 3.307512 0.11288217 90
3.1066799 1.8482798 -0.83456844 6
5.5241318 3.2852104 0.33683425 70
3.418689 2.0331001 -0.77315807 4
5.4838328 3.2599494 0.55814534 76
3.7614691 2.2351727 -0.69300479 5
5.4358678 3.2288682 0.77630776 68
4.1921115 2.4890959 -0.59862226 2
5.4137826 3.2131908 0.99711335 83
4.749373 2.81885 -0.48319143 1
5.3557911 3.1775074 1.2104924 85
5.5229874 3.2754033 -0.33652022 1
5.3206491 3.1541481 1.4279894 80
5.6134472 3.3263984 -0.11389441 100
5.2889247 3.1328504 1.6471245 93
2.8775792 1.6997627 -0.89551395 7
5.5807819 3.2952092 0.1131265 97
3.1147902 1.8384153 -0.83501828 6
5.544167 3.2709804 0.33735761 66
3.4308381 2.0241461 -0.7743029 4
5.5037608 3.2458465 0.55901694 73
3.7658443 2.2200234 -0.692379 2
5.4607882 3.2179351 0.77825767 68
4.2076163 2.4784765 -0.59959722 2
5.4232635 3.1932728 0.99680054 90
4.7935209 2.822474 -0.48667765 1
5.3820767 3.1677566 1.2139269 80
5.5171738 3.245975 -0.33547351 1
5.3417044 3.1414845 1.4306886 80
5.6267467 3.3077979 -0.11392931 90
5.3114882 3.1212196 1.6507479 90
2.8734946 1.6838468 -0.89240813 7
5.607779 3.2848065 0.11344065 100
3.1396868 1.8383634 -0.83996725 6
5.5676184 3.2586687 0.33809033 70
3.4311061 2.0081904 -0.77277648 4
5.5133371 3.22561 0.5588426 76
3.7872119 2.2148435 -0.69488198 2
5.4788437 3.2028596 0.77923268 64
4.2213836 2.4667795 -0.60032845 2
5.4224367 3.1673493 0.99461043 80
4.7826991 2.7936664 -0.48458594 1
5.3947973 3.1499388 1.2143085 91
5.52847 3.2266979 -0.33547351 1
5.361053 3.1277308 1.4329382 75
5.6486239 3.2941799 -0.11413874 95
5.3156743 3.0987694 1.6486773 90
2.8760145 1.671865 -0.89137286 7
5.6122956 3.2611914 0.11330102 100
3.1410298 1.8244555 -0.8386175 6
5.5875945 3.2442296 0.33861366 66
3.4584684 2.0080314 -0.77735591 4
5.5314565 3.2103443 0.55953985 75
3.8051727 2.2075567 -0.69675916 2
5.5054445 3.1926789 0.78142631 65
4.2368388 2.4560099 -0.60130334 1
5.4608073 3.1642468 0.99961638 83
4.8131089 2.78894 -0.48667765 1
5.4057589 3.1310892 1.2143085 90
5.5397005 3.2073791 -0.33547351 1
5.3837457 3.1158299 1.4360875 80
5.6670117 3.2784491 -0.11427836 95
5.333149 3.0840623 1.6507479 90
2.8952208 1.6695367 -0.89551395 7
5.6375046 3.2495711 0.11358026 100
3.1406248 1.8095891 -0.83681792 6
5.608705 3.2316666 0.33924171 64
3.4586513 1.9920281 -0.77582937 4
5.5564432 3.1989675 0.56093436 75
3.8128548 2.1942616 -0.69675916 4
5.5079517 3.1684942 0.78020763 63
4.2591538 2.4491212 -0.6032533 2
5.4815454 3.1520274 1.0014936 87
4.822814 2.7721231 -0.48667765 1
5.4268708 3.1180677 1.2165983 90
5.5508633 3.1880207 -0.33547351 1
5.4013486 3.1009002 1.4378871 73
5.6882572 3.2656136 -0.11448779 95
5.3567524 3.0740511 1.6548891 90
2.9010303 1.659421 -0.89551395 7
5.6569271 3.2358241 0.11375479 92
3.1533756 1.8030328 -0.8386175 6
5.6164842 3.2100849 0.33903235 66
3.4502416 1.9711788 -0.7723949 4
5.5814157 3.1874578 0.56232882 75
3.8098187 2.1757269 -0.69488198 2
5.5287733 3.1561151 0.78167003 63
4.2586298 2.4300675 -0.60203457 2
5.5045257 3.1397262 1.0036837 85
4.8186159 2.7473755 -0.48528317 1
5.4542351 3.1097794 1.2204144 97
5.6238723 3.2051992 -0.33924171 1
5.4116025 3.0829699 1.4378871 80
5.7135239 3.2536526 -0.11476702 90
5.3775225 3.0610688 1.6579949 90
2.906518 1.6497908 -0.89551395 7
5.6821032 3.2239511 0.11403403 97
3.1647353 1.7948993 -0.83996725 5
5.6398168 3.1973567 0.33976504 68
3.4601753 1.9616621 -0.77315807 4
5.6023555 3.1748269 0.5633747 75
3.8345776 2.172152 -0.69801068 2
5.5553021 3.1456008 0.78386366 66
4.2584491 2.4102974 -0.60081595 1
5.5120134 3.1185455 1.0030578 80
4.8420496 2.7383859 -0.48667765 1
5.4701829 3.0936222 1.2215593 93
5.6350255 3.18555 -0.33924171 1
5.4291186 3.0678945 1.4396867 80
5.7248454 3.23369 -0.11476702 95
5.3999496 3.048929 1.6616182 86
2.9091783 1.6372311 -0.89447862 7
5.7037792 3.20998 0.11424346 97
3.1709809 1.7838421 -0.83996725 6
5.6648717 3.1854806 0.34060243 68
3.4827452 1.9576236 -0.77659267 4
5.6104798 3.1523213 0.56302613 76
3.8321798 2.1522779 -0.69613349 2
5.5783648 3.1329927 0.78556985 65
4.2910709 2.4090214 -0.60422826 1
5.5331998 3.1050904 1.0049351 80
4.8515792 2.7214661 -0.48667765 1
5.4866233 3.0764315 1.2227042 84
5.6919613 3.1902657 -0.34196317 1
5.4522266 3.0546439 1.4428362 82
5.7395887 3.2156403 -0.11483683 95
5.4038181 3.0262837 1.6595478 84
2.9148753 1.6270669 -0.89447862 7
5.7102666 3.1861315 0.11413874 100
3.1911144 1.7797993 -0.84356648 5
5.6864233 3.1715229 0.34123048 68
3.4964159 1.9492792 -0.77811909 4
5.6336327 3.1395054 0.5642463 73
3.8552012 2.1475389 -0.69894928 2
5.5950127 3.1154246 0.78630108 66
4.289464 2.387486 -0.6027658 1
5.5526361 3.090559 1.0064995 67
4.8610501 2.7045131 -0.48667765 1
5.5007591 3.0591702 1.2234674 90
5.7100463 3.1742575 -0.34238186 1
5.4764838 3.0431645 1.4464353 76
5.7507792 3.1955843 -0.11483683 33
5.4261699 3.0139701 1.6631712 82
2.9340584 1.6243669 -0.89861977 7
5.7243004 3.1691134 0.11420855 72
3.1833572 1.7616609 -0.83996725 5
5.7009521 3.1535914 0.34143981 73
3.4997635 1.9351618 -0.77735591 4
5.6532764 3.1246388 0.56511784 78
3.8467412 2.1261435 -0.69613349 2
5.6035748 3.0958948 0.78605735 65
4.3008337 2.3751667 -0.6032533 1
5.5772262 3.0787938 1.0090024 77
4.8704596 2.6875317 -0.48667765 1
5.5177484 3.0447073 1.2249938 84
5.7100487 3.1495156 -0.34175381 1
5.4967842 3.0306334 1.4491347 76
5.7566423 3.1725991 -0.11473212 19
5.448504 3.0015347 1.6667948 86
2.9394286 1.6146288 -0.89861977 7
5.7300673 3.1462293 0.11410383 20
3.2031546 1.7580384 -0.84356648 5
5.7154284 3.1355922 0.34164914 35
3.5113246 1.9263791 -0.7785008 5
5.6775808 3.1135426 0.56651235 78
3.8610673 2.1165016 -0.69738495 2
5.6334977 3.0868073 0.78873843 71
4.3125792 2.3620498 -0.60374081 1
5.5983348 3.0649996 1.0108796 77
4.896822 2.6809328 -0.48842075 1
5.5455661 3.034852 1.2288101 84
5.7665668 3.154485 -0.3444753 1
5.5107484 3.0132985 1.4500345 76
5.7887392 3.1639929 -0.11515098 19
5.46912 2.9880533 1.6699005 84
2.9450464 1.6043591 -0.89861977 7
5.7497969 3.1309886 0.11427836 20
3.2058489 1.7449825 -0.84266669 5
5.7245841 3.1146691 0.34154451 15
3.5007823 1.9047284 -0.77468461 4
5.6971669 3.0984633 0.56738389 37
3.8788452 2.1086707 -0.69926214 2
5.6529593 3.0718641 0.78995717 74
4.331264 2.3526654 -0.60520321 1
5.6072645 3.0444951 1.0105668 95
4.9061513 2.6638217 -0.48842075 1
5.5664783 3.0210958 1.2310997 90
5.7634959 3.1267214 -0.34363794 1
5.5246601 2.9959006 1.4509343 82
5.7997479 3.1437683 -0.11515098 19
5.4897065 2.9744704 1.6730064 86
2.9438307 1.5903956 -0.89654922 7
5.7730079 3.1175487 0.11452269 22
3.2187786 1.7374862 -0.84446627 5
5.7406955 3.0975113 0.34185851 14
3.5195045 1.8990216 -0.77735591 4
5.6798906 3.0634232 0.56459486 18
3.8896585 2.0969956 -0.69988787 2
5.6636481 3.0521114 0.78995717 26
4.3499374 2.3431797 -0.60666561 1
5.6248121 3.0286534 1.0118183 75
4.8978748 2.6372375 -0.48667765 1
5.5960073 3.0118804 1.2352976 100
5.7673397 3.102797 -0.34321922 1
5.5436654 2.981214 1.4531839 80
5.8089252 3.1225557 -0.11511607 19
5.5051618 2.9580309 1.6745592 88
2.9595819 1.585583 -0.89965498 7
5.7961946 3.1039875 0.11476702 20
3.2265427 1.7271588 -0.84491616 6
5.7655616 3.0849903 0.34269586 14
3.5382297 1.8932074 -0.78002721 4
5.7063608 3.0520363 0.56616372 16
3.893471 2.0815418 -0.69926214 2
5.6620131 3.0257723 0.78825098 13
4.3580894 2.3279822 -0.60666561 1
5.6283808 3.0052776 1.0105668 22
4.9070516 2.6201234 -0.48667765 1
5.6012912 2.9895537 1.2341527 84
5.7992816 3.0939293 -0.3444753 1
5.5677934 2.9691818 1.4567831 90
5.8427305 3.1144867 -0.11556984 19
5.5188632 2.9406145 1.6755946 90
2.9650974 1.5752444 -0.89965498 7
5.8140593 3.0874858 0.11490664 20
3.2256663 1.7122314 -0.84311652 4
5.7904072 3.0723388 0.34353325 14
3.5448155 1.8808477 -0.78002721 4
5.7328224 3.040499 0.56773251 15
3.8850062 2.0596101 -0.6964463 2
5.6848183 3.0124974 0.78995717 13
4.3732057 2.3164709 -0.60764056 1
5.6510582 2.9920814 1.0127568 20
4.9584279 2.6253526 -0.49086115 1
5.5891347 2.9580457 1.2291917 24
5.7923923 3.0643258 -0.34342858 1
5.5901833 2.9561036 1.4599323 65
5.8730135 3.1043534 -0.1159538 16
5.5444674 2.9294529 1.6802533 100
2.9910889 1.5756887 -0.90586674 7
5.8318787 3.0709007 0.11504627 20
3.2419708 1.7064065 -0.84581596 6
5.8010969 3.0521061 0.34353325 14
3.5548344 1.8702897 -0.78079039 4
5.7557435 3.026962 0.56895268 15
3.9253933 2.0635011 -0.70239085 2
5.7093563 3.0000234 0.79190701 14
4.3742356 2.2975001 -0.60666561 1
5.6684632 2.9760115 1.0140083 20
4.9746175 2.6117342 -0.49155837 1
5.6185474 2.9485543 1.2333894 20
5.8207412 3.0533645 -0.3444753 1
5.5763049 2.9239042 1.4536338 22
5.8997536 3.0921898 -0.11626793 16
5.5563717 2.9109764 1.680771 43
2.9862964 1.5598723 -0.90276086 7
5.8691521 3.0644059 0.11556984 17
3.2479076 1.6950786 -0.84581596 6
5.8134856 3.032763 0.34363794 12
3.5665624 1.8605943 -0.78193527 4
5.7804079 3.0142205 0.57034713 13
3.9430833 2.0552635 -0.70426804 2
5.7356372 2.988332 0.7941007 14
4.3822293 2.2822163 -0.60666561 1
5.6770654 2.9552929 1.0136955 17
4.9837046 2.594352 -0.49155837 1
5.639255 2.9343626 1.2356791 18
5.8313637 3.0330291 -0.3444753 1
5.5968528 2.9098134 1.4563332 18
5.9069624 3.0697343 -0.11619812 16
5.5562119 2.8862212 1.6776651 18
2.9865773 1.5467726 -0.90120792 6
5.8869162 3.0475786 0.11570945 17
3.2520738 1.6828361 -0.84536606 5
5.8453259 3.0234613 0.34489399 12
3.5643175 1.8436228 -0.78002721 4
5.7944336 2.995856 0.57069582 15
3.946723 2.039674 -0.70364231 2
5.753089 2.9719355 0.79507565 13
4.4148622 2.2796569 -0.61007798 1
5.6943674 2.9390836 1.0149469 17
4.9608612 2.5604925 -0.48842075 1
5.6616769 2.9209595 1.2383504 18
5.8561158 3.01998 -0.34531268 1
5.6191006 2.8965104 1.4594824 16
5.9247527 3.0527582 -0.11633775 16
5.5645351 2.8659256 1.6771475 18
3.0091441 1.5451617 -0.90638429 7
5.8975177 3.0270121 0.11570945 17
3.2648642 1.6750313 -0.8471657 6
5.877171 3.0139742 0.34615004 12
3.5864539 1.8392317 -0.78346181 4
5.8013091 2.9737949 0.57034713 13
3.9467874 2.0222809 -0.70239085 2
5.777564 2.9590733 0.79702556 13
4.4192581 2.262424 -0.60959053 1
5.7133851 2.9236863 1.0165112 20
4.9875054 2.5522351 -0.49016386 1
5.6753354 2.9029653 1.2391137 16
5.8950734 3.0140684 -0.34698743 1
5.6517358 2.8884058 1.4653312 20
5.9531817 3.0411539 -0.11668679 15
5.5917096 2.8552709 1.6823239 18
3.0093539 1.5320196 -0.90483141 7
5.9169598 3.0109406 0.11588398 12
3.2620053 1.6592094 -0.84491616 6
5.8876557 2.9934418 0.34615004 12
3.5841019 1.8222533 -0.78155369 4
5.8329692 2.9643569 0.5724389 15
3.9679112 2.0156496 -0.70489377 2
5.7896266 2.9397874 0.79726928 11
4.4448309 2.2559674 -0.61202788 1
5.7358866 2.9099822 1.0187013 17
5.0034914 2.5384166 -0.49086115 1
5.681931 2.8813622 1.2383504 16
5.9055595 2.9934709 -0.34698743 1
5.6652608 2.8704197 1.466231 18
5.9780316 3.0275841 -0.11696602 17
5.6102614 2.840096 1.6849121 18
3.0250316 1.5267274 -0.90793723 7
5.9399309 2.9965744 0.11612831 17
3.2712576 1.6495668 -0.84581596 6
5.8945022 2.9710722 0.34594071 10
3.6097255 1.8194506 -0.78575146 4
5.861074 2.9529438 0.57418203 13
3.985508 2.0071187 -0.70677096 2
5.8051734 2.9222362 0.79800051 11
4.4455848 2.2368703 -0.61105299 1
5.7583628 2.8961573 1.0208914 15
5.0443597 2.537051 -0.49399874 2
5.7059879 2.8685644 1.2414035 18
5.9159737 2.9728367 -0.34698743 1
5.6735029 2.8497562 1.4657811 18
6.002861 3.0138748 -0.11724527 17
5.6374073 2.8291585 1.6900884 18
3.0268865 1.5144322 -0.90690196 7
5.9682403 2.9847643 0.11647736 17
3.2822256 1.640751 -0.8471657 5
5.9280615 2.9620879 0.34730142 14
3.6020036 1.7998214 -0.78269857 4
5.8838234 2.9386969 0.5754022 12
3.988956 1.9914287 -0.70614529 2
5.8348751 2.9117086 0.80068165 11
4.4533668 2.2213376 -0.61105299 1
5.7737417 2.8786817 1.0218301 17
5.0389218 2.5123141 -0.49260426 1
5.7335353 2.8573902 1.2452196 18
5.9942479 2.9860103 -0.35096496 1
5.6903944 2.8334074 1.4675807 18
6.0097623 2.9911246 -0.11717546 17
5.6541667 2.8129063 1.6921589 18
3.0356159 1.505573 -0.90793723 7
5.9893737 2.9692411 0.11668679 17
3.3001552 1.6353414 -0.85031497 6
5.9491043 2.9466946 0.34792948 14
3.6082647 1.7872361 -0.78269857 4
5.8940463 2.9181392 0.5754022 15
4.010046 1.9845027 -0.7086482 2
5.8521214 2.8948426 0.80165666 9
4.4895649 2.2198551 -0.61495274 1
5.778441 2.8558855 1.0208914 15
5.0762382 2.5088348 -0.49539325 2
5.7540369 2.8425744 1.2475092 16
6.029707 2.977447 -0.35243034 1
5.7159767 2.821291 1.4716297 18
6.0201678 2.9701269 -0.11717546 17
5.6639519 2.7931509 1.6921589 18
3.0356524 1.4924098 -0.90638429 6
5.9996996 2.9483204 0.11668679 17
3.3093421 1.6255292 -0.85121477 6
5.9754901 2.933831 0.34887153 12
3.6285801 1.7815511 -0.78575146 4
5.914927 2.9028182 0.57644808 15
4.0116286 1.9678819 -0.70770961 4
5.8728852 2.8796391 0.803119 13
4.4901552 2.2006786 -0.61397779 1
5.8149848 2.8487315 1.0255845 10
5.0670733 2.4823334 -0.49365011 1
5.7692142 2.8250606 1.2486541 16
5.9934192 2.9335558 -0.34970888 1
5.7327924 2.8047452 1.4734293 18
6.0484629 2.9578776 -0.1175245 17
5.6771369 2.7750638 1.6931943 18
3.0425797 1.4826514 -0.90690196 7
6.0171466 2.9308603 0.11682641 17
3.3132436 1.6131151 -0.85076487 5
5.9959607 2.9192464 0.34949955 11
3.6400726 1.7714522 -0.78689629 4
5.9375658 2.8882525 0.57766825 15
4.0291333 1.9590483 -0.7095868 2
5.8936129 2.8643289 0.80458146 11
4.4974284 2.1857755 -0.61397779 1
5.8279524 2.8311603 1.0262102 17
5.1294761 2.4907382 -0.49887949 2
5.7737412 2.8023345 1.2475092 15
6.0395632 2.9300511 -0.35180232 1
5.7508283 2.7899735 1.4756789 16
6.0870285 2.9517629 -0.11808299 17
5.7089081 2.767175 1.6999235 18
3.0648735 1.4809592 -0.91207838 7
6.0412383 2.9178467 0.11710566 17
3.3115547 1.5987309 -0.84896529 5
6.0056071 2.8993483 0.34949955 11
3.6512311 1.7619321 -0.78804117 4
5.968646 2.8789325 0.57976002 16
4.0587382 1.9568317 -0.7136541 1
5.8995023 2.8430469 0.80409402 11
4.5207458 2.1786063 -0.61617148 2
5.8622251 2.8238184 1.0305904 17
5.1377058 2.4737179 -0.49887949 2
5.8059993 2.7942417 1.2524703 20
6.0420475 2.9065421 -0.35138363 1
5.7688293 2.77511 1.4779284 18
6.1039915 2.9350288 -0.1182226 17
5.7389469 2.7582717 1.7061353 16
3.0662837 1.4691173 -0.91104311 7
6.0761304 2.9098904 0.11759432 17
3.3291426 1.5936296 -0.85211456 6
6.0332046 2.8880389 0.35054627 11
3.6570542 1.7498134 -0.78804117 4
5.983552 2.8617039 0.58028293 15
4.1222363 1.9706241 -0.72366595 1
5.9250183 2.8311689 0.80628765 13
4.5171995 2.1584668 -0.61470902 2
5.8751216 2.8060672 1.0312161 17
5.1458812 2.4566658 -0.49887949 2
5.8418121 2.7876544 1.2581946 18
6.022809 2.8727336 -0.34970888 1
5.7832766 2.7584827 1.4792781 18
6.1136899 2.9147723 -0.1182226 17
5.7637577 2.7467036 1.710794 18
3.0624137 1.454797 -0.9084549 7
6.0857472 2.8897238 0.11759432 17
3.3291271 1.5800749 -0.85076487 5
6.0643997 2.8782938 0.35180232 11
3.6646097 1.7385186 -0.78842276 4
6.0002103 2.8452592 0.58098018 15
4.1680179 1.9755574 -0.73054904 1
5.9505191 2.8191557 0.80848128 11
4.562005 2.1613243 -0.61982757 1
5.8951068 2.79164 1.0330933 17
5.164804 2.4447031 -0.49992532 2
5.8510237 2.7682681 1.2581946 20
6.0323029 2.8527439 -0.34970888 1
5.8152947 2.7501183 1.4851269 20
6.1703272 2.916703 -0.11913013 60
5.7728343 2.7275763 1.710794 18
3.0729694 1.4460297 -0.91000783 7
6.1198211 2.8784649 0.11804808 20
3.3507686 1.5753237 -0.85481399 6
6.0844455 2.8592327 0.35232571 13
3.6762881 1.7275795 -0.78956765 4
6.0286317 2.8317199 0.58272326 16
4.1609263 1.9535505 -0.72804612 1
5.9769864 2.8049157 0.81067497 13
4.4983826 2.1100698 -0.61007798 1
5.9236674 2.7773712 1.0362221 17
5.1701226 2.4240639 -0.49957672 2
5.8717976 2.7518017 1.2604843 20
5.8416948 2.7352076 1.489176 18
6.2213268 2.9116356 -0.11989804 87
5.7885151 2.7078445 1.7123468 18
3.0850015 1.4385606 -0.91207838 7
6.1660805 2.8739822 0.11874618 84
3.3421152 1.5570349 -0.85121477 6
6.1161156 2.8480954 0.35358176 13
3.7072124 1.7263401 -0.79491037 4
6.0475101 2.8148637 0.5835948 14
4.1390634 1.9256827 -0.72304016 1
5.9777398 2.7798505 0.80945623 11
4.2591043 1.9797206 -0.57668579 9
5.9476571 2.7633367 1.038725 17
5.8956127 2.7379019 1.2635372 18
6.0525622 2.8095047 -0.34970888 1
5.8618131 2.7197218 1.4918754 18
6.2368956 2.8924239 -0.12000275 92
5.8119545 2.6941206 1.716488 18
3.0882502 1.4269735 -0.91156071 7
6.1869683 2.8574703 0.1189556 78
3.351069 1.5469918 -0.85211456 6
6.1695433 2.8468137 0.35609388 65
3.7025199 1.7084546 -0.7926206 4
6.071774 2.8004112 0.58498931 17
4.1744637 1.9244541 -0.72804612 1
6.0126472 2.7705996 0.8128686 11
4.2227149 1.9449114 -0.57083601 9
5.9752116 2.7508178 1.0418537 17
4.2259097 1.9454889 -0.40701729 11
5.9176164 2.7230546 1.2662085 18
4.2478056 1.9537725 -0.24503697 1
5.8730416 2.7000561 1.4923253 18
6.2633071 2.8781514 -0.12031689 82
5.833611 2.6794622 1.7201115 18
3.0967257 1.4177923 -0.91259599 6
6.2223611 2.8475072 0.11944427 78
3.3670809 1.5401493 -0.85481399 6
6.1776276 2.8244286 0.35598922 60
3.6923919 1.6881717 -0.78918606 4
6.1322527 2.8023853 0.58987004 69
4.1847482 1.911513 -0.72867179 1
6.0547867 2.7644336 0.81725591 13
4.1897488 1.9120272 -0.56547379 9
5.9793849 2.7274854 1.040915 15
4.1927953 1.9125358 -0.40318248 10
5.9431634 2.7097104 1.2696431 18
4.2091646 1.9182259 -0.24242018 10
5.8930712 2.684387 1.4950247 18
5.8569961 2.6654828 1.7242525 18
3.1034155 1.4077713 -0.91311359 7
6.2468319 2.832377 0.11972351 63
3.3759868 1.5299945 -0.85571378 6
6.2074623 2.8119109 0.3571406 65
3.719723 1.6849929 -0.79376549 5
6.1547003 2.7867198 0.59109026 94
4.1464047 1.876531 -0.72085011 2
6.1168509 2.7670064 0.82432431 52
4.1783085 1.8892152 -0.56303644 9
6.014071 2.7179847 1.0452952 20
4.1740279 1.8864 -0.40074208 10
5.9651113 2.6946042 1.2723144 16
4.1903491 1.8920177 -0.24095476 10
5.9095106 2.6670048 1.4968243 18
4.1706038 1.8813474 -0.079862215 14
5.8680239 2.6458201 1.7247702 18
3.1083102 1.3969305 -0.91311359 7
4.1699052 1.8731555 0.079792403 10
3.3866408 1.5205946 -0.85706353 6
6.2299943 2.7959516 0.35787329 21
3.7237902 1.6711953 -0.79338378 4
6.1771164 2.7709253 0.59231043 82
4.1421151 1.8571959 -0.71897286 8
6.1300945 2.7472625 0.82481176 55
4.1667614 1.8665022 -0.56059903 9
6.0884271 2.7260339 1.0565585 72
4.1514921 1.8587903 -0.39795309 10
5.9941921 2.6825886 1.2765123 22
4.1823435 1.8708538 -0.2401174 10
5.9508076 2.6606767 1.5049226 18
4.147934 1.8537244 -0.079303734 14
5.8860435 2.6292586 1.7273583 18
3.1184628 1.3884284 -0.91466653 6
4.1435323 1.8439547 0.079164118 13
3.3972685 1.511142 -0.85841322 6
4.1665025 1.8524325 0.23896599 10
3.7457469 1.6653639 -0.79681838 5
6.1922121 2.7517748 0.59283334 34
4.1341295 1.8363137 -0.71646994 11
6.1505337 2.7306793 0.82627422 55
4.1587358 1.8455033 -0.55864912 9
6.1069326 2.7087739 1.0581229 80
4.1251717 1.8297493 -0.3948155 10
6.043005 2.6791527 1.2849078 65
4.1468506 1.8376311 -0.23770994 12
5.9778748 2.6477845 1.5094216 24
4.1287808 1.8278996 -0.078815073 14
5.9093194 2.614949 1.7314996 18
3.1250567 1.3783162 -0.9151842 7
4.1316466 1.8214123 0.078815073 13
3.3989568 1.4977018 -0.85751343 6
4.1528363 1.8290249 0.23781461 12
3.7443492 1.6491158 -0.79529196 4
4.1466775 1.8254461 0.39638433 9
4.1152015 1.8107322 -0.71208972 13
6.1582093 2.7083983 0.82603049 30
4.1306238 1.815798 -0.55401808 10
6.1272025 2.6922061 1.0600001 75
4.1096449 1.8057199 -0.39272377 10
6.0720916 2.6667304 1.2891057 97
4.1166635 1.8070897 -0.23561651 12
6.0227723 2.6425598 1.5184196 66
4.1241488 1.8086565 -0.078605637 15
5.9679518 2.6160228 1.7459934 30
3.1369302 1.3704921 -0.91725475 7
4.1159887 1.7973747 0.078396209 13
3.3988054 1.4834901 -0.85616374 5
4.1222692 1.7992632 0.23572117 12
3.7626796 1.64153 -0.79796326 5
4.1274557 1.7998099 0.39394394 12
4.0997667 1.7868865 -0.70833534 13
4.1311631 1.7997129 0.55328691 8
4.0896173 1.7807622 -0.54768091 10
6.1360974 2.6718712 1.0600001 50
4.0976543 1.7834134 -0.39098063 10
6.0885653 2.6486497 1.2906321 100
4.1137886 1.7887255 -0.23509313 12
6.0480442 2.6285121 1.5224687 87
4.0897751 1.7774378 -0.077837728 14
5.9925408 2.6031466 1.7506521 70
3.1186469 1.3495591 -0.91052544 6
4.0999036 1.7741867 0.077977359 13
3.4198031 1.4791744 -0.8602128 6
4.1010261 1.7729731 0.23415108 13
3.771992 1.6299424 -0.7987265 4
4.1044474 1.7727545 0.39115497 12
4.0730267 1.7591835 -0.70270365 11
4.1152387 1.7765609 0.55036199 11
4.0736279 1.7577541 -0.544756 10
4.0902729 1.7640897 0.7055195 10
4.0636034 1.7517463 -0.38714582 10
6.0937095 2.6268885 1.2898688 51
4.0921841 1.7632201 -0.23352307 12
6.0656772 2.6122942 1.5247183 85
4.0720773 1.7528714 -0.077383965 15
6.0193372 2.5898466 1.7558285 93
3.1373088 1.3453013 -0.91466653 6
4.0693111 1.74411 0.077279255 14
3.4339025 1.471064 -0.86246234 6
4.0796499 1.7468536 0.23258102 12
3.7918143 1.6236061 -0.80177945 4
4.0736704 1.7434542 0.38766876 12
4.0428195 1.7294159 -0.6964463 11
4.0867352 1.7473561 0.54573095 11
4.0687857 1.7388438 -0.5432936 10
4.0764236 1.7412665 0.70207798 12
4.0437379 1.7273047 -0.38470542 10
4.0769882 1.7406641 0.8616935 9
4.0689216 1.7363831 -0.23184831 12
6.0837207 2.5949292 1.5269678 42
4.0616164 1.7315875 -0.077069834 15
6.0283408 2.5688207 1.7558285 97
3.1490979 1.3373629 -0.91673708 6
4.0477638 1.7181735 0.076755688 14
3.4282527 1.4545025 -0.85976297 6
4.0691733 1.7255853 0.23163895 13
3.8119185 1.616493 -0.8048324 1
4.0613871 1.7214472 0.38592559 12
4.0360994 1.7099003 -0.69425625 11
4.0507669 1.7152781 0.54012495 11
4.0528936 1.7153447 -0.54036868 10
4.0533686 1.7147115 0.69707209 12
4.0350637 1.7069681 -0.38331094 10
4.0504904 1.7126606 0.8548243 12
4.0492024 1.7112831 -0.23038292 12
4.0660172 1.717553 1.0190283 9
4.0418439 1.7065108 -0.076581158 14
6.0461702 2.5515161 1.7584167 46
3.1662128 1.3316041 -0.92036057 7
4.0463629 1.7009351 0.076616064 14
3.4369025 1.4440355 -0.86066276 6
4.042026 1.6974519 0.22975488 12
3.8483095 1.6161007 -0.81131989 1
4.0453258 1.6980075 0.38383389 12
4.0274715 1.6896864 -0.69175333 11
4.0402532 1.6942197 0.53793132 11
4.0185795 1.6843066 -0.53500646 10
4.0502186 1.6967366 0.69550771 14
4.0060816 1.6782465 -0.37999901 12
4.0383339 1.6909294 0.85100812 12
4.033042 1.6878862 -0.22912684 11
4.0468183 1.692822 1.0127296 13
4.0293264 1.6846787 -0.076232105 14
4.0479827 1.6916469 1.1755562 9
3.1708412 1.3205445 -0.92036057 7
4.0190454 1.6729666 0.075987779 14
3.452718 1.4365203 -0.86336219 6
4.0239515 1.6733634 0.22839414 11
3.8212969 1.5890894 -0.80445075 1
4.0291514 1.6746988 0.38174215 12
4.0078063 1.6650065 -0.6873731 10
4.0259757 1.6717334 0.53525019 10
4.0097671 1.6641802 -0.53305656 10
4.0086775 1.662908 0.6873731 14
4.0082355 1.6627247 -0.37965041 12
4.0278902 1.6700562 0.84757364 13
4.0204587 1.6661506 -0.22808012 11
4.0328989 1.6704813 1.0077807 13
3.9926872 1.6530111 -0.075429298 14
4.0306568 1.6679046 1.1688268 17
3.1629303 1.3043119 -0.91673708 7
4.0082211 1.65207 0.07567364 14
3.4667201 1.4281715 -0.86561167 6
4.0168414 1.653983 0.22766145 12
3.8340828 1.5787299 -0.80597723 1
4.0018082 1.6469761 0.37860456 12
3.9953246 1.6434925 -0.68424439 11
4.0189357 1.6523848 0.53354406 10
3.9935181 1.6411198 -0.5301317 11
4.0071483 1.6459035 0.68612164 14
3.973469 1.6320701 -0.37581557 11
4.0119014 1.6470377 0.84299421 13
4.004077 1.6430089 -0.22682405 11
4.0080538 1.6438236 1.0001323 13
3.9799306 1.6314781 -0.075080253 16
4.0042768 1.6406419 1.1595093 15
3.1674635 1.2932639 -0.91673708 6
3.9824882 1.6252247 0.075080253 14
3.4644668 1.4131167 -0.86381203 6
4.0003972 1.6309024 0.22640537 12
3.8468425 1.5683004 -0.80750376 1
3.9890814 1.6254795 0.37686142 12
3.9571304 1.6116527 -0.67673558 10
3.9971004 1.6271182 0.52988791 10
3.980835 1.6196895 -0.52769434 11
3.970783 1.6147897 0.67892563 12
3.9606864 1.6106838 -0.37407246 11
3.9867079 1.6204551 0.83650672 13
3.9857318 1.6192502 -0.22546332 12
3.9975178 1.6232233 0.9960832 13
3.968926 1.6108065 -0.074766114 14
3.9849169 1.6164888 1.1522624 15
3.1880786 1.2887148 -0.92139584 7
3.9621806 1.6008251 0.074591585 13
3.4766054 1.4039361 -0.86561167 6
3.98384 1.6079588 0.2251493 12
3.8741395 1.5636815 -0.81208313 1
3.9725592 1.6025993 0.37476969 12
3.9334185 1.5860133 -0.67172968 10
3.9640901 1.5975742 0.52476943 11
3.9570036 1.5939156 -0.52379447 11
3.9672329 1.5972314 0.67736137 13
3.9441051 1.58792 -0.3719807 11
3.9540915 1.5911387 0.82849264 13
3.9524474 1.5896757 -0.22326522 12
3.9706142 1.5961752 0.98798501 13
3.961535 1.5917244 -0.074521773 14
3.9726086 1.5953685 1.147086 16
3.1907644 1.2768599 -0.92087817 6
3.9528906 1.5810444 0.074312352 13
3.4724379 1.3881742 -0.86336219 6
3.9449162 1.5762558 0.22263718 13
3.8686361 1.545777 -0.80979347 1
3.9614761 1.5820731 0.37320086 13
3.935262 1.5708079 -0.67110395 11
3.9530494 1.5771059 0.5225758 11
3.9293525 1.5668592 -0.51940715 11
3.9507639 1.5745981 0.67360687 13
3.938519 1.5697178 -0.37093481 11
3.934088 1.567154 0.82315004 13
3.9375608 1.5677433 -0.22211383 12
3.9490008 1.5714998 0.98123646 13
3.9447706 1.5690168 -0.074102923 14
3.9584067 1.5736405 1.1413921 19
3.2131617 1.2728311 -0.92605454 6
3.9360745 1.5584021 0.073893487 13
3.4863229 1.379629 -0.86561167 6
3.9315503 1.5558171 0.22159046 13
3.8831356 1.5358765 -0.81170154 1
3.9447408 1.5594447 0.37110916 13
3.9150012 1.5468979 -0.66672373 11
3.928988 1.5516338 0.51867592 11
3.920027 1.5473021 -0.51745731 12
3.9302404 1.5513334 0.66922677 13
3.9272947 1.5493786 -0.36936605 12
3.9304016 1.5498139 0.82124197 13
3.9281442 1.5481294 -0.22127645 12
3.9308925 1.5484201 0.97538781 13
3.9034376 1.5376053 -0.073230296 16
3.9564121 1.5576771 1.1393216 20
3.2013988 1.2552598 -0.92139584 7
3.9281883 1.5402319 0.073649161 15
3.5090227 1.3751699 -0.87011069 6
3.9220793 1.5362575 0.2207531 13
3.8793328 1.518733 -0.80979347 9
3.9204736 1.5340482 0.36832017 13
3.9053931 1.5281473 -0.66422081 12
3.926717 1.5357031 0.51770103 11
3.9066477 1.5270681 -0.51501989 12
3.9098725 1.52754 0.66484654 13
3.899272 1.5226163 -0.36622843 12
3.9227185 1.5317719 0.81857067 15
3.9183714 1.5292864 -0.22043908 12
3.9196661 1.5290012 0.97133869 13
3.8920128 1.5174338 -0.07291615 17
3.9222255 1.5284246 1.1279335 22
3.207345 1.245335 -0.9219135 6
3.8925271 1.5105951 0.072881252 16
3.5210681 1.365734 -0.87191027 6
3.9087963 1.5153371 0.21970637 15
3.8770258 1.5030205 -0.80826694 9
3.9032454 1.5124017 0.36622843 13
3.8849139 1.504521 -0.6598407 13
3.9061365 1.5119539 0.51428866 11
3.8860352 1.5033937 -0.51160759 12
3.9041252 1.5096109 0.66296935 13
3.8634167 1.49387 -0.36239356 12
3.8932478 1.5046219 0.81131989 13
3.8976028 1.5055231 -0.21897365 12
3.908617 1.5089958 0.96728951 13
3.8842268 1.4987985 -0.072671816 17
3.9059076 1.5063813 1.1217217 22
3.2152786 1.2355182 -0.92294878 6
3.8791094 1.489828 0.072532199 16
3.5221758 1.3520371 -0.87101048 6
3.8991437 1.4959608 0.21886899 13
3.8730841 1.4859627 -0.80635887 15
3.8898976 1.4916347 0.36448529 13
3.8680077 1.4824666 -0.65608621 13
3.8817306 1.4869491 0.51038885 11
3.8764279 1.4841421 -0.50965762 12
3.8872323 1.4875009 0.65921491 14
3.8537219 1.4746777 -0.36099908 12
3.8783054 1.4833069 0.80712205 13
3.8804471 1.4833518 -0.2177176 12
3.9029384 1.4911689 0.96459007 15
3.861414 1.4745295 -0.072148249 16
3.8912883 1.4851615 1.1160278 22
3.2249889 1.2263479 -0.92450172 7
3.8581173 1.4663312 0.072043538 16
3.5122995 1.3341988 -0.86741126 6
3.8595285 1.4653281 0.21635687 13
3.8507152 1.461982 -0.80063456 15
3.8764532 1.4709777 0.36274219 13
3.8399122 1.4563473 -0.65045458 13
3.8646221 1.4649475 0.50746399 11
3.8593097 1.4621613 -0.50673276 13
3.8720796 1.4662288 0.6557734 14
3.8439393 1.4555731 -0.3596046 12
3.8742783 1.4662883 0.80521399 16
3.8594482 1.4599035 -0.21625218 12
3.8625491 1.460308 0.95334262 15
3.8459597 1.453269 -0.07176429 17
3.8801835 1.4654253 1.111369 23
3.2400987 1.2191643 -0.92760748 7
3.8519814 1.4486322 0.071834102 16
3.5370014 1.3294717 -0.87236023 6
3.8534024 1.4476316 0.21572883 13
3.8355794 1.4409359 -0.79643679 13
3.8629117 1.4504347 0.36099908 13
3.8357258 1.4394634 -0.64889026 15
3.8548439 1.4458704 0.50551409 11
3.8402257 1.439623 -0.50356412 13
3.8420284 1.4395341 0.64982885 14
3.824743 1.4330577 -0.35733855 12
3.8517947 1.4424268 0.79948968 15
3.8383331 1.436622 -0.21478678 13
3.8511965 1.4406703 0.94929349 15
3.8210409 1.4286294 -0.071205825 17
3.8599403 1.4424056 1.1041222 20
3.2354922 1.2039127 -0.92501926 7
3.834774 1.4261389 0.071415246 16
3.5601163 1.3232894 -0.87685925 6
3.8359661 1.4258223 0.21447276 16
3.8224311 1.4200321 -0.7926206 13
3.8345819 1.4237825 0.35786149 13
3.8131962 1.4150869 -0.64419717 15
3.8377824 1.4234489 0.50258923 11
3.8231411 1.4172573 -0.50063932 13
3.8248038 1.4178736 0.64607441 14
3.8075497 1.4107238 -0.35524681 12
3.8404863 1.4221628 0.7960552 16
3.836081 1.4197702 -0.2143681 13
3.8253796 1.4150525 0.94164515 15
3.8147509 1.4111209 -0.070996389 17
3.8377721 1.4188733 1.0963575 23
3.2469263 1.1952815 -0.92708987 6
3.8057032 1.4009824 0.07078696 16
3.5608277 1.3101296 -0.87595946 6
3.8296728 1.4082866 0.21384473 15
3.81078 1.4005841 -0.78918606 28
3.8170857 1.4021456 0.35576975 15
3.7974718 1.3949407 -0.64075565 15
3.8350279 1.407977 0.50161427 12
3.8091836 1.3977342 -0.49820194 13
3.8093293 1.3970331 0.6426329 14
3.7956152 1.3912522 -0.35367799 12
3.8156879 1.3986096 0.7899493 16
3.8145125 1.3974239 -0.21290269 13
3.8172417 1.3976681 0.93849587 15
3.8046303 1.3922975 -0.070717148 17
3.8136721 1.3948517 1.0880753 23
3.2599483 1.1878138 -0.92967808 7
3.7992964 1.3835828 0.070577532 16
3.5653789 1.2976928 -0.87595946 7
3.8195498 1.3894485 0.21300736 15
3.8227832 1.3906249 -0.79071248 26
3.8123515 1.3860767 0.35489815 15
3.7837522 1.3749291 -0.63762695 17
3.8082001 1.3830626 0.49747071 12
3.8028431 1.3803658 -0.49673948 13
3.7993269 1.3783371 0.64012986 14
3.7796061 1.3711828 -0.35176057 13
3.7873244 1.3732349 0.78308016 15
3.7893226 1.3732132 -0.21122794 13
3.8147688 1.3816794 0.93669617 16
3.7944255 1.3735622 -0.070437916 17
3.7930851 1.3723304 1.0808283 17
3.2713444 1.1790464 -0.93174857 7
3.781527 1.3621789 0.070158668 16
3.5625525 1.2825996 -0.87415981 6
3.7867911 1.362582 0.21091393 15
3.8386986 1.3812596 -0.79300219 26
3.7909195 1.3633202 0.35245782 15
3.7922456 1.363052 -0.63825274 26
3.7775092 1.3570087 0.49283966 13
3.7702725 1.3536662 -0.49186471 14
3.8003957 1.3637348 0.63950419 14
3.7787426 1.3559648 -0.35123762 13
3.7754626 1.3540422 0.77964556 15
3.7715316 1.3518895 -0.20997187 15
3.782876 1.3552129 0.92769814 15
3.7747219 1.3515464 -0.069984153 19
3.7905774 1.3564773 1.0787579 19
3.2718012 1.1663219 -0.93071336 7
