# .PCD v0.7 - Point Cloud Data file format
VERSION 0.7
FIELDS x y z intensity
SIZE 4 4 4 4
TYPE F F F F
COUNT 1 1 1 1
WIDTH 1293
HEIGHT 1
VIEWPOINT 0 0 0 1 0 0 0
POINTS 1293
DATA ascii
-0.69456643 -0.59489512 0.080008969 71
-0.62412286 -0.53456032 -0.13015349 100
-0.72680765 -0.62228984 0.11748206 12
-0.61682326 -0.52793485 -0.099689126 100
-0.625332 -0.53483963 -0.071990639 100
-0.62847209 -0.53733516 -0.043334179 96
-0.64006883 -0.54686385 -0.014694927 100
-0.64853907 -0.55234051 0.014869451 96
-0.55494863 -0.47246537 -0.16826339 10
-0.66923529 -0.56956393 0.046055648 63
-0.63092941 -0.53696305 -0.16104279 38
-0.69957036 -0.59517062 0.080357596 60
-0.63952804 -0.54389626 -0.1329693 100
-0.73804981 -0.62746376 0.1189445 7
-0.62168747 -0.5283497 -0.10017661 100
-0.63013899 -0.53534287 -0.072339267 100
-0.63643402 -0.54030865 -0.043752864 96
-0.63892424 -0.5420388 -0.014625117 100
-0.64740932 -0.54749084 0.014799641 85
-0.55957091 -0.47304153 -0.1691632 10
-0.68342334 -0.57753754 0.046893019 60
-0.63879806 -0.53982627 -0.16256927 41
-0.69251162 -0.58501059 0.079311721 63
-0.63840419 -0.53911155 -0.13234358 100
-2.55897 -2.160202 0.4111872 12
-0.63414764 -0.53513795 -0.10188278 95
-0.62438935 -0.52671665 -0.071467713 100
-0.63526207 -0.53550923 -0.043543518 93
-0.63775361 -0.53722858 -0.014555307 100
-0.6416595 -0.53879803 0.014625117 95
-0.56718904 -0.47609708 -0.17096281 15
-0.69767511 -0.58541894 0.047730397 52
-0.64669424 -0.54264092 -0.16409574 47
-0.6945495 -0.58258975 0.079311721 63
-0.63120019 -0.52926451 -0.13046636 95
-2.552803 -2.1397796 0.40899354 20
-0.64209807 -0.53802085 -0.10285773 90
-0.63233364 -0.52965134 -0.072164953 100
-0.64325374 -0.53841621 -0.043962207 89
-0.64729428 -0.54141414 -0.014729831 100
-0.64967972 -0.5416773 0.014764735 94
-0.56735057 -0.47286648 -0.1705129 10
-0.69050759 -0.57530916 0.047102366 52
-0.65914285 -0.54917705 -0.16676706 40
-0.69964057 -0.58271199 0.079660349 54
-0.63304383 -0.52705801 -0.13046636 95
-2.560257 -2.1308556 0.40899354 11
-0.64855003 -0.53958517 -0.10358895 69
-0.47233197 -0.3928344 0.097302251 7
-0.6372422 -0.52998883 -0.072513573 100
-0.63744926 -0.52978444 -0.043438848 87
-0.64918023 -0.53915131 -0.014729831 100
-0.65926838 -0.54578215 0.014939261 80
-0.55398464 -0.45845878 -0.16601388 10
-0.68635577 -0.56780308 0.046683677 62
-0.67618287 -0.55938733 -0.17058325 40
-0.71548903 -0.59169364 0.08122915 52
-0.64096981 -0.52987957 -0.13171785 87
-2.5646186 -2.1193771 0.4085061 3
-0.63512552 -0.52467513 -0.10115156 87
-0.47370037 -0.39118323 0.097302251 7
-0.64225334 -0.53018659 -0.0728622 100
-0.63621366 -0.5250138 -0.043229505 75
-0.6572293 -0.54197109 -0.014869451 97
-0.6642592 -0.54601693 0.015009069 93
-0.5585928 -0.45899671 -0.16691369 10
-0.694507 -0.57047468 0.047102366 60
-0.70098805 -0.57559311 -0.17630751 43
-0.70995259 -0.58274698 0.080357596 46
-0.66581386 -0.54632229 -0.13641086 57
-2.630316 -2.1582615 0.41776815 1
-0.64002281 -0.52497274 -0.10163904 85
-0.47506288 -0.38952741 0.097302251 7
-0.64255941 -0.52667832 -0.072687887 100
-0.65049458 -0.53280294 -0.04406688 63
-0.64364499 -0.52700502 -0.014520402 87
-0.67245358 -0.54863536 0.015148689 88
-0.56782228 -0.46310446 -0.1691632 5
-0.70732862 -0.57688302 0.047835067 59
-0.72125244 -0.58802974 -0.18088694 58
-0.7088936 -0.57774776 0.080008969 54
-0.68915743 -0.56146234 -0.14079103 49
-0.64656079 -0.52638346 -0.10237025 63
-0.49173868 -0.40033835 0.10043094 7
-0.64593917 -0.52568972 -0.0728622 100
-0.48733699 -0.39647189 0.12211777 3
-0.65699893 -0.53430969 -0.044380896 52
-0.65634215 -0.53358501 -0.014764735 77
-0.66960841 -0.54262543 0.015043975 94
-0.56632632 -0.45876577 -0.16826339 5
-0.7062335 -0.57189679 0.047625724 61
-0.73093039 -0.5916847 -0.18279503 66
-0.71710145 -0.58028281 0.080706216 46
-0.71404946 -0.57781315 -0.14548407 52
-0.65447712 -0.52922916 -0.10334522 61
-0.46240839 -0.37378323 0.094173566 8
-0.6446709 -0.52092731 -0.072513573 100
-0.46879771 -0.3788127 0.11715673 3
-0.66187453 -0.53463805 -0.044590238 57
-0.6644249 -0.53631473 -0.014904355 81
-0.67305642 -0.5415383 0.015078879 86
-0.56488723 -0.45434338 -0.16736358 5
-0.70978212 -0.57067961 0.047730397 52
-0.72064817 -0.5794161 -0.17974208 74
-0.72057462 -0.57914996 0.08088053 49
-0.74070072 -0.59511292 -0.15048997 66
-0.66406012 -0.53315532 -0.10456391 54
-0.65261024 -0.52377498 -0.073210821 92
-0.43949053 -0.35260242 0.10952436 20
-0.66217881 -0.53107464 -0.044485565 66
-0.66785324 -0.53524292 -0.014939261 75
-0.67650491 -0.54043388 0.015113784 86
-0.59692508 -0.47668973 -0.17636162 4
-0.70864803 -0.56570637 0.047521055 54
-0.72113204 -0.57567221 -0.17936046 73
-0.72726393 -0.58035916 0.081403457 47
-0.7489503 -0.59745133 -0.15174145 77
-0.6597082 -0.52588439 -0.10358895 41
-0.67001617 -0.53391039 -0.074953936 59
-0.4530035 -0.360852 0.11257731 24
-0.66715342 -0.53124821 -0.044694912 68
-0.67284697 -0.5353986 -0.015009069 71
-0.69092113 -0.54801017 0.015393022 78
-0.71061832 -0.56322944 0.047521055 54
-0.72313702 -0.57315165 -0.17936046 78
-0.72928524 -0.57781714 0.081403457 52
-0.74483722 -0.58992755 -0.15048997 86
-0.64597416 -0.51125902 -0.10115156 5
-0.67031336 -0.53033215 -0.074779622 55
-0.45580032 -0.36048627 0.11295893 28
-0.6831044 -0.54006445 -0.045636959 82
-0.66686648 -0.52684826 -0.014834546 71
-0.69125885 -0.5443579 0.015358118 78
-0.71885842 -0.56568575 0.04793974 52
-0.72359055 -0.56940961 -0.17897885 74
-0.72659987 -0.57157242 0.08088053 49
-0.72515279 -0.57022929 -0.1461098 44
-0.66902685 -0.52552754 -0.074431002 52
-0.44315881 -0.34798083 0.10952436 24
-0.68969864 -0.54137629 -0.045950972 71
-0.67499501 -0.52945411 -0.014974165 68
-0.68685323 -0.53701496 0.015218498 72
-0.73027182 -0.5705508 0.048567772 43
-0.73176205 -0.57171512 -0.18050532 65
-0.73016089 -0.57025903 0.081054844 44
-0.7754072 -0.60537875 -0.15580875 1
-0.66928613 -0.52196378 -0.074256696 48
-0.4412742 -0.34401765 0.10876114 20
-0.68528283 -0.53405464 -0.045532286 75
-0.6815722 -0.53078061 -0.015078879 54
-0.69978106 -0.54319739 0.015462833 58
-0.73225898 -0.56799817 0.048567772 40
-0.73220199 -0.567954 -0.1801237 43
-0.74631751 -0.57869482 0.082623646 36
-0.52410197 -0.40609577 0.081408732 3
-0.48575398 -0.37611091 0.097302251 7
-0.67740548 -0.52450335 -0.074953936 38
-0.43936726 -0.34007186 0.1079979 17
-0.677665 -0.52432609 -0.044904254 57
-0.68658477 -0.53084451 -0.015148689 33
-0.70167297 -0.54075134 0.015462833 58
-0.72632504 -0.55934572 0.048044413 17
-0.72173619 -0.55581188 -0.17707075 12
-0.74675435 -0.57487053 0.082449332 18
-0.75690806 -0.58205622 -0.11723832 4
-0.44947693 -0.34551936 0.089793392 8
-0.68870991 -0.52942121 -0.075999804 28
-0.43432471 -0.33375123 0.10647143 25
-0.68265891 -0.52439076 -0.045113601 28
-0.70112354 -0.53818572 -0.015427927 19
-0.70990908 -0.54315913 0.015602452 10
-0.73779303 -0.56408554 0.048672445 1
-0.77825922 -0.59502429 -0.19042738 1
-0.75033951 -0.57347029 0.082623646 2
-0.7684021 -0.58663809 -0.11870075 1
-0.46324277 -0.35353583 0.092296347 8
-0.63511926 -0.48470789 -0.069898903 11
-0.4448525 -0.33937779 0.10876114 20
-0.66542768 -0.50747079 -0.043857537 5
-0.63778782 -0.48604003 -0.01399683 4
-0.45187807 -0.3423731 0.089793392 8
-0.53199619 -0.40307593 -0.058394346 8
-0.44759947 -0.33900824 0.10914275 12
-0.59872377 -0.45330441 -0.039356641 4
-0.46885699 -0.35266793 0.092922084 8
-0.58116722 -0.43714616 -0.063623689 7
-0.43151924 -0.32446525 0.10494495 26
-0.56837153 -0.42721105 -0.037263203 4
-0.49224401 -0.36757609 0.097302251 7
-0.46455517 -0.34689987 -0.05072464 10
-0.43894231 -0.32765451 0.10647143 21
-0.47701713 -0.35594618 -0.031192232 5
-0.56819922 -0.42121318 -0.061880577 7
-0.44797018 -0.33196476 0.10837951 12
-0.48943138 -0.36018109 -0.053165 9
-0.45070767 -0.33156243 0.10876114 8
-0.49068558 -0.35847059 -0.053165 9
-0.44552037 -0.32535571 0.10723466 8
-0.57428092 -0.41923362 -0.037263203 4
-0.49732825 -0.36066741 0.097302251 7
-0.50806302 -0.3684524 -0.054908119 9
-0.44824287 -0.32495087 0.10761628 12
-0.51428527 -0.37269115 -0.03328567 5
-0.60457748 -0.43651655 -0.1998083 5
-0.47934619 -0.34507984 0.093547821 8
-0.48024055 -0.34572369 -0.051770512 9
-0.43821967 -0.31535706 0.10494495 26
-0.55585116 -0.39839077 -0.18324389 7
-0.47406 -0.33889323 0.092296347 8
-0.49441251 -0.35331252 -0.053165 9
-0.46967068 -0.33550793 0.11219569 4
-0.4558517 -0.32359794 0.088541918 8
-0.54107744 -0.38395557 -0.058045723 8
-0.49640143 -0.35212263 0.11830158 3
-0.75455493 -0.53306925 0.016126024 2
-0.79787588 -0.5632568 0.051184569 1
-0.47958529 -0.33793417 0.092922084 8
-0.59453833 -0.41877946 -0.063623689 7
-0.48151588 -0.33916897 0.11448541 4
-0.74467266 -0.52433628 -0.047730397 2
-0.69833624 -0.49134552 -0.014904355 3
-0.77605808 -0.54420978 0.016544882 4
-0.8096512 -0.5673452 0.051812604 1
-0.79210061 -0.55422264 -0.11870075 1
-0.73968887 -0.51716661 -0.078963101 6
-0.79243267 -0.55363166 -0.05066121 2
-0.75742799 -0.52897906 -0.016126024 4
-0.75670874 -0.52651405 0.016091119 17
-0.63032824 -0.43841615 -0.17726143 4
-2.7972419 -1.9455832 0.1785703 2
-0.7566216 -0.52527845 -0.11309476 5
-0.75622106 -0.52480507 -0.080531903 20
-0.76974177 -0.53378999 -0.04909113 12
-0.76913071 -0.53316718 -0.016335452 13
-0.77490288 -0.53536844 0.016440166 28
-0.63338214 -0.43743089 -0.17771132 9
-0.80975014 -0.55860943 -0.15580875 1
-0.76980007 -0.530653 -0.11480093 22
-0.7760973 -0.53459442 -0.082449332 38
-0.77315271 -0.53236711 -0.049195804 19
-0.78416628 -0.53954738 -0.01661469 19
-0.67226458 -0.46117127 -0.21844329 4
-0.78831106 -0.54057676 0.016684501 20
-0.63490522 -0.43521726 -0.17771132 18
-0.78870648 -0.540443 -0.18584797 1
-0.79865581 -0.54685128 -0.15330578 1
-0.75854123 -0.51899511 -0.11285102 46
-0.77960342 -0.53300655 -0.082623646 47
-0.77830422 -0.53191894 -0.04940515 27
-0.79265028 -0.54131776 -0.016754311 28
-0.64200938 -0.43696478 -0.20809051 5
-0.78688705 -0.53557152 0.01661469 10
-0.63480949 -0.43190205 -0.17726143 13
-0.75171608 -0.51105767 -0.17668915 1
-0.794119 -0.53948003 -0.15205432 1
-0.77512813 -0.52638125 -0.11504468 42
-0.78145927 -0.53028196 -0.082623646 54
-0.7951262 -0.53915083 -0.050347198 27
-0.7978456 -0.54079151 -0.016824121 33
-0.62272018 -0.42066297 -0.20136122 28
-0.65254009 -0.44047543 -0.18176045 21
-0.77627933 -0.52380425 -0.1820318 1
-0.75832647 -0.51130527 -0.14485833 5
-0.78034496 -0.52575493 -0.11553215 33
-0.78495795 -0.52866405 -0.082797952 60
-0.79368943 -0.53414178 -0.050137851 37
-0.80811918 -0.54344308 -0.016998643 30
-0.64504445 -0.4324719 -0.20809051 31
-0.64597869 -0.43277177 -0.17951094 17
-0.75200325 -0.50361222 -0.17592591 1
-0.76503181 -0.51195091 -0.14579694 7
-0.79207623 -0.52964854 -0.11699458 25
-0.79342419 -0.53034955 -0.0834952 57
-0.79554892 -0.5313682 -0.050137851 37
-0.80169499 -0.53506845 -0.016824121 12
-0.65780842 -0.43770912 -0.21171398 34
-0.64261705 -0.42727742 -0.17816123 13
-0.773377 -0.51402509 -0.18050532 1
-0.77504188 -0.51474148 -0.14736128 10
-0.78068823 -0.51809913 -0.11504468 20
-0.79028994 -0.52427232 -0.082972266 51
-0.80405778 -0.53300202 -0.050556537 26
-0.64643586 -0.42689371 -0.20757288 36
-0.65223736 -0.43039805 -0.18041074 8
-0.74239004 -0.48970196 -0.17287296 2
-0.78672987 -0.51855582 -0.1492385 14
-0.7974124 -0.5251978 -0.11723832 12
-0.79377919 -0.52260631 -0.08314658 38
-0.81926203 -0.53897351 -0.051393915 13
-0.65438503 -0.42887053 -0.20964344 41
-0.65862656 -0.43132153 -0.18176045 8
-0.75559306 -0.49463463 -0.17554428 3
-0.79845387 -0.52229458 -0.1511157 15
-0.80256402 -0.52458328 -0.11772579 4
-0.79226273 -0.51765269 -0.082797952 22
-0.83284491 -0.54375374 -0.052126616 1
-0.65101969 -0.42342377 -0.20809051 31
-0.66666406 -0.43326759 -0.18356006 8
-0.7523759 -0.48878556 -0.17439944 6
-0.79695839 -0.51735312 -0.15048997 16
-0.81105196 -0.52609974 -0.11870075 3
-0.78236294 -0.50729626 -0.08157777 18
-0.67684066 -0.43686306 -0.21585509 18
-0.6550709 -0.42248821 -0.17996083 8
-0.763978 -0.49253893 -0.17668915 9
-0.80208057 -0.51670778 -0.1511157 15
-0.80286849 -0.51681864 -0.11723832 4
-0.79250628 -0.50995302 -0.082449332 7
-0.68812209 -0.44074947 -0.21896091 13
-0.67288005 -0.43082145 -0.18445987 8
-0.76403892 -0.48881108 -0.17630751 11
-0.81211042 -0.5193665 -0.15268005 11
-0.81126881 -0.51842904 -0.11821327 5
-0.76405525 -0.48788247 -0.079311721 3
-0.70588207 -0.44883078 -0.22413731 11
-0.69082808 -0.43892047 -0.18895888 3
-0.75902665 -0.48206457 -0.17478105 16
-0.8205899 -0.52076232 -0.15393153 10
-0.8130734 -0.51559418 -0.11821327 5
-0.68947232 -0.43502468 -0.21844329 13
-0.70884073 -0.44689918 -0.1934579 3
-0.76568741 -0.48255256 -0.17592591 16
-0.82073134 -0.51684195 -0.15361866 9
-0.81486821 -0.51275289 -0.11821327 7
-0.7188226 -0.45004293 -0.22724313 10
-0.70378804 -0.44028816 -0.1916583 3
-0.76570261 -0.47883588 -0.17554428 18
-0.80577815 -0.50350618 -0.15048997 12
-0.83180761 -0.51936728 -0.12040692 4
-0.72046733 -0.44740531 -0.22724313 7
-0.71194333 -0.4419398 -0.1934579 3
-0.77913111 -0.48327005 -0.17821561 19
-0.81433433 -0.50471199 -0.15174145 14
-0.84205276 -0.5216881 -0.12162561 2
-0.73024815 -0.44995472 -0.22983132 3
-0.73015261 -0.44954455 -0.19795693 3
-0.78750116 -0.48466349 -0.17974208 19
-0.82113916 -0.50497067 -0.15268005 19
-0.82704616 -0.50820547 -0.11918823 3
-0.72851795 -0.4453876 -0.22879605 3
-0.7583254 -0.46324721 -0.20515537 2
-0.77745926 -0.47474945 -0.17707075 21
-0.8347007 -0.50930357 -0.15487014 17
-0.83898455 -0.51151592 -0.12065066 1
-0.74660558 -0.45251662 -0.20155615 2
-0.78582817 -0.47610211 -0.17859723 21
-0.82802421 -0.50127172 -0.15330578 18
-0.83736807 -0.50652903 -0.12016319 1
-0.75152057 -0.45191643 -0.20245595 2
-0.79421592 -0.47740194 -0.1801237 19
-0.82807541 -0.49736145 -0.15299292 13
-0.85274786 -0.51177508 -0.1221131 1
-0.77317601 -0.46127144 -0.20785476 2
-0.80262238 -0.47864869 -0.18165016 16
-0.82641256 -0.4924455 -0.15236719 9
-0.76471937 -0.45261428 -0.20515537 2
-0.80935723 -0.47884336 -0.18279503 16
-0.82642621 -0.48855233 -0.15205432 10
-0.8066259 -0.47362328 -0.21595301 1
-0.802558 -0.47104642 -0.18088694 16
-0.85879791 -0.5036521 -0.15768595 3
-0.80759054 -0.47021773 -0.18165016 12
-0.81092703 -0.46837795 -0.1820318 6
-0.85003352 -0.48701584 -0.19042738 1
-7.2326765 -4.0355825 -0.72461283 2
-7.2674661 -4.0516677 -0.43606326 1
-7.2536917 -4.0141716 -0.72531009 2
-3.4358878 -1.8982772 -0.068518147 1
-3.1910603 -1.755025 -0.70790142 1
-3.216573 -1.7675954 -0.58131051 1
-3.1951616 -1.7442298 -0.84041709 1
-3.1658413 -1.7275069 -0.70103228 1
-3.1599805 -1.7228776 -0.57004726 1
-3.2009282 -1.7336246 -0.84041709 1
-3.1680994 -1.7151294 -0.70026904 1
-3.2282255 -1.7462233 -0.58131051 1
-14.337796 -7.5498714 -1.4176753 3
-3.2746074 -1.6555585 -0.71324408 1
-3.2689602 -1.651271 -0.58005905 1
-3.2457573 -1.6296076 -0.97315967 1
-3.2712221 -1.6409634 -0.84491616 1
-3.2572646 -1.6332505 -0.70828301 1
-3.2708859 -1.638652 -0.57943332 1
-3.2615192 -1.6240016 -0.97626543 1
-3.3638833 -1.6735065 -0.86741126 1
-3.3030944 -1.6425455 -0.71706021 1
-6.4137006 -3.0413358 -0.372004 1
-6.3592043 -2.9883475 -0.36823583 1
-3.4347332 -1.6045637 -0.73690438 1
-3.4222162 -1.5979878 -0.59820545 1
-6.3690786 -2.9672446 -0.36823583 1
-3.3665872 -1.5598618 -0.85661358 1
-3.4079688 -1.5783139 -0.73003525 1
-3.3990891 -1.57276 -0.59319955 1
-3.4335325 -1.5777973 -1.0125002 1
-3.3932641 -1.5578576 -0.86201245 1
-3.3956139 -1.55822 -0.72621906 1
-3.4045584 -1.5608852 -0.59319955 1
-3.7215409 -1.6313188 0.070926577 7
-3.7395296 -1.6376483 0.21394941 2
-3.8110051 -1.6681569 0.36396238 1
-3.6971467 -1.6152442 -0.35298076 2
-3.7305441 -1.6282847 -0.21332137 50
-3.7283323 -1.6257691 -0.070996389 22
-3.7345498 -1.6215038 0.071066193 1
-3.8240118 -1.6587613 0.21845031 1
-3.9082034 -1.6944712 0.37267792 1
-3.7034957 -1.6034135 -0.49552077 22
-3.7173903 -1.6086588 -0.35437521 63
-3.714206 -1.6057419 -0.21206531 12
-3.7229695 -1.6079885 -0.07078696 3
-3.7399063 -1.6091106 0.071066193 3
-3.6305597 -1.5613129 -0.9124015 1
-3.7560942 -1.6145229 0.21426344 1
-3.5298123 -1.5172578 -0.74682647 1
-3.8222718 -1.6421775 0.36396238 1
-3.5212841 -1.5121351 -0.60696578 1
-3.7014954 -1.5879928 -0.49454582 2
-3.730526 -1.5981351 -0.21269335 2
-3.7135739 -1.589339 -0.07050772 3
-3.7087073 -1.5803677 0.070368104 1
-3.471041 -1.4783777 -0.87101048 1
-3.7617075 -1.601401 0.21426344 1
-3.489928 -1.4857013 -0.73728597 1
-3.7363145 -1.5898207 0.35524681 1
-3.5119982 -1.4936502 -0.6044628 1
-3.7252862 -1.5828251 -0.4969832 2
-3.70258 -1.5724156 -0.35193488 2
-3.6919549 -1.5663817 -0.21018122 2
-3.6970055 -1.5670019 -0.070088863 3
-3.5950439 -1.5178663 -1.0456289 1
-3.6957777 -1.5596381 0.070019051 1
-3.4618161 -1.4601934 -0.86741126 1
-3.5131836 -1.4811372 -0.74110222 1
-3.7418411 -1.5767697 0.35524681 1
-3.5426781 -1.4921156 -0.60884303 1
-3.7177074 -1.5650712 0.49527705 1
-3.7198098 -1.5651932 -0.49552077 1
-3.7080464 -1.5594807 -0.35193488 1
-3.6826687 -1.5472962 -0.20934384 1
-3.6747954 -1.5424782 -0.069565296 1
-3.6003201 -1.5053087 -1.0456289 1
-3.6827486 -1.5390174 0.069670007 1
-3.6395178 -1.5202042 -0.91060191 1
-3.7064443 -1.5474002 0.21049525 1
-3.6687033 -1.5316439 -0.77277648 1
-3.7142253 -1.5498877 0.35210916 1
-3.6681933 -1.5299267 -0.62949234 1
-3.7231476 -1.5520853 0.49527705 1
-3.6922681 -1.538456 -0.49113351 1
-3.6803608 -1.5327399 -0.34879729 1
-3.6769836 -1.5298277 -0.20871581 1
-3.6690774 -1.5250372 -0.069355868 3
-3.6055527 -1.4927319 -1.0456289 1
-3.677012 -1.5215651 0.069460578 1
-3.6303952 -1.5015329 -0.90700263 1
-3.6416841 -1.5054576 0.2065177 1
-3.6468122 -1.5075777 -0.76705217 1
-3.6422746 -1.5049566 0.3447881 1
-3.673511 -1.5171138 -0.62949234 1
-3.6734955 -1.5163568 0.4879649 1
-3.6645851 -1.5119295 -0.48674619 1
-3.6688261 -1.5129309 0.62855375 1
-3.6451657 -1.5031739 -0.34496242 2
-3.8081191 -1.5695944 0.80063456 1
-3.6564479 -1.5063324 -0.20725042 1
-3.6521883 -1.5030875 -0.068937011 3
-3.6107414 -1.480137 -1.0456289 1
-3.6674976 -1.5026553 0.069181338 1
-3.628401 -1.4858971 -0.90520304 1
-3.6358266 -1.4881971 0.20588967 1
-3.6302493 -1.4859143 -0.76247281 1
-3.6382852 -1.4884622 0.34391654 2
-3.6495297 -1.4923189 -0.62448645 1
-3.6291525 -1.4832474 0.48138395 2
-3.6294112 -1.482614 -0.48138395 1
-3.6228781 -1.4792074 0.61979342 1
-3.6208777 -1.4783907 -0.34217343 1
-3.6826997 -1.5028815 0.77315807 1
-3.6431901 -1.4860173 -0.2062037 1
-3.6185241 -1.4744824 -0.068204008 3
-3.615886 -1.4675241 -1.0456289 1
-3.6245415 -1.4703003 0.068273813 1
-3.6046705 -1.461507 -0.89800459 1
-3.6521053 -1.4799973 0.2065177 1
-3.6026626 -1.4599608 -0.75560367 1
-3.6323788 -1.4712652 0.34287068 4
-3.6180964 -1.4647453 -0.61822909 1
-3.6416686 -1.4735484 0.4823589 2
-3.6235228 -1.4654702 -0.47992152 1
-3.6371768 -1.4702538 0.62135774 3
-3.6075444 -1.4582756 -0.34043032 1
-3.6715412 -1.4833984 0.76972359 1
-3.6261315 -1.4643166 -0.20494762 1
-3.6032498 -1.4536128 -0.06782005 4
-3.6209867 -1.4548932 -1.0456289 1
-3.6222293 -1.4546583 0.068134196 2
-3.588048 -1.4402052 -0.89260578 1
-3.655396 -1.4664963 0.20641303 2
-3.6040928 -1.4459141 -0.75484043 1
-3.646739 -1.4622844 0.34374225 4
-3.5865152 -1.4374093 -0.61197168 1
-3.652318 -1.4630421 0.48309013 3
-3.58623 -1.4358423 -0.47431552 2
-3.6679628 -1.4678223 0.62573791 3
-3.6015148 -1.4412316 -0.33938447 3
-3.6694045 -1.4676576 0.768197 3
-3.621948 -1.447943 -0.20442426 6
-3.6268723 -1.4484435 -0.068169102 4
-3.6260431 -1.4422446 -1.0456289 1
-3.6681659 -1.4582584 0.068902098 2
-3.5495894 -1.4104007 -0.8818081 2
-3.6493554 -1.4493045 0.20578501 2
-3.585398 -1.4239044 -0.74987942 3
-3.6703391 -1.4568975 0.34548536 4
-3.6025279 -1.4292519 -0.61384892 3
-3.6721656 -1.4561379 0.48504004 3
-3.5856836 -1.4211218 -0.47358429 2
-3.6693909 -1.4535558 0.62511224 3
-3.6250467 -1.4359897 -0.34112757 2
-3.6945851 -1.4627899 0.7723949 3
-3.6474092 -1.4433745 -0.20557566 2
-3.6281869 -1.4343041 -0.06809929 4
-3.5843189 -1.4111789 -1.0321704 1
-3.6620691 -1.4410517 0.068692669 2
-3.554491 -1.3980017 -0.8818081 1
-3.6711209 -1.4431341 0.20672706 2
-3.5757289 -1.4056351 -0.74682647 1
-3.6809659 -1.4462615 0.3460083 4
-3.629559 -1.4253325 -0.61760336 1
-3.6735299 -1.4418609 0.48455253 3
-3.6146467 -1.4180202 -0.47675291 3
-3.6965108 -1.4493912 0.62886661 3
-3.6189079 -1.4189633 -0.34008169 2
-3.7800956 -1.4814044 0.78918606 1
-3.6728814 -1.4386473 -0.20672706 2
-3.6462069 -1.4267312 -0.068343624 4
-3.636023 -1.4168959 -1.0456289 1
-3.6633506 -1.4268074 0.068622865 2
-3.5738771 -1.3912419 -0.88540733 1
-3.6758864 -1.4309522 0.20672706 1
-3.5915918 -1.397416 -0.74911612 1
-3.7101319 -1.4427911 0.34827435 1
-3.5829587 -1.3926175 -0.60884303 1
-3.6380794 -1.4125792 -0.47919029 3
-3.6275537 -1.4077638 -0.34043032 2
-3.6648452 -1.4207641 -0.20599434 2
-3.6434596 -1.4117421 -0.068204008 3
-3.6409473 -1.4041941 -1.0456289 1
-3.5530143 -1.36957 -0.87910873 1
-3.5946159 -1.3841641 -0.74873453 1
-3.6281154 -1.3963376 -0.61572611 2
-3.6723897 -1.4119047 -0.48309013 2
-3.6733642 -1.4108089 -0.34426519 1
-3.6455836 -1.3921133 -1.0456289 1
-3.5905473 -1.3696613 -0.88720697 2
-3.632206 -1.3848264 -0.75560367 1
-3.6846557 -1.4033507 -0.62448645 1
-3.827579 -1.4562542 -0.50283301 2
-3.6504207 -1.3793793 -1.0456289 1
-3.8642209 -1.4547755 -0.50697654 2
-3.8748567 -1.4433568 -0.50770777 2
-3.8870718 -1.4332461 -0.50868267 2
-3.9051054 -1.4244305 -0.51038885 2
-3.7081189 -1.3401257 -0.62448645 1
-3.9266114 -1.4175391 -0.51258254 2
-3.6840405 -1.3190771 -0.90340346 1
-3.7061658 -1.3262694 -0.76514411 1
-3.6718521 -1.3125446 -0.61760336 1
-3.9315355 -1.4038249 -0.51258254 2
-3.6782804 -1.3032705 -1.0456289 1
-3.6739268 -1.3010052 -0.89980417 1
-3.677686 -1.3008931 -0.75827497 1
-3.7176137 -1.3135567 -0.62448645 1
-3.9382839 -1.3907527 -0.51282626 2
-3.6828074 -1.2904218 -1.0456289 1
-3.7301717 -1.3055573 -0.9124015 1
-3.9545999 -1.3802346 -0.51428866 2
-3.9762824 -1.3722502 -0.51648235 2
-3.954746 -1.3493865 -0.51306999 2
-4.000813 -1.3495328 -0.5184322 2
-4.0054998 -1.3355591 -0.5184322 2
-6.1664639 -2.0525055 -0.34060243 1
-6.165215 -2.0496998 -0.11340573 2
-4.034647 -1.3296465 -0.52160084 2
-6.0915971 -2.0063519 -0.56110865 9
-6.1735907 -2.030968 -0.34060243 1
-3.8752499 -1.2658782 -0.94119519 1
-3.7904899 -1.2374586 -0.7750662 1
-3.7711341 -1.2296832 -0.62824088 1
-4.0524759 -1.3198589 -0.52330703 2
-3.76103 -1.2155051 -1.0590875 1
-3.7941232 -1.2254689 -0.92049968 1
-3.8059967 -1.2278372 -0.77735591 1
-3.7977514 -1.2244453 -0.63199526 1
-4.0549412 -1.3058045 -0.5230633 2
-3.753999 -1.1994983 -1.0559818 1
-3.824369 -1.2205113 -0.9267984 1
-6.0919609 -1.943022 -1.2429299 2
-4.0764995 -1.2970591 -0.52525693 1
-6.1852427 -1.9502001 -1.4972742 1
-4.1150894 -1.2935354 -0.52964419 1
-4.1878281 -1.3003558 -0.53841883 1
-4.1720467 -1.2787087 0.69112754 1
-4.1527352 -1.2727897 -0.37999901 13
-4.2383776 -1.2844864 0.5437811 1
-4.2218614 -1.2778711 0.69863641 1
-4.2314248 -1.2662691 0.54231864 1
-4.2225108 -1.2619958 0.69801068 1
-3.9051456 -1.1567566 -0.94029546 1
-3.8647814 -1.1440676 -0.78346181 1
-4.2358189 -1.2514918 0.54231864 1
-4.2115159 -1.2435112 0.69550771 1
-3.8748851 -1.1345648 -1.0818636 1
-3.8752942 -1.1339493 -0.93219715 1
-3.8838267 -1.1349753 -0.7865147 1
-4.2419281 -1.2388191 0.38662288 1
-4.23804 -1.2368821 0.54207492 2
-4.2385883 -1.2354358 0.69926214 1
-3.8563564 -1.1152682 -1.075652 1
-3.9840727 -1.1506974 -0.95739168 1
-4.2153831 -1.2159103 0.38383389 1
-4.2327943 -1.2193335 0.54085618 1
-4.2314849 -1.2173558 0.69738495 1
-4.2196016 -1.2011884 0.38383389 1
-4.2752128 -1.2154073 0.54573095 1
-4.2927165 -1.2187641 0.70677096 1
-4.2550344 -1.1960355 0.23163895 1
-4.3004947 -1.2080051 0.39080635 2
-4.3138342 -1.2101266 0.55011827 1
-4.3920517 -1.2304161 0.72241443 1
-4.2707314 -1.1843789 0.23226699 1
-4.3066049 -1.1935182 0.39098063 2
-4.3295102 -1.1982388 0.55158067 1
-4.0072975 -1.0670083 -0.95739168 1
-4.0244493 -1.0580477 -1.1149925 1
-4.0109973 -1.0530145 -0.95739168 1
-4.0243788 -1.0430229 -1.1139573 1
-4.1290145 -0.9920519 -0.82543975 1
-4.1414118 -0.99350065 -0.67454553 1
-4.1677461 -0.99904996 -0.52623188 1
-4.5787621 -1.0950387 0.91511995 1
-4.1171684 -0.97401601 -0.82238686 1
-4.1486993 -0.97994745 -0.6751712 1
-4.198256 -0.99087852 -0.52964419 1
-4.5290489 -1.0664496 0.90443468 1
-4.1744499 -0.97065681 -0.52623188 1
-4.5402107 -1.0531993 0.90596116 1
-4.2281246 -0.9675929 -0.53256911 1
-4.524538 -1.0337656 0.90214497 1
-4.1811247 -0.94149095 -0.52623188 1
-4.5587668 -1.0248542 0.90825087 1
-4.5778284 -1.0115284 0.91130376 1
-4.6198764 -1.003073 0.91893619 1
-4.2450147 -0.91160351 -1.0023819 1
-4.2288022 -0.90734893 -0.84070444 1
-4.2417116 -0.90856904 -0.68706024 1
-4.6348691 -0.98940063 0.92122585 1
-4.1957684 -0.88801175 -1.1491566 1
-4.2022543 -0.88785321 -0.99158418 1
-4.2317882 -0.8933205 -0.84070444 1
-4.2447009 -0.8944999 -0.68706024 1
-4.5958552 -0.96514845 0.91283029 1
-4.2176032 -0.87803143 -1.154333 1
-4.2509675 -0.88342935 -1.0023819 1
-4.6105666 -0.95228523 0.91511995 1
-4.6958117 -0.95537347 0.58838522 1
-4.6828399 -0.95103359 0.75683004 3
-4.6215591 -0.93774712 0.91664648 1
-4.6941319 -0.9405371 0.2508986 1
-4.6965261 -0.94016427 0.41904479 1
-4.7341576 -0.94597769 0.59277254 1
-4.6938801 -0.93622583 0.7580815 3
-4.6325059 -0.9231438 0.91817296 1
-4.7466321 -0.94244272 1.2966834 3
-4.7953711 -0.94342273 0.25613219 1
-4.6686597 -0.91680038 0.4162558 1
-4.6673036 -0.91568929 0.58399796 2
-4.6893659 -0.91831684 0.75683004 3
-4.6358585 -0.90615851 0.91817296 1
-4.7385159 -0.92364925 1.2935777 3
-4.6848955 -0.90471339 0.25006124 1
-4.6953082 -0.90502429 0.41834757 1
-4.6569834 -0.89595032 0.58229178 2
-4.6944818 -0.90231609 0.7571429 3
-4.6351366 -0.88923085 0.91740966 1
-4.7227368 -0.90347302 1.2884012 3
-4.3614678 -0.82726216 -1.024877 1
-4.6566277 -0.88240588 0.24838647 1
-4.3074379 -0.81545651 -0.852153 1
-4.6671157 -0.88270473 0.41555858 1
-4.6677313 -0.88197631 0.58326674 2
-4.6917796 -0.88482541 0.75620425 3
-4.6727881 -0.88039809 0.92427886 1
-4.6992798 -0.88199413 1.2811544 3
-4.2768474 -0.79730028 -1.1657211 1
-4.6906176 -0.87358928 0.083282888 1
-4.3490024 -0.80918205 -1.0212778 1
-4.6791639 -0.87061238 0.24943319 1
-4.3216996 -0.80332065 -0.85444272 1
-4.6700172 -0.86722302 0.41555858 1
-4.6668773 -0.86495489 0.58277923 2
-4.6791492 -0.86638474 0.75370133 1
-4.6835542 -0.86550963 0.92580527 1
-4.6907797 -0.86430538 1.2780485 3
-4.2568002 -0.77819741 -1.1595093 1
-4.6934886 -0.85802966 0.083282888 1
-4.6900339 -0.85570639 0.24985188 1
-4.6682725 -0.85089415 -0.92237073 1
-4.6534147 -0.84734696 0.41381544 1
-4.6583786 -0.84825081 -0.74994689 2
-4.6521435 -0.84627664 0.5805856 2
-4.635499 -0.84157747 0.74619251 1
-4.6748085 -0.84787142 0.92351556 1
-4.7207088 -0.8536436 -0.083736651 1
-4.6405377 -0.83831006 1.2635547 1
-4.6964555 -0.84164095 0.083282888 1
-4.596108 -0.82283121 -1.0779655 4
-4.6693993 -0.83511031 0.2485958 1
-4.6227541 -0.82676786 -0.91283029 3
-4.6307015 -0.82735521 0.41154939 2
-4.6550689 -0.83003235 0.5805856 1
-4.6539664 -0.82815981 0.74869543 1
-4.6371479 -0.82433206 0.91550165 1
-4.72366 -0.83715999 -0.083736651 1
-4.6320224 -0.82008559 1.2604488 3
-4.6197023 -0.81208384 -1.2568253 1
-4.6520948 -0.81694233 0.082445174 1
-4.6219859 -0.81082225 -1.0833644 1
-4.6545811 -0.81570303 0.24765378 3
-4.6507511 -0.81503189 -0.91779137 1
-4.6355238 -0.81153059 0.41172373 2
-4.6286058 -0.80865335 0.57692951 2
-4.6412616 -0.8091951 0.74619251 1
-4.6283922 -0.80611902 0.91321188 1
-4.6713872 -0.81108761 -0.082759313 1
-4.6120152 -0.79994994 1.2542372 1
-4.614893 -0.79464275 -1.2547548 1
-4.6588597 -0.80137628 0.082514979 1
-4.5825348 -0.78742296 -1.0734664 1
-4.6436205 -0.7970863 0.24692108 1
-4.6380877 -0.79613656 -0.91473836 1
-4.618691 -0.79197729 0.4099806 2
-4.6255298 -0.79148805 0.57619828 2
-4.6362681 -0.79165888 0.744941 1
-4.6040835 -0.78533745 0.90786928 1
-4.6347466 -0.78973424 -0.2463977 1
-4.6702471 -0.79410714 -0.082689509 1
-4.6338258 -0.78708094 1.2594135 3
-4.5872951 -0.77258849 -1.2464726 1
-4.6340222 -0.78045821 0.08202631 1
-4.569881 -0.76883662 -1.0698671 1
-4.6069818 -0.7742517 0.24482764 1
-4.6274576 -0.77603209 0.41050354 2
-4.6106443 -0.7723853 0.57400465 2
-4.5980887 -0.76863205 0.73837078 3
-4.5895028 -0.765549 0.90443468 1
-4.6376095 -0.77274275 -0.2463977 1
-4.5981288 -0.7653383 1.0761659 10
-4.6138139 -0.76794904 -0.081642359 1
-4.6384501 -0.77121776 1.2599311 12
-4.4603462 -0.73520702 -1.2112732 1
-4.6013346 -0.75762153 0.081398018 1
-4.4765234 -0.73626757 -1.0473721 1
-4.6097884 -0.75736099 0.24482764 1
-4.5468016 -0.74701262 -0.89565748 1
-4.5888505 -0.75309843 0.40684301 2
-4.5958133 -0.75259393 0.57181102 2
-4.5911269 -0.75018001 0.73680639 3
-4.6018348 -0.7511062 0.90634274 12
-4.6402788 -0.7565496 -0.2463977 1
-4.6257758 -0.75335526 1.0820146 13
-4.6008072 -0.74846572 -0.081363119 1
-4.6336179 -0.75297344 1.2578605 15
-4.4248657 -0.7127099 -1.2009205 1
-4.5763116 -0.73710322 0.080909356 3
-4.4790659 -0.72063798 -1.0473721 1
-4.5926843 -0.73809582 0.2437809 3
-4.5688939 -0.73345447 -0.89947367 1
-4.5935469 -0.73658979 0.40701729 5
-4.6734324 -0.74856311 -0.74963403 1
-4.6140928 -0.73905849 0.57376093 9
-4.6054215 -0.73602086 0.73868364 9
-4.7278485 -0.75474054 -0.41887048 1
-4.6220055 -0.73701578 0.90977734 25
-4.6035728 -0.73325378 -0.24430427 1
-4.6304307 -0.7367031 1.0824645 18
-4.5796933 -0.72863078 -0.080944255 1
-4.6228633 -0.73467082 1.2542372 15
-4.4881458 -0.70844376 -1.2174848 1
-4.576756 -0.72161204 0.080874451 10
-4.5776815 -0.72093928 -1.0698671 1
-4.5970802 -0.72317213 0.24388559 10
-4.6099634 -0.72519881 -0.90710598 1
-4.615521 -0.72524768 0.4087604 11
-4.6757612 -0.73387724 -0.74963403 1
-4.6027908 -0.72160125 0.57205474 13
-4.6097889 -0.72104985 0.73899657 16
-4.6120896 -0.72140974 -0.4084118 1
-4.5893836 -0.71703756 0.90290827 16
-4.5742798 -0.71385998 -0.24262951 1
-4.6076908 -0.71825039 1.0766158 16
-4.5643015 -0.71067095 -0.080630124 14
-4.6119118 -0.71725845 1.2506137 13
-4.5440512 -0.70102006 -1.2319787 1
-4.585176 -0.70654637 0.080979168 14
-4.5976019 -0.70681721 0.2437809 18
-4.5930624 -0.70611936 -0.90328985 1
-4.610147 -0.70792341 0.40806317 16
-4.6040974 -0.70617092 -0.73774499 1
-4.5974331 -0.70432746 0.57107979 13
-4.5888453 -0.70137262 0.73524207 16
-4.553524 -0.69597405 -0.40300813 10
-4.5821543 -0.69953161 0.90100008 15
-4.574769 -0.69758713 -0.24252485 10
-4.5812721 -0.6977607 1.0698671 15
-4.5687313 -0.69503486 -0.080665022 15
-4.5933781 -0.69796312 1.2449197 16
-4.5464702 -0.68515503 -1.2319787 1
-4.5836592 -0.68994027 0.080909356 19
-4.486249 -0.67447722 -1.0473721 1
-4.5743651 -0.68690962 0.24242018 16
-4.5372543 -0.68133694 -0.89184129 1
-4.5889459 -0.68827915 0.40597141 16
-4.5713701 -0.68482727 -0.73211342 1
-4.5861206 -0.68621981 0.56937367 12
-4.5639133 -0.68126726 0.73086196 16
-4.5559254 -0.68007493 -0.40300813 9
-4.5729175 -0.68179661 0.89871037 18
-4.573225 -0.68102551 -0.2423155 16
-4.5701866 -0.67975783 1.0667179 25
-4.555306 -0.67673081 -0.080385789 21
-4.5785885 -0.67937404 1.240261 37
-4.5297217 -0.66646856 -1.2268023 1
-4.5662556 -0.67102861 0.080560312 17
-4.4885759 -0.65881413 -1.0473721 1
-4.56883 -0.66977787 0.24200147 15
-4.5590301 -0.66834116 -0.89565748 1
-4.557807 -0.6673494 0.40300813 15
-4.5854602 -0.67058206 -0.73399061 1
-4.5609889 -0.66618925 0.56596124 13
-4.5198545 -0.65937549 -0.56084275 1
-4.5506253 -0.66305447 0.72835892 29
-4.5405283 -0.66158324 -0.40143937 12
-4.5733271 -0.66554606 0.89832878 43
-4.5637155 -0.66333395 -0.24168746 13
-4.5821748 -0.6652016 1.0689675 19
-4.5517035 -0.65996581 -0.080281071 21
-4.5694604 -0.66172618 1.2371551 21
-4.6276331 -0.66437846 -1.2526842 1
-4.5289812 -0.64940965 0.079862215 17
-4.5553236 -0.65156317 0.24116412 16
-4.5205226 -0.64658546 -0.88764352 3
-4.5541916 -0.65059131 0.40248519 26
-4.5075946 -0.64313197 -0.72116297 8
-4.5770431 -0.65222454 0.56766742 33
-4.5221286 -0.6435951 -0.56084275 3
-4.5685582 -0.64938849 0.73086196 22
-4.5132213 -0.64152271 -0.39882466 13
-4.562016 -0.64764637 0.89565748 22
-4.5580931 -0.64627904 -0.24126878 13
-4.596046 -0.65084094 1.0716668 18
-4.5381393 -0.64183295 -0.080001831 21
-4.6080871 -0.65090549 1.2469902 21
-4.5801802 -0.64125746 -1.2392256 1
-4.521318 -0.6322118 0.079687685 24
-4.4776263 -0.62530464 -1.0437729 2
-4.5496573 -0.63455546 0.24074543 36
-4.5188627 -0.63026047 -0.88688028 9
-4.5544615 -0.63441533 0.40231091 26
-4.5137248 -0.62793678 -0.7217887 13
-4.559629 -0.63351279 0.56523001 19
-4.5263138 -0.62807876 -0.56108648 9
-4.5727539 -0.63370836 0.73117477 20
-4.5075393 -0.62467068 -0.39812744 13
-4.5700831 -0.63252646 0.89680237 22
-4.528666 -0.62598866 -0.23959403 13
-4.6137328 -0.63692558 1.075266 19
-4.5205421 -0.62325668 -0.079652779 33
-4.6237273 -0.6366607 1.2506137 21
-4.5173111 -0.61638558 -1.2216259 1
-4.5314231 -0.61750555 0.079827309 28
-4.47785 -0.60940909 -1.0433229 9
-4.5558028 -0.61920822 0.24095476 21
-4.5054727 -0.61236751 -0.88382733 15
-4.5625715 -0.61931723 0.40283385 23
-4.4923997 -0.60899377 -0.71803427 15
-4.5795174 -0.61998963 0.5674237 20
-4.5107741 -0.60988021 -0.55889291 11
-4.5905986 -0.61985707 0.73367769 20
-4.5037684 -0.60813266 -0.3976045 19
-4.6033931 -0.62076789 0.90290827 27
-4.5090504 -0.60724342 -0.23844264 27
-4.6178594 -0.62107635 1.0757159 18
-4.528636 -0.60827279 -0.079757497 29
-4.6393242 -0.62231481 1.2542372 19
-4.4830499 -0.59577787 -1.2117908 5
-4.5474272 -0.6035257 0.080071643 24
-4.4722228 -0.59275043 -1.0415233 9
-4.5658565 -0.60434991 0.24137343 21
-4.4842272 -0.59354526 -0.8792479 16
-4.5805068 -0.60547572 0.4042283 24
-4.4847064 -0.59201592 -0.71646994 22
-4.5954299 -0.6058163 0.56912988 20
-4.4833536 -0.59024423 -0.55523676 21
-4.5946927 -0.60408765 0.73399061 20
-4.5117898 -0.59318799 -0.39812744 22
-4.6249976 -0.60725087 0.90672439 25
-4.5309458 -0.5940966 -0.23948936 18
-4.6373897 -0.60723132 1.0797651 18
-4.5307317 -0.59246004 -0.079757497 29
-4.6529617 -0.60761744 1.2573429 19
-4.4563642 -0.57640928 -1.2040263 8
-4.541573 -0.58662373 0.079932027 24
-4.4549375 -0.57464272 -1.0370244 16
-4.5818048 -0.5901944 0.24210617 22
-4.4745884 -0.57638365 -0.87695819 27
-4.586545 -0.58999139 0.40457696 26
-4.4985008 -0.57786775 -0.71834713 24
-4.6132689 -0.59179103 0.57107979 20
-4.4912934 -0.57534844 -0.55596799 15
-4.60853 -0.5895493 0.7358678 20
-4.513833 -0.57743514 -0.39812744 21
-4.6329317 -0.59184796 0.90786928 24
-4.5488415 -0.58029997 -0.24032672 18
-4.647213 -0.5920251 1.0815647 18
-4.5545931 -0.57941699 -0.080141447 31
-4.6569705 -0.59161633 1.2578605 21
-4.4430146 -0.55891997 -1.1998851 15
-4.5574822 -0.57251167 0.080176361 26
-4.4665847 -0.56030238 -1.0392739 17
-4.595727 -0.57568669 0.24273418 22
-4.5057936 -0.56442112 -0.8826825 22
-4.6043921 -0.57595593 0.40597141 23
-4.4985309 -0.5619176 -0.71803427 22
-4.6290951 -0.57740504 0.57278597 20
-4.5287323 -0.56408376 -0.56035525 19
-4.632123 -0.57613975 0.73930937 24
-4.5276842 -0.56314969 -0.39917332 21
-4.6466594 -0.57712531 0.91015899 24
-4.5508394 -0.56441784 -0.24032672 19
-4.6782608 -0.57939118 1.0883132 19
-4.5625415 -0.56425226 -0.080246165 29
-4.6685944 -0.57654065 1.2604488 21
-4.4602799 -0.5452829 -1.2040263 11
-4.5733471 -0.55829674 0.080420688 22
-4.4704471 -0.54494226 -1.0397238 20
-4.6154542 -0.56261843 0.24367623 21
-4.5096855 -0.54892659 -0.88306409 21
-4.6142859 -0.56084269 0.40666869 24
-4.5083089 -0.54716223 -0.71928573 23
-4.627141 -0.56076515 0.57229847 19
-4.5385571 -0.54922593 -0.56133026 19
-4.6457748 -0.56220073 0.74118662 26
-4.5513806 -0.54997182 -0.40109071 22
-4.6564417 -0.5618425 0.91168547 24
-4.5607138 -0.54948455 -0.24074543 18
-4.6802549 -0.5630585 1.0883132 19
-4.5842414 -0.55150753 -0.08059521 28
-4.6896615 -0.5633598 1.2656252 19
-4.4851761 -0.532444 -1.2102379 13
-4.5910592 -0.54501361 0.080699928 24
-4.4838409 -0.53149194 -1.0424232 19
-4.6193733 -0.54673868 0.2437809 21
-4.5232725 -0.53456503 -0.8853538 21
-4.6360025 -0.54706722 0.4084118 23
-4.5336399 -0.53498799 -0.72304016 23
-4.6408038 -0.54681146 0.57376093 17
-4.5364103 -0.53370839 -0.56084275 19
-4.6614418 -0.54759359 0.74337667 22
-4.5671244 -0.5357058 -0.40231091 21
-4.6738782 -0.54822761 0.91473836 22
-4.5704455 -0.53528678 -0.24116412 18
-4.6879034 -0.54821396 1.0896629 18
-4.5920973 -0.53619784 -0.080699928 26
-4.7069492 -0.54877597 1.2697662 19
-4.4907556 -0.51801032 -1.2112732 15
-4.6048532 -0.53035718 0.080909356 24
-4.5069647 -0.51828492 -1.0473721 22
-4.6291909 -0.53152305 0.2441996 21
-4.5289207 -0.52001005 -0.88611698 21
-4.6575851 -0.53395975 0.41015494 23
-4.5551047 -0.52140456 -0.72616887 22
-4.6564898 -0.53218645 0.57546705 16
-4.5481067 -0.51899642 -0.56206143 20
-4.6574368 -0.53064781 0.74243808 20
-4.5767937 -0.5214597 -0.40300813 21
-4.6933198 -0.53390646 0.91817296 25
-4.5921311 -0.52158469 -0.24221084 19
-4.7033424 -0.53338379 1.0928122 18
-4.5919542 -0.51994008 -0.080665022 28
-4.7222738 -0.53386128 1.2733897 21
-4.4925365 -0.50233132 -1.2112732 16
-4.6126385 -0.51494545 0.081014074 22
-4.5223036 -0.50406045 -1.0505214 20
-4.6508679 -0.51756978 0.24524632 21
-4.5346107 -0.50463217 -0.88688028 22
-4.6475396 -0.51637715 0.40910906 23
-4.5647507 -0.50637221 -0.72742033 22
-4.6721301 -0.51745963 0.57717323 16
-4.5775137 -0.50617069 -0.56547379 21
-4.6769319 -0.51633787 0.74525392 22
-4.5706649 -0.50460589 -0.40231091 22
-4.7049112 -0.51859689 0.92008096 24
-4.6078205 -0.50708008 -0.24294353 19
-4.7187352 -0.51845253 1.0959616 18
-4.6056676 -0.50521725 -0.080874451 28
-4.7317905 -0.51821536 1.2754604 21
-4.5134687 -0.48872599 -1.2164496 16
-4.628325 -0.50034446 0.081258401 24
-4.5279102 -0.48869082 -1.0514213 22
-4.6705179 -0.50325763 0.24618836 21
-4.5597682 -0.49132416 -0.8914597 22
-4.6691232 -0.50228196 0.41085216 23
-4.5723825 -0.49106896 -0.72835892 20
-4.6916723 -0.50305229 0.57936692 16
-4.5832005 -0.49061152 -0.56596124 22
-4.696383 -0.50189942 0.7480697 20
-4.5961719 -0.49118987 -0.40440264 21
-4.7066927 -0.50216925 0.92008096 24
-4.6194935 -0.49205032 -0.2434669 19
-4.7379565 -0.50383347 1.1000106 18
-4.6173458 -0.4901917 -0.081048973 24
-4.7470183 -0.50312036 1.2790838 21
-4.5266747 -0.47417656 -1.2195554 16
-4.6340208 -0.48460254 0.081328213 24
-4.5334654 -0.47328705 -1.0523211 20
-4.6801925 -0.48777837 0.24660707 21
-4.5848875 -0.47784549 -0.89603907 22
-4.6807566 -0.48701254 0.41172373 20
-4.5799637 -0.47571746 -0.72929758 22
-4.6973491 -0.48708054 0.57985443 16
-4.6006813 -0.4762463 -0.56791121 21
-4.7216854 -0.48793939 0.75182414 24
-4.6077676 -0.47616708 -0.40527418 21
-4.7162294 -0.48654255 0.92160755 24
-4.6251559 -0.47633246 -0.24367623 18
-4.7532558 -0.48868683 1.10316 18
-4.6389208 -0.47611266 -0.081398018 24
-4.7641196 -0.48812333 1.2832248 22
-4.5552115 -0.46109524 -1.2268023 17
-4.6655273 -0.47143921 0.08185178 26
-4.5467229 -0.45863384 -1.0550205 20
-4.6858411 -0.47183967 0.24681638 19
-4.5923877 -0.4624294 -0.89718395 24
-4.7022524 -0.47266325 0.41346684 20
-4.591424 -0.46071354 -0.73086196 19
-4.7088962 -0.47167093 0.58107305 19
-4.6102166 -0.46097392 -0.56888616 21
-4.7351537 -0.47263056 0.75370133 24
-4.6331921 -0.46245342 -0.40736595 22
-4.7315741 -0.47144043 0.92427886 21
-4.6466651 -0.46216136 -0.24472295 19
-4.7549334 -0.47209063 1.10316 18
-4.6584644 -0.4616929 -0.081712164 24
-4.7907867 -0.47396284 1.2899542 22
-4.5567932 -0.44519162 -1.2268023 17
-4.6770964 -0.456121 0.08202631 24
-4.5676918 -0.44464689 -1.0595194 20
-4.7013745 -0.45683211 0.24754909 19
-4.5939736 -0.44639602 -0.89718395 24
-4.7157717 -0.45740035 0.41451269 22
-4.6165981 -0.44696784 -0.73461634 22
-4.7342253 -0.45752224 0.58399796 17
-4.6276045 -0.44640315 -0.57083601 20
-4.7348089 -0.45591062 0.75338852 22
-4.634778 -0.44627872 -0.40736595 21
-4.7566414 -0.45717505 0.92885822 22
-4.6621666 -0.44727361 -0.24545565 19
-4.7720709 -0.45697701 1.1067592 18
-4.6700006 -0.44638023 -0.081886694 26
-4.8020277 -0.45815313 1.2925425 24
-4.5640893 -0.42982602 -1.2283553 22
-4.6886144 -0.44072878 0.082200833 26
-4.5808573 -0.42979208 -1.0622189 19
-4.7128839 -0.44134951 0.24807246 19
-4.6091871 -0.4316386 -0.89985526 22
-4.7213073 -0.44130716 0.41486132 20
-4.6318979 -0.43213454 -0.73680639 23
-4.7496285 -0.44228217 0.58570409 21
-4.6370416 -0.43098184 -0.57181102 20
-4.7580075 -0.44138727 0.75683004 24
-4.6422591 -0.43064961 -0.40788889 21
-4.7718925 -0.4418354 0.93152958 24
-4.6716547 -0.43173197 -0.24587436 19
-4.8027444 -0.44300133 1.1135077 42
-4.6755128 -0.43044263 -0.081956498 26
-4.8016734 -0.44121236 1.2920247 49
-4.575181 -0.41476476 -1.2309434 17
-4.6980906 -0.42507935 0.082340457 26
-4.5978565 -0.41520128 -1.0658182 20
-4.7263308 -0.42597246 0.2487005 19
-4.6341295 -0.41766262 -0.90443468 21
-4.7327409 -0.4257164 0.41573292 19
-4.6294436 -0.41561022 -0.73618072 23
-4.7649837 -0.42694125 0.58741027 25
-4.6622438 -0.41691446 -0.57473588 19
-4.7732916 -0.42600507 0.75902009 48
-4.6576257 -0.41568217 -0.40910906 21
-4.773406 -0.42517558 0.93152958 51
-4.6890488 -0.41683689 -0.24671172 21
-4.8081441 -0.42657822 1.1144075 36
-4.6988978 -0.41605943 -0.082340457 28
-4.8031845 -0.42444852 1.2920247 31
-4.5862246 -0.39963025 -1.2335316 22
-4.713491 -0.40988997 0.082584791 24
-4.6031604 -0.39948717 -1.0667179 20
-4.7476869 -0.41119403 0.24974722 24
-4.6512065 -0.4028379 -0.90748757 22
-4.7738981 -0.41262472 0.41921914 42
-4.6505466 -0.4011465 -0.73930937 23
-4.770401 -0.41064501 0.58789778 52
-4.6656489 -0.40080747 -0.57497966 19
-4.7904949 -0.41069141 0.76152301 39
-4.6848545 -0.40163484 -0.41137511 24
-4.7807288 -0.40901259 0.93267435 27
-4.6944551 -0.40080625 -0.24692108 24
-4.7979531 -0.40880045 1.1117082 16
-4.7162619 -0.40100989 -0.082619689 29
-4.7738376 -0.40506625 1.2837424 16
-4.6126184 -0.38571045 -1.240261 23
-4.7388062 -0.39543068 0.08300364 50
-4.6200633 -0.38471028 -1.0703171 20
-4.7630258 -0.39577657 0.25047991 78
-4.6662807 -0.38773763 -0.91015899 24
-4.7812657 -0.39645311 0.41974208 48
-4.6637306 -0.38588783 -0.74118662 22
-4.7718053 -0.39399058 0.58789778 25
-4.6808681 -0.38566086 -0.57668579 21
-4.7682748 -0.39202341 0.75776863 20
-4.7021136 -0.38658398 -0.41276959 26
-4.7645178 -0.39087743 0.92923987 18
-4.7077689 -0.3853958 -0.24754909 28
-4.76439 -0.38919279 1.1036098 16
-4.7435427 -0.38665646 -0.083073452 52
-4.7771487 -0.38855761 1.2842602 15
-4.6293416 -0.37084207 -1.2444019 28
-4.7600908 -0.38047996 0.083352692 43
-4.6369185 -0.3698191 -1.0739163 22
-4.7643781 -0.37914908 0.25047991 33
-4.6676054 -0.37144789 -0.91015899 24
-4.7786479 -0.37944543 0.41939342 17
-4.684741 -0.37116492 -0.74431533 24
-4.7612777 -0.3763938 0.58643532 15
-4.6940594 -0.37025565 -0.57814825 21
-4.7381058 -0.37289673 0.75276273 16
-4.7272696 -0.37204391 -0.41486132 60
-4.7599816 -0.37378368 0.92809504 15
-4.7540622 -0.37164816 1.1009104 16
-4.7348952 -0.36931953 -0.08289893 49
-4.7534375 -0.36993006 1.2775309 15
-4.6267557 -0.35438523 -1.2433668 27
-4.7434449 -0.36249033 0.083038554 26
-4.6537266 -0.35481718 -1.0775156 22
-4.7577066 -0.36190993 0.25006124 16
-4.6825767 -0.35619488 -0.91283029 22
-4.7481565 -0.36034885 0.41660443 15
-4.7037354 -0.35615313 -0.74713105 34
-4.7368298 -0.35782754 0.58326674 12
-4.7269945 -0.35625374 -0.582048 83
-4.7255898 -0.35531962 0.75057268 16
-4.7106581 -0.35419691 -0.41329253 48
-4.7397218 -0.35555035 0.92389715 15
-4.7561536 -0.35594714 -0.24995655 67
-4.7320113 -0.353311 1.0955117 16
-4.7221961 -0.35174945 -0.082654595 24
-4.7180953 -0.35061488 1.2676958 13
-4.6510849 -0.33992228 -1.2495784 27
-4.7147655 -0.34374914 0.082514979 21
-4.6802034 -0.34040815 -1.0833644 33
-4.7449975 -0.34428832 0.24932852 13
-4.7072887 -0.34155226 -0.91740966 57
-4.7195778 -0.34161592 0.41398975 15
-4.7069206 -0.339874 -0.74744397 37
-4.7301307 -0.34072012 0.58229178 12
-4.7361298 -0.34032139 -0.58302301 29
-4.7110381 -0.33769205 0.7480697 16
-4.7039165 -0.33718154 -0.41259527 21
-4.7017689 -0.33620167 0.91626483 15
-4.7414298 -0.3382071 -0.24911918 31
-4.7234964 -0.33609936 1.0932621 16
-4.7154169 -0.33469623 -0.082514979 21
-4.7019467 -0.33291543 1.263037 13
-4.6753697 -0.32529491 -1.2557901 57
-4.6959877 -0.32590485 0.082165927 19
-4.6813631 -0.32406896 -1.0833644 52
-4.7142901 -0.32552162 0.24765378 15
-4.7084522 -0.32511851 -0.91740966 39
-4.7048397 -0.32404408 0.41259527 15
-4.7021661 -0.32303542 -0.74650538 24
-4.6956425 -0.32176393 0.57790446 12
-4.7234254 -0.32283953 -0.58131683 13
-4.6924806 -0.31990167 0.744941 16
-4.697114 -0.32021758 -0.41189805 16
-4.6794095 -0.31818902 0.91168547 16
-4.7007356 -0.3188161 -0.24692108 15
-4.6954765 -0.31763622 1.0865136 16
-4.6966047 -0.316888 -0.082165927 19
-4.6915154 -0.31572324 1.2599311 13
-4.6841869 -0.30948102 -1.2578605 39
-4.6811337 -0.30845878 0.081886694 19
-4.6727428 -0.30708799 -1.0811148 26
-4.6914816 -0.30749604 0.2463977 15
-4.6821322 -0.30688325 -0.91206706 19
-4.696002 -0.30696926 0.41172373 15
-4.6815815 -0.30520722 -0.74306375 16
-4.6848516 -0.30459818 0.576442 12
-4.6948099 -0.30442283 -0.57766074 13
-4.6817408 -0.30275381 0.74306375 16
-4.6743445 -0.30227548 -0.40980628 16
-4.668736 -0.30109575 0.90939575 16
-4.6818881 -0.30112344 -0.24587436 15
-4.6596069 -0.29887274 1.0779655 16
-4.6817174 -0.29947165 -0.081886694 19
-4.6810212 -0.29860684 1.2568253 13
-4.6755986 -0.29252502 -1.2552725 24
-4.6622243 -0.29087254 0.081537649 19
-4.6621165 -0.29004791 -1.0784154 16
-4.6686053 -0.28963366 0.24514163 15
-4.6635795 -0.28932187 -0.90825087 15
-4.6771588 -0.28934604 0.4099806 15
-4.6629024 -0.28764606 -0.7399351 15
-4.6621103 -0.28678048 0.5735172 12
-4.6720672 -0.28657562 -0.57473588 14
-4.6433353 -0.28399876 0.73680639 16
-4.659462 -0.2849851 -0.4084118 14
-4.6560416 -0.28396028 0.90672439 15
-4.6629748 -0.28356746 -0.24482764 15
-4.6489506 -0.28189912 1.075266 16
-4.6507978 -0.2811965 -0.081328213 19
-4.658895 -0.28086892 1.2506137 15
-4.6457353 -0.27438098 -1.2469902 18
-4.6552258 -0.2741262 0.081398018 21
-4.6436467 -0.27263004 -1.0739163 13
-4.6535897 -0.27321377 0.24430427 15
-4.6567211 -0.27258328 -0.90672439 16
-4.6463161 -0.27115944 0.40719163 16
-4.6500735 -0.27056444 -0.73774499 16
-4.6630831 -0.27050593 0.5735172 13
-4.6492105 -0.26970121 -0.57181102 13
-4.6383352 -0.26825699 0.7358678 16
-4.6345701 -0.26722771 -0.40614575 15
-4.6393642 -0.26669288 0.90328985 15
-4.6559601 -0.26683053 -0.24440894 15
-4.640132 -0.26592341 1.0730165 16
-4.6397262 -0.26508778 -0.081118785 19
-4.634727 -0.2639907 1.2438843 16
-4.6273313 -0.25789845 -1.2418139 16
-4.6161766 -0.25646865 0.080699928 19
-4.6289592 -0.25636739 -1.0703171 13
-4.6385169 -0.2568967 0.2434669 15
-4.6360364 -0.25594887 -0.90252656 16
-4.6233172 -0.25443736 0.4050999 16
-4.6253037 -0.25373593 -0.73367769 15
-4.634222 -0.25341508 0.56986111 13
-4.6421504 -0.25384861 -0.57083601 13
-4.6135578 -0.25147751 0.73180056 16
-4.6254835 -0.25131679 -0.40527418 15
-4.6029754 -0.24928819 0.89603907 15
-4.6328878 -0.25009727 -0.24315289 15
-4.6215286 -0.24948408 1.0685174 15
-4.6206112 -0.24862581 -0.08076974 21
-4.6085701 -0.24717128 1.2366375 15
-4.6127267 -0.24174321 -1.2376727 16
-4.6010261 -0.24032481 0.080420688 21
-4.6025381 -0.23959836 -1.0640185 13
-4.6234283 -0.23987678 0.24262951 16
-4.6270571 -0.24006504 -0.90061849 15
-4.6161771 -0.23869279 0.40440264 15
-4.6182289 -0.23798965 -0.73242623 15
-4.6033177 -0.23641682 0.56596124 13
-4.6152539 -0.23622224 -0.5674237 13
-4.6005974 -0.23466597 0.72961038 15
-4.598434 -0.23455563 -0.40283385 15
-4.5880919 -0.2332253 0.89298618 15
-4.6017761 -0.23311684 -0.24147813 15
-4.5970707 -0.23207302 1.0626688 15
-4.6034765 -0.23159096 -0.080455594 21
-4.5997577 -0.23060019 1.2340492 15
-4.6058245 -0.22526272 -1.2356021 16
-4.5918508 -0.22377597 0.080246165 21
-4.5838819 -0.22258575 -1.0595194 15
-4.6002979 -0.22257815 0.24137343 15
-4.6004133 -0.22258373 -0.89527589 15
-4.6010609 -0.22181019 0.40300813 16
-4.5953541 -0.22073121 -0.72867179 16
-4.5902348 -0.21968238 0.56425512 13
-4.5843244 -0.21859764 -0.56352389 13
-4.5796838 -0.21757419 0.72616887 17
-4.5833039 -0.21774617 -0.40143937 15
-4.5771112 -0.21665245 0.89069647 15
-4.5945816 -0.21667466 -0.24105945 13
-4.5764399 -0.21501864 1.0577198 16
