# .PCD v0.7 - Point Cloud Data file format
VERSION 0.7
FIELDS x y z intensity
SIZE 4 4 4 4
TYPE F F F F
COUNT 1 1 1 1
WIDTH 1369
HEIGHT 1
VIEWPOINT 0 0 0 1 0 0 0
POINTS 1369
DATA ascii
-2.8233254 1.8313879 0.90172559 1
-2.7932382 1.817417 -0.89292574 3
-2.8440776 1.8512022 0.059233464 3
-2.7941544 1.8194016 -0.76978248 4
-2.8315988 1.8444883 0.17710489 1
-2.8291285 1.8435814 -0.65638298 1
-2.8377283 1.8491855 0.29632953 1
-2.8495836 1.8576193 -0.53876036 1
-2.8699234 1.8715936 0.42069301 1
-2.828033 1.8449776 -0.41459954 2
-2.8651528 1.8699071 0.54188907 1
-2.8444548 1.8571078 -0.29720107 1
-2.8288398 1.8476173 0.65676457 1
-2.8474133 1.8604562 -0.17825629 1
-2.8003461 1.8304015 -0.058395755 138
-2.7939577 1.8269221 0.89447862 1
-2.7946353 1.8329402 -0.89551395 1
-2.8289139 1.8561289 0.059058942 3
-2.8347123 1.8606412 -0.7828297 1
-2.8251436 1.8543606 0.17710489 1
-2.8669856 1.8825407 -0.66668665 1
-2.8076181 1.8442599 0.29388916 1
-2.8757722 1.8897482 -0.54501772 1
-2.8630447 1.8820992 0.42069301 1
-2.8162754 1.8520589 -0.41386834 1
-2.8487048 1.8733854 0.54001182 1
-2.8745737 1.8911161 -0.30103594 1
-2.8509104 1.8769748 -0.17888431 1
-2.7939396 1.8401655 -0.058395755 138
-2.7907903 1.8387889 0.89551395 1
-2.8688045 1.8959411 -0.92139584 1
-2.8093972 1.8566798 0.058779709 3
-2.8025169 1.8528357 -0.77563125 1
-2.8286488 1.8708216 0.17773293 1
-2.87677 1.9033701 -0.67050284 1
-2.8111317 1.8606479 0.29493502 1
-2.8266616 1.870927 -0.53688318 1
-2.8336155 1.8762401 0.41728067 1
-2.8200486 1.8679647 -0.41533077 1
-2.8092148 1.8614951 0.53375447 1
-2.8579915 1.8945332 -0.29999006 1
-2.8446708 1.8864179 -0.17888431 1
-2.8008292 1.8587525 -0.058674991 134
-2.7714787 1.8399721 0.89137286 1
-2.7929125 1.8598242 0.058570277 3
-2.8254249 1.8828994 0.17794226 1
-2.8165503 1.877696 0.29615521 1
-2.862843 1.9092784 -0.54501772 1
-2.8501675 1.9015436 0.42069301 1
-2.8432307 1.8976338 -0.41971806 1
-2.8257 1.8866456 0.53813463 1
-2.8811831 1.9244173 -0.30312768 1
-2.8259904 1.8875526 0.66058075 1
-2.8214614 1.8852407 -0.1778376 1
-2.797648 1.8707409 -0.058744799 132
-2.7521935 1.8410422 0.88723171 1
-2.8063297 1.8829327 0.058989134 2
-2.7989383 1.8793894 0.17668621 1
-2.8634119 1.9234073 -0.67050284 1
-2.812957 1.8902284 0.29650384 1
-2.8558264 1.919758 -0.54501772 1
-2.8435128 1.9114804 0.42069301 1
-2.846473 1.9141927 -0.42118049 1
-2.8289313 1.9031134 0.54001182 1
-2.8248599 1.9010915 -0.29789832 1
-2.7604246 1.8584267 0.64684254 1
-2.831099 1.9067256 -0.17888431 1
-2.7944171 1.8827304 -0.058814611 128
-2.7425466 1.8484778 0.88619649 2
-2.8060358 1.8976862 0.059128754 2
-2.8055942 1.898102 0.17752358 1
-2.7898436 1.8888661 0.29476073 1
-2.8069062 1.9018474 0.41630572 1
-2.780612 1.8840313 -0.41240588 1
-2.7895679 1.8908101 0.53375447 1
-2.8412936 1.9265943 -0.30033869 1
-2.7766671 1.8834805 0.6521852 1
-2.8376479 1.9255683 -0.1797217 1
-2.7745926 1.8834878 -0.058535371 127
-2.7264884 1.851528 0.88309062 2
-2.7898111 1.9002266 0.058919325 2
-2.7877312 1.8995222 0.17679088 2
-2.8502533 1.9428535 -0.67050284 1
-2.7901487 1.902597 0.29545796 1
-2.8071427 1.915621 0.41728067 1
-2.8169808 1.9223346 -0.4187431 1
-2.7832825 1.9000504 0.53375447 1
-2.7954013 1.9090388 -0.29615521 1
-2.773648 1.8948929 0.65294844 1
-2.8213527 1.9282061 -0.17909366 1
-2.7732837 1.8960643 -0.058640085 122
-2.6980093 1.845291 0.87584364 2
-2.7653553 1.8970244 0.058535371 3
-2.7860227 1.9126337 0.17710489 1
-2.7641158 1.898304 0.29336622 1
-2.7909591 1.9181731 0.41581824 1
-2.7480941 1.8894191 -0.40948102 1
-2.7766333 1.9097537 0.53375447 1
-2.8383033 1.9521699 -0.30138457 1
-2.7576447 1.8974034 0.65065867 1
-2.7853293 1.9171681 -0.17720957 1
-2.7633548 1.9034646 -0.058570277 123
-2.6867797 1.8514093 0.87429082 3
-2.7521365 1.902118 0.058395755 3
-2.7694736 1.9155302 0.17647687 2
-2.8950903 2.002414 -0.68424112 1
-2.757473 1.9079405 0.29336622 1
-2.767926 1.916603 0.41338086 1
-2.7806466 1.9261283 -0.41533077 1
-2.7926807 1.9351865 0.53813463 1
-2.7823422 1.9280224 -0.29615521 1
-2.7445507 1.902544 0.64913225 1
-2.7720556 1.9223258 -0.17679088 1
-2.7501218 1.9085385 -0.058430657 123
-2.6977568 1.8728946 0.8799848 6
-2.7438388 1.9105705 0.058360845 3
-2.7431068 1.9114828 0.17522079 2
-2.7507961 1.9175543 0.29336622 1
-2.728658 1.9035375 0.4085061 1
-2.7511158 1.9199183 -0.4119184 1
-2.7632327 1.9290924 0.53375447 1
-2.7853971 1.9445659 -0.29720107 1
-2.747551 1.9188566 0.65142196 1
-2.7522299 1.9228402 -0.17595351 2
-2.7450826 1.9192719 -0.058465563 125
-2.6927857 1.8834084 0.88050246 10
-2.7371533 1.9201361 0.058360845 5
-2.7413218 1.924489 0.17553481 3
-2.8810408 2.0225761 -0.68424112 1
-2.7375636 1.9225652 0.292669 2
-2.7414858 1.9267479 0.41143093 1
-2.7671316 1.9454945 -0.41533077 1
-2.7338617 1.9228156 0.5293743 1
-2.7525179 1.935937 -0.29441211 1
-2.7312021 1.9216576 0.64913225 1
-2.7520342 1.9370339 -0.17637219 2
-2.722018 1.9173269 -0.058116514 128
-2.6830363 1.8905709 0.87946719 11
-2.7190025 1.9216008 0.058116514 8
-2.7313261 1.9317399 0.17532547 5
-2.793819 1.9759383 -0.66516018 1
-2.7275832 1.9298072 0.29232034 2
-2.8087635 1.9879792 -0.54501772 1
-2.7104418 1.9190993 0.40777487 2
-2.7214463 1.927604 -0.40948102 1
-2.7110152 1.9209263 0.52624559 1
-2.7034762 1.9155843 -0.28988001 2
-2.7244773 1.9311804 0.64913225 1
-2.7452564 1.946628 -0.17637219 7
-2.7185695 1.929132 -0.058186322 132
-2.6716952 1.8965696 0.87791425 13
-2.7041333 1.925281 0.057941992 10
-2.7457123 1.956329 0.17668621 6
-2.8668504 2.0426402 -0.68424112 1
-2.7175853 1.9370037 0.29197174 2
-2.7213876 1.94043 -0.5293743 1
-2.7118068 1.9343127 0.40899354 2
-2.727628 1.9463161 -0.41143093 1
-2.6882157 1.9189014 0.52311689 1
-2.7000163 1.927325 -0.29022861 3
-2.7273061 1.9475236 0.65142196 1
-2.7303185 1.9503942 -0.17584883 8
-2.7053125 1.9339578 -0.058046706 131
-2.6760581 1.9137504 0.88153768 20
-2.6941464 1.9323778 0.05787218 10
-2.7307537 1.9600781 0.17616285 5
-2.7512476 1.9747883 -0.65829104 1
-2.7269914 1.9580989 0.29371485 3
-2.7466853 1.9729666 -0.53563172 1
-2.7050381 1.9437668 0.40899354 2
-2.7175937 1.9535084 -0.41094348 1
-2.6911235 1.9351929 0.52499413 1
-2.6932721 1.936738 -0.29022861 3
-2.6918044 1.9363952 0.64455283 1
-2.7105248 1.9505801 -0.17501146 11
-2.6952999 1.941052 -0.057976898 131
-2.6724966 1.9253383 0.88257295 27
-2.6857643 1.9405985 0.057837274 11
-2.6979995 1.9508739 0.1744881 7
-2.7252467 1.9705758 -0.65371162 1
-2.7007682 1.9535928 0.29162312 3
-2.7397816 1.9825423 -0.53563172 1
-2.6821566 1.9415574 0.40655616 2
-2.6962881 1.9525033 -0.40874982 2
-2.6811528 1.9422573 0.52436841 1
-2.6881089 1.9472964 -0.29040295 5
-2.6945667 1.9526917 0.64684254 1
-2.7036994 1.9600297 -0.17501146 11
-2.691745 1.9527973 -0.058046706 132
-2.6735764 1.9403296 0.88516116 25
-2.685441 1.9546692 0.057976898 12
-2.7073174 1.9720385 0.17553481 8
-2.7183518 1.9800761 -0.65371162 1
-2.6842704 1.9559689 0.29057723 3
-2.7328446 1.992094 -0.53563172 1
-2.6946106 1.9649428 0.40948102 3
-2.6830409 1.9572244 -0.40777487 2
-2.6456344 1.9306448 0.51873678 2
-2.6812952 1.956668 -0.29040295 7
-2.7035913 1.9736607 0.65065867 1
-2.6903894 1.964744 -0.17459276 13
-2.670382 1.9515616 -0.05773256 132
-2.6652284 1.9485097 0.88464355 30
-2.6737633 1.9604846 0.05787218 12
-2.6843145 1.9696611 0.1744881 8
-2.7145891 1.9918756 -0.65447485 1
-2.6790328 1.9665059 0.29075155 5
-2.7226899 1.9992821 -0.53500593 1
-2.6877351 1.9743369 0.40948102 3
-2.6777921 1.9677536 -0.40801859 2
-2.6468375 1.9457173 0.5203011 2
-2.6616066 1.9565742 -0.28900844 7
-2.6903589 1.9784344 0.64913225 1
-2.6883411 1.9776739 -0.17490679 15
-2.663553 1.9608716 -0.05773256 133
-2.6615214 1.9600923 0.88567883 37
-2.6572528 1.9626769 0.057662752 15
-2.702055 1.9964972 -0.77563125 1
-2.6902714 1.9885174 0.17532547 7
-2.7107768 2.003674 -0.65523815 1
-2.6705501 1.9746604 0.29057723 5
-2.7061658 2.0017259 -0.53312874 1
-2.6728477 1.9778035 0.40826234 3
-2.6709075 1.9770882 -0.40801859 2
-2.6400297 1.9549448 0.5203011 2
-2.6515584 1.9634819 -0.28865981 7
-2.6518848 1.9644413 0.64149988 1
-2.6750031 1.9822886 -0.1744881 15
-2.6801298 1.9868127 0.77023244 1
-2.6534796 1.9677751 -0.057662752 133
-2.6515605 1.9670683 0.88464355 30
-2.6487811 1.9707466 0.057627846 15
-2.6721003 1.9895462 0.17459276 10
-2.6785712 1.9943641 -0.64913225 1
-2.6684349 1.9875407 0.29110017 5
-2.6801531 1.9969975 -0.5293743 1
-2.6643364 1.9859345 0.40801859 3
-2.6671729 1.988773 -0.4085061 2
-2.633189 1.964149 0.5203011 2
-2.6478817 1.9751087 -0.28900844 7
-2.6513057 1.9783821 0.64302635 1
-2.6584642 1.9844459 -0.17386007 15
-2.6716161 1.9949905 0.76978248 3
-2.6530027 1.9818125 -0.057802372 132
-2.6508679 1.9809377 0.8867141 30
-2.6466863 1.9835786 0.05773256 15
-2.6880507 2.0153124 -0.77563125 1
-2.6539545 1.9904729 0.17386007 8
-2.6935816 2.0201933 -0.65447485 1
-2.6694491 2.0028219 0.29197174 6
-2.6478884 1.9873677 -0.52436841 1
-2.6446886 1.9856877 0.40606871 5
-2.6475163 1.9885335 -0.40655616 2
-2.6421099 1.985194 0.52342981 2
-2.6441574 1.9867325 -0.28935707 10
-2.6600773 1.9994206 0.64684254 1
-2.6515205 1.9937143 -0.17386007 15
-2.6412756 1.9867328 0.76303399 40
-2.6396778 1.9862512 -0.057662752 132
-2.6470234 1.9925032 0.88774931 32
-2.6541104 2.0036483 0.058046706 20
-2.6809998 2.0246832 -0.77563125 1
-2.6485839 2.0009289 0.17396474 10
-2.6442184 1.9976308 -0.64417118 1
-2.6560836 2.0073228 0.29127449 8
-2.6724496 2.0204244 -0.53062576 1
-2.6345744 1.9925125 0.40558121 3
-2.6516397 2.0061476 -0.40826234 3
-2.6288636 1.9896361 0.52217829 2
-2.6403835 1.9983549 -0.28970569 11
-2.6405597 1.9992135 0.64378959 1
-2.6429527 2.0017519 -0.17375539 18
-2.6436446 2.003001 0.76573336 63
-2.6231661 1.9882059 -0.057453319 132
-2.6431308 2.0040653 0.88878465 40
-2.6423244 2.00927 0.057941992 17
-2.6739159 2.0340292 -0.77563125 1
-2.6384048 2.0077424 0.17375539 10
-2.6450415 2.0127926 -0.6460793 1
-2.6379631 2.0081341 0.29005429 7
-2.638664 2.0093954 -0.525307 2
-2.6370783 2.0089138 0.40704364 3
-2.6462004 2.0165939 -0.4085061 6
-2.6061928 1.9868246 0.51904958 2
-2.6238852 2.0003123 -0.28865981 12
-2.6491756 2.0203247 0.64760572 1
-2.6407135 2.0145988 -0.1740694 15
-2.6319892 2.0086701 0.76438367 56
-2.6162095 1.9973511 -0.057453319 131
-2.6176958 1.9992081 0.88257295 32
-2.6257694 2.0111856 0.05773256 25
-2.6668 2.0433502 -0.77563125 1
-2.6424758 2.0254457 0.1744881 12
-2.6270914 2.0136535 -0.643408 1
-2.6182888 2.007632 0.28865981 7
-2.6347692 2.0209978 -0.52593273 2
-2.6253245 2.014482 0.40631241 3
-2.6281221 2.0173578 -0.40679988 7
-2.6117761 2.0055337 0.52155256 2
-2.6168873 2.0094585 -0.28865981 13
-2.6265385 2.0175993 0.64378959 1
-2.6320813 2.0225878 -0.17396474 20
-2.6249616 2.0178454 0.76438367 32
-2.6123927 2.0089087 -0.057523135 131
-2.6107013 2.0083334 0.88257295 27
-2.615567 2.0178955 0.057662752 32
-2.659651 2.0526466 -0.77563125 1
-2.6325831 2.0317564 0.17427875 12
-2.6200464 2.0228117 -0.643408 1
-2.6238799 2.0265012 0.29005429 7
-2.6026871 2.0108597 -0.52092683 5
-2.6182766 2.023634 0.40631241 3
-2.6304872 2.0338039 -0.40826234 7
-2.5988603 2.0093508 0.5203011 2
-2.6177361 2.0246763 -0.28953138 17
-2.6070578 2.0171444 0.64073664 1
-2.6202667 2.0280955 -0.17365071 15
-2.6240652 2.0317681 0.76618326 71
-2.6057162 2.017561 -0.057523135 130
-2.6101365 2.0217121 0.88464355 21
-2.6729136 2.076314 -0.90690196 1
-2.6151776 2.0314648 0.057802372 32
-2.6282094 2.0423231 -0.7684328 1
-2.6160131 2.0335791 0.17365071 11
-2.6269183 2.0427911 -0.64684254 2
-2.6277983 2.0442116 0.29127449 8
-2.5928867 2.0170531 -0.5203011 5
-2.6099849 2.0310864 0.40606871 5
-2.6033647 2.0266643 -0.40509373 9
-2.6074157 2.0305476 0.52342981 2
-2.6122243 2.0350261 -0.28970569 17
-2.5941591 2.0209525 0.63921016 1
-2.6056499 2.0306354 -0.17312735 16
-2.5955038 2.0241847 -0.057453319 131
-2.6061096 2.0331874 0.88567883 20
-2.6416662 2.0661237 -0.89861977 1
-2.6080706 2.0405812 0.057802372 36
-2.6456175 2.0707028 -0.77563125 1
-2.5978911 2.0340791 0.17291802 11
-2.5876677 2.0260744 -0.63882852 1
-2.6147308 2.0480003 0.29057723 6
-2.6029334 2.039494 -0.52374262 7
-2.6060038 2.0426338 0.40655616 5
-2.6103344 2.0467629 -0.40728739 8
-2.5692255 2.0152545 0.5171724 2
-2.6054616 2.0436776 -0.28970569 18
-2.5994451 2.039691 0.64226311 1
-2.6016886 2.0421844 -0.17333671 20
-2.5852773 2.0307617 -0.057383511 131
-2.5989971 2.0422714 0.88567883 25
-2.6131926 2.0585959 -0.89137286 1
-2.5993612 2.0484352 0.057767466 35
-2.5955226 2.0461445 -0.76303399 1
-2.5939114 2.0456088 0.17312735 10
-2.586746 2.0399578 -0.64035505 1
-2.5919237 2.0447748 0.28883412 7
-2.5957985 2.0485675 -0.52374262 6
-2.5957422 2.0492573 0.40606871 7
-2.5953844 2.0497103 -0.40606871 5
-2.5621753 2.0242105 0.5171724 2
-2.5936217 2.0490544 -0.28918275 22
-2.5799875 2.0390131 0.63921016 1
-2.6008105 2.0562088 -0.17375539 17
-2.5750368 2.0372918 -0.057313703 131
-2.5842774 2.0453372 0.88309062 31
-2.6332312 2.0893188 -0.90069032 1
-2.579664 2.0475512 0.057488225 35
-2.5822594 2.0503449 -0.76123434 1
-2.6023943 2.0670729 0.17417407 10
-2.5888333 2.0563014 -0.64264476 1
-2.58321 2.0525711 0.28865981 8
-2.5731683 2.0453238 -0.52061397 6
-2.5947881 2.0632477 0.40704364 5
-2.5959811 2.0649371 -0.40728739 8
-2.5659144 2.0417511 0.51936251 2
-2.5783005 2.0523422 -0.28831118 13
-2.5713181 2.0467839 0.63882852 1
-2.5858049 2.0590539 -0.17323203 15
-2.5710373 2.0487604 -0.057383511 131
-2.5741012 2.0519373 0.88205534 38
-2.6044304 2.0820677 -0.89344335 1
-2.5725017 2.0565429 0.057488225 35
-2.5811744 2.0642147 -0.76303399 1
-2.5873656 2.0699055 0.17365071 11
-2.5889432 2.0719097 -0.64455283 2
-2.5834467 2.0682507 0.28953138 8
-2.5548613 2.0460982 -0.51842386 5
-2.5720751 2.0598843 0.40460625 6
-2.5856593 2.0715032 -0.40679988 8
-2.5603132 2.0519309 0.51967537 2
-2.572675 2.0625765 -0.2884855 13
-2.5714569 2.0623362 0.64073664 1
-2.5751257 2.0660172 -0.17302269 15
-2.5623102 2.0564716 -0.057348609 128
-2.5714426 2.064538 0.88360828 40
-2.5941372 2.0887232 -0.89240813 1
-2.5696192 2.0697203 0.057592943 45
-2.5553823 2.0589893 -0.75763518 1
-2.5707927 2.0714064 0.17302269 12
-2.5679383 2.0698457 -0.64111823 1
-2.5793133 2.0797572 0.28988001 8
-2.5553916 2.0612044 -0.51998824 6
-2.5598738 2.0655575 0.40387502 7
-2.5626025 2.0684977 -0.4043625 9
-2.5500605 2.0583739 0.51904958 2
-2.5716603 2.0765502 -0.28918275 17
-2.5627148 2.0700662 0.64035505 1
-2.5663443 2.0737391 -0.17291802 17
-2.5582271 2.0679169 -0.057418417 130
-2.555207 2.0662134 0.88050246 13
-2.5838299 2.0953317 -0.89137286 1
-2.5705075 2.084528 0.057767466 48
-2.554594 2.0723622 -0.75943476 1
-2.5635464 2.0803676 0.17302269 13
-2.5408826 2.062711 -0.63615721 2
-2.5658512 2.0837238 0.28918275 11
-2.5608096 2.0796294 -0.52249116 6
-2.5591731 2.079042 0.40485001 7
-2.5557292 2.0769844 -0.4043625 9
-2.5413272 2.0660169 0.51873678 2
-2.5597591 2.0817435 -0.28865981 15
-2.5451744 2.0698822 0.63768369 3
-2.5579042 2.080977 -0.17281334 27
-2.5407553 2.0677624 0.75628549 1
-2.5416882 2.0692592 -0.057208989 128
-2.5464809 2.0739 0.8799848 41
-2.5529237 2.0843408 -0.88309062 1
-2.5461788 2.0795736 0.057383511 45
-2.5413077 2.0763357 -0.75763518 2
-2.5547225 2.0880396 0.17291802 15
-2.5492296 2.08355 -0.6399734 2
-2.5543005 2.0884373 0.28865981 10
-2.5458894 2.0823026 -0.52092683 7
-2.5549729 2.0904765 0.40533748 7
-2.55 2.0871496 -0.40460625 9
-2.5356283 2.0761268 0.51904958 7
-2.5451334 2.0839093 -0.28778824 22
-2.5348959 2.0762661 0.63692045 2
-2.5568044 2.0949564 -0.17323203 20
-2.531357 2.075583 -0.057139181 128
-2.5362389 2.0803261 0.87894952 55
-2.5366797 2.0858767 -0.8799848 1
-2.5342708 2.0846384 0.057278797 48
-2.5415685 2.0913851 -0.75988466 1
-2.5551286 2.1032906 0.17344138 13
-2.5298152 2.0824535 -0.63692045 2
-2.5454564 2.0960748 0.2884855 11
-2.520309 2.0761051 -0.5171724 5
-2.5400007 2.0930696 0.40411878 10
-2.5472937 2.0998271 -0.40533748 13
-2.532938 2.0887353 0.51998824 2
-2.5363066 2.0915134 -0.28761396 17
-2.5276332 2.0851014 0.63692045 1
-2.5417736 2.0975125 -0.17270868 30
-2.5271807 2.0869524 -0.057208989 126
-2.5215149 2.0830147 0.87636131 68
-2.5412862 2.1045763 -0.88412589 1
-2.5300581 2.0960233 0.057348609 53
-2.5252502 2.0927825 -0.75718528 1
-2.5446961 2.1096475 0.17323203 21
-2.5331106 2.1000426 -0.63959181 2
-2.5488591 2.1138506 0.28970569 10
-2.5160878 2.0874124 -0.51779813 5
-2.5219855 2.0930495 0.40241259 8
-2.5384209 2.1074378 -0.40509373 14
-2.5195534 2.0925157 0.51873678 3
-2.5335891 2.1041725 -0.2881369 13
-2.5158088 2.0901487 0.63577563 1
-2.5282924 2.1012659 -0.17228998 23
-2.5198798 2.0957618 -0.057208989 128
-2.5231388 2.0992172 0.87946719 60
-2.5546937 2.1307583 -0.89137286 1
-2.5304041 2.1112473 0.057523135 82
-2.5209217 2.1040821 -0.75808507 1
-2.5296504 2.1121175 0.17270868 15
-2.5242569 2.1076143 -0.63921016 4
-2.5399363 2.1214571 0.28953138 11
-2.5118175 2.0987153 -0.51842386 5
-2.5298955 2.1145711 0.40485001 8
-2.5295269 2.1150122 -0.40485001 13
-2.5107183 2.1000302 0.51842386 2
-2.53387 2.119395 -0.28900844 15
-2.5115089 2.1014376 0.63653886 1
-2.5224741 2.1113598 -0.17239466 26
-2.5156147 2.1071134 -0.057278797 130
-2.5231998 2.1142149 0.88205534 62
-2.5176563 2.1148114 -0.88102001 1
-2.5184259 2.1162078 0.057418417 57
-2.5046115 2.1053455 -0.7553857 1
-2.5207341 2.1196489 0.17260399 11
-2.512377 2.1126215 -0.63806528 3
-2.5264168 2.1251802 0.28883412 11
-2.5105217 2.1125586 -0.51967537 6
-2.51035 2.1131616 0.4029001 8
-2.5221286 2.1238289 -0.40485001 13
-2.4943075 2.1011462 0.51654667 2
-2.5203609 2.1230931 -0.28831118 15
-2.513166 2.1177814 0.63882852 1
-2.5242512 2.127876 -0.17302269 61
-2.5006022 2.1094341 -0.057104275 118
-2.5113754 2.1192722 0.88050246 48
-2.5043592 2.1185961 -0.87894952 1
-2.5079706 2.1224024 0.057348609 46
-2.5091457 2.1241484 -0.75898486 1
-2.5163682 2.1310165 0.17281334 17
-2.5079837 2.1239161 -0.63882852 3
-2.5083416 2.1249709 0.28761396 12
-2.5136817 2.1302485 -0.52186543 3
-2.5196142 2.1360319 0.40558121 8
-2.5071299 2.1262002 -0.4036313 10
-2.4944899 2.1162293 0.51811105 2
-2.5083768 2.1280103 -0.28778824 36
-2.5057583 2.1265411 0.63882852 1
-2.5198526 2.1392601 -0.17323203 26
-2.4962718 2.1207397 -0.057174087 119
-2.4907131 2.1167667 0.87584364 31
-2.4881253 2.119808 -0.87584364 1
-2.5005469 2.1311438 0.057348609 48
-2.4750228 2.1101363 -0.75088662 2
-2.508914 2.1397872 0.17281334 21
-2.4915922 2.1250138 -0.63653886 4
-2.5024242 2.1350069 0.28778824 15
-2.4836924 2.1197743 -0.5171724 6
-2.4985557 2.1332135 0.40338758 7
-2.5102589 2.1439633 -0.40533748 13
-2.4870875 2.1249239 0.51811105 2
-2.4888151 2.1263998 -0.28639376 11
-2.4774261 2.1174173 0.63348591 1
-2.5047803 2.1415529 -0.17270868 17
-2.4903729 2.1307402 -0.057208989 120
-2.4789062 2.1216798 0.87429082 17
-2.5041695 2.1486073 -0.88412589 1
-2.4885402 2.1359522 0.057243895 50
-2.473556 2.123841 -0.75268626 1
-2.5014298 2.1485314 0.17281334 20
-2.4916062 2.1400938 -0.63844693 5
-2.4949565 2.1437292 0.28778824 13
-2.4822698 2.1335816 -0.51842386 7
-2.4880834 2.1393337 0.4029001 8
-2.4997499 2.1501238 -0.40485001 7
-2.4781578 2.1323042 0.51779813 2
-2.4798672 2.133775 -0.28621945 8
-2.4789476 2.1337368 0.63577563 1
-2.4882083 2.1424642 -0.17208064 30
-2.4844346 2.1407263 -0.057243895 122
-2.4802651 2.137887 0.87739658 13
-2.5171182 2.175019 -0.89137286 1
-2.4780433 2.1420107 0.057174087 52
-2.4779205 2.1426592 -0.75628549 2
-2.4863617 2.1507175 0.17228998 22
-2.4796655 2.1449254 -0.6373021 3
-2.4949915 2.1589439 0.28865981 12
-2.4688334 2.1370616 -0.5171724 6
-2.4821012 2.1493053 0.40314382 8
-2.4832265 2.1510382 -0.40338758 8
-2.4721928 2.1422346 0.51811105 2
-2.4754157 2.1450272 -0.28656808 8
-2.4625833 2.1346614 0.63348591 1
-2.4807143 2.1511364 -0.17208064 37
-2.470906 2.1441426 -0.057104275 122
-2.4742463 2.1477981 0.87791425 12
-2.4614189 2.1419427 -0.87429082 2
-2.4765847 2.1558988 0.057313703 52
-2.4674869 2.148736 -0.7553857 1
-2.4728153 2.1541362 0.1718713 25
-2.4588404 2.1419623 -0.63386756 3
-2.4784281 2.1597855 0.28761396 15
-2.4688034 2.1521573 -0.51873678 6
-2.4745836 2.1579566 0.40314382 8
-2.4771993 2.1609974 -0.4036313 9
-2.4498158 2.1378636 0.51498228 2
-2.4784203 2.1628256 -0.28778824 11
-2.466949 2.1535733 0.63653886 1
-2.4822173 2.1676648 -0.17270868 45
-2.4588892 2.1488073 -0.05699956 120
-2.4696434 2.1589642 0.87894952 11
-2.4815323 2.1747127 -0.88412589 1
-2.4645331 2.1605759 0.057208989 57
-2.4892735 2.1830347 -0.76438367 1
-2.4682839 2.1653883 0.17208064 22
-2.4616797 2.1595945 -0.63653886 3
-2.4633865 2.1618528 0.28674239 12
-2.4672136 2.1659749 -0.51998824 8
-2.4700193 2.1692004 0.4036313 8
-2.4800801 2.1788027 -0.40533748 8
-2.4423382 2.1464019 0.51498228 2
-2.4558899 2.1583116 -0.28604513 16
-2.4490957 2.1530972 0.63386756 1
-2.473135 2.1749976 -0.17260399 42
-2.4536531 2.1586235 0.75448585 1
-2.4498723 2.1560562 -0.056964654 122
-2.4533916 2.1599131 0.87584364 10
-2.4971008 2.2038147 -0.89240813 1
-2.4524784 2.1651957 0.057104275 58
-2.4495044 2.1633298 -0.75448585 1
-2.4666977 2.1792808 0.17249933 22
-2.4497123 2.1642747 -0.63539398 3
-2.4588103 2.1730778 0.28709102 16
-2.4448392 2.1614892 -0.51685953 8
-2.4564846 2.172549 0.40265635 8
-2.4754324 2.1900778 -0.40582496 7
-2.4392693 2.1588414 0.51592094 3
-2.4558012 2.1734726 -0.2869167 18
-2.4400949 2.1603317 0.63348591 1
-2.4655278 2.1836171 -0.17260399 38
-2.4577718 2.1775136 0.75808507 1
-2.448318 2.1698995 -0.057104275 122
-2.4371638 2.1607745 0.87273788 10
-2.4518497 2.1791506 -0.87894952 1
-2.4478951 2.1764004 0.057174087 63
-2.4361134 2.1666868 -0.75268626 1
-2.4635515 2.1918607 0.17281334 21
-2.4421425 2.1728127 -0.63539398 4
-2.4512105 2.1816471 0.28709102 13
-2.4402299 2.1726372 -0.51748526 6
-2.447403 2.1797907 0.40241259 8
-2.4529517 2.1854994 -0.40338758 8
-2.4287694 2.1647143 0.51529521 3
-2.4496868 2.1833575 -0.28709102 16
-2.4310732 2.1675301 0.63310426 1
-2.4489474 2.1842339 -0.17197597 42
-2.44222 2.1797647 -0.057139181 121
-2.4497809 2.1872814 0.8799848 7
-2.4240756 2.1696584 -0.87170261 3
-2.4402831 2.184932 0.057174087 57
-2.4343419 2.180378 -0.75448585 1
-2.442498 2.1884515 0.1718713 26
-2.4433162 2.1891847 -0.63768369 5
-2.4480309 2.1941795 0.28761396 12
-2.4429264 2.1903732 -0.51967537 7
-2.4338682 2.1830187 0.40143764 8
-2.4305325 2.1807914 -0.40095019 8
-2.4344289 2.1850543 0.51811105 5
-2.4405677 2.1905644 -0.2869167 17
-2.4249532 2.1773148 0.63348591 1
-2.4442801 2.1954377 -0.17218532 40
-2.433109 2.1869397 -0.057104275 122
-2.4363854 2.1906524 0.87791425 8
-2.432272 2.1923344 -0.87739658 2
-2.4370966 2.1974542 0.057278797 67
-2.4151399 2.1784198 -0.75088662 1
-2.434844 2.1969643 0.1718713 25
-2.4298291 2.1924396 -0.63615721 4
-2.4388778 2.2013764 0.28743961 15
-2.4235358 2.188297 -0.5171724 7
-2.4291797 2.1941619 0.40192512 8
-2.4317424 2.1972475 -0.40241259 9
-2.4165277 2.1842673 0.51592094 5
-2.4329057 2.1990709 -0.2869167 16
-2.4115136 2.1804986 0.63195944 1
-2.4321582 2.1999373 -0.1718713 50
-2.4106352 2.1819994 -0.056755226 122
-2.4287236 2.1991439 0.87791425 6
-2.4117303 2.1891255 -0.87273788 1
-2.4264507 2.2032588 0.057208989 67
-2.4291582 2.2064917 -0.75763518 2
-2.4330728 2.2108228 0.17228998 30
-2.4250674 2.2035484 -0.63692045 3
-2.425282 2.2045155 0.28674239 16
-2.4158831 2.196743 -0.5171724 7
-2.4273798 2.2079709 0.4029001 8
-2.4299314 2.211066 -0.40338758 7
-2.4074285 2.1913593 0.51560807 5
-2.4178483 2.2008438 -0.28604513 22
-2.4140489 2.1981559 0.63463074 1
-2.4274168 2.2111042 -0.17208064 65
-2.4112849 2.1971791 0.7531361 2
-2.4044819 2.1917481 -0.056790132 120
-2.3981919 2.1867821 0.86963201 6
-2.4140558 2.2066538 -0.87636131 2
-2.4039872 2.1982214 0.05685994 67
-2.4085 2.20312 -0.75358605 2
-2.4242544 2.217531 0.17218532 27
-2.4188094 2.2133248 -0.6373021 3
-2.4175715 2.2129683 0.28674239 16
-2.4125707 2.2091649 -0.51811105 6
-2.4211218 2.2177711 0.40314382 10
-2.4221981 2.2195351 -0.40338758 8
-2.4074304 2.2060032 0.5171724 3
-2.4101512 2.2092702 -0.28604513 32
-2.3889971 2.1906466 0.63005131 2
-2.4211559 2.2209136 -0.17218532 60
-2.4075141 2.2091737 -0.057034463 123
-2.3966203 2.1999481 0.87170261 6
-2.3793328 2.1902082 -0.86652619 1
-2.4040411 2.2129526 0.057034463 63
-2.3968799 2.2071347 -0.75223631 2
-2.4150305 2.2246258 0.17208064 27
-2.4067376 2.2177637 -0.63615721 3
-2.4142268 2.225445 0.28726533 13
-2.4066839 2.218492 -0.51842386 7
-2.4049978 2.2177143 0.40168139 11
-2.4104471 2.2235177 -0.40265635 11
-2.3924565 2.2076952 0.51560807 5
-2.4112084 2.2257783 -0.28709102 46
-2.39326 2.2092102 0.63310426 1
-2.4035063 2.2194455 -0.17145261 65
-2.3997879 2.2175641 -0.057034463 122
-2.3917634 2.2109232 0.87273788 5
-2.3805585 2.2059648 -0.86963201 1
-2.3919015 2.2172527 0.056929749 75
-2.3920193 2.2181373 -0.7531361 1
-2.3970003 2.2235343 0.17134793 28
-2.3964911 2.223062 -0.63539398 3
-2.4053731 2.2320836 0.28709102 13
-2.3931341 2.2215037 -0.5171724 10
-2.3943329 2.2233934 0.40119389 10
-2.3910353 2.2211099 -0.40070644 12
-2.3818412 2.2133436 0.51498228 3
-2.3979762 2.228337 -0.28639376 33
-2.3769069 2.2095301 0.63081461 1
-2.3972068 2.2291818 -0.17155728 71
-2.3891046 2.2232029 -0.056964654 122
-2.3882735 2.2232075 0.87429082 3
-2.3897927 2.2300773 -0.87584364 1
-2.3929181 2.2337761 0.057139181 76
-2.3899593 2.2317939 -0.75493574 1
-2.3936028 2.2359784 0.17166196 27
-2.3958898 2.2381148 -0.6373021 3
-2.3946555 2.2377458 0.28674239 13
-2.3839226 2.2284944 -0.51685953 8
-2.393806 2.2385173 0.40241259 8
-2.3876166 2.233511 -0.40143764 13
-2.3712168 2.2189443 0.51435655 3
-2.3916385 2.2380548 -0.28656808 45
-2.3720455 2.2204976 0.63157779 2
-2.389411 2.237536 -0.17155728 68
-2.3711154 2.2219577 -0.056720324 122
-2.3819077 2.2328517 0.87480837 5
-2.3791776 2.2357605 -0.87480837 1
-2.3821924 2.2393756 0.057069372 75
-2.3764756 2.2347829 -0.7531361 1
-2.3901467 2.248426 0.17197597 31
-2.3666127 2.2262871 -0.63157779 2
-2.3853791 2.244725 0.28656808 12
-2.3761292 2.2368023 -0.51685953 8
-2.3888681 2.2495818 0.4029001 10
-2.3870311 2.248637 -0.40265635 15
-2.3692074 2.2326272 0.51560807 2
-2.3722115 2.2354581 -0.28517357 32
-2.3585658 2.2233775 0.63005131 1
-2.3844924 2.2486029 -0.17176662 68
-2.367708 2.234338 -0.056825034 122
-2.3614564 2.2292171 0.87014967 3
-2.3910036 2.262641 -0.88205534 1
-2.3641956 2.2380543 0.056825034 85
-2.3686597 2.2430654 -0.7531361 1
-2.3866339 2.2608757 0.17228998 30
-2.3631034 2.238585 -0.63272268 2
-2.3746367 2.2502971 0.28621945 18
-2.3654389 2.2423654 -0.5162338 8
-2.3752398 2.2524424 0.40192512 11
-2.377727 2.2555892 -0.40241259 13
-2.3656974 2.2449632 0.51654667 3
-2.3716195 2.2505832 -0.28604513 40
-2.3579104 2.2383547 0.63195944 1
-2.3722842 2.2527871 -0.17145261 62
-2.3584452 2.2412114 -0.056790132 122
-2.3564608 2.2401085 0.87118495 3
-2.3495264 2.2389879 -0.86963201 1
-2.3578169 2.2476726 0.05685994 100
-2.3636367 2.254009 -0.75403595 2
-2.3787274 2.2691927 0.17228998 33
-2.3595364 2.2508855 -0.63386756 2
-2.3653257 2.2571969 0.28604513 20
-2.3490248 2.2424242 -0.51435655 8
-2.3573134 2.2511232 0.40021896 11
-2.3698382 2.263876 -0.40241259 12
-2.346422 2.2422891 0.51404375 3
-2.3608685 2.2560945 -0.28569651 31
-2.3429866 2.2397888 0.63005131 1
-2.3644054 2.2610548 -0.17145261 61
-2.3549418 2.2535779 -0.056894846 123
-2.3542085 2.2536645 0.87325549 3
-2.3695736 2.2739277 -0.8799848 1
-2.3470709 2.2531202 0.056790132 90
-2.3585653 2.2649457 -0.75493574 1
-2.3578291 2.2650297 0.17134793 32
-2.3544965 2.2618282 -0.63463074 2
-2.3660517 2.2737229 0.28709102 20
-2.3483028 2.2574551 -0.51592094 7
-2.3508718 2.2607141 0.40046272 13
-2.3519077 2.2625005 -0.40070644 11
-2.3428507 2.254575 0.51498228 6
-2.360157 2.2712293 -0.28656808 36
-2.3436403 2.2561231 0.63234103 1
-2.3521829 2.2651377 -0.1711386 68
-2.3470604 2.2617853 -0.056894846 123
-2.3379829 2.2538235 0.87014967 3
-2.3421738 2.2633903 -0.87273788 1
-2.3478181 2.2696385 0.05699956 97
-2.3310328 2.2541993 -0.74863708 1
-2.3484731 2.271857 0.17124327 33
-2.3381209 2.2618425 -0.63234103 3
-2.3538051 2.2778115 0.28656808 21
-2.3432472 2.2683864 -0.51654667 7
-2.345818 2.2716682 0.40095019 11
-2.3411443 2.2679343 -0.40021896 11
-2.3307109 2.2586155 0.51404375 3
-2.3432333 2.271544 -0.28552222 36
-2.3357506 2.2642901 0.63234103 1
-2.3514307 2.2802866 -0.17166196 66
-2.3305409 2.2616079 -0.056685418 123
-2.3425765 2.2740812 0.87480837 2
-2.3310933 2.2692652 -0.87170261 1
-2.3398814 2.2778201 0.05699956 100
-2.3426962 2.2813559 -0.75493574 1
-2.3419585 2.281435 0.17134793 38
-2.3340328 2.274508 -0.63348591 2
-2.3425879 2.2836413 0.28621945 23
-2.3377459 2.2797182 -0.5171724 7
-2.3464012 2.2881584 0.40241259 12
-2.3403182 2.2830234 -0.40143764 14
-2.322813 2.266737 0.51404375 5
-2.3338642 2.2783177 -0.28534791 40
-2.3218174 2.2673492 0.63081461 1
-2.3401999 2.2860985 -0.17145261 77
-2.319772 2.2669342 -0.056615606 122
-2.3415315 2.2889969 0.87739658 3
-2.3314354 2.285502 -0.87480837 1
-2.3229504 2.2779803 0.056790132 92
-2.3454473 2.3008449 -0.75853497 1
-2.3425353 2.2979882 0.17197597 36
-2.3246782 2.281266 -0.63310426 2
-2.3289144 2.2862222 0.28552222 23
-2.3184986 2.276792 -0.51466948 8
-2.330919 2.2897871 0.40119389 12
-2.3347664 2.2943685 -0.40192512 13
-2.3162947 2.2762165 0.51435655 5
-2.3216348 2.2822604 -0.28482497 35
-2.3194885 2.2809458 0.63234103 2
-2.3322055 2.2942533 -0.17145261 85
-2.3175459 2.2806284 -0.056755226 123
-2.3321507 2.2958007 0.87687898 2
-2.3138196 2.2841263 -0.87118495 3
-2.316807 2.2870753 0.056825034 100
-2.3128457 2.283963 -0.75043672 1
-2.3288164 2.3005362 0.17155728 37
-2.3264761 2.2990265 -0.63577563 3
-2.3237538 2.2971394 0.28587085 21
-2.3179598 2.2914116 -0.5162338 8
-2.3233128 2.2975042 0.40119389 11
-2.3243227 2.2993062 -0.40143764 13
-2.3111432 2.2870669 0.51498228 6
-2.32215 2.2987602 -0.28587085 32
-2.3021452 2.2789569 0.62966973 2
-2.3189077 2.2963533 -0.17103392 80
-2.3180938 2.2971489 -0.056964654 123
-2.3227501 2.302568 0.87636131 2
-2.3130839 2.2985952 -0.87377316 5
-2.3102272 2.2965589 0.05685994 100
-2.3076231 2.2947702 -0.75133651 1
-2.3151078 2.3030171 0.1711386 31
-2.3202312 2.3081136 -0.63615721 3
-2.3132987 2.3020215 0.28552222 21
-2.3085475 2.2980945 -0.51592094 7
-2.3124657 2.3027987 0.40070644 11
-2.3162823 2.3074057 -0.40143764 13
-2.3059449 2.2979088 0.51560807 6
-2.3201594 2.3120735 -0.28656808 38
-2.2913952 2.2842069 0.62890649 2
-2.3137064 2.3072546 -0.17124327 77
-2.3072295 2.3024023 -0.056894846 122
-2.3078623 2.3038378 0.87377316 2
-2.2995839 2.3011894 -0.87170261 5
-2.302197 2.3046086 0.05685994 100
-2.2913368 2.2945378 -0.74863708 1
-2.3070548 2.3110843 0.1711386 32
-2.301064 2.305083 -0.63310426 3
-2.3080642 2.3129027 0.28587085 21
-2.3046968 2.3103347 -0.51685953 8
-2.3016093 2.3080461 0.40021896 13
-2.3082144 2.3154764 -0.40143764 13
-2.2909379 2.2989478 0.51404375 3
-2.3064492 2.3145134 -0.28587085 45
-2.300034 2.308883 0.63348591 2
-2.3014112 2.3110704 -0.17092925 76
-2.285073 2.2962675 -0.056545798 123
-2.3161554 2.3283148 0.8799848 2
-2.2888157 2.3064601 -0.87066728 5
-2.2941382 2.3126309 0.05685994 100
-2.3080125 2.3274293 -0.75673532 1
-2.3045976 2.3247969 0.17155728 41
-2.2847106 2.3047357 -0.63081461 3
-2.2999768 2.3209455 0.28587085 27
-2.2924476 2.3141551 -0.51592094 8
-2.300523 2.3231182 0.40143764 13
-2.2945316 2.3178766 -0.40046272 12
-2.2870672 2.3111429 0.51498228 6
-2.285743 2.3098047 -0.28430203 31
-2.2878189 2.3127096 0.63234103 1
-2.3031604 2.329031 -0.17166196 65
-2.282666 2.3099196 -0.056685418 123
-2.2781463 2.3061497 0.86859673 2
-2.2699027 2.3034275 -0.86652619 4
-2.2790351 2.3135021 0.056685418 100
-2.2889352 2.3243635 -0.7531361 1
-2.2992709 2.335674 0.17176662 43
-2.2862928 2.3224907 -0.63348591 3
-2.2834759 2.3204389 0.28482497 22
-2.2829704 2.3207355 -0.51560807 8
-2.2923999 2.3311343 0.40143764 13
-2.2919929 2.3315344 -0.40143764 13
-2.2762167 2.3162944 0.51435655 5
-2.2776661 2.3177693 -0.28430203 28
-2.2714772 2.3122785 0.63005131 1
-2.2908182 2.3327811 -0.17134793 73
-2.2717884 2.3150187 -0.056615606 123
-2.2836108 2.3278785 0.87377316 2
-2.2780623 2.3279057 -0.87273788 1
-2.2723444 2.3228722 0.056720324 100
-2.286258 2.3379123 -0.75493574 1
-2.2915127 2.343286 0.17176662 47
-2.2699373 2.3220336 -0.6311962 1
-2.2809327 2.3340952 0.28552222 31
-2.265193 2.318799 -0.51341796 7
-2.2773142 2.332021 0.40021896 13
-2.2856357 2.3405426 -0.40168139 12
-2.2699025 2.3252442 0.51466948 3
-2.2793024 2.3356874 -0.28552222 42
-2.2579081 2.3145719 0.62852484 1
-2.2770832 2.3350444 -0.17092925 68
-2.2696822 2.3282669 -0.056755226 124
-2.2691374 2.3285208 0.87118495 2
-2.2541711 2.3188248 -0.86652619 3
-2.2674162 2.3332632 0.056790132 113
-2.2866397 2.353868 -0.75763518 1
-2.2753794 2.3422768 0.1711386 46
-2.2676957 2.3351822 -0.63272268 1
-2.2787311 2.3473647 0.28621945 26
-2.2574909 2.326298 -0.51341796 5
-2.2709503 2.3409851 0.40046272 12
-2.2681859 2.3381352 -0.39997521 13
-2.2608051 2.3313394 0.51435655 3
-2.2757046 2.3475246 -0.28604513 40
-2.259784 2.3319159 0.6311962 1
-2.2665489 2.3397126 -0.17071991 73
-2.2647309 2.3386536 -0.056825034 126
-2.2694652 2.3443611 0.87429082 2
-2.2612309 2.3415735 -0.87222022 7
-2.2652214 2.346524 0.056929749 120
-2.2707024 2.3530235 -0.75493574 1
-2.2745347 2.3569949 0.17166196 52
-2.2626653 2.3455153 -0.63348591 1
-2.2695513 2.3534741 0.28604513 28
-2.2648454 2.3494146 -0.51685953 8
-2.2700622 2.3556499 0.40168139 11
-2.2604198 2.345644 -0.39997521 13
-2.2516909 2.3374014 0.51404375 3
-2.2651432 2.3521881 -0.28569651 43
-2.2615697 2.3492978 0.63386756 1
-2.2643173 2.3529725 -0.1711386 76
-2.2500317 2.3389454 -0.056650508 127
-2.2563221 2.3463039 0.87222022 2
-2.2414174 2.3365126 -0.86756152 6
-2.2560437 2.3525801 0.056894846 123
-2.2709785 2.3689811 -0.75763518 1
-2.2667062 2.3645246 0.17166196 41
-2.2548749 2.3530059 -0.63348591 2
-2.2562213 2.3552322 0.28534791 25
-2.2474782 2.3469255 -0.51466948 7
-2.266356 2.3674667 0.40241259 10
-2.2540016 2.3545611 -0.40021896 15
-2.2398303 2.340574 0.51310509 2
-2.2476902 2.3496084 -0.28447634 35
-2.2537668 2.3567846 0.63386756 1
-2.2634027 2.367687 -0.17166196 82
-2.2367373 2.3406107 -0.056510892 130
-2.2525325 2.3579643 0.87377316 2
-2.2355034 2.3475094 -0.86859673 7
-2.2391331 2.3521426 0.056685418 122
-2.25422 2.3688188 -0.75493574 1
-2.2562337 2.3717635 0.17155728 31
-2.2340577 2.3484519 -0.63005131 2
-2.250319 2.366374 0.28569651 21
-2.2361391 2.3522837 -0.51404375 7
-2.2453573 2.3628061 0.40021896 8
-2.2599835 2.37903 -0.4029001 12
-2.2321861 2.3505898 0.51341796 2
-2.2404349 2.3592761 -0.28465065 40
-2.2424107 2.3621807 0.63310426 1
-2.2560835 2.3774161 -0.17176662 88
-2.2359896 2.357888 -0.056720324 130
-2.2354875 2.3581839 0.87066728 2
-2.2299502 2.3581057 -0.86963201 5
-2.2322826 2.3613977 0.056720324 118
-2.2405834 2.3710074 -0.7531361 1
-2.253427 2.3854325 0.17197597 41
-2.2352836 2.3662262 -0.63272268 2
-2.2434137 2.375663 0.28587085 17
-2.2374065 2.3701301 -0.5162338 8
-2.2357333 2.3691857 0.39997521 7
-2.24213 2.3767962 -0.40119389 15
-2.2415862 2.3770497 0.51748526 2
-2.237654 2.37288 -0.28534791 33
-2.2233772 2.358566 0.63005131 1
-2.2354434 2.372195 -0.17082457 65
-2.2291157 2.367135 -0.056755226 125
-2.2166488 2.3547196 0.86652619 2
-2.2177384 2.3616502 -0.86807907 4
-2.2267635 2.3720915 0.056790132 120
-2.2429616 2.3901823 -0.75673532 1
-2.2286885 2.3758044 0.17071991 33
-2.2323823 2.3797424 -0.63424915 3
-2.2337444 2.382026 0.28569651 12
-2.2210135 2.3692787 -0.51435655 8
-2.2247343 2.3740792 0.39948773 7
-2.229749 2.3802619 -0.40046272 13
-2.2143719 2.3646736 0.51310509 2
-2.2307193 2.3821306 -0.28552222 32
-2.231231 2.3835118 0.63463074 1
-2.2298791 2.3828998 -0.17103392 56
-2.2032602 2.3552783 0.74458802 2
-2.2235706 2.3778229 -0.056825034 122
-2.1859891 2.3384511 0.85772634 10
-2.2147508 2.3750293 -0.87014967 2
-2.2171061 2.378387 0.056755226 122
-2.2160056 2.3780375 -0.75043672 1
-2.2258277 2.3894148 0.1711386 28
-2.2133567 2.3760276 -0.6311962 2
-2.2294896 2.3941832 0.28621945 11
-2.2154222 2.3799083 -0.51498228 7
-2.216434 2.3818297 0.39948773 7
-2.2187223 2.3851235 -0.39997521 12
-2.2074487 2.373836 0.51341796 2
-2.2237465 2.3913624 -0.28569651 31
-2.1934907 2.3596509 0.62623513 3
-2.2283454 2.3979845 -0.17155728 67
-2.1684988 2.3343999 0.73558998 10
-2.2043717 2.3738468 -0.056545798 122
-2.0503247 2.2087297 0.80751544 2
-2.2077594 2.3841631 -0.87066728 1
-2.2128661 2.3905137 0.05685994 121
-2.2315145 2.4115043 -0.75853497 1
-2.2215424 2.4015684 0.17145261 33
-2.2117155 2.3909452 -0.63310426 2
-2.2102973 2.3902478 0.28482497 11
-2.2044187 2.3847265 -0.51435655 3
-2.2188842 2.4012158 0.40143764 7
-2.2144244 2.3972285 -0.40070644 10
-2.1897688 2.3713679 0.51122791 8
-2.2086279 2.3917909 -0.28482497 35
-2.1626027 2.3427691 0.61974764 9
-2.2199612 2.4057484 -0.17155728 68
-2.1960719 2.3815272 -0.056545798 123
-2.0111773 2.1817834 0.79509211 1
-2.217731 2.4117632 -0.87791425 1
-2.1923285 2.3849735 0.056545798 123
-2.2257202 2.4221489 -0.75943476 1
-2.2090929 2.4048951 0.1711386 36
-2.2272627 2.4246755 -0.6399734 1
-2.1992447 2.3950143 0.28447634 11
-2.1813872 2.3763995 -0.51091504 5
-2.1823041 2.3782313 0.39631912 11
-2.2127521 2.4122579 -0.40192512 13
-2.1400909 2.333863 0.50152892 10
-2.1989191 2.3980174 -0.28465065 33
-1.9859325 2.1665056 0.57128215 3
-2.2048035 2.4061201 -0.17103392 66
-2.1917968 2.3936028 -0.056650508 121
-1.9931146 2.1773901 0.79095107 1
-2.214509 2.4251962 -0.8799848 1
-2.1759007 2.3837509 0.056336369 124
-2.264539 2.4817259 -0.77563125 1
-2.1966467 2.4081652 0.17082457 41
-2.2134931 2.4266336 -0.63844693 1
-2.1667073 2.3761766 0.28133872 20
-2.1970315 2.4102774 -0.51654667 6
-2.0429623 2.2420385 0.37243277 11
-2.2016447 2.4170322 -0.40143764 12
-1.9803154 2.1748126 0.46586189 6
-2.1918762 2.4071517 -0.28482497 32
-1.962499 2.156002 0.56670272 3
-2.1910143 2.4078929 -0.17061524 60
-2.1767015 2.3938415 -0.056475986 123
-1.9906994 2.1900523 0.79302156 1
-2.2527459 2.484432 -0.89861977 1
-2.1621945 2.3854053 0.056196753 123
-2.1198447 2.3403244 0.16548631 36
-2.1944644 2.4227052 -0.63539398 1
-2.0019355 2.2109272 0.26094431 24
-2.1793261 2.4076796 -0.51435655 3
-1.9778517 2.1858623 0.36195198 9
-2.1905308 2.4217584 -0.40095019 8
-1.9713874 2.1802461 0.46554902 7
-2.1888058 2.4206989 -0.28552222 38
-1.9615437 2.1701217 0.56861085 3
-2.1839345 2.4170082 -0.17071991 60
-2.1522505 2.3836148 -0.056057129 122
-1.9959866 2.2113285 0.79819798 1
-2.2182062 2.463568 -0.88826698 1
-2.0347912 2.2606573 0.053090218 91
-2.2471588 2.4974744 -0.77563125 1
-1.9780973 2.1992145 0.15501912 116
-2.1663005 2.4084556 -0.62966973 1
-1.9702278 2.1912334 0.25780669 27
-2.1761904 2.421149 -0.51560807 3
-1.9675561 2.1897998 0.3614645 11
-2.1780851 2.4249592 -0.40021896 12
-1.9452881 2.166537 0.46116886 7
-2.1790109 2.4268427 -0.28534791 20
-1.9644474 2.1886439 0.57166374 2
-2.1754849 2.4246163 -0.17071991 67
-2.0571461 2.2943373 -0.053788319 103
-1.9805194 2.2096503 0.79509211 1
-2.2095935 2.4712956 -0.88826698 1
-2.2384264 2.5053041 -0.77563125 1
-1.9664177 2.2016368 0.15470509 105
-2.1774979 2.4379661 -0.63539398 1
-1.9599131 2.1951251 0.25745806 34
-2.1624634 2.4228361 -0.51435655 5
-1.9665086 2.2040603 0.36268318 16
-2.1696072 2.4325473 -0.40021896 5
-1.9482304 2.1851099 0.46367183 7
-2.1585932 2.4210498 -0.28377908 25
-1.9476523 2.1852281 0.56899244 2
-2.1045623 2.362108 -0.16580033 42
-1.9727937 2.2165506 0.79509211 1
-2.1778667 2.4529901 -0.87894952 1
-1.9472809 2.1940448 0.051205363 139
-2.2296684 2.5131018 -0.77563125 1
-1.9604315 2.2096395 0.15480977 100
-2.1715798 2.4484897 -0.63615721 1
-1.9482726 2.1974809 0.25693512 41
-2.1435118 2.4185424 -0.51185364 3
-1.9561701 2.2079396 0.36219573 16
-2.1637344 2.4430785 -0.40070644 12
-1.9383538 2.1886005 0.46304604 7
-2.0788105 2.3480151 -0.27436629 15
-1.9426148 2.1949539 0.56975567 4
-1.9573439 2.2123752 -0.15480977 102
-1.9368242 2.1899507 -0.051030833 145
-1.9654329 2.2230799 0.79509211 1
-2.1488502 2.4373918 -0.87066728 1
-1.9333816 2.1929905 0.051030833 140
-1.9553468 2.2194667 0.15501912 106
-2.1578295 2.4501617 -0.63463074 1
-1.9458569 2.2102497 0.25763237 41
-2.1224267 2.4108109 -0.50872493 8
-1.9435917 2.2084537 0.36122078 15
-2.0913725 2.3772097 -0.38876322 8
-1.9346164 2.1998031 0.46398467 6
-1.9522064 2.2205856 -0.25867823 30
-1.9301404 2.1954861 0.5682292 3
-1.9434042 2.2113526 -0.15428641 104
-1.926529 2.1936932 -0.050961025 141
-1.9576603 2.2299278 0.79509211 1
-2.1738467 2.4822907 -0.88412589 1
-1.9270326 2.2012303 0.051065743 141
-2.1483424 2.4548962 -0.7531361 1
-1.9396973 2.2172594 0.15439108 111
-2.1109128 2.4129751 -0.62318224 7
-1.9424514 2.2211895 0.25815532 28
-2.012589 2.3022025 -0.48432118 6
-1.9371771 2.2167194 0.3614645 16
-1.9459321 2.2275224 -0.36317068 9
-1.9256268 2.2050552 0.46367183 5
-1.9487635 2.2315493 -0.25920117 37
-1.9198827 2.1992521 0.56746602 3
-1.9277945 2.2090933 -0.15365838 99
-1.9433585 2.2277131 0.68250149 1
-1.9188597 2.2004049 -0.050961025 141
-1.9422483 2.2280099 0.79198635 2
-2.1169982 2.4344685 -0.86445564 1
-1.9272079 2.2169993 0.051275171 142
-2.0911875 2.4064841 -0.73603982 9
-1.9267071 2.2179849 0.1539724 109
-1.9389659 2.2320969 -0.57471669 6
-1.9333797 2.2264524 0.25798097 39
-1.9307297 2.2241845 -0.46648762 9
-1.9346322 2.2294648 0.36243945 11
-1.9316409 2.2268035 -0.36195198 8
-1.9101528 2.2028089 0.46179458 5
-1.9396566 2.2368329 -0.25902686 38
-1.9250535 2.2207754 0.57128215 3
-1.9239954 2.2203376 -0.1539724 91
-1.9189835 2.2153349 0.67665279 4
-1.9059311 2.2010427 -0.050821409 140
-1.9294019 2.2289336 0.78991574 21
-2.0781851 2.4067516 -0.8520323 10
-1.9155375 2.2191718 0.051170457 141
-1.9325498 2.239671 -0.68295145 2
-1.9241705 2.230747 0.15439108 111
-1.9273149 2.2343924 -0.57357186 10
-1.9203919 2.2271519 0.25728375 27
-1.9268233 2.2353992 -0.46742624 7
-1.9242458 2.233197 0.36195198 11
-1.9251515 2.2350368 -0.36219573 9
-1.9063189 2.213954 0.46273321 6
-1.9162366 2.2254722 -0.25693512 43
-1.9172899 2.2274816 0.57128215 7
-1.9305626 2.2436936 -0.1551238 79
-1.9315712 2.2456584 0.68385124 22
-1.9034513 2.2137473 -0.050961025 140
-1.9165727 2.229795 0.78784519 36
-1.9201347 2.2394676 -0.79043341 4
-1.9025744 2.2197709 0.051030833 141
-1.9107734 2.2301245 -0.67800248 4
-1.9228686 2.245034 0.15491444 120
-1.9131185 2.2336502 -0.57166374 8
-1.9087189 2.229301 0.25676081 27
-1.9087321 2.2301061 -0.46492329 7
-1.9177297 2.2414083 0.36219573 10
-1.919919 2.24476 -0.36268318 10
-1.9114155 2.2356095 0.46586189 12
-1.9188141 2.2442629 -0.25832963 47
-1.9146053 2.2401297 0.57280862 23
-1.914935 2.2413073 -0.15449576 83
-1.9275169 2.2568331 0.68520093 31
-1.8970113 2.2218988 -0.050995931 140
-1.9125406 2.2408795 0.78939813 37
-1.9035388 2.2358603 -0.78680992 3
-1.8961109 2.2279212 0.051065743 141
-1.8979254 2.230844 -0.67620283 6
-1.9176077 2.2547758 0.1551238 121
-1.9180284 2.2552705 -0.57547992 10
-1.9035072 2.2389855 0.25710943 27
-1.8996572 2.2352495 -0.4646104 10
-1.9098934 2.2480893 0.36219573 14
-1.9146413 2.2544751 -0.36317068 9
-1.9151063 2.2558203 0.4686777 30
-1.9109689 2.2509468 -0.25832963 52
-1.9105844 2.2512906 0.57395351 33
-1.904515 2.2449327 -0.15428641 86
-1.9158465 2.2590885 0.68385124 30
-1.8892432 2.2285075 -0.050995931 140
-1.9122 2.2563848 0.79250389 36
-1.9119365 2.2616701 -0.79353923 4
-1.893485 2.2406363 0.051205363 142
-1.8863547 2.2329891 -0.67485321 5
-1.9032828 2.2538259 0.15460044 100
-1.9050783 2.2559519 -0.57395351 10
-1.9188131 2.273021 0.26024702 20
-1.8943914 2.2448859 -0.46523616 9
-1.9122747 2.2668805 0.36414564 36
-1.9016415 2.2550738 -0.36219573 11
-1.9161332 2.2730637 0.47086781 43
-1.8941114 2.2469397 -0.25710943 48
-1.9077753 2.2639506 0.57547992 38
-1.8863738 2.2393465 -0.15344904 96
-1.9016734 2.2583089 0.6816017 33
-1.8840287 2.2381477 -0.051065743 140
-1.9018248 2.2600892 0.79146868 36
-1.8916104 2.2535331 -0.78836286 4
-1.884366 2.2457006 0.051170457 139
-1.8785479 2.2395608 -0.67485321 6
-1.9069537 2.274229 0.15554248 31
-1.8984538 2.2640922 -0.5743351 10
-1.9134263 2.2827594 0.26059568 40
-1.8903495 2.2560279 -0.46617478 7
-1.9043509 2.2735415 0.36414564 38
-1.8886601 2.2556107 -0.36122078 9
-1.8929716 2.2615616 0.46711335 34
-1.89265 2.2611773 -0.25798097 43
-1.9011202 2.2721024 0.57586157 36
-1.8875147 2.2566421 -0.15418173 91
-1.8912783 2.2619436 0.68070191 33
-1.8710743 2.2385738 -0.050926123 140
-1.8976395 2.2711623 0.79302156 38
-1.8750738 2.2497349 -0.78473938 5
-1.8769553 2.2535911 -0.67710268 4
-1.8964472 2.2778025 0.15533313 38
-1.88677 2.2661793 -0.57319027 6
-1.8914267 2.272579 0.25867823 36
-1.8900437 2.2717235 -0.46805197 7
-1.8976718 2.2817018 0.36438939 34
-1.887121 2.2698214 -0.36243945 8
-1.8901168 2.2742319 0.46836486 34
-1.8796521 2.2616408 -0.25728375 55
-1.8931781 2.2787242 0.57586157 36
-1.8885586 2.2739716 -0.15491444 72
-1.8846164 2.2700305 0.68115181 32
-1.8822998 2.2688513 0.78991574 35
-1.8659772 2.2547786 -0.78422177 4
-1.8864882 2.2803712 0.051659122 42
-1.8690778 2.2601287 -0.67710268 4
-1.8897566 2.2859483 0.1554378 41
-1.8813493 2.2757783 -0.57395351 9
-1.8822137 2.2776313 0.25850391 38
-1.8682626 2.2615554 -0.4646104 10
-1.890959 2.2898431 0.36463311 38
-1.8867691 2.2855794 -0.36390188 8
-1.8846805 2.2838633 0.46899059 34
-1.8628685 2.2574315 -0.25606358 23
-1.8802145 2.2792618 0.5743351 39
-1.8920465 2.2944181 -0.15585649 31
-1.885357 2.2871215 0.68430108 33
-1.8681175 2.2670143 -0.051275171 39
-1.8731407 2.2739162 0.78939813 37
-1.875266 2.2821741 -0.79146868 3
-1.8747085 2.2823074 0.051554412 43
-1.8549931 2.2591093 -0.67485321 3
-1.8804989 2.2909865 0.15533313 38
-1.877131 2.2868836 -0.57509834 7
-1.8793066 2.290349 0.25920117 38
-1.8628631 2.2711172 -0.46523616 10
-1.8716271 2.2826142 0.36243945 36
-1.8800374 2.2936876 -0.36414564 11
-1.8804532 2.2950118 0.46992919 40
-1.8814956 2.296284 -0.25972411 34
-1.8672712 2.2797351 0.57280862 36
-1.8764335 2.2917368 -0.15522847 34
-1.874894 2.2906723 0.68340129 33
-1.8817203 2.2998314 -0.05186855 46
-1.8688605 2.2849274 0.79095107 35
-1.8587402 2.2782278 -0.78784519 5
-1.8717862 2.2950358 0.051694028 41
-1.8434024 2.2610393 -0.67350346 4
-1.8687055 2.292892 0.15501912 36
-1.8728584 2.2979875 -0.57624322 9
-1.8788502 2.3061635 0.26024702 38
-1.8736359 2.3005807 -0.46992919 18
-1.8736746 2.3014483 0.36438939 36
-1.8720188 2.3002365 -0.36414564 36
-1.8749245 2.3046262 0.47055492 37
-1.8810132 2.3121102 -0.26076996 38
-1.8667347 2.2953777 0.57509834 36
-1.8633821 2.2920747 -0.15480977 34
-1.8631999 2.2926657 0.6820516 31
-1.8623334 2.2924166 -0.051554412 45
-1.8633082 2.2944367 0.79198635 35
-1.8544239 2.289206 -0.78939813 4
-1.8662798 2.3046639 0.051763836 43
-1.8502115 2.2856367 -0.67890227 7
-1.8606899 2.2994015 0.15501912 36
-1.8635899 2.3029852 -0.57586157 20
-1.8670304 2.3080604 0.25972411 36
-1.8680776 2.3101797 -0.47055492 31
-1.8643811 2.3064313 0.36414564 31
-1.858988 2.3005807 -0.36317068 31
-1.8569376 2.2988639 0.46805197 33
-1.8691744 2.3140128 -0.26024702 37
-1.8599437 2.3034079 0.57547992 34
-1.8616427 2.3063352 -0.15533313 33
-1.8564091 2.3006728 0.68250149 33
-1.8580858 2.3035731 -0.051659122 46
-1.8589263 2.3054383 0.79353923 33
-1.8427898 2.2911487 -0.78784519 6
-1.8607304 2.314281 0.051833645 41
-1.8617554 2.3163838 -0.68610072 28
-1.865162 2.3214517 0.15606584 36
-1.85554 2.3094759 -0.57586157 32
-1.8552197 2.3099029 0.25920117 38
-1.8587658 2.3151455 -0.47024205 32
-1.8600467 2.3175693 0.36487687 36
-1.8571577 2.3147972 -0.36438939 32
-1.8501382 2.3068726 0.46836486 34
-1.858593 2.3174145 -0.25989842 37
-1.8543488 2.3129497 0.57624322 33
-1.8560793 2.3159361 -0.15554248 33
-1.8508042 2.3101799 0.68340129 30
-1.8475338 2.3069229 -0.051589314 46
-1.8484532 2.3088965 0.79250389 33
-1.8432188 2.3081346 -0.79146868 30
-1.843907 2.309823 0.051589314 39
-1.8487967 2.3167751 -0.68430108 31
-1.8520647 2.3217037 0.15564716 34
-1.8535881 2.3236134 -0.57776964 32
-1.8459026 2.3148074 0.25902686 36
-1.8494414 2.3200758 -0.46992919 31
-1.851945 2.3240485 0.36487687 34
-1.8490658 2.3212662 -0.36438939 34
-1.8457654 2.3179531 0.46930346 35
-1.8504918 2.3238885 -0.25989842 36
-1.8425951 2.3148005 0.57509834 31
-1.8479834 2.3224013 -0.15554248 32
-1.8439413 2.318152 0.68385124 29
-1.8481814 2.3243148 -0.051833645 45
-1.8355734 2.3092861 0.79043341 33
