# .PCD v0.7 - Point Cloud Data file format
VERSION 0.7
FIELDS x y z intensity
SIZE 4 4 4 4
TYPE F F F F
COUNT 1 1 1 1
WIDTH 1406
HEIGHT 1
VIEWPOINT 0 0 0 1 0 0 0
POINTS 1406
DATA ascii
0.72147566 2.2647791 0.2079536 94
0.6995101 2.1944993 -0.36480519 100
2.1287055 6.6741381 0.86015391 1
0.70613337 2.2126122 -0.28517428 97
2.4673295 7.7265096 1.2846401 3
0.70608729 2.2111316 -0.20307288 100
2.4553208 7.6842756 1.5680684 5
0.70980209 2.2200937 -0.12215213 91
2.4659572 7.7082829 1.8684435 5
0.71388328 2.2301712 -0.040873535 100
0.76542783 2.3797481 -0.66982371 38
0.7192232 2.2347579 0.040978249 98
0.7556355 2.3464892 -0.56912619 24
0.72402632 2.2469923 0.12372221 91
0.7086888 2.1993926 -0.44916439 100
0.73060018 2.2660394 0.20830221 94
0.70898616 2.197684 -0.36574382 95
2.5044537 7.7585726 1.0010349 1
0.71080238 2.2006884 -0.2839556 87
2.5112963 7.7704792 1.2934003 3
0.71380186 2.2086532 -0.20307288 100
2.5014577 7.7354355 1.5802802 5
0.71754795 2.2176025 -0.12215213 91
2.5030551 7.7311444 1.8760917 5
0.72043073 2.2238615 -0.040803727 100
0.76775128 2.3586917 -0.66464734 3
0.72949731 2.2398393 0.041117873 94
1.2716246 3.9020731 -0.94749385 2
0.7355811 2.2558444 0.12435025 85
0.71636236 2.1969051 -0.44916439 98
0.74036032 2.2691574 0.20882516 100
0.7221691 2.2120969 -0.36855966 100
0.71848047 2.1981936 -0.2839556 94
2.5433116 7.7766871 1.2959032 3
0.72150564 2.2061486 -0.20307288 100
2.5430999 7.7714362 1.5894389 5
0.72777092 2.2226763 -0.12257081 88
2.5506499 7.7853265 1.8913884 5
0.72445214 2.2099316 -0.040594298 100
1.1391894 3.4587662 -0.97574782 4
0.73668492 2.2353799 0.041082963 100
1.2834077 3.8920579 -0.94614416 2
0.74345046 2.2532632 0.12435025 90
0.72402614 2.1943915 -0.44916439 100
0.74515313 2.2570996 0.2079536 94
0.72554976 2.1964324 -0.36636955 98
0.7525546 2.2768455 0.29443637 9
0.72739542 2.1994417 -0.28444308 91
2.5952671 7.8427758 1.308418 3
0.72732496 2.197942 -0.20254995 100
2.5918124 7.8277426 1.6027957 8
0.73552465 2.2201226 -0.12257081 88
2.593755 7.8244681 1.9030858 5
0.73468053 2.2149813 -0.040733919 100
1.1488137 3.447437 -0.97367728 4
0.74321896 2.2290008 0.041013155 100
1.2951347 3.882009 -0.94479448 2
0.7532081 2.2563381 0.12466426 87
0.7341677 2.1992998 -0.4506909 98
0.75050312 2.2469256 0.20725635 94
0.73258573 2.192013 -0.36605671 100
0.75608927 2.2610269 0.29273018 38
0.74010807 2.2119491 -0.28639299 91
2.6314056 7.8598943 1.3127981 3
0.73688984 2.2010579 -0.20307288 100
2.6315873 7.8558822 1.610428 5
0.74453992 2.221329 -0.12278017 88
2.6384037 7.8670993 1.9156833 5
0.74558717 2.2218828 -0.040908441 100
1.1682472 3.4653733 -0.97988898 5
0.74971634 2.2226033 0.040943347 100
1.3111714 3.8848498 -0.94659406 2
0.7598021 2.2499101 0.12445491 94
0.74184084 2.1967235 -0.4506909 98
0.76408154 2.2612803 0.20882516 100
0.74086607 2.1913135 -0.36636955 98
0.76524997 2.2621346 0.29321766 85
0.74909711 2.2131131 -0.28688046 94
2.6727688 7.8918223 1.3196814 3
0.74584734 2.2022462 -0.2034215 100
2.6778982 7.9024286 1.6218765 5
0.74972343 2.2111506 -0.12236147 88
2.6758645 7.8873687 1.9228816 2
0.75462455 2.2230535 -0.040978249 100
1.1765945 3.4503038 -0.9767831 4
0.76134419 2.2313282 0.041152775 100
1.3209473 3.8691835 -0.94389462 2
0.77152449 2.2585847 0.12508295 89
0.75331163 2.2052679 -0.45298058 100
0.77325845 2.2623701 0.20917378 97
0.75106806 2.1961906 -0.36762103 100
0.77571183 2.2669621 0.29419261 93
0.75167322 2.1954603 -0.28493056 87
2.7195075 7.9385061 1.3290673 3
0.75482202 2.2033987 -0.20377012 100
2.7156501 7.9227481 1.6279825 5
0.76002854 2.2160773 -0.12278017 88
2.7229903 7.9351201 1.9368286 5
0.76173002 2.2185147 -0.040943347 100
1.1886321 3.4461753 -0.9767831 5
0.77239066 2.2381082 0.041327298 98
1.343349 3.8903372 -0.95019323 1
0.77549094 2.2445509 0.12445491 91
0.75587654 2.1877797 -0.44992763 98
0.78115147 2.2596569 0.20917378 97
0.75872922 2.1935556 -0.36762103 98
0.78232241 2.2604885 0.29370514 92
0.75933284 2.1928227 -0.28493056 94
2.7666011 7.984962 1.3384535 3
0.76511741 2.2082813 -0.20446737 100
2.7670844 7.981853 1.6421022 5
0.76776004 2.2134106 -0.12278017 88
2.7775066 8.0028887 1.9557245 5
0.77012604 2.217731 -0.040978249 100
0.77888012 2.2316227 0.041257489 96
0.85514224 2.4487531 -0.59881973 6
0.78727359 2.2531433 0.12508295 85
0.76415581 2.1869814 -0.45030925 96
0.78706139 2.2512743 0.20865084 94
0.76833779 2.1964877 -0.36855966 100
0.7941435 2.2689857 0.2951676 92
0.77223098 2.2051475 -0.28688046 91
2.8258133 8.0647383 1.3534712 3
0.77018625 2.1980753 -0.20377012 100
2.8118193 8.0203152 1.6520243 5
0.77944773 2.2220252 -0.12340819 91
2.813817 8.0170488 1.9615731 5
0.77653807 2.2112558 -0.040908441 100
0.85599667 2.4266777 -0.68949395 12
0.78400362 2.2213476 0.041117873 96
0.85914201 2.4328909 -0.5956704 30
0.79407531 2.248637 0.12497827 90
0.775056 2.1935561 -0.45221734 98
0.79491556 2.248513 0.20865084 94
0.77138853 2.1807561 -0.36636955 98
0.80205846 2.2662001 0.2951676 100
0.77992421 2.2024381 -0.28688046 91
2.8677058 8.0981522 1.3606671 3
0.77851814 2.197252 -0.20394444 96
2.8470125 8.0308065 1.6562221 2
0.78719991 2.2192907 -0.12340819 86
0.7858727 2.2143223 -0.041013155 100
0.86900467 2.4364121 -0.69311744 27
0.79405224 2.2262695 0.041257489 96
0.86327577 2.4190159 -0.59297097 31
0.8032636 2.2496133 0.12518762 90
0.78336936 2.1926858 -0.45259899 96
0.80611223 2.2551053 0.2095224 97
0.78327101 2.1912069 -0.36855966 100
0.80555749 2.2523131 0.29370514 90
0.78856182 2.2035775 -0.28736794 94
2.4684534 6.8941274 1.1598053 2
0.79290336 2.2132776 -0.20568755 97
2.4293399 6.7811589 1.4001565 17
0.79320782 2.2129076 -0.12319885 86
0.79427218 2.2134478 -0.041048057 97
0.87839001 2.4371514 -0.69415271 24
0.80181807 2.2234843 0.041257489 96
0.86311698 2.3921576 -0.58712226 6
0.80907738 2.2411599 0.12487361 87
0.79063582 2.1900764 -0.45259899 93
0.81696981 2.2617893 0.21039395 94
0.79158694 2.1903167 -0.36887249 98
0.81341523 2.2494872 0.29370514 88
0.79354596 2.1933455 -0.28639299 91
2.4642653 6.8074565 1.1466647 24
0.80091733 2.2125094 -0.20586187 99
2.4563406 6.7818666 1.4020646 20
0.80228692 2.2138813 -0.12340819 91
0.80404019 2.216301 -0.041152775 100
0.8425799 2.3124578 -0.65947098 5
0.81231493 2.2281868 0.04139711 92
0.83005971 2.2756233 -0.5592283 25
0.81894934 2.2439506 0.12518762 90
0.79692912 2.1836145 -0.45183572 96
0.825544 2.2607951 0.21056828 89
0.80261767 2.1968172 -0.37043685 100
0.82262498 2.2503633 0.29419261 90
0.80119795 2.1905618 -0.28639299 91
2.4785106 6.7728415 1.1422846 2
0.80726665 2.2059577 -0.20551322 99
2.4955227 6.8156538 1.4108418 2
0.81275868 2.2185688 -0.12382689 96
0.80970562 2.2078488 -0.041048057 100
0.8346225 2.2659953 -0.64704764 36
0.82008731 2.2253377 0.04139711 98
0.84069324 2.2800264 -0.56102794 45
0.82816029 2.2448256 0.12539697 90
0.80590618 2.1845033 -0.45259899 93
0.82791072 2.2429469 0.20917378 87
0.80822664 2.1884437 -0.36949828 95
0.83666843 2.2642362 0.29638627 94
0.81159365 2.1951993 -0.28736794 94
0.81634295 2.2068644 -0.20586187 99
0.82049853 2.215718 -0.12382689 96
0.81810313 2.2068837 -0.041082963 100
0.8465699 2.2739315 -0.65015346 36
0.82645464 2.2187133 0.041327298 98
0.84388357 2.2642951 -0.55787861 29
0.83738524 2.2456644 0.12560631 90
0.81146723 2.1761587 -0.45145413 73
0.83712852 2.2437763 0.2095224 97
0.81447971 2.1819074 -0.36887249 98
0.84317631 2.2575834 0.2958988 94
0.82272518 2.2016504 -0.28858662 97
0.82473963 2.2058671 -0.20603617 100
0.82962757 2.2165816 -0.12403623 91
0.82860875 2.2115047 -0.041222587 100
0.85314214 2.2673461 -0.64911819 12
0.8327859 2.2120719 0.041257489 98
0.84733266 2.2483344 0.12592033 91
0.82736737 2.195358 -0.45603353 14
0.84776813 2.2482975 0.21021965 89
0.82487977 2.1864443 -0.37012401 95
0.84894907 2.2490544 0.2951676 92
0.82830197 2.1931939 -0.28785542 94
0.83032131 2.1973836 -0.20551322 100
0.83312058 2.2024634 -0.12340819 86
0.83773816 2.2123399 -0.041292395 100
3.2106984 8.4744902 2.4282403 2
1.293638 3.4019482 -0.97523022 5
0.84334528 2.2166281 0.04139711 96
1.4468814 3.8009462 -0.93894571 2
0.85233271 2.2378969 0.12550163 89
0.85702831 2.2490487 0.21056828 91
0.83250743 2.1835515 -0.37012401 98
0.85891771 2.2516415 0.2958988 97
0.8352443 2.1884351 -0.28761166 97
0.85901946 2.2495501 0.38138729 2
0.84011936 2.2000556 -0.20603617 100
0.84365571 2.2070045 -0.12382689 88
0.84688538 2.2131369 -0.041362204 100
3.2402582 8.463232 2.4282403 2
1.3020397 3.3883955 -0.972642 4
0.85538375 2.2248693 0.041606538 98
1.4650389 3.8086042 -0.94209504 2
0.86013883 2.2349081 0.12550163 89
1.6888733 4.3882184 -0.91397518 1
0.8663063 2.2497618 0.21091689 91
0.84296554 2.1880052 -0.37137547 95
0.86748564 2.2504818 0.29614252 92
0.84502077 2.1910625 -0.28834289 84
0.86686718 2.2465374 0.38138729 24
0.84636003 2.193392 -0.20568755 98
2.4337847 6.3040295 1.3135291 2
0.85423261 2.2114985 -0.12424557 88
0.85316277 2.2064373 -0.041292395 100
2.3455143 6.0627899 1.7418523 4
1.3117627 3.3784273 -0.97108907 5
0.86314428 2.2218702 0.041606538 96
1.4762056 3.798018 -0.94074529 2
0.87083101 2.2393379 0.12592033 92
1.7041818 4.3822956 -0.91397518 1
0.87126386 2.2392972 0.21021965 91
0.84988093 2.1832087 -0.37106261 100
0.88110012 2.2622378 0.29809242 100
0.85554743 2.1954978 -0.28931785 87
0.87470335 2.2434981 0.38138729 74
0.85111582 2.1829991 -0.2049903 98
2.3723004 6.0814991 1.2688799 4
0.86485225 2.2159455 -0.12466426 88
2.3639574 6.0538697 1.5004236 4
0.85867697 2.1978579 -0.041187681 100
2.3575215 6.0311742 1.735123 4
1.3277801 3.3846183 -0.97419494 5
0.86797297 2.2113976 0.041466918 96
1.4944396 3.8055396 -0.94389462 2
0.88156348 2.2437203 0.126339 91
1.7194676 4.3763204 -0.91397518 1
0.88199151 2.243659 0.21091689 91
0.85677308 2.1783905 -0.37074974 98
0.88753718 2.2554543 0.29760498 90
0.86611438 2.1998866 -0.2902928 94
0.8839767 2.244107 0.38201302 84
0.86019075 2.1837227 -0.20533893 96
2.3877542 6.0585699 1.2658269 6
0.8740468 2.2166293 -0.12487361 91
2.3929405 6.0655222 1.5053725 4
0.86781257 2.1985669 -0.041257489 100
2.3778489 6.021111 1.7346053 6
1.3346049 3.3673909 -0.97057146 4
0.87568748 2.2083542 0.041466918 96
1.5278357 3.8510194 -0.95649189 1
0.88939077 2.2406292 0.126339 89
0.95826882 2.4141526 -0.50488061 1
0.89423084 2.2516766 0.21196276 97
0.86437142 2.1753867 -0.37074974 98
0.89393878 2.2486529 0.2971175 92
0.87085402 2.1894715 -0.28931785 94
0.89618653 2.2520201 0.38389024 89
0.87222767 2.1918139 -0.20638479 96
2.4103422 6.0538459 1.2665902 6
0.87734485 2.2024317 -0.12424557 83
0.88140672 2.2103841 -0.041536726 100
2.4146028 6.052249 1.7459934 2
0.88933903 2.2201347 0.041746158 92
0.93955112 2.3442981 -0.58307308 6
0.89532954 2.2339599 0.12612967 91
0.94623041 2.359771 -0.49419534 17
0.90208477 2.2485418 0.21196276 89
0.87637526 2.1833553 -0.37262696 93
0.9017821 2.2455189 0.2971175 92
0.87810934 2.1865716 -0.28931785 94
0.9043867 2.2508686 0.38420308 85
0.88284642 2.1961503 -0.20708205 100
2.4343884 6.0526814 1.2681167 2
0.88651812 2.2030616 -0.12445491 88
0.88723761 2.2037392 -0.041466918 97
2.4635305 6.1158872 1.7666988 2
0.9498834 2.3498647 -0.67914116 13
0.89669597 2.2171736 0.041746158 92
0.94439673 2.3339436 -0.5812735 38
0.90423161 2.2346811 0.126339 85
0.94521058 2.3347826 -0.48961592 29
0.91103172 2.2492313 0.21231139 89
0.88509512 2.1840985 -0.37325269 98
0.91071588 2.2461951 0.29760498 90
0.88684779 2.1873267 -0.28980532 91
0.90739012 2.2368741 0.38232586 85
0.88862634 2.1895182 -0.20673342 93
2.4972882 6.1500769 1.2902504 2
0.8983289 2.2112124 -0.12508295 88
0.89454126 2.2007847 -0.041466918 100
2.4983544 6.1434736 1.7770516 4
0.95475054 2.3395479 -0.67707068 26
0.90404403 2.2141876 0.041746158 92
0.95581543 2.3398194 -0.58352304 26
0.91353637 2.2352097 0.12654836 94
0.95517427 2.3370879 -0.49076074 34
0.91396147 2.2351327 0.2112655 91
0.89532441 2.1884646 -0.37450415 93
0.9234218 2.2560232 0.29931113 94
0.89899093 2.19524 -0.29126775 91
0.91519332 2.2336931 0.38232586 87
0.89890319 2.193934 -0.20743066 92
2.5549004 6.2325907 1.3093314 2
0.90717292 2.2119167 -0.12529229 91
0.90069973 2.193949 -0.04139711 100
0.96438414 2.3397727 -0.67810595 21
0.91024339 2.2073207 0.041676346 92
0.92590612 2.2430837 0.12717639 89
0.92327964 2.2356117 0.21161415 91
0.8984316 2.1743722 -0.37262696 95
0.93205023 2.2546208 0.29955488 90
0.90664887 2.1920884 -0.29126775 94
0.92902678 2.2450871 0.38482881 87
0.90655547 2.190783 -0.20743066 97
0.91794634 2.2161174 -0.12571098 94
0.91141456 2.1981809 -0.041536726 93
3.4176061 8.2386246 2.389935 2
1.3860639 3.3298042 -0.96643037 4
0.91794133 2.2041304 0.041676346 92
1.5605003 3.7451751 -0.93669617 2
0.93526787 2.2435248 0.12738572 85
1.8092273 4.3399825 -0.91397518 1
0.93491095 2.24157 0.2124857 94
0.90753812 2.1748688 -0.37325269 91
0.93379694 2.2366984 0.29760498 86
0.91582382 2.1925743 -0.29175523 94
0.94066685 2.2509434 0.38639316 87
0.91573423 2.1912816 -0.20777929 94
3.4798651 8.3229666 1.7535348 2
0.92259181 2.2055299 -0.12529229 88
0.92371672 2.206053 -0.041746158 97
1.4081587 3.3498783 -0.97367728 5
0.93028152 2.2119725 0.041885775 92
1.5750765 3.7432973 -0.93759602 2
0.93844348 2.2292018 0.1267577 87
1.8243647 4.3336411 -0.91397518 1
0.94582385 2.2456374 0.21318294 94
0.91282368 2.1662264 -0.37231407 51
0.94468296 2.240742 0.2985799 92
0.92192936 2.1857059 -0.29126775 94
0.94851899 2.2476459 0.38639316 85
0.92570215 2.1935782 -0.20830221 94
0.9279539 2.1967762 -0.12497827 81
0.9329688 2.2064991 -0.041815966 100
1.4190894 3.3431642 -0.97315967 5
0.94112331 2.2160745 0.042025398 90
1.5866066 3.7341905 -0.93669617 2
0.95168912 2.2387788 0.1274904 98
1.8394819 4.3272462 -0.91397518 1
0.95365751 2.242322 0.21318294 94
0.9556098 2.2447364 0.29955488 92
0.93188745 2.1879532 -0.29199898 100
0.95325994 2.2370529 0.3851417 83
0.93491423 2.1940002 -0.20865084 90
0.94423676 2.213732 -0.12612967 88
0.93595451 2.192194 -0.041606538 100
1.4239006 3.3222098 -0.96850091 5
0.95042992 2.2164512 0.042095207 90
1.6019375 3.7340014 -0.93804586 2
0.96028554 2.2372787 0.12759508 92
1.8545748 4.3207989 -0.91397518 1
0.95911974 2.2334871 0.21266 91
0.97938812 2.2795885 -0.39296341 1
0.96500689 2.2450347 0.30004236 88
0.94187146 2.1901579 -0.29273018 94
0.96262497 2.2373407 0.38576743 90
0.94099265 2.1870627 -0.20830221 90
0.95195788 2.2104228 -0.12612967 88
0.94676805 2.1962588 -0.041746158 95
1.4385568 3.3243115 -0.97057146 4
0.95498353 2.2057793 0.041955583 94
1.6126376 3.7230227 -0.93669617 2
0.96808875 2.2339134 0.12759508 92
1.869645 4.3142996 -0.91397518 1
0.97008115 2.2374375 0.21335725 97
2.1963573 5.0633597 -0.87415588 1
0.97283715 2.2416527 0.30004236 88
0.95267373 2.19414 -0.29370514 94
0.97278959 2.2394025 0.38670605 81
0.94941461 2.1855924 -0.20847654 88
0.96126127 2.2107489 -0.126339 86
0.95442718 2.1929412 -0.041746158 97
1.4470593 3.3121881 -0.96850091 4
0.9642787 2.2060974 0.042025398 94
1.6225014 3.7102287 -0.93489659 2
0.97748232 2.2341797 0.12780441 92
1.8846945 4.3077464 -0.91397518 1
0.97948271 2.2376883 0.21370588 100
2.1743989 4.9651885 -0.85851246 1
0.97906339 2.2346067 0.29955488 90
0.95873255 2.1871653 -0.29321766 94
0.98615474 2.2486563 0.38889611 83
0.96023935 2.1895633 -0.20917378 88
0.96736628 2.2037227 -0.12612967 83
0.96690315 2.2005804 -0.041955583 100
1.4648482 3.3212576 -0.972642 5
0.97358763 2.206377 0.042095207 92
1.6330824 3.6991935 -0.93354684 2
0.98327321 2.2272716 0.12759508 92
1.8997189 4.3011417 -0.91397518 1
0.99211895 2.2451901 0.21475175 100
2.1853287 4.9431138 -0.85600948 1
0.99167496 2.2420683 0.30101728 92
0.96475434 2.1801748 -0.29273018 94
0.98960888 2.2363417 0.38733178 81
0.97110337 2.1934853 -0.20987104 88
0.97667176 2.2039843 -0.126339 86
0.97419578 2.1973617 -0.041955583 97
1.4748621 3.3125942 -0.97160673 5
0.98577958 2.214097 0.042304631 90
1.6508886 3.7062197 -0.93669617 2
0.9910413 2.2238259 0.12759508 92
1.9147222 4.2944837 -0.91397518 1
0.99995071 2.241713 0.21475175 89
2.2017076 4.9358401 -0.85600948 1
1.0015321 2.2442055 0.30174851 94
0.97197938 2.1769633 -0.29273018 94
0.9966042 2.23107 0.38701892 70
0.97794074 2.1882632 -0.20969671 90
0.98723555 2.2080269 -0.1267577 88
0.98185968 2.1939478 -0.041955583 95
1.4810885 3.2971122 -0.96850091 5
0.99350172 2.2106426 0.042304631 86
1.6646158 3.7022116 -0.93714613 2
1.0037136 2.2312818 0.12822311 92
1.9289519 4.2881112 -0.91397518 1
1.0024725 2.2274837 0.21370588 91
2.2189224 4.9281249 -0.85600948 1
1.0118062 2.2461252 0.30247974 92
0.9860971 2.188036 -0.29468012 94
0.9843725 2.183192 -0.2095224 88
0.99658078 2.2082081 -0.12696704 86
0.99115908 2.1941519 -0.042025398 95
1.4925879 3.2919223 -0.96850091 5
0.99460429 2.1925924 0.042025398 89
1.6783351 3.6981525 -0.93759602 2
1.0147984 2.2350392 0.1286418 89
1.9439075 4.281352 -0.91397518 1
1.0160104 2.2366683 0.21492605 94
2.2263052 4.8987689 -0.85225511 1
1.0212822 2.2461944 0.30296722 86
0.99537313 2.188194 -0.2951676 91
0.99198782 2.1797426 -0.2095224 86
1.0042822 2.2047162 -0.12696704 88
1.0021288 2.1979575 -0.042165015 95
1.5032668 3.2849352 -0.96798331 5
1.0064136 2.1981986 0.042199921 92
1.6855522 3.6798697 -0.93444669 2
1.0234267 2.2332985 0.12874646 89
1.9588416 4.2745399 -0.91397518 1
1.022982 2.231297 0.21475175 89
2.2433906 4.8909678 -0.85225511 1
1.0241498 2.2317903 0.30150479 92
1.0030059 2.184706 -0.2951676 94
1.0012534 2.1798878 -0.20987104 88
1.0103041 2.1975675 -0.1267577 86
1.0114675 2.1980789 -0.042234823 95
1.5139149 3.2779133 -0.96746564 4
1.0199515 2.2073791 0.042444255 86
1.7000233 3.6775005 -0.93534642 2
1.0295398 2.2260866 0.12853712 92
1.9737518 4.2676759 -0.91397518 1
1.0382928 2.2439871 0.21632054 94
2.2654297 4.8938622 -0.85413224 1
1.0369397 2.2390091 0.30296722 90
1.0089552 2.1775899 -0.29468012 94
1.0138845 2.1872249 -0.21091689 86
1.0179675 2.1940281 -0.1267577 94
1.0208192 2.1981618 -0.042304631 93
1.5237149 3.2691071 -0.96643037 5
1.027651 2.2038052 0.042444255 95
1.7153192 3.6768436 -0.93669617 2
1.0356141 2.2188599 0.12832777 89
1.9886357 4.2607603 -0.91397518 1
1.0435911 2.2349331 0.21579762 91
2.2942052 4.9109802 -0.85851246 1
1.0464296 2.2389729 0.30345467 88
1.0173918 2.1758525 -0.29492384 74
1.0215138 2.1836722 -0.21091689 86
1.029008 2.1976962 -0.12717639 94
1.0250912 2.1873424 -0.042165015 95
1.5400512 3.2742572 -0.96953619 4
1.0387427 2.207442 0.042583872 90
1.7306342 3.6761224 -0.93804586 2
1.04846 2.2260725 0.12895581 92
2.0034976 4.2537923 -0.91397518 1
1.0479887 2.2240674 0.21510038 91
2.2995379 4.8779287 -0.85413224 1
1.0576265 2.2424881 0.30442965 92
1.0257264 2.1728871 -0.21021965 88
1.0400866 2.2013142 -0.12759508 91
1.0361403 2.1909816 -0.042304631 93
1.5522972 3.2706075 -0.97005379 5
1.0447268 2.2001896 0.042514063 88
1.7376035 3.657737 -0.93489659 2
1.0596517 2.2296152 0.1293745 96
2.0183311 4.2467742 -0.91397518 1
1.0566019 2.2221949 0.21527468 94
2.3063698 4.8484654 -0.85037786 1
1.0654463 2.2387836 0.30442965 86
1.0367328 2.1764882 -0.21091689 88
1.0477639 2.1976705 -0.12759508 88
1.045504 2.1909611 -0.042374443 95
1.5612019 3.2599418 -0.96850091 5
1.0541291 2.2001359 0.042583872 92
1.7503601 3.6516497 -0.93489659 2
1.0657014 2.222301 0.12916516 92
2.0331438 4.2397027 -0.91397518 1
1.0712475 2.2328637 0.21666917 94
2.3164406 4.8261385 -0.84787488 1
1.0698179 2.2278924 0.30345467 21
1.0495018 2.1836305 -0.21196276 86
1.0554295 2.1939993 -0.12759508 91
1.05835 2.1981087 -0.042583872 91
1.5708916 3.2509928 -0.96746564 4
1.0635419 2.2000446 0.04265368 94
1.7656423 3.6507802 -0.93624628 2
1.0734528 2.2185671 0.12916516 91
2.0479319 4.2325792 -0.91397518 1
1.0816377 2.2344913 0.2171921 91
2.3453281 4.8429132 -0.85225511 1
1.0562489 2.1781607 -0.21178845 90
1.063081 2.1903021 -0.12759508 88
1.069512 2.2015955 -0.042723492 86
1.5881554 3.2576454 -0.97108907 5
1.0764753 2.2071023 0.042863112 96
1.7758108 3.6393409 -0.93489659 2
1.08119 2.2148066 0.12916516 91
2.0626929 4.2254052 -0.91397518 1
1.0911804 2.2342825 0.21754073 89
2.3674231 4.845345 -0.85413224 1
1.0690998 2.1851983 -0.21283433 92
1.0759897 2.1973405 -0.12822311 86
1.0692695 2.1816885 -0.042409346 87
1.5884337 3.2295454 -0.96435976 4
1.0841725 2.2033315 0.042863112 96
1.790226 3.6366167 -0.93579644 2
1.0942097 2.2217691 0.12979318 89
2.077431 4.2181787 -0.91397518 1
1.09545 2.2233112 0.21684349 85
2.3773341 4.8228774 -0.85162932 1
1.0705478 2.1689472 -0.21161415 84
1.0871924 2.2007337 -0.1286418 83
1.0786517 2.1815274 -0.042479157 87
1.6031314 3.2309039 -0.96643037 4
1.0900792 2.1959512 0.0427933 88
1.8029084 3.6303456 -0.93579644 2
1.1055127 2.2250912 0.13021187 87
2.0921416 4.2109022 -0.91397518 1
1.106752 2.2266102 0.21754073 87
2.3941536 4.8145504 -0.85162932 1
1.0816641 2.1723313 -0.21231139 86
1.0966491 2.2005005 -0.12885113 88
1.088045 2.1813283 -0.042548969 87
1.6109415 3.2183774 -0.96435976 5
1.0977385 2.1921325 0.0427933 92
1.8103318 3.6135767 -0.933097 2
1.1146741 2.2249844 0.13042122 91
2.1068287 4.2035728 -0.91397518 1
1.1163043 2.226295 0.21788934 85
2.4162581 4.8167582 -0.85350657 1
1.0928171 2.1756642 -0.21300863 88
1.0989416 2.1859522 -0.12822311 83
1.0988661 2.1848543 -0.042688586 90
1.626519 3.2213573 -0.96694797 5
1.1104093 2.1991906 0.043002732 86
1.8187912 3.6005952 -0.93129742 2
1.1188313 2.2139494 0.13000253 89
2.1214881 4.1961932 -0.91397518 1
1.1285645 2.2312748 0.21876092 91
2.4268696 4.7981424 -0.85162932 1
1.1040075 2.1789453 -0.21370588 88
1.109796 2.1894221 -0.1286418 88
1.1101055 2.1881382 -0.04282821 90
1.6363153 3.2142251 -0.96643037 4
1.117171 2.1935194 0.042967826 92
1.8393117 3.6098506 -0.93534642 2
1.1265521 2.2100308 0.13000253 85
2.1353908 4.1891356 -0.91397518 1
1.1341467 2.2239704 0.21841228 70
2.4507866 4.8037176 -0.85413224 1
2.9402752 5.7581921 -0.79385698 1
1.1130403 2.1788204 -0.2140545 86
1.1174313 2.185535 -0.1286418 86
1.1140935 2.177129 -0.042688586 87
1.6492908 3.21193 -0.96746564 4
1.1293904 2.1984997 0.043142349 94
1.8492266 3.5982101 -0.93399686 2
1.1433927 2.2238469 0.13104925 94
2.1500018 4.1816559 -0.91397518 1
2.4494593 4.7600064 -0.84787488 1
1.1178999 2.1696093 -0.21353155 67
1.1323774 2.1958218 -0.12947917 83
1.1253545 2.180335 -0.04282821 87
1.6516091 3.1889987 -0.96228927 5
1.1352174 2.1909933 0.04307254 88
1.8680542 3.6038437 -0.93714613 2
1.1548268 2.226934 0.13146794 94
2.1645863 4.1741247 -0.91397518 1
2.4697013 4.75844 -0.8491264 1
1.1273046 2.1692295 -0.2138802 8
1.1437212 2.1989436 -0.12989786 83
1.138499 2.1870356 -0.043037634 87
1.6689893 3.1952014 -0.9659127 5
1.1447113 2.1905615 0.043142349 88
1.8688865 3.5748494 -0.93129742 2
1.1588892 2.2158108 0.13104925 94
2.1791408 4.1665449 -0.91397518 1
2.4899619 4.7567897 -0.85037786 1
1.1439682 2.180788 -0.12906048 86
1.1498431 2.1901309 -0.043177254 90
1.6873366 3.2030292 -0.97005379 5
1.1551484 2.1918592 0.043247063 82
1.886806 3.5786474 -0.93399686 2
1.1666174 2.2117519 0.13104925 92
2.1936727 4.1589127 -0.91397518 1
2.502861 4.7410822 -0.8491264 1
1.1553102 2.1838431 -0.12947917 86
1.15561 2.182569 -0.043107443 85
1.6921618 3.1851778 -0.96643037 5
1.1712372 2.2037065 0.043561205 89
1.8992873 3.5720391 -0.93399686 2
1.178082 2.2147195 0.13146794 92
2.2081757 4.1512303 -0.91397518 1
2.5156834 4.7253408 -0.84787488 1
3.0403211 5.7060003 -0.79385698 1
3.0421898 5.7071009 -0.56581503 2
1.1685654 2.1903706 -0.13010719 86
1.1594547 2.1714656 -0.042967826 83
1.6996214 3.1724396 -0.96435976 4
1.1808122 2.2031293 0.043631013 88
1.9145062 3.57054 -0.93534642 2
1.1891958 2.2178411 0.13188663 87
2.2226539 4.143496 -0.91397518 1
2.5433741 4.7374163 -0.85162932 1
1.1780971 2.1897957 -0.13031654 83
1.169493 2.1728914 -0.04307254 81
1.7097676 3.1647875 -0.96384215 5
1.1824094 2.1886451 0.043421589 86
1.9300418 3.5710299 -0.93714613 2
1.2007295 2.2207043 0.13230531 85
2.2277641 4.118444 -0.91015899 1
2.5590689 4.7289567 -0.85162932 1
1.1872572 2.189388 -0.13052589 83
1.1856549 2.1846135 -0.043386683 87
3.1276677 5.7604465 1.7563461 2
1.7257955 3.1692803 -0.96694797 5
1.1890849 2.1827486 0.043386683 84
1.9219801 3.5266256 -0.92724824 2
2.2508063 4.1282711 -0.91397518 1
2.5755618 4.7199945 -0.85162932 1
1.1881841 2.1729636 -0.12979318 81
1.197113 2.1874788 -0.043526303 83
3.1292005 5.7156038 1.7459934 2
1.7312685 3.1530769 -0.96384215 5
1.2043984 2.1926064 0.043665919 94
1.9427261 3.5352652 -0.93129742 2
2.265202 4.1203899 -0.91397518 1
2.5977368 4.7213588 -0.85350657 1
1.202513 2.1810462 -0.13052589 83
1.2066731 2.1867883 -0.043596111 83
3.1173909 5.6471424 1.7283937 4
1.7469436 3.1554646 -0.96643037 4
1.2159197 2.1953866 0.043805543 96
1.9578875 3.5335767 -0.93264711 2
2.2681506 4.0918517 -0.90939575 1
2.5969515 4.68117 -0.84787488 1
1.2110888 2.178581 -0.13063055 81
1.2084663 2.1720781 -0.043386683 85
3.1314459 5.6260991 1.7252878 4
1.7494726 3.1341662 -0.96177161 5
1.2216262 2.1876364 0.043735731 94
1.9740109 3.5335262 -0.93444669 2
2.2747567 4.0702 -0.90634274 1
2.6113486 4.6686277 -0.84724921 1
3.147404 5.620091 -0.56354898 2
1.2264977 2.1882787 -0.13146794 91
1.2179983 2.1713343 -0.043456491 87
3.155791 5.6235576 1.7278759 4
1.760403 3.1280398 -0.96177161 5
1.2312179 2.1868439 0.043805543 92
1.9805943 3.516427 -0.93174726 2
2.2812414 4.0485506 -0.90328985 1
2.6276259 4.6594858 -0.84724921 1
1.2311816 2.1787672 -0.13115391 73
1.2295073 2.174032 -0.043596111 85
3.173501 5.6091442 1.7268407 6
1.7760787 3.1302762 -0.96435976 4
1.2388433 2.1825328 0.043805543 94
1.9880465 3.5010185 -0.92949772 2
2.293421 4.037148 -0.90252656 1
2.6380181 4.6399813 -0.84537196 1
1.2368016 2.1709859 -0.13094458 18
1.2460033 2.1853614 -0.043910254 100
3.1901886 5.5929995 1.7252878 6
1.788911 3.127413 -0.96539509 5
1.2563868 2.1955509 0.044154592 92
2.0021927 3.4974396 -0.93039757 2
2.3153024 4.0427489 -0.90557957 1
2.6541998 4.630744 -0.84537196 1
1.2526261 2.1792657 -0.043875352 97
3.2048786 5.5734549 1.7226996 6
1.7978874 3.1178017 -0.96435976 4
1.2570467 2.1790278 0.043910254 36
2.0134139 3.4887419 -0.92994767 2
2.3352907 4.0448432 -0.90786928 1
2.6861596 4.6488175 -0.85037786 1
1.2602261 2.1748798 -0.043875352 100
3.2243156 5.562233 1.7226996 6
1.8019627 3.0998161 -0.96073633 5
2.0275402 3.4850605 -0.93084741 2
2.3454447 4.02988 -0.90634274 1
2.7063484 4.6462398 -0.85162932 1
3.2357547 5.5439973 -0.33641556 1
1.2657937 2.1670139 -0.043805543 100
3.2398093 5.5442743 1.7206291 6
1.8157033 3.0985072 -0.96228927 4
3.2523773 5.5479789 0.11225387 5
2.0347619 3.4695587 -0.92859799 2
2.3396287 3.9878008 -0.89871037 1
8.4513664 14.399247 1.4607302 2
2.714546 4.6231389 -0.8491264 1
3.2603712 5.5460753 -0.56285179 2
3.2935743 5.5980816 -0.3403931 1
1.2814666 2.1763678 -0.044084776 100
3.2571833 5.5296021 1.7195939 8
1.8245436 3.0888231 -0.961254 4
2.0518196 3.4708216 -0.93084741 2
2.3575332 3.9863687 -0.9002369 1
2.7266436 4.6068344 -0.84787488 1
1.2927575 2.1789856 -0.0442244 100
3.2794478 5.525414 1.7216644 6
1.8407025 3.0927172 -0.96435976 5
2.0613244 3.4606497 -0.92994767 2
2.3747566 3.9852767 -0.90176338 1
2.745954 4.6045532 -0.8491264 1
1.2999768 2.1746864 -0.0442244 97
3.2977514 5.5145092 1.7216644 6
1.844988 3.0766551 -0.961254 4
2.0717857 3.4521246 -0.92949772 2
2.3805676 3.9634981 -0.89871037 1
2.7612071 4.5954227 -0.8491264 1
1.3054966 2.1667097 -0.044154592 97
3.3169794 5.502965 1.7216644 6
1.8522545 3.0632594 -0.95918339 5
2.0813987 3.4395058 -0.92814809 2
2.3910096 3.9480295 -0.89718395 1
2.757561 4.5514808 -0.84286904 1
1.3155053 2.1653283 -0.0442244 93
3.3290985 5.4775648 1.7175232 8
1.8664856 3.0613985 -0.96073633 5
3.3153863 5.4357419 0.11113693 4
2.1010952 3.4434991 -0.93129742 2
3.4797819 5.7030373 0.35012761 1
2.4027317 3.9363074 -0.89642078 1
2.7989383 4.5818014 -0.85037786 1
3.3275595 5.4407372 -0.55797106 2
3.3428092 5.4613881 -0.33557817 1
3.3421454 5.4560256 1.7144175 8
1.8781729 3.05651 -0.961254 5
3.3700376 5.4843478 0.11235859 7
2.1022968 3.4199114 -0.9267984 2
3.4996696 5.690855 0.35012761 1
2.4308605 3.9513059 -0.90176338 1
3.483717 5.6604915 0.58150309 1
2.8016915 4.5523076 -0.84662342 1
3.3653507 5.4596171 -0.56110865 2
3.3755796 5.4740725 -0.33704361 1
3.3611715 5.4443254 1.7144175 6
1.8882962 3.0502663 -0.961254 4
2.1183281 3.4191782 -0.92859799 2
3.5195091 5.6786065 0.35012761 1
2.4398103 3.9365499 -0.9002369 1
3.50247 5.6489072 0.58150309 1
2.8217306 4.5492139 -0.84787488 1
3.3913808 5.450603 1.7201115 8
1.9050683 3.0534899 -0.96435976 5
2.1323137 3.4150693 -0.92949772 2
2.4348164 3.8980367 -0.89336777 1
3.5221689 5.6366458 0.58150309 1
2.8208394 4.5125365 -0.84286904 1
3.4021766 5.4256368 1.7159703 8
1.9064616 3.0321019 -0.95970106 5
2.1442223 3.4076047 -0.92949772 2
2.4484091 3.8895133 -0.89336777 1
3.488734 5.5400219 0.57278752 1
2.8260458 4.4859481 -0.83974028 1
3.3701966 5.3414392 1.2276652 1
3.3564954 5.3156118 1.4513842 3
3.3436913 5.2912483 1.6771475 5
1.9139315 3.0205336 -0.95814812 5
3.4944577 5.5127649 0.11392931 2
2.1602793 3.4066815 -0.93129742 2
3.4129496 5.3800263 0.33390343 5
2.4703836 3.894206 -0.89642078 1
3.4012952 5.3595858 0.55535638 10
2.8522758 4.4927325 -0.84286904 1
3.3928297 5.3421245 0.77703899 10
3.3844402 5.3248014 0.99930352 11
3.3730187 5.3047924 1.2219409 11
3.3771238 5.3071508 1.452284 9
3.4438252 5.409893 -0.11193974 4
3.3590293 5.2746553 1.6755946 7
1.928623 3.0203469 -0.96021873 4
3.4178729 5.3505483 0.11082278 14
2.1648102 3.3876271 -0.92814809 2
3.4403162 5.3815417 0.33474082 12
2.483963 3.8855584 -0.89642078 1
3.4264245 5.3577509 0.55640227 13
2.8423886 4.4428148 -0.83536011 1
3.4103878 5.3285756 0.77679521 12
3.4862449 5.4450059 -0.79385698 1
3.404068 5.3146205 0.99961638 14
3.4634743 5.4073687 -0.5618059 4
3.3809247 5.2764549 1.2181247 11
3.4458108 5.3756537 -0.33463615 5
3.3935211 5.2920513 1.4513842 7
3.4367762 5.3574424 -0.11110201 14
3.3763785 5.2612705 1.6750768 5
1.9433351 3.0200949 -0.96228927 4
3.4386923 5.341949 0.11089259 14
2.1692371 3.3685801 -0.9249987 2
3.4536712 5.3611054 0.33421743 14
2.5230277 3.9164751 -0.90557957 1
3.4472632 5.3491077 0.55675089 13
2.8707252 4.4527884 -0.83911461 1
3.4321966 5.3216429 0.77752644 12
3.505229 5.4328041 -0.79385698 1
3.4193869 5.2977257 0.99867773 11
3.4693646 5.3751578 -0.5597142 6
3.4078434 5.2778149 1.2211776 9
3.4732223 5.3770146 -0.33547351 5
3.4236088 5.2981768 1.4563332 1
3.4684846 5.3655643 -0.11152088 14
3.4608128 5.3516526 1.7076882 12
1.9554403 3.0168765 -0.96332449 5
3.4694426 5.3506513 0.11131145 16
2.1888812 3.3744473 -0.92859799 2
3.5497074 5.4702539 0.34175381 100
2.5060768 3.8619738 -0.89489418 1
2.9091458 4.4796906 -0.84599775 1
3.4779391 5.3535151 0.78386366 4
3.4561567 5.3179545 -0.77874517 1
3.5187693 5.4122224 1.0224558 2
3.4935367 5.3713665 -0.56058574 6
3.5205905 5.412962 1.2551417 2
3.5030148 5.383883 -0.33662489 7
3.4906223 5.3607368 -0.1116605 11
3.4933035 5.3628078 1.7149351 10
1.9612018 3.0016024 -0.96073633 5
3.5810721 5.4808002 0.11427836 2
2.2070429 3.3765733 -0.93129742 2
3.6070387 5.516336 0.34541735 12
2.520216 3.852762 -0.89489418 1
2.9147248 4.4524713 -0.84286904 1
3.6194663 5.5290194 0.8114062 1
3.6050966 5.5007815 -0.5754022 2
3.6716967 5.5981388 -0.3508603 1
3.6310794 5.5341048 -0.11553493 2
3.5056405 5.3408918 1.7118292 12
1.9663552 2.986671 -0.95814812 5
2.2129719 3.3586974 -0.92859799 2
3.6207795 5.4953713 0.34489399 1
2.5422921 3.8570559 -0.89794719 1
3.5930235 5.44911 0.57104445 3
2.9302504 4.4422693 -0.84286904 1
3.6397054 5.515717 0.8114062 1
3.5285239 5.3350682 1.7138997 8
1.9746336 2.9765689 -0.95711285 5
2.2165539 3.3399749 -0.92544866 2
3.6951728 5.565897 0.35012761 1
2.5470519 3.8350735 -0.89489418 1
3.6274602 5.4597669 0.57348478 1
2.9449644 4.432528 -0.84286904 1
3.6360011 5.4705515 0.80653143 1
3.5492694 5.325933 1.7149351 12
1.9941523 2.9844611 -0.96177161 5
3.5293651 5.2800756 0.11085769 2
2.2281983 3.3322177 -0.92544866 2
3.6590536 5.4699612 0.34489399 1
2.5553885 3.8200798 -0.89336777 1
3.6477604 5.4510202 0.57383341 1
2.9714069 4.4386373 -0.84599775 1
3.6771679 5.4908128 0.8114062 1
3.591495 5.3568153 -0.5642463 2
3.5444717 5.2846851 -0.33348474 1
3.5428407 5.2782698 -0.1109624 14
3.5613785 5.3038878 1.7118292 8
1.9996824 2.96912 -0.95918339 5
3.5533614 5.2760158 0.11103221 14
2.2398171 3.324419 -0.92544866 2
3.678124 5.4571567 0.34489399 1
2.5737634 3.8171985 -0.89489418 1
3.6766293 5.4508271 0.57522792 1
2.9633465 4.3916926 -0.83911461 1
3.581171 5.3013229 -0.5597142 4
3.5638158 5.2716589 -0.33348474 1
3.6049325 5.3304739 -0.11232369 2
3.5820348 5.2946243 1.7128645 12
2.0024421 2.9509315 -0.95555997 5
2.2651234 3.3355334 -0.93084741 2
3.6981046 5.4436364 0.34489399 1
2.5870736 3.8081903 -0.89489418 1
3.6665154 5.3951163 0.57069582 3
2.9786594 4.3813214 -0.83911461 1
3.5948851 5.271884 1.7097588 12
2.0170896 2.950304 -0.95763052 5
2.2679505 3.3147395 -0.92724824 2
3.7069271 5.415863 0.34395194 3
2.6047838 3.805619 -0.89642078 1
3.6842015 5.38064 0.57052147 3
2.9693773 4.3350425 -0.83223146 1
3.7354133 5.4513555 0.8114062 1
3.7335465 5.4364138 -0.11511607 2
3.6088915 5.252934 1.7076882 10
2.0262809 2.9416535 -0.95711285 4
3.7670484 5.4667654 0.11588398 2
2.2784007 3.3051984 -0.9267984 2
3.7303464 5.4094663 0.34437063 10
2.6247404 3.8062 -0.89871037 1
3.7097504 5.3775864 0.57156736 6
3.0091743 4.3604193 -0.83911461 1
3.7183313 5.3860068 0.80360651 1
3.6294057 5.2434802 1.7087234 12
2.038739 2.9377372 -0.95814812 4
3.7769811 5.440444 0.11560474 2
2.2877018 3.2940235 -0.92589855 2
3.7412279 5.3849311 0.34363794 5
2.6380095 3.7970154 -0.89871037 1
3.7341812 5.3727865 0.5724389 6
3.0108457 4.3304253 -0.83536011 1
3.7439115 5.382772 0.80506897 1
3.6543136 5.2402897 1.7118292 10
2.0567307 2.941685 -0.96177161 5
3.6744616 5.2535281 0.11190483 2
2.3047698 3.294003 -0.92814809 2
3.7590635 5.3724957 0.34363794 5
2.6399906 3.771699 -0.89489418 1
3.7472003 5.3515577 0.57156736 9
3.0418067 4.3425426 -0.83974028 1
3.7626772 5.3696709 0.80506897 1
3.6506867 5.2021198 -0.33306605 1
3.6342211 5.1767297 -0.11040393 6
3.6672311 5.2218175 1.7097588 10
2.0558624 2.9186935 -0.95659518 5
3.6515603 5.1840944 0.11068317 14
2.3123138 3.2815621 -0.9267984 2
3.7743435 5.3544436 0.34332392 5
2.6418273 3.7464156 -0.89107805 1
3.764708 5.3368177 0.57139301 12
3.0812426 4.3679428 -0.84662342 1
3.7919073 5.373384 0.80750632 1
3.6714947 5.200819 -0.78167003 1
3.6799126 5.2088885 -0.55797106 4
3.690973 5.2226052 -0.33515951 1
3.6926792 5.2211571 -0.1116256 2
3.6832058 5.2058296 1.7087234 8
2.0677648 2.9150119 -0.95763052 5
3.8003988 5.3556004 0.11462741 2
2.3271396 3.2782376 -0.92814809 2
3.800173 5.3532972 0.34405661 8
2.661056 3.7472391 -0.89336777 1
3.7800789 5.3210549 0.57104445 13
3.0598543 4.3056335 -0.83661157 1
3.7772861 5.3131943 0.80043793 3
3.8839879 5.4532003 -0.11686131 2
3.6993268 5.1920147 1.7082058 6
2.0718045 2.9002793 -0.9550423 5
3.8344164 5.3657451 0.11511607 2
2.3277974 3.2562346 -0.92409897 2
3.8144188 5.3357921 0.34374261 12
2.6848886 3.7543626 -0.89718395 1
3.7988613 5.3101115 0.57121873 12
3.0741143 4.2954636 -0.83661157 1
3.798353 5.3054805 0.80116916 1
3.8437746 5.3590446 -0.11511607 2
3.714273 5.1765785 1.7071705 8
2.0915637 2.9075077 -0.95970106 6
3.877887 5.3887072 0.11588398 2
2.343138 3.2548234 -0.92589855 2
3.8248494 5.3111005 0.34300989 14
2.6973212 3.7454402 -0.89718395 1
3.8176155 5.2990999 0.57139301 27
3.1114421 4.3172965 -0.84286904 1
3.8136001 5.2896376 0.80068165 1
3.8624594 5.3455939 -0.11511607 2
3.7379773 5.1714106 1.7097588 8
2.1022069 2.8998215 -0.95970106 5
3.8896301 5.3654251 0.11567455 2
2.3499081 3.2403145 -0.92409897 2
3.8457122 5.3009491 0.34321922 14
2.7110322 3.7355282 -0.89718395 1
3.8416932 5.2915225 0.57209027 30
3.0877759 4.2515211 -0.83223146 1
3.8297093 5.2730803 0.8001942 1
3.8504977 5.2900438 -0.11420855 2
3.7514565 5.1520853 1.7076882 10
2.1088977 2.8877857 -0.95814812 4
3.7913084 5.1896615 0.11218407 2
2.3755674 3.2505598 -0.92949772 2
3.8571234 5.2778168 0.34259123 26
2.7171016 3.7165334 -0.89489418 1
3.8424995 5.2539563 0.56947559 28
3.1142631 4.256659 -0.83536011 1
3.8443196 5.2526011 0.79921919 1
3.7712116 5.1451664 -0.33432212 1
3.7447851 5.1072421 -0.11054354 7
3.7739868 5.1451902 1.7097588 10
2.1120973 2.8710692 -0.9550423 4
3.7456927 5.0916896 0.11033412 14
2.3828678 3.2379563 -0.92814809 2
3.8861783 5.2787967 0.34353325 15
2.7300594 3.7070255 -0.89489418 1
3.8690872 5.2517405 0.57069582 67
3.1424208 4.2653933 -0.83911461 1
3.851119 5.2254415 0.79702556 3
3.7840364 5.1287947 -0.55762243 4
3.7752051 5.1149564 -0.33317071 3
3.8041711 5.1504383 -0.11176521 4
3.7919254 5.1319842 1.7097588 10
2.1319566 2.87802 -0.95970106 5
3.8979783 5.2601347 0.11427836 2
2.3860316 3.2186606 -0.9249987 2
3.9045825 5.2651987 0.34353325 15
2.7423384 3.6979513 -0.89489418 1
3.8864827 5.2388802 0.57069582 75
3.1384542 4.2290182 -0.83410865 1
3.8847196 5.232686 0.8001942 3
3.9367194 5.2911439 -0.11511607 2
3.8052039 5.1125174 1.7076882 10
2.1401789 2.8670912 -0.95866579 5
3.9211018 5.2529044 0.11441798 2
2.404249 3.2196803 -0.92769814 2
3.9109814 5.2355385 0.34248653 38
2.772326 3.7098932 -0.9002369 1
3.9068496 5.2261968 0.5708701 61
3.1586645 4.2238154 -0.83536011 1
3.8910697 5.2031994 0.79775679 4
4.0012469 5.3446827 -0.58411777 2
3.9551663 5.277369 -0.11511607 2
3.8322966 5.1115694 1.7118292 12
2.1490135 2.8580582 -0.95814812 4
3.9319131 5.2273126 0.11417364 7
2.4043157 3.1952755 -0.92319912 2
3.9292343 5.2218542 0.34248653 57
2.7828987 3.6970556 -0.89947367 1
3.9250677 5.2125287 0.5708701 72
3.1662586 4.2032957 -0.83348292 1
3.9184806 5.1999974 0.79946297 4
4.0798559 5.4102254 -0.59283334 2
3.8477888 5.095077 1.710794 12
2.1519766 2.8413007 -0.9550423 5
3.9600909 5.2285924 0.11448779 5
2.4219606 3.196604 -0.92589855 2
3.9510586 5.2128806 0.34280053 57
2.7815502 3.6685476 -0.89489418 1
3.9408321 5.1956201 0.57052147 103
3.1873438 4.2022161 -0.83536011 1
3.9381013 5.1901379 0.79995042 3
4.016119 5.2814655 -0.11581416 2
3.8608685 5.0754671 1.7087234 10
2.1660738 2.8402929 -0.95711285 5
3.9128222 5.1288834 0.11260293 2
2.4307406 3.1850312 -0.9249987 2
3.9755955 5.2092748 0.34342858 100
2.7937012 3.6593029 -0.89489418 1
3.9604573 5.1856909 0.5708701 104
3.2067909 4.1973419 -0.83661157 1
3.9405229 5.1558571 0.79678184 1
3.9063852 5.1038017 -0.33683425 1
3.8524764 5.0315447 -0.11061335 7
3.8753302 5.0595679 1.7076882 10
2.1771526 2.8342462 -0.95763052 5
3.853066 5.0159721 0.11040393 16
2.4341624 3.1676836 -0.92229939 2
3.9852304 5.1842842 0.34269586 100
2.8064585 3.6495278 -0.89489418 1
3.9748917 5.1670957 0.57034713 105
3.2038293 4.1647658 -0.83223146 1
3.9600189 5.1459088 0.79726928 1
3.8945971 5.0554166 -0.55831969 4
3.8781805 5.0322857 -0.33296138 3
3.882225 5.0339036 -0.1109624 4
3.8929691 5.0460086 1.7076882 10
2.1889029 2.8300676 -0.95866579 5
4.047986 5.2318196 0.11546512 2
2.4487841 3.1637902 -0.92364907 2
4.0033045 5.1703405 0.34269586 75
2.8137372 3.6339929 -0.89336777 1
4.002984 5.1680636 0.57191598 100
3.2401247 4.1816645 -0.83786315 1
3.9889042 5.1461744 0.79946297 3
4.0457549 5.2082467 -0.11511607 2
3.9081898 5.0293365 1.7066529 10
2.196393 2.8193622 -0.95763052 6
4.0514727 5.1987314 0.11504627 2
2.4729936 3.1721282 -0.92859799 2
4.0250115 5.1610603 0.34300989 40
2.8239896 3.6210535 -0.89260459 1
4.0148706 5.1462054 0.57104445 100
3.2547028 4.1703277 -0.83786315 1
4.0153933 5.1431723 0.80116916 1
3.8574474 4.9390879 -0.76948309 1
4.1255212 5.2728395 -0.11686131 2
3.9400089 5.0339203 1.7128645 10
2.1990664 2.8025584 -0.9545247 5
4.0695963 5.184556 0.11504627 2
2.475626 3.1527479 -0.92544866 2
4.04177 5.1454077 0.34290522 54
2.8535914 3.6327875 -0.89794719 1
4.03158 5.1305919 0.5708701 90
3.2594733 4.1465182 -0.83536011 1
4.024734 5.1182013 0.79946297 3
4.0820169 5.1798749 -0.11511607 2
3.9455955 5.0049663 1.7076882 12
2.210521 2.7959955 -0.9550423 5
4.0926285 5.1765943 0.11518589 2
2.4878242 3.1456163 -0.92589855 2
4.0696216 5.1437974 0.34374261 29
2.8668864 3.6223049 -0.89794719 1
4.0466461 5.1110954 0.57034713 100
3.2893677 4.1531253 -0.83911461 1
4.0314841 5.0901146 0.79726928 3
4.1000743 5.1655931 -0.11511607 2
3.9630411 4.9911637 1.7076882 12
2.2250819 2.794307 -0.95711285 5
4.0542603 5.0896115 0.11358026 5
2.4944794 3.1303797 -0.92409897 2
4.079731 5.1179152 0.34300989 24
2.8697238 3.5999928 -0.89489418 1
4.0694327 5.103169 0.57104445 43
3.2989161 4.1354413 -0.83786315 1
4.0488739 5.0737538 0.79702556 3
4.0049343 5.0115118 -0.33620623 1
3.9603646 4.9521947 -0.11068317 7
3.9813094 4.976604 1.7076882 10
2.2396562 2.7925515 -0.95918339 4
3.9606295 4.9366093 0.11047374 16
2.5053923 3.1216526 -0.92409897 2
4.0963197 5.102087 0.34290522 21
2.8921049 3.6022019 -0.89794719 1
4.0809822 5.0811667 0.57017285 48
3.3232305 4.136219 -0.84036607 1
4.0777512 5.0735154 0.79921919 3
4.003365 4.9774008 -0.5588426 4
3.9873378 4.9539375 -0.33327541 3
3.9876628 4.9507976 -0.1109624 7
4.0035038 4.9686942 1.7097588 10
2.2469635 2.7817104 -0.95814812 4
4.0972371 5.0705137 0.11378969 2
2.5162714 3.1128898 -0.92409897 2
4.1132154 5.0884757 0.34290522 8
2.8947864 3.5798705 -0.89489418 1
4.1087198 5.0792818 0.57156736 30
3.317764 4.1000271 -0.83536011 1
4.0904412 5.0530777 0.79824424 3
4.0199599 4.9553895 1.7097588 10
2.2517838 2.7678554 -0.95607764 5
4.1443172 5.0941262 0.11462741 2
2.5339618 3.1135967 -0.9267984 2
4.1347361 5.078732 0.34321922 10
2.8973479 3.5575657 -0.89184129 1
4.1150975 5.0510077 0.56999856 24
3.3612876 4.1257567 -0.84286904 1
4.109683 5.0425644 0.79873174 4
4.1717963 5.1078453 -0.11511607 2
4.0299006 4.9323502 1.7066529 12
2.2633975 2.7633622 -0.95711285 4
4.2254391 5.156971 0.11637264 2
2.5361683 3.094182 -0.92364907 2
4.1638379 5.0781674 0.34416127 15
2.9190867 3.5600834 -0.89489418 1
4.1381412 5.0450368 0.5708701 15
3.3380787 4.0681839 -0.83348292 1
4.1348176 5.0373931 0.8001942 1
4.0495448 4.9212394 1.7076882 10
2.2681117 2.7494841 -0.9550423 4
4.2179608 5.1113415 0.11567455 2
2.5407484 3.0777974 -0.92139953 2
4.175179 5.0559025 0.34363794 12
2.9439964 3.5650113 -0.89871037 1
4.1608038 5.0367045 0.57156736 9
3.3472269 4.0504155 -0.83223146 1
4.1599646 5.0321102 0.80165666 1
4.0667 4.9070725 1.7076882 10
2.2801654 2.7445216 -0.95607764 4
4.2357759 5.0965881 0.11567455 2
2.5664275 3.0868912 -0.9267984 2
4.1876945 5.0351539 0.34321922 12
2.9438698 3.5396178 -0.89489418 1
4.1860046 5.0313406 0.57261318 9
3.3840883 4.0660391 -0.83786315 1
4.2029085 5.0480685 0.80653143 1
4.0802932 4.8903737 -0.11117183 4
4.0912323 4.9017453 1.710794 12
2.2922089 2.7395105 -0.95711285 4
4.0700006 4.8624907 0.11068317 16
2.5746858 3.0749252 -0.92589855 2
4.2052417 5.0205083 0.34321922 5
2.9763753 3.5534029 -0.90100008 1
4.2009835 5.0136428 0.57226461 6
3.3881104 4.0420895 -0.83536011 1
4.2460122 5.0637903 0.8114062 1
4.1033092 4.8901343 -0.55849403 4
4.0944991 4.8761778 -0.3336941 3
4.0806141 4.8561993 -0.11071807 9
4.1157751 4.8963075 1.7138997 10
2.2942894 2.7226279 -0.95400703 4
4.1526818 4.9262285 0.11246331 2
2.5766089 3.0554912 -0.92274922 2
4.2283063 5.0141692 0.34374261 3
2.9685075 3.5189807 -0.89489418 1
4.209466 4.9882879 0.57104445 7
3.4174891 4.0483527 -0.83911461 1
4.1095252 4.8560896 1.7045823 10
2.3020563 2.7135313 -0.95348942 5
4.2828584 5.0466013 0.11553493 2
2.5980787 3.0602994 -0.9267984 2
4.231986 4.9848933 0.34269586 1
2.9979537 3.530067 -0.9002369 1
4.2337236 4.9834127 0.57209027 3
3.4001946 4.0008712 -0.83160573 1
4.0257959 4.7353163 -0.76314586 1
4.1406412 4.8600802 1.710794 10
2.3160601 2.7117589 -0.95555997 5
4.3047647 5.0384526 0.11567455 2
2.595551 3.0368538 -0.92229939 2
4.266233 4.9898262 0.34405661 1
3.0224011 3.5350287 -0.90405309 1
4.2554049 4.9754033 0.57278752 1
3.428853 4.007586 -0.83536011 1
4.0758696 4.7604384 -0.76948309 1
4.3769202 5.1030369 -0.11734998 2
4.1626143 4.8514605 1.7128645 8
2.3247242 2.7017868 -0.9550423 4
4.3484125 5.0537109 0.11637264 2
2.6099505 3.0322053 -0.92364907 2
4.2940493 4.9870124 0.34489399 1
3.0379007 3.5269012 -0.90481627 1
4.2606077 4.9446783 0.57104445 3
3.4306207 3.9800298 -0.83223146 1
4.3145514 5.0055208 0.8114062 1
4.0094967 4.6499667 -0.75388384 1
4.1871004 4.8456712 1.7159703 8
2.3417311 2.7024159 -0.95814812 5
4.3669047 5.0377398 0.11637264 2
2.6235991 3.025564 -0.9245488 2
4.3044472 4.9621873 0.34426597 1
3.0501924 3.5162764 -0.90481627 1
4.3091803 4.9658923 0.57522792 1
3.4626224 3.9889138 -0.83661157 1
4.109828 4.7311525 -0.76948309 1
4.2085414 4.8362594 -0.11190483 2
4.194685 4.8186369 1.7118292 8
2.3511496 2.6942255 -0.95814812 4
4.1753678 4.7829413 0.11082278 14
2.634145 3.0163867 -0.9245488 2
4.3217411 4.9471326 0.34426597 1
3.0546973 3.4967368 -0.90252656 1
4.297646 4.9178128 0.57139301 4
3.4869275 3.9886999 -0.83911461 1
4.0923362 4.6779313 -0.76314586 1
4.2092314 4.8098588 -0.55919123 4
4.198832 4.7945981 -0.33400813 3
4.1819038 4.7719111 -0.11075297 7
4.2114801 4.8039641 1.7118292 8
2.3541641 2.6787462 -0.95555997 5
4.2250447 4.8058844 0.1116954 2
2.6485186 3.0115643 -0.92589855 2
4.3469005 4.9410129 0.34489399 1
3.0409498 3.4565713 -0.89489418 1
4.3226833 4.911757 0.5724389 3
3.4773328 3.9498162 -0.83348292 1
4.3675985 4.9593019 0.8114062 1
4.1086392 4.6636181 -0.76314586 1
4.2384529 4.8008184 1.7159703 8
2.3622193 2.6690662 -0.9550423 5
2.6577237 3.0008414 -0.92544866 2
4.4303436 5.0005569 0.35012761 1
3.0842426 3.481204 -0.90405309 1
4.3371582 4.8936567 0.57209027 1
3.4989634 3.946522 -0.83536011 1
4.1064482 4.6284609 -0.75973356 1
4.3811727 4.9294314 -0.11511607 2
4.252615 4.7831097 1.7149351 8
2.3740933 2.6636879 -0.95607764 4
4.4235101 4.9613514 0.1160236 2
2.6616943 2.9842758 -0.92319912 2
4.381289 4.9105453 0.34489399 1
3.0806918 3.452837 -0.89947367 1
4.3887091 4.9171333 0.57662237 1
3.5179772 3.9401805 -0.83661157 1
4.109355 4.5992942 -0.75729614 1
4.2770185 4.7768712 1.7180409 8
2.3885391 2.6611345 -0.95814812 4
4.4381285 4.9429049 0.1159538 2
2.6616788 2.9633679 -0.91959995 2
4.4651484 4.9695034 0.35012761 1
3.0874782 3.4362202 -0.89794719 1
4.4085093 4.9047489 0.57697099 1
3.518503 3.9131863 -0.83348292 1
4.1572495 4.6203384 -0.76314586 1
4.282023 4.7490001 1.7133821 6
2.3926303 2.6470501 -0.95607764 4
2.6850796 2.9685104 -0.92409897 2
4.4824648 4.9538898 0.35012761 1
3.0652034 3.3875737 -0.8880251 1
4.4603672 4.9277349 0.58150309 1
3.526839 3.8950229 -0.83223146 1
4.1813512 4.614624 -0.76460832 1
4.3196521 4.7589087 -0.11218407 2
4.2933807 4.7283025 1.7113116 6
2.407058 2.6443958 -0.95814812 4
4.2719264 4.6914921 0.11075297 14
2.7072356 2.9720862 -0.92814809 2
4.4997311 4.9382119 0.35012761 1
3.1008117 3.4029734 -0.89489418 1
4.4775424 4.9121337 0.58150309 1
3.5404129 3.8826888 -0.83223146 1
4.1920829 4.5941339 -0.76363337 1
4.3144093 4.7265401 -0.55988848 4
4.3077517 4.7159352 -0.33474082 3
4.2917166 4.6950927 -0.11103221 11
4.322897 4.7275429 1.716488 6
2.4145095 2.6349742 -0.95763052 5
4.3185358 4.7112074 0.11155578 2
2.696003 2.9401119 -0.92094964 2
3.1253517 3.4071391 -0.89871037 1
3.5425818 3.8592858 -0.82972854 1
4.1723785 4.5421982 -0.75729614 1
4.3359327 4.7103391 1.7154527 6
2.4197617 2.6222713 -0.95607764 5
2.7049279 2.9292507 -0.92049968 2
4.5332403 4.9074683 0.35012761 1
3.1558754 3.4163995 -0.90405309 1
4.5108724 4.8815446 0.58150309 1
3.5801685 3.8730056 -0.83536011 1
4.1612473 4.4984622 -0.75242138 1
4.3615403 4.7050939 1.7190762 8
2.4288998 2.6138093 -0.95607764 4
2.7204442 2.9254999 -0.92229939 2
3.1356883 3.3708637 -0.89489418 1
4.5278859 4.865768 0.58150309 1
3.5882812 3.8547022 -0.83410865 1
4.5035224 4.8362045 0.8114062 1
4.1869631 4.4962611 -0.75437129 1
4.3784389 4.6920156 1.7195939 8
2.4322758 2.6000962 -0.95400703 4
2.7461126 2.9335337 -0.92769814 2
4.5383897 4.8481331 0.34803414 1
3.1602697 3.3747764 -0.89871037 1
4.4622688 4.7634835 0.57104445 1
3.5929408 3.8341322 -0.83223146 1
4.2452955 4.5286946 -0.76217091 1
4.3900051 4.6732473 1.7180409 10
2.4514794 2.6032681 -0.95814812 5
2.7531517 2.9215753 -0.9267984 2
3.1855006 3.3780067 -0.90252656 1
3.597502 3.8135757 -0.83035421 1
4.4919028 4.7600274 0.80360651 11
4.2610788 4.5138474 -0.76217091 1
4.4864879 4.7509708 1.0349705 2
4.4727416 4.733099 1.2658269 2
4.3939433 4.6464634 -0.1116256 2
4.3983264 4.6494732 1.7149351 12
2.461005 2.594265 -0.95814812 4
4.3786449 4.6141291 0.11103221 7
2.7463989 2.8930922 -0.92094964 2
3.1870427 3.3549225 -0.89947367 1
4.5077658 4.7452154 0.57261318 25
3.5978463 3.786046 -0.82722551 1
4.4573455 4.6888604 0.79434443 1
4.2365546 4.4550452 -0.75485879 1
