# .PCD v0.7 - Point Cloud Data file format
VERSION 0.7
FIELDS x y z intensity
SIZE 4 4 4 4
TYPE F F F F
COUNT 1 1 1 1
WIDTH 1375
HEIGHT 1
VIEWPOINT 0 0 0 1 0 0 0
POINTS 1375
DATA ascii
1.139832 4.5920949 -0.91969937 16
1.1343403 4.5665708 -0.74525392 11
1.1424817 4.5924845 -0.58107305 10
1.1400996 4.5761003 -0.41259527 13
2.2853 9.1726732 1.8374907 2
1.1461049 4.5967746 -0.24828181 12
1.1408738 4.5689988 -0.082200833 8
2.2826827 9.1349602 2.5229681 2
0.89937013 3.580543 -0.98920643 4
1.7408419 6.9254675 0.12464508 2
1.0107046 4.0178485 -0.95649189 2
1.1608042 4.6111369 -0.92427886 15
2.3284912 9.2428007 0.83390617 1
1.1570356 4.5893993 -0.74963403 11
2.3260911 9.2196875 1.1675085 1
1.1653078 4.6154146 -0.58448541 10
2.3304904 9.2235508 1.506777 3
1.1611266 4.5954747 -0.41468704 6
2.3067193 9.1227665 1.8290951 2
2.3086126 9.1168633 2.1712275 2
2.3136041 9.1231918 2.5219328 2
0.91377091 3.5848701 -0.99127698 4
1.7521534 6.8689704 0.12373756 2
1.0242424 4.0124073 -0.95604193 2
1.1798074 4.6184697 -0.92656857 7
2.3518562 9.1998711 0.83076853 1
1.1813728 4.617866 -0.75495279 4
2.3513649 9.1845884 1.164096 1
2.3626747 9.2153587 1.506777 3
2.3414752 9.1260691 1.8313849 2
2.3415871 9.1000929 2.5177917 2
0.92531252 3.5779178 -0.99024171 4
1.7370389 6.7118115 0.12101499 2
1.0387299 4.010695 -0.95649189 2
2.3916838 9.2280207 0.4995991 1
1.1939527 4.6067209 -0.92504203 1
2.3854582 9.1973906 0.83129144 3
1.392019 5.3632274 -0.87759745 1
2.3754284 9.1455822 1.1601963 1
2.3762865 9.1292391 1.8336746 2
1.7403338 6.6717 -0.1203518 2
2.3918779 9.1628942 2.5374622 2
0.9328931 3.55598 -0.98506534 4
1.8000652 6.8565707 0.12373756 2
1.0532197 4.0089288 -0.95694178 2
1.2040347 4.579741 -0.92046267 1
2.4160259 9.1832285 0.83076853 1
1.4107332 5.3583355 -0.87759745 1
2.4225085 9.1948242 1.1675085 1
1.6913126 6.4149666 -0.81457478 1
1.7855716 6.7676764 -0.61235625 2
2.4081414 9.1208878 1.8336746 2
0.9457978 3.5545685 -0.98558295 5
1.8332514 6.8850279 0.12436585 2
1.0672042 4.0052285 -0.95694178 2
1.2240614 4.5906854 -0.92351556 1
2.44396 9.159338 0.82937407 1
1.429425 5.3533792 -0.87759745 1
2.4545922 9.1863108 1.1675085 1
1.7136962 6.4090233 -0.81457478 1
2.4247286 9.0555334 1.8222259 2
2.4906294 9.282197 -0.16775253 3
2.4187162 9.007906 2.4991567 2
0.95870405 3.5531101 -0.98610061 5
1.8520595 6.8592815 0.12401681 2
1.0745716 3.9770222 -0.95109308 2
1.2400796 4.5863848 -0.92351556 1
2.4665487 9.1161337 0.82623643 1
1.4398445 5.3178496 -0.8725915 1
1.7360562 6.4030023 -0.81457478 1
2.4522109 9.0318575 1.8191731 2
2.4952364 9.1840048 -0.49876171 3
2.4999189 9.1885452 -0.16621672 3
2.4552181 9.0180492 2.5043333 2
0.96946174 3.546185 -0.98506534 4
1.8800707 6.8723907 0.12436585 2
1.095988 4.00351 -0.95829147 2
1.255281 4.5822473 -0.92351556 1
2.5051911 9.138648 0.82902539 1
1.4658338 5.3435245 -0.87759745 1
2.4907906 9.0736761 1.1553215 1
1.7446588 6.3512697 -0.808725 1
2.5215435 9.1731615 1.506777 3
2.4696493 8.9782448 1.8100141 2
2.4705446 8.9692554 2.1478326 2
0.98348433 3.5463312 -0.98610061 4
1.8677113 6.7347517 0.12199232 2
1.1063055 3.986516 -0.9551422 2
1.2689123 4.5662661 -0.92122585 1
2.5333381 9.1102076 0.82728231 1
1.4854078 5.3381166 -0.87759745 1
2.5224466 9.0649271 1.1553215 1
1.7742748 6.3719134 -0.81213742 1
2.5035932 8.9729156 1.8107775 2
1.8445846 6.6021156 -0.1196537 2
2.4978194 8.9341488 2.4856982 2
0.99481118 3.5391574 -0.98506534 4
1.8588111 6.608511 0.11982822 2
1.1240803 3.9936888 -0.95784163 2
2.5719938 9.1379089 0.49750566 1
1.2805849 4.5466919 -0.91817296 1
2.5543072 9.0629568 0.82379609 3
1.4975994 5.3100843 -0.87384307 1
2.5556524 9.0556221 1.1553215 1
1.7889565 6.3389349 -0.808725 1
1.87632 6.6396174 -0.60364062 2
2.53597 8.9678993 1.8115407 2
2.5289922 8.925375 2.4856982 2
1.0044254 3.5284069 -0.98299474 4
1.9497447 6.8446331 0.12422623 2
1.1346459 3.9805689 -0.9555921 2
1.2956544 4.5424209 -0.91817296 1
2.578881 9.0352764 0.8220529 1
1.5130289 5.2974916 -0.8725915 1
2.5856702 9.0470963 1.1553215 1
2.5624499 8.9481163 1.809251 2
2.6214619 9.1421289 -0.16600728 3
2.5585742 8.9169397 2.4856982 2
1.0161216 3.5250564 -0.98299474 4
1.9646711 6.8112307 0.12373756 2
1.1424366 3.958061 -0.95109308 2
1.3107117 4.5380988 -0.91817296 1
2.6132529 9.0419893 0.82344747 1
1.5393698 5.3228059 -0.87759745 1
2.6156554 9.0384731 1.1553215 1
2.5811722 8.9018593 1.8016186 2
2.6430433 9.1092939 -0.49708694 3
2.6455457 9.10604 -0.16551863 3
2.5896826 8.9079552 2.4856982 2
1.0312032 3.5287254 -0.98506534 4
1.9805839 6.7774587 0.1232489 2
1.1551511 3.9503086 -0.95019323 2
2.6659515 9.11094 0.49750566 1
1.327337 4.5332642 -0.91817296 1
2.6385353 9.0055809 0.82100707 1
1.5588675 5.3171287 -0.87759745 1
2.647192 9.0292864 1.1553215 1
2.6518385 9.0334549 1.4911336 3
2.6137841 8.8923378 1.8016186 2
2.6207638 8.89886 2.4856982 2
1.0413203 3.517695 -0.98299474 5
1.1740515 3.9609957 -0.95379245 2
1.3431522 4.5286036 -0.91817296 1
2.6620166 8.9695759 0.81856668 1
1.5684218 5.2813563 -0.8725915 1
2.6689572 8.9814672 1.1504467 1
1.8852092 6.3399777 -0.81213742 1
2.6567647 8.9290066 1.47549 3
2.6408851 8.8699894 1.7989473 15
2.6433673 8.866993 2.1361351 23
1.9480933 6.5305929 -0.1189556 2
2.6533604 8.8891954 2.4856982 2
1.0524843 3.5103376 -0.98195946 4
1.9646693 6.548594 0.11933956 2
1.1873115 3.9550066 -0.95334262 2
1.3589529 4.5238872 -0.91817296 1
2.6910143 8.9525976 0.81786948 1
1.5959499 5.3061161 -0.87759745 1
2.6888525 8.9340773 1.1455719 1
1.8855748 6.2611299 -0.80287528 1
2.6736655 8.8723946 1.4676683 21
2.6712663 8.8588362 1.7985657 2
1.9979351 6.6216569 -0.36247885 1
1.9708792 6.5237527 -0.1189556 2
2.6843755 8.879879 2.4856982 2
1.0624853 3.4992485 -0.97988898 4
1.1988417 3.9433799 -0.95154291 2
2.7488461 9.0361814 0.49499351 1
1.3747349 4.5191159 -0.91817296 1
2.7193496 8.9336195 0.81699795 5
1.6075543 5.2778378 -0.87384307 1
2.7165477 8.9132452 1.1441095 1
1.9294248 6.3266621 -0.81213742 1
2.0164518 6.6037655 1.3421506 2
2.7153537 8.8704557 2.4856982 2
1.0746945 3.495518 -0.97988898 4
1.2120252 3.937309 -0.95109308 2
2.7944846 9.072341 0.49750566 1
1.6236378 5.2646437 -0.8725915 1
2.0522473 6.6502762 0.85454792 1
2.045676 6.6207905 1.0975443 2
2.0186164 6.5291619 1.3284123 2
2.7463033 8.8609219 2.4856982 2
1.0914822 3.5065022 -0.98403007 4
1.2251828 3.9311936 -0.95064318 2
2.0733705 6.6486535 0.36499101 1
1.4062508 4.5094085 -0.91817296 1
2.0670989 6.624475 0.60712689 4
1.6420063 5.2589436 -0.8725915 1
2.060056 6.5938087 0.84821075 1
1.9735463 6.3130379 -0.81213742 1
2.045187 6.5381975 1.0850296 2
2.0449154 6.5333171 1.3307021 4
2.7772152 8.8512821 2.4856982 2
1.1002312 3.4916158 -0.98092425 4
1.231861 3.9045918 -0.94524431 2
2.0881469 6.6147113 0.36352557 1
1.421982 4.5044727 -0.91817296 1
2.0818102 6.59062 0.6046865 3
1.6639268 5.2644806 -0.87446874 1
2.0842557 6.5903635 0.84869814 1
1.9572421 6.1849842 -0.79653811 1
2.0715766 6.5423174 1.0869068 2
2.0795636 6.5635715 1.3383343 2
2.4400451 7.6919947 1.8630446 5
2.8080974 8.8415337 2.4856982 2
1.1100652 3.4803915 -0.97885364 4
2.0543396 6.4371076 0.11794336 2
1.2454842 3.9002676 -0.94524431 2
2.1124415 6.6111865 0.36373493 1
2.1145065 6.6136785 0.60747552 3
1.6738657 5.2323008 -0.87008858 1
2.4836738 7.7589965 1.0003036 1
2.493505 7.780355 1.294026 3
2.4747565 7.7172208 1.5753192 5
2.0826859 6.4906912 -0.35724527 1
2.4817717 7.7298169 1.8742923 5
2.0697544 6.4426694 -0.11811788 2
1.1210198 3.4728189 -0.97781837 4
1.2638865 3.9107306 -0.9488436 2
2.5152867 7.7781997 0.42842221 1
1.4533947 4.4944353 -0.91817296 1
2.5129616 7.7663798 0.71415412 8
1.68847 5.2151489 -0.86821139 1
2.5205295 7.7804961 1.0042036 1
2.0309761 6.2655883 -0.808725 1
2.5291827 7.7979093 1.2984062 3
2.0979381 6.4683075 -0.59492511 2
2.5089502 7.7309442 1.5798986 5
2.5249999 7.7711473 1.8864396 5
1.1355357 3.4762297 -0.97988898 4
1.2751039 3.8988867 -0.9470439 2
2.564656 7.8419518 0.43239969 1
1.4690754 4.4893341 -0.91817296 1
2.5549374 7.8030028 0.71833766 8
1.7103505 5.2204885 -0.87008858 1
2.5550952 7.7942843 1.0071282 1
2.0379877 6.213191 -0.80287528 1
2.5685709 7.8307743 1.3052894 3
2.5518489 7.7706351 1.5898207 8
2.5606265 7.7882047 1.8927382 5
1.150089 3.4795816 -0.98195946 4
1.2825203 3.8779855 -0.94299489 2
2.5970361 7.8481212 0.43323711 1
1.4847383 4.4841785 -0.91817296 1
2.5978227 7.8413205 0.72269541 8
1.721442 5.1960359 -0.86695993 1
2.6009145 7.846066 1.014928 1
2.0423331 6.1574101 -0.79653811 1
2.6058431 7.8517566 1.3102952 3
2.6011131 7.832932 1.6043221 5
2.6036556 7.8314476 1.9053354 5
1.157945 3.4647558 -0.97885364 4
1.2954316 3.8716359 -0.94254488 2
2.6358263 7.8730989 0.43512118 1
1.4995972 4.4792314 -0.91817296 1
2.6484909 7.906343 0.72949362 6
1.7458483 5.2087245 -0.87008858 1
2.6383877 7.8670521 1.0188278 1
2.0802295 6.1991758 -0.80287528 1
2.6508424 7.8950467 1.3190556 3
2.6496992 7.8870797 1.6172972 5
2.6508586 7.8814168 1.9197323 5
1.1687957 3.4570324 -0.97781837 4
2.1652551 6.400651 0.11794336 2
1.3201839 3.9003167 -0.95064318 2
2.6850779 7.9281678 0.43867999 1
1.5152248 4.473969 -0.91817296 1
2.6811905 7.9121447 0.73088807 6
1.7640184 5.202599 -0.87008858 1
2.6849639 7.9141903 1.02614 1
2.0980291 6.1805978 -0.80141288 1
2.6834655 7.9007092 1.3215585 3
2.6936369 7.9261131 1.6272193 5
2.6953037 7.921927 1.9318796 2
2.1640055 6.356729 -0.11721037 2
1.1796064 3.4492753 -0.9767831 4
2.1979413 6.4233255 0.11850184 2
1.3224274 3.8624985 -0.94254488 2
2.7243893 7.9527564 0.44056413 1
2.7275255 7.9573946 0.73594308 8
1.7783219 5.1851983 -0.86821139 1
2.744791 7.9986501 1.0383269 1
2.1066964 6.1356869 -0.79653811 1
2.7187316 7.9137115 1.3253129 3
2.2105052 6.4307084 -0.59492511 2
2.7251189 7.9278007 1.6295089 5
2.7438643 7.973279 1.9467264 5
1.1947674 3.4522312 -0.97885364 5
3.036551 8.7739897 0.16206305 3
1.3397291 3.8689072 -0.94524431 2
2.7782857 8.0186863 0.44475099 2
1.5472009 4.4630117 -0.91817296 1
2.7808332 8.0169916 0.7423926 12
1.8012023 5.1898427 -0.87008858 1
2.783107 8.0190258 1.0422267 1
2.1281028 6.1282954 -0.79653811 1
2.780051 8.0012035 1.3415821 3
2.7741511 7.9752431 1.6413391 5
2.7903712 8.0128584 1.9588737 5
3.0619383 8.7926941 -0.1625168 3
1.2093643 3.4553332 -0.98092425 5
1.3513237 3.8566144 -0.94344473 2
2.8247542 8.0617161 0.44768184 1
1.5627714 4.4575834 -0.91817296 1
2.8266058 8.0579987 0.74709904 8
1.8193085 5.1835232 -0.87008858 1
2.8308983 8.0612144 1.0490514 1
2.1505485 6.1204548 -0.79653811 1
2.843323 8.0920897 1.358477 3
2.8221705 8.0229225 1.6531693 5
2.8293304 8.034317 1.9665221 5
3.0926144 8.7819519 -0.1625168 3
1.2201284 3.4474485 -0.97988898 5
1.3641044 3.8521123 -0.94344473 2
2.8742166 8.1120501 0.4510313 1
1.578321 4.4521017 -0.91817296 1
2.8760319 8.1081705 0.75267702 8
1.8364867 5.1774621 -0.87008858 1
2.881515 8.1191311 1.0578259 1
2.1708345 6.1132889 -0.79653811 1
2.8953633 8.1491251 1.3697404 3
2.4377534 6.8573685 1.414658 2
3.113857 8.74473 -0.16202815 3
1.2276497 3.4324696 -0.9767831 4
1.3821402 3.8601704 -0.94659406 2
2.9105299 8.1288004 0.45249674 1
1.593075 4.4468436 -0.91817296 1
2.9150074 8.1323481 0.75581461 2
1.8372085 5.1226754 -0.86195397 1
2.5088961 6.9916968 0.91207021 1
2.1921623 6.1056733 -0.79653811 1
2.4384258 6.791574 1.1429104 8
2.4470644 6.8081717 1.4062624 52
1.2396247 3.4281631 -0.9767831 4
2.2664375 6.2677979 0.11633775 2
1.3955954 3.8573983 -0.9470439 2
2.4868045 6.8697205 0.3828899 13
1.6085889 4.4412551 -0.91817296 1
2.482451 6.8502321 0.63745707 71
1.8541849 5.1165552 -0.86195397 1
2.4786131 6.8359079 0.89281487 34
2.2123959 6.098371 -0.79653811 1
2.4668312 6.79602 1.1451004 13
2.3212841 6.3915558 -0.59492511 2
2.460247 6.7741842 1.4009198 5
2.2932875 6.3110361 -0.35190701 1
2.2805166 6.269073 -0.11644246 2
1.2529094 3.4274445 -0.97781837 4
3.1548707 8.6257582 0.16031781 3
1.4063786 3.8431063 -0.94479448 2
2.5133383 6.8643112 0.38309923 73
1.624081 4.4356136 -0.91817296 1
2.5084057 6.8471375 0.63797998 94
1.8783679 5.1245613 -0.86445701 1
2.2347314 6.0902219 -0.79653811 1
2.5312147 6.894484 1.1632469 2
2.3435822 6.3834133 -0.59492511 2
3.1886859 8.6666021 -0.16119042 3
1.2648668 3.4230494 -0.97781837 4
3.1960583 8.644701 0.16087629 3
1.4130214 3.8198977 -0.94029546 2
1.6395555 4.4299169 -0.91817296 1
1.9017314 5.1327934 -0.86695993 1
2.2559783 6.0823836 -0.79653811 1
3.210557 8.6329269 -0.16077158 3
1.2768054 3.4186144 -0.97781837 4
3.2220128 8.6222544 0.16066685 3
1.4311249 3.8277187 -0.94344473 2
1.6550057 4.4241676 -0.91817296 1
1.9140959 5.1113238 -0.86445701 1
3.2406743 8.6216669 -0.16077158 3
1.2900962 3.4177508 -0.97885364 4
3.2520924 8.6109533 0.16066685 3
1.443099 3.8190541 -0.94254488 2
1.6704401 4.4183636 -0.91817296 1
1.9375187 5.1193914 -0.86695993 1
3.1928039 8.4006977 2.4080527 2
1.2992651 3.4060066 -0.9767831 4
2.3751402 6.2231374 0.11626793 2
1.4571174 3.8158143 -0.94299489 2
1.6858541 4.4125051 -0.91817296 1
1.9440877 5.083076 -0.86195397 1
2.4640443 6.4291167 1.3383343 2
2.3910117 6.2320514 -0.11651226 2
1.3111458 3.4014509 -0.9767831 4
2.3972013 6.2189593 0.11633775 2
1.4711648 3.8145976 -0.94389462 2
1.7012453 4.4065938 -0.91817296 1
2.4753265 6.4083028 0.601026 1
1.9765911 5.1171408 -0.86883712 1
2.4630845 6.373291 0.83894861 1
0.64862269 1.6774588 -0.22082727 1
2.4475381 6.3265057 1.0743921 2
0.6580683 1.70012 -0.159495 1
2.4286575 6.2744389 1.3078048 2
2.4249511 6.2616253 -0.35190701 1
2.3480093 6.0535359 1.7397816 4
1.3252223 3.404285 -0.97885364 5
3.3304276 8.5509224 0.16017818 3
1.4773967 3.7912812 -0.93939561 2
2.4993711 6.4105549 0.36059478 1
1.7158501 4.4009275 -0.91817296 1
2.4806361 6.3592229 0.59719115 4
1.9786421 5.069725 -0.86195397 1
2.4492121 6.2721992 0.82676172 1
0.65158516 1.6677884 -0.21985231 9
2.406322 6.1560192 1.0468596 2
0.6608007 1.690506 -0.15879777 18
2.3761761 6.0757704 1.2681167 6
2.3720808 6.059063 1.5022231 4
3.359236 8.5761671 -0.16077158 3
2.3670127 6.0399065 1.7382288 4
1.3321472 3.387054 -0.97523022 5
1.495618 3.798794 -0.94254488 2
2.425108 6.1564989 0.34677809 1
1.7312007 4.3949118 -0.91817296 1
2.4158835 6.1299443 0.57644808 6
2.0035717 5.0811648 -0.86508268 1
2.4062531 6.0992665 0.80506897 3
0.65958971 1.6710429 -0.22058353 74
2.4023993 6.0832767 1.0359092 5
0.65645164 1.6622454 -0.15635739 54
2.3973687 6.0674396 1.2681167 4
2.3889146 6.0398736 1.4995238 4
2.453197 6.1992345 -0.11637264 2
2.3909278 6.0387912 1.7402993 4
1.3446747 3.3841789 -0.97574782 4
2.4459434 6.1526332 0.11556984 5
1.5095906 3.795361 -0.94299489 2
2.4377201 6.1257277 0.34552202 3
1.7465303 4.3888421 -0.91817296 1
2.4313722 6.1066647 0.57505357 6
2.0227599 5.0778098 -0.86570847 1
2.4334071 6.1055822 0.80701888 3
0.66541839 1.6687304 -0.22058353 96
2.416301 6.0565057 1.0327804 5
0.65855896 1.6506909 -0.15548584 80
2.4170768 6.055388 1.2673534 4
2.4800198 6.2099204 -0.35044158 1
2.4607193 6.1553535 -0.11570945 4
2.4277744 6.0698705 1.7516873 2
1.3492843 3.3615358 -0.97057146 4
2.4674037 6.1440578 0.11556984 5
1.517743 3.7774105 -0.93984544 2
2.4605799 6.1208873 0.34573138 3
1.7618409 4.3827186 -0.91817296 1
2.4563897 6.1073837 0.57592511 6
2.043421 5.0780487 -0.86695993 1
2.4450684 6.0731115 0.80385023 3
0.66753042 1.657191 -0.21936484 100
2.4588394 6.1011686 1.0418537 2
0.67101932 1.6650139 -0.15705465 100
2.4587576 6.0978961 1.2780387 2
2.4837499 6.1567717 -0.34792948 1
2.4717064 6.1207676 -0.11522079 4
2.4764493 6.1294231 1.7713577 2
1.3682696 3.3747082 -0.97574782 4
2.467787 6.0835233 0.11459251 2
1.5279889 3.7648666 -0.93804586 2
2.5059776 6.1714768 0.34908086 1
1.7771298 4.3765416 -0.91817296 1
2.5031888 6.1615319 0.58185172 1
2.0492342 5.0416045 -0.86195397 1
2.5171049 6.1895809 0.8204245 4
0.6725626 1.6530124 -0.2191211 100
2.5151279 6.1785383 1.0565585 5
0.67382288 1.6552799 -0.15635739 100
2.5126133 6.1692777 1.2948298 2
2.5218027 6.1887574 -0.35023224 1
2.4938138 6.1139536 -0.11525569 2
2.5138843 6.1600938 1.7827457 2
1.3815047 3.3734872 -0.9767831 4
2.5580006 6.243258 0.11776884 17
1.5507298 3.7829511 -0.94389462 2
1.792395 4.3703117 -0.91817296 1
2.0728233 5.0490394 -0.86445701 1
2.5575495 6.2266641 0.826518 24
0.67229271 1.6359656 -0.21717119 100
2.5674791 6.2446275 1.0693861 2
0.6818701 1.6584457 -0.15688033 100
2.5714748 6.2512522 1.3139107 2
2.5676963 6.232789 -0.11766412 5
1.3888427 3.3579328 -0.97367728 4
2.5935397 6.2675505 0.11839712 22
1.55647 3.75951 -0.93939561 2
1.8076406 4.364028 -0.91817296 1
2.0964842 5.0563722 -0.86695993 1
2.5762279 6.2103629 0.82554299 3
0.68104345 1.6409426 -0.21814615 100
0.68230546 1.6431755 -0.15566015 100
0.71291196 1.7151912 -0.09734489 1
2.6024976 6.2551746 -0.11825751 2
3.4284105 8.2362261 2.3904526 2
1.4005532 3.3530653 -0.97367728 4
2.6177166 6.2639942 0.11850184 5
1.5748466 3.7666388 -0.94254488 2
2.615937 6.2536073 0.3552565 14
1.8228598 4.3576927 -0.91817296 1
2.6083434 6.2323904 0.59109026 13
2.0958121 5.0052929 -0.85945106 1
2.6400721 6.3020349 0.83894861 1
0.68676686 1.6385554 -0.21814615 100
0.68649656 1.6371088 -0.15531152 100
3.4778736 8.2897434 1.7474288 2
0.69879621 1.6648105 -0.094623417 12
1.4099977 3.3428159 -0.9721244 4
2.6395676 6.254818 0.11850184 2
1.5826784 3.7485521 -0.93939561 2
1.838061 4.3513031 -0.91817296 1
3.5181544 8.3245792 0.79067689 1
2.0994227 4.9651976 -0.85381943 1
3.5112536 8.3001804 1.1065738 1
0.69403023 1.6398041 -0.21863361 100
3.5554905 8.3965826 1.4442031 3
0.69220662 1.6347027 -0.15531152 100
0.70304483 1.6586833 -0.094414078 70
1.4178735 3.3289866 -0.96953619 4
1.5988116 3.7501748 -0.94119519 2
1.85324 4.3448601 -0.91817296 1
3.5456216 8.3085861 0.79032826 1
2.1369097 5.0050726 -0.86195397 1
3.5402074 8.2878723 1.1065738 1
0.69896877 1.6355466 -0.21838988 100
0.7026087 1.643268 -0.15635739 100
0.7080434 1.6543833 -0.094309397 100
2.6048613 6.0805283 -0.11546512 2
1.4401695 3.3488629 -0.9767831 4
2.5788441 5.9937696 0.11389441 5
1.6088115 3.7374108 -0.93939561 2
1.8683941 4.3383651 -0.91817296 1
3.584065 8.3181143 0.79241997 1
2.1543689 4.9975824 -0.86195397 1
3.569114 8.275465 1.1065738 1
0.69888598 1.62046 -0.21668372 100
0.71149957 1.6481221 -0.15705465 100
0.70906097 1.6409011 -0.093681373 100
2.6123157 6.0424881 -0.11490664 2
1.4481899 3.3369806 -0.97471261 5
1.6219702 3.7338436 -0.93984544 2
1.8827696 4.3321457 -0.91817296 1
3.5965352 8.2635851 1.1065738 1
0.70504767 1.6199539 -0.21692745 100
0.71218634 1.6347942 -0.15600878 100
0.71928883 1.6495252 -0.094309397 100
1.4514989 3.3144636 -0.96953619 4
1.6359088 3.7320137 -0.94074529 2
1.8971262 4.3258777 -0.91817296 1
3.6391542 8.2941608 0.79241997 1
0.72015625 1.6405624 -0.28377217 1
0.71069849 1.6174827 -0.21692745 100
0.71038717 1.6160083 -0.15443997 100
0.72636342 1.6507872 -0.094518751 100
1.4677473 3.3199775 -0.972642 4
1.647348 3.7227166 -0.93984544 2
1.9122159 4.3192286 -0.91817296 1
3.6680822 8.2814074 0.79241997 1
0.70747185 1.5965004 -0.27657616 6
0.71794963 1.6186213 -0.21741492 100
0.71925682 1.6208031 -0.15513723 100
0.72887784 1.6409407 -0.094100058 100
0.73927754 1.6627868 -0.031763379 1
1.4746029 3.3042493 -0.96953619 4
1.6571546 3.709826 -0.93804586 2
1.9272803 4.3125277 -0.91817296 1
0.71949285 1.6084468 -0.27907911 39
0.72440696 1.6179172 -0.21765867 100
0.72600693 1.6199744 -0.15531152 100
0.72969908 1.6274515 -0.093472026 100
0.73852682 1.6456012 -0.031484142 13
1.4882904 3.3023453 -0.97057146 5
2.6776934 5.9414935 0.11375479 2
1.6732973 3.7111251 -0.93984544 2
1.9430747 4.3054347 -0.91817296 1
0.72213089 1.5985979 -0.27782765 81
0.72351032 1.6009068 -0.21570876 100
0.73330009 1.6210606 -0.15566015 100
0.7373063 1.6284051 -0.093681373 100
0.73931617 1.632084 -0.031274714 52
1.5030091 3.3041635 -0.972642 4
2.6944838 5.9207187 0.11354536 2
1.6868873 3.7049677 -0.93984544 2
1.9580907 4.2986259 -0.91817296 1
0.73426139 1.6104469 -0.2803306 98
0.72937274 1.5982444 -0.21570876 100
0.73840845 1.6165498 -0.15548584 100
0.74464673 1.6294544 -0.093890712 100
0.73947018 1.616634 -0.031030379 79
1.5134962 3.2951217 -0.97160673 4
1.7022519 3.7043688 -0.94119519 2
1.9738319 4.2914209 -0.91817296 1
3.7862244 8.2280645 0.79241997 1
0.73602986 1.5987725 -0.27876624 100
0.73992956 1.6065071 -0.21717119 100
0.73987645 1.6049154 -0.15461428 100
0.75061357 1.6267143 -0.093890712 100
0.75181431 1.6285672 -0.031309616 100
1.5211655 3.2830737 -0.96953619 4
1.7127135 3.6931 -0.93984544 2
1.9880511 4.2848525 -0.91817296 1
3.8134911 8.2154627 0.79241997 1
0.73633516 1.5855736 -0.27688903 100
0.74720669 1.6075146 -0.21765867 100
0.7451942 1.6024532 -0.15461428 100
0.75768995 1.6278375 -0.094100058 100
0.75495994 1.6204957 -0.031204903 100
1.5342537 3.2812433 -0.97057146 4
1.7206374 3.6765096 -0.93714613 2
1.9946718 4.2601056 -0.91435677 1
0.74270326 1.5847824 -0.27720189 100
0.7494418 1.5977075 -0.21668372 100
0.7533223 1.6052535 -0.15513723 100
0.75487667 1.607105 -0.093053341 100
0.7623139 1.6214696 -0.031274714 100
1.5498192 3.2846038 -0.97315967 5
0.79644448 1.6871787 0.03256619 1
1.7334614 3.6704805 -0.93714613 2
2.0179183 4.2708678 -0.91817296 1
0.74823111 1.58218 -0.27720189 100
0.751616 1.5879053 -0.21570876 100
0.75977421 1.6044146 -0.15531152 100
0.76219165 1.6080703 -0.09326268 100
0.76796973 1.6187985 -0.031274714 100
1.5571237 3.2704523 -0.97057146 4
0.77825093 1.6338385 0.031588856 2
1.7462626 3.6644075 -0.93714613 2
2.0328135 4.2637982 -0.91817296 1
0.75630128 1.5849072 -0.27814052 100
0.7571547 1.5852717 -0.21570876 100
0.76107544 1.5927639 -0.15443997 100
0.77124763 1.6126069 -0.093681373 100
0.76670814 1.6016786 -0.030995475 100
1.5651848 3.2580311 -0.96850091 4
0.78221655 1.6275073 0.031519048 17
1.7624201 3.6653152 -0.93894571 2
2.0476856 4.2566757 -0.91817296 1
0.76011479 1.578698 -0.27751476 100
0.76326936 1.5845404 -0.2159525 100
0.76403362 1.5847141 -0.15391703 100
0.77513558 1.6063075 -0.093472026 100
0.77375364 1.6027291 -0.031065283 100
1.5759796 3.2528234 -0.96850091 4
1.7745659 3.6594498 -0.93894571 2
2.061789 4.2498627 -0.91817296 1
0.76103193 1.5672836 -0.27595043 100
0.76938677 1.5837862 -0.21619622 100
0.77276981 1.5893387 -0.15461428 100
0.77871048 1.6001362 -0.09326268 100
0.78256613 1.6073459 -0.031204903 100
1.590151 3.2545218 -0.97057146 4
0.78333348 1.6025217 0.031135093 100
1.7781297 3.6360395 -0.93444669 2
0.765356 1.5629776 -0.27563757 100
0.77316296 1.5775262 -0.21570876 100
0.77655846 1.5830539 -0.15426566 100
0.78429097 1.5974084 -0.09326268 100
0.79081732 1.6099888 -0.031309616 100
1.5986502 3.2417414 -0.96850091 4
0.7927404 1.6068133 0.031274714 100
1.7966205 3.6399822 -0.93714613 2
0.79651177 1.6123276 -0.34956211 1
0.77195507 1.5619324 -0.27595043 100
0.77541947 1.5675645 -0.21473379 100
0.78589112 1.5873393 -0.15496291 100
0.79014093 1.5945228 -0.09326268 100
0.79227155 1.5981215 -0.031135093 100
1.6105204 3.2358608 -0.96850091 5
0.80040741 1.6074769 0.031344522 100
1.806473 3.6263957 -0.93534642 2
0.77586383 1.5568233 -0.33811355 3
0.78120118 1.5661635 -0.27720189 100
0.77999991 1.5630722 -0.21449007 100
0.7896471 1.5810212 -0.15461428 100
0.7948094 1.5899684 -0.093158014 100
0.79069012 1.5810381 -0.030855855 100
1.6143106 3.2166889 -0.96435976 4
0.80393952 1.6012393 0.031274714 100
1.8324831 3.6482482 -0.94254488 2
0.85792309 1.7080193 0.10017103 1
0.77925956 1.5507332 -0.33735034 29
0.78639019 1.5635645 -0.27720189 100
0.78785604 1.5657965 -0.21522127 100
0.79219615 1.5730562 -0.15409136 100
0.80277413 1.5926747 -0.093472026 100
0.80042946 1.5873356 -0.031030379 100
1.6275848 3.2164896 -0.9659127 5
0.80563194 1.5914283 0.031135093 100
1.8304846 3.6143348 -0.93534642 2
0.83318871 1.6444386 0.096612185 5
0.78262269 1.5446382 -0.33658707 73
0.78621078 1.5503772 -0.2753247 100
0.79331732 1.5630366 -0.21522127 100
0.79470253 1.5650908 -0.15356842 100
0.80624193 1.5864426 -0.09326268 100
0.80868566 1.5898787 -0.031135093 100
1.6431947 3.2193916 -0.96850091 4
0.81300068 1.5921686 0.031204903 100
1.8404312 3.6027167 -0.93399686 2
0.83165294 1.6272923 0.095774807 46
0.79069048 1.5471412 -0.33773196 86
0.79341727 1.5511403 -0.27595043 100
0.79876745 1.5602584 -0.21522127 100
0.8001613 1.5623069 -0.15356842 100
0.80630714 1.572955 -0.092634656 100
0.81240523 1.5834877 -0.031065283 100
1.6535376 3.2119191 -0.96798331 5
0.82038504 1.5928762 0.031274714 100
1.8601341 3.6101305 -0.93759602 2
0.82543147 1.6013011 0.094414078 100
0.79698539 1.5461169 -0.33811355 100
0.79882735 1.5483612 -0.27595043 100
0.80056632 1.5504053 -0.21424633 100
0.80926806 1.5665848 -0.15426566 100
0.81179327 1.5701308 -0.092634656 100
0.81700838 1.5788664 -0.031030379 100
1.6674107 3.2112706 -0.96953619 5
0.82409626 1.5864539 0.031204903 100
1.8664352 3.5915105 -0.93444669 2
0.8347016 1.605498 0.094832763 100
0.79784983 1.5346158 -0.33620548 100
0.80604988 1.5490687 -0.27657616 100
0.80322224 1.5423197 -0.2135151 100
0.81380987 1.5619841 -0.15409136 100
0.82096344 1.5743711 -0.093053341 100
0.82066464 1.5724591 -0.030960569 100
1.6759192 3.2002976 -0.96798331 5
0.82962948 1.5835674 0.031204903 100
1.8843894 3.5953293 -0.93714613 2
0.83844471 1.5990374 0.094623417 100
0.79955393 1.5248671 -0.33467901 100
0.80961674 1.5427469 -0.27595043 100
0.80952454 1.5412636 -0.21375884 100
0.81674773 1.5537002 -0.15356842 100
0.82645369 1.571496 -0.093053341 100
0.82428467 1.5660464 -0.030890759 100
1.6822251 3.1838839 -0.96487743 5
0.82954746 1.5700531 0.030995475 100
1.891463 3.5783927 -0.93444669 2
0.84588897 1.5996319 0.094832763 100
0.81064695 1.532338 -0.33696869 100
0.81249243 1.5345322 -0.27501184 100
0.81861675 1.5454451 -0.21473379 100
0.82123339 1.5490793 -0.1533941 100
0.83220756 1.5684565 -0.093053341 100
0.83068413 1.5649254 -0.030925665 100
1.6996855 3.1899281 -0.96850091 4
0.83717734 1.5705316 0.031065283 100
1.9073179 3.5765944 -0.93579644 2
0.84958839 1.5931447 0.094623417 100
0.81783807 1.5329639 -0.33773196 100
0.89122576 1.6698189 0.1655959 1
0.81877488 1.533429 -0.2753247 100
0.82427531 1.5424345 -0.21473379 100
0.82757545 1.5479599 -0.15356842 100
0.83202422 1.5549756 -0.092425302 100
0.83897328 1.5673052 -0.031030379 100
1.706239 3.1754661 -0.9659127 5
0.84238052 1.5677469 0.031065283 100
1.9182441 3.5685332 -0.93534642 2
0.85041422 1.5813744 0.094100058 100
0.81946391 1.5231838 -0.33620548 100
0.86116755 1.6000297 0.15897207 1
0.82385582 1.5307053 -0.2753247 100
0.82279539 1.527459 -0.21302763 100
0.83580995 1.5503232 -0.15409136 100
0.83527964 1.5486923 -0.092215963 100
0.83968937 1.5555688 -0.030855855 100
3.1246848 5.7862267 1.76204 2
1.7167606 3.1697903 -0.9659127 5
0.84975272 1.5683135 0.031135093 100
1.9334742 3.566956 -0.93669617 2
0.85755676 1.5820575 0.094309397 100
0.81889564 1.5101029 -0.33391577 100
0.86741769 1.5989169 0.15914638 18
0.83107811 1.5312924 -0.27595043 100
0.83285952 1.5332998 -0.21424633 100
0.83904421 1.5440415 -0.15374273 100
0.8444978 1.5527854 -0.092634656 100
0.84006512 1.5439928 -0.030681333 100
3.1198444 5.7317166 1.7485816 2
1.7250363 3.1586919 -0.96435976 5
0.85494924 1.5654867 0.031135093 100
1.9499648 3.5690751 -0.93894571 2
0.86403239 1.5808069 0.094414078 100
0.82604533 1.5106803 -0.33467901 100
0.83615118 1.5285282 -0.27595043 100
0.83603334 1.5270467 -0.21375884 100
0.84059888 1.5341144 -0.15304548 100
0.84868211 1.5482252 -0.092529982 100
0.84352553 1.5375447 -0.030611521 100
3.1045108 5.6564374 1.7289113 2
1.7308431 3.1444929 -0.96177161 5
0.85269159 1.5484797 0.030855855 100
1.9586511 3.5554187 -0.93714613 1
0.87340081 1.5847781 0.094832763 100
0.83226186 1.5095068 -0.3350606 100
0.87924385 1.5947199 0.1593207 100
0.83384961 1.5117625 -0.27344745 100
0.84231842 1.5258569 -0.21400258 100
0.84498507 1.5294271 -0.15287116 100
0.85435128 1.545104 -0.092529982 100
0.85469478 1.5450901 -0.030820949 100
3.1167548 5.6320429 1.7247702 4
1.7470461 3.1465721 -0.96435976 4
0.86224574 1.5523363 0.030995475 100
0.85284352 1.5347781 -0.4053618 1
0.87920392 1.581566 0.094832763 100
0.84065115 1.5115937 -0.33620548 100
0.88798767 1.5967106 0.15984364 100
0.84322608 1.515601 -0.27469894 100
0.84597349 1.5192908 -0.2135151 100
0.85349506 1.5315408 -0.1533941 100
0.8541711 1.5314966 -0.091901943 100
0.85840374 1.5384543 -0.030751141 100
3.1420829 5.6290164 1.7273583 4
1.7632877 3.1485748 -0.96694797 5
0.86792922 1.5491658 0.030995475 100
0.83845419 1.4959435 -0.39591387 7
0.87718064 1.5643961 0.093995392 100
0.84330469 1.5033654 -0.3350606 100
0.8918848 1.5899696 0.159495 100
0.84974182 1.5142232 -0.27501184 100
0.84376007 1.5023332 -0.2115652 100
0.8571505 1.5249283 -0.15304548 100
0.86565375 1.5388002 -0.092529982 100
0.86599863 1.538783 -0.030820949 100
3.1674337 5.6258788 1.7299466 4
1.7672143 3.1286352 -0.96280694 5
0.87753683 1.5529379 0.031135093 100
0.84776717 1.4996464 -0.39771348 54
0.88487458 1.5646477 0.094204731 100
0.84590864 1.4951385 -0.33391577 100
0.89770603 1.5866902 0.159495 100
0.85625869 1.512818 -0.2753247 100
0.85806614 1.5147759 -0.21375884 100
0.86469883 1.5252432 -0.1533941 100
0.86931777 1.532142 -0.092320636 100
0.86768389 1.5286424 -0.030681333 100
3.1784916 5.5974336 1.7247702 4
1.7803108 3.1300945 -0.96487743 5
0.88016248 1.5468514 0.031065283 100
0.84739327 1.4886563 -0.39546397 100
0.88951355 1.5620151 0.094204731 100
0.85202396 1.4961822 -0.33467901 100
0.89846462 1.5770953 0.15879777 100
0.85878772 1.506838 -0.27469894 100
0.91243804 1.6003222 0.22618952 2
0.86157298 1.5104991 -0.2135151 100
0.86625773 1.5174797 -0.15287116 100
0.87755382 1.5366466 -0.092739321 100
0.87023151 1.5225887 -0.030611521 100
3.1845365 5.5695305 1.7190762 6
1.7927318 3.1252244 -0.96539509 5
0.88157701 1.536831 0.030925665 100
0.85646456 1.4924498 -0.39726356 100
0.89694828 1.5623655 0.094414078 100
0.85750169 1.4930496 -0.33467901 100
0.90423936 1.5737913 0.15879777 100
0.86135131 1.4985425 -0.27376035 100
0.91702837 1.5954071 0.22594579 26
0.86585122 1.5057614 -0.21327138 100
0.87254214 1.5161741 -0.15304548 100
0.88118678 1.5299582 -0.092529982 100
0.87953335 1.5264729 -0.030751141 100
3.211678 5.5717697 1.7232174 6
1.8084662 3.1273088 -0.96798331 5
0.88319808 1.5266662 0.030786045 100
0.85216725 1.4724344 -0.39276454 100
0.90166897 1.5573382 0.094309397 100
0.864676 1.4934452 -0.33544225 100
0.91072565 1.5723495 0.15897207 100
0.86162549 1.4869807 -0.27219599 100
0.87235981 1.5042951 -0.2135151 100
0.87982929 1.5165656 -0.1533941 100
0.88451594 1.5234187 -0.092320636 100
0.88612795 1.5249673 -0.030786045 100
3.2301347 5.5566206 1.722182 6
1.8183963 3.1193092 -0.96746564 5
0.8945666 1.5339383 0.030995475 100
0.8553375 1.4660847 -0.39186475 100
0.90105802 1.5438324 0.093681373 100
0.86691391 1.4853315 -0.33429739 100
0.9212321 1.5777637 0.15984364 100
0.87079644 1.4907864 -0.27344745 100
0.91640294 1.5682371 0.22302091 100
0.87259668 1.492672 -0.21229641 100
0.88914138 1.5203645 -0.15409136 100
0.88781095 1.5168743 -0.092111297 100
0.88942325 1.5184147 -0.030716237 100
3.2475593 5.5419769 1.7211467 6
1.8302535 3.114608 -0.96798331 5
0.90396887 1.537702 0.031135093 100
0.86143816 1.4647696 -0.39231464 100
0.90617293 1.5408356 0.093681373 100
0.87109834 1.4806041 -0.33391577 100
0.92269111 1.5676702 0.15914638 100
0.87599468 1.487738 -0.27344745 100
0.92489451 1.5701598 0.22375213 100
0.88183266 1.4964581 -0.21327138 100
0.89039546 1.5103863 -0.1533941 100
0.89715964 1.5206469 -0.092529982 100
0.88835549 1.505124 -0.030506806 100
3.2678826 5.5345049 1.722182 8
1.8292989 3.0882549 -0.96177161 5
0.90702456 1.531255 0.031065283 100
0.87225115 1.471964 -0.39501405 100
0.91663885 1.5462531 0.094204731 98
0.8742581 1.4741771 -0.33315253 100
0.92205781 1.5541589 0.15810052 100
0.88293892 1.4882228 -0.27407321 100
0.93313617 1.5722049 0.22448336 100
0.88476306 1.4901119 -0.21278389 100
0.89464486 1.505556 -0.1532198 100
0.902197 1.5176636 -0.092529982 100
0.89462686 1.5037321 -0.030541712 100
3.2773006 5.5064645 1.7170056 6
1.843491 3.0888066 -0.96384215 5
0.9072389 1.5194947 0.030890759 100
0.87538582 1.4655641 -0.39411426 100
0.92203039 1.5430442 0.094204731 100
0.88115638 1.4746404 -0.33391577 100
0.92720693 1.5510925 0.15810052 100
0.88305962 1.4766548 -0.27250886 100
0.93657988 1.5655311 0.22399586 100
0.88995945 1.4870142 -0.21278389 100
0.88863301 1.4836224 -0.15130237 100
0.9054364 1.5110784 -0.092320636 100
0.90192682 1.5040302 -0.030611521 100
3.2984908 5.4983034 1.7180409 6
1.8567911 3.08534 -0.96487743 5
0.91150594 1.5146053 0.030855855 100
0.87647539 1.4558215 -0.39231464 100
0.92947155 1.5432384 0.094414078 100
0.89060843 1.4781271 -0.33544225 100
0.93905658 1.5579221 0.15914638 100
0.89254576 1.480175 -0.27376035 100
0.93588823 1.5520531 0.22253343 100
0.89719588 1.487298 -0.21327138 100
0.94307375 1.5627357 0.28909093 1
0.89998448 1.4907455 -0.15234824 100
0.9089027 1.5043309 -0.092111297 100
0.90820622 1.502584 -0.030646425 100
3.3166652 5.4851022 1.7175232 8
1.8665485 3.0771875 -0.96435976 5
0.92016363 1.5163827 0.030960569 100
0.87877131 1.447602 -0.39096493 100
0.92656118 1.5263263 0.093576699 100
0.89576232 1.4750094 -0.33544225 100
0.94552398 1.5563372 0.1593207 100
0.89462888 1.4719864 -0.27282172 100
0.94363344 1.5520045 0.22302091 100
0.89851439 1.4772158 -0.21229641 100
0.95262963 1.5661846 0.29034239 13
0.9072544 1.4909987 -0.15269686 100
0.91414869 1.5011489 -0.092111297 100
0.91240501 1.497697 -0.030611521 100
3.3408172 5.4817405 1.7201115 6
1.8762704 3.0690055 -0.96384215 5
0.92622989 1.5150294 0.030995475 100
0.88560086 1.4480047 -0.39186475 100
0.93188375 1.5230825 0.093576699 100
0.89168102 1.4568034 -0.33200768 100
0.94886965 1.5496292 0.15897207 100
0.90672648 1.4808038 -0.27501184 100
0.9508484 1.5522525 0.2235084 100
0.90133405 1.4708426 -0.21180893 100
0.90932822 1.4827278 -0.15217392 100
0.92121094 1.5015137 -0.092320636 100
0.91030282 1.4825745 -0.030367188 100
3.3649888 5.4782748 1.7226996 8
1.8813725 3.0545418 -0.961254 4
0.93151236 1.5117872 0.030995475 100
0.89474058 1.45154 -0.39366436 100
0.937195 1.51982 0.093576699 100
0.89753789 1.4555093 -0.3323893 100
0.94877255 1.5379959 0.15810052 100
0.9046284 1.4658623 -0.27282172 100
0.9583469 1.5523018 0.22399586 100
0.90854794 1.471066 -0.21229641 100
0.95108092 1.5393301 0.28658798 100
0.90900439 1.4712291 -0.15130237 100
0.93064713 1.5050845 -0.092739321 100
0.91757727 1.4827884 -0.030436996 100
3.3678176 5.4402165 1.7144175 10
0.92834479 1.4949359 0.030716237 100
0.89568889 1.4417863 -0.39186475 100
0.94671112 1.5233251 0.093995392 100
0.90675795 1.4590377 -0.33391577 100
0.95203191 1.5312903 0.15775189 100
0.90765351 1.4593406 -0.27219599 100
0.9627108 1.547262 0.22375213 100
0.91787374 1.4746265 -0.21327138 100
0.9585371 1.5393543 0.28721371 100
0.92361319 1.4832685 -0.15287116 100
0.93167037 1.4950463 -0.092320636 100
0.9280383 1.4880605 -0.030611521 100
3.3888333 5.4317045 1.7154527 10
0.89548582 1.431408 -0.4524157 2
0.93567872 1.4950765 0.030786045 100
0.89657879 1.4320446 -0.39006513 100
0.95202315 1.5200108 0.093995392 100
0.91393 1.4591908 -0.33467901 100
0.96477687 1.5397761 0.15897207 100
0.91064274 1.4528165 -0.27157027 100
0.95966947 1.5304372 0.22180222 100
0.92196107 1.4697317 -0.21302763 100
0.96495342 1.5376729 0.28752658 100
0.92137069 1.4682229 -0.151651 100
0.93263483 1.4850193 -0.091901943 100
0.93429142 1.4865049 -0.030646425 100
3.3594444 5.3429756 1.6911237 6
0.91180921 1.4462502 -0.45810974 35
0.94089216 1.4918009 0.030786045 100
0.90157247 1.4289061 -0.39006513 100
0.9519918 1.5082344 0.093472026 100
0.9169212 1.4526721 -0.33391577 100
0.96482664 1.5279758 0.15810052 100
0.9178189 1.4529688 -0.27219599 100
0.97348845 1.5405037 0.22375213 100
0.92178178 1.458115 -0.21180893 100
0.97242725 1.537634 0.28815234 100
0.92862046 1.4683653 -0.15199961 100
3.391417 5.3605437 1.2330078 1
0.93781257 1.4817549 -0.091901943 100
3.3556893 5.2999821 1.4482349 9
0.93947506 1.4832343 -0.030646425 100
3.3573937 5.2985806 1.680771 5
0.90752846 1.4283831 -0.45345098 80
0.95038491 1.495258 0.030925665 100
0.91073698 1.4323283 -0.39186475 100
0.95832312 1.506587 0.093576699 100
0.91987932 1.4461492 -0.33315253 100
0.97229409 1.5279603 0.15844914 100
0.92818862 1.4580883 -0.27376035 100
0.97779399 1.5354216 0.2235084 100
0.92473322 1.4515399 -0.21132146 100
0.97035664 1.5225695 0.28596222 100
0.93374002 1.4651151 -0.15199961 100
0.97627568 1.5312673 0.35299668 1
0.94297951 1.4784721 -0.091901943 100
3.3762646 5.2915225 1.4491347 9
0.94141805 1.4748898 -0.030541712 100
3.372751 5.2819433 1.6792181 9
0.91146761 1.4235795 -0.45293337 100
0.95344043 1.4885643 0.030855855 100
0.91573155 1.4291403 -0.39186475 100
0.96573234 1.5065953 0.093786038 100
0.92280322 1.4396236 -0.3323893 100
0.9733187 1.517849 0.15775189 100
0.93113983 1.4515138 -0.27313459 100
0.98207593 1.5303282 0.22326466 100
0.93622792 1.4583266 -0.21278389 100
0.97673333 1.5208349 0.28627509 100
0.93561888 1.4568172 -0.15147668 100
0.99753338 1.5526258 0.35872093 10
0.95461357 1.4852526 -0.092529982 100
3.3947163 5.2797041 1.4491347 7
0.94656104 1.4715943 -0.030541712 100
3.3922119 5.2717633 1.6797357 5
0.91643095 1.4203894 -0.45293337 100
0.95429349 1.4785064 0.030716237 100
0.92282909 1.4292091 -0.39276454 100
0.97397363 1.508418 0.094100058 100
0.92888767 1.4380429 -0.33277091 100
0.97969282 1.5161153 0.1579262 100
0.92869449 1.4366419 -0.27094454 100
0.98633355 1.525224 0.22302091 100
0.94131309 1.4550494 -0.21278389 100
0.98391694 1.5209049 0.28690085 100
0.9417814 1.4552147 -0.151651 100
0.98907602 1.5277103 0.35375988 44
0.95762044 1.4785588 -0.092320636 100
0.95143616 1.4684471 -0.030541712 100
3.4716685 5.3561316 1.7102764 8
0.9245429 1.4220403 -0.45448625 100
0.96137142 1.4786863 0.030786045 100
0.92118758 1.4163401 -0.39006513 100
0.98032129 1.5066837 0.094204731 100
0.93711519 1.4397278 -0.33391577 100
0.98389232 1.5110165 0.15775189 100
0.93560904 1.4368652 -0.27157027 100
0.98705238 1.5152912 0.22204597 100
0.94613343 1.4519197 -0.21278389 100
0.99029905 1.5191158 0.28721371 100
0.95447338 1.4636009 -0.15287116 100
0.98663014 1.5129105 0.35108855 80
0.95597088 1.4653382 -0.091692604 100
0.95764911 1.4667916 -0.030576617 100
3.498796 5.3569188 1.7144175 12
0.93348664 1.4254314 -0.4565568 100
0.96652687 1.4753218 0.030786045 100
0.92398989 1.4098558 -0.38916534 100
0.97900444 1.4932306 0.093576699 100
0.94188398 1.4366124 -0.33391577 100
0.99545354 1.5177418 0.15879777 100
0.94278592 1.4368941 -0.27219599 100
0.99451399 1.5151558 0.22253343 100
0.94901639 1.4452897 -0.21229641 100
0.9955954 1.5156499 0.28721371 100
0.95166421 1.4487711 -0.151651 100
0.99406117 1.5127388 0.35185182 100
0.96108049 1.461992 -0.091692604 100
0.96166402 1.4617695 -0.030541712 100
3.5238476 5.3543544 1.7175232 10
0.93739241 1.4205521 -0.45603919 100
0.97828054 1.4819524 0.030995475 100
0.9310537 1.409874 -0.39006513 100
0.98421055 1.4898044 0.093576699 100
0.93823534 1.4202114 -0.33086282 100
1.0040413 1.519244 0.1593207 100
0.95324332 1.4418331 -0.27376035 100
1.0041767 1.5182983 0.2235084 100
0.95186526 1.4386568 -0.21180893 100
0.98779696 1.4923981 0.28345928 100
0.956716 1.4454401 -0.151651 100
1.0047547 1.5174446 0.35375988 100
0.96617758 1.4586285 -0.091692604 100
0.961236 1.4500703 -0.030367188 100
3.5318384 5.325922 1.7123468 12
0.93592799 1.4076189 -0.45293337 100
0.98123294 1.4751981 0.030925665 100
0.94028735 1.4131051 -0.39186475 100
0.99161875 1.4896846 0.093786038 100
0.94753897 1.4234647 -0.3323893 100
0.99939919 1.5008051 0.15775189 100
0.95498466 1.433565 -0.27282172 100
1.0094709 1.5147835 0.2235084 100
0.95688099 1.4353256 -0.21180893 100
0.99190396 1.4872979 0.28314641 100
0.95758402 1.4352945 -0.15095374 100
1.0056875 1.5073953 0.35223341 100
0.97791547 1.4652147 -0.092320636 100
0.96407086 1.44338 -0.030297378 100
3.546114 5.3071365 1.7102764 12
0.94000489 1.4025743 -0.4524157 100
0.97746974 1.4584752 0.030646425 100
0.94738501 1.4130512 -0.39276454 100
0.99903822 1.4895314 0.093995392 100
0.95493716 1.4232429 -0.33315253 100
1.0026729 1.4938233 0.15740328 100
0.95472699 1.4218552 -0.2712574 100
1.0125395 1.5079541 0.22302091 100
0.96741951 1.4402162 -0.21302763 100
1.0092093 1.5018618 0.28658798 100
0.96036565 1.4286358 -0.15060511 100
1.0057274 1.4955536 0.35032535 100
0.98327953 1.4616203 -0.092320636 100
0.97691905 1.4516187 -0.030541712 100
3.5603008 5.2883167 1.7082058 10
0.94705772 1.4024864 -0.45345098 100
0.98280841 1.4548831 0.030646425 100
0.94382846 1.3966527 -0.38916534 100
1.0022533 1.4825506 0.093786038 100
0.95880026 1.4182742 -0.33277091 100
1.0145777 1.5002168 0.15844914 100
0.96300483 1.4234225 -0.27219599 100
1.0124961 1.4960133 0.22180222 100
0.96935332 1.4317292 -0.21229641 100
1.0147069 1.4981529 0.28658798 100
0.97118288 1.4333537 -0.15147668 100
1.0142459 1.4969095 0.3514702 100
0.97941035 1.4449533 -0.091483258 100
1.0444509 1.5403305 0.42965651 5
0.98672289 1.4546481 -0.030681333 100
3.5861721 5.284821 1.7113116 12
0.95545244 1.4037971 -0.45500392 100
0.99463224 1.461362 0.030855855 100
0.94869828 1.3933494 -0.38916534 100
0.99955153 1.4674883 0.093053341 100
0.9662028 1.4179956 -0.33353412 100
1.0178255 1.4931952 0.15810052 100
0.96932811 1.4215156 -0.27250886 100
1.0177118 1.49247 0.22180222 100
0.97210747 1.4250573 -0.21180893 100
1.023271 1.4994965 0.28752658 100
0.97955078 1.4348912 -0.15199961 100
1.0219396 1.4964249 0.35223341 100
0.98470014 1.4413537 -0.091483258 100
1.0335963 1.5123584 0.42290798 29
0.98502493 1.4412888 -0.0304719 100
3.6045938 5.2722731 1.7113116 12
0.95767355 1.3976015 -0.45396861 100
0.99947321 1.4580554 0.030855855 100
0.95772153 1.3966246 -0.39096493 100
1.0078015 1.4691067 0.093367353 100
0.96621025 1.4084775 -0.33200768 100
1.0213838 1.4883476 0.1579262 100
0.97602546 1.42172 -0.27313459 100
1.0260265 1.4939963 0.22253343 100
0.97682816 1.4218255 -0.21180893 100
1.0215243 1.4863273 0.28564936 100
0.98856753 1.4383749 -0.15269686 100
1.02886 1.4964428 0.35299668 100
0.99375051 1.4448355 -0.091901943 100
1.0361328 1.5058931 0.42200816 83
0.98412907 1.4297791 -0.030297378 100
3.6154854 5.2507429 1.7082058 10
0.95486391 1.3831214 -0.45034516 100
1.0045571 1.4545575 0.030855855 100
0.96480602 1.3964797 -0.39186475 100
1.0151951 1.4688658 0.093576699 100
0.96777248 1.4002509 -0.33086282 100
1.023174 1.4798566 0.15740328 100
0.98098195 1.4183046 -0.27313459 100
1.0323651 1.4920379 0.22277717 100
0.98404533 1.4216714 -0.21229641 100
1.0289551 1.4860008 0.28627509 100
0.98677677 1.4250875 -0.151651 100
1.0329597 1.4912281 0.35261503 100
1.0010635 1.444641 -0.092111297 100
1.0447134 1.5070721 0.42335787 96
0.99253297 1.4312646 -0.030402092 100
3.6337934 5.2380896 1.7082058 12
0.95968634 1.3797796 -0.45034516 100
1.0027746 1.4411941 0.030646425 100
0.96967512 1.3931032 -0.39186475 100
1.0225991 1.4685909 0.093786038 100
0.97714221 1.4033085 -0.3323893 100
1.0283325 1.4762768 0.15740328 100
0.97915101 1.4051473 -0.2712574 100
1.0432433 1.4965671 0.22399586 100
0.99013638 1.4198567 -0.21254015 100
1.0341364 1.4823997 0.28627509 100
0.99402547 1.4249021 -0.15199961 100
1.0336649 1.4811732 0.35108855 100
1.0038124 1.4378631 -0.091901943 100
1.0544313 1.5098066 0.42515749 100
1.0043949 1.4376266 -0.030611521 100
3.6498384 5.222209 1.7071705 12
0.97003973 1.3843319 -0.45293337 100
1.0055039 1.4344099 0.030576617 100
0.97005635 1.383328 -0.39006513 100
1.030013 1.4682827 0.093995392 100
0.98992676 1.4111397 -0.3350606 100
1.0392022 1.4808322 0.15827483 100
0.98518533 1.4033374 -0.27157027 100
1.0381929 1.4782962 0.22180222 99
0.99394584 1.4147673 -0.21229641 100
1.0438484 1.4852452 0.28752658 100
1.0024306 1.4263135 -0.15252255 100
1.0365703 1.474344 0.35032535 100
1.0042298 1.4278156 -0.091483258 100
1.0596955 1.5061165 0.42515749 100
1.0094067 1.4341121 -0.030611521 100
3.6702707 5.212595 1.7082058 12
0.98155111 1.3904065 -0.45603919 100
1.0174258 1.4406918 0.030786045 100
0.97487879 1.3799336 -0.39006513 100
1.0282161 1.4548918 0.093367353 100
0.98918146 1.399659 -0.33315253 100
1.0478152 1.4820766 0.15879777 100
0.99578011 1.4079545 -0.27313459 100
1.0433471 1.4746629 0.22180222 100
0.99429065 1.404808 -0.21132146 100
1.0444595 1.4751445 0.28627509 100
1.0016456 1.4146761 -0.151651 100
1.0462499 1.4771248 0.35185182 100
1.0092081 1.4243011 -0.091483258 100
1.054803 1.4881004 0.42110837 85
1.0097802 1.4240546 -0.0304719 100
3.6906803 5.2029018 1.709241 10
0.98191965 1.3806746 -0.45396861 100
1.0270858 1.4436489 0.030925665 100
0.97969013 1.3765221 -0.39006513 100
1.0298128 1.446413 0.093053341 100
0.98836744 1.3882014 -0.33124444 100
1.0437359 1.465427 0.15740328 100
0.99725032 1.3996433 -0.27219599 100
1.0496403 1.4726287 0.22204597 100
0.9991886 1.4013286 -0.21132146 100
1.0473086 1.4682729 0.28564936 100
1.0065781 1.4111707 -0.151651 100
1.0536799 1.4766603 0.35261503 100
1.0164943 1.4240211 -0.091692604 100
1.058859 1.4828233 0.42065847 25
1.0077704 1.4107584 -0.030262474 100
3.7020798 5.1805577 1.7061353 10
0.97885704 1.3662461 -0.45034516 100
1.0274596 1.4335533 0.030786045 100
0.9890309 1.379429 -0.39186475 100
1.0415862 1.4527292 0.093681373 100
0.99320686 1.384743 -0.33124444 100
1.0453606 1.456918 0.15688033 100
1.0021297 1.3961539 -0.27219599 100
1.0605631 1.4770185 0.22326466 100
1.0061455 1.4012325 -0.21180893 100
1.0521722 1.4647917 0.28564936 100
1.0080096 1.4027948 -0.15112805 100
1.0622656 1.4777558 0.35375988 100
1.0261233 1.4269501 -0.092111297 100
1.0171139 1.4139023 -0.030402092 100
3.7169831 5.1651154 1.7050999 12
0.98677367 1.3676922 -0.45189807 100
1.0298669 1.4268957 0.030716237 100
0.99588162 1.3793013 -0.39276454 100
1.0510749 1.4557441 0.094100058 100
0.99549478 1.3782586 -0.3304812 100
1.0525198 1.4566736 0.15722896 100
1.0021256 1.3864191 -0.27094454 100
1.0631293 1.4702758 0.22277717 100
1.017766 1.4075397 -0.21327138 100
1.059339 1.4644958 0.28627509 100
1.0138242 1.4010582 -0.15130237 100
1.0591021 1.4630926 0.35108855 100
1.0285065 1.4203043 -0.091901943 100
1.0241436 1.4137601 -0.0304719 100
3.7295551 5.1465044 1.7030294 12
0.99357444 1.3675386 -0.45293337 100
1.0345927 1.4234729 0.030716237 100
0.9935739 1.3665345 -0.39006513 100
1.0526252 1.4472209 0.093786038 100
1.0116074 1.3908269 -0.33429739 100
1.0655496 1.4644529 0.15844914 100
1.0102048 1.3878798 -0.27188313 100
1.0609878 1.4571139 0.22131474 100
1.0179982 1.39756 -0.21229641 100
1.066771 1.4639822 0.28690085 100
1.0172911 1.3960786 -0.15112805 100
1.0639485 1.4595721 0.35108855 100
1.0261505 1.407203 -0.091273919 100
1.0326091 1.4150223 -0.030576617 100
3.7634456 5.1552987 1.7102764 10
1.0040464 1.3718568 -0.45552155 100
1.0395557 1.4198525 0.030716237 100
0.9960354 1.3599133 -0.38916534 100
1.0494072 1.4322604 0.093053341 100
1.0141352 1.3841202 -0.33353412 100
1.0741889 1.4655451 0.15897207 100
1.0173798 1.3875309 -0.27250886 100
1.0695895 1.4582038 0.22204597 100
1.0205214 1.3907973 -0.21180893 100
1.0718751 1.4602493 0.28690085 100
1.0256954 1.3973372 -0.151651 100
1.0736839 1.4621798 0.35261503 100
1.0334207 1.406832 -0.091483258 100
1.0387262 1.4130206 -0.030611521 100
3.7768388 5.1359053 1.7082058 12
1.0053902 1.3636786 -0.45396861 100
1.0516268 1.4258713 0.030925665 100
1.0054039 1.3627009 -0.39096493 100
1.0579588 1.4334091 0.093367353 100
1.0096341 1.3679347 -0.3304812 100
1.0721971 1.4521697 0.1579262 100
1.0233903 1.3855603 -0.27282172 100
1.0746735 1.4544611 0.22204597 100
1.0241904 1.3856299 -0.2115652 100
1.0687444 1.4453808 0.28471076 100
1.0293819 1.3921465 -0.15147668 100
1.0787816 1.4584228 0.35261503 100
1.0383255 1.4032159 -0.091483258 100
1.0365119 1.3997442 -0.030402092 100
3.7993445 5.1288991 1.7102764 10
1.0020819 1.3493041 -0.45034516 100
1.0542122 1.4189817 0.030855855 100
1.0124797 1.362311 -0.39186475 100
1.0665313 1.4345156 0.093681373 100
1.0214314 1.373855 -0.33277091 100
1.0760703 1.4468198 0.15775189 100
1.0270417 1.3803945 -0.27250886 100
1.0844852 1.4570702 0.22302091 100
1.0325766 1.3868239 -0.21229641 100
1.0785035 1.447978 0.28596222 100
1.029475 1.3821533 -0.15077944 100
1.0850394 1.4562223 0.35299668 100
1.0527654 1.4123944 -0.092320636 100
1.041392 1.3961172 -0.030402092 100
3.8010461 5.0939317 1.7030294 12
1.0102571 1.3504387 -0.45189807 100
1.0567629 1.4120908 0.030786045 100
1.0148934 1.3556482 -0.39096493 100
1.0751235 1.43558 0.093995392 100
1.0238669 1.3671385 -0.33200768 100
1.0787253 1.4398655 0.15740328 100
1.0247463 1.3673165 -0.27063167 100
1.0871829 1.4500995 0.22253343 100
