# .PCD v0.7 - Point Cloud Data file format
VERSION 0.7
FIELDS x y z intensity
SIZE 4 4 4 4
TYPE F F F F
COUNT 1 1 1 1
WIDTH 1332
HEIGHT 1
VIEWPOINT 0 0 0 1 0 0 0
POINTS 1332
DATA ascii
-9.9826546 -35.372204 -5.8212399 57
-1.5138602 -5.3498712 1.0807421 1
-1.1688333 -4.1278195 -0.22483528 1
-1.1640649 -4.1055121 -0.074486867 6
-1.341985 -4.7298694 1.317389 1
-1.185322 -4.1555996 0.075429298 9
-9.9215899 -34.760925 -8.3456841 29
-10.100636 -35.318153 -5.8181114 57
-1.5325263 -5.3445539 1.0807421 1
-1.3595549 -4.7288694 1.3184243 1
-1.2025962 -4.1610422 0.075603828 1
-10.03204 -34.688637 -8.3366861 29
-10.211763 -35.24094 -5.8112283 86
-1.3695704 -4.7018375 1.3122126 1
-10.202275 -34.866482 -9.7341843 19
-10.142101 -34.616001 -8.3276882 28
-10.319136 -35.152004 -5.8024678 85
-1.3826936 -4.6859112 1.3091067 1
-10.31843 -34.81213 -9.7290077 19
-10.252894 -34.546764 -8.3195896 28
-10.429233 -35.118446 -7.1209922 24
-10.432202 -35.083584 -5.7971492 85
-1.4078935 -4.7106714 1.317389 1
-10.434333 -34.757401 -9.7238321 19
-10.361082 -34.469707 -8.3096924 28
-10.538746 -35.038582 -7.112215 36
-10.543211 -35.009125 -5.7908916 85
-2.0092406 -6.6675429 0.85503536 1
-1.4120158 -4.6650496 1.3060009 1
-10.465453 -34.38113 -8.2970953 28
-10.65069 -34.967781 -7.1053457 36
-10.652677 -34.930538 -5.784009 85
-1.4294237 -4.6637864 1.3070362 1
-10.575067 -34.310871 -8.2889967 28
-10.759382 -34.887238 -7.0965686 36
-10.760555 -34.847843 -5.7764997 85
-1.4422594 -4.6476984 1.3039304 1
-11.056393 -35.476189 -9.956769 20
-10.693608 -34.270027 -8.2880964 28
-10.873485 -34.825104 -7.0916071 36
-10.877416 -34.794987 -5.7739964 28
-1.4584738 -4.6426358 1.3039304 1
-10.784994 -34.143291 -8.2665014 56
-10.976054 -34.727036 -7.0793958 48
-18.206583 -57.533768 -9.5578346 1
-1.6811574 -5.2996798 1.0807421 1
-1.480525 -4.6559262 1.3091067 1
-10.895804 -34.079453 -8.2602024 28
-11.086437 -34.654854 -7.0725265 48
-18.348255 -57.285503 -9.527173 1
-1.4944009 -4.643374 1.3070362 1
-11.0015 -34.000423 -8.2503052 28
-11.198868 -34.589794 -7.067184 36
-1.6877811 -5.1944556 1.0616612 1
-1.5085949 -4.6347189 1.3060009 1
-11.220367 -34.308472 -9.6720686 19
-11.104488 -33.93412 -8.2431059 28
-11.31221 -34.528099 -7.062604 36
-1.5187199 -4.6110759 1.3008245 1
-11.290401 -34.139019 -9.634798 19
-11.215525 -33.872952 -8.2377081 28
-11.414297 -34.453129 -7.0549722 36
-1.7540678 -5.2759967 1.0807421 1
-1.5299207 -4.5910845 1.2966834 1
-11.398467 -34.066425 -9.6254807 19
-11.318839 -33.789246 -8.2269096 28
-11.516397 -34.359089 -7.0439048 48
-1.544703 -4.5820541 1.2956481 1
-11.511114 -34.008133 -9.6203041 19
-11.42671 -33.719997 -8.2197113 27
-11.620499 -34.272198 -7.0343647 36
-1.7592402 -5.170691 1.0616612 1
-1.5556993 -4.5620074 1.2915071 1
-11.535497 -33.654102 -8.2134123 27
-11.729876 -34.201714 -7.0282593 36
-1.7938881 -5.2127857 1.0715834 1
-1.5766535 -4.5711589 1.2956481 1
-11.641412 -33.580482 -8.2053146 27
-11.841467 -34.138306 -7.0236793 36
-1.7952944 -5.1582837 1.0616612 1
-1.5900553 -4.5583315 1.2935777 1
-11.746956 -33.506542 -8.197217 27
-11.951459 -34.070827 -7.0183368 36
-1.8263257 -5.189023 1.0692936 1
-1.6033868 -4.5454659 1.2915071 1
-11.85212 -33.432274 -8.1891184 27
-12.055223 -33.986336 -7.0095592 48
-1.8312621 -5.1456246 1.0616612 1
-1.6218398 -4.5471196 1.2935777 1
-11.955602 -33.354008 -8.1801205 27
-12.156551 -33.896008 -6.9996376 60
-1.8492128 -5.1392012 1.0616612 1
-1.6285272 -4.5159888 1.2863307 1
-12.070625 -33.308407 -8.1792202 27
-12.268778 -33.836754 -6.9962029 36
-1.8805637 -5.1696134 1.0692936 1
-1.6535445 -4.5356865 1.2935777 1
-12.376678 -33.766071 -6.9904785 36
-1.9013076 -5.1703892 1.0708202 1
-1.660015 -4.5045094 1.2863307 1
-1.9029284 -5.1195545 1.0616612 1
-1.6776396 -4.5062213 1.2884012 1
-1.4221054 -3.8035932 -1.0880753 2
-1.4208685 -3.7982655 -0.93624628 2
-1.458262 -3.8940816 -0.80826694 1
-1.919894 -5.1132164 1.0616612 1
-1.6865553 -4.4822574 1.2832248 1
-1.434028 -3.7970498 -1.0875577 1
-1.4416991 -3.8133337 -0.94119519 1
-1.4565809 -3.8506632 -0.80025297 2
-1.4725226 -3.8887062 -0.65858912 3
-1.4755 -3.8924663 -0.51112008 1
-1.9377315 -5.106483 1.0616612 1
-1.7021911 -4.4763432 1.2832248 1
-1.4661295 -3.8374045 -0.94839364 1
-1.4623019 -3.8253829 -0.7960552 2
-1.4740862 -3.8521791 -0.65327036 2
-1.4862385 -3.8798771 -0.51014513 3
-1.4980856 -3.9087622 -0.36622843 4
-1.966791 -5.1290178 1.0677671 1
-1.5188541 -3.9588151 -0.2222185 2
-1.5622392 -4.0676517 -0.076057591 1
-1.6984038 -4.4198813 1.2687311 1
-1.5592687 -4.0409393 0.075603828 1
-1.4939358 -3.8635926 -0.65608621 1
-1.4990556 -3.8728139 -0.50990134 3
-2.2057719 -5.6956644 0.96739089 2
-1.5145983 -3.9109409 -0.36692566 4
-1.9875206 -5.1294432 1.0692936 1
-1.5232782 -3.9292805 -0.22085775 4
-1.5395323 -3.9670975 -0.074277438 4
-1.7292049 -4.4535451 1.2801191 1
-1.5537519 -3.9851685 0.074661396 9
-1.5161805 -3.8768017 -0.51112008 1
-1.525337 -3.8982086 -0.36622843 2
-1.9910991 -5.0859118 1.0616612 1
-1.5369848 -3.9239395 -0.22085775 2
-1.5548302 -3.9654224 -0.07434725 9
-1.7447398 -4.4474816 1.2801191 1
-1.5705849 -3.9871626 0.074801013 9
-2.0088396 -5.0789309 1.0616612 1
-1.5572869 -3.9352646 -0.22179982 1
-1.5517246 -3.9172106 -0.073544443 1
-1.7574068 -4.4341812 1.2780485 1
-1.5778389 -3.9649341 0.074486867 3
-2.026557 -5.0718875 1.0616612 1
-1.7628217 -4.4029112 1.2708015 1
-1.6155365 -4.018775 0.075603828 1
-2.0442481 -5.0647826 1.0616612 1
-1.7680396 -4.3716578 1.2635547 1
-2.0619159 -5.0576158 1.0616612 1
-1.783289 -4.3654594 1.2635547 1
-2.5348132 -6.1651831 0.81847459 1
-2.2869785 -5.5568848 0.95174736 2
-2.0675972 -5.0213413 1.0555553 1
-1.8044103 -4.3734946 1.2676958 1
-2.0851121 -5.0140939 1.0555553 1
-1.8196658 -4.3671694 1.2676958 1
-1.5627699 -3.7304347 0.35385233 1
-1.8311424 -4.3539882 1.2656252 1
-1.5765584 -3.7267914 0.35402662 5
-1.5853589 -3.745774 0.49942058 3
-1.5920005 -3.7578106 0.64638728 3
-1.6074002 -3.7923164 0.80063456 1
-1.8402878 -4.3333445 1.261484 1
-0.29281768 -0.68616951 -0.14501485 3
-1.5857786 -3.7142138 0.35332939 5
-1.5984248 -3.740217 0.49942058 3
-1.6060061 -3.7561438 0.64701301 4
-1.6206276 -3.7866826 0.80063456 4
-1.639119 -3.8261957 0.96099091 4
-1.6484067 -3.8460217 1.1212041 2
-1.604255 -3.7214627 0.35454956 5
-1.6123911 -3.7385414 0.49990809 3
-1.6097131 -3.7287514 0.64325857 3
-1.6253916 -3.7632642 0.79681838 4
-1.644065 -3.8028519 0.95649189 4
-1.6587524 -3.8331525 1.1191336 2
-1.6102285 -3.7015066 0.35315505 5
-1.6254313 -3.7328904 0.49990809 3
-1.6346927 -3.7523689 0.64826447 3
-1.6455804 -3.7737646 0.80025297 4
-1.6604472 -3.804234 0.95829147 4
-1.6760935 -3.8382533 1.1222395 2
-1.6319526 -3.7159295 0.3550725 2
-1.6393985 -3.7311149 0.5003956 3
-1.6342609 -3.7158999 0.64294571 3
-1.6533414 -3.7575047 0.79796326 4
-1.6785519 -3.8111904 0.9614408 3
-1.6801304 -3.8111665 1.1160278 2
-1.6819137 -3.7918799 0.3629165 1
-1.6754611 -3.7737789 0.50697654 1
-1.6749895 -3.7691677 0.65327036 1
-1.6701499 -3.7565107 0.79910809 1
-1.6876273 -3.7922547 0.95829147 3
-1.6955374 -3.806452 1.1165454 2
-1.711423 -3.8223548 0.36640272 1
-1.7113557 -3.818629 0.51380116 1
-1.7188587 -3.8317876 0.66515946 1
-1.7137985 -3.8187211 0.81360966 1
-1.7341653 -3.8568926 1.1331098 1
-1.7329605 -3.8345132 0.36814582 1
-1.737765 -3.8415704 0.51770103 1
-1.7745929 -3.9193387 0.68142867 1
-1.764382 -3.8949792 0.83116406 1
-1.7747619 -3.9106269 1.1507095 1
-0.22804877 -0.50017613 -0.10685304 6
-1.7997575 -3.9382737 0.68580878 1
-1.7975596 -3.9316478 0.84032285 1
-1.8109281 -3.9535866 1.1652035 1
-0.26461154 -0.56979644 -0.12211777 5
-0.25626287 -0.5470627 -0.13946965 7
-0.25660148 -0.54753673 -0.11753836 5
-2.7897346 -5.9446397 0.80628765 1
-2.5261977 -5.3781877 0.94110984 2
-2.2978721 -4.8898726 1.0502127 1
-1.99376 -4.2350359 1.2542372 1
-0.25817093 -0.54616481 -0.13946965 7
-0.27697623 -0.58568323 -0.12593395 5
-2.8104684 -5.9348655 0.80628765 1
-2.5483398 -5.3764763 0.9423613 2
-2.3065155 -4.8640823 1.0463966 1
-2.0052142 -4.2210712 1.2521666 1
-0.26718181 -0.55990678 -0.12059129 5
-2.8311682 -5.9250188 0.80628765 1
-2.5500462 -5.3319073 0.93610394 2
-2.3234804 -4.8560014 1.0463966 1
-2.0232763 -4.221014 1.2542372 1
-0.30149895 -0.62618876 -0.13509277 4
-2.8518331 -5.9151001 0.80628765 1
-2.5806618 -5.3478804 0.94048411 2
-2.3387098 -4.8443255 1.0456334 1
-2.0346341 -4.2069693 1.2521666 1
-0.26387602 -0.5434314 -0.13946965 7
-0.24020107 -0.49445513 -0.10685304 6
-3.2345412 -6.6553602 0.64739287 1
-2.872462 -5.9051099 0.80628765 1
-2.5793653 -5.3002167 0.93360102 2
-2.3418503 -4.8078923 1.0395275 1
-2.0451863 -4.1932535 1.2500961 1
-0.26567668 -0.54255337 -0.13946965 7
-0.26439026 -0.53944916 -0.11677512 5
-2.8920286 -5.8955517 0.80628765 1
-2.6152616 -5.3266444 0.93985838 2
-2.3647056 -4.8141971 1.0425804 1
-2.0615168 -4.1895552 1.2511313 1
-0.27487618 -0.55616981 -0.12059129 5
-2.9125905 -5.8854208 0.80628765 1
-2.6355939 -5.3210225 0.94048411 2
-2.3780091 -4.7988768 1.0410539 1
-2.0778458 -4.1857953 1.2521666 1
-0.2698079 -0.54115111 -0.11753836 5
-2.6417894 -5.2870522 0.93610394 2
-2.4087903 -4.8186445 1.0471598 1
-2.0855253 -4.1646967 1.2480254 1
-0.30348259 -0.6039331 0.011797828 8
-0.27134365 -0.53974146 -0.13946965 7
-0.276988 -0.55072939 -0.11982805 5
-2.6602287 -5.2777982 0.93610394 2
-2.4202921 -4.7996883 1.0448701 1
-2.1052752 -4.167738 1.2511313 1
-0.28027382 -0.55292815 0.010820491 9
-0.27322605 -0.538791 -0.13946965 7
-0.24870843 -0.49023113 -0.10685304 6
-2.6786356 -5.2684803 0.93610394 2
-2.4245706 -4.7667122 1.0395275 1
-2.1022711 -4.1259379 1.2407786 1
-0.26945746 -0.52701986 0.010331824 10
-0.27510515 -0.53783399 -0.13946965 7
-0.27545998 -0.53829598 -0.11753836 5
-2.6970098 -5.2590981 0.93610394 2
-2.4483643 -4.7721939 1.0425804 1
-2.1290221 -4.1426296 1.2480254 1
-0.31245571 -0.60615063 -0.18272625 7
-0.28229409 -0.54740345 0.010750683 9
-0.27698085 -0.53687042 -0.13946965 7
-0.28093907 -0.54430944 -0.11906482 5
-2.7153511 -5.2496514 0.93610394 2
-2.4758348 -4.7845421 1.0471598 1
-2.1328013 -4.1145916 1.2418139 1
-0.28235757 -0.54286665 0.010680873 19
-0.27885324 -0.53590029 -0.13946965 7
-0.29190269 -0.56073982 -0.122881 5
-2.5270386 -4.8420091 1.0616612 1
-2.1507311 -4.1139693 1.2438843 1
-0.28610882 -0.54541934 0.010750683 9
-0.28072205 -0.53492373 -0.13946965 7
-0.28838253 -0.54928797 -0.12059129 5
-2.7519345 -5.2305665 0.93610394 2
-2.5110044 -4.7706161 1.0479231 1
-2.1650786 -4.1064367 1.2438843 1
-0.31878611 -0.60284537 -0.18272625 7
-0.28427044 -0.53734702 0.010611064 9
-0.28258759 -0.53394055 -0.13946965 7
-0.28111154 -0.53092742 -0.11677512 5
-2.5073924 -4.7236714 1.0395275 1
-2.1714311 -4.085588 1.2397434 1
-0.2860508 -0.53640139 0.010611064 9
-0.28435665 -0.53300053 -0.13946965 7
-0.28481254 -0.53340662 -0.11753836 5
-2.1802027 -4.0677671 1.2366375 1
-0.30118096 -0.56005615 0.011099731 9
-0.28621548 -0.53200465 -0.13946965 7
-0.28471893 -0.52900165 -0.11677512 5
-2.5599961 -4.7445064 1.0479231 1
-2.1991897 -4.0707135 1.2397434 1
-0.29350713 -0.54147398 0.010750683 9
-0.28797811 -0.53105259 -0.13946965 7
-0.28843674 -0.53145558 -0.11753836 5
-2.8228834 -5.1926198 0.93610394 2
-2.5438242 -4.677352 1.034948 1
-2.2133858 -4.0630116 1.2397434 1
-0.25656882 -0.46960515 -0.14338575 10
-0.29923174 -0.54746491 0.010890301 9
-0.28983009 -0.53004414 -0.13946965 7
-0.28652012 -0.52355659 -0.11601188 5
-2.840992 -5.182734 0.93610394 2
-2.5949454 -4.7299614 1.0486863 1
-2.2238343 -4.0484877 1.2376727 1
-0.31610024 -0.57356054 -0.17547932 7
-0.28385714 -0.51484352 0.010262014 10
-0.29177085 -0.52897823 -0.13946965 7
-0.29223225 -0.52937806 -0.11753836 5
-2.8599687 -5.1722865 0.93610394 2
-2.5970545 -4.6929345 1.0425804 1
-2.2461483 -4.0538282 1.2418139 1
-0.28440914 -0.51161247 -0.15684435 9
-0.30906814 -0.5557425 0.011099731 9
-0.27475873 -0.49384704 -0.13047162 8
-0.29980725 -0.53864723 -0.11982805 5
-2.878907 -5.1617694 0.93610394 2
-2.6134202 -4.6838403 1.0425804 1
-2.242142 -4.0118413 1.231461 1
-0.28619316 -0.51061666 -0.15684435 9
-0.29927009 -0.53372967 0.010680873 9
-0.28410807 -0.50648165 -0.13407083 7
-0.29207775 -0.52047658 -0.11601188 5
-2.8969073 -5.1516891 0.93610394 2
-2.6220536 -4.6610003 1.0395275 1
-2.2732027 -4.0342851 1.2407786 1
-0.31458524 -0.55670762 -0.17133822 8
-0.30113134 -0.53268176 0.010680873 9
-0.2973859 -0.52584207 -0.13946965 7
-0.29775992 -0.52628875 -0.11753836 5
-2.9148715 -5.1415458 0.93610394 2
-2.6363704 -4.6484036 1.0387642 1
-2.285363 -4.0229664 1.2397434 1
-0.28975096 -0.5086062 -0.15684435 9
-0.29704797 -0.52120328 0.010471444 10
-0.29921964 -0.52480078 -0.13946965 7
-0.29570422 -0.51842481 -0.11601188 5
-2.6428344 -4.6221299 1.034948 1
-2.2897911 -3.9982004 1.2345669 1
-0.26650926 -0.46403593 -0.14338575 10
-0.3088277 -0.53750199 0.010820491 9
-0.30104971 -0.52375311 -0.13946965 7
-0.30142671 -0.52419722 -0.11753836 5
-2.6687582 -4.6298852 1.0387642 1
-2.2972431 -3.9805458 1.231461 1
-0.27965876 -0.48321384 -0.14959741 10
-0.30058885 -0.51916927 0.010471444 10
-0.30278489 -0.52275193 -0.13946965 7
-0.29922619 -0.51640004 -0.11601188 5
-0.28511623 -0.49106091 -0.049678776 10
-2.6840956 -4.6210103 1.0387642 1
-2.3259697 -3.9996259 1.2397434 1
-0.29488462 -0.505647 -0.15684435 9
-0.30432421 -0.52162409 0.010541254 10
-0.30451676 -0.52174497 -0.13946965 7
-0.29697731 -0.50862324 -0.11448541 5
-0.27806038 -0.47584331 -0.087290443 11
-2.6855214 -4.5883627 1.0334216 1
-2.3242838 -3.964817 1.231461 1
-0.29664788 -0.50461459 -0.15684435 9
-0.30411574 -0.51711118 0.010471444 10
-0.29052517 -0.49380511 -0.13227122 8
-0.31667599 -0.53803849 -0.12135453 5
-2.7394304 -4.6432147 1.0479231 1
-2.3479376 -3.9733114 1.2366375 1
-0.27477118 -0.46368888 -0.14442104 10
-0.30591884 -0.51604658 0.010471444 10
-0.29224721 -0.49278793 -0.13227122 8
-0.30452788 -0.51329142 -0.11601188 5
-2.7415729 -4.6100006 1.0425804 1
-2.3519068 -3.948494 1.231461 1
-0.30016345 -0.50253141 -0.15684435 9
-0.31797573 -0.53214133 0.010820491 9
-0.29796502 -0.49845552 -0.13407083 7
-0.30631766 -0.51222533 -0.11601188 5
-2.3557312 -3.9236972 1.2262847 1
-0.28796586 -0.47830984 -0.14959741 10
-0.28763455 -0.47738236 -0.128672 8
-0.31215778 -0.51787865 -0.11753836 5
-2.7736897 -4.5907483 1.0425804 1
-2.3874164 -3.9452004 1.2356021 1
-0.30375177 -0.50037056 -0.15684435 9
-0.28525305 -0.46971282 -0.12687239 8
-0.3099753 -0.5100202 -0.11601188 5
-0.28640473 -0.47086805 -0.087290443 11
-2.3931258 -3.9236484 1.231461 1
-0.32566136 -0.53226483 -0.16719711 8
-0.30325487 -0.49525502 -0.13407083 7
-0.30149853 -0.49219382 -0.11219569 5
-2.2007174 -3.5912452 0.36849448 1
-2.857831 -4.6544361 1.0616612 1
-2.4007366 -3.9053972 1.2283553 1
-0.29506981 -0.47850561 -0.15063269 10
-0.29261789 -0.4743441 -0.128672 8
-0.31146556 -0.50450271 -0.11524864 5
-2.4326689 -3.9265523 1.2376727 1
-0.3292768 -0.53003579 -0.16719711 8
-0.30250326 -0.48655951 -0.13227122 8
-0.30484182 -0.49013016 -0.11219569 5
-0.34343153 -0.55174589 -0.10293389 9
-2.4340816 -3.8983736 1.231461 1
-0.31070849 -0.49608073 -0.15684435 9
-0.3062692 -0.4888033 -0.13317102 7
-0.31080812 -0.49566275 -0.11372217 5
-2.4435594 -3.8833125 1.2293905 1
-0.28356594 -0.44925123 -0.14235048 10
-0.28516251 -0.45143121 -0.12327318 8
-0.3209267 -0.50785202 -0.11677512 5
-2.2506449 -3.560168 0.36849448 1
-0.34737095 -0.54927421 -0.10293389 9
-2.4612381 -3.8812854 1.231461 1
-0.31407788 -0.49395439 -0.15684435 9
-0.30130458 -0.47350055 -0.12957181 8
-0.31206611 -0.49022344 -0.11295893 5
-0.3491905 -0.54811925 -0.10293389 9
-2.463696 -3.8568218 1.2262847 1
-0.28237149 -0.44085369 -0.14027993 10
-0.3049764 -0.47578001 -0.13047162 8
-0.31898889 -0.49744916 -0.11486702 5
-2.2742074 -3.5451629 0.36849448 1
-0.35100609 -0.54695833 -0.10293389 9
-2.4792349 -3.8514471 1.22732 1
-0.28390864 -0.43986532 -0.14027993 10
-0.31297949 -0.48453414 -0.13317102 7
-0.3132647 -0.48479 -0.11219569 5
-0.3679308 -0.56895226 -0.10731406 8
-2.4779446 -3.8200796 1.220073 1
-0.30229497 -0.46478277 -0.14856213 10
-0.30829054 -0.47363928 -0.13047162 8
-0.3117412 -0.47875789 -0.11105084 6
-0.33971748 -0.52132452 -0.098553732 9
-2.4912651 -3.8114059 1.220073 1
-0.29332617 -0.44756711 -0.14338575 10
-0.30139184 -0.45952407 -0.12687239 8
-0.30910242 -0.4711009 -0.10952436 6
-0.35671455 -0.54325265 -0.10293389 9
-2.5173049 -3.8220475 1.2262847 1
-0.31617817 -0.47878167 -0.15373853 9
-0.30944079 -0.4682239 -0.12957181 8
-0.31724143 -0.47984526 -0.11181407 5
-0.3135722 -0.47339684 -0.049678776 10
-2.5370405 -3.8228948 1.2293905 1
-0.29858401 -0.44872504 -0.14442104 10
-0.30027214 -0.45092073 -0.12507279 8
-0.31782606 -0.47710109 -0.11143246 5
-2.3357325 -3.5049329 0.36849448 1
-0.36049846 -0.54074913 -0.10293389 9
-0.31522277 -0.47229937 -0.049678776 10
-2.5482218 -3.8108041 1.2283553 1
-0.29154205 -0.43484345 -0.14027993 10
-0.31053051 -0.4628157 -0.128672 8
-0.32176143 -0.47919276 -0.11219569 5
-0.36238384 -0.53948742 -0.10293389 9
-2.5420785 -3.7730467 1.2190377 1
-0.29529718 -0.43697318 -0.14131519 10
-0.30567455 -0.45198897 -0.12597258 8
-0.32901758 -0.48613966 -0.11410379 5
-0.30898505 -0.45636898 -0.087290443 11
-2.5667434 -3.7796862 1.2242141 1
-0.31864747 -0.46782112 -0.15166797 9
-0.30293873 -0.44442466 -0.12417299 8
-0.33403075 -0.48985431 -0.11524864 5
-0.35519412 -0.52049989 -0.099805199 9
-2.595856 -3.792572 1.231461 1
-0.31371993 -0.45714885 -0.14856213 10
-0.31772673 -0.46264127 -0.12957181 8
-0.32350963 -0.47088557 -0.11105084 6
-0.34357893 -0.49972373 -0.096050769 10
-2.6046917 -3.7771258 1.2293905 1
-0.31970844 -0.46240708 -0.15063269 10
-0.31490445 -0.45511922 -0.1277722 16
-0.32515132 -0.46975344 -0.11105084 6
-0.3588191 -0.51800752 -0.099805199 9
-0.38034895 -0.54847503 -0.058394346 8
-2.6061833 -3.7526002 1.2242141 1
-0.3102009 -0.4454906 -0.14545631 10
-0.31195545 -0.44767705 -0.12597258 8
-0.32221648 -0.46223035 -0.10952436 6
-2.4092247 -3.454828 0.36849448 1
-0.35149333 -0.50385398 -0.097302251 10
-0.32512605 -0.46553749 -0.049678776 10
-2.6252556 -3.7534363 1.22732 1
-0.30723986 -0.43813264 -0.14338575 10
-0.3134383 -0.44664007 -0.12597258 8
-0.32825971 -0.46758661 -0.11105084 6
-0.36224678 -0.51561636 -0.099805199 9
-0.326749 -0.46439981 -0.049678776 10
-2.6294398 -3.7316163 1.2231789 1
-0.30661368 -0.43384832 -0.14235048 10
-0.31724545 -0.44872573 -0.12687239 8
-0.32770348 -0.46317497 -0.1102876 6
-0.38924691 -0.54975313 -0.10668832 8
-0.32836807 -0.46325639 -0.049678776 10
-2.644686 -3.7255652 1.2242141 1
-0.30812624 -0.43277538 -0.14235048 10
-0.31888786 -0.44756001 -0.12687239 8
-0.32020223 -0.44923857 -0.10723466 6
-0.35904458 -0.50336194 -0.097927988 10
-0.32998317 -0.46210736 -0.049678776 10
-2.6823974 -3.7508812 1.2356021 1
-0.31181106 -0.43489125 -0.14338575 21
-0.32377851 -0.45125011 -0.12822211 16
-0.33084863 -0.46093366 -0.1102876 6
-0.36762625 -0.51179475 -0.099805199 9
-0.33151376 -0.46101055 -0.049678776 10
-0.38848281 -0.53983533 -0.034855749 5
-2.6790159 -3.7200184 1.2283553 1
-0.30872792 -0.42758986 -0.14131519 10
-0.3218492 -0.44543523 -0.12687239 16
-0.33467552 -0.46301618 -0.11105084 6
-0.33304071 -0.45990866 -0.049678776 10
-3.0890021 -4.2641544 1.0234995 1
-2.6761031 -3.6887527 1.2211083 1
-0.31476396 -0.43275881 -0.14338575 21
-0.31652126 -0.43485567 -0.12417299 8
-0.33628961 -0.46184522 -0.11105084 6
-0.36179483 -0.49650866 -0.097302251 10
-3.1038671 -4.2533464 1.0234995 1
-2.6866829 -3.6762691 1.220073 1
-0.31741443 -0.43321577 -0.1439034 21
-0.30881876 -0.42117572 -0.12057376 17
-0.34486672 -0.47016686 -0.11334055 5
-0.36352578 -0.49524271 -0.097302251 10
-3.1768374 -4.3215771 1.0425804 1
-2.7063711 -3.6762028 1.2231789 1
-0.31670517 -0.42894122 -0.14286812 21
-0.32070717 -0.43420282 -0.12462288 17
-0.32791626 -0.4436391 -0.10723466 6
-0.38648349 -0.5224933 -0.10293389 9
-2.7214885 -3.6698365 1.2242141 1
-0.3170476 -0.42628294 -0.14235048 10
-0.33276817 -0.44709384 -0.128672 8
-0.34822235 -0.46768701 -0.11334055 5
-0.36233929 -0.48629263 -0.096050769 10
-0.397845 -0.53297323 -0.034855749 5
-2.7326074 -3.656743 1.2231789 1
-0.30695069 -0.40971282 -0.1371741 22
-0.32263708 -0.43033764 -0.12417299 8
-0.3451409 -0.46018621 -0.11181407 5
-0.37826392 -0.5039835 -0.099805199 9
-3.2226655 -4.2875113 1.0425804 1
-2.7569733 -3.6626167 1.2283553 1
-0.30256054 -0.40092871 -0.13458592 33
-0.3241373 -0.42920879 -0.12417299 17
-0.33964458 -0.44957975 -0.10952436 6
-0.36572543 -0.48375118 -0.096050769 10
-3.2139108 -4.2449307 1.034948 1
-2.7714376 -3.656533 1.2293905 1
-0.31915608 -0.41986355 -0.14131519 21
-0.32555881 -0.42813152 -0.12417299 17
-0.35310081 -0.46401483 -0.11334055 5
-0.37211365 -0.48882285 -0.097302251 10
-3.2232091 -4.2280045 1.0334216 1
-2.7724617 -3.6314812 1.2242141 1
-0.32172084 -0.42033699 -0.14183284 21
-0.33179104 -0.43318084 -0.12597258 16
-0.34030882 -0.4441407 -0.10876114 6
-0.37381762 -0.48752105 -0.097302251 10
-0.34575227 -0.4504303 -0.049678776 10
-3.2546878 -4.2385273 1.0387642 1
-2.7945423 -3.634033 1.2283553 1
-0.32200649 -0.41768149 -0.14131519 32
-0.32020715 -0.41504785 -0.12102367 17
-0.35385197 -0.45849225 -0.11257731 5
-0.39725134 -0.51435405 -0.10293389 9
-3.2646582 -4.2209296 1.0372378 1
-2.8143086 -3.6334195 1.231461 1
-0.32227772 -0.41502911 -0.14079757 32
-0.34915602 -0.44931915 -0.13137142 8
-0.35063058 -0.45105419 -0.11105084 6
-0.37236041 -0.47866273 -0.096050769 10
-0.34888834 -0.44800562 -0.049678776 10
-3.2600682 -4.1847267 1.0311319 1
-2.8032086 -3.5931108 1.2211083 1
-0.30230153 -0.38651103 -0.13148008 23
-0.33630916 -0.42968252 -0.12597258 16
-0.34736162 -0.44364432 -0.10952436 12
-0.35940912 -0.45870095 -0.092296347 10
-0.35045016 -0.44678494 -0.049678776 10
-3.2940459 -4.1980352 1.0372378 1
-2.8300571 -3.6015315 1.22732 1
-0.32516733 -0.41276908 -0.14079757 21
-0.33056819 -0.4193238 -0.12327318 17
-0.35620242 -0.45167845 -0.11181407 5
-0.37324548 -0.47295016 -0.095425032 10
-3.2965064 -4.1711078 1.0334216 1
-2.8330204 -3.5795124 1.2231789 1
-0.33501136 -0.42222503 -0.14442104 21
-0.34051242 -0.42885044 -0.12642249 16
-0.35411358 -0.44582054 -0.11066923 12
-0.39210242 -0.49329367 -0.099805199 9
-3.3232746 -4.1749353 1.0372378 1
-2.8479054 -3.5726228 1.2242141 1
-0.32804099 -0.41048902 -0.14079757 21
-0.33835593 -0.42309356 -0.12507279 17
-0.35444129 -0.44304857 -0.1102876 6
-0.39629108 -0.49500617 -0.10043094 9
-0.35510951 -0.44309065 -0.049678776 10
-3.3402824 -4.1663733 1.0380009 1
-2.8651967 -3.5686858 1.2262847 1
-0.35006392 -0.43492517 -0.14959741 30
-0.33738592 -0.41887453 -0.12417299 17
-0.35598564 -0.44180861 -0.1102876 6
-0.37817761 -0.46901578 -0.095425032 10
-3.7122698 -4.5990243 0.93610394 2
-0.35665402 -0.4418484 -0.049678776 10
-3.3461719 -4.1439958 1.0353296 1
-2.8800659 -3.561667 1.22732 1
-0.3150838 -0.38867971 -0.13406827 22
-0.34375688 -0.42374772 -0.12597258 8
-0.36247414 -0.44666103 -0.11181407 5
-0.37234089 -0.45849222 -0.093547821 10
-3.7283013 -4.5860376 0.93610394 2
-0.35819423 -0.44060072 -0.049678776 10
-3.3618557 -4.1338139 1.0357113 1
-2.8827214 -3.5396085 1.2231789 1
-0.33476511 -0.41002414 -0.14183284 31
-0.32673931 -0.39990887 -0.11922406 17
-0.35906127 -0.43931267 -0.1102876 6
-0.3789416 -0.46330595 -0.094799295 10
-4.1583252 -5.0822921 0.80628765 1
-3.7292697 -4.5546551 0.93234956 2
-0.35973004 -0.43934768 -0.049678776 10
-3.3812404 -4.1281295 1.0372378 1
-2.9097612 -3.5474482 1.2293905 1
-0.33496729 -0.40736088 -0.14131519 32
-0.34423029 -0.41832808 -0.12507279 8
-0.36308804 -0.44108817 -0.11105084 6
-0.38558024 -0.46807921 -0.096050769 10
-3.7602258 -4.5598984 0.93610394 2
-0.36126137 -0.4380894 -0.049678776 10
-3.3856361 -4.1041846 1.0341848 1
-2.9319699 -3.5491848 1.2335316 1
-0.33638722 -0.40618917 -0.14131519 21
-0.34693193 -0.41862437 -0.12552269 25
-0.36211962 -0.43679518 -0.1102876 6
-0.38721183 -0.46673042 -0.096050769 10
-0.36278838 -0.43682566 -0.049678776 10
-3.4124875 -4.1074424 1.0380009 1
-2.9295135 -3.5211082 1.22732 1
-0.33904049 -0.40649605 -0.14183284 31
-0.33715266 -0.40394592 -0.12147357 17
-0.37370825 -0.44758472 -0.11334055 5
-4.7027125 -5.6303701 0.64181489 1
-0.38630548 -0.46234414 -0.095425032 10
-4.1896758 -5.0125751 0.80214405 3
-0.3643111 -0.43555656 -0.049678776 10
-3.424284 -4.0924954 1.0372378 1
-0.42688704 -0.51000839 -0.034855749 5
-2.9114025 -3.475831 1.2148967 1
-0.34169984 -0.4067893 -0.14235048 31
-0.33598301 -0.39984173 -0.12057376 17
-0.36263302 -0.43125129 -0.10952436 12
-0.39800942 -0.47315404 -0.097927988 10
-0.3413274 -0.40548301 -0.065078236 11
-0.36582917 -0.4342823 -0.049678776 10
-2.8886395 -3.4243011 1.2004027 1
-0.33805725 -0.39975357 -0.14027993 43
-0.33611774 -0.39717904 -0.12012386 17
-0.36913517 -0.43604004 -0.11105084 6
-0.40987349 -0.4838196 -0.10043094 9
-2.7054257 -3.1923873 0.51380116 1
-0.34274074 -0.40428907 -0.065078236 11
-0.36726728 -0.43306679 -0.049678776 10
-2.7382798 -3.2277269 0.82276845 1
-2.7479789 -3.2345798 1.1372509 1
-0.3507238 -0.41180772 -0.14493866 31
-0.34508651 -0.40490219 -0.12282327 17
-0.35027531 -0.41084513 -0.10494495 12
-2.6943934 -3.1591942 0.36326513 1
-0.39361021 -0.46134725 -0.096050769 10
-2.6778922 -3.1376264 0.50648904 1
-2.7377183 -3.2054565 0.66766238 1
-0.36877677 -0.4317821 -0.049678776 10
-2.6730127 -3.1285903 0.79987139 1
-2.6688278 -3.1192787 1.099981 2
-0.34209743 -0.39885017 -0.14079757 43
-0.35538235 -0.41404629 -0.12597258 16
-0.36449662 -0.42451534 -0.10876114 6
-2.6794422 -3.1195412 0.35977891 1
-0.40551707 -0.4719567 -0.098553732 9
-2.6318941 -3.062022 0.49576455 1
-0.34555489 -0.40188646 -0.065078236 11
-2.5878732 -3.0086801 0.62855375 3
-0.37028173 -0.43049219 -0.049678776 10
-2.6237328 -3.0492959 0.78193527 4
-2.6333671 -3.0583313 0.93174726 3
-2.6683502 -3.0967731 1.0953223 2
-0.34601325 -0.40057749 -0.14183284 42
-0.35427669 -0.40985477 -0.12507279 17
-0.36083972 -0.41730019 -0.10723466 6
-2.562577 -2.962496 0.34269637 4
-0.39682129 -0.45858821 -0.096050769 10
-2.5776064 -2.9777713 0.48357758 5
-0.33655992 -0.38867241 -0.063128322 12
-2.6022394 -3.0041084 0.62949234 4
-0.37178206 -0.42919713 -0.049678776 10
-2.6253622 -3.0297322 0.77926397 4
-2.6440258 -3.0491209 0.93174726 3
-2.6753452 -3.0830624 1.0937693 2
-0.32458696 -0.37313133 -0.13251536 34
-0.35058713 -0.40273625 -0.12327318 17
-0.36229429 -0.41603798 -0.10723466 6
-2.5676672 -2.9475245 0.34199914 2
-0.39841965 -0.4572002 -0.096050769 10
-2.590595 -2.9717476 0.48406506 6
-2.6217997 -3.0054266 0.63168246 4
-0.37327799 -0.42789677 -0.049678776 10
-2.635922 -3.0205495 0.77926397 4
-2.6649077 -3.0516155 0.93534642 4
-2.6797347 -3.0664315 1.0911812 2
-0.34498236 -0.39379281 -0.14027993 32
-0.3494215 -0.39857924 -0.12237337 17
-0.37668884 -0.4295314 -0.11105084 6
-2.5871379 -2.9490278 0.34321931 4
-0.4000133 -0.45580655 -0.096050769 10
-2.5957134 -2.9567201 0.48309013 6
-2.6244528 -2.9873517 0.62980521 3
-0.37476948 -0.42659107 -0.049678776 10
-2.6490419 -3.0142796 0.78002721 4
-2.6626751 -3.0276606 0.93084741 3
-2.7057371 -3.0744622 1.0973928 2
-0.35913548 -0.40707269 -0.14545631 20
-0.34565169 -0.39151359 -0.12057376 8
-0.34959456 -0.39584035 -0.10265525 6
-2.6026928 -2.9459512 0.34391654 4
-0.39636925 -0.44848698 -0.094799295 10
-2.6112778 -2.9535899 0.48406506 5
-0.38006455 -0.42973602 -0.070440486 10
-2.636174 -2.9796519 0.63011813 3
-0.37625629 -0.42528027 -0.049678776 10
-2.6634505 -3.0094254 0.7811721 3
-2.6809797 -3.0271006 0.93354684 1
-2.9201875 -3.2948725 1.1796973 1
-0.35927111 -0.40437242 -0.14493866 31
-0.33924726 -0.38156652 -0.11787436 18
-0.36402151 -0.40928736 -0.10647143 6
-2.5983925 -2.9204745 0.34199914 2
-0.40055895 -0.45005178 -0.095425032 10
-2.6360922 -2.9607658 0.48674619 3
-2.6518145 -2.9763319 0.63136959 1
-0.37773839 -0.42396438 -0.049678776 10
-3.068028 -3.4374342 1.2345669 1
-0.35810411 -0.40023655 -0.1439034 31
-0.34967649 -0.39054283 -0.12102367 17
-0.36806759 -0.41093913 -0.10723466 6
-0.38894305 -0.43394101 -0.092296347 10
-0.37921602 -0.42264321 -0.049678776 10
-3.0645106 -3.4094632 1.2283553 1
-0.33104953 -0.36740971 -0.13251536 34
-0.34190273 -0.3791889 -0.11787436 18
-0.36161023 -0.40090472 -0.10494495 6
-0.39045531 -0.43258077 -0.092296347 10
-0.42877603 -0.47453585 -0.055953983 8
-3.0841715 -3.4073386 1.231461 1
-0.33882082 -0.37340522 -0.13510354 22
-0.33536413 -0.36933675 -0.11517494 18
-0.36300746 -0.39963999 -0.10494495 6
-0.39727777 -0.43706205 -0.093547821 10
-0.35657302 -0.39214355 -0.065078236 11
-0.38215739 -0.4199855 -0.049678776 10
-3.1084654 -3.4113717 1.2366375 1
-0.35569203 -0.38939589 -0.14131519 21
-0.34842023 -0.38116795 -0.11922406 17
-0.33783397 -0.36945704 -0.097312599 6
-0.39872482 -0.43574232 -0.093547821 10
-3.1145377 -3.3953505 1.2345669 1
-0.34128982 -0.37114996 -0.13510354 22
-0.32988897 -0.35850039 -0.11247552 19
-0.33373868 -0.36255696 -0.095786124 6
-0.37340054 -0.40535963 -0.087290443 11
-3.1126738 -3.3708103 1.2293905 1
-0.34776807 -0.37568691 -0.1371741 22
-3.7165463 -4.0022817 1.0616612 1
-3.1369882 -3.3746192 1.2345669 1
-0.33992007 -0.36451969 -0.13355063 22
-3.7311902 -3.9886329 1.0616612 1
-3.1684115 -3.382288 1.2418139 1
-0.34515774 -0.36755565 -0.13510354 22
-3.1801994 -3.3712068 1.2418139 1
-0.33316508 -0.35231236 -0.12992717 11
-3.7589452 -3.9624872 1.0616612 1
-3.1706586 -3.337676 1.2335316 1
-0.33705735 -0.35394523 -0.13096245 11
-3.1929731 -3.3377554 1.2376727 1
-0.44021618 -0.45889279 0.011099731 9
-3.7865169 -3.9361482 1.0616612 1
-3.1938829 -3.3154595 1.2335316 1
-0.43625778 -0.45160052 0.010960111 9
-0.44004825 -0.45520601 0.033180997 4
-3.2188869 -3.318157 1.238708 1
-0.41970477 -0.43144131 0.01050635 60
-0.44163445 -0.45366728 0.033180997 13
-3.2358506 -3.3124278 1.2407786 1
-0.42680576 -0.43568742 0.010645968 59
-0.43203011 -0.4407129 0.032343626 27
-3.2419741 -3.2956035 1.238708 1
-0.41568479 -0.4213827 0.010331824 82
-0.44338778 -0.44915169 0.033076327 27
-3.2697725 -3.3007369 1.2449197 1
-0.41151607 -0.41425443 0.010192206 83
-0.44495291 -0.44760123 0.033076327 27
-3.2649021 -3.2728906 1.238708 1
-0.40447411 -0.40433294 0.0099827768 86
-0.44651264 -0.44604531 0.033076327 27
-3.8681185 -3.8559864 1.0616612 1
-3.2899981 -3.2751031 1.2438843 1
-0.41581711 -0.41278031 0.01022711 93
-0.44239518 -0.43885756 0.032657638 27
-3.2959158 -3.2581658 1.2418139 1
-0.42580006 -0.41974929 0.01043654 91
-0.44100288 -0.43458432 0.032448296 27
-3.8949435 -3.8288889 1.0616612 1
-3.3011889 -3.2418039 1.2397434 1
-0.42576081 -0.41693592 0.010401634 81
-0.43680722 -0.42745477 0.03202961 23
-3.3124843 -3.2302616 1.2397434 1
-0.4200457 -0.4084765 0.01022711 93
-0.44402599 -0.43149507 0.032448296 13
-3.3292909 -3.2240546 1.2418139 1
-0.42146891 -0.4070079 0.01022711 93
-0.44265524 -0.42716861 0.032238953 9
-3.3293846 -3.2017007 1.2376727 1
-0.43010354 -0.41245452 0.010401634 81
-0.42107117 -0.40351075 0.030564202 10
-3.351717 -3.2007339 1.2418139 1
-0.4257482 -0.40543455 0.010262014 93
-0.42971131 -0.40892267 0.031087562 4
-3.3684771 -3.1943309 1.2438843 1
-0.42716074 -0.40394607 0.010262014 83
-0.43984592 -0.41565087 0.031715591 4
-3.3711686 -3.174607 1.2407786 1
-0.42565289 -0.39971465 0.010192206 83
-0.47624809 -0.4469142 0.034227718 4
-3.385051 -3.1654596 1.2418139 1
-0.42119563 -0.39277121 0.010052586 85
-0.47780535 -0.44524893 0.034227718 4
-3.3960798 -3.1536243 1.2418139 1
-0.44017085 -0.40760282 0.010471444 81
-0.47935662 -0.44357833 0.034227718 4
-3.4070675 -3.1417503 1.2418139 1
-0.43570304 -0.40064961 0.010331824 82
-3.4351108 -3.145494 1.2480254 1
-0.4356223 -0.39777792 0.01029692 71
-3.4346349 -3.1230867 1.2438843 1
-0.43700826 -0.39625475 0.01029692 71
-3.436913 -3.1033106 1.2407786 1
-0.43838871 -0.39472699 0.01029692 61
-3.4678607 -3.1093502 1.2480254 1
-0.43678245 -0.39052859 0.01022711 62
-0.47337005 -0.42160928 -0.011064826 6
-3.4902363 -3.1075034 1.2521666 1
-0.43814299 -0.38900152 0.01022711 62
-0.36437249 -0.32339135 -0.11247552 9
-0.47483888 -0.41995433 -0.011064826 6
-3.5155361 -3.1080956 1.2573429 1
-0.44549805 -0.39275953 0.010366729 61
-0.37134713 -0.32727134 -0.11427514 9
-0.42221084 -0.37079084 -0.0098082526 7
-3.5118458 -3.083061 1.2521666 1
-0.44084805 -0.38593325 0.01022711 72
-0.37248728 -0.32597309 -0.11427514 9
-0.46570227 -0.40611467 -0.010785587 6
-3.5371482 -3.083478 1.2573429 1
-0.44170296 -0.38410202 -0.15684435 9
-0.43917415 -0.3817682 0.0101573 63
-0.38244855 -0.33234039 -0.11697455 9
-0.47316378 -0.40972281 -0.010925207 6
-3.5566542 -3.0786982 1.2604488 1
-0.44304112 -0.38255769 -0.15684435 9
-0.44201776 -0.38153961 0.010192206 31
-0.39836037 -0.34373426 -0.12147357 8
-3.558588 -3.0587094 1.2573429 1
-0.44437373 -0.38100898 -0.15684435 9
-0.48282301 -0.41382945 0.011099731 9
-0.39955792 -0.34234148 -0.12147357 8
-3.5692441 -3.0462682 1.2573429 1
-0.445701 -0.37945548 -0.15684435 9
-0.48426461 -0.41214153 0.011099731 9
-0.4304356 -0.36619994 -0.13047162 8
-3.5798559 -3.0337906 1.2573429 1
-0.44702283 -0.37789738 -0.15684435 9
-0.48570034 -0.41044864 0.011099731 9
-0.43766588 -0.36972547 -0.13227122 8
-3.5904241 -3.021276 1.2573429 1
-0.46284246 -0.38823333 -0.13946965 7
-3.6187377 -3.0235894 1.2635547 1
-0.44965017 -0.37476736 -0.15684435 9
-0.46419474 -0.38661543 -0.13946965 7
-3.6441379 -3.0232742 1.2687311 1
-0.46560875 -0.38491136 -0.13946965 7
-3.6402812 -2.997617 1.2635547 1
-0.46701631 -0.38320234 -0.13946965 7
-3.6417494 -2.9775548 1.2604488 1
-0.46828449 -0.38165152 -0.13946965 7
-3.6875947 -2.9946902 1.2728721 1
-0.46954754 -0.38009652 -0.13946965 7
-3.6859946 -2.9720991 1.2687311 1
-0.47087148 -0.37845519 -0.13946965 7
-3.6933298 -2.9568005 1.2676958 1
-0.47218975 -0.37680909 -0.13946965 7
-4.273241 -3.4015267 1.0616612 1
-3.7066541 -2.9462934 1.2687311 1
-3.7320807 -2.9453046 1.2739074 1
-3.7210491 -2.9155791 1.2666605 1
-0.38996682 -0.30445632 -0.096167736 6
-3.7647498 -2.9286683 1.2780485 1
-0.41275093 -0.31993172 -0.10151039 6
-3.7994127 -2.9344025 1.2863307 1
-0.41386524 -0.31848902 -0.10151039 6
-3.8096325 -2.9211221 1.2863307 1
-0.43681508 -0.33372894 -0.10685304 6
-3.8044345 -2.8961046 1.2811544 1
-0.45674786 -0.34643936 -0.11143246 5
-3.8114383 -2.8804772 1.2801191 1
-0.43913442 -0.33067113 -0.10685304 6
-4.3665519 -3.2808836 1.0616612 1
-3.8307412 -2.8741126 1.2832248 1
-3.8407507 -2.860723 1.2832248 1
-0.52025932 -0.38609701 -0.12593395 5
-4.4682384 -3.3087373 1.0807421 1
-3.8662467 -2.8587835 1.2884012 1
-0.52160388 -0.3842786 -0.12593395 5
-4.5588522 -3.3512611 1.0998231 1
-3.8762021 -2.8452702 1.2884012 1
-4.5705223 -3.3353283 1.0998231 1
-3.8861098 -2.8317232 1.2884012 1
-0.44609961 -0.32363489 -0.087290443 11
-3.9053626 -2.8249345 1.2915071 1
-3.9120612 -2.8090312 1.2904718 1
-3.934428 -2.8043287 1.2946129 1
-3.9568093 -2.799504 1.298754 1
-3.9792054 -2.7945576 1.3028952 1
-3.9921048 -2.7828603 1.3039304 1
-4.0081487 -2.7733049 1.3060009 1
-4.0273609 -2.7658582 1.3091067 1
-3.8051553 -2.5358059 1.2252494 1
-3.8010943 -2.5139816 1.2211083 1
-3.7650068 -2.4750297 0.87581331 1
-3.7743161 -2.4773765 1.2097203 1
-3.7319765 -2.435631 0.70583236 1
-3.7210066 -2.4275453 0.86360151 1
-3.7311411 -2.4304454 1.1931559 1
-3.7046978 -2.4012654 0.54207492 1
-3.7072959 -2.4011121 0.69957501 1
-3.6767213 -2.3803992 0.85138983 1
-3.6779518 -2.3775535 1.1734856 1
-3.709116 -2.3876143 0.38592559 1
-3.6863449 -2.3711369 0.53817511 1
-3.6757729 -2.3625233 0.69206619 1
-3.6750979 -2.3611834 0.84910011 1
-3.6504555 -2.3417523 1.1620976 2
-3.7174273 -2.3746533 0.38592559 1
-3.6243215 -2.3133962 0.52793807 1
-3.6406958 -2.3220596 0.68393159 1
-3.6402767 -2.3208988 0.83917803 1
-3.640465 -2.3192322 0.99653322 3
-3.6716456 -2.3372939 1.1662387 2
-3.6415544 -2.3083279 0.37721002 1
-3.618958 -2.2922339 0.5259881 1
-3.6320875 -2.2987726 0.68080288 1
-3.6384008 -2.3018808 0.83688831 4
-3.6584218 -2.3127584 0.99923265 1
-3.6667154 -2.3162103 1.1620976 2
-3.5989954 -2.263777 0.3719807 1
-3.5832396 -2.2521226 0.51965094 1
-3.5982678 -2.2598164 0.67298114 3
-3.6314487 -2.2797713 0.83345371 3
-3.674726 -2.3051527 1.0014821 3
-3.6715043 -2.3013446 1.1610622 4
-3.5899732 -2.2406521 0.37023759 1
-3.5725515 -2.228045 0.5169698 2
-3.6161931 -2.2535107 0.67485833 3
-3.6293874 -2.2608523 0.83116406 3
-3.689368 -2.2964303 1.0032817 3
-3.7254474 -2.3170829 1.1755562 1
-3.5740588 -2.2134206 0.36779723 2
-3.6005628 -2.2280962 0.51989466 3
-3.624038 -2.2408731 0.67485833 3
-3.6639767 -2.2646849 0.8372699 3
-4.2168474 -2.6023459 1.3277417 1
-3.5987387 -2.2113624 0.36954033 2
-3.6117017 -2.217592 0.52038211 2
-3.6284709 -2.2261431 0.67423266 3
-3.7136989 -2.2775419 0.84681034 1
-4.2489715 -2.601733 1.3349887 1
-3.5996311 -2.1946392 0.36884311 2
-3.6262021 -2.2091024 0.52135712 2
-3.6986506 -2.2514684 0.68580878 1
-4.2349129 -2.5728424 1.3277417 1
-3.6311367 -2.1964967 0.37128347 2
-3.6661692 -2.2159417 0.5259881 1
-4.2537942 -2.5640287 1.3308476 1
-3.6387315 -2.1846418 0.22242783 1
-4.8523178 -2.9063535 1.0994414 1
-4.2660346 -2.5511475 1.331883 1
-3.7204473 -2.2178326 0.075603828 1
-4.862433 -2.8893976 1.0994414 1
-4.2981744 -2.5500402 1.3391298 1
-4.3103795 -2.5369813 1.3401651 1
-4.3192091 -2.52192 1.3401651 1
-3.8411419 -2.2347012 0.23289503 1
-4.3208618 -2.5037084 1.3380945 1
-4.3530235 -2.5020885 1.3453414 1
-4.3617306 -2.4868791 1.3453414 1
-6.0710258 -3.4502242 0.1218876 2
-4.921391 -2.7877922 1.0994414 1
-4.3569322 -2.4640307 1.3412004 1
-6.0830326 -3.4290111 0.1218876 2
-4.9310923 -2.770596 1.0994414 1
-4.3958349 -2.4658191 1.3505179 1
-6.0495834 -3.382385 0.12098008 2
-4.9412131 -2.7525053 1.0994414 1
-4.4111681 -2.4542167 1.3525884 1
-0.66058356 -0.36631829 -0.20239651 5
-4.9507918 -2.7352393 1.0994414 1
-4.4302835 -2.4436307 1.3556943 1
-0.65345728 -0.35924125 -0.1998083 11
-4.9607835 -2.7170763 1.0994414 1
-4.4252267 -2.4207349 1.3515531 1
-0.64792275 -0.35325903 -0.19773777 12
-4.4642153 -2.421855 1.3608706 1
-0.63385779 -0.34272566 -0.19307902 6
-5.0655766 -2.7298143 1.1185224 1
-4.4386172 -2.3879504 1.3505179 1
-4.4805975 -2.3914108 1.3608706 1
-4.9973121 -2.649292 1.0994414 1
-4.5162373 -2.3902147 1.3691529 1
-4.5074463 -2.3654592 1.3639765 1
-5.0174265 -2.615247 1.0998231 1
-4.5430956 -2.3639786 1.3722585 1
-4.5616207 -2.35342 1.3753644 1
-4.5801277 -2.342761 1.3784703 1
-4.5951695 -2.3302538 1.3805408 1
-5.1411242 -2.5890908 1.118904 1
-4.6136317 -2.3194058 1.3836466 1
-4.6424475 -2.3136284 1.3898584 1
-4.2374954 -2.1044333 0.082584791 1
-4.6678157 -2.3059654 1.3950348 1
-4.1551108 -2.04547 0.080839552 1
-4.6654272 -2.284559 1.3919289 1
-4.1226883 -2.0116611 0.080071643 5
-4.1355371 -2.0081091 -0.080246165 1
-4.70118 -2.2817571 1.4002111 1
-4.1440868 -2.0042219 0.080350876 3
-4.1943588 -2.0204124 -0.24399024 1
-4.1082859 -1.9771848 -0.079582974 3
-4.7056346 -2.263658 1.3991758 1
-4.1474514 -1.9880154 0.080281071 3
-4.1616802 -1.9885882 -0.40353107 1
-4.0968466 -1.9558514 -0.23791927 1
-4.0718446 -1.9421704 -0.078745253 5
-4.7309456 -2.255532 1.4043522 1
-4.1615901 -1.976959 0.080420688 3
-4.0632882 -1.9250485 -0.55206817 11
-4.0533528 -1.9194741 -0.39237517 1
-4.0892057 -1.9347063 -0.2370819 3
-4.0782628 -1.9286568 -0.078745253 3
-4.7558651 -2.2480869 1.4095285 1
-4.1536503 -1.956331 0.080141447 3
-4.0240402 -1.8918548 -0.70426804 9
-4.0642591 -1.9090313 -0.55133694 2
-4.0275621 -1.8900775 -0.38923752 3
-4.120914 -1.9330099 -0.23854731 3
-4.1175632 -1.9296837 -0.079373546 3
-4.732193 -2.2167225 1.4002111 1
-4.1640782 -1.9435116 0.080211259 3
-4.0265841 -1.8776275 -0.86360151 37
-3.9965982 -1.8619466 -0.69832355 4
-4.0619001 -1.8906446 -0.55011827 2
-4.0663242 -1.8918391 -0.39237517 3
-4.1131473 -1.9118785 -0.23770994 3
-4.1315284 -1.9186689 -0.079513162 3
-4.7434063 -2.201817 1.4012463 1
-4.1526871 -1.9205704 0.079862215 3
-3.9782104 -1.8390341 -1.0118299 12
-4.018857 -1.8569727 -0.86054862 3
-4.0228014 -1.8570918 -0.70176506 4
-4.0288177 -1.8581635 -0.544756 2
-4.0729032 -1.8776344 -0.39237517 3
-5.3170829 -2.4500844 1.1379849 1
-4.101655 -1.8891536 -0.23666322 3
-4.1345673 -1.9025635 -0.07944335 3
-4.7615948 -2.1900883 1.4043522 1
-3.9810517 -1.8251897 -1.1734856 1
-4.1920877 -1.921059 0.080490492 3
-3.9863775 -1.8259478 -1.0122797 1
-4.0074639 -1.8347602 -0.85673243 4
-4.0274634 -1.8422166 -0.7014522 2
-4.0515289 -1.8515146 -0.54694968 2
-4.0939302 -1.8700281 -0.39376962 3
-5.325603 -2.4315093 1.1379849 1
-4.1372962 -1.8880918 -0.23833798 1
-4.1229887 -1.8798237 -0.079094306 3
-4.7973366 -2.1862731 1.4126344 1
-3.9592562 -1.7984993 -1.1652035 1
-4.2169771 -1.9146805 0.080839552 3
-3.9962764 -1.8136324 -1.0131795 2
-4.0156312 -1.8215721 -0.85711402 2
-4.0572596 -1.8387471 -0.7055195 1
-4.0597754 -1.8381796 -0.54719341 2
-4.0859122 -1.8491545 -0.39237517 1
-5.280396 -2.3886299 1.1265364 1
-4.1365819 -1.8703468 -0.23791927 1
-4.1878414 -1.8917632 -0.080211259 3
-4.8049388 -2.1695137 1.4126344 1
-3.9408464 -1.7735682 -1.1579564 2
-4.2236347 -1.8999487 0.080839552 3
-4.0061369 -1.8012708 -1.0140793 2
-4.0165939 -1.8051286 -0.85596919 1
-4.0330176 -1.8108191 -0.70020074 2
-4.0915241 -1.8353715 -0.55060571 1
-4.0996132 -1.838142 -0.3930724 1
-5.3424487 -2.3942702 1.1379849 1
-4.1722498 -1.8689598 -0.23959403 1
-4.1907687 -1.8754995 -0.080141447 3
-4.8548059 -2.1716599 1.4250576 1
-3.9717159 -1.7708137 -1.1652035 4
-4.0017195 -1.7825181 -1.01138 2
-4.0210772 -1.7902985 -0.8555876 2
-4.0447288 -1.7991388 -0.70113939 1
-4.0870214 -1.8162423 -0.54914331 2
-4.1314974 -1.8351425 -0.39551273 3
-5.3041205 -2.3548942 1.1280628 1
-4.1714454 -1.851145 -0.23917533 3
-4.8729539 -2.1593974 1.4281635 1
-3.9690363 -1.7530371 -1.1626152 2
-4.0025692 -1.7661773 -1.0100303 2
-4.039875 -1.7817979 -0.8582589 1
-4.0401387 -1.7802286 -0.69926214 1
-4.0969701 -1.8035643 -0.54963076 2
-4.1779981 -1.8383629 -0.3993476 3
-5.305119 -2.3332045 1.1265364 1
-4.2619882 -1.8735452 -0.24399024 1
-4.9158406 -2.157903 1.4385163 1
-3.9839814 -1.7430437 -1.1652035 2
-4.0140662 -1.7545373 -1.01138 2
-4.0244818 -1.7582533 -0.85367942 1
-4.0897784 -1.7850809 -0.70677096 2
-4.1141591 -1.7940121 -0.55109322 2
-4.2136126 -1.8365057 -0.40213659 1
-5.3132315 -2.3146718 1.1265364 1
-4.8701944 -2.1176207 1.4229871 1
-3.9900413 -1.7291263 -1.1652035 2
-4.0237432 -1.7420632 -1.0122797 1
-4.0450087 -1.750432 -0.85673243 1
-4.1358747 -1.7880396 -0.7136541 2
-4.1167507 -1.7780665 -0.55060571 2
-5.3465157 -2.306999 1.131879 1
-4.9307857 -2.1235316 1.4385163 1
-3.9889514 -1.7121408 -1.1631329 1
-4.0369639 -1.7310792 -1.0140793 2
-4.1196651 -1.765691 -0.87123388 1
-4.1293797 -1.7681488 -0.71146405 2
-4.1119819 -1.7590011 -0.54914331 1
-5.3725896 -2.2960372 1.1356952 1
-4.9381676 -2.106308 1.4385163 1
-4.0020156 -1.7012284 -1.1652035 2
-4.0573311 -1.7230717 -1.0176786 1
-4.1402617 -1.7574369 -0.87428689 3
-5.3914185 -2.2818618 1.1379849 1
-4.9451256 -2.0899205 1.4385163 1
-4.0361214 -1.6999456 -1.1734856 1
-4.0630221 -1.7096076 -1.0176786 2
-5.3518829 -2.244231 1.1280628 1
-4.9520288 -2.0735104 1.4385163 1
-4.0577817 -1.6932483 -1.1781443 2
-5.4177051 -2.2496281 1.1402746 1
-4.9128385 -2.036974 1.4250576 1
-5.4731274 -2.2491579 1.1501967 1
-4.9309955 -2.0233541 1.4281635 1
-5.4554863 -2.219681 1.1448541 1
-4.9738235 -2.0206716 1.4385163 1
-4.7299199 -1.807127 1.3567295 1
-4.7434278 -1.7933383 1.3588001 1
-4.7759686 -1.7904134 0.99144357 1
-4.7207074 -1.7659408 1.3505179 1
-4.7262158 -1.7539086 0.79844159 2
-4.7122416 -1.7477885 0.97694212 1
-4.6978559 -1.7387218 1.3422357 1
-4.7508526 -1.7442094 0.8015703 2
-4.6740799 -1.7150978 0.96778321 1
-4.6857557 -1.7156702 1.3370593 1
-4.6789589 -1.7011529 0.61129665 1
-4.686357 -1.7019908 0.78968132 2
-4.6320572 -1.681354 0.95786124 1
-4.6844501 -1.6966732 1.3349887 1
-4.3630605 -1.5742402 -1.2428491 1
-4.6689401 -1.6836841 0.086633749 1
-4.6865025 -1.6872449 0.43577868 1
-4.6512442 -1.6727177 0.60690933 1
-4.6808214 -1.6824318 0.78780407 2
-4.6378975 -1.6651759 0.95786124 1
-4.666225 -1.6735079 -0.086529031 1
-4.6391311 -1.6628773 1.3204948 3
-4.3318696 -1.5467713 -1.2324963 1
-4.5859804 -1.6366025 0.084993221 5
-4.6465187 -1.6572928 0.25853965 3
-4.6601658 -1.6603268 0.4328154 2
-4.6492853 -1.654622 0.60593444 1
-4.6491518 -1.6536603 0.78154671 1
-4.6285944 -1.6445284 0.95480824 1
-4.5775218 -1.6245832 -0.084783792 1
-4.6446199 -1.647483 1.3204948 51
-4.3224034 -1.5272491 -1.2283553 1
-4.581954 -1.6180562 0.084818691 3
-4.6277895 -1.6324272 0.2571789 1
-4.6224279 -1.6296275 0.42880625 1
-4.632278 -1.6312839 0.60300958 1
-4.6437149 -1.6334885 0.77966946 1
-4.6231933 -1.6244564 0.95251852 1
-4.6187582 -1.6219927 -0.25655088 1
-4.635262 -1.6277884 1.1342032 4
-4.5586362 -1.5999845 -0.08433003 3
-4.6594577 -1.6344585 1.323083 45
-4.3170295 -1.5075737 -1.2252494 1
-4.5821896 -1.5992758 0.084713981 5
-4.6412864 -1.6180834 0.25759763 1
-4.5982666 -1.6021867 0.42601725 1
-4.6494746 -1.6182084 0.60447198 1
-4.5899639 -1.5957004 0.76965761 1
-4.5432019 -1.578555 -0.4207879 4
-4.5734773 -1.5881809 0.94107002 3
-4.5529714 -1.5801685 -0.25257334 3
-4.6467204 -1.6127052 1.135553 19
-4.5644698 -1.5832665 -0.08433003 5
-4.6380372 -1.6078792 1.3153185 12
-4.3371344 -1.4967836 -1.2293905 1
-4.601253 -1.5870334 0.084958315 3
-4.6358552 -1.5971589 0.25696957 1
-4.5965729 -1.5827266 0.42532 1
-4.6065683 -1.5843713 0.59813482 1
-4.5223675 -1.5545276 -0.58716655 13
-4.5883088 -1.5763004 0.76840615 1
-4.5317264 -1.5568616 -0.41921914 3
-4.5994191 -1.5792187 0.94526786 13
-4.5697947 -1.5681556 -0.2532014 3
-4.6341662 -1.5893424 1.1310539 14
-4.5740256 -1.5678231 -0.084399842 3
-4.6219683 -1.5833551 1.3091067 12
-4.3386769 -1.4803863 -1.2283553 1
-4.5726967 -1.5593457 0.08433003 1
-4.5846844 -1.5616463 0.25382942 1
-4.56812 -1.5551156 0.42218241 2
-4.5181618 -1.5372286 -0.75589144 12
-4.5782418 -1.5567772 0.5937475 1
-4.5240064 -1.5374556 -0.58667904 1
-4.5844312 -1.5570979 0.76684189 15
-4.5258141 -1.5371888 -0.41817325 3
-4.6179175 -1.5675715 0.94793916 25
-4.5620008 -1.5477027 -0.25246868 3
-4.5972385 -1.5587639 1.1207062 12
-4.5700006 -1.548638 -0.084225312 1
-4.6036801 -1.5591555 1.3023775 40
-4.3548007 -1.4689381 -1.231461 1
-4.5705323 -1.5408192 0.084190413 1
-4.5825357 -1.5430846 0.25341073 1
-4.502655 -1.5161862 -0.92351556 1
-4.5508604 -1.5315342 0.42009068 1
-4.5029054 -1.5145197 -0.75244987 34
-4.5667129 -1.5350949 0.59155381 9
-4.5218186 -1.5191257 -0.58570409 2
-4.5973296 -1.5435997 0.76809335 28
-4.5481515 -1.5270877 -0.41974208 4
-4.5917192 -1.5408244 0.94145161 12
-4.5541201 -1.5273244 -0.25173599 1
-4.5730882 -1.5327967 1.1135077 15
-4.5450406 -1.5225134 -0.083666839 1
-4.6200857 -1.5467569 1.3054833 22
-4.352571 -1.4512836 -1.2293905 1
-4.5493226 -1.5160048 0.083701737 1
-4.5196733 -1.5043718 0.24964255 1
-4.4948802 -1.4961195 -0.92084426 49
-4.5429449 -1.5112371 0.41887048 4
-4.5137877 -1.5006628 -0.75338852 12
-4.5889983 -1.5247781 0.5937475 12
-4.5327458 -1.505209 -0.58643532 7
-4.5745668 -1.5182091 0.76340026 13
-4.528872 -1.5030439 -0.41747603 1
-4.567255 -1.5148988 0.93534577 12
-4.5821733 -1.5189582 -0.25299203 1
-4.5950599 -1.5223399 1.1175569 33
-4.5465302 -1.5053829 -0.083597034 1
-4.6272912 -1.531226 1.3060009 21
-4.3539414 -1.4348723 -1.2283553 1
-4.5431914 -1.496363 0.083492316 1
-4.4646993 -1.4696459 -1.085164 33
-4.5362802 -1.4923307 0.25027055 4
-4.5463004 -1.4947466 0.41869619 9
-4.5058613 -1.4805808 -0.75119835 10
-4.5660019 -1.4994596 0.59009141 10
-4.5398588 -1.4899954 -0.58667904 2
-4.5573149 -1.4948447 0.75964588 13
-4.5227313 -1.483501 -0.41643015 1
-4.5594554 -1.4946656 0.93267435 36
-4.5418963 -1.4880303 -0.25047991 1
-4.6003456 -1.506292 1.1175569 16
-4.521349 -1.4795524 -0.083038554 1
-4.6362805 -1.5162653 1.3070362 22
-4.3993349 -1.4328281 -1.2397434 1
-4.5179629 -1.4705911 0.082933836 1
-4.4512711 -1.4480237 -1.0806649 8
-4.5471597 -1.4783406 0.25058457 10
-4.4846778 -1.458027 -0.91664648 4
-4.5590692 -1.4813316 0.41939342 12
-4.5091233 -1.4642332 -0.75088555 5
-4.5447741 -1.4749345 0.58667904 10
-4.545032 -1.47414 -0.58667904 1
-4.5437136 -1.4728363 0.75651717 18
-4.5430446 -1.4726194 -0.41782463 1
-4.5534401 -1.4751098 0.93038476 19
-4.5014586 -1.4574034 -0.24796779 1
-4.6204081 -1.495024 1.1211561 18
-4.5188751 -1.4612986 -0.08289893 1
-4.6599269 -1.5060143 1.3122126 22
-4.4079871 -1.4186451 -1.2407786 1
-4.5059361 -1.4493006 0.082619689 10
-4.4247584 -1.4223397 -1.0730165 2
