# .PCD v0.7 - Point Cloud Data file format
VERSION 0.7
FIELDS x y z intensity
SIZE 4 4 4 4
TYPE F F F F
COUNT 1 1 1 1
WIDTH 417
HEIGHT 1
VIEWPOINT 0 0 0 1 0 0 0
POINTS 417
DATA ascii
3.1671007 0.059152965 -0.16600966 6
3.1672878 0.048096519 -0.16600966 6
3.1634357 0.037547883 -0.16580033 6
3.1595531 0.026470894 -0.16559097 6
3.1636236 0.0149099 -0.16580033 6
3.1516726 0.0038512158 -0.16517229 6
3.1436768 -0.0076814671 -0.16475362 6
3.1476314 -0.017579874 -0.16496295 6
3.1515453 -0.0286033 -0.16517229 6
3.1537104 -0.039082266 -0.27593508 5
3.1554203 -0.039654266 -0.16538164 6
3.1312621 -0.04044386 -0.054660939 7
3.1595311 -0.050185464 -0.27645802 5
3.1432719 -0.051024694 -0.16475362 6
3.1351006 -0.051439375 -0.054730747 7
3.1573341 -0.061726443 -0.27628368 5
3.131093 -0.061760116 -0.16412558 6
3.1368906 -0.062969886 -0.054765653 7
3.1570992 -0.072747216 -0.27628368 5
3.1388328 -0.073422551 -0.16454425 6
3.1206584 -0.073542394 -0.054486416 7
3.1409216 -0.082247935 -0.2748892 5
3.1385868 -0.083283111 -0.16454425 6
3.116399 -0.083782971 -0.054416601 7
3.1406155 -0.093211286 -0.2748892 5
3.1422696 -0.094358213 -0.16475362 6
3.1120901 -0.094539292 -0.054346792 7
3.1362882 -0.1040414 -0.27454057 5
3.1219594 -0.10465705 -0.1637069 6
3.1197357 -0.10567272 -0.054486416 7
3.139888 -0.11513446 -0.2748892 5
3.1215754 -0.11555407 -0.1637069 6
3.1193478 -0.11656198 -0.054486416 7
3.1474302 -0.12641385 -0.27558646 5
3.1211529 -0.1264497 -0.1637069 6
3.1029375 -0.12679666 -0.054207176 7
3.1350267 -0.13687822 -0.27454057 5
3.1246829 -0.13751942 -0.16391623 6
3.1024761 -0.13762715 -0.054207176 7
3.1022561 -0.14250033 0.054207176 8
3.1686821 -0.14887699 -0.38949445 4
3.1265693 -0.14744526 -0.27384335 5
3.1241839 -0.14842577 -0.16391623 6
3.1059713 -0.14864717 -0.054276984 7
3.0897563 -0.15273599 0.053997744 8
3.168143 -0.15993683 -0.38949445 4
3.1379745 -0.15896294 -0.2748892 5
3.1196575 -0.1591268 -0.1637069 6
3.1134219 -0.15989837 -0.054416601 7
3.0912011 -0.16362602 0.05403265 8
3.1556723 -0.17035273 -0.38803205 4
3.1374004 -0.16991553 -0.2748892 5
3.1071172 -0.16936323 -0.16307886 6
3.1048579 -0.17032713 -0.054276984 7
3.096601 -0.17475337 0.054137368 8
3.1431675 -0.18068348 -0.38656959 4
3.1367881 -0.18086606 -0.2748892 5
3.1065071 -0.18020807 -0.16307886 6
3.0962596 -0.18069807 -0.054137368 7
3.0899835 -0.18520249 0.05403265 8
3.1464806 -0.19189577 -0.38705707 4
3.1242058 -0.19108462 -0.27384335 5
3.113833 -0.19154119 -0.16349754 6
3.0876262 -0.19101104 -0.053997744 7
3.0773439 -0.19522779 0.053823221 8
3.1497533 -0.20313337 -0.38754454 4
3.1195433 -0.2017318 -0.27349472 5
3.1131454 -0.20240936 -0.16349754 6
3.0909314 -0.20204857 -0.054067552 7
3.0686629 -0.20543426 0.053683605 8
3.151006 -0.2142615 -0.3877883 4
3.1227958 -0.21289086 -0.27384335 5
3.1084347 -0.21300192 -0.16328819 6
3.0941978 -0.21311153 -0.054137368 7
3.0679271 -0.21614464 0.053683605 8
3.1363783 -0.22426817 -0.38608211 4
3.1180589 -0.22350524 -0.27349472 5
3.0917356 -0.22270316 -0.16245082 6
3.0974238 -0.22419971 -0.054207176 7
3.0751309 -0.22744238 0.053823221 8
3.1316581 -0.23437123 -0.38559461 4
3.1172597 -0.23438793 -0.27349472 5
3.0989058 -0.23409575 -0.16286951 6
3.0846992 -0.23356405 -0.053997744 7
3.0803409 -0.23810096 0.053927936 8
3.1387799 -0.24537376 -0.38656959 4
3.1124928 -0.2444119 -0.27314609 5
3.1100585 -0.24531309 -0.16349754 6
3.0799208 -0.24347679 -0.053927936 7
3.0635884 -0.24702866 0.053648699 8
3.065742 -0.24827942 0.16119476 9
3.1580753 -0.25686669 -0.50184184 3
3.1418612 -0.25665191 -0.38705707 4
3.0997062 -0.25429761 -0.27210024 5
3.1052473 -0.25529781 -0.16328819 6
3.0830381 -0.25455531 -0.053997744 7
3.0587225 -0.25738573 0.053578887 8
3.0708272 -0.25948384 0.16150878 9
3.1531761 -0.26810515 -0.50121611 3
3.1369905 -0.26728043 -0.38656959 4
3.1067405 -0.26579538 -0.27279747 5
3.088371 -0.26530978 -0.16245082 6
3.0821307 -0.26531559 -0.053997744 7
3.0517824 -0.2680698 0.053474173 8
3.0499604 -0.26898265 0.16046207 9
3.146318 -0.27858749 -0.50027746 3
3.1241262 -0.27772164 -0.38510716 4
3.1137319 -0.27734539 -0.27349472 5
3.0874262 -0.27608857 -0.16245082 6
3.0891044 -0.27732563 -0.054137368 7
3.0587938 -0.27944863 0.053613789 8
3.0549691 -0.28017455 0.16077606 9
3.1531944 -0.29029283 -0.50152892 3
3.1191843 -0.28825983 -0.38461968 4
3.1206803 -0.2889474 -0.27419198 5
3.090421 -0.28723371 -0.16266017 6
3.0721891 -0.28662089 -0.053858127 7
3.0577996 -0.29012412 0.053613789 8
3.0420432 -0.2897006 0.16014804 9
3.1521621 -0.30129778 -0.50152892 3
3.1201351 -0.29933566 -0.38486344 4
3.0998199 -0.29793268 -0.27244884 5
3.0913877 -0.29821134 -0.16276483 6
3.067189 -0.29695764 -0.053788319 7
3.052788 -0.3004044 0.053543981 8
3.0449884 -0.30071011 0.16035739 9
3.1392968 -0.31113014 -0.49965176 3
3.1309233 -0.31140393 -0.38632584 4
3.0947962 -0.30835623 -0.27210024 5
3.0962899 -0.30959663 -0.16307886 6
3.0740924 -0.30846095 -0.053927936 7
3.0437634 -0.31024766 0.053404365 8
3.047894 -0.31174368 0.16056673 9
3.1381917 -0.32208642 -0.49965176 3
3.1298172 -0.32233098 -0.38632584 4
3.0976646 -0.31956607 -0.27244884 5
3.0792973 -0.31875759 -0.16224147 6
3.0769751 -0.31960282 -0.053997744 7
3.0446503 -0.32108021 0.053439267 8
3.0388427 -0.32154036 0.16014804 9
3.1291907 -0.33220464 -0.49840027 3
3.1188035 -0.33220288 -0.38510716 4
3.1004925 -0.33079976 -0.27279747 5
3.0702221 -0.32865408 -0.1618228 6
3.0798171 -0.33076859 -0.054067552 7
3.0534508 -0.33278936 0.053613789 8
3.0337307 -0.33171174 0.15993871 9
3.1358666 -0.34398711 -0.49965176 3
3.1097322 -0.34221894 -0.38413221 4
3.1072407 -0.34249362 -0.27349472 5
3.0769968 -0.34024718 -0.16224147 6
3.0627437 -0.33975336 -0.053788319 7
3.0502834 -0.34322229 0.053578887 8
3.0385084 -0.34297147 0.16025271 9
3.0429192 -0.34400716 0.26791674 10
3.1385722 -0.35537577 -0.50027746 3
3.1124635 -0.35351989 -0.38461968 4
3.0862298 -0.35108581 -0.27175158 5
3.0757904 -0.35098583 -0.16224147 6
3.0575657 -0.34998742 -0.053718507 7
3.041121 -0.35294551 0.053439267 8
3.0432441 -0.35426858 0.16056673 9
3.02191 -0.3523196 0.26617363 10
3.1255403 -0.36495462 -0.49840027 3
3.1112106 -0.36438227 -0.38461968 4
3.0889432 -0.3623209 -0.27210024 5
3.0824807 -0.3626537 -0.16266017 6
3.0642691 -0.3615956 -0.053858127 7
3.0339141 -0.36284649 0.053334557 8
3.0419891 -0.36488932 0.16056673 9
3.0107708 -0.36167771 0.26530206 10
3.1242473 -0.37586257 -0.49840027 3
3.1256859 -0.37714252 -0.38656959 4
3.0876596 -0.37310109 -0.27210024 5
3.0653341 -0.37148905 -0.1618228 6
3.0629883 -0.37228969 -0.053858127 7
3.032629 -0.37343463 0.053334557 8
3.0288038 -0.37403691 0.15993871 9
3.0173995 -0.37316319 0.26599932 10
3.1189954 -0.38628036 -0.49777454 3
3.104651 -0.38560423 -0.38413221 4
3.0863385 -0.38387677 -0.27210024 5
3.0600548 -0.38169235 -0.16161345 6
3.0656383 -0.3834756 -0.053927936 7
3.0352747 -0.38452083 0.053404365 8
3.0235169 -0.38410369 0.15972935 9
3.0141017 -0.38344216 0.265825 10
3.1215475 -0.39766464 -0.49840027 3
3.0973785 -0.39568445 -0.38340098 4
3.0889323 -0.3951534 -0.27244884 5
3.0547419 -0.39186335 -0.1614041 6
3.0484142 -0.39213333 -0.053648699 7
3.0378799 -0.39563009 0.053474173 8
3.0222266 -0.39412796 0.15972935 9
3.0008917 -0.39241099 0.26477915 10
3.1240573 -0.40907133 -0.499026 3
3.1039224 -0.40698582 -0.38437593 4
3.0835834 -0.40541396 -0.27210024 5
3.063256 -0.40382919 -0.16192746 6
3.0470972 -0.40224007 -0.053648699 7
3.034569 -0.40543699 0.053439267 8
3.0288217 -0.40520719 0.16014804 9
2.9995739 -0.40236017 0.26477915 10
3.1187682 -0.4189029 -0.49840027 3
3.1064904 -0.41780582 -0.38486344 4
3.070375 -0.41403964 -0.27105436 5
3.0836718 -0.4169288 -0.16307886 6
3.0536733 -0.41341555 -0.053788319 7
3.0272646 -0.41468367 0.053334557 8
3.0313461 -0.4163208 0.16035739 9
2.9982231 -0.41230494 0.26477915 10
3.1095343 -0.42816499 -0.49714881 3
3.1109123 -0.42946133 -0.38559461 4
3.0768051 -0.42584732 -0.27175158 5
3.0584581 -0.4243961 -0.1618228 6
3.0522113 -0.42407233 -0.053788319 7
3.0296845 -0.42633367 0.053404365 8
3.0179336 -0.4257544 0.15972935 9
3.0065558 -0.42468446 0.26565069 10
3.107944 -0.43955916 -0.49714881 3
3.0857322 -0.43751645 -0.38266978 4
3.0752237 -0.43712157 -0.27175158 5
3.0529273 -0.43503949 -0.16161345 6
3.0545962 -0.43582126 -0.053858127 7
3.0281014 -0.43743512 0.053404365 8
3.0163529 -0.43681282 0.15972935 9
2.997092 -0.43455768 0.26495346 10
3.1160867 -0.45236641 -0.49871314 3
3.0841079 -0.4488233 -0.38266978 4
3.073679 -0.44785345 -0.27175158 5
3.0513902 -0.44569358 -0.16161345 6
3.0430851 -0.44556546 -0.053683605 7
3.038425 -0.44975939 0.053613789 8
3.0266635 -0.44909811 0.16035739 9
2.9935861 -0.44472405 0.26477915 10
2.9962113 -0.44618309 0.37194526 11
3.0903761 -0.46075699 -0.38364473 4
3.068156 -0.45799151 -0.27140298 5
3.0577171 -0.45752445 -0.16203214 6
3.0415113 -0.4561851 -0.053683605 7
3.0249741 -0.45856446 0.053404365 8
3.0211284 -0.45906028 0.16014804 9
2.9801974 -0.45337301 0.2637333 10
2.9848235 -0.45514283 0.37072656 11
3.0985608 -0.47303951 -0.38486344 4
3.0586607 -0.46749449 -0.27070573 5
3.0561013 -0.46819508 -0.16203214 6
3.0438533 -0.46740621 -0.053753413 7
3.0174267 -0.46820092 0.053299651 8
3.0195074 -0.46960324 0.16014804 9
2.9864712 -0.46499914 0.26443052 10
2.9792941 -0.46494687 0.37023908 11
3.1008132 -0.48446551 -0.38535091 4
3.0648839 -0.47939995 -0.27140298 5
3.0426095 -0.47700393 -0.1614041 6
3.0461543 -0.47864917 -0.053823221 7
3.0197239 -0.47935784 0.053369459 8
3.0060985 -0.47773284 0.15952002 9
2.9907324 -0.47636124 0.26495346 10
2.9658914 -0.47346613 0.36877668 11
3.0874279 -0.49286789 -0.38388845 4
3.0631919 -0.4900955 -0.27140298 5
3.0330374 -0.48635685 -0.16098543 6
3.0406013 -0.48811409 -0.053753413 7
3.0240395 -0.49032921 0.053474173 8
3.0044978 -0.48769882 0.15952002 9
3.0009358 -0.48819575 0.26599932 10
2.9682233 -0.48393765 0.36926416 11
3.0779397 -0.50182575 -0.38291353 4
3.0694151 -0.50153583 -0.27210024 5
3.0392921 -0.49770316 -0.1614041 6
3.0310724 -0.49690035 -0.053613789 7
3.0283153 -0.50133437 0.053578887 8
2.9988365 -0.49752972 0.15931067 9
2.9835765 -0.49553302 0.26460484 10
2.9705186 -0.4944298 0.36975163 11
3.0840015 -0.51387179 -0.38388845 4
3.0597849 -0.51093447 -0.27140298 5
3.041476 -0.50896847 -0.16161345 6
3.0253749 -0.50681698 -0.053543981 7
3.008713 -0.50942582 0.053264745 8
3.0088074 -0.51052231 0.15993871 9
2.9778116 -0.50579774 0.26425621 10
3.0860112 -0.52583867 -0.38437593 4
3.0539637 -0.52147502 -0.27105436 5
3.0474646 -0.52146012 -0.16203214 6
3.0274391 -0.51857734 -0.053613789 7
3.0028846 -0.51976776 0.053194933 8
3.0070074 -0.5210219 0.15993871 9
2.9798641 -0.51739025 0.26460484 10
3.0841568 -0.53660762 -0.38437593 4
3.052125 -0.53213215 -0.27105436 5
3.0298862 -0.52934474 -0.16119476 6
3.0334899 -0.53051996 -0.053753413 7
3.0050833 -0.53041804 0.053264745 8
2.9973955 -0.52960056 0.15952002 9
2.9800935 -0.52761638 0.26477915 10
3.0745423 -0.54544508 -0.38340098 4
3.0542667 -0.54294789 -0.27140298 5
3.0281143 -0.53938925 -0.16119476 6
3.031714 -0.54057646 -0.053753413 7
3.0111799 -0.54179674 0.053404365 8
2.9915977 -0.53935146 0.15931067 9
2.9842098 -0.53855729 0.26530206 10
3.0882463 -0.55900258 -0.38535091 4
3.0562735 -0.55431706 -0.27175158 5
3.030143 -0.55067033 -0.1614041 6
3.0298085 -0.55115581 -0.053753413 7
3.0131075 -0.55355233 0.053474173 8
2.9935291 -0.5510357 0.15952002 9
2.9743783 -0.5480473 0.26460484 10
3.046385 -0.56406415 -0.27105436 5
3.0359595 -0.56322992 -0.1618228 6
3.0199037 -0.56079638 -0.053613789 7
3.0071275 -0.56385511 0.053404365 8
2.9954152 -0.5627414 0.15972935 9
2.9645174 -0.55747241 0.26390758 10
3.0442972 -0.57522595 -0.27105436 5
3.0338748 -0.57435346 -0.1618228 6
3.017828 -0.57186115 -0.053613789 7
2.9971845 -0.5733701 0.053264745 8
2.9933326 -0.57371634 0.15972935 9
2.9702811 -0.56983572 0.26460484 10
3.0421684 -0.58637995 -0.27105436 5
3.0160611 -0.58243972 -0.16098543 6
3.0235653 -0.58443624 -0.053753413 7
2.9952667 -0.58330595 0.053264745 8
2.9874928 -0.5828746 0.15952002 9
2.974241 -0.58082801 0.26512775 10
3.0442216 -0.59670079 -0.27140298 5
3.0142164 -0.59191203 -0.16098543 6
3.0255346 -0.59523159 -0.053823221 7
2.9990966 -0.59492511 0.053369459 8
2.9854403 -0.59329933 0.15952002 9
2.9761038 -0.59198391 0.26547641 10
3.0499356 -0.60888374 -0.27210024 5
3.0238824 -0.6047802 -0.16161345 6
3.0116739 -0.60343188 -0.053613789 7
2.9970019 -0.60539031 0.053369459 8
2.9873717 -0.60398769 0.15972935 9
2.9662085 -0.60078675 0.26477915 10
3.036077 -0.617145 -0.27105436 5
3.0256672 -0.61612892 -0.1618228 6
3.0057375 -0.6126169 -0.053543981 7
2.9891014 -0.6141181 0.053264745 8
2.9814396 -0.61308628 0.15952002 9
3.0262094 -0.62559623 -0.2703571 5
3.0275192 -0.62696904 -0.16203214 6
3.0115221 -0.6242044 -0.053683605 7
2.9870486 -0.62402695 0.053264745 8
2.9910109 -0.62594444 0.16014804 9
3.0279064 -0.63697618 -0.27070573 5
3.013586 -0.63506216 -0.1614041 6
3.0210648 -0.63718885 -0.05389303 7
2.9886532 -0.63580298 0.053334557 8
2.9769762 -0.63440514 0.15952002 9
3.0372405 -0.65057349 -0.27175158 5
3.0112381 -0.64610326 -0.1614041 6
3.0147986 -0.6474176 -0.053823221 7
2.9902112 -0.64759916 0.053404365 8
2.9668236 -0.64361835 0.15910132 9
3.042738 -0.6628679 -0.27244884 5
3.0128672 -0.65746206 -0.16161345 6
3.000684 -0.65590096 -0.053613789 7
2.99965 -0.6606136 0.053613789 8
2.9801619 -0.65741253 0.15993871 9
3.0267892 -0.67046875 -0.27122867 5
3.0144536 -0.66884023 -0.1618228 6
2.9944718 -0.66550362 -0.053543981 7
2.9797633 -0.66714817 0.053299651 8
2.9740674 -0.66641802 0.15972935 9
3.0198936 -0.68111628 -0.16224147 6
3.0000513 -0.6771912 -0.053683605 7
2.9755847 -0.6765824 0.053264745 8
2.9756181 -0.67768246 0.15993871 9
2.9981499 -0.68666798 -0.16119476 6
2.9976692 -0.68765926 -0.053683605 7
2.9829466 -0.68921584 0.053439267 8
2.9694624 -0.68664622 0.15972935 9
2.9918442 -0.69622391 -0.16098543 6
3.0070577 -0.7003175 -0.05389303 7
2.9845388 -0.70001721 0.053509079 8
2.9592702 -0.69518042 0.15931067 9
3.0011816 -0.70889622 -0.16161345 6
2.9968109 -0.7089684 -0.053753413 7
2.9801316 -0.70996743 0.053474173 8
2.9626539 -0.70689666 0.15962468 9
3.0025733 -0.72029984 -0.1618228 6
2.9904292 -0.71849054 -0.053683605 7
2.973748 -0.71942526 0.053404365 8
3.0096152 -0.73366511 -0.16234615 6
2.9917886 -0.72987264 -0.053753413 7
2.9672074 -0.72936517 0.053334557 8
2.9973421 -0.74176711 -0.1618228 6
2.9968569 -0.74275738 -0.05389303 7
2.9685235 -0.74068642 0.053404365 8
2.9869859 -0.75027901 -0.1614041 6
2.9981248 -0.75418955 -0.053962842 7
2.9717357 -0.75251669 0.053509079 8
2.9959612 -0.76366091 -0.16203214 6
2.9878566 -0.76215041 -0.053823221 7
2.9750345 -0.76385897 0.053613789 8
2.9774344 -0.77057129 -0.053683605 7
2.9626744 -0.7717188 0.053439267 8
2.9805288 -0.78248322 -0.053788319 7
2.958029 -0.78154498 0.053404365 8
2.9855087 -0.79494041 -0.053927936 7
2.9667335 -0.79548889 0.053613789 8
2.9827156 -0.80535686 -0.053927936 7
2.9621496 -0.80479825 0.053578887 8
2.9721713 -0.81365162 -0.053788319 7
2.9631779 -0.81619519 0.053648699 8
2.9656029 -0.82243448 -0.053718507 7
2.9704144 -0.83494586 -0.053858127 7
2.9692574 -0.84637552 -0.05389303 7
2.9758906 -0.85950923 -0.054067552 7
2.9728723 -0.86989194 -0.054067552 7
