# .PCD v0.7 - Point Cloud Data file format
VERSION 0.7
FIELDS x y z intensity
SIZE 4 4 4 4
TYPE F F F F
COUNT 1 1 1 1
WIDTH 919
HEIGHT 1
VIEWPOINT 0 0 0 1 0 0 0
POINTS 919
DATA ascii
1.8691123 0.96596086 -0.18407291 5
1.8884318 0.96760708 -0.18564174 5
1.8740342 0.95198613 -0.18389861 5
1.8666687 0.94006222 -0.18285275 5
1.8770695 0.93709987 -0.18355 5
1.8874717 0.93407726 -0.18424724 5
1.8907211 0.92748255 -0.18424724 5
1.886699 0.9246937 -0.11011487 6
1.8831962 0.91564918 -0.18320136 5
1.8881187 0.91722894 -0.11001018 6
1.8792011 0.90561152 -0.18250412 5
1.8931085 0.91149956 -0.11011487 6
1.8857895 0.90109235 -0.18285275 5
1.8871089 0.90091383 -0.10959151 6
1.9032193 0.90208805 -0.25860679 4
1.8961265 0.89791459 -0.18355 5
1.8792545 0.8895244 -0.10896347 6
1.9027632 0.89375055 -0.25811929 4
1.8992491 0.89129084 -0.18355 5
1.8861192 0.88432592 -0.10917282 6
1.9078261 0.88760841 -0.25836304 4
1.898735 0.88297582 -0.18320136 5
1.8964396 0.88110334 -0.10959151 6
1.9000964 0.87595648 -0.25690058 4
1.8909487 0.87134027 -0.1821555 5
1.9031322 0.8761481 -0.10980085 6
1.910365 0.87261814 -0.25787556 4
1.8939788 0.86473382 -0.1821555 5
1.8952761 0.86452675 -0.10917282 6
1.9060144 0.86300355 -0.25690058 4
1.9078776 0.86304367 -0.18320136 5
1.8944925 0.85659164 -0.10896347 6
1.9017708 0.85309464 -0.25592566 4
1.9107293 0.85671163 -0.18320136 5
1.8938258 0.84833992 -0.10875413 6
1.9047368 0.8464514 -0.25592566 4
1.9027828 0.84518546 -0.1821555 5
1.9040781 0.84496409 -0.10917282 6
1.9140083 0.84857124 -0.03654534 7
1.923359 0.84750068 -0.33289257 3
1.9113138 0.84139657 -0.25641313 4
1.9057217 0.83853781 -0.1821555 5
1.9143293 0.84152788 -0.10959151 6
1.9151273 0.84108222 -0.036510434 7
1.9281157 0.84157234 -0.33320546 3
1.9142394 0.83471924 -0.25641313 4
1.9159425 0.83506507 -0.18285275 5
1.9099307 0.83165056 -0.10917282 6
1.916218 0.83359385 -0.036475532 7
1.9237894 0.83170086 -0.331954 3
1.9098514 0.82488513 -0.25543818 4
1.9151876 0.8267923 -0.18250412 5
1.9054859 0.82181507 -0.10875413 6
1.9191164 0.82689941 -0.036475532 7
1.9139696 0.81953716 -0.32976389 3
1.9054188 0.81508994 -0.2544632 4
1.921726 0.82166797 -0.18285275 5
1.9083428 0.81515902 -0.10875413 6
1.9109555 0.81548655 -0.0362661 7
1.9240928 0.81593633 -0.33101538 3
1.9192194 0.81308049 -0.25592566 4
1.9190784 0.81262469 -0.1823298 5
1.9148556 0.81004852 -0.10896347 6
1.9137908 0.80881059 -0.0362661 7
1.9160014 0.80462629 -0.32913816 3
1.925707 0.80791163 -0.25641313 4
1.9145535 0.80283934 -0.18163256 5
1.9139872 0.80181646 -0.10875413 6
1.9147576 0.80135369 -0.036231197 7
1.9150118 0.79675007 -0.32851243 3
1.9357079 0.80456835 -0.25738806 4
1.9208852 0.79801422 -0.18198119 5
1.9166358 0.79546452 -0.10875413 6
1.9229457 0.79729766 -0.036335908 7
1.9250869 0.79307067 -0.32976389 3
1.9238189 0.79176307 -0.25543818 4
1.923659 0.79130465 -0.18198119 5
1.9083164 0.78421474 -0.10812609 6
1.9368166 0.79513663 -0.03654534 7
1.9315017 0.78783762 -0.33038962 3
1.922894 0.78354496 -0.25495067 4
1.9337907 0.78759068 -0.18267845 5
1.9184421 0.78056002 -0.10854478 6
1.9284654 0.78385264 -0.036335908 7
1.9334019 0.78232294 0.036405724 8
1.9342394 0.78109199 -0.33038962 3
1.9329814 0.77979827 -0.25592566 4
1.9254404 0.77636647 -0.18163256 5
1.9248605 0.77535057 -0.10875413 6
1.9311897 0.77711672 -0.036335908 7
1.9268392 0.77185166 0.036231197 8
1.9357358 0.77463049 -0.40527833 2
1.9351202 0.77360171 -0.33007675 3
1.9320046 0.77157408 -0.25543818 4
1.928139 0.76964021 -0.18163256 5
1.934976 0.77158636 -0.10917282 6
1.9338907 0.77037036 -0.036335908 7
1.9090741 0.75701231 0.035847243 8
1.9311265 0.76497793 -0.40375188 2
1.9304618 0.76393414 -0.32882527 3
1.9383783 0.76628453 -0.25592566 4
1.930814 0.76290458 -0.18163256 5
1.9190799 0.75749379 -0.10812609 6
1.9309869 0.7614159 -0.036231197 7
1.9321811 0.75838006 0.036231197 8
1.9410963 0.76109856 -0.40527833 2
1.9386345 0.75935274 -0.32976389 3
1.9335145 0.75695807 -0.25495067 4
1.9371761 0.75761181 -0.18198119 5
1.9254333 0.75224352 -0.10833544 6
1.9390893 0.75718981 -0.036335908 7
1.9514594 0.75848979 0.03654534 8
1.9344591 0.75110394 -0.40337023 2
1.9448251 0.75434887 -0.33038962 3
1.9360143 0.75054163 -0.25495067 4
1.9396776 0.75118417 -0.18198119 5
1.927917 0.74585485 -0.10833544 6
1.9415895 0.75075579 -0.036335908 7
1.9502313 0.75057828 0.036475532 8
1.9334037 0.74293888 -0.40260699 2
1.9473162 0.74789488 -0.33038962 3
1.9478892 0.7473349 -0.25616938 4
1.942288 0.74440831 -0.18198119 5
1.9416999 0.7434057 -0.10896347 6
1.9329929 0.7396853 -0.036126483 7
1.9417566 0.73915541 0.0362661 8
1.9397843 0.73724204 -0.40337023 2
1.9389645 0.73654425 -0.32851243 3
1.9450476 0.73807722 -0.25543818 4
1.9375513 0.73446012 -0.18128395 5
1.9369402 0.73345536 -0.10854478 6
1.9469121 0.73684287 -0.036335908 7
1.9407096 0.73062479 0.036196291 8
1.9460208 0.7318489 -0.40413347 2
1.9416512 0.72943217 -0.32851243 3
1.9550455 0.73407471 -0.25641313 4
1.9401035 0.72769183 -0.18128395 5
1.9320076 0.72388607 -0.10812609 6
1.9494724 0.73004186 -0.036335908 7
1.9356263 0.7213921 0.036056671 8
1.948437 0.7253921 -0.40413347 2
1.9477624 0.72436595 -0.32913816 3
1.9463044 0.72343814 -0.25495067 4
1.9462416 0.72264063 -0.18163256 5
1.9231619 0.71330845 -0.10749806 6
1.9518828 0.72357261 -0.036335908 7
1.9436365 0.71704531 0.036161385 8
1.9360946 0.71349525 -0.40108052 2
1.9557146 0.71995151 -0.33007675 3
1.9413657 0.7138989 -0.25397575 4
1.9599736 0.71996504 -0.18267845 5
1.9442657 0.71380997 -0.10854478 6
1.9506419 0.71537828 -0.0362661 7
1.9573987 0.71437025 0.036370814 8
1.9497498 0.71119326 -0.47914574 1
1.9460753 0.70908332 -0.40260699 2
1.9601966 0.71345371 -0.33038962 3
1.9513077 0.70983279 -0.25495067 4
1.9437491 0.70631397 -0.18093532 5
1.9468689 0.70667946 -0.10854478 6
1.941848 0.70447254 -0.036056671 7
1.9505988 0.70379728 0.036196291 8
1.9523432 0.70404267 -0.47914574 1
1.9522326 0.70361674 -0.40337023 2
1.9515235 0.70259267 -0.32851243 3
1.9612453 0.70570499 -0.25592566 4
1.949952 0.70087385 -0.18128395 5
1.9530834 0.70122862 -0.10875413 6
1.9555882 0.70174372 -0.0362661 7
1.9416223 0.69329071 0.035986863 8
1.9491613 0.69559908 -0.47779605 1
1.9732367 0.70419085 0.10980085 9
1.9582533 0.69845849 -0.40413347 2
1.9501213 0.69479084 -0.3278867 3
1.9673146 0.70052958 -0.25641313 4
1.9522656 0.69440317 -0.18128395 5
1.9478704 0.69207293 -0.10833544 6
1.9692111 0.69926935 -0.036475532 7
1.9514526 0.68951344 0.036126483 8
1.9459444 0.68718529 -0.47644633 1
1.9643826 0.6933099 0.10917282 9
1.9605589 0.69196033 -0.40413347 2
1.9561404 0.6896342 -0.32851243 3
1.9585137 0.68970132 -0.25495067 4
1.9583161 0.68924874 -0.18163256 5
1.9426175 0.68296039 -0.10791675 6
1.9640932 0.6897403 -0.036335908 7
1.9651741 0.68665451 0.036335908 8
1.9520112 0.68167299 -0.47734615 1
1.9554759 0.68250114 0.10854478 9
1.9555476 0.68252611 -0.40260699 2
1.9622664 0.68410176 -0.32913816 3
1.9571599 0.68155539 -0.2544632 4
1.968237 0.68502784 -0.1823298 5
1.9449894 0.67617565 -0.10791675 6
1.955155 0.67894387 -0.036126483 7
1.9751196 0.68240219 0.036475532 8
1.9580626 0.67612755 -0.47824594 1
1.9597349 0.67632216 0.10864946 9
1.9467831 0.67185235 -0.40031728 2
1.9758474 0.68111104 -0.33101538 3
1.9632809 0.67601156 -0.25495067 4
1.9630804 0.6755603 -0.18163256 5
1.9511157 0.67068028 -0.10812609 6
1.9575126 0.67211628 -0.036126483 7
1.9623504 0.67033356 0.036196291 8
1.9640995 0.67054725 -0.47914574 1
1.963974 0.67012167 0.10875413 9
1.9639814 0.67012423 -0.40337023 2
1.9669945 0.6703859 -0.32913816 3
1.9731451 0.67171466 -0.25592566 4
1.957882 0.66613626 -0.18093532 5
1.9647908 0.66772276 -0.10875413 6
1.959847 0.66527861 -0.036126483 7
1.9552058 0.66028011 0.036021769 8
1.9590428 0.66119397 -0.47734615 1
1.9719785 0.66517758 0.10906815 9
1.9663084 0.66326499 -0.40337023 2
1.965579 0.66225386 -0.32851243 3
1.9754781 0.6648224 -0.25592566 4
1.9601955 0.65929741 -0.18093532 5
1.9519635 0.65577137 -0.10791675 6
1.9640528 0.65907001 -0.036161385 7
1.9631889 0.65535116 0.036126483 8
1.957641 0.65311944 -0.47644633 1
1.964815 0.65513068 0.10854478 9
1.9723365 0.65763861 -0.40413347 2
1.9641298 0.6541416 -0.3278867 3
1.9702523 0.65541571 -0.25495067 4
1.9700472 0.6549657 -0.18163256 5
1.9542409 0.64895326 -0.10791675 6
1.9777298 0.65598691 -0.036370814 7
1.9635656 0.64786714 0.036091577 8
1.9710134 0.64994317 -0.47914574 1
1.9670897 0.64826864 0.10854478 9
1.9634324 0.64706337 -0.40184379 2
1.9814119 0.65222204 -0.33038962 3
1.9687564 0.6472947 -0.2544632 4
1.9761068 0.64932925 -0.18198119 5
1.9526989 0.64088249 -0.10770741 6
1.9762073 0.64783299 -0.036301006 7
1.9834948 0.64715743 -0.55904913 0
1.9715188 0.6428684 0.036196291 8
1.9695644 0.64185184 -0.47824594 1
1.9617444 0.63892365 0.10812609 9
1.9656794 0.64020526 -0.40184379 2
1.9874334 0.64652425 -0.33101538 3
1.9710041 0.64041793 -0.2544632 4
1.9669917 0.63873577 -0.18093532 5
1.9625235 0.63652664 -0.10812609 6
1.9708471 0.63846612 -0.036161385 7
1.9728713 0.63607973 -0.5554257 0
1.9604274 0.63168997 0.035951961 8
1.9773579 0.63676441 -0.47959566 1
1.9714568 0.63486409 0.10854478 9
1.9679019 0.6333403 -0.40184379 2
1.9746337 0.63474619 -0.32851243 3
1.9770076 0.63474804 -0.25495067 4
1.9692093 0.63186526 -0.18093532 5
1.9780474 0.63393962 -0.1088588 6
1.9767622 0.63314736 -0.036231197 7
1.9787608 0.63036239 -0.55646098 0
1.9625114 0.62518591 0.035951961 8
1.9701743 0.62724727 -0.47734615 1
1.9774674 0.62918913 0.10875413 9
1.9775845 0.62884736 -0.40337023 2
1.9804928 0.6293906 -0.32913816 3
1.990454 0.63179237 -0.25641313 4
1.979 0.62739545 -0.18163256 5
1.9839464 0.62858361 -0.10906815 6
1.9827733 0.62744945 -0.036301006 7
1.9845258 0.62495714 -0.55749625 0
1.9684968 0.61953175 0.036021769 8
1.9704924 0.61978287 -0.47689623 1
1.9719218 0.62023246 0.10833544 9
1.9815319 0.62287414 -0.40375188 2
1.9711317 0.61922693 0.18076101 10
1.9826777 0.62247396 -0.32913816 3
1.9773858 0.62043345 -0.2544632 4
1.9772671 0.61963814 -0.18128395 5
1.9785045 0.61926764 -0.10864946 6
1.98866 0.62206525 -0.036370814 7
1.9884319 0.61894739 -0.55801392 0
1.976269 0.61478204 0.036126483 8
1.9762586 0.61440158 -0.47779605 1
1.9663389 0.61131763 0.10791675 9
1.9742122 0.61338753 -0.40184379 2
1.97698 0.61386812 0.18110962 10
1.9885043 0.6170671 -0.32976389 3
1.9756403 0.61269718 -0.25397575 4
1.988827 0.61602587 -0.1821555 5
1.9767311 0.61152208 -0.10844011 6
1.9792492 0.61192268 -0.036161385 7
1.9886271 0.61178142 -0.55749625 0
1.980208 0.60881311 0.036161385 8
1.9857365 0.6101346 -0.47959566 1
1.9799167 0.60796726 0.10854478 9
1.9687283 0.60453171 -0.40031728 2
1.9713858 0.60497123 0.1804124 10
1.9943163 0.61162829 -0.33038962 3
1.9834615 0.60754085 -0.25470695 4
1.9737124 0.60417897 -0.1805867 5
1.9902079 0.60846776 -0.10906815 6
1.9813731 0.60501051 -0.036161385 7
1.9852053 0.60315078 -0.55594331 0
1.9708403 0.59841174 0.035951961 8
1.9878542 0.60319883 -0.47959566 1
1.9820269 0.60105181 0.10854478 9
1.9745842 0.59879476 -0.40108052 2
1.9658582 0.59577501 0.17971513 10
1.9888772 0.60237223 -0.32913816 3
1.98557 0.60061401 -0.25470695 4
1.9758095 0.59728521 -0.1805867 5
1.9961437 0.60267186 -0.10927749 6
1.9873023 0.59924465 -0.036231197 7
1.9928493 0.5978843 -0.55749625 0
1.9767483 0.59267664 0.036021769 8
1.9862142 0.595137 -0.47869584 1
1.9936793 0.59699559 0.10906815 9
1.9879466 0.59527904 -0.40337023 2
1.9755614 0.59119362 0.1804124 10
1.9871829 0.59429359 -0.32851243 3
1.9933606 0.59538317 -0.25543818 4
1.98361 0.59209377 -0.18110962 5
1.9829232 0.59113508 -0.10844011 6
2.0008807 0.59572905 -0.036440626 7
2.0023336 0.59311849 -0.5595668 0
1.9864744 0.5880447 0.036161385 8
1.9789361 0.58543652 -0.47644633 1
1.9823439 0.58606845 0.10833544 9
1.9975435 0.59056211 -0.40489674 2
1.9795232 0.58485985 0.1805867 10
1.9968231 0.58959132 -0.32976389 3
1.9878107 0.58617496 -0.2544632 4
1.9894867 0.58629292 -0.18145825 5
1.9811428 0.58308148 -0.10823077 6
2.0048666 0.58930451 -0.036475532 7
2.0025373 0.58558357 -0.55904913 0
1.9904345 0.58166736 0.036196291 8
1.9884502 0.58070982 -0.47824594 1
1.9785253 0.57781136 0.10802142 9
1.9882847 0.58028603 -0.40260699 2
1.9853783 0.57906175 0.18093532 10
1.9988692 0.58261698 -0.32976389 3
1.9860324 0.5781244 -0.25397575 4
1.999174 0.58157039 -0.1821555 5
1.9908376 0.57839268 -0.10864946 6
1.9914469 0.57819182 -0.036196291 7
1.9990011 0.57698214 -0.55749625 0
1.9981164 0.57672673 0.036301006 8
1.9922371 0.57465315 -0.47869584 1
1.9843682 0.57200831 0.10823077 9
1.9865253 0.5722546 -0.40184379 2
1.9873877 0.57212746 0.18093532 10
2.0045865 0.57707864 -0.33038962 3
1.9955698 0.57372874 -0.25495067 4
1.9858714 0.57019007 -0.18076101 5
1.9965843 0.57288879 -0.1088588 6
1.9896083 0.57013553 -0.036126483 7
1.9990457 0.56982094 -0.55697864 0
1.9981943 0.56920016 0.0362661 8
1.9979794 0.56876302 -0.47959566 1
1.9921157 0.56671798 0.10854478 9
1.988412 0.56566435 -0.40184379 2
1.9796917 0.56280911 0.18006375 10
1.9989879 0.56791884 -0.32913816 3
2.0051997 0.56892622 -0.25592566 4
1.9915849 0.56468886 -0.18110962 5
2.0024154 0.56700367 -0.10906815 6
1.9992831 0.56536406 -0.0362661 7
2.0066013 0.56440908 -0.55853152 0
1.982843 0.55735207 0.035951961 8
1.9962003 0.5607307 -0.47869584 1
2.0056195 0.56299889 0.10917282 9
1.9979353 0.56084186 -0.40337023 2
1.9854809 0.55697203 0.1804124 10
1.9933503 0.55880427 -0.3278867 3
2.0148194 0.56406438 -0.25690058 4
1.993544 0.557733 -0.18110962 5
1.9928406 0.55678624 -0.10844011 6
2.0050967 0.55945605 -0.036335908 7
2.010421 0.55791736 -0.55904913 0
1.9982651 0.5541684 0.036196291 8
1.9887557 0.55115741 -0.47644633 1
1.9940025 0.55261147 0.10844011 9
2.0112329 0.5570088 -0.40565994 2
1.9854927 0.54950696 0.18023807 10
2.006712 0.55500257 -0.32976389 3
1.9975452 0.55209208 0.2544632 11
1.9995551 0.55227196 -0.25470695 4
2.0031612 0.55289066 -0.18180689 5
1.9909211 0.54876554 -0.10823077 6
2.0107973 0.55386543 -0.036405724 7
2.0179465 0.55242604 -0.56060207 0
2.0020208 0.54806632 0.036231197 8
1.9980911 0.54661679 -0.47824594 1
1.9997727 0.54670066 0.10864946 9
2.001802 0.54688001 -0.40337023 2
1.9989308 0.54572177 0.18128395 10
2.0085413 0.54834545 -0.32976389 3
1.9974504 0.54494196 0.25421947 11
1.9956299 0.5440712 -0.25397575 4
2.0050788 0.54589534 -0.18180689 5
2.0004392 0.54425722 -0.10864946 6
2.0011394 0.5436976 -0.036196291 7
2.0085771 0.54270822 -0.55749625 0
2.0000606 0.54003251 0.036161385 8
2.0056314 0.54116118 -0.47959566 1
2.0055256 0.54075718 0.1088588 9
1.9960222 0.53819478 -0.40184379 2
1.9911109 0.53649771 0.1804124 10
2.0123506 0.54184401 -0.33007675 3
2.0050907 0.53951395 0.25495067 11
2.007102 0.53967953 -0.25519443 4
2.0030296 0.53820968 -0.18145825 5
2.0100427 0.53934187 -0.10906815 6
2.0030253 0.53670853 -0.036196291 7
2.017926 0.53768367 -0.5595668 0
2.003866 0.53356171 0.036196291 8
2.0093915 0.53465748 -0.48004553 1
2.0151212 0.53580654 0.10927749 9
2.0092723 0.53425133 -0.40413347 2
1.9910461 0.52903199 0.18023807 10
2.0085022 0.53329498 -0.32913816 3
2.0069616 0.53251201 0.25495067 11
2.0051363 0.53165209 -0.25470695 4
1.9971926 0.52917284 -0.18076101 5
2.0157747 0.53334343 -0.10927749 6
2.0203531 0.53380126 -0.036475532 7
2.0037816 0.52605724 0.036161385 8
2.0074756 0.52665156 -0.47914574 1
2.0208435 0.52978158 0.10948683 9
2.0168223 0.52872747 -0.40527833 2
1.9986625 0.5235939 0.18076101 10
2.0103514 0.52628112 -0.32913816 3
2.0068882 0.52500027 0.25470695 11
2.0204237 0.52816343 -0.25641313 4
2.0067382 0.52421278 -0.18145825 5
2.0098941 0.52428675 -0.1088588 6
2.0222042 0.52674514 -0.036475532 7
2.0094776 0.52006108 0.036231197 8
2.0017552 0.51768875 -0.47734615 1
2.0110781 0.5197264 0.1088588 9
2.0091517 0.51922852 -0.40337023 2
1.9966197 0.51561815 0.1804124 10
2.0083511 0.51827282 -0.32851243 3
2.004864 0.51700079 0.25421947 11
2.0145655 0.51912761 -0.25543818 4
2.016274 0.51919162 -0.1821555 5
2.0117116 0.51726913 -0.1088588 6
2.0240307 0.51968259 -0.036475532 7
2.011281 0.51304299 0.036231197 8
2.0111032 0.51262486 -0.47914574 1
2.0166612 0.51404154 0.10906815 9
2.0147569 0.51318073 -0.40413347 2
2.0119233 0.51208502 0.18163256 10
2.0178053 0.51320827 -0.32976389 3
2.0085802 0.51048774 0.2544632 11
2.0125172 0.51111448 -0.25495067 4
2.0180736 0.51215172 -0.1821555 5
2.0173771 0.51122445 -0.10906815 6
2.0179884 0.51100564 -0.036335908 7
2.0187891 0.50783342 0.036335908 8
2.0146823 0.50642753 -0.47959566 1
2.016506 0.50651181 0.10896347 9
2.0051112 0.50327665 -0.40184379 2
2.0059683 0.50312066 0.18093532 10
2.0271602 0.50843579 -0.33101538 3
2.0179644 0.50575507 0.25543818 11
2.0199783 0.50588417 -0.2556819 4
2.0121174 0.50317019 -0.18145825 5
2.0306876 0.50743645 -0.10969618 6
2.0236406 0.5049262 -0.036405724 7
2.0147264 0.4993417 0.036231197 8
2.0183294 0.49985978 -0.48004553 1
2.0279558 0.50186831 0.10948683 9
2.0182033 0.4994548 -0.40413347 2
2.0056913 0.49598795 0.18076101 10
2.0212519 0.49946058 -0.32976389 3
2.0274262 0.50061089 0.25641313 11
2.0294409 0.50073361 -0.25665686 4
2.0137751 0.49649444 -0.18145825 5
2.0324461 0.5003463 -0.10969618 6
2.0253911 0.49785873 -0.036405724 7
2.0067437 0.48993394 0.036056671 8
2.0162754 0.49188817 -0.47914574 1
2.0335763 0.49573287 0.10969618 9
2.0237494 0.49333733 -0.40489674 2
2.0093465 0.48945478 0.18093532 10
2.0191445 0.49146718 -0.32913816 3
2.0137303 0.4897781 0.2544632 11
2.0311766 0.49364591 -0.25665686 4
2.015496 0.48946148 -0.18145825 5
2.0264163 0.49136552 -0.10927749 6
2.0387776 0.49360946 -0.036615148 7
2.0181634 0.48526409 0.036231197 8
2.0160851 0.4843922 -0.47869584 1
2.0236418 0.48583329 0.10906815 9
2.0292773 0.48718619 -0.40565994 2
2.0149174 0.48336786 0.18128395 10
2.0246894 0.48533839 -0.32976389 3
2.0115669 0.48182055 0.25397575 11
2.0232344 0.48424286 -0.25543818 4
2.0288186 0.48520508 -0.18250412 5
2.0106354 0.48011357 -0.10833544 6
2.0365977 0.4855617 -0.03654534 7
2.0217907 0.47867659 0.0362661 8
2.023453 0.47869718 -0.48004553 1
2.0175507 0.47692907 0.10864946 9
2.0156808 0.47648698 -0.40260699 2
2.0185316 0.47678894 0.18145825 10
2.0302165 0.47917488 -0.33038962 3
2.0171006 0.47570765 0.2544632 11
2.0229802 0.47672164 -0.25519443 4
2.0150847 0.47448987 0.3278867 12
2.0305002 0.4781197 -0.18250412 5
2.0161874 0.47400683 -0.10854478 6
2.0343869 0.4775362 -0.036475532 7
2.0292921 0.47297749 0.036370814 8
2.0232136 0.47118953 -0.47959566 1
2.0307922 0.47295451 0.10927749 9
2.0211558 0.47033843 -0.40337023 2
2.0163023 0.46883708 0.18110962 10
2.0395732 0.47387388 -0.33164111 3
2.0264838 0.47045892 0.25543818 11
2.0303509 0.47135672 -0.25592566 4
2.0108743 0.46646529 0.32694808 12
2.0243928 0.46922988 -0.18180689 5
2.0217214 0.46786618 -0.10875413 6
2.0184245 0.4667331 -0.036161385 7
2.0211043 0.46400866 0.036196291 8
2.0342622 0.46665579 -0.48184517 1
2.0440297 0.46889642 0.10990552 9
2.030359 0.4653874 -0.40489674 2
2.0178461 0.46214861 0.18110962 10
2.0334308 0.46534455 -0.33038962 3
2.0299678 0.46417919 0.2556819 11
2.0435135 0.46727663 -0.25738806 4
2.0181875 0.46111482 0.3278867 12
2.022053 0.46162668 -0.18145825 5
2.0310512 0.46293518 -0.10917282 6
2.0316598 0.46270093 -0.036370814 7
2.0226316 0.45730427 0.036196291 8
2.0376992 0.46033713 -0.48229504 1
2.0456541 0.46175802 0.10990552 9
2.0318913 0.45865139 -0.40489674 2
2.0193675 0.45545503 0.18110962 10
2.0311089 0.45773077 -0.32976389 3
2.0295594 0.45700839 0.25543818 11
2.0412591 0.45926857 -0.25690058 4
2.0236392 0.45493421 0.32851243 12
2.0274603 0.45579323 -0.18180689 5
2.0286775 0.45532206 -0.10896347 6
2.0430191 0.45779192 -0.03654534 7
2.0281198 0.45110902 0.0362661 8
2.039454 0.45288405 0.10948683 9
2.0392292 0.45283413 -0.40604156 2
2.0287254 0.45012909 0.18180689 10
2.0326943 0.45063755 -0.32976389 3
2.0272655 0.44906384 0.25495067 11
2.0350969 0.45042497 -0.25592566 4
2.0329301 0.44957322 0.32976389 12
2.0407114 0.45129403 -0.18285275 5
2.0224533 0.44651598 -0.10854478 6
2.0563219 0.45324069 -0.036754768 7
2.0355427 0.44530833 0.036370814 8
2.0351689 0.44448328 0.10917282 9
2.0331254 0.44403696 -0.40451509 2
2.0341778 0.44389385 0.1821555 10
2.0477653 0.44648552 -0.331954 3
2.0327001 0.44282922 0.25543818 11
2.0385966 0.4437401 -0.25616938 4
2.0325568 0.44205487 0.32945102 12
2.0501397 0.44550422 -0.18355 5
2.0318069 0.4411481 -0.10896347 6
2.0500739 0.44436604 -0.036615148 7
2.0449042 0.4398838 0.036510434 8
2.0445189 0.4390533 0.10959151 9
2.0309 0.43575892 -0.40375188 2
2.0279982 0.43476504 0.18145825 10
2.0513194 0.43939024 -0.33226684 3
2.0381157 0.43656206 0.25592566 11
2.0459564 0.43786904 -0.25690058 4
2.0302238 0.43413049 0.32882527 12
2.0399919 0.43584695 -0.18250412 5
2.0334098 0.43369865 -0.10896347 6
2.0359662 0.43387237 -0.036335908 7
2.0328076 0.42949083 0.0362661 8
2.0479934 0.43232694 0.10969618 9
2.0400927 0.43028721 -0.40527833 2
2.0314531 0.42809367 0.18163256 10
2.0470417 0.43100661 -0.33132821 3
2.0474725 0.43072414 0.25690058 11
2.0533755 0.43159074 -0.25763181 4
2.0297942 0.42663425 0.32851243 12
2.0337012 0.42708591 -0.18180689 5
2.0427308 0.42823672 -0.10938216 6
2.0452974 0.42840317 -0.036475532 7
2.0322626 0.42234194 0.036231197 8
2.0612237 0.42760909 0.1103242 9
2.0492718 0.42475763 -0.40680483 2
2.0348859 0.4214054 0.18180689 10
2.0407221 0.42261407 -0.33007675 3
2.037226 0.42151827 0.25543818 11
2.0528514 0.42437768 -0.25738806 4
2.0390086 0.42114604 0.32976389 12
2.0410335 0.42119181 -0.1823298 5
2.0402274 0.42065427 -0.10917282 6
2.0506976 0.42206681 -0.03654534 7
2.0415616 0.41684508 0.036370814 8
2.0490043 0.41762078 0.10959151 9
2.0545166 0.41874424 -0.40756804 2
2.0401769 0.41544977 0.1821555 10
2.0518637 0.41745666 -0.33164111 3
2.0309036 0.41282314 0.2544632 11
2.0484843 0.41602454 -0.25665686 4
2.0443382 0.41481102 0.33038962 12
2.0482767 0.41561019 -0.18285275 5
2.0338531 0.41194445 -0.10875413 6
2.0599985 0.41649053 -0.036684956 7
2.0469255 0.41050199 0.036440626 8
2.0465329 0.40968123 0.10938216 9
2.0482655 0.41002807 -0.40604156 2
2.0494294 0.40988806 0.18285275 10
2.0610566 0.41184047 -0.33289257 3
2.0381722 0.40689784 0.25519443 11
2.0421369 0.40731773 -0.2556819 4
2.036087 0.40574256 0.32882527 12
2.0633926 0.41118386 -0.18407291 5
2.0470321 0.4071798 -0.10938216 6
2.0516326 0.40735149 -0.036510434 7
2.0503082 0.40374118 0.036475532 8
2.0517995 0.40366295 0.10959151 9
2.0419788 0.40136069 -0.40451509 2
2.0391173 0.40042862 0.18180689 10
2.0624819 0.404643 -0.33289257 3
2.0493205 0.40168941 0.25641313 11
2.0552347 0.40247622 -0.25714433 4
2.031606 0.39784902 0.3278867 12
2.0530837 0.40168294 -0.18302706 5
2.0562816 0.40156347 -0.10980085 6
2.0549347 0.40092814 -0.03654534 7
2.0477092 0.39618066 0.036405724 8
2.0610404 0.39801258 0.11001018 9
2.0568612 0.39683422 -0.40718642 2
2.0385463 0.39293167 0.18163256 10
2.0599329 0.39705396 -0.33226684 3
2.0584383 0.39639232 0.25738806 11
2.0624063 0.39678413 -0.25787556 4
2.0407417 0.39224681 0.32913816 12
2.0486035 0.39338619 -0.18250412 5
2.0576019 0.39474282 -0.10980085 6
2.0563219 0.39375213 -0.03654534 7
2.0431857 0.38791081 0.036301006 8
2.0663419 0.39155996 0.11021954 9
2.0640211 0.39074704 -0.40833127 2
2.035923 0.38542771 0.18128395 10
2.0535424 0.3883931 -0.33101538 3
2.048106 0.38699368 0.25592566 11
2.0696306 0.39068672 -0.25860679 4
2.0479221 0.38621864 0.33007675 12
2.0558381 0.38733992 -0.18302706 5
2.0551093 0.38645995 -0.10959151 6
2.06358 0.38767993 -0.036650054 7
2.0504918 0.38151744 0.036405724 8
2.0599082 0.38252562 0.10980085 9
2.0750906 0.3849704 -0.41023937 2
2.0569115 0.38159779 0.18302706 10
2.0627213 0.38230324 -0.33226684 3
2.0417027 0.37803915 0.25495067 11
2.0612886 0.38129357 -0.25738806 4
2.0493238 0.37871048 0.33007675 12
2.0631216 0.38088793 -0.18355 5
2.0525837 0.3782016 -0.10938216 6
2.0708871 0.38119945 -0.036754768 7
2.0636797 0.37615135 0.036615148 8
2.0612311 0.37533233 0.10980085 9
2.0680976 0.37583795 0.18389861 10
2.0718832 0.37615138 -0.33351833 3
2.0508878 0.37196994 0.25592566 11
2.0547943 0.37267843 -0.25641313 4
2.0486896 0.37120295 0.32976389 12
2.0703199 0.37474799 -0.18407291 5
2.0656838 0.37316522 -0.11001018 6
2.0643332 0.37254822 -0.036615148 7
2.0649159 0.36930531 0.036615148 8
2.0663965 0.36919793 0.11001018 9
2.0497184 0.36547986 0.1821555 10
2.0692296 0.36858627 -0.33289257 3
2.0657904 0.36760175 0.25763181 11
2.0657904 0.36760175 -0.25763181 4
2.0637045 0.36648744 -0.18337567 5
2.0669098 0.3663125 -0.11001018 6
2.0557117 0.36395788 -0.036440626 7
2.0602202 0.36141959 0.036510434 8
2.0755422 0.36335978 0.11042888 9
2.0469935 0.35799468 0.18180689 10
2.0704408 0.36172187 -0.33289257 3
2.0669982 0.36074874 0.25763181 11
2.0690169 0.36072996 -0.25787556 4
2.0610456 0.35859796 -0.18302706 5
2.0720489 0.36014086 -0.11021954 6
2.0747025 0.35985509 -0.036754768 7
2.0516152 0.35253206 0.036335908 8
2.088609 0.35813829 0.11105692 9
2.0581112 0.35217032 0.18267845 10
2.0717525 0.35413137 -0.33289257 3
2.0584614 0.35185948 0.25641313 11
2.0820041 0.35550973 -0.25933796 4
2.074069 0.3534098 -0.18407291 5
2.069417 0.35187286 -0.11001018 6
2.0779173 0.3529461 -0.036789671 7
2.070642 0.34799346 0.036650054 8
2.0701494 0.34753817 0.11001018 9
2.067188 0.34630015 0.18337567 10
2.0768726 0.34754896 -0.33351833 3
2.0597372 0.34431294 0.25641313 11
2.0754611 0.34656909 -0.25836304 4
2.0752902 0.34616724 -0.18407291 5
2.0666924 0.34399268 -0.10980085 6
2.0909724 0.34765798 -0.036999103 7
2.0698113 0.34079957 0.036615148 8
2.0733206 0.34063512 0.11011487 9
2.0742826 0.34004864 0.18389861 10
2.074115 0.34002113 -0.33289257 3
2.0706625 0.3390851 0.25763181 11
2.0707216 0.33872274 -0.25763181 4
2.0843513 0.3402063 -0.18477017 5
2.0678217 0.33713681 -0.10980085 6
2.0823042 0.33875299 -0.03682458 7
2.0788858 0.33484393 0.036754768 8
2.0804129 0.33434603 0.11042888 9
2.0616288 0.33095706 0.18267845 10
2.086992 0.33465609 -0.33476979 3
2.0816343 0.33342436 0.25885051 11
2.0816925 0.33306006 -0.25885051 4
2.077656 0.33167154 -0.18407291 5
2.0808201 0.33180323 -0.11042888 6
2.0755744 0.33022493 -0.036684956 7
2.0760906 0.32696441 0.036684956 8
2.0815675 0.32708141 0.11042888 9
2.0608594 0.32309046 0.18250412 10
2.0803983 0.32578167 -0.33351833 3
2.0808244 0.32584837 0.25860679 11
2.0828424 0.32579297 -0.25885051 4
2.0748644 0.3238022 -0.1837243 5
2.0820222 0.32417485 -0.11042888 6
2.0865943 0.32451379 -0.036859483 7
2.0654166 0.31752935 0.036475532 8
2.0945973 0.32126713 0.11105692 9
2.0718217 0.31740373 0.18337567 10
2.0776174 0.31792054 -0.33289257 3
2.0741553 0.31702033 0.25763181 11
2.0899096 0.31905401 -0.25958171 4
2.0839159 0.31739575 -0.18442155 5
2.0870903 0.31750548 -0.11063822 6
2.0838158 0.31626421 -0.036789671 7
2.0783772 0.31209987 0.036684956 8
2.087805 0.31277049 0.11063822 9
2.0788827 0.31069097 0.18389861 10
2.0865836 0.31147063 -0.33414406 3
2.0693591 0.30889946 0.25690058 11
2.0792301 0.31000096 -0.25811929 4
2.0889525 0.31070623 -0.18477017 5
2.0803375 0.30868167 -0.11021954 6
2.0987539 0.31104001 -0.037034009 7
2.0873148 0.30636704 0.03682458 8
2.0848784 0.30526608 0.11042888 9
2.0798483 0.30415884 0.18389861 10
2.0782297 0.30318123 0.25787556 11
2.082211 0.30339095 -0.25836304 4
2.0939147 0.30434987 -0.18511879 5
2.0892029 0.30329272 -0.11063822 6
2.0918574 0.30293256 -0.036894388 7
2.0883718 0.29907855 0.03682458 8
2.0938401 0.29911587 0.11084756 9
2.0789766 0.29625314 0.1837243 10
2.0989802 0.29835516 -0.26031294 4
2.0870738 0.2959196 -0.18442155 5
2.0942554 0.29619321 -0.11084756 6
2.0889421 0.29506886 -0.03682458 7
2.0795512 0.2900416 0.036650054 8
2.100857 0.29226565 0.11116158 9
2.0859187 0.28981638 0.18424724 10
2.098093 0.29038829 -0.26006919 4
2.0841465 0.28808731 -0.18407291 5
2.1031911 0.28997171 -0.11126626 6
2.0979335 0.28850067 -0.036964197 7
2.0765879 0.28224263 0.036580246 8
2.1038437 0.28519824 0.11126626 9
2.0849428 0.2822665 0.18407291 10
2.104996 0.28385815 -0.26080042 4
2.096987 0.28240648 -0.18511879 5
2.0923135 0.28103259 -0.11063822 6
2.1088378 0.28250277 -0.037138719 7
2.0835075 0.27577889 0.036684956 8
2.0968575 0.27717355 0.11084756 9
2.0918417 0.27576768 0.18459585 10
2.1020377 0.27599221 -0.26031294 4
2.09796 0.27508435 -0.18511879 5
2.0893209 0.27320987 -0.11042888 6
2.1097631 0.27550846 -0.037138719 7
2.1002767 0.27091521 0.036964197 8
2.0938504 0.26934329 0.11063822 9
2.1006963 0.26947755 0.18529311 10
2.0950651 0.26801291 -0.25933796 4
2.106813 0.26876843 -0.18581605 5
2.094178 0.26678512 -0.11063822 6
2.1087282 0.26789078 -0.037103817 7
2.103194 0.26383057 0.036999103 8
2.1026592 0.26339176 0.11105692 9
2.085762 0.2605347 0.18389861 10
2.1097772 0.2624127 -0.26104417 4
2.0997837 0.2607986 -0.18511879 5
2.1109533 0.26143673 -0.1114756 6
2.1056359 0.26040608 -0.037034009 7
2.102072 0.25661376 0.036964197 8
2.1134791 0.25725663 0.11158027 9
2.0906146 0.25373301 0.18424724 10
2.1204894 0.25660682 -0.26226285 4
2.1006813 0.25346684 -0.18511879 5
2.1157746 0.25491235 -0.11168494 6
2.1105027 0.25353089 -0.037103817 7
2.0890546 0.24762635 0.036719862 8
2.1143641 0.24987806 0.11158027 9
2.0914445 0.24679931 0.18424724 10
2.1213722 0.24920481 -0.26226285 4
2.1134267 0.24752256 -0.18616466 5
2.104749 0.24613494 -0.11105692 6
2.1232922 0.24755116 -0.037313245 7
2.1077859 0.24238823 0.037034009 8
2.1092706 0.241813 0.11126626 9
2.104212 0.24048899 0.18529311 10
2.1103952 0.24044944 -0.26080042 4
2.1142776 0.24014428 -0.18616466 5
2.1096063 0.23886786 -0.11126626 6
2.1241434 0.24013843 -0.037313245 7
2.1146224 0.23532513 0.037138719 8
2.112087 0.23466881 0.11137092 9
2.1230247 0.23363382 -0.1868619 5
2.1143978 0.2319385 -0.1114756 6
2.1170175 0.23185097 -0.037173625 7
2.1134028 0.22809634 0.037103817 8
2.122822 0.22836336 0.11189428 9
2.1099591 0.22474489 -0.18564174 5
2.1230993 0.22576983 -0.11189428 6
2.113837 0.22403874 -0.037103817 7
2.1082196 0.22009534 0.036999103 8
2.1216199 0.22074573 0.11178961 9
2.1127126 0.21758296 -0.18581605 5
2.1278484 0.21876542 -0.11210363 6
2.1225631 0.2174744 -0.037243433 7
2.1169333 0.21353713 0.037138719 8
2.1323135 0.21433777 0.11231297 9
2.1213899 0.21099509 -0.18651329 5
2.1167107 0.20978358 -0.1114756 6
2.1312695 0.21085088 -0.037383057 7
2.1157115 0.20558381 0.037103817 8
2.1290731 0.20650709 0.11210363 9
2.1260798 0.20396975 -0.1868619 5
2.11743 0.20239407 -0.1114756 6
2.1359735 0.20379038 -0.037452865 7
2.1243453 0.19931436 0.037243433 8
2.1277924 0.19888754 0.11199896 9
2.1347148 0.19727995 -0.18755916 5
2.1260448 0.19610551 -0.11189428 6
2.1326895 0.19596669 -0.037383057 7
2.1349862 0.19279647 0.037417959 8
2.1364305 0.19217512 0.11241764 9
2.1274192 0.18949223 -0.1868619 5
2.1306953 0.18903549 -0.11210363 6
2.1293764 0.18816939 -0.037313245 7
2.1296694 0.18482456 0.037313245 8
2.1311188 0.18419987 0.11210363 9
2.1240973 0.18172678 -0.18651329 5
2.1432824 0.18261358 -0.11273166 6
2.1300204 0.18073475 -0.037313245 7
2.128309 0.177223 0.037278343 8
2.12869 0.17463644 -0.1868619 5
2.1359444 0.17448103 -0.11231297 6
2.1465831 0.17459485 -0.037592482 7
2.1309078 0.16995113 0.037313245 8
2.1412041 0.16814116 -0.18790779 5
2.1325581 0.16671225 -0.11210363 6
2.1511669 0.16741259 -0.03766229 7
2.1414576 0.16327342 0.037487768 8
2.1477387 0.16111247 -0.18843071 5
2.1371102 0.1595661 -0.11231297 6
2.1437616 0.15930925 -0.037522674 7
2.1420145 0.15579678 0.037487768 8
2.1456232 0.15267166 -0.11273166 6
2.1403151 0.15154314 -0.037452865 7
2.1405504 0.14818117 0.037452865 8
2.1501284 0.14545015 -0.112941 6
2.1488116 0.14460762 -0.037592482 7
2.1350684 0.14031437 0.037348151 8
2.1426504 0.13743299 -0.11252232 6
2.1572862 0.13761465 -0.037732106 7
2.1475203 0.13360517 0.03755758 8
2.1471043 0.13019411 -0.11273166 6
2.1657147 0.13094427 -0.037871722 7
2.1559365 0.12695363 0.0376972 8
2.1515121 0.12330231 -0.112941 6
2.1581728 0.12292827 -0.037732106 7
2.1663496 0.1199806 0.037871722 8
2.1599071 0.1162211 -0.1133597 6
2.1585889 0.11539353 -0.037732106 7
2.1682973 0.10870332 -0.11377838 6
2.1669672 0.10825749 -0.037871722 7
2.1606834 0.10076219 -0.1133597 6
2.1713269 0.10087773 -0.03794153 7
2.1610057 0.093595944 -0.1133597 6
2.1756616 0.093470939 -0.038011342 7
2.1653104 0.086210392 -0.11356904 6
2.171978 0.085717596 -0.03794153 7
2.1682675 0.077991113 -0.037871722 7
2.1765211 0.070682064 -0.038011342 7
2.1887476 0.063431129 -0.038220771 7
2.1969519 0.055994857 -0.038360391 7
