# .PCD v0.7 - Point Cloud Data file format
VERSION 0.7
FIELDS x y z intensity
SIZE 4 4 4 4
TYPE F F F F
COUNT 1 1 1 1
WIDTH 1353
HEIGHT 1
VIEWPOINT 0 0 0 1 0 0 0
POINTS 1353
DATA ascii
1.6267478 0.61567116 -0.15217392 5
1.6365438 0.61872554 -0.091692604 6
1.6667072 0.62979704 -0.031100187 7
1.6227092 0.60832089 -0.21278389 4
1.6307529 0.61068726 -0.15234824 5
1.6385866 0.61329472 -0.091692604 6
1.6595303 0.62047333 -0.030925665 7
1.6136553 0.59851128 -0.21132146 4
1.6291381 0.60360706 -0.15199961 5
1.6370775 0.60589796 -0.091483258 6
1.6579349 0.61328948 -0.030855855 7
1.6232933 0.59532648 -0.21229641 4
1.621882 0.59448779 -0.15112805 5
1.6466843 0.60292697 -0.091901943 6
1.6601717 0.60720831 -0.030855855 7
1.6178972 0.58694816 -0.21132146 4
1.6183282 0.58678484 -0.15060511 5
1.6525348 0.59853518 -0.092111297 6
1.662281 0.60140991 -0.030855855 7
1.6274096 0.58398002 -0.21229641 4
1.6278681 0.58382303 -0.15130237 5
1.6395717 0.58737546 -0.091273919 6
1.6642665 0.5958938 -0.030855855 7
1.6162426 0.57392979 -0.21059024 4
1.6336519 0.57946885 -0.151651 5
1.6302159 0.57793069 -0.090645887 6
1.6663365 0.59008032 -0.030855855 7
1.6107446 0.56565315 -0.20961528 4
1.6318043 0.57272893 -0.15130237 5
1.643532 0.57620084 -0.091273919 6
1.6532873 0.57897389 -0.030576617 7
1.6158165 0.56173867 -0.27094454 3
1.6145848 0.56067801 -0.20985903 4
1.6262646 0.56441671 -0.15060511 5
1.6455336 0.5704599 -0.091273919 6
1.6515191 0.57189018 -0.030506806 7
1.6158997 0.55545247 -0.27063167 3
1.622164 0.55697358 -0.21059024 4
1.6150333 0.55420929 -0.14938495 5
1.651293 0.56600881 -0.091483258 6
1.661073 0.56871235 -0.030646425 7
1.6543926 0.56352353 0.030506806 8
1.599125 0.5434534 -0.26750296 3
1.6240985 0.55130732 -0.21059024 4
1.6207315 0.54984897 -0.14973356 5
1.6381261 0.55511278 -0.090645887 6
1.6668363 0.56419325 -0.030716237 7
1.6639301 0.56029814 0.030646425 8
1.5991399 0.5372386 -0.2671901 3
1.6166031 0.54247755 -0.20937155 4
1.6339748 0.54798967 -0.15077944 5
1.6362661 0.54812282 -0.090436541 6
1.6686978 0.55866307 -0.030716237 7
1.6714705 0.55667317 0.030751141 8
1.6084113 0.53442377 -0.26844159 3
1.6108571 0.53461218 -0.20839658 4
1.6320952 0.54102838 -0.15043081 5
1.6418667 0.54394954 -0.090645887 6
1.6554503 0.54780859 -0.030436996 7
1.6734036 0.55083483 0.030751141 8
1.6065136 0.52757305 -0.26781586 3
1.6108271 0.52836764 -0.20815286 4
1.6263076 0.53313017 -0.14973356 5
1.6475515 0.53945839 -0.090855226 6
1.6572579 0.54231542 -0.030436996 7
1.6657138 0.54218745 0.030576617 8
1.596981 0.51858324 -0.26593861 3
1.6163472 0.52424753 -0.20864034 4
1.6205769 0.52499425 -0.14903632 5
1.6493316 0.53399146 -0.090855226 6
1.6591408 0.53652757 -0.030436996 7
1.6617917 0.53482324 0.0304719 8
1.5924413 0.51189041 -0.32513854 2
1.5968113 0.51268035 -0.26562575 3
1.6256377 0.52130961 -0.20961528 4
1.6222181 0.5199008 -0.14903632 5
1.6434844 0.52608389 -0.090436541 6
1.6647201 0.53224099 -0.030506806 7
1.6693655 0.53083754 0.030576617 8
1.5848628 0.50335687 -0.32323048 2
1.5948255 0.50590831 -0.26500002 3
1.6085236 0.50963652 -0.20717789 4
1.6373193 0.51844478 -0.1502565 5
1.6338849 0.51673073 -0.089808509 6
1.666568 0.52642632 -0.030506806 7
1.6712084 0.52500665 0.030576617 8
1.577244 0.49488321 -0.32132238 2
1.6041216 0.5027014 -0.26625147 3
1.606504 0.50283229 -0.20669043 4
1.6411099 0.513035 -0.15043081 5
1.6394916 0.51221496 -0.090017848 6
1.653124 0.51584083 -0.030227568 7
1.6749406 0.51976287 0.030611521 8
1.5734211 0.48735666 -0.32017753 2
1.6078405 0.49740201 -0.26656437 3
1.6120425 0.49839371 -0.20717789 4
1.623854 0.50142455 -0.14868769 5
1.645175 0.50738013 -0.090227202 6
1.6549146 0.51006675 -0.030227568 7
1.6634505 0.50952041 0.030367188 8
1.5788676 0.48300967 -0.32094073 2
1.5963424 0.48774716 -0.26437429 3
1.6176556 0.49364108 -0.20766538 4
1.6141597 0.49226722 -0.14764182 5
1.6469362 0.50163382 -0.090227202 6
1.656773 0.50399816 -0.030227568 7
1.6594766 0.50197417 0.030262474 8
1.5843029 0.47863057 -0.321704 2
1.5961443 0.48160091 -0.26406142 3
1.6231701 0.48913729 -0.20815286 4
1.6196837 0.48777834 -0.14799045 5
1.6410266 0.49358121 -0.089808509 6
1.6623526 0.49936199 -0.030297378 7
1.6631348 0.4967503 0.030297378 8
1.6803333 0.50156778 0.091901943 9
1.5897262 0.4742209 -0.32246721 2
1.5997089 0.47658998 -0.26437429 3
1.6133678 0.48035356 -0.20669043 4
1.6271061 0.48382482 -0.14851339 5
1.6350812 0.48557514 -0.089389823 6
1.6678333 0.49498492 -0.030367188 7
1.6705267 0.49293062 0.030402092 8
1.678156 0.49486256 0.091692604 9
1.5799911 0.46561635 -0.32017753 2
1.6069657 0.47295529 -0.26531288 3
1.611143 0.47388002 -0.20620294 4
1.6382596 0.48123366 -0.14938495 5
1.6405153 0.48127517 -0.08959917 6
1.6541144 0.48495033 -0.03008795 7
1.6683127 0.48626858 0.030332282 8
1.5660125 0.45615512 -0.37656805 1
1.6856259 0.49067754 0.092006624 9
1.5777563 0.45927724 -0.31941426 2
1.6028345 0.46597052 -0.26437429 3
1.6166004 0.46935979 -0.20669043 4
1.6264521 0.47191235 -0.14816476 5
1.6421024 0.4758319 -0.08959917 6
1.6481133 0.47695103 -0.02994833 7
1.6680781 0.4798896 0.030297378 8
1.588197 0.45660853 -0.38151699 1
1.6873286 0.48479015 0.092006624 9
1.5831238 0.45485088 -0.32017753 2
1.6025525 0.45982751 -0.26406142 3
1.6182287 0.46371424 -0.20669043 4
1.6242586 0.46513543 -0.14781614 5
1.6475937 0.4711957 -0.089808509 6
1.6574595 0.47339141 -0.03008795 7
1.6658956 0.47297207 0.030227568 8
1.5579107 0.44201896 -0.37386864 1
1.6966964 0.48107696 0.092425302 9
1.5884795 0.45039341 -0.32094073 2
1.5946447 0.45153937 -0.26249707 3
1.6274782 0.46022379 -0.20766538 4
1.6258724 0.45946243 -0.14781614 5
1.6376953 0.46218714 -0.089180477 6
1.6591017 0.46760324 -0.03008795 7
1.6675365 0.46715367 0.030227568 8
1.5613205 0.43710384 -0.37431854 1
1.686825 0.47192237 0.091797277 9
1.5862608 0.44378752 -0.32017753 2
1.600016 0.4470337 -0.2631228 3
1.6176025 0.45133856 -0.20620294 4
1.6293854 0.45431975 -0.14799045 5
1.6316026 0.45432428 -0.088761792 6
1.664577 0.46288005 -0.030157758 7
1.6710844 0.4618631 0.030262474 8
1.5703504 0.43372673 -0.37611815 1
1.6806798 0.46419942 0.091378585 9
1.5764455 0.43511325 -0.31788781 2
1.6015667 0.44144621 -0.2631228 3
1.6114353 0.44386292 -0.205228 4
1.6309614 0.4486289 -0.14799045 5
1.6408821 0.4507426 -0.089180477 6
1.6545329 0.45418105 -0.02994833 7
1.6783946 0.45789754 0.030367188 8
1.5717802 0.42851648 -0.37611815 1
1.6879909 0.46019915 0.091692604 9
1.5740908 0.42885208 -0.31712458 2
1.6049281 0.43665099 -0.26343569 3
1.6167291 0.43955949 -0.20571546 4
1.6247489 0.44113013 -0.1472932 5
1.6385126 0.44425303 -0.088971131 6
1.6560298 0.44869229 -0.02994833 7
1.6683179 0.44921008 0.030157758 8
1.5807197 0.42532757 -0.37791777 1
1.6876582 0.45378587 0.091587931 9
1.583088 0.42566854 -0.31865105 2
1.5968282 0.42876464 -0.26187131 3
1.6220883 0.43494108 -0.20620294 4
1.618505 0.43367672 -0.14659595 5
1.6438355 0.43984994 -0.089180477 6
1.6575859 0.44290924 -0.02994833 7
1.6640779 0.44184384 0.030053046 8
1.5708933 0.41680896 -0.37521836 1
1.6930931 0.44891536 0.091797277 9
1.5807692 0.41913322 -0.31788781 2
1.6928952 0.44854674 0.1532198 10
1.5925863 0.42167237 -0.26093271 3
1.6274352 0.43029073 -0.20669043 4
1.6238613 0.42904344 -0.14694458 5
1.6376363 0.43207067 -0.088761792 6
1.6629894 0.43813899 -0.030018138 7
1.6675445 0.43653923 0.03008795 8
1.5685682 0.41033614 -0.37431854 1
1.683056 0.43997139 0.091169246 9
1.5860214 0.41460535 -0.31865105 2
1.7002336 0.44414568 0.15374273 10
1.5997825 0.41760698 -0.26187131 3
1.6174018 0.42160338 -0.205228 4
1.6292052 0.42437649 -0.1472932 5
1.6275368 0.42333534 -0.08813376 6
1.6645087 0.43233094 -0.030018138 7
1.5824313 0.40865582 -0.43792182 0
1.6729307 0.43171462 0.030157758 8
1.5681038 0.40437204 -0.37386864 1
1.6865152 0.43459329 0.091273919 9
1.5798541 0.40710807 -0.31712458 2
1.6882676 0.43472978 0.15252255 10
1.6069697 0.41349655 -0.26280993 3
1.6188637 0.41595459 -0.205228 4
1.6268171 0.41769552 -0.14694458 5
1.6367434 0.41963524 -0.088552445 6
1.654384 0.42354351 -0.029808709 7
1.5613824 0.39741108 -0.43171018 0
1.6744272 0.42587355 0.030157758 8
1.5751721 0.40033555 -0.37521836 1
1.6879473 0.42899776 0.091273919 9
1.5774601 0.40062395 -0.31636134 2
1.6839809 0.42736486 0.15199961 10
1.6026589 0.40642822 -0.26187131 3
1.612537 0.40863377 -0.20425305 4
1.6244022 0.41103718 -0.14659595 5
1.6381983 0.41391894 -0.088552445 6
1.651902 0.41707554 -0.029738901 7
1.5533231 0.38987926 -0.429122 0
1.6680719 0.41837221 0.030018138 8
1.5821617 0.39653143 -0.37656805 1
1.6893605 0.42339832 0.091273919 9
1.5825888 0.39634416 -0.31712458 2
1.6815234 0.42081037 0.151651 10
1.5944159 0.39871559 -0.26030698 3
1.6158091 0.40376493 -0.20449677 4
1.6180236 0.40371916 -0.1458987 5
1.6453757 0.40993387 -0.088866465 6
1.6532758 0.41159567 -0.029738901 7
1.5658591 0.38751093 -0.43222782 0
1.6636263 0.41139859 0.029913425 8
1.5740088 0.38894475 -0.37431854 1
1.6966454 0.41893464 0.091587931 9
1.5838944 0.39109424 -0.31712458 2
1.684844 0.41570956 0.15182531 10
1.584222 0.39058849 -0.25842977 3
1.6249187 0.40002146 -0.20547174 4
1.6232232 0.39930281 -0.14624733 5
1.6292696 0.40018716 -0.087924413 6
1.6547025 0.40582174 -0.029738901 7
1.5709559 0.38295805 -0.43326309 0
1.6689382 0.40653503 0.029983234 8
1.5658897 0.3811433 -0.37206903 1
1.688394 0.41065001 0.091064572 9
1.5871575 0.38602734 -0.31750616 2
1.6920929 0.41123691 0.15234824 10
1.599013 0.38831893 -0.26061985 3
1.6166593 0.39200762 -0.20425305 4
1.6323526 0.39551049 -0.14694458 5
1.6306565 0.39449784 -0.087924413 6
1.6677717 0.40286082 -0.02994833 7
1.5760401 0.37837362 -0.43429837 0
1.6664579 0.39977428 0.029913425 8
1.5710006 0.37658459 -0.37296885 1
1.682048 0.40289253 0.090645887 9
1.5808585 0.37865514 -0.31597972 2
1.6973934 0.40625578 0.15269686 10
1.6042007 0.38365498 -0.26124558 3
1.6141561 0.38543949 -0.20376556 4
1.6337233 0.38981047 -0.14694458 5
1.6359097 0.3897287 -0.08813376 6
1.6613863 0.39518532 -0.029808709 7
1.564191 0.36975929 -0.43067491 0
1.6756279 0.39579314 0.030053046 8
1.5760988 0.37199336 -0.37386864 1
1.6873317 0.39793587 0.090855226 9
1.576438 0.37178296 -0.31483486 2
1.6813478 0.3962149 0.15112805 10
1.5997618 0.37669423 -0.26030698 3
1.6193566 0.38071167 -0.20425305 4
1.6253759 0.38182747 -0.14607303 5
1.6411489 0.38492841 -0.088343106 6
1.6510736 0.38664743 -0.029599281 7
1.5560641 0.36210802 -0.4280867 0
1.6692084 0.38812968 0.029913425 8
1.581184 0.36737189 -0.37476847 1
1.6905874 0.39279065 0.090959899 9
1.5853758 0.36805338 -0.31636134 2
1.6846615 0.39079323 0.15130237 10
1.6010669 0.37110806 -0.26030698 3
1.6226097 0.37550384 -0.20449677 4
1.6228163 0.37525412 -0.1457244 5
1.6385906 0.3782984 -0.08813376 6
1.6601405 0.38296926 -0.029738901 7
1.5610851 0.35753635 -0.429122 0
1.6587909 0.37991399 0.029703995 8
1.5709958 0.35951766 -0.37206903 1
1.6919483 0.38688654 0.090959899 9
1.5866508 0.36251748 -0.31636134 2
1.6821306 0.38402379 0.15095374 10
1.5926598 0.36359793 -0.25874263 3
1.6219105 0.3696802 -0.20425305 4
1.6221738 0.36914465 -0.14555009 5
1.6320459 0.37109157 -0.087715074 6
1.6653675 0.37805688 -0.029808709 7
1.5622621 0.35235792 -0.429122 0
1.6601069 0.37412176 0.029703995 8
1.5684391 0.35317507 -0.37116924 1
1.687443 0.37966251 0.090645887 9
1.5935904 0.35854635 -0.31750616 2
1.6911702 0.38019186 0.151651 10
1.5939193 0.35803589 -0.25874263 3
1.609632 0.36097604 -0.20254686 4
1.6233891 0.36376283 -0.14555009 5
1.6294329 0.36452064 -0.087505728 6
1.666677 0.3722409 -0.029808709 7
1.5672544 0.34773895 -0.43015727 0
1.6672597 0.36962262 0.029808709 8
1.5791752 0.3498064 -0.37341875 1
1.6848577 0.37290704 0.090436541 9
1.5871648 0.35128483 -0.31597972 2
1.6944325 0.37471604 0.15182531 10
1.6028746 0.35417581 -0.25999412 3
1.6128207 0.35578236 -0.2027906 4
1.6324317 0.3598097 -0.14624733 5
1.6306955 0.35883024 -0.087505728 6
1.6601536 0.36470494 -0.029669091 7
1.5609092 0.34061819 -0.4280867 0
1.6802624 0.36635685 0.030018138 8
1.5841948 0.34512112 -0.37431854 1
1.6861492 0.36702308 0.090436541 9
1.5768714 0.34323665 -0.31369001 2
1.6859957 0.36668235 0.15095374 10
1.607962 0.34941709 -0.26061985 3
1.720686 0.3735972 0.21619622 11
1.6140528 0.35015073 -0.2027906 4
1.6219946 0.35157725 -0.14520147 5
1.6397463 0.35482582 -0.087924413 6
1.6535983 0.35721827 -0.029529471 7
1.5545329 0.33354747 -0.42601615 0
1.665889 0.35713559 0.029738901 8
1.58539 0.3395887 -0.37431854 1
1.695232 0.36280817 0.090855226 9
1.5818993 0.33855304 -0.31445324 2
1.6755754 0.35829467 0.14990787 10
1.5956495 0.34091261 -0.25842977 3
1.7122726 0.36551771 0.21497753 11
1.6172068 0.34492818 -0.20303436 4
1.6154175 0.34425178 -0.14450422 5
1.6370679 0.3482683 -0.087715074 6
1.6587471 0.35227597 -0.029599281 7
1.5632489 0.32971343 -0.4280867 0
1.6671256 0.35131794 0.029738901 8
1.5751241 0.33164391 -0.37161914 1
1.6964883 0.35688806 0.090855226 9
1.588835 0.33424118 -0.3155981 2
1.6807156 0.35326284 0.1502565 10
1.5871636 0.33331111 -0.25686541 3
1.7018815 0.35709223 0.2135151 11
1.6203439 0.33968782 -0.20327808 4
1.6283096 0.34106192 -0.14555009 5
1.6304538 0.34091619 -0.087296382 6
1.6599667 0.34648326 -0.029599281 7
1.5530403 0.32190248 -0.42498088 0
1.6663833 0.34509206 0.029703995 8
1.5686389 0.32456386 -0.36981952 1
1.6899 0.34934622 0.090436541 9
1.5919148 0.32909012 -0.31597972 2
1.6916941 0.34941012 0.15112805 10
1.5921867 0.32856685 -0.25749114 3
1.6992292 0.35034722 0.21302763 11
1.6156867 0.33282927 -0.20254686 4
1.6275389 0.3349739 -0.14537577 5
1.6316338 0.33522391 -0.087296382 6
1.6768376 0.34390038 -0.029878521 7
1.5655125 0.31879187 -0.4280867 0
1.6695374 0.33967143 0.029738901 8
1.5602138 0.31714571 -0.36757001 1
1.68328 0.34185559 0.090017848 9
1.577662 0.32040572 -0.31292677 2
1.6987615 0.34469101 0.151651 10
1.6049398 0.32536232 -0.25936839 3
1.7023876 0.34480813 0.21327138 11
1.6129475 0.32639956 -0.20205939 4
1.6345569 0.33047473 -0.1458987 5
1.6249629 0.3279455 -0.086877696 6
1.6584245 0.33409622 -0.029529471 7
1.5552499 0.31105164 -0.42498088 0
1.6785567 0.33540928 0.029878521 8
1.5651333 0.31246102 -0.36846983 1
1.6903392 0.33714932 0.090331867 9
1.5845467 0.31604832 -0.31407163 2
1.6862764 0.33603382 0.15043081 10
1.5983163 0.31821552 -0.2581169 3
1.7035809 0.33886313 0.21327138 11
1.6179708 0.32154155 -0.20254686 4
1.6239748 0.32244009 -0.14485285 5
1.6339343 0.32382479 -0.087296382 6
1.6556574 0.32752869 -0.029459663 7
1.5563262 0.30562124 -0.42498088 0
1.6600943 0.32569766 0.029529471 8
1.5700393 0.30774504 -0.36936963 1
1.6914479 0.33154246 0.090331867 9
1.5798603 0.30938375 -0.31292677 2
1.6874392 0.33014512 0.15043081 10
1.59554 0.31187606 -0.25749114 3
1.7067015 0.33329529 0.2135151 11
1.6229804 0.31665164 -0.20303436 4
1.6172682 0.31524423 -0.14415559 5
1.6448573 0.32002607 -0.087819748 6
1.6567345 0.32203683 -0.029459663 7
1.5611774 0.30091837 -0.42601615 0
1.667056 0.32132658 0.029634187 8
1.5633969 0.30106246 -0.36757001 1
1.7004399 0.32714584 0.09075056 9
1.5809306 0.30386746 -0.31292677 2
1.6885815 0.3242524 0.15043081 10
1.5926857 0.30583787 -0.25686541 3
1.7019485 0.32651213 0.21278389 11
1.6240214 0.31126824 -0.20303436 4
1.6183587 0.30959731 -0.14415559 5
1.6262919 0.31082073 -0.086773023 6
1.6578484 0.31625214 -0.029459663 7
1.5659629 0.29645792 -0.42705145 0
1.6662024 0.31513426 0.029599281 8
1.5529491 0.2934328 -0.36487061 1
1.6858708 0.31824392 0.089913182 9
1.5819296 0.29862282 -0.31292677 2
1.6935632 0.31938991 0.15077944 10
1.5937434 0.30027682 -0.25686541 3
1.7011273 0.32020158 0.21254015 11
1.6172944 0.30412957 -0.20205939 4
1.6272091 0.30569997 -0.14485285 5
1.6391453 0.3073501 -0.087401055 6
1.6668044 0.31193417 -0.029599281 7
1.5669881 0.2909902 -0.42705145 0
1.675157 0.31077477 0.029738901 8
1.557796 0.28872076 -0.3657704 1
1.6712604 0.30944848 0.089075804 9
1.5791016 0.29238445 -0.31216353 2
1.6985859 0.31420147 0.15112805 10
1.5986668 0.29543006 -0.25749114 3
1.7041867 0.31462231 0.21278389 11
1.604681 0.29596227 -0.20035322 4
1.6243474 0.29929638 -0.14450422 5
1.640208 0.30162689 -0.087401055 6
1.6600159 0.30466968 -0.029459663 7
1.5527897 0.28274956 -0.42291033 0
1.6762317 0.30492505 0.029738901 8
1.5626291 0.28397852 -0.36667022 1
1.6801909 0.30503947 0.089494489 9
1.5801125 0.28687018 -0.31216353 2
1.6879101 0.30613658 0.15008219 10
1.6074632 0.29125693 -0.25874263 3
1.7091813 0.30937839 0.21327138 11
1.6135181 0.29177159 -0.20132817 4
1.730082 0.31253886 0.27845338 12
1.6175396 0.29220811 -0.14380698 5
1.6491133 0.2973167 -0.087819748 6
1.6571331 0.29816541 -0.029389855 7
1.5537672 0.27732792 -0.42291033 0
1.6635052 0.29661524 0.029494567 8
1.5636109 0.27852178 -0.36667022 1
1.6812454 0.299173 0.089494489 9
1.5791713 0.2810092 -0.31178191 2
1.6889683 0.30024317 0.15008219 10
1.6006904 0.28426206 -0.25749114 3
1.71416 0.3041034 0.21375884 11
1.6262543 0.28821638 -0.2027906 4
1.7272723 0.3058086 0.27782765 12
1.614626 0.28586492 -0.14345835 5
1.6580082 0.29294878 -0.088238433 6
1.6581639 0.29237866 -0.029389855 7
1.5623375 0.27323413 -0.42498088 0
1.6645306 0.29080626 0.029494567 8
1.5626538 0.2727266 -0.3662203 1
1.6862147 0.29398897 0.089703836 9
1.5782084 0.27515826 -0.31140029 2
1.6900061 0.29434529 0.15008219 10
1.5899962 0.27664083 -0.25561395 3
1.7054319 0.29641953 0.21254015 11
1.6350739 0.28389588 -0.20376556 4
1.7185977 0.29808903 0.2762633 12
1.6175773 0.28056717 -0.14363267 5
1.6550847 0.28647774 -0.088029087 6
1.6670561 0.28795141 -0.029529471 7
1.5632819 0.26777846 -0.42498088 0
1.6694776 0.28566992 0.029564377 8
1.5539919 0.26562887 -0.36397079 1
1.6793556 0.28675604 0.08928515 9
1.590771 0.2716299 -0.31369001 2
1.6890593 0.2881088 0.14990787 10
1.590952 0.27108938 -0.25561395 3
1.7005855 0.28946489 0.21180893 11
1.6145281 0.27452591 -0.20108443 4
1.7196276 0.29208854 0.2762633 12
1.628368 0.27658758 -0.14450422 5
1.6403215 0.2780281 -0.087191716 6
1.6719946 0.28279707 -0.029599281 7
1.5680175 0.2629593 -0.42601615 0
1.6704646 0.27984014 0.029564377 8
1.5625978 0.26148894 -0.3657704 1
1.6764064 0.28023401 0.089075804 9
1.5839638 0.26478097 -0.31216353 2
1.7018456 0.28418124 0.15095374 10
1.5996826 0.26683387 -0.25686541 3
1.7035438 0.28385362 0.21205269 11
1.6154764 0.26888961 -0.20108443 4
1.7108936 0.28446373 0.27469894 12
1.6253927 0.27024782 -0.14415559 5
1.649163 0.27360931 -0.087610394 6
1.6571889 0.27434576 -0.029320043 7
1.5574878 0.25560674 -0.42291033 0
1.6793246 0.27530098 0.029703995 8
1.5635008 0.25603393 -0.3657704 1
1.6852586 0.27566978 0.089494489 9
1.5751909 0.25766522 -0.31025544 2
1.6910294 0.27631071 0.14990787 10
1.6084024 0.26252225 -0.2581169 3
1.7104018 0.27886322 0.21278389 11
1.6203237 0.26388666 -0.20157191 4
1.7099262 0.27817389 0.27438608 12
1.6223929 0.26393381 -0.14380698 5
1.6501081 0.26785055 -0.087610394 6
1.6581364 0.26855975 -0.029320043 7
1.5583706 0.25016811 -0.42291033 0
1.6684285 0.26753807 0.029494567 8
1.5740062 0.25211537 -0.36801991 1
1.6940994 0.27104717 0.089913182 9
1.5780194 0.25247493 -0.31063706 2
1.6821463 0.26883447 0.14903632 10
1.5976049 0.25503743 -0.25623968 3
1.705484 0.2719529 0.21205269 11
1.6231953 0.25854164 -0.20181565 4
1.7108868 0.27220297 0.27438608 12
1.6114986 0.25639021 -0.14276111 5
1.6589231 0.26334181 -0.088029087 6
1.6590638 0.2627697 -0.029320043 7
1.5649598 0.24562658 -0.42446327 0
1.657499 0.25985378 0.029285138 8
1.563325 0.24481016 -0.3653205 1
1.6950352 0.26513317 0.089913182 9
1.5885893 0.24848317 -0.31254515 2
1.6889802 0.26388326 0.14955924 10
1.5906786 0.24824044 -0.25498822 3
1.7024999 0.26538765 0.2115652 11
1.6299722 0.25378981 -0.20254686 4
1.7137787 0.2665323 0.27469894 12
1.6143526 0.25106925 -0.14293543 5
1.6479906 0.25571162 -0.087401055 6
1.6599709 0.25697723 -0.029320043 7
1.5638981 0.23986904 -0.42394564 0
1.6702557 0.25588369 0.029494567 8
1.5564648 0.23817289 -0.36352089 1
1.6801558 0.2568002 0.089075804 9
1.5855656 0.24234277 -0.31178191 2
1.6957998 0.25888765 0.15008219 10
1.5915353 0.24268673 -0.25498822 3
1.6975285 0.25854608 0.21083398 11
1.6190733 0.24630688 -0.20108443 4
1.7244633 0.2620326 0.2762633 12
1.6250678 0.24692944 -0.14380698 5
1.637025 0.24816097 -0.086773023 6
1.6687667 0.25237778 -0.029459663 7
1.5647258 0.23440889 -0.42394564 0
1.6652057 0.24916446 0.029389855 8
1.559214 0.233026 -0.36397079 1
1.6770911 0.25034446 0.088866465 9
1.5825183 0.23622727 -0.31101868 2
1.7006342 0.25355455 0.15043081 10
1.6001881 0.23829316 -0.25623968 3
1.7043111 0.25349551 0.2115652 11
1.612069 0.23948728 -0.20010948 4
1.7175517 0.25485131 0.27501184 12
1.6338034 0.24242468 -0.14450422 5
1.6418326 0.24303041 -0.086982369 6
1.6656811 0.24596645 -0.029389855 7
1.5616716 0.2286586 -0.42291033 0
1.6778946 0.24537678 0.029599281 8
1.5599781 0.22785449 -0.36397079 1
1.6759359 0.24449286 0.088761792 9
1.5794077 0.2304109 -0.31025544 2
1.6896362 0.24619038 0.14938495 10
1.604879 0.23355469 -0.25686541 3
1.7130002 0.24898407 0.21254015 11
1.6167831 0.23471084 -0.20059694 4
1.7144774 0.24858774 0.27438608 12
1.6148804 0.23414685 -0.14276111 5
1.6505363 0.23872851 -0.087401055 6
1.6585706 0.2392996 -0.029250234 7
1.5586355 0.22265914 -0.42187506 0
1.6648835 0.23754074 0.029354947 8
1.5704101 0.22378269 -0.3662203 1
1.682711 0.23948504 0.089075804 9
1.5840898 0.22544916 -0.31101868 2
1.6825951 0.23916899 0.14868769 10
1.5978614 0.22684096 -0.25561395 3
1.7177898 0.24355996 0.21302763 11
1.6234891 0.22990036 -0.20132817 4
1.7192465 0.24315521 0.27501184 12
1.6097696 0.22767176 -0.14223817 5
1.7709448 0.25015089 0.34765401 13
1.6513597 0.23296519 -0.087401055 6
1.6554356 0.2329509 -0.029180422 7
1.5632299 0.2177505 -0.42291033 0
1.6657023 0.23172811 0.029354947 8
1.5634611 0.21722642 -0.36442071 1
1.6914499 0.23470823 0.089494489 9
1.5887562 0.22045831 -0.31178191 2
1.6873667 0.23384151 0.14903632 10
1.5869032 0.21963663 -0.25373673 3
1.7028984 0.23538816 0.21107772 11
1.6262482 0.22450373 -0.20157191 4
1.7239985 0.23769158 0.27563757 12
1.6204232 0.22341141 -0.14310972 5
1.7406888 0.23968311 0.34154812 13
1.6442481 0.2261114 -0.086982369 6
1.6720877 0.22934517 -0.029459663 7
1.5658947 0.21255265 -0.42342797 0
1.6704644 0.2264491 0.029424759 8
1.5642098 0.21176793 -0.36442071 1
1.6843419 0.22773248 0.089075804 9
1.589516 0.21491149 -0.31178191 2
1.6960708 0.22901607 0.14973356 10
1.5915756 0.21462353 -0.25436246 3
1.6978077 0.22864801 0.21034651 11
1.62112 0.21803145 -0.2008407 4
1.7189444 0.2308829 0.27469894 12
1.6192187 0.21748807 -0.14293543 5
1.749298 0.23464996 0.34307459 13
1.637109 0.21930934 -0.086563677 6
1.6728781 0.22350743 -0.029459663 7
1.5685425 0.20733811 -0.42394564 0
1.6712445 0.22061788 0.029424759 8
1.5630075 0.20605141 -0.36397079 1
1.677206 0.22080842 0.088657118 9
1.5785779 0.20782377 -0.3094922 2
1.6929088 0.22257601 0.14938495 10
1.5923151 0.20906691 -0.25436246 3
1.7064685 0.22375201 0.21132146 11
1.6199026 0.21211472 -0.20059694 4
1.7177811 0.22462548 0.27438608 12
1.623919 0.21235161 -0.14328404 5
1.7539998 0.22905026 0.34383783 13
1.6457866 0.21462609 -0.086982369 6
1.6617502 0.21611881 -0.029250234 7
1.55776 0.2003831 -0.42083979 0
1.6720046 0.21478236 0.029424759 8
1.5656502 0.20084178 -0.36442071 1
1.6819286 0.21546043 0.088866465 9
1.5753989 0.20181365 -0.30872896 2
1.6916994 0.21641202 0.14921063 10
1.5969541 0.20400766 -0.25498822 3
1.7052699 0.21754314 0.21107772 11
1.618664 0.20620765 -0.20035322 4
1.7146357 0.2181289 0.27376035 12
1.622674 0.20642991 -0.14310972 5
1.758684 0.22342151 0.34460106 13
1.6465257 0.20888104 -0.086982369 6
1.650591 0.20881139 -0.029040804 7
1.5584501 0.19494386 -0.42083979 0
1.6687754 0.20844848 0.029354947 8
1.5644077 0.19513528 -0.36397079 1
1.6866343 0.21008138 0.089075804 9
1.5838866 0.19728348 -0.31025544 2
1.6884902 0.21001329 0.148862 10
1.5937357 0.19794613 -0.25436246 3
1.7158689 0.2128105 0.21229641 11
1.6252842 0.20128772 -0.20108443 4
1.717347 0.21238601 0.27407321 12
1.6154752 0.19978742 -0.14241248 5
1.7477624 0.21583699 0.34231135 13
1.6551738 0.20410965 -0.087401055 6
1.6632185 0.20451234 -0.029250234 7
1.5591211 0.18950224 -0.42083979 0
1.6694928 0.20262246 0.029354947 8
1.5631449 0.18943842 -0.36352089 1
1.6873574 0.20419221 0.089075804 9
1.5884638 0.19222479 -0.31101868 2
1.6911908 0.20435745 0.14903632 10
1.594417 0.19238131 -0.25436246 3
1.7067472 0.20563197 0.21107772 11
1.6259769 0.19561353 -0.20108443 4
1.7220004 0.2068608 0.27469894 12
1.6201191 0.19462198 -0.14276111 5
1.7446067 0.20926675 0.34154812 13
1.6400115 0.19643095 -0.086563677 6
1.6639222 0.19870494 -0.029250234 7
1.5597731 0.18405983 -0.42083979 0
1.6622461 0.19585715 0.029215328 8
1.5599258 0.18352582 -0.3626211 1
1.6761581 0.196904 0.088447772 9
1.589125 0.18667993 -0.31101868 2
1.6998093 0.19938083 0.14973356 10
1.5950788 0.18681416 -0.25436246 3
1.6975962 0.19852141 0.20985903 11
1.6227064 0.18947573 -0.20059694 4
1.7246742 0.20107694 0.27501184 12
1.6247466 0.18942654 -0.14310972 5
1.7531267 0.20408492 0.34307459 13
1.6406872 0.19070461 -0.086563677 6
1.6646056 0.19289669 -0.029250234 7
1.5680834 0.17949246 -0.42291033 0
1.6668932 0.19050813 0.029285138 8
1.5644293 0.17852101 -0.36352089 1
1.6768352 0.19105147 0.088447772 9
1.5858656 0.18068679 -0.31025544 2
1.6965356 0.19299613 0.14938495 10
1.5996468 0.18169138 -0.25498822 3
1.704196 0.19326507 0.21059024 11
1.6115229 0.18247056 -0.19913453 4
1.717514 0.19416821 0.27376035 12
1.633317 0.18464957 -0.14380698 5
1.7538285 0.19796364 0.34307459 13
1.6532512 0.18631797 -0.087191716 6
1.6612943 0.18663801 -0.029180422 7
1.56102 0.17316607 -0.42083979 0
1.6695356 0.18490891 0.029320043 8
1.5727907 0.17391534 -0.3653205 1
1.6814623 0.18563576 0.088657118 9
1.5786811 0.17428857 -0.30872896 2
1.693238 0.1866367 0.14903632 10
1.6002712 0.17610604 -0.25498822 3
1.7147264 0.18839949 0.21180893 11
1.6220163 0.17792681 -0.20035322 4
1.7122904 0.18752617 0.27282172 12
1.6240489 0.17786217 -0.14293543 5
1.7662185 0.19312117 0.3453643 13
1.6499205 0.18011355 -0.086982369 6
1.6579598 0.1804056 -0.029110614 7
1.561615 0.16771562 -0.42083979 0
1.6661944 0.1786532 0.029250234 8
1.5811388 0.16925423 -0.36712012 1
1.680114 0.17955254 0.088552445 9
1.5831841 0.16919371 -0.3094922 2
1.6819924 0.17945638 0.14799045 10
1.5949833 0.16989161 -0.2540496 3
1.7153736 0.18241237 0.21180893 11
1.6246015 0.17247297 -0.20059694 4
1.7148989 0.18175657 0.27313459 12
1.6147535 0.17114249 -0.14206386 5
1.751263 0.18530163 0.34231135 13
1.658484 0.17519197 -0.087401055 6
1.6625569 0.17503545 -0.029180422 7
1.6608409 0.17221761 0.029145518 8
1.5623362 0.16172777 -0.3626211 1
1.6866602 0.17459738 0.088866465 9
1.585718 0.16386773 -0.30987382 2
1.6944997 0.17481112 0.14903632 10
1.5877067 0.16351393 -0.25279811 3
1.710076 0.17581399 0.21107772 11
1.6251936 0.16680135 -0.20059694 4
1.7213874 0.17667417 0.27407321 12
1.623269 0.16631752 -0.14276111 5
1.740181 0.17798841 0.34002164 13
1.6431899 0.16777904 -0.086563677 6
1.6710858 0.1703319 -0.029320043 7
1.6713512 0.16770691 0.029320043 8
1.5589858 0.15615711 -0.36172128 1
1.67931 0.16791427 0.088447772 9
1.5862803 0.15833186 -0.30987382 2
1.6990649 0.16928978 0.14938495 10
1.5921715 0.15863925 -0.25342387 3
1.7007729 0.1691602 0.20985903 11
1.6198118 0.16082226 -0.19986574 4
1.7259251 0.1710535 0.27469894 12
1.6238397 0.16064981 -0.14276111 5
1.7485764 0.17299028 0.34154812 13
1.6357869 0.1615435 -0.086144991 6
1.7647991 0.17397322 0.40941092 14
1.6716701 0.16449803 -0.029320043 7
1.679888 0.16264296 0.029459663 8
1.5653405 0.15127698 -0.36307099 1
1.6759099 0.16166738 0.088238433 9
1.5867966 0.15307103 -0.30987382 2
1.6956505 0.16327298 0.14903632 10
1.5966482 0.15345888 -0.2540496 3
1.701353 0.16322273 0.20985903 11
1.6144351 0.15459897 -0.19913453 4
1.7166796 0.16408843 0.27313459 12
1.6263468 0.15545399 -0.14293543 5
1.7491696 0.16688593 0.34154812 13
1.6442939 0.15658951 -0.086563677 6
1.7556958 0.16688935 0.40716141 14
1.664271 0.15790662 -0.029180422 7
1.6804456 0.15677842 0.029459663 8
1.5697397 0.14617294 -0.36397079 1
1.6804414 0.15618558 0.088447772 9
1.579502 0.14680396 -0.30834734 2
1.6902585 0.1568013 0.14851339 10
1.6011081 0.14824842 -0.25467533 3
1.7117957 0.15819582 0.21107772 11
1.6189183 0.14932838 -0.19962201 4
1.7172419 0.15809463 0.27313459 12
1.6169596 0.14886233 -0.14206386 5
1.7575616 0.16149727 0.34307459 13
1.6488082 0.15121485 -0.086773023 6
1.7485051 0.16004965 0.4053618 14
1.6608294 0.15173197 -0.029110614 7
1.6630574 0.14930193 0.029145518 8
1.5838273 0.1419096 -0.36712012 1
1.6829394 0.15078996 0.088552445 9
1.5878266 0.14198937 -0.30987382 2
1.6888109 0.15072267 0.14833906 10
1.5937456 0.14195716 -0.25342387 3
1.7202466 0.15292302 0.21205269 11
1.6194297 0.14367595 -0.19962201 4
1.721692 0.15274867 0.27376035 12
1.6095309 0.14251384 -0.14136662 5
1.7581146 0.15536162 0.34307459 13
1.6533052 0.14580899 -0.086982369 6
1.780113 0.15667854 0.41256022 14
1.6613234 0.14622316 -0.029110614 7
1.6655356 0.14395793 0.029180422 8
1.5609907 0.13464804 -0.36172128 1
1.689425 0.14542952 0.088866465 9
1.5922247 0.1367816 -0.31063706 2
1.6952821 0.14533681 0.148862 10
1.5902712 0.1363342 -0.25279811 3
1.708877 0.14620268 0.21059024 11
1.6278089 0.13897996 -0.20059694 4
1.7222147 0.14673746 0.27376035 12
1.6179594 0.13757098 -0.14206386 5
1.7429705 0.14820035 0.34002164 13
1.6497995 0.13998745 -0.086773023 6
1.7806227 0.15077497 0.41256022 14
1.6658088 0.14076106 -0.029180422 7
1.6640351 0.13797916 0.029145518 8
1.5575671 0.12887655 -0.36082149 1
1.687932 0.13936666 0.088761792 9
1.5907358 0.13106275 -0.31025544 2
1.6957548 0.13971539 0.148862 10
1.5966437 0.1312682 -0.25373673 3
1.6994848 0.1394247 0.20937155 11
1.6183916 0.1324883 -0.19937825 4
1.7227165 0.14072528 0.27376035 12
1.6224014 0.13224569 -0.14241248 5
1.7513292 0.1424464 0.34154812 13
1.6343757 0.13264751 -0.085935652 6
1.7733687 0.14392833 0.41076064 14
1.6742628 0.13559067 -0.029320043 7
1.6764903 0.13282563 0.029354947 8
1.5599716 0.12332083 -0.36127138 1
1.6744939 0.13208014 0.088029087 9
1.5833768 0.12461422 -0.30872896 2
1.7022142 0.13396692 0.14938495 10
1.6010525 0.12572496 -0.25436246 3
1.7059214 0.13366039 0.21010277 11
1.6089711 0.12578095 -0.19815956 4
1.7232207 0.13441065 0.27376035 12
1.6248614 0.12645335 -0.14258678 5
1.7557542 0.13633086 0.34231135 13
1.6428161 0.12727378 -0.086354338 6
1.7661127 0.13682593 0.40896103 14
1.662786 0.12852898 -0.029110614 7
1.6729778 0.12637921 0.029285138 8
1.5759588 0.11877365 -0.36487061 1
1.6829112 0.12683421 0.088447772 9
1.5798866 0.11879312 -0.30796573 2
1.6907729 0.12683322 0.14833906 10
1.6054424 0.12015042 -0.25498822 3
1.7103589 0.12770295 0.21059024 11
1.6193193 0.12062059 -0.19937825 4
1.7157997 0.12780726 0.27250886 12
1.6193324 0.12033737 -0.14206386 5
1.7562193 0.13020167 0.34231135 13
1.6432503 0.12153807 -0.086354338 6
1.7704892 0.13063824 0.40986085 14
1.6592358 0.12242924 -0.029040804 7
1.6713933 0.12068705 0.029250234 8
1.5763441 0.11354649 -0.36487061 1
1.687328 0.12124564 0.088657118 9
1.5802915 0.11327715 -0.30796573 2
1.6852435 0.12050381 0.14781614 10
1.5979507 0.1142619 -0.25373673 3
1.710773 0.12203002 0.21059024 11
1.6216906 0.11539128 -0.19962201 4
1.714265 0.1216769 0.27219599 12
1.6157675 0.11440302 -0.14171523 5
1.7527248 0.12410016 0.34154812 13
1.6595827 0.11721423 -0.087191716 6
1.7748007 0.12503979 0.41076064 14
1.6636428 0.11691742 -0.029110614 7
1.6618294 0.11416713 0.02907571 8
1.5942285 0.10924343 -0.36891973 1
1.6917059 0.115923 0.088866465 9
1.5943694 0.10897277 -0.31063706 2
1.693585 0.11545706 0.14851339 10
1.5904565 0.1081476 -0.25248525 3
1.701286 0.11538549 0.20937155 11
1.6260446 0.10999735 -0.20010948 4
1.7205716 0.11639184 0.27313459 12
1.620114 0.10931212 -0.14206386 5
1.7413944 0.11718985 0.33925843 13
1.648025 0.1106175 -0.086563677 6
1.7830038 0.11936486 0.41256022 14
1.6720023 0.11193376 -0.029250234 7
1.6761669 0.10956828 0.029320043 8
1.678149 0.1091096 0.08813376 9
1.5849442 0.10277188 -0.30872896 2
1.7059071 0.11031645 0.14955924 10
1.5947489 0.10312814 -0.25311098 3
1.6976973 0.10948802 0.20888408 11
1.6184764 0.10409527 -0.19913453 4
1.7268814 0.11076491 0.27407321 12
1.6304272 0.10429247 -0.14293543 5
1.7496104 0.11191619 0.34078491 13
1.6404101 0.10464279 -0.086144991 6
1.771721 0.11270959 0.40986085 14
1.6683915 0.10584384 -0.029180422 7
1.6725475 0.10346932 0.029250234 8
1.676526 0.10312884 0.088029087 9
1.5813572 0.097274683 -0.30796573 2
1.7042748 0.10453638 0.14938495 10
1.6010141 0.097922154 -0.2540496 3
1.7059948 0.10404501 0.20985903 11
1.61883 0.098444663 -0.19913453 4
1.715427 0.10401846 0.27219599 12
1.6347588 0.098841414 -0.14328404 5
1.7539098 0.10604557 0.34154812 13
1.6547208 0.099757731 -0.086877696 6
1.7759939 0.10675783 0.41076064 14
1.6647584 0.099780492 -0.029110614 7
1.6808836 0.09809678 0.029389855 8
1.6848514 0.097738259 0.088447772 9
1.5836631 0.091591015 -0.30834734 2
1.6986792 0.097945511 0.148862 10
1.6092508 0.092507303 -0.25530109 3
1.7182384 0.098772429 0.21132146 11
1.6270911 0.09324795 -0.20010948 4
1.7157797 0.098030232 0.27219599 12
1.6251481 0.092567489 -0.14241248 5
1.7542868 0.099616006 0.34154812 13
1.6550753 0.093692571 -0.086877696 6
1.6650966 0.093968354 -0.029110614 7
1.6752417 0.091607377 0.029285138 8
1.6851983 0.091562688 0.088447772 9
1.5820128 0.085956261 -0.30796573 2
1.683095 0.091152996 0.14746751 10
1.597729 0.086250089 -0.25342387 3
1.7166067 0.092367828 0.21107772 11
1.6254396 0.087177008 -0.19986574 4
1.7181001 0.091845945 0.27250886 12
1.617503 0.086468242 -0.14171523 5
1.7507027 0.093283243 0.34078491 13
1.6553923 0.087914266 -0.086877696 6
1.661436 0.087654486 -0.029040804 7
1.6575774 0.084840335 0.028970996 8
1.6974758 0.08628761 0.089075804 9
1.5862248 0.080632396 -0.30872896 2
1.6953421 0.085882515 0.14851339 10
1.5921016 0.080373995 -0.25248525 3
1.7050232 0.085776292 0.20961528 11
1.6277167 0.081602365 -0.20010948 4
1.7164372 0.085749887 0.27219599 12
1.621775 0.081020743 -0.14206386 5
1.7470962 0.08697588 0.34002164 13
1.6477098 0.08173985 -0.086459011 6
1.669721 0.082247548 -0.029180422 7
1.6698481 0.079624817 0.029180422 8
1.6818064 0.07960669 0.088238433 9
1.5864966 0.075095281 -0.30872896 2
1.6936411 0.079870634 0.14833906 10
1.5963188 0.075001031 -0.25311098 3
1.7092781 0.080010131 0.21010277 11
1.6180768 0.07545805 -0.19889079 4
1.724619 0.080124125 0.27344745 12
1.6300088 0.075728625 -0.14276111 5
1.759156 0.081421003 0.34231135 13
1.6439948 0.075804129 -0.086249664 6
1.6739931 0.076601014 -0.029250234 7
1.6821024 0.07432466 0.029389855 8
1.670102 0.073210344 0.087610394 9
1.5769422 0.069126606 -0.30682087 2
1.6959003 0.074044697 0.14851339 10
1.5985445 0.069515295 -0.25342387 3
1.7135133 0.074214473 0.21059024 11
1.6123806 0.069552369 -0.19815956 4
1.7150204 0.07368084 0.27188313 12
1.6342443 0.070210531 -0.14310972 5
1.7594293 0.075280271 0.34231135 13
1.6482403 0.070234679 -0.086459011 6
1.6622628 0.070250951 -0.029040804 7
1.6763574 0.06820903 0.029285138 8
1.6863005 0.068318829 0.088447772 9
1.5791357 0.063700341 -0.30720252 2
1.690176 0.067884929 0.14799045 10
1.6046988 0.064171284 -0.25436246 3
1.7157456 0.068311267 0.21083398 11
1.6225312 0.064317159 -0.19937825 4
1.7172292 0.068070993 0.27219599 12
1.6265161 0.064190812 -0.14241248 5
1.7616433 0.069214873 0.34269297 13
1.652467 0.064637296 -0.086668357 6
1.6624866 0.064738631 -0.029040804 7
1.6725777 0.062500648 0.029215328 8
1.6865288 0.062431674 0.088447772 9
1.5852339 0.058405682 -0.30834734 2
1.6904026 0.061984248 0.14799045 10
1.5970064 0.058559567 -0.25311098 3
1.7159626 0.062621616 0.21083398 11
1.6326545 0.059296876 -0.20059694 4
1.7233785 0.062289916 0.27313459 12
1.6147836 0.058082677 -0.14136662 5
1.7481291 0.062879026 0.34002164 13
1.6566641 0.059300382 -0.086877696 6
1.6666994 0.059076305 -0.029110614 7
1.6707872 0.056593738 0.029180422 8
1.6987132 0.056946065 0.089075804 9
1.5952297 0.053476982 -0.31025544 2
1.6886077 0.056312267 0.14781614 10
1.5932527 0.052853212 -0.25248525 3
1.7082348 0.05636989 0.20985903 11
1.6288836 0.053466804 -0.20010948 4
1.7235855 0.056273371 0.27313459 12
1.6189591 0.052575354 -0.14171523 5
1.748338 0.056776904 0.34002164 13
1.6528686 0.053387787 -0.086668357 6
1.6668955 0.05325843 -0.029110614 7
1.6689758 0.050700895 0.029145518 8
1.6829308 0.05053607 0.088238433 9
1.6967688 0.050359637 0.14851339 10
1.5973847 0.047130156 -0.25311098 3
1.7044526 0.05028915 0.20937155 11
1.6250918 0.047664557 -0.19962201 4
1.725746 0.050315343 0.27344745 12
1.627099 0.047154244 -0.14241248 5
1.7524593 0.050481152 0.34078491 13
1.6410744 0.046986759 -0.086040318 6
1.6750668 0.047666643 -0.029250234 7
1.6791455 0.044849988 0.029320043 8
1.6791039 0.044555631 0.088029087 9
1.698926 0.044488203 0.14868769 10
1.6074129 0.041811116 -0.25467533 3
1.7085944 0.044144604 0.20985903 11
1.6133488 0.041402012 -0.19815956 4
1.7180122 0.044087898 0.27219599 12
1.6312373 0.041576192 -0.14276111 5
1.7604753 0.044562709 0.34231135 13
1.649215 0.041458383 -0.086459011 6
1.6672267 0.041620012 -0.029110614 7
1.6772857 0.039234266 0.029285138 8
1.6932263 0.039016619 0.088761792 9
1.695087 0.038467523 0.14833906 10
1.6075428 0.036480833 -0.25467533 3
1.7087314 0.038478799 0.20985903 11
1.625385 0.036317345 -0.19962201 4
1.7161808 0.038047228 0.27188313 12
1.6234049 0.035706952 -0.14206386 5
1.764539 0.038811211 0.34307459 13
1.661324 0.036250122 -0.087087035 6
1.6553663 0.035542056 -0.028901186 7
1.6734138 0.033299986 0.029215328 8
1.6873615 0.032988347 0.088447772 9
1.6952052 0.032845732 0.14833906 10
1.5997603 0.030717125 -0.25342387 3
1.7187788 0.032702334 0.21107772 11
1.6294714 0.030718643 -0.20010948 4
1.7182782 0.032092836 0.27219599 12
1.6155514 0.02989213 -0.14136662 5
1.7528862 0.032433201 0.34078491 13
1.6654345 0.030524347 -0.087296382 6
1.6674765 0.029979561 -0.029110614 7
1.6655222 0.027327612 0.02907571 8
1.6874664 0.027098512 0.088447772 9
1.6992986 0.026694428 0.14868769 10
1.5998622 0.024853855 -0.25342387 3
1.7069734 0.026517831 0.20961528 11
1.6295686 0.025030106 -0.20010948 4
1.7302307 0.026274236 0.27407321 12
1.6236147 0.024372581 -0.14206386 5
1.6535529 0.024243914 -0.086668357 6
1.6755691 0.024275022 -0.029250234 7
1.6676106 0.021248033 0.029110614 8
1.6875544 0.020913828 0.088447772 9
1.7053581 0.02083599 0.14921063 10
1.6038896 0.019316295 -0.2540496 3
1.7070591 0.02026166 0.20961528 11
1.6217096 0.018964779 -0.19913453 4
1.72834 0.019910075 0.27376035 12
1.6276742 0.018750427 -0.14241248 5
1.6416446 0.018338282 -0.086040318 6
1.6796459 0.018176438 -0.029320043 7
1.6796724 0.015537395 0.029320043 8
1.6836227 0.014987031 0.088238433 9
1.7034281 0.014865209 0.14903632 10
1.6078978 0.013751683 -0.25467533 3
1.7071195 0.014302333 0.20961528 11
1.6158108 0.013254558 -0.1984033 4
1.722473 0.013829705 0.27282172 12
1.6356992 0.013132999 -0.14310972 5
1.6616706 0.012760697 -0.087087035 6
1.6677012 0.01222567 -0.029110614 7
1.6797165 0.0096753035 0.029320043 8
1.6836648 0.0091095511 0.088238433 9
1.6955001 0.0088784844 0.14833906 10
1.6118869 0.0081585571 -0.25530109 3
1.7111293 0.0083622346 0.21010277 11
1.6218024 0.0076434226 -0.19913453 4
1.7185601 0.007798681 0.27219599 12
1.6237808 0.00736858 -0.14206386 5
1.6517189 0.0069196131 -0.086563677 6
1.671733 0.0064191436 -0.029180422 7
1.6737407 0.0037978804 0.029215328 8
1.6956699 0.0032557722 0.088866465 9
1.6855589 0.0029421898 0.14746751 10
1.6079546 0.002525338 -0.25467533 3
1.7190883 0.002400676 0.21107772 11
1.6218191 0.0019817972 -0.19913453 4
1.7185769 0.0017992811 0.27219599 12
1.6198118 0.0016958779 -0.14171523 5
1.659722 0.001159136 -0.086982369 6
1.6717453 0.00058401888 -0.029180422 7
1.6657456 -0.0017443651 0.02907571 8
1.6956717 -0.0020716549 0.088866465 9
1.6955212 -0.0026633206 0.14833906 10
1.6099297 -0.00280986 -0.25498822 3
1.7111465 -0.0032851694 0.21010277 11
1.6337274 -0.0034216754 -0.20059694 4
1.7264755 -0.0036159267 0.27344745 12
1.6317629 -0.0037023586 -0.14276111 5
1.6477332 -0.0043137646 -0.086354338 6
1.6757385 -0.004679556 -0.029250234 7
1.6677302 -0.0072768917 0.029110614 8
1.6876652 -0.0079529937 0.088447772 9
1.6994865 -0.0086019477 0.14868769 10
1.607936 -0.0081385653 -0.25467533 3
1.6992159 -0.0088971537 0.20864034 11
1.6217967 -0.0087748505 -0.19913453 4
1.7323784 -0.009675527 0.27438608 12
1.6337324 -0.0094097266 -0.14293543 5
1.6477098 -0.0097778216 -0.086354338 6
1.6797111 -0.010554074 -0.029320043 7
1.6796925 -0.013192544 0.029320043 8
1.6796384 -0.013778462 0.088029087 9
1.7074178 -0.014304365 0.14938495 10
1.7150544 -0.014967053 0.21059024 11
1.6177862 -0.014400585 -0.19864705 4
1.7204825 -0.01561503 0.27250886 12
1.6376767 -0.014863489 -0.14328404 5
1.6556543 -0.015604636 -0.086773023 6
1.6676664 -0.01630003 -0.029110614 7
1.6916333 -0.019191796 0.029529471 8
1.6855714 -0.019711474 0.088343106 9
1.6993886 -0.020169698 0.14868769 10
1.713007 -0.02092937 0.21034651 11
1.619711 -0.020072222 -0.19889079 4
1.7204174 -0.02162054 0.27250886 12
1.6296458 -0.020479811 -0.14258678 5
1.6635782 -0.021487031 -0.087191716 6
1.6675993 -0.022121172 -0.029110614 7
1.6695621 -0.024770269 0.029145518 8
1.6874894 -0.025625423 0.088447772 9
1.6913391 -0.025979148 0.14799045 10
1.7188779 -0.02700229 0.21107772 11
1.6275705 -0.025852056 -0.19986574 4
1.7262567 -0.027720936 0.27344745 12
1.621596 -0.02604025 -0.14188954 5
1.6594989 -0.027228341 -0.086982369 6
1.6675119 -0.027942045 -0.029110614 7
1.6734641 -0.030671261 0.029215328 8
1.6953773 -0.031664889 0.088866465 9
1.6972145 -0.031995527 0.14851339 10
1.7148036 -0.032925915 0.21059024 11
1.6294551 -0.031571634 -0.20010948 4
1.6294632 -0.031856298 -0.14258678 5
1.6474127 -0.032782488 -0.086354338 6
1.6754014 -0.033924509 -0.029250234 7
1.6753397 -0.036848582 0.029250234 8
1.6832694 -0.037610855 0.088238433 9
1.6950936 -0.038171057 0.14833906 10
1.7027642 -0.038938466 0.20912781 11
1.6273439 -0.037497941 -0.19986574 4
1.6273437 -0.037782118 -0.14241248 5
1.6392946 -0.038632121 -0.085935652 6
1.6752659 -0.040064935 -0.029250234 7
1.6791989 -0.042798284 0.029320043 8
1.6871209 -0.043589503 0.088447772 9
1.7049087 -0.044346843 0.14921063 10
1.7145241 -0.04519584 0.21059024 11
1.6172811 -0.042914923 -0.19864705 4
1.6371603 -0.043728363 -0.14328404 5
1.655122 -0.044786286 -0.086773023 6
1.6711179 -0.04580288 -0.029180422 7
1.6890335 -0.048949163 0.029494567 8
1.6869671 -0.049183954 0.088447772 9
1.6927943 -0.049945254 0.14816476 10
1.7183244 -0.051298846 0.21107772 11
1.6230739 -0.04873877 -0.19937825 4
1.6270403 -0.049142107 -0.14241248 5
1.6589482 -0.050685454 -0.086982369 6
1.6629617 -0.051098589 -0.029040804 7
1.6728727 -0.054033473 0.029215328 8
1.7027547 -0.055593666 0.08928515 9
1.6886272 -0.05572249 0.14781614 10
1.7221128 -0.05712837 0.2115652 11
1.6248875 -0.054186977 -0.19962201 4
1.6268588 -0.054821238 -0.14241248 5
1.658771 -0.056186441 -0.086982369 6
1.6707673 -0.057176668 -0.029180422 7
1.6706754 -0.059801035 0.029180422 8
1.6945665 -0.061248481 0.088866465 9
1.6983886 -0.061683439 0.14868769 10
1.7040491 -0.062484641 0.20937155 11
1.6385746 -0.060370177 -0.20132817 4
1.6306502 -0.0603632 -0.14276111 5
1.6465896 -0.061528809 -0.086354338 6
1.6705576 -0.06300839 -0.029180422 7
1.6724546 -0.065710925 0.029215328 8
1.6863595 -0.06684681 0.088447772 9
1.7021444 -0.067770071 0.14903632 10
1.7058041 -0.068512172 0.20961528 11
1.6343869 -0.065929472 -0.2008407 4
1.6324203 -0.066135518 -0.14293543 5
1.6383824 -0.066949919 -0.085935652 6
1.6783196 -0.069168717 -0.029320043 7
1.6802065 -0.071890406 0.029354947 8
1.6821378 -0.072267167 0.088238433 9
1.7058785 -0.073883675 0.14938495 10
1.7075379 -0.074552715 0.20985903 11
1.6341699 -0.071920931 -0.14310972 5
1.6501105 -0.073199607 -0.086563677 6
1.6700901 -0.074377961 -0.029180422 7
1.6819568 -0.077553891 0.029389855 8
1.6898558 -0.078509249 0.088657118 9
1.6976495 -0.07946521 0.14868769 10
1.7132298 -0.080494195 0.21059024 11
1.6299286 -0.077435717 -0.14276111 5
1.6618288 -0.079241939 -0.087191716 6
1.6658255 -0.080015339 -0.029110614 7
1.6756839 -0.083127297 0.029285138 8
1.6915662 -0.084507115 0.088761792 9
1.6953869 -0.084994629 0.14851339 10
1.7268164 -0.087174587 0.21229641 11
1.6216892 -0.082718767 -0.14206386 5
1.6575378 -0.085127428 -0.086982369 6
1.66953 -0.08603549 -0.029180422 7
1.6733712 -0.089162037 0.029250234 8
1.6912451 -0.090706453 0.088761792 9
1.6970533 -0.091315009 0.14868769 10
1.7185565 -0.093073688 0.21132146 11
1.6313223 -0.089205943 -0.14293543 5
1.6492376 -0.09076304 -0.086563677 6
1.6731969 -0.092374511 -0.029250234 7
1.6690401 -0.09506721 0.029180422 8
1.6889073 -0.096790299 0.088657118 9
1.7026746 -0.097877435 0.14921063 10
1.6290119 -0.094784036 -0.14276111 5
1.6528986 -0.096752822 -0.086773023 6
1.6728472 -0.098506466 -0.029250234 7
1.6766824 -0.10137542 0.029320043 8
1.6785914 -0.10207892 0.08813376 9
1.7082887 -0.10418414 0.14973356 10
1.6406027 -0.10120582 -0.14380698 5
1.6525508 -0.10252193 -0.086773023 6
1.672493 -0.10434519 -0.029250234 7
1.6803097 -0.10748281 0.029389855 8
1.6902025 -0.10841182 0.088761792 9
1.6979733 -0.10950541 0.148862 10
1.6302987 -0.1062839 -0.14293543 5
1.6601548 -0.1088123 -0.087191716 6
1.668147 -0.10962852 -0.029180422 7
1.6759535 -0.11278579 0.029320043 8
1.6878409 -0.1138817 0.088657118 9
1.695613 -0.11500068 0.14868769 10
1.623974 -0.11128096 -0.14241248 5
1.6637698 -0.11459143 -0.087401055 6
1.6717641 -0.11543521 -0.029250234 7
1.6675912 -0.1177793 0.029180422 8
1.6993866 -0.12062111 0.08928515 9
1.6952223 -0.12062289 0.14868769 10
1.6335324 -0.11737964 -0.14328404 5
1.6554123 -0.1195327 -0.086982369 6
1.6753399 -0.12155947 -0.029320043 7
1.6771412 -0.12433877 0.029354947 8
1.6909883 -0.12595889 0.088866465 9
1.6987646 -0.12683627 0.14903632 10
1.6569538 -0.12487782 -0.14537577 5
1.6430357 -0.12440567 -0.086354338 6
1.6788933 -0.1277101 -0.029389855 7
1.6806843 -0.13050196 0.029424759 8
1.6825733 -0.13123953 0.088447772 9
1.7022841 -0.13307586 0.14938495 10
1.6545376 -0.13108663 -0.086982369 6
1.6744505 -0.13325249 -0.029320043 7
1.6861979 -0.13685313 0.029529471 8
1.6940489 -0.13808557 0.089075804 9
1.6978135 -0.13898903 0.14903632 10
1.6580269 -0.13748004 -0.087191716 6
1.6699896 -0.13876542 -0.029250234 7
1.6797074 -0.14252524 0.029424759 8
1.6975368 -0.14433649 0.08928515 9
1.6933477 -0.1445757 0.14868769 10
1.6615165 -0.14361078 -0.087401055 6
1.669495 -0.14459394 -0.029250234 7
1.6732497 -0.14756754 0.029320043 8
1.7010015 -0.15061344 0.089494489 9
1.6888635 -0.15013283 0.14833906 10
1.6570528 -0.1487626 -0.087191716 6
1.6689801 -0.1504207 -0.029250234 7
1.6727244 -0.15340738 0.029320043 8
1.6885324 -0.15545151 0.088866465 9
1.6485689 -0.15380377 -0.086773023 6
1.6764089 -0.15699139 -0.029389855 7
1.6801416 -0.16000366 0.029459663 8
1.6840032 -0.16096458 0.088657118 9
1.6519978 -0.15994234 -0.086982369 6
1.6678892 -0.16206859 -0.029250234 7
1.6855428 -0.16645704 0.029564377 8
1.6874059 -0.16723582 0.088866465 9
1.655404 -0.16610675 -0.087191716 6
1.6673135 -0.16788964 -0.029250234 7
1.6769942 -0.17152576 0.029424759 8
1.6987329 -0.17434843 0.089494489 9
1.6627604 -0.17270951 -0.087610394 6
1.674673 -0.17453778 -0.029389855 7
1.6684308 -0.17653689 0.029285138 8
1.7020862 -0.18069878 0.089703836 9
1.6621473 -0.17851259 -0.087610394 6
1.670077 -0.17995395 -0.029320043 7
1.6757559 -0.18322913 0.029424759 8
1.6895329 -0.18533236 0.089075804 9
1.6654842 -0.18475391 -0.087819748 6
1.6813632 -0.18710952 -0.029529471 7
1.6790801 -0.18952608 0.029494567 8
1.6849065 -0.1907794 0.088866465 9
1.6727535 -0.19206502 -0.029389855 7
1.682381 -0.19584846 0.029564377 8
1.696133 -0.19804946 0.089494489 9
1.6681011 -0.19743277 -0.029320043 7
1.6717598 -0.2005291 0.029389855 8
1.6934483 -0.2037303 0.089389823 9
1.6674017 -0.20325431 -0.029320043 7
1.6750189 -0.20685357 0.029459663 8
1.6966913 -0.21013127 0.08959917 9
1.6746186 -0.21006899 -0.029459663 7
1.678254 -0.21320322 0.029529471 8
1.6857747 -0.21744813 -0.029669091 7
1.6834483 -0.21983697 0.029634187 8
1.6651818 -0.22070384 -0.029320043 7
1.6886164 -0.22650951 0.029738901 8
1.672327 -0.22759371 -0.029459663 7
1.6759293 -0.23076582 0.029529471 8
1.6794443 -0.23453613 -0.029599281 7
1.6751136 -0.23661453 0.029529471 8
1.6802571 -0.24302687 0.029634187 8
1.6813766 -0.24918371 0.029669091 8
