# .PCD v0.7 - Point Cloud Data file format
VERSION 0.7
FIELDS x y z intensity
SIZE 4 4 4 4
TYPE F F F F
COUNT 1 1 1 1
WIDTH 464
HEIGHT 1
VIEWPOINT 0 0 0 1 0 0 0
POINTS 464
DATA ascii
2.6600807 0.63961208 -0.43332353 3
2.6584525 0.62941176 -0.43269777 3
2.6720676 0.62328553 -0.43457499 3
2.6607502 0.61085963 -0.43238491 3
2.6512005 0.59941971 -0.43050769 3
2.6610932 0.59141213 -0.43175918 3
2.6592815 0.58127648 -0.43113342 3
2.6651573 0.57281977 -0.43175918 3
2.6555443 0.5610624 -0.42988196 3
2.64975 0.55018485 -0.4286305 3
2.6515598 0.54139423 -0.4286305 3
2.6573071 0.53291136 -0.42925623 3
2.6668119 0.52562493 -0.43050769 3
2.653115 0.51331156 -0.42800474 3
2.6627417 0.50505704 -0.42925623 3
2.7043827 0.72919255 -0.34391531 4
2.6921253 0.705764 -0.34172165 4
2.6791971 0.69238949 -0.33977175 4
2.6777506 0.68205249 -0.33928427 4
2.6801152 0.67270052 -0.33928427 4
2.6861849 0.66476351 -0.33977175 4
2.7000606 0.65820432 -0.34123421 4
2.6791787 0.64321369 -0.33830932 4
2.6736803 0.63203162 -0.33733436 4
2.6796279 0.62406296 -0.33782184 4
2.6817904 0.61470479 -0.33782184 4
2.6915598 0.60755593 -0.33879682 4
2.6821404 0.59510738 -0.33733436 4
2.6803229 0.58489418 -0.33684689 4
2.6862295 0.57636929 -0.33733436 4
2.688225 0.56698835 -0.33733436 4
2.6901877 0.55760187 -0.33733436 4
2.6803513 0.54629964 -0.33587193 4
2.678349 0.53616011 -0.33538446 4
2.6801124 0.52727473 -0.33538446 4
2.6858349 0.51866823 -0.33587193 4
2.687629 0.50929028 -0.33587193 4
2.6776803 0.49772954 -0.33440951 4
2.6832221 0.48955917 -0.33489698 4
2.677098 0.47879267 -0.33392206 4
2.6866565 0.47034594 -0.33489698 4
2.6922753 0.46116659 -0.33538446 4
2.6821222 0.44979665 -0.33392206 4
2.6718459 0.43896949 -0.3324596 4
2.6850464 0.43199816 -0.33392206 4
2.6865382 0.42262226 -0.33392206 4
2.6879969 0.41324252 -0.33392206 4
2.6816409 0.40220922 -0.33294708 4
2.7105732 0.81063318 -0.24752231 5
2.7151568 0.80220646 -0.24769662 5
2.7122025 0.7910496 -0.24717368 5
2.6996305 0.77716726 -0.24577919 5
2.6946604 0.76556158 -0.24508193 5
2.6973166 0.75615013 -0.24508193 5
2.7037802 0.7477929 -0.24543057 5
2.7025297 0.73730081 -0.24508193 5
2.6972642 0.7262634 -0.24438471 5
2.6958072 0.71629095 -0.24403608 5
2.6982908 0.70687699 -0.24403608 5
2.7045999 0.69845086 -0.24438471 5
2.70316 0.6880222 -0.24403608 5
2.6939497 0.6756745 -0.24299021 5
2.6924236 0.66531014 -0.24264158 5
2.6984863 0.65732169 -0.24299021 5
2.712389 0.65068752 -0.24403608 5
2.7107658 0.64029872 -0.24368747 5
2.695519 0.62677068 -0.24211864 5
2.691756 0.61649466 -0.24159572 5
2.6977789 0.60797155 -0.24194433 5
2.7037752 0.59941262 -0.24229297 5
2.7058511 0.58997154 -0.24229297 5
2.7039976 0.57968676 -0.24194433 5
2.6943073 0.56777877 -0.24089848 5
2.7001743 0.55918032 -0.24124709 5
2.7021101 0.5497508 -0.24124709 5
2.7078257 0.54156798 -0.24159572 5
2.6940591 0.52904183 -0.24020122 5
2.6919768 0.51888102 -0.23985259 5
2.6976867 0.5102222 -0.24020122 5
2.7072873 0.50225538 -0.24089848 5
2.7128584 0.49398801 -0.24124709 5
2.6949522 0.48101515 -0.23950398 5
2.6927719 0.4704479 -0.23915535 5
2.6983252 0.46171948 -0.23950398 5
2.6959903 0.45163861 -0.23915535 5
2.7093475 0.44415832 -0.24020122 5
2.6990023 0.43327582 -0.23915535 5
2.6965616 0.42323592 -0.23880674 5
2.7019613 0.41442397 -0.23915535 5
2.7033913 0.4049904 -0.23915535 5
2.7087317 0.39612728 -0.23950398 5
2.7021408 0.38601479 -0.23880674 5
2.6995249 0.37603101 -0.2384581 5
2.7008851 0.36613351 -0.2384581 5
2.7060971 0.35722685 -0.23880674 5
2.7112799 0.34828559 -0.23915535 5
2.704571 0.33783078 -0.2384581 5
2.6978223 0.3274284 -0.23776087 5
2.6989489 0.31800851 -0.23776087 5
2.7040014 0.30903852 -0.23810948 5
2.7050636 0.29959849 -0.23810948 5
2.6961377 0.28956202 -0.23723793 5
2.7337534 0.89987051 -0.15083225 6
2.7425756 0.89217663 -0.15114626 6
2.7322099 0.87879533 -0.15041354 6
2.7200334 0.86441284 -0.14957617 6
2.7190738 0.85419142 -0.14936683 6
2.7221861 0.8442204 -0.14936683 6
2.7289362 0.83588225 -0.14957617 6
2.7318373 0.82635194 -0.14957617 6
2.7230804 0.81385732 -0.14894815 6
2.7220738 0.8032158 -0.1487388 6
2.7247226 0.79418385 -0.1487388 6
2.7313168 0.78577292 -0.14894815 6
2.7380214 0.77684647 -0.14915749 6
2.7253296 0.7629773 -0.14832011 6
2.7241259 0.75239652 -0.14811078 6
2.7267356 0.74288356 -0.14811078 6
2.7330418 0.73487377 -0.14832011 6
2.7354634 0.72580719 -0.14832011 6
2.726387 0.7132206 -0.14769208 6
2.7269261 0.70320135 -0.14758742 6
2.7351716 0.69515347 -0.14790143 6
2.7337065 0.68463051 -0.14769208 6
2.7359617 0.67556196 -0.14769208 6
2.7305405 0.66412014 -0.14727339 6
2.7289577 0.65365356 -0.14706406 6
2.7389979 0.64595807 -0.14748274 6
2.7294524 0.63416028 -0.14685471 6
2.7316496 0.62462813 -0.14685471 6
2.729809 0.61468792 -0.14664535 6
2.7281435 0.60381591 -0.14643602 6
2.7302346 0.59428853 -0.14643602 6
2.7322922 0.58475649 -0.14643602 6
2.7382257 0.57603705 -0.14664535 6
2.7284846 0.56404859 -0.14601734 6
2.7225111 0.55340666 -0.14559864 6
2.728343 0.54468256 -0.14580798 6
2.7301345 0.5356313 -0.14580798 6
2.7359104 0.52685273 -0.14601734 6
2.7299724 0.51534021 -0.14559864 6
2.7238991 0.50435376 -0.14517996 6
2.7294867 0.49603298 -0.1453893 6
2.7272689 0.48580104 -0.14517996 6
2.7408364 0.47786069 -0.14580798 6
2.7346129 0.46694505 -0.1453893 6
2.7244065 0.45542142 -0.14476126 6
2.7338641 0.44719768 -0.14517996 6
2.735332 0.43812996 -0.14517996 6
2.7367699 0.42905608 -0.14517996 6
2.7304268 0.41781458 -0.14476126 6
2.7160664 0.40591869 -0.14392389 6
2.729255 0.39864212 -0.14455192 6
2.738539 0.39024049 -0.14497061 6
2.7358615 0.38060582 -0.14476126 6
2.7333443 0.36956349 -0.14455192 6
2.7227371 0.35845521 -0.14392389 6
2.7318957 0.34996459 -0.14434259 6
2.7331007 0.34042564 -0.14434259 6
2.7342725 0.33088255 -0.14434259 6
2.7274764 0.32040593 -0.14392389 6
2.7246091 0.31043035 -0.14371455 6
2.729594 0.30183184 -0.14392389 6
2.7346027 0.29272765 -0.14413324 6
2.7395811 0.28359219 -0.14434259 6
2.7246554 0.27243841 -0.1435052 6
2.7216139 0.26254165 -0.14329587 6
2.7264912 0.25340879 -0.1435052 6
2.7313375 0.24424638 -0.14371455 6
2.7361536 0.23505192 -0.14392389 6
2.7289953 0.22484539 -0.1435052 6
2.7257814 0.21500322 -0.14329587 6
2.7304983 0.20578663 -0.1435052 6
2.7351844 0.19654103 -0.14371455 6
2.7398064 0.18774338 -0.14392389 6
2.7344661 0.17778905 -0.14360988 6
2.7803676 0.97857785 -0.051449694 7
2.7705467 0.96426475 -0.051205363 7
2.7663321 0.95198554 -0.051065743 7
2.7656877 0.9415186 -0.050995931 7
2.7689576 0.931858 -0.050995931 7
2.7721937 0.92218608 -0.050995931 7
2.7639976 0.90875685 -0.050786503 7
2.7593894 0.89711219 -0.050646886 7
2.7586961 0.88625205 -0.050577074 7
2.7654319 0.87830889 -0.050646886 7
2.7684805 0.86865091 -0.050646886 7
2.7640049 0.85613203 -0.050507262 7
2.7516792 0.84179801 -0.050228026 7
2.7563694 0.83324772 -0.050262932 7
2.7669263 0.82590824 -0.050402552 7
2.76965 0.8167274 -0.050402552 7
2.7571237 0.80258536 -0.050123312 7
2.7522206 0.79074669 -0.049983691 7
2.7549641 0.78113544 -0.049983691 7
2.7655122 0.77318579 -0.050123312 7
2.7720492 0.76459163 -0.050193124 7
2.7552752 0.75014108 -0.049844075 7
2.7577474 0.74100071 -0.049844075 7
2.7603173 0.73136914 -0.049844075 7
2.7667229 0.72274071 -0.049913883 7
2.7653561 0.71208066 -0.049844075 7
2.7561946 0.69947392 -0.049634643 7
2.74686 0.68741667 -0.049425215 7
2.7570093 0.67973816 -0.049564835 7
2.7690816 0.67246908 -0.049739357 7
2.7714117 0.66280103 -0.049739357 7
2.7541306 0.64901954 -0.049390312 7
2.7524836 0.63849741 -0.049320504 7
2.7545857 0.62936687 -0.049320504 7
2.7606676 0.6206255 -0.049390312 7
2.7629235 0.61050361 -0.049390312 7
2.7533135 0.59830695 -0.04918088 7
2.7475631 0.58702052 -0.049041264 7
2.7574232 0.57907063 -0.04918088 7
2.7632449 0.57073301 -0.049250688 7
2.7691402 0.56187862 -0.049320504 7
2.7552998 0.54956275 -0.049041264 7
2.7532766 0.5391736 -0.048971456 7
2.7551417 0.52956015 -0.048971456 7
2.7569735 0.51993901 -0.048971456 7
2.7705693 0.5124951 -0.04918088 7
2.7525785 0.49973193 -0.048831832 7
2.7503684 0.48942047 -0.048762023 7
2.7521439 0.4793359 -0.048762023 7
2.7617671 0.47058976 -0.048901644 7
2.7712831 0.46226183 -0.049041264 7
2.7570124 0.45049015 -0.048762023 7
2.7545424 0.44071251 -0.048692215 7
2.7560637 0.43109658 -0.048692215 7
2.7615051 0.422077 -0.048762023 7
2.7629614 0.41243559 -0.048762023 7
2.756469 0.40163445 -0.048622403 7
2.7498672 0.39136374 -0.048482787 7
2.7551777 0.38231277 -0.048552595 7
2.7566254 0.37173018 -0.048552595 7
2.7618713 0.3626267 -0.048622403 7
2.7551866 0.35196948 -0.048482787 7
2.752429 0.34185886 -0.048412975 7
2.7536056 0.33224827 -0.048412975 7
2.7587211 0.32309887 -0.048482787 7
2.7716987 0.31530556 -0.048692215 7
2.756881 0.30387646 -0.048412975 7
2.7579248 0.29425055 -0.048412975 7
2.754957 0.28421199 -0.048343167 7
2.759912 0.27498946 -0.048412975 7
2.7648361 0.26573709 -0.048482787 7
2.7577825 0.25534621 -0.048343167 7
2.7506895 0.2450078 -0.048203547 7
2.7555125 0.23574741 -0.048273355 7
2.7603049 0.22645375 -0.048343167 7
2.7690527 0.21744385 -0.048482787 7
2.7578301 0.20687845 -0.048273355 7
2.7545121 0.19744664 -0.048203547 7
2.7591746 0.18810166 -0.048273355 7
2.7598143 0.17846981 -0.048273355 7
2.7684045 0.16932274 -0.048412975 7
2.7609928 0.1591983 -0.048273355 7
2.7575383 0.14934267 -0.048203547 7
2.7540486 0.13951439 -0.048133738 7
2.7665038 0.13046591 -0.048343167 7
2.7709379 0.12098192 -0.048412975 7
2.7593548 0.11082786 -0.048203547 7
2.7517138 0.10138296 -0.04806393 7
2.7600453 0.09204293 -0.048203547 7
2.7683449 0.082647294 -0.048343167 7
2.7806354 0.85649753 0.050786503 8
2.7797818 0.84562278 0.050716694 8
2.7825706 0.83640057 0.050716694 8
2.7854733 0.82668173 0.050716694 8
2.7958753 0.81968981 0.050856311 8
2.7987189 0.80992734 0.050856311 8
2.7899926 0.79685718 0.050646886 8
2.7871201 0.78499889 0.050542168 8
2.7898433 0.77526581 0.050542168 8
2.7848182 0.76340866 0.050402552 8
2.7873344 0.75416893 0.050402552 8
2.774364 0.74079525 0.050123312 8
2.7769332 0.73110563 0.050123312 8
2.7755969 0.72040367 0.0500535 8
2.7800322 0.71120554 0.050088406 8
2.786376 0.70247394 0.050158214 8
2.777046 0.6903376 0.049948789 8
2.773612 0.67921203 0.049844075 8
2.7798541 0.67046314 0.049913883 8
2.7821772 0.66075611 0.049913883 8
2.784353 0.65152699 0.049913883 8
2.778816 0.64000785 0.049774267 8
2.7731221 0.62902057 0.049634643 8
2.7754092 0.61885166 0.049634643 8
2.7775524 0.60915911 0.049634643 8
2.785526 0.6007266 0.049739357 8
2.7778249 0.58892524 0.049564835 8
2.7739909 0.5780021 0.04946012 8
2.7739329 0.56839913 0.049425215 8
2.783742 0.5602904 0.049564835 8
2.7855847 0.55105531 0.049564835 8
2.775713 0.53904176 0.049355406 8
2.7697206 0.52785122 0.049215786 8
2.775568 0.51843107 0.049285594 8
2.7812054 0.50994593 0.049355406 8
2.7828815 0.50071955 0.049355406 8
2.7768204 0.48912945 0.049215786 8
2.7746534 0.47826853 0.049145978 8
2.7802494 0.46924645 0.049215786 8
2.7798975 0.45921203 0.04918088 8
2.7912753 0.45158848 0.049355406 8
2.7769568 0.43982643 0.049076166 8
2.7745228 0.42951906 0.049006358 8
2.7721241 0.418749 0.04893655 8
2.7774537 0.41013879 0.049006358 8
2.7887647 0.40186787 0.04918088 8
2.7762208 0.39066646 0.04893655 8
2.7737377 0.37946221 0.048866738 8
2.7710812 0.36924878 0.048796929 8
2.7842517 0.36111745 0.049006358 8
2.7914474 0.35214654 0.049111072 8
2.7708261 0.3397254 0.048727117 8
2.7739809 0.33028704 0.048762023 8
2.7771037 0.32083076 0.048796929 8
2.7821264 0.31206483 0.048866738 8
2.7951269 0.30364788 0.049076166 8
2.7802598 0.29221761 0.048796929 8
2.7733049 0.28170317 0.048657309 8
2.7862124 0.27319086 0.048866738 8
2.7791858 0.26271003 0.048727117 8
2.7900431 0.25391403 0.048901644 8
2.7849364 0.24364983 0.048796929 8
2.7738137 0.23292503 0.048587501 8
2.7805896 0.22372158 0.048692215 8
2.7873352 0.21447365 0.048796929 8
2.7960441 0.20532914 0.04893655 8
2.7767618 0.19465815 0.048587501 8
2.7814145 0.18522924 0.048657309 8
2.7860358 0.17577158 0.048727117 8
2.7786477 0.16556892 0.048587501 8
2.787195 0.1563171 0.048727117 8
2.779736 0.14616627 0.048587501 8
2.7742374 0.13616745 0.048482787 8
2.7766933 0.12657569 0.048517693 8
2.7891059 0.11738624 0.048727117 8
2.7914968 0.10772742 0.048762023 8
2.7858431 0.098258995 0.048657309 8
2.776176 0.088215694 0.048482787 8
2.7744679 0.07846722 0.048447877 8
2.7887306 0.068642825 0.048692215 8
2.7909422 0.059436481 0.048727117 8
2.7831352 0.049552109 0.048587501 8
2.7792921 0.039778877 0.048517693 8
2.7814136 0.030099316 0.048552595 8
2.7875006 0.020434752 0.048657309 8
2.787555 0.010703692 0.048657309 8
2.783576 0.00097243342 0.048587501 8
2.8136985 0.75024456 0.15261166 9
2.8278897 0.74346596 0.1532397 9
2.8188674 0.73058295 0.15261166 9
2.8214002 0.7207408 0.15261166 9
2.8237748 0.71137995 0.15261166 9
2.826241 0.70151806 0.15261166 9
2.8286724 0.6916489 0.15261166 9
2.8135939 0.67756301 0.15166962 9
2.8138821 0.66776711 0.15156494 9
2.8123062 0.65703124 0.15135561 9
2.8203084 0.64904737 0.15166962 9
2.8322964 0.64140356 0.15219298 9
2.819032 0.62754714 0.15135561 9
2.809499 0.61513919 0.15072757 9
2.8155344 0.60616845 0.1509369 9
2.8215411 0.59716439 0.15114626 9
2.8274164 0.58861923 0.15135561 9
2.8138001 0.57554346 0.15051822 9
2.8117771 0.5654211 0.15030889 9
2.8176522 0.55637854 0.15051822 9
2.8195775 0.54653895 0.15051822 9
2.8293159 0.53818691 0.1509369 9
2.8154705 0.52537572 0.15009953 9
2.8171976 0.51603568 0.15009953 9
2.8209474 0.50655228 0.15020421 9
2.818851 0.49551728 0.14999487 9
2.8167117 0.48450583 0.14978553 9
2.8144464 0.47400653 0.14957617 9
2.810091 0.46369591 0.14926216 9
2.8155568 0.45501128 0.14947151 9
2.8210731 0.44580579 0.14968085 9
2.8226123 0.43595493 0.14968085 9
2.8122671 0.42431229 0.14905281 9
2.8058276 0.41332805 0.14863414 9
2.8111365 0.40459087 0.14884347 9
2.8164871 0.39533153 0.14905281 9
2.8259003 0.38559356 0.14947151 9
2.8113904 0.37362131 0.14863414 9
2.8007929 0.36226746 0.1480061 9
2.8178933 0.35448492 0.14884347 9
2.8131659 0.34391859 0.14852946 9
2.8282328 0.33574545 0.14926216 9
2.8094895 0.32407671 0.14821544 9
2.8145735 0.31471094 0.14842479 9
2.8077123 0.30402353 0.1480061 9
2.8246474 0.29588616 0.14884347 9
2.8256631 0.28602374 0.14884347 9
2.8127296 0.27479973 0.14811078 9
2.8077064 0.26441729 0.14779675 9
2.8106015 0.25479585 0.14790143 9
2.8174429 0.24550419 0.14821544 9
2.8242536 0.23616652 0.14852946 9
2.8111246 0.22519082 0.14779675 9
2.8039281 0.21476594 0.14737807 9
2.8125923 0.20605084 0.14779675 9
2.8172791 0.19651036 0.1480061 9
2.8219337 0.1869383 0.14821544 9
2.8126023 0.17646071 0.14769208 9
2.8052263 0.16617002 0.14727339 9
2.8117719 0.15670963 0.14758742 9
2.8142958 0.14699987 0.14769208 9
2.8127973 0.13707729 0.14758742 9
2.8132586 0.1272572 0.14758742 9
2.807699 0.11718704 0.14727339 9
2.8140597 0.10810631 0.14758742 9
2.8184121 0.098421402 0.14779675 9
2.8347085 0.089085199 0.14863414 9
2.8436301 0.62209064 0.25466907 10
2.8379924 0.61048669 0.25397182 10
2.8342586 0.59933925 0.2534489 10
2.8363333 0.58944279 0.2534489 10
2.8344693 0.5787406 0.25310028 10
2.8422332 0.57051486 0.25362319 10
2.8344336 0.55866295 0.25275165 10
2.8304021 0.54812467 0.25222871 10
2.8323922 0.53774631 0.25222871 10
2.8401282 0.52895117 0.25275165 10
2.8418665 0.51953065 0.25275165 10
2.8318074 0.50799227 0.2517058 10
2.821876 0.49554273 0.25065991 10
2.8315279 0.48654559 0.25135714 10
2.8371384 0.47732052 0.2517058 10
2.8368216 0.46708965 0.25153148 10
2.8324537 0.45672891 0.25100854 10
2.8280489 0.44640094 0.2504856 10
2.831635 0.43633667 0.25065991 10
2.8331411 0.426449 0.25065991 10
2.8405259 0.41742653 0.25118285 10
2.8280892 0.40602329 0.24996266 10
2.8215969 0.39504319 0.24926542 10
2.8289483 0.38550651 0.24978836 10
2.8243513 0.3748422 0.24926542 10
2.8414505 0.36702356 0.25065991 10
2.8328302 0.35586035 0.24978836 10
2.8221886 0.34452313 0.24874248 10
2.8253527 0.33490351 0.2489168 10
2.8403597 0.32663172 0.25013697 10
2.8395023 0.31649491 0.24996266 10
2.8246899 0.30536318 0.24856818 10
2.8277199 0.2957091 0.24874248 10
2.8307173 0.28603762 0.2489168 10
2.8396304 0.27692762 0.24961405 10
2.8326454 0.26626718 0.2489168 10
2.8276045 0.25583977 0.24839386 10
2.8264954 0.24579464 0.24821955 10
2.823365 0.23559742 0.24787092 10
2.8341007 0.22653361 0.24874248 10
2.8368609 0.21679042 0.2489168 10
2.8336263 0.20659746 0.24856818 10
2.8243921 0.19601452 0.24769662 10
2.8290024 0.18691067 0.24804525 10
