# .PCD v0.7 - Point Cloud Data file format
VERSION 0.7
FIELDS x y z intensity
SIZE 4 4 4 4
TYPE F F F F
COUNT 1 1 1 1
WIDTH 1147
HEIGHT 1
VIEWPOINT 0 0 0 1 0 0 0
POINTS 1147
DATA ascii
1.6602859 0.87944722 -0.16437572 5
1.6651095 0.87457323 -0.16455004 5
1.6716865 0.87059569 -0.16489866 5
1.6823888 0.86946183 -0.23252673 4
1.6674836 0.86139005 -0.16420141 5
1.6765804 0.85905725 -0.23130804 4
1.6651605 0.85283899 -0.16367848 5
1.695497 0.86129147 -0.23350169 4
1.6681271 0.8470217 -0.16367848 5
1.6789904 0.8455466 -0.23082055 4
1.6746331 0.84298497 -0.16402711 5
1.6730516 0.83524686 -0.22960186 4
1.6775649 0.83713537 -0.16402711 5
1.6848525 0.83380449 -0.23082055 4
1.6733336 0.82774043 -0.16332985 5
1.6877531 0.8279177 -0.23082055 4
1.6690573 0.8183853 -0.16263261 5
1.6942035 0.82375699 -0.23130804 4
1.6754878 0.81429642 -0.16298124 5
1.709829 0.82472342 -0.30066708 3
1.6861964 0.81296271 -0.2298456 4
1.6819102 0.81017172 -0.16332985 5
1.6953024 0.81589478 -0.098600946 6
1.6853014 0.80565387 -0.22935812 4
1.6845872 0.80459017 -0.16332985 5
1.672763 0.79822576 -0.097135544 6
1.7081217 0.80997968 -0.29941559 3
1.6881032 0.79976648 -0.22935812 4
1.6801821 0.79529572 -0.16263261 5
1.6970655 0.80292481 -0.098391607 6
1.6914113 0.79447597 -0.29597405 3
1.6944786 0.79555589 -0.2298456 4
1.6721252 0.78434879 -0.16158675 5
1.6837206 0.78907096 -0.097449563 6
1.6870104 0.78523296 -0.29472256 3
1.7045829 0.79268849 -0.23082055 4
1.6784667 0.78018641 -0.16193536 5
1.6737845 0.7772997 -0.096716851 6
1.6933289 0.7809937 -0.29534832 3
1.696522 0.78174937 -0.22935812 4
1.695657 0.78099108 -0.16332985 5
1.6728584 0.76978368 -0.096507512 6
1.7032317 0.77836186 -0.29659978 3
1.7028521 0.77747113 -0.2298456 4
1.7019982 0.7767213 -0.16367848 5
1.6755354 0.76393926 -0.096507512 6
1.7095367 0.77404255 -0.29722553 3
1.7019386 0.76988554 -0.22935812 4
1.6938059 0.7658515 -0.16263261 5
1.6891131 0.76301867 -0.097135544 6
1.7014143 0.76321894 -0.29534832 3
1.7082385 0.76556402 -0.2298456 4
1.6928326 0.75830495 -0.16228399 5
1.691766 0.75711828 -0.097135544 6
1.696716 0.75436211 -0.29409683 3
1.7107676 0.75989544 -0.2298456 4
1.6954695 0.7523908 -0.16228399 5
1.6796615 0.74502593 -0.096298166 6
1.722783 0.75947875 -0.36597168 2
1.7029539 0.75002843 -0.29472256 3
1.7025081 0.74912167 -0.22838317 4
1.7016022 0.74836957 -0.16263261 5
1.682252 0.7391578 -0.096298166 6
1.7074318 0.74560332 -0.3621555 2
1.7108634 0.74674731 -0.29566118 3
1.7049831 0.74347138 -0.22838317 4
1.7078576 0.74401641 -0.16298124 5
1.6846942 0.73357469 -0.096298166 6
1.7035086 0.74106085 -0.03242657 7
1.708093 0.73915786 -0.36177388 2
1.717086 0.742338 -0.29628691 3
1.714857 0.74066496 -0.22935812 4
1.6958095 0.73173499 -0.16158675 5
1.6909124 0.72927189 -0.096507512 6
1.6987394 0.73194444 -0.032286953 7
1.7125951 0.73366588 -0.3621555 2
1.7070829 0.73059934 -0.29409683 3
1.713782 0.73311257 -0.22887065 4
1.6946892 0.72424549 -0.16123812 5
1.7045952 0.72777444 -0.097135544 6
1.6847309 0.71894675 -0.031972811 7
1.7187601 0.72921723 -0.36291873 2
1.6987104 0.72001028 -0.29221961 3
1.7201135 0.72837394 -0.22935812 4
1.708216 0.72298443 -0.16228399 5
1.6887294 0.71404207 -0.096088827 6
1.6927562 0.71539646 -0.032077521 7
1.7249153 0.72473371 -0.36368197 2
1.7083738 0.71743292 -0.2934711 3
1.7151971 0.71959424 -0.22838317 4
1.7070541 0.71547729 -0.16193536 5
1.6874036 0.70689499 -0.09587948 6
1.7026216 0.71257168 -0.032217141 7
1.7164342 0.71448243 -0.36139226 2
1.7181633 0.71449959 -0.29472256 3
1.710366 0.71055597 -0.22740822 4
1.7130973 0.71134102 -0.16228399 5
1.6935506 0.70253068 -0.096088827 6
1.6940147 0.70203018 -0.032007713 7
1.7189177 0.70848691 -0.36139226 2
1.7206472 0.70849729 -0.29472256 3
1.7201791 0.70760238 -0.22838317 4
1.7045138 0.70081061 -0.16123812 5
1.7033824 0.69965047 -0.096507512 6
1.6853547 0.69155836 -0.031798285 7
1.7250156 0.70396644 -0.3621555 2
1.7121348 0.69801188 -0.29284537 3
1.7263157 0.70309067 -0.22887065 4
1.7069499 0.69485605 -0.16123812 5
1.713215 0.69670939 -0.096926205 6
1.7062848 0.69319814 -0.032147333 7
1.7236042 0.69673133 -0.42920661 1
1.7274626 0.69794029 -0.3621555 2
1.7072335 0.68907416 -0.29159388 3
1.7287589 0.6970616 -0.22887065 4
1.7093649 0.6888938 -0.16123812 5
1.7008144 0.68475789 -0.096088827 6
1.7012732 0.68425262 -0.032007713 7
1.7242167 0.68998611 -0.42875671 1
1.7371796 0.69482273 -0.36368197 2
1.7169662 0.68604189 -0.29284537 3
1.7236873 0.68837959 -0.22789569 4
1.7154604 0.68439895 -0.16158675 5
1.6957728 0.67585933 -0.095670134 6
1.7072484 0.68008679 -0.032077521 7
1.7301184 0.68570095 -0.42965651 1
1.7230468 0.68255126 -0.3602474 2
1.7265787 0.68325227 -0.29409683 3
1.7185766 0.67973971 -0.22692074 4
1.7214264 0.68017119 -0.16193536 5
1.705436 0.6731649 -0.096088827 6
1.7094942 0.67442197 -0.032077521 7
1.7217194 0.67612171 0.032286953 8
1.737825 0.68209541 -0.43100622 1
1.7289561 0.67826712 -0.36101064 2
1.7325134 0.67896402 -0.29472256 3
1.7245181 0.67548448 -0.22740822 4
1.716251 0.67155451 -0.16123812 5
1.7076588 0.6675061 -0.096088827 6
1.7005459 0.66438276 -0.031868093 7
1.7071786 0.66388518 0.031972811 8
1.7418933 0.67703599 -0.43145612 1
1.7293657 0.67181939 -0.36062902 2
1.7237056 0.66892827 -0.29284537 3
1.7323006 0.67191601 -0.22813943 4
1.7147528 0.66442013 -0.16088949 5
1.7173135 0.66472304 -0.096507512 6
1.7064695 0.66018325 -0.031937905 7
1.6873169 0.64871436 0.03155395 8
1.7408421 0.66894418 -0.4305563 1
1.7355981 0.66658151 -0.36139226 2
1.7188845 0.65947402 -0.29159388 3
1.7405449 0.6670875 -0.22887065 4
1.7210122 0.65925688 -0.16123812 5
1.7123916 0.65526932 -0.096088827 6
1.7127277 0.65505433 -0.032007713 7
1.7006723 0.64738345 0.031763379 8
1.7284797 0.65762436 -0.4269571 1
1.7379146 0.66051859 -0.36139226 2
1.7247549 0.6551736 -0.29221961 3
1.7241881 0.6542688 -0.22643325 4
1.7270288 0.6546582 -0.16158675 5
1.71082 0.64817154 -0.09587948 6
1.7150033 0.64907295 -0.032007713 7
1.7085356 0.64355803 0.031868093 8
1.7435313 0.65639251 -0.4301064 1
1.7327452 0.65198666 -0.35986578 2
1.7307298 0.65053874 -0.29284537 3
1.7301781 0.64964223 -0.22692074 4
1.7293037 0.64862525 -0.16158675 5
1.7168123 0.64359826 -0.096088827 6
1.7097678 0.64027685 -0.031868093 7
1.714519 0.63898724 0.031937905 8
1.7476382 0.65098226 -0.4305563 1
1.7369633 0.64631653 -0.3602474 2
1.7368054 0.64556772 -0.2934711 3
1.7398785 0.64636439 -0.22789569 4
1.7166138 0.63703978 -0.16019225 5
1.7191598 0.63730103 -0.096088827 6
1.7082421 0.63291568 -0.031798285 7
1.7636237 0.65028638 -0.50366187 0
1.7093444 0.62993258 0.031798285 8
1.7536697 0.64591998 -0.43145612 1
1.7373661 0.63957149 -0.35986578 2
1.7316326 0.63677371 -0.29221961 3
1.7458506 0.64165622 -0.22838317 4
1.7188271 0.63104337 -0.16019225 5
1.7288743 0.63404727 -0.096507512 6
1.7141962 0.62832487 -0.031868093 7
1.7766593 0.64840782 -0.50676769 0
1.6982734 0.6194644 0.03155395 8
1.7484784 0.6374315 -0.42965651 1
1.7450114 0.63582253 -0.36101064 2
1.7263097 0.62832576 -0.29096815 3
1.7479687 0.6358636 -0.22838317 4
1.7246559 0.62670052 -0.16054088 5
1.7197028 0.62422222 -0.09587948 6
1.7125109 0.62127256 -0.031798285 7
1.7678978 0.6385752 -0.50366187 0
1.707842 0.61654484 0.03169357 8
1.7395843 0.62766099 -0.4269571 1
1.7452635 0.62936676 -0.36062902 2
1.7358178 0.62527502 -0.29221961 3
1.7427065 0.62706929 -0.22740822 4
1.7342238 0.62367523 -0.16123812 5
1.7180042 0.61716503 -0.095670134 6
1.7259619 0.61934453 -0.032007713 7
1.7646585 0.63044989 -0.50210893 0
1.7099836 0.61058003 0.03169357 8
1.7472707 0.62355018 -0.42830679 1
1.7437515 0.62195122 -0.35986578 2
1.7379897 0.61921245 -0.29221961 3
1.7374041 0.61831957 -0.22643325 4
1.7401444 0.61895353 -0.16158675 5
1.7239122 0.61250126 -0.09587948 6
1.7205752 0.61064029 -0.031868093 7
1.7741343 0.62686098 -0.50417954 0
1.7215322 0.60793704 0.031868093 8
1.7567874 0.62004113 -0.4301064 1
1.7440606 0.61520708 -0.35948417 2
1.747593 0.61576736 -0.2934711 3
1.7395514 0.6122523 -0.22643325 4
1.7273645 0.60728455 -0.16019225 5
1.7335767 0.60912949 -0.096298166 6
1.7113754 0.60065675 -0.031658668 7
1.767301 0.6171692 -0.50159132 0
1.7123168 0.59796792 0.031658668 8
1.7626203 0.61519057 -0.43100622 1
1.7311828 0.60387838 0.096088827 9
1.7463037 0.60881102 -0.35948417 2
1.7386452 0.60546052 -0.29159388 3
1.7566764 0.61139596 -0.22838317 4
1.7294737 0.6012516 -0.16019225 5
1.7395715 0.60408068 -0.096507512 6
1.7247964 0.5986135 -0.031868093 7
1.7712703 0.6116274 -0.50210893 0
1.703155 0.58777416 0.031449236 8
1.7482836 0.60300606 -0.4269571 1
1.7332803 0.59783125 0.096088827 9
1.7521303 0.60399163 -0.3602474 2
1.7332771 0.59681493 -0.29034239 3
1.7512916 0.60267687 -0.22740822 4
1.7315621 0.59521049 -0.16019225 5
1.7303351 0.59411436 -0.09587948 6
1.7344414 0.59518498 -0.032007713 7
1.7732887 0.60575062 -0.50210893 0
1.7126647 0.5847069 0.031588856 8
1.7465849 0.59594697 -0.42605728 1
1.7125701 0.58434093 0.094832763 9
1.7559814 0.59881204 -0.36062902 2
1.7464659 0.59488577 -0.29221961 3
1.7457637 0.59430748 -0.22643325 4
1.7410716 0.59203118 -0.16088949 5
1.7247312 0.58580327 -0.095460795 6
1.7364055 0.58943039 -0.032007713 7
1.784439 0.60295844 -0.50469714 0
1.7183834 0.58030427 0.031658668 8
1.7577837 0.59326726 -0.42830679 1
1.7032443 0.57452953 0.094204731 9
1.7505165 0.5904752 -0.35910255 2
1.7446853 0.58782911 -0.29159388 3
1.7478276 0.58820951 -0.22643325 4
1.7430254 0.58625382 -0.16088949 5
1.7304506 0.58135307 -0.095670134 6
1.7270774 0.57954901 -0.031798285 7
1.7755388 0.59305328 -0.50159132 0
1.7241919 0.57556921 0.031728476 8
1.7598435 0.58712906 -0.42830679 1
1.7147131 0.57173896 0.09472809 9
1.7525673 0.58436066 -0.35910255 2
1.757971 0.58548164 -0.2934711 3
1.7574049 0.58461082 -0.22740822 4
1.7374985 0.5776521 -0.16019225 5
1.7400515 0.57782644 -0.096088827 6
1.721498 0.57099825 -0.031658668 7
1.7775981 0.58685225 -0.50159132 0
1.7185947 0.56704038 0.031588856 8
1.7674345 0.58281285 -0.42965651 1
1.7204921 0.56700063 0.094937436 9
1.7527317 0.57762545 -0.35872093 2
1.7487463 0.57563537 -0.29159388 3
1.7556632 0.57723314 -0.22692074 4
1.7395041 0.57158393 -0.16019225 5
1.7458532 0.57299501 -0.096298166 6
1.7272812 0.56623095 -0.031728476 7
1.7796357 0.58064407 -0.50159132 0
1.7186625 0.56041753 0.03155395 8
1.7638994 0.57482868 -0.42830679 1
1.7300574 0.56346512 0.095356122 9
1.7659379 0.57515115 -0.36101064 2
1.7432309 0.56708366 -0.29034239 3
1.7689952 0.57478124 -0.22838317 4
1.7414886 0.56550878 -0.16019225 5
1.7364439 0.56319976 -0.095670134 6
1.7406611 0.56389618 -0.031937905 7
1.785329 0.57561362 -0.5026266 0
1.7206081 0.55441523 0.03155395 8
1.7566208 0.56568086 -0.42605728 1
1.7167072 0.55282766 0.094518751 9
1.764197 0.56778085 -0.3602474 2
1.7489612 0.56220376 -0.29096815 3
1.7596503 0.56496227 -0.22692074 4
1.7472465 0.56064349 -0.16054088 5
1.7345952 0.55591625 -0.095460795 6
1.7425214 0.5581212 -0.031937905 7
1.7946901 0.57172406 -0.50469714 0
1.7300586 0.55113477 0.03169357 8
1.7659147 0.56221682 -0.42785689 1
1.7148201 0.5456202 0.094309397 9
1.7624261 0.56042963 -0.35948417 2
1.7545812 0.55759698 -0.29159388 3
1.7539456 0.55672199 -0.22594579 4
1.7529913 0.55574477 -0.16088949 5
1.740237 0.55136794 -0.095670134 6
1.7368332 0.54962158 -0.031798285 7
1.7781498 0.55996621 -0.49952078 0
1.7376943 0.54689282 0.031798285 8
1.773443 0.55780458 -0.42920661 1
1.720525 0.5408293 0.094518751 9
1.7605294 0.55340427 -0.35872093 2
1.7640556 0.55383617 -0.29284537 3
1.7596668 0.55178362 -0.22643325 4
1.7434174 0.54635406 -0.15984364 5
1.7497754 0.54767597 -0.096088827 6
1.738741 0.54355592 -0.031798285 7
1.7800938 0.55375546 -0.49952078 0
1.7243164 0.53607494 0.031519048 8
1.7809623 0.55334485 -0.4305563 1
1.7262173 0.5360043 0.09472809 9
1.7624505 0.54725498 -0.35872093 2
1.7471106 0.54182422 -0.28971666 3
1.7691668 0.54798764 -0.22740822 4
1.7453138 0.54026544 -0.15984364 5
1.7554929 0.54274416 -0.096298166 6
1.7368066 0.5363028 -0.031728476 7
1.7912488 0.55037659 -0.50210893 0
1.7261772 0.53005224 0.031519048 8
1.7735683 0.54426569 -0.42830679 1
1.7433531 0.53466147 0.095565468 9
1.7718575 0.54340333 -0.3602474 2
1.7546576 0.53745747 -0.29065526 3
1.7748656 0.5429697 -0.22789569 4
1.7509997 0.53533441 -0.16019225 5
1.7420951 0.5319472 -0.095460795 6
1.7424932 0.53140479 -0.031798285 7
1.7931592 0.54412013 -0.50210893 0
1.7318443 0.52518362 0.031588856 8
1.7698623 0.5363763 -0.4269571 1
1.7280054 0.52336186 0.094623417 9
1.7737437 0.53721464 -0.3602474 2
1.7584138 0.53190166 -0.29096815 3
1.7691492 0.53447413 -0.22692074 4
1.7643018 0.53267461 -0.16123812 5
1.7439415 0.52586246 -0.095460795 6
1.7443376 0.52531868 -0.031798285 7
1.8043005 0.54062951 -0.50469714 0
1.7413293 0.52143091 0.031728476 8
1.7754577 0.53131193 -0.42785689 1
1.7183409 0.51389277 0.093995392 9
1.7718463 0.52989429 -0.35948417 2
1.7371479 0.51918793 0.15862344 10
1.7602599 0.52575994 -0.29096815 3
1.7557856 0.52375698 -0.22497083 4
1.7623318 0.52537394 -0.16088949 5
1.7457662 0.51977295 -0.095460795 6
1.7461609 0.51922613 -0.031798285 7
1.7895043 0.52939618 -0.50003839 0
1.7469742 0.51648277 0.031798285 8
1.7847768 0.5273211 -0.42965651 1
1.735448 0.51241648 0.094832763 9
1.7661535 0.52148271 -0.35795769 2
1.7236624 0.50860965 0.15722896 10
1.7658739 0.52072918 -0.29159388 3
1.7690287 0.5209893 -0.22643325 4
1.7565097 0.51696843 -0.16019225 5
1.7514023 0.51480192 -0.095670134 6
1.7441251 0.51200157 -0.031728476 7
1.7930127 0.52431422 -0.50055605 0
1.7293938 0.50538313 0.031449236 8
1.7901661 0.52280271 -0.4305563 1
1.7370491 0.50696224 0.094832763 9
1.7715523 0.51703209 -0.35872093 2
1.7137754 0.49984515 0.15618308 10
1.7599151 0.51296824 -0.29034239 3
1.7744685 0.51653922 -0.22692074 4
1.7542989 0.51033497 -0.15984364 5
1.7587649 0.51096922 -0.095984153 6
1.7495661 0.50763369 -0.031798285 7
1.8004003 0.51965892 -0.50210893 0
1.7311475 0.49934289 0.031449236 8
1.7751276 0.51169324 -0.4265072 1
1.7464852 0.50310671 0.095251448 9
1.7733464 0.51084459 -0.35872093 2
1.7193391 0.49496189 0.15653172 10
1.7541014 0.50463766 -0.28909093 3
1.7800767 0.51143783 -0.22740822 4
1.7598995 0.50530821 -0.16019225 5
1.7566979 0.50372535 -0.095774807 6
1.7513273 0.50152379 -0.031798285 7
1.7984875 0.51231223 -0.50107372 0
1.7386497 0.49493986 0.03155395 8
1.7731541 0.50442767 -0.42560738 1
1.7404598 0.49512675 0.094832763 9
1.7826726 0.50679833 -0.3602474 2
1.7306391 0.49168006 0.15740328 10
1.7672538 0.50174916 -0.29096815 3
1.7703922 0.5019725 -0.22594579 4
1.7616526 0.49916232 -0.16019225 5
1.7507584 0.49541539 -0.095356122 6
1.764526 0.49897864 -0.032007713 7
1.8039843 0.5070771 -0.50210893 0
1.7441318 0.49025333 0.031623758 8
1.7841978 0.5011794 -0.42785689 1
1.7383318 0.48796836 0.094623417 9
1.7787597 0.49898207 -0.35910255 2
1.7381002 0.48724896 0.1579262 10
1.7727122 0.49695188 -0.29159388 3
1.7796935 0.49823907 -0.22692074 4
1.767222 0.49408245 -0.16054088 5
1.7562388 0.49068129 -0.095565468 6
1.7585527 0.49066606 -0.031868093 7
1.7982099 0.49902609 -0.50003839 0
1.7516134 0.48576576 0.031728476 8
1.7934482 0.4970305 -0.42965651 1
1.7419491 0.48243093 0.09472809 9
1.7785126 0.49255714 -0.35872093 2
1.7320256 0.47935715 0.15722896 10
1.7820516 0.49286756 -0.29284537 3
1.7718545 0.48938164 -0.22570205 4
1.7650096 0.48715869 -0.16019225 5
1.7617918 0.48560968 -0.095774807 6
1.7486868 0.48134086 -0.031658668 7
1.7999411 0.49274564 -0.50003839 0
1.7513694 0.47912124 0.03169357 8
1.7932926 0.49025285 -0.42920661 1
1.7494028 0.47792605 0.095042109 9
1.7802213 0.4863455 -0.35872093 2
1.729844 0.47225919 0.15688033 10
1.764704 0.48144439 -0.28971666 3
1.7831284 0.48580316 -0.22692074 4
1.7590097 0.47890151 -0.159495 5
1.7673306 0.48050535 -0.095984153 6
1.7580756 0.47732922 -0.031798285 7
1.8072451 0.4879708 -0.50159132 0
1.7414473 0.46987882 0.031484142 8
1.7893482 0.48246849 -0.42785689 1
1.7549171 0.47285616 0.095251448 9
1.7856992 0.48115027 -0.35948417 2
1.7276343 0.46518156 0.15653172 10
1.7663736 0.47528186 -0.28971666 3
1.7886475 0.48060569 -0.22740822 4
1.7683678 0.47482473 -0.16019225 5
1.7574227 0.47122917 -0.095356122 6
1.7674576 0.47325873 -0.031937905 7
1.8108044 0.48215598 -0.50210893 0
1.7450097 0.46431094 0.031519048 8
1.789138 0.47571915 -0.427407 1
1.748836 0.46467546 0.094832763 9
1.791163 0.47592196 -0.3602474 2
1.7350246 0.46068153 0.15705465 10
1.7794777 0.47215316 -0.29159388 3
1.7788011 0.4713082 -0.22594579 4
1.7738662 0.46967024 -0.16054088 5
1.7629188 0.46611235 -0.095565468 6
1.769099 0.46708578 -0.031937905 7
1.8143445 0.47632393 -0.5026266 0
1.7562908 0.46075445 0.03169357 8
1.7889028 0.46897635 -0.4269571 1
1.7445713 0.45735449 0.094518751 9
1.7890148 0.46867201 -0.35948417 2
1.7481867 0.45765021 0.15810052 10
1.7811152 0.46593824 -0.29159388 3
1.7804353 0.4650965 -0.22594579 4
1.7754951 0.46347496 -0.16054088 5
1.764535 0.45995614 -0.095565468 6
1.7590274 0.45819265 -0.031728476 7
1.814126 0.46950328 -0.50210893 0
1.7578089 0.45492819 0.03169357 8
1.8017683 0.46596861 -0.42965651 1
1.7480909 0.45176211 0.094623417 9
1.7830361 0.46046114 -0.35795769 2
1.7324111 0.44706407 0.15653172 10
1.7903014 0.4620032 -0.29284537 3
1.74921 0.45107448 0.22180222 11
1.789657 0.4611716 -0.22692074 4
1.7732428 0.45628101 -0.16019225 5
1.769919 0.45509729 -0.095774807 6
1.7567425 0.45105466 -0.031658668 7
1.806314 0.46109521 -0.49952078 0
1.7496982 0.44631773 0.031519048 8
1.8071601 0.46064031 -0.4305563 1
1.7554636 0.44713587 0.094937436 9
1.7959685 0.45745292 -0.3602474 2
1.7300223 0.44033417 0.15618308 10
1.7842453 0.45380464 -0.29159388 3
1.7469262 0.44398746 0.22131474 11
1.791256 0.45492122 -0.22692074 4
1.76509 0.44794893 -0.1593207 5
1.7676249 0.44793466 -0.095565468 6
1.7621833 0.44590119 -0.031728476 7
1.8191537 0.45761445 -0.5026266 0
1.749306 0.4397203 0.031484142 8
1.797417 0.45148045 -0.42785689 1
1.7647625 0.44294986 0.095356122 9
1.7975545 0.45118055 -0.3602474 2
1.7296162 0.43380824 0.15600878 10
1.7858186 0.44757321 -0.29159388 3
1.7369117 0.43499285 0.21985231 11
1.7966844 0.44963002 -0.22740822 4
1.7763073 0.44420117 -0.16019225 5
1.7653022 0.44079447 -0.095356122 6
1.7676098 0.44071436 -0.031798285 7
1.8207395 0.45126289 -0.5026266 0
1.7624767 0.43649527 0.03169357 8
1.7951989 0.4442668 -0.4269571 1
1.7545888 0.43421683 0.09472809 9
1.7991182 0.44490442 -0.3602474 2
1.7407911 0.43015739 0.15688033 10
1.7912056 0.44228339 -0.29221961 3
1.7268555 0.42607528 0.21838988 11
1.7943883 0.44240481 -0.22692074 4
1.7817166 0.43895078 -0.16054088 5
1.7668301 0.43462923 -0.095356122 6
1.7807127 0.43771467 -0.032007713 7
1.8335642 0.4476532 -0.50573242 0
1.7677996 0.4315972 0.031763379 8
1.8004485 0.43923533 -0.42785689 1
1.7483321 0.42619777 0.094309397 9
1.7968453 0.43769181 -0.35948417 2
1.7500256 0.42596266 0.15757757 10
1.8003399 0.43820933 -0.2934711 3
1.7417611 0.42362994 0.22009605 11
1.7881297 0.43457714 -0.22594579 4
1.7909826 0.43460849 -0.16123812 5
1.7760257 0.43065077 -0.095774807 6
1.7705685 0.42867324 -0.031798285 7
1.8200128 0.43795422 -0.50159132 0
1.7770724 0.42729416 0.031902999 8
1.8057605 0.43385881 -0.42875671 1
1.7575775 0.4219569 0.09472809 9
1.7982869 0.43173036 -0.35948417 2
1.7417412 0.41783431 0.15670602 10
1.8018582 0.43192351 -0.2934711 3
1.7432293 0.41754702 0.22009605 11
1.7934967 0.42925724 -0.22643325 4
1.7846628 0.42681366 -0.16054088 5
1.7775182 0.42444819 -0.095774807 6
1.7642735 0.42063466 -0.031658668 7
1.8177708 0.43070811 -0.50055605 0
1.7649319 0.41786301 0.031658668 8
1.8110567 0.42844966 -0.42965651 1
1.7707019 0.41857642 0.095356122 9
1.799783 0.42545092 -0.35948417 2
1.7334939 0.40946144 0.15583447 10
1.7956649 0.4238157 -0.29221961 3
1.7466081 0.41191545 0.22033979 11
1.8027129 0.42481497 -0.22740822 4
1.782263 0.4196676 -0.16019225 5
1.7828774 0.41915551 -0.095984153 6
1.7696245 0.41538796 -0.031728476 7
1.8230258 0.42523834 -0.50159132 0
1.7585899 0.40988356 0.031519048 8
1.8087454 0.42124164 -0.42875671 1
1.7799332 0.41420406 0.095774807 9
1.8050815 0.42005625 -0.3602474 2
1.7387941 0.40430996 0.15618308 10
1.7971332 0.41754547 -0.29221961 3
1.7441682 0.40491787 0.21985231 11
1.8119198 0.42031354 -0.22838317 4
1.7837172 0.41344416 -0.16019225 5
1.7784922 0.41157812 -0.095670134 6
1.7866507 0.41280919 -0.032007713 7
1.8320307 0.4206008 -0.50366187 0
1.765857 0.40508413 0.031623758 8
1.8083053 0.41448951 -0.42830679 1
1.7657936 0.40442085 0.094937436 9
1.8065369 0.41375232 -0.3602474 2
1.7460212 0.39957169 0.15670602 10
1.8024313 0.41214997 -0.29284537 3
1.7339597 0.39617455 0.21838988 11
1.8056349 0.41221932 -0.22740822 4
1.7929195 0.40898728 -0.16088949 5
1.7760231 0.4044809 -0.095460795 6
1.7880807 0.40657049 -0.032007713 7
1.8334874 0.41420361 -0.50366187 0
1.7750629 0.40067846 0.031763379 8
1.8078401 0.40774643 -0.42785689 1
1.7573833 0.39636624 0.094414078 9
1.8041395 0.40658092 -0.35948417 2
1.7551805 0.39522478 0.15740328 10
1.8038591 0.4058553 -0.29284537 3
1.7372686 0.39055523 0.21863361 11
1.7992448 0.40448809 -0.22643325 4
1.7943364 0.40272585 -0.16088949 5
1.7774245 0.39827847 -0.095460795 6
1.7816136 0.39889064 -0.031868093 7
1.8310795 0.40728188 -0.5026266 0
1.7841899 0.39652562 0.031902999 8
1.8167918 0.40343934 -0.42965651 1
1.7664869 0.39226857 0.094832763 9
1.7978113 0.3988944 -0.35795769 2
1.7428651 0.38638392 0.15618308 10
1.8129092 0.40158132 -0.29409683 3
1.7559979 0.38865238 0.22082727 11
1.8044527 0.39937681 -0.22692074 4
1.7706165 0.39156377 0.28721371 12
1.7878798 0.39505509 -0.16019225 5
1.7865368 0.3941035 -0.09587948 6
1.7790209 0.39211991 -0.031798285 7
1.83242 0.40120795 -0.5026266 0
1.7757279 0.38846955 0.031728476 8
1.8257349 0.39907649 -0.43145612 1
1.7756505 0.38780418 0.095251448 9
1.8107017 0.39512739 -0.3602474 2
1.7382972 0.37932745 0.15566015 10
1.806511 0.39388353 -0.29284537 3
1.7553374 0.38240498 0.22058353 11
1.8135946 0.39476404 -0.22789569 4
1.7584606 0.3824425 0.28502363 12
1.789248 0.38881135 -0.16019225 5
1.7957088 0.389559 -0.096298166 6
1.7842873 0.38675517 -0.031868093 7
1.8376554 0.39530203 -0.50366187 0
1.7712743 0.38069838 0.031623758 8
1.8157536 0.38992673 -0.42875671 1
1.7848712 0.38296989 0.095670134 9
1.8159769 0.38931161 -0.36101064 2
1.7572089 0.37671289 0.15722896 10
1.8040794 0.38643172 -0.29221961 3
1.7489626 0.37430739 0.21960858 11
1.8150293 0.38811463 -0.22789569 4
1.7540554 0.37475625 0.28408504 12
1.7945582 0.38308313 -0.16054088 5
1.7854043 0.38047665 -0.095670134 6
1.7896044 0.38104612 -0.031937905 7
1.8390921 0.38856268 -0.50366187 0
1.7746143 0.37461722 0.031658668 8
1.8133569 0.38246509 -0.42785689 1
1.7667198 0.37230572 0.094623417 9
1.8173915 0.38265353 -0.36101064 2
1.7663763 0.37191224 0.1579262 10
1.8093499 0.38063061 -0.29284537 3
1.7444953 0.36666843 0.21887736 11
1.8086686 0.3798281 -0.22692074 4
1.7592835 0.36913645 0.28471076 12
1.8037503 0.37813702 -0.16123812 5
1.7906966 0.37474889 -0.09587948 6
1.7949041 0.37530157 -0.032007713 7
1.8461787 0.38299713 -0.50521481 0
1.7877238 0.37054592 0.031868093 8
1.8261958 0.37818772 -0.4305563 1
1.7680724 0.36582825 0.094623417 9
1.8110913 0.3743996 -0.35948417 2
1.7657764 0.36503184 0.15775189 10
1.8184707 0.37559512 -0.29409683 3
1.7438831 0.35987124 0.21863361 11
1.8100486 0.37319598 -0.22692074 4
1.7528856 0.36109203 0.28345928 12
1.805124 0.3715238 -0.16123812 5
1.7920581 0.36818355 -0.09587948 6
1.7845144 0.36630824 -0.031798285 7
1.8491993 0.37790573 -0.50573242 0
1.792734 0.36603957 0.031937905 8
1.8273101 0.37276709 -0.4305563 1
1.776978 0.36217731 0.095042109 9
1.8159772 0.37012601 -0.3602474 2
1.7629471 0.35899627 0.15740328 10
1.8195772 0.37019739 -0.29409683 3
1.7488339 0.35548663 0.2191211 11
1.8111479 0.36782414 -0.22692074 4
1.7500775 0.3551034 0.28283355 12
1.7944387 0.36410463 -0.16019225 5
1.7969943 0.36397016 -0.096088827 6
1.7816736 0.36021876 -0.031728476 7
1.788119 0.35859945 0.03183319 8
1.8286 0.36638671 -0.4305563 1
1.7821481 0.35675591 0.095251448 9
1.8172581 0.36378431 -0.3602474 2
1.7563747 0.35127681 0.15670602 10
1.8131101 0.36229578 -0.29284537 3
1.7636906 0.35210067 0.22082727 11
1.820208 0.36305252 -0.22789569 4
1.749369 0.34860665 0.28252068 12
1.789837 0.35667092 -0.15966932 5
1.798254 0.35769477 -0.096088827 6
1.7907654 0.35555634 -0.031868093 7
1.7775877 0.35003778 0.031623758 8
1.8317801 0.36037719 -0.43100622 1
1.7873023 0.3513028 0.095460795 9
1.8223697 0.35819548 -0.36101064 2
1.7673655 0.34706375 0.15757757 10
1.8182405 0.35672474 -0.2934711 3
1.7551688 0.34403247 0.21960858 11
1.8175678 0.35593396 -0.22740822 4
1.7641457 0.34515262 0.28471076 12
1.8048199 0.35278347 -0.16088949 5
1.7994915 0.3514159 -0.096088827 6
1.7959211 0.35006794 -0.031937905 7
1.7905788 0.34610814 0.03183319 8
1.8272868 0.35287187 -0.42965651 1
1.7806733 0.34354874 0.095042109 9
1.827526 0.35225734 -0.36177388 2
1.774495 0.34171352 0.15810052 10
1.8156562 0.34931216 -0.29284537 3
1.7505112 0.33677897 0.21887736 11
1.8149004 0.3488383 -0.22692074 4
1.7595202 0.3378745 0.28377217 12
1.8119104 0.34760788 -0.16141243 5
1.7968444 0.34406638 -0.09587948 6
1.8010603 0.34454873 -0.032007713 7
1.7918354 0.33954254 0.03183319 8
1.8343121 0.34726003 -0.43100622 1
1.7779955 0.33627802 0.094832763 9
1.8171699 0.34368721 -0.35948417 2
1.7737191 0.33514771 0.1579262 10
1.8285109 0.34517026 -0.29472256 3
1.755635 0.33109608 0.21936484 11
1.8161669 0.34218356 -0.22692074 4
1.7607466 0.33142367 0.28377217 12
1.8170289 0.34201762 -0.16176106 5
1.7999972 0.33816126 -0.095984153 6
1.7865876 0.33499646 -0.031728476 7
1.8008738 0.33474797 0.031972811 8
1.8335968 0.34049952 -0.4305563 1
1.7870134 0.33152637 0.095251448 9
1.8183585 0.33734149 -0.35948417 2
1.7709601 0.32822844 0.15757757 10
1.8297046 0.33878583 -0.29472256 3
1.7684919 0.32713255 0.22082727 11
1.8212541 0.33656371 -0.22740822 4
1.742467 0.32168955 0.28064346 12
1.8084152 0.33386472 -0.16088949 5
1.8031307 0.33223832 -0.096088827 6
1.7838126 0.32803515 -0.031658668 7
1.7882602 0.32595003 0.031728476 8
1.8424432 0.33549297 -0.43235591 1
1.7920331 0.3263137 0.095460795 9
1.8272513 0.33239719 -0.36101064 2
1.7701348 0.3216888 0.15740328 10
1.8269889 0.3316907 -0.29409683 3
1.7696232 0.32095689 0.22082727 11
1.8301731 0.33193886 -0.22838317 4
1.7610177 0.31907955 0.28345928 12
1.8056487 0.32683989 -0.16054088 5
1.8121413 0.32736284 -0.096507512 6
1.8006338 0.32495865 -0.031937905 7
1.7893313 0.32001767 0.031728476 8
1.8281987 0.32663974 -0.42875671 1
1.8009697 0.32177481 0.09587948 9
1.8283435 0.32633635 -0.36101064 2
1.7751147 0.31651604 0.15775189 10
1.8241892 0.32493788 -0.2934711 3
1.7609056 0.31334832 0.21960858 11
1.8273551 0.32517281 -0.22789569 4
1.7717907 0.31496629 0.28502363 12
1.8106458 0.32154745 -0.16088949 5
1.7571608 0.31173202 0.34689078 13
1.8053504 0.31995708 -0.096088827 6
1.8056396 0.31968334 -0.032007713 7
1.7903827 0.31408262 0.031728476 8
1.829272 0.32057491 -0.42875671 1
1.7863435 0.31273049 0.095042109 9
1.8314053 0.32029086 -0.36139226 2
1.7859676 0.31234434 0.15862344 10
1.8330405 0.32024622 -0.29472256 3
1.7599796 0.30716544 0.21936484 11
1.8284791 0.31879255 -0.22789569 4
1.7728795 0.30877918 0.28502363 12
1.8196088 0.31659076 -0.16158675 5
1.7601722 0.30593389 0.3472724 13
1.7985852 0.31228614 -0.095670134 6
1.8146259 0.31474504 -0.032147333 7
1.8053179 0.30988696 0.031972811 8
1.8304346 0.31386855 -0.42875671 1
1.7835402 0.30550706 0.094832763 9
1.8325669 0.31357667 -0.36139226 2
1.7949556 0.30714089 0.1593207 10
1.8380963 0.31419173 -0.29534832 3
1.7650073 0.30138138 0.21985231 11
1.8257216 0.31141979 -0.22740822 4
1.7681572 0.30128413 0.28408504 12
1.8246852 0.31058851 -0.16193536 5
1.8075938 0.30703011 -0.096088827 6
1.8039379 0.30608526 -0.031937905 7
1.8084137 0.30359781 0.032007713 8
1.843104 0.30909181 -0.43145612 1
1.7925272 0.30028835 0.095251448 9
1.8259053 0.30587992 -0.35986578 2
1.7862443 0.29891449 0.15844914 10
1.8392354 0.30745307 -0.29534832 3
1.7758899 0.29654545 0.22107102 11
1.8307669 0.30537972 -0.22789569 4
1.763404 0.29382786 0.28314641 12
1.8139665 0.30225286 -0.16088949 5
1.8165355 0.30202839 -0.096507512 6
1.8050476 0.29947183 -0.031937905 7
1.8015692 0.29598787 0.031868093 8
1.8480177 0.303287 -0.43235591 1
1.7994775 0.29499832 0.095565468 9
1.8347116 0.30077443 -0.36139226 2
1.7735132 0.29042491 0.15722896 10
1.8402973 0.30103058 -0.29534832 3
1.7769142 0.29034412 0.22107102 11
1.8357396 0.29962808 -0.22838317 4
1.7741672 0.28925949 0.28471076 12
1.8150105 0.29591858 -0.16088949 5
1.8096931 0.29440412 -0.096088827 6
1.8100299 0.29380953 -0.032007713 7
1.7986429 0.28906235 0.031798285 8
1.8548375 0.29776049 -0.43370563 1
1.806362 0.28997862 0.09587948 9
1.8415657 0.29530117 -0.36253712 2
1.7745163 0.28423196 0.15722896 10
1.8335347 0.29335609 -0.29409683 3
1.7739964 0.28351361 0.22058353 11
1.8406438 0.29416496 -0.22887065 4
1.7829193 0.28462052 0.28596222 12
1.8239026 0.29083568 -0.16158675 5
1.8146546 0.28871244 -0.096298166 6
1.8109943 0.28780514 -0.032007713 7
1.8035424 0.28371724 0.031868093 8
1.8013945 0.28305718 0.095565468 9
1.8464139 0.2898019 -0.36330032 2
1.7872591 0.28019688 0.15827483 10
1.8384006 0.28788584 -0.29472256 3
1.7592368 0.27517542 0.21863361 11
1.8298416 0.28621924 -0.22740822 4
1.77995 0.27809623 0.28533649 12
1.824857 0.28478619 -0.16158675 5
1.8077084 0.28146368 -0.09587948 6
1.8158904 0.28241304 -0.032077521 7
1.8064498 0.27803949 0.031902999 8
1.8003974 0.27646467 0.095460795 9
1.8415432 0.28278294 -0.3621555 2
1.7960559 0.27547717 0.15897207 10
1.8432504 0.28238654 -0.29534832 3
1.7797623 0.27234226 0.22107102 11
1.8308296 0.27982968 -0.22740822 4
1.7789572 0.27158278 0.28502363 12
1.8337184 0.27961624 -0.16228399 5
1.8165295 0.27667081 -0.096298166 6
1.8168651 0.27607307 -0.032077521 7
1.823229 0.27411088 0.032182239 8
1.8092521 0.27136293 0.09587948 9
1.8367424 0.27515924 -0.36101064 2
1.7812898 0.26653412 0.15757757 10
1.850134 0.27650428 -0.29628691 3
1.7826654 0.26642102 0.22131474 11
1.8396485 0.27460986 -0.22838317 4
1.7681715 0.26362398 0.28314641 12
1.8208886 0.27115893 -0.16106381 5
1.8254339 0.27118453 -0.096716851 6
1.8178179 0.26972887 -0.032077521 7
1.8064145 0.26481566 0.031868093 8
1.8082582 0.26444125 0.095774807 9
1.8454622 0.26988199 -0.36253712 2
1.7822094 0.26031417 0.15757757 10
1.8432692 0.26890418 -0.29503542 3
1.7875586 0.26045826 0.22180222 11
1.8406427 0.26786488 -0.22838317 4
1.7789 0.25856259 0.28471076 12
1.827739 0.26566133 -0.16158675 5
1.8303225 0.2653845 -0.096926205 6
1.8187943 0.26306483 -0.032077521 7
1.8073279 0.25850886 0.031868093 8
1.8190565 0.2595377 0.096298166 9
1.8483367 0.2637153 -0.36291873 2
1.7890245 0.25493512 0.15810052 10
1.8422409 0.26218951 -0.29472256 3
1.7845262 0.25365776 0.22131474 11
1.8533587 0.26311272 -0.2298456 4
1.7895708 0.25373757 0.28627509 12
1.8286552 0.25927922 -0.16158675 5
1.8193721 0.25731608 -0.096298166 6
1.8276219 0.25783134 -0.032217141 7
1.8121803 0.25275052 0.031937905 8
1.8139727 0.2526778 0.095984153 9
1.857024 0.25834426 -0.36444521 2
1.7938504 0.2492366 0.15844914 10
1.8529279 0.25711519 -0.29628691 3
1.7736028 0.24579243 0.21985231 11
1.8405017 0.25473613 -0.22813943 4
1.8374437 0.25398609 -0.16228399 5
1.8202593 0.25096327 -0.096298166 6
1.8324289 0.25231522 -0.032286953 7
1.8189529 0.24754822 0.032042619 8
1.802969 0.24473284 0.095356122 9
1.8501327 0.25080502 -0.36291873 2
1.8006326 0.24377564 0.15897207 10
1.8498554 0.25043958 -0.29566118 3
1.7842442 0.24123983 0.22107102 11
1.8433036 0.24889652 -0.22838317 4
1.8383191 0.24757104 -0.16228399 5
1.8210816 0.24492516 -0.096298166 6
1.8174427 0.24379085 -0.032007713 7
1.8178234 0.24093586 0.032007713 8
1.8176726 0.24026944 0.096088827 9
1.8509542 0.24466877 -0.36291873 2
1.79353 0.23676056 0.15827483 10
1.8663858 0.24604583 -0.29816413 3
1.792948 0.23604615 0.22204597 11
1.8520335 0.243497 -0.22935812 4
1.8351791 0.24095435 -0.16193536 5
1.8298466 0.23960541 -0.096716851 6
1.8182826 0.2374448 -0.032007713 7
1.8166702 0.23433273 0.031972811 8
1.822462 0.23443311 0.096298166 9
1.8517969 0.23820664 -0.36291873 2
1.7923695 0.2302442 0.15810052 10
1.8515589 0.23751818 -0.29566118 3
1.799668 0.23054323 0.22277717 11
1.8528724 0.23703022 -0.22935812 4
1.8320564 0.23404148 -0.16158675 5
1.830672 0.23321614 -0.096716851 6
1.8349705 0.23311287 -0.032286953 7
1.8194612 0.22823834 0.032007713 8
1.8252511 0.22831754 0.096402846 9
1.8565133 0.23222809 -0.36368197 2
1.7951392 0.22423272 0.15827483 10
1.8543366 0.23129936 -0.29597405 3
1.7886424 0.22278717 0.22131474 11
1.8536885 0.23056054 -0.22935812 4
1.8368164 0.22813739 -0.16193536 5
1.8275108 0.22633302 -0.096507512 6
1.8357731 0.22670573 -0.032286953 7
1.8242168 0.22237016 0.032077521 8
1.8141409 0.22049844 0.095774807 9
1.8612105 0.22621948 -0.36444521 2
1.8077782 0.21940583 0.1593207 10
1.8610159 0.22553758 -0.29691264 3
1.7854679 0.21606484 0.22082727 11
1.8505404 0.22361268 -0.22887065 4
1.8435358 0.22243983 -0.1624583 5
1.8282896 0.21995282 -0.096507512 6
1.8405242 0.22077212 -0.032356761 7
1.8289913 0.21615237 0.032147333 8
1.812916 0.21393177 0.095670134 9
1.8600773 0.21916696 -0.36406359 2
1.8125279 0.21324453 0.15966932 10
1.86183 0.21871552 -0.29691264 3
1.7921624 0.21021348 0.22155848 11
1.8552529 0.21761374 -0.22935812 4
1.8522543 0.21660753 -0.16315554 5
1.8330512 0.21371244 -0.096716851 6
1.8333383 0.21342249 -0.032217141 7
1.8396313 0.21122606 0.032321859 8
1.8215525 0.20882817 0.096088827 9
1.8092659 0.20677979 0.1593207 10
1.8664703 0.21298768 -0.2975384 3
1.8027114 0.20539325 0.22277717 11
1.8559642 0.21146066 -0.22935812 4
1.8391048 0.20888954 -0.16193536 5
1.841688 0.20853186 -0.097135544 6
1.8419842 0.20823979 -0.032356761 7
1.8283972 0.2037957 0.032112427 8
1.8302107 0.20335022 0.096507512 9
1.8059813 0.20033996 0.15897207 10
1.8671663 0.20679742 -0.2975384 3
1.7994365 0.19897728 0.22228971 11
1.8645835 0.20585258 -0.23033307 4
1.8437836 0.202904 -0.16228399 5
1.8463403 0.2028601 -0.09734489 6
1.8426999 0.20180832 -0.032356761 7
1.8271093 0.19719711 0.032077521 8
1.832895 0.19717436 0.096612185 9
1.8027414 0.19329408 0.15862344 10
1.8659477 0.19974181 -0.29722553 3
1.8692384 0.19976412 -0.23082055 4
1.8563678 0.1977333 -0.16332985 5
1.8391269 0.19524768 -0.096926205 6
1.8433932 0.19537526 -0.032356761 7
1.8298086 0.19070677 0.032112427 8
1.825626 0.18994878 0.096193492 9
1.8192593 0.1886445 0.16001794 10
1.8685983 0.193431 -0.2975384 3
1.8660088 0.19250466 -0.23033307 4
1.8570466 0.19125256 -0.16332985 5
1.8358234 0.18841928 -0.096716851 6
1.8559994 0.19016272 -0.03256619 7
1.8403792 0.18564084 0.032286953 8
1.8262779 0.18357539 0.096193492 9
1.8238715 0.18268959 0.16036656 10
1.8770918 0.18802045 -0.29878986 3
1.8626863 0.18592085 -0.2298456 4
1.8616682 0.18516298 -0.16367848 5
1.8404132 0.18272458 -0.096926205 6
1.8407322 0.18210743 -0.032286953 7
1.8430063 0.17940971 0.032321859 8
1.8308835 0.17758451 0.096402846 9
1.8185179 0.17606479 0.15984364 10
1.8816689 0.18184745 -0.29941559 3
1.867276 0.17979868 -0.23033307 4
1.8464369 0.17714164 -0.16228399 5
1.8450162 0.17667952 -0.097135544 6
1.8453379 0.17606121 -0.032356761 7
1.8376484 0.17241532 0.032217141 8
1.8414352 0.17212136 0.096926205 9
1.8052645 0.16810483 0.15862344 10
1.8823229 0.17494909 -0.29941559 3
1.8718454 0.17364669 -0.23082055 4
1.8569638 0.17161155 -0.16315554 5
1.8575845 0.17101501 -0.097763576 6
1.8499237 0.16998415 -0.03242657 7
1.8283099 0.16478088 0.032042619 8
1.8460321 0.16572858 0.097135544 9
1.8157625 0.1626908 0.159495 10
1.875052 0.16767414 -0.29816413 3
1.8803785 0.16748795 -0.2317955 4
1.8575513 0.16512887 -0.16315554 5
1.8541913 0.16417699 -0.097554229 6
1.8624862 0.16425717 -0.032636002 7
1.8428197 0.1596061 0.032286953 8
1.8386399 0.15859753 0.096716851 9
1.8183043 0.15652375 0.15966932 10
1.8795621 0.1614656 -0.29878986 3
1.8730401 0.16024762 -0.23082055 4
1.8660573 0.15932126 -0.1638528 5
1.8428124 0.15668966 -0.096926205 6
1.8670334 0.15809183 -0.03270581 7
1.8473512 0.15350318 0.032356761 8
1.8351748 0.15216979 0.096507512 9
1.8247966 0.15066707 0.16019225 10
1.8938953 0.15604044 -0.30097994 3
1.8696311 0.1533834 -0.23033307 4
1.8745449 0.15345807 -0.16455004 5
1.8552922 0.15122917 -0.097554229 6
1.8595749 0.15125069 -0.03256619 7
1.8558235 0.1480117 0.032496382 8
1.8436588 0.1463948 0.096926205 9
1.8133942 0.14335471 0.15914638 10
1.8963716 0.14991435 -0.30129281 3
1.8780454 0.14780511 -0.23130804 4
1.8651376 0.14613511 -0.16367848 5
1.8637483 0.14569812 -0.097972922 6
1.8521167 0.14413929 -0.03242657 7
1.8483531 0.14092596 0.032356761 8
1.8481417 0.14026013 0.097135544 9
1.8825089 0.14154758 -0.2317955 4
1.8576649 0.13935262 -0.16298124 5
1.8682288 0.13949022 -0.098182261 6
1.8565972 0.13796923 -0.032496382 7
1.8448451 0.13418253 0.032286953 8
1.8565884 0.13438521 0.097554229 9
1.8909115 0.13554275 -0.23277046 4
1.8700639 0.13371943 -0.16402711 5
1.8567511 0.13211699 -0.097554229 6
1.8650461 0.13205297 -0.032636002 7
1.849292 0.12801859 0.032356761 8
1.8490758 0.12735425 0.097135544 9
1.8834512 0.12840083 -0.2317955 4
1.8784704 0.12773192 -0.16472435 5
1.857201 0.12563443 -0.097554229 6
1.8734766 0.12607853 -0.032775622 7
1.8597046 0.12221775 0.032531288 8
1.8495091 0.12089938 0.097135544 9
1.8838879 0.12182599 -0.2317955 4
1.8908342 0.12194382 -0.16577022 5
1.8656008 0.1196626 -0.097972922 6
1.8619314 0.11877379 -0.03256619 7
1.8661073 0.11609744 0.032636002 8
1.8578737 0.11526058 0.097554229 9
1.8823203 0.11512756 -0.23155177 4
1.8753388 0.11437295 -0.16437572 5
1.8739816 0.11363275 -0.098391607 6
1.8663071 0.11284138 -0.032636002 7
1.856501 0.10932119 0.032461476 8
1.8582647 0.10877419 0.097554229 9
1.8926005 0.10945838 -0.23277046 4
1.8757266 0.10782559 -0.16437572 5
1.8823241 0.10787525 -0.0988103 6
1.8746755 0.10678043 -0.032775622 7
1.8508813 0.10250878 0.032356761 8
1.8646158 0.10261574 0.097868249 9
1.892971 0.1028517 -0.23277046 4
1.8840319 0.10203533 -0.16507298 5
1.8667341 0.10044594 -0.097972922 6
1.8790306 0.10044894 -0.03284543 7
1.8632098 0.096668527 0.03256619 8
1.8510002 0.09538725 0.097135544 9
1.8853885 0.095839761 -0.2317955 4
1.8883562 0.095660217 -0.16542161 5
1.8710629 0.094129413 -0.098182261 6
1.8873585 0.094288789 -0.03298505 7
1.8675307 0.090357803 0.032636002 8
1.8896774 0.089446053 -0.232283 4
1.8966395 0.089443855 -0.16611885 5
1.8673899 0.087411232 -0.097972922 6
1.8756909 0.08714278 -0.032775622 7
1.8738277 0.084106848 0.032740716 8
1.8979107 0.083196536 -0.23325793 4
1.8849971 0.082300857 -0.16507298 5
1.879656 0.081410326 -0.098600946 6
1.8799793 0.08076781 -0.03284543 7
1.866118 0.077234194 0.032601096 8
1.9041401 0.076810613 -0.23398916 4
1.8852729 0.075720876 -0.16507298 5
1.8919028 0.075324848 -0.099228986 6
1.8802499 0.074204475 -0.03284543 7
1.8623797 0.070569605 0.032531288 8
1.8855257 0.069139086 -0.16507298 5
1.8841704 0.068431757 -0.0988103 6
1.888491 0.067927748 -0.03298505 7
1.8666228 0.063879475 0.032601096 8
1.8977144 0.06262251 -0.16611885 5
1.8804162 0.061393738 -0.098600946 6
1.8967218 0.061264265 -0.033124667 7
1.8748294 0.057609417 0.032740716 8
1.9098705 0.056349918 -0.16716471 5
1.8886046 0.055063602 -0.099019639 6
1.8809333 0.054181959 -0.03284543 7
1.8790171 0.051173069 0.032810524 8
1.8941218 0.049268819 -0.16577022 5
1.8927785 0.048572779 -0.099228986 6
1.881111 0.047616344 -0.03284543 7
1.8611921 0.044187002 0.032496382 8
1.8982661 0.042746916 -0.16611885 5
1.9049172 0.042231459 -0.099857017 6
1.8892626 0.041223742 -0.03298505 7
1.9023877 0.036195766 -0.16646746 5
1.8890777 0.035282914 -0.099019639 6
1.8973863 0.035106849 -0.033124667 7
1.9104711 0.029679166 -0.16716471 5
1.8931783 0.029079141 -0.099228986 6
1.9014962 0.028543947 -0.033194479 7
1.9105591 0.023343123 -0.16716471 5
1.8972626 0.022519248 -0.099438325 6
1.8935859 0.021813668 -0.033054858 7
1.9066441 0.016638603 -0.16681609 5
1.9093127 0.015996318 -0.10006636 6
1.8976499 0.015236197 -0.033124667 7
1.9086829 0.009994816 -0.1669904 5
1.9033654 0.0093016857 -0.099752344 6
1.8976915 0.0086115636 -0.033124667 7
1.912691 0.0033386552 -0.16733903 5
1.8993917 0.0026524663 -0.099542998 6
1.9057088 0.0019952008 -0.033264287 7
1.89939 -0.0036465712 -0.099542998 6
1.9177032 -0.0043511377 -0.033473715 7
1.9113472 -0.010675088 -0.10017103 6
1.9112983 -0.017346866 -0.10017103 6
1.9192144 -0.02411883 -0.10058971 6
1.9111305 -0.030689714 -0.10017103 6
1.9110183 -0.037027083 -0.10017103 6
1.914871 -0.043788884 -0.10038038 6
1.9266858 -0.050788544 -0.10100841 6
1.9264967 -0.057513621 -0.10100841 6
1.9302766 -0.064371139 -0.10121775 6
