# .PCD v0.7 - Point Cloud Data file format
VERSION 0.7
FIELDS x y z intensity
SIZE 4 4 4 4
TYPE F F F F
COUNT 1 1 1 1
WIDTH 518
HEIGHT 1
VIEWPOINT 0 0 0 1 0 0 0
POINTS 518
DATA ascii
2.5912523 1.2293098 -0.15030889 6
2.5885105 1.2164056 -0.14989018 6
2.5784655 1.2001681 -0.14905281 6
2.5790122 1.1894867 -0.14884347 6
2.586782 1.1821365 -0.14905281 6
2.5908916 1.1731017 -0.14905281 6
2.5911236 1.1628672 -0.14884347 6
2.5878673 1.1505692 -0.14842479 6
2.5880127 1.140371 -0.14821544 6
2.5852637 1.1294748 -0.24682505 5
2.5956385 1.1329286 -0.14842479 6
2.5855341 1.1188605 -0.24647643 5
2.595911 1.1222754 -0.14821544 6
2.6159914 1.1298746 -0.049739357 7
2.572942 1.102765 -0.24490763 5
2.6034851 1.1147789 -0.14842479 6
2.6235967 1.1223083 -0.049809169 7
2.576776 1.0937763 -0.24490763 5
2.5926502 1.0994467 -0.14758742 6
2.6164508 1.1084638 -0.049599741 7
2.5805781 1.0847756 -0.24490763 5
2.5946305 1.0896171 -0.14748274 6
2.629524 1.1031913 -0.049774267 7
2.5843492 1.0757605 -0.24490763 5
2.6002622 1.081321 -0.14758742 6
2.6148922 1.0863332 -0.049425215 7
2.5733519 1.0606594 -0.24351314 5
2.6077149 1.073758 -0.14779675 6
2.6223671 1.0787209 -0.049495026 7
2.5770383 1.0516708 -0.24351314 5
2.6114473 1.0646482 -0.14779675 6
2.6224124 1.0680513 -0.049425215 7
2.5769994 1.0411755 -0.24316452 5
2.6003306 1.0495462 -0.14695938 6
2.6259398 1.0593497 -0.049425215 7
2.5927405 1.0385978 -0.34294036 4
2.5878372 1.0355843 -0.24386176 5
2.6019421 1.0401766 -0.14685471 6
2.6405802 1.055087 -0.049634643 7
2.5797427 1.0229551 -0.34074673 4
2.5875523 1.0255293 -0.24351314 5
2.6072345 1.0322771 -0.14695938 6
2.6219323 1.0370393 -0.049215786 7
2.6458859 1.0417105 0.049634643 8
2.5759065 1.0110419 -0.33977175 4
2.5799878 1.0121256 -0.24246727 5
2.610822 1.0231692 -0.14695938 6
2.6292605 1.029338 -0.049285594 7
2.6420538 1.0295634 0.049495026 8
2.5812697 1.0027648 -0.3400155 4
2.5797906 1.0016707 -0.24211864 5
2.6181011 1.0154958 -0.14716873 6
2.6291087 1.0187083 -0.049215786 7
2.649363 1.021773 0.049564835 8
2.5847545 0.99374771 -0.3400155 4
2.5832713 0.99266005 -0.24211864 5
2.6067138 1.0006239 -0.14633135 6
2.6289141 1.0080932 -0.049145978 7
2.6547816 1.0132325 0.049599741 8
2.5770752 0.98048437 -0.33855307 4
2.5941694 0.98646975 -0.24281588 5
2.606456 0.99010074 -0.14612199 6
2.6361566 1.0003288 -0.049215786 7
2.647078 0.9997195 0.049390312 8
2.5730512 0.96868438 -0.33757812 4
2.5975971 0.97740775 -0.24281588 5
2.6136358 0.98240131 -0.14633135 6
2.6283994 0.98690373 -0.049006358 7
2.6503785 0.99093652 0.049390312 8
2.5762491 0.96014702 -0.33757812 4
2.5933561 0.96600592 -0.24211864 5
2.6093915 0.97094321 -0.14591266 6
2.6279087 0.97678936 -0.04893655 7
2.6463192 0.97890431 0.049250688 8
2.5833097 0.9525224 -0.33806559 4
2.5817564 0.95143634 -0.24072415 5
2.6202617 0.9645893 -0.14633135 6
2.6313028 0.96760964 -0.04893655 7
2.6422088 0.96691155 0.049111072 8
2.5866191 0.94349849 -0.33806559 4
2.5925491 0.94514883 -0.24142142 5
2.6161063 0.95270258 -0.14591266 6
2.6384223 0.95978647 -0.049006358 7
2.6455681 0.95768189 0.049111072 8
2.5768964 0.93079031 -0.43394926 3
2.5786936 0.9304207 -0.33660313 4
2.601455 0.93812156 -0.24194433 5
2.6118999 0.9408567 -0.14549398 6
2.6455202 0.9519242 -0.049076166 7
2.6526599 0.94979 0.04918088 8
2.5782695 0.92112422 -0.43363637 3
2.5744472 0.9187454 -0.33562821 4
2.6065907 0.92970377 -0.24211864 5
2.6151681 0.93173426 -0.14549398 6
2.6375234 0.93866032 -0.048866738 7
2.6710396 0.94586408 0.04946012 8
2.5758815 0.91014504 -0.43269777 3
2.5851264 0.91239542 -0.33660313 4
2.5929101 0.91463369 -0.24054985 5
2.6221721 0.92392677 -0.14570332 6
2.6370108 0.92812198 -0.048796929 7
2.6554513 0.92992723 0.049111072 8
2.6921303 0.94171596 0.14947151 9
2.5678542 0.8972379 -0.43082058 3
2.5920429 0.90467602 -0.33709061 4
2.5904431 0.9036091 -0.24002692 5
2.6253808 0.91476983 -0.14570332 6
2.6402347 0.91891074 -0.048796929 7
2.6473434 0.91672552 0.048901644 8
2.6916261 0.93100774 0.14926216 9
2.5597682 0.8843978 -0.42894334 3
2.5951853 0.89562184 -0.33709061 4
2.5992322 0.89650947 -0.24054985 5
2.6247814 0.90429813 -0.14549398 6
2.6434262 0.90968955 -0.048796929 7
2.6562033 0.9094215 0.049006358 8
2.6852498 0.91884422 0.1487388 9
2.5703166 0.87801307 -0.43019485 3
2.5832665 0.88142866 -0.33514073 4
2.6080022 0.88936192 -0.24107277 5
2.6165786 0.89126581 -0.14486594 6
2.6502137 0.90220803 -0.048866738 7
2.6743565 0.90574044 0.049285594 8
2.6846569 0.90818459 0.14852946 9
2.5769572 0.87074882 -0.43082058 3
2.5824137 0.87158704 -0.33465323 4
2.6110909 0.88025218 -0.24107277 5
2.6270909 0.8851341 -0.14528462 6
2.6419759 0.88912386 -0.048657309 7
2.6737092 0.89513057 0.049215786 8
2.6821282 0.89690822 0.14821544 9
2.5799811 0.86174756 -0.43082058 3
2.592972 0.8650822 -0.33562821 4
2.6064358 0.86906707 -0.24037553 5
2.626374 0.87469804 -0.14507528 6
2.6412687 0.87863314 -0.048587501 7
2.6597314 0.88013738 0.048901644 8
2.7061028 0.89443433 0.14936683 9
2.5717185 0.84902138 -0.42894334 3
2.5997465 0.85726833 -0.33611569 4
2.599992 0.85684615 -0.23950398 5
2.6332057 0.86677319 -0.14528462 6
2.6481185 0.87065774 -0.048657309 7
2.6551847 0.86836207 0.048762023 8
2.7016146 0.88250148 0.14894815 9
2.5746663 0.84003979 -0.42894334 3
2.6064978 0.84941894 -0.33660313 4
2.6067562 0.84899855 -0.23985259 5
2.628618 0.85510558 -0.14486594 6
2.6587493 0.86387986 -0.048796929 7
2.6658111 0.86154753 0.048901644 8
2.6856716 0.8669309 0.14790143 9
2.5596082 0.82623786 -0.52281672 2
2.5775831 0.83104676 -0.42894334 3
2.5905516 0.83422989 -0.33416575 4
2.6153932 0.84172589 -0.24037553 5
2.6277845 0.84470159 -0.1446566 6
2.6541324 0.85214919 -0.048657309 7
2.6745169 0.85406232 0.049006358 8
2.684726 0.8568061 0.14769208 9
2.5456426 0.81192946 -0.51938212 2
2.5804682 0.82204479 -0.42894334 3
2.5896649 0.82397765 -0.33367831 4
2.6145182 0.83138436 -0.24002692 5
2.6307173 0.83552307 -0.1446566 6
2.6531317 0.8421337 -0.048587501 7
2.6754274 0.84458727 0.048971456 8
2.6972249 0.85043168 0.14821544 9
2.5503337 0.80362922 -0.51976377 2
2.7232511 0.85759294 0.24978836 10
2.5831802 0.8134824 -0.42894334 3
2.599957 0.81776965 -0.33465323 4
2.6059995 0.81866932 -0.23898104 5
2.6410954 0.82918823 -0.14507528 6
2.648423 0.8304733 -0.048447877 7
2.6669052 0.83167034 0.048762023 8
2.7097113 0.84398174 0.1487388 9
2.5492358 0.79399914 -0.51900047 2
2.7127638 0.8444131 0.24856818 10
2.5784595 0.80211276 -0.42769188 3
2.6065874 0.80986649 -0.33514073 4
2.6087 0.81002229 -0.23898104 5
2.6401582 0.81878144 -0.14486594 6
2.6589463 0.82359082 -0.048587501 7
2.6621478 0.82000065 0.048622403 8
2.6992784 0.83040625 0.1480061 9
2.5557451 0.7862497 -0.51976377 2
2.7004595 0.83025378 0.24717368 10
2.5736899 0.79078835 -0.42644039 3
2.6056032 0.79959732 -0.33465323 4
2.6115112 0.8009131 -0.23898104 5
2.6353619 0.8072201 -0.14444725 6
2.6618052 0.81430364 -0.048587501 7
2.6726463 0.81303161 0.048762023 8
2.7001061 0.82087022 0.14790143 9
2.5603528 0.77789378 -0.52014536 2
2.7052472 0.82140177 0.24734798 10
2.5802152 0.78294605 -0.42706612 3
2.5968428 0.78749532 -0.33319083 4
2.6142912 0.79179168 -0.23898104 5
2.6305163 0.79570347 -0.14402856 6
2.6644907 0.80547285 -0.048587501 7
2.6791577 0.80531621 0.048831832 8
2.689424 0.80788887 0.14716873 9
2.5497553 0.7654494 -0.517474 2
2.7136812 0.81414443 0.24787092 10
2.5827975 0.77438474 -0.42706612 3
2.5956364 0.77774048 -0.33270332 4
2.6169028 0.78311729 -0.23898104 5
2.6293132 0.7858327 -0.14381923 6
2.6556506 0.79319805 -0.048378069 7
2.6818137 0.79642659 0.048831832 8
2.6960568 0.7996338 0.14737807 9
2.5485151 0.75587386 -0.51671082 2
2.7106354 0.80344176 0.24734798 10
2.5891395 0.76693833 -0.42769188 3
2.6021426 0.76980221 -0.33319083 4
2.6118426 0.77217609 -0.2382838 5
2.6395667 0.77937084 -0.14423791 6
2.6507313 0.78166014 -0.048238453 7
2.6769021 0.78480941 0.048692215 8
2.7084157 0.79302341 0.14790143 9
2.5586751 0.74917936 -0.51823723 2
2.7019508 0.79061711 0.24630213 10
2.5804245 0.75456983 -0.42581466 3
2.6048141 0.76071364 -0.33319083 4
2.6106966 0.76193851 -0.23793517 5
2.6499414 0.77238715 -0.1446566 6
2.6572833 0.77352232 -0.048308261 7
2.671941 0.77323878 0.048552595 8
2.7111676 0.78356367 0.14790143 9
2.5707047 0.74296808 -0.52014536 2
2.7085218 0.78228831 0.24665076 10
2.5830429 0.74555719 -0.42581466 3
2.611268 0.75271666 -0.33367831 4
2.6171699 0.75392318 -0.2382838 5
2.6449435 0.76092416 -0.14423791 6
2.6676552 0.76644999 -0.048447877 7
2.6746242 0.76390654 0.048552595 8
2.6985207 0.76971304 0.14706406 9
2.7112362 0.77282828 0.24665076 10
2.5856299 0.73653543 -0.42581466 3
2.6024234 0.74033856 -0.33221585 4
2.6236186 0.74587196 -0.23863243 5
2.6360555 0.74841464 -0.14360988 6
2.6626189 0.75495213 -0.048308261 7
2.6812556 0.75518191 0.048622403 8
2.6974783 0.75873631 0.14685471 9
2.7217226 0.76504171 0.24734798 10
2.5921154 0.72812265 -0.42644039 3
2.6051195 0.73079455 -0.33221585 4
2.6301713 0.73732704 -0.23898104 5
2.6387811 0.7387473 -0.14360988 6
2.6653681 0.7451874 -0.048308261 7
2.6877289 0.74688941 0.048692215 8
2.7020352 0.74984908 0.14695938 9
2.7128572 0.75234246 0.24630213 10
2.5984483 0.72012568 -0.42706612 3
2.7644012 0.76559794 0.35220242 11
2.6076546 0.72169709 -0.33221585 4
2.6212072 0.72495544 -0.23793517 5
2.649044 0.73165911 -0.14402856 6
2.6640973 0.73481613 -0.048238453 7
2.6787481 0.73433149 0.048482787 8
2.7083595 0.74193937 0.14716873 9
2.7097011 0.74129158 0.24577919 10
2.589514 0.70792496 -0.42518893 3
2.7555676 0.75280404 0.35073999 11
2.6100338 0.71304512 -0.33221585 4
2.6160336 0.7137031 -0.23723793 5
2.6515818 0.72240835 -0.14402856 6
2.6665196 0.72597682 -0.048238453 7
2.6792383 0.72492135 0.048447877 8
2.7146611 0.73399723 0.14737807 9
2.7179153 0.73385918 0.24630213 10
2.5880327 0.69830519 -0.4245632 3
2.7350488 0.73746121 0.34781513 11
2.6238837 0.70748734 -0.33367831 4
2.626081 0.70709664 -0.23793517 5
2.6501057 0.71257347 -0.14381923 6
2.6727748 0.71816874 -0.048308261 7
2.6816275 0.71603322 0.048447877 8
2.7075577 0.7219432 0.14685471 9
2.7184086 0.72432977 0.24612781 10
2.5865166 0.68870187 -0.42393744 3
2.7336428 0.72736573 0.34732765 11
2.609071 0.69373357 -0.33148462 4
2.6284118 0.69838363 -0.23793517 5
2.644732 0.70173323 -0.14340053 6
2.6713994 0.70780963 -0.048238453 7
2.6899121 0.70819485 0.048552595 8
2.7023344 0.71045685 0.14643602 9
2.7247746 0.71584809 0.24647643 10
2.5927255 0.68067402 -0.4245632 3
2.7438455 0.71983463 0.3483026 11
2.6095567 0.68411791 -0.33124092 4
2.6385429 0.69122469 -0.23863243 5
2.6510303 0.69350731 -0.14360988 6
2.6699843 0.69747013 -0.048168644 7
2.6923676 0.69880158 0.048552595 8
2.7067316 0.70152003 0.1465407 9
2.7195415 0.70433491 0.24577919 10
2.6065602 0.6745885 -0.42644039 3
2.7444198 0.70975471 0.34805888 11
2.6176949 0.67649537 -0.33197212 4
2.6332228 0.68001807 -0.23793517 5
2.6534345 0.68424982 -0.14360988 6
2.6646566 0.68615049 -0.048029024 7
2.6870415 0.68741608 0.048412975 8
2.7110982 0.69256359 0.14664535 9
2.7084706 0.69138741 0.24455902 10
2.5935864 0.66157907 -0.42393744 3
2.7449565 0.69968212 0.34781513 11
2.6142693 0.66588312 -0.33124092 4
2.6239958 0.66787291 -0.2368893 5
2.655807 0.67498273 -0.14360988 6
2.6709116 0.67783058 -0.048098832 7
2.6797297 0.67558736 0.048238453 8
2.7191906 0.68503255 0.14695938 9
2.7166638 0.68338627 0.24508193 10
2.7493076 0.69057912 0.34805888 11
2.6300552 0.66013563 -0.33294708 4
2.6340413 0.66064876 -0.23758654 5
2.6581471 0.66570741 -0.14360988 6
2.6789646 0.67042547 -0.048203547 7
2.6858363 0.66766399 0.048308261 8
2.7079964 0.67216784 0.14622667 9
2.7267678 0.67581832 0.24577919 10
2.7400215 0.67859417 0.34659645 11
2.6168144 0.647596 -0.33099717 4
2.6363313 0.6514495 -0.23758654 5
2.656462 0.65593201 -0.14340053 6
2.6851716 0.66202664 -0.048273355 7
2.692035 0.65923512 0.048378069 8
2.710326 0.66271162 0.14622667 9
2.7348008 0.66819024 0.24630213 10
2.7462304 0.66996711 0.3470839 11
2.6209874 0.63892835 -0.33124092 4
2.6423485 0.64364713 -0.23793517 5
2.6548538 0.64571172 -0.14319119 6
2.6699777 0.6484018 -0.047959212 7
2.7040398 0.65217775 0.048552595 8
2.7126226 0.65324736 0.14622667 9
2.7196827 0.65444398 0.24473332 10
2.7504823 0.66084123 0.34732765 11
2.6193414 0.62884802 -0.33075345 4
2.6329546 0.63163161 -0.2368893 5
2.6609766 0.63737041 -0.14340053 6
2.6722243 0.63907969 -0.047959212 7
2.7004631 0.64134932 0.048447877 8
2.7167177 0.64470887 0.14633135 9
2.7180731 0.64402843 0.24438471 10
2.7527726 0.65123552 0.34732765 11
2.6253841 0.62061483 -0.33124092 4
2.6312656 0.62152034 -0.23654069 5
2.6670728 0.62899542 -0.14360988 6
2.6782217 0.63113135 -0.048029024 7
2.6947865 0.6305688 0.048308261 8
2.7228415 0.6361298 0.1465407 9
2.7261252 0.63589501 0.24490763 10
2.7529838 0.64165205 0.3470839 11
2.6274276 0.61190587 -0.33124092 4
2.6411817 0.61413598 -0.23723793 5
2.6613619 0.61834013 -0.14319119 6
2.6823566 0.62222993 -0.04806393 7
2.6969714 0.62115765 0.048308261 8
2.7172592 0.62483168 0.14612199 9
2.7321026 0.62774289 0.24525626 10
2.7513371 0.63115132 0.34659645 11
2.617938 0.60006893 -0.32977846 4
2.6433091 0.60491335 -0.23723793 5
2.6557164 0.607265 -0.14277251 6
2.6942599 0.61508888 -0.048238453 7
2.7049737 0.61306632 0.048412975 8
2.7116318 0.61358029 0.14570332 9
2.7382717 0.61860365 0.24560487 10
2.7438419 0.61935735 0.34537774 11
2.6200166 0.59092754 -0.32977846 4
2.6531796 0.59743279 -0.23793517 5
2.6657188 0.59928006 -0.14319119 6
2.684684 0.60305011 -0.048029024 7
2.7091546 0.60358208 0.048447877 8
2.7196054 0.60541373 0.14601734 9
2.7345796 0.6077441 0.24508193 10
2.7460933 0.6092971 0.34537774 11
2.618289 0.58046073 -0.32929099 4
2.6396866 0.58472252 -0.23654069 5
2.6677945 0.58997059 -0.14319119 6
2.6867723 0.59367698 -0.048029024 7
2.6994216 0.59202385 0.048238453 8
2.7295063 0.59762478 0.14643602 9
2.7308452 0.59691918 0.24455902 10
2.6279573 0.57346714 -0.33026594 4
2.6378181 0.57465577 -0.23619205 5
2.6736395 0.5819695 -0.14340053 6
2.6888285 0.58429408 -0.048029024 7
2.697562 0.58175629 0.048168644 8
2.7296238 0.58767235 0.14633135 9
2.7386529 0.58911753 0.24508193 10
2.6436059 0.56673986 -0.23654069 5
2.6639361 0.57012713 -0.14277251 6
2.6888964 0.57448626 -0.047994118 7
2.6995764 0.57233578 0.048168644 8
2.7199345 0.57565987 0.14570332 9
2.7465405 0.58079016 0.24560487 10
2.6494672 0.55832946 -0.2368893 5
2.6620014 0.56000179 -0.14256316 6
2.6947992 0.56591928 -0.04806393 7
2.7093883 0.56454122 0.048308261 8
2.7198727 0.56623054 0.14559864 9
2.7466006 0.57079464 0.24543057 10
2.6553018 0.5498876 -0.23723793 5
2.6678517 0.55151421 -0.14277251 6
2.6868689 0.55495799 -0.047889404 7
2.7112453 0.55555397 0.048308261 8
2.7277033 0.55793297 0.14591266 9
2.7349117 0.55841291 0.24421038 10
2.6493955 0.5390259 -0.23654069 5
2.6735804 0.54346049 -0.14298184 6
2.6887901 0.54557496 -0.047889404 7
2.7053268 0.54450762 0.048168644 8
2.7334545 0.54967123 0.14612199 9
2.7367482 0.54934108 0.24421038 10
2.6433537 0.52867353 -0.23584343 5
2.6832955 0.53568929 -0.14340053 6
2.6984286 0.53821945 -0.048029024 7
2.7031941 0.53475654 0.048098832 8
2.7451532 0.54206276 0.14664535 9
2.742559 0.54055458 0.24455902 10
2.6490929 0.5202117 -0.23619205 5
2.669378 0.52371132 -0.14256316 6
2.6963663 0.52802891 -0.047959212 7
2.7050443 0.52531791 0.048098832 8
2.7333038 0.52981591 0.14591266 9
2.7541163 0.53335148 0.24543057 10
2.6548057 0.51171625 -0.23654069 5
2.6672673 0.5136342 -0.1423538 6
2.7060478 0.52012396 -0.048098832 7
2.7147188 0.51736903 0.048238453 8
2.7351363 0.52027225 0.14591266 9
2.7540956 0.52288121 0.24525626 10
2.6644063 0.50392777 -0.23723793 5
2.6809075 0.50607824 -0.14298184 6
2.6960566 0.50845063 -0.047889404 7
2.7244596 0.50888491 0.048378069 8
2.7409518 0.5109753 0.14612199 9
2.748069 0.51180589 0.24455902 10
2.6543951 0.49244285 -0.23619205 5
2.67873 0.49599031 -0.14277251 6
2.697902 0.49856627 -0.047889404 7
2.7104838 0.49648857 0.048098832 8
2.7407539 0.50104594 0.14601734 9
2.7361188 0.49970376 0.24333882 10
2.6521778 0.48246041 -0.23584343 5
2.6883056 0.48806316 -0.14319119 6
2.6996257 0.48914635 -0.047889404 7
2.7122002 0.48702475 0.048098832 8
2.7444522 0.4918274 0.14612199 9
2.6821272 0.47727719 -0.14277251 6
2.7052548 0.4804185 -0.047959212 7
2.7138836 0.47755501 0.048098832 8
2.7363162 0.4805178 0.14559864 9
2.6798418 0.46722636 -0.14256316 6
2.7128255 0.47200009 -0.04806393 7
2.7194755 0.46875751 0.048168644 8
2.7378948 0.47144178 0.14559864 9
2.685394 0.45854077 -0.14277251 6
2.70452 0.46131951 -0.047889404 7
2.7289021 0.46106863 0.048308261 8
2.7414126 0.46269163 0.14570332 9
2.6908398 0.45029169 -0.14298184 6
2.7060347 0.45235029 -0.047889404 7
2.7185788 0.45005766 0.048098832 8
2.7430112 0.4531188 0.14570332 9
2.6923947 0.44089803 -0.14298184 6
2.711544 0.44354662 -0.047959212 7
2.7162621 0.43945241 0.048029024 8
2.7545121 0.44465417 0.14622667 9
2.6900487 0.43039387 -0.14277251 6
2.7092021 0.43297479 -0.047889404 7
2.7257552 0.43074301 0.048168644 8
2.7422378 0.43285584 0.14549398 9
2.6836412 0.41976845 -0.1423538 6
2.7146487 0.4241319 -0.047959212 7
2.7350736 0.42292327 0.048308261 8
2.7358363 0.42206347 0.14507528 9
2.6968644 0.41267878 -0.14298184 6
2.7042518 0.41284198 -0.047749784 7
2.7345557 0.41307405 0.048273355 8
2.7451928 0.41370216 0.14549398 9
2.6982884 0.40326175 -0.14298184 6
2.7017207 0.40281066 -0.047679976 7
2.7260897 0.40206787 0.048098832 8
2.7584758 0.40586081 0.14612199 9
2.7036324 0.3944177 -0.14319119 6
2.7189412 0.39568186 -0.047959212 7
2.7235177 0.39198044 0.048029024 8
2.7638299 0.39679772 0.14633135 9
2.716346 0.385627 -0.047889404 7
2.7248693 0.38247177 0.048029024 8
2.7295606 0.37778702 -0.048098832 7
2.7421036 0.37464568 0.048308261 8
2.7150087 0.36611816 -0.047819596 7
2.7393663 0.36502272 0.048238453 8
2.7123046 0.35611868 -0.047749784 7
2.7326915 0.35443011 0.048098832 8
2.7174985 0.34715492 -0.047819596 7
2.7299442 0.34438777 0.048029024 8
2.7306001 0.33914766 -0.048029024 7
2.7311294 0.33485827 0.048029024 8
2.735738 0.33009237 -0.048098832 7
2.7441957 0.32674065 0.048238453 8
2.7209849 0.31867924 -0.047819596 7
2.7453196 0.31715888 0.048238453 8
2.7200935 0.30895418 -0.04778469 7
2.7464099 0.30757457 0.048238453 8
2.7394631 0.29760084 0.048098832 8
2.7365074 0.28761905 0.048029024 8
