# .PCD v0.7 - Point Cloud Data file format
VERSION 0.7
FIELDS x y z intensity
SIZE 4 4 4 4
TYPE F F F F
COUNT 1 1 1 1
WIDTH 1246
HEIGHT 1
VIEWPOINT 0 0 0 1 0 0 0
POINTS 1246
DATA ascii
1.6090832 1.0054668 -0.099438325 6
1.5803313 0.97984737 -0.097449563 6
1.5937774 0.9808827 -0.098077588 6
1.5903734 0.97114938 -0.097658902 6
1.5922136 0.96427959 -0.097554229 6
1.5921463 0.95665812 -0.09734489 6
1.5987409 0.95341867 -0.097554229 6
1.6020585 0.9478333 -0.097554229 6
1.5770646 0.92636812 -0.16001794 5
1.6088024 0.94425684 -0.097763576 6
1.5906172 0.92687649 -0.16106381 5
1.5982805 0.93059587 -0.096926205 6
1.5903928 0.91932476 -0.16071519 5
1.5980603 0.92301285 -0.096716851 6
1.6401674 0.94656986 -0.033054858 7
1.58495 0.90881258 -0.15984364 5
1.6012728 0.91742855 -0.096716851 6
1.6328856 0.93516332 -0.03284543 7
1.5759898 0.89637887 -0.15862344 5
1.6077787 0.91408813 -0.096926205 6
1.611798 0.91562909 -0.032356761 7
1.5754837 0.88918877 -0.15827483 5
1.6109594 0.90847075 -0.096926205 6
1.6271797 0.91686839 -0.032601096 7
1.5768389 0.88271177 -0.15810052 5
1.6036624 0.89699149 -0.096298166 6
1.6338614 0.9131344 -0.032670904 7
1.5833945 0.87913609 -0.15844914 5
1.6067834 0.89138854 -0.096298166 6
1.6370391 0.90742517 -0.032670904 7
1.59614 0.87930006 -0.22375213 4
1.588199 0.87456423 -0.15862344 5
1.602886 0.88192278 -0.09587948 6
1.6261771 0.89399952 -0.032391667 7
1.5887475 0.86801213 -0.22228971 4
1.5807503 0.8632856 -0.15757757 5
1.6129677 0.88014853 -0.096298166 6
1.6257768 0.88640273 -0.032321859 7
1.5935125 0.86340785 -0.22253343 4
1.5820025 0.85681325 -0.15740328 5
1.6195427 0.87641513 -0.096507512 6
1.6288612 0.88072187 -0.032321859 7
1.5895222 0.85408139 -0.22155848 4
1.5849836 0.85128617 -0.15740328 5
1.6120332 0.8650896 -0.09587948 6
1.63545 0.876921 -0.032391667 7
1.5819823 0.84292722 -0.22009605 4
1.5897037 0.84668529 -0.15757757 5
1.6079904 0.85570455 -0.095460795 6
1.6420326 0.87308407 -0.032461476 7
1.6575385 0.87799197 0.032740716 8
1.5778946 0.83369011 -0.2191211 4
1.5961732 0.84299147 -0.1579262 5
1.6109678 0.85008597 -0.095460795 6
1.6344566 0.8617515 -0.032252047 7
1.6641339 0.87406081 0.032810524 8
1.5807953 0.82817674 -0.2191211 4
1.5973408 0.83649069 -0.15775189 5
1.6245434 0.8500126 -0.096088827 6
1.6374545 0.85604125 -0.032252047 7
1.6423447 0.85531485 0.032321859 8
1.5907227 0.82631433 -0.22009605 4
1.6002513 0.83090943 -0.15775189 5
1.6275004 0.84433711 -0.096088827 6
1.6331836 0.84692377 -0.032112427 7
1.6487252 0.85169977 0.032391667 8
1.5836142 0.8166647 -0.28220782 3
1.5934539 0.82103503 -0.22009605 4
1.6066847 0.82714272 -0.15810052 5
1.6125321 0.82979709 -0.095042109 6
1.6432436 0.84487563 -0.032252047 7
1.6499085 0.84502751 0.032356761 8
1.5917315 0.81383002 -0.28314641 3
1.5786326 0.80643684 -0.21765867 4
1.6023209 0.81818622 -0.15740328 5
1.6118609 0.82234746 -0.094832763 6
1.6497461 0.84095037 -0.032321859 7
1.661763 0.84379017 0.032531288 8
1.5787053 0.80023044 -0.2803306 3
1.5814378 0.8009218 -0.21765867 4
1.6069449 0.81348753 -0.15757757 5
1.6218504 0.8203221 -0.095251448 6
1.6383939 0.82797068 -0.032042619 7
1.6646985 0.83798403 0.032531288 8
1.5832542 0.79560131 -0.28064346 3
1.5877723 0.79717761 -0.21814615 4
1.6044326 0.80519181 -0.15705465 5
1.6318457 0.81823629 -0.095670134 6
1.6341219 0.81866491 -0.031902999 7
1.6532985 0.82502604 0.032252047 8
1.5807173 0.7874279 -0.27970487 3
1.5905446 0.79163152 -0.21814615 4
1.6036657 0.79781193 -0.15670602 5
1.6275381 0.80897874 -0.095251448 6
1.6369698 0.81295532 -0.031902999 7
1.648999 0.81570292 0.032112427 8
1.5799141 0.78015572 -0.27907911 3
1.5968589 0.78783083 -0.21863361 4
1.6046542 0.7913276 -0.15653172 5
1.6303515 0.80329376 -0.095251448 6
1.6469738 0.81076944 -0.032042619 7
1.6554275 0.81170219 0.032182239 8
1.5826271 0.7746371 -0.27907911 3
1.5888996 0.77701902 -0.21717119 4
1.616356 0.79009748 -0.15740328 5
1.6259671 0.79409146 -0.094832763 6
1.6497941 0.80501503 -0.032042619 7
1.6600492 0.80679315 0.032217141 8
1.587099 0.76996982 -0.279392 3
1.5916022 0.77146834 -0.21717119 4
1.6155182 0.78271258 -0.15705465 5
1.6251336 0.78667092 -0.094623417 6
1.6453935 0.79576826 -0.031902999 7
1.6682603 0.80359662 0.032321859 8
1.6737062 0.80550122 0.09734489 9
1.5815246 0.76113719 -0.3411665 2
1.5862166 0.76271266 -0.27876624 3
1.5978643 0.76762676 -0.21765867 4
1.6110566 0.7736184 -0.15635739 5
1.6350728 0.78444862 -0.095042109 6
1.6373415 0.78483415 -0.03169357 7
1.6602273 0.79259962 0.032112427 8
1.6909294 0.80653226 0.098182261 9
1.5753119 0.75138557 -0.33925843 2
1.5835195 0.75462198 -0.27782765 3
1.600534 0.76204479 -0.21765867 4
1.611948 0.76713419 -0.15618308 5
1.6414088 0.78045118 -0.095251448 6
1.647296 0.78254658 -0.03183319 7
1.6521382 0.7816686 0.031902999 8
1.6810945 0.7946505 0.097449563 9
1.5708252 0.74252641 -0.33773196 2
1.5807856 0.74655879 -0.27688903 3
1.6031843 0.75645286 -0.21765867 4
1.6128142 0.76065242 -0.15600878 5
1.6260557 0.76620382 -0.094204731 6
1.6536359 0.77849543 -0.031902999 7
1.6620994 0.77929199 0.032042619 8
1.6873375 0.79076606 0.097658902 9
1.5876307 0.74370074 -0.34078491 2
1.5851709 0.74187386 -0.27720189 3
1.6020877 0.74945033 -0.21717119 4
1.6226792 0.75839281 -0.15670602 5
1.6323396 0.76221359 -0.094414078 6
1.6598327 0.77469856 -0.031972811 7
1.6646745 0.77377552 0.032042619 8
1.6772712 0.77927572 0.096926205 9
1.5722821 0.73016232 -0.33696869 2
1.5894141 0.73744488 -0.27751476 3
1.5937592 0.73912209 -0.21570876 4
1.6288006 0.75468308 -0.15705465 5
1.6276085 0.75343984 -0.093995392 6
1.6515032 0.76415205 -0.031763379 7
1.6708629 0.76992583 0.032112427 8
1.6799815 0.7734158 0.096926205 9
1.571128 0.72330278 -0.33620548 2
1.5990295 0.73547149 -0.27876624 3
1.6035445 0.73687017 -0.21668372 4
1.6151291 0.74151093 -0.15548584 5
1.6373589 0.75137067 -0.094414078 6
1.6505253 0.75671536 -0.03169357 7
1.6589881 0.75744408 0.03183319 8
1.6844878 0.76837605 0.097030871 9
1.5737683 0.71753979 -0.33620548 2
1.5909283 0.724693 -0.27688903 3
1.6061066 0.73126858 -0.21668372 4
1.615894 0.73504394 -0.15531152 5
1.6473751 0.74866939 -0.094832763 6
1.6531569 0.75094891 -0.03169357 7
1.6599309 0.75053501 0.031798285 8
1.6926202 0.76495862 0.09734489 9
1.5762637 0.7120415 -0.33620548 2
1.5862464 0.71588445 -0.27563757 3
1.6105856 0.72619331 -0.21692745 4
1.6130008 0.7269426 -0.1547886 5
1.6317662 0.73471558 -0.093786038 6
1.6630622 0.74845678 -0.03183319 7
1.671535 0.74911499 0.031972811 8
1.5881646 0.71141887 -0.4017626 1
1.6879885 0.7557804 0.096926205 9
1.5876993 0.71054512 -0.33811355 2
1.5922179 0.7122339 -0.2762633 3
1.6129851 0.72084796 -0.21692745 4
1.6191673 0.72293192 -0.15513723 5
1.6305462 0.7276721 -0.093576699 6
1.6583593 0.73938936 -0.03169357 7
1.6668292 0.74002945 0.03183319 8
1.5603575 0.69243276 -0.39411426 1
1.6851387 0.74745536 0.096612185 9
1.5774844 0.69970447 -0.33544225 2
1.5983065 0.70827186 -0.27688903 3
1.6100461 0.71280187 -0.21619622 4
1.6288433 0.72078389 -0.15583447 5
1.6367298 0.72359073 -0.093786038 6
1.6572711 0.73198134 -0.031623758 7
1.6767238 0.73742801 0.031972811 8
1.5645487 0.68776643 -0.39456415 1
1.6895663 0.7423715 0.096716851 9
1.5727277 0.69103426 -0.33391577 2
1.6043866 0.70427674 -0.27751476 3
1.6107067 0.70637977 -0.2159525 4
1.6204007 0.71029484 -0.1547886 5
1.642905 0.71947503 -0.093995392 6
1.6488241 0.72138232 -0.03141433 7
1.668288 0.72677821 0.031763379 8
1.5651535 0.68152249 -0.39411426 1
1.69581 0.73806375 0.096926205 9
1.5787303 0.68710744 -0.33467901 2
1.6918038 0.73596907 0.16141243 10
1.5959661 0.69394559 -0.27563757 3
1.6113415 0.69996321 -0.21570876 4
1.622993 0.70435131 -0.1547886 5
1.6490704 0.71532655 -0.094204731 6
1.655002 0.71721232 -0.031484142 7
1.6634706 0.71778089 0.031623758 8
1.5693121 0.67682701 -0.39456415 1
1.6983761 0.73213935 0.096926205 9
1.5830412 0.68209302 -0.3350606 2
1.6890004 0.72739869 0.16088949 10
1.59487 0.68652976 -0.27501184 3
1.624716 0.69904125 -0.21717119 4
1.6181202 0.69553411 -0.15409136 5
1.6406702 0.70454866 -0.093576699 6
1.6685208 0.71616364 -0.03169357 7
1.6697682 0.71325058 0.03169357 8
1.5556525 0.66418356 -0.39051503 1
1.6899004 0.72150052 0.096298166 9
1.5836067 0.67579275 -0.33467901 2
1.7043576 0.72697073 0.16210969 10
1.5918055 0.67863387 -0.27407321 3
1.616309 0.68841481 -0.21570876 4
1.6242046 0.69144195 -0.15443997 5
1.6357676 0.69569105 -0.093158014 6
1.6710107 0.7103346 -0.03169357 7
1.6794906 0.71082669 0.03183319 8
1.5614358 0.66053998 -0.39141485 1
1.6850504 0.71248645 0.09587948 9
1.5841478 0.66949618 -0.33429739 2
1.7087202 0.72179174 0.16228399 10
1.6013258 0.67642653 -0.2753247 3
1.6130965 0.68073529 -0.21497753 4
1.6339519 0.68886459 -0.15513723 5
1.6454279 0.69336462 -0.093576699 6
1.6587355 0.69829059 -0.03141433 7
1.6801172 0.70418721 0.031798285 8
1.5709213 0.65809768 -0.39321443 1
1.6874036 0.70689499 0.09587948 9
1.5773046 0.66044825 -0.3323893 2
1.7037525 0.71304506 0.16158675 10
1.609144 0.67312002 -0.2762633 3
1.6118 0.6735692 -0.21449007 4
1.6251963 0.67883527 -0.15409136 5
1.6515248 0.68915462 -0.093786038 6
1.6573508 0.69124705 -0.031344522 7
1.6769025 0.69631165 0.03169357 8
1.5694956 0.65139031 -0.39231464 1
1.6953954 0.70329595 0.096193492 9
1.5868546 0.65794653 -0.33391577 2
1.6951879 0.70251644 0.16054088 10
1.5931187 0.66021711 -0.27313459 3
1.6250288 0.67277765 -0.2159525 4
1.6238738 0.67163467 -0.15374273 5
1.6538006 0.68367529 -0.093786038 6
1.6634502 0.68698376 -0.03141433 7
1.5757805 0.64820349 -0.4565568 0
1.675624 0.6889326 0.031623758 8
1.5645497 0.64294523 -0.39051503 1
1.6978399 0.69737393 0.096193492 9
1.5890278 0.65268022 -0.33391577 2
1.7067236 0.70067477 0.16141243 10
1.5972409 0.6554023 -0.27344745 3
1.6310412 0.66860664 -0.21643998 4
1.6262082 0.66596252 -0.15374273 5
1.6487834 0.67487156 -0.093367353 6
1.6695399 0.68268716 -0.031484142 7
1.5745673 0.64096648 -0.45552155 0
1.6780189 0.68307894 0.031623758 8
1.5631742 0.63601148 -0.38961524 1
1.6947137 0.68918556 0.09587948 9
1.5968655 0.64906913 -0.3350606 2
1.7037425 0.69216526 0.16088949 10
1.6087838 0.65325922 -0.27501184 3
1.6149715 0.65544349 -0.21400258 4
1.6359088 0.66327602 -0.15443997 5
1.6475434 0.66732472 -0.093158014 6
1.67562 0.67835557 -0.03155395 7
1.567836 0.63185608 -0.45293337 0
1.6786562 0.67617738 0.031588856 8
1.5618795 0.62882191 -0.38871542 1
1.6898167 0.67998749 0.095460795 9
1.5827295 0.63689524 -0.33162606 2
1.7061484 0.68621343 0.16088949 10
1.6000574 0.64321834 -0.27313459 3
1.6155208 0.64878052 -0.21375884 4
1.6308182 0.65459245 -0.15374273 5
1.6461555 0.66008252 -0.092948668 6
1.6669573 0.66774839 -0.031344522 7
1.5664436 0.62494725 -0.45189807 0
1.6902934 0.67401737 0.031763379 8
1.5731162 0.62697387 -0.39096493 1
1.695891 0.67556256 0.095670134 9
1.5849432 0.63136619 -0.33162606 2
1.7011288 0.677306 0.16019225 10
1.613305 0.64201266 -0.27501184 3
1.6214652 0.64460361 -0.21424633 4
1.636796 0.65036845 -0.15409136 5
1.6558751 0.65727931 -0.093367353 6
1.6618425 0.65897661 -0.031204903 7
1.5632247 0.61734784 -0.45034516 0
1.6777558 0.66223907 0.031484142 8
1.586172 0.62576944 -0.39366436 1
1.7056706 0.67257041 0.096088827 9
1.5889635 0.62655115 -0.33200768 2
1.6979222 0.66917181 0.15966932 10
1.6045086 0.63203293 -0.27313459 3
1.6273996 0.64039379 -0.21473379 4
1.6316398 0.64173359 -0.1533941 5
1.6618772 0.65295637 -0.093576699 6
1.6641328 0.65317124 -0.031204903 7
1.5725671 0.6147002 -0.4524157 0
1.6744697 0.65419507 0.031379428 8
1.5756396 0.61526734 -0.39051503 1
1.7080081 0.66661197 0.096088827 9
1.5929699 0.62171417 -0.3323893 2
1.6965353 0.66179228 0.1593207 10
1.6030242 0.62499356 -0.27250886 3
1.6296252 0.63470882 -0.21473379 4
1.6338699 0.63603449 -0.1533941 5
1.6529777 0.6428076 -0.092948668 6
1.6775861 0.65170419 -0.03141433 7
1.5783069 0.61060089 -0.45345098 0
1.6823379 0.65051079 0.031484142 8
1.570507 0.6069532 -0.38871542 1
1.6972831 0.65560782 0.095356122 9
1.6006247 0.61827165 -0.33353412 2
1.7062695 0.65873766 0.16001794 10
1.6125679 0.62223822 -0.27376035 3
1.7391441 0.67073125 0.22887065 11
1.628126 0.6275897 -0.21424633 4
1.6435171 0.63319212 -0.15409136 5
1.647755 0.63416535 -0.092529982 6
1.6798509 0.64584392 -0.03141433 7
1.5768203 0.60370666 -0.4524157 0
1.6883337 0.64606327 0.03155395 8
1.5780768 0.60355538 -0.39006513 1
1.690233 0.64611375 0.094832763 9
1.5899361 0.60777396 -0.33086282 2
1.7160034 0.65562159 0.16071519 10
1.6110394 0.61519563 -0.27313459 3
1.730347 0.66040975 0.22740822 11
1.6210332 0.61836457 -0.21302763 4
1.641994 0.62603122 -0.15374273 5
1.6574248 0.63125277 -0.092948668 6
1.670881 0.63571012 -0.031204903 7
1.5716921 0.59546071 -0.45034516 0
1.6905785 0.64016634 0.03155395 8
1.5747058 0.59597492 -0.38871542 1
1.6999506 0.64303589 0.095251448 9
1.5883756 0.60083073 -0.33009958 2
1.7052358 0.64469588 0.159495 10
1.620568 0.6123625 -0.27438608 3
1.736356 0.65576798 0.22789569 11
1.6268964 0.61410403 -0.2135151 4
1.6404408 0.61888957 -0.1533941 5
1.6596184 0.62546295 -0.092948668 6
1.6656042 0.62705505 -0.031065283 7
1.571952 0.58929306 -0.44982749 0
1.6815677 0.63005108 0.031344522 8
1.5822517 0.59252435 -0.39006513 1
1.7077963 0.63919872 0.095565468 9
1.5959791 0.59734744 -0.33124444 2
1.6962794 0.63455063 0.15844914 10
1.6115943 0.6025508 -0.27250886 3
1.740494 0.65039819 0.22813943 11
1.6364685 0.61119986 -0.21449007 4
1.6313916 0.60897928 -0.15234824 5
1.6711483 0.62315547 -0.093472026 6
1.6790265 0.62542486 -0.031274714 7
1.5792289 0.58636862 -0.45138043 0
1.6760395 0.62198251 0.031204903 8
1.5749696 0.58416259 -0.38781562 1
1.7172871 0.63660681 0.095984153 9
1.5978481 0.59233016 -0.33124444 2
1.7057375 0.63198769 0.15914638 10
1.6097745 0.59611237 -0.27188313 3
1.7276354 0.63941431 0.22618952 11
1.6383805 0.60605603 -0.21449007 4
1.6446155 0.60770911 -0.1533941 5
1.6656033 0.61513495 -0.093053341 6
1.6809829 0.62014729 -0.031274714 7
1.5831807 0.58124268 -0.45189807 0
1.6857094 0.61888462 0.031344522 8
1.5733403 0.57731831 -0.3869158 1
1.7044976 0.62510735 0.095146775 9
1.6036949 0.58782148 -0.33200768 2
1.713655 0.62778729 0.15966932 10
1.6156584 0.59156698 -0.27250886 3
1.7279925 0.6326977 0.22594579 11
1.6311651 0.59692192 -0.21327138 4
1.6448555 0.60128093 -0.1532198 5
1.6565901 0.6049152 -0.092425302 6
1.6868944 0.61564732 -0.031344522 7
1.5870156 0.57637256 -0.4524157 0
1.695485 0.61543149 0.031484142 8
1.5827736 0.57420582 -0.38871542 1
1.7047918 0.61847216 0.095042109 9
1.6002002 0.58021188 -0.33086282 2
1.7195822 0.62315965 0.16001794 10
1.6177137 0.58592325 -0.27250886 3
1.7340332 0.62771094 0.22643325 11
1.6296085 0.58958906 -0.21278389 4
1.6469445 0.59553522 -0.1532198 5
1.6624485 0.60048634 -0.092634656 6
1.6815097 0.60703868 -0.031204903 7
1.5781095 0.56691015 -0.44930989 0
1.6975167 0.60980523 0.031484142 8
1.5846689 0.56895429 -0.38871542 1
1.7088199 0.61319327 0.095146775 9
1.5929755 0.57130903 -0.32895473 2
1.7029916 0.61043012 0.15827483 10
1.6233665 0.58188885 -0.27313459 3
1.7398424 0.62329745 0.22692074 11
1.6315548 0.58418137 -0.21278389 4
1.645261 0.58844107 -0.15287116 5
1.6681921 0.59631425 -0.092843994 6
1.6723188 0.59713113 -0.030995475 7
1.5763402 0.56038004 -0.44827461 0
1.6883293 0.59985876 0.031274714 8
1.590318 0.56472391 -0.38961524 1
1.7146082 0.60885954 0.095356122 9
1.6004118 0.56799364 -0.33009958 2
1.7087623 0.60611111 0.15862344 10
1.6142168 0.57225883 -0.2712574 3
1.74575 0.61854589 0.22740822 11
1.6410692 0.58113271 -0.21375884 4
1.6396903 0.58032328 -0.15217392 5
1.6702638 0.59048712 -0.092843994 6
1.6780605 0.59291494 -0.031065283 7
1.5873992 0.55807734 -0.4508628 0
1.690309 0.59425706 0.031274714 8
1.5848277 0.55686337 -0.38781562 1
1.7186078 0.60353196 0.095460795 9
1.6097945 0.56500399 -0.33162606 2
1.7165073 0.60212237 0.15914638 10
1.6161054 0.56690305 -0.2712574 3
1.7440451 0.61143941 0.22692074 11
1.6448605 0.57634431 -0.21400258 4
1.6473478 0.57657027 -0.15269686 5
1.6646715 0.58230752 -0.092425302 6
1.6876712 0.58969182 -0.031204903 7
1.5874168 0.55217516 -0.45034516 0
1.692373 0.58835351 0.031274714 8
1.5812396 0.54940867 -0.38646591 1
1.7093836 0.59359771 0.094832763 9
1.6153688 0.56095028 -0.3323893 2
1.7166126 0.59577322 0.15897207 10
1.6255398 0.56384736 -0.27250886 3
1.7349154 0.60144609 0.22545831 11
1.6337323 0.56605029 -0.21229641 4
1.6512333 0.57146764 -0.15287116 5
1.6629189 0.57518774 -0.092215963 6
1.6934997 0.58510274 -0.031274714 7
1.5930837 0.54760969 -0.45138043 0
1.6963077 0.58309203 0.031309616 8
1.5868337 0.54515249 -0.38736573 1
1.7057779 0.58568257 0.094518751 9
1.6025581 0.54992837 -0.32933635 2
1.7169002 0.58883071 0.15879777 10
1.6275954 0.55788606 -0.27250886 3
1.7445152 0.59796226 0.22643325 11
1.6375765 0.560987 -0.21254015 4
1.7716937 0.60658628 0.29659978 12
1.6551027 0.56634641 -0.15304548 5
1.6687958 0.57038045 -0.092425302 6
1.6879619 0.57660323 -0.031135093 7
1.5858396 0.5389384 -0.44879225 0
1.7041136 0.5788005 0.03141433 8
1.5888213 0.53933233 -0.38736573 1
1.7097033 0.58036625 0.094623417 9
1.5933129 0.54054695 -0.32704663 2
1.7132843 0.58091503 0.15827483 10
1.6295331 0.55220079 -0.27250886 3
1.7448151 0.59092706 0.22618952 11
1.6358609 0.55370867 -0.21205269 4
1.7588314 0.59533185 0.29409683 12
1.6476331 0.55737287 -0.15217392 5
1.6707766 0.56455219 -0.092425302 6
1.6823864 0.56814796 -0.030995475 7
1.58588 0.53278387 -0.44827461 0
1.6870677 0.56677836 0.031065283 8
1.599838 0.53716159 -0.38961524 1
1.7173991 0.57630128 0.094937436 9
1.6082194 0.539352 -0.32971796 2
1.7077454 0.57239783 0.15757757 10
1.6238635 0.5442825 -0.2712574 3
1.752412 0.58702981 0.22692074 11
1.6414527 0.54954165 -0.21254015 4
1.7440391 0.58354712 0.29128101 12
1.6457896 0.55035484 -0.15182531 5
1.6726394 0.5590089 -0.092425302 6
1.6881527 0.56353861 -0.031065283 7
1.5858049 0.52691245 -0.44775698 0
1.689036 0.56088549 0.031065283 8
1.5869069 0.52666354 -0.38601601 1
1.7230921 0.57186079 0.095146775 9
1.6137261 0.53525174 -0.3304812 2
1.7228724 0.57112038 0.15879777 10
1.6182526 0.5361262 -0.27000591 3
1.7393745 0.57591695 0.22497083 11
1.6508994 0.54630268 -0.2135151 4
1.7553414 0.58086377 0.29284537 12
1.6570637 0.54802161 -0.15269686 5
1.6669948 0.55066067 -0.092006624 6
1.6938101 0.55919069 -0.031135093 7
1.5876347 0.52137327 -0.44775698 0
1.6927867 0.55590481 0.031100187 8
1.5886446 0.5213986 -0.38601601 1
1.713691 0.56210804 0.094518751 9
1.6118536 0.5283919 -0.32971796 2
1.7172819 0.56262207 0.15810052 10
1.6256533 0.53260231 -0.27094454 3
1.7375016 0.56891078 0.22448336 11
1.6376089 0.53588557 -0.2115652 4
1.761113 0.57596135 0.2934711 12
1.6608603 0.54285342 -0.15287116 5
1.6650147 0.54388881 -0.091797277 6
1.6995538 0.55451566 -0.031204903 7
1.591192 0.51670337 -0.44827461 0
1.7004229 0.55184472 0.031204903 8
1.5886014 0.51524842 -0.38556612 1
1.7080429 0.55365962 0.094100058 9
1.6061262 0.52062351 -0.32819149 2
1.7267201 0.55937988 0.15879777 10
1.6275026 0.52692401 -0.27094454 3
1.7413658 0.56345296 0.22472709 11
1.6432471 0.53138793 -0.21205269 4
1.7574742 0.56798756 0.2925325 12
1.6645473 0.53795505 -0.15304548 5
1.666903 0.5380739 -0.091797277 6
1.6938663 0.54612482 -0.031065283 7
1.589307 0.509965 -0.44723931 0
1.7061471 0.54712743 0.031274714 8
1.5959574 0.51148456 -0.3869158 1
1.7156714 0.54952127 0.094414078 9
1.6041946 0.51381576 -0.32742825 2
1.7210718 0.55091983 0.15810052 10
1.6406205 0.5248515 -0.27282172 3
1.7565575 0.56160301 0.22643325 11
1.6469828 0.52625322 -0.21229641 4
1.7519189 0.5594461 0.29128101 12
1.6569251 0.52911139 -0.15217392 5
1.6801878 0.53589374 -0.092425302 6
1.6843301 0.53656733 -0.030855855 7
1.5837114 0.50207853 -0.44516876 0
1.7004212 0.53875291 0.031135093 8
1.5977331 0.5059101 -0.3869158 1
1.7194835 0.54413128 0.094518751 9
1.609722 0.50939721 -0.32819149 2
1.7172853 0.54310685 0.15757757 10
1.6330252 0.51614445 -0.2712574 3
1.7622932 0.55666345 0.22692074 11
1.6544886 0.52229404 -0.21302763 4
1.7576289 0.55451548 0.29190674 12
1.6549621 0.52212507 -0.15182531 5
1.6782384 0.52882546 -0.092215963 6
1.7014525 0.5354867 -0.031135093 7
1.5872979 0.49712497 -0.44568643 0
1.694658 0.5304243 0.030995475 8
1.5957695 0.49916667 -0.38601601 1
1.7366226 0.54289365 0.095356122 9
1.615238 0.50494707 -0.32895473 2
1.7229742 0.53829688 0.1579262 10
1.6291597 0.50867504 -0.27031878 3
1.7452756 0.54459584 0.22448336 11
1.6525116 0.51533324 -0.21254015 4
1.7652118 0.55013967 0.29284537 12
1.6605788 0.51753014 -0.15217392 5
1.6724463 0.52058923 -0.091797277 6
1.6994922 0.52835733 -0.031065283 7
1.5964059 0.4938646 -0.44775698 0
1.7041413 0.52686781 0.031135093 8
1.5937785 0.49244314 -0.38511622 1
1.7193307 0.53123605 0.094309397 9
1.6244943 0.50162226 -0.3304812 2
1.7286505 0.53345382 0.15827483 10
1.6309253 0.50298548 -0.27031878 3
1.747166 0.53849983 0.22448336 11
1.6467119 0.5072239 -0.2115652 4
1.7651384 0.54370189 0.2925325 12
1.6642791 0.51231784 -0.15234824 5
1.6704352 0.51357377 -0.091587931 6
1.7050579 0.52389371 -0.031135093 7
1.5944247 0.48716119 -0.44672167 0
1.7097036 0.52238357 0.031204903 8
1.5991303 0.48829302 -0.38601601 1
1.7192644 0.52464783 0.094204731 9
1.6149677 0.49251363 -0.32819149 2
1.7343136 0.52857858 0.15862344 10
1.6363636 0.49872571 -0.27094454 3
1.7375484 0.52923304 0.22302091 11
1.6407888 0.49944767 -0.21059024 4
1.7537963 0.53351313 0.29034239 12
1.6698699 0.50766391 -0.15269686 5
1.6835953 0.51151478 -0.092215963 6
1.6953951 0.51445436 -0.030925665 7
1.5886339 0.47963727 -0.44465113 0
1.71726 0.51814485 0.031309616 8
1.6045567 0.48383278 -0.3869158 1
1.7229974 0.51921993 0.094309397 9
1.6165922 0.48715502 -0.32819149 2
1.7227026 0.51880312 0.15740328 10
1.645661 0.49528748 -0.27219599 3
1.739385 0.52316505 0.22302091 11
1.6501261 0.4960041 -0.2115652 4
1.7575399 0.52795577 0.29065526 12
1.6581872 0.49811074 -0.15147668 5
1.6853701 0.50563598 -0.092215963 6
1.6971806 0.50853276 -0.030925665 7
1.6180686 0.48236719 -0.4524157 0
1.7056432 0.50815022 0.031065283 8
1.6062355 0.47823003 -0.3869158 1
1.7343711 0.51604986 0.094832763 9
1.6126379 0.47982901 -0.32704663 2
1.7206836 0.51165038 0.15705465 10
1.6303377 0.48447692 -0.26938018 3
1.7621332 0.52330619 0.22570205 11
1.6594597 0.4924998 -0.21254015 4
1.7650534 0.5235039 0.29159388 12
1.6618257 0.49288723 -0.151651 5
1.7938411 0.53170073 0.36368197 13
1.694785 0.50201839 -0.092634656 6
1.6951103 0.50147122 -0.030855855 7
1.6997327 0.49993661 0.030925665 8
1.6004167 0.47042167 -0.38511622 1
1.7360728 0.51029599 0.094832763 9
1.6180705 0.47530314 -0.32780987 2
1.7281942 0.50732493 0.15757757 10
1.6358099 0.47989476 -0.27000591 3
1.74871 0.51268369 0.22375213 11
1.6687037 0.48922759 -0.2135151 4
1.7705711 0.5187583 0.29221961 12
1.6635362 0.48708296 -0.151651 5
1.793802 0.52488393 0.36330032 13
1.6850252 0.49273643 -0.092006624 6
1.7044415 0.49809125 -0.030995475 7
1.7090623 0.49652931 0.031065283 8
1.5926106 0.46239465 -0.38286668 1
1.7262473 0.50119442 0.094204731 9
1.6252941 0.47157636 -0.32895473 2
1.733694 0.50270128 0.1579262 10
1.6335979 0.47336754 -0.26938018 3
1.7313329 0.50136071 0.22131474 11
1.6474355 0.47706565 -0.21059024 4
1.777974 0.51453173 0.29315823 12
1.6727982 0.4837774 -0.15234824 5
1.8011909 0.52056825 0.36444521 13
1.6828121 0.48603788 -0.091797277 6
1.7176116 0.49576318 -0.031204903 7
1.7145438 0.49196166 0.031135093 8
1.6016281 0.45925975 -0.38466629 1
1.7259798 0.49491704 0.094100058 9
1.615525 0.46293947 -0.32666501 2
1.7372671 0.49749744 0.15810052 10
1.6522508 0.4728395 -0.27219599 3
1.7444373 0.49889198 0.22277717 11
1.6528257 0.47269195 -0.21107772 4
1.7682748 0.50537544 0.29128101 12
1.6820563 0.48041657 -0.15304548 5
1.8066831 0.51566958 0.36520842 13
1.688256 0.48155004 -0.092006624 6
1.7077075 0.48677599 -0.030995475 7
1.7219375 0.48790914 0.031239808 8
1.6068925 0.45500743 -0.38556612 1
1.72569 0.48864615 0.093995392 9
1.6208293 0.45864913 -0.32742825 2
1.7274039 0.48848113 0.15705465 10
1.646206 0.46520859 -0.27094454 3
1.7670962 0.49903935 0.22545831 11
1.654384 0.46720871 -0.21107772 4
1.7604352 0.49682653 0.28971666 12
1.666382 0.4699682 -0.15147668 5
1.8083829 0.50967681 0.36520842 13
1.6936886 0.47703135 -0.092215963 6
1.697763 0.47785908 -0.030786045 7
1.7103163 0.47752908 0.030995475 8
1.6086276 0.44883442 -0.38556612 1
1.731401 0.48309028 0.094204731 9
1.6225786 0.45242184 -0.32742825 2
1.7254285 0.48077479 0.15670602 10
1.6403682 0.45676509 -0.26969305 3
1.7728242 0.49331442 0.22594579 11
1.6677215 0.46375442 -0.21254015 4
1.7585237 0.4890044 0.28909093 12
1.6604958 0.46143293 -0.15077944 5
1.8027599 0.5006277 0.36368197 13
1.6955078 0.47052494 -0.092215963 6
1.6995851 0.47133702 -0.030786045 7
1.7041792 0.46972966 0.030855855 8
1.6025922 0.44142714 -0.3837665 1
1.7427047 0.47969425 0.09472809 9
1.6260412 0.44727546 -0.32780987 2
1.7347808 0.47686091 0.15740328 10
1.6380645 0.45027527 -0.26906732 3
1.7610508 0.48375237 0.2242396 11
1.6615931 0.45611912 -0.2115652 4
1.769745 0.48547548 0.29065526 12
1.6736251 0.45879474 -0.15182531 5
1.8006233 0.49360904 0.36291873 13
1.6893537 0.46278864 -0.091797277 6
1.712793 0.46856794 -0.030995475 7
1.7154566 0.4664017 0.031030379 8
1.6078843 0.43685254 -0.38466629 1
1.7270213 0.46889776 0.093786038 9
1.6294098 0.44239557 -0.32819149 2
1.7401981 0.47214925 0.15775189 10
1.6472523 0.44662264 -0.27031878 3
1.7493169 0.47396791 0.22253343 11
1.6555105 0.44824144 -0.21059024 4
1.779056 0.48135906 0.29190674 12
1.6770606 0.45376217 -0.15199961 5
1.8099164 0.48936993 0.36444521 13
1.6851743 0.45532632 -0.091483258 6
1.7144183 0.46258581 -0.030995475 7
1.7190057 0.46092817 0.031065283 8
1.6093994 0.43123692 -0.38466629 1
1.738294 0.46544984 0.094309397 9
1.6176691 0.43315098 -0.32552016 2
1.7418356 0.46607235 0.15775189 10
1.6449848 0.43984899 -0.26969305 3
1.7663031 0.47195864 0.22448336 11
1.657065 0.44246027 -0.21059024 4
1.7635481 0.47056216 0.28909093 12
1.6805595 0.44841856 -0.15217392 5
1.8078197 0.48203704 0.36368197 13
1.6964031 0.45201272 -0.092006624 6
1.7044278 0.45351297 -0.030786045 7
1.7148045 0.45339102 0.030960569 8
1.614663 0.42661312 -0.38556612 1
1.7321038 0.45764241 0.093890712 9
1.6210696 0.42800236 -0.32590178 2
1.7357461 0.45795578 0.15705465 10
1.6579703 0.43712696 -0.27157027 3
1.7698594 0.46629548 0.22472709 11
1.6585995 0.4366729 -0.21059024 4
1.7612782 0.46370593 0.2884652 12
1.6724801 0.44001606 -0.15130237 5
1.8208835 0.47871912 0.36597168 13
1.690244 0.444058 -0.091587931 6
1.705922 0.44785953 -0.030786045 7
1.7143637 0.44719681 0.030925665 8
1.621726 0.42273054 -0.3869158 1
1.7433548 0.45411026 0.094414078 9
1.6263536 0.42332983 -0.32666501 2
1.7392623 0.45239606 0.15722896 10
1.6517639 0.42963699 -0.27031878 3
1.7829235 0.46342048 0.22618952 11
1.6600386 0.4311699 -0.21059024 4
1.7743582 0.46053308 0.29034239 12
1.6701488 0.43317452 -0.15095374 5
1.8072579 0.46873549 0.36291873 13
1.7013742 0.44095543 -0.092111297 6
1.711347 0.44290364 -0.030855855 7
1.7139773 0.44071308 0.030890759 8
1.7467856 0.44882315 0.094518751 9
1.6277484 0.41793463 -0.32666501 2
1.7407529 0.44662634 0.15722896 10
1.6417729 0.42092472 -0.26844159 3
1.7556856 0.44980362 0.22253343 11
1.6806891 0.43058965 -0.21302763 4
1.7777891 0.45513681 0.29065526 12
1.6754367 0.42862087 -0.15130237 5
1.8088832 0.46242368 0.36291873 13
1.6932271 0.43254334 -0.091587931 6
1.7166816 0.43821487 -0.030925665 7
1.7134911 0.43453485 0.030855855 8
1.7347118 0.43959415 0.093786038 9
1.6367377 0.41446334 -0.32819149 2
1.7422246 0.44085085 0.15722896 10
1.6469897 0.41644689 -0.26906732 3
1.7513938 0.44251972 0.22180222 11
1.6590127 0.41917807 -0.21010277 4
1.7831193 0.45020559 0.29128101 12
1.6807125 0.42403769 -0.151651 5
1.8104069 0.45642215 0.36291873 13
1.6907787 0.42594969 -0.091378585 6
1.8405645 0.4636845 0.43820465 14
1.7258821 0.4344728 -0.031065283 7
1.7207425 0.43030605 0.030960569 8
1.7342979 0.43305272 0.093681373 9
1.6342938 0.4080818 -0.32742825 2
1.7552754 0.43796536 0.15827483 10
1.6560285 0.41289404 -0.27031878 3
1.748999 0.43575087 0.22131474 11
1.6643178 0.4143447 -0.21059024 4
1.7789292 0.4425475 0.29034239 12
1.6898433 0.42038539 -0.15234824 5
1.8195312 0.45231184 0.36444521 13
1.6960586 0.4213039 -0.091587931 6
1.8346066 0.45537856 0.43640503 14
1.711861 0.42459401 -0.030786045 7
1.7261175 0.42525318 0.031030379 8
1.7435569 0.42890415 0.094100058 9
1.6261762 0.40002927 -0.32552016 2
1.7490546 0.4299328 0.15757757 10
1.6612964 0.40805367 -0.27094454 3
1.7813553 0.43721339 0.22521456 11
1.6657542 0.40853217 -0.21059024 4
1.7785445 0.43586537 0.29002953 12
1.6816247 0.41211334 -0.15147668 5
1.8249129 0.44689119 0.36520842 13
1.7052791 0.41727939 -0.092006624 6
1.830506 0.44758365 0.43505535 14
1.7094476 0.41766706 -0.030716237 7
1.7178748 0.41686779 0.030855855 8
1.7392201 0.42140394 0.093786038 9
1.6371031 0.39666152 -0.32742825 2
1.7408623 0.42148107 0.15670602 10
1.6511905 0.39946556 -0.26906732 3
1.7635758 0.42632774 0.22277717 11
1.6787477 0.40551212 -0.21205269 4
1.7838955 0.43058175 0.29065526 12
1.6772428 0.4048388 -0.15095374 5
1.8188277 0.4386766 0.36368197 13
1.7067252 0.41132468 -0.092006624 6
1.8320571 0.44119164 0.43505535 14
1.7225604 0.41450399 -0.030925665 7
1.7232094 0.41179785 0.030925665 8
1.7484514 0.41718492 0.094204731 9
1.6365681 0.39048925 -0.32704663 2
1.744261 0.41586334 0.15688033 10
1.6487319 0.39278337 -0.26844159 3
1.7785709 0.42338741 0.22448336 11
1.6801531 0.39964929 -0.21205269 4
1.7892314 0.42526528 0.29128101 12
1.6844608 0.40036336 -0.15147668 5
1.8127073 0.43051082 0.3621555 13
1.7003776 0.40351948 -0.091587931 6
1.8487552 0.43839043 0.43865454 14
1.7278885 0.4094111 -0.030995475 7
1.7226897 0.40532261 0.030890759 8
1.7382309 0.40833896 0.093576699 9
1.6436546 0.38612142 -0.32819149 2
1.7592797 0.41295969 0.15810052 10
1.6577857 0.38883051 -0.26969305 3
1.772307 0.41536501 0.2235084 11
1.6660757 0.39016062 -0.21010277 4
1.7810879 0.41676712 0.28971666 12
1.6917371 0.39554802 -0.15199961 5
1.814199 0.42418104 0.3621555 13
1.7017758 0.39758113 -0.091587931 6
1.7215172 0.40156049 -0.030855855 7
1.7338349 0.40156233 0.031065283 8
1.7396456 0.4022693 0.093576699 9
1.6374075 0.37832627 -0.32666501 2
1.7549576 0.40516382 0.15757757 10
1.6630491 0.3836402 -0.27031878 3
1.7737461 0.40917635 0.2235084 11
1.6712959 0.38523459 -0.21059024 4
1.780607 0.41010362 0.2894038 12
1.6969906 0.39053437 -0.15234824 5
1.8272215 0.42016819 0.36444521 13
1.7071146 0.39223602 -0.091797277 6
1.7151127 0.39375857 -0.030716237 7
1.7411441 0.39653736 0.031169999 8
1.7468816 0.39752337 0.093890712 9
1.6387181 0.37260869 -0.32666501 2
1.7466468 0.39682874 0.15670602 10
1.6682309 0.37870693 -0.27094454 3
1.7829776 0.40442848 0.22448336 11
1.6726966 0.37910679 -0.21059024 4
1.7781745 0.40301275 0.28877807 12
1.6886276 0.38240764 -0.15147668 5
1.8325067 0.41465437 0.36520842 13
1.7065252 0.38583457 -0.091692604 6
1.7203774 0.38865092 -0.030786045 7
1.7307421 0.38813618 0.030960569 8
1.7463098 0.39098638 0.093786038 9
1.6457564 0.36817238 -0.32780987 2
1.7480214 0.39072892 0.15670602 10
1.6579109 0.37058684 -0.26906732 3
1.7901211 0.39981127 0.22521456 11
1.6816941 0.37528762 -0.2115652 4
1.7834268 0.39766267 0.2894038 12
1.6802289 0.37434414 -0.15060511 5
1.8223742 0.40601316 0.36291873 13
1.7155933 0.38190973 -0.092111297 6
1.7217237 0.38264287 -0.030786045 7
1.7203699 0.37950733 0.030751141 8
1.759367 0.38746598 0.094414078 9
1.645051 0.36229014 -0.32742825 2
1.7493073 0.38493046 0.15670602 10
1.6591942 0.36479774 -0.26906732 3
1.760484 0.38674566 0.22131474 11
1.686872 0.3702659 -0.21205269 4
1.7867335 0.39185756 0.28971666 12
1.6872995 0.37005019 -0.15112805 5
1.8199446 0.39880931 0.3621555 13
1.711063 0.37463686 -0.091797277 6
1.726956 0.37748501 -0.030855855 7
1.7314553 0.37561992 0.030925665 8
1.7489969 0.37878531 0.093786038 9
1.7545348 0.37966499 0.15705465 10
1.6604575 0.3590042 -0.26906732 3
1.7637637 0.38101676 0.22155848 11
1.6726311 0.36102432 -0.21010277 4
1.7996761 0.38811818 0.29159388 12
1.6905282 0.36457938 -0.15130237 5
1.8251642 0.39328071 0.36291873 13
1.7025979 0.36655957 -0.091273919 6
1.7282634 0.37145406 -0.030855855 7
1.732756 0.36957327 0.030925665 8
1.7463365 0.37215114 0.093576699 9
1.761696 0.37478152 0.15757757 10
1.6655651 0.35402691 -0.26969305 3
1.7728498 0.3765085 0.22253343 11
1.6699352 0.35465205 -0.20961528 4
1.7854944 0.37886736 0.28909093 12
1.6937397 0.35908887 -0.15147668 5
1.8265257 0.38690856 0.36291873 13
1.7077748 0.36144158 -0.091483258 6
1.7255726 0.36489379 -0.030786045 7
1.7398434 0.36505747 0.031030379 8
1.7534252 0.36758691 0.093890712 9
1.7590288 0.36812159 0.15722896 10
1.670597 0.34930986 -0.27031878 3
1.7760319 0.37103289 0.22277717 11
1.6788747 0.35073566 -0.21059024 4
1.7867409 0.37294471 0.28909093 12
1.6890701 0.35224953 -0.15095374 5
1.8316427 0.38164991 0.36368197 13
1.720696 0.35821918 -0.092111297 6
1.7306889 0.35998356 -0.030855855 7
1.739086 0.35888129 0.030995475 8
1.7527413 0.36106232 0.093786038 9
1.7543855 0.36108097 0.15670602 10
1.6640067 0.34217688 -0.26906732 3
1.7947527 0.36873716 0.22497083 11
1.6800889 0.34487274 -0.21059024 4
1.7899672 0.36710197 0.2894038 12
1.6863253 0.34584621 -0.15060511 5
1.8290515 0.37478602 0.36291873 13
1.7238312 0.35291129 -0.092215963 6
1.724098 0.35233977 -0.030716237 7
1.7305288 0.35082239 0.030820949 8
1.7657367 0.35731831 0.094414078 9
1.761494 0.35613889 0.15722896 10
1.6593821 0.33519328 -0.26812872 3
1.784354 0.36011335 0.2235084 11
1.6929582 0.34135979 -0.21205269 4
1.7970469 0.36202228 0.29034239 12
1.6914285 0.34074503 -0.15095374 5
1.8264995 0.36762393 0.3621555 13
1.7172204 0.34531638 -0.091797277 6
1.7410021 0.34946731 -0.030995475 7
1.7415489 0.34673229 0.030995475 8
1.7571782 0.34920639 0.093890712 9
1.7685888 0.35115317 0.15775189 10
1.6663549 0.33055156 -0.26906732 3
1.7817055 0.35311115 0.22302091 11
1.6824554 0.3331359 -0.21059024 4
1.8041131 0.35689679 0.29128101 12
1.7023803 0.33677158 -0.15182531 5
1.8354757 0.36276814 0.36368197 13
1.7066586 0.3369998 -0.091169246 6
1.7422115 0.34338748 -0.030995475 7
1.7388235 0.33988333 0.030925665 8
1.7564263 0.34268764 0.093786038 9
1.7756705 0.34612063 0.15827483 10
1.6694375 0.32511085 -0.26938018 3
1.7907214 0.34840566 0.22399586 11
1.6758137 0.32574546 -0.20961528 4
1.7956523 0.34871453 0.28971666 12
1.7035453 0.33082744 -0.15182531 5
1.7078247 0.33103994 -0.091169246 6
1.7276932 0.33426553 -0.030716237 7
1.7517825 0.33607256 0.031135093 8
1.7536887 0.33580279 0.093576699 9
1.7651266 0.33767447 0.15722896 10
1.6802634 0.32113591 -0.27094454 3
1.7997264 0.34364149 0.22497083 11
1.6866901 0.32175401 -0.21083398 4
1.7949183 0.34207416 0.2894038 12
1.6929469 0.32264054 -0.15077944 5
1.716818 0.32656974 -0.091587931 6
1.7327787 0.32897821 -0.030786045 7
1.7352585 0.32662606 0.030820949 8
1.7627019 0.33115467 0.093995392 9
1.7584617 0.3300404 0.15653172 10
1.6677834 0.31271994 -0.26875445 3
1.8009148 0.33735758 0.22497083 11
1.6956079 0.31732461 -0.21180893 4
1.798043 0.33617002 0.28971666 12
1.6921043 0.31636325 -0.15060511 5
1.7258011 0.32203996 -0.092006624 6
1.7299846 0.3221958 -0.030716237 7
1.736388 0.32056725 0.030820949 8
1.7717037 0.3264477 0.094414078 9
1.7674412 0.32534251 0.15722896 10
1.6727505 0.30761132 -0.26938018 3
1.7942718 0.32963392 0.22399586 11
1.7006103 0.31212014 -0.21229641 4
1.8089203 0.33167326 0.29128101 12
1.6971177 0.3111738 -0.15095374 5
1.7190562 0.31457531 -0.091587931 6
1.735033 0.31687313 -0.030786045 7
1.7394642 0.31485987 0.030855855 8
1.7590742 0.31777629 0.093681373 9
1.7764086 0.32058674 0.1579262 10
1.7875967 0.32196251 0.22302091 11
1.6880133 0.30372161 -0.21059024 4
1.8120114 0.32570595 0.29159388 12
1.7040763 0.30630481 -0.15147668 5
1.7162119 0.3078678 -0.091378585 6
1.7440021 0.31222475 -0.030925665 7
1.7503976 0.31053218 0.031030379 8
1.762085 0.31228927 0.093786038 9
1.777517 0.31438351 0.1579262 10
1.7926196 0.31641027 0.2235084 11
1.6890633 0.29782706 -0.21059024 4
1.8033547 0.31797972 0.29002953 12
1.7051351 0.30035496 -0.15147668 5
1.7251446 0.30325794 -0.091797277 6
1.7410887 0.30574831 -0.030855855 7
1.7533876 0.30506903 0.031065283 8
1.7631644 0.30613607 0.093786038 9
1.774677 0.3074978 0.15757757 10
1.805395 0.31249487 0.22497083 11
1.6939538 0.29290107 -0.21107772 4
1.7986138 0.31067544 0.28909093 12
1.7042099 0.2940619 -0.15130237 5
1.7261407 0.29753584 -0.091797277 6
1.7421455 0.29966849 -0.030855855 7
1.7485279 0.29793942 0.030960569 8
1.7720983 0.30131835 0.094204731 9
1.7658659 0.29994237 0.15670602 10
1.8123466 0.30718571 0.22570205 11
1.6988802 0.28764942 -0.2115652 4
1.8016353 0.30472419 0.2894038 12
1.7012467 0.28774473 -0.15095374 5
1.7271687 0.291509 -0.091797277 6
1.743181 0.29358497 -0.030855855 7
1.7416676 0.29051757 0.030820949 8
1.7770796 0.29578781 0.094414078 9
1.7708329 0.2944296 0.15705465 10
1.7957827 0.29793471 0.2235084 11
1.7077076 0.28301528 -0.21254015 4
1.8085344 0.29940084 0.29034239 12
1.706172 0.28245485 -0.15130237 5
1.7281759 0.28547785 -0.091797277 6
1.7481412 0.28814998 -0.030925665 7
1.7446444 0.28475958 0.030855855 8
1.7682447 0.28797713 0.093890712 9
1.7738163 0.28856763 0.15722896 10
1.7928928 0.29102781 0.22302091 11
1.6871305 0.2735588 -0.20985903 4
1.8154184 0.29403391 0.29128101 12
1.7110811 0.27713493 -0.151651 5
1.7212751 0.27816865 -0.091378585 6
1.7530848 0.2826823 -0.030995475 7
1.7535267 0.27992836 0.030995475 8
1.763322 0.28086096 0.093576699 9
1.7807157 0.28331277 0.15775189 10
1.8017399 0.28601292 0.22399586 11
1.6900357 0.26797834 -0.21010277 4
1.7969233 0.28460449 0.28815234 12
1.7159739 0.27178338 -0.15199961 5
1.7301266 0.27340677 -0.091797277 6
1.742209 0.27469286 -0.030786045 7
1.7584448 0.27442193 0.031065283 8
1.7642918 0.27470362 0.093576699 9
1.7777566 0.27648234 0.15740328 10
1.8105738 0.28093898 0.22497083 11
1.6948842 0.262685 -0.21059024 4
1.7130204 0.26488364 -0.151651 5
1.7369921 0.26827997 -0.092111297 6
1.74711 0.26921839 -0.030855855 7
1.7495077 0.26677531 0.030890759 8
1.7790617 0.27064565 0.094309397 9
1.7708786 0.2687692 0.15670602 10
1.8154689 0.27521175 0.22545831 11
1.6997163 0.25736189 -0.21107772 4
1.7099946 0.2583068 -0.15130237 5
1.7379637 0.26191217 -0.092111297 6
1.7480392 0.2631177 -0.030855855 7
1.7465178 0.25977322 0.030820949 8
1.7819712 0.26472777 0.094414078 9
1.7796896 0.26375395 0.15740328 10
1.8046829 0.26681426 0.22399586 11
1.7065395 0.25199991 -0.21180893 4
1.7148279 0.25291803 -0.151651 5
1.7309633 0.25468057 -0.091692604 6
1.7529038 0.25759616 -0.030925665 7
1.7552853 0.2551302 0.030960569 8
1.7710248 0.25678673 0.093786038 9
1.7845429 0.25811082 0.15775189 10
1.7957342 0.25940958 0.22277717 11
1.697542 0.2449224 -0.21059024 4
1.7196444 0.24749865 -0.15199961 5
1.7317985 0.24893859 -0.091692604 6
1.7617102 0.25261152 -0.031065283 7
1.760125 0.24956255 0.031030379 8
1.777843 0.25144258 0.094100058 9
1.7913074 0.25302717 0.15827483 10
1.8064569 0.25452486 0.22399586 11
1.7165097 0.2412397 -0.151651 5
1.7346348 0.24316959 -0.091797277 6
1.7467376 0.24424545 -0.030786045 7
1.766928 0.24423884 0.031135093 8
1.7806885 0.24550754 0.094204731 9
1.7842848 0.24568605 0.15757757 10
1.815201 0.2492975 0.22497083 11
1.7173413 0.23524685 -0.151651 5
1.7315154 0.23657194 -0.091587931 6
1.7515426 0.23868626 -0.030855855 7
1.7638061 0.23753619 0.031065283 8
1.7854937 0.23982157 0.094414078 9
1.7772325 0.23839708 0.15688033 10
1.8199955 0.24348572 0.22545831 11
1.7142023 0.22872332 -0.15130237 5
1.7442093 0.23210832 -0.092215963 6
1.752365 0.23257034 -0.030855855 7
1.754711 0.23007756 0.030890759 8
1.7902807 0.23410589 0.094623417 9
1.7859565 0.23322341 0.15757757 10
1.8129604 0.23610622 0.22448336 11
1.7149903 0.22273777 -0.15130237 5
1.7370861 0.22499181 -0.091797277 6
1.7610991 0.22747707 -0.030995475 7
1.7594706 0.22445758 0.030960569 8
1.7871245 0.22735064 0.094414078 9
1.7946657 0.22799258 0.15827483 10
1.8058963 0.22877793 0.2235084 11
1.723664 0.21775001 -0.15199961 5
1.7338978 0.21842717 -0.091587931 6
1.7658507 0.2218263 -0.031065283 7
1.7642125 0.2188063 0.031030379 8
1.7799784 0.2201317 0.093995392 9
1.7934734 0.22148198 0.15810052 10
1.8086538 0.22271664 0.22375213 11
1.7283686 0.21221714 -0.15234824 5
1.7386146 0.21285918 -0.091797277 6
1.7586741 0.21469292 -0.030925665 7
1.7828336 0.214799 0.031344522 8
1.788668 0.21486945 0.094414078 9
1.7823662 0.21379603 0.15705465 10
1.7172285 0.20476763 -0.15130237 5
1.7433137 0.20726012 -0.092006624 6
1.7554414 0.20808145 -0.030855855 7
1.7617245 0.20602074 0.030960569 8
1.7894071 0.20862405 0.094414078 9
1.7890387 0.20826548 0.15757757 10
1.7139746 0.19831368 -0.15095374 5
1.7479945 0.20163248 -0.092215963 6
1.7641034 0.20286591 -0.030995475 7
1.760446 0.1996441 0.030925665 8
1.8020321 0.20372315 0.095042109 9
1.787775 0.20179535 0.15740328 10
1.7285162 0.19388375 -0.15217392 5
1.740748 0.1946414 -0.091797277 6
1.7687756 0.1971502 -0.031065283 7
1.7730585 0.19480853 0.031135093 8
1.7888346 0.19590911 0.094309397 9
1.7963908 0.19642025 0.15810052 10
1.7311633 0.18806446 -0.15234824 5
1.7374457 0.18813339 -0.091587931 6
1.7774056 0.19183266 -0.031204903 7
1.7756503 0.18944898 0.031169999 8
1.783483 0.18965513 0.093995392 9
1.8029428 0.19140625 0.15862344 10
1.7459735 0.18350954 -0.092006624 6
1.7660667 0.18499818 -0.030995475 7
1.7802789 0.18366045 0.031239808 8
1.7920815 0.18424502 0.094414078 9
1.8016179 0.18490861 0.15844914 10
1.7505773 0.17781787 -0.092215963 6
1.7667017 0.17883188 -0.030995475 7
1.7669804 0.1760567 0.030995475 8
1.8046385 0.17917271 0.095042109 9
1.7844083 0.17684966 0.15688033 10
1.7551628 0.17209545 -0.092425302 6
1.7633346 0.17227532 -0.030925665 7
1.7675842 0.16988808 0.030995475 8
1.805253 0.17287177 0.095042109 9
1.7969148 0.1717577 0.1579262 10
1.7438226 0.16483954 -0.091797277 6
1.7758706 0.16724358 -0.031135093 7
1.7761312 0.16445401 0.031135093 8
1.7939125 0.16546977 0.094414078 9
1.8054395 0.16621438 0.15862344 10
1.7483655 0.15911385 -0.092006624 6
1.7844096 0.16176616 -0.031274714 7
1.7826699 0.15878491 0.031239808 8
1.7845318 0.15832382 0.093890712 9
1.8079935 0.16008647 0.15879777 10
1.7489103 0.15300949 -0.092006624 6
1.7690264 0.15414807 -0.030995475 7
1.7832131 0.1525625 0.031239808 8
1.7990041 0.15328011 0.094623417 9
1.7946445 0.15259406 0.15757757 10
1.753414 0.14723916 -0.092215963 6
1.7655681 0.14763834 -0.030925665 7
1.7817419 0.14617303 0.031204903 8
1.8114718 0.14797553 0.095251448 9
1.7578989 0.14143761 -0.092425302 6
1.7700593 0.14179419 -0.030995475 7
1.7702799 0.13901378 0.030995475 8
1.8159349 0.14228004 0.095460795 9
1.7543993 0.13499361 -0.092215963 6
1.7705199 0.13592403 -0.030995475 7
1.7826955 0.13404253 0.031204903 8
1.8024787 0.1348965 0.09472809 9
1.7548373 0.12917542 -0.092215963 6
1.7789608 0.13032688 -0.031135093 7
1.7891362 0.12824738 0.031309616 8
1.8029386 0.12860422 0.09472809 9
1.7794049 0.12411674 -0.031135093 7
1.7955582 0.1224089 0.03141433 8
1.807362 0.12257983 0.094937436 9
1.7718461 0.11737551 -0.030995475 7
1.7840216 0.11505525 0.031204903 8
1.8157717 0.11646648 0.095356122 9
1.776256 0.1111307 -0.031065283 7
1.7744324 0.10821888 0.031030379 8
1.8141736 0.11000617 0.095251448 9
1.784618 0.10540086 -0.031204903 7
1.7867776 0.10271239 0.031239808 8
1.8065524 0.10353281 0.094832763 9
1.7929442 0.099926889 -0.031344522 7
1.7970922 0.09732686 0.03141433 8
1.8029141 0.097011887 0.094623417 9
1.7892879 0.093460351 -0.031274714 7
1.8054097 0.091458313 0.03155395 8
1.8211944 0.091620632 0.095565468 9
1.7816139 0.086824179 -0.031135093 7
1.7937331 0.08459089 0.031344522 8
1.789897 0.080965631 -0.031274714 7
1.7820307 0.077805236 0.031135093 8
1.7921665 0.074800998 -0.031309616 7
1.7922817 0.071985945 0.031309616 8
1.802514 0.066095181 0.031484142 8
1.8087295 0.060001254 0.031588856 8
1.7989337 0.053391863 0.03141433 8
1.7971102 0.047059264 0.031379428 8
1.8012619 0.040877007 0.031449236 8
1.8113902 0.034780648 0.031623758 8
1.8154995 0.028519839 0.03169357 8
