# .PCD v0.7 - Point Cloud Data file format
VERSION 0.7
FIELDS x y z intensity
SIZE 4 4 4 4
TYPE F F F F
COUNT 1 1 1 1
WIDTH 1188
HEIGHT 1
VIEWPOINT 0 0 0 1 0 0 0
POINTS 1188
DATA ascii
1.7047609 0.98186594 -0.10310185 6
1.6846476 0.96324545 -0.16977938 5
1.6891016 0.96501106 -0.10195045 6
1.6776012 0.95146197 -0.16873352 5
1.7011483 0.96403217 -0.10247381 6
1.6878579 0.94950813 -0.16943076 5
1.7008543 0.9564274 -0.10226447 6
1.6909976 0.94390529 -0.16943076 5
1.683251 0.93880963 -0.10100841 6
1.6925393 0.93703133 -0.16925645 5
1.6898494 0.93515795 -0.10121775 6
1.6818275 0.92344731 -0.16786195 5
1.6931037 0.9292531 -0.10121775 6
1.6994672 0.92619437 -0.23764524 4
1.6815414 0.91566491 -0.16751333 5
1.7035156 0.92685992 -0.10163644 6
1.6923712 0.91429842 -0.23618281 4
1.6883925 0.91138881 -0.16786195 5
1.692679 0.91332012 -0.10079906 6
1.6920531 0.90651006 -0.23569533 4
1.6845376 0.90172809 -0.16716471 5
1.6924926 0.90522641 -0.10058971 6
1.6808705 0.89373451 -0.23374543 4
1.694243 0.90046656 -0.16786195 5
1.6916434 0.89832675 -0.10038038 6
1.6892478 0.89063966 -0.23447664 4
1.6868004 0.88897306 -0.16681609 5
1.7018375 0.89613897 -0.10079906 6
1.7011422 0.88933641 -0.23569533 4
1.6828302 0.87938815 -0.16611885 5
1.6978736 0.88649493 -0.10038038 6
1.6971868 0.87973827 -0.23472038 4
1.6894275 0.87534213 -0.16646746 5
1.6974101 0.87872678 -0.10017103 6
1.7282064 0.89390481 -0.033962384 7
1.7056755 0.87735045 -0.30379578 3
1.6825914 0.86473519 -0.232283 4
1.6926247 0.86914378 -0.16646746 5
1.6898057 0.86732465 -0.099542998 6
1.7224196 0.88330388 -0.033787858 7
1.6983199 0.86571062 -0.30191854 3
1.6856 0.85885614 -0.232283 4
1.699199 0.86503822 -0.16681609 5
1.6965336 0.86293679 -0.099752344 6
1.7165797 0.87275505 -0.033613335 7
1.6995687 0.85888571 -0.30160567 3
1.692131 0.85475743 -0.23277046 4
1.6915363 0.853715 -0.16577022 5
1.7031022 0.85880762 -0.099961683 6
1.6999732 0.85685664 -0.033229381 7
1.6741517 0.83908367 -0.29659978 3
1.6985058 0.85092002 -0.23325793 4
1.6907947 0.84631777 -0.16542161 5
1.7059411 0.85315472 -0.099961683 6
1.7099597 0.8547914 -0.033369001 7
1.6733873 0.83176839 -0.29597405 3
1.7014658 0.84498549 -0.23325793 4
1.6935921 0.84070581 -0.16542161 5
1.7016035 0.8439436 -0.099542998 6
1.7129328 0.84881771 -0.033369001 7
1.679824 0.82766944 -0.29659978 3
1.6901572 0.83202767 -0.23130804 4
1.7000911 0.83654934 -0.16577022 5
1.6973699 0.83447355 -0.099124312 6
1.723065 0.84635931 -0.033508621 7
1.689803 0.82526773 -0.29785126 3
1.6859151 0.82264024 -0.23033307 4
1.703001 0.83060932 -0.16577022 5
1.7002722 0.8285439 -0.099124312 6
1.7116255 0.83333713 -0.033229381 7
1.6767011 0.8123554 -0.3621555 2
1.6908952 0.81850386 -0.2975384 3
1.6852025 0.81502128 -0.2298456 4
1.6951271 0.81945717 -0.16472435 5
1.7031542 0.82260329 -0.099124312 6
1.7037178 0.82214332 -0.033019952 7
1.6795267 0.80649722 -0.3621555 2
1.6830562 0.80746931 -0.29566118 3
1.6987774 0.81428254 -0.23130804 4
1.6907904 0.81009114 -0.16402711 5
1.7096181 0.81837833 -0.099333659 6
1.7174015 0.82136744 -0.033229381 7
1.6805588 0.79978639 -0.36177388 2
1.6858648 0.80158901 -0.29566118 3
1.7016094 0.80834806 -0.23130804 4
1.6972076 0.805893 -0.16437572 5
1.7016371 0.80726957 -0.09870562 6
1.7202579 0.81536794 -0.033229381 7
1.6815648 0.79307729 -0.36139226 2
1.6868656 0.79485768 -0.29534832 3
1.6936443 0.79733056 -0.2298456 4
1.7108269 0.80505395 -0.16542161 5
1.7044449 0.80132437 -0.09870562 6
1.7267139 0.81105804 -0.033299193 7
1.711684 0.80071902 0.03298505 8
1.6736512 0.78221554 -0.35910255 2
1.6949992 0.7914722 -0.29628691 3
1.6964173 0.79141331 -0.2298456 4
1.7100149 0.7973935 -0.16507298 5
1.7036108 0.79368335 -0.098496281 6
1.7150308 0.79827529 -0.033019952 7
1.7271684 0.80062568 0.033229381 8
1.6728088 0.77471811 -0.35833931 2
1.701337 0.78721011 -0.29691264 3
1.6955661 0.78382057 -0.22935812 4
1.7055532 0.78807706 -0.16437572 5
1.7063711 0.78773135 -0.098496281 6
1.7141753 0.79060847 -0.032950144 7
1.7117807 0.78624564 0.032880332 8
1.6824638 0.77242446 -0.427407 1
1.68264 0.7721498 -0.35986578 2
1.6933008 0.7763266 -0.29503542 3
1.7055107 0.78120422 -0.23033307 4
1.7010477 0.77880073 -0.16367848 5
1.7127427 0.78343213 -0.09870562 6
1.7205625 0.78628188 -0.033019952 7
1.7254355 0.78523511 0.033089764 8
1.6691849 0.75928515 -0.42335787 1
1.6781762 0.76302165 -0.35833931 2
1.6870079 0.76632577 -0.2934711 3
1.7136505 0.77770674 -0.2310643 4
1.7073849 0.77450395 -0.16402711 5
1.7045522 0.77250165 -0.098077588 6
1.7232959 0.78027242 -0.033019952 7
1.7263423 0.77838659 0.033054858 8
1.6647189 0.75025076 -0.42155826 1
1.6826196 0.75796497 -0.35872093 2
1.6896725 0.76043272 -0.2934711 3
1.7036806 0.76602304 -0.22935812 4
1.7137123 0.77017313 -0.16437572 5
1.7035946 0.7649104 -0.097868249 6
1.7296585 0.77588868 -0.033089764 7
1.7290491 0.77235532 0.033054858 8
1.6762249 0.74840724 -0.42380777 1
1.6780838 0.74888688 -0.35719445 2
1.6959252 0.75613838 -0.29409683 3
1.7027178 0.75845551 -0.22887065 4
1.7163906 0.76418597 -0.16437572 5
1.7099034 0.76058364 -0.098077588 6
1.7250465 0.76659834 -0.032950144 7
1.7390494 0.76955146 0.033194479 8
1.6806087 0.74334097 -0.42425767 1
1.6770965 0.7414366 -0.35643122 2
1.6985538 0.75021505 -0.29409683 3
1.705355 0.75250685 -0.22887065 4
1.7081094 0.75336707 -0.16332985 5
1.7198589 0.75783128 -0.098496281 6
1.7203914 0.7573489 -0.032810524 7
1.7270733 0.75705421 0.032915238 8
1.6885483 0.73981571 -0.42560738 1
1.6868681 0.73872769 -0.35795769 2
1.6939235 0.74111384 -0.29284537 3
1.7043333 0.74495971 -0.22838317 4
1.7070776 0.74580437 -0.16298124 5
1.7224935 0.7518236 -0.098496281 6
1.7230247 0.7513386 -0.032810524 7
1.726037 0.74942768 0.03284543 8
1.6786067 0.72848678 -0.42245808 1
1.6894358 0.73283607 -0.35795769 2
1.6892502 0.73205411 -0.29159388 3
1.7069236 0.73900551 -0.22838317 4
1.7096707 0.73984057 -0.16298124 5
1.706775 0.73788029 -0.097449563 6
1.7329795 0.7484923 -0.032950144 7
1.6802641 0.72363621 -0.49020329 0
1.7302195 0.74479246 0.032880332 8
1.6790972 0.72243899 -0.42200816 1
1.6899265 0.72674888 -0.35757607 2
1.6951715 0.72830343 -0.29221961 3
1.7055885 0.73207384 -0.22789569 4
1.7119864 0.73446614 -0.16298124 5
1.7017415 0.72936767 -0.097030871 6
1.7316464 0.74146873 -0.032880332 7
1.6987723 0.72458839 -0.49486202 0
1.7272905 0.73639524 0.032775622 8
1.6780231 0.71504593 -0.42110837 1
1.6906466 0.72007656 -0.35719445 2
1.6977032 0.72238207 -0.29221961 3
1.6953454 0.7206791 -0.22618952 4
1.7218745 0.73160255 -0.16367848 5
1.7116312 0.7265442 -0.097449563 6
1.723178 0.73073578 -0.032670904 7
1.66392 0.70286745 -0.48399165 0
1.7298503 0.73036176 0.032775622 8
1.6876907 0.71221447 -0.42290798 1
1.6859144 0.71111822 -0.35566798 2
1.7056757 0.71875238 -0.29315823 3
1.7106577 0.72014874 -0.22789569 4
1.7060535 0.71785992 -0.16193536 5
1.7178391 0.72211337 -0.097658902 6
1.7220306 0.72316813 -0.032601096 7
1.6806208 0.70301938 -0.48813272 0
1.7268543 0.72200519 0.032670904 8
1.6847725 0.70406431 -0.42155826 1
1.7452743 0.72899115 0.099124312 9
1.6847632 0.70371598 -0.35490477 2
1.6990594 0.70899004 -0.29159388 3
1.7131612 0.7141726 -0.22789569 4
1.7011926 0.70883465 -0.16123812 5
1.7166618 0.71457708 -0.097449563 6
1.7282372 0.71868879 -0.032670904 7
1.6777104 0.69493037 -0.48657984 0
1.7164305 0.71061879 0.03242657 8
1.6800171 0.69519889 -0.41975865 1
1.7588824 0.72747421 0.099752344 9
1.6944662 0.70083165 -0.35643122 2
1.7033492 0.70380962 -0.29190674 3
1.7156436 0.70818859 -0.22789569 4
1.714707 0.7074517 -0.16228399 5
1.7080661 0.70401424 -0.096821532 6
1.7381318 0.71569675 -0.032810524 7
1.6837004 0.69053626 -0.48761511 0
1.7263019 0.70765644 0.03256619 8
1.6752204 0.68637532 -0.41795903 1
1.7355349 0.71073389 0.098286942 9
1.696902 0.69491297 -0.35643122 2
1.7003111 0.69561517 -0.29096815 3
1.7070798 0.69768977 -0.22643325 4
1.7171663 0.70146155 -0.16228399 5
1.710513 0.698048 -0.096821532 6
1.744323 0.71113455 -0.032880332 7
1.6950502 0.68828839 -0.49020329 0
1.7287617 0.70162576 0.03256619 8
1.6794119 0.68125647 -0.41840896 1
1.7452853 0.70797813 0.09870562 9
1.6920401 0.68603432 -0.35490477 2
1.7045592 0.69041848 -0.29128101 3
1.7095048 0.69172627 -0.22643325 4
1.723298 0.69695842 -0.16263261 5
1.7092358 0.69057614 -0.096612185 6
1.728129 0.6978597 -0.032531288 7
1.6902729 0.67948472 -0.48813272 0
1.7347898 0.69738042 0.032636002 8
1.690703 0.67931581 -0.42065847 1
1.7403326 0.69890398 0.098286942 9
1.6871369 0.67719817 -0.3533783 2
1.714173 0.68770373 -0.2925325 3
1.7117895 0.68605304 -0.22643325 4
1.7109234 0.68501383 -0.16123812 5
1.7189337 0.68787199 -0.097030871 6
1.7231274 0.68885344 -0.032391667 7
1.6799529 0.66887474 -0.48450929 0
1.7316393 0.6891036 0.032531288 8
1.6966857 0.67484999 -0.42155826 1
1.7483296 0.69503784 0.098600946 9
1.6930219 0.67305058 -0.3541415 2
1.7000401 0.67515355 -0.28971666 3
1.7215542 0.68300301 -0.22740822 4
1.7168899 0.68080479 -0.16158675 5
1.7250377 0.68333995 -0.097240217 6
1.7292405 0.68430567 -0.032461476 7
1.6840749 0.66371441 -0.4850269 0
1.7135682 0.67499262 0.032147333 8
1.6790847 0.66107166 -0.41660935 1
1.7544621 0.69039387 0.0988103 9
1.6990145 0.66857481 -0.35490477 2
1.6987091 0.66777092 -0.28909093 3
1.7202325 0.67553782 -0.22692074 4
1.7118375 0.67189533 -0.16088949 5
1.719975 0.67439747 -0.096821532 6
1.7316184 0.67826569 -0.032461476 7
1.6917809 0.65993762 -0.48657984 0
1.7233663 0.67191303 0.032286953 8
1.6795665 0.65449852 -0.41615945 1
1.7419728 0.67846608 0.097972922 9
1.7013382 0.66263962 -0.35490477 2
1.7065529 0.66398567 -0.29002953 3
1.715179 0.66665268 -0.22594579 4
1.7178864 0.66735995 -0.16123812 5
1.7148705 0.66549957 -0.096402846 6
1.7488915 0.67799902 -0.032740716 7
1.7030848 0.65750819 -0.48916802 0
1.736895 0.67021203 0.032496382 8
1.6891139 0.65143615 -0.41795903 1
1.7406029 0.67094582 0.097763576 9
1.6963129 0.6538735 -0.3533783 2
1.7107037 0.65873402 -0.29034239 3
1.7100848 0.65781033 -0.22497083 4
1.7239249 0.66278887 -0.16158675 5
1.7209122 0.66094118 -0.096612185 6
1.7325774 0.66472751 -0.032391667 7
1.6873236 0.64466411 -0.48399165 0
1.7392241 0.66414458 0.032496382 8
1.6895566 0.64484161 -0.41750914 1
1.7429345 0.66486543 0.097763576 9
1.6985852 0.64794779 -0.3533783 2
1.7129925 0.6527589 -0.29034239 3
1.7160811 0.65324903 -0.22545831 4
1.715055 0.65251666 -0.16054088 5
1.723209 0.65492958 -0.096612185 6
1.7311481 0.65725648 -0.032321859 7
1.6877563 0.63808745 -0.48347399 0
1.7284371 0.65312284 0.032252047 8
1.7009127 0.64238214 -0.41975865 1
1.7471135 0.6594823 0.097868249 9
1.6971633 0.64062762 -0.35261503 2
1.6967776 0.63980544 -0.28721371 3
1.7183509 0.64725518 -0.22545831 4
1.713593 0.64512151 -0.16019225 5
1.7292234 0.65031695 -0.096821532 6
1.7371759 0.65261561 -0.032391667 7
1.6954018 0.63422233 -0.4850269 0
1.7250875 0.64498413 0.032147333 8
1.6976683 0.63439482 -0.41840896 1
1.7586452 0.65718102 0.098391607 9
1.6957107 0.63332605 -0.35185182 2
1.6971495 0.63318855 -0.28690085 3
1.7280399 0.6440264 -0.22643325 4
1.7195688 0.64052659 -0.16054088 5
1.7202514 0.64009815 -0.096193492 6
1.7393305 0.64685088 -0.032391667 7
1.6921701 0.62628829 -0.48347399 0
1.7253414 0.63856536 0.032112427 8
1.6869686 0.6240294 -0.41525963 1
1.7440686 0.64480442 0.097449563 9
1.7052774 0.63012457 -0.3533783 2
1.7047988 0.62961054 -0.28783944 3
1.718992 0.63416952 -0.22497083 4
1.729272 0.63727635 -0.16123812 5
1.7186165 0.63300902 -0.095984153 6
1.7415779 0.64077592 -0.032391667 7
1.7014935 0.62333196 -0.48554453 0
1.7444599 0.63872713 0.03242657 8
1.6927968 0.61947596 -0.41615945 1
1.7444329 0.63802683 0.09734489 9
1.6999823 0.62176901 -0.35185182 2
1.7106973 0.62501115 -0.2884652 3
1.7137358 0.62544334 -0.22399586 4
1.7238886 0.62880784 -0.16054088 5
1.7170624 0.62563884 -0.095774807 6
1.7325293 0.63058954 -0.032182239 7
1.6836799 0.61014903 -0.47985053 0
1.7429188 0.63127154 0.032356761 8
1.6949492 0.61356276 -0.41615945 1
1.7504054 0.63329315 0.097554229 9
1.6984499 0.61449569 -0.35108855 2
1.7443746 0.63076597 0.16228399 10
1.7165843 0.62037826 -0.28909093 3
1.7196431 0.62080514 -0.22448336 4
1.7185767 0.62008119 -0.15984364 5
1.7267517 0.62234968 -0.096193492 6
1.7347196 0.62453836 -0.032182239 7
1.6894367 0.60557145 -0.4808858 0
1.733816 0.62113851 0.032147333 8
1.7007498 0.60895669 -0.41705924 1
1.7526056 0.62717873 0.097554229 9
1.7005847 0.60856283 -0.35108855 2
1.7484416 0.62534446 0.1624583 10
1.7112987 0.61172312 -0.28783944 3
1.7255384 0.61613417 -0.22497083 4
1.7132246 0.61140013 -0.15914638 5
1.7289138 0.61631799 -0.096193492 6
1.740657 0.61982036 -0.032252047 7
1.6897193 0.59902531 -0.48036817 0
1.7359738 0.61508209 0.032147333 8
1.6881695 0.59781176 -0.41346005 1
1.7641981 0.62438941 0.098077588 9
1.7026985 0.60262328 -0.35108855 2
1.752492 0.61990219 0.16263261 10
1.7096992 0.60442865 -0.28721371 3
1.7314222 0.61142951 -0.22545831 4
1.7228639 0.60806817 -0.15984364 5
1.7235197 0.60762411 -0.095774807 6
1.7465825 0.61506861 -0.032321859 7
1.7009155 0.59631872 -0.48295635 0
1.7399975 0.60967946 0.032182239 8
1.6792102 0.58805197 -0.41076064 1
1.7550564 0.61426818 0.097449563 9
1.7084979 0.59797275 -0.35185182 2
1.7490035 0.61180711 0.16210969 10
1.7080687 0.59715432 -0.28658798 3
1.7260497 0.60276365 -0.22448336 4
1.7287376 0.60336477 -0.16019225 5
1.7218585 0.60028875 -0.095565468 6
1.7487187 0.6089685 -0.032321859 7
1.7029867 0.59037733 -0.48295635 0
1.7440045 0.60425705 0.032217141 8
1.6904601 0.58537471 -0.41301015 1
1.7496401 0.60552478 0.097030871 9
1.7031537 0.58943653 -0.35032535 2
1.756777 0.60765237 0.16263261 10
1.7176107 0.59376955 -0.28783944 3
1.7206376 0.59414369 -0.2235084 4
1.7346003 0.5986262 -0.16054088 5
1.7239432 0.59427506 -0.095565468 6
1.7394893 0.5989539 -0.032112427 7
1.6940719 0.58067203 -0.47985053 0
1.749887 0.59946138 0.032286953 8
1.6980244 0.58136362 -0.41435984 1
1.7479634 0.5981217 0.096821532 9
1.7014856 0.58221781 -0.34956211 2
1.7475765 0.59764761 0.16158675 10
1.719673 0.58776981 -0.28783944 3
1.7227013 0.58813339 -0.2235084 4
1.7253655 0.58870679 -0.159495 5
1.7297883 0.58954191 -0.095774807 6
1.730211 0.58901298 -0.031902999 7
1.6869404 0.5716545 -0.47726235 0
1.7368165 0.58821815 0.032007713 8
1.703735 0.57668275 -0.41525963 1
1.7538246 0.59329605 0.097030871 9
1.7072271 0.57753271 -0.35032535 2
1.7439898 0.58962899 0.16106381 10
1.7142286 0.57923448 -0.28658798 3
1.7285055 0.58338559 -0.22399586 4
1.7198583 0.58013374 -0.15879777 5
1.7394067 0.58605063 -0.096193492 6
1.7398378 0.58552063 -0.032042619 7
1.701649 0.5703544 -0.4808858 0
1.7349651 0.5811854 0.031937905 8
1.698246 0.56855547 -0.41346005 1
1.7557825 0.58747643 0.097030871 9
1.709133 0.5718677 -0.35032535 2
1.7497143 0.58510739 0.16141243 10
1.7048986 0.56979018 -0.28471076 3
1.7341961 0.5789088 -0.22448336 4
1.7217726 0.57442766 -0.15879777 5
1.7337611 0.57775396 -0.095774807 6
1.7455646 0.58101046 -0.032112427 7
1.7017953 0.56380385 -0.48036817 0
1.7407801 0.57638234 0.032007713 8
1.6965203 0.56139916 -0.41256022 1
1.7445487 0.57695448 0.096298166 9
1.7129827 0.56651503 -0.35070693 2
1.7593131 0.58149678 0.16210969 10
1.708753 0.56445467 -0.28502363 3
1.7230105 0.56849742 -0.22277717 4
1.731336 0.57090932 -0.159495 5
1.7281791 0.56919962 -0.095356122 6
1.751381 0.57616395 -0.032182239 7
1.7055889 0.55846161 -0.4808858 0
1.7427815 0.57030189 0.032007713 8
1.6966174 0.55486846 -0.41211033 1
1.7465519 0.57086176 0.096298166 9
1.7056191 0.55748284 -0.34879887 2
1.76512 0.57658893 0.1624583 10
1.7163463 0.56032604 -0.28596222 3
1.7230973 0.56186366 -0.22253343 4
1.7333182 0.56486267 -0.159495 5
1.7263572 0.56192684 -0.095146775 6
1.7419716 0.56633687 -0.031972811 7
1.7001761 0.55012518 -0.47881526 0
1.748567 0.5654459 0.032077521 8
1.7041069 0.55074012 -0.41346005 1
1.7542359 0.56660289 0.096612185 9
1.7038184 0.55031848 -0.34803563 2
1.7557455 0.56675214 0.16141243 10
1.7182919 0.55433106 -0.28596222 3
1.7288268 0.55706346 -0.22302091 4
1.7314866 0.55758697 -0.15914638 5
1.7359134 0.55834383 -0.095565468 6
1.7439377 0.5602532 -0.031972811 7
1.6910452 0.54065758 -0.47570941 0
1.7467203 0.55812192 0.032007713 8
1.7115881 0.54656708 -0.41480973 1
1.7542024 0.56017524 0.096507512 9
1.7132102 0.54675561 -0.34956211 2
1.7501204 0.55819863 0.16071519 10
1.7051599 0.54352987 -0.28345928 3
1.734544 0.55222934 -0.2235084 4
1.7182336 0.54670632 -0.15775189 5
1.737852 0.55228055 -0.095565468 6
1.7457862 0.55446655 -0.031972811 7
1.7131859 0.54115176 -0.48140347 0
1.7390276 0.5493145 0.03183319 8
1.7040993 0.53795534 -0.41256022 1
1.758052 0.554649 0.096612185 9
1.7132359 0.54018122 -0.34918046 2
1.7520581 0.55208659 0.16071519 10
1.7107208 0.53906089 -0.28408504 3
1.7325785 0.54528278 -0.22302091 4
1.7315358 0.54429042 -0.15879777 5
1.7358629 0.54531777 -0.095356122 6
1.7477108 0.54836959 -0.031972811 7
1.7020625 0.53143758 -0.47777998 0
1.7447522 0.54443246 0.031902999 8
1.7003858 0.53026271 -0.41121054 1
1.750348 0.54584336 0.096088827 9
1.7112694 0.53332818 -0.34841725 2
1.7633907 0.54923546 0.16158675 10
1.7163644 0.5342598 -0.28471076 3
1.7666008 0.54955804 0.22716448 11
1.726889 0.53687471 -0.22204597 4
1.7409416 0.54091042 -0.159495 5
1.7301257 0.53688776 -0.094937436 6
1.7533394 0.54375595 -0.032042619 7
1.7205216 0.53061742 -0.48243871 0
1.7484586 0.53923333 0.031937905 8
1.6909612 0.52117676 -0.40851113 1
1.7484252 0.53855383 0.09587948 9
1.7056147 0.52504224 -0.34689078 2
1.7576801 0.54073286 0.16088949 10
1.721903 0.52972639 -0.28533649 3
1.7703109 0.54428047 0.22740822 11
1.7286597 0.53114557 -0.22204597 4
1.7294862 0.530738 -0.15827483 5
1.7357153 0.53231901 -0.095146775 6
1.7514031 0.53646058 -0.031972811 7
1.7000966 0.51815003 -0.47622705 0
1.7541564 0.53429163 0.032007713 8
1.7020917 0.51810801 -0.41076064 1
1.7560267 0.53419161 0.096193492 9
1.6998335 0.51709735 -0.3453643 2
1.7575572 0.53432208 0.16071519 10
1.7275218 0.52486068 -0.28596222 3
1.7627025 0.5352143 0.22618952 11
1.7305034 0.52510768 -0.22204597 4
1.7236103 0.52268666 -0.15757757 5
1.737563 0.52625656 -0.095146775 6
1.7417805 0.52687025 -0.031763379 7
1.7000451 0.51165521 -0.47570941 0
1.7445209 0.52470976 0.031798285 8
1.7150871 0.51553041 -0.41346005 1
1.7578809 0.52805823 0.096193492 9
1.7053889 0.51228988 -0.34612754 2
1.7536865 0.52646554 0.16019225 10
1.7179906 0.51542258 -0.28408504 3
1.775969 0.53247815 0.22765194 11
1.7399321 0.52134258 -0.22302091 4
1.7216067 0.5155251 -0.15722896 5
1.7432166 0.5213322 -0.095356122 6
1.7436091 0.52078658 -0.031763379 7
1.6962651 0.50406814 -0.47415653 0
1.7444249 0.51804727 0.031763379 8
1.705667 0.50621331 -0.41076064 1
1.7577983 0.52135211 0.096088827 9
1.7146952 0.50856805 -0.34765401 2
1.7574239 0.52090657 0.16036656 10
1.7197794 0.50942206 -0.28408504 3
1.7606854 0.52120566 0.22545831 11
1.7417413 0.51526624 -0.22302091 4
1.7311274 0.51147008 -0.1579262 5
1.7392792 0.51354766 -0.095042109 6
1.7492527 0.51582783 -0.03183319 7
1.7055168 0.50002038 -0.47622705 0
1.7558173 0.51476741 0.031937905 8
1.7036834 0.49916089 -0.40986085 1
1.7576909 0.51465142 0.095984153 9
1.7127794 0.50117594 -0.34689078 2
1.7688829 0.51725817 0.16123812 10
1.7178427 0.50200748 -0.28345928 3
1.7567781 0.51338565 0.22472709 11
1.7340019 0.50640041 -0.22180222 4
1.729077 0.50430804 -0.15757757 5
1.7373143 0.50605267 -0.094832763 6
1.7587223 0.51195556 -0.031972811 7
1.7165301 0.49675032 -0.47881526 0
1.7557713 0.50777346 0.031902999 8
1.7092458 0.49399489 -0.41076064 1
1.7498831 0.50573963 0.095460795 9
1.7069736 0.4930163 -0.3453643 2
1.7649351 0.50942242 0.16071519 10
1.7252787 0.49765003 -0.2843979 3
1.7605554 0.50749266 0.22497083 11
1.7338514 0.49979505 -0.22155848 4
1.7423147 0.50157607 -0.15862344 5
1.7409899 0.50053668 -0.094937436 6
1.752811 0.50360405 -0.03183319 7
1.7051657 0.48733881 -0.47519177 0
1.7535998 0.50085032 0.03183319 8
1.7108747 0.48832363 -0.41076064 1
1.7573123 0.50157803 0.095774807 9
1.7085991 0.48735258 -0.3453643 2
1.7589504 0.50138259 0.16001794 10
1.7269197 0.4919256 -0.2843979 3
1.7641377 0.50219548 0.22521456 11
1.7393178 0.49513 -0.22204597 4
1.7286371 0.49143648 -0.15722896 5
1.7426401 0.49476096 -0.094937436 6
1.7429287 0.4945133 -0.031623758 7
1.7030537 0.48063245 -0.47415653 0
1.7475528 0.4928607 0.03169357 8
1.7199869 0.48476321 -0.41256022 1
1.7666551 0.49791622 0.096193492 9
1.7139856 0.482748 -0.34612754 2
1.7567677 0.49446681 0.15966932 10
1.7266396 0.48566252 -0.28408504 3
1.7753487 0.499028 0.22643325 11
1.7410356 0.48905519 -0.22204597 4
1.7264205 0.48462474 -0.15688033 5
1.7481176 0.49005717 -0.095146775 6
1.7445589 0.48873121 -0.031623758 7
1.7121655 0.47675723 -0.47622705 0
1.7491773 0.48706326 0.03169357 8
1.7046884 0.47435462 -0.40851113 1
1.7703067 0.49228099 0.096298166 9
1.7175517 0.47728816 -0.34650916 2
1.7604027 0.48886505 0.15984364 10
1.7149172 0.47623369 -0.28189492 3
1.765517 0.48995337 0.22497083 11
1.7502992 0.4854013 -0.22302091 4
1.7319418 0.47965944 -0.15722896 5
1.7458832 0.48319238 -0.094937436 6
1.7578189 0.48583525 -0.03183319 7
1.7062862 0.4690282 -0.47415653 0
1.7508668 0.48095486 0.03169357 8
1.7006962 0.46685323 -0.40716141 1
1.7585318 0.48239949 0.095565468 9
1.7172319 0.47107011 -0.34612754 2
1.762014 0.48302501 0.15984364 10
1.7222848 0.47180992 -0.28283355 3
1.7576435 0.48116639 0.22375213 11
1.7424091 0.47667 -0.22180222 4
1.7335231 0.47391298 -0.15722896 5
1.7359985 0.47393945 -0.094309397 6
1.7595042 0.47969592 -0.03183319 7
1.7116419 0.46408075 -0.47519177 0
1.7583253 0.47640869 0.031798285 8
1.7117205 0.46346068 -0.40941092 1
1.754421 0.47469357 0.095251448 9
1.7112851 0.46302229 -0.34460106 2
1.7656128 0.47739103 0.16001794 10
1.7239212 0.46579552 -0.28283355 3
1.7669779 0.47709835 0.22472709 11
1.738313 0.46903306 -0.22107102 4
1.739014 0.46889672 -0.15757757 5
1.7453567 0.46995348 -0.09472809 6
1.7573056 0.47251299 -0.031763379 7
1.7057863 0.4561066 -0.47312123 0
1.7619095 0.47078466 0.03183319 8
1.7152107 0.457986 -0.40986085 1
1.7657161 0.47114065 0.095774807 9
1.7090971 0.45603317 -0.34383783 2
1.7614932 0.46968457 0.159495 10
1.7274452 0.46028402 -0.28314641 3
1.770551 0.47143784 0.22497083 11
1.7380213 0.46245149 -0.22082727 4
1.7868664 0.47511518 0.29284537 12
1.7330188 0.4604727 -0.15688033 5
1.7508475 0.46488279 -0.094937436 6
1.7550786 0.46535051 -0.03169357 7
1.7298639 0.45575806 -0.47933289 0
1.7519399 0.46157432 0.031623758 8
1.7224524 0.45348397 -0.41121054 1
1.7692813 0.46548367 0.09587948 9
1.710757 0.44976634 -0.34383783 2
1.7574219 0.46170685 0.15897207 10
1.7310312 0.45445147 -0.28345928 3
1.7760255 0.46626395 0.22545831 11
1.7492256 0.45890093 -0.22204597 4
1.7770493 0.46586886 0.29096815 12
1.7269061 0.45240125 -0.15618308 5
1.7525395 0.45846289 -0.094937436 6
1.7566924 0.45922086 -0.03169357 7
1.7516842 0.45464808 0.031588856 8
1.7127849 0.4442327 -0.40851113 1
1.7728287 0.45980585 0.095984153 9
1.7161177 0.44477662 -0.34460106 2
1.7667377 0.45756796 0.15966932 10
1.7249576 0.44642612 -0.28220782 3
1.7642699 0.45627087 0.22375213 11
1.7469732 0.45179763 -0.22155848 4
1.7786647 0.45966336 0.29096815 12
1.7323328 0.44736722 -0.15653172 5
1.748327 0.45084679 -0.094623417 6
1.7660301 0.45508325 -0.03183319 7
1.7531822 0.4488371 0.031588856 8
1.7085849 0.43710107 -0.40716141 1
1.7588643 0.44996384 0.095146775 9
1.7213873 0.44005617 -0.3453643 2
1.7798276 0.45466587 0.16071519 10
1.7264287 0.440703 -0.28220782 3
1.7600026 0.44894624 0.22302091 11
1.7369206 0.4430584 -0.22009605 4
1.7916641 0.4566904 0.29284537 12
1.733807 0.44161966 -0.15653172 5
1.7401344 0.44258547 -0.094100058 6
1.7714058 0.45020902 -0.031902999 7
1.7604777 0.44448897 0.03169357 8
1.7194726 0.43381673 -0.40941092 1
1.7642199 0.4451063 0.095356122 9
1.7209337 0.43386501 -0.34498268 2
1.7735975 0.44681382 0.16001794 10
1.7278805 0.43497592 -0.28220782 3
1.7634071 0.44359121 0.22326466 11
1.7345301 0.4363271 -0.21960858 4
1.7778425 0.44689348 0.29034239 12
1.7391264 0.43683884 -0.15688033 5
1.7512788 0.4392415 -0.094623417 6
1.7573712 0.44044358 -0.031623758 7
1.7658228 0.4396151 0.031763379 8
1.7209018 0.42811191 -0.40941092 1
1.7715008 0.44069949 0.095670134 9
1.7128363 0.42578885 -0.34307459 2
1.7673348 0.43900901 0.1593207 10
1.7369823 0.43114668 -0.28345928 3
1.7764285 0.44060871 0.22472709 11
1.739821 0.43152893 -0.22009605 4
1.7716451 0.43909502 0.28909093 12
1.7366978 0.43011087 -0.15653172 5
1.7527256 0.43343198 -0.094623417 6
1.751057 0.4326942 -0.031484142 7
1.7615957 0.43171173 0.031658668 8
1.7243522 0.4222655 -0.40986085 1
1.7789999 0.43531877 0.095984153 9
1.7181993 0.42044094 -0.34383783 2
1.7611907 0.43063509 0.15862344 10
1.7270372 0.4219647 -0.28158206 3
1.7799598 0.43456602 0.22497083 11
1.745322 0.4257867 -0.22058353 4
1.7848333 0.43509582 0.29096815 12
1.7324553 0.4223274 -0.15600878 5
1.7601247 0.42842078 -0.094937436 6
1.7527056 0.42596784 -0.031484142 7
1.759204 0.42462194 0.031588856 8
1.7106603 0.41258809 -0.40626162 1
1.7766252 0.42817071 0.095774807 9
1.7196563 0.41444111 -0.34383783 2
1.770431 0.42635101 0.1593207 10
1.7246588 0.41500893 -0.28095633 3
1.7660252 0.42463785 0.22302091 11
1.7506579 0.42061967 -0.22107102 4
1.7824996 0.42794016 0.29034239 12
1.7397311 0.41767234 -0.15653172 5
1.7557824 0.42087865 -0.094623417 6
1.7658503 0.42264032 -0.03169357 7
1.7606755 0.41847813 0.031588856 8
1.713986 0.40706491 -0.40671152 1
1.7683192 0.41996884 0.095251448 9
1.7287335 0.41024867 -0.3453643 2
1.7757859 0.42108741 0.15966932 10
1.729941 0.40989745 -0.28158206 3
1.7790868 0.42121428 0.22448336 11
1.7443885 0.41267768 -0.22009605 4
1.7896758 0.42339149 0.29128101 12
1.7450562 0.41251403 -0.15688033 5
1.7455778 0.41199407 -0.093995392 6
1.7672422 0.41678172 -0.03169357 7
1.7678949 0.41400459 0.03169357 8
1.7191213 0.40226722 -0.40761131 1
1.7697744 0.41379407 0.095251448 9
1.722508 0.40242472 -0.34383783 2
1.7811253 0.41579241 0.16001794 10
1.7351381 0.40505698 -0.28220782 3
1.7746743 0.41395989 0.22375213 11
1.7418808 0.40598908 -0.21960858 4
1.7834473 0.41534993 0.29002953 12
1.7426044 0.40551737 -0.15653172 5
1.7469345 0.40620279 -0.093995392 6
1.756999 0.40789661 -0.031484142 7
1.7673806 0.40738219 0.031658668 8
1.7243133 0.39713824 -0.40851113 1
1.7770472 0.40895805 0.095565468 9
1.7123533 0.39406985 -0.34154812 2
1.7727858 0.40765074 0.15914638 10
1.7403919 0.39988199 -0.28283355 3
1.7741739 0.40731794 0.2235084 11
1.7432872 0.39990669 -0.21960858 4
1.7791098 0.40779749 0.28909093 12
1.7419976 0.39929083 -0.15635739 5
1.7561294 0.40188494 -0.094414078 6
1.7506143 0.3999798 -0.031344522 7
1.7648914 0.40032604 0.031588856 8
1.7332911 0.39284018 -0.41031075 1
1.778464 0.40275201 0.095565468 9
1.7213776 0.38982424 -0.34307459 2
1.7644817 0.39926186 0.15827483 10
1.7263632 0.39031982 -0.2803306 3
1.7872024 0.40374735 0.22497083 11
1.756291 0.39644116 -0.22107102 4
1.7901573 0.4037582 0.29065526 12
1.7356064 0.39145464 -0.15566015 5
1.7653155 0.39750695 -0.094832763 6
1.7637056 0.39649856 -0.03155395 7
1.7604228 0.39285675 0.031484142 8
1.7232398 0.38424236 -0.40761131 1
1.7798592 0.39654109 0.095565468 9
1.7265606 0.38466653 -0.34383783 2
1.7678093 0.39353356 0.15844914 10
1.7277151 0.38429084 -0.2803306 3
1.7750363 0.39449126 0.22326466 11
1.757664 0.39030933 -0.22107102 4
1.7954129 0.39836225 0.29128101 12
1.7427976 0.38668808 -0.15618308 5
1.7471921 0.38702419 -0.093786038 6
1.765079 0.3903392 -0.03155395 7
1.7637368 0.38713759 0.031519048 8
1.7188601 0.37697193 -0.40626162 1
1.7714775 0.3881886 0.095042109 9
1.7259748 0.37821746 -0.34345621 2
1.7750112 0.38863829 0.15897207 10
1.7290462 0.37825719 -0.2803306 3
1.7725238 0.38744539 0.22277717 11
1.7493188 0.38205329 -0.21985231 4
1.7948627 0.39167103 0.29096815 12
1.7421904 0.38017699 -0.15600878 5
1.8107705 0.39481223 0.3602474 13
1.7524356 0.38177282 -0.093995392 6
1.7703388 0.38502586 -0.031623758 7
1.7670321 0.38140005 0.03155395 8
1.7373097 0.37466827 -0.41031075 1
1.7728219 0.38200215 0.095042109 9
1.7234464 0.37136286 -0.34269297 2
1.791939 0.38579422 0.16036656 10
1.7380805 0.37388226 -0.28158206 3
1.7796879 0.3825067 0.2235084 11
1.7409377 0.37386027 -0.21863361 4
1.7865616 0.38333258 0.2894038 12
1.7532468 0.3761844 -0.15688033 5
1.8063787 0.38725394 0.35910255 13
1.7537576 0.37565288 -0.093995392 6
1.7599391 0.37633449 -0.03141433 7
1.7820457 0.37813556 0.031798285 8
1.7760981 0.37622663 0.095146775 9
1.7247319 0.36534587 -0.34269297 2
1.7757319 0.37582436 0.15879777 10
1.7393751 0.36781248 -0.28158206 3
1.7848966 0.3771123 0.22399586 11
1.7461166 0.36860141 -0.2191211 4
1.7878889 0.37709349 0.2894038 12
1.7409029 0.36718342 -0.15566015 5
1.8173249 0.38296983 0.36101064 13
1.7550582 0.36952922 -0.093995392 6
1.7612422 0.37018842 -0.03141433 7
1.763779 0.36782983 0.031449236 8
1.7813115 0.37083828 0.095356122 9
1.7279189 0.35972285 -0.34307459 2
1.7711811 0.36840594 0.15827483 10
1.7406483 0.36173907 -0.28158206 3
1.7900892 0.37168792 0.22448336 11
1.7551675 0.36411649 -0.22009605 4
1.7949969 0.37205344 0.29034239 12
1.7402229 0.36070028 -0.15548584 5
1.8128829 0.37543073 0.35986578 13
1.7641608 0.3650189 -0.094414078 6
1.7664402 0.36484849 -0.031484142 7
1.765052 0.36167204 0.031449236 8
1.7806383 0.36421734 0.095251448 9
1.7330109 0.35447547 -0.34383783 2
1.7744081 0.36262128 0.15844914 10
1.7302879 0.35328937 -0.27970487 3
1.7758157 0.36226234 0.22253343 11
1.7603178 0.3587817 -0.22058353 4
1.7962848 0.36578497 0.29034239 12
1.7453761 0.35541824 -0.15583447 5
1.808411 0.36792558 0.35872093 13
1.7615097 0.35806325 -0.094204731 6
1.7677031 0.35867974 -0.031484142 7
1.7682643 0.35590279 0.031484142 8
1.7759622 0.3571288 0.094937436 9
1.7361624 0.34881106 -0.34421945 2
1.7815235 0.35760108 0.15897207 10
1.7353842 0.34802374 -0.2803306 3
1.77123 0.35489178 0.22180222 11
1.7518271 0.35068613 -0.21936484 4
1.8032986 0.36098987 0.29128101 12
1.760282 0.35205829 -0.15705465 5
1.8289361 0.36545813 0.36253712 13
1.7549142 0.35034859 -0.093786038 6
1.7688829 0.35281539 -0.031484142 7
1.7812049 0.35236496 0.03169357 8
1.7771978 0.3509286 0.094937436 9
1.729665 0.34122819 -0.34269297 2
1.7905802 0.35292089 0.15966932 10
1.7404051 0.34303144 -0.28095633 3
1.7762927 0.34978279 0.22228971 11
1.7451895 0.34334171 -0.21838988 4
1.7967948 0.35316861 0.29002953 12
1.7654104 0.34667984 -0.15740328 5
1.7560666 0.34452668 -0.093786038 6
1.7661786 0.34587044 -0.03141433 7
1.7863499 0.34690803 0.031763379 8
1.7803729 0.34510246 0.095042109 9
1.7250049 0.33437011 -0.34154812 2
1.7760921 0.34395111 0.15827483 10
1.7493494 0.33845547 -0.28220782 3
1.7833498 0.34471083 0.22302091 11
1.758072 0.33950561 -0.21985231 4
1.7786204 0.3431527 0.28690085 12
1.7508997 0.33780447 -0.15600878 5
1.7651035 0.33990496 -0.094204731 6
1.7634478 0.3389487 -0.031344522 7
1.7679067 0.33692631 0.03141433 8
1.7874528 0.34000576 0.095356122 9
1.7261615 0.32834703 -0.34154812 2
1.7733672 0.33700484 0.1579262 10
1.7369353 0.32976738 -0.28001773 3
1.8059956 0.34255326 0.22570205 11
1.763147 0.33410627 -0.22033979 4
1.7933937 0.33951366 0.28909093 12
1.7520683 0.33169016 -0.15600878 5
1.7721667 0.33485439 -0.094518751 6
1.7685502 0.33353177 -0.03141433 7
1.763175 0.32965094 0.031309616 8
1.7945188 0.33486292 0.095670134 9
1.7311569 0.32303938 -0.34231135 2
1.7804087 0.3319084 0.15844914 10
1.7361337 0.32334101 -0.27970487 3
1.7837613 0.33188918 0.22277717 11
1.7603992 0.32722452 -0.21985231 4
1.8023366 0.33469447 0.29034239 12
1.7610509 0.32702774 -0.15670602 5
1.7654694 0.32721081 -0.094100058 6
1.7736363 0.32808417 -0.031484142 7
1.7741494 0.32529789 0.031484142 8
1.7799598 0.32572025 0.094832763 9
1.7438613 0.31911448 -0.34460106 2
1.7815564 0.32569197 0.15844914 10
1.7391951 0.31763324 -0.28001773 3
1.7770976 0.32423496 0.22180222 11
1.7537191 0.31965414 -0.21887736 4
1.8054374 0.32875451 0.29065526 12
1.7621819 0.32087806 -0.15670602 5
1.7646358 0.32068944 -0.093995392 6
1.7747709 0.32189053 -0.031484142 7
1.7811787 0.32016382 0.031588856 8
1.7770985 0.31911027 0.094623417 9
1.7333699 0.31094575 -0.34231135 2
1.7924881 0.32122797 0.1593207 10
1.7500154 0.3133013 -0.28158206 3
1.7879889 0.31977758 0.22302091 11
1.7470076 0.31213352 -0.21790241 4
1.7929056 0.32033399 0.2884652 12
1.7672138 0.31542549 -0.15705465 5
1.769677 0.31522778 -0.094204731 6
1.7718909 0.31530309 -0.03141433 7
1.7861694 0.31494948 0.031658668 8
1.7860696 0.31429002 0.095042109 9
1.7305778 0.30421302 -0.34154812 2
1.7818242 0.31290179 0.15827483 10
1.7568816 0.30852166 -0.28252068 3
1.7831738 0.31281799 0.22228971 11
1.7499884 0.30668068 -0.21814615 4
1.7959588 0.31441382 0.28877807 12
1.7526033 0.30650935 -0.15566015 5
1.7746477 0.31004459 -0.094414078 6
1.7651007 0.30774266 -0.031274714 7
1.7774051 0.30701205 0.031484142 8
1.787156 0.30805305 0.095042109 9
1.739316 0.29980686 -0.34307459 2
1.7828521 0.3069917 0.15827483 10
1.7501608 0.30104718 -0.28126919 3
1.7940371 0.30827203 0.2235084 11
1.7569176 0.30157894 -0.21887736 4
1.798992 0.30847704 0.28909093 12
1.7458074 0.29904372 -0.15496291 5
1.775719 0.30384925 -0.094414078 6
1.7701068 0.30225214 -0.031344522 7
1.7626925 0.29813749 0.031204903 8
1.802006 0.30413994 0.095774807 9
1.7365311 0.29277751 -0.34231135 2
1.7839655 0.30045384 0.15827483 10
1.7434603 0.29331997 -0.28001773 3
1.7872717 0.3006908 0.22253343 11
1.7638324 0.29643083 -0.21960858 4
1.7527355 0.29393685 -0.15548584 5
1.7689414 0.29601899 -0.093995392 6
1.7750955 0.29673123 -0.03141433 7
1.771665 0.29298034 0.031344522 8
1.7834027 0.29428104 0.09472809 9
1.7452909 0.28799218 -0.34383783 2
1.7850032 0.29422605 0.15827483 10
1.7444736 0.28723189 -0.28001773 3
1.7805268 0.29284897 0.22155848 11
1.753154 0.28803352 -0.21814615 4
1.7557673 0.28783265 -0.15566015 5
1.7620797 0.28855258 -0.093576699 6
1.7761712 0.2902227 -0.03141433 7
1.784521 0.28871003 0.03155395 8
1.7785039 0.28709954 0.094414078 9
1.7959051 0.28926453 0.15914638 10
1.747465 0.28115031 -0.2803306 3
1.7893777 0.28789368 0.22253343 11
1.750229 0.28128171 -0.21765867 4
1.7724992 0.28422615 -0.15705465 5
1.7631257 0.28209099 -0.093576699 6
1.7732242 0.28339022 -0.031344522 7
1.7874438 0.28310308 0.031588856 8
1.7912828 0.2830711 0.095042109 9
1.7869648 0.28206822 0.15827483 10
1.7541933 0.27658242 -0.28126919 3
1.8060099 0.28442925 0.22448336 11
1.7531133 0.27578416 -0.21790241 4
1.7576377 0.27618158 -0.15566015 5
1.7758421 0.27840698 -0.094204731 6
1.7702028 0.2768907 -0.031274714 7
1.7824926 0.27594459 0.031484142 8
1.7883123 0.2762064 0.094832763 9
1.7840002 0.27522165 0.1579262 10
1.7473388 0.26925361 -0.28001773 3
1.7932578 0.27600905 0.22277717 11
1.7599512 0.27056825 -0.21863361 4
1.746775 0.26823056 -0.15461428 5
1.7807516 0.27281171 -0.094414078 6
1.7751122 0.27131367 -0.031344522 7
1.7814677 0.26942223 0.031449236 8
1.797165 0.27115461 0.095251448 9
1.7928306 0.27018064 0.15862344 10
1.7482681 0.26315215 -0.28001773 3
1.7902843 0.26915786 0.22228971 11
1.7707005 0.26589754 -0.21985231 4
1.7595229 0.26390421 -0.15566015 5
1.7737918 0.26541218 -0.093995392 6
1.7800037 0.26570651 -0.03141433 7
1.7804191 0.26290947 0.03141433 8
1.7901969 0.26371491 0.094832763 9
1.7898204 0.26334032 0.15827483 10
1.7491759 0.25704834 -0.28001773 3
1.7853208 0.26204163 0.22155848 11
1.7637615 0.25856283 -0.21887736 4
1.764376 0.25833839 -0.15600878 5
1.7648262 0.25777513 -0.093472026 6
1.7888358 0.26064435 -0.03155395 7
1.7892429 0.25783432 0.03155395 8
1.7871528 0.25689554 0.094623417 9
1.8025618 0.25879031 0.1593207 10
1.7500625 0.25094137 -0.28001773 3
1.7842597 0.25552624 0.22131474 11
1.7567929 0.25128067 -0.21790241 4
1.7810462 0.25443164 -0.15740328 5
1.7756015 0.25302234 -0.093995392 6
1.777856 0.25270963 -0.031344522 7
1.790132 0.25158665 0.03155395 8
1.7979281 0.25204238 0.095146775 9
1.7955617 0.25139111 0.15862344 10
1.7626657 0.24647267 -0.28189492 3
1.7635574 0.24596894 -0.21863361 4
1.7700832 0.24656419 -0.15635739 5
1.776474 0.24682231 -0.093995392 6
1.7787273 0.24650259 -0.031344522 7
1.7791122 0.24370842 0.031344522 8
1.8027549 0.24630518 0.095356122 9
1.7885317 0.24404481 0.1579262 10
1.7517718 0.23871751 -0.28001773 3
1.7722732 0.24088122 -0.21960858 4
1.7590874 0.2387764 -0.15531152 5
1.781283 0.24115603 -0.094204731 6
1.7835402 0.24082685 -0.03141433 7
1.7759879 0.23696727 0.031274714 8
1.8075631 0.24053904 0.095565468 9
1.7913479 0.23806219 0.15810052 10
1.7486781 0.232081 -0.279392 3
1.7770393 0.23521386 -0.22009605 4
1.7678111 0.23367848 -0.15600878 5
1.7741935 0.2338921 -0.093786038 6
1.7883351 0.23512223 -0.031484142 7
1.7807704 0.23128109 0.031344522 8
1.792546 0.23217513 0.09472809 9
1.7980957 0.232574 0.15862344 10
1.7533956 0.22648203 -0.28001773 3
1.7699744 0.2279945 -0.2191211 4
1.7784964 0.2287776 -0.15688033 5
1.7710372 0.22718884 -0.093576699 6
1.7931122 0.22938535 -0.03155395 7
1.7914864 0.22631799 0.031519048 8
1.7953272 0.22616573 0.094832763 9
1.8028501 0.22679467 0.15897207 10
1.7620156 0.22134455 -0.28126919 3
1.7628804 0.22082902 -0.21814615 4
1.7812612 0.22281492 -0.15705465 5
1.7757831 0.22150104 -0.093786038 6
1.7859643 0.22213705 -0.03141433 7
1.796235 0.22055009 0.031588856 8
1.7980497 0.22045524 0.094937436 9
1.7957201 0.21953258 0.15827483 10
1.7706206 0.21615131 -0.28252068 3
1.7675816 0.21515332 -0.21863361 4
1.7760948 0.21587415 -0.15653172 5
1.780511 0.21578115 -0.093995392 6
1.77478 0.21477146 -0.031204903 7
1.7830576 0.21293204 0.031344522 8
1.8027748 0.21464932 0.095146775 9
1.79054 0.21255876 0.15775189 10
1.769366 0.21004516 -0.28220782 3
1.7741992 0.2099901 -0.21936484 4
1.7649654 0.20827338 -0.15548584 5
1.7851838 0.2103425 -0.094204731 6
1.791407 0.21044269 -0.031484142 7
1.7857761 0.2069381 0.031379428 8
1.8114494 0.20927152 0.095565468 9
1.7932142 0.20684861 0.1579262 10
1.7828101 0.20470186 -0.22033979 4
1.7715845 0.20309968 -0.15600878 5
1.7859071 0.20411015 -0.094204731 6
1.8000779 0.20509323 -0.031623758 7
1.7825131 0.20025633 0.031309616 8
1.7982748 0.20139149 0.094832763 9
1.7998656 0.2012516 0.15844914 10
1.7697033 0.19694091 -0.21863361 4
1.7802037 0.19779406 -0.15670602 5
1.7786682 0.19699585 -0.093786038 6
1.7968078 0.19837004 -0.03155395 7
1.7971171 0.19554755 0.03155395 8
1.79301 0.19446658 0.094518751 9
1.764459 0.19012384 -0.21790241 4
1.7848451 0.19200537 -0.15705465 5
1.7793452 0.19078547 -0.093786038 6
1.7895356 0.19124635 -0.03141433 7
1.7938114 0.18885404 0.031484142 8
1.7996368 0.18883225 0.094832763 9
1.7789326 0.18540436 -0.21960858 4
1.7736143 0.18453719 -0.15600878 5
1.7839736 0.18498561 -0.093995392 6
1.7862144 0.18458697 -0.031344522 7
1.7884915 0.18198356 0.031379428 8
1.8042593 0.18295172 0.095042109 9
1.7815442 0.17939201 -0.21985231 4
1.7663181 0.1775483 -0.15531152 5
1.788583 0.17915489 -0.094204731 6
1.794807 0.17914559 -0.031484142 7
1.7891158 0.17573981 0.031379428 8
1.8108503 0.17723659 0.095356122 9
1.7841352 0.17336453 -0.22009605 4
1.7788255 0.17253521 -0.15635739 5
1.7891973 0.17291085 -0.094204731 6
1.8033832 0.17364648 -0.031623758 7
1.7917092 0.16968162 0.03141433 8
1.8015156 0.16997677 0.094832763 9
1.7768239 0.16639486 -0.2191211 4
1.7833844 0.16669528 -0.15670602 5
1.7778581 0.16555278 -0.093576699 6
1.8039783 0.16735081 -0.031623758 7
1.8002561 0.16415393 0.03155395 8
1.8080653 0.16422881 0.095146775 9
1.7734396 0.15983556 -0.21863361 4
1.7879242 0.16082646 -0.15705465 5
1.7863824 0.16005838 -0.093995392 6
1.7965845 0.16034123 -0.031484142 7
1.8087865 0.15856694 0.03169357 8
1.8046207 0.1578835 0.094937436 9
1.7858529 0.15467222 -0.22009605 4
1.7805349 0.1538977 -0.15635739 5
1.7988695 0.15485075 -0.094623417 6
1.7931216 0.15403983 -0.03141433 7
1.7993393 0.15172727 0.031519048 8
1.7843778 0.14858405 -0.21985231 4
1.7691476 0.14669493 -0.15531152 5
1.7953924 0.14855474 -0.094414078 6
1.7976342 0.14810938 -0.031484142 7
1.7918851 0.14480074 0.031379428 8
1.7947797 0.14314313 -0.22107102 4
1.7775688 0.14145914 -0.15600878 5
1.7919179 0.14197077 -0.094204731 6
1.8100765 0.14309244 -0.03169357 7
1.7983366 0.13932241 0.031484142 8
1.7794099 0.13598093 -0.2191211 4
1.7939451 0.1364619 -0.15740328 5
1.7804296 0.13512129 -0.093576699 6
1.8065767 0.13647147 -0.031623758 7
1.8048179 0.13317123 0.031588856 8
1.7904361 0.12991019 -0.15705465 5
1.7928653 0.12945823 -0.094204731 6
1.7950976 0.12898959 -0.03141433 7
1.8072666 0.127011 0.031623758 8
1.782928 0.12311184 -0.15635739 5
1.7933062 0.12319954 -0.094204731 6
1.7955368 0.12272226 -0.03141433 7
1.8057038 0.12056798 0.031588856 8
1.7793707 0.11662641 -0.15600878 5
1.7977115 0.11719839 -0.094414078 6
1.8039362 0.11697188 -0.03155395 7
1.7921437 0.11337989 0.031344522 8
1.7877213 0.11090839 -0.15670602 5
1.7941227 0.11067605 -0.094204731 6
1.8083255 0.11091863 -0.031623758 7
1.7985169 0.1074817 0.031449236 8
1.7960534 0.10513264 -0.15740328 5
1.7905103 0.10418107 -0.093995392 6
1.8126944 0.10483702 -0.03169357 7
1.8003881 0.099081084 -0.15775189 5
1.7908632 0.09792991 -0.093995392 6
1.8090557 0.098292291 -0.031623758 7
1.7967436 0.092591256 -0.15740328 5
1.7991726 0.092087649 -0.094414078 6
1.8093879 0.091976427 -0.031623758 7
1.7851152 0.085744865 -0.15635739 5
1.8034731 0.085996576 -0.094623417 6
1.8096979 0.085660301 -0.031623758 7
1.7893845 0.079691641 -0.15670602 5
1.795781 0.07934761 -0.094204731 6
1.8139815 0.079517432 -0.03169357 7
1.801596 0.073934734 -0.15775189 5
1.7920558 0.072916664 -0.093995392 6
1.8182442 0.073345676 -0.031763379 7
1.8137891 0.068093538 -0.15879777 5
1.7962911 0.066808768 -0.094204731 6
1.8104841 0.06702023 -0.031623758 7
1.7940925 0.061397348 -0.15705465 5
1.8044873 0.061122496 -0.094623417 6
1.8086978 0.060949098 -0.031588856 7
1.8126655 0.055381741 -0.095042109 6
1.800877 0.048415963 -0.094414078 6
1.7930483 0.041942127 -0.093995392 6
1.8011649 0.036156636 -0.094414078 6
1.8172559 0.030134469 -0.095251448 6
1.81735 0.023790395 -0.095251448 6
1.8094333 0.017370207 -0.094832763 6
1.8114822 0.010749577 -0.094937436 6
