# .PCD v0.7 - Point Cloud Data file format
VERSION 0.7
FIELDS x y z intensity
SIZE 4 4 4 4
TYPE F F F F
COUNT 1 1 1 1
WIDTH 275
HEIGHT 1
VIEWPOINT 0 0 0 1 0 0 0
POINTS 275
DATA ascii
3.281625 1.309235 -0.18516463 6
3.2991779 1.3029096 -0.18589734 6
3.2904601 1.2868688 -0.18516463 6
3.2856193 1.2717694 -0.18464127 6
3.2972782 1.2637267 -0.18505996 6
3.335357 1.2769859 -0.062339999 7
3.3128738 1.2564597 -0.18568799 6
3.3379247 1.2646263 -0.062305093 7
3.3209798 1.2462906 -0.18589734 6
3.3479359 1.2550735 -0.062409807 7
3.3178208 1.2319088 -0.18547864 6
3.3635452 1.2475524 -0.062619232 7
3.3223133 1.2197409 -0.18547864 6
3.3716347 1.2371807 -0.062689044 7
3.33406 1.2108643 -0.18589734 6
3.3721728 1.22404 -0.062619232 7
3.3072114 1.1893654 -0.30748546 5
3.3455746 1.2025044 -0.18631603 6
3.3726614 1.2109092 -0.062549427 7
3.3111377 1.1783909 -0.30748546 5
3.3610435 1.194832 -0.18694405 6
3.3804271 1.2010564 -0.062619232 7
3.330265 1.1721197 -0.30887994 5
3.357451 1.1810278 -0.18652536 6
3.3959179 1.193229 -0.06282866 7
3.3360157 1.161724 -0.30905426 5
3.354008 1.1666753 -0.18610668 6
3.4113965 1.1853048 -0.063038096 7
3.3419344 1.1507198 -0.30922857 5
3.3693912 1.1588602 -0.18673471 6
3.407948 1.1707914 -0.062898472 7
3.3346138 1.1351972 -0.30818272 5
3.3885436 1.1522349 -0.18757208 6
3.4195881 1.1614598 -0.063038096 7
3.4555087 1.1676097 0.063666381 8
3.3423331 1.1248204 -0.30853131 5
3.4001174 1.1429459 -0.18799078 6
3.4312046 1.1520612 -0.063177712 7
3.4576669 1.1549062 0.063631475 8
3.3500204 1.1144034 -0.30887994 5
3.3889236 1.1260313 -0.1871534 6
3.4390006 1.1413374 -0.063247517 7
3.4578793 1.1415765 0.063561663 8
3.3614604 1.1051928 -0.3095772 5
3.3890388 1.1129477 -0.18694405 6
3.4467638 1.1305735 -0.063317336 7
3.4728541 1.1344323 0.063771099 8
3.3724945 1.0970931 -0.31027445 5
3.4058149 1.1066161 -0.18767676 6
3.4388864 1.1160349 -0.0631079 7
3.4825013 1.1241463 0.063875809 8
3.3599696 1.0807097 -0.43336743 4
3.3725102 1.0840938 -0.30992582 5
3.41346 1.0959427 -0.1878861 6
3.4541864 1.1076888 -0.063317336 7
3.4844987 1.1113764 0.063840903 8
3.3675056 1.0701761 -0.43385491 4
3.3800721 1.0735203 -0.31027445 5
3.4286876 1.0876435 -0.18851414 6
3.461653 1.0974358 -0.063387141 7
3.4881654 1.0998143 0.063840903 8
3.3748233 1.0601938 -0.43434238 4
3.3837984 1.0617158 -0.31027445 5
3.4322755 1.0762682 -0.18851414 6
3.4769125 1.0889323 -0.063596569 7
3.49962 1.090011 0.06398052 8
3.3671281 1.0448778 -0.43287995 4
3.3987181 1.0540305 -0.3113203 5
3.4360113 1.0642815 -0.18851414 6
3.4845135 1.07797 -0.063666381 7
3.5148716 1.0813155 0.064189956 8
3.3764489 1.0348622 -0.43361115 4
3.4176171 1.0468276 -0.31271479 5
3.4435253 1.0534487 -0.18872347 6
3.4882543 1.0658027 -0.063666381 7
3.5205381 1.06962 0.064224854 8
3.3876407 1.0253693 -0.43458611 4
3.4136221 1.0325847 -0.31201756 5
3.4510057 1.0425764 -0.18893282 6
3.4881246 1.0524637 -0.063596569 7
3.5185037 1.0556031 0.064120144 8
3.5777216 1.0720065 0.1957365 9
3.3988063 1.0158141 -0.43556106 4
3.4133878 1.0195214 -0.31166893 5
3.4699345 1.0350937 -0.18977019 6
3.5071089 1.0448482 -0.063875809 7
3.5279191 1.0450177 0.064224854 8
3.5833566 1.0600786 0.19584116 9
3.4099476 1.0061902 -0.43653604 4
3.420748 1.0087262 -0.31201756 5
3.4658632 1.020717 -0.18935151 6
3.5145717 1.0337291 -0.063945621 7
3.5353842 1.0338199 0.064294666 8
3.5851183 1.0470031 0.1957365 9
3.4058151 0.99206108 -0.43556106 4
3.4318998 0.99900937 -0.31271479 5
3.465569 1.0074984 -0.18914215 6
3.5258405 1.0236839 -0.064085238 7
3.5447352 1.0231354 0.064399377 8
3.5866513 1.0345558 0.19563182 9
3.4092577 0.9801656 -0.43556106 4
3.4468558 0.99032384 -0.31376067 5
3.4844234 0.99980104 -0.18997954 6
3.5215266 1.0097821 -0.063945621 7
3.563493 1.0157611 0.064678617 8
3.5998452 1.0247647 0.19615518 9
3.4106519 0.96961868 -0.56159979 3
3.4163082 0.96993977 -0.43604854 4
3.4464579 0.97719985 -0.31341204 5
3.4954059 0.99041951 -0.19039823 6
3.5250297 0.99748433 -0.063945621 7
3.5631669 1.0022339 0.064608812 8
3.6130147 1.0148922 0.19667853 9
3.396898 0.95290619 -0.55878401 3
3.4292312 0.96068531 -0.43726721 4
3.4458423 0.96469039 -0.31306344 5
3.506536 0.9803623 -0.19081691 6
3.5246382 0.984097 -0.063875809 7
3.5589366 0.9876501 0.064469188 8
3.6203847 1.0033418 0.19688788 9
3.3925881 0.93893605 -0.55753249 3
3.4325635 0.94870996 -0.43726721 4
3.4607112 0.95583951 -0.3141093 5
3.5022352 0.96599281 -0.19039823 6
3.5434754 0.97603506 -0.064155042 7
3.5758638 0.97891611 0.064713523 8
3.6198387 0.99027747 0.19667853 9
3.3996561 0.92812926 -0.55815822 3
3.4396849 0.93776572 -0.43775472 4
3.4794052 0.9479441 -0.31550378 5
3.5017316 0.95271218 -0.19018888 6
3.5582697 0.96742934 -0.064364478 7
3.5868118 0.96913993 0.064853139 8
3.6232736 0.97763479 0.19667853 9
3.4389415 0.92532319 -0.43726721 4
3.4826932 0.93579203 -0.31550378 5
3.5125878 0.9431656 -0.19060758 6
3.5577624 0.95396596 -0.064294666 7
3.6017666 0.95970362 0.065062575 8
3.6363151 0.96754813 0.19720189 9
3.4459879 0.91433239 -0.43775472 4
3.4857776 0.92423689 -0.31550378 5
3.5255115 0.93345702 -0.19113094 6
3.5649374 0.94256258 -0.064364478 7
3.5992928 0.94560003 0.064957857 8
3.6493294 0.95738405 0.19772527 9
3.6752892 0.9635089 0.332412 10
3.4645226 0.90631622 -0.43970463 4
3.4851277 0.91105491 -0.31515515 5
3.5442088 0.92517972 -0.19196831 6
3.5720758 0.93112248 -0.064434282 7
3.604507 0.93353248 0.064992763 8
3.6505504 0.94477749 0.1976206 9
3.6998494 0.9561584 0.33432943 10
3.467509 0.89482152 -0.43970463 4
3.5075796 0.90385813 -0.31689829 5
3.5435481 0.91180617 -0.19175896 6
3.5945106 0.92425245 -0.064783335 7
3.6114576 0.92256492 0.065062575 8
3.6555989 0.93315953 0.19772527 9
3.7049301 0.94437683 0.33450374 10
3.4743047 0.88429791 -0.4401921 4
3.5144198 0.89320219 -0.31724688 5
3.5426798 0.89907008 -0.19154961 6
3.5975559 0.91232657 -0.064783335 7
3.6241927 0.91302538 0.065237097 8
3.6549604 0.91941804 0.19751592 9
3.7119062 0.93305606 0.33485237 10
3.47737 0.87216568 -0.4401921 4
3.5289578 0.8844499 -0.31829277 5
3.5533924 0.88925576 -0.19196831 6
3.596839 0.89879268 -0.064713523 7
3.6370623 0.90277678 0.06541162 8
3.6775327 0.91146147 0.19856264 9
3.7132068 0.91961342 0.33467805 10
3.488102 0.8619259 -0.44116706 4
3.5281553 0.87116998 -0.31794414 5
3.5661709 0.87923622 -0.19249167 6
3.5960703 0.88527834 -0.064643718 7
3.6324213 0.88817644 0.065272003 8
3.6865132 0.90003914 0.19887665 9
3.7183297 0.90711933 0.33485237 10
3.498805 0.85162193 -0.44214204 4
3.515687 0.85508299 -0.31654966 5
3.576982 0.86866701 -0.19291034 6
3.6185725 0.87743169 -0.064992763 7
3.6354995 0.87549233 0.065272003 8
3.7109933 0.89230227 0.20002805 9
3.7098496 0.8913424 0.33380648 10
3.5133381 0.8421824 -0.44360444 4
3.5457768 0.84930223 -0.31898999 5
3.572222 0.85431993 -0.19249167 6
3.6216135 0.86479419 -0.064992763 7
3.6502075 0.86556405 0.065481432 8
3.6965938 0.87520075 0.199086 9
3.5564764 0.83875 -0.31968728 5
3.5829587 0.84367549 -0.19291034 6
3.6285033 0.85306323 -0.065062575 7
3.6648908 0.85554552 0.06569086 8
3.707407 0.86410433 0.19950469 9
3.571027 0.82903284 -0.32073313 5
3.5936646 0.83296818 -0.19332905 6
3.6314592 0.84039116 -0.065062575 7
3.6795485 0.84543329 0.065900289 8
3.719985 0.85404068 0.20002805 9
3.5700147 0.8156758 -0.3203845 5
3.6082337 0.82308304 -0.19395708 6
3.6381252 0.82923371 -0.06513238 7
3.6706295 0.83057952 0.06569086 8
3.734632 0.84369171 0.20065607 9
3.5689523 0.80233592 -0.32003587 5
3.6187384 0.81286311 -0.19437577 6
3.6488025 0.81828034 -0.065272003 7
3.6774099 0.81863141 0.065760665 8
3.7492528 0.83324915 0.20128411 9
3.5832655 0.79307884 -0.32108176 5
3.6176529 0.79936707 -0.19416642 6
3.6672587 0.80898386 -0.065551244 7
3.6919661 0.80835515 0.0659701 8
3.7443337 0.81845152 0.20086543 9
3.5821183 0.7797175 -0.32073313 5
3.6204214 0.78673327 -0.19416642 6
3.6700602 0.79617858 -0.065551244 7
3.6967201 0.79588264 0.066004999 8
3.7471681 0.8053754 0.20086543 9
3.6044357 0.77075022 -0.32247624 5
3.6329119 0.77617645 -0.19468978 6
3.6728172 0.78336185 -0.065551244 7
3.717083 0.78670114 0.066319145 8
3.7675438 0.79600525 0.20180747 9
3.5993052 0.75652343 -0.32177898 5
3.6455054 0.76490736 -0.19521314 6
3.6794436 0.77135611 -0.065621048 7
3.7199411 0.7730729 0.066319145 8
3.7743471 0.78300333 0.20201682 9
3.6116791 0.74597245 -0.32265055 5
3.657934 0.75419319 -0.1957365 6
3.6900804 0.75947839 -0.065760665 7
3.7206578 0.75968212 0.066284239 8
3.6546717 0.74023128 -0.19542249 6
3.6966293 0.74738461 -0.065830477 7
3.7330904 0.74865496 0.066458762 8
3.6611512 0.72824788 -0.19563182 6
3.7265458 0.74058145 -0.066319145 7
3.7492862 0.73897916 0.066703096 8
3.6733468 0.71801955 -0.19615518 6
3.7172053 0.72591895 -0.066109717 7
3.7556422 0.72730315 0.066772908 8
3.6835537 0.70733994 -0.19657388 6
3.7197165 0.71293986 -0.066109717 7
3.7601228 0.71456134 0.066807814 8
3.7017016 0.69743669 -0.19741124 6
3.7379048 0.70290685 -0.066388957 7
3.7625942 0.70143253 0.066807814 8
3.6982217 0.6834231 -0.19709724 6
3.7600007 0.69348258 -0.066738002 7
3.7787893 0.69081247 0.067052148 8
3.6987364 0.66950715 -0.19699256 6
3.7663341 0.68106419 -0.066807814 7
3.7950747 0.67942363 0.067296483 8
3.7167835 0.65938216 -0.19782993 6
3.7491143 0.66376996 -0.066458762 7
3.7954535 0.66582751 0.067261577 8
3.7229974 0.64709067 -0.19803928 6
3.7474682 0.64999461 -0.066388957 7
3.8056381 0.6539284 0.067401193 8
3.7614317 0.63957417 -0.066598386 7
3.7794213 0.62906957 -0.066877626 7
3.7934363 0.61780077 -0.067087047 7
3.79162 0.60392714 -0.067017242 7
3.8016088 0.59191781 -0.067156859 7
3.8115597 0.57984614 -0.067296483 7
3.8254285 0.56830162 -0.067505911 7
3.8392627 0.55666739 -0.067715339 7
3.8451424 0.54382336 -0.067785151 7
