# .PCD v0.7 - Point Cloud Data file format
VERSION 0.7
FIELDS x y z intensity ring time
SIZE 4 4 4 4 2 4
TYPE F F F F U F
COUNT 1 1 1 1 1 1
WIDTH 915
HEIGHT 1
VIEWPOINT 0 0 0 1 0 0 0
POINTS 915
DATA ascii
0.4162966 -0.73221934 -0.22569022 8 0 -0.089619823
0.40015492 -0.70411378 0.014136449 5 8 -0.089617521
0.41486529 -0.73029488 -0.19390781 5 1 -0.089615218
0.43492603 -0.76591945 0.046160318 4 9 -0.089612916
0.40328524 -0.71019888 -0.15875308 5 2 -0.089610606
0.40324318 -0.71041358 0.071467713 5 10 -0.089608304
0.37725604 -0.66490114 -0.12108029 1 3 -0.089606002
0.41033307 -0.72349226 0.10212652 5 11 -0.0896037
0.38866845 -0.68557239 -0.096764266 4 4 -0.08960139
0.38177747 -0.67369163 0.12264463 3 12 -0.089599088
0.41125011 -0.72599488 0.16218765 4 13 -0.089594483
0.4005304 -0.70735884 -0.04260147 5 6 -0.089592174
0.45691317 -0.80726248 0.21415339 3 14 -0.089589871
0.41653618 -0.73652512 0.22672549 4 15 -0.089585267
0.39001459 -0.69159991 -0.21274926 11 0 -0.089564532
0.4271535 -0.75776613 0.015183594 4 8 -0.089562222
0.38935405 -0.69099212 -0.18311015 7 1 -0.08955992
0.43224981 -0.76743293 0.046160318 4 9 -0.089557618
0.40080371 -0.71160227 -0.15875308 5 2 -0.089555316
0.40076092 -0.71181685 0.071467713 5 10 -0.089553006
0.3826834 -0.67998582 -0.12358324 1 3 -0.089550704
0.40780506 -0.72492021 0.10212652 5 11 -0.089548402
0.39794871 -0.70768845 -0.099689126 4 4 -0.089546099
0.3794235 -0.67502016 0.12264463 3 12 -0.08954379
0.38755655 -0.689771 0.15379207 5 13 -0.089539185
0.3980588 -0.70875263 -0.04260147 5 6 -0.089536883
0.40639374 -0.72388899 0.1916583 6 14 -0.089534573
0.38560906 -0.68742836 0.21119635 6 15 -0.089529969
0.40067595 -0.71663129 -0.2199962 10 0 -0.089509234
0.41084364 -0.73481679 0.014694927 4 8 -0.089506932
0.39074251 -0.6991514 -0.18490976 7 1 -0.089504622
0.39450154 -0.7061668 0.042392131 6 9 -0.08950232
0.39819282 -0.71306652 -0.15875308 5 2 -0.089500017
0.39814925 -0.71328092 0.071467713 5 10 -0.089497715
0.38018855 -0.68138385 -0.12358324 1 3 -0.089495406
0.40527213 -0.72633934 0.10212652 5 11 -0.089493103
0.38000506 -0.68133444 -0.095789306 4 4 -0.089490801
0.36359838 -0.65218538 0.11826447 3 12 -0.089488499
0.41942015 -0.75293052 0.1675303 3 13 -0.089483887
0.3954584 -0.71020687 -0.04260147 5 6 -0.089481585
0.40373787 -0.72537369 0.1916583 6 14 -0.089479282
0.43392572 -0.77993095 0.2391488 3 15 -0.089474671
0.39255077 -0.70788878 -0.21689038 10 0 -0.089453936
0.38488019 -0.69434232 0.013857211 6 8 -0.089451633
0.38817742 -0.70057881 -0.18490976 7 1 -0.089449331
0.42688167 -0.77043182 0.046160318 4 9 -0.089447021
0.395657 -0.71466643 0.071467713 5 10 -0.089442417
0.37398183 -0.67579335 -0.12233177 1 3 -0.089440115
0.40260723 -0.7278198 0.10212652 5 11 -0.089437805
0.39287442 -0.71051794 -0.099689126 4 4 -0.089435503
0.34793738 -0.6292488 0.11388431 4 12 -0.089433201
0.45096797 -0.81625342 0.18126856 2 13 -0.089428596
0.39297697 -0.7115829 -0.04260147 5 6 -0.089426287
0.42380637 -0.7677238 0.20245595 5 14 -0.089423984
0.38826731 -0.7036351 0.21533746 5 15 -0.08941938
0.39566317 -0.71941108 -0.2199962 10 0 -0.089398637
0.39992163 -0.72715396 0.014485498 5 8 -0.089396335
0.37646395 -0.68478531 -0.18041074 7 1 -0.089394033
0.38956204 -0.70890367 0.042392131 6 9 -0.089391731
0.37173873 -0.67702985 -0.12233177 1 3 -0.089384817
0.40019155 -0.72915089 0.10212652 5 11 -0.089382514
0.38669688 -0.70485532 -0.09871418 4 4 -0.089380212
0.36473539 -0.6651001 0.12014168 3 12 -0.089377902
0.3735058 -0.68137509 -0.067981474 7 5 -0.0893756
0.39061511 -0.71288216 -0.04260147 5 6 -0.089370996
0.39879104 -0.72810501 0.1916583 6 14 -0.089368686
0.41919604 -0.76599449 0.23397243 3 15 -0.089364082
0.38772321 -0.71054447 -0.21689038 10 0 -0.089343347
0.36865461 -0.67587966 0.013438353 6 8 -0.089341044
0.38899684 -0.71347064 -0.18760918 6 1 -0.089338735
0.42149264 -0.77339327 0.046160318 4 9 -0.089336433
0.39176863 -0.71885294 -0.15913472 5 2 -0.08933413
0.39078334 -0.71734291 0.071467713 5 10 -0.089331828
0.35614762 -0.65403545 -0.11795159 1 3 -0.089329518
0.39764386 -0.73054338 0.10212652 5 11 -0.089327216
0.37284943 -0.68527639 -0.095789306 4 4 -0.089324914
0.35486129 -0.65248656 0.11763873 3 12 -0.089322612
0.37788808 -0.69511491 0.15379207 5 13 -0.089318
0.38812426 -0.71424133 -0.04260147 5 6 -0.089315698
0.39624703 -0.7294926 0.1916583 6 14 -0.089313395
0.38334554 -0.70632857 0.21533746 5 15 -0.089308783
0.38879281 -0.71875745 -0.21896091 10 0 -0.089288048
0.38532129 -0.71233964 0.014136449 5 8 -0.089285746
0.38094276 -0.70453888 -0.18490976 7 1 -0.089283444
0.39409983 -0.72917658 0.043438848 5 9 -0.089281134
0.38913125 -0.72028404 -0.15913472 5 2 -0.089278832
0.3890982 -0.72052348 0.071642019 5 10 -0.08927653
0.36313128 -0.6727193 -0.12108029 1 3 -0.089274228
0.37623256 -0.69699007 0.097251743 6 11 -0.089271918
0.38553727 -0.71452582 -0.099689126 4 4 -0.089269616
0.35633245 -0.6606757 0.11889021 3 12 -0.089267313
0.37533772 -0.69649529 0.15379207 5 13 -0.089262702
0.38550389 -0.71565908 -0.04260147 5 6 -0.089260399
0.36215895 -0.67260206 0.17636162 8 14 -0.089258097
0.36025223 -0.66906089 -0.013263829 9 7 -0.089255795
0.3845399 -0.71446681 0.217408 5 15 -0.089253485
0.40271908 -0.75075316 -0.2282784 8 0 -0.08923275
0.356249 -0.66440165 0.013159114 7 8 -0.089230448
0.36915222 -0.68875444 -0.18041074 7 1 -0.089228146
0.38777819 -0.72350627 0.043020159 6 9 -0.089225844
0.38661459 -0.72163796 -0.15913472 5 2 -0.089223534
0.38658071 -0.72187734 0.071642019 5 10 -0.089221232
0.36823884 -0.68791533 -0.12358324 1 3 -0.089218929
0.3792946 -0.70886612 0.09871418 6 11 -0.089216627
0.37168106 -0.69492865 -0.096764266 4 4 -0.089214318
0.35216078 -0.65843171 0.11826447 3 12 -0.089212015
0.38585877 -0.72204238 0.15913472 4 13 -0.089207411
0.38300344 -0.71700037 -0.04260147 5 6 -0.089205101
0.36348045 -0.68073827 0.17816123 8 14 -0.089202799
0.35791457 -0.67031431 -0.013263829 9 7 -0.089200497
0.38386285 -0.71921337 0.21844329 5 15 -0.089198194
0.39102352 -0.73509866 -0.22310203 9 0 -0.089177459
0.36906958 -0.69382674 0.013717591 6 8 -0.08917515
0.37235543 -0.70029861 -0.18311015 7 1 -0.089172848
0.35150576 -0.6613645 0.039251972 8 9 -0.089170545
0.38409325 -0.72298312 -0.15913472 5 2 -0.089168243
0.36536956 -0.68802911 0.068155795 5 10 -0.089165933
0.35298499 -0.66470766 -0.11920308 3 3 -0.089163631
0.37694189 -0.71011996 0.09871418 6 11 -0.089161329
0.36937454 -0.6961574 -0.096764266 4 4 -0.089159027
0.33875361 -0.63871557 0.11451004 8 12 -0.089156717
0.37058818 -0.69903398 0.15379207 5 13 -0.089152113
0.38062364 -0.71826649 -0.04260147 5 6 -0.08914981
0.36122102 -0.6819399 0.17816123 8 14 -0.089147508
0.35557255 -0.67155963 -0.013263829 9 7 -0.089145198
0.36689129 -0.6932295 0.21016107 6 15 -0.089142896
0.37055197 -0.70222008 -0.21274926 11 0 -0.089122161
0.35918191 -0.68096101 0.013438353 6 8 -0.089119859
0.36627316 -0.69469887 -0.18131055 7 1 -0.089117549
0.35303658 -0.66959345 0.039670657 7 9 -0.089115247
0.38169369 -0.72425282 -0.15913472 5 2 -0.089112945
0.35379988 -0.67160928 0.066412672 6 10 -0.089110643
0.35802564 -0.67991865 -0.12170603 1 3 -0.089108333
0.35411972 -0.67278582 0.093351923 7 11 -0.089106031
0.35862362 -0.68163151 -0.094570614 4 4 -0.089103729
0.34031266 -0.64682806 0.11576151 7 12 -0.089101426
0.36167735 -0.68772674 -0.067981474 7 5 -0.089099124
0.37179986 -0.70727438 0.15531853 5 13 -0.089096814
0.36510769 -0.69483829 -0.041136064 6 6 -0.089094512
0.35883841 -0.68319666 0.17816123 8 14 -0.08909221
0.36264211 -0.69043863 -0.013612877 8 7 -0.089089908
0.36459041 -0.69444239 0.21016107 6 15 -0.089087598
0.37347227 -0.71377945 -0.21585509 10 0 -0.089066863
0.345797 -0.66088653 0.013019496 7 8 -0.089064561
0.36396742 -0.69590968 -0.18131055 7 1 -0.089062259
0.35254773 -0.67436165 0.039880004 7 9 -0.089059956
0.37916324 -0.72558075 -0.15913472 5 2 -0.089057647
0.3440738 -0.65871239 0.065018184 6 10 -0.089055344
0.34845236 -0.66709495 -0.11920308 1 3 -0.089053042
0.33902398 -0.64932084 0.089939587 8 11 -0.08905074
0.37105668 -0.7109744 -0.098470435 4 4 -0.08904843
0.33805281 -0.64801204 0.11576151 7 12 -0.089046128
0.35927454 -0.68898505 -0.067981474 7 5 -0.089043826
0.35674402 -0.68413222 0.14997588 5 13 -0.089041524
0.35726261 -0.68541855 -0.040508036 6 6 -0.089039214
0.35476997 -0.68092638 0.17726143 8 14 -0.089036912
0.36022985 -0.69170022 -0.013612877 17 7 -0.089034609
0.36930037 -0.70941943 0.21430218 6 15 -0.089032307
0.36576357 -0.70472598 -0.21274926 11 0 -0.089011572
0.33980441 -0.65498936 0.012879876 22 8 -0.089009263
0.35435912 -0.6833362 -0.17771132 8 1 -0.08900696
0.34847063 -0.67198098 0.039670657 7 9 -0.089004658
0.37675509 -0.72683412 -0.15913472 5 2 -0.089002356
0.33638805 -0.64923549 0.063972317 6 10 -0.089000046
0.35338926 -0.68233991 -0.12170603 1 3 -0.088997744
0.34040582 -0.65755188 0.09091454 7 11 -0.088995442
0.35762492 -0.69110888 -0.095545575 4 4 -0.08899314
0.34044129 -0.65790159 0.11732586 7 12 -0.08899083
0.35698777 -0.69017261 -0.067981474 7 5 -0.088988528
0.36697707 -0.70978868 0.15531853 5 13 -0.088986225
0.34569815 -0.66891819 -0.039461315 6 6 -0.088983923
0.34702462 -0.67177236 0.17456202 9 14 -0.088981614
0.35976967 -0.69644427 -0.013682687 17 7 -0.088979311
0.36871853 -0.71407318 0.21533746 5 15 -0.088977009
0.36860505 -0.71630508 -0.21585509 10 0 -0.088956274
0.33671555 -0.6543346 0.012844971 22 8 -0.088953972
0.35922217 -0.69837093 -0.18131055 7 1 -0.088951662
0.34977591 -0.68029821 0.040089346 7 9 -0.08894936
0.37421566 -0.72814482 -0.15913472 5 2 -0.088947058
0.33776134 -0.6574946 0.064669557 6 10 -0.088944755
0.34390357 -0.66945124 -0.11920308 1 3 -0.088942446
0.33459634 -0.65161353 0.089939587 8 11 -0.088940144
0.35533124 -0.69229096 -0.095545575 4 4 -0.088937841
0.32912555 -0.64151031 0.11419717 8 12 -0.088935539
0.35387075 -0.6900385 0.15073912 5 13 -0.088930927
0.34894451 -0.68072504 -0.040089346 13 6 -0.088928625
0.34479499 -0.67291945 0.17456202 9 14 -0.088926323
0.3418397 -0.66743875 -0.013089306 28 7 -0.088924021
0.36974508 -0.72223431 0.217408 5 15 -0.088921711
0.35720077 -0.70044136 -0.21067871 12 0 -0.088913202
0.34055769 -0.66809374 0.013089306 21 8 -0.0889109
0.34238261 -0.67196369 -0.17411213 8 1 -0.088908598
0.34274647 -0.67267781 0.039565988 15 9 -0.088906288
0.37154433 -0.7295115 -0.15913472 5 2 -0.088903986
0.32631019 -0.64097273 0.062926449 7 10 -0.088901684
0.33595529 -0.66020358 -0.11732586 4 3 -0.088899381
0.34109172 -0.670587 0.09237697 7 11 -0.088897072
0.35626897 -0.70072836 -0.096520528 4 4 -0.08889477
0.33124837 -0.6515165 0.11576151 3 12 -0.088892467
0.34588364 -0.68089008 0.14844941 6 13 -0.088887855
0.34451962 -0.67849815 -0.039880004 19 6 -0.088885553
0.34573656 -0.6811893 0.17636162 8 14 -0.088883251
0.3339608 -0.65798807 -0.012879876 29 7 -0.088880949
0.36185125 -0.71324778 0.21430218 6 15 -0.088878639
0.34778053 -0.68789166 -0.2065376 12 0 -0.088857904
0.3275134 -0.64780438 0.012670447 30 8 -0.088855602
0.34542608 -0.68353099 -0.17681152 8 1 -0.0888533
0.34489888 -0.68278372 0.040089346 15 9 -0.088850997
0.35660726 -0.70626861 -0.15379207 6 2 -0.088848688
0.32407075 -0.64210784 0.062926449 7 10 -0.088846385
0.33554417 -0.664841 -0.11795159 1 3 -0.088844083
0.33886606 -0.67171443 0.09237697 7 11 -0.088841781
0.3503682 -0.69481593 -0.095545575 4 4 -0.088839471
0.31652462 -0.62797326 0.11138135 8 12 -0.088837169
0.35422409 -0.70307291 0.15302883 5 13 -0.088832565
0.34765777 -0.69033992 -0.040508036 12 6 -0.088830255
0.34347576 -0.6823321 0.17636162 8 14 -0.088827953
0.34244779 -0.68058556 -0.013298733 27 7 -0.088825651
0.34720704 -0.69034439 0.20705524 6 15 -0.088823348
0.34549752 -0.68904114 -0.2065376 12 0 -0.088802613
0.31987417 -0.63821733 0.012461019 24 8 -0.088800304
0.33605504 -0.67079401 -0.17321232 8 1 -0.088798001
0.34609064 -0.69112688 0.040508036 7 9 -0.088795699
0.3665702 -0.7320236 -0.15913472 5 2 -0.088793397
0.32193965 -0.643179 0.062926449 7 10 -0.088791087
0.32791811 -0.65540868 -0.11607439 4 3 -0.088788785
0.33296764 -0.66579151 0.091402017 7 11 -0.088786483
0.33373904 -0.66762519 -0.091645755 5 4 -0.088784181
0.32669196 -0.65381312 0.11576151 3 12 -0.088781871
0.32895985 -0.65863943 0.14310676 6 13 -0.088777266
0.33454069 -0.67010587 -0.039251972 13 6 -0.088774964
0.34457245 -0.69050163 0.17816123 8 14 -0.088772662
0.34364033 -0.68893456 -0.013438353 26 7 -0.088770352
0.36203492 -0.72612977 0.217408 5 15 -0.08876805
0.34996921 -0.70408243 -0.21067871 12 0 -0.088747315
0.32565224 -0.65544754 0.012775162 15 8 -0.088745013
0.33024439 -0.66498148 -0.17141271 9 1 -0.088742703
0.34012383 -0.68517488 0.040089346 7 9 -0.088740401
0.35004577 -0.70516247 -0.15302883 6 2 -0.088738099
0.33031952 -0.66571599 0.065018184 6 10 -0.088735797
0.33264992 -0.67070669 -0.11857734 1 3 -0.088733487
0.33064163 -0.66694969 0.091402017 7 11 -0.088731185
0.33140653 -0.66878611 -0.091645755 5 4 -0.088728882
0.31739348 -0.64078856 0.11325856 4 12 -0.08872658
0.34408054 -0.69497216 0.15073912 5 13 -0.088721968
0.31979743 -0.64620882 -0.037786566 15 6 -0.088719666
0.35944083 -0.72663456 0.18715927 7 14 -0.088717364
0.3350291 -0.67758209 -0.01319402 27 7 -0.088715062
0.36634573 -0.74124414 0.22154912 5 15 -0.088712752
0.3347019 -0.67930597 -0.20291413 27 0 -0.088692017
0.32512933 -0.66016823 0.012844971 14 8 -0.088689715
0.32706046 -0.66438186 -0.17096281 18 1 -0.088687412
0.33243921 -0.6756056 0.039461315 7 9 -0.088685103
0.34411496 -0.69933391 -0.15150236 6 2 -0.088682801
0.31744164 -0.6454109 0.062926449 7 10 -0.088680498
0.3268207 -0.66477293 -0.11732586 2 3 -0.088678196
0.33531547 -0.68235254 0.093351923 7 11 -0.088675894
0.32907 -0.66993886 -0.091645755 5 4 -0.088673584
0.31341356 -0.63834614 0.11263283 4 12 -0.088671282
0.33819285 -0.68911916 0.14921264 6 13 -0.088666677
0.33161351 -0.67601126 -0.039461315 13 6 -0.088664368
0.3363117 -0.68589145 0.17636162 8 14 -0.088662066
0.32562137 -0.66438234 -0.012914781 19 7 -0.088659763
0.35185748 -0.71823043 0.21430218 6 15 -0.088657461
0.34504536 -0.70650846 -0.21067871 24 0 -0.088636719
0.33773592 -0.69184822 0.013438353 6 8 -0.088634416
0.3264485 -0.6690222 -0.17186262 18 1 -0.088632114
0.33182994 -0.68035221 0.039670657 7 9 -0.088629812
0.33650795 -0.68994349 -0.14921264 6 2 -0.08862751
0.3151868 -0.64651501 0.062926449 7 10 -0.0886252
0.32795948 -0.67301267 -0.11857734 1 3 -0.088622898
0.33988574 -0.69779605 0.095301837 6 11 -0.088620596
0.32672948 -0.67108345 -0.091645755 5 4 -0.088618293
0.31636992 -0.65009362 0.11451004 4 12 -0.088615984
0.34952587 -0.71854287 0.15531853 5 13 -0.088611379
0.33973193 -0.69871902 -0.040717378 6 6 -0.088609077
0.32028621 -0.65901792 0.1691632 9 14 -0.088606767
0.33203819 -0.68350184 -0.013263829 9 7 -0.088604465
0.35103589 -0.72292989 0.21533746 5 15 -0.088602163
0.33415991 -0.69032019 -0.20550233 26 0 -0.088581428
0.32660925 -0.67502236 0.013089306 7 8 -0.088579126
0.33259583 -0.68770099 -0.17636162 16 1 -0.088576816
0.33988434 -0.70308441 0.040926725 7 9 -0.088574514
0.322135 -0.66636813 -0.14386998 14 2 -0.088572212
0.31986278 -0.66196281 0.064320937 6 10 -0.088569909
0.32388997 -0.67059582 -0.11795159 1 3 -0.0885676
0.32536542 -0.67395085 0.091889486 7 11 -0.088565297
0.33818862 -0.70082492 -0.095545575 4 4 -0.088562995
0.30380037 -0.62984329 0.11075561 4 12 -0.088560693
0.33757785 -0.69987124 -0.067981474 7 5 -0.088558383
0.33678403 -0.69853717 0.15073912 5 13 -0.088556081
0.33555681 -0.69630218 -0.040508036 6 6 -0.088553779
0.36026901 -0.74791539 0.1916583 6 14 -0.088551477
0.32965019 -0.68465674 -0.013263829 9 7 -0.088549167
0.32505289 -0.67540985 0.20084359 7 15 -0.088546865
0.3300769 -0.68799889 -0.20446704 39 0 -0.08852613
0.3173337 -0.66173357 0.012810066 7 8 -0.088523827
0.32261229 -0.67304218 -0.17231251 27 1 -0.088521525
0.32362017 -0.67544746 0.039251972 8 9 -0.088519216
0.32489666 -0.67811167 -0.14615969 14 2 -0.088516913
0.34164613 -0.71338981 0.069201656 5 10 -0.088514611
0.3096064 -0.64677775 -0.11357144 2 3 -0.088512309
0.32472438 -0.67866379 0.09237697 7 11 -0.088509999
0.34601805 -0.72349095 -0.098470435 4 4 -0.088507697
0.31523156 -0.65941513 0.11576151 3 12 -0.088505395
0.33434367 -0.69970852 0.15073912 5 13 -0.088500783
0.32451633 -0.67944676 -0.039461315 6 6 -0.088498481
0.33246905 -0.69641012 0.17816123 8 14 -0.088496178
0.33759281 -0.70746022 -0.013682687 8 7 -0.088493876
0.32269326 -0.67654043 0.20084359 7 15 -0.088491574
0.33265066 -0.699615 -0.20757288 37 0 -0.088470832
0.30815491 -0.6483885 0.012530828 7 8 -0.088468529
0.31858855 -0.67064381 -0.17141271 27 1 -0.088466227
0.32137859 -0.67651689 0.039251972 8 9 -0.088463925
0.32926458 -0.69342953 -0.14921264 19 2 -0.088461615
0.32035935 -0.67497939 0.065366805 6 10 -0.088459313
0.31242701 -0.65856284 -0.11544865 2 3 -0.088457011
0.33085889 -0.69772971 0.09481436 7 11 -0.088454708
0.3198019 -0.67441225 -0.091645755 5 4 -0.088452399
0.31304309 -0.6604569 0.11576151 3 12 -0.088450097
0.33268359 -0.70221096 -0.067981474 7 5 -0.088447794
0.33862132 -0.71506619 0.15379207 5 13 -0.088445492
0.30505285 -0.64447069 -0.037367877 7 6 -0.08844319
0.31348318 -0.66228104 0.1691632 9 14 -0.08844088
0.32498232 -0.6868847 -0.013263829 9 7 -0.088438578
0.32044807 -0.67760676 0.20084359 7 15 -0.088436276
0.32620996 -0.69197714 -0.20498469 39 0 -0.088415541
0.31623164 -0.67111397 0.012949686 7 8 -0.088413231
0.31719321 -0.67345959 -0.17186262 36 1 -0.088410929
0.31743133 -0.67396516 0.039042629 8 9 -0.088408627
0.3227821 -0.68563628 -0.14730455 20 2 -0.088406324
0.32660261 -0.69406563 0.06710992 6 10 -0.088404015
0.31948981 -0.67925805 -0.11889021 3 3 -0.088401712
0.30489492 -0.64852214 0.08798968 8 11 -0.08839941
0.31756371 -0.67546904 -0.091645755 5 4 -0.088397108
0.30581039 -0.65076452 0.11388431 4 12 -0.088394806
0.34292307 -0.73040223 0.156845 5 13 -0.088390194
0.31988394 -0.68163991 -0.039461315 6 6 -0.088387892
0.31128523 -0.66331697 0.1691632 9 14 -0.088385589
0.3227028 -0.6879586 -0.013263829 9 7 -0.08838328
0.31819925 -0.67866564 0.20084359 7 15 -0.088380978
0.32554948 -0.69655538 -0.20601997 38 0 -0.088360243
0.32077536 -0.68665284 0.013228924 6 8 -0.08835794
0.32155412 -0.6886335 -0.17546181 34 1 -0.088355631
0.33028167 -0.70764613 0.040926725 7 9 -0.088353328
0.31137314 -0.66713363 -0.14310676 22 2 -0.088351026
0.3242991 -0.69514495 0.06710992 6 10 -0.088348724
0.31556582 -0.6767332 -0.11826447 3 3 -0.088346422
0.33461028 -0.71790117 0.097251743 6 11 -0.088344112
0.31520391 -0.67657346 -0.091645755 5 4 -0.08834181
0.30353698 -0.65182799 0.11388431 4 12 -0.088339508
0.31067434 -0.66745937 0.14310676 6 13 -0.088334896
0.31425187 -0.67545354 -0.039042629 6 6 -0.088332593
0.30896798 -0.6643995 0.1691632 9 14 -0.088330291
0.32029939 -0.68908083 -0.013263829 9 7 -0.088327989
0.33210802 -0.71481216 0.21119635 6 15 -0.088325679
0.31325576 -0.67670637 -0.1998083 71 0 -0.088304944
0.30997607 -0.66962153 0.012879876 7 8 -0.088302642
0.31587514 -0.68267739 -0.17366222 35 1 -0.08830034
0.3479307 -0.75230139 0.043438848 5 9 -0.088298038
0.32293051 -0.6985653 -0.14959426 19 2 -0.088295728
0.31172061 -0.6746251 0.065018184 6 10 -0.088293426
0.31059861 -0.67250526 -0.11732586 4 3 -0.088291124
0.31545553 -0.68302143 0.09237697 7 11 -0.088288821
0.31284028 -0.67766958 -0.091645755 5 4 -0.088286512
0.29629409 -0.64212173 0.11200709 4 12 -0.088284209
0.30822584 -0.66859353 0.14310676 6 13 -0.088279605
0.31511739 -0.68385655 -0.039461315 6 6 -0.088277295
0.33587945 -0.72924817 0.18535967 7 14 -0.088274993
0.31789207 -0.69019473 -0.013263829 9 7 -0.088272691
0.31345353 -0.68087059 0.20084359 7 15 -0.088270389
0.3116971 -0.67955166 -0.20032595 56 0 -0.088249654
0.30751976 -0.67075312 0.012879876 7 8 -0.088247344
0.3101235 -0.67674422 -0.17186262 45 1 -0.088245042
0.34530261 -0.75351131 0.043438848 5 9 -0.088242739
0.3155846 -0.68897873 -0.14730455 20 2 -0.088240437
0.34088066 -0.74454808 0.071642019 5 10 -0.088238128
0.30167329 -0.65921545 -0.11482291 4 3 -0.088235825
0.31460154 -0.68778342 0.092864446 7 11 -0.088233523
0.33441898 -0.73110843 -0.09871418 4 4 -0.088231221
0.29897898 -0.6539312 0.11388431 4 12 -0.088228911
0.3058902 -0.66966534 0.14310676 6 13 -0.088224307
0.31272843 -0.68495232 -0.039461315 6 6 -0.088222004
0.32698435 -0.71617627 0.18176045 8 14 -0.088219695
0.31548089 -0.69130021 -0.013263829 9 7 -0.088217393
0.31107491 -0.68196058 0.20084359 7 15 -0.08821509
0.31743786 -0.69816762 -0.20550233 52 0 -0.088194355
0.3119126 -0.6863333 0.013159114 7 8 -0.088192053
0.3014299 -0.66357481 -0.16826339 38 1 -0.088189743
0.3642787 -0.80193162 0.046160318 4 9 -0.088187441
0.31492141 -0.69359672 -0.14806779 27 2 -0.088185139
0.33840984 -0.74567443 0.071642019 5 10 -0.088182837
0.30601388 -0.67460376 -0.11732586 4 3 -0.088180527
0.32215583 -0.71051818 0.095789306 6 11 -0.088178225
0.3090401 -0.68159121 -0.091889486 5 4 -0.088175923
0.30822459 -0.68010825 0.11826447 3 12 -0.08817362
0.30366781 -0.67067605 0.14310676 6 13 -0.088169008
0.31539625 -0.69690317 -0.040089346 6 6 -0.088166706
0.30211002 -0.6675458 0.1691632 9 14 -0.088164404
0.31318679 -0.69234252 -0.013263829 9 7 -0.088162102
0.32472986 -0.71819407 0.21119635 6 15 -0.088159792
0.30797711 -0.68336517 -0.20084359 70 0 -0.088139057
0.3014217 -0.66913146 0.012810066 7 8 -0.088136755
0.30722848 -0.68233997 -0.17276241 36 1 -0.088134453
0.33196896 -0.73763108 0.042392131 6 9 -0.088132143
0.31423113 -0.69821787 -0.14883102 19 2 -0.088129841
0.33593521 -0.7467925 0.071642019 5 10 -0.088127539
0.29486436 -0.65579683 -0.11388431 4 3 -0.088125236
0.31166062 -0.69347608 0.093351923 7 11 -0.088122927
0.30665898 -0.68266582 -0.091889486 5 4 -0.088120624
0.28804797 -0.64153457 0.11138135 4 12 -0.088118322
0.31827587 -0.7088576 -0.067981474 7 5 -0.08811602
0.30144206 -0.67167938 0.14310676 6 13 -0.088113718
0.30817884 -0.68701136 -0.039461315 6 6 -0.088111408
0.29977807 -0.66859627 0.1691632 9 14 -0.088109106
0.31076804 -0.69343156 -0.013263829 9 7 -0.088106804
0.30642581 -0.68406224 0.20084359 7 15 -0.088104501
0.3063775 -0.68620008 -0.20136122 55 0 -0.088083759
0.29908422 -0.67017955 0.012810066 7 8 -0.088081457
0.30802032 -0.69052708 -0.17456202 35 1 -0.088079154
0.30859402 -0.69213808 -0.14730455 20 2 -0.08807455
0.33332643 -0.74796057 0.071642019 5 10 -0.08807224
0.30543381 -0.68569338 -0.11889021 3 3 -0.088069938
0.29793417 -0.66917121 0.089939587 8 11 -0.088067636
0.320416 -0.72000432 -0.096764266 4 4 -0.088065334
0.2842012 -0.63892639 0.11075561 4 12 -0.088063024
0.31579959 -0.70996422 -0.067981474 7 5 -0.088060722
0.29909563 -0.67272753 0.14310676 6 13 -0.08805842
0.33011138 -0.74283755 -0.04260147 5 6 -0.088056117
0.30834568 -0.69451213 -0.013263829 9 7 -0.088051505
0.31970808 -0.72044355 0.21119635 6 15 -0.088049203
0.30554315 -0.69079894 -0.20239651 54 0 -0.088028468
0.31129718 -0.70414031 0.013438353 6 8 -0.088026166
0.30245742 -0.68446821 -0.17276241 36 1 -0.088023856
0.31551403 -0.71435279 0.040926725 7 9 -0.088021554
0.30617619 -0.69321102 -0.14730455 27 2 -0.088019252
0.33071351 -0.74911952 0.071642019 5 10 -0.08801695
0.29346883 -0.66506839 -0.11513578 4 3 -0.08801464
0.33565035 -0.76102114 0.10212652 5 11 -0.088012338
0.30188569 -0.68479002 -0.091889486 5 4 -0.088010035
0.28356218 -0.64352989 0.11138135 4 12 -0.088007733
0.31331936 -0.71106231 -0.067981474 7 5 -0.088005424
0.2967456 -0.67376745 0.14310676 6 13 -0.088003121
0.32751635 -0.7439853 -0.04260147 5 6 -0.088000819
0.2951031 -0.67067283 0.1691632 9 14 -0.087998517
0.3059195 -0.69558418 -0.013263829 9 7 -0.087996207
0.30164269 -0.68618476 0.20084359 7 15 -0.087993905
0.3054558 -0.6971696 -0.20394942 66 0 -0.08797317
0.29439819 -0.67225122 0.012810066 7 8 -0.087970868
0.30006632 -0.68551981 -0.17276241 36 1 -0.087968566
0.3530466 -0.80693948 0.046160318 4 9 -0.087966256
0.30375463 -0.69427556 -0.14730455 27 2 -0.087963954
0.32809657 -0.75026941 0.071642019 5 10 -0.087961651
0.28877199 -0.6606586 -0.11419717 4 3 -0.087959349
0.33299181 -0.76218808 0.10212652 5 11 -0.087957039
0.29949346 -0.68583965 -0.091889486 5 4 -0.087954737
0.28605542 -0.6553784 0.11325856 4 12 -0.087952435
0.31083542 -0.71215159 -0.067981474 7 5 -0.087950133
0.29439181 -0.6747992 0.14310676 6 13 -0.087947823
0.30416104 -0.69752389 -0.039880004 6 6 -0.087945521
0.30348957 -0.69664788 -0.013263829 9 7 -0.087940916
0.30850062 -0.70848817 0.20705524 6 15 -0.087938607
0.29994389 -0.69114298 -0.20187886 68 0 -0.087917872
0.29204985 -0.67327476 0.012810066 7 8 -0.08791557
0.29147017 -0.67225963 -0.1691632 38 1 -0.087913267
0.29508403 -0.68092066 -0.14425161 21 2 -0.087908655
0.28332484 -0.65441149 -0.1129457 4 3 -0.087904051
0.29091045 -0.67225444 0.089939587 8 11 -0.087901749
0.29709759 -0.68688089 -0.091889486 5 4 -0.087899439
0.28376606 -0.6563729 0.11325856 4 12 -0.087897137
0.30834773 -0.71323228 -0.067981474 7 5 -0.087894835
0.29222122 -0.67657888 -0.03862394 7 6 -0.087890223
0.30184826 -0.69953901 -0.013298733 9 7 -0.087885618
0.29684493 -0.68827391 0.20084359 7 15 -0.087883316
0.30286986 -0.70460957 -0.20550233 65 0 -0.087862581
0.2849617 -0.66326624 0.012600638 7 8 -0.087860271
0.29219744 -0.68043554 -0.17096281 46 1 -0.087857969
0.29698747 -0.69192284 0.039461315 7 9 -0.087855667
0.28496194 -0.66390562 -0.14043543 31 2 -0.087853365
0.32285079 -0.7525416 0.071642019 5 10 -0.087851055
0.28570971 -0.66628957 -0.11482291 4 3 -0.087848753
0.2995103 -0.69880968 0.093351923 7 11 -0.087846451
0.29469812 -0.68791384 -0.091889486 5 4 -0.087844148
0.28769344 -0.67188674 0.11576151 3 12 -0.087841839
0.30585611 -0.71430427 -0.067981474 7 5 -0.087839536
0.28967372 -0.67683798 0.14310676 6 13 -0.087837234
0.31970757 -0.74737418 -0.04260147 5 6 -0.087834932
0.29940456 -0.70058841 -0.013298733 9 7 -0.08783032
0.2944406 -0.6893059 0.20084359 7 15 -0.087828018
0.29511166 -0.69322008 -0.20187886 68 0 -0.087807283
0.29360604 -0.69001758 0.013089306 7 8 -0.087804981
0.28676981 -0.67427808 -0.1691632 47 1 -0.087802671
0.30550939 -0.71868843 0.040926725 7 9 -0.087800369
0.28878713 -0.67935055 -0.14348838 29 2 -0.087798066
0.2921733 -0.68764961 0.065366805 6 10 -0.087795764
0.27874929 -0.6563735 -0.1129457 4 3 -0.087793455
0.32499203 -0.76563334 0.10212652 5 11 -0.087791152
0.29229504 -0.68893832 -0.091889486 5 4 -0.08778885
0.27454954 -0.64742625 0.11138135 4 12 -0.087786548
0.31709677 -0.74848568 -0.04260147 5 6 -0.087779634
0.29695719 -0.70162922 -0.013298733 9 7 -0.087775029
0.29203266 -0.69032949 0.20084359 7 15 -0.08777272
0.28131619 -0.66759336 -0.1941143 76 0 -0.087751985
0.2911956 -0.69103831 0.013089306 7 8 -0.087749682
0.29197866 -0.69323438 -0.17366222 44 1 -0.08774738
0.31384787 -0.74552166 0.042392131 6 9 -0.087745078
0.28781807 -0.68402362 -0.14425161 29 2 -0.087742768
0.31745756 -0.75483257 0.071642019 5 10 -0.087740466
0.27098325 -0.64464355 -0.11075561 4 3 -0.087738164
0.32231757 -0.76676309 0.10212652 5 11 -0.087735862
0.28988847 -0.68995434 -0.091889486 5 4 -0.087733552
0.27075812 -0.64473814 0.11075561 4 12 -0.08773125
0.28482306 -0.67889345 0.14310676 6 13 -0.087726645
0.29426989 -0.70175409 -0.039880004 6 6 -0.087724335
0.28323534 -0.6757704 0.1691632 9 14 -0.087722033
0.29450622 -0.70266157 -0.013298733 9 7 -0.087719731
0.28962123 -0.69134462 0.20084359 7 15 -0.087717429
0.28791168 -0.68996549 -0.20032595 70 0 -0.087696694
0.28866085 -0.69210094 0.013089306 7 8 -0.087694384
0.27893817 -0.66911805 -0.16736358 39 1 -0.087692082
0.30035871 -0.72085619 0.040926725 7 9 -0.08768978
0.28240818 -0.6777752 -0.14272514 22 2 -0.087687477
0.31482068 -0.75593615 0.071642019 5 10 -0.087685168
0.27632263 -0.66382247 -0.11388431 4 3 -0.087682866
0.27375254 -0.65797186 0.087502196 8 11 -0.087680563
0.28735769 -0.69101226 -0.091889486 5 4 -0.087678261
0.27445868 -0.66031885 0.11325856 4 12 -0.087675951
0.29810888 -0.71757203 -0.067981474 7 5 -0.087673649
0.28245151 -0.67988354 0.14310676 6 13 -0.087671347
0.31173271 -0.75073552 -0.04260147 5 6 -0.087669045
0.28087482 -0.67675495 0.1691632 9 14 -0.087666735
0.29192886 -0.70373625 -0.013298733 9 7 -0.087664433
0.28708538 -0.69240153 0.20084359 7 15 -0.087662131
0.2853809 -0.69101614 -0.20032595 70 0 -0.087641396
0.28624329 -0.69310433 0.013089306 7 8 -0.087639093
0.27957493 -0.67729294 -0.1691632 38 1 -0.087636784
0.29784063 -0.72190028 0.040926725 7 9 -0.087634481
0.28740674 -0.69695556 -0.14654131 28 2 -0.087632179
0.26649347 -0.64656162 0.06118333 7 10 -0.087629877
0.27388772 -0.6648308 -0.11388431 4 3 -0.087627567
0.26842955 -0.65158165 0.086527243 8 11 -0.087625265
0.3000603 -0.72872251 -0.096764266 4 4 -0.087622963
0.26162684 -0.63569885 0.1088784 4 12 -0.087620661
0.30897903 -0.75187308 -0.04260147 5 6 -0.087613747
0.28947064 -0.70475096 -0.013298733 9 7 -0.087609142
0.2846666 -0.69339943 0.20084359 7 15 -0.087606832
0.2766223 -0.67581838 -0.19566721 75 0 -0.08759594
0.2687996 -0.65703374 0.012391209 8 8 -0.087593637
0.27880254 -0.68182385 -0.170063 37 1 -0.087591335
0.28075925 -0.68695104 -0.14425161 29 2 -0.087586723
0.28254375 -0.69166195 0.065366805 6 10 -0.087584421
0.26806423 -0.65654391 -0.11231996 4 3 -0.087582119
0.26326719 -0.64511639 0.085552283 8 11 -0.087579809
0.28264755 -0.69295216 -0.091889486 5 4 -0.087577507
0.26261273 -0.64383388 0.11012988 4 12 -0.087575205
0.29334319 -0.71953344 -0.067981474 7 5 -0.087572902
0.27781713 -0.68179041 0.14310676 6 13 -0.087570593
0.2794947 -0.68624973 -0.038833283 7 6 -0.087568291
0.28725514 -0.70565695 -0.013298733 9 7 -0.087563686
0.28248686 -0.69429028 0.20084359 7 15 -0.087561376
0.27716389 -0.68394154 -0.19773777 73 0 -0.087540641
0.2891506 -0.71352047 0.013438353 6 8 -0.087538339
0.27580845 -0.68093842 -0.16961309 56 1 -0.087536037
0.27394122 -0.67700744 -0.1419619 22 2 -0.087531425
0.26892254 -0.66493827 0.062752135 7 10 -0.087529123
0.26662624 -0.65926045 -0.11263283 4 3 -0.087526821
0.28493285 -0.70487922 0.093351923 7 11 -0.087524518
0.28034806 -0.69388568 -0.091889486 5 4 -0.087522209
0.25444627 -0.63009334 0.10762692 4 12 -0.087519906
0.27555478 -0.68270791 0.14310676 6 13 -0.087515302
0.30411726 -0.75385267 -0.04260147 5 6 -0.087512992
0.28479025 -0.70665532 -0.013298733 9 7 -0.087508388
0.2800616 -0.69527215 0.20084359 7 15 -0.087506086
0.26985696 -0.67230713 -0.1941143 76 0 -0.087485351
0.24942975 -0.62172991 0.011693113 9 8 -0.087483041
0.27560568 -0.68732327 -0.17096281 37 1 -0.087480739
0.30092004 -0.75083297 0.042392131 6 9 -0.087478437
0.27461618 -0.68520153 -0.14348838 22 2 -0.087476134
0.27708831 -0.69171965 0.065192491 6 10 -0.087473825
0.26212069 -0.65468562 -0.11169422 4 3 -0.087471522
0.27214536 -0.68006748 0.089939587 8 11 -0.08746922
0.27792421 -0.69486004 -0.091889486 5 4 -0.087466918
0.26397768 -0.66032541 0.11263283 4 12 -0.087464608
0.2731699 -0.68366563 0.14310676 6 13 -0.087460004
0.30148396 -0.75490963 -0.04260147 5 6 -0.087457702
0.27163601 -0.68051583 0.1691632 9 14 -0.087455399
0.28232175 -0.70764512 -0.013298733 9 7 -0.08745309
0.27763292 -0.69624555 0.20084359 7 15 -0.087450787
0.27095625 -0.68226892 -0.19670248 74 0 -0.087430052
0.25906739 -0.65233272 0.012251589 8 8 -0.08742775
0.27176693 -0.68465859 -0.170063 46 1 -0.087425441
0.28798568 -0.72588795 0.040926725 7 9 -0.087423138
0.26920819 -0.6789034 -0.1419619 22 2 -0.087420836
0.26427394 -0.66679949 0.062752135 7 10 -0.087418534
0.25535432 -0.64462268 -0.10981701 4 3 -0.087416224
0.26976976 -0.68101335 0.089939587 8 11 -0.087413922
0.27549699 -0.69582599 -0.091889486 5 4 -0.08741162
0.25149506 -0.63552785 0.10825266 4 12 -0.087409317
0.27066237 -0.68466222 0.14310676 6 13 -0.087404706
0.27229306 -0.68913895 -0.038833283 7 6 -0.087402403
0.26913995 -0.68150681 0.1691632 9 14 -0.087400101
0.27520096 -0.69721037 0.20084359 7 15 -0.087395489
0.26786622 -0.68141264 -0.19618484 60 0 -0.087374754
0.2815378 -0.7165584 0.013438353 6 8 -0.087372452
0.26213256 -0.66751122 -0.16556399 40 1 -0.08737015
0.26683673 -0.67983896 -0.1419619 22 2 -0.087365538
0.25887141 -0.66022259 -0.11231996 6 3 -0.087360933
0.25423431 -0.64872932 0.085552283 8 11 -0.087358631
0.26280892 -0.67095399 -0.08847715 5 4 -0.087356322
0.25359774 -0.64743781 0.11012988 4 12 -0.087354019
0.28326842 -0.72355896 -0.067981474 7 5 -0.087351717
0.26827079 -0.6856029 0.14310676 6 13 -0.087349415
0.2667594 -0.68244219 0.1691632 9 14 -0.087344803
0.27276552 -0.69816673 0.20084359 7 15 -0.087340198
0.26688695 -0.68594426 -0.19722012 73 0 -0.087319456
0.263208 -0.67648876 0.012670447 7 8 -0.087317154
0.2627427 -0.67564172 -0.16736358 39 1 -0.087314852
0.28291112 -0.72788072 0.040926725 7 9 -0.087312549
0.26446199 -0.68076628 -0.1419619 22 2 -0.087310247
0.29566965 -0.76149327 0.071467713 5 10 -0.087307937
0.25811055 -0.66476035 -0.1129457 4 3 -0.087305635
0.26500887 -0.68288004 0.089939587 8 11 -0.087303333
0.27063257 -0.69773227 -0.091889486 5 4 -0.087301031
0.25562042 -0.65936995 0.11200709 4 12 -0.087298721
0.28074089 -0.72454339 -0.067981474 7 5 -0.087296419
0.28585678 -0.7377466 0.15379207 5 13 -0.087294117
0.25749797 -0.66490185 -0.037367877 7 6 -0.087291814
0.26449493 -0.68332297 0.1691632 9 14 -0.087289505
0.27032679 -0.69911468 0.20084359 7 15 -0.0872849
0.25905469 -0.67240405 -0.19307902 93 0 -0.087264165
0.26946807 -0.69979692 0.013089306 7 8 -0.087261863
0.26038274 -0.67655474 -0.16736358 39 1 -0.087259553
0.27032977 -0.70276636 0.039461315 7 9 -0.087257251
0.26220301 -0.68163949 -0.1419619 30 2 -0.087254949
0.26740339 -0.69552094 0.065192491 6 10 -0.087252647
0.25791427 -0.67118901 -0.11388431 4 3 -0.087250337
0.25550643 -0.66526985 0.087502196 8 11 -0.087248035
0.25823584 -0.67272729 -0.08847715 5 4 -0.087245733
0.23916534 -0.62337232 0.10574972 4 12 -0.08724343
0.27833664 -0.72547036 -0.067981474 7 5 -0.087241121
0.26359791 -0.68741304 0.14310676 6 13 -0.087238818
0.29091439 -0.75904542 -0.04260147 5 6 -0.087236516
0.26210797 -0.68424213 0.1691632 9 14 -0.087234214
0.27241403 -0.71151793 -0.013298733 9 7 -0.087231904
0.26788485 -0.70005399 0.20084359 7 15 -0.087229602
0.2622118 -0.68774503 -0.19722012 88 0 -0.087208867
0.25847891 -0.67830974 0.012670447 7 8 -0.087206565
0.25940666 -0.68110186 -0.16826339 38 1 -0.087204263
0.28777036 -0.75597042 0.042392131 6 9 -0.087201953
0.26261592 -0.68988985 -0.14348838 22 2 -0.087199651
0.21963085 -0.57727146 0.054036558 9 10 -0.087197348
0.24574009 -0.64623582 -0.10950414 6 3 -0.087195046
0.25459316 -0.66986883 0.08798968 8 11 -0.087192737
0.26575488 -0.69960469 -0.091889486 5 4 -0.087190434
0.23137878 -0.6094293 0.10324676 4 12 -0.087188132
0.27580267 -0.72643751 -0.067981474 7 5 -0.08718583
0.28826302 -0.76005626 -0.04260147 5 6 -0.087181218
0.25971797 -0.68515283 0.1691632 9 14 -0.087178916
0.26992869 -0.71246451 -0.013298733 9 7 -0.087176614
0.26543945 -0.70098484 0.20084359 7 15 -0.087174311
0.25435421 -0.67419618 -0.19307902 93 0 -0.087153569
0.25610957 -0.67920792 0.012670447 7 8 -0.087151267
0.25840211 -0.68565023 -0.1691632 57 1 -0.087148964
0.27527341 -0.73080337 0.040926725 7 9 -0.087146662
0.26159021 -0.69447684 -0.14425161 29 2 -0.087144352
0.25271359 -0.67126608 0.062752135 7 10 -0.08714205
0.2511352 -0.66742676 -0.1129457 4 3 -0.087139748
0.25784332 -0.68561774 0.089939587 8 11 -0.087137446
0.25353304 -0.67451376 -0.08847715 5 4 -0.087135136
0.24175467 -0.64351863 0.1088784 4 12 -0.087132834
0.2732653 -0.72739577 -0.067981474 7 5 -0.087130532
0.25879243 -0.68923652 0.14310676 6 13 -0.087128229
0.25732484 -0.68605524 0.1691632 9 14 -0.087123618
0.26744005 -0.71340239 -0.013298733 9 7 -0.087121315
0.26299101 -0.7019071 0.20084359 7 15 -0.087119013
0.25537723 -0.68412924 -0.19566721 75 0 -0.087098278
0.26212513 -0.70258039 0.013089306 7 8 -0.087095968
0.2478368 -0.66463691 -0.16376437 51 1 -0.087093666
0.27272072 -0.73175985 0.040926725 7 9 -0.087091364
0.25230822 -0.67698932 -0.14043543 23 2 -0.087089062
0.24604699 -0.66089439 -0.11169422 6 3 -0.08708445
0.23883404 -0.64186233 0.08408986 9 11 -0.087082148
0.26086432 -0.7014429 -0.091889486 5 4 -0.087079845
0.22987145 -0.61843616 0.10449824 4 12 -0.087077543
0.27072445 -0.72834527 -0.067981474 7 5 -0.087075233
0.25638503 -0.69013566 0.14310676 6 13 -0.087072931
0.23289488 -0.62724036 -0.035065092 8 6 -0.087070629
0.25492841 -0.68694931 0.1691632 9 14 -0.087068327
0.26494819 -0.71433163 -0.013298733 9 7 -0.087066017
0.26053935 -0.70282084 0.20084359 7 15 -0.087063715
0.25700334 -0.69588971 -0.19877303 86 0 -0.08704298
0.245822 -0.66597152 0.012391209 8 8 -0.087040678
0.24821314 -0.67281121 -0.16556399 50 1 -0.087038368
0.25508434 -0.69143635 0.03862394 8 9 -0.087036066
0.24926431 -0.67602384 -0.14005381 23 2 -0.087033764
0.25766635 -0.69918668 0.065192491 6 10 -0.087031461
0.23827668 -0.64692008 -0.10919127 4 3 -0.087029159
0.24756444 -0.67249817 0.08798968 8 11 -0.087026849
0.25841424 -0.70234925 -0.091889486 5 4 -0.087024547
0.23464037 -0.63773382 0.10762692 4 12 -0.087022245
0.28028801 -0.76303327 -0.04260147 5 6 -0.087015331
0.252529 -0.68783498 0.1691632 9 14 -0.087013029
0.26257798 -0.71520627 -0.013298733 9 7 -0.087010726
0.25820717 -0.70368099 0.20084359 7 15 -0.087008417
0.24860613 -0.68045181 -0.1941143 92 0 -0.086987682
0.24910203 -0.68180913 0.012670447 7 8 -0.086985379
0.2486544 -0.68095261 -0.16736358 48 1 -0.086983077
0.25814715 -0.70733219 0.039461315 7 9 -0.086980775
0.24959405 -0.68426734 -0.14158028 22 2 -0.086978465
0.24627893 -0.6755451 -0.11388431 6 3 -0.086973861
0.23581873 -0.64720339 0.084577329 9 11 -0.086971559
0.2560837 -0.70320231 -0.091889486 5 4 -0.086969249
0.23241282 -0.63854897 0.10762692 4 12 -0.086966947
0.23157759 -0.63659984 -0.0592659 10 5 -0.086964644
0.26007974 -0.71611851 -0.013298733 9 7 -0.086955428
0.24043602 -0.664922 -0.18945555 81 0 -0.086932391
0.22768974 -0.63001645 0.011693113 9 8 -0.086930081
0.24495183 -0.67815077 -0.16646378 39 1 -0.086927779
0.26517105 -0.73452932 0.040926725 7 9 -0.086925477
0.24465698 -0.67770487 -0.14005381 23 2 -0.086923175
0.23453787 -0.6503852 -0.10950414 4 3 -0.086918563
0.23221189 -0.64428765 0.08408986 9 11 -0.08691626
0.25362757 -0.70409191 -0.091889486 5 4 -0.086913958
0.22616772 -0.62820476 0.10574972 4 12 -0.086911649
0.26321024 -0.7310943 -0.067981474 7 5 -0.086909346
0.23183078 -0.64464068 -0.03590247 8 6 -0.086904742
0.25757849 -0.71702194 -0.013298733 9 7 -0.08690013
0.25328833 -0.70546645 0.20084359 7 15 -0.086897828
0.24526983 -0.68576628 -0.19514956 75 0 -0.086877093
0.22548915 -0.6308074 0.011693113 9 8 -0.08687479
0.23996063 -0.67166114 -0.16466418 30 1 -0.086872481
0.22902428 -0.64140308 0.035693128 9 9 -0.086870179
0.24228992 -0.67855471 -0.14005381 23 2 -0.086867876
0.22961169 -0.64375764 -0.10825266 6 3 -0.086863264
0.2366271 -0.66379267 0.086527243 8 11 -0.086860962
0.25116828 -0.70497298 -0.091889486 5 4 -0.08685866
0.22529867 -0.6327123 0.10637545 4 12 -0.086856358
0.26065654 -0.7320087 -0.067981474 7 5 -0.086854048
0.23894976 -0.67179066 -0.037367877 7 6 -0.086849444
0.24543273 -0.69039893 0.1691632 9 14 -0.086847141
0.23789519 -0.66993672 0.19049083 8 15 -0.086842529
0.23900925 -0.67569065 -0.19204374 47 0 -0.086821795
0.22328585 -0.6315906 0.011693113 9 8 -0.086819492
0.23826382 -0.67433208 -0.16511407 30 1 -0.08681719
0.23076767 -0.65347934 -0.13471116 17 2 -0.086812578
0.22604889 -0.64082944 -0.10762692 6 3 -0.086807974
0.21846801 -0.61968297 0.080677517 9 11 -0.086805664
0.22363742 -0.63469917 -0.082627423 6 4 -0.086803362
0.22571334 -0.6409477 0.10762692 4 12 -0.08680106
0.25809982 -0.73291409 -0.067981474 7 5 -0.086798757
0.21183288 -0.6018675 0.12402585 8 13 -0.086796455
0.2366033 -0.67262065 -0.037367877 7 6 -0.086794145
0.22492401 -0.63977528 0.15656593 11 14 -0.086791843
0.25256646 -0.71880275 -0.013298733 9 7 -0.086789541
0.22723395 -0.64706761 0.18376154 18 15 -0.086787239
0.2366491 -0.67652082 -0.19204374 47 0 -0.086766496
0.22107987 -0.63236618 0.011693113 9 8 -0.086764194
0.23398016 -0.6696406 -0.16376437 20 1 -0.086761892
0.22454086 -0.64298636 0.035693128 9 9 -0.08675959
0.24143042 -0.69135064 -0.14234352 7 2 -0.086757287
0.23291925 -0.66772681 -0.11200709 4 3 -0.086752675
0.22153142 -0.63543731 0.082627423 9 11 -0.086750373
0.22664577 -0.6504724 -0.084577329 6 4 -0.086748071
0.22347471 -0.64173168 0.10762692 13 12 -0.086745761
0.22263727 -0.63968652 0.13165821 16 13 -0.086741157
0.21981815 -0.6319418 -0.035065092 8 6 -0.086738855
0.21373056 -0.61478704 0.1502673 38 14 -0.086736545
0.21990408 -0.63325721 0.17962041 57 15 -0.086731941
0.22733973 -0.65725982 -0.18634972 51 0 -0.086711206
0.23716486 -0.68605268 0.012670447 7 8 -0.086708903
0.23164125 -0.67045331 -0.16376437 20 1 -0.086706594
0.22229511 -0.64376622 0.035693128 9 9 -0.086704291
0.23517098 -0.68105471 -0.14005381 7 2 -0.086701989
0.21449132 -0.62151802 0.057522789 8 10 -0.086699687
0.22479004 -0.65172905 -0.10919127 4 3 -0.086697377
0.22125283 -0.64183682 0.083358638 18 11 -0.086695075
0.23471965 -0.68128884 -0.08847715 5 4 -0.086692773
0.20708458 -0.6014173 0.10074381 43 12 -0.086690471
0.23611172 -0.68571824 -0.063449383 9 5 -0.086688161
0.22231948 -0.64602894 0.13280307 39 13 -0.086685859
0.23190175 -0.67425609 -0.037367877 7 6 -0.086683556
0.21158332 -0.6155293 0.1502673 51 14 -0.086681254
0.21643756 -0.63036674 0.17858516 58 15 -0.086676642
0.22066829 -0.64525396 -0.18272625 35 0 -0.086655907
0.19855088 -0.58091199 0.010715778 10 8 -0.086653605
0.22488989 -0.65834898 -0.16061506 10 1 -0.086651303
0.23166195 -0.67856079 0.037577223 8 9 -0.086648993
0.2480157 -0.7264626 -0.14921264 6 2 -0.086646691
0.2097469 -0.61472034 0.056825541 25 10 -0.086644389
0.2193259 -0.64316148 -0.10762692 4 3 -0.086642087
0.21260715 -0.62381566 0.080921248 69 11 -0.086639777
0.22849974 -0.67082965 -0.08701472 5 4 -0.086637475
0.2107134 -0.6189664 0.10355964 80 12 -0.086635172
0.21310703 -0.62635624 0.12860526 50 13 -0.08663056
0.21925892 -0.64480662 -0.035693128 8 6 -0.086628258
0.21194167 -0.62364453 0.15206692 87 14 -0.086625956
0.24502549 -0.72140813 -0.013298733 9 7 -0.086623654
0.21113095 -0.62197167 0.17599694 81 15 -0.086621344
0.23017052 -0.68079197 -0.19256137 15 0 -0.086600609
0.20868447 -0.61759639 0.011378969 28 8 -0.086598307
0.2188495 -0.64805216 -0.15791564 11 1 -0.086596005
0.22098884 -0.65476429 0.036216486 47 9 -0.086593702
0.26180172 -0.77568811 -0.15913472 5 2 -0.086591393
0.20441578 -0.60600936 0.055953983 78 10 -0.086589091
0.21140017 -0.62707627 -0.1048111 4 3 -0.086586788
0.20345637 -0.60386091 0.078240126 84 11 -0.086584486
0.2261567 -0.67162317 -0.08701472 5 4 -0.086582176
0.20918147 -0.62157029 0.1038725 92 12 -0.086579874
0.21606694 -0.64203012 -0.0592659 10 5 -0.086577572
0.20779005 -0.61779213 0.12669718 60 13 -0.08657527
0.21064302 -0.62663645 -0.034646407 8 6 -0.08657296
0.20728095 -0.6169914 0.1502673 89 14 -0.086570658
0.22595693 -0.67297101 -0.012391209 21 7 -0.086568356
0.21018781 -0.62636787 0.17703223 80 15 -0.086566053
0.2204446 -0.65960443 -0.18634972 17 0 -0.086545318
0.20716098 -0.6202178 0.011413874 75 8 -0.086543009
0.21535183 -0.64511526 -0.15701583 11 1 -0.086540706
0.20289981 -0.60816669 0.033599686 87 9 -0.086538404
0.25909254 -0.77659726 -0.15913472 5 2 -0.086536102
0.20040858 -0.60104895 0.055431053 79 10 -0.086533792
0.21170792 -0.63530666 -0.10606258 4 3 -0.08653149
0.20636524 -0.61963457 0.08019004 90 11 -0.086529188
0.22882625 -0.68747646 -0.088964626 5 4 -0.086526886
0.20514001 -0.61667359 0.10293389 100 12 -0.086524576
0.22262914 -0.66924781 -0.061706264 9 5 -0.086522274
0.20996788 -0.63155472 0.1293685 66 13 -0.086519971
0.21034367 -0.63305402 -0.034960423 35 6 -0.086517669
0.20758265 -0.62510896 0.15206692 100 14 -0.086515367
0.21919729 -0.66047037 -0.012146875 43 7 -0.086513057
0.21104093 -0.63626581 0.17962041 77 15 -0.086510755
0.21814078 -0.66036993 -0.18634972 17 0 -0.08649002
0.20311403 -0.6152404 0.011309159 100 8 -0.086487718
0.22775307 -0.6902777 -0.16781349 9 1 -0.086485408
0.20577945 -0.62404567 0.034437064 93 9 -0.086483106
0.22563908 -0.68427181 -0.14005381 7 2 -0.086480804
0.2014273 -0.61120623 0.056302607 100 10 -0.086478502
0.21814051 -0.66230899 -0.11044274 12 3 -0.086476192
0.21413179 -0.65052021 0.08408986 100 11 -0.08647389
0.21960132 -0.66752857 -0.086283498 23 4 -0.086471587
0.1999013 -0.60800302 0.10136954 100 12 -0.086469285
0.20660128 -0.62838119 -0.057871412 32 5 -0.086466983
0.20776205 -0.63228381 0.1293685 66 13 -0.086464673
0.20439368 -0.62239903 -0.034332391 72 6 -0.086462371
0.20175317 -0.61472034 0.1493675 100 14 -0.086460069
0.21190447 -0.64603078 -0.011867636 67 7 -0.086457767
0.20821694 -0.63516289 0.17910279 78 15 -0.086455457
0.20744075 -0.63541681 -0.17910279 18 0 -0.086434722
0.20282599 -0.62164897 0.011413874 100 8 -0.08643242
0.21205126 -0.65030837 -0.15791564 11 1 -0.086430117
0.20174329 -0.61906326 0.034123044 100 9 -0.086427815
0.20986633 -0.64398938 -0.13165821 8 2 -0.086425506
0.19620758 -0.60243338 0.055431053 100 10 -0.086423203
0.2097131 -0.6442827 -0.10731406 24 3 -0.086420901
0.19896398 -0.6116215 0.078971341 100 11 -0.086418599
0.20990486 -0.64563709 -0.083358638 49 4 -0.086416289
0.19777767 -0.60869718 0.10136954 100 12 -0.086413987
0.20009671 -0.61583441 -0.056651231 67 5 -0.086411685
0.20494732 -0.63113785 0.1289869 75 13 -0.086409383
0.20900168 -0.64400566 -0.035483781 76 6 -0.086407073
0.20140982 -0.62098187 0.1507172 100 14 -0.086404771
0.20594843 -0.63535297 -0.011658208 81 7 -0.086402468
0.2042125 -0.63037235 0.17754988 88 15 -0.086400166
0.19691777 -0.6103974 -0.17185585 20 0 -0.086379431
0.19758675 -0.61283708 0.01123935 100 8 -0.086377122
0.20021726 -0.62136739 -0.1507172 12 1 -0.086374819
0.19958113 -0.61976367 0.034123044 100 9 -0.086372517
0.20581172 -0.6391117 -0.13051336 27 2 -0.086370215
0.19288272 -0.59932148 0.055082429 100 10 -0.086367905
0.20504354 -0.63748878 -0.10606258 74 3 -0.086365603
0.20776267 -0.64632964 0.083358638 100 11 -0.086363301
0.20279257 -0.63124627 -0.081408732 76 4 -0.086360998
0.19746338 -0.6150263 0.10230815 100 12 -0.086358689
0.19733679 -0.61463201 -0.056476917 68 5 -0.086356387
0.19854425 -0.6187638 0.12631556 69 13 -0.086354084
0.19882375 -0.62000704 -0.034123044 100 6 -0.086351782
0.19745678 -0.61611378 0.1493675 100 14 -0.086349472
0.20372935 -0.63606799 -0.011658208 93 7 -0.08634717
0.19729911 -0.61636227 0.17340876 93 15 -0.086344868
0.19713271 -0.61844355 -0.17392641 39 0 -0.086324133
0.19666018 -0.61733365 0.011309159 100 8 -0.086321831
0.18740577 -0.58863819 -0.14261897 81 1 -0.086319521
0.19983879 -0.62806958 0.034541734 100 9 -0.086317219
0.20119849 -0.63234293 -0.1289869 73 2 -0.086314917
0.1926008 -0.6056872 0.055605359 100 10 -0.086312614
0.19324459 -0.60807902 -0.10105667 80 3 -0.086310305
0.20129903 -0.63380724 0.081652462 100 11 -0.086308002
0.20238955 -0.63762647 -0.082139947 89 4 -0.0863057
0.19650991 -0.61947769 0.10293389 100 12 -0.086303398
0.19398527 -0.61151898 -0.056128301 80 5 -0.086301088
0.19578981 -0.61758161 0.12593395 77 13 -0.086298786
0.19243562 -0.60736936 -0.033390343 100 6 -0.086296484
0.19648138 -0.62051499 0.1502673 100 14 -0.086294182
0.20392115 -0.64440131 -0.011797828 91 7 -0.086291879
0.19572902 -0.61888921 0.17392641 82 15 -0.08628957
0.19170329 -0.60800511 -0.17082058 80 0 -0.086252451
0.19471978 -0.61794847 0.011309159 100 8 -0.086250149
0.18614091 -0.59108281 -0.14306886 93 1 -0.086247846
0.19546634 -0.62107366 0.034123044 100 9 -0.086245537
0.19154902 -0.60862678 -0.12402585 68 2 -0.086243235
0.19249041 -0.61199117 0.056128301 100 10 -0.086240932
0.19429509 -0.61810547 -0.10262102 100 3 -0.08623863
0.19097768 -0.60792273 0.078240126 100 11 -0.08623632
0.19622305 -0.62500155 -0.080433771 100 4 -0.086234018
0.19692823 -0.62763101 0.10418537 100 12 -0.086231716
0.19444898 -0.61972934 -0.056825541 78 5 -0.086229414
0.19326131 -0.61632037 0.12555233 70 13 -0.086227104
0.19470739 -0.62131208 -0.034123044 100 6 -0.086224802
0.19569592 -0.62484854 0.15116711 100 14 -0.0862225
0.2007011 -0.641222 -0.011728018 92 7 -0.086220197
0.1937837 -0.61950105 0.17392641 82 15 -0.086217888
0.19187777 -0.6160484 -0.17289113 98 0 -0.086197153
0.1925616 -0.61862439 0.011309159 100 8 -0.086194851
0.18176107 -0.58428586 -0.14126927 100 1 -0.086192548
0.19092546 -0.6141234 0.033704359 100 9 -0.086190246
0.18476062 -0.59429377 -0.1209729 92 2 -0.086187936
