# .PCD v0.7 - Point Cloud Data file format
VERSION 0.7
FIELDS x y z intensity ring time
SIZE 4 4 4 4 2 4
TYPE F F F F U F
COUNT 1 1 1 1 1 1
WIDTH 924
HEIGHT 1
VIEWPOINT 0 0 0 1 0 0 0
POINTS 924
DATA ascii
0.80550182 -0.76626515 0.09726581 1 10 -0.039733641
0.78561229 -0.74760568 -0.17176506 6 3 -0.039731339
0.77640492 -0.73910213 0.1316189 1 11 -0.039729033
0.7892139 -0.75155818 -0.13381255 5 4 -0.03972673
0.7766391 -0.73984194 0.16988786 1 12 -0.039724424
0.78319764 -0.74635041 -0.09465114 3 5 -0.039722122
0.75611085 -0.72053802 0.20302078 43 13 -0.039719816
0.80088317 -0.76347077 -0.057988245 2 6 -0.039717514
1.8672166 -1.7806135 0.5956704 78 14 -0.039715208
0.83487242 -0.79642868 -0.020140078 2 7 -0.039712906
1.8629965 -1.7778314 0.69001162 86 15 -0.0397106
0.7523002 -0.71991915 -0.27900696 62 0 -0.039689865
0.79172266 -0.75764477 0.019127838 1 8 -0.039687559
0.76156557 -0.72904044 -0.24339703 6 1 -0.039685257
0.77462626 -0.74180233 0.056208819 1 9 -0.039682955
0.78257614 -0.74967736 -0.21065316 5 2 -0.039680649
0.78254879 -0.74991316 0.094825447 1 10 -0.039678346
0.78714484 -0.75458115 -0.17270368 3 3 -0.03967604
0.79961419 -0.76653469 0.13600621 1 11 -0.039673738
0.77942187 -0.74743861 -0.13259386 1 4 -0.039671432
0.78545588 -0.75348818 0.17239079 1 12 -0.03966913
0.78921282 -0.75735688 -0.095697001 1 5 -0.039666824
0.74638343 -0.71650648 0.20111269 46 13 -0.039664522
0.79807955 -0.76640099 -0.057988245 1 6 -0.039662216
1.8494349 -1.7766451 0.59207118 82 14 -0.039659914
1.865137 -1.7923552 0.69311744 90 15 -0.039655305
0.74978262 -0.72254086 -0.27900696 54 0 -0.03963457
0.78318173 -0.75499004 0.018988218 1 8 -0.039632265
0.7869435 -0.75888145 -0.25239509 1 1 -0.039629962
0.77203214 -0.74450183 0.056208819 1 9 -0.039627656
0.795497 -0.767398 -0.21485093 1 2 -0.039625354
0.79999799 -0.77200955 0.09726581 1 10 -0.039623048
0.763188 -0.73674458 -0.16801062 1 3 -0.039620746
0.78251988 -0.75567073 0.13356881 1 11 -0.03961844
0.77953249 -0.75304878 -0.13308133 1 4 -0.039616138
0.76293069 -0.73701102 0.16801062 1 12 -0.039613832
0.81808424 -0.79056674 -0.099531859 1 5 -0.03961153
0.74246627 -0.71774298 0.20073107 43 13 -0.039609224
0.80688536 -0.78028947 -0.058825623 1 6 -0.039606921
1.8362188 -1.7763153 0.5898217 79 14 -0.039604615
1.8588693 -1.7988548 0.69311744 84 15 -0.039600007
0.73755133 -0.71573603 -0.27538347 46 0 -0.039579272
0.77780366 -0.75479782 0.01891841 1 8 -0.03957697
0.78162605 -0.75877202 -0.25149527 1 1 -0.039574664
0.76942861 -0.7471922 0.056208819 1 9 -0.039572362
0.79281342 -0.77017003 -0.21485093 1 2 -0.039570056
0.79729825 -0.77479738 0.09726581 1 10 -0.039567754
0.75790733 -0.73651809 -0.16738489 1 3 -0.039565448
0.77146947 -0.74995929 0.13210639 1 11 -0.039563145
0.77418476 -0.75286186 -0.13259386 1 4 -0.03956084
0.77168095 -0.75068897 0.17051359 1 12 -0.039558537
0.80960816 -0.78785956 -0.098834611 1 5 -0.039556231
0.74008203 -0.72020113 0.20073107 39 13 -0.039553929
0.76135951 -0.74116588 -0.055685461 1 6 -0.039551623
1.8442796 -1.7959902 0.59432071 77 14 -0.039549321
1.8525786 -1.8053324 0.69311744 84 15 -0.039544713
0.73655576 -0.7195279 -0.27590114 62 0 -0.039523978
0.7723037 -0.754713 0.0188486 1 8 -0.039521672
0.77339864 -0.75604683 -0.24969566 1 1 -0.03951937
0.76694661 -0.74973959 0.056208819 1 9 -0.039517064
0.80990618 -0.79201192 -0.22019359 1 2 -0.039514761
0.77478528 -0.75793147 0.094825447 1 10 -0.039512455
0.76380283 -0.74744886 -0.16926211 1 3 -0.039510153
0.75749862 -0.74153852 0.13015647 1 11 -0.039507847
0.79140824 -0.77500409 -0.13600621 1 4 -0.039505545
0.75225109 -0.73665857 0.16675916 1 12 -0.039503239
0.79845154 -0.78217453 -0.097788744 1 5 -0.039500937
0.72915035 -0.71453553 0.19844137 43 13 -0.039498635
0.79014534 -0.77457845 -0.057988245 1 6 -0.039496329
1.8435646 -1.8078747 0.5961203 79 14 -0.039494026
1.8493398 -1.8141716 0.69415271 90 15 -0.039489418
0.71889049 -0.707192 -0.27020708 46 0 -0.03946868
0.72988141 -0.71800411 0.017871264 1 8 -0.039466377
0.79033303 -0.7777434 -0.25599429 1 1 -0.039464071
0.7643249 -0.75241214 0.056208819 1 9 -0.039461769
0.8090384 -0.79698509 0.099357553 1 10 -0.039457161
0.766949 -0.75552273 -0.17051359 1 3 -0.039454855
0.75786322 -0.74683309 0.13064395 1 11 -0.039452553
0.78317916 -0.77204996 -0.13503124 1 4 -0.039450251
0.75530106 -0.74482799 0.16801062 1 12 -0.039447945
0.79571629 -0.78495687 -0.097788744 1 5 -0.039445642
0.71839082 -0.70867693 0.19615164 40 13 -0.039443336
0.78757244 -0.77719438 -0.057988245 1 6 -0.039441034
1.8486542 -1.8249305 0.59971952 86 14 -0.039438728
1.8539908 -1.8314772 0.69829381 90 15 -0.03943412
0.72477752 -0.71772796 -0.2733129 48 0 -0.039413385
0.72168809 -0.71491814 0.017731644 1 8 -0.039411079
0.7571609 -0.75032008 -0.24609646 1 1 -0.039408777
0.76169384 -0.75507557 0.056208819 1 9 -0.039406471
0.7849766 -0.7781561 -0.21485093 1 2 -0.039404169
0.78941435 -0.78282851 0.09726581 1 10 -0.039401866
0.75589263 -0.74984825 -0.16863638 1 3 -0.039399561
0.74961549 -0.74388081 0.12966898 1 11 -0.039397258
0.77484417 -0.76918495 -0.13405629 1 4 -0.039394952
0.75269657 -0.74745995 0.16801062 1 12 -0.03939265
0.80710638 -0.8017711 -0.099531859 1 5 -0.039390344
0.71730566 -0.71256399 0.19653328 45 13 -0.039388042
0.78485477 -0.77993876 -0.057988245 1 6 -0.039385736
1.8381263 -1.827251 0.59836978 78 14 -0.039383434
1.8558041 -1.8461124 0.70139962 92 15 -0.039378826
0.71940672 -0.71765101 -0.27227765 48 0 -0.039358091
0.75316554 -0.7513274 0.01856936 1 8 -0.039355785
0.77109003 -0.76947671 -0.25149527 1 1 -0.039353482
0.75905341 -0.75772977 0.056208819 1 9 -0.039351176
0.78653991 -0.78571653 0.09726581 1 10 -0.039346568
0.74755007 -0.74702835 -0.16738489 1 3 -0.039344266
0.74701428 -0.74649292 0.12966898 1 11 -0.03934196
0.7524997 -0.75223702 -0.13064395 1 4 -0.039339658
0.75008279 -0.75008279 0.16801062 1 12 -0.039337352
0.77613103 -0.77640194 -0.096045621 1 5 -0.03933505
0.71746457 -0.71796566 0.19729652 37 13 -0.039332744
0.71141404 -0.71215945 -0.052754648 1 6 -0.039330442
1.831417 -1.8339756 0.59836978 82 14 -0.039328136
1.8493485 -1.852579 0.70139962 86 15 -0.039323527
0.70326805 -0.70646662 -0.26710126 42 0 -0.039302792
0.72783816 -0.73140377 0.018010885 1 8 -0.03930049
0.74627495 -0.75019264 -0.24429685 1 1 -0.039298184
0.75640386 -0.76037472 0.056208819 1 9 -0.039295882
0.76000726 -0.76426381 -0.20950828 1 2 -0.039293576
0.71356004 -0.71780705 0.088550232 1 10 -0.039291274
0.7449379 -0.74963325 -0.16738489 1 3 -0.039288968
0.73867714 -0.74359256 0.12869403 1 11 -0.039286666
0.73295236 -0.73808724 -0.12771909 1 4 -0.03928436
0.74745995 -0.75269651 0.16801062 1 12 -0.039282057
0.79587477 -0.80173022 -0.098834611 1 5 -0.039279751
0.70942247 -0.71489143 0.19577004 46 13 -0.039277449
0.7539348 -0.76001227 -0.05610415 1 6 -0.039275143
1.8332371 -1.8486596 0.60106921 82 14 -0.039272841
1.8401504 -1.8562791 0.70036435 90 15 -0.039268233
0.69808143 -0.70616937 -0.26606598 46 0 -0.039247498
0.71978545 -0.7281248 0.017871264 1 8 -0.039245192
0.76569927 -0.77484119 -0.25149527 1 1 -0.03924289
0.75374508 -0.7630105 0.056208819 1 9 -0.039240584
0.75733483 -0.7669121 -0.20950828 1 2 -0.039238282
0.73344547 -0.74297994 0.091339223 1 10 -0.039235976
0.72579491 -0.73522991 -0.16363046 1 3 -0.039233673
0.73620725 -0.74603802 0.12869403 1 11 -0.039231367
0.74444169 -0.75464571 -0.13015647 1 4 -0.039229065
0.71708775 -0.72717065 0.16175325 1 12 -0.039226759
0.6811741 -0.69099331 -0.084889688 2 5 -0.039224457
0.69877839 -0.7088514 0.19348033 47 13 -0.039222151
0.75701797 -0.76819855 -0.056522839 1 6 -0.039219849
1.8325669 -1.8602818 0.6028688 82 14 -0.039217547
1.8363701 -1.8654448 0.70139962 90 15 -0.039212938
0.69573581 -0.70848042 -0.26606598 46 0 -0.0391922
0.71163589 -0.7249248 0.017731644 1 8 -0.039189897
0.68382472 -0.69683743 -0.22540097 1 1 -0.039187592
0.75107706 -0.76563686 0.056208819 1 9 -0.039185289
0.74492753 -0.7596333 0.093082331 1 10 -0.039180681
0.7259897 -0.74058026 -0.16425622 1 3 -0.039178375
0.73081988 -0.74576771 0.12820657 1 11 -0.039176073
0.73902452 -0.75440359 -0.12966898 1 4 -0.039173767
0.71454501 -0.72966933 0.16175325 1 12 -0.039171465
0.76809502 -0.78435278 -0.096045621 1 5 -0.039169163
0.68805951 -0.70286864 0.19119063 47 13 -0.039166857
0.74036276 -0.75656164 -0.055476118 1 6 -0.039164554
1.8369641 -1.8778117 0.60646802 88 14 -0.039162248
1.8379501 -1.8801321 0.70450544 90 15 -0.03915764
0.69595611 -0.71367091 -0.26710126 46 0 -0.039136905
0.7258516 -0.74458724 0.018150503 1 8 -0.039134599
0.71674955 -0.73550707 -0.23709841 1 1 -0.039132297
0.69544047 -0.71388966 0.052231289 1 9 -0.039129991
0.73393118 -0.75366449 0.092036456 1 10 -0.039125387
0.71788859 -0.73744804 -0.16300473 1 3 -0.039123081
0.7365188 -0.75685006 0.12966898 1 11 -0.039120778
0.73915511 -0.75982445 -0.13015647 1 4 -0.039118472
0.71199363 -0.73215914 0.16175325 1 12 -0.03911617
0.74590605 -0.76703209 -0.093605265 1 5 -0.039113864
0.69107574 -0.71089691 0.19271709 46 13 -0.039111562
0.72379816 -0.74481797 -0.054429401 1 6 -0.039109256
1.8249665 -1.8786215 0.60466844 80 14 -0.039106954
1.8448319 -1.9003975 0.70968187 92 15 -0.039102346
0.69480461 -0.71748358 -0.26761889 50 0 -0.039081607
0.69264907 -0.71550769 0.017382598 1 8 -0.039079305
0.73586059 -0.76041079 -0.24429685 1 1 -0.039077003
0.71794027 -0.74215186 0.054115385 1 9 -0.039074697
0.7035954 -0.72757715 0.088550232 1 10 -0.039070088
0.71256423 -0.73710901 -0.162379 1 3 -0.039067786
0.71180105 -0.73657686 0.12576917 1 11 -0.03906548
0.70339733 -0.72813475 -0.12430675 1 4 -0.039063178
0.73687786 -0.76305932 0.16801062 1 12 -0.039060872
0.75983256 -0.78682959 -0.095697001 1 5 -0.03905857
0.69540781 -0.72036743 0.1946252 40 13 -0.039056264
0.72119385 -0.74734002 -0.054429401 1 6 -0.039053962
1.8251628 -1.8919927 0.60691798 89 14 -0.039051656
1.8341647 -1.9026532 0.70812893 82 15 -0.039047047
0.67890525 -0.70597994 -0.26244253 44 0 -0.039026313
0.70400566 -0.73233718 0.017731644 1 8 -0.03902401
0.71159726 -0.74049294 -0.23709841 1 1 -0.039021704
0.69043976 -0.71872723 0.052231289 1 9 -0.039019402
0.70105141 -0.73002869 0.088550232 1 10 -0.039014794
0.71819472 -0.748142 -0.16425622 1 3 -0.039012488
0.70922559 -0.73905706 0.12576917 1 11 -0.039010186
0.6953544 -0.72485554 -0.12333179 1 4 -0.03900788
0.67405105 -0.70289397 0.15424441 1 12 -0.039005578
0.74053305 -0.77222073 -0.093605265 1 5 -0.039003272
0.6942476 -0.7242077 0.1950068 37 13 -0.039000969
0.73239964 -0.76427305 -0.055476118 1 6 -0.038998663
1.8198954 -1.8997593 0.60736781 88 14 -0.038996361
1.8315198 -1.9132305 0.70968187 86 15 -0.038991753
0.67243415 -0.70415407 -0.26088959 42 0 -0.038971018
0.67935228 -0.71164715 0.017173167 1 8 -0.038968712
0.70900816 -0.74297237 -0.23709841 1 1 -0.03896641
0.69068396 -0.7240234 0.052440636 1 9 -0.038964104
0.69518614 -0.7287429 -0.19577004 1 2 -0.038961802
0.69849879 -0.73247141 0.088550232 1 10 -0.038959496
0.69649673 -0.73062718 -0.15987605 1 3 -0.038957193
0.70664155 -0.74152821 0.12576917 1 11 -0.038954888
0.7174657 -0.75314999 -0.12771909 1 4 -0.038952585
0.7206347 -0.75674093 0.16550769 1 12 -0.038950279
0.71310127 -0.74883002 -0.090467662 1 5 -0.038947977
0.68494719 -0.71951681 0.19309872 21 13 -0.038945671
0.73798841 -0.77550596 -0.05610415 1 6 -0.038943369
1.8213118 -1.9145721 0.61006725 84 14 -0.038941063
1.8248302 -1.9196122 0.70968187 90 15 -0.038936459
0.66332549 -0.6994881 -0.25830141 46 0 -0.03891572
0.67686403 -0.71401417 0.017173167 1 8 -0.038913418
0.68496341 -0.72281069 -0.22989999 1 1 -0.038911112
0.70188802 -0.74092948 0.053487353 1 9 -0.038908809
0.69263816 -0.73116511 -0.19577004 1 2 -0.038906503
0.69593781 -0.73490512 0.088550232 1 10 -0.038904201
0.6993742 -0.73879218 -0.16112752 1 3 -0.038901895
0.70404881 -0.7439903 0.12576917 1 11 -0.038899593
0.71483237 -0.75564981 -0.12771909 1 4 -0.038897287
0.70170176 -0.74202877 0.16175325 1 12 -0.038894985
0.72143453 -0.76289558 -0.09186215 1 5 -0.038892679
0.67433929 -0.71334314 0.190809 15 13 -0.038890377
0.74625117 -0.78969043 -0.056941528 1 6 -0.038888074
1.8306762 -1.9379172 0.61546606 82 14 -0.038885769
1.8287276 -1.9372087 0.71382296 86 15 -0.03888116
0.67015082 -0.71164417 -0.26192489 48 0 -0.038860425
0.64969558 -0.69016385 0.016544882 2 8 -0.038858119
0.67709416 -0.71952057 -0.22810037 1 1 -0.038855817
0.68573976 -0.72870791 0.052440636 1 9 -0.038853511
0.69336826 -0.7373299 0.088550232 1 10 -0.038848903
0.68596715 -0.72971475 -0.15862457 1 3 -0.038846601
0.70144749 -0.74644339 0.12576917 1 11 -0.038844299
0.70144749 -0.74644339 -0.12576917 1 4 -0.038841993
0.69923729 -0.74435157 0.16175325 1 12 -0.03883969
0.70785612 -0.75379014 -0.090467662 1 5 -0.038837384
0.68796951 -0.73286933 0.19538842 6 13 -0.038835082
0.68882167 -0.73403388 -0.052754648 1 6 -0.038832776
1.8135716 -1.932609 0.61186683 88 14 -0.038830474
1.8328651 -1.9545357 0.71796405 86 15 -0.038825866
0.65722924 -0.70257622 -0.25778377 54 0 -0.038805127
0.68564653 -0.73321068 0.017522216 1 8 -0.038802825
0.70131993 -0.75023383 -0.23709841 1 1 -0.038800523
0.66422468 -0.71055132 0.050975226 1 9 -0.038798217
0.69091934 -0.73962516 0.088550232 1 10 -0.038793609
0.68084699 -0.72909784 -0.15799882 1 3 -0.038791306
0.69896835 -0.74876535 0.12576917 1 11 -0.038789
0.68000406 -0.72845 -0.12235683 1 4 -0.038786698
0.66442007 -0.71200478 0.15424441 1 12 -0.038784392
0.71078879 -0.76196086 -0.091164902 1 5 -0.03878209
0.68285757 -0.73227507 0.1946252 2 13 -0.038779784
0.71362126 -0.76553291 -0.05484809 1 6 -0.038777482
1.8124681 -1.9443144 0.61366647 82 14 -0.038775176
1.8342742 -1.9690841 0.72106987 86 15 -0.038770568
0.65358078 -0.7033366 -0.25726613 59 0 -0.038749833
0.66960156 -0.72082937 0.017173167 1 8 -0.03874753
0.6749593 -0.72685134 -0.22900017 1 1 -0.038745224
0.67817348 -0.73031265 0.052231289 1 9 -0.038742922
0.68846291 -0.74191225 0.088550232 1 10 -0.038738314
0.68648607 -0.74004102 -0.15987605 1 3 -0.038736008
0.69648153 -0.75107908 0.12576917 1 11 -0.038733706
0.68568331 -0.73943442 -0.12381926 1 4 -0.0387314
0.66742694 -0.7199989 0.15549587 1 12 -0.038729098
0.65950608 -0.7117033 -0.084889688 2 5 -0.038726792
0.67775708 -0.73165488 0.19386195 2 13 -0.03872449
0.73821902 -0.79720414 -0.056941528 1 6 -0.038722184
1.8152788 -1.960323 0.61681581 75 14 -0.038719881
1.8251103 -1.9723202 0.7200346 86 15 -0.038715273
0.64076203 -0.69414395 -0.25312504 81 0 -0.038694538
0.65364641 -0.70834982 0.016824121 1 8 -0.038692232
0.65668958 -0.7118969 -0.22360134 1 1 -0.03868993
0.67845649 -0.73549372 0.052440636 1 9 -0.038687624
0.6859988 -0.74419117 0.088550232 1 10 -0.038683016
0.67599654 -0.73359734 -0.15799882 1 3 -0.038680714
0.69398701 -0.75338459 0.12576917 1 11 -0.038678408
0.67246795 -0.73002374 -0.12186935 1 4 -0.038676105
0.65433085 -0.71058315 0.15299292 1 12 -0.038673799
0.65714234 -0.71388638 -0.084889688 2 5 -0.038671497
0.65937454 -0.71656221 0.18928254 2 13 -0.038669191
0.68148524 -0.74085015 -0.052754648 1 6 -0.038666889
1.8153647 -1.973503 0.61906528 59 14 -0.038664583
1.8237892 -1.9840509 0.72210521 84 15 -0.038659975
0.64212894 -0.70076078 -0.25467795 66 0 -0.038637161
0.6510458 -0.7107408 0.016824121 1 8 -0.038634859
0.65934014 -0.72004801 -0.22540097 1 1 -0.038632553
0.65687269 -0.71735334 0.050975226 1 9 -0.038630251
0.68326658 -0.74670053 0.088550232 1 10 -0.038625643
0.66797024 -0.73023987 -0.15674736 1 3 -0.038623337
0.66978782 -0.73248351 0.12186935 1 11 -0.038621034
0.66162401 -0.7238093 -0.12040692 1 4 -0.038618729
0.64905649 -0.7100606 0.15236719 1 12 -0.038616426
0.68946505 -0.7545315 -0.089421786 1 5 -0.03861412
0.65144742 -0.71317595 0.18775606 1 13 -0.038611818
0.70570052 -0.77284062 -0.05484809 1 6 -0.038609512
1.8156564 -1.9890946 0.62176472 33 14 -0.03860721
1.8230158 -1.9978572 0.72469336 82 15 -0.038602602
0.63447827 -0.69728255 -0.25260741 57 0 -0.038581867
0.64868528 -0.71289587 0.016824121 1 8 -0.038579561
0.65170366 -0.7164641 -0.22360134 1 1 -0.038577259
0.64092809 -0.70486486 0.049928509 2 9 -0.038574953
0.68065596 -0.74908102 0.088550232 1 10 -0.038570344
0.67351562 -0.7412228 -0.15862457 1 3 -0.038568042
0.67269391 -0.74057823 0.1228443 1 11 -0.038565736
0.67790252 -0.74657422 -0.12381926 1 4 -0.038563434
0.65454 -0.72109801 0.15424441 1 12 -0.038561128
0.73770314 -0.81300271 -0.096045621 1 5 -0.038558826
0.66491008 -0.73277944 0.19233547 1 13 -0.03855652
0.67629665 -0.74558961 -0.052754648 1 6 -0.038554218
0.62570626 -0.69005787 0.2150532 39 14 -0.038551912
1.8199226 -2.0085032 0.7262463 84 15 -0.038547304
0.63993502 -0.70798159 -0.25571322 33 0 -0.038526569
0.64619291 -0.71515578 0.016824121 1 8 -0.038524266
0.64919871 -0.71873462 -0.22360134 1 1 -0.03852196
0.65184867 -0.72192162 0.050975226 1 9 -0.038519658
0.67495888 -0.74751621 -0.19577004 1 2 -0.038517352
0.67816818 -0.75133401 0.088550232 1 10 -0.03851505
0.66033751 -0.73183638 -0.15612161 1 3 -0.038512744
0.68605971 -0.76061058 0.12576917 1 11 -0.038510442
0.66731644 -0.74009031 -0.12235683 1 4 -0.038508136
0.63879341 -0.70870525 0.1511157 1 12 -0.038505834
0.6976527 -0.77400637 -0.091164902 1 5 -0.038503528
0.65709138 -0.72926182 0.190809 1 13 -0.038501225
0.6736899 -0.74794579 -0.052754648 1 6 -0.038498919
0.62198973 -0.69078964 0.2146033 68 14 -0.038496617
1.8219455 -2.0248964 0.72986972 82 15 -0.038492009
0.62584609 -0.69727206 -0.25105447 50 0 -0.038471274
0.64369255 -0.71740705 0.016824121 1 8 -0.038468968
0.62066239 -0.69198245 -0.2146033 2 1 -0.038466666
0.63865829 -0.71229625 0.050137851 2 9 -0.03846436
0.67234552 -0.74986768 -0.19577004 1 2 -0.038462058
0.67554146 -0.75369668 0.088550232 1 10 -0.038459752
0.66568798 -0.74296427 -0.15799882 1 3 -0.03845745
0.66220969 -0.73934168 0.12186935 1 11 -0.038455144
0.664729 -0.74241519 -0.12235683 1 4 -0.038452841
0.64422017 -0.71976221 0.15299292 1 12 -0.038450539
0.64711094 -0.72299194 -0.084889688 2 5 -0.038448233
0.67286891 -0.75203449 0.19615164 1 13 -0.038445931
0.67107499 -0.7502929 -0.052754648 1 6 -0.038443625
0.61957467 -0.69295657 0.2146033 78 14 -0.038441323
1.8148663 -2.0312438 0.72986972 82 15 -0.038436715
0.62469381 -0.70089453 -0.25157213 36 0 -0.038415976
0.62788182 -0.70471913 0.016475072 2 8 -0.038413674
0.65712643 -0.73780161 -0.22810037 1 1 -0.038411368
0.63351172 -0.71153784 0.049928509 2 9 -0.038409065
0.66972387 -0.75221008 -0.19577004 1 2 -0.03840676
0.6729064 -0.75605023 0.088550232 1 10 -0.038404457
0.64470786 -0.72462213 -0.15361866 1 3 -0.038402155
0.68073297 -0.76538157 0.12576917 1 11 -0.038399849
0.6463055 -0.72692865 -0.11943197 1 4 -0.038397547
0.61283368 -0.6895237 0.1461098 1 12 -0.038395241
0.64458323 -0.72524637 -0.084889688 2 5 -0.038392939
0.6572001 -0.73970205 0.19233547 1 13 -0.038390633
0.66845185 -0.75263077 -0.052754648 1 6 -0.03838833
0.61197674 -0.68928599 0.21280369 97 14 -0.038386025
1.8077649 -2.0375667 0.72986972 79 15 -0.038381416
0.62096304 -0.70162421 -0.25105447 36 0 -0.038360681
0.63866848 -0.72188342 0.016824121 1 8 -0.038358375
0.61581635 -0.6962986 -0.2146033 2 1 -0.038356073
0.62573254 -0.70775962 0.04950982 2 9 -0.038353771
0.66709411 -0.75454324 -0.19577004 1 2 -0.038351465
0.67026317 -0.75839448 0.088550232 1 10 -0.038349163
0.64740622 -0.7327897 -0.15487014 1 3 -0.038346857
0.67805707 -0.76775312 0.12576917 1 11 -0.038344555
0.63850898 -0.72322774 -0.11845701 1 4 -0.038342249
0.61042309 -0.69165868 0.1461098 1 12 -0.038339946
0.65786821 -0.74541789 -0.086981431 1 5 -0.03833764
0.66500485 -0.75376928 0.19538842 1 13 -0.038335338
0.6658206 -0.75495958 -0.052754648 1 6 -0.038333032
0.61214441 -0.69434148 0.2137035 94 14 -0.03833073
1.8083037 -2.0525615 0.73297554 79 15 -0.038326122
0.62233603 -0.70814085 -0.25260741 27 0 -0.038305387
0.61502796 -0.70007163 0.016265644 2 8 -0.038303081
0.6133821 -0.69844395 -0.2146033 2 1 -0.038300779
0.64170551 -0.7309525 0.050975226 1 9 -0.038298473
0.66445613 -0.75686723 -0.19577004 1 2 -0.038296171
0.66761184 -0.76072949 0.088550232 1 10 -0.038293865
0.63442254 -0.72316557 -0.15236719 1 3 -0.038291562
0.62563616 -0.71340132 0.1165071 2 11 -0.038289256
0.62027729 -0.70753974 -0.11553215 1 4 -0.038286954
0.64185548 -0.73241138 0.15424441 1 12 -0.038284648
0.63950443 -0.7297287 -0.084889688 2 5 -0.038282346
0.61062199 -0.69701678 0.1801237 2 13 -0.03828004
0.6631813 -0.7572791 -0.052754648 1 6 -0.038277738
0.60073161 -0.68621027 0.21055418 93 14 -0.038275432
1.8113036 -2.0704932 0.73711663 78 15 -0.038270824
0.62494111 -0.71613109 -0.25467795 20 0 -0.038250089
0.60206413 -0.69015896 0.015986405 3 8 -0.038247786
0.61094034 -0.70058084 -0.2146033 2 1 -0.038245481
0.65489924 -0.7512542 0.052231289 1 9 -0.038243178
0.66181016 -0.75918198 -0.19577004 1 2 -0.038240872
0.63708448 -0.73133361 -0.15361866 1 3 -0.038236264
0.67268068 -0.77246815 0.12576917 1 11 -0.038233962
0.63344437 -0.72766775 -0.11845701 1 4 -0.038231656
0.60557961 -0.6959033 0.1461098 1 12 -0.038229354
0.63695329 -0.73195648 -0.084889688 2 5 -0.038227048
0.64426392 -0.74061859 0.190809 1 13 -0.038224746
0.66053391 -0.75958943 -0.052754648 1 6 -0.03822244
0.5944972 -0.68389082 0.20920448 100 14 -0.038220137
1.8053321 -2.0782619 0.7376343 76 15 -0.038215529
0.6173771 -0.71246833 -0.25260741 16 0 -0.038194794
0.62059981 -0.71644002 0.016544882 2 8 -0.038192488
0.6263504 -0.72333372 -0.22090194 1 1 -0.038190186
0.57122892 -0.65990996 0.045741629 4 9 -0.03818788
0.65915608 -0.76148754 -0.19577004 1 2 -0.038185578
0.66228467 -0.76537168 0.088550232 1 10 -0.038183272
0.63452768 -0.73355305 -0.15361866 1 3 -0.03818097
0.66998023 -0.77481145 0.12576917 1 11 -0.038178664
0.61532265 -0.71185285 -0.11553215 1 4 -0.038176361
0.60314673 -0.69801295 0.1461098 1 12 -0.038174056
0.63439441 -0.7341755 -0.084889688 2 5 -0.038171753
0.64167476 -0.74286294 0.190809 1 13 -0.038169451
0.6578784 -0.76189053 -0.052754648 1 6 -0.038167145
0.58955967 -0.68301147 0.20830467 100 14 -0.038164843
1.8005904 -2.0874765 0.73866957 74 15 -0.038160235
0.60228622 -0.69997513 -0.24743101 8 0 -0.038139496
0.58940721 -0.68524903 0.015776975 3 8 -0.038137194
0.62128061 -0.72256035 -0.22000213 1 1 -0.038134888
0.61578965 -0.71642721 0.04950982 2 9 -0.038132586
0.65649396 -0.76378381 -0.19577004 1 2 -0.03813028
0.65960896 -0.76767886 0.088550232 1 10 -0.038127977
0.6165182 -0.71778142 -0.14986424 1 3 -0.038125671
0.66727149 -0.77714545 0.12576917 1 11 -0.038123369
0.6128341 -0.71399641 -0.11553215 1 4 -0.038121067
0.60070658 -0.70011407 0.1461098 1 12 -0.038118761
0.63182783 -0.73638541 -0.084889688 2 5 -0.038116459
0.60328948 -0.70337284 0.1801237 2 13 -0.038114153
0.65521485 -0.76418227 -0.052754648 1 6 -0.038111851
0.58970833 -0.68802452 0.20920448 100 14 -0.038109545
1.7907794 -2.0908146 0.7376343 76 15 -0.038104936
0.61489791 -0.71969849 -0.25364268 3 0 -0.038084202
0.60519344 -0.70859045 0.016265644 2 8 -0.038081896
0.59091699 -0.69211942 -0.21010427 3 1 -0.038079593
0.56660795 -0.66388184 0.045741629 4 9 -0.038077287
0.65382385 -0.76607072 -0.19577004 1 2 -0.038074985
0.65692526 -0.76997668 0.088550232 1 10 -0.038072683
0.61913633 -0.725941 -0.1511157 1 3 -0.038070377
0.61561453 -0.72206706 0.1165071 2 11 -0.038068075
0.63351542 -0.74332601 -0.11991944 1 4 -0.038065769
0.61363184 -0.72025049 0.14986424 1 12 -0.038063467
0.62925345 -0.73858643 -0.084889688 2 5 -0.038061161
0.60083061 -0.70547444 0.1801237 2 13 -0.038058858
0.65254331 -0.76646477 -0.052754648 1 6 -0.038056552
0.59235513 -0.69601488 0.21100408 90 14 -0.03805425
1.7909794 -2.1058826 0.74074018 76 15 -0.038049642
0.60988247 -0.7188943 -0.25260741 3 0 -0.038028907
0.5742619 -0.67714643 0.015497738 3 8 -0.038026601
0.60109907 -0.70904261 -0.2146033 2 1 -0.038024299
0.56428719 -0.66585559 0.045741629 4 9 -0.038021993
0.65114582 -0.76834834 -0.19577004 1 2 -0.038019691
0.65423357 -0.77226508 0.088550232 1 10 -0.038017385
0.60638577 -0.71603829 -0.14861277 1 3 -0.038015082
0.66182977 -0.78178489 0.12576917 1 11 -0.038012777
0.59501106 -0.70310414 -0.11309476 2 4 -0.038010474
0.59580415 -0.70429069 0.1461098 1 12 -0.038008168
0.67299628 -0.79553825 -0.091164902 1 5 -0.038005866
0.59836429 -0.70756745 0.1801237 2 13 -0.03800356
0.64986396 -0.76873785 -0.052754648 1 6 -0.038001258
0.57985932 -0.68617088 0.20740487 100 14 -0.037998952
1.791096 -2.1209772 0.74384594 74 15 -0.037994344
0.61234772 -0.72692877 -0.25467795 2 0 -0.037973609
0.59250355 -0.70362049 0.016056214 2 8 -0.037971307
0.57603103 -0.68430114 -0.20650508 4 1 -0.037969001
0.56207603 -0.66772318 0.045741629 4 9 -0.037966698
0.64845979 -0.77061659 -0.19577004 1 2 -0.037964392
0.65153384 -0.77454406 0.088550232 1 10 -0.03796209
0.59371191 -0.70605534 -0.1461098 1 3 -0.037959784
0.62588644 -0.74458188 0.11943197 1 11 -0.037957482
0.63086474 -0.75077021 -0.12040692 1 4 -0.037955176
0.57567418 -0.68508983 0.14172964 2 12 -0.037952874
0.62408191 -0.74296141 -0.084889688 2 5 -0.037950568
0.59589088 -0.70965183 0.1801237 2 13 -0.037948266
0.6009497 -0.7159301 -0.048986461 2 6 -0.03794596
0.56994486 -0.67923385 0.20470546 100 14 -0.037943657
1.7915019 -2.1357858 0.74695182 76 15 -0.037939049
0.58253878 -0.6964615 -0.24328992 5 0 -0.037918314
0.59529883 -0.71171701 0.016195834 2 8 -0.037916008
0.57875872 -0.69218755 -0.20830467 3 1 -0.037913706
0.62378544 -0.74630374 0.050975226 1 9 -0.0379114
0.60044909 -0.7186386 -0.1820318 2 2 -0.037909098
0.64882624 -0.77681363 0.088550232 1 10 -0.037906792
0.59896517 -0.71711695 -0.14798702 1 3 -0.03790449
0.65649307 -0.78627169 0.12576917 1 11 -0.037902184
0.6029315 -0.72237808 -0.11553215 1 4 -0.037899882
0.5732792 -0.68709511 0.14172964 2 12 -0.037897576
0.6214847 -0.74513531 -0.084889688 2 5 -0.037895273
0.59353429 -0.71162391 0.1801237 2 13 -0.037892967
0.60624623 -0.72712308 -0.049614493 2 6 -0.037890665
0.57018465 -0.68411404 0.20560527 100 14 -0.037888363
1.7852721 -2.1435106 0.74746948 66 15 -0.037883755
0.59257126 -0.71324879 -0.2484663 4 0 -0.037863016
0.57492435 -0.69225377 0.015707165 3 8 -0.037860714
0.59376609 -0.71519464 -0.2146033 2 1 -0.037858408
0.55740076 -0.67163086 0.045741629 4 9 -0.037856106
0.64319944 -0.77501255 -0.19577004 1 2 -0.0378538
0.58637023 -0.7070393 -0.14548407 1 3 -0.037849192
0.65374446 -0.78855848 0.12576917 1 11 -0.037846889
0.60040623 -0.7244783 -0.11553215 1 4 -0.037844583
0.56835687 -0.68604976 0.14110391 2 12 -0.037842281
0.61901027 -0.7471922 -0.084889688 2 5 -0.037839979
0.59104663 -0.71369147 0.1801237 2 13 -0.037837673
0.64191359 -0.77538896 -0.052754648 1 6 -0.037835371
0.57276291 -0.69210547 0.20740487 100 14 -0.037833065
0.59007794 -0.7153129 -0.2484663 4 0 -0.037807722
0.57504886 -0.69734204 0.015776975 3 8 -0.037805416
0.58134955 -0.70523334 -0.21100408 3 1 -0.037803113
0.60077816 -0.72906131 0.04950982 2 9 -0.037800808
0.64049023 -0.77725303 -0.19577004 1 2 -0.037798505
0.64352363 -0.78121203 0.088550232 1 10 -0.037796203
0.59645557 -0.72433084 -0.14861277 1 3 -0.037793897
0.61818618 -0.75098729 0.11943197 1 11 -0.037791595
0.58778304 -0.71430689 -0.11358224 2 4 -0.037789289
0.57097828 -0.69413173 0.14235538 2 12 -0.037786987
0.61639833 -0.74934834 -0.084889688 2 5 -0.037784681
0.58855182 -0.71575022 0.1801237 2 13 -0.037782378
0.57579005 -0.70047957 -0.047521055 3 6 -0.037780073
0.56786919 -0.69108927 0.20650508 100 14 -0.03777777
3.6226666 -4.4118762 1.5296206 1 15 -0.037773162
0.58757746 -0.7173683 -0.2484663 4 0 -0.037752423
0.55994284 -0.68387288 0.015427927 3 8 -0.037750121
0.56900984 -0.6951943 -0.20740487 3 1 -0.037747819
0.63777322 -0.77948409 -0.19577004 1 2 -0.037743211
0.58141989 -0.71111566 -0.14548407 1 3 -0.037738603
0.6029985 -0.73777038 0.11699458 2 11 -0.037736297
0.59533387 -0.72865224 -0.11553215 1 4 -0.037733994
0.56605273 -0.6930607 0.14172964 2 12 -0.037731688
0.61377889 -0.75149542 -0.084889688 2 5 -0.037729386
0.58604974 -0.71780032 0.1801237 2 13 -0.03772708
0.55806184 -0.68400753 0.20380566 100 14 -0.037722472
3.6121271 -4.4304833 1.5316912 1 15 -0.037717864
0.58994538 -0.7254101 -0.25053686 3 0 -0.037697129
0.57016659 -0.7013396 0.015776975 3 8 -0.037694827
0.58624417 -0.7213732 -0.2146033 2 1 -0.037692521
0.58559895 -0.72083634 0.048672445 3 9 -0.037690219
0.59048361 -0.72684908 -0.1820318 2 2 -0.037687913
0.57395405 -0.70700622 -0.1442326 1 3 -0.037683304
0.58278185 -0.71839297 -0.11358224 2 4 -0.037678696
0.55367625 -0.68275815 0.13922669 2 12 -0.037676394
0.61115187 -0.75363338 -0.084889688 2 5 -0.037674088
0.58354062 -0.7198416 0.1801237 2 13 -0.037671786
0.58849019 -0.72620636 -0.048986461 2 6 -0.03766948
0.5507642 -0.67989445 0.20200606 100 14 -0.037667178
0.60028028 -0.74128443 -0.016649596 3 7 -0.037664872
3.591778 -4.4370594 1.5296206 15 15 -0.037662569
0.58740968 -0.72746491 -0.25053686 3 0 -0.037641834
0.5576669 -0.69087738 0.015497738 3 8 -0.037639529
0.55680025 -0.69005013 -0.20470546 4 1 -0.037637226
0.54796892 -0.67934799 0.045741629 4 9 -0.03763492
0.5789206 -0.71823323 -0.1461098 1 3 -0.03762801
0.59783322 -0.74196208 0.11699458 2 11 -0.037625704
0.59023243 -0.73279065 -0.11553215 1 4 -0.037623402
0.55624509 -0.69084114 0.14047816 2 12 -0.037621096
0.60851747 -0.7557621 -0.084889688 2 5 -0.037618794
0.58102435 -0.72187418 0.1801237 2 13 -0.037616488
0.58595169 -0.72825617 -0.048986461 2 6 -0.037614185
0.54838753 -0.68181282 0.20200606 70 14 -0.037611879
3.582319 -4.4570985 1.5322088 33 15 -0.037607275
0.59211713 -0.73855448 -0.25364268 3 0 -0.037586536
0.5502497 -0.68657815 0.015358118 3 8 -0.037584234
0.56900936 -0.71023983 -0.21010427 3 1 -0.037581928
0.54559433 -0.68125653 0.045741629 4 9 -0.037579626
0.62957567 -0.78611988 -0.19577004 1 2 -0.03757732
0.57394135 -0.71716517 -0.14548407 1 3 -0.037572712
0.63988262 -0.79984784 0.12576917 1 11 -0.037570409
0.58767098 -0.73484647 -0.11553215 1 4 -0.037568104
0.56123102 -0.70203614 0.14235538 2 12 -0.037565801
0.60587567 -0.75788158 -0.084889688 2 5 -0.037563495
0.57850099 -0.72389787 0.1801237 2 13 -0.037561193
0.59587198 -0.7459017 -0.050033178 2 6 -0.037558891
0.55573261 -0.69590503 0.20560527 49 14 -0.037556585
3.5727639 -4.4771266 1.534797 5 15 -0.037551977
0.56547278 -0.71038765 -0.24328992 5 0 -0.037531242
0.54784966 -0.68849474 0.015358118 3 8 -0.037528936
0.54954308 -0.69087029 -0.20380566 4 1 -0.037526634
0.57801837 -0.72692901 0.048672445 3 9 -0.037524328
0.58516067 -0.73617518 0.082275018 2 10 -0.037519719
0.56406116 -0.7098847 -0.14360686 1 3 -0.037517417
0.55806822 -0.7025941 0.11016989 3 11 -0.037515115
0.58510226 -0.73689336 -0.11553215 1 4 -0.037512809
0.54158384 -0.68232965 0.13797522 2 12 -0.037510507
0.60322648 -0.75999188 -0.084889688 2 5 -0.037508201
0.57597053 -0.72591287 0.1801237 2 13 -0.037505899
0.59326464 -0.74797708 -0.050033178 2 6 -0.037503593
0.54482496 -0.68715161 0.20245595 45 14 -0.03750129
0.58455098 -0.73963892 -0.25260741 3 0 -0.037475944
0.53552586 -0.67785001 0.015078879 4 8 -0.037473641
0.53988141 -0.68360835 -0.20110625 4 1 -0.037471339
0.54082495 -0.68504894 0.045741629 4 9 -0.037469033
0.62702203 -0.79451764 0.088550232 1 10 -0.037464425
0.55913281 -0.70874751 -0.14298111 1 3 -0.037462123
0.55561233 -0.70453781 0.11016989 3 11 -0.037459817
0.58252645 -0.7389313 -0.11553215 1 4 -0.037457515
0.54898024 -0.69662815 0.14047816 2 12 -0.037455209
0.60056996 -0.76209289 -0.084889688 2 5 -0.037452906
0.57343316 -0.72791892 0.1801237 2 13 -0.0374506
0.59065008 -0.75004345 -0.050033178 2 6 -0.037448298
0.53760153 -0.68292439 0.20065634 15 14 -0.037445992
3.550976 -4.5141063 1.538938 116 15 -0.037441384
0.56526989 -0.72039735 -0.24536048 4 0 -0.037420649
0.53315645 -0.67971528 0.015078879 4 8 -0.037418347
0.52546746 -0.67015344 -0.19660722 5 1 -0.037416041
0.53843033 -0.68693262 0.045741629 4 9 -0.037413739
0.56280351 -0.71828604 0.079834662 3 10 -0.03740913
0.56152761 -0.71691543 -0.1442326 1 3 -0.037406825
0.57028258 -0.72835499 0.11358224 3 11 -0.037404522
0.56526142 -0.72220159 -0.11260728 2 4 -0.037402216
0.5489797 -0.70165169 0.14110391 2 12 -0.037399914
0.59790611 -0.76418459 -0.084889688 2 5 -0.037397608
0.57088876 -0.72991616 0.1801237 2 13 -0.037395306
0.57572651 -0.73636633 -0.048986461 2 6 -0.037393
0.54721481 -0.70015097 0.20515537 9 14 -0.037390698
0.58725166 -0.75164783 -0.016649596 3 7 -0.037388392
0.57224971 -0.73455787 -0.24950157 4 0 -0.037365355
0.5479818 -0.70366019 0.015567547 3 8 -0.037363049
0.53509575 -0.68736082 -0.20110625 4 1 -0.037360746
0.57037443 -0.7329421 0.048672445 3 9 -0.03735844
0.57513213 -0.73905581 -0.1820318 2 2 -0.037356138
0.54689544 -0.70327747 -0.14110391 1 3 -0.03735153
0.58479309 -0.75228274 0.11699458 2 11 -0.037349224
0.55786484 -0.71790051 -0.11163233 2 4 -0.037346922
0.52713811 -0.67860359 0.136098 2 12 -0.037344616
0.56833738 -0.73190451 0.1801237 2 13 -0.037340008
0.57315254 -0.73837155 -0.048986461 2 6 -0.037337705
0.5387941 -0.69435889 0.20290586 4 14 -0.0373354
3.5596237 -4.5906935 1.5565379 11 15 -0.037330791
0.56968206 -0.73655099 -0.24950157 4 0 -0.0373106
0.54307598 -0.70240474 0.015497738 3 8 -0.037308298
0.53984344 -0.69847578 -0.20380566 4 1 -0.037305992
0.53362167 -0.69067478 0.045741629 4 9 -0.03730369
0.55454421 -0.71775514 -0.17630751 3 2 -0.037301384
0.5577752 -0.72219765 0.079834662 3 10 -0.037299082
0.53719413 -0.6958006 -0.13922669 1 3 -0.037296776
0.56518388 -0.73231846 0.11358224 3 11 -0.037294473
0.54565489 -0.70726973 -0.10968242 2 4 -0.037292168
0.51994067 -0.67418265 0.13484652 2 12 -0.037289865
0.59255654 -0.76834017 -0.084889688 2 5 -0.037287559
0.56577909 -0.73388386 0.1801237 2 13 -0.037285257
0.57057172 -0.74036771 -0.048986461 2 6 -0.037282951
0.54350275 -0.70549792 0.20560527 4 14 -0.037280649
0.58198988 -0.75572926 -0.016649596 3 7 -0.037278343
3.5259008 -4.5801291 1.5487732 61 15 -0.037276041
0.5600481 -0.72934169 -0.24639574 4 0 -0.037255306
0.52600944 -0.68526107 0.015078879 4 8 -0.037253
0.51604831 -0.67252719 -0.19570743 5 1 -0.037250698
0.53120744 -0.69253325 0.045741629 4 9 -0.037248392
0.55203539 -0.71968651 -0.17630751 3 2 -0.037246089
0.54677922 -0.71334952 -0.14235538 1 3 -0.037241481
0.56262416 -0.7342869 0.11358224 3 11 -0.037239175
0.55766767 -0.72808129 -0.11260728 2 4 -0.037236873
0.54160208 -0.707362 0.14110391 2 12 -0.037234567
0.54626662 -0.71345413 -0.078614481 4 5 -0.037232265
0.56321394 -0.73585439 0.1801237 2 13 -0.037229959
0.53400195 -0.69794047 -0.046055648 3 6 -0.037227657
0.54814005 -0.71667826 0.20830467 4 14 -0.037225351
3.5310073 -4.6200371 1.5580908 46 15 -0.037220743
0.55749881 -0.73129213 -0.24639574 4 0 -0.037200008
0.52361417 -0.68709308 0.015078879 4 8 -0.037197705
0.52786857 -0.69292653 -0.20110625 4 1 -0.037195399
0.52890807 -0.694291 0.045741629 4 9 -0.037193097
0.54951984 -0.72160912 -0.17630751 3 2 -0.037190791
0.53351969 -0.70110595 -0.13953955 1 3 -0.037186183
0.49996555 -0.65724993 0.1013953 5 11 -0.037183881
0.54551029 -0.71738243 -0.11065737 2 4 -0.037181575
0.52729648 -0.69343007 0.13797522 2 12 -0.037179273
0.52689296 -0.69315034 -0.076174118 5 5 -0.037176967
0.56064188 -0.73781592 0.1801237 2 13 -0.037174664
0.53156239 -0.69980019 -0.046055648 3 6 -0.037172358
0.54563516 -0.71858716 0.20830467 4 14 -0.037170056
0.51625419 -0.68013972 0.22879605 65 15 -0.037165448
0.55027944 -0.72707206 -0.24432519 5 0 -0.037144713
0.52133286 -0.68882561 0.015078879 4 8 -0.037142407
0.5185132 -0.68534869 -0.19840683 5 1 -0.037140105
0.52648133 -0.69613296 0.045741629 4 9 -0.037137799
0.54699755 -0.7235229 -0.17630751 3 2 -0.037135497
0.52642781 -0.69656748 -0.13828808 1 3 -0.037130889
0.54086065 -0.71592486 0.11016989 3 11 -0.037128583
0.53834307 -0.71285093 -0.10968242 2 4 -0.03712628
0.52963358 -0.70157278 0.13922669 2 12 -0.037123978
0.5844782 -0.77450311 -0.084889688 2 5 -0.037121672
0.55819213 -0.73967093 0.1801237 2 13 -0.03711937
0.56051207 -0.74301487 -0.048777115 2 6 -0.037117064
0.55498248 -0.7359519 0.21280369 3 14 -0.037114762
0.51620215 -0.68502343 0.22983132 80 15 -0.037110154
0.55715114 -0.74124706 -0.2484663 4 0 -0.037089415
0.51892519 -0.69064122 0.015078879 4 8 -0.037087113
0.52313977 -0.69650352 -0.20110625 4 1 -0.037084807
0.52404809 -0.69796652 0.045741629 4 9 -0.037082504
0.60756433 -0.80949396 0.088550232 1 10 -0.037077896
0.54533213 -0.72684252 -0.14391972 1 3 -0.037075594
0.53835839 -0.71780837 0.11016989 3 11 -0.037073288
0.55014086 -0.73378515 -0.11260728 2 4 -0.037070986
0.50585717 -0.67496437 0.13359505 2 12 -0.03706868
0.58190662 -0.77643704 -0.084889688 2 5 -0.037066378
0.55560672 -0.74161494 0.1801237 2 13 -0.037064072
0.54354817 -0.72578317 -0.047521055 3 6 -0.03706177
0.55241007 -0.73788464 0.21280369 3 14 -0.037059464
0.5057072 -0.67599273 0.22620785 95 15 -0.037054855
0.54762834 -0.73389757 -0.24536048 4 0 -0.03703412
0.51651126 -0.69244838 0.015078879 4 8 -0.037031814
0.53002447 -0.7108233 -0.20470546 4 1 -0.037029512
0.52160853 -0.69979155 0.045741629 4 9 -0.03702721
0.52563399 -0.70519209 -0.17096487 3 2 -0.037024904
0.528548 -0.70935982 0.077394299 3 10 -0.037022602
0.51683217 -0.69388878 -0.13703661 1 3 -0.037020296
0.53584945 -0.71968329 0.11016989 3 11 -0.037017994
0.52861243 -0.71022224 -0.10870746 2 4 -0.037015688
0.51293129 -0.68940485 0.136098 2 12 -0.037013385
0.55301464 -0.74354982 0.1801237 2 13 -0.037008777
0.52432823 -0.70523673 -0.046055648 3 6 -0.037006471
0.54983103 -0.73980838 0.21280369 3 14 -0.037004169
0.49528179 -0.66689742 0.22258438 76 15 -0.036999561
0.55426264 -0.74822319 -0.24950157 4 0 -0.036978826
0.51409101 -0.69424713 0.015078879 4 8 -0.03697652
0.51594573 -0.69700611 -0.20020644 4 1 -0.036974218
0.5191626 -0.701608 0.045741629 4 9 -0.036971912
0.52316916 -0.70702261 -0.17096487 3 2 -0.03696961
0.48341441 -0.65353554 0.071119085 5 10 -0.036967304
0.5144068 -0.69568866 -0.13703661 1 3 -0.036965001
0.52861428 -0.71516395 0.10919494 4 11 -0.036962695
0.55916071 -0.75676668 -0.11553215 1 4 -0.036960393
0.50348002 -0.68165737 0.13422079 2 12 -0.036958087
0.55041587 -0.74547565 0.1801237 2 13 -0.036953479
0.538468 -0.72956014 -0.047521055 3 6 -0.036951177
0.54724526 -0.74172318 0.21280369 3 14 -0.036948871
0.50097561 -0.67950678 0.22620785 95 15 -0.036944263
0.55851448 -0.75949144 -0.25260741 3 0 -0.036923528
0.51166445 -0.69603741 0.015078879 4 8 -0.036921225
0.51350957 -0.69880283 -0.20020644 4 1 -0.03691892
0.51671046 -0.70341593 0.045741629 4 9 -0.036916617
0.50210172 -0.6835286 -0.16485898 4 2 -0.036914311
0.54009223 -0.73551548 0.079834662 3 10 -0.036912009
0.51197529 -0.69748002 -0.13703661 1 3 -0.036909703
0.50732481 -0.69139749 0.10529512 4 11 -0.036907401
0.53303403 -0.7267006 -0.11065737 2 4 -0.036905095
0.51044196 -0.69615495 0.13672373 2 12 -0.036902793
0.57374406 -0.78248811 -0.084889688 2 5 -0.036900487
0.54781026 -0.74739242 0.1801237 2 13 -0.036898185
0.54465288 -0.74362886 0.21280369 3 14 -0.036893576
0.49631873 -0.67813355 0.22517258 95 15 -0.036888968
0.54219115 -0.7427125 -0.24639574 4 0 -0.036868233
0.50923175 -0.69781923 0.015078879 4 8 -0.036865927
0.5064733 -0.69429362 -0.19840683 5 1 -0.036863625
0.51425189 -0.70521528 0.045741629 4 9 -0.036861319
0.5182206 -0.71065772 -0.17096487 3 2 -0.036859017
0.51419079 -0.70564884 -0.13828808 1 3 -0.036854409
0.48620799 -0.66749144 0.1013953 5 11 -0.036852103
0.53750503 -0.73818523 -0.1121198 2 4 -0.0368498
0.49638394 -0.68196148 0.13359505 2 12 -0.036847495
0.54519802 -0.74930012 0.1801237 2 13 -0.03684289
0.51691437 -0.71068871 -0.046055648 3 6 -0.036840584
0.54205376 -0.7455256 0.21280369 3 14 -0.036838282
0.49508408 -0.6814248 0.22569022 90 15 -0.036833674
0.53052652 -0.73208636 -0.24225464 5 0 -0.036812935
0.48333025 -0.66720402 0.014380784 5 8 -0.036810633
0.49947479 -0.68974382 -0.19660722 5 1 -0.036808327
0.51178712 -0.7070061 0.045741629 4 9 -0.036806025
0.47429365 -0.65521091 -0.15722662 5 2 -0.036803719
0.47654417 -0.65856194 0.071119085 5 10 -0.036801416
0.51172453 -0.70743942 -0.13828808 2 3 -0.03679911
0.48387507 -0.66918451 0.1013953 5 11 -0.036796808
0.52329618 -0.7239688 -0.10968242 2 4 -0.036794506
0.48243126 -0.66767859 0.13046636 2 12 -0.0367922
0.54257917 -0.75119865 0.1801237 2 13 -0.036787592
0.54716694 -0.75782895 -0.048986461 2 6 -0.03678529
0.53830761 -0.74583298 0.2123538 3 14 -0.036782984
0.47914189 -0.66434652 0.21947856 100 15 -0.036778376
0.53248042 -0.74020666 -0.24432519 5 0 -0.036757641
0.50434774 -0.70135731 0.015078879 4 8 -0.036755335
0.49933898 -0.69464779 -0.19750702 5 1 -0.036753032
0.50931603 -0.70878828 0.045741629 4 9 -0.036750726
0.52928561 -0.73657888 -0.17630751 3 2 -0.036748424
0.53236049 -0.74113089 0.079834662 3 10 -0.036746122
0.50925201 -0.70922136 -0.13828808 1 3 -0.036743816
0.50468701 -0.70312285 0.10627007 4 11 -0.036741514
0.51382238 -0.71611392 -0.10821999 2 4 -0.036739208
0.49161085 -0.68541026 0.13359505 2 12 -0.036736906
0.48191005 -0.67188525 -0.072339267 6 5 -0.0367346
0.53995371 -0.75308806 0.1801237 2 13 -0.036732297
0.51194024 -0.71428013 -0.046055648 3 6 -0.036729991
0.53570092 -0.74770749 0.2123538 3 14 -0.036727689
0.4824428 -0.67386895 0.22206675 100 15 -0.036723081
0.52540272 -0.73577219 -0.24225464 5 0 -0.036702346
0.50189638 -0.7031135 0.015078879 4 8 -0.03670004
0.49238354 -0.69004142 -0.19570743 5 1 -0.036697738
0.5068388 -0.71056181 0.045741629 4 9 -0.036695432
0.51075029 -0.7160455 -0.17096487 3 2 -0.03669313
0.5297702 -0.74298465 0.079834662 3 10 -0.036690824
0.48728189 -0.68364871 -0.1329693 3 3 -0.036688522
0.47919148 -0.67254627 0.1013953 5 11 -0.036686216
0.51822925 -0.72760445 -0.10968242 2 4 -0.036683913
0.49150673 -0.69034052 0.13422079 2 12 -0.036681607
0.53732169 -0.75496823 0.1801237 2 13 -0.036676999
0.46776202 -0.65747583 -0.042287458 5 6 -0.036674697
0.53308767 -0.74957287 0.2123538 3 14 -0.036672391
0.47784942 -0.67239946 0.22103147 99 15 -0.036667783
0.52953422 -0.74705815 -0.24536048 4 0 -0.036647048
0.499439 -0.70486122 0.015078879 4 8 -0.036644746
0.48997182 -0.69175595 -0.19570743 5 1 -0.03664244
0.50435543 -0.71232665 0.045741629 4 9 -0.036640137
0.46740645 -0.66014171 -0.15722662 5 2 -0.036637831
0.49516088 -0.69985867 -0.13578513 1 3 -0.036633223
0.49059603 -0.69366342 0.10432017 5 11 -0.036630921
0.50881046 -0.71968353 -0.10821999 2 4 -0.036628615
0.48909396 -0.69205201 0.13422079 2 12 -0.036626313
0.53468311 -0.75683922 0.1801237 2 13 -0.036621705
0.49772412 -0.70478511 -0.04521827 4 6 -0.036619399
0.53046793 -0.7514292 0.2123538 3 14 -0.036617097
0.48106733 -0.68195635 0.22361965 100 15 -0.036612488
0.52692324 -0.74890208 -0.24536048 4 0 -0.036591753
0.4969756 -0.70660025 0.015078879 4 8 -0.036589447
0.47858763 -0.68070871 -0.1921082 6 1 -0.036587145
0.50186586 -0.71408284 0.045741629 4 9 -0.036584839
0.49670795 -0.70674384 -0.16791193 4 2 -0.036582537
0.49044436 -0.69834971 -0.13515939 3 3 -0.036577929
0.4881717 -0.69537175 0.10432017 5 11 -0.036575623
0.51313698 -0.73120463 -0.10968242 2 4 -0.036573321
0.47306204 -0.67434925 0.13046636 2 12 -0.036571015
0.50002044 -0.71277845 -0.076174118 5 5 -0.036568712
0.53203791 -0.75870097 0.1801237 2 13 -0.036566406
0.52784169 -0.75327629 0.2123538 3 14 -0.036561802
0.47535974 -0.67888403 0.22206675 100 15 -0.036557194
0.50439554 -0.72222781 -0.23604298 6 0 -0.036536455
0.47848043 -0.68537557 0.014590211 5 8 -0.036534153
0.48066956 -0.68876749 -0.19390781 5 1 -0.036531847
0.49949509 -0.71574318 0.045741629 4 9 -0.036529545
0.46278641 -0.66338873 -0.15722662 5 2 -0.036527239
0.52196074 -0.74849153 0.079834662 3 10 -0.036524937
0.4902629 -0.70329845 -0.13578513 1 3 -0.036522631
0.50389999 -0.72313023 0.10821999 4 11 -0.036520328
0.51524907 -0.73941696 -0.11065737 2 4 -0.036518022
0.47082317 -0.67591429 0.13046636 2 12 -0.03651572
0.49752933 -0.7145195 -0.076174118 5 5 -0.036513418
0.52938628 -0.76055354 0.1801237 2 13 -0.036511112
0.51788753 -0.74431056 -0.047521055 3 6 -0.03650881
0.52534086 -0.75502253 0.2123538 3 14 -0.036506504
0.46428344 -0.66776752 0.21792565 100 15 -0.036501896
0.51300645 -0.73977137 -0.24121936 5 0 -0.036481161
0.48076198 -0.69353229 0.014729831 4 8 -0.036478855
0.47394314 -0.68395054 -0.1921082 6 1 -0.036476552
0.49711889 -0.7173956 0.045741629 4 9 -0.036474247
0.47847077 -0.69074184 -0.16333251 4 2 -0.036471944
0.46276447 -0.66831672 0.071119085 5 10 -0.036469642
0.48567954 -0.7016719 -0.13515939 1 3 -0.036467336
0.4698731 -0.67908925 0.1013953 5 11 -0.036465034
0.50375819 -0.72806209 -0.10870746 2 4 -0.036462728
0.46183708 -0.66772413 0.12858914 3 12 -0.036460426
0.55181128 -0.79810655 -0.084889688 2 5 -0.03645812
0.52686131 -0.76230484 0.1801237 2 13 -0.036455818
0.49044034 -0.70987296 -0.04521827 4 6 -0.036453512
0.52283418 -0.75676048 0.2123538 3 14 -0.036451209
0.46206647 -0.66930348 0.21792565 100 15 -0.036446601
0.49082965 -0.71282804 -0.23190187 7 0 -0.036425862
0.4625864 -0.6720618 0.014241164 5 8 -0.03642356
0.46725398 -0.6790967 -0.19030859 6 1 -0.036421258
0.49461162 -0.71912652 0.045741629 4 9 -0.036418952
0.49064082 -0.71335328 -0.16829354 4 2 -0.03641665
0.46054575 -0.66984761 0.071119085 5 10 -0.036414344
0.48111227 -0.7000227 -0.13453366 3 3 -0.036412042
0.46761858 -0.68064368 0.1013953 5 11 -0.036409736
0.48772809 -0.71017981 -0.1057826 3 4 -0.036407433
0.48186371 -0.70190305 0.13484652 2 12 -0.036405127
0.43639743 -0.63567495 -0.067458548 7 5 -0.036402825
0.52433056 -0.7640478 0.1801237 2 13 -0.036400519
0.4880836 -0.7114954 -0.04521827 4 6 -0.036398217
0.52018946 -0.75858086 0.2123538 3 14 -0.036395911
0.46081927 -0.67250586 0.21844329 100 15 -0.036391303
0.51013923 -0.746436 -0.24225464 5 0 -0.036370568
0.47151801 -0.690184 0.014590211 5 8 -0.036368266
0.45389059 -0.66463089 -0.18580957 7 1 -0.03636596
0.49209845 -0.72084868 0.045741629 4 9 -0.036363658
0.47929254 -0.70208997 -0.1652406 4 2 -0.036361352
0.51435721 -0.75373685 0.079834662 3 10 -0.036359049
0.48200536 -0.70659339 -0.13547227 3 3 -0.036356743
0.46523988 -0.68227184 0.1013953 5 11 -0.036354441
0.47406545 -0.69547522 -0.10334522 3 4 -0.036352135
0.47718602 -0.70031595 0.13422079 2 12 -0.036349833
0.50597757 -0.74257028 -0.078614481 4 5 -0.036347527
0.52166033 -0.76587337 0.1801237 2 13 -0.036345225
0.48559704 -0.71319479 -0.04521827 4 6 -0.036342919
0.51753837 -0.76039201 0.2123538 3 14 -0.036340617
0.45629612 -0.67091548 0.217408 100 15 -0.036336008
0.494517 -0.72902727 -0.23604298 6 0 -0.036315273
0.46237239 -0.68189526 0.014380784 5 8 -0.036312968
0.46687523 -0.68879461 -0.1921082 6 1 -0.036310665
0.47389477 -0.6994136 0.044276223 5 9 -0.036308359
0.47683886 -0.70375872 -0.1652406 4 2 -0.036306057
0.45585808 -0.67304647 0.071119085 5 10 -0.036303751
0.47399861 -0.70009291 -0.13390793 3 3 -0.036301449
0.46285543 -0.68389165 0.1013953 5 11 -0.036299143
0.47163486 -0.69712579 -0.10334522 3 4 -0.036296841
0.46145913 -0.68234164 0.13046636 2 12 -0.036294535
0.48763049 -0.72131133 -0.076174118 5 5 -0.036292233
0.51898378 -0.76768965 0.1801237 2 13 -0.036289927
0.4517923 -0.66855031 -0.042287458 5 6 -0.036287624
0.5148809 -0.76219398 0.2123538 3 14 -0.036285318
0.45719394 -0.67730772 0.21896091 93 15 -0.036280714
0.49184164 -0.73083484 -0.23604298 6 0 -0.036259975
0.45998934 -0.68350506 0.014380784 5 8 -0.036257673
0.45141503 -0.67101723 -0.18670937 6 1 -0.036255367
0.48705402 -0.72426659 0.045741629 4 9 -0.036253065
0.45235062 -0.67291504 -0.15760824 5 2 -0.036250759
0.47142941 -0.70182556 -0.13390793 3 3 -0.036246151
0.46046534 -0.68550318 0.1013953 5 11 -0.036243849
0.46919855 -0.69876784 -0.10334522 3 4 -0.036241543
0.45026737 -0.67082685 0.12796341 3 12 -0.03623924
0.51616657 -0.76958668 0.1801237 2 13 -0.036234632
0.50495005 -0.75314754 -0.047521055 3 6 -0.03623233
0.51208389 -0.76407599 0.2123538 3 14 -0.036230024
0.53104025 -0.79236054 -0.016649596 3 7 -0.036227722
0.45590219 -0.68050456 0.21947856 59 15 -0.036225416
0.47426555 -0.71005684 -0.22879605 8 0 -0.036204681
0.45748106 -0.68518645 0.014380784 5 8 -0.036202375
0.45544353 -0.68239254 -0.18940879 6 1 -0.036200073
0.48439622 -0.72604686 0.045741629 4 9 -0.036197767
0.449999 -0.67448992 -0.15760824 5 2 -0.036195464
0.46240231 -0.69360518 -0.13203071 3 3 -0.036190856
0.45794979 -0.68718624 0.1013953 5 11 -0.036188554
0.4875448 -0.73187244 -0.10797625 2 4 -0.036186248
0.45656464 -0.68562627 0.13046636 2 12 -0.036183946
0.51347703 -0.77138376 0.1801237 2 13 -0.036179338
0.48682806 -0.73162651 -0.046055648 3 6 -0.036177032
