# .PCD v0.7 - Point Cloud Data file format
VERSION 0.7
FIELDS x y z intensity ring time
SIZE 4 4 4 4 2 4
TYPE F F F F U F
COUNT 1 1 1 1 1 1
WIDTH 930
HEIGHT 1
VIEWPOINT 0 0 0 1 0 0 0
POINTS 930
DATA ascii
4.975009 -2.2056594 1.4581866 37 15 -0.0029512248
2.0457609 -0.90997583 -0.59994256 58 0 -0.0029304889
2.6545651 -1.1813335 0.050716694 9 8 -0.0029281848
2.0490825 -0.9123103 -0.51783729 61 1 -0.002925881
13.790228 -6.1398053 0.7911104 19 9 -0.0029235771
2.6039915 -1.1599164 -0.55410933 14 2 -0.002921273
10.682552 -4.7606468 1.0232084 24 10 -0.0029189689
2.5889921 -1.1543182 -0.44896698 18 3 -0.0029166648
8.7599716 -3.9075205 1.1777455 33 11 -0.002914361
2.6305296 -1.1733884 -0.35366488 22 4 -0.0029120571
7.3598909 -3.2845333 1.2765055 33 12 -0.002909753
2.6416073 -1.1794355 -0.25310028 61 5 -0.0029074489
6.3653278 -2.8433499 1.3551255 32 13 -0.0029051448
2.6531212 -1.1856872 -0.15229765 38 6 -0.002902841
5.6416984 -2.5212905 1.4266397 3 14 -0.0029005371
2.5046313 -1.1198511 -0.047889404 41 7 -0.002898233
4.9623771 -2.2197785 1.4566337 35 15 -0.0028959289
2.0286319 -0.91042697 -0.59580147 62 0 -0.002875193
2.6488087 -1.1893107 0.050681788 6 8 -0.0028728889
2.0478237 -0.91989881 -0.51828724 63 1 -0.0028705848
13.783286 -6.1944542 0.79194778 22 9 -0.002868281
2.6055031 -1.1709595 -0.55525422 13 2 -0.0028659771
10.666706 -4.7960453 1.0232084 27 10 -0.002863673
2.6049666 -1.1718115 -0.45240852 28 3 -0.0028613689
8.7542067 -3.9398069 1.1787205 33 11 -0.0028590648
2.6427083 -1.1898985 -0.3558585 62 4 -0.002856761
7.3591866 -3.3150716 1.2783825 33 12 -0.0028544571
2.6104329 -1.1759142 -0.2504856 27 5 -0.002852153
6.3451247 -2.8596025 1.3528358 31 13 -0.0028498489
2.6619198 -1.2002252 -0.15303035 7 6 -0.0028475448
5.6133232 -2.5321538 1.4216906 1 14 -0.002845241
2.5116429 -1.1335225 -0.048098832 43 7 -0.0028429371
4.947556 -2.233907 1.4545631 35 15 -0.002840633
2.0342402 -0.92148829 -0.59838963 57 0 -0.0028198971
2.6610339 -1.2059786 0.050995931 10 8 -0.002817593
2.0304015 -0.92060369 -0.51468801 66 1 -0.002815289
13.777949 -6.2499557 0.79288983 16 9 -0.0028129849
2.6049757 -1.1816695 -0.5560174 45 2 -0.002810681
10.658972 -4.8373671 1.02408 27 10 -0.0028083769
2.6260412 -1.1923306 -0.45678869 74 3 -0.0028060731
8.7404003 -3.9703412 1.1787205 33 11 -0.002803769
2.6367314 -1.1982945 -0.35561478 20 4 -0.0028014649
7.3475699 -3.3407397 1.2783825 33 12 -0.002799161
2.5156267 -1.1437868 -0.24177003 21 5 -0.0027968569
6.3333173 -2.8809209 1.3524542 29 13 -0.0027945531
2.6577139 -1.2095098 -0.15303035 6 6 -0.002792249
5.5547905 -2.5291226 1.4090934 3 14 -0.0027899449
2.6150384 -1.1911905 -0.050158214 45 7 -0.002787641
4.9397283 -2.2511637 1.4545631 35 15 -0.0027853369
2.0310113 -0.9285835 -0.59838963 60 0 -0.0027646008
2.6659002 -1.219419 0.051170457 42 8 -0.0027622969
2.0307195 -0.92930734 -0.51558781 67 1 -0.0027599931
13.741522 -6.2913599 0.79205245 8 9 -0.002757689
2.5811996 -1.1817654 -0.55181968 34 2 -0.0027553849
10.647455 -4.8770328 1.0246029 24 10 -0.0027530808
2.6308422 -1.2056046 -0.45835301 33 3 -0.0027507769
8.7282934 -4.0016537 1.1789641 34 11 -0.0027484731
2.6595976 -1.2199055 -0.35927087 25 4 -0.002746169
7.3430457 -3.369663 1.2796341 32 12 -0.0027438649
2.5079968 -1.1508991 -0.24142142 18 5 -0.0027415608
6.3285756 -2.9054682 1.3535991 29 13 -0.0027392569
2.6625509 -1.222948 -0.15355371 17 6 -0.0027369531
5.5565529 -2.5533793 1.4117929 22 14 -0.002734649
2.6163151 -1.2028172 -0.050262932 44 7 -0.0027323449
4.9388599 -2.2716217 1.4566337 33 15 -0.0027300408
2.0172331 -0.93081105 -0.59528387 58 0 -0.0027093049
2.0186174 -0.93230468 -0.51333827 71 1 -0.002704697
13.739421 -6.3485036 0.79320383 19 9 -0.0027023931
2.6109204 -1.2064146 -0.55907035 43 2 -0.002700089
10.639408 -4.9183502 1.0254744 24 10 -0.0026977849
2.6284108 -1.2156098 -0.45866591 48 3 -0.0026954808
8.7178736 -4.0337639 1.1794516 31 11 -0.002693177
2.658926 -1.2308496 -0.35975835 40 4 -0.0026908731
2.5003481 -1.157972 -0.24107277 15 5 -0.0026862649
6.3219576 -2.9291921 1.3543624 29 13 -0.0026839608
2.6328971 -1.2204748 -0.1520883 18 6 -0.002681657
5.547606 -2.5727594 1.4117929 13 14 -0.0026793531
2.6175425 -1.2144675 -0.050367646 14 7 -0.002677049
4.9309006 -2.2888477 1.4566337 35 15 -0.0026747449
2.0085542 -0.93575078 -0.59373093 64 0 -0.002654552
2.6552935 -1.2376194 0.051135551 20 8 -0.0026522479
2.0240176 -0.94381493 -0.51558781 69 1 -0.002649944
2.655463 -1.2382628 0.15355371 11 9 -0.00264764
2.6883228 -1.2541567 -0.57662481 15 2 -0.0026453361
10.62131 -4.9573126 1.0254744 24 10 -0.002643032
2.5827711 -1.2060126 -0.45146993 23 3 -0.0026407279
8.715621 -4.0715709 1.1811578 33 11 -0.002638424
2.6436067 -1.2355437 -0.35829589 18 4 -0.00263612
7.3282905 -3.4250267 1.2811985 42 12 -0.0026338161
2.4816489 -1.1603773 -0.23967829 17 5 -0.002631512
6.3200703 -2.9565027 1.3562704 32 13 -0.0026292079
2.2014935 -1.030318 -0.12738572 1 6 -0.0026269041
5.5310793 -2.5897698 1.4099932 7 14 -0.0026246
2.1659679 -1.0141525 -0.041746158 5 7 -0.0026222961
4.9193816 -2.3044069 1.4555984 35 15 -0.002619992
1.9965343 -0.93864655 -0.59114271 66 0 -0.0025992559
2.6674621 -1.2540752 0.051449694 1 8 -0.002596952
2.0208766 -0.95052159 -0.51558781 67 1 -0.0025946479
13.716451 -6.4544711 0.79445988 19 9 -0.0025923441
2.644851 -1.2451363 -0.5682292 15 2 -0.00259004
10.596731 -4.9909616 1.0247772 27 10 -0.0025877359
2.5108485 -1.1825862 -0.43958092 11 3 -0.002585432
8.7092543 -4.1038351 1.1821327 30 11 -0.0025831279
2.4940534 -1.1757398 -0.33855307 7 4 -0.0025808241
7.3109293 -3.4480581 1.2802597 41 12 -0.00257852
2.2199144 -1.0474533 -0.21475175 26 5 -0.0025762159
6.3013539 -2.9732559 1.3543624 34 13 -0.002573912
2.15833 -1.0188556 -0.12508295 10 6 -0.0025716079
5.5136504 -2.6039362 1.4077437 5 14 -0.0025693041
2.1533742 -1.0174356 -0.041571636 10 7 -0.002567
4.9182944 -2.324867 1.457669 16 15 -0.0025646959
1.9951562 -0.94608986 -0.59166032 62 0 -0.00254396
2.6377745 -1.2513791 0.050961025 50 8 -0.0025416559
1.998181 -0.94837868 -0.51063889 74 1 -0.002539352
13.713683 -6.5117359 0.79561126 22 9 -0.002537048
2.2469954 -1.0669519 -0.48351002 6 2 -0.0025347441
10.592719 -5.0320587 1.0259974 22 10 -0.00253244
2.2819045 -1.0845042 -0.40015942 48 3 -0.0025301359
8.689497 -4.1316533 1.1814015 31 11 -0.0025278321
2.2837842 -1.0863749 -0.31052312 56 4 -0.002525528
7.3077679 -3.4778013 1.2818241 43 12 -0.0025232241
2.2074337 -1.0505282 -0.2138802 43 5 -0.00252092
6.2873917 -2.9935458 1.3535991 34 13 -0.0025186159
2.1186974 -1.0092053 -0.12298951 17 6 -0.0025163121
5.5062866 -2.6240051 1.4081936 7 14 -0.002514008
2.1227341 -1.0120374 -0.041048057 16 7 -0.0025117039
4.9816394 -2.3761201 1.4788921 1 15 -0.0025094
1.9813858 -0.94804573 -0.58855456 64 0 -0.0024886639
1.9860702 -0.95113921 -0.50838935 77 1 -0.0024840559
13.685466 -6.5569763 0.79529727 22 9 -0.0024817521
2.25211 -1.0790303 -0.48541811 55 2 -0.002479448
10.699059 -5.1284266 1.0380249 2 10 -0.0024771439
2.2763238 -1.0916088 -0.39984655 57 3 -0.00247484
8.6607037 -4.1550913 1.1794516 10 11 -0.0024725359
2.2710299 -1.0900453 -0.30930442 52 4 -0.0024702321
7.3009262 -3.5058548 1.2827629 45 12 -0.002467928
2.1229308 -1.0194168 -0.20603617 52 5 -0.0024656239
6.2804437 -3.017175 1.3543624 34 13 -0.00246332
2.0935602 -1.0062128 -0.12173345 23 6 -0.0024610159
5.4900689 -2.6398318 1.406394 15 14 -0.0024587121
2.1011682 -1.0107721 -0.040699009 24 7 -0.002456408
4.9872408 -2.4001968 1.4830333 5 15 -0.0024541039
1.9867629 -0.95915562 -0.59114271 66 0 -0.002433368
1.9897567 -0.96145749 -0.510189 69 1 -0.0024287601
13.67688 -6.6116619 0.79613465 22 9 -0.002426456
2.2518649 -1.088594 -0.48618135 66 2 -0.0024241521
10.60576 -5.1293082 1.0307038 11 10 -0.002421848
2.2547178 -1.0909443 -0.39671785 55 3 -0.0024195439
8.6640158 -4.1939468 1.1818891 24 11 -0.0024172401
2.2582779 -1.0936399 -0.30808574 47 4 -0.002414936
7.2833104 -3.528734 1.2818241 43 12 -0.0024126321
2.1139803 -1.0242149 -0.20551322 54 5 -0.002410328
6.2804728 -3.0442171 1.356652 37 13 -0.0024080239
2.0738609 -1.0056711 -0.1207914 25 6 -0.0024057201
5.4843273 -2.6606808 1.4072938 22 14 -0.002403416
2.0814362 -1.0102422 -0.04038487 32 7 -0.0024011121
4.9510269 -2.4040895 1.474751 1 15 -0.002398808
1.972982 -0.96100914 -0.58803689 69 0 -0.0023780721
2.6730614 -1.3025843 0.05190346 4 8 -0.002375768
1.9898916 -0.97010517 -0.51108879 77 1 -0.0023734639
13.662694 -6.6637411 0.79665804 22 9 -0.0023711601
2.2392285 -1.0921447 -0.48427325 57 2 -0.002368856
10.580628 -5.1628036 1.0300065 24 10 -0.0023665519
2.250896 -1.0988079 -0.39671785 50 3 -0.002364248
8.6582413 -4.2285199 1.1831076 28 11 -0.0023619439
2.2508795 -1.0997732 -0.30759826 43 4 -0.0023596401
7.2673993 -3.5524015 1.2811985 45 12 -0.002357336
2.1068122 -1.029838 -0.20516461 49 5 -0.0023550319
6.2662811 -3.0643964 1.3558888 38 13 -0.002352728
2.0685437 -1.0120265 -0.12068672 39 6 -0.002350424
5.4767561 -2.680665 1.4077437 22 14 -0.0023481201
2.0653255 -1.0113456 -0.040140536 60 7 -0.002345816
4.8922944 -2.3967102 1.4597394 18 15 -0.0023435119
1.9661479 -0.96618629 -0.58700162 66 0 -0.002322776
2.6290178 -1.2924975 0.051135551 13 8 -0.0023204719
1.988242 -0.97790527 -0.51153868 74 1 -0.0023181681
13.631559 -6.7046032 0.79613465 19 9 -0.002315864
2.2283564 -1.0964873 -0.48274681 48 2 -0.0023135599
10.558968 -5.1979451 1.0296578 24 10 -0.002311256
2.2275534 -1.0970582 -0.3932763 33 3 -0.0023089519
8.6505508 -4.2622266 1.1840826 28 11 -0.0023066481
2.2329748 -1.1002125 -0.30564833 28 4 -0.002304344
7.2608938 -3.5791011 1.282137 43 12 -0.0023020399
2.1996984 -1.0847712 -0.21457744 22 5 -0.002299736
6.2520242 -3.0845139 1.3551255 37 13 -0.0022974319
2.0542529 -1.013937 -0.1200587 74 6 -0.0022951281
5.4835644 -2.7065747 1.4117929 30 14 -0.002292824
2.0476165 -1.0111058 -0.039861299 45 7 -0.0022905199
4.8773918 -2.4094977 1.457669 33 15 -0.002288216
1.9663949 -0.97441638 -0.58803689 69 0 -0.0022674799
2.6336756 -1.3056495 0.051310074 1 8 -0.002265176
1.9692758 -0.97670031 -0.50748956 80 1 -0.0022628719
13.653984 -6.7719564 0.79875147 16 9 -0.0022605681
2.2194319 -1.1012528 -0.48160195 31 2 -0.002258264
10.555949 -5.2400188 1.0310525 27 10 -0.0022559599
2.0522892 -1.0192118 -0.362928 13 3 -0.002253656
8.6345921 -4.2900062 1.183839 28 11 -0.002251352
2.0515378 -1.0192848 -0.28127447 19 4 -0.0022490481
7.2507539 -3.6040387 1.2824498 41 12 -0.002246744
2.0301781 -1.0095563 -0.19836646 25 5 -0.0022444399
6.2382464 -3.1034806 1.3543624 38 13 -0.002242136
2.041939 -1.0162939 -0.11953534 41 6 -0.002239832
5.4797921 -2.7273486 1.4131424 28 14 -0.0022375281
2.038882 -1.0152164 -0.039756581 51 7 -0.002235224
4.8728323 -2.4273813 1.4587041 33 15 -0.0022329199
1.9683374 -0.98352236 -0.58958983 73 0 -0.002212184
1.9660262 -0.98322535 -0.50748956 69 1 -0.0022075761
13.626688 -6.8177891 0.79854208 22 9 -0.002205272
2.0208786 -1.0110984 -0.43924233 18 2 -0.0022029681
10.559894 -5.285696 1.0331441 24 10 -0.002200664
2.0347679 -1.0189358 -0.36042506 48 3 -0.0021983599
8.6185446 -4.3177266 1.1835952 28 11 -0.0021960561
2.0302207 -1.0175453 -0.27883708 50 4 -0.002193752
7.2504911 -3.635525 1.2846401 43 12 -0.0021914481
2.0321622 -1.0189623 -0.1988894 55 5 -0.002189144
6.2384496 -3.1294317 1.356652 34 13 -0.0021868399
2.0082111 -1.00783 -0.1177559 51 6 -0.0021845361
5.4650145 -2.7438371 1.4117929 22 14 -0.002182232
2.0353258 -1.0223273 -0.039756581 60 7 -0.0021799281
4.8660564 -2.4452436 1.4592218 35 15 -0.002177624
1.9579918 -0.98690915 -0.58751929 64 0 -0.0021568881
15.223419 -7.6765676 0.29759842 3 8 -0.002154584
1.9660618 -0.99183744 -0.50838935 80 1 -0.00215228
13.620639 -6.8743129 0.7995888 22 9 -0.0021499759
1.984036 -1.0013396 -0.43199161 43 2 -0.002147672
10.536043 -5.3198304 1.0326213 24 10 -0.0021453679
2.0311987 -1.0260322 -0.36042506 57 3 -0.002143064
8.6140499 -4.353157 1.1850576 27 11 -0.00214076
2.0177987 -1.0201476 -0.27761838 52 4 -0.0021384559
7.2271805 -3.6554625 1.2827629 38 12 -0.002136152
2.0125918 -1.0179564 -0.19732061 65 5 -0.0021338479
2.0064628 -1.015736 -0.11786059 67 6 -0.00212924
5.4606185 -2.765538 1.4131424 16 14 -0.0021269359
2.0174744 -1.0221952 -0.039477345 66 7 -0.002124632
4.8609376 -2.4639611 1.4602571 35 15 -0.0021223279
1.9424804 -0.98760891 -0.5838958 71 0 -0.002101592
1.9591141 -0.99692672 -0.50748956 83 1 -0.0020969841
13.614358 -6.9308767 0.80063552 22 9 -0.00209468
1.9805286 -1.0082591 -0.43199161 49 2 -0.0020923759
10.515635 -5.3556719 1.0324469 24 10 -0.002090072
2.006484 -1.0223547 -0.35667065 57 3 -0.0020877679
8.6005697 -4.3841004 1.1853014 28 11 -0.0020854641
2.0053835 -1.0226756 -0.2763997 57 4 -0.00208316
7.2231731 -3.6851556 1.284327 45 12 -0.0020808559
2.0035236 -1.0226086 -0.19679767 71 5 -0.002078552
6.2356858 -3.1827259 1.3608499 24 13 -0.0020762479
2.0135777 -1.0281836 -0.11848862 100 6 -0.0020739441
5.4925818 -2.8058591 1.4239402 22 14 -0.00207164
2.0156746 -1.0301415 -0.039512251 60 7 -0.0020693359
4.8505874 -2.4800346 1.4597394 35 15 -0.002067032
1.9422852 -0.99648547 -0.58493102 71 0 -0.0020462959
14.813615 -7.6000948 0.29061747 3 8 -0.002043992
1.9625572 -1.0073187 -0.50928921 83 1 -0.002041688
13.607849 -6.9874811 0.80168223 22 9 -0.0020393841
1.9803125 -1.0173054 -0.43275481 52 2 -0.00203708
10.504795 -5.3987312 1.0333185 22 10 -0.0020347759
1.9904259 -1.0233791 -0.35448053 55 3 -0.0020324721
8.5940409 -4.4186335 1.18652 28 11 -0.002030168
2.0053318 -1.0314856 -0.27688718 58 4 -0.0020278641
7.1927018 -3.7013087 1.2811985 30 12 -0.00202556
1.9999418 -1.0295961 -0.19679767 59 5 -0.0020232559
6.2169971 -3.2019639 1.3593234 5 13 -0.0020209521
2.0275502 -1.0447048 -0.11953534 62 6 -0.002018648
5.5117073 -2.8411503 1.4315885 1 14 -0.0020163441
2.0156212 -1.0390035 -0.039582059 61 7 -0.00201404
4.8504848 -2.5013781 1.4623276 3 15 -0.0020117359
1.9439423 -1.0059228 -0.58648396 73 0 -0.001991
14.123272 -7.3114295 0.27759799 28 8 -0.0019886959
1.9519302 -1.0109202 -0.50748956 77 1 -0.0019863921
13.589241 -7.0409846 0.80210096 16 9 -0.001984088
1.9802357 -1.0260181 -0.43351805 51 2 -0.0019817841
10.508882 -5.4472861 1.0355846 9 10 -0.00197948
1.9850881 -1.0294114 -0.35416767 50 3 -0.0019771759
2.0121093 -1.0443155 -0.27834961 53 4 -0.001972568
1.9910311 -1.0338165 -0.19627473 56 5 -0.00196796
2.9565444 -1.5358019 0.64760572 2 13 -0.0019656559
2.0132577 -1.0462497 -0.1189073 55 6 -0.0019633519
2.9687355 -1.5434506 0.77248192 11 14 -0.001961048
2.015348 -1.0482297 -0.039651867 61 7 -0.0019587441
2.9630375 -1.5418025 0.89499629 23 15 -0.00195644
1.9455571 -1.0153838 -0.58803689 69 0 -0.0019357039
1.9362985 -1.0114119 -0.50434029 62 1 -0.001931096
1.9801221 -1.0347428 -0.43428129 51 2 -0.001926488
1.9849833 -1.0381653 -0.3547934 50 3 -0.0019218801
2.9197321 -1.5276971 0.40460625 6 11 -0.001919576
2.0014167 -1.04765 -0.27737463 53 4 -0.001917272
2.9346607 -1.5368131 0.52468127 31 12 -0.001914968
1.9962351 -1.0453817 -0.19714628 55 5 -0.0019126639
2.9198627 -1.5297133 0.64073664 23 13 -0.0019103601
2.0042861 -1.0504894 -0.11859328 58 6 -0.001908056
2.9115534 -1.5266554 0.75898486 23 14 -0.001905752
2.016989 -1.058045 -0.039756581 75 7 -0.001903448
2.9268467 -1.5359772 0.88567883 27 15 -0.0019011439
1.9522579 -1.0275677 -0.59114271 55 0 -0.001880408
2.9194782 -1.5373131 0.057592943 1 8 -0.0018781039
1.9517218 -1.0281556 -0.50928921 55 1 -0.0018758001
2.9121192 -1.5340873 0.17249933 16 9 -0.001873496
1.9730245 -1.0398177 -0.43351805 52 2 -0.001871192
2.9115343 -1.5350778 0.28796256 26 10 -0.001868888
1.9848418 -1.0469311 -0.35541913 52 3 -0.0018665839
2.8985808 -1.5295415 0.40241259 30 11 -0.00186428
1.9909091 -1.0505755 -0.2763997 58 4 -0.001861976
2.8823819 -1.5216368 0.5162338 31 12 -0.001859672
1.9978595 -1.0551349 -0.19766922 65 5 -0.001857368
2.8867316 -1.5252217 0.63463074 29 13 -0.001855064
1.9882469 -1.050946 -0.11786059 69 6 -0.00185276
2.8771861 -1.5208206 0.75133651 29 14 -0.001850456
2.0063984 -1.0609887 -0.039616965 86 7 -0.0018481519
2.8892922 -1.5285103 0.87584364 28 15 -0.001845848
1.9522529 -1.0358468 -0.59217799 56 0 -0.0018251119
2.8949351 -1.5366727 0.057208989 33 8 -0.0018228081
1.9689549 -1.0455898 -0.51468801 63 1 -0.001820504
2.8823204 -1.5306214 0.17103392 43 9 -0.0018182
1.9608965 -1.0417494 -0.43160996 55 2 -0.001815896
2.865963 -1.5232179 0.2839534 31 10 -0.0018135919
1.9865916 -1.0562896 -0.35635775 69 3 -0.0018112881
2.8742146 -1.5288905 0.39973149 33 11 -0.001808984
1.9979298 -1.0627655 -0.27786213 72 4 -0.00180668
2.8441873 -1.5135548 0.51028925 35 12 -0.001804376
1.985556 -1.0570726 -0.19679767 75 5 -0.0018020719
2.8504672 -1.5181738 0.62776166 30 13 -0.0017997681
1.9988523 -1.065047 -0.11869796 69 6 -0.001797464
2.8342907 -1.5101931 0.74143869 28 14 -0.00179516
2.0063982 -1.0695175 -0.039686773 78 7 -0.001792856
2.8467064 -1.5180846 0.86445564 34 15 -0.0017905519
1.9556209 -1.0459595 -0.59424853 60 0 -0.001769816
2.8580863 -1.5292827 0.0565807 38 8 -0.0017675119
1.970631 -1.0548724 -0.5160377 71 1 -0.001765208
2.8505495 -1.5265301 0.16946384 40 9 -0.001762904
1.9693621 -1.0550778 -0.43428129 68 2 -0.0017606
2.8292837 -1.5157773 0.28081581 29 10 -0.001758296
1.9883012 -1.065671 -0.35729638 68 3 -0.001755992
2.8253922 -1.514962 0.39363801 39 11 -0.001753688
1.994208 -1.069733 -0.27786213 67 4 -0.001751384
2.8110375 -1.5085286 0.50528342 41 12 -0.0017490799
1.981854 -1.0639971 -0.19679767 69 5 -0.001746776
2.8036406 -1.5058198 0.61860281 26 13 -0.001744472
2.0021596 -1.0757992 -0.11911664 66 6 -0.001742168
2.8049688 -1.5071642 0.73514003 32 14 -0.001739864
1.9956074 -1.0727274 -0.039547153 75 7 -0.0017375599
2.8005555 -1.5060527 0.8520323 33 15 -0.0017352561
1.9483739 -1.0512854 -0.59321326 71 0 -0.0017145199
2.7996714 -1.5112516 0.055533558 33 8 -0.0017122161
1.9581779 -1.0574582 -0.51378822 77 1 -0.001709912
2.8062766 -1.5160824 0.16716106 40 9 -0.001707608
1.9637548 -1.0613554 -0.4338997 65 2 -0.001705304
2.7974176 -1.5119271 0.27820113 33 10 -0.0017029999
1.9809068 -1.0710723 -0.35667065 68 3 -0.0017006961
2.7866461 -1.5073625 0.38900697 34 11 -0.001698392
2.0007486 -1.0827035 -0.27932456 71 4 -0.001696088
2.763798 -1.4962507 0.49777454 33 12 -0.001693784
1.9814448 -1.0731516 -0.19714628 69 5 -0.0016914799
2.7704842 -1.501121 0.61249691 25 13 -0.0016891761
1.9806443 -1.0736125 -0.11806992 68 6 -0.001686872
2.777154 -1.5053622 0.72929132 30 14 -0.001684568
2.0022094 -1.085754 -0.039756581 82 7 -0.001682264
2.7678478 -1.501568 0.84375012 33 15 -0.0016799599
1.9580818 -1.0658082 -0.59735435 66 0 -0.001659224
2.7572331 -1.50142 0.054800555 32 8 -0.00165692
1.9525777 -1.0636959 -0.51333827 74 1 -0.001654616
2.7553663 -1.5010269 0.16443959 37 9 -0.001652312
1.9703809 -1.0738405 -0.43618938 65 2 -0.001650008
2.7656181 -1.5078639 0.27558646 31 10 -0.001647704
1.9769678 -1.0783255 -0.35667065 72 3 -0.0016454
2.7427669 -1.4966471 0.38364473 34 11 -0.001643096
1.9830168 -1.0820739 -0.27737463 70 4 -0.001640792
2.7308166 -1.4907449 0.49276862 32 12 -0.001638488
1.9811841 -1.0819715 -0.19749491 73 5 -0.0016361839
2.7307699 -1.4919569 0.60486454 27 13 -0.00163388
1.9838951 -1.0843513 -0.11848862 66 6 -0.001631576
2.7291329 -1.4916811 0.71804374 29 14 -0.001629272
2.0089343 -1.0984926 -0.039966013 80 7 -0.001626968
2.7371666 -1.4973135 0.8359856 31 15 -0.0016246639
1.9613117 -1.0760125 -0.59942496 66 0 -0.001603928
2.7312031 -1.4990096 0.054381698 36 8 -0.001601624
1.9541641 -1.0729789 -0.51468801 77 1 -0.00159932
2.7241125 -1.4957367 0.16286951 43 9 -0.001597016
1.9530435 -1.0728071 -0.43313646 67 2 -0.001594712
2.7256804 -1.497836 0.27210024 29 10 -0.0015924081
1.9768431 -1.0867786 -0.35729638 70 3 -0.001590104
2.7099583 -1.4904282 0.37974492 34 11 -0.0015878
1.9759388 -1.0867307 -0.27688718 74 4 -0.001585496
2.6895132 -1.4797953 0.48619837 38 12 -0.001583192
1.9880579 -1.0942999 -0.19854078 73 5 -0.0015808879
2.700011 -1.4867991 0.59914029 29 13 -0.001578584
1.9837869 -1.0928515 -0.11869796 63 6 -0.00157628
2.6866202 -1.4800364 0.70814592 29 14 -0.001573976
1.9912699 -1.0974269 -0.039686773 82 7 -0.001571672
2.7017348 -1.4895924 0.82666808 35 15 -0.0015693679
1.9475889 -1.0769016 -0.59631914 66 0 -0.001548632
2.7017198 -1.494507 0.05389303 41 8 -0.001546328
1.9608258 -1.0851146 -0.51738745 77 1 -0.001544024
2.6996541 -1.4945953 0.16171812 46 9 -0.00154172
1.9511927 -1.0802286 -0.43351805 69 2 -0.001539416
2.6788683 -1.4836988 0.26791674 31 10 -0.0015371119
1.9801396 -1.0971576 -0.35854784 72 3 -0.001534808
2.6806943 -1.4859331 0.37633255 34 11 -0.001532504
1.9790777 -1.0974722 -0.27786213 74 4 -0.0015302
2.661876 -1.4767166 0.48213109 41 12 -0.001527896
1.9739647 -1.0950873 -0.19749491 73 5 -0.0015255919
2.6693168 -1.481454 0.59341598 30 13 -0.001523288
1.9906291 -1.1052412 -0.119326 69 6 -0.001520984
2.6507728 -1.4723729 0.70004767 29 14 -0.00151868
1.9891748 -1.1053423 -0.039721675 76 7 -0.001516376
2.6526179 -1.4746095 0.81320947 33 15 -0.0015140719
1.9370686 -1.0799304 -0.59424853 71 0 -0.0014933361
2.6650507 -1.4863958 0.053264745 45 8 -0.001491032
1.9587277 -1.0929021 -0.51783729 74 1 -0.001488728
2.6665173 -1.4884343 0.16004337 46 9 -0.001486424
1.9525528 -1.0899036 -0.43466291 67 2 -0.00148412
2.6493196 -1.4794412 0.26547641 36 10 -0.0014818159
1.972849 -1.1021361 -0.35792211 72 3 -0.001479512
2.65643 -1.4846284 0.37365144 39 11 -0.001477208
1.9717692 -1.1024363 -0.27737463 72 4 -0.001474904
2.6308446 -1.4715348 0.47743803 43 12 -0.0014726
1.97013 -1.1019711 -0.19749491 69 5 -0.0014702959
2.6230106 -1.467754 0.58425713 31 13 -0.001467992
1.9902445 -1.1141342 -0.11953534 69 6 -0.001465688
2.6218133 -1.4682862 0.69374907 29 14 -0.001463384
1.990538 -1.1152114 -0.039826389 75 7 -0.00146108
2.6171207 -1.4668581 0.80389202 35 15 -0.001458776
1.9433914 -1.0923651 -0.59735435 66 0 -0.0014380399
2.6180136 -1.4721662 0.052427031 41 8 -0.001435736
1.9498055 -1.0968661 -0.5164876 77 1 -0.001433432
2.6282349 -1.4791216 0.15805461 45 9 -0.001431128
1.9538693 -1.0996013 -0.43580776 69 2 -0.001428824
2.6094162 -1.4691308 0.26199016 38 10 -0.0014265199
1.9689898 -1.1090159 -0.35792211 68 3 -0.001424216
2.614913 -1.4734278 0.36853293 40 11 -0.001421912
1.9817431 -1.1171105 -0.27932456 69 4 -0.001419608
2.601603 -1.4671248 0.4730579 47 12 -0.001417304
1.9732132 -1.1127563 -0.19819216 79 5 -0.0014149999
2.590513 -1.4614666 0.57815129 33 13 -0.001412696
1.9793857 -1.1171478 -0.11911664 71 6 -0.001410392
2.5895209 -1.4620988 0.68655062 30 14 -0.001408088
1.9953389 -1.1270702 -0.040000916 78 7 -0.001405784
2.5850742 -1.4607784 0.79560977 35 15 -0.00140348
1.9429282 -1.101047 -0.59838963 66 0 -0.0013827439
2.5832856 -1.4645301 0.051833645 38 8 -0.00138044
1.94766 -1.104627 -0.51693749 74 1 -0.001378136
2.5813646 -1.4646319 0.15554248 41 9 -0.001375832
1.9568492 -1.1102902 -0.43733424 69 2 -0.001373528
2.5886776 -1.4693786 0.26042137 37 10 -0.0013712239
1.9685419 -1.1178331 -0.35854784 70 3 -0.00136892
2.5752337 -1.4629362 0.36365816 38 11 -0.001366616
1.9674767 -1.1181364 -0.27786213 70 4 -0.001364312
2.5672731 -1.4595996 0.46773914 40 12 -0.001362008
1.976245 -1.123576 -0.1988894 75 5 -0.001359704
2.5632107 -1.457882 0.57319027 37 13 -0.0013574
1.9685304 -1.1200994 -0.11869796 68 6 -0.001355096
2.5556109 -1.4547404 0.67890227 32 14 -0.001352792
1.9983433 -1.1379868 -0.040140536 78 7 -0.001350488
2.5564594 -1.4564052 0.78836286 33 15 -0.001348184
1.9455884 -1.1119953 -0.60046023 69 0 -0.001327753
2.5518613 -1.4590999 0.051310074 37 8 -0.001325449
1.9402152 -1.109823 -0.5160377 74 1 -0.001323145
2.5502315 -1.4587586 0.1539724 42 9 -0.0013208409
1.9442466 -1.1125795 -0.43542615 67 2 -0.0013185369
2.5556092 -1.4630189 0.25763237 37 10 -0.001316233
1.9712884 -1.1289675 -0.35979933 68 3 -0.001313929
2.5371282 -1.4536151 0.35902712 35 11 -0.001311625
1.9633653 -1.1253401 -0.27786213 67 4 -0.0013093209
2.5227447 -1.4459591 0.46054313 39 12 -0.0013070169
1.9721136 -1.1308118 -0.1988894 71 5 -0.001304713
2.5271969 -1.4496832 0.56632113 39 13 -0.001302409
1.9748057 -1.1332716 -0.119326 68 6 -0.0013001049
2.5130811 -1.4427521 0.66900444 35 14 -0.0012978009
1.9856877 -1.1399771 -0.039966013 78 7 -0.0012954969
2.5312572 -1.4537743 0.78215116 33 15 -0.001293193
1.9316516 -1.1129931 -0.59735435 69 0 -0.001272457
2.5262167 -1.455574 0.050891217 37 8 -0.001270153
1.9466541 -1.12209 -0.51873708 74 1 -0.001267849
2.5209012 -1.4536835 0.15250699 42 9 -0.0012655449
1.9352496 -1.1164163 -0.43428129 69 2 -0.0012632409
2.5073459 -1.4470335 0.25327459 34 10 -0.001260937
1.9709555 -1.1374731 -0.36042506 70 3 -0.001258633
2.5099449 -1.4491174 0.3558585 33 11 -0.001256329
1.9630606 -1.1338305 -0.27834961 72 4 -0.0012540249
2.4851844 -1.4359788 0.45459861 40 12 -0.0012517209
1.9612547 -1.1337005 -0.19819216 73 5 -0.001249417
2.5019791 -1.4462655 0.56174171 39 13 -0.001247113
1.9779527 -1.1438133 -0.11974468 72 6 -0.0012448089
2.491415 -1.4413195 0.66450542 35 14 -0.0012425049
1.9816964 -1.1469016 -0.039966013 82 7 -0.0012402009
2.4877148 -1.4403381 0.77024549 33 15 -0.001237897
1.9279501 -1.1193925 -0.59735435 71 0 -0.001217161
2.4882662 -1.4453001 0.050228026 42 8 -0.001214857
1.9427254 -1.1288784 -0.51873708 74 1 -0.001212553
2.4918904 -1.447987 0.15104158 48 9 -0.0012102489
1.9485097 -1.1326942 -0.43809745 70 2 -0.0012079449
2.4680872 -1.4353076 0.24978836 34 10 -0.001205641
1.9567283 -1.1383859 -0.35854784 73 3 -0.001203337
2.4859991 -1.4468861 0.3531774 35 11 -0.0012010329
1.9659525 -1.1446711 -0.27932456 69 4 -0.0011987289
2.4650452 -1.4352666 0.45178279 42 12 -0.0011964249
1.9574846 -1.140198 -0.19819216 71 5 -0.001194121
2.4528122 -1.4292908 0.55181968 39 13 -0.001191817
1.9808497 -1.1547341 -0.12016336 68 6 -0.0011895129
2.4611175 -1.4352814 0.65775687 37 14 -0.0011872089
1.9847918 -1.1574963 -0.04010563 82 7 -0.0011849049
2.4528894 -1.4310565 0.76092798 36 15 -0.001182601
1.9273657 -1.1280674 -0.59838963 66 0 -0.001161865
2.4592986 -1.4394022 0.049739357 47 8 -0.001159561
1.935608 -1.133345 -0.51783729 71 1 -0.001157257
2.4695871 -1.4465815 0.14999487 52 9 -0.0011549529
1.9479319 -1.1414742 -0.43886071 70 2 -0.0011526489
2.4510305 -1.4368612 0.24856818 37 10 -0.001150345
1.9529425 -1.1448684 -0.35854784 69 3 -0.001148041
2.4555023 -1.4400584 0.34952128 41 11 -0.001145737
1.9655702 -1.1531932 -0.27981204 66 4 -0.0011434329
2.4395766 -1.4318635 0.44802836 47 12 -0.0011411289
1.9638009 -1.1530768 -0.19923802 71 5 -0.001138825
2.4226644 -1.4225056 0.54609537 40 13 -0.001136521
1.9632328 -1.153204 -0.119326 72 6 -0.0011342169
2.4345031 -1.4306 0.65190816 36 14 -0.0011319129
1.9807392 -1.1644174 -0.04010563 80 7 -0.001129609
2.424566 -1.4258995 0.75368112 36 15 -0.001127305
1.9335984 -1.1403406 -0.6014955 64 0 -0.001106569
2.4301469 -1.4337519 0.049250688 47 8 -0.001104265
1.93164 -1.1400946 -0.51783729 74 1 -0.0011019609
2.428406 -1.4338679 0.14779675 49 9 -0.0010996569
1.947517 -1.1499239 -0.43962395 72 2 -0.0010973529
2.4308128 -1.4358613 0.24699937 38 10 -0.001095049
1.9625394 -1.159718 -0.36105078 70 3 -0.001092745
2.4077396 -1.4233661 0.34342784 43 11 -0.0010904409
1.9581156 -1.1580262 -0.27932456 69 4 -0.0010881369
2.412462 -1.4272945 0.44396105 48 12 -0.0010858329
1.9599664 -1.1595826 -0.19923802 75 5 -0.001083529
2.3990993 -1.4199538 0.54189759 36 13 -0.001081225
1.9626324 -1.1620851 -0.11953534 68 6 -0.0010789209
2.3959608 -1.4192259 0.64291006 35 14 -0.0010766169
1.9904253 -1.1794798 -0.04038487 82 7 -0.001074313
2.3963087 -1.4205621 0.74643415 36 15 -0.001072009
1.9345878 -1.1500447 -0.60304838 69 0 -0.001051273
2.4079399 -1.4320048 0.048901644 47 8 -0.001048969
1.9309981 -1.1488231 -0.51873708 71 1 -0.001046665
2.3942094 -1.4249706 0.14601734 48 9 -0.0010443609
1.9299947 -1.1486822 -0.436571 69 2 -0.0010420569
2.4035311 -1.4310868 0.24473332 40 10 -0.001039753
1.9584794 -1.1665615 -0.36105078 70 3 -0.001037449
2.3857036 -1.4216005 0.34099045 43 11 -0.001035145
1.9540614 -1.1648544 -0.27932456 67 4 -0.0010328409
2.3548708 -1.4043419 0.4342621 43 12 -0.001030537
1.9627517 -1.1704993 -0.19993527 69 5 -0.001028233
2.3738964 -1.4162495 0.53731817 37 13 -0.0010259289
1.9619941 -1.1709759 -0.11974468 66 6 -0.0010236249
2.3675678 -1.4135948 0.63661146 33 14 -0.0010213209
1.972562 -1.1782172 -0.04010563 82 7 -0.001019017
2.3714354 -1.4170271 0.74022251 33 15 -0.001016713
1.9239331 -1.1528189 -0.60097784 71 0 -0.00099597697
2.3720541 -1.421895 0.048273355 40 8 -0.00099367299
1.9286475 -1.1565589 -0.51918703 69 1 -0.0009913689
2.3635302 -1.4179074 0.14444725 49 9 -0.00098906492
1.9327072 -1.159452 -0.43809745 69 2 -0.00098676095
2.3541038 -1.4128112 0.24020122 37 10 -0.00098445697
1.9543953 -1.1733909 -0.36105078 68 3 -0.000982153
2.3500957 -1.4115218 0.33660313 40 11 -0.0009798489
1.9567897 -1.1757579 -0.28029951 67 4 -0.00097754493
2.3381031 -1.4054296 0.43207204 45 12 -0.00097524095
1.948408 -1.1711845 -0.1988894 75 5 -0.00097293698
2.3537958 -1.4154216 0.53388357 40 13 -0.00097063294
1.9647404 -1.1819357 -0.12016336 68 6 -0.00096832891
2.3375735 -1.406778 0.62986296 37 14 -0.00096602493
1.9684371 -1.1850954 -0.04010563 80 7 -0.00096372096
2.3333771 -1.4053622 0.72986972 32 15 -0.00096141698
1.9198974 -1.1595275 -0.60097784 69 0 -0.00094068097
2.3277106 -1.4063821 0.047470544 43 8 -0.00093837699
1.9312698 -1.1673162 -0.52098668 67 1 -0.00093607296
2.3414752 -1.4158145 0.14340053 41 9 -0.00093376893
1.9320084 -1.1682231 -0.43886071 69 2 -0.00093146495
2.321882 -1.4045205 0.23741224 35 10 -0.00092916097
1.9469074 -1.1781603 -0.36042506 68 3 -0.00092685694
2.3332672 -1.4125202 0.33489698 41 11 -0.00092455291
1.9577675 -1.1856661 -0.28103071 76 4 -0.00092224893
2.3145988 -1.402323 0.4286305 47 12 -0.00091994496
1.9545325 -1.1841731 -0.19993527 71 5 -0.00091764098
2.3186197 -1.4053124 0.52701449 44 13 -0.00091533695
1.9708499 -1.1949998 -0.1207914 68 6 -0.00091303291
2.3126545 -1.402801 0.62446409 39 14 -0.00091072894
1.9711266 -1.1961089 -0.040245246 73 7 -0.00090842496
2.3053377 -1.3994637 0.72262281 36 15 -0.00090612099
1.9207886 -1.1692357 -0.60253078 62 0 -0.00088538497
2.307416 -1.4051381 0.047156405 48 8 -0.00088308094
1.9221907 -1.1710089 -0.51963693 71 1 -0.00088077696
2.319464 -1.4135851 0.1423538 45 9 -0.00087847293
1.9346246 -1.1790468 -0.44038719 70 2 -0.00087616895
2.3067579 -1.4063938 0.23636638 37 10 -0.00087386498
1.9427831 -1.1849492 -0.36042506 68 3 -0.00087156094
2.2978203 -1.402045 0.33050969 42 11 -0.00086925691
1.9654776 -1.1997327 -0.2827369 70 4 -0.00086695293
2.2894585 -1.3980402 0.42487606 42 12 -0.00086464896
1.9467784 -1.1892515 -0.19958666 69 5 -0.00086234498
2.2835431 -1.3949751 0.52014536 42 13 -0.00086004095
1.956441 -1.1956233 -0.12016336 68 6 -0.00085773692
2.287792 -1.3986673 0.61906528 42 14 -0.00085543294
1.978881 -1.2102857 -0.040489584 78 7 -0.00085312896
2.2856078 -1.3984282 0.71796405 37 15 -0.00085082499
1.9214298 -1.1792996 -0.60408366 66 0 -0.00083008897
2.2803411 -1.3995857 0.046702638 49 8 -0.00082778494
1.9164306 -1.1766918 -0.51918703 69 1 -0.00082548097
2.287286 -1.4049474 0.14067906 52 9 -0.00082317693
1.9403265 -1.1922966 -0.4426769 70 2 -0.00082087296
2.2812197 -1.4023184 0.23427464 37 10 -0.00081856892
1.9417924 -1.1941315 -0.36105078 68 3 -0.00081626495
2.2726209 -1.3975791 0.32758483 46 11 -0.00081396097
1.9443702 -1.1961845 -0.28029951 66 4 -0.00081165694
2.2677417 -1.3956696 0.42174736 47 12 -0.00080935296
1.9494019 -1.2002182 -0.20028389 71 5 -0.00080704893
2.2583556 -1.3909801 0.51556593 44 13 -0.00080474495
1.948645 -1.2006905 -0.11995402 69 6 -0.00080244098
2.2561078 -1.3906823 0.61186683 42 14 -0.00080013694
1.9695375 -1.2140381 -0.04038487 78 7 -0.00079783297
2.2642689 -1.3962581 0.71278769 41 15 -0.00079552893
1.9173015 -1.1859994 -0.60408366 66 0 -0.00077479298
2.2564912 -1.3963592 0.046318687 48 8 -0.00077248894
1.9137619 -1.1847339 -0.51963693 71 1 -0.00077018497
2.2467058 -1.3908461 0.13848096 51 9 -0.00076788093
1.9211307 -1.1897593 -0.43924233 67 2 -0.00076557696
2.2559867 -1.3976809 0.23218289 41 10 -0.00076327292
1.9443284 -1.2050649 -0.36230227 73 3 -0.00076096895
2.2438636 -1.3912543 0.32417247 48 11 -0.00075866497
1.9517814 -1.2106274 -0.2820057 74 4 -0.00075636094
2.2410333 -1.3900411 0.41768005 48 12 -0.00075405696
1.951972 -1.2112175 -0.20098113 77 5 -0.00075175293
2.2401421 -1.3905715 0.51251298 44 13 -0.00074944895
1.951229 -1.2116998 -0.12037271 69 6 -0.00074714498
2.2230992 -1.3810672 0.60421854 43 14 -0.00074484095
1.9652877 -1.2209055 -0.04038487 94 7 -0.00074253697
2.2331285 -1.3878379 0.70450544 41 15 -0.00074023294
1.9115102 -1.1916628 -0.60356599 64 0 -0.00071949692
2.2382727 -1.3953711 0.046039447 50 8 -0.00071719295
1.9180902 -1.1962296 -0.52188647 67 1 -0.00071488897
2.221503 -1.3859936 0.1372249 50 9 -0.00071258494
1.9186316 -1.1974976 -0.43962395 72 2 -0.00071028096
2.2223639 -1.3876088 0.2292196 42 10 -0.00070797693
1.9436725 -1.2135983 -0.362928 69 3 -0.00070567295
2.215667 -1.3839648 0.32076016 46 11 -0.00070336898
1.9427056 -1.2139372 -0.28127447 69 4 -0.00070106494
2.199317 -1.3748195 0.41079697 51 12 -0.00069876097
1.9409753 -1.2137983 -0.20028389 71 5 -0.00069645693
2.215544 -1.3855011 0.50793356 44 13 -0.00069415296
1.9539728 -1.2224008 -0.1207914 71 6 -0.00069184892
2.2085958 -1.3822287 0.60151911 43 14 -0.00068954495
1.9508444 -1.2213913 -0.040175438 84 7 -0.00068724097
2.2053492 -1.3812683 0.69725859 41 15 -0.00068493694
1.9124562 -1.2010775 -0.60511893 66 0 -0.00066420092
2.1978304 -1.3808354 0.045306448 49 8 -0.00066189695
1.912253 -1.2018806 -0.52143651 74 1 -0.00065959297
2.1997433 -1.3831086 0.13617818 50 9 -0.00065728894
1.9179739 -1.2059435 -0.44038719 69 2 -0.00065498496
2.1941395 -1.3801194 0.22677925 45 10 -0.00065268093
1.9394246 -1.2203755 -0.362928 69 3 -0.00065037695
2.2057824 -1.3885177 0.32002893 49 11 -0.00064807298
1.9434958 -1.2238847 -0.2820057 67 4 -0.00064576895
2.1711054 -1.3677472 0.40641677 50 12 -0.00064346497
1.9335681 -1.2181041 -0.19993527 73 5 -0.00064116094
2.1774755 -1.3722912 0.50030124 41 13 -0.00063885696
1.9564521 -1.2334747 -0.12121009 72 6 -0.00063655293
2.1872747 -1.3795338 0.59702009 42 14 -0.00063424895
1.9567164 -1.234596 -0.04038487 84 7 -0.00063194497
2.1776433 -1.374522 0.69001162 41 15 -0.00062964094
1.9115167 -1.2098118 -0.6061542 66 0 -0.00060890493
2.1727223 -1.3756621 0.044887587 49 8 -0.00060660095
1.9096924 -1.2095913 -0.52188647 67 1 -0.00060429698
2.1797183 -1.3811578 0.13523613 45 9 -0.00060199294
1.9303361 -1.2231392 -0.44420335 70 2 -0.00059968897
2.1707976 -1.3760362 0.22486182 44 10 -0.00059738493
1.9318165 -1.2250224 -0.36230227 70 3 -0.00059508096
2.1590161 -1.3696246 0.31393546 46 11 -0.00059277692
1.9425641 -1.2327884 -0.28249314 69 4 -0.00059047295
2.1479733 -1.3636713 0.40297523 47 12 -0.00058816897
1.9393964 -1.2312531 -0.20098113 69 5 -0.00058586494
2.1594141 -1.3714634 0.49724829 41 13 -0.00058356096
1.9453913 -1.2360122 -0.1207914 71 6 -0.00058125693
2.1577761 -1.3714802 0.59027153 42 14 -0.00057895295
1.9625196 -1.2478565 -0.040594298 84 7 -0.00057664898
2.1532717 -1.3696729 0.68379998 42 15 -0.00057434494
1.9089108 -1.2175158 -0.60667187 62 0 -0.00055360893
2.1409352 -1.3660283 0.044329114 47 8 -0.00055130495
1.9087436 -1.2183468 -0.52278626 69 1 -0.00054900098
2.1496336 -1.3726343 0.13366605 53 9 -0.00054669695
1.9227457 -1.2277565 -0.44344014 70 2 -0.00054439297
2.1508696 -1.3739522 0.22329301 45 10 -0.00054208894
1.9375156 -1.2381401 -0.36417946 69 3 -0.00053978496
2.1341515 -1.3643221 0.31101057 48 11 -0.00053748093
1.9349042 -1.2374227 -0.2820057 66 4 -0.00053517695
2.1282241 -1.3615797 0.40015942 48 12 -0.00053287297
1.9401215 -1.2412367 -0.20150407 69 5 -0.00053056894
2.1347706 -1.366293 0.49266884 41 13 -0.00052826497
1.941065 -1.2427955 -0.1207914 71 6 -0.00052596093
2.1267197 -1.3621869 0.58307308 42 14 -0.00052365696
1.9615194 -1.256857 -0.040664107 82 7 -0.00052135292
2.1403453 -1.3719682 0.68121177 45 15 -0.00051904895
1.9078995 -1.226261 -0.60770714 62 0 -0.00049831293
2.1294255 -1.3691672 0.044189494 49 8 -0.00049600896
1.9061183 -1.2260563 -0.52323616 65 1 -0.00049370492
2.1213148 -1.3649991 0.13220063 56 9 -0.00049140095
1.9151464 -1.2323362 -0.4426769 69 2 -0.00048909697
2.1276321 -1.3695893 0.22137558 44 10 -0.00048679294
1.933182 -1.2448958 -0.36417946 72 3 -0.00048448896
2.1176946 -1.3642379 0.30930442 45 11 -0.00048218493
1.9238986 -1.2398678 -0.28103071 69 4 -0.00047988095
2.1018753 -1.3550855 0.39609212 49 12 -0.00047757698
1.9424754 -1.2523199 -0.20220132 71 5 -0.00047527294
2.1134894 -1.3630953 0.48885265 44 13 -0.00047296897
1.9434282 -1.2538946 -0.12121009 68 6 -0.00047066493
2.0973923 -1.3537505 0.57632458 43 14 -0.00046836096
1.9504002 -1.2593575 -0.040524486 84 7 -0.00046605692
2.1128249 -1.3647561 0.6739648 47 15 -0.00046375295
1.9003644 -1.2308129 -0.60667187 62 0 -0.00044301694
2.1095295 -1.3668058 0.043875352 50 8 -0.00044071296
1.9067326 -1.2358824 -0.52458584 69 1 -0.00043840893
2.1067209 -1.3655083 0.1315726 56 9 -0.00043610495
1.9075385 -1.2368774 -0.44191366 70 2 -0.00043380097
2.0960941 -1.3596594 0.21858659 41 10 -0.00043149694
1.9288247 -1.2516363 -0.36417946 68 3 -0.00042919297
2.091274 -1.3575703 0.3061358 46 11 -0.00042688893
1.9328775 -1.2552254 -0.28298062 66 4 -0.00042458496
2.0774896 -1.3491377 0.39233768 52 12 -0.00042228092
1.9280676 -1.25258 -0.20115545 71 5 -0.00041997695
2.0939033 -1.3608361 0.48541811 45 13 -0.00041767297
1.9440627 -1.2639369 -0.1215241 68 6 -0.00041536894
2.0779514 -1.351501 0.57227546 45 14 -0.00041306496
1.9411844 -1.2625476 -0.040419776 73 7 -0.00041076093
2.0823791 -1.3548977 0.66568261 47 15 -0.00040845695
1.8960565 -1.2374388 -0.60667187 62 0 -0.00038772094
2.0815406 -1.3584927 0.043386683 48 8 -0.00038541696
1.9124143 -1.2485906 -0.52728528 63 1 -0.00038311293
2.0868917 -1.3630241 0.13063055 51 9 -0.00038080895
1.9130703 -1.2499716 -0.44420335 72 2 -0.00037850498
2.0713224 -1.353887 0.21649487 44 10 -0.00037620094
1.9213566 -1.2558641 -0.36355373 69 3 -0.00037389697
2.0784535 -1.359066 0.30491713 49 11 -0.00037159293
1.9353495 -1.2659748 -0.2839556 70 4 -0.00036928896
2.0578914 -1.3466463 0.38952184 48 12 -0.00036698492
1.9270172 -1.2614851 -0.20150407 69 5 -0.00036468095
2.0581698 -1.3473417 0.47816736 46 13 -0.00036237697
1.9432026 -1.2725651 -0.12173345 72 6 -0.00036007294
2.0653081 -1.3530447 0.57002598 48 14 -0.00035776896
1.9785783 -1.296719 -0.041292395 32 7 -0.00035546493
2.0566344 -1.3483886 0.65895331 48 15 -0.00035316095
1.8951713 -1.245842 -0.60770714 62 0 -0.000332425
2.0550659 -1.3514667 0.04293292 49 8 -0.00033012091
1.8999043 -1.2499034 -0.52503574 65 1 -0.00032781693
2.0687742 -1.3615162 0.12979318 51 9 -0.00032551296
1.915475 -1.2606258 -0.44572985 69 2 -0.00032320898
2.0501804 -1.3497922 0.21475175 46 10 -0.000320905
1.9169611 -1.2625633 -0.36355373 69 3 -0.00031860091
2.0438597 -1.3466538 0.30052981 49 11 -0.00031629694
1.9309186 -1.2727226 -0.2839556 69 4 -0.00031399296
2.0366867 -1.3429474 0.38639316 50 12 -0.00031168899
1.929477 -1.2722557 -0.20220132 64 5 -0.00030938489
2.037066 -1.3437077 0.47435117 46 13 -0.00030708092
2.0020955 -1.3211417 -0.12571098 36 6 -0.00030477694
2.0394301 -1.3462889 0.56417727 47 14 -0.00030247297
2.0624795 -1.3620213 -0.043142349 60 7 -0.00030016899
2.0325725 -1.3427812 0.65274167 50 15 -0.0002978649
1.8956425 -1.2556503 -0.60926002 58 0 -0.000277129
2.0370002 -1.3497953 0.04265368 49 8 -0.00027482491
1.8955296 -1.2565277 -0.52503574 71 1 -0.00027252093
2.0257251 -1.3433418 0.12738572 52 9 -0.00027021696
1.9143353 -1.2694746 -0.44649309 69 2 -0.00026791298
2.0338342 -1.3492305 0.21353155 48 10 -0.00026560901
1.9915456 -1.3216772 -0.37857145 53 3 -0.00026330492
2.0226085 -1.3428001 0.29809242 51 11 -0.00026100094
2.0289886 -1.3475463 -0.29906741 47 4 -0.00025869696
2.0204692 -1.3423965 0.38420308 51 12 -0.00025639299
2.0445085 -1.358368 -0.21475175 50 5 -0.0002540889
2.0160124 -1.3399428 0.47053501 47 13 -0.00025178492
2.020756 -1.343604 -0.12717639 46 6 -0.00024948095
2.0103796 -1.3372108 0.55742872 48 14 -0.00024717697
2.0277457 -1.3492725 -0.042514063 56 7 -0.00024487299
2.015008 -1.3413042 0.64860052 51 15 -0.0002425689
1.8976755 -1.2665495 -0.61133063 58 0 -0.000221833
2.0189717 -1.3480144 0.042374443 52 8 -0.00021952891
1.8959936 -1.2663836 -0.52638549 67 1 -0.00021722494
2.0027564 -1.338199 0.12623434 51 9 -0.00021492096
1.9751875 -1.3197782 -0.46175778 56 2 -0.00021261699
2.0142045 -1.3463569 0.21196276 49 10 -0.00021031289
2.0131934 -1.3461894 -0.38357735 47 3 -0.00020800892
2.0030591 -1.3399189 0.2958988 52 11 -0.00020570494
2.0127237 -1.3468925 -0.29736122 48 4 -0.00020340097
1.9960732 -1.3362546 0.38044867 53 12 -0.00020109699
2.0265093 -1.3566297 -0.21335725 53 5 -0.0001987929
1.998273 -1.3382322 0.46748206 49 13 -0.00019648892
2.0127349 -1.3484262 -0.12696704 49 6 -0.00019418495
1.984655 -1.3301162 0.55158001 47 14 -0.00019188097
2.0097361 -1.3474338 -0.042234823 59 7 -0.000189577
1.9974782 -1.3397208 0.64445943 45 15 -0.0001872729
1.8868304 -1.2688535 -0.60926002 60 0 -0.00016653701
1.9993211 -1.3450081 0.042060301 50 8 -0.00016423292
1.9529967 -1.3143394 -0.54348177 67 1 -0.00016192894
1.9897891 -1.3396049 0.12571098 52 9 -0.00015962496
1.9949971 -1.343111 -0.46748206 53 2 -0.00015732099
1.9880096 -1.3389108 0.20969671 53 10 -0.0001550169
1.9986523 -1.3465858 -0.38170013 48 3 -0.00015271292
1.9917853 -1.3424648 0.29492384 58 11 -0.00015040895
1.9866132 -1.339483 -0.29419261 49 4 -0.00014810497
1.9619188 -1.3233309 0.37481701 51 12 -0.00014580099
1.9953331 -1.3458691 -0.21056828 52 5 -0.0001434969
1.9805702 -1.3364143 0.46442911 49 13 -0.00014119293
1.9931172 -1.3453871 -0.12602501 51 6 -0.00013888895
1.9686949 -1.3294019 0.54843068 49 14 -0.00013658497
1.9851359 -1.3410085 -0.041815966 61 7 -0.000134281
1.9719815 -1.3326236 0.63773018 51 15 -0.00013197691
1.9607561 -1.32853 -0.6346243 62 0 -0.00011124089
1.9598528 -1.3284174 0.041327298 52 8 -0.00010893692
1.983881 -1.3452092 -0.5533796 63 1 -0.00010663294
1.9718779 -1.3375727 0.12487361 52 9 -0.00010432897
1.9756742 -1.3401477 -0.46404752 54 2 -0.00010202499
1.9684857 -1.3357733 0.2081279 55 10 -9.9720899e-05
1.9710585 -1.3380218 -0.37731999 50 3 -9.7416923e-05
1.9493159 -1.3237593 0.28931785 50 11 -9.5112948e-05
1.9720734 -1.3397164 -0.29273018 49 4 -9.2808972e-05
1.9556534 -1.3290608 0.37450415 55 12 -9.0504996e-05
1.9708484 -1.3393873 -0.20847654 51 5 -8.8200904e-05
1.9515395 -1.3267629 0.45870483 53 13 -8.5896929e-05
1.9784997 -1.3455968 -0.12539697 52 6 -8.3592953e-05
1.959209 -1.3329771 0.54708099 93 14 -8.1288978e-05
1.9639117 -1.3366781 -0.041466918 60 7 -7.8985002e-05
1.9497523 -1.3275392 0.63203615 85 15 -7.668091e-05
1.9577022 -1.3364556 -0.63514197 58 0 -5.5944896e-05
1.9353878 -1.3217175 0.040908441 49 8 -5.3640921e-05
1.9453827 -1.329041 -0.54393166 60 1 -5.1336945e-05
1.9507074 -1.3331783 0.12382689 52 9 -4.9032969e-05
1.9563961 -1.3370661 -0.46061292 57 2 -4.6728994e-05
1.9374954 -1.324645 0.20533893 52 10 -4.4424902e-05
1.94681 -1.331512 -0.37356552 52 3 -4.2120926e-05
1.9446833 -1.3305557 0.28931785 64 11 -3.981695e-05
1.9591943 -1.340986 -0.29151151 52 4 -3.7512975e-05
1.9444828 -1.3314151 0.37325269 99 12 -3.5208999e-05
1.9530098 -1.3372536 -0.20708205 53 5 -3.2904907e-05
1.9355584 -1.3258009 0.45603353 92 13 -3.0600931e-05
1.9474294 -1.3344313 -0.12372221 53 6 -2.8296956e-05
1.9545441 -1.3398079 0.54708099 94 14 -2.599298e-05
1.9460404 -1.334478 -0.041187681 63 7 -2.3689005e-05
1.9578509 -1.3430798 0.63617724 89 15 -2.1384913e-05
1.9402915 -1.334523 -0.63100088 55 0 0
1.9241729 -1.3239311 0.040768825 49 8 2.304e-06
1.9198635 -1.3214599 -0.53808296 58 1 4.6079999e-06
1.9213667 -1.322989 0.12225681 56 9 6.9120001e-06
1.93393 -1.3316396 -0.45641515 58 2 9.2159999e-06
1.9361413 -1.3336604 0.20568755 86 10 1.152e-05
1.9340173 -1.3326951 -0.3720012 53 3 1.3824e-05
1.9253176 -1.3271959 0.28712422 100 11 1.6128e-05
1.9348907 -1.3342935 -0.28858662 50 4 1.8432e-05
1.9333193 -1.3337076 0.3720012 100 12 2.0736001e-05
1.9319298 -1.3327491 -0.20533893 52 5 2.304e-05
1.9454612 -1.3425848 0.4594681 96 13 2.5343999e-05
1.9263234 -1.329874 -0.12267549 53 6 2.7648e-05
1.9498552 -1.3466225 0.54708099 90 14 2.9952e-05
1.926563 -1.3310329 -0.040873535 69 7 3.2256001e-05
1.9595076 -1.3542988 0.63824779 92 15 3.4559998e-05
1.9197426 -1.3302844 -0.62582451 54 0 5.5296001e-05
1.9162526 -1.3283612 0.040699009 100 8 5.7599998e-05
1.9104348 -1.3248218 -0.53673321 61 1 5.9903999e-05
1.9118139 -1.3262725 0.1219428 100 9 6.2207997e-05
1.9131391 -1.3271918 -0.45259899 57 2 6.4512002e-05
1.9265636 -1.3370028 0.20516461 100 10 6.6815999e-05
1.9131269 -1.3281728 -0.36887249 53 3 6.9119997e-05
1.9288253 -1.3395702 0.28834289 100 11 7.1424001e-05
1.9122888 -1.3285805 -0.28590551 54 4 7.3727999e-05
1.9221637 -1.3359385 0.37074974 100 12 7.6032004e-05
1.9207217 -1.3349361 -0.20464167 55 5 7.8336001e-05
1.9520465 -1.3572129 0.46213943 99 13 8.0639998e-05
1.9134712 -1.330888 -0.12215213 69 6 8.2944003e-05
1.9419438 -1.3511944 0.5461812 94 14 8.5248001e-05
1.9136988 -1.3320376 -0.040699009 100 7 8.7551998e-05
1.9595245 -1.3644425 0.63980073 95 15 8.9856003e-05
1.889743 -1.3192838 -0.61754227 53 0 0.000110592
1.9083252 -1.3327521 0.040629201 94 8 0.000112896
1.8930187 -1.322554 -0.53313398 61 1 0.0001152
1.9104468 -1.3352262 0.12215213 100 9 0.000117504
1.8907934 -1.3214903 -0.44840118 59 2 0.000119808
1.9104549 -1.3357282 0.20394444 100 10 0.000122112
1.9020044 -1.330314 -0.36762103 81 3 0.00012441599
1.9306434 -1.350847 0.28931785 100 11 0.00012672
1.891377 -1.3238642 -0.28346813 82 4 0.000129024
1.9158704 -1.341507 0.37043685 100 12 0.00013132799
1.9013616 -1.3313477 -0.20307288 93 5 0.000133632
1.9521209 -1.3673975 0.46328428 96 13 0.000135936
1.9088141 -1.3375592 -0.12215213 98 6 0.00013823999
1.9435982 -1.3624392 0.54798079 94 14 0.000140544
1.905763 -1.3364135 -0.040629201 100 7 0.000142848
1.9500051 -1.3679458 0.63824779 92 15 0.00014515199
1.8645842 -1.3114244 -0.61081296 58 0 0.00016588801
1.9020261 -1.3382548 0.040594298 98 8 0.000168192
1.8708614 -1.3168155 -0.52818507 94 1 0.000170496
1.9139395 -1.3476359 0.12267549 100 9 0.00017280001
1.878143 -1.3224311 -0.44649309 91 2 0.000175104
1.9057807 -1.3423887 0.20394444 100 10 0.000177408
1.8892751 -1.331256 -0.36605671 100 3 0.00017971201
1.9226714 -1.3552905 0.28883037 100 11 0.000182016
1.9013448 -1.3407542 -0.28566176 100 4 0.00018432
1.9208612 -1.3550186 0.37231407 100 12 0.00018662401
1.8983306 -1.339125 -0.20324717 100 5 0.000188928
1.9393158 -1.3685435 0.46137619 99 13 0.000191232
1.9073967 -1.3465177 -0.12236147 100 6 0.00019353601
1.942014 -1.3714635 0.54888058 90 14 0.00019584
1.910886 -1.3499806 -0.040838633 100 7 0.000198144
1.9467961 -1.3758594 0.63876545 95 15 0.000200448
1.8599951 -1.317925 -0.61081296 100 0 0.000221184
1.8973432 -1.3448858 0.040594298 98 8 0.00022348799
1.8662534 -1.323338 -0.52818507 100 1 0.000225792
1.9159769 -1.3585964 0.12309418 100 9 0.000228096
1.8735154 -1.3289789 -0.44649309 100 2 0.00023039999
1.9043329 -1.3513391 0.20429306 100 10 0.000232704
1.874952 -1.330982 -0.36417946 100 3 0.000235008
1.9211658 -1.3642924 0.28931785 100 11 0.00023731199
1.8968883 -1.347052 -0.28566176 100 4 0.000239616
1.9227988 -1.3659569 0.37356552 100 12 0.00024192
1.8887728 -1.3422807 -0.20272426 100 5 0.00024422401
1.937727 -1.3775799 0.46213943 99 13 0.00024652801
1.8961746 -1.3485374 -0.1219428 100 6 0.00024883199
1.9406315 -1.3801547 0.54978037 100 14 0.00025113599
1.908028 -1.3574692 -0.040873535 100 7 0.00025344
1.9469446 -1.3856682 0.64031839 89 15 0.000255744
1.8634773 -1.3296963 -0.61340117 100 0 0.00027647999
1.8977554 -1.3546555 0.040699009 94 8 0.00027878399
1.8634408 -1.330652 -0.52863497 100 1 0.000281088
1.9049596 -1.3602999 0.12267549 100 9 0.000283392
1.878683 -1.3420314 -0.44878277 100 2 0.00028569601
1.9079465 -1.3634387 0.20516461 100 10 0.00028800001
1.883384 -1.3463825 -0.36668244 100 3 0.00029030399
1.902099 -1.3602633 0.28712422 96 11 0.00029260799
1.8827226 -1.3464065 -0.28419933 100 4 0.000294912
1.9295049 -1.3803712 0.37575564 100 12 0.000297216
1.8907918 -1.3531749 -0.2034215 100 5 0.00029952
1.9379369 -1.3874265 0.46328428 96 13 0.00030182401
1.8884445 -1.3524922 -0.12173345 100 6 0.00030412801
