# .PCD v0.7 - Point Cloud Data file format
VERSION 0.7
FIELDS x y z intensity ring time
SIZE 4 4 4 4 2 4
TYPE F F F F U F
COUNT 1 1 1 1 1 1
WIDTH 960
HEIGHT 1
VIEWPOINT 0 0 0 1 0 0 0
POINTS 960
DATA ascii
0.21917823 3.5329554 -0.6880573 30 2 -0.084799409
0.40875468 6.5701523 0.57592511 2 10 -0.084797099
0.22177404 3.554693 -0.56410277 68 3 -0.084794797
0.40755609 6.5142469 0.80141288 5 11 -0.084792495
0.22286864 3.5522861 -0.43702352 60 4 -0.084790193
0.40757906 6.4782796 1.0280875 11 12 -0.084787883
0.22118255 3.515594 -0.30818272 55 5 -0.084785581
0.21980061 3.4742768 -0.18244316 51 6 -0.084780976
0.40185109 6.3343129 1.4653312 49 14 -0.084778674
0.41082385 6.4579606 -0.11295197 20 7 -0.084776364
0.40400386 6.3332601 1.7004411 52 15 -0.084774062
0.2401507 3.6936293 -0.99179465 2 0 -0.084753327
0.67971319 10.426276 0.18237765 2 8 -0.084751025
0.28092217 4.297544 -0.99428362 8 1 -0.084748715
0.68161041 10.399385 0.5461781 2 9 -0.084746413
0.23163855 3.5341282 -0.68843889 37 2 -0.084744111
0.23392035 3.5499551 -0.56347704 66 3 -0.084739499
0.43814641 6.6316309 0.81603718 1 11 -0.084737197
0.23526801 3.5514865 -0.43702352 60 4 -0.084734894
0.43856719 6.6029634 1.0481111 1 12 -0.084732592
0.23318808 3.5108242 -0.30783406 48 5 -0.08473029
0.43375978 6.5133934 1.2688799 1 13 -0.08472798
0.23099622 3.4595385 -0.18171045 50 6 -0.084725678
0.43470478 6.4764395 -0.11330102 13 7 -0.084721074
0.42792627 6.3587961 1.7076882 15 15 -0.084718764
0.25647536 3.7428792 -1.0052532 8 0 -0.084698029
0.71610641 10.42384 0.18237765 2 8 -0.084695727
0.29538724 4.2887607 -0.99248403 8 1 -0.084693424
0.71444827 10.373157 0.54492205 2 9 -0.084691115
0.24424331 3.5372152 -0.68920213 50 2 -0.084688812
0.71576291 10.339665 0.90676832 2 10 -0.08468651
0.24603802 3.5451758 -0.56285131 73 3 -0.084684208
0.71866608 10.32927 1.2713411 1 11 -0.084681906
0.24580145 3.5328641 -0.43482983 66 4 -0.084679596
0.24558166 3.5119765 -0.3080084 58 5 -0.084674992
0.24222839 3.4467571 -0.18108243 49 6 -0.08467038
0.45744562 6.4929147 -0.11361516 10 7 -0.084665775
0.46030584 6.5172873 1.7506521 12 15 -0.084663473
0.26930222 3.7477884 -1.0068061 8 0 -0.084642731
0.75067198 10.421408 0.18237765 2 8 -0.084640428
0.31101027 4.3071942 -0.99698305 8 1 -0.084638126
0.74826556 10.362761 0.54450333 2 9 -0.084635824
0.25512233 3.5246367 -0.68691242 52 2 -0.084633522
0.75293308 10.376978 0.91025454 2 10 -0.084631212
0.25836536 3.5522208 -0.56410277 71 3 -0.08462891
0.75306249 10.328812 1.2715849 3 11 -0.084626608
0.25751647 3.5320296 -0.43482983 63 4 -0.084624305
0.75405031 10.317531 1.6384948 3 12 -0.084621996
0.256789 3.5051816 -0.30748546 61 5 -0.084619693
0.25424439 3.4539025 -0.18150112 45 6 -0.084615089
0.48044458 6.5113049 -0.11396421 6 7 -0.084610477
0.48390904 6.5426974 1.757899 10 15 -0.084608175
0.28114873 3.7391694 -1.0047356 8 0 -0.08458744
0.7852245 10.418861 0.18237765 2 8 -0.084585138
0.32632044 4.3197417 -1.0001323 7 1 -0.084582828
0.78413004 10.356105 0.544294 2 9 -0.084580526
0.26636365 3.5178986 -0.68576753 53 2 -0.084578224
0.78432268 10.334691 0.90676832 2 10 -0.084575921
0.27014452 3.5513446 -0.56410277 66 3 -0.084573612
0.78791142 10.334174 1.2725598 3 11 -0.084571309
0.27014574 3.535068 -0.43531734 61 4 -0.084569007
0.78961068 10.308926 1.6375562 3 12 -0.084566705
0.26780352 3.4963644 -0.30678821 60 5 -0.084564395
0.26508293 3.445075 -0.18108243 48 6 -0.084559791
0.503169 6.5095882 -0.11396421 2 7 -0.084555179
0.50301254 6.4928164 1.744958 5 15 -0.084552877
0.29450327 3.7420168 -1.0057708 8 0 -0.084532142
0.82158607 10.416058 0.18237765 2 8 -0.084529839
0.81933105 10.341357 0.54366595 2 9 -0.084525228
0.27833262 3.5130329 -0.68500435 53 2 -0.084522925
0.82165712 10.347778 0.90816277 2 10 -0.084520623
0.28159839 3.5385649 -0.56222552 68 3 -0.084518321
0.82224631 10.309594 1.2698786 3 11 -0.084516011
0.28201023 3.528167 -0.43458611 60 4 -0.084513709
0.82590401 10.310045 1.6381818 3 12 -0.084511407
0.27921027 3.4854784 -0.30591667 53 5 -0.084509104
0.27710778 3.4441288 -0.18108243 51 6 -0.084504493
0.52943391 6.5516424 -0.11473212 1 7 -0.084499888
0.51943773 6.4139991 1.7242525 1 15 -0.084497586
0.30819595 3.7486675 -1.0078415 9 0 -0.084476843
0.85203147 10.34138 0.18112107 2 8 -0.084474541
0.85871583 10.378243 0.54575938 2 9 -0.084469937
0.29091674 3.5159533 -0.68576753 53 2 -0.084467627
0.85842901 10.352791 0.90886009 2 10 -0.084465325
0.29296637 3.5257492 -0.56034833 73 3 -0.084463023
0.8577323 10.300726 1.2691474 3 11 -0.08446072
0.29514876 3.5370524 -0.43580481 48 4 -0.084458411
0.86089796 10.295289 1.6363046 3 12 -0.084456109
0.29120842 3.482497 -0.30574232 57 5 -0.084453806
0.28812489 3.4311986 -0.1804544 52 6 -0.084449202
0.55196583 6.5457692 -0.11466231 1 7 -0.08444459
0.53759313 6.3620973 1.710794 1 15 -0.084442288
0.32210544 3.7571929 -1.0104296 9 0 -0.084421553
0.89428878 10.410068 0.18237765 2 8 -0.084419243
0.89425361 10.367224 0.54534072 2 9 -0.084414639
0.30352631 3.5188286 -0.68653083 60 2 -0.084412336
0.89250565 10.325912 0.90676832 2 10 -0.084410027
0.3066346 3.5404491 -0.56285131 66 3 -0.084407724
0.892313 10.281848 1.2671976 3 11 -0.084405422
0.30560276 3.5142465 -0.43312368 60 4 -0.08440312
0.89682788 10.292221 1.6363046 3 12 -0.084400818
0.3040539 3.489399 -0.30643961 55 5 -0.084398508
0.29975301 3.4261928 -0.18024506 54 6 -0.084393904
0.5765599 6.5637221 -0.11501136 1 7 -0.084389292
0.55912185 6.3524837 1.7087234 1 15 -0.084386989
0.33470255 3.750273 -1.0088767 9 0 -0.084366255
0.93061906 10.406882 0.18237765 2 8 -0.084363952
0.33112305 3.6955969 -0.85661358 1 1 -0.084361643
0.93400609 10.403823 0.54743415 2 9 -0.08435934
0.31475344 3.5060148 -0.68424112 60 2 -0.084357038
0.92854226 10.322733 0.90676832 2 10 -0.084354736
0.31863749 3.5354221 -0.56222552 66 3 -0.084352434
0.92819571 10.278671 1.2671976 3 11 -0.084350124
0.31822494 3.5171125 -0.43361115 59 4 -0.084347822
0.9313249 10.27329 1.6338017 3 12 -0.08434552
0.31659302 3.4922848 -0.30678821 63 5 -0.084343217
0.3115291 3.4231367 -0.18014038 50 6 -0.084338605
0.59801435 6.5457387 -0.11473212 1 7 -0.084334001
0.58093923 6.3466463 1.7076882 1 15 -0.084331691
0.3470768 3.7413874 -1.0068061 8 0 -0.084310956
0.6156975 6.6244359 0.11612831 2 8 -0.084308654
0.33950496 3.6459098 -0.84536606 2 1 -0.084306352
0.32607722 3.4951212 -0.68233299 63 2 -0.08430174
0.96457243 10.319428 0.90676832 2 10 -0.084299438
0.33116162 3.5362551 -0.56253839 61 3 -0.084297135
0.96573603 10.293156 1.2693912 1 11 -0.084294833
0.3299436 3.5100508 -0.43287995 64 4 -0.084292524
0.96792334 10.277843 1.6350533 1 12 -0.084290221
0.32766151 3.4792564 -0.30574232 61 5 -0.084287919
0.32385302 3.4260049 -0.18034972 51 6 -0.084283307
0.62047732 6.5396304 -0.11466231 1 7 -0.084278703
0.59815544 6.2926536 1.6937119 3 15 -0.084276401
0.36124653 3.7516909 -1.009912 8 0 -0.084255666
0.35372838 3.6602201 -0.84896529 2 1 -0.084251054
0.3392224 3.5037322 -0.68424112 62 2 -0.084246449
0.34197432 3.5193489 -0.56003547 62 3 -0.084241837
1.0005087 10.277867 1.2679287 1 11 -0.084239535
0.34238756 3.5108533 -0.43312368 70 4 -0.084237233
1.0049441 10.286198 1.6369305 1 12 -0.084234923
0.3382538 3.4622281 -0.30434784 65 5 -0.084232621
0.33659053 3.4328046 -0.18076842 48 6 -0.084228016
0.6480028 6.5851865 -0.11550003 1 7 -0.084223405
0.61746562 6.2636118 1.6864649 9 15 -0.084221102
0.37510687 3.7580962 -1.0119824 8 0 -0.084200367
1.0395451 10.396567 0.18237765 2 8 -0.084198065
0.3518419 3.5064337 -0.68500435 68 2 -0.084191151
0.35366425 3.5122371 -0.55909681 71 3 -0.084186539
1.0371737 10.282213 1.2689037 1 11 -0.084184237
0.35643438 3.5274127 -0.43531734 68 4 -0.084181935
1.0396526 10.270835 1.6350533 1 12 -0.084179632
0.3503381 3.461026 -0.30434784 65 5 -0.084177323
0.34715596 3.4176993 -0.1800357 52 6 -0.084172718
0.63755554 6.2441216 1.6818062 15 15 -0.084165804
0.38941526 3.7682936 -1.0150883 9 0 -0.084145069
1.0758324 10.392875 0.18237765 2 8 -0.084142767
1.0738114 10.338119 0.54471272 2 9 -0.084138155
0.36428329 3.5071368 -0.68538594 67 2 -0.084135853
0.36673877 3.5188406 -0.56034833 71 3 -0.084131248
1.0751231 10.298273 1.2713411 1 11 -0.084128939
0.36647502 3.5044291 -0.4326362 74 4 -0.084126636
1.0754911 10.267144 1.6350533 1 12 -0.084124334
0.36345264 3.4696898 -0.30521941 70 5 -0.084122032
0.35762337 3.4025626 -0.17930301 57 6 -0.08411742
0.65894353 6.2380157 1.680771 18 15 -0.084110513
0.40297827 3.7707529 -1.0161237 8 0 -0.084089771
1.1121014 10.389055 0.18237765 2 8 -0.084087469
0.46662223 4.3519263 -1.0104802 8 1 -0.084085166
0.71063954 6.616816 0.34876686 2 9 -0.084082864
0.37484702 3.4902275 -0.68233299 67 2 -0.084080562
1.1085563 10.304955 0.90676832 2 10 -0.084078252
0.37965536 3.5234306 -0.56128693 75 3 -0.08407595
1.1097888 10.282616 1.2698786 1 11 -0.084073648
0.37870476 3.5031285 -0.4326362 74 4 -0.084071346
1.1113263 10.263327 1.6350533 1 12 -0.084069036
0.37534836 3.4664192 -0.3050451 61 5 -0.084066734
0.36906624 3.3973224 -0.17909366 57 6 -0.084062129
0.68008399 6.2299166 1.6792181 33 15 -0.084055215
0.41507566 3.7597227 -1.0135354 8 0 -0.08403448
0.72022629 6.5133028 0.11438307 2 8 -0.084032178
0.48309875 4.3618922 -1.0131795 8 1 -0.084029868
1.1498723 10.382182 0.54743415 2 9 -0.084027566
0.38745841 3.4928007 -0.68309623 67 2 -0.084025264
1.1445234 10.301023 0.90676832 2 10 -0.084022962
0.39195305 3.522084 -0.56128693 75 3 -0.084020652
1.145668 10.278679 1.2698786 1 11 -0.08401835
0.38983035 3.4919209 -0.43141752 71 4 -0.084016047
1.1444807 10.251732 1.6338017 1 12 -0.084013745
0.38722566 3.4631078 -0.30487078 53 5 -0.084011436
0.3818143 3.4039526 -0.17951234 57 6 -0.084006831
0.69966102 6.2180276 1.6766298 48 15 -0.083999917
0.42929149 3.767848 -1.0161237 9 0 -0.083979182
0.49689689 4.3544574 -1.0118299 7 1 -0.083974577
1.1861037 10.378105 0.54743415 2 9 -0.083972268
0.40165856 3.5089815 -0.68653083 80 2 -0.083969966
1.1802495 10.294985 0.90659404 2 10 -0.083967663
0.40273157 3.5129147 -0.56003547 80 3 -0.083965361
1.1797498 10.274823 1.2698786 1 11 -0.083963051
0.40367499 3.5103302 -0.43385491 71 4 -0.083960749
1.1825219 10.267298 1.6369305 1 12 -0.083958447
0.39908275 3.4597557 -0.30469647 57 5 -0.083956145
0.39332867 3.4046519 -0.17961702 55 6 -0.083951533
0.65786999 5.6771393 -0.099757954 29 7 -0.083946928
0.72069228 6.2097912 1.6750768 65 15 -0.083944619
0.44245994 3.7721596 -1.0176765 10 0 -0.083923884
0.76780754 6.5360541 0.11487174 2 8 -0.083921582
0.51254827 4.3565674 -1.0127296 7 1 -0.083919279
0.41283402 3.5037305 -0.68576753 83 2 -0.083914667
0.41406173 3.5036409 -0.55878401 80 3 -0.083910063
1.2156112 10.270642 1.2698786 1 11 -0.083907761
0.41615883 3.5108712 -0.43409866 72 4 -0.083905451
1.2136948 10.223876 1.6306731 1 12 -0.083903149
0.4105545 3.4584134 -0.30469647 62 5 -0.083900847
0.40473935 3.3992915 -0.17940767 55 6 -0.083896235
0.67934436 5.6887078 -0.1000023 47 7 -0.08389163
0.74259526 6.2091556 1.6755946 80 15 -0.083889328
0.45562375 3.7705922 -1.0176765 9 0 -0.083868593
0.78725636 6.5055413 0.11438307 2 8 -0.083866283
0.52869135 4.3624902 -1.0145292 6 1 -0.083863981
0.80180007 6.6063895 0.34876686 2 9 -0.083861679
0.42529762 3.5042171 -0.68614918 86 2 -0.083859377
0.79402381 6.5327849 0.57575083 2 10 -0.083857067
0.42772222 3.5139394 -0.5606612 75 3 -0.083854765
0.79554939 6.5263162 0.8072626 1 11 -0.083852462
0.42648807 3.4936333 -0.43214872 78 4 -0.08385016
0.42213982 3.4530039 -0.30434784 66 5 -0.083845548
0.41514355 3.3859637 -0.17877965 56 6 -0.083840944
0.6994403 5.6882868 -0.10003719 52 7 -0.083836332
0.76331896 6.1988564 1.6735239 86 15 -0.08383403
0.46949735 3.7747304 -1.0192294 8 0 -0.083813295
0.80996186 6.5027533 0.11438307 2 8 -0.083810993
0.54439759 4.3644857 -1.0154291 7 1 -0.083808683
0.81594557 6.5322032 0.34499866 2 9 -0.083806381
0.43655458 3.4949186 -0.6846227 87 2 -0.083804078
0.43998483 3.5124252 -0.5606612 75 3 -0.083799466
0.81832737 6.5234995 0.8072626 1 11 -0.083797164
0.43868145 3.4921231 -0.43214872 74 4 -0.083794862
0.81707805 6.4952073 1.0368477 1 12 -0.08379256
0.43518451 3.4594166 -0.3050451 67 5 -0.083790258
0.42771104 3.3904383 -0.17909366 57 6 -0.083785646
0.71653265 5.6639872 -0.099653237 59 7 -0.083781041
0.78592521 6.2038202 1.6755946 90 15 -0.083778732
0.4780142 3.7366598 -1.0093943 3 0 -0.083757997
0.83011353 6.4800515 0.11403403 2 8 -0.083755694
0.56062216 4.3702898 -1.0172287 7 1 -0.083753392
0.83161557 6.4738474 0.34206784 2 9 -0.08375109
0.44925103 3.4972682 -0.68538594 87 2 -0.08374878
1.4491758 11.265788 0.99374974 2 10 -0.083746478
0.45325324 3.5187047 -0.56191266 77 3 -0.083744176
0.84109229 6.5206037 0.8072626 1 11 -0.083741874
0.45163071 3.4964769 -0.43287995 68 4 -0.083739564
0.83974731 6.4923158 1.0368477 1 12 -0.083737262
0.44572493 3.4460208 -0.30399922 66 5 -0.083734959
0.43954259 3.3889248 -0.17909366 57 6 -0.083730347
0.73526657 5.6535196 -0.09951362 60 7 -0.083725743
0.8063271 6.1914606 1.6730064 91 15 -0.083723441
0.46662709 3.5491779 -0.95918339 0 0 -0.083702706
0.85011965 6.4572887 0.11368498 2 8 -0.083700396
0.57714641 4.3779669 -1.0194782 7 1 -0.083698094
0.85995758 6.5144672 0.34437063 2 9 -0.083695792
0.46145532 3.4956789 -0.68538594 92 2 -0.083693489
0.46397868 3.5053508 -0.56003547 77 3 -0.083688878
1.4893012 11.23661 1.391748 1 11 -0.083686575
0.46487853 3.5027502 -0.43385491 70 4 -0.083684273
1.5030956 11.310336 1.8071312 1 12 -0.083681963
0.45696455 3.4385188 -0.30347627 62 5 -0.083679661
0.45268941 3.3972688 -0.17961702 54 6 -0.083675057
0.7544657 5.646955 -0.099443816 57 7 -0.083670445
0.82767993 6.1866937 1.6724888 78 15 -0.083668143
0.47901413 3.5475271 -0.95918339 0 0 -0.083647408
0.8721143 6.4503188 0.11361516 2 8 -0.083645105
0.59059596 4.3624072 -1.0163288 7 1 -0.083642796
0.87786448 6.475801 0.34248653 2 9 -0.083640493
0.47523797 3.5057192 -0.68767565 90 2 -0.083638191
0.88515598 6.5210619 0.57575083 2 10 -0.083635889
0.47727525 3.5115397 -0.56128693 77 3 -0.083633579
1.5349429 11.27855 1.3975978 1 11 -0.083631277
0.47870839 3.512908 -0.43531734 67 4 -0.083628975
0.88505179 6.4862947 1.0368477 1 12 -0.083626673
0.47004122 3.4447994 -0.30417353 62 5 -0.083624363
0.46346176 3.3877528 -0.17919834 55 6 -0.083619758
0.77363062 5.6403241 -0.099374004 57 7 -0.083615154
0.84769493 6.1722832 1.6693829 69 15 -0.083612844
0.49139363 3.5458336 -0.95918339 0 0 -0.083600044
0.89297742 6.4353509 0.11340573 2 8 -0.083597742
0.60743028 4.3719001 -1.0190283 7 1 -0.08359544
0.90046251 6.4726973 0.34248653 2 9 -0.08359313
0.48882416 3.5137618 -0.68958372 95 2 -0.083590828
0.90791512 6.5179324 0.57575083 2 10 -0.083588526
0.48953083 3.5098522 -0.56128693 77 3 -0.083586223
1.5715551 11.253465 1.3951604 1 11 -0.083583914
0.48986915 3.5033514 -0.43434238 71 4 -0.083581612
0.90768951 6.4831653 1.0368477 1 12 -0.083579309
0.48372132 3.4549761 -0.30521941 63 5 -0.083577007
0.4758389 3.39007 -0.17940767 54 6 -0.083572395
0.79387051 5.6415501 -0.099443816 58 7 -0.083567791
0.86923081 6.1692867 1.6693829 65 15 -0.083565481
0.50376886 3.5440967 -0.95918339 0 0 -0.083544746
0.91825479 6.4519916 0.11375479 2 8 -0.083542444
0.62213451 4.3658948 -1.0181284 7 1 -0.083540142
0.91741055 6.4299693 0.3403931 2 9 -0.083537839
0.49859172 3.4945419 -0.68614918 92 2 -0.08353553
0.93066305 6.5147233 0.57575083 2 10 -0.083533227
0.50261623 3.5139885 -0.56222552 73 3 -0.083530925
1.6068906 11.220398 1.391748 1 11 -0.083528623
0.50209606 3.5016201 -0.43434238 67 4 -0.083526313
0.93031001 6.4799581 1.0368477 1 12 -0.083524011
0.49634245 3.4572113 -0.30556804 66 5 -0.083521709
0.48681688 3.3824575 -0.17909366 57 6 -0.083517097
0.81070423 5.6189528 -0.099094771 55 7 -0.083512492
0.88910478 6.1547427 1.6662771 69 15 -0.08351019
0.50722456 3.4811432 -0.94261903 0 0 -0.083489455
0.94048089 6.4467683 0.11371988 5 8 -0.083487146
0.64075142 4.3868361 -1.0235273 7 1 -0.083484843
0.94100749 6.4346328 0.34081176 2 9 -0.083482541
0.51021969 3.4888949 -0.68538594 87 2 -0.083480239
0.95339668 6.511435 0.57575083 2 10 -0.083477929
0.51545328 3.5161219 -0.56285131 73 3 -0.083475627
1.6460503 11.21472 1.391748 1 11 -0.083473325
0.51633549 3.5135939 -0.43604854 67 4 -0.083471023
0.50666809 3.4436305 -0.30452216 66 5 -0.083466411
0.50066012 3.3945689 -0.17982636 55 6 -0.083461806
0.82855982 5.604219 -0.098885335 54 7 -0.083457194
0.9069047 6.1267586 1.6595478 78 15 -0.083454892
0.52279311 3.5022798 -0.94883066 0 0 -0.083434157
0.96120685 6.4315796 0.11351045 12 8 -0.083431855
0.65519446 4.3787913 -1.0221776 7 1 -0.083429545
0.96582562 6.4471111 0.34164914 2 9 -0.083427243
0.5226835 3.4890344 -0.68576753 77 2 -0.083424941
0.97612178 6.5080671 0.57575083 2 10 -0.083422638
0.52772462 3.5143011 -0.56285131 73 3 -0.083420329
0.97746301 6.5015593 0.8072626 1 11 -0.083418027
0.52859807 3.5117702 -0.43604854 66 4 -0.083415724
0.97552902 6.4733052 1.0368477 1 12 -0.083413422
0.51868647 3.4418409 -0.30452216 57 5 -0.08341112
0.5131039 3.3967502 -0.1800357 52 6 -0.083406508
0.84691584 5.5933847 -0.098745719 43 7 -0.083401904
0.92626035 6.1101851 1.6559243 86 15 -0.083399594
0.56683105 3.7085881 -1.0052532 2 0 -0.083378859
0.98365003 6.4281855 0.11351045 15 8 -0.083376557
0.67018133 4.3745508 -1.0217277 7 1 -0.083374254
0.98720151 6.4438729 0.34164914 4 9 -0.083371945
0.53247917 3.471664 -0.68271458 60 2 -0.083369642
0.99883181 6.5046206 0.57575083 2 10 -0.08336734
0.53848702 3.5026753 -0.56128693 61 3 -0.083365038
1.7242982 11.202956 1.391748 1 11 -0.083362736
0.54357338 3.5275614 -0.4382422 61 4 -0.083360426
0.99698859 6.4700346 1.0368477 1 12 -0.083358124
0.53251946 3.4518239 -0.30556804 55 5 -0.083355822
0.52465332 3.3929646 -0.17993104 45 6 -0.08335121
0.8651551 5.5885692 -0.098710813 45 7 -0.083346605
0.94769967 6.1147161 1.6579949 93 15 -0.083344303
0.59051979 3.7752981 -1.0238881 7 0 -0.083323561
1.0049601 6.4248886 0.11351045 12 8 -0.083321258
0.6843819 4.3703799 -1.0212778 7 1 -0.083318956
1.0096905 6.4403872 0.34164914 2 9 -0.083316654
0.5482465 3.4930584 -0.68729407 60 2 -0.083314352
1.0165814 6.4696031 0.57296187 2 10 -0.083312042
0.55071193 3.5047736 -0.56191266 61 3 -0.08330974
1.7614423 11.197177 1.391748 1 11 -0.083307438
0.5527969 3.5100522 -0.43629229 50 4 -0.083305135
1.0195658 6.4665155 1.0368477 1 12 -0.083302826
0.54456627 3.449944 -0.30556804 57 5 -0.083300523
0.53558785 3.3892336 -0.17982636 40 6 -0.083295919
0.88215649 5.5697141 -0.098431572 42 7 -0.083291307
0.9708522 6.1228194 1.6611006 100 15 -0.083289005
0.60059792 3.7580581 -1.0197471 3 0 -0.08326827
1.0289624 6.4312143 0.11368498 15 8 -0.083265968
0.70148349 4.379509 -1.0239772 7 1 -0.083263658
1.0299506 6.4230189 0.34091645 4 9 -0.083261356
0.56231463 3.5067289 -0.69034702 17 2 -0.083259054
1.0430844 6.4976711 0.57575083 2 10 -0.083256751
0.90835762 5.6521158 -0.90669429 23 3 -0.083254442
1.8005146 11.19096 1.391748 1 11 -0.083252139
0.56473112 3.5061409 -0.43604854 44 4 -0.083249837
1.0421337 6.4629169 1.0368477 1 12 -0.083247535
0.55663741 3.4520533 -0.30591667 48 5 -0.083245225
0.54614162 3.3794565 -0.17940767 38 6 -0.083240621
0.89839476 5.5468616 -0.098082528 40 7 -0.083236009
0.99345732 6.1270204 1.6631712 99 15 -0.083233707
0.61620373 3.7711911 -1.0238881 7 0 -0.083212972
1.0507611 6.423636 0.11361516 17 8 -0.083210669
0.71739554 4.3808799 -1.024877 7 1 -0.083208367
1.0539789 6.4292397 0.34143981 6 9 -0.083206058
0.85531586 5.2174006 -1.0276973 6 2 -0.083203755
1.0657609 6.4939899 0.57575083 2 10 -0.083201453
0.92487794 5.6294184 -0.90356559 46 3 -0.083199151
1.056703 6.4247832 0.79946297 1 11 -0.083196841
0.57516384 3.4894066 -0.30940288 61 5 -0.083189934
0.55858672 3.3814704 -0.17961702 38 6 -0.083185323
0.91611987 5.5338268 -0.097907998 33 7 -0.083180718
1.0129452 6.1120806 1.6600655 100 15 -0.083178416
0.63159043 3.7823555 -1.0275117 9 0 -0.083157673
1.0715277 6.410068 0.11344065 17 8 -0.083155371
0.733971 4.3860373 -1.0266765 8 1 -0.083153069
1.0774034 6.4314313 0.34175381 6 9 -0.083150767
0.87157542 5.2027655 -1.0254076 8 2 -0.083148457
1.0884212 6.4902306 0.57575083 2 10 -0.083146155
0.94190764 5.61057 -0.90106261 55 3 -0.083143853
1.0863628 6.4641228 0.80482519 1 11 -0.08314155
0.94521481 5.6182585 -0.69953007 45 4 -0.083139241
1.0872279 6.4554839 1.0368477 1 12 -0.083136939
0.60719538 3.6052606 -0.31986156 97 5 -0.083134636
0.54379469 3.2219477 -0.17124327 11 6 -0.083130032
0.93276191 5.514822 -0.097628765 36 7 -0.08312542
1.0329827 6.1008878 1.6579949 100 15 -0.083123118
0.63179719 3.7039537 -1.0068061 21 0 -0.083102383
1.0959145 6.4181151 0.11365007 20 8 -0.083100073
0.74894738 4.3815274 -1.0262268 7 1 -0.083097771
1.0998484 6.4276309 0.34175381 6 9 -0.083095469
0.89536172 5.2325888 -1.0318952 2 2 -0.083093166
1.1110684 6.486392 0.57575083 2 10 -0.083090857
0.96115148 5.6053019 -0.9007498 57 3 -0.083088554
1.1042173 6.4329014 0.80141288 1 11 -0.083086252
0.96683621 5.6266637 -0.70099252 61 4 -0.08308395
1.1097538 6.4516492 1.0368477 1 12 -0.083081648
0.6136961 3.5677752 -0.31672394 60 5 -0.083079338
0.54655731 3.1708238 -0.16862647 43 6 -0.083074734
0.95166504 5.5095625 -0.097593859 38 7 -0.083070122
1.0549324 6.1010523 1.6590302 100 15 -0.083067819
0.61787391 3.5475667 -0.96487743 104 0 -0.083047085
1.1176231 6.4103112 0.11358026 20 8 -0.083044782
0.61983383 3.5514863 -0.8323189 11 1 -0.083042473
1.1233113 6.4296546 0.34206784 2 9 -0.08304017
0.54702491 3.1310835 -0.61783957 11 2 -0.083037868
1.1268374 6.4432225 0.57226461 2 10 -0.083035566
0.98207575 5.609695 -0.90200126 57 3 -0.083033264
1.1266673 6.4290075 0.80141288 1 11 -0.083030954
0.98509794 5.6154342 -0.70001757 70 4 -0.083028652
1.1322691 6.4477363 1.0368477 1 12 -0.08302635
0.61718744 3.5145898 -0.31219187 72 5 -0.083024047
1.5870081 9.0280085 1.7817745 6 13 -0.083021738
0.55969685 3.1806996 -0.1692545 38 6 -0.083019435
0.96880919 5.4943905 -0.09738443 38 7 -0.083014831
1.0785691 6.1106505 1.6626536 78 15 -0.083012521
0.63059086 3.5472906 -0.96539509 110 0 -0.082991786
1.1389431 6.4004641 0.11347555 22 8 -0.082989484
1.1436431 6.413897 0.34143981 2 9 -0.08298488
0.55381495 3.1059616 -0.61326015 47 2 -0.08298257
1.1507236 6.4470949 0.57296187 2 10 -0.082980268
1.1491004 6.425036 0.80141288 1 11 -0.082975663
1.0032957 5.6041446 -0.69904256 69 4 -0.082973354
1.1547709 6.4437442 1.0368477 1 12 -0.082971051
0.5661912 3.1594074 -0.28081581 33 5 -0.082968749
1.6153902 9.005022 1.77834 3 13 -0.082966447
0.57432699 3.1983843 -0.17030121 43 6 -0.082964137
0.98302346 5.4634223 -0.096895754 40 7 -0.082959533
1.0964699 6.0878353 1.6574773 95 15 -0.082957231
0.64055693 3.5317614 -0.96177161 111 0 -0.082936496
1.1659232 6.4220271 0.11392931 20 8 -0.082934186
0.64809549 3.566246 -0.83681792 121 1 -0.082931884
1.163167 6.394146 0.34060243 6 9 -0.082929581
0.56816792 3.1233251 -0.61707634 59 2 -0.082927279
1.1675118 6.4116759 0.57017285 2 10 -0.082924969
1.1679597 6.4014564 0.79897547 1 11 -0.082920365
0.6633566 3.6321936 -0.453354 11 4 -0.082918063
1.1772522 6.4396749 1.0368477 1 12 -0.082915753
0.57040644 3.1201742 -0.27750388 50 5 -0.082913451
1.6439892 8.9838791 1.775287 10 13 -0.082911149
0.5937655 3.2415452 -0.17270868 46 6 -0.082908846
0.99775809 5.4363551 -0.096476905 37 7 -0.082904235
1.1180644 6.0858707 1.6579949 100 15 -0.082901932
0.65217596 3.5257051 -0.96073633 115 0 -0.082881197
1.1828707 6.3884244 0.11340573 22 8 -0.082878895
0.66125125 3.5677938 -0.83771771 124 1 -0.082876585
1.1862038 6.3939748 0.34081176 6 9 -0.082874283
0.5801391 3.1271143 -0.61822122 60 2 -0.082871981
1.1927946 6.423233 0.57156736 2 10 -0.082869679
0.5776009 3.1073763 -0.50059032 51 3 -0.082867369
1.1968358 6.4324694 0.80336279 1 11 -0.082865067
1.1993635 6.4335847 1.0365349 1 12 -0.082860462
0.58239061 3.1240396 -0.27802682 46 5 -0.082858153
1.6706592 8.9529953 1.770326 1 13 -0.08285585
0.60727656 3.2512329 -0.17333671 47 6 -0.082853548
1.0174655 5.43677 -0.09654671 30 7 -0.082848944
1.1385885 6.0781336 1.6569597 100 15 -0.082846634
0.66555405 3.5291021 -0.96228927 84 0 -0.082825899
1.205165 6.3842559 0.11340573 22 8 -0.082823597
0.67008227 3.5463157 -0.83321869 129 1 -0.082821295
1.2062898 6.3841186 0.34049776 4 9 -0.082818985
0.59433562 3.142431 -0.62165576 54 2 -0.082816683
1.214469 6.4151144 0.57121873 2 10 -0.082814381
0.58550125 3.0898147 -0.49808741 46 3 -0.082812078
1.2192775 6.4282532 0.80336279 1 11 -0.082809769
0.59131753 3.114557 -0.38925073 56 4 -0.082807466
1.2162716 6.4062824 1.0327804 1 12 -0.082805164
0.60147464 3.1650498 -0.28186166 47 5 -0.082802862
0.61974329 3.2549787 -0.17365071 46 6 -0.08279825
1.2222949 6.4135723 -0.11396421 47 7 -0.082793646
1.160185 6.0819154 1.6590302 100 15 -0.082791343
1.227083 6.3841519 0.11347555 27 8 -0.082768299
0.68146968 3.5421603 -0.8327688 47 1 -0.082765996
1.2312126 6.3935966 0.34123048 2 9 -0.082763694
0.60567361 3.1422651 -0.62203735 39 2 -0.082761392
1.2466633 6.4617014 0.57575083 2 10 -0.082759082
0.601731 3.11889 -0.5030933 43 3 -0.08275678
1.2375783 6.4085813 0.80141288 1 11 -0.082754478
0.59900475 3.0989356 -0.38754454 50 4 -0.082752176
1.2356203 6.3864837 1.0302775 1 12 -0.082749866
0.61933833 3.1981394 -0.28499928 51 5 -0.082747564
1.7267052 8.9163609 1.765365 2 13 -0.082745261
0.63395381 3.2705529 -0.17459276 56 6 -0.082742959
1.245055 6.4112306 -0.11399912 52 7 -0.082738347
1.180672 6.0740352 1.6579949 100 15 -0.082736045
0.74483097 3.8069799 -1.0394174 9 0 -0.08271531
1.250512 6.3857179 0.11358026 30 8 -0.082713008
1.250833 6.3755407 0.34049776 4 9 -0.082708396
0.60059446 3.0612514 -0.60639101 21 2 -0.082706094
1.2581042 6.4067001 0.57121873 2 10 -0.082703792
0.6171869 3.1400297 -0.50684774 46 3 -0.082701482
2.1880388 11.121687 1.391748 1 11 -0.08269918
0.61863905 3.141623 -0.39315054 29 4 -0.082696877
1.2655473 6.4208932 1.0365349 1 12 -0.082694575
0.63379252 3.2156162 -0.28674239 51 5 -0.082692266
1.7570606 8.9064255 1.7646016 7 13 -0.082689963
0.6500085 3.2918334 -0.17584883 56 6 -0.082687661
1.2639359 6.3891902 -0.11368498 60 7 -0.082683049
1.203367 6.0774579 1.6600655 100 15 -0.082680747
0.75660259 3.7967789 -1.0373468 8 0 -0.082660012
1.274752 6.391118 0.11375479 22 8 -0.08265771
0.60050416 3.007961 -0.70814592 1 1 -0.082655407
1.2758152 6.3848462 0.34123048 4 9 -0.082653098
0.60935098 3.049511 -0.60448295 28 2 -0.082650796
1.290621 6.4530649 0.57575083 2 10 -0.082648493
0.63318545 3.1630366 -0.51091504 55 3 -0.082646191
2.2268398 11.113983 1.391748 1 11 -0.082643881
0.63545734 3.1686392 -0.3968066 7 4 -0.082641579
1.2786242 6.3699546 1.029026 1 12 -0.082639277
0.64658254 3.2211976 -0.28743961 51 5 -0.082636975
1.7892977 8.9060135 1.7657466 29 13 -0.082634665
0.66503984 3.3071666 -0.17679088 57 6 -0.082632363
1.2854394 6.3808184 -0.11361516 60 7 -0.082627758
1.223048 6.0656443 1.6579949 100 15 -0.082625449
0.77023631 3.7960079 -1.0378644 9 0 -0.082604714
1.2930722 6.3670335 0.11340573 35 8 -0.082602412
0.60905868 2.9962983 -0.70589644 4 1 -0.082600109
1.2976981 6.378396 0.34112579 8 9 -0.082597807
0.61803585 3.037746 -0.60257488 29 2 -0.082595497
1.3131373 6.4485211 0.57575083 2 10 -0.082593195
0.64737791 3.1762919 -0.51341796 52 3 -0.082590893
2.2656243 11.106142 1.391748 1 11 -0.082588591
0.66359127 3.2500353 -0.40728739 1 4 -0.082586281
1.3103428 6.4119015 1.0365349 1 12 -0.082583979
0.66181123 3.2384417 -0.28918275 54 5 -0.082581677
0.67938489 3.3185217 -0.17752358 55 6 -0.082577065
1.310114 6.3880463 -0.1138246 87 7 -0.08257246
1.2434384 6.0575533 1.6569597 100 15 -0.082570158
0.78543514 3.8027556 -1.0404526 8 0 -0.082549423
1.3144785 6.3585644 0.11333593 27 8 -0.082547113
0.64123136 3.0991113 -0.73064101 1 1 -0.082544811
1.3207638 6.3777394 0.34133515 12 9 -0.082542509
0.62823701 3.0336478 -0.60219324 31 2 -0.082540207
1.318657 6.361959 0.56842977 2 10 -0.082537897
0.66207349 3.1914203 -0.5162338 57 3 -0.082535595
2.3043756 11.098166 1.391748 1 11 -0.082533292
1.3327181 6.4072881 1.0365349 1 12 -0.082528681
0.67716962 3.2556179 -0.29092586 58 5 -0.082526378
0.69218606 3.321996 -0.1778376 57 6 -0.082521774
1.3328146 6.3853908 -0.1138595 106 7 -0.082517162
1.2633892 6.0475035 1.6554067 100 15 -0.08251486
0.80108964 3.8113339 -1.0435584 8 0 -0.082494125
1.337491 6.357851 0.11340573 37 8 -0.082491823
0.92426544 4.3897529 -1.0356746 8 1 -0.082489513
1.3413726 6.3652725 0.34091645 8 9 -0.082487211
0.63679922 3.0218308 -0.60028511 30 2 -0.082484908
1.3474338 6.3885093 0.57121873 2 10 -0.082482606
0.67728895 3.2084174 -0.51936251 57 3 -0.082480296
1.3410273 6.3471622 0.79653811 1 11 -0.082477994
1.3509841 6.3832717 1.0334063 1 12 -0.08247339
0.69100428 3.2649298 -0.29197174 62 5 -0.082471088
0.70584828 3.3293288 -0.17836095 56 6 -0.082466476
1.3567562 6.388525 -0.11399912 127 7 -0.082461871
1.2840884 6.0411673 1.6548891 100 15 -0.082459562
0.81479388 3.8104036 -1.0440761 8 0 -0.082438827
1.3630226 6.3687873 0.11368498 42 8 -0.082436524
0.94203305 4.397933 -1.0383741 8 1 -0.082434222
1.3665158 6.3742213 0.34164914 2 9 -0.08243192
0.64322901 3.0003932 -0.59646893 30 2 -0.08242961
1.3805919 6.4344168 0.57575083 2 10 -0.082427308
0.69263268 3.2253473 -0.52249116 58 3 -0.082425006
1.3698506 6.3734946 0.80043793 1 11 -0.082422704
1.3657756 6.3437562 1.0277746 1 12 -0.082418092
0.70910722 3.2936621 -0.29476073 60 5 -0.082415789
0.71999103 3.3385589 -0.17898898 55 6 -0.082411177
1.3760939 6.3700666 -0.11375479 136 7 -0.082406573
1.3092494 6.0555305 1.6600655 100 15 -0.082404271
0.82808894 3.8075364 -1.0440761 9 0 -0.082383536
1.3852471 6.3639898 0.11368498 37 8 -0.082381226
0.96028161 4.4079461 -1.0415233 7 1 -0.082378924
1.3866286 6.3596554 0.34112579 6 9 -0.082376622
0.64993364 2.9808657 -0.59303439 28 2 -0.082374319
1.3775587 6.3127632 0.56529218 2 10 -0.08237201
0.70725822 3.238349 -0.52499413 57 3 -0.082369708
1.390393 6.3609176 0.79946297 1 11 -0.082367405
1.3853749 6.3273726 1.0258973 1 12 -0.082362793
0.71804237 3.279489 -0.29371485 62 5 -0.082360491
0.73420846 3.3477306 -0.17961702 56 6 -0.082355887
1.3983198 6.3652248 -0.11375479 130 7 -0.082351275
1.3283064 6.0414886 1.6574773 100 15 -0.082348973
0.84220988 3.8083944 -1.0451113 8 0 -0.082328238
1.4039947 6.3434963 0.11340573 30 8 -0.082325935
0.98240465 4.4350095 -1.0487218 7 1 -0.082323626
1.408389 6.3528261 0.34102112 4 9 -0.082321323
0.65821099 2.9689951 -0.59112626 23 2 -0.082319021
1.4073529 6.3429279 0.56842977 2 10 -0.082316719
0.71727252 3.2300756 -0.52405554 25 3 -0.082314409
1.4108673 6.3482738 0.79848802 1 11 -0.082312107
1.413461 6.349493 1.0302775 1 12 -0.082307503
0.73121655 3.2847419 -0.29441211 63 5 -0.082305193
0.74980265 3.3626916 -0.18055905 57 6 -0.082300588
1.420096 6.3583531 -0.11371988 105 7 -0.082295984
1.3506529 6.0424709 1.6590302 100 15 -0.082293674
0.85416943 3.8057301 -1.0451113 8 0 -0.082275152
1.4239182 6.3390541 0.11340573 30 8 -0.08227285
0.99120277 4.4090858 -1.0433229 7 1 -0.082270548
1.4305309 6.3581133 0.34154451 10 9 -0.082268238
0.66796553 2.9688282 -0.59150791 2 2 -0.082265936
1.4237732 6.3229251 0.56703526 2 10 -0.082263634
1.4342968 6.359302 0.80043793 1 11 -0.082259022
1.4377531 6.3642893 1.0334063 1 12 -0.082254417
0.74737859 3.3056188 -0.29650384 62 5 -0.082252115
0.76036245 3.3603196 -0.18055905 58 6 -0.082247503
1.4413891 6.3597116 -0.1138246 90 7 -0.082242899
1.3679187 6.0306625 1.6569597 100 15 -0.082240589
0.87026143 3.8119912 -1.0476996 8 0 -0.082219854
1.4460356 6.3340454 0.11340573 37 8 -0.082217552
1.0070226 4.4074993 -1.0437729 8 1 -0.08221525
1.4496014 6.3394513 0.34081176 12 9 -0.082212947
1.4504954 6.3332014 0.56842977 2 10 -0.082208335
1.46181 6.3774753 0.80336279 1 11 -0.082203731
1.4643817 6.3784847 1.0365349 1 12 -0.082199119
0.76337522 3.3224075 -0.29824695 61 5 -0.082196817
0.77401662 3.3633494 -0.18087308 54 6 -0.082192205
1.4662744 6.366333 -0.11403403 96 7 -0.0821876
1.3872246 6.0183215 1.6548891 121 15 -0.082185298
0.88618279 3.8202214 -1.0508054 8 0 -0.082164563
1.4710518 6.336494 0.11354536 37 8 -0.082162254
1.0280204 4.4246583 -1.0487218 7 1 -0.082159951
1.4699091 6.3265724 0.3403931 12 9 -0.082157649
1.4807236 6.363029 0.57156736 2 10 -0.082153037
1.4734579 6.3218098 0.79702556 1 11 -0.082148433
1.4758701 6.3271642 1.029026 1 12 -0.082143821
0.77858913 3.3352451 -0.29964143 58 5 -0.082141519
0.7893908 3.3761854 -0.18171045 52 6 -0.082136914
1.4857501 6.3494945 -0.1138246 99 7 -0.082132302
1.4121897 6.0303702 1.6595478 136 15 -0.08213
0.89685112 3.8058231 -1.0476996 8 0 -0.082109265
1.4943454 6.3413138 0.11371988 32 8 -0.082106963
1.0458199 4.4345016 -1.0518711 9 1 -0.082104653
1.4947382 6.3330655 0.34102112 8 9 -0.082102351
1.4965074 6.3306766 0.56912696 2 10 -0.082097746
1.5008104 6.3439336 0.80043793 1 11 -0.082093135
0.779773 3.2935321 -0.41557449 1 4 -0.082090832
1.4997675 6.3296628 1.0302775 1 12 -0.08208853
0.78838861 3.3247519 -0.29894418 62 5 -0.082086228
0.80519491 3.3929818 -0.18275717 56 6 -0.082081616
1.5051322 6.3325958 -0.11361516 73 7 -0.082077011
1.4305503 6.0141273 1.6564419 133 15 -0.082074702
0.90991712 3.8047066 -1.0482172 6 0 -0.082053967
1.5113533 6.3146663 0.11333593 27 8 -0.082051665
1.0649256 4.4459853 -1.0554703 2 1 -0.082049362
1.5191623 6.3375211 0.34154451 10 9 -0.082047053
1.5174912 6.3256793 0.56912696 2 10 -0.082042448
0.68848616 2.8677499 -0.46711335 1 3 -0.082040146
1.5285094 6.3618188 0.80336279 1 11 -0.082037844
0.79822379 3.3197417 -0.41923055 10 4 -0.082035534
1.5200061 6.3167062 1.029026 1 12 -0.082033232
0.80278909 3.333602 -0.29999006 61 5 -0.08203093
0.81796724 3.3940344 -0.18296652 56 6 -0.082026318
1.5295756 6.3370228 -0.11378969 67 7 -0.082021713
1.4547062 6.0222435 1.6600655 105 15 -0.082019411
0.93571877 3.8501532 -1.0616758 0 0 -0.081998669
1.5348047 6.3151813 0.11344065 30 8 -0.081996366
1.5408044 6.3302383 0.34143981 12 9 -0.081991762
1.5397238 6.3162036 0.5687784 2 10 -0.08198715
0.79262757 3.2490261 -0.52968717 1 3 -0.081984848
1.5403579 6.3140159 0.79800051 1 11 -0.081982546
0.81122035 3.3227203 -0.41996178 27 4 -0.081980243
1.5532972 6.3574166 1.0365349 1 12 -0.081977934
0.81631279 3.3385208 -0.30068728 65 5 -0.081975631
0.83182758 3.3968332 -0.18328053 57 6 -0.081971027
1.5526371 6.3355289 -0.1138595 66 7 -0.081966415
1.4757204 6.0171285 1.6600655 76 15 -0.081964113
0.3947472 1.5998901 -0.44154531 1 0 -0.081943378
1.55746 6.3075719 0.11340573 27 8 -0.081941076
1.560977 6.3170652 0.34102112 10 9 -0.081936464
0.72579515 2.9350026 -0.58769172 1 2 -0.081934161
1.5636752 6.3185267 0.56947559 2 10 -0.081931859
0.81868601 3.3056803 -0.53938609 12 3 -0.08192955
1.5644435 6.3121824 0.79848802 1 11 -0.081927247
0.82673776 3.3332119 -0.42166796 65 4 -0.081924945
1.5849888 6.3903017 1.0427923 1 12 -0.081922643
0.83132225 3.3491871 -0.30190748 68 5 -0.081920333
0.84608805 3.4036002 -0.18380389 61 6 -0.081915729
1.5757101 6.333952 -0.11392931 59 7 -0.081911117
1.4981139 6.0175643 1.6616182 28 15 -0.081908815
0.39939123 1.5947545 -0.44051 22 0 -0.08188808
1.5793414 6.306252 0.11347555 22 8 -0.081885777
0.39653096 1.5821618 -0.37656805 4 1 -0.081883475
1.5854461 6.3212643 0.34154451 10 9 -0.081881166
1.5905769 6.3323526 0.57121873 2 10 -0.081876561
1.58924 6.3223605 0.80043793 1 11 -0.081871949
1.5976425 6.3464174 1.0365349 1 12 -0.081867345
0.84787452 3.3655851 -0.30365062 61 5 -0.081865042
0.85981238 3.410459 -0.18432724 54 6 -0.081860431
1.5958507 6.3206582 -0.11378969 40 7 -0.081855826
1.5181651 6.0085521 1.660583 20 15 -0.081853524
0.39944628 1.5728247 -0.434816 56 0 -0.081832781
1.6038061 6.3103909 0.11365007 20 8 -0.081830479
0.40301171 1.5845454 -0.37746787 43 1 -0.081828177
1.6055298 6.3079495 0.34112579 6 9 -0.081825875
0.40387064 1.5867633 -0.31826943 9 2 -0.081823565
1.6076344 6.3115969 0.56982422 2 10 -0.081821263
0.41521618 1.6289598 -0.26625147 9 3 -0.081818961
1.6063915 6.2975397 0.79800051 1 11 -0.081816658
1.6197846 6.3408027 1.0365349 1 12 -0.081812046
1.6372017 6.4043221 1.2849078 1 13 -0.081807442
0.87270284 3.4113069 -0.18453661 15 6 -0.08180514
1.5357728 5.9901166 1.6569597 18 15 -0.081798226
0.40975431 1.5901283 -0.4399924 65 0 -0.081777491
0.4114624 1.5944502 -0.38016728 51 1 -0.081772879
1.6270382 6.3003736 0.34102112 2 9 -0.081770577
0.40793398 1.579641 -0.31712458 54 2 -0.081768274
1.6276609 6.2982316 0.56912696 2 10 -0.081765965
0.41644889 1.6102884 -0.26343569 66 3 -0.081763662
1.642289 6.3457041 0.80482519 1 11 -0.08176136
0.41856423 1.6161404 -0.20498425 11 4 -0.081759058
1.6419098 6.3351092 1.0365349 1 12 -0.081756756
0.42738402 1.6490091 -0.14903632 1 5 -0.081754446
1.5503496 5.9604139 1.6502303 28 15 -0.081742927
0.41334844 1.581212 -0.43792182 62 0 -0.081722192
0.41406411 1.5816932 -0.37746787 56 1 -0.081717581
0.41493851 1.583905 -0.31826943 54 2 -0.081712976
0.41755557 1.5916286 -0.26061985 63 3 -0.081708372
1.6694721 6.3591328 0.8072626 1 11 -0.081706062
0.42319471 1.6108295 -0.20449677 56 4 -0.08170376
1.6640123 6.32934 1.0365349 1 12 -0.081701458
0.42148554 1.6031885 -0.14502715 12 5 -0.081699155
0.42612845 1.6185478 -0.087715074 7 6 -0.081694543
0.4384287 1.662913 -0.030018138 16 7 -0.081689939
1.5681903 5.9437575 1.6471245 41 15 -0.081687629
0.41985607 1.5834942 -0.43895712 60 0 -0.081666894
0.41958311 1.580238 -0.37746787 58 1 -0.08166229
0.42096937 1.5843441 -0.31865105 55 2 -0.081657678
0.42260131 1.5882521 -0.26030698 64 3 -0.081653073
0.42676944 1.60167 -0.20352182 72 4 -0.081648462
0.42553964 1.595932 -0.14450422 90 5 -0.081643857
0.42662212 1.5977542 -0.086668357 59 6 -0.081639245
0.43183398 1.6150085 -0.029180422 100 7 -0.081634641
1.5874263 5.9326501 1.6455716 48 15 -0.081632338
0.42688549 1.5876157 -0.44051 61 0 -0.081611603
0.43021351 1.5988801 0.028901186 25 8 -0.081609294
0.42509708 1.5787636 -0.37746787 56 1 -0.081606992
0.42841095 1.591071 0.086354338 3 9 -0.081604689
0.42751843 1.5866565 -0.31941426 62 2 -0.081602387
0.42917243 1.5905815 -0.26093271 60 3 -0.081597775
0.4271802 1.5810068 -0.20108443 63 4 -0.081593171
0.43266839 1.6002066 -0.14502715 96 5 -0.081588559
0.42958722 1.5866159 -0.086144991 95 6 -0.081583954
0.43404993 1.6019868 -0.028970996 100 7 -0.081579342
1.6096203 5.936676 1.6481597 56 15 -0.08157704
0.42683563 1.5656139 -0.434816 62 0 -0.081556305
0.42657197 1.5646468 0.028307803 100 8 -0.081554003
0.42981613 1.5754656 -0.37701797 53 1 -0.081551693
0.4344871 1.591493 0.086459011 44 9 -0.081549391
0.43046778 1.575685 -0.31750616 68 2 -0.081547089
0.4339827 1.5874611 0.14398128 8 10 -0.081544787
0.43600702 1.5948659 -0.26187131 57 3 -0.081542477
0.43790659 1.6007191 0.20376556 1 11 -0.081540175
0.43504184 1.5891546 -0.20230313 65 4 -0.081537873
0.43403652 1.583315 -0.14363267 77 5 -0.081533261
0.43643183 1.5909607 -0.086459011 89 6 -0.081528656
0.43804911 1.5946773 -0.02886628 100 7 -0.081524052
0.43099609 1.5604657 -0.43378076 72 0 -0.081501007
0.43629161 1.578568 0.028587043 100 8 -0.081498705
0.43739122 1.5814686 -0.37881759 55 1 -0.081496403
0.43737659 1.5803421 0.085935652 86 9 -0.081494093
0.4351666 1.5723568 -0.31712458 65 2 -0.081491791
0.43552101 1.5725728 0.14276111 52 10 -0.081489488
0.43418524 1.5666837 -0.25749114 59 3 -0.081487186
0.44243091 1.5953549 0.20327808 22 11 -0.081484877
0.44270855 1.5952778 -0.20327808 61 4 -0.081482574
0.44187677 1.5911998 0.26155844 13 12 -0.081480272
0.44035128 1.5857064 -0.14398128 75 5 -0.08147797
0.45153096 1.6248646 0.32780987 1 13 -0.081475668
0.44519356 1.600973 -0.087087035 85 6 -0.081473358
0.44254047 1.5892857 -0.028796472 100 7 -0.081468754
0.43487772 1.5533708 -0.43222782 66 0 -0.081445709
0.44126013 1.5751096 0.028552137 100 8 -0.081443407
0.4376491 1.5611678 -0.37431854 61 1 -0.081441104
0.44936344 1.6018821 0.087191716 100 9 -0.081438802
0.44171271 1.574609 -0.31788781 69 2 -0.0814365
0.44208503 1.5748793 0.14310972 71 10 -0.08143419
0.43858334 1.5613549 -0.25686541 55 3 -0.081431888
0.44262508 1.5746907 0.2008407 61 11 -0.081429586
0.44343737 1.5765243 -0.20108443 54 4 -0.081427284
0.44314718 1.5744355 0.25905553 52 12 -0.081424974
0.44480449 1.5803237 -0.14363267 82 5 -0.081422672
0.44868374 1.5930429 0.321704 33 13 -0.081420369
0.44861102 1.5917202 -0.086668357 85 6 -0.081418067
0.45491174 1.6129947 0.3869158 5 14 -0.081415758
0.45243019 1.6031276 -0.02907571 100 7 -0.081413455
0.46360233 1.6416186 0.45707443 1 15 -0.081411153
0.44451618 1.5667112 -0.43636894 68 0 -0.081390418
0.44566375 1.5697123 0.028482327 100 8 -0.081388116
0.44202968 1.555882 -0.37341875 59 1 -0.081385806
0.44566798 1.5676445 0.085412286 80 9 -0.081383504
0.44774371 1.5749459 -0.31826943 61 2 -0.081381202
0.45085108 1.5848246 0.14415559 73 10 -0.0813789
0.44402975 1.5598147 -0.25686541 57 3 -0.08137659
0.45029479 1.5807724 0.20181565 69 11 -0.081374288
0.44784984 1.5711484 -0.20059694 70 4 -0.081371985
0.45026472 1.5785782 0.25999412 62 12 -0.081369683
0.44922405 1.5749298 -0.14328404 77 5 -0.081367373
0.45316449 1.5876911 0.32094073 58 13 -0.081365071
0.45197082 1.5824625 -0.086249664 87 6 -0.081362769
0.45464844 1.5907861 0.38196689 48 14 -0.081360467
0.45692411 1.5976931 -0.0290059 100 7 -0.081358157
0.45604238 1.593558 0.44413349 18 15 -0.081355855
0.44891515 1.5614365 -0.43533364 68 0 -0.08133512
0.45335153 1.5758343 0.028621947 100 8 -0.081332818
0.4506931 1.5655655 -0.37611815 61 1 -0.081330515
0.45169064 1.5679983 0.085516959 83 9 -0.081328206
0.45052174 1.5639405 -0.31636134 72 2 -0.081325904
0.4552764 1.5794123 0.14380698 78 10 -0.081323601
0.45111465 1.5639492 -0.25780404 60 3 -0.081321299
0.45525989 1.5772835 0.20157191 77 11 -0.081318989
0.45278028 1.5676686 -0.20035322 59 4 -0.081316687
0.45467576 1.5732014 0.25936839 62 12 -0.081314385
0.45471928 1.573352 -0.14328404 82 5 -0.081312083
0.45979509 1.5898714 0.321704 62 13 -0.081309773
0.4541603 1.5693641 -0.085621633 94 6 -0.081307471
0.45694593 1.5779586 0.37926748 63 14 -0.081305169
0.45582005 1.5730401 -0.028587043 100 7 -0.081302866
0.46267778 1.5956674 0.44516876 46 15 -0.081300557
0.4511202 1.5487318 -0.43222782 66 0 -0.081279822
0.45437324 1.5588834 0.028342709 100 8 -0.081277519
0.45506364 1.5602412 -0.37521836 59 1 -0.081275217
0.45660058 1.5644951 0.085412286 74 9 -0.081272915
0.45625049 1.5622789 -0.31636134 72 2 -0.081270605
0.4591116 1.5720758 0.14328404 74 10 -0.081268303
0.45878789 1.5699492 -0.25905553 60 3 -0.081266001
0.46354827 1.5852114 0.2027906 79 11 -0.081263699
0.45825011 1.5660784 -0.20035322 67 4 -0.081261389
0.45960978 1.5697087 0.25905553 73 12 -0.081259087
0.45712206 1.5602026 -0.14223817 79 5 -0.081256784
0.46561882 1.5881757 0.321704 61 13 -0.081254482
0.45990965 1.5676888 -0.085621633 89 6 -0.081252173
0.46354881 1.5800936 0.38016728 67 14 -0.08124987
0.46187112 1.5733583 -0.028621947 100 7 -0.081247568
0.46715638 1.5903354 0.44413349 53 15 -0.081245266
0.46062341 1.5600373 -0.43585131 68 0 -0.081224531
0.45895025 1.5533724 0.028272899 100 8 -0.081222221
0.462437 1.5641689 -0.37656805 58 1 -0.081219919
0.46006572 1.5551502 0.084993601 77 9 -0.081217617
0.46141586 1.5587138 -0.31597972 68 2 -0.081215315
0.46317354 1.5646514 0.14276111 78 10 -0.081213005
0.46061137 1.554999 -0.25686541 59 3 -0.081210703
0.46766251 1.5777922 0.20205939 75 11 -0.0812084
0.46793789 1.5777105 -0.20205939 65 4 -0.081206098
0.46367356 1.5623325 0.2581169 63 12 -0.081203789
0.46397221 1.5623363 -0.14258678 75 5 -0.081201486
0.46752164 1.573285 0.31903264 57 13 -0.081199184
0.47020614 1.581308 -0.086459011 89 6 -0.081196882
0.46878123 1.5765162 0.37971738 70 14 -0.08119458
0.46478367 1.5620716 -0.028447423 100 7 -0.08119227
0.46912292 1.5756518 0.44051 57 15 -0.081189968
0.46966159 1.5694429 -0.43895712 88 0 -0.081169233
0.46005118 1.5363547 0.02799366 97 8 -0.08116693
0.46704859 1.55873 -0.37566826 66 1 -0.081164621
0.46893144 1.5650138 0.085621633 77 9 -0.081162319
0.46910965 1.5646156 -0.31750616 68 2 -0.081160016
0.4671872 1.5572183 0.14223817 86 10 -0.081157714
0.466308 1.5533001 -0.25686541 55 3 -0.081155404
0.46944499 1.5627592 0.20035322 83 11 -0.081153102
0.473717 1.5759848 -0.20205939 72 4 -0.0811508
0.46798667 1.5569209 0.25749114 70 12 -0.081148498
0.46942261 1.5607073 -0.14258678 75 5 -0.081146196
0.47131363 1.5660036 0.31788781 54 13 -0.081143886
0.47341901 1.5720075 -0.086040318 87 6 -0.081141584
0.47455671 1.5747873 0.37971738 63 14 -0.081139281
0.47657982 1.5815009 -0.028831376 100 7 -0.081136979
0.4768514 1.5814029 0.44258058 56 15 -0.081134669
0.47513679 1.5677941 -0.43895712 93 0 -0.081113935
0.47152358 1.5558717 0.028377613 100 8 -0.081111632
0.47391123 1.5627674 -0.37701797 89 1 -0.08110933
0.46859175 1.5442555 0.084574915 78 9 -0.081107028
0.47799039 1.5742402 -0.31979591 74 2 -0.081104718
0.47377884 1.5593905 0.14258678 86 10 -0.081102416
0.47719854 1.570646 -0.25999412 81 3 -0.081100114
0.47289222 1.5554962 0.19962201 88 11 -0.081097811
0.47720778 1.5687077 -0.20132817 58 4 -0.081095502
0.47571987 1.5628369 0.25874263 73 12 -0.0810932
0.47835049 1.5704951 -0.14363267 74 5 -0.081090897
0.47478768 1.5587978 0.31674296 59 13 -0.081088595
0.47630072 1.5627868 -0.085621633 81 6 -0.081086285
0.47465989 1.5564291 0.37566826 59 14 -0.081083983
0.48034608 1.5740898 -0.02872666 100 7 -0.081081681
0.48349667 1.5834242 0.44361585 53 15 -0.081079379
0.48259857 1.5735976 -0.44102767 91 0 -0.081058644
0.47929874 1.5618629 0.028517231 100 8 -0.081056334
0.48050788 1.5648292 -0.37791777 89 1 -0.081054032
0.47488314 1.5465117 0.084784262 77 9 -0.08105173
0.47974807 1.5613863 -0.31750616 99 2 -0.081049427
0.48011884 1.5616196 0.14293543 86 10 -0.081047118
0.4855828 1.5784109 -0.26155844 90 3 -0.081044815
0.4789027 1.5557333 0.19986574 83 11 -0.081042513
0.48501852 1.5746207 -0.20230313 87 4 -0.081040211
0.47799274 1.5518113 0.25717828 70 12 -0.081037901
0.48707724 1.5803241 -0.14467853 72 5 -0.081035599
0.48311856 1.5665114 0.31865105 62 13 -0.081033297
0.48528701 1.5725653 -0.086249664 83 6 -0.081030995
0.48181528 1.5603486 0.37701797 63 14 -0.081028685
0.48084387 1.5572028 -0.028447423 100 7 -0.081026383
0.48532274 1.5707377 0.44051 55 15 -0.081024081
0.48350587 1.5571436 -0.43688658 93 0 -0.081003346
0.48566109 1.5640845 0.028587043 89 8 -0.081001043
0.4862715 1.5650885 -0.37836766 83 1 -0.080998734
0.48027822 1.5448445 0.084784262 75 9 -0.080996431
0.48694536 1.5653261 -0.31865105 90 2 -0.080994129
0.4820137 1.5485201 0.14188954 86 10 -0.080991827
0.49198824 1.5805644 -0.2621842 93 3 -0.080989517
0.48642081 1.5617177 0.2008407 83 11 -0.080987215
0.49023715 1.5730039 -0.20230313 100 4 -0.080984913
0.48223016 1.5463619 0.25655255 68 12 -0.080982611
0.48784244 1.5633987 -0.14328404 91 5 -0.080980301
0.48831105 1.5649005 0.31865105 61 13 -0.080977999
0.49407041 1.5823865 -0.086877696 75 6 -0.080975696
0.48756772 1.5606024 0.37746787 72 14 -0.080973394
0.49343613 1.578418 -0.02886628 99 7 -0.080971092
0.48849615 1.561659 0.43843949 60 15 -0.080968782
0.48866734 1.5555315 -0.43688658 97 0 -0.080945492
0.48452127 1.5413955 0.028203089 73 8 -0.08094319
0.49348629 1.5689584 -0.37971738 86 1 -0.080940887
0.49046493 1.5583996 0.085621633 72 9 -0.080938578
0.49331266 1.567448 -0.31941426 90 2 -0.080936275
0.48535049 1.5412122 0.14136662 76 10 -0.080933973
0.49275267 1.5637649 -0.25968125 90 3 -0.080931671
0.49306348 1.5637965 0.20132817 83 11 -0.080929361
0.49691918 1.5750693 -0.2027906 100 4 -0.080927059
0.49119267 1.5559719 0.25842977 68 12 -0.080924757
0.49542302 1.5693725 -0.14398128 100 5 -0.080922455
0.49199703 1.5575702 0.31750616 63 13 -0.080920145
0.49718374 1.5730345 -0.086459011 100 6 -0.080917843
0.49242434 1.5570331 0.37701797 63 14 -0.08091554
0.5031665 1.5900316 -0.029110614 100 7 -0.080913238
0.49277848 1.5562606 0.43740419 56 15 -0.080910929
0.49643481 1.5611807 -0.43895712 93 0 -0.080890194
0.49717495 1.5625615 0.028621947 100 8 -0.080887891
0.497778 1.5635123 -0.37881759 86 1 -0.080885589
0.4971132 1.5604844 0.085830979 75 9 -0.080883287
0.49997184 1.569458 -0.32017753 90 2 -0.080880977
0.4943583 1.5508981 0.14241248 76 10 -0.080878675
0.49700814 1.5582714 -0.25905553 90 3 -0.080876373
0.49489689 1.5507195 0.19986574 83 11 -0.080874071
0.50603783 1.5846711 -0.20425305 93 4 -0.080871761
0.49481773 1.5486026 0.25749114 73 12 -0.080869459
0.50029212 1.5657355 -0.14380698 100 5 -0.080867156
0.49683201 1.5539736 0.31712458 59 13 -0.080864854
0.49962851 1.5617781 -0.085935652 100 6 -0.080862544
0.49845091 1.5571605 0.37746787 65 14 -0.080860242
