# .PCD v0.7 - Point Cloud Data file format
VERSION 0.7
FIELDS x y z intensity ring time
SIZE 4 4 4 4 2 4
TYPE F F F F U F
COUNT 1 1 1 1 1 1
WIDTH 904
HEIGHT 1
VIEWPOINT 0 0 0 1 0 0 0
POINTS 904
DATA ascii
-1.3918266 -0.27811432 -0.17427318 46 4 -0.072668329
-2.0049512 -0.40026531 0.3238194 27 12 -0.072666019
-1.3872708 -0.27670044 -0.12376115 61 5 -0.072663717
-2.9053233 -0.57948619 0.57586157 49 13 -0.072661415
-1.3769985 -0.27440172 -0.073584363 53 6 -0.072659113
-2.8859563 -0.57457674 0.67935222 82 14 -0.072656803
-1.4023094 -0.27893665 -0.024956942 54 7 -0.072654501
-2.8952506 -0.57537585 0.79095107 87 15 -0.072652198
-1.4024894 -0.27693745 -0.3830522 58 0 -0.072631463
-1.3909746 -0.2744115 0.024747513 53 8 -0.072629161
-1.3861684 -0.27321199 -0.32617903 48 1 -0.072626851
-1.3736984 -0.27050513 0.073375016 57 9 -0.072624549
-1.3946143 -0.27462384 -0.27629143 49 2 -0.072622247
-1.3879904 -0.27306786 0.12376115 60 10 -0.072619945
-1.4071984 -0.27659169 -0.22714287 47 3 -0.072617635
-1.3888456 -0.27273226 0.1737857 60 11 -0.072615333
-1.3927889 -0.27325454 -0.17427318 49 4 -0.072613031
-2.0218444 -0.3963035 0.32632235 23 12 -0.072610728
-1.4077326 -0.27593091 -0.12550427 58 5 -0.072608419
-2.9150352 -0.57085037 0.57738805 49 13 -0.072606117
-1.3897085 -0.27189466 -0.074212395 51 6 -0.072603814
-2.8783817 -0.5626294 0.67710268 74 14 -0.072601512
-1.4032745 -0.27403995 -0.024956942 60 7 -0.072599202
-2.8972414 -0.56526667 0.79095107 91 15 -0.0725969
-1.4072407 -0.27277538 -0.38408747 58 0 -0.072576165
-1.3958503 -0.27031475 0.024817321 52 8 -0.072573863
-1.404333 -0.27170283 -0.33022815 47 1 -0.072571561
-1.3864 -0.26798257 0.074003048 57 9 -0.072569251
-1.4032748 -0.27124438 -0.2778179 49 2 -0.072566949
-1.3967602 -0.2697323 0.1244584 59 10 -0.072564647
-1.4236723 -0.27467129 -0.22964582 46 3 -0.072562344
-1.4014843 -0.27013716 0.17524813 60 11 -0.072560035
-1.4171257 -0.27289557 -0.17719805 46 4 -0.072557732
-2.0367939 -0.39185584 0.32851243 22 12 -0.07255543
-1.4086872 -0.27101529 -0.12550427 60 5 -0.072553128
-2.9035141 -0.55807811 0.57471669 74 13 -0.072550818
-1.4122249 -0.2711851 -0.075363785 49 6 -0.072548516
-2.8841558 -0.55331278 0.67800248 75 14 -0.072546214
-1.4160062 -0.27139875 -0.02516637 56 7 -0.072543912
-2.8840179 -0.5522427 0.78680992 87 15 -0.072541609
-1.4157757 -0.2693055 -0.38615805 58 0 -0.072520867
-1.3928564 -0.2646943 0.024747513 52 8 -0.072518565
-1.412931 -0.26825339 -0.33202776 47 1 -0.072516263
-1.4030252 -0.26611903 0.074840426 57 9 -0.07251396
-1.417715 -0.26890531 -0.28048924 48 2 -0.072511651
-1.3976932 -0.26485533 0.1244584 60 10 -0.072509348
-1.4207406 -0.26896551 -0.22902009 47 3 -0.072507046
-1.4219239 -0.26893246 0.17768551 60 11 -0.072504744
-1.4278226 -0.26978967 -0.17841674 50 4 -0.072502434
-2.0459137 -0.38620979 0.32976389 22 12 -0.072500132
-1.4175025 -0.26732761 -0.12620151 57 5 -0.07249783
-2.8977275 -0.54648411 0.57319027 76 13 -0.072495528
-1.4210138 -0.26773265 -0.07578247 49 6 -0.072493225
-2.8822393 -0.54252142 0.67710268 79 14 -0.072490916
-1.4385628 -0.2705195 -0.025550324 63 7 -0.072488613
-2.8859279 -0.54217207 0.78680992 88 15 -0.072486311
-1.4319462 -0.26694688 -0.39029911 55 0 -0.072465576
-1.4094985 -0.26276213 0.02502675 53 8 -0.072463267
-1.4272695 -0.26581728 -0.33517709 48 1 -0.072460964
-1.419654 -0.26414299 0.075677805 57 9 -0.072458662
-1.4399232 -0.26765394 -0.28468704 46 2 -0.07245636
-1.4182435 -0.26336807 0.12620151 59 10 -0.07245405
-1.4333702 -0.26591831 -0.23089729 46 3 -0.072451748
-1.4228539 -0.26396734 0.17768551 60 11 -0.072449446
-1.4385147 -0.26661304 -0.17963544 48 4 -0.072447143
-2.03948 -0.37762725 0.32851243 17 12 -0.072444841
-1.4301819 -0.26455233 -0.12724738 61 5 -0.072442532
-2.8919885 -0.53443259 0.57166374 78 13 -0.072440229
-1.4219855 -0.26252291 -0.07578247 49 6 -0.072437927
-2.8880415 -0.53266007 0.67800248 75 14 -0.072435625
-1.4552305 -0.26839751 -0.025829561 63 7 -0.072433315
-2.8840029 -0.53139549 0.78577471 87 15 -0.072431013
-1.4423711 -0.26368386 -0.39288735 51 0 -0.072410278
-1.4261893 -0.26046875 0.025305988 54 8 -0.072407976
-1.4282341 -0.26058426 -0.33517709 46 1 -0.072405666
-1.4225775 -0.2592957 0.07578247 58 9 -0.072403364
-1.4447116 -0.2633301 -0.28545028 47 2 -0.072401062
-1.4387559 -0.26198512 0.12794463 59 10 -0.072398759
-1.4498377 -0.26374161 -0.23340026 49 3 -0.072396457
-1.4316243 -0.26017028 0.17866047 58 11 -0.072394148
-1.447295 -0.26275721 -0.18061039 47 4 -0.072391845
-2.0097516 -0.36450922 0.3235065 12 12 -0.072389543
-1.4507008 -0.26311401 -0.12899049 57 5 -0.072387241
-2.8938365 -0.52433431 0.57166374 78 13 -0.072384931
-1.4386159 -0.26040354 -0.076619849 48 6 -0.072382629
-2.8783772 -0.52049565 0.67530304 72 14 -0.072380327
-1.4680115 -0.26519531 -0.026038991 69 7 -0.072378024
-2.8859313 -0.52082145 0.78577471 88 15 -0.072375715
-1.4603968 -0.26171434 -0.39754605 46 0 -0.07235498
-1.4389001 -0.25760317 0.025515417 52 8 -0.072352678
-1.4425631 -0.25799876 -0.33832639 36 1 -0.072350375
-1.4254401 -0.25467962 0.075887144 56 9 -0.072348073
-1.4494873 -0.25897607 -0.28621352 45 2 -0.072345763
-1.457314 -0.26011238 0.12951343 58 10 -0.072343461
-1.4624177 -0.26075962 -0.23527746 49 3 -0.072341159
-1.440341 -0.25656381 0.17963544 58 11 -0.072338857
-1.465793 -0.26083359 -0.18280403 48 4 -0.072336547
-2.0187912 -0.35887456 0.32475799 16 12 -0.072334245
-1.4633802 -0.26014078 -0.13003637 57 5 -0.072331943
-2.8956492 -0.51422966 0.57166374 78 13 -0.07232964
-1.4513153 -0.2574735 -0.07724788 50 6 -0.072327331
-2.8686638 -0.50840461 0.67260367 74 14 -0.072325028
-1.4728664 -0.26076654 -0.0261088 63 7 -0.072322726
-2.8839269 -0.51007152 0.78473938 88 15 -0.072320424
-1.4613013 -0.25661534 -0.39754605 46 0 -0.072299689
-1.4653957 -0.25707033 0.025969181 51 8 -0.072297379
-1.4626497 -0.25632551 -0.34282541 36 1 -0.072295077
-1.4518957 -0.25418007 0.07724788 58 9 -0.072292775
-1.4619855 -0.25594646 -0.28850323 47 2 -0.072290473
-1.4562505 -0.25468019 0.12933911 59 10 -0.072288163
-1.482778 -0.25905281 -0.23840615 46 3 -0.072285861
-1.4627386 -0.25528908 0.18231656 55 11 -0.072283559
-1.482339 -0.258443 -0.18475394 47 4 -0.072281256
-2.0141935 -0.35080859 0.3238194 15 12 -0.072278947
-1.4642794 -0.25503102 -0.13003637 57 5 -0.072276644
-2.8974264 -0.50411946 0.57166374 78 13 -0.072274342
-1.4718828 -0.25582597 -0.078294598 49 6 -0.07227204
-2.8704209 -0.4983879 0.67260367 79 14 -0.07226973
-1.4816488 -0.25699064 -0.02624842 63 7 -0.072267428
-2.8742692 -0.49802268 0.78163356 91 15 -0.072265126
-1.4698038 -0.25282282 -0.3996166 49 0 -0.072244391
-1.468255 -0.25229222 0.026004087 52 8 -0.072242089
-1.4865834 -0.25517485 -0.34822425 36 1 -0.072239779
-1.4665539 -0.25147331 0.077980585 57 9 -0.072237477
-1.476415 -0.2531642 -0.29117453 43 2 -0.072235174
-1.4669496 -0.25127724 0.13021068 55 10 -0.072232872
-1.4953556 -0.25587472 -0.24028336 46 3 -0.072230563
-1.4792745 -0.25285697 0.18426646 52 11 -0.07222826
-1.4949729 -0.25527182 -0.18621638 47 4 -0.072225958
-1.9920385 -0.3397902 0.32006493 9 12 -0.072223656
-1.4769448 -0.25192854 -0.13108224 61 5 -0.072221346
-2.895298 -0.49334219 0.57090056 61 13 -0.072219044
-1.4845804 -0.25269738 -0.078922629 49 6 -0.072216742
-2.8932755 -0.49195915 0.67755258 59 14 -0.07221444
-1.4983085 -0.25449601 -0.026527658 64 7 -0.072212137
-2.8759902 -0.48798651 0.78163356 91 15 -0.072209828
-1.4840126 -0.24993619 -0.40324008 38 0 -0.072189093
-1.4710987 -0.24749759 0.026038991 51 8 -0.07218679
-1.487465 -0.24998412 -0.34822425 36 1 -0.072184488
-1.4831804 -0.24899751 0.078817956 49 9 -0.072182178
-1.4985876 -0.25158408 -0.29537234 47 2 -0.072179876
-1.4815724 -0.24846208 0.13143085 48 10 -0.072177574
-1.5001363 -0.25130612 -0.2409091 46 3 -0.072175272
-1.484064 -0.24834703 0.18475394 50 11 -0.072172962
-1.5193498 -0.25397965 -0.18914123 46 4 -0.07217066
-1.9425542 -0.32437542 0.31193036 7 12 -0.072168358
-1.4974669 -0.25005299 -0.13282534 60 5 -0.072166055
-1.4933338 -0.24882708 -0.079341315 49 6 -0.072161444
-1.5149686 -0.25188816 -0.026806895 63 7 -0.072156839
-1.4982188 -0.24695413 -0.40686354 45 0 -0.072133794
-1.4916849 -0.24560973 0.02638804 51 8 -0.072131492
-1.4979432 -0.24637131 -0.35047373 38 1 -0.07212919
-1.4919237 -0.24511424 0.079236642 48 9 -0.072126888
-1.5188295 -0.24953468 -0.29918852 45 2 -0.072124586
-1.5001255 -0.24619286 0.13299966 46 10 -0.072122276
-1.5127003 -0.24798511 -0.24278632 45 3 -0.072119974
-1.4907987 -0.24412787 0.18548515 54 11 -0.072117671
-1.512391 -0.24739273 -0.18816628 45 4 -0.072115369
-1.9241794 -0.31440666 0.30880168 9 12 -0.072113059
-1.5022634 -0.24546652 -0.13317397 57 5 -0.072110757
-2.0209322 -0.32985422 0.3980276 4 13 -0.072108455
-1.5060208 -0.24554116 -0.079969354 48 6 -0.072106153
-2.0118759 -0.32765472 0.47059759 7 14 -0.072103843
-1.5316285 -0.24916747 -0.027086135 63 7 -0.072101541
-2.0059946 -0.32597867 0.54455531 5 15 -0.072099239
-1.5257728 -0.24602832 -0.41411048 42 0 -0.072078504
-1.5142498 -0.24389914 0.026771991 48 8 -0.072076201
-1.5180339 -0.24423684 -0.35497275 38 1 -0.072073892
-1.4986441 -0.24111721 0.079550661 47 9 -0.07207159
-1.5255064 -0.24516597 -0.30033338 48 2 -0.072069287
-1.5167134 -0.24348131 0.13439415 46 10 -0.072066985
-1.5350119 -0.24614401 -0.24622789 44 3 -0.072064675
-1.5073228 -0.24143416 0.18743508 54 11 -0.072062373
-1.521086 -0.24336603 -0.18914123 45 4 -0.072060071
-1.9427665 -0.3108328 0.31161749 2 12 -0.072057769
-1.5345898 -0.24525228 -0.13596295 57 5 -0.072055459
-2.0337033 -0.3246547 0.40031728 5 13 -0.072053157
-1.5226474 -0.24279831 -0.080806725 48 6 -0.072050855
-2.0187809 -0.32154998 0.47194731 43 14 -0.072048552
-1.5403457 -0.24534518 -0.027225753 63 7 -0.072046243
-2.0185118 -0.32114589 0.54766113 19 15 -0.07204394
-1.5285306 -0.24100174 -0.41462815 46 0 -0.072023205
-1.5308528 -0.24136786 0.027051231 48 8 -0.072020903
-1.5323107 -0.24132366 -0.35812208 36 1 -0.072018601
-1.5132875 -0.23805706 0.080283366 46 9 -0.072016291
-1.539929 -0.24197267 -0.30300471 45 2 -0.072013989
-1.5254271 -0.23942117 0.13509139 49 10 -0.072011687
-1.5553346 -0.24411525 -0.24935657 41 3 -0.072009385
-1.5277265 -0.23950888 0.18987246 56 11 -0.072007075
-1.5395354 -0.24108495 -0.19133489 44 4 -0.072004773
-1.8852904 -0.29489166 0.3022314 67 12 -0.07200247
-1.5354365 -0.23989402 -0.13596295 60 5 -0.072000168
-2.0852015 -0.32578838 0.41023937 3 13 -0.071997859
-1.5392312 -0.2402117 -0.081644095 47 6 -0.071995556
-2.0159853 -0.3142533 0.47104752 68 14 -0.071993254
-1.5451446 -0.24058212 -0.027295565 63 7 -0.071990952
-2.0158024 -0.31350368 0.54662579 51 15 -0.071988642
-1.5484141 -0.23887701 -0.41980451 46 0 -0.071967907
-1.5297095 -0.23571849 0.027016325 47 8 -0.071965605
-1.5562564 -0.23953077 -0.36352089 36 1 -0.071963303
-1.53385 -0.23580807 0.081330083 46 9 -0.071961001
-1.5562466 -0.23925124 -0.30605766 45 2 -0.071958691
-1.528182 -0.23466408 0.13526571 48 10 -0.071956389
-1.5600823 -0.23928353 -0.2499823 41 3 -0.071954086
-1.5540618 -0.23808251 0.19304106 55 11 -0.071951784
-1.5599899 -0.23871209 -0.19377227 42 4 -0.071949475
-1.5519798 -0.23720919 -0.13735744 57 5 -0.07194487
-2.1076746 -0.32176679 0.41443717 3 13 -0.071942568
-1.5558559 -0.23724589 -0.082481474 49 6 -0.071940258
-2.0170698 -0.30721426 0.47104752 75 14 -0.071937956
-1.5617905 -0.23759304 -0.027574802 55 7 -0.071935654
-2.0149746 -0.30617508 0.54610825 68 15 -0.071933351
-1.5626104 -0.23548608 -0.42342797 42 0 -0.071912616
-1.5364553 -0.2312699 0.027121039 45 8 -0.071910307
-1.5628642 -0.23496608 -0.36487061 38 1 -0.071908005
-1.5563902 -0.23371537 0.082481474 45 9 -0.071905702
-1.5667797 -0.23527551 -0.30796573 42 2 -0.0719034
-1.5486953 -0.23228313 0.13700882 45 10 -0.07190109
-1.5706758 -0.23529962 -0.25154665 39 3 -0.071898788
-1.5509568 -0.23206919 0.19255358 55 11 -0.071896486
-1.5745569 -0.23531914 -0.19547844 39 4 -0.071894184
-1.8755807 -0.27997282 0.30035421 49 12 -0.071891874
-1.5646216 -0.23355515 -0.13840331 57 5 -0.071889572
-2.1320863 -0.31788224 0.41901657 6 13 -0.07188727
-1.5685273 -0.23357852 -0.083109505 47 6 -0.071884967
-2.0181298 -0.30017143 0.47104752 74 14 -0.071882665
-1.5883242 -0.23595953 -0.028028565 50 7 -0.071880355
-2.0064764 -0.29772234 0.54352003 70 15 -0.071878053
-1.5806243 -0.23256095 -0.4280867 38 0 -0.071857318
-1.5570378 -0.22881262 0.027470089 45 8 -0.071855016
-1.5810276 -0.23205653 -0.36891973 35 1 -0.071852706
-1.5571567 -0.22855285 0.082481474 45 9 -0.071850404
-1.5870165 -0.23265222 -0.31178191 42 2 -0.071848102
-1.5751246 -0.23062812 0.13927487 46 10 -0.0718458
-1.5871242 -0.23210256 -0.2540496 39 3 -0.07184349
-1.5517576 -0.22665353 0.19255358 50 11 -0.071841188
-1.5871545 -0.23154081 -0.19694087 39 4 -0.071838886
-1.585143 -0.23096521 -0.14014643 49 5 -0.071834281
-2.133183 -0.31043735 0.41901657 8 13 -0.071831971
-1.5792156 -0.22953828 -0.083632864 46 6 -0.071829669
-2.0075941 -0.29144564 0.46834809 74 14 -0.071827367
-1.6009715 -0.23241559 -0.028237993 48 7 -0.071825065
-2.0151 -0.29217571 0.54559058 69 15 -0.071822755
-1.5986369 -0.22951256 -0.43274546 38 0 -0.07180202
-1.5756027 -0.22620559 0.027784232 44 8 -0.071799718
-1.6010786 -0.22957832 -0.37341875 36 1 -0.071797416
-1.5638762 -0.22396535 0.082795486 44 9 -0.071795113
-1.5955929 -0.22822298 -0.31330839 41 2 -0.071792804
-1.5956436 -0.22794648 0.14101799 46 10 -0.071790501
-1.5996183 -0.2285143 -0.25592682 37 3 -0.071788199
-1.5819786 -0.22571261 0.19620967 54 11 -0.071785897
-1.5977397 -0.2276765 -0.19815956 41 4 -0.071783587
-2.1003892 -0.29893008 0.33602124 2 12 -0.071781285
-1.5938299 -0.22655174 -0.14084367 41 5 -0.071778983
-2.1400321 -0.30419055 0.42016143 2 13 -0.071776681
-1.5957876 -0.22654592 -0.084470242 46 6 -0.071774371
-1.9969728 -0.2831451 0.46564871 72 14 -0.071772069
-1.6096929 -0.22794683 -0.028377613 50 7 -0.071769767
-2.0161078 -0.28513986 0.54559058 70 15 -0.071767464
-1.612781 -0.22608769 -0.43636894 35 0 -0.071746729
-1.6021273 -0.22430912 0.028237993 45 8 -0.07174442
-1.6192399 -0.22641686 -0.37746787 33 1 -0.071742117
-1.5883465 -0.22209705 0.084051557 44 9 -0.071739815
-1.6080071 -0.22455968 -0.3155981 41 2 -0.071737513
-1.5904709 -0.22182813 0.14049506 45 10 -0.071735203
-1.6238841 -0.22619951 -0.25968125 37 3 -0.071732901
-1.5984859 -0.22237688 0.19815956 51 11 -0.071730599
-1.6162206 -0.22455694 -0.20035322 37 4 -0.071728297
-2.0994124 -0.29169139 0.33570841 2 12 -0.071725987
-1.6024662 -0.22236085 -0.14154093 41 5 -0.071723685
-2.8781104 -0.3988587 0.56479466 97 13 -0.071721382
-1.6203095 -0.22426039 -0.085726306 43 6 -0.07171908
-2.0018101 -0.27670628 0.4665485 74 14 -0.071716771
-1.6183634 -0.22370322 -0.028517231 47 7 -0.071714468
-2.0055602 -0.27686748 0.54248476 71 15 -0.071712166
-1.6154745 -0.22071812 -0.43688658 33 0 -0.071691431
-1.5988998 -0.21845359 0.028168185 45 8 -0.071689129
-1.6334976 -0.2228902 -0.38061717 31 1 -0.071686819
-1.6108806 -0.21951774 0.08520294 43 9 -0.071684517
-1.6223985 -0.22079889 -0.31826943 33 2 -0.071682215
-1.603081 -0.21788496 0.14154093 45 10 -0.071679913
-1.6246253 -0.22081318 -0.25968125 37 3 -0.071677603
-1.6169181 -0.21947826 0.20035322 50 11 -0.071675301
-1.6366273 -0.22186267 -0.2027906 39 4 -0.071672998
-2.1102054 -0.28568631 0.33727276 1 12 -0.071670696
-1.6190282 -0.21890107 -0.14293543 40 5 -0.071668386
-2.8521793 -0.38562953 0.559452 74 13 -0.071666084
-1.6368785 -0.22102362 -0.086563677 42 6 -0.071663782
-2.0104415 -0.27110815 0.46834809 74 14 -0.07166148
-1.6409342 -0.22098811 -0.028901186 54 7 -0.071659178
-1.9988557 -0.26883495 0.54041415 69 15 -0.071656868
-1.6411679 -0.21810408 -0.44361585 35 0 -0.071634531
-1.6155854 -0.21441737 0.028447423 45 8 -0.071632229
-1.6382052 -0.21712847 -0.38151699 31 1 -0.071629927
-1.6334916 -0.21621366 0.086354338 44 9 -0.071627617
-1.6484984 -0.2182 -0.32323048 32 2 -0.071625315
-1.625596 -0.2148799 0.14345835 44 10 -0.071623012
-1.6411284 -0.21664165 -0.2621842 37 3 -0.07162071
-1.6177489 -0.21326812 0.20035322 50 11 -0.071618401
-1.6571485 -0.21816754 -0.205228 40 4 -0.071616098
-2.1034527 -0.2765516 0.33602124 1 12 -0.071613796
-1.6356227 -0.21504363 -0.14432991 43 5 -0.071611494
-2.859479 -0.37544256 0.56059688 92 13 -0.071609184
-1.649597 -0.2162948 -0.087191716 42 6 -0.071606882
-2.0076032 -0.26288056 0.46744829 75 14 -0.07160458
-1.6615989 -0.21727857 -0.029250234 51 7 -0.071602277
-1.9998733 -0.26115793 0.54041415 73 15 -0.071599968
-1.6591622 -0.21460466 -0.44827461 31 0 -0.071579233
-1.6282233 -0.21031357 0.028656852 43 8 -0.071576931
-1.6486169 -0.21265522 -0.3837665 30 1 -0.071574628
-1.6362172 -0.2107655 0.086459011 43 9 -0.071572326
-1.6667745 -0.21470167 -0.32666501 34 2 -0.071570016
-1.6460974 -0.21174616 0.14520147 44 10 -0.071567714
-1.6614673 -0.21342851 -0.26531288 37 3 -0.071565412
-1.6342351 -0.20964001 0.20230313 50 11 -0.07156311
-1.6677448 -0.21364319 -0.20644669 41 4 -0.0715608
-2.1083241 -0.26970878 0.33664703 1 12 -0.071558498
-1.6561261 -0.21186106 -0.14607303 43 5 -0.071556196
-2.8588245 -0.36520925 0.56021523 93 13 -0.071553893
-1.6661916 -0.21255761 -0.088029087 39 6 -0.071551584
-1.9969097 -0.25439349 0.46474886 74 14 -0.071549281
-1.6821843 -0.21400073 -0.029599281 51 7 -0.071546979
-2.0046055 -0.25466284 0.54144943 70 15 -0.071544677
-1.675235 -0.2107403 -0.4524157 31 0 -0.071523942
-1.6606932 -0.20861655 0.029215328 45 8 -0.071521632
-1.6706184 -0.20956762 -0.38871542 28 1 -0.07151933
-1.6487975 -0.20683034 0.087087035 43 9 -0.071517028
-1.673358 -0.20961425 -0.32780987 31 2 -0.071514726
-1.6725272 -0.20921372 0.14746751 40 10 -0.071512416
-1.6876841 -0.21081093 -0.26938018 37 3 -0.071510114
-1.656625 -0.20663729 0.20498425 42 11 -0.071507812
-1.6704502 -0.20806569 -0.20669043 38 4 -0.071505509
-2.850174 -0.35500813 0.4549115 10 12 -0.0715032
-1.6845359 -0.2095212 -0.14851339 41 5 -0.071500897
-2.8620303 -0.35547048 0.56059688 105 13 -0.071498595
-1.6708876 -0.20723182 -0.088238433 41 6 -0.071496293
-1.9977857 -0.24742088 0.46474886 72 14 -0.071493991
-1.6828847 -0.20842114 -0.029599281 49 7 -0.071491681
-2.005439 -0.24801385 0.54144943 69 15 -0.071489379
-1.6836309 -0.20582904 -0.45448625 31 0 -0.071468644
-1.6812252 -0.20553492 0.029564377 43 8 -0.071466342
-1.690648 -0.20638785 -0.39321443 28 1 -0.071464032
-1.6713179 -0.2037317 0.088238433 44 9 -0.07146173
-1.6896704 -0.20566957 -0.33086282 31 2 -0.071459427
-1.6732472 -0.20337459 0.14746751 40 10 -0.071457125
-1.7040614 -0.2071199 -0.27188313 39 3 -0.071454816
-1.6789782 -0.20377341 0.20766538 43 11 -0.071452513
-1.694779 -0.20539099 -0.20961528 37 4 -0.071450211
-2.8376677 -0.34339565 0.45272139 3 12 -0.071447909
-1.685257 -0.20364015 -0.14851339 45 5 -0.071445607
-2.8651423 -0.34621307 0.56097847 96 13 -0.071443297
-1.6953601 -0.20456077 -0.089494489 40 6 -0.071440995
-1.9947257 -0.24032882 0.46384907 72 14 -0.071438693
-1.6974994 -0.20421782 -0.029843615 48 7 -0.07143639
-1.9947845 -0.23962954 0.53834367 70 15 -0.071434081
-1.7015692 -0.20229734 -0.45914501 28 0 -0.071413346
-1.6859037 -0.20013691 0.029634187 43 8 -0.071411043
-1.7068397 -0.20232019 -0.39681366 25 1 -0.071408741
-1.6978033 -0.20094819 0.08959917 41 9 -0.071406431
-1.7117893 -0.20260353 -0.3350606 30 2 -0.071404129
-1.6857843 -0.19922774 0.14851339 38 10 -0.071401827
-1.7204682 -0.20302226 -0.27438608 36 3 -0.071399525
-1.6934794 -0.19953741 0.20937155 38 11 -0.071397223
-1.7230866 -0.20272106 -0.21302763 38 4 -0.071394913
-2.8290398 -0.33233586 0.45115703 1 12 -0.071392611
-1.7057457 -0.2000773 -0.1502565 41 5 -0.071390308
-2.8565841 -0.33506611 0.55907035 102 13 -0.071388006
-1.7159009 -0.20096488 -0.090541214 43 6 -0.071385697
-1.9955524 -0.2333644 0.46384907 77 14 -0.071383394
-1.7260089 -0.20153803 -0.030332282 41 7 -0.071381092
-1.9936895 -0.23244117 0.537826 75 15 -0.07137879
-1.7195717 -0.19804914 -0.46380374 24 0 -0.071358047
-1.6965249 -0.19539475 0.029808709 40 8 -0.071355745
-1.7288314 -0.19880947 -0.4017626 31 1 -0.071353443
-1.7123839 -0.19661568 0.090331867 39 9 -0.071351141
-1.732025 -0.19856462 -0.33887681 33 2 -0.071348839
-1.7023388 -0.19485989 0.14990787 38 10 -0.071346529
-1.7329763 -0.19806045 -0.2762633 35 3 -0.071344227
-1.7040268 -0.19475183 0.21059024 39 11 -0.071341924
-1.7435067 -0.19895612 -0.21546502 36 4 -0.071339622
-2.9047647 -0.33095607 0.46304604 1 12 -0.071337312
-1.7222707 -0.19592346 -0.151651 43 5 -0.07133501
-2.8499899 -0.32370833 0.55754393 102 13 -0.071332708
-1.7285331 -0.19602475 -0.091169246 38 6 -0.071330406
-2.0041397 -0.22692573 0.46564871 86 14 -0.071328096
-1.7366368 -0.19663678 -0.030506806 45 7 -0.071325794
-1.9944888 -0.22548042 0.537826 82 15 -0.071323492
-1.7452116 -0.19483183 -0.47053304 29 0 -0.071302757
-1.7171035 -0.19139008 0.030157758 39 8 -0.071300454
-1.7411691 -0.19376524 -0.40446201 31 1 -0.071298145
-1.7150447 -0.19085799 0.090436541 40 9 -0.071295843
-1.7522202 -0.19468504 -0.34269297 33 2 -0.07129354
-1.7267717 -0.19155245 0.15199961 38 10 -0.071291238
-1.7572176 -0.19461982 -0.28001773 34 3 -0.071288928
-1.7185407 -0.19003218 0.21229641 38 11 -0.071286626
-1.7560629 -0.19387107 -0.21692745 36 4 -0.071284324
-2.860743 -0.31582883 0.45585006 10 12 -0.071282022
-1.7506697 -0.19296683 -0.15409136 41 5 -0.071279712
-2.8491509 -0.31354252 0.55716228 96 13 -0.07127741
-1.7411187 -0.19129857 -0.091797277 38 6 -0.071275108
-2.0010455 -0.21950404 0.46474886 74 14 -0.071272805
-1.7671293 -0.19384469 -0.031030379 44 7 -0.071270496
-2.0067861 -0.21977884 0.54093182 82 15 -0.071268193
-1.774691 -0.19185275 -0.47829759 30 0 -0.071247458
-1.7415862 -0.18827395 0.030576617 33 8 -0.071245156
-1.7708644 -0.19112684 -0.41121054 28 1 -0.071242854
-1.7375439 -0.18722384 0.091587931 36 9 -0.071240544
-1.756793 -0.18898739 -0.34345621 33 2 -0.071238242
-1.7412966 -0.18701339 0.1532198 37 10 -0.07123594
-1.773566 -0.19047907 -0.28252068 34 3 -0.071233638
-1.7467943 -0.18729544 0.21570876 38 11 -0.071231328
-1.7724867 -0.18973693 -0.21887736 34 4 -0.071229026
-1.7711439 -0.18896793 -0.15583447 39 5 -0.071224421
-2.8560317 -0.30471742 0.55830717 105 13 -0.071222112
-1.7635899 -0.18785067 -0.092948668 37 6 -0.071219809
-2.0114515 -0.21389739 0.46699843 49 14 -0.071217507
-1.7757492 -0.18851903 -0.031169999 42 7 -0.071215205
-2.0094621 -0.21297607 0.54144943 73 15 -0.071212903
-1.7772387 -0.18616864 -0.47881526 28 0 -0.07119216
-1.7760432 -0.18572962 0.031169999 35 8 -0.071189858
-1.7928411 -0.18716995 -0.41615945 31 1 -0.071187556
-1.7620249 -0.18364151 0.092843994 32 9 -0.071185254
-1.7769369 -0.18519565 -0.3472724 30 2 -0.071182944
-1.7557791 -0.18268125 0.15443997 36 10 -0.071180642
-1.805657 -0.18755227 -0.28752658 32 3 -0.071178339
-1.7731061 -0.18385805 0.21887736 39 11 -0.071176037
-1.7909091 -0.18538859 -0.22107102 32 4 -0.071173728
-2.8314395 -0.2926012 0.4508442 94 12 -0.071171425
-1.7737427 -0.18329872 -0.15600878 38 5 -0.071169123
-2.8512192 -0.29414165 0.55716228 93 13 -0.071166821
-1.7841022 -0.18373993 -0.093995392 36 6 -0.071164519
-2.0199399 -0.20767197 0.46879801 45 14 -0.071162209
-1.788332 -0.18354431 -0.031379428 36 7 -0.071159907
-2.0063496 -0.20556705 0.54041415 32 15 -0.071157604
-1.7970982 -0.18190888 -0.48399165 28 0 -0.071136869
-1.7727015 -0.1791268 0.031100187 36 8 -0.07113456
-1.8186891 -0.18345354 -0.42200816 27 1 -0.071132258
-1.788489 -0.18009147 0.094204731 35 9 -0.071129955
-1.801013 -0.18135259 -0.35185182 30 2 -0.071127653
-1.7663181 -0.1775476 0.15531152 37 10 -0.071125343
-1.7984385 -0.18045928 -0.28627509 29 3 -0.071123041
-1.7776873 -0.17806369 0.21936484 34 11 -0.071120739
-1.815248 -0.18150601 -0.22399586 32 4 -0.071118437
-2.8304777 -0.28251889 0.4505313 99 12 -0.071116135
-1.7941971 -0.17908445 -0.15775189 33 5 -0.071113825
-2.8444145 -0.28340927 0.55563581 91 13 -0.071111523
-1.8085821 -0.17988315 -0.095251448 34 6 -0.07110922
-2.0361664 -0.20215952 0.47239724 30 14 -0.071106918
-1.8068712 -0.17907609 -0.03169357 36 7 -0.071104608
-1.8150264 -0.17732526 -0.48865038 25 0 -0.071081571
-1.7912282 -0.17468463 0.03141433 33 8 -0.071079269
-1.8173789 -0.17691471 -0.42155826 26 1 -0.071076959
-1.8109735 -0.17597213 0.095356122 36 9 -0.071074657
-1.8231295 -0.17715333 -0.3560496 28 2 -0.071072355
-1.7927072 -0.17388138 0.15757757 36 10 -0.071070053
-1.8226519 -0.17646474 -0.29002953 27 3 -0.07106775
-1.8079365 -0.17472155 0.22302091 38 11 -0.071065441
-1.8356298 -0.17707454 -0.22643325 31 4 -0.071063139
-2.8373458 -0.27320558 0.45146993 100 12 -0.071060836
-1.8146435 -0.17473045 -0.159495 32 5 -0.071058534
-2.837569 -0.27272728 0.55410933 93 13 -0.071056224
-1.8191396 -0.17452255 -0.095774807 31 6 -0.071053922
-2.0659575 -0.19783762 0.47914574 9 14 -0.07105162
-1.835354 -0.17543162 -0.032182239 36 7 -0.071049318
-2.0769682 -0.19815993 0.55904913 9 15 -0.071047008
-1.8464078 -0.17388663 -0.4969326 23 0 -0.071026273
-1.8137273 -0.17049 0.031798285 35 8 -0.071023971
-1.8354473 -0.1722081 -0.42560738 25 1 -0.071021669
-1.8235081 -0.17076688 0.095984153 36 9 -0.071019366
-1.8452387 -0.17280188 -0.3602474 25 2 -0.071017057
-1.8131405 -0.16947678 0.1593207 32 10 -0.071014754
-1.8507924 -0.17267033 -0.29440969 29 3 -0.071012452
-1.8105119 -0.16859363 0.22326466 35 11 -0.07101015
-1.8342602 -0.17048216 -0.22618952 30 4 -0.07100784
-2.8343482 -0.26293471 0.4508442 100 12 -0.071005538
-1.8430165 -0.17097159 -0.16193536 30 5 -0.071003236
-2.8404589 -0.26300159 0.55449098 99 13 -0.071000934
-1.8316705 -0.16927421 -0.096402846 31 6 -0.070998624
-2.7885025 -0.25720924 0.64650929 48 14 -0.070996322
-1.8658243 -0.17177375 -0.03270581 34 7 -0.07099402
-2.0968847 -0.19267687 0.56422555 14 15 -0.070991717
-1.8623952 -0.16883612 -0.50107372 21 0 -0.070970982
-1.8382101 -0.16631973 0.032217141 36 8 -0.070968673
-1.851564 -0.1672022 -0.42920661 24 1 -0.07096637
-1.8360282 -0.16547666 0.096612185 33 9 -0.070964068
-1.8477858 -0.16653636 -0.36062902 23 2 -0.070961766
-1.8395181 -0.16546711 0.16158675 37 10 -0.070959456
-1.8710585 -0.16797505 -0.2975384 29 3 -0.070957154
-1.840747 -0.16493042 0.22692074 33 11 -0.070954852
-1.862525 -0.16655362 -0.22960186 30 4 -0.07095255
-2.833281 -0.25286368 0.4505313 100 12 -0.07095024
-1.8713851 -0.16701673 -0.16437572 30 5 -0.070947938
-2.8374486 -0.25273648 0.55372775 99 13 -0.070945635
-1.8601022 -0.16535534 -0.097868249 29 6 -0.070943333
-2.8146179 -0.24971272 0.65235806 71 14 -0.070941024
-1.8703965 -0.16561246 -0.032775622 33 7 -0.070938721
-2.7402782 -0.24215333 0.73711663 65 15 -0.070936419
-1.8745205 -0.16334026 -0.50417954 20 0 -0.070915684
-1.8646778 -0.16215427 0.032670904 32 8 -0.070913382
-1.8793166 -0.16309725 -0.43550524 24 1 -0.070911072
-1.8664418 -0.16165128 0.098182261 35 9 -0.07090877
-1.8698711 -0.16194829 -0.3648268 23 2 -0.070906468
-1.8619193 -0.16093221 0.16350417 30 10 -0.070904166
-1.8952502 -0.16348036 -0.30129281 29 3 -0.070901856
-1.8670226 -0.16071677 0.23008935 32 11 -0.070899554
-1.8789175 -0.16141038 -0.23155177 29 4 -0.070897251
-2.8164334 -0.24145418 0.44771552 100 12 -0.070894949
-1.8719567 -0.16048375 -0.16437572 30 5 -0.070892639
-2.844182 -0.2433324 0.55487263 93 13 -0.070890337
-1.8845481 -0.16090016 -0.099124312 31 6 -0.070888035
-2.8193557 -0.24021782 0.65325785 93 14 -0.070885733
-1.8829182 -0.160099 -0.03298505 32 7 -0.070883431
-2.8084798 -0.23830311 0.755234 81 15 -0.070881121
-1.8866301 -0.15776135 -0.50728536 18 0 -0.070860386
-1.8871528 -0.15747386 0.033054858 31 8 -0.070858084
-1.9031787 -0.1584767 -0.44090405 22 1 -0.070855781
-1.8888893 -0.15695444 0.099333659 30 9 -0.070853472
-1.9017293 -0.15802138 -0.3709327 23 2 -0.07085117
-1.8704121 -0.15509088 0.16420141 28 10 -0.070848867
-1.9076211 -0.15784098 -0.30317003 27 3 -0.070846565
-1.8893341 -0.15599543 0.23277046 28 11 -0.070844255
-1.9111235 -0.15745915 -0.23545158 30 4 -0.070841953
-2.8192277 -0.23178263 0.44802836 104 12 -0.070839651
-1.888391 -0.15525396 -0.16577022 30 5 -0.070837349
-2.8293605 -0.23211858 0.55181968 96 13 -0.070835046
-1.9089855 -0.15627678 -0.10038038 29 6 -0.070832737
-2.8201771 -0.23037422 0.65325785 90 14 -0.070830435
-1.9093755 -0.15563735 -0.033438813 32 7 -0.070828132
-2.8092945 -0.22849882 0.755234 94 15 -0.07082583
-1.9064262 -0.15271784 -0.51246172 17 0 -0.070805088
-1.9016445 -0.15200078 0.033299193 29 8 -0.070802785
-1.9192609 -0.15307134 -0.44450328 22 1 -0.070800483
-1.9113262 -0.15210328 0.10048504 31 9 -0.070798181
-1.92184 -0.15293996 -0.37474889 23 2 -0.070795879
-1.8967618 -0.15061113 0.16646746 27 10 -0.070793569
-1.9317912 -0.15305288 -0.30692446 27 3 -0.070791267
-1.9037197 -0.15049495 0.23447664 26 11 -0.070788965
-1.9393667 -0.1529724 -0.23886393 28 4 -0.070786662
-2.8338046 -0.2230251 0.45021844 100 12 -0.070784353
-1.9207016 -0.15116239 -0.16855921 31 5 -0.07078205
-2.8223243 -0.22162665 0.55029315 96 13 -0.070779748
-1.9135017 -0.14992419 -0.10058971 28 6 -0.070777446
-2.8209639 -0.22052847 0.65325785 92 14 -0.070775136
-1.9477865 -0.1519264 -0.034102004 29 7 -0.070772834
-2.810075 -0.21869041 0.755234 97 15 -0.070770532
-1.9454716 -0.14901292 -0.52281445 17 0 -0.070749797
-1.9161205 -0.14642842 0.033543523 27 8 -0.070747495
-1.9333853 -0.14740838 -0.44765261 20 1 -0.070745185
-1.9177945 -0.1462197 0.10079906 27 9 -0.070742883
-1.9478109 -0.14816636 -0.37970993 22 2 -0.070740581
-1.9191295 -0.14564727 0.16838489 30 10 -0.070738278
-1.9520109 -0.14780056 -0.31005314 29 3 -0.070735969
-1.9121511 -0.14444688 0.23545158 27 11 -0.070733666
-1.947807 -0.14679803 -0.23983888 27 4 -0.070731364
-2.8325589 -0.21347807 0.44990557 100 12 -0.070729062
-1.9450588 -0.14625001 -0.17065094 29 5 -0.070726752
-2.828954 -0.21221407 0.55143803 99 13 -0.07072445
-1.941897 -0.14533018 -0.10205512 29 6 -0.070722148
-2.8139434 -0.21010035 0.65145826 94 14 -0.070719846
-1.9642328 -0.14665753 -0.034381241 31 7 -0.070717536
-2.8184905 -0.20994522 0.75730455 94 15 -0.070715234
-1.9671738 -0.14376995 -0.52850848 19 0 -0.070694499
-1.9465113 -0.14225984 0.034067098 23 8 -0.070692196
-1.9610735 -0.14298004 -0.45395124 23 1 -0.070689894
-1.9322371 -0.14053859 0.10153177 25 9 -0.070687585
-1.9678972 -0.14278702 -0.38352609 23 2 -0.070685282
-1.9514213 -0.14124919 0.17117387 30 10 -0.07068298
-1.9859841 -0.14375095 -0.3153719 26 3 -0.070680678
-1.9423187 -0.14024958 0.23910768 28 11 -0.070678368
-1.9779825 -0.14247777 -0.24349497 24 4 -0.070676066
-2.8096433 -0.20189095 0.44615117 100 12 -0.070673764
-1.9733795 -0.14145386 -0.17309129 27 5 -0.070671462
-2.8316007 -0.20297204 0.55181968 93 13 -0.070669152
-1.9702587 -0.14088406 -0.10352053 29 6 -0.07066685
-2.8068495 -0.2002131 0.64965868 94 14 -0.070664547
-1.9826844 -0.14107747 -0.034695383 28 7 -0.070662245
-2.8269145 -0.20065194 0.75937515 100 15 -0.070659935
-1.9772757 -0.13791782 -0.5310967 19 0 -0.070639201
-1.9709345 -0.13713033 0.034485955 25 8 -0.070636898
-1.9984978 -0.13869716 -0.46249935 22 1 -0.070634596
-1.9645958 -0.13599981 0.10320652 23 9 -0.070632294
-1.9859871 -0.13748063 -0.38696066 22 2 -0.070629984
-1.9598294 -0.13532619 0.17187113 28 10 -0.070627682
-2.0101223 -0.13844644 -0.31912637 22 3 -0.07062538
-1.9685419 -0.13523741 0.24227627 27 11 -0.070623077
-2.0002525 -0.13706517 -0.24617608 22 4 -0.070620768
-2.8123014 -0.19221686 0.446464 100 12 -0.070618466
-1.9778132 -0.13518077 -0.17343993 24 5 -0.070616163
-2.8342507 -0.19322009 0.55220127 102 13 -0.070613861
-1.9986356 -0.1359026 -0.10498594 29 6 -0.070611551
-2.8036425 -0.19015034 0.64875883 94 14 -0.070609249
-2.0071065 -0.1357753 -0.035114244 29 7 -0.070606947
-2.8083227 -0.18948236 0.75419873 100 15 -0.070604645
-2.0008767 -0.13254775 -0.53730839 18 0 -0.07058391
-1.9853686 -0.13117194 0.034730289 24 8 -0.0705816
-2.0223043 -0.13325779 -0.46789822 21 1 -0.070579298
-1.9849882 -0.13045143 0.10425323 25 9 -0.070576996
-2.0119224 -0.13222152 -0.3919217 20 2 -0.070574693
-1.9841474 -0.13004793 0.17396286 26 10 -0.070572384
-2.0263627 -0.1324597 -0.32162929 21 3 -0.070570081
-1.9967343 -0.13017347 0.2456886 28 11 -0.070567779
-2.0205281 -0.13137005 -0.24861349 23 4 -0.070565477
-2.8109841 -0.18227102 0.44615117 104 12 -0.070563167
-2.0061083 -0.13008091 -0.17588028 22 5 -0.070560865
-2.8172755 -0.18218455 0.54876673 93 13 -0.070558563
-2.0270016 -0.13072522 -0.10645135 28 6 -0.070556261
-2.8120682 -0.18086287 0.65055847 94 14 -0.070553958
-2.0355067 -0.13055983 -0.035602912 26 7 -0.070551649
-2.7973998 -0.17893901 0.75109291 97 15 -0.070549347
-2.032176 -0.12749749 -0.54559058 18 0 -0.070528612
-2.0077682 -0.12561437 0.035114244 26 8 -0.070526309
-2.0363717 -0.12704764 -0.47104752 19 1 -0.070524
-2.0193193 -0.12562948 0.10603265 26 9 -0.070521697
-2.0398037 -0.12690392 -0.39726433 19 2 -0.070519395
-2.0183949 -0.12521838 0.17692617 27 10 -0.070517093
-2.0386424 -0.12611783 -0.3235065 23 3 -0.070514783
-2.0130272 -0.12418004 0.24763852 28 11 -0.070512481
-2.0487132 -0.12602253 -0.25202581 23 4 -0.070510179
-2.817518 -0.17282113 0.44708973 100 12 -0.070507877
-2.0324025 -0.12466367 -0.17814633 21 5 -0.070505574
-2.8120153 -0.17199033 0.54762185 99 13 -0.070503265
-2.0394068 -0.12437829 -0.10707937 28 6 -0.070500962
-2.8126824 -0.17104642 0.65055847 90 14 -0.07049866
-2.0559103 -0.12466455 -0.035951961 28 7 -0.070496358
-2.8018639 -0.16940628 0.75212818 100 15 -0.070494048
-2.0557506 -0.12177387 -0.55180228 17 0 -0.070473313
-2.0321488 -0.12002039 0.035533097 26 8 -0.070471011
-2.054311 -0.12096953 -0.47509661 19 1 -0.070468709
-2.0277209 -0.11904816 0.10645135 24 9 -0.070466407
-2.0715928 -0.1216239 -0.40337023 20 2 -0.070464097
-2.0486546 -0.11991891 0.17954083 25 10 -0.070461795
-2.0706227 -0.12084172 -0.32851243 22 3 -0.070459493
-2.0312841 -0.11819022 0.24983218 26 11 -0.07045719
-2.0649946 -0.11979055 -0.25397575 22 4 -0.070454881
-2.818104 -0.16298437 0.44708973 100 12 -0.070452578
-2.0626612 -0.11929351 -0.18076101 24 5 -0.070450276
-2.8106384 -0.16206044 0.5472402 93 13 -0.070447974
-2.0657501 -0.11874922 -0.10844011 25 6 -0.070445664
-2.801589 -0.16055754 0.64785904 97 14 -0.070443362
-2.0842829 -0.11908417 -0.036440626 28 7 -0.07044106
-2.8101528 -0.16006427 0.75419873 97 15 -0.070438758
-2.0928111 -0.11664018 -0.56163734 15 0 -0.070418023
-2.0625045 -0.11459001 0.036056671 24 8 -0.070415713
-2.0800159 -0.11519829 -0.48094535 18 1 -0.070413411
-2.0520546 -0.11329097 0.10770741 24 9 -0.070411108
-2.0778854 -0.11471705 -0.40451509 19 2 -0.070408806
-2.0689545 -0.11386181 0.18128395 25 10 -0.070406497
-2.1025903 -0.11534435 -0.33351833 22 3 -0.070404194
-2.0594342 -0.11261688 0.25324452 22 11 -0.070401892
-2.0931501 -0.1140942 -0.25738806 23 4 -0.07039959
-2.7949865 -0.15186025 0.44333532 100 12 -0.07039728
-2.0869384 -0.11338981 -0.18285275 22 5 -0.070394978
-2.8209889 -0.15277927 0.54914832 99 13 -0.070392676
-2.0920787 -0.11293672 -0.10980085 25 6 -0.070390373
-2.7943487 -0.15035829 0.64605945 103 14 -0.070388064
-2.1046543 -0.11287884 -0.036789671 27 7 -0.070385762
-2.8106945 -0.15025394 0.75419873 94 15 -0.070383459
-2.1047809 -0.10993876 -0.56474322 13 0 -0.070362724
-2.0948439 -0.10905313 0.036615148 24 8 -0.070360422
-2.107651 -0.10935101 -0.48724398 16 1 -0.070358112
-2.0963185 -0.10839622 0.11001018 23 9 -0.07035581
-2.1076827 -0.10898383 -0.41023937 20 2 -0.070353508
-2.0812776 -0.10725379 0.1823298 22 10 -0.070351206
-2.1365173 -0.10972708 -0.33883709 21 3 -0.070348896
-2.08757 -0.10684796 0.25665686 19 11 -0.070346594
-2.109396 -0.10759548 -0.25933796 21 4 -0.070344292
-2.7954996 -0.14210293 0.44333532 108 12 -0.070341989
-2.1052301 -0.10701463 -0.18442155 21 5 -0.07033968
-2.8195443 -0.14283252 0.54876673 93 13 -0.070337377
-2.1183915 -0.10694235 -0.11116158 24 6 -0.070335075
-2.7948568 -0.1406032 0.64605945 92 14 -0.070332773
-2.1210127 -0.10633298 -0.037068911 26 7 -0.070330471
-2.7919075 -0.13947789 0.74902231 97 15 -0.070328161
-2.1283066 -0.10371938 -0.57095486 13 0 -0.070223331
-2.1051986 -0.10222498 0.036789671 20 8 -0.070221029
-2.150842 -0.10406509 -0.49714181 17 1 -0.070218727
-2.1355042 -0.10294943 -0.41558203 19 2 -0.070214115
-2.1493025 -0.10323866 0.1882564 55 10 -0.070211813
-2.1428068 -0.10255182 -0.33977571 17 3 -0.070209511
-2.1414843 -0.10173883 -0.2632378 17 4 -0.070204899
-2.801898 -0.13262472 0.44427395 104 12 -0.070202596
-2.1294727 -0.10079622 -0.18651329 20 5 -0.070200294
-2.8082595 -0.13243395 0.54647696 96 13 -0.070197985
-2.1367075 -0.10039069 -0.11210363 20 6 -0.070195682
-2.7992237 -0.13102929 0.64695925 94 14 -0.07019338
-2.6247473 -0.1224025 -0.045864921 11 7 -0.070191078
-2.7923775 -0.12973139 0.74902231 94 15 -0.070188768
-2.3370829 -0.10571767 -0.62685978 61 0 -0.070168033
-2.820708 -0.12710114 0.049285594 57 8 -0.070165731
-2.8233011 -0.12622987 0.14811078 156 9 -0.070161127
-2.1456568 -0.095932372 -0.41749012 8 2 -0.070158817
-2.8144491 -0.12534261 0.24647643 79 10 -0.070156515
-2.1569657 -0.095684133 -0.34196579 1 3 -0.070154212
-2.8180666 -0.12451747 0.34635273 108 11 -0.07015191
-2.1279442 -0.093652532 -0.26153165 2 4 -0.070149601
-2.8102379 -0.12318943 0.44552541 104 12 -0.070147298
-2.8384218 -0.1244249 -0.24856818 21 5 -0.070144996
-2.8047819 -0.12245914 0.54571378 96 13 -0.070142694
-2.2008967 -0.095708705 -0.11545313 5 6 -0.070140384
-2.7996638 -0.12125731 0.64695925 86 14 -0.070138082
-2.8569078 -0.12323642 -0.049913883 12 7 -0.07013578
-2.7889528 -0.11981813 0.74798709 97 15 -0.070133477
-2.8836758 -0.12035771 -0.77335137 73 0 -0.070112742
-2.841114 -0.11808458 0.049634643 56 8 -0.070110433
-2.871933 -0.11886411 -0.66360557 110 1 -0.070108131
-2.8277156 -0.11653901 0.14832011 155 9 -0.070105828
-2.8288045 -0.11608937 0.24769662 83 10 -0.070101216
-2.8836191 -0.11783545 -0.45710155 1 3 -0.070098914
-2.8045998 -0.11411548 0.34464651 104 11 -0.070096612
-2.8502395 -0.11547425 -0.35025251 2 4 -0.07009431
-2.7988081 -0.11290064 0.44364822 104 12 -0.070092
-2.8627281 -0.1154791 -0.25065991 20 5 -0.070089698
-2.8032303 -0.11258969 0.54533213 99 13 -0.070087396
-2.8537996 -0.11412191 -0.14968085 2 6 -0.070085093
-2.7922812 -0.11117306 0.6451596 92 14 -0.070082791
-2.8593187 -0.113343 -0.049948789 14 7 -0.070080481
-2.7970757 -0.11038679 0.75005764 100 15 -0.070078179
-2.8744264 -0.10992187 -0.77076316 62 0 -0.070057444
-2.8355141 -0.10793892 0.049529929 50 8 -0.070055142
-2.8723307 -0.1088377 -0.66360557 98 1 -0.070052832
-2.8281052 -0.10666766 0.14832011 158 9 -0.07005053
-2.9643695 -0.11180715 -0.57662481 1 2 -0.070048228
-2.8272014 -0.10614014 0.24752231 98 10 -0.070045926
-2.8958569 -0.10821085 -0.4589788 1 3 -0.070043616
-2.8069651 -0.10439862 0.34489027 108 11 -0.070041314
-2.8704627 -0.10625861 -0.35268989 4 4 -0.070039012
-2.7952371 -0.10298541 0.44302243 104 12 -0.070036709
-2.8631136 -0.10548621 -0.25065991 20 5 -0.070034407
-2.8094921 -0.10301965 0.54647696 96 13 -0.070032097
-2.8481927 -0.10394099 -0.14936683 3 6 -0.070029795
-2.7887573 -0.10128463 0.64425981 92 14 -0.070027493
-2.8437099 -0.10278351 -0.049669549 20 7 -0.070025191
-2.7935827 -0.10048286 0.74902231 100 15 -0.070022881
-2.8554857 -0.099217348 -0.76558679 64 0 -0.070002146
-2.8378723 -0.098109484 0.049564835 52 8 -0.069999844
-2.8726928 -0.098810658 -0.66360557 98 1 -0.069997542
-2.8224552 -0.097082652 0.1480061 161 9 -0.069995232
-2.9647417 -0.10145951 -0.57662481 1 2 -0.06999293
-2.8136163 -0.0957954 0.24630213 94 10 -0.069990627
-2.9278047 -0.099171616 -0.46398467 1 3 -0.069988325
-2.8092961 -0.094666615 0.34513399 104 11 -0.069986023
-2.8747842 -0.096371122 -0.3531774 3 4 -0.069983713
-2.7876661 -0.093450673 0.44177097 104 12 -0.069981411
-2.8515167 -0.095092915 -0.24961405 20 5 -0.069979109
-2.8117967 -0.093277067 0.54685861 99 13 -0.069976807
-2.8824732 -0.095118053 -0.15114626 1 6 -0.069974497
-2.789094 -0.091549359 0.64425981 97 14 -0.069972195
-2.8440349 -0.09335275 -0.049669549 20 7 -0.069969893
-2.782316 -0.090840779 0.74591655 100 15 -0.06996759
-2.8519528 -0.089128479 -0.76455152 62 0 -0.069946848
-2.8201933 -0.088135935 0.049250688 48 8 -0.069944546
-2.8749526 -0.089344345 -0.66405553 101 1 -0.069942243
-2.8187842 -0.087106399 0.14779675 160 9 -0.069939941
-2.9650779 -0.091109924 -0.57662481 1 2 -0.069937639
-2.8079588 -0.085790843 0.24577919 102 10 -0.069935329
-2.9083729 -0.088858768 -0.46085599 1 3 -0.069933027
-2.815547 -0.085530847 0.34586522 108 11 -0.069930725
-2.8691351 -0.086658247 -0.35244617 3 4 -0.069928423
-2.7879753 -0.083719254 0.44177097 100 12 -0.069926113
-2.8418739 -0.084841341 -0.24874248 26 5 -0.069923811
-2.7983541 -0.083542101 0.54418731 96 13 -0.069921508
-2.8548236 -0.084729269 -0.14968085 1 6 -0.069919206
-2.7893822 -0.082299776 0.64425981 90 14 -0.069916897
-2.8443434 -0.083424561 -0.049669549 19 7 -0.069914594
-2.7787538 -0.081015445 0.74488121 97 15 -0.069912292
-2.8580258 -0.079832278 -0.7661044 69 0 -0.069891557
-2.8084905 -0.0779581 0.049041264 50 8 -0.069889255
-2.8616111 -0.078932144 -0.6609062 95 1 -0.069886945
-2.8070922 -0.076938733 0.14716873 156 9 -0.069884643
-2.9653637 -0.08127676 -0.57662481 1 2 -0.069882341
-2.8161948 -0.076695696 0.24647643 98 10 -0.069880038
-2.8968174 -0.078385435 -0.4589788 1 3 -0.069877729
-2.8019381 -0.075329386 0.34415907 117 11 -0.069875427
-2.8614826 -0.076429792 -0.35147122 2 4 -0.069873124
-2.7961493 -0.074196406 0.44302243 104 12 -0.069870822
-2.8541028 -0.075236447 -0.24978836 18 5 -0.069868512
-2.7966659 -0.07372237 0.54380566 99 13 -0.06986621
-2.8531053 -0.074711204 -0.14957617 5 6 -0.069863908
-2.7974448 -0.072765127 0.64605945 92 14 -0.069861606
-2.8426182 -0.073444396 -0.049634643 23 7 -0.069859296
-2.7790196 -0.071315214 0.74488121 94 15 -0.069856994
-2.8602304 -0.069402687 -0.76662207 64 0 -0.069836259
-2.8107445 -0.068201922 0.049076166 43 8 -0.069833957
-2.8560247 -0.06880258 -0.65955651 92 1 -0.069831654
-2.9656417 -0.070406847 -0.57662481 1 2 -0.069827043
-2.8164568 -0.066373937 0.24647643 98 10 -0.06982474
-2.8931355 -0.067675784 -0.45835301 1 3 -0.069822438
-2.7962303 -0.06540899 0.34342784 108 11 -0.069820128
-2.8458555 -0.066072211 -0.34952128 2 4 -0.069817826
-2.7963912 -0.064436167 0.44302243 112 12 -0.069815524
-2.8623154 -0.065454751 -0.2504856 28 5 -0.069813222
-2.7988803 -0.06351541 0.54418731 93 13 -0.069810912
-2.8533599 -0.064254172 -0.14957617 4 6 -0.06980861
-2.7821069 -0.062163189 0.64246023 90 14 -0.069806308
-2.8468559 -0.063609935 -0.049704451 23 7 -0.069804005
-2.7831147 -0.061699755 0.74591655 100 15 -0.069801703
-2.8623867 -0.059458915 -0.76713973 69 0 -0.069780961
-2.8189728 -0.058064915 0.049215786 43 8 -0.069778658
-2.858206 -0.058373325 -0.6600064 95 1 -0.069776356
-2.7915962 -0.056526218 0.14633135 45 9 -0.069774054
-2.867727 -0.058067769 -0.55754393 1 2 -0.069771744
-2.8126876 -0.056462213 0.24612781 102 10 -0.069769442
-2.8933539 -0.057575673 -0.45835301 1 3 -0.06976714
-2.7984359 -0.05519896 0.34367159 112 11 -0.069764838
-2.8460786 -0.055641811 -0.34952128 2 4 -0.069762528
-2.7867334 -0.053994395 0.44145811 108 12 -0.069760226
-2.8505745 -0.055231348 -0.24943975 28 5 -0.069757923
-2.8030107 -0.053821076 0.54495054 93 13 -0.069755621
-2.8455791 -0.054141641 -0.14915749 5 6 -0.069753319
-2.7784102 -0.052377909 0.64156044 90 14 -0.069751009
-2.8350739 -0.052951843 -0.049495026 26 7 -0.069748707
-2.787185 -0.05157014 0.74695182 94 15 -0.069746405
-2.8490558 -0.049233224 -0.76351619 62 0 -0.06972567
-2.8171587 -0.048190225 0.04918088 40 8 -0.06972336
-2.8603408 -0.04842956 -0.6604563 101 1 -0.069721058
-2.7937732 -0.046814762 0.14643602 52 9 -0.069718756
-2.9660609 -0.049701758 -0.57662481 1 2 -0.069716454
-2.808883 -0.046576936 0.24577919 102 10 -0.069714144
-2.8737864 -0.047152173 -0.45522434 1 3 -0.069711842
-2.8025811 -0.045494616 0.34415907 112 11 -0.069709539
-2.8680887 -0.046056651 -0.35220242 3 4 -0.069707237
-2.7770295 -0.04411028 0.43989375 104 12 -0.069704935
-2.8467655 -0.045217965 -0.2490911 22 5 -0.069702625
-2.8031814 -0.044036333 0.54495054 91 13 -0.069700323
-2.863724 -0.044486832 -0.15009953 3 6 -0.069698021
-2.7746787 -0.042619854 0.64066058 97 14 -0.069695719
-2.821245 -0.042842638 -0.049250688 26 7 -0.069693409
-2.7680316 -0.0415507 0.74177545 97 15 -0.069691107
-2.8414838 -0.039181247 -0.76144564 64 0 -0.069670372
-2.8033133 -0.038165584 0.04893655 45 8 -0.069668069
-2.8585439 -0.038418546 -0.6600064 98 1 -0.06966576
-2.7899253 -0.037009329 0.14622667 53 9 -0.069663458
-2.9662163 -0.039347887 -0.57662481 1 2 -0.069661155
-2.8010597 -0.036668096 0.24508193 98 10 -0.069658853
-2.8936856 -0.037375543 -0.45835301 1 3 -0.069656551
-2.8027229 -0.03571143 0.34415907 117 11 -0.069654241
-2.8463976 -0.035771079 -0.34952128 3 4 -0.069651939
-2.7791419 -0.034440771 0.44020665 108 12 -0.069649637
-2.8329604 -0.035107721 -0.24787092 21 5 -0.069647335
-2.7876132 -0.034058511 0.54189759 96 13 -0.069645025
-2.8478849 -0.034298487 -0.14926216 1 6 -0.069642723
-2.7826052 -0.033026591 0.64246023 90 14 -0.06964042
-2.8413732 -0.033227477 -0.049599741 25 7 -0.069638118
-2.7681599 -0.031888798 0.74177545 92 15 -0.069635808
-2.8416033 -0.029262979 -0.76144564 64 0 -0.069615074
-2.7934313 -0.028278667 0.048762023 34 8 -0.069612771
-2.8450201 -0.028304344 -0.65685707 92 1 -0.069610469
-2.7920351 -0.02728989 0.14633135 61 9 -0.069608167
-2.9152935 -0.028494641 -0.56670272 1 2 -0.069605857
-2.8011706 -0.02689027 0.24508193 98 10 -0.069603555
-2.870095 -0.027050979 -0.45459861 1 3 -0.069601253
-2.7948904 -0.025854355 0.34318411 117 11 -0.06959895
-2.8465052 -0.025835 -0.34952128 4 4 -0.069596641
-2.7792451 -0.024739467 0.44020665 108 12 -0.069594339
-2.8410351 -0.025289489 -0.24856818 22 5 -0.069592036
-2.7837887 -0.024294039 0.54113436 93 13 -0.069589734
-2.8320098 -0.024220577 -0.14842479 1 6 -0.069587424
-2.7827034 -0.023313209 0.64246023 94 14 -0.069585122
-2.8334732 -0.023244014 -0.04946012 24 7 -0.06958282
-2.7682543 -0.022225846 0.74177545 97 15 -0.069580518
-2.8513472 -0.019408744 -0.76403385 66 0 -0.069559783
-2.8175089 -0.018686671 0.04918088 47 8 -0.069557473
-2.8489988 -0.018398967 -0.65775687 89 1 -0.069555171
-2.7761354 -0.017443232 0.14549398 64 9 -0.069552869
-2.966419 -0.018638834 -0.57662481 1 2 -0.069550566
-2.8012474 -0.017112119 0.24508193 102 10 -0.069548257
-2.8780735 -0.017079808 -0.45585006 1 3 -0.069545954
-2.7870233 -0.016052397 0.34220913 112 11 -0.069543652
-2.842608 -0.015876433 -0.34903383 4 4 -0.06954135
-2.777339 -0.015027173 0.43989375 104 12 -0.06953904
-2.837121 -0.015350631 -0.24821955 22 5 -0.069536738
-2.7838566 -0.014576578 0.54113436 93 13 -0.069534436
-2.8480551 -0.014415666 -0.14926216 1 6 -0.069532134
-2.7749729 -0.013561446 0.64066058 94 14 -0.069529824
-2.8375363 -0.013371972 -0.049529929 25 7 -0.069527522
-2.7760422 -0.012597688 0.74384594 94 15 -0.06952522
-2.845602 -0.0094362684 -0.76248091 64 0 -0.069504485
-2.8015594 -0.0088019473 0.048901644 40 8 -0.069502182
-2.8451481 -0.0084416699 -0.65685707 89 1 -0.069499873
-2.7701876 -0.0077357949 0.14517996 53 9 -0.06949757
-2.8957889 -0.0080865389 -0.56288654 1 2 -0.069495268
-2.807267 -0.0073500751 0.24560487 106 10 -0.069492966
-2.8583615 -0.0069843191 -0.45272139 1 3 -0.069490656
-2.7890477 -0.0063281986 0.34245288 108 11 -0.069488354
-2.8486013 -0.0059668547 -0.34976503 5 4 -0.069486052
-2.7734239 -0.0053246957 0.43926802 112 12 -0.06948375
-2.835165 -0.0054432326 -0.24804525 24 5 -0.06948144
-2.787817 -0.0048657912 0.54189759 96 13 -0.069479138
-2.8600714 -0.0044934363 -0.14989018 1 6 -0.069476835
-2.7672086 -0.0038639393 0.638861 88 14 -0.069474533
-2.821568 -0.0034474153 -0.049250688 24 7 -0.069472231
-2.7760694 -0.0029066759 0.74384594 97 15 -0.069469921
-2.8398221 0.00049518375 -0.76092798 66 0 -0.069449186
-2.7955742 0.00097535859 0.048796929 37 8 -0.069446884
-2.8510067 0.001492943 -0.65820676 86 1 -0.069444582
-2.7781866 0.0019390041 0.14559864 49 9 -0.069442272
-2.8447549 0.0019854647 -0.55296451 1 2 -0.06943997
-2.7913368 0.0024359985 0.24421038 106 10 -0.069437668
-2.8860242 0.0030223085 -0.45710155 1 3 -0.069435365
-2.7890527 0.0034068457 0.34245288 100 11 -0.069433056
-2.8307393 0.0039524692 -0.3475714 4 4 -0.069430754
-2.7635486 0.0043409555 0.43770367 108 12 -0.069428451
-2.847121 0.0044722301 -0.2490911 11 5 -0.069426149
-2.7917435 0.004871801 0.54266083 96 13 -0.069423847
