# .PCD v0.7 - Point Cloud Data file format
VERSION 0.7
FIELDS x y z intensity ring time
SIZE 4 4 4 4 2 4
TYPE F F F F U F
COUNT 1 1 1 1 1 1
WIDTH 976
HEIGHT 1
VIEWPOINT 0 0 0 1 0 0 0
POINTS 976
DATA ascii
1.3805581 1.5473285 0.036196291 8 8 -0.012999461
1.3767544 1.5419829 0.10833544 8 9 -0.012994853
2.5789938 2.8874893 -0.75255072 7 2 -0.012992549
1.3819001 1.5466576 0.18145825 9 10 -0.012990245
1.3903357 1.555554 0.25616938 9 11 -0.012985637
1.4752882 1.6500202 -0.27176866 10 4 -0.012983333
1.3695859 1.531261 0.32538372 9 12 -0.012981029
1.3909513 1.5546008 -0.18250412 9 5 -0.012978725
1.3915565 1.5552772 0.40565994 9 13 -0.012976421
1.3986182 1.5626224 -0.10990552 8 6 -0.012974117
1.3831067 1.5447494 0.47869584 8 14 -0.012971813
1.402205 1.5655284 -0.036684956 9 7 -0.012969509
1.3819678 1.5423938 0.55490804 8 15 -0.012967205
1.3722329 1.5277692 -0.55024934 1 0 -0.012946469
1.3832785 1.5395248 0.036126483 8 8 -0.012944165
1.3954828 1.5520192 0.10938216 8 9 -0.012939557
2.5754278 2.8643229 -0.74873453 7 2 -0.012937253
1.3870217 1.542066 0.18145825 9 10 -0.012934949
1.4050539 1.5610192 0.25787556 9 11 -0.012930341
1.5726908 1.7466496 -0.28858662 12 4 -0.012928037
1.3907869 1.5440844 0.32913816 9 12 -0.012925733
1.4963948 1.6607498 -0.19557749 10 5 -0.012923429
1.39829 1.5518698 0.40604156 9 13 -0.012921125
1.42546 1.5814673 -0.11158027 8 6 -0.012918821
1.4002351 1.552938 0.48274496 9 14 -0.012916517
1.418375 1.5725044 -0.036964197 9 7 -0.012914213
1.3912262 1.5418627 0.55646098 9 15 -0.012911909
1.3713422 1.5155675 -0.54766113 4 0 -0.012891173
1.392668 1.5391363 0.036231197 9 8 -0.012888869
1.3705207 1.514127 -0.47149745 1 1 -0.012886565
1.4102763 1.5575019 0.11011487 8 9 -0.012884261
1.3966775 1.5414016 0.18198119 9 10 -0.012879653
1.4038287 1.5487508 0.25665686 9 11 -0.012875045
1.5921113 1.755856 -0.291024 13 4 -0.012872741
1.4041317 1.5479985 0.33101538 9 12 -0.012870437
1.5731418 1.7337174 -0.204816 14 5 -0.012868133
1.4066072 1.5496421 0.40680483 9 13 -0.012865829
1.5681949 1.7270538 -0.12225681 14 6 -0.012863525
1.4137793 1.55645 0.48544434 9 14 -0.012861221
1.5704097 1.7288866 -0.040768825 16 7 -0.012858917
1.4121886 1.5541552 0.56267262 9 15 -0.012856613
1.3493001 1.4807839 -0.53679073 6 0 -0.012835877
1.43602 1.5754005 0.037208531 9 8 -0.012833573
1.353739 1.4846141 -0.46384907 3 1 -0.012831269
1.4157041 1.5525699 0.11011487 8 9 -0.012828965
1.4672818 1.6085701 -0.42321438 1 2 -0.012826661
1.4060788 1.5409319 0.18250412 9 10 -0.012824357
1.4081568 1.5421294 0.25641313 9 11 -0.012819749
1.5958598 1.7470764 -0.29053652 13 4 -0.012817445
1.414856 1.5489215 0.33226684 9 12 -0.012815141
1.5885915 1.7385116 -0.20603617 14 5 -0.012812837
1.4212805 1.554866 0.40947613 8 13 -0.012810533
1.5890398 1.7377822 -0.12340819 14 6 -0.012808229
1.4192033 1.5515057 0.48544434 9 14 -0.012805925
1.6047779 1.7543801 -0.04150182 21 7 -0.012803621
1.4189098 1.5506414 0.56319028 9 15 -0.012801317
1.3479298 1.4689484 -0.53420252 3 0 -0.012780581
1.5818435 1.723863 0.040838633 12 8 -0.012778277
1.3560189 1.4772459 -0.46294928 3 1 -0.012775973
1.5170269 1.6520675 0.11754657 10 9 -0.012773669
1.3746072 1.4964459 -0.39497465 2 2 -0.012771365
1.4357136 1.5624225 0.18564174 9 10 -0.012769061
1.4060787 1.5301722 -0.32913816 1 3 -0.012766757
1.4199804 1.5447581 0.25763181 9 11 -0.012764453
1.5976132 1.7373915 -0.28980532 9 4 -0.012762149
1.4122291 1.5352511 0.33038962 9 12 -0.012759845
1.6081419 1.7476165 -0.20777929 13 5 -0.012757541
1.4410523 1.5660353 0.41367394 9 13 -0.012755237
1.5947936 1.7325034 -0.12340819 13 6 -0.012752933
1.421701 1.5439235 0.48454455 9 14 -0.012750629
1.6108924 1.7487674 -0.04150182 20 7 -0.012748325
1.4439509 1.5669885 0.57095486 9 15 -0.012746021
1.6041373 1.7359544 0.041257489 12 8 -0.012722981
1.5997741 1.7306263 0.12351287 13 9 -0.012718373
2.589844 2.8006976 -0.74148381 1 2 -0.012716069
1.5572406 1.6834347 0.20063251 12 10 -0.012713765
1.3899455 1.5020567 -0.32413223 1 3 -0.012711461
1.4604247 1.5776681 0.26396903 10 11 -0.012709157
1.4607 1.5774132 -0.26396903 3 4 -0.012706853
1.4334188 1.5479522 0.33414406 9 12 -0.012704549
1.6058044 1.7335048 -0.20673342 10 5 -0.012702245
1.4518483 1.5667553 0.41520041 9 13 -0.012699941
1.6171244 1.7445034 -0.12466426 13 6 -0.012697637
1.4376817 1.5503831 0.48814377 9 14 -0.012695333
1.6139632 1.7404836 -0.041432012 21 7 -0.012693029
1.4399431 1.552277 0.56733137 8 15 -0.012690725
1.6085229 1.7291615 0.041222587 12 8 -0.012667685
1.6139702 1.7338034 0.1241409 13 9 -0.012663077
2.5862246 2.7772729 -0.73766762 8 2 -0.012660773
1.6052072 1.7231816 0.20603617 12 10 -0.012658469
1.611807 1.7296629 0.2902928 16 11 -0.012653861
1.6283524 1.7468051 -0.29321766 11 4 -0.012651557
1.5789229 1.6931872 0.36668244 10 12 -0.012649253
1.5235064 1.6331905 -0.19540317 6 5 -0.012646949
1.4704264 1.5762891 0.41901657 9 13 -0.012644645
1.6079121 1.7230681 -0.12351287 3 6 -0.012642341
1.4614325 1.5655501 0.49444243 9 14 -0.012640037
1.6091098 1.7231472 -0.041152775 6 7 -0.012637733
1.4545836 1.5571234 0.57095486 9 15 -0.012635429
1.6036125 1.7118605 0.040943347 8 8 -0.012612389
1.6241106 1.7325299 0.12445491 12 9 -0.012607781
2.6088476 2.783004 -0.74148381 8 2 -0.012605477
1.6177267 1.7251163 0.20690772 13 10 -0.012603173
1.6246271 1.7312633 0.29151151 15 11 -0.012598565
1.6493847 1.7570313 -0.2958988 12 4 -0.012596261
1.6199815 1.7251056 0.37481701 11 12 -0.012593957
1.6312056 1.737058 -0.20847654 13 5 -0.012591653
1.6224369 1.7271161 0.46061292 12 13 -0.012589349
1.6207552 1.7247226 -0.12403623 10 6 -0.012587045
1.5269516 1.6243337 0.51468801 11 14 -0.012584741
1.5808679 1.6811006 -0.040280156 7 7 -0.012582437
1.4705991 1.5632937 0.57509595 10 15 -0.012580133
1.4380544 1.5244272 0.036580246 3 8 -0.012557093
3.7743454 3.9996388 -1.2696238 1 1 -0.012554789
1.4779651 1.5656383 0.11283633 1 9 -0.012552485
2.6023748 2.7567482 -0.73690438 8 2 -0.012550181
1.6073232 1.7020764 0.204816 6 10 -0.012547877
1.6252071 1.71981 0.29053652 10 11 -0.012543269
1.6568711 1.7527059 -0.29614252 11 4 -0.012540965
1.6205647 1.7136987 0.37356552 9 12 -0.012538661
1.650949 1.7458292 -0.21021965 13 5 -0.012536357
1.6392496 1.7328516 0.46366587 11 13 -0.012534053
1.6528485 1.7466179 -0.12602501 14 6 -0.012531749
1.637109 1.7293792 0.54978037 11 14 -0.012529445
1.6664757 1.7597858 -0.042304631 19 7 -0.012527141
1.60359 1.6927887 0.62478918 10 15 -0.012524837
1.601752 1.6861255 0.040594298 8 8 -0.012501797
1.4627796 1.5387566 0.11126626 4 9 -0.012497189
2.6025128 2.7376878 -0.73423308 7 2 -0.012494885
1.4484971 1.5231999 0.18389861 3 10 -0.012492581
1.4396162 1.5128033 0.25641313 3 11 -0.012487973
1.6629795 1.7469113 -0.29614252 11 4 -0.012485669
1.4344581 1.5063297 0.32945102 3 12 -0.012483365
1.6683303 1.7513077 -0.21161415 12 5 -0.012481061
1.5017486 1.5764407 0.42321438 2 13 -0.012478757
1.6603136 1.7422832 -0.12612967 13 6 -0.012476453
1.6431352 1.7236545 0.54978037 7 14 -0.012474149
1.6657076 1.7467225 -0.042130109 19 7 -0.012471845
1.6548274 1.7347066 0.64238888 9 15 -0.012469541
1.6546261 1.7296541 0.04178106 12 8 -0.012446501
3.8021741 3.9731932 -1.2696238 1 1 -0.012444197
1.6352592 1.7082132 0.12393155 10 9 -0.012441893
2.6098132 2.7252953 -0.73346978 7 2 -0.012439589
1.4733654 1.5380234 0.18633896 5 10 -0.012437285
1.4627435 1.5264006 0.25958171 5 11 -0.012432677
1.6773092 1.7496941 -0.29760498 11 4 -0.012430373
1.4438087 1.5055907 0.33038962 4 12 -0.012428069
1.6661582 1.7368462 -0.21056828 13 5 -0.012425765
1.4667363 1.5284296 0.41176581 4 13 -0.012423461
1.6819023 1.7520354 -0.12728105 14 6 -0.012421157
1.4523731 1.5124053 0.48409468 4 14 -0.012418853
1.6787207 1.7481086 -0.042304631 18 7 -0.012416549
1.4721677 1.5324827 0.56940192 3 15 -0.012414245
1.66373 1.7264572 0.041850869 12 8 -0.012391205
1.6633893 1.7255026 0.12560631 13 9 -0.012386597
2.6193109 2.7161682 -0.73346978 7 2 -0.012384293
1.6391863 1.6992066 0.20655911 12 10 -0.012381989
1.5096893 1.5638753 0.26689389 7 11 -0.012377381
1.6864693 1.7463902 -0.29809242 11 4 -0.012375077
1.4696392 1.5218561 0.33508268 6 12 -0.012372773
1.6818994 1.7410516 -0.21178845 12 5 -0.012370469
1.4897979 1.5416539 0.41672686 5 13 -0.012368165
1.6921729 1.7504615 -0.12759508 13 6 -0.012365861
1.4820268 1.5325429 0.49219292 5 14 -0.012363557
1.6875916 1.7451144 -0.042374443 18 7 -0.012361253
1.462733 1.5120617 0.56370795 6 15 -0.012358949
1.6750162 1.7266716 0.041990492 12 8 -0.012335909
1.6847057 1.7354492 0.1267577 12 9 -0.012331301
2.6219382 2.6999655 -0.73156172 7 2 -0.012328997
1.6812023 1.7306312 0.21109121 12 10 -0.012326693
1.6794962 1.7282712 0.2958988 13 11 -0.012322085
1.7033213 1.7521747 -0.30004236 11 4 -0.012319781
1.6016411 1.6470045 0.36386663 8 12 -0.012317477
1.6963027 1.7437383 -0.21283433 12 5 -0.012315173
1.5044845 1.5465561 0.41939822 6 13 -0.012312869
1.7007546 1.7477026 -0.12780441 13 6 -0.012310565
1.5047723 1.5457721 0.4980416 5 14 -0.012308261
1.7076244 1.7535387 -0.042723492 17 7 -0.012305957
1.4841788 1.5235516 0.56991959 6 15 -0.012303653
1.4698424 1.5051517 -0.56370795 1 0 -0.012282917
1.6838267 1.7236762 0.042060301 12 8 -0.012280613
1.6879616 1.7267011 0.12654836 12 9 -0.012276005
2.6198976 2.6800253 -0.72850877 1 2 -0.012273701
1.6938968 1.7321693 0.21196276 12 10 -0.012271397
1.6952379 1.7323291 0.29760498 12 11 -0.012266789
1.7066486 1.7433823 -0.29955488 11 4 -0.012264485
1.6944531 1.7303184 0.38357735 10 12 -0.012262181
1.7104404 1.7466443 -0.2138802 11 5 -0.012259877
1.652756 1.6871498 0.45908648 8 13 -0.012257573
1.7096395 1.7446094 -0.12801376 13 6 -0.012255269
1.5210727 1.5516425 0.50164086 5 14 -0.012252965
1.7193359 1.7532779 -0.042863112 19 7 -0.012250661
1.5084267 1.5376695 0.5771665 6 15 -0.012248357
1.4520599 1.4765959 -0.55490804 6 0 -0.012227621
1.7024549 1.7306176 0.042374443 12 8 -0.012225317
1.4516046 1.4751041 -0.47779605 3 1 -0.012223013
1.6939781 1.7207989 0.12654836 12 9 -0.012220709
1.7097192 1.7361828 0.21318294 12 10 -0.012216101
1.4971831 1.519825 -0.33789849 1 3 -0.012213797
1.7179945 1.7433685 0.30052981 14 11 -0.012211493
1.7071497 1.7317592 -0.2985799 10 4 -0.012209189
1.7032572 1.7272058 0.38420308 10 12 -0.012206885
1.7179263 1.7420812 -0.2140545 11 5 -0.012204581
1.7110273 1.7344811 0.47358796 11 13 -0.012202277
1.7241366 1.7471603 -0.1286418 13 6 -0.012199973
1.6620154 1.68362 0.5461812 8 14 -0.012197669
1.7170146 1.7387289 -0.04265368 17 7 -0.012195366
1.5382233 1.5571326 0.58648396 6 15 -0.012193061
1.4640025 1.4783813 -0.55749625 8 0 -0.012172325
1.7155217 1.731768 0.042548969 12 8 -0.01217002
1.4636036 1.4769486 -0.48004553 6 1 -0.012167717
1.7081099 1.7236842 0.12717639 13 9 -0.012165413
1.4609435 1.4737481 -0.40337023 6 2 -0.012163109
1.7087541 1.7231308 0.21231139 12 10 -0.012160805
1.4913487 1.5033715 -0.33539551 7 3 -0.012158501
1.7268664 1.7401786 0.30101728 12 11 -0.012156197
1.4863635 1.4978217 -0.25909427 4 4 -0.012153893
1.7117577 1.724353 0.38482881 11 12 -0.012151589
1.7001293 1.7120415 -0.21109121 6 5 -0.012149285
1.7253735 1.7368544 0.47587767 11 13 -0.012146981
1.7302253 1.7411308 -0.1286418 9 6 -0.012144677
1.719787 1.7306267 0.56327748 11 14 -0.012142373
1.7086728 1.7188439 -0.042304631 12 7 -0.012140069
1.6877726 1.6972252 0.64135361 9 15 -0.012137765
1.4770799 1.4817277 -0.56060207 7 0 -0.012117029
1.7071354 1.7119095 0.042199921 10 8 -0.012114725
1.4781277 1.4817442 -0.48319483 7 1 -0.012112421
1.7194592 1.7236661 0.12759508 11 9 -0.012110117
1.4796898 1.4827924 -0.40718642 7 2 -0.012107813
1.7130516 1.7160443 0.21213706 11 10 -0.012105509
1.4893471 1.4914284 -0.33383119 8 3 -0.012103205
1.7396418 1.741465 0.30223599 11 11 -0.012100901
1.492725 1.4942893 -0.25933796 7 4 -0.012098597
1.7174668 1.7186667 0.38482881 10 12 -0.012096293
1.4818325 1.4823502 -0.18337567 6 5 -0.012093989
1.7297348 1.7297354 0.47549605 12 13 -0.012091685
1.5071607 1.5066351 -0.11168494 7 6 -0.012089381
1.7310289 1.7304252 0.56507707 11 14 -0.012087077
1.4965321 1.495488 -0.036929294 8 7 -0.012084773
1.7261928 1.7243867 0.65377688 11 15 -0.012082469
1.4901962 1.4850029 -0.56370795 8 0 -0.012061733
1.4974625 1.4917245 0.036894388 5 8 -0.012059429
1.4857948 1.4795849 -0.48409468 7 1 -0.012057125
1.5878879 1.5812514 0.1174419 3 9 -0.012054821
1.4845992 1.4778769 -0.40718642 7 2 -0.012052517
1.7031976 1.6948955 0.21021965 8 10 -0.012050213
1.4970852 1.4892677 -0.33445692 8 3 -0.012047909
1.734147 1.7244881 0.30028611 10 11 -0.012045605
1.5173786 1.5089271 -0.26275033 7 4 -0.012043301
1.7287602 1.718533 0.38608032 10 12 -0.012040997
1.4952193 1.485855 -0.18442155 7 5 -0.012038693
1.7424262 1.7309076 0.47740412 10 13 -0.012036389
1.5022279 1.491778 -0.11095224 8 6 -0.012034085
1.745054 1.7329148 0.5677765 10 14 -0.012031781
1.5071592 1.4961526 -0.037068911 8 7 -0.012029477
1.7428724 1.7295388 0.65791804 11 15 -0.012027173
1.5088406 1.4936448 -0.56888431 8 0 -0.012006437
1.4981372 1.4825304 0.036789671 7 8 -0.012004133
1.4990058 1.4828721 -0.48679405 8 1 -0.012001829
1.5036697 1.4874858 0.11084756 8 9 -0.011999525
1.4978676 1.4812289 -0.40947613 7 2 -0.011997221
1.5005214 1.4833355 0.18459585 7 10 -0.011994917
1.5160668 1.4981797 -0.3375856 8 3 -0.011992613
1.5096637 1.4913315 0.26055667 5 11 -0.011990309
1.5195494 1.5010971 -0.26226285 7 4 -0.011988005
1.5292395 1.5101424 0.34040144 4 12 -0.011985701
1.5114819 1.4920856 -0.18581605 7 5 -0.011983396
1.6936572 1.6713395 0.46252102 5 13 -0.011981093
1.5100107 1.4895929 -0.11116158 8 6 -0.011978789
1.7438549 1.7202752 0.56552696 10 14 -0.011976485
1.5306228 1.5093995 -0.037522674 9 7 -0.011974181
1.7568523 1.7318875 0.66102386 11 15 -0.011971877
1.519817 1.4935204 -0.57095486 8 0 -0.011948823
1.5092667 1.4826351 0.036929294 7 8 -0.011946519
1.5113825 1.4841954 -0.48904356 8 1 -0.011944215
1.515071 1.4872983 0.11126626 7 9 -0.011941911
1.5046868 1.4771045 -0.40985772 8 2 -0.011939607
1.5187461 1.4903857 0.18616466 8 10 -0.011937303
1.5342386 1.5050633 -0.34040144 9 3 -0.011934999
1.5193714 1.4899585 0.2612879 8 11 -0.011932695
1.5366428 1.5063682 -0.26421279 8 4 -0.011930391
1.5195068 1.4890512 0.33695987 8 12 -0.011928087
1.5254784 1.4949031 -0.1868619 7 5 -0.011925783
1.5440991 1.5126224 0.42016143 6 13 -0.011923479
1.5268766 1.4952275 -0.11199896 8 6 -0.011921175
1.5429555 1.5104473 0.49849153 4 14 -0.011918871
1.537836 1.5049101 -0.03755758 9 7 -0.011916567
1.7123941 1.6751442 0.64187121 5 15 -0.011914263
1.5222555 1.4855082 -0.56991959 8 0 -0.011893527
1.5301785 1.4927174 0.037313245 8 8 -0.011891223
1.5277159 1.4897945 -0.49264279 8 1 -0.011888919
1.5259736 1.4875776 0.11168494 7 9 -0.011886615
1.5210799 1.4828069 -0.41291067 8 2 -0.011884311
1.5168052 1.4781222 0.18529311 7 10 -0.011882007
1.5451431 1.5052117 -0.3416529 9 3 -0.011879703
1.5259848 1.4860309 0.26153165 7 11 -0.011877399
1.5504258 1.5093035 -0.26567519 8 4 -0.011875095
1.519033 1.478227 0.33570841 8 12 -0.011872791
1.5292598 1.4881792 -0.1866876 8 5 -0.011870487
1.5564058 1.5140686 0.42206952 7 13 -0.011868183
1.5521322 1.5093827 -0.11346437 8 6 -0.011865879
1.5510137 1.5077684 0.49939132 7 14 -0.011863575
1.537344 1.493958 -0.037417959 8 7 -0.011861271
1.5588787 1.5143561 0.58234286 7 15 -0.011858967
1.5315939 1.4842182 -0.57147247 6 0 -0.011838231
1.5382524 1.4901501 0.037383057 8 8 -0.011835927
1.5413061 1.4925872 -0.49534222 6 1 -0.011833623
1.5438117 1.4950135 0.11262699 8 9 -0.011831319
1.5318896 1.4829501 -0.41443717 9 2 -0.011829015
1.5334095 1.4839032 0.1866876 7 10 -0.011826711
1.5574864 1.5066767 -0.34321725 10 3 -0.011824407
1.5468601 1.4958744 0.26421279 8 11 -0.011822103
1.565675 1.5135405 -0.26738134 9 4 -0.011819799
1.5324478 1.4814198 0.3375856 8 12 -0.011817495
1.5430411 1.4911394 -0.18773346 8 5 -0.011815191
1.5560335 1.5031698 0.42054302 7 13 -0.011812887
1.5602653 1.50673 -0.11367371 8 6 -0.011810583
1.5562669 1.5023454 0.49939132 7 14 -0.011808279
1.572502 1.518018 -0.038150962 9 7 -0.011805975
1.5555509 1.5011297 0.57923704 7 15 -0.011803671
1.5381577 1.480202 -0.57199007 8 0 -0.011782935
1.5460675 1.4878136 0.037452865 8 8 -0.011780631
1.5378206 1.479362 -0.49264279 8 1 -0.011778327
1.5533398 1.493768 0.112941 7 9 -0.011776023
1.541303 1.4816753 -0.41558203 7 2 -0.011773719
1.537143 1.4771614 0.18651329 8 10 -0.011771415
1.566747 1.5056101 -0.34415585 9 3 -0.011769111
1.5460861 1.4852351 0.2632378 8 11 -0.011766807
1.5735496 1.5110898 -0.26786885 9 4 -0.011764503
1.5475847 1.4856378 0.33977571 8 12 -0.011762199
1.5626127 1.4995389 -0.18947658 8 5 -0.011759895
1.5666764 1.5034386 0.42206952 7 13 -0.011757591
1.5609289 1.4973999 -0.1133597 9 6 -0.011755287
1.5753053 1.5106648 0.50389034 7 14 -0.011752983
1.5734612 1.5083679 -0.038046245 11 7 -0.011750679
1.5775193 1.51173 0.58544868 7 15 -0.011748375
1.5542284 1.4857737 -0.57613122 8 0 -0.011727639
1.5599254 1.4906974 0.03766229 8 8 -0.011725335
1.548612 1.479369 -0.49444243 8 1 -0.011723031
1.5614333 1.491096 0.11315035 7 9 -0.011720727
1.5533068 1.4833356 -0.41749012 8 2 -0.011718423
1.5593269 1.4885643 0.18860501 8 10 -0.011716119
1.5777098 1.5055866 -0.34540737 9 3 -0.011713815
1.557007 1.4853098 0.26421279 8 11 -0.011711511
1.580251 1.5069581 -0.26811257 9 4 -0.011709207
1.5599103 1.4870412 0.34134007 8 12 -0.011706903
1.5805554 1.506722 -0.19104539 10 5 -0.011704599
1.5889702 1.514213 0.42664891 7 13 -0.011702295
1.5719303 1.4974529 -0.11377838 12 6 -0.011699991
1.5805694 1.5051563 0.50389034 8 14 -0.011697687
1.5932007 1.5166535 -0.038395293 10 7 -0.011695383
1.5799873 1.5035509 0.58441341 7 15 -0.011693079
1.5762186 1.4962994 -0.58234286 8 0 -0.011672343
1.5723726 1.4921253 0.03783682 9 8 -0.011670039
1.5622488 1.4820017 -0.49714181 8 1 -0.011667735
1.5753237 1.4938825 0.11377838 8 9 -0.011665431
1.564173 1.4833083 -0.41901657 8 2 -0.011663127
1.5674061 1.4858534 0.18895365 9 10 -0.011660823
1.5929921 1.5095819 -0.34759742 8 3 -0.011658519
1.5679457 1.4853276 0.26518771 8 11 -0.011656215
1.585502 1.5014324 -0.26811257 8 4 -0.011653911
1.5593536 1.4761544 0.34008855 9 12 -0.011651607
1.5843588 1.4998255 -0.19087107 9 5 -0.011649303
1.5956711 1.5100077 0.42703056 8 13 -0.011646999
1.5785993 1.4933289 -0.11388306 11 6 -0.011644695
1.5829823 1.4969517 0.50299054 7 14 -0.011642391
1.5926714 1.5055894 -0.038255677 11 7 -0.011640087
1.5992675 1.5112947 0.58958983 7 15 -0.011637783
1.5758096 1.4854873 -0.58027232 8 0 -0.011617047
1.5833917 1.4921143 0.037976436 9 8 -0.011614743
1.5730869 1.481884 -0.49894145 8 1 -0.011612439
1.5819833 1.4897435 0.11388306 9 9 -0.011610135
1.5722002 1.4805307 -0.41977981 8 2 -0.011607831
1.5711313 1.4790084 0.18877934 9 10 -0.011605527
1.6011293 1.506719 -0.34822315 8 3 -0.011603223
1.5846884 1.4907262 0.26713762 9 11 -0.011600919
1.5994091 1.5040494 -0.269575 8 4 -0.011598615
1.5760108 1.4815266 0.34259152 9 12 -0.011596311
1.5953909 1.4997449 -0.19156833 8 5 -0.011594007
1.6095166 1.5124946 0.42932025 8 13 -0.011591703
1.5881685 1.4919128 -0.11419707 9 6 -0.011589399
1.5995623 1.5020893 0.50658977 8 14 -0.011587095
1.5993756 1.5013889 -0.038290579 9 7 -0.011584791
1.5960811 1.4977709 0.58648396 7 15 -0.011582487
1.5866264 1.4852588 -0.58234286 8 0 -0.011561751
1.5871307 1.4852114 0.03794153 8 8 -0.011559447
1.5924817 1.4896961 -0.5034405 8 1 -0.011557143
1.5886323 1.4855767 0.11398773 8 9 -0.011554839
1.5830944 1.4803981 -0.42130631 8 2 -0.011552535
1.5748292 1.4721539 0.18860501 10 10 -0.011550231
1.6063793 1.5011204 -0.34822315 8 3 -0.011547927
1.6072896 1.5014471 0.27006248 10 11 -0.011545623
1.613355 1.5065858 -0.27103746 8 4 -0.011543319
1.5912811 1.4854516 0.34478158 9 12 -0.011541015
1.5977037 1.4914471 -0.19121969 9 5 -0.011538711
1.6090448 1.5015099 0.4277938 8 13 -0.011536407
1.609432 1.5013459 -0.11534845 8 6 -0.011534103
1.6133475 1.5044705 0.50928921 8 14 -0.011531799
1.616308 1.5067053 -0.038569819 9 7 -0.011529495
1.6083652 1.4987767 0.58907217 8 15 -0.011527191
1.603121 1.4902333 -0.58648396 8 0 -0.011506455
1.5952357 1.4823844 0.038011342 8 8 -0.011504151
1.5919598 1.4788241 -0.50164086 8 1 -0.011501847
1.5996628 1.4854581 0.11440641 7 9 -0.011499543
1.6083933 1.4935653 -0.42664891 8 2 -0.011497239
1.5916406 1.4774914 0.18999951 9 10 -0.011494935
1.6188483 1.5022235 -0.3497875 9 3 -0.011492631
1.6052444 1.4890769 0.2688438 10 11 -0.011490327
1.6331604 1.5144423 -0.27347484 8 4 -0.011488023
1.5979043 1.481232 0.34509447 9 12 -0.011485719
1.6204332 1.502116 -0.19331144 8 5 -0.011483415
1.6128365 1.4945492 0.42741215 9 13 -0.011481111
1.6175938 1.498433 -0.1155578 8 6 -0.011478807
1.6214479 1.5014788 0.510189 8 14 -0.011476503
1.630363 1.5092044 -0.038779248 9 7 -0.011474199
1.6249309 1.5036495 0.59321326 8 15 -0.011471895
1.6125714 1.4885597 -0.58803689 9 0 -0.011451159
1.6033393 1.4795195 0.038081151 8 8 -0.011448855
1.5985451 1.4745791 -0.50209075 9 1 -0.011446551
1.6077752 1.4825727 0.11461575 7 9 -0.011444247
1.6222572 1.4959269 -0.42893866 8 2 -0.011441943
1.5982529 1.4732773 0.19017383 7 10 -0.011439639
1.6371566 1.5086105 -0.35260335 10 3 -0.011437335
1.6089728 1.482119 0.26860005 8 11 -0.011435031
1.6296747 1.5006645 -0.27201241 8 4 -0.011432727
1.6103324 1.4823341 0.34665883 9 12 -0.011430423
1.6344622 1.504546 -0.19435729 9 5 -0.011428119
1.6238227 1.4942274 0.42893866 8 13 -0.011425815
1.6272236 1.496834 -0.11587181 9 6 -0.011423511
1.6252451 1.4944903 0.5097391 9 14 -0.011421207
1.6385658 1.5062103 -0.038849056 9 7 -0.011418903
1.6315919 1.4992758 0.59373093 9 15 -0.011416599
1.6234537 1.4881437 -0.5901075 9 0 -0.011395863
1.6173403 1.4820192 0.038290579 8 8 -0.011393559
1.6166152 1.4808371 -0.50613987 10 1 -0.011391255
1.6215185 1.4853286 0.11524379 7 9 -0.011388951
1.6231244 1.4862788 -0.4277938 9 2 -0.011386647
1.6224918 1.4851775 0.19243988 8 10 -0.011384343
1.6555284 1.5148888 -0.35541913 10 3 -0.011382039
1.6199946 1.4818542 0.269575 8 11 -0.011379735
1.6436933 1.5030038 -0.27347484 8 4 -0.011377431
1.610866 1.4729862 0.3457202 8 12 -0.011375127
1.6485282 1.5068966 -0.19540317 9 5 -0.011372823
1.6435215 1.5017939 0.43275481 7 13 -0.011370519
1.6353886 1.4938385 -0.11608116 9 6 -0.011368215
1.6261351 1.4848654 0.50838935 7 14 -0.011365911
1.6494582 1.5061623 -0.03898868 9 7 -0.011363607
1.6451159 1.5016708 0.59683669 7 15 -0.011361303
1.6200669 1.4746648 -0.58700162 8 0 -0.011340567
1.6311184 1.4847244 0.038500007 8 8 -0.011338263
1.6373721 1.4898944 -0.51108879 9 1 -0.011335959
1.6252164 1.478315 0.11513911 8 9 -0.011333655
1.6253979 1.4779619 -0.42703056 9 2 -0.011331351
1.6232427 1.4754848 0.19191694 7 10 -0.011329047
1.6620049 1.5107186 -0.35573202 10 3 -0.011326743
1.633715 1.4844832 0.27103746 8 11 -0.011324439
1.6427903 1.4922062 -0.27249986 8 4 -0.011322135
1.6130728 1.4646989 0.34509447 8 12 -0.011319831
1.6478767 1.495777 -0.19470593 9 5 -0.011317527
1.6513997 1.4989748 0.43351805 7 13 -0.011315223
1.652166 1.4991444 -0.11691854 9 6 -0.011312919
1.6368235 1.4847022 0.510189 8 14 -0.011310615
1.6561866 1.5017389 -0.039023582 10 7 -0.011308311
1.6474848 1.4933248 0.59580147 7 15 -0.011306007
1.6321133 1.4757624 -0.58958983 8 0 -0.011285271
1.6362909 1.4790221 0.038500007 8 8 -0.011282967
1.6411167 1.4828638 -0.51063889 9 1 -0.011280663
1.6377777 1.4793262 0.11566247 7 9 -0.011278359
1.6434026 1.4844069 -0.4304651 8 2 -0.011276055
1.6281264 1.4700942 0.19191694 7 10 -0.011273751
1.6628695 1.5009367 -0.3547934 9 3 -0.011271447
1.6477301 1.4867499 0.27249986 8 11 -0.011269143
1.6700995 1.5064067 -0.27615595 9 4 -0.011266839
1.6401821 1.478901 0.3497875 9 12 -0.011264535
1.6560481 1.4926832 -0.19505455 9 5 -0.011262231
1.6566224 1.4932008 0.43351805 8 13 -0.011259927
1.6766777 1.5107486 -0.11827926 10 6 -0.011257623
1.6535803 1.4894129 0.51378822 7 14 -0.011255319
1.6643909 1.4986242 -0.03909339 12 7 -0.011253015
1.6555587 1.49015 0.59683669 7 15 -0.011250711
1.6432617 1.4749323 -0.59166032 8 0 -0.011229975
1.6473967 1.4786438 0.038639627 9 8 -0.011227671
1.6404814 1.47192 -0.50883931 8 1 -0.011225367
1.6577994 1.4869363 0.11670919 9 9 -0.011223063
1.6561404 1.4849269 -0.4323732 9 2 -0.011220759
1.6468569 1.4760847 0.19348574 8 10 -0.011218455
1.6683592 1.4948324 -0.3547934 9 3 -0.011216151
1.6617802 1.4889377 0.27396232 9 11 -0.011213847
1.6783056 1.5032163 -0.27664346 9 4 -0.011211543
1.649749 1.4771202 0.3507261 8 12 -0.011209239
1.665702 1.4908801 -0.19557749 10 5 -0.011206935
1.6664732 1.4910464 0.43466291 8 13 -0.011204631
1.6762494 1.4992669 -0.11786059 11 6 -0.011202327
1.6706498 1.4937338 0.51738745 7 14 -0.011200023
1.6845188 1.5061342 -0.039442439 12 7 -0.011197719
1.6693928 1.4920858 0.59994256 7 15 -0.011195415
1.6628214 1.4820414 -0.59683669 8 0 -0.011174679
1.6542979 1.4739265 0.038674533 9 8 -0.011172375
1.6575074 1.4762659 -0.51243848 8 1 -0.011170071
1.6614888 1.4798119 0.11660452 8 9 -0.011167767
1.6569153 1.47522 -0.43122834 9 2 -0.011165463
1.6758118 1.4915215 0.19627473 9 10 -0.011163159
1.676519 1.4916253 -0.35541913 9 3 -0.011160855
1.66871 1.4841558 0.27420604 9 11 -0.011158551
1.6674848 1.4825463 -0.27396232 8 4 -0.011156247
1.6711339 1.4857907 0.35416767 9 12 -0.011153943
1.6783425 1.4916739 -0.19644904 9 5 -0.011151639
1.6804742 1.4930439 0.43695265 8 13 -0.011149335
1.6740056 1.4867754 -0.11733723 12 6 -0.011147031
1.664196 1.477542 0.51378822 8 14 -0.011144727
1.6897664 1.5002445 -0.039442439 12 7 -0.011142423
1.6774813 1.4888139 0.60097784 7 15 -0.011140119
1.672325 1.4800687 -0.59838963 9 0 -0.011119383
1.6741514 1.4816852 0.039023582 12 8 -0.011117079
1.6711507 1.4785093 -0.51513791 8 1 -0.011114775
1.6696352 1.4766506 0.11681387 9 9 -0.011112471
1.6679378 1.4746292 -0.43275481 8 2 -0.011110167
1.6750367 1.4803847 0.19557749 9 10 -0.011107863
1.6903368 1.4939069 -0.35729638 9 3 -0.011105559
1.6780844 1.482558 0.27493724 9 11 -0.011103255
1.6872714 1.4901488 -0.2763997 8 4 -0.011100951
1.6674254 1.4721036 0.35229045 9 12 -0.011098647
1.6865264 1.4884435 -0.19679767 9 5 -0.011096343
1.6942475 1.4952577 0.43924233 8 13 -0.011094039
1.6998951 1.4997143 -0.11880264 9 6 -0.011091735
1.6866248 1.4874834 0.51918703 8 14 -0.011089431
1.6919928 1.4916927 -0.039372627 10 7 -0.011087127
1.6913637 1.4906135 0.60408366 7 15 -0.011084823
1.6714201 1.469413 -0.59631914 9 0 -0.011064087
1.6763096 1.4731916 0.03895377 9 8 -0.011061783
1.6865492 1.4816704 -0.51828724 9 1 -0.011059479
1.6792819 1.4747669 0.11712788 10 9 -0.011057175
1.6787189 1.4742724 -0.43428129 8 2 -0.011054871
1.6859261 1.4800791 0.19627473 10 10 -0.011052567
1.6970257 1.4893006 -0.35760921 8 3 -0.011050263
1.6996644 1.4910914 0.27761838 11 11 -0.011047959
1.6954479 1.4868673 -0.27688718 8 4 -0.011045655
1.6814659 1.4740878 0.35416767 9 12 -0.011043351
1.6884564 1.4802161 -0.19644904 8 5 -0.011041047
1.6994563 1.4893349 0.43924233 8 13 -0.011038743
1.7036178 1.4924549 -0.11869796 8 6 -0.011036439
1.6947385 1.4841548 0.52008682 8 14 -0.011034135
1.6956846 1.4844606 -0.039337724 9 7 -0.011031831
1.7038258 1.491061 0.60667187 8 15 -0.011029527
1.6809056 1.4673808 -0.59787202 9 0 -0.011008791
1.6769207 1.4633878 0.038849056 8 8 -0.011006487
1.6931797 1.4770547 -0.51873708 9 1 -0.011004183
1.6859254 1.4702082 0.11723255 8 9 -0.011001879
1.6897739 1.4735644 -0.43580776 8 2 -0.010999575
1.6805682 1.4650216 0.19505455 9 10 -0.010997271
1.7051929 1.4859629 -0.35823497 8 3 -0.010994967
1.7063562 1.4864529 0.27786213 10 11 -0.010992663
1.7096089 1.4887632 -0.27834961 8 4 -0.010990359
1.697031 1.4772879 0.35635775 9 12 -0.010988055
1.7056355 1.4847783 -0.19784354 8 5 -0.010985751
1.7061261 1.4846821 0.43962395 9 13 -0.010983447
1.7238849 1.4996088 -0.11974468 8 6 -0.010981143
1.7131439 1.4897383 0.52413595 9 14 -0.010978839
1.7099115 1.4864036 -0.039547153 9 7 -0.010976535
1.7119355 1.48764 0.60770714 8 15 -0.010974231
1.6903964 1.4653009 -0.59942496 9 0 -0.010953495
1.6850417 1.460144 0.038918864 8 8 -0.010951191
1.6968528 1.4698591 -0.51828724 9 1 -0.010948887
1.7031257 1.474774 0.11806992 9 9 -0.010946583
1.705296 1.4766535 -0.4384791 9 2 -0.010944279
1.7022426 1.4734896 0.19697197 8 10 -0.010941975
1.716345 1.4851714 -0.35948643 9 3 -0.010939671
1.6995233 1.4700985 0.27591223 8 11 -0.010937367
1.723805 1.4905761 -0.27981204 9 4 -0.010935063
1.6962001 1.4661876 0.35510629 8 12 -0.010932759
1.7138231 1.4814208 -0.19819216 8 5 -0.010930455
1.7068413 1.474867 0.4384791 8 13 -0.010928151
1.7200406 1.4857481 -0.11911664 8 6 -0.010925847
1.7153841 1.4812016 0.52323616 10 14 -0.010923543
1.7271993 1.4908792 -0.039826389 9 7 -0.010921239
1.7185811 1.4829168 0.60822481 9 15 -0.010918935
1.7072145 1.4694729 -0.60356599 10 0 -0.010898199
1.7022543 1.4646877 0.039198104 8 8 -0.010895895
1.712314 1.4728236 -0.52143651 10 1 -0.010893591
1.702206 1.4636111 0.11765125 8 9 -0.010891287
1.7193724 1.4783714 -0.44076881 9 2 -0.010888983
1.71342 1.4727333 0.19766922 9 10 -0.010886679
1.7260125 1.4830346 -0.36042506 9 3 -0.010884375
1.7136801 1.4719172 0.27737463 8 11 -0.010882071
1.7259856 1.4819632 -0.27932456 8 4 -0.010879767
1.7147971 1.4718382 0.35792211 9 12 -0.010877463
1.7341013 1.4884073 -0.19993527 8 5 -0.010875159
1.7134696 1.4701781 0.43886071 7 13 -0.010872855
1.7297647 1.4836353 -0.11943066 9 6 -0.010870551
1.7175841 1.4726691 0.5223363 8 14 -0.010868247
1.7445399 1.4952515 -0.04010563 9 7 -0.010865944
1.7340164 1.4857069 0.61184824 9 15 -0.010863639
1.7211438 1.4710368 -0.60667187 11 0 -0.010842903
1.7256013 1.4743241 0.039616965 8 8 -0.010840598
1.7263362 1.4744308 -0.52413595 10 1 -0.010838295
1.7161621 1.4657413 0.11827926 9 9 -0.010835991
1.7155628 1.4647131 -0.4384791 9 2 -0.010833687
1.7306739 1.4770911 0.19906372 8 10 -0.010831383
1.7447039 1.4885392 -0.36324087 10 3 -0.010829079
1.7278697 1.4736557 0.27883708 8 11 -0.010826775
1.7266161 1.472066 -0.27859333 9 4 -0.010824471
1.7211721 1.4674246 0.35823497 8 12 -0.010822167
1.7392865 1.4823445 -0.19993527 9 5 -0.010819863
1.7350302 1.4781927 0.44305849 8 13 -0.010817559
1.7349327 1.4775887 -0.11943066 9 6 -0.010815255
1.7286499 1.4717174 0.52413595 7 14 -0.010812951
1.7373073 1.4790879 -0.039826389 9 7 -0.010810647
1.7404052 1.4812002 0.6123659 7 15 -0.010808343
1.7174309 1.4575193 -0.60356599 9 0 -0.010787607
1.7411531 1.4776515 0.039861299 9 8 -0.010785303
1.7341886 1.4712188 -0.52503574 10 1 -0.010782999
1.7258375 1.4636176 0.11859328 10 9 -0.010780695
1.7296507 1.4663327 -0.44076881 9 2 -0.010778391
1.7297398 1.4658879 0.19836646 8 10 -0.010776087
1.7541519 1.4865762 -0.36417946 10 3 -0.010773783
1.747893 1.4807494 0.28127447 8 11 -0.010771479
1.7526962 1.4842931 -0.2820057 10 4 -0.010769175
1.7262843 1.4614072 0.35823497 8 12 -0.010766871
1.7444501 1.4762645 -0.19993527 9 5 -0.010764567
1.7609025 1.4901876 0.44840118 8 13 -0.010762263
1.7520216 1.4821473 -0.12026804 9 6 -0.010759959
1.7454253 1.4760432 0.52773517 7 14 -0.010757655
1.7531493 1.4820518 -0.040070724 11 7 -0.010755351
1.7544171 1.4825988 0.61547172 8 15 -0.010753047
1.7296406 1.4580413 -0.6061542 8 0 -0.010732311
1.738655 1.4651212 0.039686773 8 8 -0.010730007
1.742294 1.4676677 -0.52593553 8 1 -0.010727703
1.7490125 1.4733272 0.11984935 9 9 -0.010725399
1.7315007 1.4580592 -0.44000554 9 2 -0.010723095
1.7467852 1.4704089 0.19976096 8 10 -0.010720791
1.74875 1.4715414 -0.36198941 10 3 -0.010718487
1.7530515 1.4746386 0.28127447 8 11 -0.010716183
1.7548283 1.4756105 -0.28151822 11 4 -0.010713879
1.741704 1.4645743 0.36042506 9 12 -0.010711575
1.7539117 1.4743172 -0.20045821 10 5 -0.010709271
1.7510633 1.4714013 0.444585 8 13 -0.010706967
1.7648313 1.4824451 -0.1207914 10 6 -0.010704663
1.7714599 1.4874859 0.53403378 8 14 -0.010702359
1.7611177 1.4788016 -0.040140536 11 7 -0.010700055
1.7563651 1.4742882 0.61443645 8 15 -0.010697751
1.7421269 1.4581941 -0.60874242 8 0 -0.010677015
1.7450377 1.4606305 0.039721675 9 8 -0.010674711
1.7456565 1.4606317 -0.52548569 8 1 -0.010672407
1.7587401 1.4710574 0.12016336 10 9 -0.010670103
1.7471232 1.460821 -0.4426769 8 2 -0.010667799
1.7580218 1.4694139 0.20045821 8 10 -0.010665495
1.7566512 1.4682683 -0.36261514 8 3 -0.010663191
1.7579316 1.4688175 0.28127447 8 11 -0.010660887
1.7581886 1.4685099 -0.28127447 8 4 -0.010658583
1.7589359 1.4686145 0.362928 9 12 -0.010656279
1.7636358 1.4720162 -0.20098113 11 5 -0.010653974
1.7649763 1.473135 0.44687468 8 13 -0.010651671
1.7697381 1.4765842 -0.1207914 10 6 -0.010649367
1.7763826 1.4816037 0.53403378 8 14 -0.010647063
1.7724122 1.4777677 -0.040280156 12 7 -0.010644759
1.7793089 1.4829901 0.62064809 7 15 -0.010642455
1.7590919 1.4619827 -0.61288351 8 0 -0.01061964
1.7549936 1.4580588 0.039826389 10 8 -0.010617336
1.7494988 1.4529791 -0.52503574 8 1 -0.010615032
1.7564371 1.4582222 0.11964 9 9 -0.010612728
1.7582535 1.4597301 -0.44420335 8 2 -0.010610424
1.7646737 1.4645402 0.20063251 9 10 -0.01060812
1.7681023 1.4668646 -0.36386663 8 3 -0.010605817
1.7694159 1.4674331 0.28224945 9 11 -0.010603513
1.7696719 1.4671242 -0.28224945 8 4 -0.010601209
1.7643073 1.4621574 0.362928 9 12 -0.010598904
1.7687637 1.4658506 -0.20098113 9 5 -0.0105966
1.7869941 1.4804329 0.45107248 9 13 -0.010594296
1.7674466 1.4637188 -0.12026804 9 6 -0.010591992
1.7787992 1.4725971 0.53313398 8 14 -0.010589688
1.780898 1.4738108 -0.040349964 11 7 -0.010587384
1.7847321 1.476459 0.62064809 8 15 -0.01058508
1.7716342 1.4619818 -0.61547172 8 0 -0.010564344
1.767785 1.4582868 0.040000916 9 8 -0.01056204
1.769595 1.4592611 -0.52953476 8 1 -0.010559737
1.7692217 1.4584343 0.12016336 11 9 -0.010557433
1.7542486 1.4460915 -0.44191366 8 2 -0.010555129
1.7759253 1.4634399 0.20132977 9 10 -0.010552824
1.7823597 1.46822 -0.36574382 8 3 -0.01055052
1.7760595 1.4625099 0.28249314 9 11 -0.010548216
1.7809125 1.4659848 -0.28322437 7 4 -0.010545912
1.7724508 1.4585006 0.36355373 9 12 -0.010543608
1.7815619 1.4659978 -0.20185271 8 5 -0.010541304
1.793667 1.4754338 0.45145413 8 13 -0.010539
1.7771736 1.4613453 -0.12058206 8 6 -0.010536697
1.7839284 1.4663794 0.53313398 9 14 -0.010534393
1.7829422 1.4650459 -0.040280156 9 7 -0.010532089
1.7958466 1.4751246 0.62271863 7 15 -0.010529784
1.7767264 1.455789 -0.61547172 8 0 -0.010509049
1.7852411 1.4622437 0.040280156 7 8 -0.010506744
1.7807097 1.4580131 -0.5313344 8 1 -0.01050444
1.7804838 1.4573103 0.12058206 9 9 -0.010502136
1.7835932 1.4598553 -0.44801953 8 2 -0.010499832
1.774855 1.4521847 0.20063251 9 10 -0.010497528
1.7905324 1.4644903 -0.36636955 8 3 -0.010495224
1.7857637 1.4600712 0.28322437 10 11 -0.01049292
1.7983155 1.4698088 -0.28517428 8 4 -0.010490617
1.7744721 1.4498045 0.362928 9 12 -0.010488313
1.7912974 1.4635513 -0.20237562 8 5 -0.010486009
1.8094497 1.4778574 0.45412543 9 13 -0.010483705
1.7977345 1.4677646 -0.12162878 8 6 -0.0104814
1.8071533 1.4749291 0.53853279 8 14 -0.010479096
1.7988902 1.4676635 -0.040524486 9 7 -0.010476792
1.8114642 1.4773943 0.62634212 8 15 -0.010474488
1.7862934 1.4532354 -0.6170246 9 0 -0.010453752
1.7949884 1.4597886 0.04038487 8 8 -0.010451448
1.7993969 1.4628521 -0.53538352 9 1 -0.010449144
1.7995101 1.4624226 0.1215241 7 9 -0.01044684
1.7871552 1.452382 -0.44763795 9 2 -0.010444537
1.7814596 1.4472373 0.20080683 8 10 -0.010442233
1.8033003 1.464458 -0.3679339 9 3 -0.010439929
1.8031794 1.4638376 0.28517428 8 11 -0.010437625
1.8034356 1.463522 -0.28517428 7 4 -0.01043532
1.7902602 1.4523133 0.36511809 8 12 -0.010433016
1.8025842 1.4623109 -0.20307288 9 5 -0.010430712
1.8084984 1.4665855 0.45259899 9 13 -0.010428408
1.8121566 1.4690263 -0.12225681 8 6 -0.010426104
1.8183467 1.4735202 0.54033244 11 14 -0.0104238
1.8102182 1.4664098 -0.040664107 9 7 -0.010421496
1.8136078 1.46863 0.62530684 8 15 -0.010419193
1.797367 1.4518464 -0.61909521 9 0 -0.010398456
1.7954053 1.4497455 0.040280156 7 8 -0.010396153
1.7893288 1.4443216 -0.5308845 9 1 -0.010393849
1.8077132 1.4586402 0.12173345 7 9 -0.010391545
1.8013817 1.4535314 -0.44992763 9 2 -0.01038924
1.7911525 1.4447629 0.20132977 7 10 -0.010386936
1.8114772 1.4606338 -0.36855966 9 3 -0.010384632
1.8036418 1.4537966 0.28444308 7 11 -0.010382328
1.827081 1.4721649 -0.28809914 8 4 -0.010380024
1.7968577 1.447294 0.36543098 7 12 -0.01037772
1.8200912 1.4660077 -0.20446737 9 5 -0.010375416
1.813607 1.4602631 0.45259899 7 13 -0.010373113
1.8110487 1.4576838 -0.12183812 8 6 -0.010370809
1.826516 1.4696066 0.54123223 8 14 -0.010368505
1.8309085 1.4726143 -0.041013155 9 7 -0.0103662
1.8247445 1.4671338 0.62737739 8 15 -0.010363896
1.8024236 1.4455638 -0.61909521 10 0 -0.01034316
1.808256 1.4497232 0.040454678 8 8 -0.010340856
1.8034825 1.4453806 -0.53358394 11 1 -0.010338552
1.8096757 1.449824 0.1215241 7 9 -0.010336248
1.8095084 1.44969 -0.4506909 9 2 -0.010333944
1.8086263 1.448465 0.20272426 7 10 -0.01033164
1.8258173 1.4617083 -0.37043685 10 3 -0.010329336
1.8102553 1.4487327 0.28468683 8 11 -0.010327033
1.8306592 1.4645377 -0.28785542 9 4 -0.010324729
1.8126981 1.4496487 0.36762103 8 12 -0.010322425
1.8283098 1.4621336 -0.204816 8 5 -0.01032012
1.8340276 1.4661829 0.45641515 7 13 -0.010317816
1.8239276 1.4575871 -0.12236147 9 6 -0.010315512
1.8255448 1.4583561 0.53943259 7 14 -0.010313208
1.845413 1.4737018 -0.041222587 10 7 -0.010310904
1.8313649 1.4619598 0.62789506 7 15 -0.0103086
1.8225715 1.4512969 -0.62427157 9 0 -0.010287864
1.8242571 1.4521204 0.040699009 9 8 -0.01028556
1.8161416 1.4451427 -0.53583342 11 1 -0.010283256
1.8238505 1.4512769 0.12215213 7 9 -0.010280953
1.8130218 1.442142 -0.45030925 10 2 -0.010278649
1.8199089 1.4471033 0.2034215 7 10 -0.010276345
1.8340005 1.457786 -0.37106261 10 3 -0.010274041
1.8230724 1.448579 0.28590551 8 11 -0.010271736
1.8448312 1.4658681 -0.28931785 9 4 -0.010269432
1.8159475 1.4424021 0.36730817 7 12 -0.010267128
1.8427634 1.4631776 -0.20586187 9 5 -0.010264824
1.8514366 1.4695359 0.4594681 8 13 -0.01026252
1.8352633 1.4561768 -0.12278017 9 6 -0.010260216
1.8425833 1.4619848 0.54303181 7 14 -0.010257913
1.8518561 1.4688171 -0.041257489 11 7 -0.010255609
1.8543683 1.4702811 0.6341067 7 15 -0.010253305
1.8213127 1.4404519 -0.62220097 8 0 -0.010232569
1.8400428 1.4547448 0.040943347 8 8 -0.010230265
1.8163376 1.4354868 -0.53448373 8 1 -0.010227961
1.8317875 1.447697 0.12236147 9 9 -0.010225656
1.8254963 1.4422077 -0.45221734 9 2 -0.010223352
1.8262609 1.4422957 0.20359582 8 10 -0.010221048
1.8434763 1.4553676 -0.3720012 10 3 -0.010218744
1.8356574 1.4486749 0.28712422 8 11 -0.01021644
1.8559151 1.464662 -0.2902928 10 4 -0.010214136
1.826924 1.4412668 0.36855966 8 12 -0.010211833
1.8413481 1.452123 -0.20516461 10 5 -0.010209529
1.8593829 1.4658195 0.46023133 7 13 -0.010207225
1.8494931 1.4575013 -0.12340819 9 6 -0.010204921
1.8504816 1.4582803 0.54393166 7 14 -0.010202616
1.8504338 1.4577178 -0.041117873 11 7 -0.010200312
1.8470917 1.4545625 0.62996554 7 15 -0.010198008
1.8306376 1.4379839 -0.62375391 8 0 -0.010177272
1.8401389 1.4449296 0.040838633 9 8 -0.010174968
1.8440809 1.4475048 -0.54123223 8 1 -0.010172664
1.8572567 1.4573216 0.12372221 9 9 -0.01017036
1.8410809 1.4446292 -0.45488867 8 2 -0.010168056
1.8341694 1.4386903 0.20394444 8 10 -0.010165752
1.8451831 1.4468092 -0.37137547 8 3 -0.010163449
1.8529505 1.4523759 0.28907412 8 11 -0.010161145
1.8625784 1.4593993 -0.29053652 9 4 -0.010158841
1.8366095 1.4385345 0.36949828 8 12 -0.010156536
1.8495435 1.4481428 -0.20551322 9 5 -0.010154232
1.8673255 1.4620657 0.46099457 7 13 -0.010151928
1.8684717 1.4624387 -0.12435025 11 6 -0.010149624
1.8647697 1.4590164 0.54663104 7 14 -0.01014732
1.864962 1.4586407 -0.041327298 13 7 -0.010145016
1.8673766 1.4600054 0.63514197 7 15 -0.010142712
1.845037 1.4383917 -0.62685978 8 0 -0.010121976
1.8435949 1.4372675 0.040803727 10 8 -0.010119672
1.8399004 1.4338709 -0.53853279 8 1 -0.010117369
1.8654824 1.4532859 0.12393155 9 9 -0.010115065
1.849461 1.4402846 -0.45565188 8 2 -0.010112761
1.8488635 1.4393009 0.2049903 8 10 -0.010110456
1.8629447 1.4497422 -0.37387842 8 3 -0.010108152
1.8548745 1.4434619 0.28858662 8 11 -0.010105848
1.8770628 1.4602015 -0.29199898 7 4 -0.010103544
1.8556545 1.443028 0.37231407 9 12 -0.01010124
1.8577323 1.4441248 -0.20586187 8 5 -0.010098936
1.8742216 1.4564168 0.46137619 8 13 -0.010096632
1.8659333 1.4494539 -0.12382689 9 6 -0.010094329
1.8793404 1.4593427 0.54933047 7 14 -0.010092025
1.8779391 1.4582547 -0.04150182 9 7 -0.010089721
1.881618 1.4605851 0.63824779 7 15 -0.010087417
1.8592124 1.4390374 -0.62996554 8 0 -0.010066681
1.8520131 1.4329485 0.040873535 9 8 -0.010064377
1.845143 1.4271183 -0.53853279 8 1 -0.010062072
1.8628966 1.44033 0.12340819 9 9 -0.010059768
1.8669022 1.4434271 -0.45870483 8 2 -0.010057464
1.864911 1.4413676 0.20621049 9 10 -0.01005516
1.8773735 1.4504764 -0.37575564 8 3 -0.010052856
1.8601536 1.4366524 0.28858662 9 11 -0.010050552
1.8729739 1.4460335 -0.29053652 7 4 -0.010048248
1.8671858 1.4410449 0.37356552 9 12 -0.010045945
1.8816895 1.4522384 -0.2079536 8 5 -0.010043641
1.8917297 1.4594589 0.46442911 8 13 -0.010041337
1.8662363 1.4392729 -0.12351287 8 6 -0.010039032
1.8905959 1.4575332 0.55113006 7 14 -0.010036728
1.8927751 1.4586853 -0.041711252 9 7 -0.010034424
1.8838978 1.4513214 0.63721251 8 15 -0.01003212
1.8826059 1.4466647 -0.63617724 8 0 -0.010011384
1.8744483 1.4398744 0.041257489 7 8 -0.01000908
1.862478 1.4301641 -0.54213202 8 1 -0.010006776
1.8647442 1.4313867 0.12319885 7 9 -0.010004472
1.8563557 1.4249477 -0.45488867 8 2 -0.010002168
1.8746735 1.4384874 0.20673342 8 10 -0.0099998647
1.8886943 1.4487237 -0.3770071 8 3 -0.0099975606
1.8730334 1.4361905 0.28980532 9 11 -0.0099952566
1.8937657 1.4515626 -0.29297391 7 4 -0.0099929525
1.8690684 1.4321158 0.3729398 9 12 -0.0099906484
1.9009807 1.4565676 -0.2095224 7 5 -0.0099883443
1.9014882 1.4564286 0.46557397 9 13 -0.0099860402
1.8871074 1.4448912 -0.12455959 8 6 -0.0099837361
1.8832926 1.441449 0.54753083 8 14 -0.009981432
1.9010315 1.4545001 -0.04178106 10 7 -0.0099791288
1.9012287 1.4541249 0.64135361 9 15 -0.0099768247
1.876893 1.4318814 -0.63255376 9 0 -0.0099560879
1.885823 1.4381735 0.04139711 7 8 -0.0099537848
1.8783075 1.4319237 -0.54528135 9 1 -0.0099514807
1.880599 1.4336706 0.12393155 6 9 -0.0099491766
1.8800567 1.4327385 -0.4594681 9 2 -0.0099468725
1.8891922 1.4391792 0.20777929 8 10 -0.0099445684
1.9078844 1.4528927 -0.37982294 9 3 -0.0099422643
1.8843532 1.4344536 0.29078028 7 11 -0.0099399602
1.9080456 1.4524895 -0.29443637 8 4 -0.0099376561
1.8738074 1.4259094 0.3729398 7 12 -0.009935352
1.8981252 1.4438914 -0.20865084 8 5 -0.0099330479
1.9128113 1.4545361 0.46710047 7 13 -0.0099307448
1.9080396 1.4503821 -0.12560631 9 6 -0.0099284407
1.9004734 1.4446306 0.55113006 8 14 -0.0099261366
1.9090282 1.4506081 -0.041850869 9 7 -0.0099238325
1.9014249 1.4443071 0.63980073 8 15 -0.0099215284
1.884711 1.4279824 -0.63358909 10 0 -0.0099007925
1.881017 1.4246683 0.041187681 7 8 -0.0098984884
1.8954748 1.4350981 -0.54888058 10 1 -0.0098961843
1.8933046 1.4334549 0.12445491 7 9 -0.0098938802
1.8910599 1.4312348 -0.46099457 9 2 -0.0098915761
1.879654 1.422088 0.20621049 7 10 -0.009889272
1.9142677 1.4477489 -0.38013577 10 3 -0.0098869679
1.8922669 1.4305909 0.29126775 7 11 -0.0098846648
1.9128522 1.4461538 -0.29443637 9 4 -0.0098823607
1.8879813 1.4268343 0.37481701 7 12 -0.0098800566
1.9060827 1.4399905 -0.20899945 8 5 -0.0098777525
1.9113578 1.4434518 0.46557397 7 13 -0.0098754484
1.9128383 1.4440472 -0.12560631 9 6 -0.0098731443
1.9083638 1.4406693 0.55202991 7 14 -0.0098708402
1.9202133 1.4490874 -0.041990492 10 7 -0.0098685361
1.9139154 1.4438105 0.64238888 7 15 -0.0098662321
1.8925223 1.424049 -0.6346243 9 0 -0.0098454962
1.8969179 1.4268367 0.041432012 8 8 -0.0098431921
1.8986663 1.4276328 -0.54843068 11 1 -0.009840888
1.9110694 1.4364371 0.12529229 7 9 -0.0098385848
1.9086004 1.4340601 -0.46404752 10 2 -0.0098362807
1.897103 1.4254211 0.20760499 7 10 -0.0098339766
1.9158987 1.4390206 -0.37951005 10 3 -0.0098316725
1.8970002 1.4243083 0.29126775 8 11 -0.0098293684
1.9274143 1.4466178 -0.2958988 8 4 -0.0098270644
1.9024314 1.4273479 0.37669426 8 12 -0.0098247603
1.9206607 1.4405012 -0.21004534 8 5 -0.0098224562
1.9258093 1.4438376 0.46786368 7 13 -0.0098201521
1.9322519 1.4481412 -0.12654836 9 6 -0.009817848
1.9242972 1.4421794 0.55517924 7 14 -0.0098155439
1.9460647 1.457963 -0.042444255 10 7 -0.0098132407
1.9220359 1.4394372 0.64342415 6 15 -0.0098109366
1.9147571 1.4298162 -0.64031839 8 0 -0.0097902007
1.9085444 1.4246596 0.041571636 8 8 -0.0097878966
1.9038857 1.4206648 -0.54843068 8 1 -0.0097855926
1.9227257 1.4341992 0.12571098 7 9 -0.0097832885
1.9122695 1.425882 -0.46366587 9 2 -0.0097809844
1.9150921 1.4279866 0.20899945 7 10 -0.0097786803
1.9385818 1.4449753 -0.38295162 9 3 -0.0097763762
1.9181261 1.4292059 0.29370514 7 11 -0.0097740721
1.9374796 1.4431006 -0.29663 9 4 -0.009771768
1.9155717 1.4262645 0.37825859 8 12 -0.0097694639
1.9355177 1.4405892 -0.21109121 9 5 -0.0097671608
1.9373889 1.4414564 0.46939012 7 13 -0.0097648567
1.9375464 1.4410498 -0.12654836 9 6 -0.0097625526
1.9295698 1.4351172 0.55517924 7 14 -0.0097602485
1.9578146 1.4555922 -0.042583872 11 7 -0.0097579444
1.9335015 1.4369919 0.64549476 7 15 -0.0097556403
1.9230886 1.4250894 -0.64135361 8 0 -0.0097349044
1.9266081 1.4271768 0.041850869 8 8 -0.0097326003
1.9169101 1.419476 -0.55068022 7 1 -0.0097302962
1.9309294 1.4298574 0.12592033 7 9 -0.0097279921
1.9203914 1.4215337 -0.46442911 7 2 -0.009725688
1.9379312 1.4339937 0.21091689 8 10 -0.0097233839
1.9438646 1.4378606 -0.38295162 8 3 -0.0097210808
1.9345242 1.430428 0.29541129 8 11 -0.0097187767
1.9409089 1.4351491 -0.29638627 8 4 -0.0097164726
1.9300702 1.4266137 0.38013577 9 12 -0.0097141685
1.946943 1.4385614 -0.21178845 11 5 -0.0097118644
1.9518838 1.441684 0.47167987 7 13 -0.0097095603
1.9441717 1.4354634 -0.12665303 10 6 -0.0097072562
1.9424065 1.4341601 0.55742872 7 14 -0.0097049521
1.950012 1.4392499 -0.042304631 12 7 -0.009702648
1.9509416 1.4394101 0.64963585 7 15 -0.0097003439
1.9340272 1.4232849 -0.64342415 8 0 -0.009679608
1.9426062 1.4290743 0.042095207 9 8 -0.009677304
1.9357364 1.4235015 -0.55472928 8 1 -0.0096749999
1.9356607 1.4234458 0.12592033 9 9 -0.0096726967
1.9345857 1.422135 -0.46671882 7 2 -0.0096703926
1.9346485 1.4216597 0.21004534 7 10 -0.0096680885
1.9518064 1.4337451 -0.38357735 7 3 -0.0096657844
1.9392569 1.4240054 0.29541129 8 11 -0.0096634803
1.9552572 1.4357545 -0.2978487 7 4 -0.0096611762
1.9300135 1.4166983 0.37919718 9 12 -0.0096588721
1.945278 1.4273821 -0.21109121 8 5 -0.0096565681
1.969318 1.4444932 0.47473282 8 13 -0.009654264
1.9601964 1.4372748 -0.12738572 9 6 -0.0096519608
1.9471521 1.4277104 0.55742872 7 14 -0.0096496567
1.953161 1.4315937 -0.042269729 10 7 -0.0096473526
1.952587 1.4306494 0.64860052 7 15 -0.0096450485
1.9449759 1.4214228 -0.64549476 8 0 -0.0096243126
1.9408753 1.4179064 0.041955583 9 8 -0.0096220085
1.959331 1.4308662 -0.56012809 8 1 -0.0096197044
1.9470707 1.4213903 0.126339 10 9 -0.0096174004
1.9456344 1.4203417 -0.46824533 8 2 -0.0096150963
1.9329145 1.410539 0.2093481 9 10 -0.0096127922
1.9741046 1.440071 -0.38701892 8 3 -0.0096104881
1.9568001 1.426923 0.29736122 9 11 -0.009608184
1.9650699 1.4324282 -0.2985799 7 4 -0.0096058808
1.9509109 1.4215873 0.38232586 9 12 -0.0096035767
1.9711848 1.4358323 -0.21335725 8 5 -0.0096012726
1.9629893 1.4298626 0.47206149 8 13 -0.0095989686
1.9746391 1.4378211 -0.12801376 8 6 -0.0095966645
1.9647274 1.4300808 0.56102794 8 14 -0.0095943604
1.9743164 1.4365318 -0.042618778 9 7 -0.0095920563
1.9669434 1.4306422 0.6517064 7 15 -0.0095897522
1.965811 1.4256263 -0.65067112 8 0 -0.0095690163
1.9458126 1.4111232 0.041955583 7 8 -0.0095667122
1.9548478 1.4171551 -0.55742872 8 1 -0.0095644081
1.953638 1.4157566 0.12644368 9 9 -0.009562104
1.9651359 1.4235673 -0.47167987 8 2 -0.0095598008
1.9493669 1.4116254 0.21056828 9 10 -0.0095574968
1.9761701 1.4305078 -0.38639316 8 3 -0.0095551927
1.9601616 1.4189196 0.2971175 9 11 -0.0095528886
1.9845316 1.4360341 -0.30077356 7 4 -0.0095505845
1.9542612 1.4136103 0.38201302 9 12 -0.0095482804
1.9697268 1.4242724 -0.21266 7 5 -0.0095459763
1.9698075 1.4238088 0.4724431 9 13 -0.0095436722
1.9782763 1.4294045 -0.12790908 8 6 -0.0095413681
1.9762757 1.4274328 0.56282753 8 14 -0.009539064
1.9874244 1.4354854 -0.0427933 8 7 -0.0095367599
1.9781898 1.4282913 0.65377688 7 15 -0.0095344558
