# .PCD v0.7 - Point Cloud Data file format
VERSION 0.7
FIELDS x y z intensity ring time
SIZE 4 4 4 4 2 4
TYPE F F F F U F
COUNT 1 1 1 1 1 1
WIDTH 908
HEIGHT 1
VIEWPOINT 0 0 0 1 0 0 0
POINTS 908
DATA ascii
-1.1593959 -0.32829452 -0.19085006 57 3 -0.093368553
-1.1479651 -0.32484132 0.14648695 77 11 -0.09336625
-1.1594257 -0.32808435 -0.1479494 57 4 -0.093363948
-1.1367005 -0.3214398 0.18709564 63 12 -0.093361638
-1.1714717 -0.33105144 -0.10650431 67 5 -0.093359336
-1.1648396 -0.32873857 -0.063431181 63 6 -0.093354732
-2.9332552 -0.82781702 0.7036469 77 14 -0.093352422
-1.1759412 -0.33164975 -0.02132684 63 7 -0.09335012
-2.9527466 -0.83220452 0.82200933 91 15 -0.093347818
-1.1569519 -0.32455078 -0.32197091 71 0 -0.093327083
-1.1610569 -0.3254841 0.021047603 67 8 -0.09332478
-1.1746862 -0.32908377 -0.28163874 59 1 -0.093322471
-1.1539859 -0.32306713 0.062803157 61 9 -0.093320169
-1.1702591 -0.32762295 -0.23622155 62 2 -0.093317866
-1.1704155 -0.32744676 0.10633 69 10 -0.093315564
-1.1756977 -0.32870331 -0.19335303 59 3 -0.093313254
-1.1585953 -0.32370353 0.14770564 75 11 -0.093310952
-1.1835073 -0.33044142 -0.15087426 54 4 -0.09330865
-1.1473291 -0.32012415 0.18866 60 12 -0.093306348
-1.1648868 -0.32502306 -0.10580707 66 5 -0.093304038
-1.1793913 -0.32862663 -0.064163886 62 6 -0.093299434
-2.9361272 -0.81757224 0.7036469 75 14 -0.093297131
-1.1809448 -0.32861507 -0.02139665 63 7 -0.093294822
-2.9332988 -0.81568223 0.81579769 86 15 -0.093292519
-1.1618013 -0.3215411 -0.32300618 70 0 -0.093271784
-1.162186 -0.32142922 0.021047603 67 8 -0.093269482
-1.1946111 -0.33017239 -0.28613773 59 1 -0.09326718
-1.1666576 -0.3222276 0.063431181 60 9 -0.09326487
-1.1751806 -0.32458162 -0.23698479 61 2 -0.093262568
-1.1677103 -0.32229909 0.10598138 69 10 -0.093260266
-1.1806464 -0.32564753 -0.19397876 55 3 -0.093257964
-1.1769416 -0.32440493 0.1498993 77 11 -0.093255654
-1.1884812 -0.32736248 -0.15136175 54 4 -0.093253352
-1.1541532 -0.31768996 0.18959859 58 12 -0.09325105
-1.1813817 -0.32518482 -0.10720156 66 5 -0.093248747
-1.1882344 -0.32662526 -0.064582579 62 6 -0.093244135
-2.9427214 -0.80835056 0.70454669 77 14 -0.093241833
-1.1917264 -0.3271378 -0.021571174 72 7 -0.093239531
-2.9342654 -0.80492634 0.81528002 93 15 -0.093237221
-1.1778259 -0.32155401 -0.32714728 73 0 -0.093216486
-1.1690886 -0.31894943 0.021152316 72 8 -0.093214184
-1.1901158 -0.32446289 -0.28478804 56 1 -0.093211882
-1.1831914 -0.32235324 0.064268559 67 9 -0.09320958
-1.1877279 -0.32336655 -0.2392745 60 2 -0.09320727
-1.1803627 -0.32136133 0.10702725 65 10 -0.093204968
-1.1779637 -0.32048741 -0.19335303 55 3 -0.093202665
-1.1761514 -0.31977382 0.14965557 75 11 -0.093200363
-1.2011107 -0.32633439 -0.15282416 58 4 -0.093198054
-1.1685996 -0.31728268 0.19178867 57 12 -0.093195751
-1.1825656 -0.32085291 -0.10720156 66 5 -0.093193449
-1.1971346 -0.32435721 -0.065001264 62 6 -0.093188837
-2.9417632 -0.79705495 0.7036469 79 14 -0.093186535
-1.2140932 -0.32872462 -0.021955127 67 7 -0.093184233
-2.9370573 -0.79467887 0.81528002 93 15 -0.09318193
-1.1901896 -0.32024658 -0.33025309 77 0 -0.093161196
-1.1895609 -0.3198548 0.021501366 69 8 -0.093158886
-1.1894152 -0.31959304 -0.28433815 59 1 -0.093156584
-1.1766492 -0.31594267 0.063849874 65 9 -0.093154281
-1.2002823 -0.32206389 -0.2415642 60 2 -0.093151979
-1.1969272 -0.32116365 0.10842174 65 10 -0.093149669
-1.1943945 -0.32026058 -0.19585598 59 3 -0.093147367
-1.175398 -0.31494707 0.14941183 71 11 -0.093145065
-1.2022986 -0.3219302 -0.15282416 57 4 -0.093142763
-1.1850206 -0.31708217 0.19429164 60 12 -0.093140453
-1.2029814 -0.32166305 -0.10894467 67 5 -0.093138151
-1.1944561 -0.3189365 -0.064791918 62 6 -0.093133546
-2.9314854 -0.78274763 0.70049757 82 14 -0.093131244
-1.2249504 -0.32684988 -0.022129651 76 7 -0.093128935
-2.9399498 -0.78390932 0.81528002 100 15 -0.093126632
-1.2062939 -0.31984305 -0.33439422 75 0 -0.093105897
-1.206189 -0.31958994 0.021780603 69 8 -0.093103595
-1.2037653 -0.31872296 -0.28748745 56 1 -0.093101285
-1.1835371 -0.3133671 0.064163886 63 9 -0.093098983
-1.1957055 -0.31636566 -0.24041936 58 2 -0.093096681
-1.2019488 -0.31779307 0.10877036 65 10 -0.093094379
-1.2108388 -0.31991753 -0.19835892 59 3 -0.093092069
-1.1918991 -0.31469092 0.15136175 77 11 -0.093089767
-1.2072536 -0.31874487 -0.15331164 58 4 -0.093087465
-1.1823001 -0.31193584 0.19366589 56 12 -0.093085162
-1.211803 -0.31949359 -0.10964192 68 5 -0.09308286
-1.2148765 -0.31985015 -0.065838635 59 6 -0.093078248
-2.9247773 -0.77002919 0.69824809 79 14 -0.093075946
-1.2202822 -0.32104596 -0.022024937 69 7 -0.093073644
-2.9426684 -0.77364206 0.81528002 93 15 -0.093071334
-1.2036099 -0.3148632 -0.33335894 71 0 -0.093050599
-1.2130462 -0.31710586 0.021885319 67 8 -0.093048297
-1.2198993 -0.31866959 -0.29108664 56 1 -0.093045995
-1.2019615 -0.31398374 0.065105937 67 9 -0.093043692
-1.2081455 -0.31537396 -0.24270906 57 2 -0.093041383
-1.2068517 -0.31481156 0.10911899 69 10 -0.093039081
-1.2271851 -0.31988654 -0.20086187 59 3 -0.093036778
-1.223672 -0.31874275 0.15526156 77 11 -0.093034476
-1.223672 -0.31874275 -0.15526156 56 4 -0.093032166
-1.1890632 -0.30950621 0.1946045 54 12 -0.093029864
-1.205143 -0.31346712 -0.10894467 68 5 -0.093027562
-2.9774852 -0.77391249 0.5979954 1 13 -0.09302526
-1.2197969 -0.31682387 -0.066047981 58 6 -0.09302295
-2.9273148 -0.76032597 0.69824809 77 14 -0.093020648
-1.2290825 -0.31900704 -0.022164557 69 7 -0.093018346
-2.920908 -0.75757438 0.80855072 91 15 -0.093016043
-1.2046475 -0.31087011 -0.33335894 73 0 -0.092995308
-1.2102183 -0.31208274 0.021815507 67 8 -0.092992999
-1.2303848 -0.31705385 -0.29333615 55 1 -0.092990696
-1.2146006 -0.31298643 0.065733969 67 9 -0.092988394
-1.2205921 -0.31430325 -0.24499875 57 2 -0.092986092
-1.2098185 -0.31130421 0.1092933 67 10 -0.092983782
-1.2282392 -0.31581527 -0.20086187 57 3 -0.09298148
-1.2189542 -0.31320104 0.15453033 75 11 -0.092979178
-1.2285676 -0.31567112 -0.15574904 56 4 -0.092976876
-1.2111294 -0.31096551 0.19804606 51 12 -0.092974566
-1.2138953 -0.31144956 -0.10964192 71 5 -0.092972264
-1.4586387 -0.37397215 0.29270101 1 13 -0.092969961
-1.2324492 -0.31575179 -0.066676013 58 6 -0.092967659
-2.9298196 -0.75061572 0.69824809 79 14 -0.09296535
-1.2436941 -0.3184011 -0.02240889 74 7 -0.092963047
-2.9290187 -0.74932045 0.81010365 93 15 -0.092960745
-1.220649 -0.31068566 -0.33750004 75 0 -0.09294001
-1.2151227 -0.3090536 0.021885319 67 8 -0.092937708
-1.2314295 -0.31297222 -0.29333615 55 1 -0.092935398
-1.2253103 -0.31141704 0.066257328 63 9 -0.092933096
-1.2330447 -0.31315339 -0.24728847 58 2 -0.092930794
-1.2282248 -0.31170139 0.11086211 65 10 -0.092928492
-1.2331092 -0.31271195 -0.20148762 55 3 -0.092926182
-1.2276833 -0.31110761 0.15550528 72 11 -0.09292388
-1.2450017 -0.31549624 -0.15769894 58 4 -0.092921577
-1.2313033 -0.31179658 0.20117474 49 12 -0.092919275
-1.2303736 -0.31133237 -0.11103641 72 5 -0.092916965
-1.4484508 -0.36624545 0.29041129 10 13 -0.092914663
-1.2412351 -0.31362012 -0.067094706 59 6 -0.092912361
-2.9247353 -0.73898631 0.6964485 77 14 -0.092910059
-1.256376 -0.31721216 -0.022618318 76 7 -0.092907757
-2.9239953 -0.73771298 0.80803311 96 15 -0.092905447
-1.2330229 -0.30902788 -0.34060588 71 0 -0.092890263
-1.2220666 -0.30605498 0.021990033 65 8 -0.09288796
-1.2325683 -0.30845672 -0.29333615 55 1 -0.092885658
-1.2245594 -0.30622536 0.066152655 65 9 -0.092883348
-1.2513256 -0.31291878 -0.25072303 61 2 -0.092881046
-1.2390238 -0.30961239 0.11173366 63 10 -0.092878744
-1.2419131 -0.31010443 -0.20273907 57 3 -0.092876442
-1.2288152 -0.30660608 0.15550528 75 11 -0.092874132
-1.2462039 -0.31071347 -0.15769894 57 4 -0.09287183
-1.2401586 -0.30897662 0.20242621 44 12 -0.092869528
-1.2431601 -0.30949405 -0.11208228 70 5 -0.092867225
-1.4764547 -0.36757448 0.29575396 4 13 -0.092864916
-1.2385 -0.30810401 -0.06688536 58 6 -0.092862613
-2.9218779 -0.7263397 0.69509876 82 14 -0.092860311
-1.2614664 -0.31334987 -0.022688128 76 7 -0.092858009
-2.9305561 -0.72741091 0.80906838 96 15 -0.092855699
-1.2491521 -0.3082087 -0.34474698 71 0 -0.092834964
-1.2444837 -0.30705684 0.022373985 63 8 -0.092832662
-1.2449901 -0.30695128 -0.29603559 52 1 -0.09283036
-1.2372565 -0.30481526 0.066780686 67 9 -0.092828058
-1.2486515 -0.30739173 -0.2499598 60 2 -0.092825748
-1.2459544 -0.30649716 0.1122566 60 10 -0.092823446
-1.2660608 -0.31120858 -0.20649351 55 3 -0.092821144
-1.2414445 -0.30515766 0.15696773 72 11 -0.092818841
-1.254992 -0.30825582 -0.1586739 58 4 -0.092816532
-1.2412295 -0.30464575 0.20242621 39 12 -0.092814229
-1.2558434 -0.30799988 -0.11312816 72 5 -0.092811927
-1.479699 -0.36262748 0.29613557 4 13 -0.092809625
-1.2512606 -0.30641329 -0.067513391 58 6 -0.092807315
-2.9112701 -0.71238321 0.69194949 79 14 -0.092805013
-1.2644949 -0.3094199 -0.022723034 68 7 -0.092802711
-2.9199414 -0.713965 0.8054449 91 15 -0.092800409
-1.2502203 -0.30384645 -0.34474698 73 0 -0.092779674
-1.25726 -0.30532494 0.022583414 63 8 -0.092777364
-1.2612568 -0.30606249 -0.29963478 50 1 -0.092775062
-1.2460767 -0.3023788 0.067199372 65 9 -0.092772759
-1.2535328 -0.30395648 -0.25072303 61 2 -0.092770457
-1.2508893 -0.30308437 0.11260521 60 10 -0.092768148
-1.2786587 -0.30957621 -0.20837073 55 3 -0.092765845
-1.2579898 -0.30433995 0.15891764 72 11 -0.092763543
-1.2715497 -0.30738521 -0.1606238 54 4 -0.092761241
-1.2442055 -0.30077502 0.20273907 29 12 -0.092758931
-1.2530373 -0.30267859 -0.11277953 70 5 -0.092756629
-1.5019487 -0.36252755 0.30033338 5 13 -0.092754327
-1.2678554 -0.30578965 -0.06835077 59 6 -0.092752025
-2.9156334 -0.70267314 0.69239932 82 14 -0.092749722
-1.2752874 -0.30734664 -0.022897556 70 7 -0.092747413
-2.9167809 -0.70241183 0.80389202 93 15 -0.09274511
-1.2587885 -0.30127916 -0.34681752 65 0 -0.092724375
-1.2543761 -0.30022308 0.022513606 63 8 -0.092722073
-1.2717414 -0.30414465 -0.30188429 48 1 -0.092719764
-1.2626653 -0.30174109 0.06803675 65 9 -0.092717461
-1.277501 -0.30505073 -0.25530246 54 2 -0.092715159
-1.2538776 -0.29917818 0.11277953 63 10 -0.092712857
-1.2758355 -0.30441737 -0.207745 57 3 -0.092710547
-1.272509 -0.30338925 0.1606238 66 11 -0.092708245
-1.2802862 -0.30500734 -0.16159877 56 4 -0.092705943
-1.2548563 -0.29871738 0.20430344 24 12 -0.09270364
-1.2657162 -0.30106944 -0.1138254 70 5 -0.092701338
-1.4993228 -0.35663626 0.29957014 6 13 -0.092699029
-1.2766348 -0.30343118 -0.068769448 59 6 -0.092696726
-2.9179475 -0.69300056 0.69239932 82 14 -0.092694424
-1.2919176 -0.30658728 -0.023176797 72 7 -0.092692122
-2.9116964 -0.69044238 0.80182141 93 15 -0.092689812
-1.2635413 -0.29799005 -0.34785283 63 0 -0.092669077
-1.263202 -0.29767764 0.022653224 60 8 -0.092666775
-1.2727952 -0.29970354 -0.30188429 49 1 -0.092664473
-1.2734317 -0.29961887 0.068560109 63 9 -0.092662163
-1.2861499 -0.30261123 -0.25682893 55 2 -0.092659861
-1.2703788 -0.29866689 0.11417402 58 10 -0.092657559
-1.2768903 -0.29996228 -0.207745 53 3 -0.092655256
-1.2658299 -0.29713094 0.15964885 70 11 -0.092652954
-1.2890736 -0.3023493 -0.16257372 53 4 -0.092650644
-1.2712774 -0.29794145 0.20680638 12 12 -0.092648342
-1.2783465 -0.29959822 -0.11487127 71 5 -0.09264604
-1.4833546 -0.34737161 0.29613557 4 13 -0.092643738
-1.2854652 -0.30079296 -0.06918814 58 6 -0.092641428
-2.924144 -0.68369877 0.69329917 82 14 -0.092639126
-1.300769 -0.30389547 -0.023316415 72 7 -0.092636824
-2.9084451 -0.67895693 0.80026853 91 15 -0.092634521
-1.2871554 -0.29882038 -0.35406446 63 0 -0.092613779
-1.2720253 -0.2950736 0.022792844 56 8 -0.092611477
-1.2738336 -0.29525879 -0.30188429 48 1 -0.092609175
-1.2705783 -0.2942709 0.06835077 63 9 -0.092606872
-1.298674 -0.300778 -0.25911862 54 2 -0.09260457
-1.2850015 -0.29737478 0.1153942 60 10 -0.09260226
-1.2933264 -0.29906353 -0.21024795 55 3 -0.092599958
-1.2765301 -0.29494527 0.16086754 67 11 -0.092597656
-1.2939895 -0.2987411 -0.1630612 53 4 -0.092595354
-1.2761593 -0.29439008 0.20743214 9 12 -0.092593044
-1.2949157 -0.2987169 -0.11626577 70 5 -0.092590742
-1.5132544 -0.34880608 0.30185983 1 13 -0.09258844
-1.2865072 -0.29630429 -0.06918814 59 6 -0.092586137
-2.9113197 -0.66999102 0.68969995 84 14 -0.092583828
-1.3232591 -0.30428219 -0.023700368 64 7 -0.092581525
-2.9107974 -0.66880101 0.80026853 91 15 -0.092579223
-1.290074 -0.29475582 -0.35458213 58 0 -0.092558488
-1.2847447 -0.29330194 0.023002272 56 8 -0.092556186
-1.2957559 -0.29557818 -0.30683324 50 1 -0.092553876
-1.2832817 -0.29249671 0.068978801 63 9 -0.092551574
-1.2939736 -0.29493374 -0.25797379 52 2 -0.092549272
-1.2996302 -0.29598445 0.11661438 63 10 -0.09254697
-1.3059193 -0.29717702 -0.21212517 55 3 -0.09254466
-1.2794876 -0.29092735 0.16111128 66 11 -0.092542358
-1.3027675 -0.29598156 -0.16403615 53 4 -0.092540056
-1.2771792 -0.28993365 0.20743214 7 12 -0.092537753
-1.3095512 -0.29728243 -0.11748594 70 5 -0.092535444
-2.9255364 -0.66359186 0.58311236 62 13 -0.092533141
-1.2992209 -0.29446054 -0.069816172 60 6 -0.092530839
-2.9060383 -0.65810275 0.6879003 84 14 -0.092528537
-1.318462 -0.29833764 -0.023595655 70 7 -0.092526227
-2.9112296 -0.65821022 0.79975086 96 15 -0.092523925
-1.2929798 -0.29067418 -0.35509977 63 0 -0.09250319
-1.2994181 -0.29188368 0.023246605 54 8 -0.092500888
-1.3081883 -0.29361388 -0.30953264 50 1 -0.092498586
-1.2940391 -0.29020065 0.06950216 60 9 -0.092496276
-1.3122363 -0.29428154 -0.26140836 54 2 -0.092493974
-1.2967671 -0.29057473 0.11626577 63 10 -0.092491671
-1.3281528 -0.29736444 -0.21556671 52 3 -0.092489369
-1.3076162 -0.29252648 0.16452362 63 11 -0.09248706
-1.3289775 -0.29706165 -0.16720475 51 4 -0.092484757
-1.2974622 -0.28977942 0.21056081 9 12 -0.092482455
-1.310581 -0.29270941 -0.11748594 68 5 -0.092480153
-2.933583 -0.65465844 0.58425713 87 13 -0.092477843
-1.3138865 -0.29296622 -0.070548877 57 6 -0.092475541
-2.9045136 -0.64710712 0.68700051 80 14 -0.092473239
-1.3273031 -0.29547155 -0.023735272 68 7 -0.092470936
-2.9003093 -0.64510798 0.79612744 91 15 -0.092468634
-1.3015318 -0.28782794 -0.35717031 63 0 -0.092447892
-1.3004291 -0.28734607 0.023246605 54 8 -0.09244559
-1.3301375 -0.29366669 -0.31448159 51 1 -0.092443287
-1.3106472 -0.28912377 0.070339531 59 9 -0.092440985
-1.319007 -0.29096791 -0.26255319 52 2 -0.092438675
-1.2997192 -0.28647554 0.11644007 60 10 -0.092436373
-1.3291826 -0.29272616 -0.21556671 51 3 -0.092434071
-1.3280165 -0.29222631 0.16696103 67 11 -0.092431769
-1.3416389 -0.29497877 -0.16866718 50 4 -0.092429459
-1.9698865 -0.43274722 0.3194392 9 12 -0.092427157
-1.3154868 -0.28898782 -0.11783457 68 5 -0.092424855
-2.9224272 -0.64146793 0.58158582 50 13 -0.092422552
-1.3285574 -0.29137343 -0.071281582 57 6 -0.09242025
-2.9124656 -0.6382159 0.68835026 73 14 -0.09241794
-1.3439537 -0.29425815 -0.024014512 66 7 -0.092415638
-2.8987687 -0.6341542 0.79509211 91 15 -0.092413336
-1.3251811 -0.28820959 -0.36338195 65 0 -0.092392601
-1.3053324 -0.28365418 0.023316415 53 8 -0.092390291
-1.3254414 -0.28778139 -0.31313187 50 1 -0.092387989
-1.3233595 -0.28708786 0.070967562 59 9 -0.092385687
-1.3449568 -0.29177314 -0.26751423 54 2 -0.092383385
-1.32213 -0.28657955 0.11835749 63 10 -0.092381075
-1.3379188 -0.28975707 -0.21681818 51 3 -0.092378773
-1.3076864 -0.28297094 0.16427989 58 11 -0.092376471
-1.3504217 -0.29197142 -0.16964214 51 4 -0.092374168
-1.5002607 -0.32409373 0.24309918 11 12 -0.092371866
-1.3359621 -0.28860113 -0.11957768 67 5 -0.092369556
-2.9092958 -0.62794971 0.57853287 46 13 -0.092367254
-1.3237092 -0.28547063 -0.070967562 58 6 -0.092364952
-2.9127705 -0.627635 0.6879003 82 14 -0.09236265
-1.3547471 -0.29166976 -0.024189034 62 7 -0.09236034
-2.8971875 -0.62321913 0.79405683 88 15 -0.092358038
-1.3450705 -0.28762168 -0.36855832 65 0 -0.092337303
-1.3258704 -0.28327376 0.023665464 52 8 -0.092335001
-1.3321551 -0.28437373 -0.31448159 48 1 -0.092332691
-1.3301641 -0.28394869 0.071281582 56 9 -0.092330389
-1.3478872 -0.28748608 -0.26789585 52 2 -0.092328086
-1.3348142 -0.28445393 0.11940337 63 10 -0.092325784
-1.3505145 -0.28755367 -0.21869542 49 3 -0.092323482
-1.3261409 -0.28212208 0.16647354 63 11 -0.092321172
-1.3514326 -0.28725573 -0.16964214 50 4 -0.09231887
-1.5805478 -0.33595568 0.25592682 29 12 -0.092316568
-1.3486549 -0.28641966 -0.12062354 71 5 -0.092314266
-2.9076295 -0.61697555 0.57776964 46 13 -0.092311956
-1.3305593 -0.28209096 -0.071281582 55 6 -0.092309654
-2.8939729 -0.61302221 0.68295145 79 14 -0.092307352
-1.3713572 -0.29049078 -0.024468275 60 7 -0.092305049
-2.9067984 -0.61520821 0.79612744 87 15 -0.09230274
-1.3574096 -0.28530926 -0.37166417 61 0 -0.092282005
-1.3385439 -0.28134394 0.023874892 54 8 -0.092279702
-1.3521622 -0.2839596 -0.3189806 51 1 -0.0922774
-1.3370111 -0.28053418 0.071595594 58 9 -0.092275098
-1.3527256 -0.28358462 -0.26865909 51 2 -0.092272788
-1.3474995 -0.28224385 0.12044924 63 10 -0.092270486
-1.3630613 -0.28550339 -0.22057262 49 3 -0.092268184
-1.3309553 -0.27853608 0.16696103 59 11 -0.092265882
-1.36015 -0.28439772 -0.1706171 50 4 -0.092263572
-1.6281182 -0.34013182 0.26343569 17 12 -0.09226127
-1.3535472 -0.28252438 -0.12097216 68 5 -0.092258967
-2.9096594 -0.60732996 0.57776964 48 13 -0.092256665
-1.3510393 -0.28175455 -0.072328299 57 6 -0.092254356
-2.8940818 -0.60302442 0.68250149 82 14 -0.092252053
-1.3723629 -0.28570205 -0.024468275 60 7 -0.092249751
-2.9051452 -0.60427088 0.79509211 88 15 -0.092247449
-1.3621318 -0.28158849 -0.37269944 65 0 -0.092226714
-1.3551848 -0.27990541 0.02415413 53 8 -0.092224404
-1.3665049 -0.28199482 -0.32212991 50 1 -0.092222102
-1.3477627 -0.27788195 0.072118953 57 9 -0.0922198
-1.3555812 -0.27949396 -0.2690407 50 2 -0.092217498
-1.3581851 -0.27978373 0.12132079 65 10 -0.092215188
-1.3872674 -0.28552225 -0.22432704 49 3 -0.092212886
-1.3513635 -0.27788684 0.16939841 59 11 -0.092210583
-1.3825235 -0.28404292 -0.17329822 46 4 -0.092208281
-1.9524455 -0.40077972 0.3156848 36 12 -0.092205971
-1.3622833 -0.27963677 -0.12166941 68 5 -0.092203669
-2.9194548 -0.5987466 0.57929617 45 13 -0.092201367
-1.3676674 -0.28024447 -0.073165677 54 6 -0.092199065
-2.8866236 -0.59096414 0.68025202 77 14 -0.092196755
-1.3772701 -0.28171092 -0.024538083 60 7 -0.092194453
-2.8883095 -0.59025896 0.78991574 91 15 -0.092192151
-1.3593202 -0.27606302 -0.37166417 63 0 -0.092171416
-1.3620329 -0.27636611 0.024258846 56 8 -0.092169113
-1.3770304 -0.27915901 -0.32437941 49 1 -0.092166804
-1.3702573 -0.27753696 0.073270351 60 9 -0.092164502
-1.3777146 -0.2790474 -0.27323848 52 2 -0.092162199
-1.3689175 -0.27701691 0.12219235 67 10 -0.092159897
-1.3843832 -0.27989507 -0.22370131 49 3 -0.092157587
-1.3756747 -0.27788451 0.17232326 63 11 -0.092155285
-1.3835067 -0.27921525 -0.17329822 51 4 -0.092152983
-1.9790058 -0.39903769 0.3197521 23 12 -0.092150681
-1.378876 -0.27803025 -0.12306391 61 5 -0.092148371
-2.9061301 -0.58545101 0.57624322 49 13 -0.092146069
-1.3882172 -0.27940959 -0.074212395 54 6 -0.092143767
-2.8924899 -0.58165264 0.68115181 74 14 -0.092141464
-1.3978503 -0.28084078 -0.024887133 62 7 -0.092139162
-2.886564 -0.57941282 0.78888047 87 15 -0.092136852
-1.3754318 -0.27433908 -0.37580526 60 0 -0.092116117
-1.3688726 -0.27278244 0.024363559 54 8 -0.092113815
-1.3818188 -0.27511188 -0.32527924 51 1 -0.092111513
-1.3868887 -0.27586928 0.074107721 58 9 -0.092109203
-1.3940846 -0.27730063 -0.27629143 51 2 -0.092106901
-1.3737843 -0.27301344 0.12254097 63 10 -0.092104599
-1.3892267 -0.27583066 -0.22432704 49 3 -0.092102297
-1.3746892 -0.27269453 0.17207953 60 11 -0.092099987
-1.4078395 -0.27901512 -0.17622308 49 4 -0.092097685
-2.0133286 -0.3986499 0.32507086 25 12 -0.092095383
-1.3955219 -0.27606773 -0.1244584 60 5 -0.09209308
-2.9004521 -0.57377911 0.57471669 49 13 -0.092090778
-1.3891841 -0.27456206 -0.074212395 55 6 -0.092088468
-2.8906789 -0.57079732 0.68025202 75 14 -0.092086166
-1.414517 -0.27905598 -0.02516637 60 7 -0.092083864
-2.8809879 -0.56783897 0.78680992 87 15 -0.092081562
-1.3915951 -0.2722638 -0.37994638 61 0 -0.092060819
-1.3776664 -0.26953861 0.024503179 53 8 -0.092058517
-1.394246 -0.27252942 -0.32797864 49 1 -0.092056215
-1.3819625 -0.26987803 0.073793709 57 9 -0.092053913
-1.4124337 -0.27557307 -0.279726 48 2 -0.09205161
-1.3962873 -0.27216953 0.1244584 60 10 -0.092049301
-1.4057401 -0.27375746 -0.22683001 47 3 -0.092046998
-1.3853751 -0.26979154 0.17329822 63 11 -0.092044696
-1.4088049 -0.27409944 -0.17622308 47 4 -0.092042394
-2.0321596 -0.39501184 0.3278867 22 12 -0.092040084
-1.4082121 -0.27347368 -0.12550427 58 5 -0.092037782
-2.88519 -0.55977982 0.57128215 55 13 -0.09203548
-1.4039063 -0.27212903 -0.074945092 52 6 -0.092033178
-2.8774459 -0.55723459 0.67665279 77 14 -0.092030868
-1.4292252 -0.27677798 -0.025410704 63 7 -0.092028566
-2.8905389 -0.559246 0.78888047 91 15 -0.092026263
-1.411509 -0.27104765 -0.38512275 60 0 -0.092005529
-1.4002478 -0.26863146 0.024887133 56 8 -0.092003226
-1.4105467 -0.27035236 -0.33157787 48 1 -0.092000917
-1.3848577 -0.26542869 0.073898375 58 9 -0.091998614
-1.4133871 -0.2706407 -0.279726 49 2 -0.091996312
-1.4109271 -0.26991439 0.12567857 63 10 -0.09199401
-1.4222091 -0.27181578 -0.22933295 49 3 -0.0919917
-1.3922044 -0.265829 0.17402944 60 11 -0.091989398
-1.4175998 -0.27042159 -0.17719805 46 4 -0.091987096
-2.0412877 -0.3893964 0.32913816 20 12 -0.091984794
-1.4209009 -0.27079469 -0.12655014 57 5 -0.091982484
-2.8909836 -0.55043882 0.57204539 80 13 -0.091980182
-1.4107339 -0.26834646 -0.075259112 49 6 -0.091977879
-2.8755445 -0.54645997 0.675753 74 14 -0.091975577
-1.4301826 -0.27178767 -0.025410704 61 7 -0.091973267
-2.8962693 -0.54987407 0.78991574 86 15 -0.091970965
-1.4010561 -0.2639724 -0.38201693 57 0 -0.09195023
-1.4148867 -0.26657826 0.025131466 54 8 -0.091947928
-1.4229261 -0.26783615 -0.33427727 48 1 -0.091945626
-1.4054043 -0.26428407 0.074945092 60 9 -0.091943316
-1.4181821 -0.26643035 -0.28048924 49 2 -0.091941014
-1.413819 -0.26535553 0.1258529 59 10 -0.091938712
-1.4386346 -0.27001312 -0.23183592 47 3 -0.091936409
-1.4164912 -0.26560119 0.1769543 58 11 -0.0919341
-1.4360492 -0.26900867 -0.1793917 48 4 -0.091931798
-2.0348678 -0.38081557 0.3278867 22 12 -0.091929495
-1.4257545 -0.26656511 -0.12689877 58 5 -0.091927193
-2.904372 -0.54301369 0.5743351 78 13 -0.091924883
-1.4273225 -0.26660049 -0.07609649 50 6 -0.091922581
-2.877341 -0.5369212 0.675753 79 14 -0.091920279
-1.4350542 -0.2675263 -0.025480513 63 7 -0.091917977
-2.8829777 -0.53693104 0.78577471 88 15 -0.091915667
-1.4190202 -0.26248765 -0.38667569 54 0 -0.091894932
-1.4217079 -0.26272824 0.02523618 56 8 -0.09189263
-1.4353504 -0.2649903 -0.33697668 48 1 -0.091890328
-1.4259596 -0.26299891 0.075991817 60 9 -0.091888025
-1.4364341 -0.26493078 -0.2839238 47 2 -0.091885716
-1.4225286 -0.26210976 0.12655014 59 10 -0.091883413
-1.4434539 -0.26570487 -0.23246165 49 3 -0.091881111
-1.4310763 -0.26316792 0.17866047 57 11 -0.091878809
-1.4506463 -0.26650539 -0.18109787 49 4 -0.091876499
-2.0186982 -0.37050083 0.32507086 10 12 -0.091874197
-1.4383885 -0.26399395 -0.12794463 61 5 -0.091871895
-2.8908014 -0.53003967 0.57128215 78 13 -0.091869593
-1.4400319 -0.263776 -0.076724522 50 6 -0.091867283
-2.8791976 -0.52687407 0.675753 77 14 -0.091864981
-1.4556502 -0.26611143 -0.025829561 61 7 -0.091862679
-2.8810332 -0.52617079 0.78473938 88 15 -0.091860376
-1.440837 -0.26132503 -0.39236969 49 0 -0.091839641
-1.4285192 -0.25883347 0.025340894 52 8 -0.091837332
-1.4439371 -0.26136672 -0.33877629 44 1 -0.091835029
-1.4327651 -0.25908625 0.076305829 57 9 -0.091832727
-1.4489417 -0.26201147 -0.28621352 46 2 -0.091830425
-1.435199 -0.25926772 0.12759601 57 10 -0.091828115
-1.4482605 -0.26136628 -0.23308739 47 3 -0.091825813
-1.4358933 -0.25887564 0.17914794 56 11 -0.091823511
-1.4632896 -0.26355124 -0.18256028 46 4 -0.091821209
-2.0238676 -0.36415106 0.32569659 12 12 -0.091818899
-1.4432232 -0.25967672 -0.12829326 58 5 -0.091816597
-2.8849044 -0.51855689 0.56975567 80 13 -0.091814294
-1.4468414 -0.25980672 -0.077038541 51 6 -0.091811992
-2.8848555 -0.51750797 0.67665279 74 14 -0.09180969
-1.4683805 -0.26314509 -0.026038991 67 7 -0.09180738
-2.8790493 -0.51542991 0.7837041 91 15 -0.091805078
-1.4569567 -0.2589989 -0.39651078 49 0 -0.091784343
-1.4491031 -0.25734189 0.025689943 53 8 -0.091782041
-1.4505969 -0.25734606 -0.34012601 40 1 -0.091779731
-1.4395607 -0.25512898 0.076619849 58 9 -0.091777429
-1.471112 -0.26072073 -0.29041129 43 2 -0.091775127
-1.4557139 -0.25772977 0.12933911 57 10 -0.091772825
-1.4686158 -0.25974968 -0.23621608 49 3 -0.091770515
-1.4465622 -0.25558877 0.18036664 57 11 -0.091768213
-1.4739751 -0.260167 -0.18377897 50 4 -0.09176591
-2.0270717 -0.35742772 0.32600945 14 12 -0.091763608
-1.4598178 -0.25740543 -0.12968774 60 5 -0.091761306
-2.890564 -0.50916463 0.57051897 76 13 -0.091758996
-1.4536405 -0.25579306 -0.077352546 49 6 -0.091756694
-2.87129 -0.50473559 0.67305356 77 14 -0.091754392
-1.4909551 -0.26182273 -0.026422944 56 7 -0.09175209
-2.8846366 -0.50604385 0.78473938 88 15 -0.09174978
-1.4692712 -0.25590041 -0.3996166 46 0 -0.091729045
-1.4696934 -0.25571007 0.026038991 52 8 -0.091726743
-1.4706861 -0.25561795 -0.34462503 36 1 -0.09172444
-1.4542171 -0.25249407 0.077352546 57 9 -0.091722138
-1.4739473 -0.25591978 -0.29079291 47 2 -0.091719829
-1.4664201 -0.25434923 0.13021068 56 10 -0.091717526
-1.4889773 -0.25799409 -0.23934476 46 3 -0.091715224
-1.4630936 -0.25324625 0.18231656 55 11 -0.091712922
-1.4670502 -0.253667 -0.18280403 45 4 -0.091710612
-2.0127347 -0.34765983 0.3235065 14 12 -0.09170831
-1.4842671 -0.25637758 -0.13177948 58 5 -0.091706008
-2.8884542 -0.49840385 0.56975567 80 13 -0.091703705
-1.4781433 -0.25478816 -0.078608617 50 6 -0.091701396
-2.8653524 -0.49338773 0.67125398 74 14 -0.091699094
-1.4859476 -0.25559971 -0.026318228 64 7 -0.091696791
-2.8901932 -0.49662575 0.78577471 86 15 -0.091694489
-1.4739641 -0.25142011 -0.4006519 46 0 -0.091673754
-1.4764909 -0.25158557 0.026143704 50 8 -0.091671444
-1.4888593 -0.25342572 -0.34867415 38 1 -0.091669142
-1.4787176 -0.25143427 0.078608617 49 9 -0.09166684
-1.4825735 -0.25208992 -0.29231939 45 2 -0.091664538
-1.4751561 -0.25056344 0.13090792 49 10 -0.091662228
-1.5054492 -0.2554386 -0.24184772 46 3 -0.091659926
-1.4854977 -0.25178695 0.18499769 54 11 -0.091657624
-1.4953279 -0.25318432 -0.18621638 46 4 -0.091655321
-1.9652431 -0.33239612 0.3156848 7 12 -0.091653012
-1.4871175 -0.25152719 -0.13195379 60 5 -0.09165071
-1.4908401 -0.25162157 -0.079236642 48 6 -0.091646105
-1.4986624 -0.2524035 -0.026527658 64 7 -0.091641493
-2.8766687 -0.48397061 0.78163356 46 15 -0.091639191
-1.4862655 -0.24818254 -0.40375772 45 0 -0.091618456
-1.481305 -0.24708813 0.026213516 49 8 -0.091616154
-1.5089571 -0.25143033 -0.35317314 38 1 -0.091613844
-1.4874669 -0.24758233 0.079027303 48 9 -0.091611542
-1.4931276 -0.24852452 -0.29422748 43 2 -0.09160924
-1.4799525 -0.24606617 0.13125655 47 10 -0.091606937
-1.5141263 -0.25147694 -0.24309918 45 3 -0.091604628
-1.4922426 -0.24757437 0.18572889 55 11 -0.091602325
-1.519703 -0.25185773 -0.18914123 45 4 -0.091600023
-1.919619 -0.3177914 0.30817595 7 12 -0.091597721
-1.4919178 -0.24698581 -0.13230242 57 5 -0.091595411
-2.0279846 -0.33536714 0.39955404 3 13 -0.091593109
-1.5094444 -0.24934566 -0.080178693 51 6 -0.091590807
-2.036181 -0.33599243 0.47644633 4 14 -0.091588505
-1.5192651 -0.25042322 -0.026876707 64 7 -0.091586202
-1.5061885 -0.24610788 -0.40893409 42 0 -0.091376781
-1.4939998 -0.24384896 0.026422944 49 8 -0.091374479
-1.5155957 -0.24710226 -0.35452285 39 1 -0.091372177
-1.5060636 -0.24527797 0.079969354 47 9 -0.091369867
-1.5153009 -0.24678236 -0.29842529 47 2 -0.091367565
-1.4965347 -0.24345835 0.13265103 46 10 -0.091365263
-1.5188946 -0.2468238 -0.24372493 45 3 -0.091362961
-1.498976 -0.24331811 0.18646011 54 11 -0.091360651
-1.5323299 -0.24845813 -0.19060367 45 4 -0.091358349
-1.9441162 -0.31487814 0.31193036 7 12 -0.091356046
-1.5124383 -0.24496157 -0.13404553 60 5 -0.091353744
-2.0349569 -0.3292267 0.40069893 4 13 -0.091351435
-1.5122771 -0.2443938 -0.080283366 48 6 -0.091349132
-2.0181029 -0.32577714 0.47194731 11 14 -0.09134683
-1.5359235 -0.24766511 -0.027155945 63 7 -0.091344528
-2.0026331 -0.32256269 0.54352003 7 15 -0.091342218
-1.5184844 -0.24267837 -0.41203994 42 0 -0.091321483
-1.5066901 -0.2405238 0.026632372 50 8 -0.091319181
-1.5222223 -0.24273053 -0.35587254 38 1 -0.091316879
-1.5128278 -0.24096213 0.080283366 46 9 -0.091314577
-1.5394188 -0.24519753 -0.30300471 46 2 -0.091312267
-1.5229547 -0.24230261 0.1349171 48 10 -0.091309965
-1.537305 -0.2443103 -0.24654076 44 3 -0.091307662
-1.5056978 -0.23901784 0.18719132 52 11 -0.09130536
-1.5312272 -0.24279685 -0.19035992 44 4 -0.091303051
-1.9198397 -0.30407271 0.30786306 1 12 -0.091300748
-1.5329629 -0.24279743 -0.13578865 58 5 -0.091298446
-2.036094 -0.32212129 0.40069893 3 13 -0.091296144
-1.5210121 -0.24036078 -0.080702052 48 6 -0.091293834
-2.0038285 -0.31629986 0.46834809 51 14 -0.091291532
-1.5565317 -0.24541663 -0.027504994 53 7 -0.09128923
-2.0190139 -0.31797457 0.54766113 46 15 -0.091286927
-1.5384091 -0.24035846 -0.41721633 42 0 -0.091266192
-1.5292542 -0.2386547 0.027016325 48 8 -0.091263883
-1.5423152 -0.24041729 -0.36037159 38 1 -0.091261581
-1.5195801 -0.2366017 0.080597378 45 9 -0.091259278
-1.5402653 -0.23982242 -0.30300471 47 2 -0.091256976
-1.5415099 -0.23974027 0.13648589 49 10 -0.091254666
-1.5537641 -0.24136837 -0.2490437 42 3 -0.091252364
-1.5281008 -0.23710899 0.18987246 54 11 -0.091250062
-1.5477589 -0.23988226 -0.19230984 44 4 -0.09124776
-1.5534904 -0.24049294 -0.13753176 58 5 -0.091243148
-2.1303351 -0.32941303 0.41901657 7 13 -0.091240846
-1.5494759 -0.23931767 -0.082167462 48 6 -0.091238543
-2.0106983 -0.31019455 0.4696978 68 14 -0.091236241
-1.5573788 -0.23998214 -0.027504994 53 7 -0.091233931
-2.0220206 -0.31121874 0.54817873 68 15 -0.091231629
-1.5468776 -0.23615308 -0.41928688 42 0 -0.091210894
-1.5458927 -0.23572664 0.027295565 48 8 -0.091208592
-1.5604838 -0.23767291 -0.36442071 36 1 -0.091206282
-1.5342184 -0.23339856 0.081330083 46 9 -0.09120398
-1.5566205 -0.23680654 -0.30605766 45 2 -0.091201678
-1.5443071 -0.23465721 0.1366602 48 10 -0.091199376
-1.5702212 -0.23831487 -0.25154665 40 3 -0.091197066
-1.5426577 -0.23385611 0.19157861 55 11 -0.091194764
-1.5642885 -0.23685554 -0.19425975 41 4 -0.091192462
-1.5582603 -0.23566498 -0.13788037 57 5 -0.091187857
-2.1295309 -0.32168096 0.41863495 3 13 -0.091185547
-1.5621513 -0.23569536 -0.082795486 47 6 -0.091183245
-2.007915 -0.30259368 0.46879801 72 14 -0.091180943
-1.5661166 -0.23573457 -0.027644612 55 7 -0.091178641
-2.0116324 -0.30243534 0.54507297 72 15 -0.091176331
-1.5572462 -0.23217677 -0.42187506 41 0 -0.091155596
-1.5506619 -0.23091806 0.027365373 45 8 -0.091153294
-1.5825068 -0.23537798 -0.36936963 33 1 -0.091150992
-1.558731 -0.2315632 0.082586147 46 9 -0.091148682
-1.5729734 -0.23367903 -0.30911061 45 2 -0.09114638
-1.5589123 -0.23131247 0.13788037 49 10 -0.091144077
-1.5769056 -0.23370107 -0.25248525 39 3 -0.091141775
-1.5670291 -0.23195748 0.19450349 55 11 -0.091139473
-1.5808158 -0.2337167 -0.19620967 41 4 -0.091137163
-1.5669576 -0.23138838 -0.13857763 55 5 -0.091132559
-2.1364675 -0.31510484 0.41977981 8 13 -0.091130257
-1.5787719 -0.23256992 -0.083632864 47 6 -0.091127947
-2.0166707 -0.29671749 0.47059759 74 14 -0.091125645
-1.5886929 -0.23346445 -0.028028565 52 7 -0.091123343
-2.0069416 -0.29457036 0.54352003 71 15 -0.09112104
-1.5771643 -0.22952119 -0.42705145 41 0 -0.091100298
-1.5653108 -0.22751722 0.027609706 47 8 -0.091097996
-1.5852472 -0.23013286 -0.36981952 35 1 -0.091095693
-1.577319 -0.22870046 0.083528191 45 9 -0.091093391
-1.5912658 -0.23072264 -0.31254515 43 2 -0.091091089
-1.5814004 -0.22901043 0.13979781 48 10 -0.091088779
-1.5835769 -0.22904386 -0.25342387 40 3 -0.091086477
-1.575688 -0.22762173 0.19547844 52 11 -0.091084175
-1.6032342 -0.23131537 -0.19889079 40 4 -0.091081873
-1.5914201 -0.22932692 -0.14066936 50 5 -0.091077261
-2.1278384 -0.30624735 0.41787171 6 13 -0.091074958
-1.5894589 -0.22847839 -0.084156223 46 6 -0.091072656
-2.0176945 -0.28967568 0.47059759 75 14 -0.091070347
-1.6092926 -0.23075612 -0.028377613 50 7 -0.091068044
-2.0079577 -0.287563 0.54352003 73 15 -0.091065742
-1.5989953 -0.22700129 -0.43274546 38 0 -0.091045007
-1.5819346 -0.22429802 0.027888944 47 8 -0.091042705
-1.5956883 -0.22596365 -0.37206903 33 1 -0.091040395
-1.5840405 -0.22403222 0.08384221 44 9 -0.091038093
-1.6134444 -0.22819085 -0.31674296 41 2 -0.091035791
-1.594027 -0.22516088 0.14084367 48 10 -0.091033489
-1.6019708 -0.22599781 -0.25623968 36 3 -0.091031179
-1.58237 -0.22295098 0.19620967 51 11 -0.091028877
-1.6040318 -0.22571759 -0.19889079 40 4 -0.091026574
-2.1087325 -0.2963632 0.33727276 2 12 -0.091024272
-1.6198328 -0.22765279 -0.14310972 48 5 -0.091021962
-2.8676887 -0.40251726 0.56288654 78 13 -0.09101966
-1.5942026 -0.22348328 -0.084365569 44 6 -0.091017358
-2.0032537 -0.28046963 0.46699843 72 14 -0.091015056
-1.6298925 -0.22790639 -0.02872666 45 7 -0.091012746
-2.0127759 -0.28108603 0.54455531 73 15 -0.091010444
-1.618914 -0.22406724 -0.43792182 38 0 -0.090989709
-1.608459 -0.22233415 0.028342709 48 8 -0.090987407
-1.6196326 -0.2235902 -0.37746787 33 1 -0.090985104
-1.5986626 -0.22041099 0.084574915 45 9 -0.090982795
-1.6142312 -0.22255746 -0.31674296 37 2 -0.090980493
-1.6125671 -0.22204123 0.14241248 44 10 -0.09097819
-1.6301475 -0.22417209 -0.26061985 36 3 -0.090975888
-1.6047716 -0.22039711 0.19889079 52 11 -0.090973578
-1.6205435 -0.22227508 -0.2008407 39 4 -0.090971276
-2.1019256 -0.2879281 0.33602124 2 12 -0.090968974
-1.6166697 -0.22145627 -0.14276111 41 5 -0.090966672
-2.8593507 -0.39117408 0.56097847 78 13 -0.090964362
-1.6226772 -0.22170222 -0.085830979 42 6 -0.09096206
-1.9964973 -0.27242136 0.46519879 72 14 -0.090959758
-1.6267154 -0.22167557 -0.028656852 48 7 -0.090957455
-2.0137448 -0.27405882 0.54455531 70 15 -0.090955153
-1.6254297 -0.2191893 -0.43947476 37 0 -0.090934411
-1.6270616 -0.21911985 0.028656852 44 8 -0.090932108
-1.6397167 -0.22053276 -0.38196689 33 1 -0.090929806
-1.6132786 -0.21669075 0.08530762 44 9 -0.090927504
-1.6266727 -0.2184898 -0.31903264 33 2 -0.090925194
-1.6192565 -0.21720561 0.14293543 42 10 -0.090922892
-1.6426673 -0.22005408 -0.26249707 39 3 -0.09092059
-1.6193039 -0.216637 0.20059694 51 11 -0.090918288
-1.6370503 -0.21871996 -0.2027906 40 4 -0.090915978
-2.1224983 -0.28320175 0.33914998 1 12 -0.090913676
-1.6253324 -0.21686566 -0.14345835 43 5 -0.090911373
-2.8704288 -0.38248718 0.56288654 84 13 -0.090909071
-1.6471989 -0.21919814 -0.087087035 41 6 -0.090906769
-1.9974362 -0.26545057 0.46519879 72 14 -0.090904459
-1.6413555 -0.21783751 -0.028901186 51 7 -0.090902157
-2.0070288 -0.26601252 0.54248476 70 15 -0.090899855
-1.6319313 -0.21426858 -0.44102767 32 0 -0.09087912
-1.6258339 -0.21317898 0.028621947 45 8 -0.09087681
-1.6482055 -0.21582013 -0.3837665 30 1 -0.090874508
-1.6358095 -0.21390624 0.086459011 45 9 -0.090872206
-1.6449457 -0.21510093 -0.32246721 31 2 -0.090869904
-1.6279073 -0.21258391 0.14363267 44 10 -0.090867594
-1.6512605 -0.21534088 -0.26374856 37 3 -0.090865292
-1.6417036 -0.21380277 0.20327808 45 11 -0.090862989
-1.6673316 -0.21684444 -0.20644669 42 4 -0.090860687
-2.1078024 -0.27375621 0.33664703 1 12 -0.090858385
-1.6418858 -0.2132441 -0.14485285 45 5 -0.090856075
-2.8620119 -0.37120253 0.56097847 92 13 -0.090853773
-1.6677612 -0.21601243 -0.08813376 39 6 -0.090851471
-1.9983505 -0.25847703 0.46519879 72 14 -0.090849169
-1.6619382 -0.21466842 -0.029250234 49 7 -0.090846859
-2.0002811 -0.25801641 0.54041415 71 15 -0.090844557
-1.6479995 -0.21052873 -0.44516876 32 0 -0.090823822
-1.6364862 -0.20876807 0.028796472 44 8 -0.090821519
-1.6624805 -0.21178934 -0.3869158 28 1 -0.09081921
-1.6543781 -0.21046332 0.087401055 44 9 -0.090816908
-1.6671098 -0.21208301 -0.32666501 33 2 -0.090814605
-1.6503808 -0.20966254 0.14555009 40 10 -0.090812303
-1.6715989 -0.21206161 -0.26687723 39 3 -0.090810001
-1.6503173 -0.20906875 0.20425305 43 11 -0.090807691
-1.6798947 -0.21251826 -0.20790912 41 4 -0.090805389
-2.1518607 -0.27184317 0.34353012 3 12 -0.090803087
-1.6702938 -0.21100712 -0.1472932 43 5 -0.090800785
-2.8554988 -0.36022702 0.559452 102 13 -0.090798475
-1.6605786 -0.20919137 -0.087715074 40 6 -0.090796173
-2.0069745 -0.25247228 0.46699843 72 14 -0.09079387
-1.6805344 -0.21110901 -0.029564377 48 7 -0.090791568
-2.0011694 -0.25103298 0.54041415 70 15 -0.090789258
-1.6755639 -0.20810875 -0.4524157 32 0 -0.090768524
-1.6610187 -0.20600784 0.029215328 44 8 -0.090766221
-1.6651438 -0.20622398 -0.38736573 27 1 -0.090763919
-1.661049 -0.20542292 0.087715074 41 9 -0.090761617
-1.687324 -0.20867237 -0.3304812 34 2 -0.090759307
-1.6669216 -0.20585385 0.14694458 38 10 -0.090757005
-1.6880133 -0.20815903 -0.26938018 36 3 -0.090754703
-1.6628582 -0.2047628 0.20571546 40 11 -0.0907524
-1.6845667 -0.20713753 -0.20839658 41 4 -0.090750091
-2.8488283 -0.34979197 0.45459861 7 12 -0.090747789
-1.6868404 -0.20711786 -0.14868769 41 5 -0.090745486
-2.8606362 -0.35073569 0.56021523 99 13 -0.090743184
-1.6771582 -0.20533524 -0.088552445 43 6 -0.090740874
-1.9962378 -0.24404618 0.46429899 72 14 -0.090738572
-1.7130202 -0.20911896 -0.030122854 44 7 -0.09073627
-2.0020335 -0.24404554 0.54041415 71 15 -0.090733968
-1.6973777 -0.20480423 -0.45810974 28 0 -0.090713233
-1.6756252 -0.20188291 0.029459663 43 8 -0.090710923
-1.69681 -0.20413488 -0.39456415 26 1 -0.090708621
-1.6775846 -0.20182197 0.088552445 41 9 -0.090706319
-1.6977884 -0.20395198 -0.3323893 35 2 -0.090704016
-1.6794994 -0.20145722 0.14799045 36 10 -0.090701707
-1.7161884 -0.20555472 -0.27376035 36 3 -0.090699404
-1.6793313 -0.2008429 0.20766538 40 11 -0.090697102
-1.6950996 -0.20272875 -0.20961528 39 4 -0.0906948
-2.8244739 -0.3372978 0.4505313 1 12 -0.09069249
-1.7033801 -0.20311603 -0.15008219 41 5 -0.090690188
-2.8618431 -0.34074801 0.56021523 102 13 -0.090687886
-1.6976979 -0.20183708 -0.08959917 41 6 -0.090685584
-1.9854251 -0.2360446 0.46159956 75 14 -0.090683274
-1.7097328 -0.20296571 -0.030053046 44 7 -0.090680972
-2.0105057 -0.23831522 0.54248476 70 15 -0.09067867
-1.7018849 -0.19962445 -0.45914501 30 0 -0.090657935
-1.6981328 -0.19888389 0.029843615 40 8 -0.090655632
-1.7129622 -0.20031765 -0.39816338 27 1 -0.090653323
-1.6980822 -0.19857757 0.08959917 41 9 -0.09065102
-1.7140554 -0.20014228 -0.33544225 31 2 -0.090648718
-1.69599 -0.19773285 0.14938495 38 10 -0.090646416
-1.7286335 -0.20123291 -0.27563757 37 3 -0.090644106
-1.6997062 -0.19756481 0.21010277 36 11 -0.090641804
-1.7233679 -0.20031512 -0.21302763 36 4 -0.090639502
-1.7119609 -0.19838363 -0.15077944 43 5 -0.09063489
-2.8610072 -0.33103016 0.55983365 93 13 -0.090632588
-1.7221665 -0.19895668 -0.090855226 41 6 -0.090630285
-1.9920048 -0.23013027 0.46294928 82 14 -0.090627983
-1.7262886 -0.19912803 -0.030332282 44 7 -0.090625681
-1.9901741 -0.22921535 0.53679073 77 15 -0.090623371
-1.717893 -0.19572915 -0.4632861 25 0 -0.090602636
-1.7027568 -0.19370358 0.029913425 39 8 -0.090600334
-1.7329798 -0.19683579 -0.4026624 26 1 -0.090598032
-1.7166259 -0.19467442 0.090541214 36 9 -0.090595722
-1.7303157 -0.19622689 -0.33849517 32 2 -0.09059342
-1.7025756 -0.19278008 0.14990787 37 10 -0.090591118
-1.7410686 -0.19683082 -0.27751476 34 3 -0.090588816
-1.7358582 -0.19593498 0.21449007 39 11 -0.090586506
-1.7556183 -0.19785513 -0.21692745 36 4 -0.090584204
-2.8541863 -0.32115737 0.4549115 1 12 -0.090581901
-1.7324083 -0.19493321 -0.15252255 41 5 -0.090579599
-2.8445301 -0.31956816 0.55639905 99 13 -0.090577297
-1.7386954 -0.19502608 -0.091692604 38 6 -0.090574987
-1.9966691 -0.22360967 0.46384907 82 14 -0.090572685
-1.7627448 -0.19710067 -0.030960569 42 7 -0.090570383
-1.9948016 -0.22269554 0.537826 80 15 -0.090568081
-1.7396878 -0.19206324 -0.4689801 24 0 -0.090547338
-1.7093854 -0.18841629 0.030018138 37 8 -0.090545036
-1.7355933 -0.19099806 -0.40311229 25 1 -0.090542734
-1.7411187 -0.19129857 0.091797277 36 9 -0.090540431
-1.7622143 -0.19361638 -0.34460106 32 2 -0.090538129
-1.7250237 -0.18922594 0.15182531 36 10 -0.09053582
-1.7692358 -0.19376285 -0.28189492 32 3 -0.090533517
-1.7483715 -0.19116905 0.2159525 39 11 -0.090531215
-1.7720854 -0.19344942 -0.21887736 35 4 -0.090528913
-2.8513622 -0.31076428 0.45428574 39 12 -0.090526603
-1.7568461 -0.19147515 -0.15461428 40 5 -0.090524301
-2.8358698 -0.308575 0.55449098 93 13 -0.090521999
-1.7552501 -0.19068131 -0.092529982 40 6 -0.090519696
-2.014874 -0.2185297 0.46789822 57 14 -0.090517387
-1.7673984 -0.19137685 -0.031030379 44 7 -0.090515085
-2.0032496 -0.21656106 0.53989661 75 15 -0.090512782
-1.7691613 -0.18906911 -0.47674471 28 0 -0.090492047
-1.7418473 -0.1858422 0.030576617 36 8 -0.090489745
-1.776943 -0.189273 -0.41256022 29 1 -0.090487435
-1.751706 -0.18627612 0.092320636 34 9 -0.090485133
-1.7784973 -0.18912511 -0.34765401 31 2 -0.090482831
-1.7494489 -0.18572691 0.15391703 36 10 -0.090480529
-1.777759 -0.18841864 -0.28314641 32 3 -0.090478219
-1.7371838 -0.18381205 0.21449007 36 11 -0.090475917
-1.7845944 -0.18851323 -0.22033979 34 4 -0.090473615
-2.8485007 -0.30039486 0.45366001 93 12 -0.090471312
-1.7753364 -0.18722197 -0.15618308 38 5 -0.090469003
-2.8427873 -0.29929137 0.55563581 102 13 -0.0904667
-1.767823 -0.18580574 -0.093158014 37 6 -0.090464398
-2.0098102 -0.21088502 0.4665485 47 14 -0.090462096
-1.7978876 -0.18833165 -0.03155395 36 7 -0.090459786
-2.0078361 -0.20996936 0.54093182 66 15 -0.090457484
-1.7909484 -0.18507676 -0.48243871 25 0 -0.090436749
-1.7603878 -0.18160769 0.030890759 33 8 -0.090434447
-1.7911621 -0.184467 -0.41570953 28 1 -0.090432145
-1.7642664 -0.18138592 0.092948668 35 9 -0.090429835
-1.7889115 -0.18391971 -0.34956211 29 2 -0.090427533
-1.7699064 -0.1816532 0.15566015 36 10 -0.090425231
-1.8098472 -0.18543378 -0.28815234 32 3 -0.090422928
-1.7753359 -0.18158428 0.2191211 36 11 -0.090420619
-1.7911662 -0.18288755 -0.22107102 31 4 -0.090418316
-2.8338103 -0.28884804 0.45115703 99 12 -0.090416014
-1.7958001 -0.18304448 -0.1579262 33 5 -0.090413712
-2.8516271 -0.29016054 0.55716228 99 13 -0.090411402
-1.7843571 -0.1812484 -0.093995392 36 6 -0.0904091
-2.010534 -0.2038686 0.4665485 38 14 -0.090406798
-1.8084818 -0.18306117 -0.031728476 36 7 -0.090404496
-2.0354657 -0.20567843 0.54817873 16 15 -0.090402186
-1.8011949 -0.17978291 -0.4850269 28 0 -0.090381451
-1.7908585 -0.17843598 0.03141433 36 8 -0.090379149
-1.8150653 -0.18052797 -0.42110837 27 1 -0.090376846
-1.7847637 -0.17719917 0.093995392 35 9 -0.090374544
-1.8012645 -0.17883743 -0.35185182 26 2 -0.090372235
-1.7804431 -0.17645684 0.15653172 37 10 -0.090369932
-1.8203125 -0.18008743 -0.28971666 32 3 -0.09036763
-1.7917627 -0.17694676 0.22107102 36 11 -0.090365328
-1.8154997 -0.17897142 -0.22399586 31 4 -0.090363018
-2.8328354 -0.27876091 0.4508442 100 12 -0.090360716
-1.8083252 -0.17794551 -0.15897207 31 5 -0.090358414
-2.8526225 -0.28020465 0.55716228 99 13 -0.090356112
-1.812807 -0.17774767 -0.095460795 33 6 -0.090353802
-2.0364466 -0.19931649 0.47239724 22 14 -0.0903515
-1.829012 -0.17869163 -0.032077521 36 7 -0.090349197
-2.0842397 -0.20325977 0.56111974 5 15 -0.090346895
-1.8229641 -0.17553163 -0.49072096 23 0 -0.09032616
-1.8034135 -0.17333147 0.031623758 35 8 -0.090323851
-1.8389623 -0.17642428 -0.4265072 25 1 -0.090321548
-1.8151938 -0.1738243 0.095565468 36 9 -0.090319246
-1.8331467 -0.17554347 -0.35795769 26 2 -0.090316944
-1.7929481 -0.17137827 0.15757757 33 10 -0.090314634
-1.8346951 -0.17504507 -0.29190674 29 3 -0.090312332
-1.8318925 -0.17445551 0.22594579 38 11 -0.09031003
-1.8457562 -0.17545074 -0.22765194 29 4 -0.090307727
-2.8318248 -0.2686834 0.4505313 100 12 -0.090305418
-1.8208362 -0.17276086 -0.16001794 31 5 -0.090303116
-2.8379471 -0.26876524 0.55410933 99 13 -0.090300813
-1.8352886 -0.1734862 -0.096612185 31 6 -0.090298511
-2.068172 -0.19513555 0.47959566 8 14 -0.090296209
-1.8375881 -0.17305602 -0.032217141 37 7 -0.090293899
-2.0810895 -0.19562201 0.5600844 14 15 -0.090291597
-1.8428016 -0.17095163 -0.49589732 21 0 -0.090270862
-1.8159547 -0.16814148 0.03183319 35 8 -0.09026856
-1.8395669 -0.17000398 -0.4265072 24 1 -0.09026625
-1.8356775 -0.16932145 0.096612185 33 9 -0.090263948
-1.847433 -0.17040576 -0.36062902 24 2 -0.090261646
-1.8213115 -0.16767576 0.16001794 35 10 -0.090259343
-1.8510317 -0.17008612 -0.29440969 29 3 -0.090257034
-1.8344671 -0.16824119 0.22618952 35 11 -0.090254731
-1.8661257 -0.17081623 -0.23008935 29 4 -0.090252429
-2.8366797 -0.25915691 0.45115703 100 12 -0.090250127
-1.8452377 -0.1685795 -0.16210969 29 5 -0.090247825
-2.8290925 -0.25796586 0.55220127 96 13 -0.090245515
-1.8438393 -0.16780238 -0.097030871 31 6 -0.090243213
-2.8218517 -0.25631186 0.6541577 80 14 -0.090240911
-1.8680538 -0.1693491 -0.032740716 32 7 -0.090238608
-2.0990758 -0.18992263 0.56474322 13 15 -0.090236299
-1.8607049 -0.16606355 -0.50055605 19 0 -0.090215564
-1.8424242 -0.16410793 0.032286953 32 8 -0.090213262
-1.8595601 -0.16530715 -0.43100622 22 1 -0.090210959
-1.8481942 -0.16397168 0.097240217 33 9 -0.090208657
-1.8636612 -0.16534391 -0.36368197 24 2 -0.090206347
-1.8457012 -0.16342585 0.16210969 35 10 -0.090204045
-1.879162 -0.16605808 -0.29878986 29 3 -0.090201743
-1.842953 -0.16253421 0.22716448 32 11 -0.090199441
-1.8706656 -0.16464879 -0.23057681 30 4 -0.090197131
-2.8316636 -0.24873483 0.45021844 100 12 -0.090194829
-1.8775707 -0.1649268 -0.16489866 29 5 -0.090192527
-2.8299756 -0.24808884 0.55220127 96 13 -0.090190224
-1.8682899 -0.163454 -0.098286942 29 6 -0.090187915
-2.8110809 -0.24544376 0.65145826 68 14 -0.090185612
-1.8945315 -0.16508396 -0.033194479 33 7 -0.09018331
-2.8137479 -0.24468637 0.75678688 65 15 -0.090181008
-1.8843707 -0.161548 -0.50676769 19 0 -0.090160273
-1.8748645 -0.16040298 0.03284543 33 8 -0.090157963
-1.8834257 -0.16080435 -0.43640503 21 1 -0.090155661
-1.8606957 -0.15853703 0.097868249 30 9 -0.090153359
-1.889657 -0.16100463 -0.36864299 25 2 -0.090151057
-1.878024 -0.15968287 0.16489866 31 10 -0.090148747
-1.9072864 -0.1618357 -0.30317003 28 3 -0.090146445
-1.8712012 -0.15844446 0.23057681 32 11 -0.090144143
-1.8969433 -0.16029121 -0.23374543 31 4 -0.09014184
-2.8187361 -0.23768701 0.44802836 100 12 -0.090139531
-1.8940179 -0.15971111 -0.16629316 29 5 -0.090137228
-2.8347371 -0.23853737 0.55296451 96 13 -0.090134926
-1.8807905 -0.15793459 -0.098914966 30 6 -0.090132624
-2.808037 -0.23530422 0.65055847 89 14 -0.090130314
-1.9090455 -0.15963575 -0.033438813 32 7 -0.090128012
-2.8184357 -0.23518497 0.75782222 70 15 -0.09012571
-1.8984007 -0.15607689 -0.51039118 19 0 -0.090104975
-1.8933499 -0.15532897 0.033159573 27 8 -0.090102673
-1.918936 -0.15709136 -0.44450328 22 1 -0.090100363
-1.8970691 -0.1549675 0.099752344 30 9 -0.090098061
-1.9039049 -0.15552591 -0.37131432 23 2 -0.090095758
-1.8805557 -0.15328819 0.16507298 26 10 -0.090093456
-1.9314663 -0.15709916 -0.30692446 29 3 -0.090091147
-1.8974644 -0.15399976 0.23374543 28 11 -0.090088844
-1.9192561 -0.15543124 -0.23642655 30 4 -0.090086542
-2.8156104 -0.22752871 0.44740263 100 12 -0.09008424
-1.9025073 -0.15374109 -0.1669904 31 5 -0.09008193
-2.84338 -0.2292726 0.55449098 96 13 -0.090079628
-1.9171652 -0.15425161 -0.10079906 29 6 -0.090077326
-2.8185537 -0.2262799 0.65280795 94 14 -0.090075023
-1.9195577 -0.15376976 -0.033613335 32 7 -0.090072721
-2.8096108 -0.22457567 0.755234 85 15 -0.090070412
-1.9143411 -0.1506618 -0.51453227 19 0 -0.090055227
-1.9018549 -0.14934561 0.033299193 27 8 -0.090052925
-1.9330723 -0.15145755 -0.44765261 20 1 -0.090050623
-1.9095454 -0.14927845 0.10038038 27 9 -0.090048313
-1.9298807 -0.15086816 -0.37627536 23 2 -0.090046011
-1.9009429 -0.14827262 0.16681609 28 10 -0.090043709
-1.9359417 -0.15066212 -0.30755019 27 3 -0.090041406
-1.9138236 -0.14860481 0.23569533 28 11 -0.090039097
-1.945516 -0.15072455 -0.23959514 25 4 -0.090036795
-2.8203268 -0.21800274 0.44802836 100 12 -0.090034492
-1.9149512 -0.14801995 -0.16803627 29 5 -0.09003219
-2.8206737 -0.21753435 0.54991156 96 13 -0.09002988
-1.9535366 -0.15031655 -0.10268316 28 6 -0.090027578
-2.8154404 -0.21614221 0.65190816 97 14 -0.090025276
-1.9440089 -0.1489009 -0.034032192 29 7 -0.090022974
-2.81423 -0.21506123 0.75626928 90 15 -0.090020664
