# .PCD v0.7 - Point Cloud Data file format
VERSION 0.7
FIELDS x y z intensity ring time
SIZE 4 4 4 4 2 4
TYPE F F F F U F
COUNT 1 1 1 1 1 1
WIDTH 960
HEIGHT 1
VIEWPOINT 0 0 0 1 0 0 0
POINTS 960
DATA ascii
1.3670166 1.5467615 0.32694808 9 12 -0.0034047947
1.380381 1.5613356 -0.1823298 8 5 -0.0034024909
1.3682677 1.5470902 0.40146214 8 13 -0.0034001868
1.3763613 1.5556929 -0.1088588 9 6 -0.0033978829
1.3638543 1.5410157 0.47509661 8 14 -0.0033955788
1.3875883 1.5678327 -0.03654534 9 7 -0.0033932747
1.3727905 1.5505674 0.55490804 9 15 -0.0033909709
1.3794289 1.5536878 0.0362661 9 8 -0.0033679309
1.3636975 1.5348898 0.10760273 8 9 -0.0033633229
2.5784523 2.9011192 -0.75445884 3 2 -0.0033610188
1.3741448 1.5455631 0.18093532 9 10 -0.0033587147
1.3899742 1.5633672 -0.33132821 2 3 -0.0033564109
1.3720198 1.5426294 0.25348827 9 11 -0.0033541068
1.3960403 1.5690852 -0.25787556 8 4 -0.0033518029
1.3724064 1.5419813 0.32694808 9 12 -0.0033494988
1.396422 1.5684116 -0.1837243 8 5 -0.0033471948
1.386446 1.5572069 0.40527833 8 13 -0.0033448909
1.3881541 1.5585777 -0.10938216 8 6 -0.0033425868
1.370253 1.5379398 0.47554654 9 14 -0.0033402829
1.3930529 1.5629791 -0.03654534 9 7 -0.0033379789
1.3794808 1.5472077 0.5554257 9 15 -0.0033356748
1.3861763 1.5503541 0.036301006 9 8 -0.0033126348
1.3823652 1.5450045 0.10864946 8 9 -0.0033080268
2.5684233 2.8706057 -0.74873453 7 2 -0.003305723
1.3819205 1.5439667 0.18128395 9 10 -0.0033034189
1.3866676 1.5481813 0.25519443 10 11 -0.0032988109
1.5392749 1.7179619 -0.28322437 12 4 -0.0032965068
1.3804178 1.5401229 0.32757381 9 12 -0.003294203
1.4045488 1.5664941 -0.18407291 8 5 -0.0032918989
1.4010478 1.5625895 0.40794963 9 13 -0.0032895948
1.3962529 1.5566964 -0.10959151 8 6 -0.0032872907
1.3847234 1.5433003 0.47869584 8 14 -0.0032849868
1.3985007 1.5581065 -0.03654534 9 7 -0.003282683
1.3913261 1.5495704 0.55801392 9 15 -0.0032803789
1.3805623 1.5332694 -0.55283749 2 0 -0.0032596427
1.3848898 1.5380756 0.036126483 9 8 -0.0032573389
1.3957703 1.5490733 0.10927749 8 9 -0.0032527307
2.5776122 2.8597147 -0.74835294 5 2 -0.0032504268
1.3929064 1.5448102 0.18198119 9 10 -0.0032481228
1.3973806 1.5492285 0.25616938 9 11 -0.0032435148
1.5824981 1.7538447 -0.29004908 12 4 -0.0032412107
1.39108 1.54116 0.32882527 9 12 -0.0032389069
1.5502069 1.7168539 -0.20237562 13 5 -0.0032366028
1.3988696 1.5487028 0.40565994 9 13 -0.0032342989
1.4568492 1.6123267 -0.11388306 9 6 -0.0032319948
1.3982108 1.5468892 0.48139524 9 14 -0.0032296907
1.4334298 1.5858532 -0.037313245 9 7 -0.0032273869
1.3928399 1.5404052 0.55646098 8 15 -0.0032250828
1.3573564 1.4969572 -0.54144943 5 0 -0.0032043469
1.4026089 1.5463197 0.036440626 9 8 -0.0032020428
1.3710598 1.5110083 -0.47104752 2 1 -0.0031997389
1.4162042 1.5602151 0.11042888 8 9 -0.0031974348
1.3982906 1.5399382 0.18198119 9 10 -0.0031928269
1.4097238 1.5514426 0.25738806 9 11 -0.0031882189
1.599597 1.7597848 -0.29199898 12 4 -0.0031859148
1.4073505 1.5477436 0.33132821 9 12 -0.0031836107
1.5856794 1.7438619 -0.20621049 13 5 -0.0031813069
1.4121928 1.5525244 0.40794963 9 13 -0.0031790028
1.5767233 1.7327969 -0.12278017 16 6 -0.0031766989
1.4180321 1.5578511 0.48634419 9 14 -0.0031743948
1.5846382 1.7402729 -0.041082963 20 7 -0.0031720907
1.416689 1.5552847 0.56370795 8 15 -0.0031697869
1.3534551 1.4822234 -0.537826 6 0 -0.0031490508
1.4916151 1.632954 0.038604725 10 8 -0.0031467469
1.3566074 1.4846345 -0.46429899 4 1 -0.0031444428
1.425685 1.5596844 0.1107429 8 9 -0.0031421389
1.3908149 1.5215368 -0.40069893 1 2 -0.0031398349
1.414414 1.5468105 0.18337567 9 10 -0.0031375308
1.4546012 1.5902034 -0.34134007 1 3 -0.0031352269
1.411111 1.5421187 0.25665686 8 11 -0.0031329228
1.5976883 1.7454044 -0.29053652 12 4 -0.0031306189
1.4180806 1.5486494 0.33257973 9 12 -0.0031283149
1.5998298 1.7471331 -0.20725635 13 5 -0.0031260108
1.4242337 1.5548242 0.40985772 8 13 -0.0031237069
1.58816 1.7331723 -0.12319885 14 6 -0.0031214028
1.423461 1.552892 0.48634419 9 14 -0.003119099
1.6055685 1.7509445 -0.041466918 22 7 -0.0031167949
1.4312509 1.5602951 0.56733137 9 15 -0.0031144908
1.3612366 1.4803337 -0.53886127 1 0 -0.0030937549
1.5893636 1.7278161 0.040978249 12 8 -0.0030914508
1.3591427 1.4770215 -0.4633992 2 1 -0.0030891467
1.5636822 1.6987056 0.12100074 12 9 -0.0030868428
1.3854809 1.5051167 -0.39764598 3 2 -0.003084539
1.4548948 1.5799711 0.18790779 9 10 -0.0030822349
1.3892109 1.5081122 -0.32475799 2 3 -0.0030799308
1.4285926 1.5503213 0.25885051 9 11 -0.0030776267
1.5822438 1.7164638 -0.28663671 5 4 -0.0030753228
1.4181217 1.5378807 0.33132821 9 12 -0.0030730187
1.6113218 1.7473965 -0.2079536 13 5 -0.0030707149
1.4416332 1.5628306 0.41329232 9 13 -0.0030684108
1.6118079 1.7466998 -0.12455959 14 6 -0.0030661067
1.423586 1.5421855 0.48454455 9 14 -0.0030638028
1.6103146 1.7438599 -0.041432012 20 7 -0.0030614987
1.447175 1.5666423 0.57147247 9 15 -0.0030591949
1.6021801 1.7295923 0.041152775 12 8 -0.0030361549
1.6035466 1.729856 0.12361754 13 9 -0.0030315467
2.5986021 2.8032908 -0.74301028 5 2 -0.0030292429
1.5904549 1.7151325 0.20464167 12 10 -0.0030269388
1.4656682 1.580009 -0.34134007 1 3 -0.0030246349
1.5325655 1.6515485 0.27664346 11 11 -0.0030223308
1.4788322 1.5930859 -0.26689389 4 4 -0.0030200267
1.4490211 1.5604237 0.33727276 9 12 -0.0030177229
1.6052103 1.7286209 -0.20638479 6 5 -0.0030154188
1.4577688 1.5692962 0.41634527 9 13 -0.0030131149
1.6165352 1.7396002 -0.12445491 11 6 -0.0030108108
1.4395753 1.548625 0.48814377 9 14 -0.0030085067
1.6232002 1.7455504 -0.041606538 17 7 -0.0030062029
1.4500028 1.5587524 0.57043719 9 15 -0.0030038988
1.6068435 1.7225274 0.041117873 12 8 -0.0029808588
1.6174506 1.7332898 0.12424557 13 9 -0.0029762508
2.5936358 2.7784157 -0.73881245 8 2 -0.0029739467
1.6100299 1.7241327 0.20638479 12 10 -0.0029716429
1.6264192 1.7404633 0.29248646 16 11 -0.0029670349
1.6375678 1.7517807 -0.29443637 12 4 -0.0029647308
1.5985268 1.7100168 0.37074974 11 12 -0.0029624267
1.5894607 1.6997236 -0.20359582 8 5 -0.0029601227
1.5477333 1.6545227 0.44038719 11 13 -0.0029578188
1.5461763 1.6522802 -0.11859328 4 6 -0.0029555149
1.4636168 1.5635082 0.49444243 9 14 -0.0029532108
1.5182862 1.6219088 -0.038779248 3 7 -0.0029509068
1.4578053 1.5567554 0.57147247 9 15 -0.0029486027
1.5810628 1.6836613 0.040315062 3 8 -0.0029255627
1.6262261 1.7305444 0.12445491 10 9 -0.002920955
2.6060073 2.7722068 -0.73957568 8 2 -0.0029186509
1.618769 1.7214047 0.20673342 12 10 -0.0029163468
1.6267408 1.7292773 0.29151151 14 11 -0.0029117388
1.655611 1.7593517 -0.29663 11 4 -0.002909435
1.6207337 1.7216868 0.37450415 11 12 -0.0029071309
1.6431906 1.7449323 -0.20969671 13 5 -0.0029048268
1.6231997 1.7237036 0.46023133 12 13 -0.0029025227
1.6297083 1.7300103 -0.12455959 12 6 -0.0029002188
1.5930859 1.6905426 0.53628331 11 14 -0.002897915
1.6240708 1.7228205 -0.041327298 11 7 -0.0028956109
1.4817863 1.5713334 0.57871938 10 15 -0.0028933068
1.4646478 1.5488212 0.037208531 3 8 -0.0028702668
3.7778895 3.993609 -1.2691739 1 1 -0.0028679627
1.4414376 1.5232134 0.10990552 2 9 -0.0028656588
2.6097877 2.7578464 -0.73804927 8 2 -0.002863355
1.5203713 1.6060621 0.19348574 3 10 -0.0028610509
1.6054631 1.694766 0.28663671 5 11 -0.0028564427
1.6576465 1.7492391 -0.2958988 12 4 -0.0028541388
1.6063489 1.6945145 0.36981112 6 12 -0.002851835
1.6599343 1.7510408 -0.21109121 12 5 -0.0028495309
1.6413645 1.7308484 0.46366587 9 13 -0.0028472268
1.6508582 1.7402498 -0.12571098 14 6 -0.0028449227
1.6365376 1.7245507 0.54888058 11 14 -0.0028426189
1.6644933 1.7533987 -0.042199921 19 7 -0.002840315
1.6309332 1.7174439 0.6346243 10 15 -0.0028380109
1.6396654 1.7218186 0.04150182 11 8 -0.0028149709
3.791806 3.9803984 -1.2691739 1 1 -0.0028126668
1.4867039 1.5601025 0.112941 5 9 -0.0028103627
2.6193993 2.748719 -0.73804927 8 2 -0.0028080589
1.4586054 1.5300821 0.1849445 4 10 -0.0028057548
1.446944 1.5167887 0.25738806 4 11 -0.0028011468
1.6651124 1.7448783 -0.29614252 10 4 -0.0027988427
1.4417533 1.5102915 0.33070248 4 12 -0.0027965389
1.6715389 1.7510008 -0.21178845 12 5 -0.0027942348
1.4616411 1.5305897 0.41138422 3 13 -0.0027919309
1.6707194 1.7489181 -0.1267577 14 6 -0.0027896268
1.5644588 1.6371133 0.52278626 3 14 -0.0027873227
1.6678404 1.7446861 -0.042130109 19 7 -0.0027850189
1.6502703 1.7257019 0.63980073 8 15 -0.0027827148
1.6567379 1.7276314 0.04178106 12 8 -0.0027596748
1.6484078 1.7177427 0.12476893 12 9 -0.0027550668
2.6194632 2.7296424 -0.73537791 7 2 -0.0027527628
1.5149887 1.5781617 0.191394 6 10 -0.0027504587
1.4687331 1.5289073 0.26031294 5 11 -0.0027458509
1.6794455 1.7476438 -0.29760498 11 4 -0.0027435469
1.4497546 1.5080973 0.33132821 5 12 -0.0027412428
1.6762607 1.7437187 -0.21161415 12 5 -0.0027389387
1.4805837 1.5396291 0.41520041 5 13 -0.0027366348
1.6865052 1.7531521 -0.1274904 13 6 -0.0027343309
1.459361 1.5165002 0.48589426 4 14 -0.0027320269
1.6753078 1.740294 -0.042165015 19 7 -0.0027297228
1.4633179 1.5195515 0.56526077 4 15 -0.0027274187
1.665537 1.7247142 0.041850869 12 8 -0.0027043787
1.6738244 1.7320857 0.12623434 13 9 -0.002699771
2.6166966 2.7077768 -0.73194337 7 2 -0.0026974669
1.6631211 1.7204089 0.2093481 12 10 -0.0026951628
1.5623939 1.6150835 0.27591223 7 11 -0.0026905548
1.6910579 1.7474762 -0.2985799 12 4 -0.002688251
1.4783676 1.527155 0.33664703 6 12 -0.0026859469
1.6878808 1.7435822 -0.21231139 11 5 -0.0026836428
1.4968746 1.5457345 0.41825336 5 13 -0.0026813387
1.7009532 1.755861 -0.12811844 12 6 -0.0026790348
1.4904131 1.5379859 0.49444243 5 14 -0.002676731
1.6925068 1.7459223 -0.042444255 18 7 -0.0026744269
1.4713033 1.5172077 0.5662961 6 15 -0.0026721228
1.6754292 1.7234827 0.041955583 12 8 -0.0026520109
1.6837367 1.730821 0.12654836 12 9 -0.0026474029
2.6338747 2.7075286 -0.73423308 6 2 -0.0026450991
1.6854918 1.7320184 0.21143983 12 10 -0.002642795
1.6896144 1.7350445 0.29736122 14 11 -0.002638187
1.7023847 1.7475462 -0.29955488 11 4 -0.0026358829
1.661268 1.7047451 0.3770071 9 12 -0.0026335791
1.6992143 1.7436844 -0.21300863 12 5 -0.002631275
1.5266598 1.566067 0.42512247 5 13 -0.0026289709
1.7095557 1.7530701 -0.12832777 12 6 -0.002626667
1.5063901 1.5441955 0.4980416 6 14 -0.0026243629
1.7052698 1.7474562 -0.042618778 16 7 -0.0026220591
1.4979185 1.5344379 0.57457829 5 15 -0.002619755
1.4443941 1.475997 -0.5533551 1 0 -0.0025990189
1.6898272 1.7261989 0.042165015 12 8 -0.002596715
1.6897687 1.7249327 0.12654836 12 9 -0.002592107
1.7026821 1.7375097 0.21283433 12 10 -0.0025874989
1.6956609 1.7291356 0.29736122 12 11 -0.0025828909
1.7084733 1.7415943 -0.29955488 11 4 -0.0025805871
1.6921134 1.7243135 0.38263875 10 12 -0.002578283
1.7136639 1.7462741 -0.2140545 11 5 -0.0025759789
1.6861542 1.7176414 0.46786368 11 13 -0.002573675
1.7128648 1.7442431 -0.12811844 13 6 -0.0025713709
1.5254282 1.5528294 0.50254071 6 14 -0.0025690671
1.7183678 1.7486241 -0.0427933 17 7 -0.002566763
1.5222245 1.5484881 0.58182526 6 15 -0.0025644589
1.4536053 1.4750745 -0.55490804 7 0 -0.002543723
1.7028621 1.7274097 0.042339537 12 8 -0.0025414189
1.4490448 1.4694191 -0.47644633 5 1 -0.002539115
1.6957792 1.7190241 0.12654836 12 9 -0.0025368109
1.44355 1.4633374 -0.39955404 1 2 -0.0025345071
1.7129357 1.7358098 0.21335725 12 10 -0.002532203
1.480733 1.499981 -0.33383119 3 3 -0.0025298989
1.7142397 1.7359189 0.29955488 13 11 -0.002527595
1.6991969 1.7200851 -0.29687375 7 4 -0.0025252909
1.7022879 1.7226113 0.38357735 11 12 -0.0025229871
1.7225504 1.7431157 -0.21440312 11 5 -0.002520683
1.7142228 1.7340848 0.47396958 12 13 -0.0025183789
1.721752 1.7410933 -0.12832777 12 6 -0.002516075
1.6925576 1.7109721 0.55562907 9 14 -0.0025137709
1.720241 1.7383515 -0.042688586 15 7 -0.0025114669
1.5520847 1.5678774 0.59114271 6 15 -0.002509163
1.4682711 1.4795898 -0.55853152 7 0 -0.0024884269
1.7145164 1.727132 0.042479157 12 8 -0.002486123
1.4624032 1.4726497 -0.47914574 7 1 -0.0024838189
1.7088077 1.7201784 0.12707172 11 9 -0.0024815151
1.4597186 1.4694318 -0.40260699 7 2 -0.002479211
1.7133671 1.7241663 0.21266 12 10 -0.0024769069
1.4859588 1.4948043 -0.33383119 7 3 -0.002474603
1.7314872 1.7411846 0.30150479 12 11 -0.0024722989
1.4741925 1.4819314 -0.25665686 6 4 -0.0024699951
1.7166498 1.7250611 0.3854546 11 12 -0.002467691
1.595112 1.6029278 -0.19784354 4 5 -0.0024653869
1.7341168 1.7420038 0.47778577 12 13 -0.002463083
1.6968148 1.7039373 -0.12602501 7 6 -0.0024607789
1.7163976 1.7230027 0.56147784 10 14 -0.0024584751
1.6797185 1.6855923 -0.041536726 8 7 -0.002456171
1.7184863 1.7238938 0.65222406 10 15 -0.0024538669
1.4761578 1.4771891 -0.5595668 8 0 -0.002433131
1.6993289 1.6999226 0.041955583 8 8 -0.0024308269
1.4799367 1.4799372 -0.48319483 7 1 -0.002428523
1.7201512 1.7201518 0.1274904 10 9 -0.0024262189
1.4731696 1.4726558 -0.40489674 7 2 -0.0024239151
1.7193748 1.7181753 0.21266 12 10 -0.002421611
1.4981557 1.4965882 -0.33539551 8 3 -0.0024193069
1.7361494 1.7337276 0.30126104 11 11 -0.002417003
1.506049 1.5034233 -0.2612879 7 4 -0.0024146989
1.7265552 1.7235451 0.38639316 10 12 -0.0024123951
1.4878732 1.4847609 -0.18389861 7 5 -0.002410091
1.7318475 1.7276202 0.47549605 11 13 -0.0024077869
1.5047574 1.5005618 -0.11137092 8 6 -0.002405483
1.7362034 1.7307584 0.56597686 11 14 -0.002403179
1.4955255 1.4908352 -0.036859483 8 7 -0.0024008751
1.7324042 1.7263668 0.65532982 11 15 -0.002398571
1.4977485 1.4883683 -0.56577843 8 0 -0.0023778351
1.4850992 1.4757982 0.03654534 7 8 -0.002375531
1.487602 1.4777679 -0.48409468 7 1 -0.0023732269
1.5220686 1.5114806 0.11241764 4 9 -0.0023709231
1.4922338 1.4813362 -0.40871289 7 2 -0.002368619
1.643337 1.630765 0.20254995 5 10 -0.0023663149
1.5087193 1.4971771 -0.33664703 8 3 -0.002364011
1.723568 1.7097868 0.29809242 8 11 -0.0023617069
1.5194831 1.5068077 -0.26275033 7 4 -0.0023594031
1.7227412 1.7077725 0.38420308 9 12 -0.002357099
1.5071988 1.4935827 -0.18564174 7 5 -0.0023547949
1.7417495 1.7260146 0.47664091 10 13 -0.002352491
1.5040493 1.4899416 -0.11095224 7 6 -0.0023501869
1.7447033 1.7277334 0.56687665 10 14 -0.0023478831
1.5149314 1.4996743 -0.037208531 8 7 -0.002345579
1.7494047 1.7311803 0.65947098 11 15 -0.0023432749
1.5136749 1.4942505 -0.56991959 8 0 -0.002322539
1.5073222 1.48746 0.036964197 7 8 -0.0023202349
1.5038495 1.483515 -0.48769391 8 1 -0.002317931
1.5031601 1.4823174 0.11063822 7 9 -0.0023156269
1.5111172 1.4901643 -0.41252908 8 2 -0.0023133229
1.5040098 1.4826379 0.18477017 7 10 -0.002311019
1.522378 1.500221 -0.33852422 8 3 -0.0023087149
1.5046736 1.4822568 0.25933796 7 11 -0.002306411
1.5247339 1.5014941 -0.26275033 8 4 -0.002304107
1.5104936 1.4869517 0.33570841 7 12 -0.0023018029
1.5249225 1.5011556 -0.18721053 8 5 -0.002299499
1.5826432 1.5574329 0.43160996 3 13 -0.0022971949
1.519208 1.4944863 -0.11168494 8 6 -0.002294891
1.7340494 1.7052366 0.56147784 8 14 -0.002292587
1.5372698 1.511199 -0.037627388 9 7 -0.0022902829
1.7609485 1.7304798 0.66154152 10 15 -0.002287979
1.5244 1.4943665 -0.57199007 8 0 -0.0022672429
1.5225028 1.4919872 0.037208531 8 8 -0.002264939
1.5131946 1.4823478 -0.48904356 8 1 -0.0022626349
1.5083256 1.477061 0.11063822 7 9 -0.0022603311
1.5149074 1.4835063 -0.41214746 8 2 -0.002258027
1.5191419 1.4871353 0.18599035 8 10 -0.0022557229
1.5318406 1.499043 -0.33946282 9 3 -0.002253419
1.5254482 1.4922649 0.2620191 8 11 -0.0022511149
1.5413197 1.5072664 -0.26470023 7 4 -0.0022488111
1.519913 1.4858123 0.33664703 8 12 -0.002246507
1.5358524 1.5013943 -0.18790779 8 5 -0.0022442029
1.5403301 1.5052457 0.41863495 7 13 -0.002241899
1.5272723 1.4919659 -0.11189428 8 6 -0.0022395949
1.535041 1.4990299 0.49534222 6 14 -0.0022372911
1.5282267 1.4918547 -0.037278343 8 7 -0.002234987
1.5720296 1.5340806 0.58855456 3 15 -0.0022326829
1.5268383 1.4863417 -0.57095486 8 0 -0.002211947
1.5391667 1.4978199 0.037487768 8 8 -0.0022096429
1.530931 1.4892868 -0.49309272 9 1 -0.002207339
1.5246674 1.4831935 0.1114756 8 9 -0.002205035
1.5228909 1.4809468 -0.41291067 8 2 -0.0022027311
1.5228957 1.4804344 0.18581605 8 10 -0.002200427
1.5540642 1.5102063 -0.34321725 9 3 -0.0021981229
1.5391908 1.4952306 0.26348156 8 11 -0.002195819
1.554853 1.5104455 -0.26616266 8 4 -0.002193515
1.5248314 1.4807643 0.33664703 8 12 -0.0021912111
1.5439428 1.4987997 -0.1882564 8 5 -0.002188907
1.5624816 1.5162669 0.42321438 7 13 -0.0021866029
1.5410728 1.4949692 -0.11252232 8 6 -0.0021842991
1.5469968 1.500716 0.49759173 7 14 -0.002181995
1.5546982 1.5076606 -0.037801914 9 7 -0.0021796911
1.5563024 1.508689 0.58078998 7 15 -0.002177387
1.5317585 1.4812707 -0.57095486 7 0 -0.0021566511
1.544125 1.4927081 0.037487768 8 8 -0.002154347
1.5358616 1.4842013 -0.49309272 6 1 -0.0021520429
1.5425038 1.4906201 0.11241764 8 9 -0.0021497388
1.5348533 1.4827093 -0.41481876 9 2 -0.002147435
1.5306634 1.4781438 0.18616466 7 10 -0.0021451309
1.5576421 1.503673 -0.34290439 10 3 -0.002142827
1.5484257 1.4942538 0.26421279 8 11 -0.0021405229
1.5669951 1.5121737 -0.26738134 9 4 -0.0021382188
1.5354205 1.4811848 0.33789849 8 12 -0.002135915
1.5460359 1.4909059 -0.18790779 8 5 -0.0021336109
1.5618471 1.5056273 0.4216879 7 13 -0.002131307
1.5618422 1.5050954 -0.11367371 9 6 -0.0021290029
1.5659975 1.5090996 0.50209075 7 14 -0.0021266988
1.5654504 1.5080456 -0.03794153 9 7 -0.002124395
1.5612965 1.5035201 0.58078998 7 15 -0.0021220909
1.5394489 1.4788591 -0.57199007 8 0 -0.002101355
1.5505092 1.4889641 0.037522674 7 8 -0.0020990509
1.5435863 1.4817995 -0.49399251 7 1 -0.002096747
1.5635496 1.5004381 0.11356904 7 9 -0.002094443
1.5471039 1.4841375 -0.41672686 8 2 -0.0020921389
1.5456209 1.4827149 0.18738484 8 10 -0.002089835
1.5725999 1.5080703 -0.34509447 9 3 -0.0020875309
1.5462075 1.4822417 0.26299405 8 11 -0.0020852271
1.5722644 1.5066942 -0.26738134 9 4 -0.002082923
1.5491394 1.4840165 0.33977571 8 12 -0.0020806189
1.574255 1.507548 -0.19069678 9 5 -0.002078315
1.5756027 1.5083115 0.42397761 7 13 -0.0020760109
1.5699713 1.5023972 -0.11388306 9 6 -0.0020737071
1.5797023 1.5117092 0.50479019 8 14 -0.002071403
1.5779296 1.5094838 -0.038116053 10 7 -0.0020690989
1.5777049 1.5087417 0.58493102 7 15 -0.002066795
1.5560431 1.4838731 -0.57613122 8 0 -0.0020460589
1.560298 1.4874109 0.037627388 8 8 -0.002043755
1.5504189 1.4774754 -0.49444243 8 1 -0.0020414509
1.5661459 1.4919425 0.1133597 7 9 -0.0020391471
1.5553764 1.4811654 -0.41749012 8 2 -0.002036843
1.5597017 1.4852842 0.18843071 8 10 -0.0020345389
1.5709639 1.4954852 -0.34353012 8 3 -0.002032235
1.5573816 1.482039 0.26396903 8 11 -0.0020299309
1.577776 1.5009218 -0.26738134 9 4 -0.0020276271
1.5574321 1.4810499 0.34040144 8 12 -0.002025323
1.5797695 1.5017682 -0.19069678 9 5 -0.0020230189
1.58112 1.5025269 0.42397761 7 13 -0.002020715
1.5754684 1.4966316 -0.11388306 12 6 -0.0020184109
1.5767561 1.4978549 0.50209075 7 14 -0.0020161071
1.5863513 1.5064448 -0.038185868 12 7 -0.002013803
1.5930316 1.5122601 0.58855456 7 15 -0.0020114989
1.5783069 1.4940965 -0.58234286 8 0 -0.001990763
1.5773585 1.4926783 0.037906628 8 8 -0.0019884589
1.5671486 1.4824966 -0.4980416 8 1 -0.0019861551
1.5684428 1.4837211 0.11315035 8 9 -0.001983851
1.5676696 1.4824713 -0.41939822 8 2 -0.0019815471
1.5767175 1.4905077 0.18982521 9 10 -0.001979243
1.5994061 1.5114257 -0.34853604 8 3 -0.0019769389
1.5714619 1.4844996 0.26543146 8 11 -0.0019746351
1.5902212 1.5022207 -0.26860005 8 4 -0.001972331
1.5697725 1.4823868 0.34196579 9 12 -0.0019700271
1.5936952 1.5044503 -0.19174263 8 5 -0.001967723
1.5949228 1.5050828 0.42626733 8 13 -0.0019654189
1.5850405 1.4952357 -0.11419707 10 6 -0.0019631148
1.5933144 1.5030409 0.50568998 7 14 -0.001960811
1.6003296 1.5091294 -0.038395293 11 7 -0.0019585071
1.6039239 1.5119901 0.59062505 7 15 -0.001956203
1.5719932 1.4782681 -0.57820177 8 0 -0.0019354669
1.5895851 1.494287 0.038081151 10 8 -0.001933163
1.5805764 1.485299 -0.50074106 8 1 -0.0019308589
1.5893642 1.493557 0.11430173 9 9 -0.001928555
1.5797309 1.4839866 -0.42130631 9 2 -0.001926251
1.5772949 1.4811788 0.18930228 9 10 -0.0019239469
1.6159309 1.51693 -0.35103899 8 3 -0.001921643
1.5879564 1.4901466 0.26738134 9 11 -0.0019193389
1.6009846 1.5023724 -0.269575 8 4 -0.001917035
1.5804428 1.4825785 0.34321725 9 12 -0.001914731
1.5986751 1.4991575 -0.19174263 8 5 -0.0019124269
1.6042023 1.5038131 0.42741215 8 13 -0.001910123
1.5987346 1.4981649 -0.11482509 8 6 -0.001907819
1.5982903 1.4977485 0.50568998 9 14 -0.001905515
1.6067843 1.5051817 -0.038430199 9 7 -0.001903211
1.6032892 1.5013808 0.58855456 7 15 -0.0019009069
1.582534 1.4783217 -0.58027232 8 0 -0.001880171
1.5901467 1.4849135 0.037976436 8 8 -0.0018778669
1.5968897 1.4906874 -0.50434029 8 1 -0.0018755631
1.5916473 1.4852751 0.11409239 8 9 -0.001873259
1.5932556 1.486776 -0.42359596 8 2 -0.001870955
1.5836544 1.4772995 0.18947658 10 10 -0.001868651
1.6151739 1.5061736 -0.3497875 9 3 -0.0018663469
1.613217 1.5038239 0.27079371 11 11 -0.0018640429
1.6120269 1.5021889 -0.27054995 8 4 -0.001861739
1.5971719 1.4878237 0.3457202 10 12 -0.001859435
1.6065538 1.4965633 -0.19209124 9 5 -0.001857131
1.6178 1.5065138 0.42970186 8 13 -0.0018548269
1.6183126 1.506464 -0.11587181 8 6 -0.001852523
1.614922 1.5027802 0.50928921 8 14 -0.001850219
1.6149573 1.5022874 -0.038500007 9 7 -0.0018479149
1.6155926 1.5023539 0.59114271 8 15 -0.001845611
1.5933502 1.4780434 -0.58234286 8 0 -0.0018248749
1.5909218 1.4752742 0.037871722 8 8 -0.001822571
1.5949367 1.4784812 -0.50209075 9 1 -0.0018202669
1.6100073 1.4919275 0.11503445 7 9 -0.001817963
1.6128365 1.4945492 -0.42741215 8 2 -0.001815659
1.5888019 1.4717621 0.18947658 8 10 -0.0018133549
1.6247687 1.5045539 -0.3507261 9 3 -0.001811051
1.6038892 1.4846981 0.26835632 9 11 -0.001808747
1.6230893 1.5019454 -0.27152494 8 4 -0.001806443
1.6009054 1.4808987 0.34540737 9 12 -0.001804139
1.6234684 1.5017704 -0.19348574 9 5 -0.0018018349
1.6187248 1.4968581 0.42855701 9 13 -0.001799531
1.6176952 1.4953824 -0.11545313 8 6 -0.001797227
1.6301761 1.5063922 0.51243848 9 14 -0.001794923
1.6348801 1.5102099 -0.038849056 9 7 -0.001792619
1.6265045 1.501947 0.59321326 8 15 -0.0017903149
1.6112882 1.4842519 -0.58700162 9 0 -0.001769579
1.6063585 1.4791942 0.038116053 8 8 -0.0017672749
1.6115584 1.4834628 -0.50568998 10 1 -0.0017649709
1.6063874 1.4781835 0.11440641 7 9 -0.001762667
1.6252673 1.4955567 -0.42932025 9 2 -0.001760363
1.6071266 1.4783473 0.19104539 8 10 -0.001758059
1.6358273 1.5042212 -0.35197759 9 3 -0.0017557549
1.6090624 1.4790901 0.26835632 8 11 -0.001753451
1.6341685 1.5016435 -0.27249986 8 4 -0.001751147
1.6118838 1.480647 0.34665883 8 12 -0.0017488429
1.6433733 1.5095727 -0.19522884 9 5 -0.001746539
1.6268326 1.4938539 0.42932025 7 13 -0.0017442349
1.6287901 1.4951292 -0.11587181 9 6 -0.001741931
1.6253734 1.4914702 0.50928921 8 14 -0.001739627
1.6460367 1.5099006 -0.03898868 9 7 -0.0017373229
1.6331609 1.4975663 0.59373093 9 15 -0.001735019
1.6321385 1.4929625 -0.59269565 11 0 -0.0017142829
1.6159397 1.4776258 0.038220771 8 8 -0.001711979
1.6239192 1.4844019 -0.50793946 10 1 -0.001709675
1.6174347 1.4779565 0.11482509 7 9 -0.001707371
1.6246805 1.4845775 -0.4277938 9 2 -0.001705067
1.6269881 1.4861652 0.1927885 8 10 -0.0017027629
1.6541971 1.5104895 -0.3547934 10 3 -0.001700459
1.6230121 1.4814944 0.26981872 8 11 -0.001698155
1.6423333 1.4986056 -0.27298734 8 4 -0.001695851
1.6141238 1.4723486 0.3460331 8 12 -0.001693547
1.648633 1.5038267 -0.19522884 8 5 -0.0016912429
1.6436424 1.4987491 0.4323732 7 13 -0.0016889391
1.6428561 1.4975071 -0.11649985 9 6 -0.001686635
1.6305701 1.485787 0.50928921 7 14 -0.001684331
1.651297 1.5041461 -0.03898868 9 7 -0.001682027
1.6555196 1.5074639 0.59994256 7 15 -0.0016797229
1.6201802 1.4716686 -0.58648396 8 0 -0.001658987
1.6344117 1.4840751 0.038534917 8 8 -0.0016566829
1.6406341 1.4892029 -0.51153868 8 1 -0.001654379
1.6270211 1.4763285 0.11513911 8 9 -0.001652075
1.6298525 1.4788976 -0.4277938 9 2 -0.001649771
1.6306897 1.4791385 0.19261418 8 10 -0.001647467
1.6653125 1.5100139 -0.35604486 10 3 -0.0016451629
1.645823 1.4918185 0.27274361 8 11 -0.001642859
1.651968 1.4968622 -0.27371857 9 4 -0.001640555
1.6221813 1.469358 0.34665883 8 12 -0.001638251
1.6570874 1.5004493 -0.19557749 9 5 -0.0016359469
1.6503191 1.4943206 0.43275481 6 13 -0.0016336429
1.6732465 1.5145481 -0.11827926 9 6 -0.001631339
1.6444161 1.4879315 0.51198858 8 14 -0.001629035
1.6595029 1.5010558 -0.039058488 9 7 -0.001626731
1.6550405 1.4964931 0.59787202 7 15 -0.0016244269
1.6341722 1.4734821 -0.58958983 8 0 -0.001603691
1.6366121 1.475682 0.038465101 8 8 -0.0016013869
1.6429278 1.4808571 -0.51063889 8 1 -0.001599083
1.6440345 1.481336 0.11597649 8 9 -0.001596779
1.6527672 1.4886805 -0.4323732 9 2 -0.001594475
1.6361005 1.4731513 0.19261418 8 10 -0.001592171
1.6664311 1.4999361 -0.35510629 9 3 -0.0015898669
1.6598725 1.4940329 0.27420604 9 11 -0.001587563
1.660134 1.4937425 -0.27420604 10 4 -0.001585259
1.6361129 1.4716122 0.34853604 8 12 -0.001582955
1.6623145 1.4946562 -0.19557749 9 5 -0.0015806509
1.6587056 1.4908863 0.43351805 8 13 -0.0015783469
1.678786 1.5084056 -0.11827926 10 6 -0.001576043
1.6614573 1.4923115 0.51558781 7 14 -0.001573739
1.6721715 1.5019348 -0.03923301 12 7 -0.001571435
1.6631285 1.4932883 0.59890729 7 15 -0.0015691309
1.6479409 1.4755012 -0.59269565 8 0 -0.001548395
1.6479695 1.4750086 0.038604725 8 8 -0.0015460909
1.648344 1.4748257 -0.51063889 8 1 -0.001543787
1.6596147 1.4849099 0.11670919 8 9 -0.001541483
1.6579533 1.4829026 -0.4323732 9 2 -0.001539179
1.6635116 1.4873515 0.19522884 9 10 -0.0015368749
1.6672386 1.4901603 -0.35416767 9 3 -0.0015345709
1.6682985 1.490584 0.27469352 9 11 -0.001532267
1.6756999 1.497197 -0.27591223 9 4 -0.001529963
1.6633388 1.4856308 0.35322908 9 12 -0.001527659
1.6704944 1.491498 -0.19592611 11 5 -0.0015253549
1.6741521 1.4942386 0.43618938 7 13 -0.0015230509
1.67957 1.4985477 -0.11796526 11 6 -0.001520747
1.6780294 1.4971731 0.51918703 7 14 -0.001518443
1.6774037 1.4960891 -0.03923301 12 7 -0.001516139
1.6755404 1.4939022 0.6014955 8 15 -0.0015138349
1.6614861 1.4777309 -0.59580147 8 0 -0.001493099
1.6573349 1.4735222 0.038709439 9 8 -0.0014907949
1.6561391 1.4719402 -0.51153868 8 1 -0.001488491
1.6615443 1.4767442 0.11649985 8 9 -0.001486187
1.6731358 1.4865239 -0.43504456 8 2 -0.001483883
1.6699244 1.4831506 0.19540317 8 10 -0.0014815789
1.6869432 1.4977379 -0.35729638 8 3 -0.0014792749
1.6643245 1.477137 0.27323109 9 11 -0.001476971
1.6747172 1.4863607 -0.27493724 8 4 -0.001474667
1.6741663 1.485351 0.35448053 9 12 -0.001472363
1.684375 1.4938816 -0.19697197 9 5 -0.0014700589
1.6820368 1.4912833 0.43695265 7 13 -0.0014677549
1.6815403 1.4903204 -0.1177559 11 6 -0.001465451
1.6829846 1.4916006 0.51918703 8 14 -0.001463147
1.6943301 1.5011266 -0.039512251 12 7 -0.001460843
1.6819319 1.4896182 0.60201317 7 15 -0.0014585389
1.675063 1.4798887 -0.59890729 8 0 -0.0014378029
1.6742033 1.4786075 0.03898868 11 8 -0.0014354989
1.6697761 1.4741789 -0.51423806 8 1 -0.001433195
1.6769128 1.4804796 0.11723255 9 9 -0.001430891
1.6721678 1.4757713 -0.43351805 8 2 -0.001428587
1.682304 1.4841948 0.19627473 9 10 -0.0014262829
1.6948634 1.4947492 -0.35792211 8 3 -0.0014239789
1.6870817 1.4873631 0.27615595 9 11 -0.001421675
1.6855929 1.4860505 -0.27591223 8 4 -0.001419371
1.6776012 1.4784845 0.35416767 9 12 -0.001417067
1.7012793 1.4988248 -0.19836646 8 5 -0.0014147629
1.6972857 1.4947804 0.43962395 8 13 -0.001412459
1.693969 1.4913347 -0.11827926 9 6 -0.001410155
1.6791459 1.4782847 0.5164876 8 14 -0.001407851
1.6902915 1.4875735 -0.039302818 10 7 -0.001405547
1.7071687 1.5018964 0.60926002 7 15 -0.0014032429
1.6712496 1.4666798 -0.59580147 9 0 -0.0013825069
1.6806002 1.4743667 0.039023582 9 8 -0.0013802029
1.6761211 1.4699181 -0.51468801 9 1 -0.001377899
1.6818134 1.4749103 0.11723255 9 9 -0.001375595
1.6785285 1.4715127 -0.4338997 9 2 -0.001373291
1.6857177 1.477295 0.19610041 11 10 -0.0013709869
1.7057544 1.4943266 -0.35917357 9 3 -0.0013686829
1.7024584 1.4909155 0.27786213 11 11 -0.001366379
1.693498 1.4830685 -0.2763997 8 4 -0.001364075
1.6839808 1.4742148 0.35448053 9 12 -0.001361771
1.6942459 1.4826775 -0.19697197 8 5 -0.0013594669
1.7081441 1.4943138 0.4411504 8 13 -0.001357163
1.7034152 1.4896536 -0.11859328 8 6 -0.001354859
1.6957742 1.4829714 0.52008682 8 14 -0.001352555
1.6967212 1.4832758 -0.039337724 10 7 -0.001350251
1.6961381 1.4822439 0.60356599 8 15 -0.0013479469
1.6885237 1.4704016 -0.59994256 8 0 -0.001327038
1.6802163 1.4626504 0.038883962 8 8 -0.0013247341
1.7023333 1.4813815 -0.52098668 9 1 -0.0013224301
1.6952538 1.4747025 0.1177559 8 9 -0.001320126
1.6945347 1.4740769 -0.436571 9 2 -0.001317822
1.697392 1.4760406 0.19679767 8 10 -0.001315518
1.7129703 1.4890625 -0.35948643 9 3 -0.0013132141
1.7141637 1.4895763 0.27883708 9 11 -0.0013109101
1.7114271 1.4866728 -0.27834961 8 4 -0.001308606
1.6988345 1.4752136 0.35635775 9 12 -0.001306302
1.7119612 1.4866123 -0.19836646 8 5 -0.0013039981
1.7094204 1.4838843 0.44000554 10 13 -0.0013016941
1.7211908 1.4935737 -0.11943066 8 6 -0.00129939
1.7061301 1.4799827 0.52143651 9 14 -0.001297086
1.7117268 1.4843127 -0.039547153 9 7 -0.001294782
1.7181315 1.4893428 0.60926002 9 15 -0.0012924781
1.700953 1.470816 -0.60253078 9 0 -0.001271742
1.694389 1.464622 0.03909339 8 8 -0.0012694381
1.7074937 1.4754306 -0.52098668 9 1 -0.0012671341
1.704926 1.4726923 0.11806992 9 9 -0.00126483
1.7130417 1.4797025 -0.44000554 9 2 -0.001262526
1.7025343 1.4701061 0.19679767 8 10 -0.0012602221
1.7196528 1.4843652 -0.35979933 9 3 -0.0012579181
1.7058269 1.4719115 0.27664346 8 11 -0.001255614
1.7166065 1.480689 -0.27834961 8 4 -0.00125331
1.7054694 1.4705651 0.35667065 8 12 -0.001251006
1.7171396 1.4806278 -0.19836646 8 5 -0.0012487021
1.710129 1.4740624 0.43886071 8 13 -0.0012463981
1.718829 1.4810374 -0.1189073 9 6 -0.001244094
1.7260506 1.4867365 0.52593553 9 14 -0.00124179
1.7259887 1.4861586 -0.039756581 9 7 -0.001239486
1.7321054 1.4908977 0.6123659 9 15 -0.0012371821
1.7104743 1.4686447 -0.60408366 10 0 -0.001216446
1.7070771 1.465212 0.039267913 9 8 -0.0012141421
1.7096758 1.4669229 -0.52008682 9 1 -0.0012118381
1.7067691 1.464429 0.11786059 9 9 -0.001209534
1.7181967 1.4737133 -0.44000554 9 2 -0.00120723
1.7197549 1.4745305 0.19819216 8 10 -0.0012049261
1.7293235 1.4822094 -0.36073789 9 3 -0.0012026221
1.7199994 1.4736971 0.27810585 8 11 -0.0012003181
1.7245219 1.477572 -0.27883708 8 4 -0.001198014
1.7193381 1.4726117 0.35854784 8 12 -0.00119571
1.7283517 1.4798076 -0.19906372 8 5 -0.0011934061
1.7286881 1.4795729 0.44229528 8 13 -0.0011911021
1.725505 1.4763281 -0.11901198 8 6 -0.0011887981
1.7235675 1.4746705 0.52368605 7 14 -0.001186494
1.7369864 1.4856254 -0.039896201 9 7 -0.00118419
1.7326345 1.4813797 0.61081296 8 15 -0.0011818861
1.7226839 1.4692328 -0.60667187 10 0 -0.0011611501
1.7225791 1.4686242 0.039512251 8 8 -0.0011588461
1.7219464 1.4675659 -0.5223363 10 1 -0.001156542
1.7116157 1.4587613 0.11786059 9 9 -0.001154238
1.7290525 1.4730998 -0.44153205 9 2 -0.001151934
1.7367702 1.4791535 0.19958666 8 10 -0.0011496301
1.7477658 1.487992 -0.36355373 10 3 -0.0011473261
1.7248772 1.4679848 0.27810585 8 11 -0.001145022
1.736971 1.4782774 -0.28005576 9 4 -0.001142718
1.7302306 1.4720216 0.35979933 8 12 -0.001140414
1.7423555 1.4818131 -0.20010957 9 5 -0.0011381101
1.7425601 1.4814616 0.444585 7 13 -0.0011358061
1.7349573 1.474478 -0.119326 9 6 -0.001133502
1.7373581 1.4765183 0.52638549 7 14 -0.001131198
1.7434273 1.4811522 -0.039931107 10 7 -0.001128894
1.7478453 1.4843791 0.61443645 7 15 -0.0011265901
1.7201763 1.457269 -0.60408366 9 0 -0.0011058541
1.7304914 1.4654888 0.039582059 8 8 -0.0011035501
1.731266 1.4656246 -0.52368605 9 1 -0.0011012461
1.7380415 1.4708412 0.119326 9 9 -0.001098942
1.7309297 1.4648226 -0.44076881 10 2 -0.001096638
1.7355809 1.4682392 0.1988894 8 10 -0.0010943341
1.7572161 1.4860142 -0.36449236 10 3 -0.0010920301
1.7448946 1.4750737 0.28054324 8 11 -0.0010897261
1.745152 1.4747692 -0.28054324 9 4 -0.001087422
1.7338496 1.4646978 0.35948643 9 12 -0.001085118
1.7457383 1.474741 -0.19993527 11 5 -0.0010828141
1.7579626 1.484542 0.4472563 8 13 -0.00108051
1.7581511 1.484177 -0.12058206 9 6 -0.0010782061
1.7514378 1.4779849 0.52908486 7 14 -0.001075902
1.751644 1.4776357 -0.040000916 11 7 -0.001073598
1.7471077 1.4732885 0.6123659 7 15 -0.0010712941
1.7341233 1.4587165 -0.60718954 8 0 -0.0010505581
1.7447799 1.4671609 0.039791487 9 8 -0.0010482541
1.7438298 1.4658424 -0.52593553 8 1 -0.00104595
1.750811 1.4711894 0.11984935 9 9 -0.001043646
1.7390388 1.4612973 -0.44153205 9 2 -0.001041342
1.7406958 1.4621714 0.1988894 8 10 -0.0010390381
1.7533153 1.4722499 -0.36261514 9 3 -0.0010367341
1.7561153 1.4740785 0.28151822 8 11 -0.00103443
1.7609345 1.4776 -0.28224945 12 4 -0.001032126
1.740465 1.4599066 0.35979933 9 12 -0.001029822
1.7493486 1.4673582 -0.19976096 9 5 -0.0010275181
1.7631336 1.4783969 0.4472563 8 13 -0.0010252141
1.7694441 1.4831623 -0.12100074 9 6 -0.00102291
1.7625608 1.476869 0.5308845 7 14 -0.001020606
1.7598568 1.4740808 -0.040070724 12 7 -0.001018302
1.7700144 1.4820632 0.61857754 7 15 -0.0010159981
1.7451357 1.4576075 -0.60926002 8 0 -0.00099526206
1.7452852 1.4572169 0.039686773 9 8 -0.00099295808
1.7444474 1.4560006 -0.52458584 7 1 -0.00099065411
1.7590033 1.4676275 0.1200587 9 9 -0.00098835002
1.7516669 1.4615064 -0.44344014 8 2 -0.00098604604
1.7549694 1.4637438 0.19993527 8 10 -0.00098374207
1.7584434 1.4661211 -0.36261514 8 3 -0.00098143797
1.7643002 1.470481 0.2820057 8 11 -0.00097913411
1.7752318 1.4790685 -0.28371185 8 4 -0.00097683002
1.7592108 1.4652003 0.36261514 9 12 -0.00097452605
1.7623711 1.4673102 -0.20063251 10 5 -0.00097222207
1.7622489 1.4672084 0.44572985 8 13 -0.00096991804
1.7638644 1.4680336 -0.12026804 11 6 -0.000967614
1.7766942 1.4781854 0.53358394 8 14 -0.00096531003
1.7619172 1.465371 -0.040000916 12 7 -0.00096300605
1.7722057 1.473406 0.61754227 7 15 -0.00096070208
1.7593895 1.4585998 -0.6123659 8 0 -0.00093996606
1.761138 1.4600493 0.039931107 10 8 -0.00093766209
1.7525204 1.4523891 -0.52548569 7 1 -0.00093535805
1.7687292 1.4653013 0.12037271 9 9 -0.00093305402
1.7721319 1.4675988 -0.4472563 8 2 -0.00093075004
1.7679963 1.4636538 0.20080683 9 10 -0.00092844607
1.7683712 1.4634441 -0.36355373 8 3 -0.00092614203
1.7648339 1.4605168 0.28127447 9 11 -0.000923838
1.7712072 1.4652703 -0.28224945 7 4 -0.00092153403
1.7749709 1.4678622 0.36480519 9 12 -0.00091923005
1.77516 1.467497 -0.20150407 8 5 -0.00091692607
1.7888013 1.4782487 0.45107248 8 13 -0.00091462204
1.7753927 1.4666464 -0.12068672 8 6 -0.00091231801
1.7730839 1.4642186 0.5308845 8 14 -0.00091001403
1.7932338 1.4808584 -0.040594298 9 7 -0.00090771005
1.7847874 1.4733597 0.62013048 8 15 -0.00090540608
1.7749106 1.4610442 -0.61598933 8 0 -0.00088467007
1.7649329 1.4523143 0.039896201 9 8 -0.00088236603
1.7713766 1.4570981 -0.52953476 8 1 -0.00088006206
1.7676631 1.4540435 0.11995402 11 9 -0.00087775802
1.771179 1.4564159 -0.44572985 8 2 -0.00087545405
1.7792507 1.4625344 0.20150407 9 10 -0.00087315007
1.785679 1.4672947 -0.36605671 8 3 -0.00087084604
1.7855152 1.4666382 0.28371185 9 11 -0.000868542
1.7796338 1.4612885 -0.2827369 7 4 -0.00086623803
1.7739772 1.4566437 0.36355373 9 12 -0.00086393405
1.7925924 1.471404 -0.20289856 8 5 -0.00086163008
1.7969863 1.4744859 0.45183572 8 13 -0.00085932604
1.7851338 1.4642404 -0.12100074 8 6 -0.00085702201
1.79024 1.4679049 0.53448373 9 14 -0.00085471803
1.7829288 1.4619101 -0.040245246 9 7 -0.00085241406
1.8093432 1.4830406 0.62685978 7 15 -0.00085011008
1.7725213 1.4487264 -0.61340117 8 0 -0.00082937407
1.7821263 1.4565769 0.040175438 7 8 -0.00082707003
1.7761991 1.4512155 -0.52953476 8 1 -0.00082476606
1.7851026 1.457972 0.1207914 7 9 -0.00082246203
1.7762516 1.4502248 -0.44572985 8 2 -0.00082015805
1.7797149 1.4525349 0.20098113 8 10 -0.00081785402
1.8058385 1.4738559 -0.36918539 9 3 -0.00081555004
1.7842155 1.4556907 0.2827369 9 11 -0.00081324606
1.8060069 1.4729434 -0.28614923 8 4 -0.00081094203
1.7775202 1.4491938 0.36324087 9 12 -0.00080863805
1.7915397 1.4601033 -0.20220132 8 5 -0.00080633402
1.8064314 1.47224 0.45298058 9 13 -0.00080403005
1.8039159 1.469666 -0.1219428 8 6 -0.00080172607
1.7996308 1.4656525 0.53583342 9 14 -0.00079942204
1.7973251 1.4632531 -0.040454678 9 7 -0.00079711806
1.8100134 1.4730577 0.62530684 8 15 -0.00079481403
1.7863144 1.4501464 -0.61650699 8 0 -0.00077407807
1.7794365 1.4440464 0.040000916 8 8 -0.00077177404
1.7918473 1.4536009 -0.53268409 9 1 -0.00076947006
1.7994891 1.4592795 0.12141944 7 9 -0.00076716603
1.7901996 1.4517463 -0.44801953 8 2 -0.00076486205
1.7814269 1.4441154 0.20063251 8 10 -0.00076255802
1.809437 1.4663 -0.36887249 9 3 -0.00076025404
1.8047112 1.4619486 0.28517428 8 11 -0.00075795007
1.8142232 1.4691283 -0.28663671 8 4 -0.00075564603
1.7902443 1.4491949 0.36480519 8 12 -0.00075334206
1.7994685 1.4566618 -0.20254995 9 5 -0.00075103802
1.8069805 1.4622208 0.45183572 8 13 -0.00074873405
1.8121409 1.4658719 -0.12215213 8 6 -0.00074643007
1.8214039 1.4728404 0.54078233 10 14 -0.00074412604
1.814863 1.4670275 -0.040733919 9 7 -0.00074182206
1.8241605 1.4740154 0.62841266 9 15 -0.00073951803
1.8018944 1.4523882 -0.62013048 9 0 -0.00071878202
1.803151 1.4528834 0.040419776 8 8 -0.00071647804
1.8029815 1.4522265 -0.53448373 9 1 -0.00071417406
1.8170177 1.4630092 0.12225681 7 9 -0.00071187003
1.8044318 1.4528755 -0.45030925 9 2 -0.00070956605
1.8035291 1.4516313 0.20254995 7 10 -0.00070726202
1.820701 1.4649279 -0.37012401 9 3 -0.00070495805
1.8005227 1.4481747 0.28371185 7 11 -0.00070265407
1.8317156 1.4727386 -0.28858662 9 4 -0.00070035004
1.7999119 1.4466491 0.36574382 7 12 -0.00069804606
1.8138604 1.45786 -0.20359582 8 5 -0.00069574203
1.8136046 1.4571337 0.45221734 7 13 -0.00069343805
1.8203602 1.4620401 -0.12236147 8 6 -0.00069113402
1.8295736 1.4689132 0.54168218 7 14 -0.00068883004
1.8262112 1.4656897 -0.040873535 9 7 -0.00068652607
1.8323072 1.4700578 0.62944794 8 15 -0.00068422203
1.8099695 1.4485041 -0.62116575 10 0 -0.00066348602
1.8097732 1.4478289 0.040454678 7 8 -0.00066118204
1.809562 1.4471407 -0.53493357 12 1 -0.00065887807
1.8249793 1.4594702 0.12246615 7 9 -0.00065657403
1.8202264 1.4551499 -0.45298058 9 2 -0.00065427006
1.8179243 1.4527894 0.20359582 7 10 -0.00065196602
1.830434 1.4622618 -0.37106261 10 3 -0.00064966205
1.8117713 1.4468364 0.28468683 7 11 -0.00064735807
1.8321918 1.46262 -0.28785542 9 4 -0.00064505404
1.8077865 1.4431375 0.36636955 7 12 -0.00064275006
1.8220532 1.4540046 -0.20394444 9 5 -0.00064044603
1.840166 1.4679345 0.45755997 7 13 -0.00063814205
1.8270144 1.4569216 -0.12246615 9 6 -0.00063583802
1.8346903 1.4625174 0.54168218 7 14 -0.00063353404
1.8466989 1.4720899 -0.041222587 9 7 -0.00063123007
1.8417048 1.467585 0.63100088 7 15 -0.00062892603
1.8195525 1.4457821 -0.62271863 8 0 -0.00060819002
1.8333523 1.4567472 0.040873535 9 8 -0.00060588605
1.8097723 1.4374971 -0.53358394 9 1 -0.00060358207
1.8238049 1.4481242 0.12204745 7 9 -0.00060127804
1.8114555 1.437802 -0.44954604 11 2 -0.00059897406
1.827667 1.4501495 0.20411874 8 10 -0.00059667003
1.8399148 1.4598674 -0.3720012 11 3 -0.00059436605
1.8290009 1.4506893 0.28663671 7 11 -0.00059206202
1.8432542 1.4614689 -0.28883037 10 4 -0.00058975804
1.8159095 1.439272 0.3669953 7 12 -0.00058745407
1.8442947 1.4612471 -0.20586187 10 5 -0.00058515003
1.8542563 1.4691398 0.45984969 7 13 -0.00058284606
1.8349675 1.4533346 -0.12267549 9 6 -0.00058054202
1.8425854 1.4588449 0.54258198 7 14 -0.00057823805
1.8502573 1.4643952 -0.041187681 11 7 -0.00057593407
1.852877 1.4659413 0.63307142 7 15 -0.00057363004
1.8243366 1.4397408 -0.62271863 8 0 -0.00055289402
1.8399954 1.4515787 0.040908441 8 8 -0.00055059005
1.8300811 1.4432378 -0.53808296 8 1 -0.00054828607
1.8382601 1.4491676 0.12267549 9 9 -0.00054598204
1.8270056 1.4402953 -0.45221734 9 2 -0.00054367806
1.8324648 1.444082 0.20411874 8 10 -0.00054137403
1.8512062 1.4583262 -0.37325269 9 3 -0.00053907005
1.8418519 1.4504364 0.28785542 8 11 -0.00053676602
1.851463 1.4574828 -0.28931785 10 4 -0.00053446204
1.8240269 1.4353681 0.36762103 8 12 -0.00053215807
1.8459989 1.4526584 -0.20551322 11 5 -0.00052985403
1.8593736 1.4626578 0.45984969 7 13 -0.00052755006
1.8478798 1.4530928 -0.12319885 10 6 -0.00052524603
1.8568586 1.4596305 0.54528135 7 14 -0.00052294205
1.8522133 1.455456 -0.041117873 12 7 -0.00052063802
1.8610215 1.4618508 0.6341067 7 15 -0.00051833404
1.8354335 1.4381303 -0.62478918 8 0 -0.00049759803
1.8450514 1.4451467 0.040908441 9 8 -0.00049529405
1.830505 1.4332362 -0.53673321 8 1 -0.00049299002
1.8543167 1.4513596 0.12340819 9 9 -0.00049068604
1.8304757 1.4326994 -0.45183572 8 2 -0.00048838207
1.8406333 1.4401318 0.20446737 8 10 -0.00048607803
1.8485059 1.4457698 -0.37168834 8 3 -0.00048377406
1.8500311 1.4464439 0.28834289 8 11 -0.00048147002
1.867488 1.4595674 -0.291024 7 4 -0.00047916605
1.8368098 1.4350727 0.36918539 8 12 -0.00047686207
1.8432088 1.4400722 -0.20464167 9 5 -0.00047455804
1.8644675 1.4561589 0.45984969 7 13 -0.00047225406
1.8749799 1.4638423 -0.12466426 10 6 -0.00046995003
1.8680878 1.4579355 0.54708099 7 14 -0.00046764605
1.8635887 1.4539022 -0.041257489 12 7 -0.00046534202
1.866112 1.4553469 0.6341067 7 15 -0.00046303804
1.8450172 1.4352727 -0.62634212 8 0 -0.00044230203
1.8469278 1.4362417 0.040838633 10 8 -0.00043999805
1.8508813 1.4387991 -0.54123223 8 1 -0.00043769402
1.8704114 1.453456 0.1241409 9 9 -0.00043539004
1.8540685 1.4407563 -0.45641515 8 2 -0.00043308607
1.8487964 1.436142 0.204816 9 10 -0.00043078203
1.8660228 1.4490014 -0.37419128 8 3 -0.00042847806
1.8550692 1.4399768 0.28834289 8 11 -0.00042617403
1.8819818 1.4603412 -0.29248646 7 4 -0.00042387005
1.855855 1.439549 0.3720012 9 12 -0.00042156602
1.8702642 1.4507259 -0.20708205 8 5 -0.00041926204
1.8788487 1.4568596 0.46213943 7 13 -0.00041695806
1.864293 1.445052 -0.12361754 8 6 -0.00041465403
1.8854887 1.4609548 0.55068022 7 14 -0.00041235005
1.882881 1.4584084 -0.041571636 9 7 -0.00041004602
1.8803461 1.4559199 0.63721251 7 15 -0.00040774205
1.8607188 1.4370891 -0.62996554 8 0 -0.00038700603
1.8614268 1.4371185 0.041048057 8 8 -0.00038470206
1.8497218 1.4275666 -0.53943259 8 1 -0.00038239802
1.8723112 1.4444777 0.12393155 9 9 -0.00038009405
1.8653046 1.4390721 -0.45794162 8 2 -0.00037779007
1.8664193 1.439414 0.20621049 10 10 -0.00037548604
1.874198 1.4448915 -0.37481701 8 3 -0.00037318206
1.866374 1.4383391 0.28931785 9 11 -0.00037087803
1.8807775 1.4489175 -0.29151151 7 4 -0.00036857405
1.8702588 1.440294 0.37387842 9 12 -0.00036627002
1.8926804 1.457561 -0.20899945 7 5 -0.00036396604
1.88859 1.4538845 0.46328428 8 13 -0.00036166207
1.8756567 1.4434084 -0.12403623 8 6 -0.00035935803
1.8874873 1.4519881 0.54978037 8 14 -0.00035705406
1.8958868 1.4579216 -0.041746158 9 7 -0.00035475002
1.8900114 1.45288 0.63876545 8 15 -0.00035244605
1.874922 1.4376386 -0.63307142 8 0 -0.00033171009
1.8680195 1.4318283 0.041082963 7 8 -0.000329406
1.8639747 1.428213 -0.54213202 8 1 -0.00032710203
1.8709992 1.4330759 0.12351287 7 9 -0.00032479805
1.8765506 1.4373279 -0.4594681 8 2 -0.00032249407
1.8777605 1.4377347 0.20690772 8 10 -0.0003201901
1.898054 1.4527473 -0.37857145 9 3 -0.00031788601
1.8713832 1.4318159 0.28931785 8 11 -0.00031558203
1.8984383 1.4519908 -0.29346141 7 4 -0.00031327805
1.8658597 1.4265577 0.3720012 9 12 -0.00031097408
1.8961744 1.4497349 -0.20882516 8 5 -0.00030866999
1.9045719 1.4556288 0.46595559 9 13 -0.00030636601
1.8870323 1.4417018 -0.12445491 8 6 -0.00030406204
1.8894472 1.4430248 0.54888058 9 14 -0.00030175806
1.8961958 1.4476548 -0.041641444 9 7 -0.00029945408
1.9135003 1.4603375 0.64497709 8 15 -0.00029714999
1.875317 1.427575 -0.63151848 9 0 -0.0002764141
1.8921018 1.4398308 0.04150182 7 8 -0.00027411
1.8860101 1.4346755 -0.54708099 9 1 -0.00027180603
1.8871188 1.4349991 0.12424557 6 9 -0.00026950205
1.8862443 1.4343342 -0.46061292 9 2 -0.00026719808
1.8716644 1.4227319 0.20568755 7 10 -0.0002648941
1.9109774 1.4520892 -0.38013577 9 3 -0.00026259001
1.9000809 1.4432862 0.29297391 7 11 -0.00026028603
1.9129806 1.4525583 -0.29492384 8 4 -0.00025798206
1.8771217 1.4248136 0.37325269 7 12 -0.00025567808
1.9043971 1.4455168 -0.20917378 8 5 -0.00025337399
1.9096411 1.4489721 0.46595559 7 13 -0.00025107001
1.9111495 1.4495895 -0.12571098 8 6 -0.00024876604
1.9037896 1.4434853 0.55158001 8 14 -0.00024646206
1.9076117 1.4458591 -0.04178106 9 7 -0.00024415809
1.9093478 1.4466488 0.64187121 8 15 -0.000241854
1.8910772 1.4291741 -0.63514197 10 0 -0.0002211181
1.8875434 1.4259846 0.041292395 7 8 -0.00021881401
1.9003375 1.4351292 -0.54978037 10 1 -0.00021651003
1.8998364 1.4347508 0.12476893 7 9 -0.00021420605
1.9006406 1.4348388 -0.46290264 9 2 -0.00021190208
1.8861619 1.4233904 0.20673342 7 10 -0.00020959799
1.9286507 1.4549264 -0.38263875 10 3 -0.00020729401
1.8955975 1.4294741 0.29151151 7 11 -0.00020499004
1.9241266 1.4509881 -0.2958988 8 4 -0.00020268606
1.8897235 1.424526 0.37481701 8 12 -0.00020038208
1.9094317 1.4388598 -0.20917378 9 5 -0.00019807799
1.9225279 1.448204 0.46786368 6 13 -0.00019577402
1.9337478 1.4561254 -0.12686236 9 6 -0.00019347004
1.9101231 1.4383359 0.55202991 6 14 -0.00019116607
1.9251776 1.4491457 -0.042060301 10 7 -0.00018886209
1.9187645 1.4437952 0.64342415 6 15 -0.000186558
1.8958064 1.4228946 -0.63514197 8 0 -0.0001658221
1.9002591 1.4257182 0.041466918 8 8 -0.00016351801
1.8894958 1.4171275 -0.54528135 10 1 -0.00016121403
1.9077791 1.4308399 0.12497827 7 9 -0.00015891006
1.9116719 1.4332384 -0.46442911 9 2 -0.00015660608
1.9036256 1.426687 0.2081279 7 10 -0.00015430199
1.92556 1.4426011 -0.3810744 10 3 -0.00015199801
1.9130391 1.4326993 0.29346141 7 11 -0.00014969404
1.9321059 1.4469787 -0.29638627 8 4 -0.00014739006
1.9023435 1.4241711 0.37638137 7 12 -0.00014508609
1.9237633 1.4396831 -0.21021965 8 5 -0.000142782
1.9210317 1.4371159 0.46633717 6 13 -0.00014047802
1.9353666 1.447313 -0.12665303 9 6 -0.00013817404
1.9304882 1.4436649 0.55652893 7 14 -0.00013587007
1.9379803 1.4487404 -0.042234823 10 7 -0.00013356609
1.935922 1.4466751 0.64756525 7 15 -0.000131262
1.9098076 1.4235275 -0.63824779 8 0 -0.00011052599
1.9113909 1.4241874 0.041606538 8 8 -0.00010822201
1.908251 1.4213301 -0.54933047 8 1 -0.00010591804
1.925328 1.4340496 0.12581564 7 9 -0.00010361406
1.9227127 1.4315814 -0.46595559 9 2 -0.00010131008
1.921133 1.4298828 0.2095224 7 10 -9.9005993e-05
1.9303336 1.4362072 -0.3810744 9 3 -9.6702017e-05
1.9098148 1.4204245 0.29224271 8 11 -9.4398041e-05
1.9321146 1.4370099 -0.29565504 9 4 -9.2094066e-05
1.9276644 1.4331763 0.38044867 8 12 -8.979009e-05
1.9349238 1.4380491 -0.21091689 9 5 -8.7485998e-05
1.9431219 1.4436171 0.47053501 7 13 -8.5182022e-05
1.9401559 1.4408867 -0.12665303 9 6 -8.2878047e-05
1.9290073 1.4326072 0.55472928 7 14 -8.0574071e-05
1.952408 1.4494574 -0.042444255 11 7 -7.8270095e-05
1.9407085 1.4402478 0.64756525 7 15 -7.5966003e-05
1.9300454 1.4286798 -0.64342415 8 0 -5.522999e-05
1.9257479 1.4249786 0.041815966 8 8 -5.2926014e-05
1.9207865 1.42079 -0.55158001 7 1 -5.0622039e-05
1.9236492 1.4229075 0.12539697 9 9 -4.8318063e-05
1.9337641 1.4298661 -0.46748206 7 2 -4.6014087e-05
1.940284 1.4341632 0.21109121 8 10 -4.3709995e-05
1.9430283 1.4356689 -0.38263875 7 3 -4.140602e-05
1.9240955 1.4211593 0.29370514 8 11 -3.9102044e-05
1.9384667 1.431774 -0.2958988 8 4 -3.6798068e-05
1.9308168 1.4256029 0.38013577 9 12 -3.4494093e-05
1.9460937 1.4363579 -0.21161415 9 5 -3.2190001e-05
1.9573777 1.4441586 0.47282472 7 13 -2.9886025e-05
1.9465306 1.4356309 -0.1267577 11 6 -2.7582049e-05
1.9447254 1.4342995 0.55787861 7 14 -2.5278074e-05
1.9475468 1.4358543 -0.042234823 12 7 -2.2974098e-05
1.9579154 1.4429729 0.6517064 7 15 -2.0670006e-05
1.9352684 1.4215968 -0.64342415 8 0 0
1.9438519 1.4273796 0.042095207 10 8 2.304e-06
1.9354078 1.4206579 -0.55427945 7 1 4.6079999e-06
1.9355398 1.4202366 0.12581564 10 9 6.9120001e-06
1.9421575 1.4250923 -0.46824533 7 2 9.2159999e-06
1.9423141 1.4246858 0.21074259 8 10 1.152e-05
1.9642087 1.4402168 -0.38576743 7 3 1.3824e-05
1.9517063 1.4305274 0.2971175 8 11 1.6128e-05
1.9567595 1.4337064 -0.2978487 7 4 1.8432e-05
1.9362768 1.4181782 0.38013577 9 12 2.0736001e-05
