# .PCD v0.7 - Point Cloud Data file format
VERSION 0.7
FIELDS x y z intensity ring time
SIZE 4 4 4 4 2 4
TYPE F F F F U F
COUNT 1 1 1 1 1 1
WIDTH 951
HEIGHT 1
VIEWPOINT 0 0 0 1 0 0 0
POINTS 951
DATA ascii
-0.28983724 2.752986 -0.14507528 7 6 -0.04375387
-0.26236379 2.4962277 0.57947391 41 14 -0.043751568
-0.28740916 2.734519 -0.047994118 10 7 -0.043749262
-0.2612721 2.4900098 0.67085898 22 15 -0.043746959
-0.3691867 3.5664592 -0.96073633 7 0 -0.043726224
-0.27899566 2.6951854 0.047296021 6 8 -0.043723918
-0.42246628 4.0881224 -0.9488436 8 1 -0.043721616
-0.27566785 2.6721315 0.14078373 8 9 -0.04371931
-0.49436823 4.8002896 -0.93801707 10 2 -0.043717008
-0.26876611 2.614182 0.22991684 16 10 -0.043714702
-0.26915252 2.6224265 0.32368499 42 11 -0.043710094
-0.3913053 3.819175 -0.47139066 15 4 -0.043707792
-0.26611915 2.601825 0.41423854 49 12 -0.043705486
-0.52174181 5.1098127 -0.449375 60 5 -0.043703184
-0.26682788 2.6132474 0.51060492 47 13 -0.043700878
-0.39736256 3.8984234 -0.20536631 1 6 -0.043698575
-0.26572403 2.611469 0.60601819 44 14 -0.043696269
-0.53046525 5.2223287 -0.091625139 21 7 -0.043693967
-0.25998396 2.5639427 0.69052929 34 15 -0.043691661
-0.35812879 3.5753529 -0.96280694 7 0 -0.043670926
-0.27336547 2.7339489 0.047959212 2 8 -0.043668624
-0.40800077 4.0876331 -0.94839364 10 1 -0.043666318
-0.27188256 2.7287252 0.14371455 8 9 -0.043664016
-0.47922674 4.8097167 -0.93954355 10 2 -0.04366171
-0.26679948 2.6824677 0.23584343 7 10 -0.043659408
-0.57788402 5.8204737 -0.92640501 7 3 -0.043657102
-0.26449916 2.6687846 0.32929099 8 11 -0.043654799
-0.37836137 3.8244684 -0.47187814 16 4 -0.043652494
-0.25858906 2.6184642 0.41674146 12 12 -0.043650191
-0.50350982 5.1076379 -0.44902641 64 5 -0.043647885
-0.25731841 2.6102552 0.50984168 36 13 -0.043645583
-0.39040115 3.9673672 -0.20892516 1 6 -0.043643277
-0.25698823 2.6162593 0.60691798 45 14 -0.043640975
-0.51340455 5.2360888 -0.09183456 74 7 -0.043638673
-0.25611269 2.6167467 0.70450544 45 15 -0.043636367
-0.34483734 3.5747182 -0.96228927 7 0 -0.043615632
-0.39428905 4.0948515 -0.94974333 8 1 -0.043611024
-0.26522267 2.7594793 0.14528462 4 9 -0.043608718
-0.4625335 4.8212123 -0.94145161 10 2 -0.043606415
-0.2622844 2.7389603 0.24072415 7 10 -0.043604109
-0.55654556 5.8225532 -0.92640501 7 3 -0.043601807
-0.25744763 2.6934049 0.33221585 7 11 -0.043599501
-0.36520031 3.8277416 -0.47212186 18 4 -0.043597199
-0.25637573 2.6921108 0.42831761 9 12 -0.043594897
-0.48624203 5.1153145 -0.44954932 71 5 -0.043592591
-0.25331217 2.6698153 0.52129018 7 13 -0.043590289
-0.37585828 3.9687712 -0.20892516 1 6 -0.043587983
-0.24703 2.6133037 0.60601819 28 14 -0.04358568
-0.49380538 5.2239137 -0.091590226 56 7 -0.043583374
-0.24715902 2.6195481 0.70502311 39 15 -0.043581072
-0.33360767 3.5893652 -0.9659127 7 0 -0.043560334
-0.37802127 4.0826859 -0.94659406 5 1 -0.043555725
-0.44479695 4.8130231 -0.93954355 10 2 -0.043551117
-0.98801565 10.711441 0.94110769 2 10 -0.043548815
-0.25266057 2.7496796 0.33904055 6 11 -0.043544207
-0.352074 3.838939 -0.47334057 21 4 -0.043541905
-0.24968362 2.722496 0.43301064 7 12 -0.043539599
-0.46874756 5.1209488 -0.44989792 67 5 -0.043537296
-0.24952894 2.7312918 0.53312039 7 13 -0.04353499
-0.36200133 3.9700589 -0.20892516 1 6 -0.043532688
-0.24408861 2.682075 0.62176472 6 14 -0.043530382
-0.4744812 5.2136564 -0.091380797 57 7 -0.04352808
-0.23993641 2.6415579 0.71071708 10 15 -0.043525774
-0.32090509 3.5885839 -0.96539509 7 0 -0.043505039
-0.35928434 4.0256867 -0.933097 2 1 -0.043500431
-0.96165073 10.796381 0.5680545 2 9 -0.043498129
-0.42851618 4.8204131 -0.94068843 10 2 -0.043495823
-0.43974003 4.9565058 -0.78811693 1 3 -0.043491215
-0.94684786 10.693543 1.318139 1 11 -0.043488912
-0.34161404 3.8657911 -0.47650915 24 4 -0.043486606
-0.44894636 5.1007223 -0.44798052 45 5 -0.043481998
-0.24460073 2.7790411 0.54227924 3 13 -0.043479696
-0.35198271 4.0070505 -0.21080926 1 6 -0.04347739
-0.23893645 2.7255781 0.63166255 6 14 -0.043475088
-0.45610353 5.2132893 -0.091345899 52 7 -0.043472782
-0.23642801 2.7078133 0.72831684 7 15 -0.04347048
-0.30850512 3.583854 -0.96384215 7 0 -0.043449745
-0.33374336 3.8929443 -0.90205371 1 1 -0.043445136
-0.92396075 10.799672 0.5680545 2 9 -0.04344283
-0.41386625 4.8374567 -0.94374132 10 2 -0.043440528
-0.41941839 4.9225817 -0.78248531 3 3 -0.04343592
-0.90951687 10.696783 1.318139 1 11 -0.043433614
-0.32962731 3.8847618 -0.47870281 21 4 -0.043431312
-0.90985012 10.74513 1.7079517 1 12 -0.043429006
-0.43236649 5.1061535 -0.44832912 15 5 -0.043426704
-0.33732092 4.0002937 -0.21039055 1 6 -0.043422095
-0.23579434 2.8021288 0.64920872 1 14 -0.04341979
-0.43823877 5.2188349 -0.091415711 51 7 -0.043417487
-0.23181333 2.7663751 0.74384594 6 15 -0.043415181
-0.29710504 3.598386 -0.96746564 7 0 -0.043394446
-0.32366616 3.9368138 -0.9119516 1 1 -0.043389838
-0.88625437 10.802833 0.5680545 2 9 -0.043387536
-0.39761868 4.8466988 -0.94526786 10 2 -0.04338523
-0.87766117 10.721047 0.94110769 2 10 -0.043382928
-0.4025555 4.9279532 -0.78311098 1 3 -0.043380622
-0.87216967 10.699893 1.318139 1 11 -0.04337832
-0.31670764 3.8938031 -0.47967777 1 4 -0.043376014
-0.86850423 10.700987 1.7004429 1 12 -0.043373711
-0.32271069 3.9934838 -0.20997187 1 6 -0.043366797
-0.5740366 7.1190267 1.6488912 1 14 -0.043364495
-0.41985717 5.2183399 -0.091380797 54 7 -0.043362193
-0.53768557 6.6974316 1.8003453 1 15 -0.043359887
-0.28515399 3.6071048 -0.96953619 7 0 -0.043339152
-0.32414046 4.1185937 -0.95379245 7 1 -0.043334544
-0.38239208 4.8695865 -0.94946563 10 2 -0.043329936
-0.84023464 10.724046 0.94110769 2 10 -0.04332763
-0.45986429 5.882503 -0.93453962 1 3 -0.043325327
-0.83481711 10.702871 1.318139 1 11 -0.043323021
-0.82961339 10.684258 1.6973141 1 12 -0.043318413
-0.31000113 4.0105166 -0.21080926 1 6 -0.043311503
-0.4025608 5.2317362 -0.091590226 55 7 -0.043306895
-0.51430529 6.6992679 1.8003453 1 15 -0.043304592
-0.27343324 3.6196363 -0.972642 7 0 -0.043283854
-0.31093168 4.1352463 -0.95739168 8 1 -0.043279245
-0.36450925 4.8591447 -0.94717592 10 2 -0.043274637
-0.80279279 10.726913 0.94110769 2 10 -0.043272335
-0.44124106 5.9096813 -0.93860692 18 3 -0.043270029
-0.7974543 10.705721 1.318139 1 11 -0.043267727
-0.78997874 10.65557 1.6923083 1 12 -0.043263119
-0.29864433 4.0474277 -0.21269335 1 6 -0.043256208
-0.38312566 5.217155 -0.091310993 54 7 -0.0432516
-0.49091557 6.7010221 1.8003453 1 15 -0.043249294
-0.26024055 3.6128614 -0.97057146 7 0 -0.043228559
-0.29732996 4.1479692 -0.96009105 7 1 -0.043223951
-0.76396573 10.684022 0.56135553 2 9 -0.043221645
-0.34726411 4.8564711 -0.94641262 7 2 -0.043219343
-0.7653513 10.72965 0.94110769 2 10 -0.043217041
-0.41948649 5.895422 -0.93610394 24 3 -0.043214735
-0.76007658 10.70844 1.318139 1 11 -0.043212432
-0.32863367 4.6414366 -0.57132351 46 4 -0.043210126
-0.75277627 10.658262 1.6923083 1 12 -0.043207824
-0.28563729 4.0643845 -0.21353073 1 6 -0.04320091
-0.36449221 5.2124758 -0.091206275 54 7 -0.043196302
-0.46752626 6.7026949 1.8003453 1 15 -0.043194
-0.24736436 3.6098931 -0.96953619 7 0 -0.043173265
-0.28351066 4.1587029 -0.96234065 8 1 -0.043168657
-0.72856599 10.71452 0.56282091 2 9 -0.043166351
-0.33110988 4.8694062 -0.94870234 8 2 -0.043164048
-0.72789031 10.732256 0.94110769 2 10 -0.043161742
-0.39877018 5.8948793 -0.93579108 36 3 -0.04315944
-0.72269481 10.711027 1.318139 1 11 -0.043157134
-0.31269535 4.6465168 -0.57181102 60 4 -0.043154832
-0.71556455 10.660826 1.6923083 1 12 -0.043152526
-0.34144944 5.0870786 -0.44606307 28 5 -0.043150224
-0.27623737 4.1370983 -0.21729892 1 6 -0.043145616
-0.34656119 5.2177067 -0.091276079 47 7 -0.043141007
-0.44412485 6.7042856 1.8003453 1 15 -0.043138701
-0.23526236 3.6184456 -0.97160673 7 0 -0.043117967
-0.26824063 4.1479988 -0.95964122 8 1 -0.043113358
-0.69122905 10.688973 0.56135553 2 9 -0.043111056
-0.69042051 10.734732 0.94110769 2 10 -0.043106448
-0.37768909 5.8883505 -0.93453962 37 3 -0.043104142
-0.6852991 10.713485 1.318139 1 11 -0.04310184
-0.29584098 4.6376748 -0.57059228 60 4 -0.043099534
-0.68021017 10.663139 1.6923083 1 12 -0.043097232
-0.32445258 5.1001692 -0.44710895 46 5 -0.043094926
-0.26255 4.1499963 -0.21792693 1 6 -0.043090317
-0.32925779 5.2188272 -0.091276079 48 7 -0.043085709
-0.42188838 6.7057219 1.8003453 1 15 -0.043083407
-0.22310711 3.6269574 -0.97367728 7 0 -0.043062672
-0.25448278 4.1488657 -0.95964122 8 1 -0.043058064
-0.28742653 4.7128706 -0.91779137 1 2 -0.043053456
-0.65294731 10.737076 0.94110769 2 10 -0.04305115
-0.35791907 5.8856263 -0.93391389 40 3 -0.043048847
-0.64736724 10.676068 1.3132643 1 11 -0.043046542
-0.28033918 4.6366491 -0.57034856 48 4 -0.043044239
-0.64298695 10.665449 1.6923083 1 12 -0.043041933
-0.30688545 5.1052485 -0.44745758 56 5 -0.043039631
-0.24567871 4.0990086 -0.21520546 1 6 -0.043035023
-0.31115624 5.2219415 -0.091310993 55 7 -0.043030415
-0.39847666 6.7071538 1.8003453 1 15 -0.043028113
-0.21130191 3.6315348 -0.97471261 7 0 -0.043007374
-0.24067296 4.1614017 -0.96234065 8 1 -0.043002766
-0.61734045 10.739182 0.94110769 2 10 -0.042995855
-0.33737066 5.8868403 -0.93391389 41 3 -0.042993549
-0.61236376 10.7179 1.318139 1 11 -0.042991247
-0.26415575 4.6375995 -0.57034856 48 4 -0.042988941
-0.60575086 10.667629 1.6923083 1 12 -0.042986639
-0.2889514 5.1042995 -0.44728327 64 5 -0.042984337
-0.23699856 4.1995454 -0.22043908 1 6 -0.042979728
-0.2919172 5.2050271 -0.090996847 50 7 -0.04297512
-0.37506652 6.7085037 1.8003453 1 15 -0.042972814
-0.19798933 3.6322851 -0.97471261 7 0 -0.042952079
-0.22656928 4.1699996 -0.96414024 8 1 -0.042947471
-0.26277205 4.8676729 -0.94755751 1 2 -0.042942863
-0.57797247 10.741373 0.94110769 2 10 -0.042940561
-0.31600493 5.8919826 -0.93453962 45 3 -0.042938255
-0.57218057 10.668434 1.3118018 1 11 -0.042935953
-0.2487064 4.652369 -0.57205474 45 4 -0.042933647
-0.56851244 10.669679 1.6923083 1 12 -0.042931344
-0.269546 5.0754333 -0.44466859 63 5 -0.042929038
-0.22223513 4.2123528 -0.22106709 1 6 -0.04292443
-0.27353755 5.2020197 -0.090927035 49 7 -0.042919822
-0.35164538 6.7097721 1.8003453 1 15 -0.04291752
-0.18530983 3.6329539 -0.97471261 7 0 -0.042896781
-0.21187443 4.1824799 -0.96683967 8 1 -0.042892177
-0.53827631 10.625774 0.55758733 2 9 -0.042889871
-0.24766086 4.9058151 -0.95480824 11 2 -0.042887568
-0.29464331 5.8772664 -0.93203664 47 3 -0.04288296
-0.53070015 10.622877 1.305952 1 11 -0.042880654
-0.23214749 4.6631622 -0.57327342 37 4 -0.042878352
-0.53126711 10.671597 1.6923083 1 12 -0.042876046
-0.25123414 5.0644035 -0.44362271 67 5 -0.042873744
-0.20733429 4.2091131 -0.22085775 1 6 -0.042869136
-0.25498396 5.1949544 -0.090787418 54 7 -0.042864528
-0.3282232 6.7109585 1.8003453 1 15 -0.042862222
-0.17280972 3.6374378 -0.97574782 7 0 -0.042841487
-0.19782022 4.179266 -0.96593982 8 1 -0.042836878
-0.50118446 10.627588 0.55758733 2 9 -0.042834576
-0.23154707 4.9282217 -0.95900601 11 2 -0.04283227
-0.5029695 10.745146 0.94110769 2 10 -0.042829968
-0.27441424 5.8624253 -0.92953372 49 3 -0.042827662
-0.49639228 10.644407 1.3083893 1 11 -0.04282536
-0.2176026 4.6837363 -0.57571083 27 4 -0.042823054
-0.49291423 10.649708 1.6885538 1 12 -0.042820752
-0.23373918 5.0692306 -0.44397137 63 5 -0.042818446
-0.19520698 4.249681 -0.2229512 1 6 -0.042813838
-0.23684971 5.1958127 -0.090787418 51 7 -0.042809229
-0.30479378 6.7120638 1.8003453 1 15 -0.042806927
-0.16125897 3.6495705 -0.97885364 8 0 -0.042786192
-0.18323153 4.1799312 -0.96593982 8 1 -0.042781584
-0.21434787 4.909349 -0.95518982 11 2 -0.042776976
-0.25403559 5.8653212 -0.92984658 50 3 -0.042772368
-0.4604333 10.673841 1.3118018 1 11 -0.042770062
-0.20218796 4.7062831 -0.57839197 25 4 -0.042767759
-0.45675233 10.675047 1.6923083 1 12 -0.042765453
-0.21641769 5.0580339 -0.44292548 60 5 -0.042763151
-0.18121733 4.2702913 -0.22399792 1 6 -0.042758543
-0.21871012 5.1966076 -0.090787418 51 7 -0.042753935
-0.28136066 6.7130866 1.8003453 1 15 -0.042751633
-0.14859791 3.6520414 -0.97937131 7 0 -0.042730894
-0.16840298 4.1747036 -0.96459007 8 1 -0.042726286
-0.19807746 4.9316454 -0.95938772 9 2 -0.042721678
-0.23340152 5.8622246 -0.9292208 50 3 -0.042717069
-0.42207327 10.647613 1.3083893 1 11 -0.042714767
-0.18826471 4.7704339 -0.58619159 18 4 -0.042712461
-0.41855323 10.652889 1.6885538 1 12 -0.042710159
-0.19844632 5.0507951 -0.44222823 56 5 -0.042707853
-0.16739903 4.2988377 -0.22546332 1 6 -0.042703249
-0.20003055 5.183352 -0.090543084 55 7 -0.04269864
-0.2579273 6.7140279 1.8003453 1 15 -0.042696334
-0.13563263 3.6467464 -0.97781837 7 0 -0.042675599
-0.15454789 4.1947408 -0.96908909 7 1 -0.042670991
-0.38986877 10.632254 0.55758733 2 9 -0.042668685
-0.18057251 4.924459 -0.95786124 9 2 -0.042666383
-0.21308175 5.8669519 -0.92984658 50 3 -0.042661775
-0.38346672 10.609346 1.3035146 1 11 -0.042659473
-0.17589173 4.8900905 -0.60081595 7 4 -0.042657167
-0.37995413 10.614803 1.6822965 1 12 -0.042654864
-0.17974654 5.0215902 -0.43961355 44 5 -0.042652559
-0.15239112 4.299396 -0.22546332 1 6 -0.04264795
-0.18123575 5.1640334 -0.090194039 54 7 -0.042643342
-0.2334089 6.6839967 1.7920631 1 15 -0.04264104
-0.12290132 3.6471977 -0.97781837 7 0 -0.042620301
-0.14003338 4.1991501 -0.96998894 7 1 -0.042615697
-0.35275006 10.63355 0.55758733 2 9 -0.042613391
-0.1636409 4.9329081 -0.95938772 7 2 -0.042611089
-0.19221056 5.8558135 -0.92796934 50 3 -0.04260648
-0.34642801 10.61062 1.3035146 1 11 -0.042604174
-0.16494542 5.0791593 -0.6239711 3 4 -0.042601872
-0.3428964 10.616065 1.6822965 1 12 -0.042599566
-0.16208684 5.0182052 -0.43926495 19 5 -0.042597264
-0.13776815 4.3118796 -0.22609136 1 6 -0.042592656
-0.16314428 5.1626363 -0.090159133 54 7 -0.042588048
-0.21105149 6.7156649 1.8003453 1 15 -0.042585742
-0.11040353 3.6553285 -0.97988898 7 0 -0.042565007
-0.12543176 4.201561 -0.97043884 7 1 -0.042560399
-0.14712077 4.9569979 -0.96396708 11 2 -0.04255579
-0.17165142 5.8525004 -0.92734367 50 3 -0.042551182
-0.30881166 10.591923 1.3010772 1 11 -0.04254888
-0.17033061 5.8773761 -0.72195405 46 4 -0.042546574
-0.3058345 10.617197 1.6822965 1 12 -0.042544272
-0.13814248 4.7956848 -0.41974208 2 5 -0.042541966
-0.12237401 4.300355 -0.22546332 1 6 -0.042537358
-0.14506721 5.1611757 -0.090124227 43 7 -0.042532749
-0.18760636 6.7163606 1.8003453 1 15 -0.042530447
-0.097745568 3.659554 -0.98092425 7 0 -0.042509712
-0.11087042 4.2058692 -0.97133869 8 1 -0.042505104
-0.13022655 4.9731822 -0.96702003 9 2 -0.042500496
-0.15107229 5.8471398 -0.92640501 49 3 -0.042495888
-0.27163056 10.584998 1.3001022 1 11 -0.042493582
-0.14940751 5.8620591 -0.72000414 48 4 -0.04249128
-0.26787922 10.582655 1.6766648 1 12 -0.042488974
-0.10950638 4.3260846 -0.37860456 1 5 -0.042486671
-0.1079592 4.3247161 -0.22671939 1 6 -0.042482063
-0.12680307 5.1516552 -0.089949705 37 7 -0.042477455
-0.16415896 6.7169747 1.8003453 1 15 -0.042475149
-0.085242309 3.6714609 -0.98403007 7 0 -0.042357922
-0.096098289 4.2023339 -0.97043884 8 1 -0.042353313
-0.11269137 4.9657555 -0.96549362 7 2 -0.042348705
-0.23929861 10.626703 0.92995173 2 10 -0.042346403
-0.13065949 5.8476315 -0.92640501 49 3 -0.042344097
-0.23424765 10.566035 1.2976649 1 11 -0.042341795
-0.12868352 5.850637 -0.71854174 46 4 -0.042339489
-0.23136537 10.603274 1.6797936 1 12 -0.042337187
-0.093143255 4.2686749 -0.37354952 8 5 -0.042334881
-0.093034863 4.3330536 -0.22713807 1 6 -0.042330272
-0.10873384 5.1480675 -0.089879893 11 7 -0.042325664
-0.14071275 6.7175064 1.8003453 1 15 -0.042323362
-0.072120227 3.6562841 -0.97988898 7 0 -0.042302627
-0.081656218 4.214334 -0.97313827 8 1 -0.042298019
-0.09512949 4.9543409 -0.96320391 9 2 -0.042293411
-0.20216233 10.625482 0.92977744 2 10 -0.042291105
-0.11017341 5.8441014 -0.92577928 47 3 -0.042288803
-0.19750933 10.574727 1.2986398 1 11 -0.042286497
-0.10833208 5.85502 -0.71902919 46 4 -0.042284194
-0.19362988 10.564517 1.6735362 1 12 -0.042281888
-0.078060567 4.2590132 -0.37267792 16 5 -0.042279586
-0.078051582 4.3413396 -0.22755675 1 6 -0.042274978
-0.11360806 6.4440169 -0.11249821 65 7 -0.04227037
-0.11726163 6.717957 1.8003453 1 15 -0.042268064
-0.059481427 3.6642399 -0.98195946 7 0 -0.042247329
-0.067005724 4.2184906 -0.97403812 8 1 -0.042242721
-0.078388795 4.9899769 -0.97007298 9 2 -0.042238113
-0.089650109 5.8365498 -0.92452782 47 3 -0.042233504
-0.1603515 10.559473 1.2966899 1 11 -0.042231202
-0.087897614 5.8553629 -0.71902919 49 4 -0.042228896
-0.15818261 10.537448 1.6691558 1 12 -0.042226594
-0.062985331 4.2453146 -0.37145776 28 5 -0.042224288
-0.063187234 4.3615561 -0.22860347 1 6 -0.04221968
-0.11889074 8.3066282 1.9179326 1 14 -0.042217378
-0.092036203 6.4303622 -0.11225387 50 7 -0.042215075
-0.094984785 6.7183089 1.8003453 1 15 -0.042212769
-0.046838932 3.6760154 -0.98506534 7 0 -0.042192034
-0.053017184 4.2186894 -0.97403812 8 1 -0.042187426
-0.061067037 4.9980726 -0.9715994 11 2 -0.042182818
-0.12711886 10.554914 0.92350227 2 10 -0.042180512
-0.070153356 5.8249636 -0.92265058 47 3 -0.04217821
-0.12551968 10.575827 1.2986398 1 11 -0.042175904
-0.068455212 5.8536372 -0.71878546 45 4 -0.042173602
-0.12157833 10.553739 1.671659 1 12 -0.042171299
-0.048187509 4.2475014 -0.3716321 48 5 -0.042168994
-0.04872432 4.3617415 -0.22860347 1 6 -0.042164385
-0.069609411 6.4326439 -0.11228879 51 7 -0.042159777
-0.071534343 6.7185993 1.8003453 1 15 -0.042157475
-0.034649301 3.6761506 -0.98506534 7 0 -0.042136736
-0.038344834 4.2246952 -0.97538781 8 1 -0.042132128
-0.044283789 4.9746895 -0.96702003 9 2 -0.04212752
-0.049888812 5.8330741 -0.92390203 47 3 -0.042122915
-0.08827202 10.5365 1.2937651 1 11 -0.042120609
-0.047906246 5.8399453 -0.71707928 46 4 -0.042118307
-0.084513329 10.526444 1.6672788 1 12 -0.042116001
-0.034150857 4.2536139 -0.37215498 53 5 -0.042113699
-0.033681594 4.3858519 -0.22985955 1 6 -0.042109091
-0.047170889 6.4348474 -0.11232369 54 7 -0.042104483
-0.04752687 6.6415362 1.7796398 1 15 -0.042102177
-0.021838879 3.6801128 -0.98610061 7 0 -0.042081442
-0.023650957 4.2345462 -0.97763729 8 1 -0.042076834
-0.02698102 4.9865932 -0.96930981 9 2 -0.042072225
-0.055270735 10.555535 0.92350227 2 10 -0.042069923
-0.029535728 5.8351884 -0.92421496 50 3 -0.042067617
-0.051494449 10.536744 1.2937651 1 11 -0.042065315
-0.027465845 5.8281665 -0.71561682 46 4 -0.042063009
-0.047860518 10.546428 1.6704074 1 12 -0.042060707
-0.019249411 4.2417536 -0.37110916 67 5 -0.042058401
-0.018372832 4.3859425 -0.22985955 1 6 -0.042053793
-0.024641035 6.4169755 -0.11200955 52 7 -0.042049184
-0.024369843 6.6493888 1.7817104 1 15 -0.042046882
-0.0089888079 3.6782346 -0.98558295 9 0 -0.042026147
-0.00886836 4.2346029 -0.97763729 8 1 -0.042021539
-0.0095980652 4.9984365 -0.9715994 5 2 -0.042016931
-0.0091746924 5.8411822 -0.92515355 49 3 -0.042012323
-0.014716253 10.53686 1.2937651 1 11 -0.042010017
-0.0071273022 5.8341823 -0.71634805 43 4 -0.042007715
-0.010981459 10.487269 1.6610212 1 12 -0.042005409
-0.0044375081 4.2378101 -0.37076053 67 5 -0.042003106
-0.0030617551 4.3859801 -0.22985955 1 6 -0.041998498
-0.0022379195 6.4030247 -0.11176521 55 7 -0.04199389
-0.0011509563 6.5953422 1.7672166 1 15 -0.041991584
0.0038536836 3.6801755 -0.98610061 7 0 -0.041970849
0.0059123267 4.2346087 -0.97763729 8 1 -0.041966241
0.0078511229 4.9984393 -0.9715994 9 2 -0.041961633
0.018422144 10.555664 0.92350227 2 10 -0.04195933
0.011187118 5.8273506 -0.92296344 50 3 -0.041957024
0.022133667 10.568609 1.2976649 1 11 -0.041954722
0.013232105 5.8321867 -0.71610433 46 4 -0.041952416
0.025623802 10.487244 1.6610212 1 12 -0.041950114
0.010344609 4.2338152 -0.37041187 67 5 -0.041947808
0.012303038 4.4059362 -0.23090626 1 6 -0.0419432
0.024427664 8.2333918 1.9008365 1 14 -0.041940898
0.02012709 6.4069929 -0.11183503 54 7 -0.041938595
0.02163909 6.5257597 1.7485816 1 15 -0.04193629
0.016734159 3.6878667 -0.9881711 8 0 -0.041915555
0.02069496 4.2345619 -0.97763729 8 1 -0.041910946
0.025280342 4.9944553 -0.97083622 7 2 -0.041906338
0.0314871 5.8193746 -0.92171198 51 3 -0.04190173
0.058562011 10.485093 1.2874278 1 11 -0.041899424
0.033577491 5.8301191 -0.71586055 45 4 -0.041897122
0.060398515 10.487102 1.6610212 1 12 -0.041894816
0.025124446 4.2337532 -0.37041187 67 5 -0.041892514
0.027731815 4.4138551 -0.23132494 1 6 -0.041887905
0.041323449 6.3988919 -0.1116954 55 7 -0.041883297
0.044562235 6.7188325 1.8003453 1 15 -0.041880995
0.029670136 3.6955132 -0.99024171 7 0 -0.041860256
0.034768283 4.2383676 -0.97853714 8 1 -0.041855648
0.087453038 10.439307 0.54712015 2 9 -0.041853346
0.043048836 5.0336003 -0.9784686 7 2 -0.04185104
0.092114121 10.555278 0.92350227 2 10 -0.041848738
0.050749034 5.8152881 -0.92108625 51 3 -0.041846432
0.09357179 10.512633 1.2908403 1 11 -0.04184413
0.052786183 5.816081 -0.71415442 46 4 -0.041841827
0.097263567 10.514481 1.6654016 1 12 -0.041839521
0.039901957 4.2336397 -0.37041187 63 5 -0.041837219
0.041392002 4.3118839 -0.22598669 15 6 -0.041832611
0.063681103 6.4007087 -0.11173031 54 7 -0.041828003
0.066762112 6.5950041 1.7672166 1 15 -0.041825697
0.04201166 3.7031212 -0.99231225 7 0 -0.041804962
0.049607415 4.2421174 -0.97943687 8 1 -0.041800354
0.12207343 10.43896 0.54712015 2 9 -0.041798048
0.059413422 5.0059462 -0.97312593 7 2 -0.041795745
0.12711909 10.554914 0.92350227 2 10 -0.041793443
0.071022503 5.8130999 -0.92077333 47 3 -0.041791137
0.12967961 10.464604 1.2849904 1 11 -0.041788835
0.072964609 5.8059368 -0.71293575 45 4 -0.041786529
0.13148783 10.462745 1.657267 1 12 -0.041784227
0.056574892 4.3216987 -0.22651003 46 6 -0.041777313
0.08466322 6.3824663 -0.11141616 56 7 -0.041772705
0.089357138 6.6488333 1.7817104 1 15 -0.041770402
0.054766744 3.6913624 -0.98920643 8 0 -0.041749667
0.063761413 4.2477751 -0.98078656 8 1 -0.041745059
0.15899944 10.470422 0.54879487 2 9 -0.041742753
0.076767787 4.9978561 -0.9715994 5 2 -0.041740451
0.1639546 10.554407 0.92350227 2 10 -0.041738145
0.090297885 5.8128324 -0.92077333 49 3 -0.041735843
0.16475783 10.487934 1.2879153 1 11 -0.041733537
0.092373848 5.815587 -0.71415442 49 4 -0.041731235
0.16800164 10.462222 1.657267 1 12 -0.041728929
0.06888026 4.2432308 -0.37128347 1 5 -0.041726626
0.070741162 4.3115025 -0.22598669 33 6 -0.041722018
0.10680937 6.3741345 -0.11127654 57 7 -0.04171741
0.11047408 6.5248604 1.7485816 1 15 -0.041715104
0.067113653 3.696955 -0.99075931 7 0 -0.041694369
0.078697808 4.2533717 -0.98213631 8 1 -0.041689761
0.19592284 10.489772 0.54984158 2 9 -0.041687459
0.093672208 5.0152402 -0.975034 5 2 -0.041685153
0.19670309 10.434282 0.91304356 2 10 -0.041682851
0.11036399 5.8006315 -0.91889614 49 3 -0.041680545
0.20091203 10.463479 1.2849904 1 11 -0.041678242
0.11263379 5.8132443 -0.7139107 43 4 -0.041675936
0.20498669 10.485271 1.6610212 1 12 -0.041673634
0.082171209 4.2031388 -0.36779723 38 5 -0.041671328
0.085908979 4.3172193 -0.2263007 25 6 -0.04166672
0.1290603 6.373723 -0.11127654 57 7 -0.041662112
0.13324805 6.524435 1.7485816 1 15 -0.04165981
0.080140896 3.7024922 -0.99231225 8 0 -0.041639075
0.093586326 4.2550197 -0.98258615 7 1 -0.041634466
0.23137966 10.437109 0.54712015 2 9 -0.041632161
0.11156626 5.032548 -0.9784686 5 2 -0.041629858
0.23446234 10.493289 0.91827285 2 10 -0.041627552
0.13034603 5.7883625 -0.91701895 47 3 -0.04162525
0.23706768 10.446837 1.2830406 1 11 -0.041622944
0.13297205 5.8148003 -0.71415442 49 4 -0.041620642
0.24067853 10.444995 1.6547639 1 12 -0.041618336
0.097073011 4.2127857 -0.36866876 75 5 -0.041616034
0.10065258 4.302917 -0.22556801 12 6 -0.041611426
0.1514934 6.3812299 -0.11141616 56 7 -0.041606817
0.15694726 6.5625558 1.7589344 1 15 -0.041604515
0.093211159 3.707984 -0.99386519 7 0 -0.041583776
0.10829071 4.2488222 -0.98123646 7 1 -0.041579168
0.26832569 10.456204 0.54816687 2 9 -0.041576866
0.12943597 5.0439038 -0.98075831 5 2 -0.04157456
0.26964623 10.436638 0.91339219 2 10 -0.041572258
0.15044644 5.7839222 -0.91639322 49 3 -0.041569952
0.27353531 10.445946 1.2830406 1 11 -0.04156765
0.15258744 5.7885036 -0.71098578 43 4 -0.041565344
0.27713472 10.444091 1.6547639 1 12 -0.041563042
0.1117769 4.2124214 -0.36866876 67 5 -0.041560739
0.11551206 4.2965493 -0.22525398 8 6 -0.041556131
0.17344218 6.3686686 -0.11120673 57 7 -0.041551523
0.17879705 6.5233459 1.7485816 1 15 -0.041549217
0.10615309 3.7076361 -0.99386519 7 0 -0.041528482
0.12351752 4.2620544 -0.98438585 7 1 -0.041523874
0.30482084 10.455204 0.54816687 2 9 -0.041521568
0.14726949 5.0512705 -0.98228478 7 2 -0.041519266
0.3056058 10.419702 0.91199768 2 10 -0.041516963
0.30999458 10.444928 1.2830406 1 11 -0.041512355
0.17290941 5.7919044 -0.71147329 57 4 -0.041510049
0.31335536 10.435163 1.6535125 1 12 -0.041507747
0.12648144 4.2120051 -0.36866876 68 5 -0.041505441
0.13093068 4.3100944 -0.22598669 7 6 -0.041500833
0.19554777 6.364027 -0.11113693 56 7 -0.041496225
0.2025169 6.553576 1.7568637 1 15 -0.041493922
0.11903348 3.705312 -0.99334759 7 0 -0.041473184
0.20696677 6.4076819 0.11190483 90 8 -0.041470882
0.13883598 4.2752309 -0.98753518 7 1 -0.041468579
0.16464591 5.0428772 -0.98075831 7 2 -0.041463971
0.34223968 10.426536 0.91269487 2 10 -0.041461665
0.11915798 3.6109986 -0.57223737 53 3 -0.041459363
0.3464551 10.443782 1.2830406 1 11 -0.041457057
0.19319357 5.7932491 -0.71171701 63 4 -0.041454755
0.34858546 10.398468 1.6478808 1 12 -0.041452449
0.14124641 4.1916008 -0.36692566 68 5 -0.041450147
0.14604367 4.3116069 -0.22609136 7 6 -0.041445538
0.21762608 6.3593082 -0.11106712 58 7 -0.04144093
0.22433113 6.5219383 1.7485816 1 15 -0.041438624
0.13240518 3.699059 -0.99179465 7 0 -0.041417889
0.22718519 6.3469682 0.11085769 95 8 -0.041415587
0.15382762 4.2766681 -0.98798501 7 1 -0.041413281
0.22934052 6.3451433 0.33275205 46 9 -0.041410979
0.18426685 5.0736313 -0.98686421 7 2 -0.041408673
0.13232069 3.6085637 -0.57192445 71 3 -0.041404065
0.38611194 10.529793 1.2937651 1 11 -0.041401763
0.13389498 3.6342237 -0.44652933 12 4 -0.041399457
0.38648617 10.440617 1.6547639 1 12 -0.041397154
0.15580404 4.1890912 -0.36675134 45 5 -0.041394848
0.13172348 3.5087099 -0.18401325 2 6 -0.04139024
0.23967384 6.3545132 -0.1109973 57 7 -0.041385632
0.2470942 6.5211158 1.7485816 1 15 -0.04138333
0.14637929 3.7255991 -0.99904156 7 0 -0.041362595
0.24981423 6.3301077 0.11057845 77 8 -0.041360289
0.16950245 4.2760754 -0.98798501 7 1 -0.041357987
0.25346771 6.3662124 0.33390343 87 9 -0.041355681
0.20213354 5.0768795 -0.98762739 7 2 -0.041353378
0.25387844 6.3486557 0.55587929 75 10 -0.041351072
0.14380552 3.580447 -0.56754434 66 3 -0.04134877
0.25563651 6.3372159 0.77874517 17 11 -0.041346464
0.14737582 3.6376753 -0.44701681 55 4 -0.041344162
0.14466675 3.5554657 -0.3113203 36 5 -0.041339554
0.14315236 3.4882727 -0.18296652 29 6 -0.041334946
0.2629613 6.3535924 -0.1109973 59 7 -0.041330338
0.27099529 6.5201664 1.7485816 1 15 -0.041328035
0.15913466 3.7192752 -0.99748862 8 0 -0.041307297
0.27242559 6.3411851 0.11078788 95 8 -0.041304994
0.18350299 4.2540417 -0.98303616 7 1 -0.041302688
0.27499568 6.3493261 0.33306605 97 9 -0.041300386
0.21874851 5.0506449 -0.98266637 3 2 -0.04129808
0.2760365 6.3477311 0.55587929 87 10 -0.041295778
0.1567328 3.5897906 -0.56910866 71 3 -0.041293472
0.27784157 6.3382683 0.7789889 59 11 -0.04129117
0.15885009 3.6093743 -0.44360444 55 4 -0.041288864
0.27990702 6.3347783 1.0043093 50 12 -0.041286562
0.15716565 3.5569293 -0.31149462 50 5 -0.041284256
0.28207225 6.3586173 1.2372056 4 13 -0.041281953
0.15523824 3.4857566 -0.18286185 46 6 -0.041279651
0.28478089 6.3446445 -0.11085769 59 7 -0.041275043
0.2937519 6.5191808 1.7485816 1 15 -0.041272737
0.17247464 3.7264163 -0.99955922 7 0 -0.041252002
0.29465327 6.3421926 0.11082278 100 8 -0.041249696
0.19916734 4.2708945 -0.98708516 7 1 -0.041247394
0.2950246 6.3264332 0.33191466 91 9 -0.041245088
0.23711295 5.0655398 -0.98571932 3 2 -0.041242786
0.29856825 6.3546896 0.55657655 92 10 -0.04124048
0.16898264 3.5833023 -0.56817007 63 3 -0.041238178
0.30099869 6.3590717 0.78167003 84 11 -0.041235875
0.16988076 3.5889988 -0.44116706 60 4 -0.041233569
0.30147356 6.3456545 1.0061866 71 12 -0.041231267
0.16938844 3.5523791 -0.31114599 52 5 -0.041228961
0.30445263 6.361516 1.2379688 53 13 -0.041226659
0.16750158 3.4871883 -0.18296652 40 6 -0.041224353
0.30433229 6.3358445 1.4644314 31 14 -0.041222051
0.30581462 6.3436656 -0.11085769 56 7 -0.041219745
0.31537047 6.5181704 1.7485816 1 15 -0.041217443
0.17315267 3.4904275 -0.93640739 0 0 -0.041196704
0.31588072 6.3451748 0.11089259 47 8 -0.041194402
0.21342748 4.2721572 -0.98753518 7 1 -0.041192099
0.31630293 6.3314047 0.33222869 82 9 -0.041189793
0.25469494 5.0804119 -0.98877227 1 2 -0.041187491
0.31874034 6.3357558 0.55500776 95 10 -0.041185185
0.18066618 3.5787764 -0.56754434 62 3 -0.041182883
0.3217819 6.3520913 0.78093886 91 11 -0.041180577
0.1818811 3.5903986 -0.44141081 55 4 -0.041178275
0.32281744 6.3505383 1.0071251 75 12 -0.041175969
0.18035665 3.5358791 -0.30975151 55 5 -0.041173667
0.32494313 6.3487077 1.2356791 49 13 -0.041171361
0.17927045 3.490603 -0.18317586 49 6 -0.041169059
0.32544273 6.3367462 1.4648812 45 14 -0.041166753
0.33354041 6.4724245 -0.1131265 144 7 -0.04116445
0.32810399 6.3453836 1.7025118 39 15 -0.041162144
0.18125543 3.424243 -0.91880763 2 0 -0.041141409
0.22842193 4.2869935 -0.99113435 8 1 -0.041136801
0.18969178 3.5484238 -0.6907286 7 2 -0.041132193
0.33953404 6.3306851 0.55465913 70 10 -0.041129891
0.19178915 3.5643497 -0.56535423 68 3 -0.041127585
0.34231114 6.3410773 0.77972013 89 11 -0.041125283
0.19335924 3.5818465 -0.44043583 63 4 -0.041122977
0.3424848 6.3237906 1.0030578 75 12 -0.041120674
0.19143181 3.523325 -0.30870563 56 5 -0.041118369
0.34524816 6.3338728 1.2330078 56 13 -0.041116066
0.19073497 3.4879951 -0.1830712 46 6 -0.04111376
0.34687874 6.3434162 1.4666809 47 14 -0.041111458
0.35532922 6.4772735 -0.11323121 72 7 -0.041109152
0.3486152 6.3346157 1.6999235 43 15 -0.04110685
0.1967324 3.4969175 -0.93847787 0 0 -0.041086115
0.37068546 6.5685472 0.11483683 100 8 -0.041083809
0.24219747 4.27843 -0.98933476 8 1 -0.041081507
0.37194631 6.5704498 0.34489399 74 9 -0.041079201
0.20123443 3.5438554 -0.68996537 12 2 -0.041076899
0.20349622 3.561722 -0.56504136 61 3 -0.04107229
0.3627679 6.329999 0.77850145 14 11 -0.041069984
0.204781 3.5732584 -0.4394609 66 4 -0.041067682
0.36288828 6.3127594 1.0014936 72 12 -0.041065376
0.20323019 3.5246599 -0.30887994 55 5 -0.041063074
0.3656821 6.3228927 1.2310997 53 13 -0.041060768
0.2016075 3.4753799 -0.18244316 37 6 -0.041058466
0.36757553 6.3363943 1.4653312 54 14 -0.04105616
0.37471765 6.440125 -0.11260293 43 7 -0.041053858
0.37074387 6.3527107 1.7050999 48 15 -0.041051552
0.21370804 3.5655951 -0.95711285 0 0 -0.041034222
0.39524266 6.5751281 0.11497645 100 8 -0.041031919
0.25834522 4.2852945 -0.99113435 10 1 -0.041029613
0.21457663 3.5489728 -0.69111025 25 2 -0.041025005
0.39686674 6.5449324 0.57365906 5 10 -0.041022703
0.21666832 3.5629239 -0.56535423 68 3 -0.041020397
0.39647779 6.5010095 0.7997067 14 11 -0.041018095
0.21704641 3.5486691 -0.43653604 61 4 -0.041015789
0.21614656 3.5238914 -0.30887994 58 5 -0.041011181
0.38969654 6.335227 1.233771 11 13 -0.041008878
0.21311353 3.4546828 -0.18139644 50 6 -0.041006573
0.39154032 6.3291016 1.4639815 57 14 -0.04100427
0.4004322 6.4546061 -0.11288217 27 7 -0.041001964
0.39489537 6.3473835 1.7040646 52 15 -0.040999662
0.23153564 3.6496582 -0.97988898 0 0 -0.040978927
0.27379948 4.2921453 -0.99293393 8 1 -0.040974319
0.4244349 6.6353149 0.34845284 2 9 -0.040972013
0.22608723 3.5344875 -0.68843889 32 2 -0.040969711
0.42416948 6.6130981 0.57976002 2 10 -0.040967405
0.2289781 3.5601747 -0.56504136 63 3 -0.040965103
0.42772952 6.6323109 0.81603718 1 11 -0.040962797
0.22955792 3.5498707 -0.43677977 59 4 -0.040960494
0.42282698 6.5208521 1.0349705 2 12 -0.040958188
0.22831795 3.5211272 -0.30870563 45 5 -0.040955886
0.42301917 6.5062308 1.2673534 8 13 -0.04095358
0.22542883 3.4579043 -0.18160579 51 6 -0.040951278
0.42505482 6.485096 -0.11344065 15 7 -0.04094667
0.41679478 6.3421111 1.7030294 50 15 -0.040944364
0.24891859 3.7182195 -0.99852395 7 0 -0.040923629
0.69946486 10.420961 0.18230784 2 8 -0.040921327
0.29022068 4.312552 -0.9978829 8 1 -0.040919021
0.69901872 10.360194 0.54418933 2 9 -0.040916719
0.23762977 3.521924 -0.68614918 42 2 -0.040914413
0.24140497 3.5593538 -0.56504136 65 3 -0.040909804
0.24181382 3.5470674 -0.43653604 63 4 -0.040905196
0.44599223 6.525249 1.0359092 1 12 -0.040902894
0.23938577 3.502419 -0.30713683 57 5 -0.040900588
0.23777251 3.4610815 -0.18181513 51 6 -0.04089598
0.44950807 6.5264592 1.5103214 1 14 -0.040893678
0.44699934 6.4735975 -0.11326612 13 7 -0.040891375
0.2629832 3.7327442 -1.002665 8 0 -0.040868334
0.73583931 10.418456 0.18230784 2 8 -0.040866029
0.30540717 4.3134561 -0.9983328 8 1 -0.040863726
0.73574662 10.365661 0.544608 2 9 -0.04086142
0.25034007 3.526948 -0.68729407 48 2 -0.040859118
0.73731291 10.362121 0.90886009 2 10 -0.040856812
0.25227952 3.5368154 -0.56159979 73 3 -0.04085451
0.74005669 10.349652 1.2740222 3 11 -0.040852204
0.25334328 3.5343213 -0.43507358 66 4 -0.040849902
0.74116206 10.314504 1.637869 1 12 -0.0408476
0.25103813 3.4936132 -0.30643961 60 5 -0.040845294
0.25042877 3.4681985 -0.18223381 43 6 -0.040840685
0.47104257 6.4919424 -0.11361516 7 7 -0.040836077
0.47493479 6.5297966 1.7542756 10 15 -0.040833775
0.27700803 3.7452898 -1.0062885 9 0 -0.040813036
0.77219987 10.415825 0.18230784 2 8 -0.040810734
0.32075208 4.3162508 -0.99923265 8 1 -0.040808428
0.77400005 10.390915 0.54607344 2 9 -0.040806126
0.26308668 3.5319264 -0.68843889 53 2 -0.04080382
0.77347684 10.359484 0.90886009 2 10 -0.040801518
0.26491955 3.5398526 -0.56222552 66 3 -0.040799215
0.77395457 10.317313 1.2703662 3 11 -0.040796909
0.26597574 3.5373747 -0.43556106 61 4 -0.040794607
0.7774567 10.315794 1.6384948 3 12 -0.040792301
0.26323086 3.4927158 -0.30643961 58 5 -0.040789999
0.26027083 3.4374299 -0.18066373 49 6 -0.040785391
0.49658436 6.5281434 -0.11427836 2 7 -0.040780783
0.49772376 6.5280991 1.7542756 10 15 -0.040778477
0.29022825 3.7462261 -1.0068061 8 0 -0.040757742
0.80855596 10.413065 0.18230784 2 8 -0.040755436
0.33490855 4.3034472 -0.99653322 2 1 -0.040753134
0.80809474 10.360271 0.544608 2 9 -0.040750831
0.27480403 3.5231566 -0.68691242 53 2 -0.040748525
0.80963629 10.35672 0.90886009 2 10 -0.040746223
0.27711931 3.5369372 -0.56191266 65 3 -0.040743917
0.80980635 10.31257 1.2701224 3 11 -0.040741615
0.27816707 3.5344458 -0.43531734 57 4 -0.040739309
0.81345856 10.313017 1.6384948 3 12 -0.040737007
0.27557701 3.4937618 -0.30661389 52 5 -0.040734701
0.27242681 3.4384916 -0.18076842 47 6 -0.040730093
0.51968467 6.5303569 -0.11434817 2 7 -0.040725484
0.51114088 6.4088516 1.7226996 1 15 -0.040723182
0.30377203 3.7509665 -1.0083591 8 0 -0.040702447
0.84489721 10.410179 0.18230784 2 8 -0.040700141
0.84425169 10.357388 0.544608 2 9 -0.040695533
0.28614274 3.5104356 -0.6846227 55 2 -0.040693231
0.84578085 10.353831 0.90886009 2 10 -0.040690925
0.28994828 3.5418549 -0.56285131 71 3 -0.040688623
0.84547228 10.305724 1.2696348 3 11 -0.040686317
0.28936356 3.5196044 -0.43361115 55 4 -0.040684015
0.8473469 10.284522 1.6344275 3 12 -0.040681709
0.28760818 3.490793 -0.30643961 52 5 -0.040679406
0.28393289 3.4315481 -0.1804544 54 6 -0.040674798
0.54214418 6.5245175 -0.11427836 1 7 -0.04067019
0.53190446 6.3877764 1.7175232 1 15 -0.040667884
0.31637478 3.7441087 -1.0068061 9 0 -0.040647149
0.88123316 10.407166 0.18230784 2 8 -0.040644847
0.88107526 10.362338 0.54502672 2 9 -0.040640239
0.29822764 3.5074594 -0.68424112 58 2 -0.040637933
0.87921381 10.319054 0.90607113 2 10 -0.04063563
0.30197471 3.5368843 -0.56222552 66 3 -0.040633325
0.88126934 10.300732 1.2693912 3 11 -0.040631022
0.30198759 3.5225286 -0.43409866 55 4 -0.040628716
0.88375133 10.287405 1.6353661 3 12 -0.040626414
0.29842824 3.473887 -0.3050451 52 5 -0.040624108
0.29625371 3.434516 -0.18066373 55 6 -0.0406195
0.5652594 6.5265698 -0.11434817 1 7 -0.040614896
0.5501917 6.3396902 1.7050999 1 15 -0.04061259
0.32961258 3.7449059 -1.0073237 9 0 -0.040591855
0.91755337 10.404027 0.18230784 2 8 -0.040589549
0.32952422 3.7289987 -0.86426198 1 1 -0.040587246
0.92076707 10.398989 0.54712015 2 9 -0.04058494
0.31098956 3.5122638 -0.68538594 60 2 -0.040582638
0.91522646 10.315922 0.90607113 2 10 -0.040580332
0.31344363 3.5259709 -0.5606612 65 3 -0.04057803
0.9193365 10.32132 1.2723161 3 11 -0.040575724
0.31516325 3.5313392 -0.43531734 59 4 -0.040573422
0.91965353 10.284257 1.6353661 3 12 -0.040571116
0.31072927 3.4748085 -0.30521941 62 5 -0.040568814
0.30841848 3.4354503 -0.18076842 49 6 -0.040564205
0.58947569 6.5404897 -0.11462741 1 7 -0.040559597
0.57405412 6.3569713 1.7102764 1 15 -0.040557295
0.3440907 3.7591231 -1.0114648 8 0 -0.040536556
0.33576393 3.6540842 -0.8471657 1 1 -0.040531948
0.95705855 10.395712 0.54712015 2 9 -0.040529646
0.32360697 3.5150669 -0.68614918 60 2 -0.04052734
0.95122802 10.312664 0.90607113 2 10 -0.040525038
0.32575059 3.5248551 -0.5606612 61 3 -0.040522732
0.95225036 10.284444 1.2681725 3 11 -0.04052043
0.32638705 3.518358 -0.43385491 59 4 -0.040518127
0.95701194 10.29672 1.637869 3 12 -0.040515821
0.32230449 3.4677508 -0.30469647 61 5 -0.040513519
0.31892359 3.4184437 -0.17993104 49 6 -0.040508911
0.61342311 6.5503383 -0.11483683 1 7 -0.040504303
0.59154731 6.3049202 1.6968178 1 15 -0.040501997
0.35775986 3.7636685 -1.0130178 8 0 -0.040481262
0.34758908 3.6431906 -0.84491616 3 1 -0.040476654
0.33531538 3.5080526 -0.68500435 65 2 -0.040472046
0.33842751 3.5276294 -0.56128693 61 3 -0.040467437
0.98833179 10.283034 1.2684163 1 11 -0.040465135
0.33790633 3.5092933 -0.43287995 67 4 -0.040462829
0.99039245 10.285625 1.6366177 1 12 -0.040460527
0.33478749 3.4705715 -0.3050451 63 5 -0.040458221
0.33047026 3.4133339 -0.1797217 50 6 -0.040453613
0.64093482 6.6079783 -0.11588398 1 7 -0.040449005
0.60909063 6.2683139 1.6875002 7 15 -0.040446702
0.37032774 3.756629 -1.0114648 7 0 -0.040425967
0.36101004 3.6555927 -0.8480655 1 1 -0.040421359
0.34678516 3.4990461 -0.68347788 65 2 -0.040416751
0.34934399 3.5186248 -0.56003547 65 3 -0.040412143
1.0232099 10.287601 1.2693912 1 11 -0.040409837
0.34914902 3.5042026 -0.43239245 72 4 -0.040407535
1.0235411 10.254586 1.6322374 1 12 -0.040405229
0.34729737 3.4733467 -0.30539373 63 5 -0.040402927
0.34218651 3.4161935 -0.17993104 47 6 -0.040398318
0.6292271 6.2488494 1.6828415 13 15 -0.040391404
0.38317418 3.7592242 -1.0125002 8 0 -0.040370669
1.0609097 10.390388 0.18230784 2 8 -0.040368367
0.35838583 3.4978771 -0.68347788 65 2 -0.040361453
0.36263523 3.527209 -0.56159979 73 3 -0.040356845
1.0599303 10.291866 1.2703662 1 11 -0.040354542
0.36178386 3.5069122 -0.43287995 72 4 -0.040352236
1.0597389 10.254881 1.6328632 1 12 -0.040349934
0.35717604 3.4563212 -0.30399922 67 5 -0.040347628
0.35390079 3.4129918 -0.17982636 54 6 -0.04034302
0.64862847 6.2235584 1.6766298 16 15 -0.04033611
0.39588797 3.7540214 -1.0114648 9 0 -0.040315375
1.0971752 10.386621 0.18230784 2 8 -0.040313069
0.46013772 4.3486977 -1.0095804 6 1 -0.040310767
1.1003014 10.381528 0.54712015 2 9 -0.040308461
0.37017891 3.4926999 -0.68271458 67 2 -0.040306158
1.0933264 10.298569 0.90607113 2 10 -0.040303852
0.37327516 3.5102069 -0.55909681 73 3 -0.04030155
1.095006 10.280208 1.2693912 1 11 -0.040299244
0.37423462 3.5076017 -0.43312368 71 4 -0.040296942
1.0993098 10.286474 1.6384948 1 12 -0.040294636
0.3692396 3.4550531 -0.30399922 67 5 -0.040292334
0.36581311 3.4117355 -0.17982636 55 6 -0.040287726
0.67055744 6.223177 1.6771475 22 15 -0.040280815
0.4094092 3.7564576 -1.0125002 7 0 -0.040260077
1.1256102 10.311164 0.18105127 2 8 -0.040257774
0.4755235 4.3490019 -1.0100303 8 1 -0.040255468
1.1365358 10.377624 0.54712015 2 9 -0.040253166
0.38322431 3.4991927 -0.68424112 65 2 -0.04025086
1.1292663 10.29469 0.90607113 2 10 -0.040248558
0.38573912 3.5108466 -0.55940974 75 3 -0.040246252
1.1308867 10.276322 1.2693912 1 11 -0.04024395
0.38691205 3.5102203 -0.43361115 70 4 -0.040241644
1.135636 10.286501 1.6391206 1 12 -0.040239342
0.38129538 3.4537435 -0.30399922 55 5 -0.040237039
0.37530252 3.3886015 -0.17867498 58 6 -0.040232431
0.6918506 6.2169585 1.6761122 43 15 -0.040225517
0.42446247 3.7722831 -1.0171589 9 0 -0.040204782
0.74461454 6.6071615 0.1160585 2 8 -0.040202476
0.49113977 4.3511887 -1.0109301 8 1 -0.040200174
1.1727513 10.373593 0.54712015 2 9 -0.040197868
0.39697951 3.5114894 -0.68691242 76 2 -0.040195566
1.1651974 10.290685 0.90607113 2 10 -0.040193263
0.39843801 3.5134041 -0.56003547 77 3 -0.040190957
1.1667486 10.272312 1.2693912 1 11 -0.040188655
0.39826441 3.5009589 -0.4326362 67 4 -0.040186349
1.1724328 10.290325 1.6403719 1 12 -0.040184047
0.39492857 3.4662483 -0.30521941 51 5 -0.040181741
0.38780829 3.3932238 -0.17898898 55 6 -0.040177133
0.65162003 5.6838989 -0.099862665 7 7 -0.040172525
0.71398705 6.2183437 1.6771475 54 15 -0.040170223
0.43740413 3.7688596 -1.0166413 9 0 -0.040149484
0.75613111 6.5052056 0.11431326 2 8 -0.040147182
0.50700033 4.3552547 -1.0122797 7 1 -0.040144879
0.76996428 6.6041431 0.34845284 2 9 -0.040142573
0.40786964 3.4983821 -0.6846227 80 2 -0.040140271
1.2011142 10.286554 0.90607113 2 10 -0.040137965
0.41161665 3.51984 -0.56128693 75 3 -0.040135663
1.2025964 10.268177 1.2693912 1 11 -0.040133357
0.41002104 3.4956043 -0.43214872 70 4 -0.040131055
1.2041951 10.250856 1.6347404 1 12 -0.040128749
0.40748984 3.4688063 -0.30556804 58 5 -0.040126447
0.40058628 3.3997836 -0.17940767 52 6 -0.040121838
0.67168736 5.6835766 -0.099897578 47 7 -0.04011723
0.73546326 6.2138948 1.6766298 75 15 -0.040114924
0.45055825 3.7673097 -1.0166413 9 0 -0.040094189
0.78216195 6.530324 0.11480194 2 8 -0.040091887
0.5235936 4.3650675 -1.0149791 7 1 -0.040089581
0.41961139 3.4930384 -0.68385947 83 2 -0.040084973
0.42342907 3.5144594 -0.5606612 75 3 -0.040080365
1.2384346 10.263917 1.2693912 1 11 -0.040078063
0.42293414 3.5000639 -0.43287995 77 4 -0.040075757
1.2480414 10.313267 1.6453779 1 12 -0.040073454
0.41792116 3.4535172 -0.30434784 62 5 -0.040071148
0.41341311 3.4062953 -0.17982636 52 6 -0.04006654
0.69200742 5.6851668 -0.099967383 55 7 -0.040061932
0.7559793 6.2017021 1.6740416 86 15 -0.04005963
0.46394116 3.7676315 -1.0171589 9 0 -0.040038895
0.80397195 6.5196157 0.11466231 2 8 -0.040036589
0.54002267 4.3728833 -1.0172287 7 1 -0.040034287
0.81605113 6.5986066 0.34845284 2 9 -0.040031981
0.43276495 3.4993465 -0.68538594 83 2 -0.040029678
0.43618143 3.5168803 -0.56128693 75 3 -0.04002507
0.80986488 6.520555 0.80677515 1 11 -0.040022764
0.43563837 3.5025063 -0.43336743 74 4 -0.040020462
0.42849696 3.4401743 -0.30330199 65 5 -0.040015854
0.42431149 3.396904 -0.17940767 56 6 -0.040011246
0.7098586 5.6668434 -0.09968815 57 7 -0.040006638
0.77666247 6.1913576 1.6719712 86 15 -0.040004335
0.47563407 3.7544899 -1.0140531 7 0 -0.039983597
0.82068336 6.4691582 0.1138246 2 8 -0.039981294
0.55479151 4.367105 -1.0163288 8 1 -0.039978988
0.82345408 6.472877 0.34196317 2 9 -0.039976686
0.44572154 3.5036571 -0.68653083 87 2 -0.03997438
0.83087903 6.5221744 0.57522792 2 10 -0.039972078
0.4469544 3.5035796 -0.55940974 77 3 -0.039969772
0.83262259 6.5176878 0.80677515 1 11 -0.03996747
0.44912213 3.5108092 -0.43458611 70 4 -0.039965164
0.83106232 6.4874582 1.0359092 1 12 -0.039962862
0.44252738 3.4544675 -0.30469647 67 5 -0.039960556
0.43514764 3.3874784 -0.17898898 56 6 -0.039955951
0.72963673 5.664331 -0.09968815 59 7 -0.039951343
0.7990098 6.1943569 1.6735239 88 15 -0.039949037
0.46553415 3.5746489 -0.9659127 0 0 -0.039928302
0.84533042 6.4821172 0.11410383 2 8 -0.039925996
0.56902188 4.3574128 -1.0145292 7 1 -0.039923694
0.85008556 6.5097203 0.34405661 2 9 -0.039921388
0.45896631 3.5098667 -0.6880573 90 2 -0.039919086
0.45969602 3.5059152 -0.56003547 80 3 -0.039914478
1.4776404 11.254168 1.393698 1 11 -0.039912175
0.45972756 3.5014277 -0.43361115 67 4 -0.039909869
0.4540638 3.448951 -0.30434784 66 5 -0.039905261
0.44644606 3.3819788 -0.17877965 54 6 -0.039900653
0.74841791 5.6618795 -0.09968815 58 7 -0.039896045
0.81929481 6.1897578 1.6730064 84 15 -0.039893743
0.47329149 3.5424485 -0.95763052 0 0 -0.039873004
0.86205006 6.4436011 0.11347555 2 8 -0.039870702
0.58450466 4.3632274 -1.0163288 7 1 -0.0398684
0.86583549 6.4633145 0.34175381 2 9 -0.039866094
0.46851417 3.4927588 -0.68500435 90 2 -0.039863791
0.47289869 3.5161183 -0.56191266 75 3 -0.039859183
1.51495 11.249207 1.393698 1 11 -0.039856877
0.47027567 3.4920149 -0.4326362 67 4 -0.039854575
0.87407064 6.4818039 1.0359092 1 12 -0.039852269
0.46656421 3.4553244 -0.3050451 62 5 -0.039849967
0.45980319 3.3963132 -0.17961702 54 6 -0.039845359
0.76450187 5.6395512 -0.099339098 57 7 -0.03984075
0.83903253 6.1812644 1.6714535 76 15 -0.039838444
0.48503706 3.5408592 -0.95763052 0 0 -0.039817709
0.88884646 6.4803309 0.11417364 2 8 -0.039815407
0.59976709 4.3670573 -1.0176786 7 1 -0.039813101
0.89487469 6.515811 0.34468466 2 9 -0.039810799
0.48062986 3.4950757 -0.68576753 92 2 -0.039808493
0.8968609 6.5134292 0.57522792 2 10 -0.039806191
0.48455691 3.5145307 -0.56191266 75 3 -0.039803885
1.5565921 11.275583 1.3975978 1 11 -0.039801583
0.48402575 3.5061674 -0.43458611 70 4 -0.039799277
0.47692826 3.4458637 -0.30434784 63 5 -0.039794669
0.47106254 3.3947699 -0.17961702 52 6 -0.03979006
0.7820999 5.6290627 -0.099199481 58 7 -0.039785452
0.85766411 6.1650543 1.66783 63 15 -0.03978315
0.49677557 3.5392313 -0.95763052 0 0 -0.039762415
0.90588003 6.4456635 0.11361516 2 8 -0.039760109
0.61668652 4.382412 -1.0217277 8 1 -0.039757807
0.91257626 6.4851189 0.34321922 2 9 -0.039755501
0.49331227 3.5012391 -0.68729407 92 2 -0.039753199
0.91845709 6.5104189 0.57522792 2 10 -0.039750893
0.49565557 3.5089924 -0.56128693 75 3 -0.03974859
1.5906365 11.246773 1.3946729 1 11 -0.039746284
0.49676117 3.5124052 -0.43556106 70 4 -0.039743982
0.91704053 6.4758644 1.0359092 1 12 -0.039741676
0.48891118 3.4482086 -0.30469647 68 5 -0.039739374
0.48344263 3.4010985 -0.1800357 56 6 -0.039734766
0.8007611 5.6264381 -0.099199481 57 7 -0.039730158
0.87537694 6.1430511 1.6626536 67 15 -0.039727852
0.50153452 3.4761121 -0.94106609 0 0 -0.039811134
0.92890596 6.4302626 0.11340573 2 8 -0.039808832
0.63099754 4.3626542 -1.0176786 8 1 -0.039806526
0.93287832 6.4418702 0.34112579 2 9 -0.039804224
0.50675327 3.4993188 -0.68729407 92 2 -0.039801918
0.94344699 6.5068445 0.57522792 2 10 -0.039799616
0.50883919 3.5051088 -0.56097406 73 3 -0.03979731
1.6355252 11.252369 1.3961353 1 11 -0.039795008
0.51228702 3.520205 -0.43677977 66 4 -0.039792702
0.94303036 6.4721308 1.0359092 1 12 -0.039790399
0.5027231 3.4502492 -0.3050451 66 5 -0.039788093
0.49476558 3.3873594 -0.17940767 56 6 -0.039783485
0.82333922 5.6231785 -0.099199481 54 7 -0.039778877
0.90031117 6.1413984 1.6631712 75 15 -0.039776575
0.51084089 3.455229 -0.93588972 0 0 -0.03975584
0.95368731 6.4428072 0.11368498 7 8 -0.039753534
0.64793748 4.3719912 -1.020378 7 1 -0.039751232
0.95418805 6.4306722 0.34070709 2 9 -0.039748926
0.51867777 3.4955864 -0.68691242 81 2 -0.039746623
0.52223462 3.5111268 -0.56222552 71 3 -0.039742015
1.6747965 11.246592 1.3961353 1 11 -0.039739709
0.52310735 3.5085783 -0.43556106 70 4 -0.039737407
0.96561217 6.4688001 1.0359092 1 12 -0.039735101
0.51534963 3.4524145 -0.30539373 63 5 -0.039732799
0.50540376 3.3777108 -0.17898898 55 6 -0.039728191
0.84148121 5.6103821 -0.099024951 47 7 -0.039723583
0.9203105 6.1286664 1.660583 80 15 -0.039721277
0.54661185 3.6100519 -0.97833604 0 0 -0.039700542
0.97647244 6.4414153 0.11371988 12 8 -0.039698239
0.66436547 4.3774095 -1.0221776 7 1 -0.039695933
0.97730464 6.439321 0.34133515 2 9 -0.039693631
0.52851468 3.4782271 -0.68385947 66 2 -0.039691325
0.98914993 6.502069 0.5754022 2 10 -0.039689023
0.53389359 3.5053766 -0.56159979 66 3 -0.039686717
1.7080514 11.201428 1.3912605 1 11 -0.039684415
0.53683329 3.5205612 -0.43726721 63 4 -0.039682109
0.98705995 6.4655619 1.0359092 1 12 -0.039679807
0.52739859 3.4505944 -0.30539373 53 5 -0.039677501
0.51991403 3.3936942 -0.17993104 49 6 -0.039672893
0.8558358 5.5798888 -0.09853629 42 7 -0.039668288
0.94092077 6.1274905 1.6611006 91 15 -0.039665982
0.58311146 3.7666757 -1.0213 8 0 -0.039645247
0.99874514 6.4440703 0.1138246 12 8 -0.039642941
0.67887902 4.3751817 -1.0221776 7 1 -0.039640639
