# .PCD v0.7 - Point Cloud Data file format
VERSION 0.7
FIELDS x y z intensity
SIZE 4 4 4 4
TYPE F F F F
COUNT 1 1 1 1
WIDTH 1365
HEIGHT 1
VIEWPOINT 0 0 0 1 0 0 0
POINTS 1365
DATA ascii
-1.6925688 9.5212564 0.16879968 49
-0.69170278 3.8950009 -0.91330135 7
-1.6850892 9.4984465 0.5055654 40
-0.78533226 4.4267311 -0.8739053 10
-1.6852422 9.5089312 0.84488773 29
-0.91122538 5.1468048 -0.8278513 8
-4.434001 25.069717 3.1259489 9
-1.0755471 6.0872898 -0.75900233 2
-4.3273659 24.516699 3.9430876 17
-1.3118494 7.4322844 -0.66029191 7
-1.5497959 8.7982855 -0.46819749 2
-1.6784371 9.5481224 -0.16921853 28
-5.6365113 32.09726 8.7320375 8
-0.6054942 3.4693244 -0.9436543 7
-1.6616701 9.530757 0.1688695 53
-0.67510349 3.8761549 -0.90835232 5
-1.6570073 9.5236588 0.50661212 14
-0.76694733 4.4080338 -0.86970741 9
-0.89212644 5.1381207 -0.82597405 8
-1.0499308 6.0595284 -0.75510252 1
-4.2507634 24.558163 3.9474678 17
-1.2794496 7.3995161 -0.65697998 5
-1.518569 8.7915688 -0.46756947 2
-1.6440495 9.5378695 -0.16893929 62
-5.6513424 32.82019 8.923563 17
-0.59179968 3.465807 -0.94210136 9
-1.6263739 9.5246716 0.16866006 45
-0.66582775 3.9034607 -0.91420108 6
-2.6610801 15.617164 0.83025765 22
-0.75342041 4.4262996 -0.87276042 10
-0.87064314 5.1257758 -0.82347113 8
-4.2100787 24.786184 3.0869508 9
-1.0267787 6.051414 -0.75364012 1
-4.1570845 24.526108 3.9399588 17
-1.2526164 7.3980441 -0.65645707 7
-1.4823412 8.7734451 -0.46631342 2
-1.6147417 9.5672121 -0.16935815 56
-5.3857832 31.944384 8.680274 16
-0.57969892 3.4678514 -0.94210136 9
-1.9968886 11.958576 0.21162789 17
-0.64831096 3.8866529 -0.90970206 6
-2.5887184 15.53619 0.82544273 22
-0.73602992 4.4172826 -0.8704707 9
-0.85080022 5.1170921 -0.82159394 8
-4.1094413 24.742701 3.0796385 18
-1.0045936 6.0551367 -0.75364012 1
-4.0594177 24.494408 3.9324501 17
-1.2258055 7.3964748 -0.6559341 5
-1.4412814 8.7155094 -0.46296394 5
-1.5975692 9.6815825 -0.17127791 25
-5.604856 34.003471 9.2341461 9
-0.56821316 3.4736674 -0.94313669 11
-1.941264 11.880613 0.21012698 23
-0.63097382 3.8658125 -0.90430319 7
-2.4997644 15.332237 0.81413823 22
-0.7218709 4.4275756 -0.87199712 10
-4.0663586 24.968412 2.2132328 14
-0.83388573 5.1258798 -0.82253253 9
-4.0205059 24.74122 3.0776887 18
-0.9834494 6.0586061 -0.75364012 1
-3.9846351 24.574728 3.9430876 17
-1.1980642 7.3889079 -0.65488827 5
-1.402554 8.6692247 -0.46024245 2
-1.6087005 9.9654541 -0.1761995 29
-5.1712027 32.069836 8.7040844 8
-0.55547291 3.4718144 -0.94210136 11
-1.8925308 11.841899 0.20932417 35
-0.61655319 3.8622191 -0.90295357 7
-2.431901 15.23394 0.80848593 25
-0.70331872 4.4106808 -0.86818099 9
-3.9788818 24.980486 2.2130587 19
-0.81412429 5.1170545 -0.82065529 9
-3.9285038 24.719814 3.0733013 18
-0.95856452 6.0384755 -0.7507152 1
-1.168522 7.3694315 -0.65279651 5
-1.3707297 8.6642036 -0.45971909 4
-1.5706481 9.9391308 -0.17564102 29
-5.0744724 32.147873 8.7206488 8
-0.54275435 3.4699147 -0.94106609 13
-1.8449042 11.794766 0.20838173 28
-0.60434461 3.8680928 -0.9038533 7
-2.3694668 15.183135 0.80534577 21
-0.68580246 4.3995304 -0.86550963 9
-3.8867483 24.962723 2.2102695 19
-0.79654425 5.1158218 -0.82002956 11
-3.8611441 24.82686 3.0850008 9
-0.93731439 6.0337749 -0.7497403 1
-1.1366858 7.3340878 -0.64931029 5
-1.338016 8.6430426 -0.45835835 4
-1.5295321 9.9030514 -0.17490801 29
-5.0541296 32.761082 8.8821526 8
-0.52861542 3.454509 -0.93640739 13
-1.793144 11.73195 0.20716007 28
-0.59083772 3.8701789 -0.9038533 7
-2.296593 15.060999 0.79843742 21
-0.67150617 4.4037209 -0.86589122 9
-3.8015409 24.959719 2.2088752 14
-0.7754125 5.0970898 -0.81658798 11
-0.91564947 6.0330849 -0.7492528 1
-3.7118342 24.485554 3.9224384 17
-1.1122764 7.34589 -0.65000749 7
-1.3057451 8.6338367 -0.45762566 4
-1.4872046 9.8569193 -0.17400049 28
-4.8666105 32.293312 8.7506723 8
-0.51623648 3.4583337 -0.93692499 12
-1.7436273 11.68078 0.20614782 34
-0.57703817 3.8702903 -0.90340346 7
-2.2234097 14.930642 0.7911104 21
-0.65449148 4.4003272 -0.86474639 9
-3.7311187 25.115379 2.2214255 4
-0.75150776 5.0647254 -0.8109563 10
-0.89458293 6.0362444 -0.7492528 1
-3.6194041 24.451462 3.9149294 17
-1.0825461 7.322135 -0.64756715 7
-1.2691394 8.6049747 -0.45584619 2
-1.4504545 9.8462238 -0.17372125 31
-4.7375383 32.199249 8.7206488 17
-0.50471765 3.4639382 -0.93796021 11
-1.6921552 11.627728 0.20510069 33
-0.56032705 3.8550227 -0.89935428 5
-2.1514583 14.820098 0.78483003 21
-0.63913053 4.4025846 -0.86474639 6
-5.3324752 36.777473 3.2512577 19
-0.73410821 5.069273 -0.81126922 9
-3.5670743 24.662233 3.0596519 18
-0.8645075 5.9844718 -0.74242812 1
-3.521292 24.40591 3.9055433 17
-1.0564095 7.3219252 -0.64721853 5
-1.2362473 8.5895844 -0.4547995 2
-1.4137902 9.8475151 -0.17365146 34
-4.6408849 32.365555 8.7610254 8
-0.49262223 3.4656789 -0.93796021 13
-1.6487485 11.613766 0.20475163 33
-0.54823399 3.8666027 -0.90160388 7
-2.0775867 14.671293 0.77656096 24
-0.62155551 4.3892384 -0.8616935 6
-3.5227661 24.90803 2.2008567 4
-0.71585476 5.0678926 -0.81064349 9
-3.4806814 24.672571 3.0594084 18
-0.8452754 5.9992461 -0.74389052 1
-3.4388359 24.437614 3.9086721 17
-1.0252937 7.286109 -0.64373231 5
-1.2001507 8.550334 -0.45249674 4
-1.3741367 9.8147631 -0.17298825 28
-4.5225205 32.343292 8.7506723 8
-0.47919652 3.4578094 -0.93537205 13
-1.6043631 11.591718 0.20426297 33
-0.53499943 3.8704233 -0.90205371 8
-2.0146201 14.59338 0.7720601 21
-0.60515738 4.3836017 -0.86016703 7
-3.4336281 24.904385 2.1994624 19
-0.69573373 5.0527487 -0.80782765 7
-3.3942716 24.682602 3.0591645 18
-0.82108921 5.9785604 -0.74096566 1
-0.99552041 7.2580614 -0.64094335 5
-1.1708403 8.5584278 -0.45270607 2
-1.3347338 9.7818546 -0.17232506 31
-5.3502297 39.261345 10.617275 12
-0.46686417 3.4575467 -0.93485445 15
-1.5534652 11.519959 0.20290168 27
-0.52174681 3.8741982 -0.90250361 8
-1.958339 14.560735 0.76996666 21
-0.58801901 4.372067 -0.85749573 5
-3.3410978 24.874748 2.1958017 19
-0.67678005 5.0453572 -0.80626333 7
-3.3041322 24.664787 3.0555084 18
-0.79968703 5.9774556 -0.74047816 1
-0.96648651 7.2338443 -0.63850296 5
-1.1343613 8.512969 -0.45008928 4
-1.2924116 9.7250032 -0.17124301 28
-5.206531 39.229988 10.603817 12
-0.45504481 3.4610705 -0.93537205 16
-1.5077794 11.483676 0.20216867 33
-0.50771427 3.8721316 -0.90160388 8
-1.8986208 14.480015 0.76536107 24
-0.57224315 4.3701997 -0.85673243 4
-3.2527034 24.874409 2.1947558 14
-0.65686327 5.0300598 -0.80344748 6
-3.2408562 24.851364 3.0772014 9
-0.78139925 5.9918852 -0.74194062 1
-0.94123137 7.2371736 -0.63850296 5
-3.1303842 24.102655 4.7244306 10
-1.1005301 8.4851866 -0.44841453 4
-1.2570701 9.7054386 -0.17082416 28
-4.1862645 32.365162 8.7444611 8
-0.44282931 3.4568121 -0.93381917 13
-1.4605517 11.417205 0.2009121 33
-0.49264744 3.8563969 -0.8975547 9
-1.8293295 14.319816 0.75656861 20
-0.55899304 4.3818102 -0.85864049 6
-3.1679263 24.867271 2.193187 9
-0.63943017 5.0263319 -0.80250889 7
-0.76102889 5.9905043 -0.74145311 1
-0.91672403 7.2363024 -0.63815433 2
-3.0450239 24.070055 4.7160354 10
-1.0676278 8.4511414 -0.44642577 4
-1.2248808 9.7095537 -0.17082416 28
-4.0856824 32.432529 8.758955 8
-0.43088442 3.4544275 -0.93278384 13
-1.4179891 11.384284 0.20024893 33
-0.48057887 3.8638108 -0.89890444 7
-1.760873 14.177461 0.74871826 23
-0.54272652 4.3759418 -0.85711402 5
-3.1222351 25.174225 2.2193336 4
-0.62251687 5.026464 -0.80219603 7
-0.73524588 5.9537215 -0.73657835 1
-0.89048648 7.2315474 -0.63745707 2
-2.961709 24.086384 4.7171803 10
-1.0347114 8.427063 -0.44496036 3
-1.1858722 9.6720886 -0.17009115 28
-0.41682702 3.4444766 -0.92967808 13
-1.3697793 11.335801 0.19930647 32
-0.46524587 3.8558726 -0.8966549 9
-1.6914544 14.039067 0.74107724 23
-0.52363676 4.352562 -0.852153 5
-0.60338169 5.0228281 -0.80125743 6
-0.71389288 5.9603186 -0.73706585 1
-0.85972124 7.1991534 -0.63431948 5
-2.8713214 24.079531 4.7137456 10
-1.0024027 8.4188986 -0.44433233 3
-1.1459264 9.6386423 -0.16942796 28
-4.6924882 39.528252 10.665934 12
-0.40375024 3.4421437 -0.92864275 15
-1.318915 11.261301 0.19791028 32
-0.45111111 3.8575521 -0.8966549 9
-1.6247025 13.914243 0.73416889 25
-0.51003295 4.3680134 -0.8548243 5
-0.58382708 5.0151954 -0.79969311 4
-0.69203812 5.9628954 -0.73706585 1
-0.8336705 7.1941938 -0.63362223 2
-2.7827311 24.050402 4.7061133 10
-0.96842265 8.3826666 -0.4422389 1
-1.1085342 9.624898 -0.16911381 28
-4.5431356 39.506802 10.655581 12
-0.39282498 3.4531295 -0.93123102 18
-1.2732811 11.210202 0.19693296 32
-0.43676358 3.8513577 -0.89485526 9
-1.5743214 13.903953 0.7333315 28
-0.49345618 4.3580627 -0.85253465 6
-0.56520814 5.0073886 -0.79812872 3
-0.66811609 5.9376574 -0.73365355 1
-0.80944073 7.2049804 -0.63431948 5
-2.6974432 24.048264 4.7038236 10
-0.93382668 8.3383579 -0.43972674 3
-1.0722653 9.6048603 -0.16869496 28
-0.96065491 8.6187105 2.3236775 15
-0.38013303 3.448719 -0.92967808 19
-1.2315146 11.190726 0.1965141 31
-0.42119154 3.8334877 -0.89035624 10
-1.5192716 13.827698 0.72903991 22
-0.47888383 4.365613 -0.85367942 8
-0.54815847 5.0132575 -0.79875451 3
-0.6482445 5.9478474 -0.7346285 1
-0.78299069 7.195878 -0.6332736 5
-2.6126397 24.049725 4.7022972 10
-0.90212804 8.3177395 -0.43847069 3
-0.93711311 8.6544333 2.0097127 12
-1.0373921 9.5805311 -0.16820629 28
-0.93435049 8.6429758 2.3293715 64
-0.36809149 3.4500251 -0.92967808 20
-1.1905763 11.158959 0.19588582 31
-0.40847585 3.8348634 -0.89035624 10
-1.463388 13.761418 0.72527176 22
-0.46136108 4.3457832 -0.8494817 6
-4.1067958 38.748138 3.4090097 21
-0.53152949 5.015048 -0.79875451 3
-0.62726432 5.9381199 -0.73316604 1
-0.91071713 8.635869 1.3753721 6
-0.75411767 7.1629009 -0.63013601 5
-0.91493601 8.6904154 1.6985818 28
-0.87453824 8.3206854 -0.43847069 3
-0.9112618 8.6846275 2.0160115 45
-0.99707508 9.5184622 -0.16705443 28
-0.90397191 8.6442633 2.3288538 100
-0.35545802 3.4396968 -0.9265722 23
-1.1471101 11.119285 0.19511791 36
-0.39508617 3.836266 -0.89035624 11
-1.4083941 13.698894 0.72171295 22
-0.44674748 4.3453364 -0.84910011 8
-3.9933403 38.908207 3.4219086 21
-0.51401913 5.0168734 -0.79875451 3
-0.60653669 5.9402728 -0.73316604 1
-0.88296813 8.6625767 1.3791263 37
-0.72914624 7.1534696 -0.62909013 2
-0.88797146 8.7267609 1.7050693 31
-0.84306806 8.2998428 -0.43721461 3
-0.87956268 8.6741838 2.012862 100
-0.96182704 9.5019894 -0.16670538 34
-0.8724345 8.6339111 2.3252304 100
-0.34344977 3.4409165 -0.9265722 24
-1.1051145 11.091384 0.19455943 36
-0.3820774 3.8415003 -0.89125609 13
-1.3566238 13.663976 0.71961951 22
-0.43157762 4.3468695 -0.84910011 8
-3.8706563 39.054752 3.4335878 21
-0.49475223 5.0009446 -0.79593867 4
-0.58267999 5.9107456 -0.72926623 1
-0.85871935 8.7265491 1.3888253 6
-0.70182824 7.1321774 -0.62699836 5
-0.8530916 8.6848679 1.696292 94
-0.81292331 8.2908087 -0.43658656 10
-0.84870702 8.6713829 2.0115123 100
-0.92632169 9.4814062 -0.16628654 25
-0.8436057 8.650362 2.3288538 76
-0.33069512 3.4344029 -0.92450172 24
-1.0600804 11.029486 0.19340758 30
-0.36699349 3.825352 -0.88720697 12
-1.2997769 13.573195 0.7145952 22
-0.41527751 4.3366232 -0.84681034 8
-3.7380872 39.107689 3.4370737 10
-0.476358 4.9928083 -0.79437429 6
-0.83633119 8.7820177 1.0831748 3
-0.5631696 5.9246006 -0.73072863 1
-0.82750833 8.7216272 1.387574 37
-0.67542404 7.1187158 -0.62560391 5
-0.82258314 8.6858387 1.6959105 100
-0.78134447 8.2657585 -0.43512118 6
-0.82008243 8.6917534 2.0155613 67
-0.88909245 9.4407835 -0.16551863 25
-0.31906241 3.4393833 -0.92553693 23
-1.0178837 10.993297 0.19270948 30
-0.35363728 3.8266098 -0.88720697 12
-1.2439542 13.486165 0.70978028 22
-0.40031859 4.3400011 -0.84719193 9
-0.80915493 8.7891169 0.77219987 1
-0.45711812 4.9747705 -0.79124558 4
-0.80259091 8.7512779 1.0790312 24
-0.53959149 5.8949008 -0.72682881 1
-0.79706091 8.7244625 1.387574 47
-0.64803463 7.0932527 -0.62316358 5
-0.79279137 8.6945219 1.6970552 100
-0.74814421 8.2206984 -0.43260908 3
-0.85360241 9.4159479 -0.16502996 28
-3.5768595 39.532269 10.63591 12
-0.30817211 3.4461949 -0.92708987 22
-0.97751433 10.952792 0.19194156 35
-0.34042606 3.8219383 -0.88585728 14
-1.1985209 13.482258 0.70936161 2
-0.38436079 4.3237052 -0.84375745 11
-0.77982622 8.7897682 0.77202559 73
-0.44201109 4.9920001 -0.79374862 3
-0.77339315 8.7519131 1.0787874 33
-0.5175972 5.8689742 -0.72341651 1
-0.76794952 8.72509 1.3872609 37
-0.62292349 7.0915017 -0.62281495 5
-0.71878397 8.1992598 -0.431353 3
-0.81872702 9.3768921 -0.16429695 28
-3.4400334 39.478481 10.61831 12
-0.29388812 3.4280536 -0.9219135 21
-0.93773592 10.938206 0.19162743 25
-0.32808045 3.8347533 -0.88855666 14
-0.75251049 8.8137941 0.46359196 28
-0.36734319 4.3113914 -0.84108603 11
-0.74726915 8.7885952 0.7716769 100
-0.42271054 4.9817767 -0.79187137 4
-0.74384332 8.766428 1.0802499 30
-0.49878371 5.8905258 -0.72585386 1
-0.73898745 8.7454329 1.3900769 3
-0.59782892 7.0896621 -0.62246627 5
-2.0172863 23.972994 4.6763473 9
-0.68538654 8.1620331 -0.42925957 3
-0.78181344 9.329875 -0.16342433 25
-3.372081 40.325752 10.842965 12
-0.28144604 3.4232821 -0.92036057 20
-0.72464919 8.8329763 0.15469813 36
-0.31370419 3.8320453 -0.88765687 13
-0.71987796 8.8125114 0.46338257 37
-0.35261199 4.3165612 -0.84184933 11
-0.7159369 8.7832088 0.7709797 100
-0.40515688 4.9812536 -0.7915585 4
-0.47446492 5.8586779 -0.72171032 2
-0.56986624 7.0519872 -0.61898005 5
-1.9301262 23.936838 4.6679516 9
-0.65833098 8.1822929 -0.43020159 7
-0.71392238 8.9120893 -0.15605941 15
-0.26979706 3.4280958 -0.92139584 23
-0.69193935 8.8115273 0.15427928 66
-0.29910901 3.817575 -0.88405764 14
-0.68988812 8.8249273 0.46390596 35
-0.33784711 4.3216805 -0.84261262 11
-0.38500878 4.9471874 -0.78592682 4
-0.45493263 5.8721728 -0.72317278 2
-0.54432702 7.0420146 -0.61793417 5
-1.8456471 23.931684 4.6656618 19
-0.62915432 8.1765766 -0.42978293 3
-0.6782251 8.8547115 -0.15501226 45
-0.25754014 3.4251637 -0.92036057 21
-0.66147411 8.8178787 0.15434909 66
-0.28534406 3.8127658 -0.88270795 13
-0.98430908 13.183163 0.69282347 15
-0.32217574 4.3150015 -0.84108603 11
-2.9198978 39.199249 3.4389911 21
-0.36890736 4.9642611 -0.78842986 7
-0.43033358 5.818294 -0.71634805 2
-0.52003378 7.0478463 -0.61828285 5
-1.7605069 23.916443 4.6614637 19
-0.59783131 8.1408768 -0.42779416 3
-0.64760149 8.8610134 -0.15508209 60
-2.7995708 38.397953 10.31601 11
-0.24544349 3.4241149 -0.9198429 22
-0.63368267 8.8620205 0.15508209 29
-0.27148128 3.8059633 -0.88090831 13
-0.93558836 13.148666 0.6908347 26
-0.3055777 4.294559 -0.83688831 9
-2.7814867 39.187344 3.4370737 21
-0.34837118 4.9201984 -0.78123385 6
-0.40974072 5.8157997 -0.71586055 3
-0.49557358 7.0516052 -0.61845714 7
-1.676331 23.912653 4.6595559 19
-0.56717938 8.1110344 -0.42611939 2
-0.6172238 8.8711996 -0.1552217 36
-2.6732671 38.519268 10.346033 11
-0.2327003 3.4133866 -0.91673708 22
-0.731354 10.755522 0.18817185 30
-0.25858891 3.8127205 -0.88225806 14
-0.88496375 13.082108 0.68717122 21
-0.29071641 4.2975583 -0.8372699 11
-2.6637349 39.479095 3.4618261 10
-0.33106041 4.9194136 -0.78092092 9
-2.7772939 41.377464 5.0919452 19
-0.38837776 5.8013496 -0.7139107 2
-1.6107067 24.122921 3.8292031 16
-0.46790099 7.0075688 -0.61444795 5
-1.5911477 23.892893 4.6545949 19
-0.53820306 8.1030006 -0.42559603 4
-0.60220295 9.1147375 -0.1594452 28
-2.5944374 39.372684 10.572759 12
-0.22028764 3.4064667 -0.91466653 22
-0.69148636 10.72209 0.18754356 34
-0.24552761 3.8174894 -0.88315785 14
-0.83482766 13.015356 0.68350762 23
-0.27559066 4.2965875 -0.83688831 12
-0.31325632 4.9106822 -0.7793566 9
-0.36837476 5.8066325 -0.71439815 3
-1.5252388 24.108685 3.8260748 16
-0.44154841 6.9793339 -0.61183333 7
-1.5071344 23.8885 4.6526866 19
-0.50903499 8.0908775 -0.42486331 2
-0.57188761 9.1407328 -0.15986405 28
-2.449276 39.258099 10.539629 12
-0.20851254 3.4091434 -0.9151842 23
-0.6518662 10.68851 0.18691526 29
-0.23160994 3.8085973 -0.88090831 15
-0.78576046 12.958384 0.68036753 23
-0.2608276 4.3014431 -0.83765155 13
-2.4551311 40.606457 3.5590918 11
-0.29433087 4.8821683 -0.77466357 7
-1.4637721 24.350845 2.9953051 17
-0.34798324 5.8059015 -0.71415442 3
-1.4417865 24.125692 3.8279519 16
-0.41766018 6.9887881 -0.61253053 7
-1.4206964 23.842663 4.6427646 9
-0.47818139 8.0487423 -0.42256054 2
-0.53808814 9.110733 -0.15930556 25
-1.7584913 29.862995 8.015626 7
-0.19627823 3.4040642 -0.91363126 22
-0.61248893 10.654784 0.18628699 29
-0.21708655 3.787982 -0.87595946 15
-0.73801875 12.917177 0.6780647 22
-0.24514014 4.2905664 -0.83536184 13
-1.4004132 24.586082 2.15449 9
-0.27851772 4.904861 -0.77810514 9
-1.3780948 24.343916 2.9938426 17
-0.3267121 5.7892437 -0.71196079 8
-1.3566692 24.114798 3.8254488 16
-0.39292458 6.9842358 -0.61200762 7
-1.3377848 23.853359 4.6439095 9
-0.44741288 8.0025024 -0.42004842 2
-0.50517082 9.0925913 -0.15895653 28
-1.6570374 29.919102 8.0290852 7
-0.18460269 3.4085867 -0.91466653 22
-0.57334989 10.620915 0.18565871 29
-0.20470116 3.8042836 -0.87955862 14
-0.6908837 12.83978 0.67387784 22
-0.22995032 4.2874751 -0.83459854 15
-1.3159591 24.616686 2.1567559 18
-0.25992441 4.8781867 -0.77372491 9
-1.2927879 24.342628 2.9931114 17
-0.3056609 5.7744899 -0.71001083 8
-1.2760726 24.10733 3.8235717 16
-0.36738947 6.9636788 -0.6100902 7
-1.2528685 23.826515 4.6378036 9
-0.41874233 7.9900541 -0.4193157 3
-0.47345304 9.0642605 -0.15843295 28
-0.1723115 3.4014931 -0.91259599 18
-0.53771889 10.614771 0.18551907 34
-0.19169231 3.7971566 -0.87775904 14
-0.64245039 12.770303 0.67010969 25
-0.2142936 4.2745261 -0.83192724 13
-1.2278411 24.577353 2.1529212 18
-0.24433871 4.8908601 -0.77560216 12
-1.2114704 24.334885 2.9916489 17
-0.28611529 5.7675414 -0.70903593 10
-1.1901641 24.076126 3.8179402 16
-0.34180662 6.9390492 -0.60782415 7
-1.1733718 23.820734 4.6358957 9
-0.3916544 7.9794302 -0.41868767 2
-0.44025025 9.0339012 -0.15787446 31
-1.4205375 29.254333 7.8479114 6
-0.1608488 3.3981862 -0.91156071 18
-0.50028867 10.608593 0.18537946 29
-0.17834412 3.795856 -0.87730908 16
-0.59803325 12.728472 0.66780686 22
-0.20030205 4.2791357 -0.83269054 15
-1.1453052 24.559397 2.1510036 18
-0.22698857 4.8857627 -0.77466357 10
-1.1259613 24.32707 2.9901865 17
-0.2659823 5.7685051 -0.70903593 10
-1.1097656 24.0681 3.8160627 16
-0.318335 6.9301929 -0.60695255 7
-1.0895802 23.810955 4.6332245 9
-0.36352742 7.9747634 -0.41837367 2
-0.40929431 9.0133381 -0.15749051 28
-1.6611934 36.723656 9.8501358 10
-0.14907126 3.4006572 -0.91207838 20
-0.46283171 10.558251 0.18447194 28
-0.16541639 3.7886391 -0.8755095 15
-0.55134559 12.678602 0.66508538 25
-0.18553464 4.2837315 -0.83345371 13
-1.0593175 24.557274 2.1504807 18
-0.21010551 4.8707008 -0.77216065 10
-1.0446805 24.316788 2.9884803 17
-0.2465135 5.7614222 -0.70806098 10
-1.025246 24.059986 3.8141856 16
-0.29329556 6.911356 -0.60520947 7
-1.0099417 23.798746 4.6301713 19
-0.33581674 7.9459925 -0.4168036 2
-0.37740833 9.0047235 -0.157316 28
-1.5360627 36.802578 9.8698063 10
-0.13787071 3.4030631 -0.91259599 18
-0.42363346 10.501858 0.18345968 28
-0.15180032 3.7794576 -0.87326002 18
-0.50484771 12.62457 0.66215456 22
-0.17132708 4.2843232 -0.83345371 15
-0.97699809 24.538752 2.1485631 18
-0.19310334 4.8714046 -0.77216065 10
-0.95870179 24.292515 2.9850681 17
-0.22523034 5.7324939 -0.70440483 7
-0.940642 24.047626 3.8116827 16
-0.26983464 6.8983545 -0.6039893 7
-0.92663825 23.79624 4.6290264 19
-0.30823067 7.9511085 -0.41701293 3
-0.3447473 8.9740133 -0.15675752 27
-1.1909827 31.143801 8.3510561 7
-0.12599169 3.4035237 -0.91259599 18
-0.38601765 10.477295 0.18300593 33
-0.13881984 3.7858067 -0.87460971 20
-0.45801145 12.55041 0.65817702 22
-0.15608545 4.2770472 -0.83192724 16
-0.89097953 24.532059 2.147692 18
-0.17581107 4.8641524 -0.77090919 10
-0.87375015 24.291748 2.9845805 17
-0.20472296 5.7193584 -0.70269871 8
-0.85640687 24.042868 3.8104312 16
-0.24582234 6.9012456 -0.60416359 7
-0.84328371 23.791483 4.6275001 19
-0.27885666 7.9062271 -0.4146055 2
-0.31209171 8.937191 -0.15609433 27
-0.11352858 3.3865654 -0.90793723 21
-0.34824026 10.442604 0.18237765 33
-0.12540922 3.7804253 -0.87326002 18
-0.4115673 12.472086 0.65399015 23
-0.14063774 4.261869 -0.82887435 15
-0.80474639 24.517096 2.1461229 18
-0.15882964 4.8647366 -0.77090919 10
-0.78916067 24.300598 2.9853115 17
-0.18462771 5.7160697 -0.7022112 8
-0.77145499 24.014118 3.8054252 16
-0.21944623 6.8682466 -0.60120028 7
-0.76024717 23.794281 4.6275001 19
-0.25049379 7.8831968 -0.41334942 2
-0.27958027 8.8962517 -0.15536132 27
-0.10088238 3.3792353 -0.90586674 20
-0.30987436 10.379794 0.18126069 27
-0.11238655 3.7866838 -0.87460971 18
-0.36661211 12.425533 0.65147805 23
-0.12466779 4.2505813 -0.82658464 12
-0.71436417 24.501955 2.1445541 18
-0.1405417 4.8494892 -0.76840615 10
-0.70340443 24.271458 2.9814119 17
-0.16444363 5.7087426 -0.70123625 8
-0.68763047 24.016665 3.8054252 16
-0.1954684 6.8689704 -0.60120028 7
-0.6727367 23.787094 4.6255918 19
-0.22143213 7.8780727 -0.41303539 2
-0.24852246 8.8971739 -0.15536132 30
-0.8169623 29.432016 7.8893228 6
-0.089342892 3.3892226 -0.9084549 18
-0.27046975 10.328886 0.18035316 32
-0.098051682 3.7695372 -0.87056059 18
-0.32282379 12.410764 0.65064067 23
-0.11023831 4.2666912 -0.82963753 13
-0.62841666 24.488369 2.1431599 18
-0.12356136 4.8479757 -0.76809335 12
-0.61414433 24.261969 2.9799495 17
-0.14371973 5.7172451 -0.7022112 8
-0.60269397 23.975475 3.7985423 16
-0.17128932 6.8616443 -0.60050309 9
-0.58893806 23.757896 4.6194859 19
-0.19333935 7.8548384 -0.41177934 2
-0.2171685 8.885993 -0.15515189 27
-0.71002299 29.260872 7.8427353 6
-0.077422515 3.3856511 -0.90741962 18
-0.23539561 10.293741 0.17972489 32
-0.085419022 3.7639971 -0.86921084 16
-0.27814797 12.351914 0.64750051 21
-0.095167555 4.2591991 -0.82811105 13
-0.54268432 24.478458 2.1421137 18
-0.10731236 4.8404589 -0.76684189 12
-0.53241277 24.206316 2.9728811 17
-0.12398154 5.6819668 -0.69782394 8
-0.51952982 24.001133 3.8022966 16
-0.14716704 6.8542328 -0.59980583 9
-0.50989139 23.747942 4.6171966 9
-0.16652684 7.8194938 -0.40989524 7
-0.18610929 8.8846979 -0.15511699 27
-0.60482216 29.116383 7.8033948 13
-0.066193931 3.3858893 -0.90741962 16
-0.1989996 10.270508 0.17930602 32
-0.072353527 3.7681692 -0.87011069 16
-0.2332031 12.256959 0.64247626 23
-0.080855109 4.2496767 -0.82620305 12
-0.46142593 24.476139 2.1417651 18
-0.090414062 4.8408041 -0.76684189 12
-0.4479807 24.211996 2.9733684 17
-0.1041846 5.68435 -0.69806767 6
-0.43523866 23.975149 3.7979164 16
-0.1244743 6.8566751 -0.59998012 7
-0.42673919 23.735838 4.6145253 19
-0.13905457 7.8100429 -0.40937188 3
-0.15463871 8.8593016 -0.15466323 27
-0.50646061 29.307608 7.8541226 6
-0.054097723 3.368715 -0.90276086 15
-0.16276379 10.247148 0.17888717 32
-0.05910689 3.7625532 -0.868761 15
-0.19030121 12.249709 0.6420576 23
-0.065748937 4.2322659 -0.82276845 12
-0.37567294 24.45768 2.140022 18
-0.073634639 4.8489914 -0.76809335 12
-0.36315122 24.19158 2.9706874 17
-0.084222578 5.6767397 -0.69709271 8
-0.35159865 23.980473 3.7985423 16
-0.10004091 6.8232007 -0.59701681 9
-0.34377426 23.72933 4.6129985 19
-0.11150367 7.7905102 -0.40832517 3
-0.12365904 8.8557882 -0.15459342 30
-0.42130056 30.553192 8.1874819 7
-0.042240381 3.3611567 -0.90069032 14
-0.12644573 10.203663 0.17811926 31
-0.04594975 3.760788 -0.86831105 18
-0.14676766 12.186391 0.63870806 21
-0.051021326 4.2363954 -0.82353163 12
-0.29005444 24.438919 2.138279 18
-0.056501176 4.8314414 -0.7652775 10
-0.27904123 24.222475 2.9743435 17
-0.064292431 5.6670737 -0.69587398 10
-0.26754108 23.949949 3.7935364 16
-0.076068535 6.8095627 -0.59579664 7
-0.26077363 23.71468 4.6099458 19
-0.084155671 7.7768717 -0.40759248 6
-0.092622042 8.8441677 -0.15438399 27
-0.030578338 3.3690107 -0.90276086 19
-0.09054973 10.172048 0.17756079 27
-0.032752845 3.7531307 -0.86651146 15
-0.10382092 12.138896 0.6361959 21
-0.036234125 4.2365479 -0.82353163 12
-0.20463322 24.425837 2.1370587 18
-0.039521236 4.8177819 -0.76308739 12
-0.1941621 24.183599 2.9694686 17
-0.04441791 5.6553545 -0.69441158 10
-0.18381076 23.934935 3.7910333 16
-0.052281145 6.8077941 -0.5956223 11
-0.17772084 23.680109 4.6030765 19
-0.056776199 7.7451625 -0.40591773 7
-0.061537806 8.8144426 -0.15386041 30
-0.19686419 28.921082 7.7495604 6
-0.018817214 3.3690968 -0.90276086 20
-0.054844648 10.136308 0.1769325 31
-0.01961175 3.7454274 -0.86471182 16
-0.06106025 12.063291 0.63221842 21
-0.021444466 4.2366486 -0.82353163 12
-0.11939452 24.430389 2.1374075 18
-0.022704814 4.8178906 -0.76308739 13
-0.10966841 24.166265 2.9672751 17
-0.024591342 5.6356235 -0.69197422 10
-0.10031581 23.947283 3.7929103 32
-0.028376739 6.774065 -0.59265906 7
-0.095105141 23.690399 4.6049843 19
-0.029626783 7.7153549 -0.40434763 5
-0.030694352 8.7926083 -0.15347646 33
-0.10213021 30.795479 8.2516689 7
-0.0070639504 3.3730056 -0.90379614 23
-0.019464126 10.136437 0.1769325 27
-0.0065366514 3.7454729 -0.86471182 16
-0.018847534 11.999517 0.62886894 21
-0.0066298735 4.2209916 -0.82047874 12
-0.034073651 24.396788 2.1344442 18
-0.0058761626 4.810039 -0.76183593 12
-0.025288666 24.15062 2.9653251 17
-0.004913446 5.6277347 -0.69099921 10
-0.016684115 23.90008 3.7854018 16
-0.0047302553 6.7761154 -0.59283334 9
-0.012393055 23.670956 4.6011682 19
-0.0026952154 7.7114172 -0.4041383 2
1.0449374e-07 8.7626657 -0.15295289 30
0.0050797774 29.184483 7.8199587 6
0.0046931864 3.361419 -0.90069032 24
0.015877491 10.108449 0.17644383 31
0.0065435432 3.7493706 -0.86561167 18
0.020893205 11.971553 0.6274035 21
0.0080844453 4.2111735 -0.81857067 12
0.051056184 24.378826 2.1328754 9
0.010921993 4.8139806 -0.76246166 15
0.059032053 24.160486 2.9665437 17
0.014722149 5.6237478 -0.69051176 8
0.062566712 23.900003 3.7854018 16
0.01886577 6.7561669 -0.59109026 11
0.070217445 23.666927 4.6004052 19
0.024092965 7.6694369 -0.40194017 2
0.028976828 8.7386217 -0.15253404 30
0.10237954 29.331127 7.8592992 6
0.016399272 3.3555865 -0.89913744 22
0.049225114 10.072346 0.17581554 27
0.018958177 3.7454307 -0.86471182 18
0.062532678 11.943446 0.62593812 22
0.022827743 4.2189717 -0.82009715 13
0.085918099 15.382998 1.3458589 9
0.026776673 4.7941647 -0.75933295 13
0.13904306 24.142294 2.9643502 17
0.033372644 5.6236682 -0.69051176 8
0.14585447 23.875935 3.7816472 16
0.042309958 6.7341437 -0.58917278 7
0.14854667 23.643005 4.5958257 19
0.04954062 7.6713119 -0.40204483 3
0.059301354 8.712471 -0.15208028 33
0.05557948 7.9609671 2.1331868 34
0.027589422 3.3632407 -0.90120792 25
0.083907902 10.016123 0.17483822 30
0.031964604 3.7375469 -0.86291224 16
0.10391216 11.907205 0.62405401 22
0.036783122 4.2149463 -0.81933385 13
0.13603243 15.283014 1.3371434 18
0.043402694 4.7821903 -0.75745571 12
0.22300881 24.107914 2.9602065 25
0.052926689 5.6155772 -0.68953681 10
0.22922906 23.87923 3.7822731 16
0.065740153 6.725986 -0.58847558 7
0.23096642 23.630564 4.5935359 18
0.075942717 7.6331468 -0.40005609 6
0.080996387 8.0011177 1.8472981 15
0.089447834 8.6862173 -0.15162651 27
0.083066761 7.9317489 2.1254222 100
0.039892461 3.3611853 -0.90069032 24
0.11868301 9.999773 0.17455898 30
0.044847604 3.7237725 -0.85976297 18
0.14498492 11.866828 0.62196058 22
0.052254818 4.2167463 -0.81971544 15
0.19063066 15.168856 1.3272076 20
0.061004452 4.7879248 -0.75839436 10
0.30700299 24.095079 2.9587443 17
0.072270833 5.5955086 -0.68709946 10
0.089137122 6.7197385 -0.58795261 11
0.10756276 8.0034657 1.5558566 2
0.10375427 7.6208348 -0.39942807 2
0.11002789 7.9793324 1.8423492 84
0.1194393 8.6618567 -0.15120766 30
0.11082869 7.9372053 2.1269751 100
0.051685177 3.3648887 -0.90172559 23
0.15458554 9.9512835 0.17372125 30
0.058556009 3.7274802 -0.86066276 19
0.18565725 11.818321 0.61944842 20
0.06678775 4.204761 -0.81742579 12
0.24049725 14.976852 1.3104737 20
0.077814519 4.7936082 -0.75933295 12
0.3954502 24.101732 2.9597192 17
0.092646033 5.5872669 -0.68612444 10
0.13204993 7.9636245 1.2614876 36
0.11246112 6.7114182 -0.58725542 11
0.1352689 7.9893007 1.5531853 89
0.12990601 7.5944653 -0.39806733 5
0.13781127 7.9750032 1.8414494 100
0.14908491 8.6273985 -0.15061426 30
0.13867101 7.9444962 2.1290457 100
0.06332057 3.3588934 -0.90017265 27
0.18690866 9.9147282 0.17309296 30
0.070841566 3.7233686 -0.85976297 18
0.22606935 11.773669 0.61714566 20
0.081159547 4.1887984 -0.81437284 12
0.29071474 14.870346 1.3012352 21
0.093477637 4.7814736 -0.75745571 13
0.15984289 8.1035557 0.99518514 1
0.11117511 5.5869288 -0.68612444 10
0.15973054 7.95719 1.2605491 42
0.13556676 6.6950488 -0.58586085 11
0.16220105 8.0103998 1.5573832 100
0.15505077 7.5919962 -0.39796266 2
0.16405433 7.9647608 1.8391999 89
0.17820485 8.5788431 -0.14977656 33
0.16575263 7.9130607 2.1207633 68
0.074286781 3.3509395 -0.89810216 25
0.22062564 9.874032 0.17239487 29
0.083839111 3.7230988 -0.85976297 18
0.26588896 11.716901 0.61421484 20
0.095226981 4.1963573 -0.81589925 12
0.33838934 14.797593 1.29496 6
0.10953172 4.7534704 -0.7530756 15
0.18720154 8.0632582 0.99031037 22
0.13049226 5.5785689 -0.68514949 8
0.18857788 8.0020046 1.267745 45
0.15720297 6.6706605 -0.58376914 9
0.18973669 7.9921198 1.5539485 100
0.18112309 7.5734382 -0.39702061 2
0.19242084 7.9875178 1.8445988 36
0.20780405 8.5641756 -0.14953223 33
0.085785948 3.3429348 -0.89603156 25
0.25415933 9.8372183 0.17176658 29
0.096428484 3.7071986 -0.85616374 19
0.21398973 8.1719809 0.42842221 1
0.10997833 4.1999249 -0.81666255 12
0.21315815 8.0862932 0.70770466 86
0.12622756 4.7570086 -0.75370133 12
0.21492457 8.0466805 0.98836046 32
0.14985907 5.57411 -0.68466198 8
0.21720186 8.026968 1.2718123 57
0.18048556 6.6700711 -0.58376914 11
0.21747503 7.9855218 1.5528038 71
0.20679413 7.5448089 -0.3955552 5
0.23731121 8.5494051 -0.14928789 30
0.78974903 28.273214 7.5787396 6
0.097678937 3.3503392 -0.89810216 25
0.28825954 9.8282776 0.17162697 12
0.10931195 3.7048914 -0.85571378 21
0.24061622 8.1072998 0.4250727 23
0.12452076 4.1955905 -0.81589925 13
0.24138157 8.0854998 0.70770466 100
0.14312957 4.7664108 -0.75526565 10
0.24282992 8.0399284 0.98762923 31
0.16882943 5.5576797 -0.68271214 8
0.24534272 8.0301113 1.2724382 27
0.20389082 6.6733832 -0.58411777 9
0.23263046 7.5280704 -0.39471781 4
0.26528114 8.4885626 -0.14824075 24
0.96428138 30.683907 8.2257872 7
0.10943714 3.3519084 -0.89861977 28
0.26700217 8.1343794 0.14206259 36
0.12224298 3.7044876 -0.85571378 21
0.26845315 8.0924368 0.42433998 30
0.1380599 4.1617732 -0.80941176 13
0.2696723 8.0865984 0.70787895 100
0.15910374 4.7461395 -0.75213701 10
0.27183113 8.0668068 0.99104154 16
0.18809539 5.5530887 -0.68222463 8
0.80868268 23.751995 3.7641263 16
0.22643688 6.6507273 -0.58220035 14
0.25877163 7.5232205 -0.39450848 4
0.28421474 8.1798182 -0.1428654 24
1.0801405 30.931341 8.2930794 7
0.12064926 3.337992 -0.89499629 27
0.29524797 8.1294022 0.14199278 54
0.13517253 3.7040384 -0.85571378 21
0.29572257 8.1034784 0.42496803 31
0.15251552 4.1593041 -0.80903018 13
0.29877672 8.1095009 0.70997071 72
0.17574199 4.74753 -0.75244987 12
0.8934775 24.02286 2.9516757 17
0.20658438 5.5544181 -0.68246841 8
1.3570106 36.315662 5.7558503 44
0.24920098 6.6379509 -0.58115447 14
0.2841219 7.4983215 -0.3932524 4
0.3096672 8.1348686 -0.14209749 51
1.3321326 34.834801 9.3407793 9
0.1313346 3.3279216 -0.89240813 29
0.32173142 8.1163893 0.14178336 51
0.14753337 3.7055168 -0.85616374 19
0.32362825 8.128397 0.42632878 13
0.16638505 4.160737 -0.80941176 13
0.56674308 14.11068 1.2355198 22
0.19068949 4.7271829 -0.74932122 13
0.22443874 5.5398183 -0.68076223 8
0.26934269 6.591301 -0.57714534 11
0.3080008 7.4733911 -0.39199635 5
0.33688816 8.1397915 -0.14220221 54
1.2393742 29.819433 7.9969912 7
0.14228801 3.3255377 -0.89189047 27
0.34872878 8.1172752 0.14181826 36
0.15931585 3.6933258 -0.85346431 18
0.49675527 11.469493 0.60165417 25
0.18026578 4.1621242 -0.80979347 15
0.60868257 13.997255 1.2257584 26
0.20601875 4.7186308 -0.7480697 15
0.24359922 5.5350351 -0.68027472 10
0.29076087 6.5804195 -0.5762738 9
0.33215827 7.4583616 -0.39126363 9
0.36592913 8.1525497 -0.14244655 51
0.15416428 3.3308103 -0.89344335 28
0.44796577 9.6421289 0.16848554 24
0.17157078 3.6791208 -0.85031497 16
0.53557724 11.441752 0.60029346 25
0.19488609 4.1634307 -0.81017506 13
0.65305382 13.899515 1.2173914 26
0.2223015 4.7139368 -0.74744397 13
1.7122291 36.173538 4.4465251 15
0.26216647 5.5182881 -0.67832482 10
1.7131974 35.928814 5.697031 43
0.3136296 6.577374 -0.57609946 11
0.35665956 7.4252372 -0.38958889 2
0.39998791 8.2670689 -0.14447103 27
1.4327186 29.505178 7.915204 6
0.16578934 3.3302519 -0.89344335 28
0.48082015 9.6245298 0.16820629 28
0.18460838 3.6823921 -0.85121477 16
0.57280666 11.385955 0.5974673 21
0.20974767 4.1548452 -0.80864859 13
0.69965667 13.859344 1.2140795 22
0.23895599 4.7170773 -0.7480697 12
1.619204 31.853352 3.9161499 13
0.28041491 5.4975142 -0.67588747 10
0.33692205 6.5602617 -0.57470495 9
1.8548446 35.993668 7.005744 19
0.38438606 7.4338536 -0.39011225 2
0.4300884 8.2895861 -0.14488988 27
1.0534247 20.235792 5.4295058 3
0.17758256 3.3219056 -0.89137286 24
0.51534534 9.6087246 0.16796197 33
0.19820769 3.6836364 -0.85166472 18
0.61367059 11.367825 0.59662998 21
0.22423239 4.1403255 -0.80597723 12
0.74592721 13.773129 1.2067584 28
0.25624231 4.7161698 -0.7480697 12
1.7409046 31.938383 3.9273617 13
0.29969671 5.4805923 -0.6739375 10
0.35964912 6.5351105 -0.57261318 9
1.9874139 35.998383 7.0080328 20
0.40964028 7.3964992 -0.38822815 2
0.45935726 8.2679882 -0.14454083 27
1.0889972 19.539333 5.2436738 13
0.18942545 3.3154464 -0.88981992 27
0.54781157 9.558857 0.16712424 33
0.21204577 3.6887219 -0.85301441 18
0.65348965 11.333596 0.59495521 19
0.23924765 4.1493177 -0.80788535 13
0.78811753 13.62709 1.1942079 28
0.27261445 4.6994224 -0.74556679 13
1.859099 31.951605 3.9297993 13
0.32035911 5.4893656 -0.67515624 11
1.8643452 31.849794 5.0531468 29
0.3809469 6.5079584 -0.57034713 6
1.8401179 31.342394 6.1028352 17
0.43616277 7.4069867 -0.3888562 2
0.48788238 8.2363062 -0.14401726 27
1.8298082 30.799295 8.2671986 7
0.20076439 3.3109081 -0.88878465 25
0.57923079 9.524951 0.16656578 32
0.2237317 3.6685078 -0.84851533 16
0.69207484 11.315297 0.59411782 21
0.25337157 4.1425791 -0.80674046 16
0.83409148 13.598403 1.1919419 30
0.28828591 4.6866126 -0.74368954 15
2.019273 32.733482 4.0268068 13
0.33866212 5.4743452 -0.67345005 10
0.40390387 6.5105662 -0.57069582 6
0.46027622 7.377512 -0.38739079 2
0.51575512 8.220582 -0.14377292 30
1.9111139 30.376266 8.1553888 7
0.21293639 3.3198268 -0.89137286 24
0.61132294 9.5049105 0.16625161 28
0.2359097 3.6579812 -0.84626585 15
0.72779214 11.285037 0.59265244 23
0.26808086 4.1455874 -0.80750376 19
0.87910789 13.557632 1.18863 33
0.30426028 4.6796641 -0.74275094 16
2.0795197 31.89823 3.9249244 13
0.35629353 5.4652681 -0.6724751 10
0.42571712 6.4952002 -0.56947559 9
0.48536751 7.3658953 -0.3868674 2
0.54353845 8.2268085 -0.14391254 30
2.0488744 30.92877 8.3055029 7
0.22407511 3.3210294 -0.89189047 23
0.64054269 9.468914 0.16565825 32
0.24843532 3.6630116 -0.84761554 15
0.76278102 11.246693 0.59076834 23
0.28102869 4.1329236 -0.80521399 19
0.91809654 13.46718 1.1809603 28
0.32045171 4.6884828 -0.74431533 16
2.1676536 31.633699 3.8932383 13
0.37360233 5.4521742 -0.67101264 10
0.44752923 6.4977279 -0.56982422 11
0.50882411 7.3502984 -0.38613471 1
0.56846529 8.1910486 -0.14331917 36
2.14202 30.786903 8.269269 7
0.23372176 3.3009982 -0.8867141 24
0.67038441 9.4447966 0.16527429 28
0.26085684 3.666055 -0.84851533 20
0.79709315 11.202265 0.58857024 25
0.29417282 4.124136 -0.80368757 20
0.95635933 13.374634 1.1731163 26
0.3348667 4.6716318 -0.74181229 16
2.2355602 31.11154 3.8298662 13
0.39111277 5.4429851 -0.67003769 10
0.46735087 6.472362 -0.56773251 9
0.53146338 7.3246665 -0.38487867 2
0.5953328 8.1851282 -0.14324935 36
2.2019668 30.201612 8.1139774 7
0.24452507 3.2982783 -0.88619649 25
0.6984387 9.3986492 0.16450639 28
0.27257749 3.6593401 -0.8471657 18
0.83289939 11.181636 0.58762819 21
0.30726373 4.1153059 -0.80216104 20
0.99460679 13.289927 1.1659695 31
0.34976676 4.6626163 -0.74056083 13
2.3268042 30.945595 3.8103671 13
0.40975448 5.4495764 -0.67101264 8
0.48761252 6.4548821 -0.566338 11
0.55423695 7.3029475 -0.38383192 3
0.62247467 8.1831083 -0.14324935 33
1.5795275 20.716938 5.5671978 3
0.2566115 3.2973599 -0.88619649 25
0.73101819 9.3721027 0.16408752 28
0.28477371 3.6427739 -0.84356648 18
0.87138879 11.146647 0.58595341 23
0.32249749 4.1161094 -0.80254269 22
1.0384783 13.224618 1.1605659 24
0.36592278 4.6494875 -0.73868364 13
2.4670508 31.277239 3.8522902 13
0.42973897 5.436089 -0.66955024 10
2.4784813 31.352161 4.9811869 28
0.51158082 6.4570241 -0.56668663 13
0.57941735 7.2809577 -0.3827852 4
0.65341514 8.1927328 -0.14345878 33
1.6428318 20.553101 5.5247517 3
0.26780751 3.292593 -0.88516116 27
0.75917321 9.3337498 0.16345924 27
0.29653466 3.6379251 -0.84266669 13
0.90801364 11.115669 0.58448797 21
0.33750525 4.1227856 -0.80406916 17
1.07893 13.151413 1.154465 26
0.38117665 4.6462803 -0.73837078 16
1.6960055 20.628956 2.5414634 6
0.44645825 5.4188075 -0.66760033 10
2.6252849 31.796116 5.0531468 29
0.53263694 6.4373288 -0.56511784 6
0.60240197 7.2650633 -0.38205251 3
0.68084592 8.1764536 -0.14321445 36
0.27921459 3.297462 -0.8867141 24
0.7898922 9.3091259 0.1630753 31
0.30890059 3.6329842 -0.84176683 12
0.9424035 11.060691 0.58176655 23
0.34867612 4.0923009 -0.79834485 16
1.1186411 13.102103 1.1504558 31
0.39756021 4.6468892 -0.73868364 15
2.672446 31.172695 3.8415658 26
0.46367306 5.3974376 -0.66516292 10
0.55483413 6.4454527 -0.56598938 9
0.62380427 7.2171502 -0.37964505 3
0.70748323 8.1521111 -0.14283049 33
1.8108821 20.824045 5.6008444 11
0.28902534 3.2772233 -0.88153768 28
0.81974 9.276433 0.16255172 27
0.32244053 3.6415894 -0.84401631 14
0.97782737 11.021524 0.57988244 22
0.36313143 4.0930147 -0.7987265 16
1.1611909 13.062397 1.1473181 33
0.41413024 4.6494083 -0.73930937 17
2.7782362 31.129564 3.8374221 26
0.48286334 5.3997412 -0.66565043 8
0.57466424 6.4137096 -0.5633747 13
0.64970732 7.2228861 -0.38006377 6
0.73395514 8.1276855 -0.14244655 36
2.0198617 22.324085 6.006155 8
0.2997568 3.2684994 -0.87946719 28
0.85010552 9.2516108 0.16216777 31
0.33425608 3.6307392 -0.84176683 16
1.0140901 10.994179 0.57862639 20
0.37849757 4.1034522 -0.80101627 16
1.2016499 13.002713 1.1424375 28
0.42835504 4.6262975 -0.7358678 16
2.8830245 31.078169 3.8323038 13
0.50097561 5.3901162 -0.66467547 10
0.59761113 6.4056091 -0.56285179 13
4.1974235 44.990887 8.7833204 42
0.67398846 7.2106309 -0.37954038 4
0.7625066 8.1270647 -0.14248145 36
2.0012355 21.289816 5.7297363 4
0.3124676 3.2750714 -0.88153768 28
0.88162839 9.2406244 0.16202815 31
0.34581611 3.6179109 -0.83906746 16
1.048656 10.950808 0.57653296 20
0.39278409 4.0942202 -0.79948968 16
1.2430059 12.932775 1.1366851 29
0.4441714 4.6128988 -0.73399061 16
2.973233 30.878223 3.8089049 26
0.51978385 5.3883348 -0.66467547 10
0.61939293 6.3975344 -0.56232882 15
0.69867218 7.1902213 -0.37859833 6
0.78951675 8.1104221 -0.14223711 36
2.048543 21.005827 5.6551962 3
0.32408893 3.275883 -0.88205534 27
0.91273677 9.2094717 0.16153948 31
0.35868821 3.6127405 -0.83816761 16
1.0833207 10.911306 0.57464886 20
0.40687999 4.0908704 -0.79910809 19
1.2822194 12.868879 1.1314558 29
0.46144691 4.6231141 -0.7358678 16
0.53755504 5.3666406 -0.66223812 10
0.64132148 6.3913689 -0.56198025 13
4.4933448 44.701847 8.7329464 41
0.72256768 7.1758146 -0.37797031 6
0.81581384 8.0877209 -0.14188807 36
2.1064968 20.846706 5.6143031 7
0.33591658 3.2785752 -0.88309062 27
0.94163907 9.1904802 0.16126025 31
0.36986998 3.6037772 -0.83636802 18
1.1169108 10.863749 0.57234609 18
0.4207561 4.0855188 -0.79834485 19
1.3224212 12.818745 1.1274467 24
0.47677422 4.6215587 -0.7358678 16
3.2548444 31.496479 3.8878763 13
0.55493867 5.3608799 -0.66175061 10
0.66177678 6.3712554 -0.56041139 11
0.74470466 7.1574874 -0.37713292 6
0.84258902 8.0709009 -0.14164373 36
2.0633228 19.730593 5.3156257 3
0.34536487 3.2639954 -0.87946719 24
0.97034001 9.1553202 0.16070175 33
0.38368258 3.6140912 -0.83906746 15
1.1522942 10.835951 0.57109004 22
0.43264219 4.0684834 -0.79529196 20
1.358595 12.754851 1.1222173 24
0.49227616 4.6139741 -0.73492926 16
3.4622326 32.396843 4.000483 13
0.57322448 5.3549619 -0.66126311 10
0.68268734 6.3670454 -0.56023711 13
2.2541134 20.988213 4.103157 6
0.7679739 7.138958 -0.37629557 6
2.2457545 20.841957 4.8395972 5
0.86861295 8.0480289 -0.14129469 36
3.899132 36.068096 9.720726 10
0.3557041 3.2531681 -0.87687898 22
1.0018592 9.1479015 0.16063195 30
0.39587 3.6088557 -0.83816761 16
1.1857417 10.792157 0.56899661 18
0.44748166 4.072803 -0.79643679 23
1.3974465 12.69854 1.1176852 32
0.50708157 4.6004457 -0.73305202 16
3.5334516 32.005726 3.9536855 13
0.59082389 5.3430638 -0.66004443 11
2.315212 20.904018 3.3311157 13
0.7031554 6.3487806 -0.5588426 13
2.324101 20.950949 4.0974326 27
0.79178798 7.1263084 -0.37577221 10
2.2439237 20.163862 4.6839309 4
0.89713806 8.0489235 -0.1413645 36
2.2764645 20.39152 5.4978342 7
0.36727515 3.2538264 -0.87739658 24
1.0292906 9.1046085 0.15993385 30
0.40824658 3.6055155 -0.83771771 15
1.2211584 10.768106 0.56794983 22
0.46147555 4.0692654 -0.7960552 19
1.4379389 12.659931 1.114722 27
0.52179641 4.5868716 -0.73117477 16
2.4013424 21.07634 2.6045918 40
0.60901976 5.3370237 -0.65955693 12
2.3892837 20.905622 3.3326802 27
0.72327507 6.3284721 -0.55727381 9
2.380703 20.79837 4.0691929 6
0.81393069 7.0996895 -0.37451613 10
2.3227379 20.229475 4.7010269 24
0.92431688 8.037796 -0.14122486 36
2.3456464 20.366177 5.4931755 11
0.37840682 3.2506056 -0.87687898 21
1.060137 9.0930147 0.15979423 30
0.41879654 3.586648 -0.83366859 15
1.2531688 10.716169 0.56543773 18
0.47453612 4.0578804 -0.79414707 22
1.4807283 12.642962 1.1136761 27
0.53872615 4.5928698 -0.73242623 16
2.4843888 21.148661 2.6145852 6
0.62625295 5.3230367 -0.65809447 12
0.74652845 6.3358021 -0.55814534 9
2.4217641 20.522821 4.0169115 18
0.83589059 7.0730047 -0.37326008 9
0.94954216 8.0106916 -0.14080602 33
2.3452106 19.755495 5.330637 7
0.39159274 3.2646096 -0.88102001 27
1.0909196 9.0813169 0.15965462 30
0.43177852 3.5890341 -0.83456844 18
1.2867479 10.680002 0.56376296 18
0.48846614 4.048317 -0.7926206 22
1.5198429 12.596177 1.1100155 26
0.55428004 4.5870395 -0.73180056 16
0.64292085 5.3050532 -0.65614462 12
0.76709962 6.3112679 -0.55622798 9
5.5295873 45.428162 8.8955164 44
0.86374402 7.0857534 -0.37409744 9
2.4341984 19.96903 4.6443396 4
0.97362393 7.9755688 -0.14024754 33
2.4279828 19.860325 5.3611779 3
0.4014208 3.2458971 -0.87636131 27
1.1197709 9.0415363 0.15902632 30
0.44637012 3.5990305 -0.83726782 15
1.3278505 10.691071 0.56460035 20
0.50160354 4.0328622 -0.7899493 19
1.5608327 12.549001 1.106355 27
0.57108986 4.5849771 -0.73180056 13
0.66383815 5.3144794 -0.65760702 12
0.78725338 6.2846904 -0.55413622 11
0.88921273 7.0785766 -0.37388811 9
0.99885416 7.9402018 -0.13968907 36
2.5200801 20.004627 5.4025888 7
0.41258183 3.2386553 -0.87480837 23
1.1473374 8.9937315 0.15825842 33
0.4593105 3.5954375 -0.83681792 14
1.3616207 10.658633 0.56313491 18
0.51642627 4.0369287 -0.79109418 16
1.5999846 12.489837 1.1016486 24
0.58411968 4.5534635 -0.72710747 16
0.68187809 5.3081918 -0.65711957 12
0.80715156 6.2660956 -0.55274171 11
0.91033262 7.0476985 -0.3724227 7
1.0265666 7.936667 -0.13968907 36
2.5194166 19.451611 5.2555799 6
0.42306975 3.2353537 -0.87429082 25
1.1758555 8.9799643 0.1580839 30
0.46920508 3.5784369 -0.83321869 15
1.3922879 10.618414 0.56125087 18
0.52980953 4.0351939 -0.79109418 17
1.63334 12.423226 1.0962449 27
0.6005066 4.5612926 -0.72867179 16
0.69843811 5.2980294 -0.65614462 12
0.82818907 6.2653594 -0.55291605 13
0.93133545 7.0268216 -0.37148067 9
1.0507773 7.9173598 -0.13940983 34
2.7238848 20.496403 5.5402803 3
0.43456608 3.239677 -0.87584364 28
1.2045653 8.9680872 0.15794428 30
0.48054883 3.5729988 -0.8323189 15
1.4216329 10.57019 0.55894804 20
0.54266286 4.0295234 -0.79033089 17
1.668141 12.370354 1.0920614 27
0.61642122 4.5651493 -0.72961038 16
0.71586359 5.2876906 -0.65516967 11
0.84815699 6.2566557 -0.55239308 11
0.95006126 6.9900498 -0.36970121 7
1.074598 7.895999 -0.13909568 34
2.7811301 20.408779 5.5190578 11
0.4463999 3.2419677 -0.87687898 28
1.2299318 8.9323473 0.15738581 29
0.49212945 3.5694547 -0.83186901 14
1.4541489 10.533508 0.55727333 20
0.55484462 4.0139914 -0.78765959 20
1.7033932 12.30722 1.0870063 22
0.62966198 4.5493832 -0.72742033 16
0.73066485 5.2656255 -0.65273225 12
0.8677941 6.2378707 -0.55099863 10
0.97295904 6.9848833 -0.36959657 9
1.0980034 7.862493 -0.13857211 34
2.8237331 20.194229 5.4636703 7
0.45364088 3.2156017 -0.87014967 25
1.2566313 8.8963184 0.15682732 32
0.50485665 3.5696452 -0.8323189 16
1.4886713 10.512548 0.55643594 20
0.5680269 4.0061984 -0.7865147 17
1.7346836 12.234433 1.0810798 22
0.64581299 4.5491142 -0.72773325 16
0.75016105 5.2709041 -0.65370721 13
0.88872045 6.2288857 -0.55047566 12
0.9971379 6.971385 -0.36907321 7
1.1223255 7.8368368 -0.13818815 37
3.2161267 22.429281 6.0713773 4
0.46486917 3.2100937 -0.8691144 25
1.2854973 8.8659258 0.15637356 32
0.51737595 3.5639138 -0.83141905 16
1.5266148 10.503068 0.55622661 18
0.58327115 4.0079756 -0.787278 24
1.7780763 12.218137 1.0802083 25
0.66077638 4.5349874 -0.72585601 16
0.7688998 5.2641902 -0.6532197 12
3.5807276 24.485106 3.9193096 17
0.9109658 6.2216439 -0.55012703 12
3.5743551 24.382168 4.7900696 31
1.0223975 6.9657059 -0.36896852 9
3.5665982 24.299622 5.6701164 7
1.1490046 7.8188224 -0.13794382 31
1.0674717 7.2551999 1.9649543 35
0.47776642 3.216012 -0.87118495 25
1.3159226 8.8473091 0.15612923 29
0.52986342 3.5581384 -0.83051926 16
1.5573872 10.458165 0.55413318 20
0.59696764 4.003973 -0.78689629 19
1.8175488 12.176067 1.0770707 25
0.6753487 4.5188599 -0.72366595 16
3.6684413 24.516903 3.0438089 27
0.78701127 5.2534842 -0.65224481 12
3.6626458 24.449017 3.915555 34
0.93356609 6.2243371 -0.55065 10
1.0816251 7.2029157 1.4158028 7
1.0452167 6.9522204 -0.36844519 7
1.0984588 7.2976713 1.7037793 22
1.1751019 7.8068542 -0.1378042 34
1.0916411 7.2437887 1.9628838 77
0.48928091 3.2162347 -0.87170261 29
1.3452564 8.8428965 0.15612923 29
0.54019189 3.5467291 -0.82826978 15
1.5890591 10.421076 0.55245841 18
0.61153418 4.0057464 -0.78765959 19
1.8591402 12.163739 1.0765477 27
0.68913525 4.5087843 -0.72241443 16
2.5940025 16.951891 2.1056585 4
0.80142355 5.2312236 -0.64980739 11
1.1119636 7.249794 1.1616825 2
0.95105243 6.19347 -0.54820961 12
1.1084831 7.2186947 1.4196191 72
1.0667499 6.9388456 -0.3679218 4
1.1217618 7.2882104 1.7024295 82
1.1986895 7.7789884 -0.13738534 31
1.1189802 7.2532988 1.9665072 100
0.50113046 3.22223 -0.87377316 28
1.3711959 8.8065338 0.15557076 29
0.55376875 3.5525239 -0.83006936 14
1.6180737 10.380227 0.5505743 20
0.6217863 3.9842989 -0.7838434 20
1.8911657 12.104358 1.0718412 27
0.70547932 4.5102549 -0.72304016 16
3.1715648 20.253227 2.5170896 6
0.81906545 5.2244711 -0.64931989 11
1.1329411 7.2265511 1.1585537 30
0.9709664 6.1863456 -0.54786098 8
1.1489103 7.3117547 1.4387 100
1.0897249 6.9271879 -0.36750311 6
1.1459814 7.2765508 1.7006299 100
1.2201221 7.7473164 -0.13689667 34
1.1442291 7.2571816 1.9685777 100
0.50903702 3.1994743 -0.86807907 25
1.3978765 8.7861395 0.15529151 29
0.5652408 3.5487435 -0.82961947 16
1.6511555 10.354793 0.54952765 16
0.63445342 3.974349 -0.78231698 15
1.9261719 12.052432 1.0678321 22
0.72012138 4.5059395 -0.72272736 16
1.181706 7.3858919 0.91840744 9
0.83512908 5.2138863 -0.64834493 11
1.1731708 7.3161745 1.1735715 49
0.99034595 6.1691484 -0.54664081 12
1.1715968 7.2982116 1.4367918 100
1.1095197 6.9038162 -0.36645639 6
1.170107 7.2727098 1.7006299 87
1.2439799 7.7232666 -0.13654763 34
1.1686336 7.2474208 1.9670248 82
0.5177843 3.1863279 -0.86497331 27
1.423077 8.747653 0.15469813 29
0.57762408 3.5467489 -0.82961947 18
1.6827886 10.321368 0.54806215 7
0.64762855 3.9722233 -0.78231698 15
1.2051589 7.3837166 0.65453959 54
0.73393345 4.4917016 -0.72085011 16
1.2029959 7.3542953 0.91499513 9
0.85332274 5.2109394 -0.64834493 11
1.1980611 7.3081365 1.1729457 57
1.0099399 6.1538572 -0.54559493 12
1.1961132 7.2882657 1.4356469 100
1.1332866 6.8979306 -0.36635172 3
1.1986476 7.2878103 1.705129 47
1.2631366 7.6715226 -0.13570991 31
0.52977693 3.1863143 -0.86549091 24
1.447046 8.7031794 0.15400003 24
