# .PCD v0.7 - Point Cloud Data file format
VERSION 0.7
FIELDS x y z intensity
SIZE 4 4 4 4
TYPE F F F F
COUNT 1 1 1 1
WIDTH 1315
HEIGHT 1
VIEWPOINT 0 0 0 1 0 0 0
POINTS 1315
DATA ascii
-2.3289742 -14.572852 2.8686225 21
-3.0433664 -19.021643 -1.0095607 19
-2.3171151 -14.466232 3.382364 42
-3.048979 -19.014162 -0.33613333 47
-3.0442753 -18.963673 5.146358 6
-1.1079446 -6.8482332 -1.8588384 7
-3.0861945 -19.054754 0.33693618 51
-1.3614551 -8.3965921 -1.9638227 10
-3.0996397 -19.095518 1.0138522 41
-1.3711841 -8.4472628 -1.6634729 2
-2.9250731 -18.000225 1.5954731 60
-2.2837448 -14.038165 -2.2526565 3
-2.4860208 -15.264742 1.8989682 23
-1.62718 -9.9802828 -1.241605 15
-2.4368336 -14.929874 2.3959506 6
-1.6416495 -10.05798 -0.89160323 8
-2.3769801 -14.547196 2.8651881 21
-3.1249022 -19.10354 -1.0144802 19
-2.3783038 -14.523444 3.3976607 38
-3.1295648 -19.090231 -0.33766916 47
-3.1242206 -19.036808 5.1691341 6
-1.1343644 -6.8595724 -1.8629795 7
-3.1670625 -19.130669 0.33847198 52
-1.3894811 -8.3840981 -1.962023 10
-3.1746995 -19.156067 1.0176204 46
-1.4019479 -8.4501724 -1.6649995 2
-2.9849498 -17.972214 1.5939041 63
-2.3586514 -14.185998 -2.2776861 3
-2.5132158 -15.09932 1.8794692 6
-1.6225296 -9.7376127 -1.2121125 13
-2.4980183 -14.991858 2.4072137 14
-1.6528187 -9.9087257 -0.87887847 14
-2.4306552 -14.556238 2.8686225 34
-3.2044082 -19.169346 -1.0185626 20
-2.4402449 -14.582323 3.4134073 35
-3.2093582 -19.178362 -0.33941442 48
-3.2032895 -19.121609 5.1950159 6
-1.1615205 -6.8746195 -1.868156 7
-3.2468071 -19.216677 0.3401823 43
-1.4124017 -8.3506222 -1.9552746 11
-3.257221 -19.237421 1.02254 47
-1.4307787 -8.4413548 -1.6642361 2
-3.0419991 -17.928293 1.590941 60
-1.5299867 -9.0171137 -1.4485832 11
-2.5646031 -15.09873 1.880444 22
-1.6338484 -9.6088867 -1.1967571 15
-3.11781 -18.31694 2.9428453 10
-1.678026 -9.8479013 -0.87399781 8
-2.4911144 -14.619707 2.8827424 36
-3.2847502 -19.257053 -1.0237961 30
-2.4990816 -14.635622 3.4278042 41
-3.2904329 -19.249828 -0.34088042 48
-3.2876122 -19.213139 5.2229686 6
-1.183655 -6.8669224 -1.8671206 7
-3.3308678 -19.303755 0.34192756 44
-1.4405463 -8.3398809 -1.9539249 9
-3.3413653 -19.324337 1.0277736 47
-1.4527428 -8.401742 -1.6573671 2
-3.0946391 -17.878843 1.5874547 60
-1.5584184 -8.9942026 -1.4457675 13
-2.6291642 -15.158143 1.888975 19
-1.6942064 -9.757637 -1.2160125 2
-1.7427449 -10.026801 -0.89038306 2
-2.5552547 -14.686356 2.8976257 44
-3.3673692 -19.334013 -1.0285063 30
-2.5632098 -14.701679 3.4453504 38
-3.3741105 -19.332783 -0.34255582 48
-3.3726125 -19.304306 5.2509208 6
-1.2106304 -6.8798723 -1.8717794 9
-3.4107189 -19.362907 0.34318414 45
-1.4679585 -8.3252048 -1.9516754 8
-3.4258089 -19.408932 1.0329025 42
-1.483767 -8.4062872 -1.6592751 2
-3.14975 -17.826731 1.5837941 57
-1.5959973 -9.0237207 -1.4513992 9
-2.9225807 -16.507385 2.0583735 4
-1.7008899 -9.5972471 -1.1967571 18
-2.7011101 -15.225509 2.4491384 7
-1.7540677 -9.8872576 -0.87852991 5
-2.617146 -14.73727 2.9094558 38
-3.4530156 -19.424397 -1.0339493 10
-2.6278265 -14.767468 3.4628966 35
-3.4563031 -19.403572 -0.34402186 49
-3.4555767 -19.379904 5.2747326 6
-1.2356637 -6.881309 -1.8733324 9
-3.494559 -19.44142 0.34478974 45
-1.492523 -8.2950983 -1.9458266 9
-3.510534 -19.491205 1.0379268 43
-1.5103186 -8.3855982 -1.6562221 2
-3.2084229 -17.796019 1.5820509 51
-1.7523798 -9.7101498 -1.5627805 14
-2.8002093 -15.500811 1.9340667 3
-1.7025894 -9.4154434 -1.1748205 18
-2.7616277 -15.256806 2.4557085 14
-1.7662116 -9.7575598 -0.86754823 8
-2.6832743 -14.80918 2.9254837 41
-1.8003193 -9.9262142 -0.52869785 8
-2.6922402 -14.829148 3.4795427 38
-3.5447493 -19.505503 -0.34604633 49
-3.5397985 -19.458956 5.2995791 7
-1.2645488 -6.9035568 -1.8805792 7
-3.5818758 -19.535315 0.34667459 45
-1.5183042 -8.2725859 -1.9417773 8
-3.5958707 -19.573124 1.0429511 43
-1.5356777 -8.3590355 -1.6520243 2
-3.2640352 -17.749439 1.5789135 54
-1.8027154 -9.7933397 -1.5771725 14
-2.8352344 -15.387474 1.9211485 6
-1.7253629 -9.3547831 -1.1679959 15
-3.446413 -18.667904 3.0066707 11
-1.7926666 -9.7101908 -0.86388773 8
-2.7488658 -14.875016 2.9403667 41
-1.855665 -10.031815 -0.53466421 4
-2.7564039 -14.886727 3.4952896 37
-3.6281204 -19.57559 -0.3475123 49
-3.6415305 -19.628826 5.3492723 3
-1.2921854 -6.9180908 -1.8857557 7
-3.6676857 -19.617043 0.34835005 45
-1.5446615 -8.253828 -1.9386281 6
-3.6796172 -19.642904 1.0473473 44
-1.5583403 -8.3188896 -1.6451553 7
-3.3230352 -17.722271 1.5775188 57
-1.8321515 -9.7617474 -1.5731052 1
-2.8969932 -15.420404 1.9265107 23
-1.7536057 -9.3252926 -1.165071 18
-2.927634 -15.553584 2.506706 7
-1.8372375 -9.7606554 -0.86894274 17
-2.8153129 -14.942502 2.9556315 35
-3.702503 -19.632504 -1.0470332 31
-2.8217249 -14.947866 3.5119357 40
-3.714623 -19.659086 -0.34922263 56
-1.3170499 -6.9173341 -1.886791 7
-3.7563562 -19.710196 0.3502349 46
-1.5734626 -8.2483854 -1.9386281 9
-3.7698879 -19.743723 1.0534182 44
-1.5822146 -8.2864017 -1.6398127 17
-3.3766499 -17.667511 1.5736841 57
-1.7734233 -9.2702446 -1.4948879 1
-3.6112242 -18.859165 2.3576844 11
-1.8040816 -9.4126949 -1.1767704 15
-2.9744673 -15.504471 2.5004489 7
-1.8776805 -9.7874479 -0.87190604 11
-2.8844843 -15.021274 2.973186 46
-3.7879732 -19.707722 -1.0517435 10
-2.8897188 -15.020213 3.5312817 37
-3.7979712 -19.722584 -0.35058394 56
-3.7996809 -19.712946 5.3792949 7
-1.3444988 -6.9297624 -1.8914497 6
-3.8415251 -19.781374 0.3517358 55
-1.6015029 -8.2390165 -1.9377284 9
-3.8570907 -19.824549 1.0584425 45
-1.6115041 -8.2827559 -1.6401943 17
-3.4322047 -17.624325 1.5708951 51
-1.7974584 -9.2213411 -1.4880048 4
-3.6937597 -18.932173 2.3684089 5
-1.8570925 -9.5095997 -1.1896886 2
-3.0357685 -15.530828 2.5063934 14
-1.8820201 -9.6283131 -0.85830975 8
-2.9485869 -15.070842 2.9850161 40
-3.8582792 -19.702221 -1.0521622 10
-2.9586232 -15.094179 3.5510774 37
-3.8671758 -19.711168 -0.35061884 12
-3.8855958 -19.786764 5.4031067 7
-1.3739241 -6.95156 -1.8986967 9
-3.9241343 -19.836502 0.35295746 18
-1.6253313 -8.2085257 -1.9318796 8
-3.9495652 -19.928514 1.0647229 45
-1.6384982 -8.2674513 -1.6382861 20
-3.4898305 -17.592695 1.569152 51
-1.8296351 -9.2150106 -1.4880048 1
-3.1237061 -15.718266 1.9677025 3
-1.8840798 -9.4719086 -1.1857889 2
-3.1281469 -15.711934 2.5373673 7
-1.9035567 -9.5611105 -0.85290605 8
-3.0157564 -15.133622 2.9995177 43
-3.9270296 -19.688633 -1.0521622 10
-3.027318 -15.164022 3.5699732 37
-3.929297 -19.664215 -0.35002548 6
-3.9796445 -19.898108 5.4372706 7
-1.3985627 -6.9486156 -1.8992143 7
-3.9838753 -19.775635 0.35211974 9
-1.6547461 -8.2066221 -1.9327793 8
-4.0112028 -19.87545 1.0626293 5
-1.6654054 -8.252059 -1.636378 22
-3.5468779 -17.558924 1.5672345 43
-2.0132873 -9.9578772 -1.6090851 3
-3.1773717 -15.701431 1.9669714 21
-1.9037323 -9.3991241 -1.1775017 2
-3.2065234 -15.817079 2.5561395 7
-1.9412754 -9.5758867 -0.85482353 2
-3.0865231 -15.211509 3.017072 40
-3.9766502 -19.580854 -1.047138 10
-3.0922656 -15.212563 3.5839202 20
-3.9915349 -19.619024 -0.34946698 12
-4.0698915 -19.986315 5.4652233 7
-1.4274621 -6.9664016 -1.9054259 7
-4.0416303 -19.70676 0.35114241 9
-1.6798549 -8.1836157 -1.9287304 11
-4.0652833 -19.786985 1.0586518 5
-1.6906445 -8.2288876 -1.6329435 23
-3.602932 -17.521067 1.5649685 37
-2.0532105 -9.9759417 -1.6131524 3
-3.2441764 -15.748573 1.9742836 10
-1.9277123 -9.3496485 -1.1721394 2
-3.250536 -15.75162 2.547379 7
-1.9601927 -9.498806 -0.84854823 2
-3.1550884 -15.275626 3.031955 34
-4.0502605 -19.557978 -0.3486293 6
-4.1623759 -20.081701 5.4952459 7
-1.4517709 -6.9613767 -1.9054259 7
-4.1054945 -19.669041 0.35072356 9
-1.7064176 -8.1681643 -1.9264808 9
-4.1277881 -19.741394 1.056977 5
-1.7173495 -8.2133274 -1.6310353 23
-3.656316 -17.471329 1.5616566 43
-1.8122358 -8.6520557 -1.4000887 12
-4.0347133 -19.245953 2.4144754 11
-1.9407696 -9.2496099 -1.16044 4
-3.3136199 -15.778843 2.5536366 15
-3.2253523 -15.345214 3.0479832 39
-2.0878747 -9.9248466 -0.531524 8
-4.2447176 -20.160063 4.7563653 5
-4.1077876 -19.492846 -0.34772176 6
-4.248394 -20.14266 5.5159516 7
-1.4800719 -6.9751639 -1.9106023 7
-4.1624942 -19.599821 0.34974623 9
-1.7333001 -8.1545334 -1.9246813 9
-4.1883593 -19.687792 1.0548836 5
-1.7411059 -8.1842384 -1.6264559 23
-3.7114697 -17.431177 1.5592163 46
-1.8403687 -8.6360168 -1.3985243 10
-3.4207101 -16.038111 2.0135255 3
-1.9945939 -9.34373 -1.1731144 6
-3.9250345 -18.371218 2.9753838 11
-3.2965508 -15.416416 3.0643928 33
-4.330164 -20.215628 4.7730112 10
-4.1657434 -19.431461 -0.34688404 6
-4.3442154 -20.246706 5.548563 7
-1.5084867 -6.9888387 -1.9157786 7
-4.2241297 -19.553896 0.34918776 9
-1.7572232 -8.1274815 -1.9197323 9
-4.247715 -19.646465 1.0534182 5
-1.7692488 -8.1761932 -1.6260743 21
-3.7680786 -17.398643 1.5574731 40
-2.4019425 -11.081333 -1.7958679 6
-3.4690955 -15.991152 2.0091381 11
-1.9808674 -9.1233206 -1.1463031 6
-3.9859347 -18.358101 2.9753838 11
-2.0760543 -9.55369 -0.85534644 11
-3.3666143 -15.479632 3.0792756 36
-4.3928218 -20.164209 4.7644629 10
-4.222496 -19.38237 -0.34625572 6
-4.4220304 -20.281265 5.5620217 7
-1.5353587 -6.9948521 -1.9188845 9
-4.2778034 -19.489 0.34828022 9
-1.7808206 -8.1063824 -1.9161332 9
-4.3025422 -19.569098 1.0500687 11
-1.796513 -8.164216 -1.6249295 18
-3.8245015 -17.365927 1.55573 46
-2.4662924 -11.198702 -1.8162043 12
-3.5349245 -16.037718 2.0164504 18
-2.1043317 -9.5392933 -1.1994381 2
-3.5427833 -16.046726 2.602757 16
-2.1115413 -9.5561113 -0.85621798 14
-3.4344509 -15.543147 3.0941589 33
-2.1813383 -9.8638191 -0.52943057 4
-4.4503989 -20.107676 4.7545657 5
-4.2970476 -19.39875 -0.34681424 6
-4.4785824 -20.20158 5.5444217 7
-1.5627505 -7.0085778 -1.9240609 7
-4.3397074 -19.446625 0.34779155 9
-1.8074064 -8.0925093 -1.9143335 11
-4.3534007 -19.475994 1.0458819 5
-1.8180091 -8.1333046 -1.6199685 15
-3.8777189 -17.333704 1.5539868 43
-2.508388 -11.203519 -1.8183944 2
-2.1723685 -9.6868477 -1.2189373 4
-3.5987737 -16.034262 2.602757 16
-2.132745 -9.5024014 -0.85203451 8
-3.510628 -15.628755 3.1136215 34
-4.5073032 -20.033079 4.7406187 5
-4.5380273 -20.136824 5.5309629 7
-1.5906209 -7.0181522 -1.9282019 7
-4.4164095 -19.470362 0.34848964 9
-1.8347821 -8.0823507 -1.9134337 11
-4.4178162 -19.445097 1.0450444 10
-1.8476927 -8.1326532 -1.6211133 13
-3.9298067 -17.283154 1.550675 43
-2.231019 -9.8040247 -1.5925031 5
-3.71733 -16.322332 2.0554485 4
-2.1272025 -9.3327589 -1.175308 15
-3.646817 -15.986937 2.5971253 16
-2.1557117 -9.4502201 -0.84802538 8
-3.5852616 -15.704449 3.1311755 34
-4.5975089 -20.073784 5.5180225 7
-1.6159765 -7.0163226 -1.9292372 7
-1.8603544 -8.0645037 -1.9107343 11
-4.4829702 -19.417881 1.0444164 5
-1.8716536 -8.1070242 -1.6172972 13
-3.9829359 -17.238268 1.5478859 43
-2.5714111 -11.120298 -1.8077569 10
-3.7693598 -16.287983 2.0527673 16
-2.1664872 -9.3542862 -1.1789641 20
-3.7008135 -15.96641 2.5958736 16
-2.1940837 -9.46593 -0.85011709 17
-3.6586921 -15.772164 3.1472039 35
-2.2845104 -9.840436 -0.52943057 4
-4.5280299 -19.473448 -0.34897831 6
-1.6448599 -7.0294495 -1.9344137 9
-1.8858249 -8.0465765 -1.9080348 11
-4.5899467 -19.56934 1.0534182 5
-1.8999413 -8.1004419 -1.6172972 10
-4.0376215 -17.200985 1.5457941 34
-2.6056967 -11.092023 -1.8046281 2
-3.8402767 -16.334633 2.0603232 20
-2.2018535 -9.3582611 -1.1804266 20
-3.758338 -15.961087 2.5971253 16
-2.2093046 -9.3825788 -0.84331894 2
-3.7339876 -15.845288 3.1643767 35
-4.6850543 -19.850121 4.7086754 4
-4.6327534 -19.613216 -0.3517707 6
-4.717092 -19.954716 5.4942107 3
-1.6729604 -7.0387011 -1.9385546 7
-1.9075843 -8.0134039 -1.9017363 10
-4.6952553 -19.70863 1.0617919 5
-1.9272946 -8.0899401 -1.6165339 13
-4.0934787 -17.169342 1.5442253 34
-2.3445652 -9.8262396 -1.6000119 1
-4.3029981 -18.020239 2.2748132 5
-2.2285087 -9.3254185 -1.177258 15
-3.8094335 -15.928658 2.5939965 16
-2.2406509 -9.3689957 -0.84279597 17
-3.8107538 -15.921897 3.1823127 33
-4.7425032 -19.784376 4.6969781 9
-4.7189126 -19.670818 -0.35309708 6
-4.7786045 -19.904316 5.4848933 3
-1.7029594 -7.0553536 -1.9447664 6
-4.7807951 -19.79167 0.3554008 9
-1.9318808 -7.9915433 -1.8981371 10
-4.7640233 -19.69212 1.0617919 5
-1.9509062 -8.0640821 -1.6127177 18
-4.1519823 -17.149139 1.5437024 34
-2.3918746 -9.8717508 -1.6087722 1
-4.0384226 -16.654678 2.1041963 4
-2.2558978 -9.2963619 -1.1745769 13
-3.8841231 -15.993967 2.6068244 32
-2.2799232 -9.3882246 -0.84523642 8
-3.8918087 -16.01342 3.2033014 37
-2.3628869 -9.7150574 -0.52398765 8
-4.8013959 -19.726044 4.6870799 9
-5.1377645 -21.091961 -0.37892666 36
-1.730336 -7.0606241 -1.9478723 6
-5.2042322 -21.219814 0.38136998 10
-1.962553 -7.9961071 -1.9008365 10
-1.9720187 -8.0286236 -1.6069933 21
-4.2027812 -17.097782 1.5403906 31
-2.0894098 -8.4937515 -1.3853837 1
-4.0827708 -16.584581 2.0971277 12
-2.2883334 -9.2884312 -1.1745769 11
-3.9583728 -16.055111 2.6190262 24
-2.371345 -9.6181459 -0.86667669 5
-3.9683759 -16.083607 3.2200928 33
-5.2388349 -21.216795 -1.1453202 11
-4.8795733 -19.747 4.6960783 4
-5.2406416 -21.192312 -0.38105586 44
-1.7559046 -7.0582905 -1.9489075 6
-5.288898 -21.244209 0.38213789 31
-1.9876251 -7.9778614 -1.8981371 10
-5.1758313 -20.759129 1.1212456 13
-2.0009818 -8.0255013 -1.6077567 31
-4.2576151 -17.063677 1.5386475 25
-2.1190453 -8.4864063 -1.3853837 6
-4.1618128 -16.654968 2.1078525 12
-2.3197803 -9.276535 -1.1740894 4
-4.0417247 -16.150425 2.6368597 33
-2.4203815 -9.6716595 -0.87225467 5
-4.046432 -16.157259 3.2376471 35
-5.3352017 -21.287497 -1.1501352 22
-5.3457408 -21.298019 -0.38328975 44
-4.9877162 -19.856932 5.4859285 3
-1.7871521 -7.0783415 -1.9561545 6
-5.392416 -21.341944 0.38423219 31
-2.0082946 -7.9425359 -1.8913884 10
-5.2467933 -20.735125 1.1209316 32
-2.0270579 -8.0108547 -1.6062301 31
-4.3137293 -17.035191 1.5374273 17
-2.1525376 -8.494278 -1.3878868 6
-4.9221067 -19.409239 2.4585924 17
-5.4367447 -21.422909 -2.7137868 12
-4.1228747 -16.233862 2.6528158 34
-2.1422117 -8.4349813 -0.76139253 2
-4.1231184 -16.222954 3.253675 35
-5.4488592 -21.423594 -1.1585089 11
-5.4516425 -21.40325 -0.38552365 45
-5.0846729 -19.947977 5.5159516 11
-1.8108904 -7.0683174 -1.9551191 6
-5.5031328 -21.464396 0.38678023 31
-2.0360081 -7.9354768 -1.8913884 10
-5.3101978 -20.681864 1.1190475 38
-2.0545197 -8.0018282 -1.6058486 34
-4.3771319 -17.035465 1.5388217 5
-2.1821754 -8.4867115 -1.3878868 1
-4.3447661 -16.885038 2.1407571 4
-5.5416856 -21.521069 -2.7286549 6
-4.2061348 -16.322668 2.6697109 34
-2.172637 -8.4313116 -0.76174122 5
-4.2047243 -16.305416 3.2731378 36
-5.5555515 -21.528212 -1.1652079 11
-5.563344 -21.527359 -0.38810661 45
-5.1818471 -20.036713 5.5454569 7
-1.8433284 -7.0918684 -1.9634014 6
-5.606214 -21.553431 0.38873488 32
-2.0607498 -7.9170065 -1.8886892 9
-5.3696971 -20.629349 1.1171634 44
-2.0760055 -7.9699097 -1.6008875 28
-4.4149632 -16.937181 1.5313264 5
-4.1767645 -16.011936 -2.6209035 7
-4.4091935 -16.8909 2.1434383 26
-5.6451111 -21.625498 -2.7442541 6
-4.2802105 -16.385077 2.6822255 26
-2.5185046 -9.6342182 -0.87120879 2
-4.2894382 -16.397003 3.2945082 36
-5.658988 -21.616888 -1.1710695 11
-5.6605463 -21.607447 -0.38988674 30
-5.2830439 -20.152096 5.5822091 7
-1.8648665 -7.0782447 -1.9613309 6
-5.7138534 -21.672009 0.39121315 32
-2.0840096 -7.8988242 -1.8859898 9
-5.4283967 -20.574738 1.1151747 51
-2.0989153 -7.9496946 -1.5982162 28
-4.4878983 -16.986015 1.5370787 5
-4.2646799 -16.129768 -2.6424911 3
-5.0851483 -19.219351 2.4410431 11
-5.746243 -21.717964 -2.7583909 6
-4.3608122 -16.470093 2.6984947 26
-2.2309966 -8.4201794 -0.76208979 2
-4.3689494 -16.477571 3.3135893 33
-5.7818632 -21.791048 -1.1815367 11
-5.7680893 -21.72385 -0.39233011 31
-5.7586207 -21.672932 6.0087433 4
-1.8923156 -7.0869527 -1.9654719 6
-5.8166628 -21.768858 0.39330745 32
-2.1147223 -7.908813 -1.8900387 10
-5.495018 -20.536367 1.1141279 51
-2.1237428 -7.9370008 -1.5970714 28
-5.5846581 -20.856789 1.8890136 3
-4.3764296 -16.333057 -2.6781583 4
-5.1385708 -19.164038 2.4361684 5
-5.8621454 -21.847321 -2.7774026 18
-4.4392805 -16.532991 2.7113225 27
-2.2558069 -8.4011889 -0.76104391 8
-4.4464927 -16.548313 3.3307621 15
-5.8872824 -21.895195 -1.1882356 11
-5.8834014 -21.850334 -0.39498287 23
-5.8653984 -21.768351 6.0408368 4
-1.9215865 -7.0970869 -1.9701307 6
-5.9271274 -21.875807 0.39561117 33
-2.1346664 -7.8731704 -1.8832903 9
-5.5624895 -20.50164 1.1132905 51
-2.1498942 -7.9238544 -1.5959265 28
-4.6926823 -17.283869 1.5668859 2
-4.0346146 -14.849854 -2.4372492 10
-4.6783834 -17.207439 2.1895049 4
-5.9722457 -21.951231 -2.7932458 19
-4.5312114 -16.64319 2.7319717 27
-2.2882583 -8.4047985 -0.76208979 8
-5.9836388 -21.947735 -1.1922132 11
-5.9970279 -21.966629 -0.39746109 16
-5.9841142 -21.904282 6.0843186 4
-1.9509509 -7.1071029 -1.9747895 6
-6.0426493 -21.997675 0.39819413 22
-2.1600699 -7.8581548 -1.8814906 9
-5.6213045 -20.435883 1.1107785 50
-2.1759779 -7.910624 -1.5947818 28
-4.7582736 -17.286592 1.568629 12
-4.2584853 -15.460339 -2.5398703 3
-4.7468581 -17.221624 2.1934047 4
-6.0799756 -22.043154 -2.8076262 26
-4.6187139 -16.733906 2.7494924 27
-6.0914793 -22.054834 -2.0017929 8
-6.0724416 -21.985907 4.4336381 8
-6.1112938 -22.111525 -1.2022618 11
-6.1019392 -22.047707 -0.39931107 8
-6.0894127 -21.987518 6.113306 4
-1.9826871 -7.1203756 -1.9804834 8
-6.1633854 -22.134415 0.40105632 22
-2.186964 -7.84869 -1.8810407 10
-5.6824107 -20.379583 1.1087897 43
-2.1991532 -7.8817935 -1.5905839 28
-4.8419609 -17.341959 1.5752529 9
-4.5426278 -16.258904 -2.6737783 16
-6.195365 -22.159445 -2.8251753 33
-4.7069006 -16.824213 2.7670133 28
-2.4729588 -8.8333292 -0.80253005 11
-6.1953516 -22.114738 4.4641676 8
-6.2257175 -22.20821 -1.2087513 11
-6.2225151 -22.167004 6.1692109 4
-2.0070045 -7.1115527 -1.9799658 6
-2.2157164 -7.8406215 -1.8810407 12
-5.751636 -20.339399 1.1077429 43
-2.222913 -7.8608446 -1.5879126 26
-5.9988332 -21.199436 1.9275364 8
-4.6257238 -16.336081 -2.6891088 16
-6.3187804 -22.285553 -2.844187 33
-4.7922568 -16.890465 2.7807794 28
-2.4977951 -8.8035593 -0.80061269 20
-6.3025374 -22.198742 4.485538 8
-6.3348622 -22.297773 -1.2148224 12
-6.346034 -22.29269 6.2106218 4
-2.0381908 -7.126792 -1.9861774 6
-2.2377059 -7.8141041 -1.8765416 12
-5.8159966 -20.296158 1.1064868 37
-2.2481759 -7.8454876 -1.586386 23
-5.0463872 -17.598845 1.6017481 3
-2.4843738 -8.6583424 -1.4266826 4
-5.0285473 -17.513554 2.2372777 14
-6.4349041 -22.396915 -2.8612487 27
-4.8872108 -16.998932 2.8014288 28
-2.5241063 -8.7794676 -0.79921812 20
-6.4234109 -22.327543 4.5160675 9
-6.4557524 -22.425232 -1.2229868 12
-2.0678945 -7.1363335 -1.9908361 6
-2.2595398 -7.7875304 -1.8720427 10
-5.8817945 -20.258472 1.1055448 31
-2.2782845 -7.8470206 -1.5882941 26
-5.1216836 -17.628954 1.606106 18
-2.512929 -8.6439257 -1.4257438 12
-5.4750199 -18.820616 2.4066761 16
-6.5529904 -22.511547 -2.878798 27
-4.9741406 -17.076597 2.8170722 19
-2.5051467 -8.6003561 -0.78370446 11
-6.5364699 -22.425613 4.5404911 9
-6.5686612 -22.521437 -1.2294763 12
-2.0966017 -7.1420469 -1.9944596 6
-2.2834113 -7.7683773 -1.8693433 10
-5.9412031 -20.199493 1.1034515 18
-2.3040001 -7.8333693 -1.5871494 23
-6.2233148 -21.145012 1.9284079 8
-2.5681984 -8.7203722 -1.439823 1
-5.2651615 -17.866463 2.2870002 5
-6.6742053 -22.633242 -2.8973222 35
-5.0661416 -17.169016 2.8352184 19
-2.4753816 -8.3890009 -0.76522744 14
-6.6703033 -22.59095 4.5786529 9
-6.6834583 -22.620955 -1.2361754 24
-6.7709928 -22.887825 -0.41662386 25
-2.1281261 -7.1569061 -2.0006714 6
-6.8314595 -22.959578 0.41812477 35
-2.3094015 -7.7566257 -1.8684435 10
-6.0025525 -20.148006 1.1017767 12
-2.3262846 -7.8083448 -1.5837147 18
-6.2879796 -21.092611 1.925619 12
-3.4010224 -11.401236 -1.8844098 13
-5.3133011 -17.800421 2.2809069 15
-6.759985 -22.632631 -2.9002469 7
-5.1594172 -17.262896 2.8536777 10
-2.5069318 -8.3879442 -0.76592463 14
-6.7828717 -22.680386 4.6015501 9
-6.8116207 -22.762045 -1.2451773 24
-6.8370705 -22.818077 -0.41578615 86
-2.1553237 -7.1568327 -2.0027418 6
-6.9011741 -22.901127 0.41749647 71
-2.3353386 -7.7447839 -1.8675436 10
-6.0705385 -20.119282 1.1013579 18
-2.3518257 -7.794538 -1.58257 15
-5.4206047 -17.953918 1.6407939 3
-2.8021126 -9.2751932 -1.5346223 10
-5.3719578 -17.770363 2.2794445 15
-6.8274488 -22.570894 -2.8953722 7
-5.2700047 -17.41116 2.8812103 10
-2.5379279 -8.3848639 -0.7664476 17
-6.9234762 -22.845165 -1.2510388 12
-6.9288702 -22.834257 -0.41651914 51
-2.1825471 -7.1566567 -2.0048125 6
-6.9822426 -22.880722 0.41756627 35
-2.3612201 -7.7328582 -1.8666438 10
-6.1319752 -20.069321 1.099788 36
-2.3813131 -7.7937913 -1.5840963 7
-5.5013037 -17.99395 1.6461976 9
-2.6044774 -8.5135498 -1.4101005 9
-5.4293056 -17.73632 2.2774947 15
-5.3677964 -17.513531 2.9012339 10
-2.5654297 -8.3702383 -0.76592463 14
-7.0031767 -22.82086 -1.2510388 12
-7.0279169 -22.873011 -0.41767099 8
-2.2120752 -7.1637616 -2.0089536 6
-7.097486 -22.970846 0.41966057 23
-2.3801401 -7.698503 -1.8603452 10
-6.1925483 -20.017263 1.0981131 42
-2.4160471 -7.8098135 -1.5890573 7
-2.6254125 -8.4761019 -1.4054073 27
-5.4858971 -17.700191 2.2753007 10
-2.482538 -8.0049467 -1.0290648 15
-5.4710503 -17.630524 2.9237604 10
-2.5975842 -8.3707466 -0.76679623 17
-7.0827913 -22.796276 -1.2510388 12
-7.1005883 -22.825426 -0.41725212 8
-2.2405264 -7.1670594 -2.0120592 6
-7.1632962 -22.900127 0.41882285 11
-2.4064164 -7.6882882 -1.8598953 9
-6.2540278 -19.968842 1.0966477 55
-2.453856 -7.8350568 -1.5959265 7
-5.772759 -18.420906 1.6889039 3
-2.6413898 -8.4235334 -1.3982115 18
-5.5446758 -17.671467 2.2740822 15
-2.5104661 -7.9962316 -1.0290648 20
-5.5574226 -17.690472 2.9369009 10
-2.6238015 -8.3521242 -0.76592463 8
-7.3567405 -23.403803 4.7686987 10
-7.1623249 -22.771412 -1.2510388 12
-7.1718092 -22.773798 -0.41676345 8
-2.2696099 -7.1720877 -2.0156829 6
-7.2431927 -22.874983 0.41882285 11
-2.4320612 -7.6761265 -1.8589954 13
-6.3140349 -19.916428 1.094973 55
-2.4877162 -7.8470292 -1.6001244 5
-5.8099174 -18.315182 1.6810598 6
-2.6205773 -8.2561064 -1.3719305 10
-5.6363702 -17.746605 2.2862689 15
-2.5389638 -7.9893126 -1.0293086 20
-5.6448808 -17.751911 2.9503543 21
-2.6233556 -8.2498779 -0.75738341 8
-7.4264855 -23.340565 4.7610664 10
-7.2417669 -22.746273 -1.2510388 12
-7.2439766 -22.725761 -0.41634461 8
-2.2952209 -7.1659613 -2.0162005 6
-7.3205538 -22.841944 0.41868323 11
-2.457056 -7.6620231 -1.8576458 10
-6.3761978 -19.871443 1.0937169 61
-2.5180924 -7.8476443 -1.6020325 13
-5.8939118 -18.357391 1.6868122 6
-2.6469638 -8.2393847 -1.3706789 7
-5.7426324 -17.864779 2.3040619 15
-2.5662274 -7.9785113 -1.0290648 18
-5.7382812 -17.82988 2.9666235 22
-2.6490853 -8.2311878 -0.75651181 11
-7.5199509 -23.351873 4.7686987 10
-7.3211222 -22.720856 -1.2510388 12
-7.3134351 -22.669889 -0.41578615 8
-2.3255823 -7.1744452 -2.0208592 5
-7.3928394 -22.793425 0.41826439 11
-2.4825835 -7.6496925 -1.8567461 12
-6.4418211 -19.837671 1.0930889 61
-2.5436506 -7.8332052 -1.6008875 21
-2.9572649 -9.0961256 -1.5149114 9
-5.843029 -17.961662 2.3191738 10
-2.5983641 -7.982718 -1.030771 20
-5.846365 -17.950609 2.9900887 22
-2.6759505 -8.2162075 -0.75598896 17
-7.6014161 -23.325481 4.7686987 10
-7.3694305 -22.60022 -1.2458053 12
-7.3912802 -22.640421 -0.41571632 8
-7.4723587 -22.767479 0.41826439 11
-2.5007591 -7.6150603 -1.8504474 5
-6.5010505 -19.784702 1.0914141 60
-2.5660746 -7.8093572 -1.5978346 21
-6.1277165 -18.637558 1.7164451 10
-2.9859121 -9.0763655 -1.5133473 1
-5.9423137 -18.052406 2.3335543 10
-2.6206234 -7.9566302 -1.0285773 20
-5.9559774 -18.07268 3.0138667 22
-2.703366 -8.2030315 -0.75564027 17
-7.4169827 -22.479525 -1.2405716 12
-1.450073 -4.3692617 -1.2335316 26
-7.5517845 -22.741259 0.41826439 11
-1.4587578 -4.3903031 -1.0680676 11
-6.5612535 -19.735355 1.0899487 54
-2.624908 -7.8953652 -1.6172972 2
-6.2197776 -18.697348 1.7239405 13
-3.3201447 -9.9749107 -1.6650885 11
-6.0435524 -18.146439 2.3484223 10
-2.6458712 -7.9399009 -1.0276023 18
-2.7294633 -8.1859856 -0.75494307 20
-1.4714643 -4.3824868 -1.238708 30
-1.4703479 -4.3741016 -1.0653682 27
-6.623734 -19.693403 1.088902 42
-1.4858234 -4.4175863 -0.90596116 25
-6.9414706 -20.626162 1.9040043 15
-1.5160918 -4.5023761 -0.75244987 1
-6.1480556 -18.247511 2.3642654 16
-2.6761074 -7.9381404 -1.0285773 4
-2.7567472 -8.1726313 -0.75459439 20
-1.4780545 -4.3517151 -1.231461 30
-1.4868623 -4.372633 -1.066268 30
-6.6789298 -19.630453 1.0867039 12
-1.4980735 -4.4030795 -0.90405309 27
-6.4612374 -18.979765 1.7540965 7
-1.5088692 -4.4297409 -0.74118662 28
-6.2610259 -18.370621 2.3830333 22
-1.5139997 -4.4397254 -0.57595456 11
-0.20285262 -0.59451503 0.099492334 7
-1.5505823 -4.5444055 -0.42009068 1
-1.4894706 -4.335567 -1.2283553 24
-1.5021167 -4.3674159 -1.066268 27
-6.755209 -19.629683 1.0879599 6
-1.5127945 -4.395967 -0.90367144 33
-6.5456133 -19.009844 1.7589772 14
-1.5204622 -4.4132414 -0.73930937 28
-6.3716912 -18.483778 2.4005826 28
-1.5301353 -4.4362898 -0.57619828 23
-1.5332879 -4.4429126 -0.41120079 26
-1.5470688 -4.4777756 -0.24828181 1
-1.4614797 -4.2062521 -1.1931559 41
-1.5039079 -4.323494 -1.0568202 19
-1.5287752 -4.3925142 -0.90405309 28
-7.1315279 -20.47896 1.8972062 7
-1.5332582 -4.400445 -0.73805791 30
-6.4806128 -18.588884 2.4171569 17
-1.5456116 -4.4309216 -0.57619828 23
-1.5500997 -4.4412951 -0.41154939 32
-1.5613717 -4.4685769 -0.24807246 3
-1.472952 -4.1920123 -1.1905677 66
-1.4782509 -4.2024035 -1.0284761 52
-1.5199827 -4.3186302 -0.88993317 19
-1.5479524 -4.3932033 -0.73774499 27
-6.5817595 -18.669117 2.4305623 11
-1.5557865 -4.4105234 -0.57424843 24
-1.5636042 -4.4302206 -0.41102645 29
-1.485635 -4.1813836 -1.1890148 81
-1.491605 -4.1935463 -1.0275764 77
-1.5014769 -4.2189684 -0.8704707 40
-1.5307933 -4.2965932 -0.72241443 20
-1.569172 -4.399456 -0.5735172 23
-1.5797288 -4.4266124 -0.41120079 26
-1.4936903 -4.1579919 -1.1838384 89
-1.5009586 -4.1736436 -1.0239772 72
-1.5155302 -4.211854 -0.87008911 63
-1.6393268 -4.5534058 0.42340261 1
-1.5310533 -4.2503376 -0.71553135 48
-1.5373808 -4.2632351 -0.55645543 25
-1.6532859 -4.58214 0.77153486 1
-1.5370167 -4.2598963 -0.39620999 58
-0.27675959 -0.76537466 -0.014206259 7
-1.5075364 -4.1509361 -1.1833206 82
-1.5175153 -4.1738729 -1.0253268 88
-1.529552 -4.2046928 -0.86970741 84
-1.5384451 -4.2245498 -0.71208972 67
-1.551573 -4.2559776 -0.55621171 59
-1.6577636 -4.5447927 0.7662161 11
-1.5443677 -4.2339153 -0.39429256 69
-0.27874294 -0.7625258 -0.014171354 34
-1.5273426 -4.1601567 -1.1874619 68
-0.27718237 -0.75457877 0.014031734 11
-1.5307318 -4.1648922 -1.0244272 68
-1.5415092 -4.1919584 -0.86818099 82
-1.5497704 -4.2098851 -0.71052545 85
-1.5622475 -4.2414951 -0.55499303 58
-1.6741914 -4.5429773 0.76684189 16
-1.5660298 -4.2471929 -0.39603567 79
-0.2805773 -0.7597214 -0.014136449 46
-1.5471764 -4.1713705 -1.1921207 34
-0.2692472 -0.72553396 0.013508162 49
-1.5458907 -4.1634469 -1.0253268 50
-0.2753025 -0.74145436 0.041450083 6
-1.5608712 -4.2015457 -0.87123388 73
-1.5630335 -4.2028718 -0.71021259 86
-1.5659198 -4.208384 -0.55133694 58
-1.6920043 -4.5448055 0.76809335 15
-1.5738462 -4.225172 -0.39446688 73
-0.28401354 -0.76165438 -0.04260147 6
-0.28868711 -0.77377522 -0.014415688 68
-1.603025 -4.2783771 -1.2242141 16
-0.27094969 -0.72276473 0.013473257 75
-1.5802202 -4.2130361 -1.038824 26
-0.27788901 -0.74048883 0.041450083 24
-1.5727264 -4.1908326 -0.87008911 61
-1.5776569 -4.1995139 -0.71052545 67
-1.5826973 -4.208467 -0.55206817 56
-1.7036839 -4.5277791 0.7662161 3
-1.5773237 -4.1919594 -0.39185223 64
-0.29569009 -0.78500623 -0.043962207 25
-0.2843309 -0.75405186 -0.01406664 84
-1.6124761 -4.2583022 -1.220073 17
-0.27630493 -0.72929436 0.013612877 72
-1.6239274 -4.2840276 -1.0577198 15
-0.27409774 -0.72270709 0.040508036 34
-1.6061434 -4.2348804 -0.88039279 21
-1.598617 -4.2106028 -0.7133413 50
-0.26998436 -0.71073896 0.093351923 2
-1.601609 -4.2140503 -0.55353063 51
-1.6011529 -4.2106371 -0.39411828 39
-0.30056003 -0.78956908 -0.044276223 40
-0.2855373 -0.74931747 -0.01399683 100
-1.6245691 -4.2454309 -1.2180026 19
-0.27741891 -0.72459048 0.013543067 85
-1.6381752 -4.2765136 -1.0572699 19
-0.27947792 -0.72920579 0.040926725 40
-1.6469125 -4.2970767 -0.89451259 19
-0.26608291 -0.69389379 0.065018184 6
-1.640901 -4.2769241 -0.72554308 16
-0.27246371 -0.70979226 0.093351923 15
-1.6220022 -4.223259 -0.55548048 37
-1.6272997 -4.2326355 -0.39673293 67
-0.29829502 -0.77546638 -0.043543518 54
-0.29174396 -0.7576468 -0.014171354 100
-1.6387239 -4.2358446 -1.2169672 26
-0.27633891 -0.71429276 0.013368543 95
-1.6481684 -4.2580476 -1.0541207 24
-0.27841511 -0.71891344 0.040403362 56
-1.6633604 -4.2928424 -0.89489418 21
-0.27366561 -0.70591766 0.066238366 38
-1.6694233 -4.3040314 -0.73117477 16
-0.26130033 -0.67367262 0.088720888 33
-1.6740803 -4.3138037 -0.56815493 10
-1.6427855 -4.2287874 -0.39690727 30
-0.29968745 -0.77064502 -0.043334179 57
-0.2936618 -0.75476021 -0.014136449 100
-1.657017 -4.2390947 -1.2195554 26
-0.28186852 -0.72072446 0.013508162 98
-1.6623439 -4.2483482 -1.0532209 26
-0.2752234 -0.70300972 0.039565988 64
-1.6783346 -4.2870102 -0.89489418 22
-0.27249479 -0.69568229 0.065366805 59
-1.6858788 -4.3018565 -0.73180056 19
-0.26086915 -0.66531789 0.087745935 31
-1.6935045 -4.3168788 -0.56937367 13
-1.7048831 -4.3414264 -0.40806317 16
-0.29799339 -0.75844061 -0.042706143 55
-0.29935387 -0.76112252 -0.014276069 100
-0.18250883 -0.46380037 0.13355063 9
-1.6711231 -4.2293997 -1.21852 27
-0.28511745 -0.72159588 0.013543067 100
-1.6778798 -4.2443323 -1.0536706 27
-0.27473724 -0.69461566 0.039147299 64
-1.6860898 -4.2607493 -0.89069647 25
-0.27650967 -0.69838375 0.065715425 71
-1.7016351 -4.2956481 -0.73180056 20
-0.26319003 -0.6644032 0.087745935 31
-1.7056372 -4.3035593 -0.56839865 13
-0.28980219 -0.7308386 0.12452185 4
-1.7200278 -4.3354483 -0.40806317 14
-0.30077115 -0.75734335 -0.042706143 52
-0.29093277 -0.73219746 -0.013752497 100
-1.6815603 -4.2148633 -1.215932 24
-0.28911716 -0.72431076 0.013612877 100
-1.6912392 -4.2348304 -1.052771 28
-0.27790141 -0.69550711 0.039251972 67
-1.6994814 -4.2533116 -0.89031488 27
-0.27438658 -0.6863628 0.064669557 100
-1.7114683 -4.2789774 -0.72992331 24
-0.27140778 -0.67822462 0.089695849 35
-1.7206491 -4.2975793 -0.56839865 14
-0.26884589 -0.67114341 0.11451004 11
-1.7195774 -4.2927308 -0.40457696 9
-0.30922765 -0.77117199 -0.043543518 51
-0.29423165 -0.73303324 -0.013787401 100
-1.6868745 -4.1856747 -1.2092026 9
-0.28640911 -0.71031487 0.013368543 32
-1.7023664 -4.2198644 -1.0505214 15
-0.28257003 -0.70008904 0.039565988 70
-1.7143174 -4.2473536 -0.89031488 24
-0.27528864 -0.68170601 0.064320937 100
-1.7219549 -4.2619882 -0.72804612 26
-0.27302957 -0.67543262 0.089452103 41
-1.7348958 -4.2897062 -0.56815493 13
-0.2682232 -0.66287619 0.11325856 52
-1.7502455 -4.3254876 -0.40823749 3
-0.31041807 -0.76638561 -0.043334179 48
-0.29678866 -0.73200172 -0.013787401 100
-1.7153136 -4.2137566 -1.2190377 1
-0.28813258 -0.70745879 0.013333639 40
-1.7134091 -4.2048736 -1.0482719 2
-0.2879048 -0.7065466 0.039984677 71
-1.730616 -4.2449794 -0.89107805 15
-0.27616161 -0.67705125 0.063972317 100
-1.7338357 -4.2486353 -0.72679466 16
-0.27013308 -0.66161072 0.087745935 51
-1.7528636 -4.293119 -0.56937367 10
-0.27266097 -0.66746914 0.11419717 100
-0.31006637 -0.75790316 -0.04291549 59
-0.30300188 -0.74026686 -0.013961925 100
-0.29351866 -0.71389729 0.013473257 36
-0.2841678 -0.69081122 0.039147299 70
-1.7506599 -4.2537413 -0.894131 1
-0.27688807 -0.67244703 0.063623689 100
-1.7531824 -4.2556477 -0.72898471 2
-0.2715691 -0.65887612 0.087502196 71
-1.7617949 -4.2744355 -0.56766742 2
-0.27487281 -0.66656137 0.11419717 100
-0.31105313 -0.75317872 -0.042706143 52
-0.30774596 -0.74480242 -0.01406664 96
-0.29511791 -0.7110731 0.013438353 33
-0.2881099 -0.69350398 0.039356641 70
-0.28217533 -0.67888439 0.064320937 100
-0.27298999 -0.65613908 0.087258458 86
-0.27264121 -0.65465647 0.11231996 100
-0.31354907 -0.75214314 -0.042706143 58
-0.30341321 -0.72711444 -0.013752497 100
-0.29914412 -0.71372712 0.013508162 100
-0.29207429 -0.69617754 0.039565988 70
-0.28300107 -0.67422104 0.063972317 100
-0.2798923 -0.66616291 0.088720888 93
-0.27569056 -0.65552163 0.11263283 72
-0.31462267 -0.74736243 -0.0424968 61
-0.30206686 -0.71683705 -0.013577973 100
-0.29695711 -0.70162928 0.013298733 100
-0.29917726 -0.7061879 0.040194016 65
-0.27524504 -0.6493817 0.061706264 75
-0.2829912 -0.66700923 0.088964626 82
-0.27952135 -0.65819174 0.11325856 41
-0.32086912 -0.75555378 -0.071816333 5
-0.31957373 -0.75177383 -0.042810816 62
-0.30848196 -0.72497851 -0.013752497 100
-0.29704702 -0.695072 0.01319402 100
-0.30006951 -0.70146674 0.039984677 68
-0.28299755 -0.66123879 0.062926449 64
-0.27906427 -0.65141976 0.08701472 71
-0.27948168 -0.65176553 0.11231996 12
-0.32350457 -0.75442916 -0.071816333 10
-0.32062036 -0.74698305 -0.04260147 61
-0.31101081 -0.72389728 -0.013752497 100
-0.19682722 -0.45790753 0.13355063 9
-0.30026364 -0.69586688 0.013228924 100
-0.29934856 -0.69308078 0.039565988 70
-0.28609422 -0.66207588 0.063100755 71
-0.27897224 -0.64497566 0.086283498 63
-0.29823655 -0.68885422 0.11889021 5
-0.32692766 -0.75512373 -0.071990639 29
-0.31925514 -0.73669642 -0.042078111 64
-0.30955684 -0.71363455 -0.013577973 100
-0.21688256 -0.49974948 0.14597395 8
-0.30109367 -0.69114798 0.013159114 100
-0.30336264 -0.69569319 0.039775331 71
-0.28760698 -0.65924698 0.062926449 99
-0.28281069 -0.64763641 0.086770974 66
-0.32956153 -0.75397789 -0.071990639 43
-0.32422635 -0.74106699 -0.042392131 61
-0.31365037 -0.71621317 -0.013647783 100
-0.23878263 -0.54499555 0.15943255 7
-0.30913967 -0.70290619 0.013403447 100
-0.30498448 -0.69280201 0.039670657 71
-0.28589103 -0.64912212 0.062054887 88
-0.28266749 -0.64119595 0.086039767 54
-0.24402566 -0.55301881 0.095737904 7
-0.33219144 -0.75282294 -0.071990639 53
-0.32600418 -0.73810375 -0.042287458 55
-0.31857425 -0.72060072 -0.013752497 100
-0.30509984 -0.68720156 0.01312421 100
-0.31064534 -0.69903386 0.040089346 74
-0.28329864 -0.6371969 0.06100902 83
-0.28086844 -0.63113737 0.084821068 27
-0.23148662 -0.51968342 0.090106264 17
-0.32589954 -0.73163879 -0.070073217 53
-0.32695213 -0.73331285 -0.042078111 40
-0.31701288 -0.71035379 -0.013577973 100
-0.24258161 -0.54331523 0.15943255 7
-0.30504346 -0.68065786 0.013019496 100
-0.31471837 -0.70158988 0.040298689 71
-0.28878424 -0.643475 0.061706264 75
-0.27412212 -0.61023444 0.082139947 9
-0.23086907 -0.51346731 0.089167662 25
-0.3293964 -0.73225635 -0.070247531 37
-0.32541144 -0.72306067 -0.041554753 31
-0.3170267 -0.70377314 -0.013473257 100
-1.8671207 -4.1275291 -1.2138613 1
-0.30576909 -0.67594498 0.012949686 96
-0.31139889 -0.68775088 0.039565988 70
-0.28785098 -0.63515341 0.06100902 61
-0.2795296 -0.61650556 0.0831149 3
-0.24572162 -0.54143912 0.094173566 65
-0.30971053 -0.68212008 -0.065541118 6
-0.31566423 -0.69458866 -0.039984677 3
-0.31534296 -0.69356036 -0.013298733 37
-0.24636866 -0.54160851 0.15943255 7
-1.8646681 -4.0840826 -1.202991 5
-0.31406045 -0.68755221 0.01319402 26
-1.8759273 -4.1049504 -1.0419734 1
-0.30810428 -0.67388999 0.038833283 31
-0.2908951 -0.63595653 0.06118333 7
-0.28178734 -0.61547691 0.0831149 3
-0.23700623 -0.51718944 0.090106264 94
-0.34197062 -0.74624032 -0.071816333 5
-0.33874133 -0.73783302 -0.014171354 3
-0.24835213 -0.54070187 0.15943255 7
-1.8740613 -4.0670218 -1.1998851 6
-0.32817936 -0.7118758 0.013682687 5
-1.883715 -4.0842204 -1.0383741 2
-1.907511 -4.1339173 -0.88497216 1
-0.28977299 -0.62770146 0.060486082 7
-1.9190855 -4.1551852 -0.72491741 2
-0.25562379 -0.55322081 0.074827783 3
-0.26571605 -0.57479864 -0.077752642 9
-0.2255429 -0.48767239 0.08510036 63
-0.3228285 -0.69802481 -0.067284234 6
-0.25023803 -0.5398317 0.15943255 7
-1.902095 -4.0902343 -1.2086849 1
-1.9259198 -4.1376891 -1.0536706 1
-1.9376774 -4.1610479 -0.89222288 1
-0.29196218 -0.62668622 0.060486082 7
-1.9277356 -4.1359282 -0.72272736 5
-0.25335881 -0.5433296 0.073609091 7
-0.25261426 -0.5414865 -0.073365353 10
-0.23049934 -0.49408248 0.086351842 63
-0.3050395 -0.6535635 -0.063100755 7
-0.29414797 -0.62566322 0.060486082 7
-1.9599301 -4.1688414 -0.72961038 1
-0.23488151 -0.49937499 0.067759365 8
-0.25102764 -0.53346109 -0.0723904 10
-0.23727103 -0.5039981 0.088229045 8
-0.26487166 -0.56237119 -0.054385182 9
-0.30818412 -0.65403581 -0.037891235 4
-0.25390661 -0.53811592 0.15943255 7
-0.29622114 -0.62468433 0.060486082 7
-0.29024646 -0.61153322 0.0831149 3
-0.27162075 -0.57203209 -0.077752642 9
-0.24580972 -0.51744115 0.090732001 17
-0.25578359 -0.53722626 0.15943255 7
-0.26089385 -0.54550457 -0.11753836 5
-0.2983999 -0.6236465 0.060486082 7
-0.29237938 -0.61051637 0.0831149 3
-0.27361584 -0.57108051 -0.077752642 9
-0.24334525 -0.50767344 0.089167662 51
-0.2576572 -0.53633016 0.15943255 7
-0.26279643 -0.54459053 -0.11753836 5
-0.26246178 -0.54365456 0.052816376 9
-0.2945087 -0.60949206 0.0831149 3
-0.25660023 -0.53080314 -0.0723904 10
-0.23823544 -0.49259433 0.086664706 72
-0.26610282 -0.54631746 0.053165 9
-0.24974944 -0.51206225 -0.069953009 11
-0.24168597 -0.49531031 0.087290443 53
-0.23932937 -0.4893966 0.14597395 8
-0.2486482 -0.50509733 0.089167662 34
-0.24865255 -0.50068784 0.088541918 17
-0.3420724 -0.68879849 -0.067284234 6
-0.32181376 -0.64743817 -0.037891235 4
-0.26512048 -0.53268045 0.15943255 7
-2.0148551 -4.0358815 -1.2086849 1
-2.0173404 -4.0373335 -1.0419734 1
-2.027808 -4.0565119 -0.88153762 1
-0.30298975 -0.60532069 0.0831149 3
-0.25747716 -0.51394588 0.091044866 17
-0.37481704 -0.74816608 -0.073210821 9
-0.3652522 -0.72843879 -0.042706143 6
-0.34263182 -0.68273109 -0.013333639 4
-0.26697826 -0.53175175 0.15943255 7
-2.0054698 -3.9822376 -1.1947087 2
-0.3580997 -0.7107656 0.013892116 5
-2.024404 -4.016345 -1.0383741 4
-0.35071698 -0.69550782 0.040822048 3
-2.0304642 -4.0266194 -0.8765766 6
-2.0720067 -4.1054378 -0.72835892 1
-0.30510104 -0.60425925 0.0831149 3
-0.27441585 -0.54301572 0.096363649 7
-0.37832484 -0.74863148 -0.073385134 32
-0.37770849 -0.7467643 -0.043857537 20
-0.34952879 -0.69045144 -0.013508162 27
-0.26883283 -0.53081656 0.15943255 7
-2.0114839 -3.959712 -1.19005 8
-0.34970686 -0.68811893 0.013473257 31
-2.0339954 -4.0005684 -1.0361246 9
-0.33593825 -0.66045552 0.038833283 7
-2.0427272 -4.0160074 -0.87581331 12
-2.0585432 -4.0436082 -0.71866006 5
-0.30720833 -0.60319066 0.0831149 3
-2.0754943 -4.0733857 -0.56133026 1
-0.27092701 -0.53149498 0.09448643 8
-0.38455507 -0.75440651 -0.074082382 70
-0.37305173 -0.73120838 -0.043020159 50
-0.366487 -0.71772248 -0.01406664 80
-0.27068409 -0.52987492 0.15943255 7
-2.0288177 -3.9595437 -1.1921207 15
-0.34754577 -0.6779964 0.013298733 76
-2.0426123 -3.9830399 -1.0334252 13
-0.33459482 -0.65217072 0.038414594 31
-2.0549414 -4.0053596 -0.87505013 15
-2.0564036 -4.0047669 -0.71302837 11
-2.0833476 -4.0537567 -0.55962408 3
-0.26374817 -0.51297832 0.091357745 8
-0.38536409 -0.74951583 -0.073733754 94
-0.38291273 -0.74410915 -0.043857537 100
-0.36532784 -0.70932764 -0.01392702 100
-2.0452874 -3.9575858 -1.1936734 17
-0.35174713 -0.68033177 0.013368543 100
-2.0511315 -3.9655001 -1.0307257 19
-0.3276903 -0.63326037 0.037367877 48
-2.0770304 -4.013854 -0.87848467 24
-2.0740042 -4.004581 -0.71427983 16
-2.0938311 -4.0394106 -0.55864912 9
-0.26371843 -0.50854731 0.090732001 8
-0.39439848 -0.76054704 -0.074953936 100
-0.38274759 -0.73744982 -0.043543518 100
-0.37517592 -0.72224456 -0.014206259 100
-2.0590894 -3.9504223 -1.1936734 27
-0.36706412 -0.70392323 0.013857211 92
-2.0649612 -3.9583158 -1.0307257 26
-0.33082291 -0.6338833 0.037472546 67
-2.0819454 -3.9891751 -0.87466848 27
-0.31998309 -0.61285263 0.060486082 7
-2.0870557 -3.9955657 -0.71396697 22
-2.098722 -4.0144849 -0.55621171 14
-0.28563279 -0.54613298 0.097615115 7
-0.39705092 -0.75916564 -0.074953936 100
-0.39087698 -0.74672627 -0.044171553 100
-0.36841479 -0.70321733 -0.013857211 44
-2.071068 -3.9397914 -1.1926383 31
-0.3760345 -0.7150268 0.014101544 96
-2.0814881 -3.9562576 -1.0320754 30
-0.33303341 -0.6327247 0.037472546 67
-2.0976853 -3.9853582 -0.87543172 30
-0.33511665 -0.63641274 0.062926449 7
-2.107435 -4.0004902 -0.71615702 27
-2.1099451 -4.0018668 -0.55548048 19
-0.26726234 -0.50669378 0.090732001 8
-0.4024871 -0.76306194 -0.07547687 100
-0.40094051 -0.75948721 -0.045008924 100
-0.37460396 -0.70899934 -0.01399683 100
-2.0848091 -3.9325376 -1.1926383 33
-0.37571713 -0.70841008 0.01399683 100
-2.098938 -3.9558542 -1.033875 27
-0.33992228 -0.64037889 0.037995908 61
-2.1097443 -3.9745429 -0.87466848 33
-0.3401393 -0.64051813 0.063449383 21
-2.12046 -3.9913654 -0.71584421 28
-2.1285613 -4.0032411 -0.55669922 22
-0.28016168 -0.52668571 0.09448643 8
-0.40421256 -0.75989336 -0.075302556 100
-0.40828213 -0.76689804 -0.045532286 100
-0.36861351 -0.69180417 -0.013682687 100
-2.0967009 -3.9218292 -1.1916029 33
-0.37441522 -0.70004094 0.013857211 100
-2.1081369 -3.9399118 -1.0316256 30
-0.3439284 -0.64277023 0.038205251 58
-2.122678 -3.9654241 -0.87428689 30
-0.34049207 -0.63581407 0.063100755 42
-2.1278496 -3.9717503 -0.7136541 27
-2.1415842 -3.9940369 -0.55645543 23
-0.27817282 -0.51879007 0.093234949 8
-0.40780449 -0.76023346 -0.07547687 47
-0.40812242 -0.76018906 -0.04521827 100
-0.37942132 -0.70643306 -0.01399683 100
-2.110378 -3.9144864 -1.1916029 31
-0.38147938 -0.70759642 0.014031734 35
-2.1156402 -3.9226084 -1.0289261 30
-0.34237641 -0.63453496 0.037786566 58
-2.144901 -3.9735382 -0.87772143 31
-0.35122964 -0.65039957 0.064669557 60
-2.1438236 -3.969887 -0.71459275 28
-2.1491542 -3.9764352 -0.55499303 22
-0.29501453 -0.54561812 0.098240852 7
-0.41424724 -0.76581514 -0.076174118 52
-0.40969056 -0.75707495 -0.045113601 100
-0.39045572 -0.72092968 -0.014310974 100
-2.1251922 -3.9108617 -1.1926383 33
-0.39349797 -0.72382915 0.014380784 100
-2.1302512 -3.9169116 -1.029376 28
-0.34172565 -0.6280728 0.037472546 56
-2.1505589 -3.9526081 -0.87466848 31
-0.3543371 -0.65098125 0.064843871 81
-2.1576684 -3.9623797 -0.71459275 28
-2.1630206 -3.9689095 -0.55499303 22
-0.30069971 -0.55152243 0.099492334 7
-0.42059949 -0.77143431 -0.076871365 52
-0.41233057 -0.75564033 -0.045113601 100
-0.39297006 -0.71956223 -0.014310974 100
-2.133261 -3.8932545 -1.1895324 33
-0.40082833 -0.73121876 0.014555307 100
-2.1439106 -3.9094517 -1.029376 30
-0.34967992 -0.63738245 0.038100582 54
-2.1605659 -3.9381921 -0.873142 31
-0.35373142 -0.64450055 0.064320937 100
-2.169585 -3.9513605 -0.71396697 28
-2.1759055 -3.9595952 -0.55474925 22
-0.30262306 -0.55046946 0.099492334 7
-0.42232996 -0.76821554 -0.076697052 51
-0.41592872 -0.75594616 -0.04521827 100
-0.40512508 -0.73570293 -0.014660021 100
-2.1487067 -3.8891659 -1.1905677 33
-0.41014966 -0.7420662 0.014799641 44
-2.1575441 -3.9019439 -1.029376 28
-0.35867003 -0.64839166 0.038833283 59
-2.1742997 -3.9306262 -0.873142 33
-0.35501429 -0.64151865 0.06414663 100
-2.1833646 -3.943763 -0.71396697 28
-2.1935625 -3.9589214 -0.55572426 21
-0.30454272 -0.54940975 0.099492334 7
-0.42127785 -0.75969279 -0.075999804 51
-0.42147151 -0.75972933 -0.045532286 100
-0.41157365 -0.7412774 -0.014799641 58
-2.1629467 -3.8812644 -1.1905677 31
-0.41371089 -0.74237674 0.014834546 66
-2.1673558 -3.8875806 -1.0275764 28
-0.36287692 -0.65062433 0.039042629 57
-2.1886916 -3.9226305 -0.873142 33
-0.35639209 -0.63847339 0.063972317 100
-2.1939526 -3.9288356 -0.71271551 28
-2.2064002 -3.949507 -0.55548048 22
-0.30645868 -0.54834336 0.099492334 7
-0.42684406 -0.76343471 -0.076522738 49
-0.41645083 -0.74423587 -0.044694912 100
-0.41220498 -0.73634654 -0.014729831 58
-2.1736419 -3.8686383 -1.1890148 34
-0.41936862 -0.74608511 0.014939261 82
-2.1796796 -3.8762136 -1.0266765 28
-0.36232138 -0.64406776 0.03872861 63
-2.2042961 -3.9183888 -0.8739053 33
-0.36155012 -0.64243436 0.064495243 100
-2.2115297 -3.9280381 -0.71396697 28
-2.2189121 -3.9379349 -0.55499303 22
-0.3084664 -0.54721642 0.099492334 7
-0.4343982 -0.7706182 -0.077394299 100
-0.42395306 -0.75147527 -0.04521827 100
-0.41883376 -0.74179596 -0.014869451 64
-2.188086 -3.8627079 -1.1895324 33
-0.42591402 -0.75157559 0.015078879 80
-2.1931961 -3.8685818 -1.0266765 28
-0.37934718 -0.66885853 0.040298689 53
-2.2121491 -3.9004242 -0.87161553 33
-0.36379045 -0.64116842 0.064495243 100
-2.2232769 -3.9168599 -0.7133413 30
-0.38326564 -0.67494375 0.095301837 2
-2.2297029 -3.9249871 -0.55426186 20
-0.31037471 -0.54613632 0.099492334 7
-0.43807 -0.77082938 -0.077568613 100
-0.43249828 -0.76040739 -0.045846302 74
-0.4184528 -0.73511577 -0.014764735 68
-2.1996388 -3.8516912 -1.1884971 33
-0.42655081 -0.74661183 0.015009069 82
-2.2086217 -3.8642857 -1.0275764 30
-0.41426852 -0.72481948 0.043752864 57
-2.2238007 -3.8892701 -0.87085229 31
-0.36800474 -0.64335364 0.064843871 100
-2.2379177 -3.910789 -0.7136541 30
-0.36490828 -0.63742363 0.090183318 5
-2.2453635 -3.9206252 -0.55474925 22
-0.29254985 -0.51082075 0.093234949 8
-0.43778664 -0.76410931 -0.077045679 100
-0.43614346 -0.76062566 -0.045950972 88
-0.41889828 -0.73025507 -0.014694927 70
-2.2053597 -3.8305962 -1.184356 22
-0.42503342 -0.73826122 0.014869451 80
-2.2253137 -3.8636956 -1.029376 28
-0.43274987 -0.75105786 0.045427613 76
-2.241286 -3.8882868 -0.87237877 31
-0.37024823 -0.64206511 0.064843871 100
-2.2439656 -3.8913679 -0.71146405 30
-0.37098771 -0.6430881 0.091158278 7
-2.2543836 -3.9062805 -0.55377436 22
-0.29433116 -0.50979644 0.093234949 8
-0.43845806 -0.75912601 -0.076697052 100
-0.44266036 -0.76609248 -0.046369661 94
-0.42444798 -0.73398155 -0.014799641 63
-2.20157 -3.7948546 -1.1755562 2
-0.42560035 -0.73331398 0.014799641 76
-2.2290022 -3.8390515 -1.024877 22
-0.43737525 -0.7529968 0.045636959 100
-2.253181 -3.8791361 -0.87199712 28
-0.3723754 -0.6408338 0.064843871 100
-2.2555499 -3.8800957 -0.71083826 28
-0.36824071 -0.63320899 0.089939587 13
-2.274992 -3.9103987 -0.55548048 22
-0.30008343 -0.51559514 0.09448643 8
-0.44397965 -0.76283365 -0.077219985 100
-0.44131061 -0.75763941 -0.045950972 96
-0.42902169 -0.73595065 -0.014869451 65
-0.43522617 -0.7439059 0.015043975 67
-2.2886546 -3.9102938 -1.0460224 9
-0.43697354 -0.74629486 0.045322943 100
-2.2825801 -3.8983545 -0.87810302 13
-0.37461007 -0.63953 0.064843871 100
-2.2790673 -3.8892415 -0.71396697 26
-0.36643296 -0.6250698 0.088964626 13
-2.2815986 -3.8904474 -0.55377436 22
-0.29988214 -0.51113689 0.093860693 8
-0.44563156 -0.75956082 -0.077045679 100
-0.44193 -0.75264966 -0.045741629 105
-0.43260098 -0.73617274 -0.014904355 70
-0.43680438 -0.74065965 0.015009069 62
-2.374577 -4.0248046 -1.0788652 1
-0.43653038 -0.73960495 0.045008924 100
-2.388979 -4.0476007 -0.91359347 12
-0.37785318 -0.63993412 0.065018184 99
-2.3579326 -3.9918156 -0.73430347 9
-0.37972149 -0.64258593 0.091645755 15
-2.3325422 -3.9456856 -0.56279266 10
-0.29563123 -0.49988526 0.091983475 8
-0.45537966 -0.77000517 -0.078265861 100
-0.44557187 -0.75282127 -0.045846302 81
-0.43109173 -0.72777599 -0.014764735 68
-0.44653994 -0.75116271 0.015253403 68
-0.43808824 -0.73636019 0.044904254 100
-2.5205376 -4.2366433 -0.95824283 9
-0.38008472 -0.63861132 0.065018184 72
-2.4749324 -4.1566849 -0.7662161 7
-0.38907325 -0.65319484 0.093351923 12
-2.4438522 -4.1012278 -0.58619159 2
-0.3054662 -0.51242441 0.09448643 8
-0.45092344 -0.75643122 -0.077045679 55
-0.45126686 -0.7564069 -0.046160318 79
-0.43362936 -0.72626692 -0.014764735 70
-0.44402018 -0.74102277 0.015078879 61
-0.44681901 -0.74510378 0.045532286 100
-2.649405 -4.4180789 -1.0013657 6
-0.38846132 -0.64753181 0.066064052 44
-2.6480021 -4.4122467 -0.8150236 1
-0.39441636 -0.65693843 0.094083138 15
-0.30114865 -0.50119555 0.092609212 8
-0.45356113 -0.75485259 -0.077045679 57
-0.45596299 -0.7582503 -0.046369661 100
-0.43822408 -0.72817552 -0.014834546 68
-0.44557035 -0.73775667 0.015043975 51
-0.4483839 -0.74183035 0.045427613 100
-4.0459619 -6.6938562 -1.5203662 2
-2.5886443 -4.2811017 0.43769613 1
-0.39362392 -0.65046269 0.093351923 12
-0.30494297 -0.50352067 0.093234949 8
-0.46548235 -0.76860273 -0.078614481 100
-0.45343089 -0.74811405 -0.045846302 100
-0.44594875 -0.73519009 -0.015009069 63
-0.44398361 -0.72936445 0.014904355 45
-0.44889259 -0.73684919 0.04521827 87
-2.6906691 -4.4149513 0.45233828 4
-0.37831986 -0.62027413 0.089208372 5
-0.32728243 -0.53617495 0.099492334 7
-0.46712419 -0.76527262 -0.078440167 100
