# .PCD v0.7 - Point Cloud Data file format
VERSION 0.7
FIELDS x y z intensity
SIZE 4 4 4 4
TYPE F F F F
COUNT 1 1 1 1
WIDTH 1404
HEIGHT 1
VIEWPOINT 0 0 0 1 0 0 0
POINTS 1404
DATA ascii
1.1704148 2.8983366 -0.83753842 27
2.9889071 7.3978 0.1392702 25
1.2853734 3.1798153 -0.79182774 16
3.5022886 8.659771 0.48955056 19
1.4368339 3.5527205 -0.74491841 17
4.0669684 10.05094 0.94860309 40
1.6204119 4.0026107 -0.68393159 15
5.1756506 12.778079 1.6927652 20
1.8594167 4.588376 -0.60788435 12
2.1777325 5.371172 -0.50707209 12
14.085245 34.722572 7.2835612 20
2.4177732 5.9572382 -0.33693892 12
2.6802101 6.5972652 -0.12429604 31
13.494636 33.20002 9.602704 20
1.1797959 2.8924446 -0.83702081 28
3.0139515 7.3854723 0.1392353 28
1.2949928 3.1717005 -0.79092795 16
3.5279658 8.6363983 0.48892254 17
1.4447727 3.5367782 -0.74262863 17
4.0997596 10.031152 0.94808012 37
1.6328775 3.9932733 -0.6833058 15
5.2209773 12.76177 1.693009 23
1.8761706 4.5836954 -0.60812807 11
2.1889164 5.3451004 -0.50532901 12
14.189998 34.633228 7.275166 20
2.4400673 5.9524593 -0.33714828 12
11.870573 28.943457 7.2222791 10
2.699429 6.5786195 -0.12412152 31
11.741041 28.599148 8.283762 30
1.1847336 2.8758054 -0.83339739 25
3.0221887 7.3323832 0.13843249 28
1.3090287 3.1743667 -0.79272753 21
3.552757 8.6111069 0.48818982 19
1.4586064 3.5353432 -0.74339187 15
4.1294312 10.003887 0.94685996 39
1.6430376 3.9784198 -0.68174148 16
5.260942 12.732462 1.6915467 23
1.8951939 4.5844564 -0.60910302 10
2.2029932 5.3263798 -0.50428313 12
13.876908 33.53495 7.0545902 20
2.4577732 5.9365249 -0.33672959 12
13.319857 32.15696 8.0357008 12
2.7239058 6.5728512 -0.12419132 34
13.660958 32.947968 9.5571527 10
1.1955076 2.8734355 -0.833915 24
3.0485353 7.3236346 0.1384674 28
1.3148549 3.157186 -0.7895782 19
3.5743463 8.578373 0.48703846 16
1.470939 3.5302298 -0.74339187 17
4.1650953 9.9912491 0.94703424 42
1.65311 3.9635451 -0.68017709 17
5.3130021 12.732338 1.693984 23
1.9081272 4.5704851 -0.60812807 10
2.2215686 5.3186588 -0.50428313 14
13.657785 32.68203 6.8851523 19
2.4777117 5.9260659 -0.33662489 14
2.7499228 6.5706816 -0.12433095 34
13.728142 32.786034 9.5240231 20
1.2055314 2.8692446 -0.833915 23
3.0717549 7.3074188 0.13836268 25
1.3251127 3.1507804 -0.7891283 16
3.592706 8.5425396 0.48567775 18
1.487061 3.5341215 -0.74529999 20
4.1991706 9.9748144 0.94685996 39
1.6677033 3.9595714 -0.68049002 15
5.3473964 12.689933 1.6908154 23
1.9225261 4.5601382 -0.60764056 11
2.2447681 5.3218861 -0.50532901 12
14.177876 33.596424 7.0881729 20
2.4944968 5.9081812 -0.33610156 12
13.34534 31.592867 7.9178271 12
2.770139 6.5578423 -0.12426113 31
14.012774 33.156719 9.6451511 10
1.2185556 2.8721335 -0.8359856 23
3.0920634 7.2879887 0.13818815 28
1.3363161 3.1481626 -0.7895782 15
3.6185975 8.5207558 0.48515436 16
1.4947795 3.5180686 -0.74301028 15
4.217598 9.9215899 0.94319946 42
1.6815983 3.9558365 -0.68080288 15
5.4010992 12.699532 1.6944715 23
1.9360824 4.5500855 -0.60715312 11
2.2609904 5.3085175 -0.50480604 16
2.5125082 5.8962026 -0.3358922 12
13.453862 31.557396 7.9200764 12
2.7859542 6.5315776 -0.12394699 34
13.946427 32.681175 9.5209179 20
1.2227511 2.8556452 -0.83236206 22
3.119849 7.2826643 0.13829286 25
1.3465288 3.1416879 -0.7891283 12
3.6498954 8.5117426 0.48536369 16
1.497154 3.4914396 -0.73843086 13
4.2394772 9.881916 0.94075906 42
1.6922793 3.942682 -0.67955142 15
5.4618425 12.718907 1.6995901 20
1.947253 4.5323558 -0.60569072 11
2.2746465 5.2918386 -0.5039345 14
14.353475 33.376503 7.062223 20
2.5314972 5.8837266 -0.33568287 10
2.8079443 6.5199771 -0.12391209 34
14.009976 32.515198 9.4867544 20
1.2288795 2.8424931 -0.8297739 24
3.1341355 7.2460351 0.1378042 28
1.3574865 3.1369686 -0.7891283 12
3.6795869 8.4989491 0.48536369 15
1.5163534 3.5024068 -0.7418654 18
4.2668161 9.8506041 0.93919033 39
1.7068161 3.9385636 -0.67986429 15
5.5014725 12.688835 1.6981276 23
1.9646409 4.5291734 -0.60617816 12
2.285172 5.2655902 -0.50219136 14
6.1340308 14.127525 2.9937932 5
2.5520189 5.8748546 -0.33568287 10
2.8298905 6.5083013 -0.12387718 34
14.058649 32.317291 9.4432716 19
1.2442032 2.8505805 -0.83339739 25
3.1586118 7.2332177 0.1377693 28
1.3645282 3.123282 -0.78687876 14
3.7140286 8.4970341 0.48599172 15
1.5269964 3.493495 -0.74110222 13
4.2971864 9.8265209 0.93831873 35
1.7181795 3.9271519 -0.67892563 15
5.5568724 12.695015 1.70154 20
1.9796433 4.5204687 -0.60593444 13
14.690969 33.530556 5.7980881 45
2.308337 5.2685304 -0.50323725 14
2.569303 5.858593 -0.33526415 12
2.8533938 6.5002151 -0.12391209 31
14.172935 32.271553 9.4443073 19
1.2533664 2.8444521 -0.83287972 23
3.1806161 7.2148275 0.13762967 28
1.3714895 3.109585 -0.78462929 13
3.7356019 8.4657469 0.48494503 16
1.5407661 3.4917362 -0.7418654 12
4.3387055 9.8278637 0.93988752 39
1.7286841 3.9139028 -0.67767417 15
5.6123819 12.700962 1.7049522 20
1.9881883 4.497191 -0.60374081 12
14.755178 33.35984 5.7774386 45
2.3283243 5.2640858 -0.50358588 14
14.409835 32.563686 6.9217873 19
2.5889308 5.8477621 -0.33515951 14
2.8744478 6.486558 -0.12384228 28
14.280807 32.211285 9.4412012 19
1.2640723 2.8418255 -0.83339739 25
3.2171624 7.2292595 0.13811834 28
1.3847144 3.1101191 -0.78597897 14
3.7618778 8.4453583 0.48452634 15
1.5457548 3.4701962 -0.73843086 16
4.3948798 9.8617964 0.94459391 42
1.74475 3.9132571 -0.67861283 16
5.6639638 12.697607 1.7071459 23
2.0022552 4.486598 -0.6032533 12
2.3434377 5.2486482 -0.50288862 14
14.681967 32.868111 6.9973478 19
2.6068816 5.8332195 -0.33484548 12
2.8905389 6.4618826 -0.12356304 31
14.509946 32.422215 9.5178118 10
1.2708199 2.8303456 -0.83132678 25
3.2399178 7.2125139 0.13801363 25
1.3979582 3.1105993 -0.78732872 13
3.7831461 8.4139585 0.48347965 15
1.5562494 3.4611979 -0.73766762 16
4.4260063 9.8391285 0.94389671 42
1.7640731 3.9197526 -0.68080288 20
5.7009149 12.66147 1.7049522 20
2.019536 4.483201 -0.60374081 12
2.3535573 5.2222729 -0.50114554 12
2.6321566 5.8350072 -0.33547351 12
2.9114304 6.4481087 -0.12349322 31
14.653261 32.438263 9.5374823 20
1.2775029 2.8188539 -0.8292563 25
3.2535121 7.1756644 0.13752496 25
1.4063933 3.1003761 -0.78597897 13
3.8157973 8.4079752 0.48389828 15
1.5691341 3.4575319 -0.73804927 13
4.4562035 9.8145494 0.94302511 40
1.7679422 3.8919883 -0.67704844 17
5.7426162 12.636069 1.704221 20
2.0335267 4.4725113 -0.6032533 12
2.3659983 5.2013288 -0.49992532 10
14.789089 32.496777 6.940105 19
2.6442285 5.8076086 -0.33442679 12
14.246712 31.276022 7.934474 12
2.9281175 6.4251685 -0.1232489 34
14.711882 32.267399 9.5022821 20
1.2881377 2.8161342 -0.8297739 23
3.2760458 7.1588073 0.13742025 28
1.4163952 3.0936766 -0.78552908 16
3.8534389 8.4127636 0.48494503 15
1.5836455 3.4573884 -0.7391941 15
4.4647074 9.7427835 0.93762147 30
1.7782249 3.8786099 -0.67579699 15
5.7784104 12.597905 1.7017837 20
2.0507834 4.4689937 -0.60374081 11
2.3816476 5.1876063 -0.4994024 12
14.813928 32.252277 6.8988905 19
2.6619844 5.7928982 -0.33411276 14
2.9446771 6.4021916 -0.12300456 34
14.608009 31.745516 9.3635559 19
1.2987705 2.8133745 -0.83029151 21
3.2976625 7.1400657 0.13728063 31
1.4239153 3.0816376 -0.78372949 16
3.8660223 8.3630028 0.48285159 16
1.5940577 3.4482749 -0.73843086 21
4.4936733 9.7162886 0.93657559 32
1.7950684 3.8795519 -0.67704844 16
5.8265233 12.586664 1.7030023 20
2.0596979 4.4473968 -0.60179085 13
2.408114 5.1973405 -0.50114554 12
14.934685 32.218178 6.9027066 19
2.6805098 5.7799459 -0.33390343 14
14.463876 31.174034 7.9340234 24
2.9636412 6.3846178 -0.12286495 34
14.892871 32.069283 9.4743309 19
1.3085812 2.8088248 -0.83029151 22
3.3191853 7.1212616 0.137141 28
1.4379585 3.0837128 -0.78552908 21
3.8985627 8.356699 0.48327026 16
1.5994421 3.4284575 -0.73537791 16
4.5216613 9.6879063 0.93535542 34
1.8069292 3.8696821 -0.67642272 15
5.9435234 12.722718 1.7242076 20
2.0718467 4.4329872 -0.60081595 12
2.4237108 5.1834874 -0.50062257 10
2.7006681 5.7705545 -0.33390343 14
2.9808216 6.3633676 -0.12265551 39
15.118666 32.260254 9.5462828 20
1.3150908 2.7972462 -0.82822096 25
3.3508339 7.1241078 0.13742025 28
1.4503728 3.0822012 -0.78642887 21
3.9345169 8.3574944 0.48410761 16
1.6139096 3.4281819 -0.73652273 18
4.5554538 9.6720619 0.93535542 35
1.8204252 3.8633516 -0.67642272 15
6.0293655 12.789881 1.7361507 21
2.0890026 4.429318 -0.60130334 12
2.4298859 5.1497698 -0.49818221 10
2.7250607 5.7701216 -0.33442679 12
2.9978838 6.3420787 -0.12244608 39
15.206414 32.154884 9.5307531 20
1.3240198 2.7908931 -0.82770336 28
3.3671024 7.094305 0.13707121 28
1.458616 3.0718384 -0.78507918 18
3.9568124 8.3292761 0.48327026 15
1.62334 3.4172068 -0.73537791 16
4.5806289 9.6381111 0.93361235 35
1.8288112 3.8462691 -0.67454553 12
6.0876212 12.797437 1.7400507 21
2.1078603 4.4291706 -0.60227835 10
2.448705 5.143055 -0.49835655 12
2.7417479 5.7533627 -0.33400813 12
14.925402 31.305824 8.0069075 12
3.0148399 6.320745 -0.12223665 36
15.333533 32.132996 9.5400705 20
1.3337532 2.7862546 -0.82770336 23
3.3840737 7.0662751 0.13675706 28
1.4684886 3.0649703 -0.78462929 16
3.9789548 8.3010063 0.4824329 15
1.6369549 3.4150608 -0.73614115 15
4.6176925 9.6292467 0.93430954 35
1.8353912 3.825613 -0.67204249 12
6.1339707 12.77969 1.7405381 21
2.1215909 4.4182062 -0.60179085 11
2.4726832 5.1470466 -0.49957672 10
20.268072 42.170467 9.0947199 47
2.7522924 5.723958 -0.33285671 14
3.0360165 6.3083816 -0.12220175 34
15.47577 32.141945 9.5587053 20
1.3443117 2.7833211 -0.82822096 27
3.409591 7.0562191 0.13679196 31
1.4723911 3.0457909 -0.78103006 13
4.0026908 8.2762775 0.48180485 15
1.6522856 3.4163952 -0.73766762 16
4.653883 9.6184492 0.93483251 37
1.8556168 3.8334088 -0.67454553 12
6.2027721 12.808224 1.7473627 21
2.1335394 4.4036274 -0.60081595 13
6.6774569 13.776149 2.4247346 7
2.4871576 5.1312132 -0.49887949 12
20.243837 41.746155 9.0183973 46
2.7740009 5.7179093 -0.33306605 14
3.0588934 6.2995439 -0.12223665 36
15.622487 32.158962 9.5799284 10
1.3557111 2.7820852 -0.8292563 27
3.4368284 7.0496674 0.13689667 25
1.4881405 3.0511413 -0.78372949 16
4.0298033 8.258666 0.48159552 15
1.6573129 3.3964915 -0.73461467 15
4.687427 9.6021461 0.93483251 35
1.8698545 3.8286822 -0.67485833 15
6.239604 12.77044 1.7451692 21
2.1436663 4.3854527 -0.59935349 12
22.059645 45.109047 7.9531293 4
2.5076785 5.1278701 -0.4994024 12
2.792186 5.7046037 -0.33285671 14
3.0755875 6.2780519 -0.12202723 32
1.3577428 2.7617333 -0.82459748 24
3.4622996 7.0394211 0.13693158 28
1.4987812 3.0459285 -0.78372949 16
4.0568447 8.2409649 0.48138618 15
1.6682925 3.3889241 -0.73423308 12
4.7121162 9.5678501 0.93308938 35
1.8823339 3.8203607 -0.67454553 12
6.3131037 12.807341 1.7532126 24
2.1624744 4.3850636 -0.60032845 11
2.5202725 5.1083655 -0.49835655 12
2.8111989 5.6930308 -0.33275205 12
3.084192 6.2403889 -0.12150366 35
1.363942 2.7500539 -0.82252699 24
3.4824052 7.0183368 0.13675706 25
1.5094051 3.040678 -0.78372949 15
4.0891376 8.2339087 0.48180485 15
1.6809844 3.3848386 -0.73461467 13
4.7383914 9.5370703 0.93169487 37
1.8921418 3.8066907 -0.67329407 12
6.3895884 12.849216 1.7619872 21
2.1742303 4.3703799 -0.59935349 11
2.534539 5.092401 -0.49765927 14
2.8319435 5.6849718 -0.33285671 14
3.1023858 6.2224269 -0.12136403 32
14.994349 30.060888 9.0012083 9
1.3821766 2.7625532 -0.82770336 24
3.5104647 7.0132899 0.13689667 25
1.5156479 3.0266778 -0.78147995 19
4.1124854 8.2088718 0.48117682 13
1.6919094 3.3771956 -0.73423308 13
4.7689776 9.5151281 0.93117195 39
1.9001067 3.7894669 -0.67141682 13
6.4504204 12.858773 1.7663743 21
2.1912546 4.366312 -0.599841 12
2.5523007 5.0835223 -0.49765927 14
20.517174 40.847168 8.8852119 43
2.8437011 5.6589899 -0.33191466 14
3.1177967 6.1990552 -0.12111971 32
19.423426 38.602398 11.579047 14
1.3909416 2.7559867 -0.82718569 22
3.5358241 7.002779 0.13693158 28
1.5244458 3.0178905 -0.78058016 15
4.1303067 8.1730738 0.47992074 13
1.7054596 3.374773 -0.73499632 17
4.7976656 9.4895325 0.93030041 37
1.9186715 3.7933881 -0.67329407 15
6.50244 12.850347 1.7683243 21
2.201102 4.3480101 -0.59837854 12
2.5718296 5.0781374 -0.49800789 12
2.8607273 5.6436853 -0.33160067 14
3.1394181 6.1881337 -0.12111971 32
15.927814 31.381838 9.4298134 9
1.3996763 2.7493932 -0.82666808 24
3.5593379 6.9886136 0.13689667 25
1.5358564 3.0142863 -0.78103006 18
4.1588092 8.1586075 0.47992074 13
1.7100959 3.3548067 -0.73194337 13
4.8361902 9.4833794 0.9313463 37
1.9283112 3.7796285 -0.67204249 13
6.5472598 12.827569 1.7683243 21
2.2144597 4.3367653 -0.59789103 12
2.5904472 5.0709028 -0.49818221 10
19.776196 38.696011 8.447114 36
2.8794992 5.6318865 -0.33149597 12
15.215978 29.747421 7.7140212 11
3.1582682 6.1717954 -0.12101499 35
15.998504 31.250395 9.4070368 9
1.4066184 2.7393348 -0.82511514 27
3.5800576 6.9690304 0.13675706 28
1.5463668 3.0089078 -0.78103006 20
4.1881781 8.1458168 0.48002547 13
1.720899 3.3470705 -0.73156172 13
4.8665318 9.4611225 0.93082333 39
1.9469134 3.7834146 -0.67391974 12
6.5974455 12.815228 1.7697867 21
2.2295854 4.3290081 -0.59789103 12
2.5990031 5.0441203 -0.4964391 10
20.22418 39.234028 8.5799179 38
2.9009733 5.625351 -0.33170533 12
3.1687853 6.1394105 -0.12059613 35
12.666717 24.530817 7.3975663 6
1.4117303 2.7258306 -0.82252699 24
3.5859621 6.9209814 0.13605896 25
1.5595517 3.0086818 -0.78237975 18
4.2119923 8.122282 0.47950208 15
1.7325729 3.3410425 -0.73156172 13
4.8986082 9.4423103 0.93064898 42
1.9510094 3.7590623 -0.67079103 12
6.6586084 12.823831 1.7741741 21
2.2446818 4.3211994 -0.59789103 11
2.6120024 5.0261769 -0.49556756 6
20.198008 38.849644 8.5112267 37
2.9224336 5.6187348 -0.33191466 14
3.1957383 6.1389537 -0.12080556 42
1.4212347 2.7208869 -0.82252699 24
3.6063964 6.9013324 0.13591935 25
1.565531 2.9945841 -0.78013027 18
4.2421641 8.1110716 0.47971141 15
1.7496817 3.3454134 -0.73385143 16
4.9333878 9.4286823 0.93099761 37
1.96412 3.7522287 -0.67079103 15
6.707006 12.807548 1.775149 21
2.2652805 4.3238873 -0.59935349 12
2.6323071 5.0223222 -0.4960905 10
2.934608 5.5943489 -0.33107728 13
3.1069598 5.9203973 1.5436141 4
3.2152846 6.1242223 -0.12073575 40
3.0793872 5.8628826 1.7744634 44
1.4352266 2.7244551 -0.82511514 22
3.6286016 6.8851624 0.13584954 25
1.5723385 2.9822063 -0.77833068 18
4.2667255 8.0891466 0.47929272 15
1.7613496 3.3392854 -0.73385143 15
4.9699922 9.4184523 0.93169487 35
1.9827383 3.7558315 -0.67266828 17
6.7553835 12.791078 1.7761239 18
2.274797 4.3054223 -0.59789103 12
2.6563387 5.0254345 -0.49731067 12
3.1267955 5.9129767 1.3001726 31
2.947582 5.571713 -0.33034459 11
3.1194015 5.8940153 1.539565 51
3.2263513 6.0935211 -0.1203518 32
3.0944095 5.8418541 1.7713577 78
1.44654 2.7228408 -0.82615042 25
3.6544857 6.8759885 0.13591935 25
1.5836544 2.97842 -0.77878052 15
4.2972798 8.0820065 0.47971141 13
1.7656184 3.3192508 -0.73079848 15
5.0065765 9.4080858 0.93239218 8
1.9967656 3.7506304 -0.67298114 15
3.1802363 5.9710937 0.83066154 12
2.2879422 4.2939539 -0.59740359 12
3.1629188 5.9360886 1.0653188 44
2.6673052 5.0038228 -0.4960905 12
3.1335611 5.8760409 1.2944483 51
2.9726498 5.5719647 -0.33097261 15
3.1234415 5.8521438 1.5314667 57
3.2427757 6.0757308 -0.12021218 35
3.1164937 5.8366737 1.7729106 100
1.4496503 2.7058544 -0.82252699 24
3.6791575 6.8673558 0.13598914 23
1.5972042 2.9800227 -0.78058016 13
3.2344234 6.032176 0.35871068 14
1.7734828 3.3061466 -0.72927201 16
3.2145061 5.9900088 0.59475076 55
2.0110598 3.7474701 -0.67360687 15
3.2018964 5.9640131 0.83114898 39
2.3002913 4.2828445 -0.59691608 12
3.1752071 5.9093499 1.062503 57
2.6781514 4.9821982 -0.49487031 12
3.1297896 5.8223867 1.2849078 72
2.9854364 5.5515213 -0.33034459 15
3.1095917 5.779974 1.5152704 42
3.2488019 6.0362 -0.1196537 32
3.1249406 5.8036475 1.7661812 82
1.4567789 2.697633 -0.82149172 23
3.2544775 6.0240521 0.11951409 31
1.6057428 2.9710007 -0.77968031 14
3.2440596 5.9997673 0.35745463 26
1.7872373 3.3054287 -0.73041683 17
3.2248743 5.9617906 0.59300768 94
2.0166068 3.7265294 -0.67110395 16
3.2198586 5.9475636 0.83041775 46
2.3152285 4.2747884 -0.59691608 12
3.1939318 5.8947573 1.0618773 65
2.6946571 4.9732904 -0.49487031 12
3.1734827 5.8545771 1.2944483 72
3.0067024 5.5445766 -0.33055395 15
3.1678469 5.8393135 1.5337163 53
3.2679436 6.0213084 -0.11958389 37
3.1608524 5.8215652 1.774981 53
1.4689586 2.6976206 -0.8230446 25
3.2601781 5.9845595 0.1189556 57
1.6123744 2.9585328 -0.77788073 19
3.2668965 5.9919124 0.35766396 52
1.8015847 3.3043404 -0.73156172 16
3.2437556 5.947 0.59265906 87
2.0248723 3.7107966 -0.66953957 15
3.2310898 5.9188633 0.82798034 40
2.3320384 4.2701659 -0.59740359 13
3.2173316 5.8887725 1.0628159 57
2.7081809 4.9568591 -0.49417305 12
3.2070835 5.8675809 1.299791 63
3.0174131 5.5182772 -0.3296119 13
3.2003703 5.8504453 1.539565 14
3.2879806 6.008111 -0.11954898 40
1.4755764 2.687397 -0.82149172 24
3.2839351 5.9784017 0.11906032 63
1.6217541 2.9511781 -0.77743083 16
3.2781692 5.9629717 0.35661724 42
1.8112156 3.2945912 -0.73079848 16
3.2731352 5.951354 0.59422785 73
2.0387661 3.7054358 -0.66985244 15
3.2593877 5.9214621 0.82993031 27
2.3411834 4.2515664 -0.59594113 11
3.247401 5.8948069 1.0659446 21
2.7283523 4.95261 -0.49469596 10
3.0395517 5.5129571 -0.32992589 15
3.3118298 6.0018501 -0.1196537 45
16.402946 29.713879 9.0943832 9
1.4943057 2.6991308 -0.82666808 29
3.3086579 5.9739003 0.11919994 55
1.6311008 2.943795 -0.77698094 15
3.3047752 5.9619722 0.35724527 27
1.8208023 3.2848144 -0.73003525 15
3.3064489 5.962544 0.5964939 16
2.0468962 3.6896608 -0.66828811 15
7.0494351 12.701829 1.7836798 18
2.3521566 4.2364254 -0.59496623 13
16.86446 30.361776 5.5008621 39
2.7436879 4.9395733 -0.49434736 12
16.275127 29.288736 6.5130749 18
3.0578053 5.5005684 -0.32982123 13
3.3259563 5.9780207 -0.11940937 32
17.136045 30.787403 9.4412012 9
1.4914771 2.6719694 -0.81993878 25
3.3441164 5.988502 0.11972351 23
1.6423162 2.939785 -0.77743083 18
4.4412322 7.9466534 0.47709462 12
1.8303411 3.2750113 -0.72927201 16
5.1911607 9.284688 0.93064898 37
2.0713356 3.7031803 -0.67204249 16
7.0869417 12.66502 1.7819737 18
2.3688686 4.2316542 -0.59545368 12
2.7550738 4.9195352 -0.49330151 13
16.519278 29.485239 6.5695539 18
3.0779626 5.4916043 -0.32992589 15
3.3468049 5.9663734 -0.11940937 32
14.409053 25.676649 7.8893228 6
1.4979534 2.661696 -0.81838584 24
3.8162844 6.7783437 0.13577972 28
1.6583054 2.9442225 -0.78013027 15
4.4571805 7.9102197 0.47583854 1
1.8427265 3.2703123 -0.7296536 17
5.2186494 9.2578306 0.92977744 40
2.0755143 3.6804435 -0.66922677 15
7.1525693 12.678239 1.7873359 18
2.3855779 4.2268162 -0.59594113 10
2.7722259 4.9098902 -0.49330151 13
16.500448 29.212009 6.5214701 18
3.1010451 5.487781 -0.33034459 15
3.3725317 5.9633579 -0.11958389 32
17.190748 30.384546 9.3542385 9
1.510096 2.6614912 -0.81993878 25
3.8310366 6.7493305 0.13546558 28
1.6608752 2.9248588 -0.77653104 15
1.8512223 3.2587383 -0.72850877 16
5.2509317 9.2395592 0.92977744 39
2.0854208 3.6680241 -0.66828811 16
7.1967845 12.653193 1.7873359 18
2.4003167 4.2184639 -0.59594113 12
2.7913201 4.9036455 -0.49365011 13
16.845203 29.580732 6.6168747 18
3.1102941 5.4595695 -0.32929787 15
15.94159 27.971281 7.4328322 11
3.3953097 5.9550228 -0.1196537 35
17.271812 30.280729 9.3407793 9
1.5193752 2.6562047 -0.81993878 21
3.8525879 6.7324443 0.13539577 31
1.6701074 2.9173515 -0.77608109 15
1.2794423 2.2340338 0.1349221 10
1.8664869 3.2590723 -0.73003525 15
5.2732496 9.2038851 0.92803437 39
2.1021419 3.6675766 -0.66953957 15
7.2468247 12.638331 1.7887983 18
2.4071264 4.1962829 -0.59399122 11
2.8084214 4.8938713 -0.49365011 13
16.85059 29.351503 6.5787129 18
3.1253555 5.441751 -0.32887918 15
15.985744 27.822529 7.4080887 11
3.4230475 5.9552732 -0.11989804 40
13.600512 23.652014 7.3106031 6
1.5315338 2.6559052 -0.82149172 24
3.8740623 6.7154932 0.13532595 31
1.679306 2.9098167 -0.77563125 13
1.2762483 2.2105274 0.13377072 69
1.8739259 3.2457356 -0.72850877 15
5.2923841 9.1629972 0.92576832 32
2.1139426 3.6585069 -0.66922677 16
7.2938809 12.618113 1.7895297 21
2.4167922 4.1792626 -0.59277254 9
2.8195 4.873692 -0.49260426 11
16.855593 29.124279 6.5409331 18
3.1493366 5.4394488 -0.32940254 13
3.4327879 5.9242549 -0.11951409 35
13.640367 23.530851 7.287827 12
1.5388529 2.647203 -0.82045639 23
3.8974817 6.7019281 0.13532595 31
1.6904336 2.9056208 -0.77608109 15
1.2819469 2.2026069 0.13356137 73
1.8803059 3.2306914 -0.72660065 17
5.3213315 9.1393013 0.92524534 34
2.1276951 3.6528115 -0.66953957 17
7.3798552 12.664613 1.7997667 21
2.4363613 4.1793771 -0.59399122 10
2.8425188 4.874146 -0.49365011 13
17.134237 29.368809 6.609242 18
3.1693082 5.4301505 -0.32950723 16
3.445379 5.8984213 -0.11923484 32
13.736051 23.506454 7.295074 6
1.544178 2.6351478 -0.81838584 28
3.9157975 6.6796565 0.13515143 25
1.7035214 2.9047468 -0.77743083 15
1.2916496 2.2015636 0.13377072 75
1.8895855 3.2207208 -0.72583747 18
5.3461447 9.1086407 0.92402512 30
2.13743 3.6402533 -0.66860098 18
7.4310589 12.650754 1.8014728 18
2.4509363 4.1708465 -0.59399122 12
2.8494167 4.8470182 -0.49190697 13
17.147085 29.156509 6.5748963 18
3.1882451 5.4190536 -0.32950723 15
3.472034 5.896699 -0.11944427 32
14.16512 24.047609 7.4783177 12
1.5553325 2.6330676 -0.81942111 23
3.9309497 6.6521749 0.1348722 25
1.7096845 2.892072 -0.77563125 18
1.2972938 2.1936028 0.13356137 73
1.9048148 3.2208643 -0.72736394 18
5.3951516 9.1190758 0.92698848 9
2.1450939 3.62427 -0.66703665 17
7.5287805 12.715267 1.8143909 15
2.4634564 4.1588511 -0.59350377 11
2.8724122 4.8473277 -0.49295285 13
17.118614 28.876926 6.5252862 18
3.1989899 5.3941483 -0.32866985 15
3.4966803 5.8914208 -0.11958389 32
14.14245 23.818619 7.4224129 12
1.5664891 2.6309435 -0.82045639 24
3.9561946 6.6418481 0.13494201 25
1.7157785 2.8793905 -0.77383161 15
1.2947158 2.1719058 0.13251466 76
1.9160454 3.2141962 -0.72736394 17
1.3337772 2.2365444 0.22782511 1
2.160769 3.6218483 -0.66797519 16
7.6422958 12.804823 1.8309652 15
2.4738891 4.1434083 -0.59252882 12
2.8872731 4.8338504 -0.49260426 11
17.354248 29.04283 6.5764236 18
3.2116523 5.3726625 -0.32804179 16
3.5274887 5.8963399 -0.11993293 32
13.683833 22.864025 7.1397824 5
1.5766581 2.6271155 -0.82097405 27
3.9772949 6.6245699 0.1348722 25
1.7308365 2.881736 -0.77608109 18
1.2899448 2.1468296 0.13125859 76
1.9262416 3.205806 -0.7269823 20
1.3015438 2.1652775 0.22102696 12
2.1774697 3.6210566 -0.66922677 15
7.788249 12.946471 1.8550954 9
2.4903831 4.1381493 -0.59301627 12
11.130149 18.487125 3.4177806 14
2.8979616 4.8135009 -0.49155837 11
11.047832 18.343153 4.1623077 7
3.2386343 5.3751044 -0.32887918 15
10.981565 18.218733 4.9111314 5
3.5377221 5.8668675 -0.11958389 32
10.929627 18.118242 5.6696901 7
1.5848185 2.6199434 -0.82045639 28
4.0003967 6.6106448 0.1348722 17
1.7418951 2.8773437 -0.77653104 15
1.2994995 2.1457307 0.13146794 75
1.9313173 3.1889868 -0.72469258 21
1.3111595 2.164129 0.22137558 75
2.1890733 3.6117432 -0.66891384 15
7.791193 12.849612 1.845102 3
2.5048139 4.1294303 -0.59301627 10
11.13518 18.350206 3.3996341 13
2.9126801 4.7999482 -0.49120975 11
11.083265 18.257488 4.1516223 7
3.2521925 5.3552313 -0.32835582 13
11.027897 18.151974 4.9034829 5
3.5602555 5.8579011 -0.1196537 37
17.064787 28.066645 8.8014002 8
1.5889264 2.6061475 -0.81786817 25
1.7509128 2.8695824 -0.77608109 19
1.3069822 2.1411812 0.13146794 75
1.9465296 3.1889286 -0.72621906 15
1.3062451 2.1391342 0.21928383 74
2.194458 3.5922804 -0.66672373 16
11.241611 18.395056 2.6470025 7
2.5150707 4.1138878 -0.59204131 10
11.186794 18.291006 3.3958797 13
2.9262979 4.7846532 -0.4906868 9
11.163326 18.24548 4.1577282 7
3.2750354 5.3506613 -0.32877451 13
13.917155 22.72855 6.1528611 16
3.5869505 5.8556685 -0.11986313 32
13.795336 22.511929 7.0745602 5
1.6010488 2.6055226 -0.81942111 21
1.28703 2.0936759 0.042898018 2
1.7578572 2.8584731 -0.77473146 15
1.312356 2.1332035 0.13125859 76
1.9607363 3.1871305 -0.72736394 18
1.3137037 2.1345615 0.21928383 69
2.2049139 3.5812337 -0.66609806 15
14.364349 23.321541 3.3631067 10
2.5314975 4.1084642 -0.59252882 11
14.461773 23.46137 4.3651476 19
2.9429832 4.7744088 -0.4906868 11
14.470865 23.466953 5.3590617 13
3.2863512 5.3272986 -0.32804179 15
3.6073704 5.843111 -0.11986313 37
13.868741 22.455429 7.0719719 16
1.6091162 2.5982759 -0.81890345 16
1.2985436 2.0959697 0.043037634 38
1.7616628 2.8423822 -0.77203202 15
1.3103216 2.1133327 0.13031654 74
1.9728832 3.1819355 -0.72774553 15
1.3200971 2.1282697 0.21910954 74
2.2215667 3.58023 -0.66734952 16
2.5405879 4.0911698 -0.59131008 11
14.387226 23.159052 4.3182178 19
2.9564779 4.7590289 -0.49016386 11
17.734112 28.535439 6.5306292 18
3.3017647 5.3107047 -0.32772776 13
3.6298563 5.8338795 -0.11993293 35
13.984818 22.46756 7.0911245 11
1.6161312 2.5893652 -0.81786817 18
1.3069106 2.0931208 0.04307254 69
1.7767365 2.8444791 -0.7742815 14
1.3145159 2.1036642 0.13000253 68
1.9787774 3.1667044 -0.72583747 18
1.3232932 2.1168911 0.21841228 74
2.2319548 3.5691042 -0.66672373 15
2.5569589 4.0856428 -0.59179759 10
2.9751835 4.7520595 -0.49051252 11
17.779428 28.386835 6.5107851 18
3.3287678 5.3126864 -0.32856518 13
3.6406384 5.8059244 -0.11961879 32
18.261892 29.111946 9.2082644 9
1.6200153 2.5755329 -0.81528002 21
1.3120794 2.0851607 0.043002732 72
1.7866554 2.8382592 -0.7742815 15
1.3175924 2.0923035 0.12958384 68
1.9898169 3.1597793 -0.72583747 15
1.3285512 2.1088872 0.21806367 76
2.2486134 3.567975 -0.66797519 15
1.3392392 2.1242108 0.30832946 7
2.5669696 4.0699754 -0.59082258 12
27.606607 43.75383 8.1940384 57
2.9864385 4.7332191 -0.48964092 11
17.758928 28.135351 6.4672804 18
3.3430257 5.2942801 -0.32814649 11
3.6640835 5.798255 -0.11972351 32
13.522989 21.39126 6.7810593 15
1.6289964 2.5698619 -0.81528002 23
1.3075706 2.0619912 0.042618778 70
1.7955073 2.8303602 -0.77383161 16
1.3280991 2.0927503 0.12989786 72
1.9987316 3.1494985 -0.72507423 17
1.3230906 2.0840521 0.21597193 68
2.2525811 3.5467649 -0.66547227 16
2.5832918 4.0643401 -0.59131008 13
27.705105 43.572193 8.1780825 100
2.9911819 4.7042723 -0.48772353 9
14.515759 22.820335 5.2571697 26
3.3657761 5.2893176 -0.32856518 13
3.6832285 5.7837424 -0.1196886 40
13.58928 21.330889 6.7769184 21
1.6421176 2.5706718 -0.81735063 23
1.3082983 2.0473051 0.042409346 67
1.8043274 2.8224332 -0.77338171 19
1.3278641 2.076323 0.12916516 67
2.0107718 3.144156 -0.72545588 16
1.3314294 2.0811 0.21614623 70
2.2617543 3.5338883 -0.66453367 17
1.3358408 2.0863883 0.3041859 67
2.5974605 4.0552998 -0.59131008 11
27.826134 43.426975 8.1690083 57
3.0140352 4.703867 -0.48876941 9
17.998369 28.078444 6.4829268 18
3.3799028 5.2708139 -0.32814649 13
17.828739 27.792454 7.6231413 11
3.7066364 5.775898 -0.11979332 35
13.700169 21.340231 6.7950354 5
1.6479433 2.5600512 -0.81579769 21
1.3176025 2.0460877 0.042479157 70
1.8131126 2.8144798 -0.77293181 20
1.3286116 2.0616026 0.12853712 70
2.0249245 3.1420689 -0.72660065 17
1.3376068 2.074765 0.21597193 68
2.2762187 3.5292916 -0.66515946 17
1.3388102 2.0750411 0.30321094 69
2.6116016 4.0462074 -0.59131008 10
3.029357 4.6916432 -0.4885951 11
18.032352 27.916502 6.4600301 18
3.3939462 5.2522726 -0.32772776 13
18.045197 27.914978 7.6739802 11
3.7311182 5.7696414 -0.11993293 35
10.332772 15.972044 5.0971823 19
1.6579214 2.5559034 -0.81631529 21
1.3182051 2.0314116 0.042269729 70
1.820803 2.8048649 -0.77203202 20
1.3292737 2.0469015 0.12790908 68
2.0316038 3.1283946 -0.72507423 13
1.343755 2.0684125 0.21579762 74
2.2895982 3.5229824 -0.66547227 20
1.346046 2.0703547 0.30321094 69
2.6192148 4.0270829 -0.58984768 10
3.0478854 4.684382 -0.4889437 13
18.087927 27.789211 6.4451461 18
3.4209795 5.2537823 -0.32856518 13
14.652719 22.494383 6.1978517 8
3.7392273 5.7381525 -0.11954898 20
10.378971 15.92131 5.0925236 29
1.6636617 2.5452499 -0.81476241 21
1.3252887 2.0267975 0.042269729 70
1.8305837 2.7984917 -0.77203202 21
1.3360538 2.0424826 0.12790908 67
2.0360608 3.111428 -0.72278452 15
1.3444201 2.0537071 0.21475175 74
2.3029649 3.5166206 -0.66578513 17
1.3532642 2.0656438 0.30321094 69
2.6347313 4.0216951 -0.59033519 10
3.0620348 4.6703811 -0.4885951 15
18.197735 27.745605 6.4497261 18
3.438201 5.24014 -0.32846051 15
10.43489 15.891652 5.0940766 6
1.6678432 2.5332651 -0.81269181 22
1.321003 2.0056918 0.041920681 70
1.8452154 2.8005416 -0.7742815 19
1.3417214 2.0363729 0.12780441 72
2.0506887 3.1112163 -0.72431099 18
1.3402549 2.0326045 0.21300863 72
2.3124397 3.505666 -0.66515946 16
1.3535461 2.0512037 0.30174851 69
2.6458659 4.0096231 -0.58984768 11
1.3505427 2.0458753 0.38827038 2
3.0665276 4.6435747 -0.48685199 13
3.4577625 5.2320409 -0.32866985 15
1.3233993 2.0017145 -0.041885775 2
18.113659 27.387545 8.798295 8
1.680506 2.5341601 -0.81476241 25
1.3254362 1.9979668 0.041850869 70
1.8491038 2.786289 -0.77203202 21
1.3477161 2.0300131 0.12769975 70
2.0582788 3.0991323 -0.72316611 13
1.3480906 2.0298083 0.21318294 76
2.3185854 3.4897518 -0.66359508 17
1.3537484 2.0367844 0.30028611 69
2.6664417 4.0102801 -0.59131008 10
1.3565824 2.0395033 0.38795751 32
3.0849242 4.6361599 -0.48720059 11
26.60289 39.96487 9.3320866 51
3.4660404 5.2049785 -0.32772776 13
1.3303781 1.9970828 -0.041885775 35
14.536684 21.813337 7.0238314 5
1.6897824 2.5279839 -0.81476241 25
1.3294152 1.988109 0.041746158 72
1.857136 2.7762539 -0.77113223 21
1.3462609 2.011781 0.12686236 66
2.0739915 3.0980935 -0.72469258 13
1.3521956 2.019887 0.21266 72
2.3313611 3.4812298 -0.66359508 17
1.352366 2.018615 0.29833618 67
2.6700697 3.9839909 -0.58887273 10
1.3629489 2.0328765 0.38764465 66
3.1018972 4.6248212 -0.48720059 11
22.693157 33.821991 7.917047 27
3.4784174 5.1822896 -0.32709977 13
1.3365744 1.9905329 -0.041850869 58
14.475418 21.549837 6.9560208 16
1.7001164 2.5233753 -0.81528002 28
1.3400455 1.9881978 0.041850869 68
1.8705679 2.7742755 -0.77248192 22
1.3469249 1.9968983 0.12623434 68
2.0782073 3.081069 -0.72240293 16
1.3595893 2.0149174 0.21266 72
2.3463147 3.4759369 -0.66422081 16
1.3619769 2.0169353 0.29882365 71
2.684653 3.9741783 -0.58887273 11
1.3571177 2.0082273 0.38389024 65
3.1224835 4.6205697 -0.48789781 11
22.88146 33.846657 7.9414711 27
3.5065544 5.1850061 -0.32804179 15
1.3360151 1.9740286 -0.041606538 68
14.631209 21.61021 6.9927735 5
1.707829 2.5158277 -0.81476241 22
1.3436078 1.978545 0.041746158 72
1.8780512 2.7645047 -0.77158207 18
1.3550093 1.9938366 0.126339 72
2.0911558 3.077044 -0.72316611 13
1.359894 2.0002732 0.21161415 70
2.3606565 3.4709918 -0.66484654 15
1.3667754 2.0088866 0.29833618 67
2.7007439 3.9680645 -0.58936024 12
1.3618964 2.0002117 0.38326448 65
3.1385944 4.6096411 -0.48789781 11
3.5257559 5.174386 -0.32814649 16
1.3350111 1.9577882 -0.041362204 81
14.732677 21.597313 7.0051966 5
1.705695 2.4939046 -0.80958605 22
1.3437315 1.9639404 0.041536726 72
1.8920906 2.7643659 -0.77338171 23
1.360833 1.9874463 0.12623434 66
2.0952299 3.0600057 -0.7208764 13
1.3623649 1.9889388 0.21091689 74
2.3671727 3.4545844 -0.66328222 16
1.3692904 1.9975535 0.29736122 71
2.7168248 3.9618866 -0.58984768 11
1.3655164 1.9905598 0.38232586 67
3.1411381 4.5789437 -0.48580611 13
3.5426674 5.1603994 -0.32804179 15
1.340705 1.9514676 -0.041327298 83
14.678864 21.357883 6.9441156 11
1.7198715 2.4958887 -0.8121742 20
1.3414987 1.9460667 0.041257489 74
1.8973041 2.7513268 -0.77158207 23
1.3654944 1.9793956 0.12602501 67
2.1103585 3.0591369 -0.72240293 12
1.3659037 1.9792517 0.21039395 76
2.3792181 3.4462998 -0.66328222 17
1.369487 1.9829611 0.2958988 71
2.7328937 3.9556458 -0.59033519 11
1.3724569 1.9857808 0.38232586 70
3.1548376 4.5646725 -0.48545748 13
1.384477 2.0024233 0.47320631 1
3.5549772 5.1397896 -0.32751846 13
1.3440951 1.941843 -0.041222587 78
16.917658 24.432215 7.9628267 7
1.7329783 2.4962189 -0.81424475 14
1.3505654 1.9446565 0.041327298 74
1.8991125 2.7334847 -0.7684328 20
1.3606536 1.9584548 0.12497827 67
2.1255038 3.0582016 -0.72392935 12
1.3728048 1.9744713 0.21039395 76
2.3934901 3.4412169 -0.663908 17
1.3707302 1.9700221 0.29468012 75
2.7353454 3.9297888 -0.58789778 11
1.3767779 1.9779756 0.38170013 67
3.1775844 4.5634413 -0.48650333 13
1.3791134 1.9798588 0.46900854 12
3.5694723 5.1224322 -0.32720444 15
1.3505266 1.9373754 -0.041222587 78
10.123122 14.516568 4.7420826 3
1.7416821 2.490154 -0.81424475 19
1.3547142 1.9368902 0.041257489 78
1.912635 2.7335594 -0.77023244 15
1.3651917 1.9504205 0.12476893 67
2.1316624 3.0443304 -0.72240293 13
1.3785443 1.9680367 0.21021965 74
2.4048862 3.4332623 -0.663908 16
1.377256 1.9654654 0.29468012 75
2.7506399 3.9239478 -0.58838522 11
1.3814054 1.9699235 0.3810744 74
3.1923494 4.5506916 -0.48632905 15
1.3879269 1.9784887 0.46977177 63
3.5944695 5.1220121 -0.32793713 3
1.3503852 1.9228309 -0.041013155 81
17.192406 24.471407 8.0135555 14
1.748818 2.4827845 -0.81372708 21
1.3614665 1.9321499 0.041257489 78
1.9232886 2.7284586 -0.77068228 15
1.3670487 1.9393532 0.12435025 68
2.1372213 3.0308263 -0.7208764 13
1.3758757 1.9504296 0.20882516 74
2.4088838 3.413548 -0.66171783 15
1.3841089 1.9606456 0.29468012 77
2.7643197 3.9143229 -0.58838522 11
1.3799534 1.954037 0.37888432 72
3.2016733 4.5319448 -0.48545748 13
1.3925591 1.970425 0.46900854 67
1.3475162 1.9052814 -0.040733919 78
17.244455 24.373249 8.0000973 21
1.7507644 2.4672132 -0.81062132 18
1.3586079 1.9145782 0.040978249 80
1.9357108 2.7268324 -0.77203202 15
1.3738106 1.9345691 0.12435025 70
2.1500611 3.0265489 -0.72163963 16
1.3803678 1.9423664 0.20847654 70
2.4224801 3.408761 -0.66234362 15
1.3883021 1.9528091 0.29419261 73
2.7749848 3.9018989 -0.58789778 12
1.385621 1.9475981 0.37857145 70
3.2082324 4.5077548 -0.484063 13
1.3888396 1.9514011 0.46557397 74
1.3634305 1.9149923 -0.12319885 10
1.3518385 1.8973087 -0.040664107 78
17.306999 24.281448 7.9897442 14
1.7645531 2.4692526 -0.81320947 15
1.3606315 1.9033167 0.040838633 80
1.9384166 2.7105477 -0.76933259 16
1.3793926 1.9281379 0.12424557 72
2.163512 3.024193 -0.72278452 17
1.3798437 1.9280572 0.20743066 70
2.4297652 3.3938587 -0.66109216 15
1.3858631 1.9350406 0.29224271 73
2.7908995 3.895416 -0.58838522 11
1.3889593 1.9379325 0.37763283 72
3.2301283 4.5068064 -0.48510888 11
1.3864907 1.9337773 0.46252102 74
1.3607938 1.897238 -0.12236147 68
1.3619509 1.8974522 -0.040768825 85
17.089674 23.800343 7.8510175 13
1.7686477 2.4568059 -0.81113893 21
1.3672665 1.8985559 0.040838633 80
1.9433097 2.6974406 -0.767533 20
1.3791088 1.913589 0.12361754 72
2.1706123 3.0118437 -0.72163963 13
1.3912257 1.9296937 0.2081279 72
2.4462185 3.3917658 -0.66234362 15
1.3891253 1.9253614 0.29151151 69
2.804481 3.8856497 -0.58838522 11
1.395715 1.9330726 0.37763283 72
3.2458394 4.4955044 -0.48510888 11
1.3909338 1.9257424 0.46175778 76
1.3580509 1.8795249 -0.1215241 64
1.3650513 1.8878248 -0.040664107 81
17.444391 24.116205 7.9752502 14
1.7862854 2.4631288 -0.81528002 19
1.3715376 1.8905343 0.040768825 78
1.9607253 2.7016814 -0.77068228 19
1.381086 1.9022986 0.12319885 72
2.1741915 2.9947166 -0.71934998 12
1.3932704 1.9183772 0.20743066 72
2.4557199 3.3800101 -0.66171783 17
1.3911688 1.9140779 0.29053652 71
2.8156922 3.8726263 -0.58789778 10
1.3943202 1.9170066 0.37544277 77
3.2661984 4.4905925 -0.48580611 11
1.3999572 1.9240506 0.46252102 76
1.364603 1.8747734 -0.1215241 68
1.4097745 1.9361223 0.5529297 6
1.3657463 1.8749663 -0.040489584 83
11.188088 15.353963 5.0904531 9
1.7823374 2.439719 -0.80958605 16
1.3781289 1.8857349 0.040768825 76
1.9712934 2.6963944 -0.77113223 21
1.3865391 1.8958535 0.12309418 70
2.1869502 2.990278 -0.72011316 13
1.3940768 1.9054618 0.20655911 68
2.4756699 3.3825772 -0.663908 17
1.4001875 1.912413 0.291024 71
2.8291941 3.8627732 -0.58789778 10
1.3939979 1.9025675 0.37356552 74
3.2724321 4.4663072 -0.4844116 13
1.4066653 1.9191517 0.46252102 78
1.3699584 1.8683875 -0.12141944 71
1.4107609 1.923333 0.55068022 36
1.3675504 1.8637388 -0.040349964 83
11.229046 15.297683 5.0847592 3
1.7919872 2.4350388 -0.81010365 23
1.3752182 1.86803 0.040489584 82
1.9795387 2.687927 -0.77068228 23
1.3919637 1.8893945 0.12298951 72
2.1973746 2.9826262 -0.72011316 13
1.3865347 1.8813379 0.20446737 68
2.4757404 3.3580139 -0.66077924 16
1.4044976 1.904319 0.29053652 69
2.8403022 3.8496795 -0.58741027 10
1.4006313 1.8976896 0.37356552 67
3.2816808 4.4446654 -0.48336574 13
1.4040264 1.9015949 0.4594681 78
1.3740984 1.8603814 -0.12121009 71
1.4197828 1.9215311 0.55158001 59
1.3728596 1.8573453 -0.040315062 81
10.745993 14.53299 4.8430223 3
1.8032022 2.4315577 -0.81113893 28
1.3722018 1.850368 0.040210344 80
1.9842658 2.6747401 -0.76888269 25
1.4009305 1.887732 0.12319885 72
2.2094626 2.9761283 -0.72049481 13
1.3946091 1.8778423 0.20464167 70
2.4821408 3.3409896 -0.65921491 18
1.4016652 1.8866574 0.28858662 69
2.8608289 3.8493006 -0.58887273 11
1.4096047 1.8959591 0.37419128 74
3.3364127 4.4859409 -0.48911804 1
1.4016117 1.8838348 0.45641515 78
1.3713682 1.8425146 -0.12037271 74
1.4221603 1.9100624 0.54978037 70
1.3757507 1.8477311 -0.040210344 83
15.176023 20.375036 6.8074589 10
1.8139896 2.4283452 -0.8121742 29
1.3813682 1.8485303 0.040280156 78
1.9905548 2.6627672 -0.767533 28
1.3982705 1.8697892 0.12236147 76
2.2198358 2.9683993 -0.72049481 13
1.3999617 1.8713678 0.20446737 68
2.50089 3.3417935 -0.66109216 18
1.4014343 1.871972 0.28712422 67
2.8582575 3.816545 -0.58546036 11
1.4141749 1.8876183 0.37356552 74
1.4070022 1.8773596 0.45603353 81
1.3765931 1.8361187 -0.12026804 77
1.421804 1.8957324 0.54708099 68
1.383715 1.8442748 -0.040245246 81
15.26567 20.339363 6.814188 10
1.8240411 2.4232223 -0.81269181 27
1.3878127 1.8436967 0.040280156 82
2.0056982 2.6635869 -0.76978248 25
1.3975792 1.8553249 0.12173345 76
2.2295213 2.9586737 -0.72011316 16
1.4080101 1.8678154 0.20464167 72
2.5107424 3.3294513 -0.66046637 16
1.407959 1.8670696 0.28712422 67
2.8787367 3.8160527 -0.58692282 11
1.4136155 1.8732101 0.37168834 77
1.4741373 1.9526999 -0.2140545 1
1.4138732 1.8721904 0.45603353 81
1.3809061 1.8278733 -0.1200587 77
1.4252174 1.8858447 0.54573125 77
1.3792921 1.8250765 -0.039931107 83
11.121468 14.710549 4.9413733 3
1.8297327 2.4140816 -0.81165653 30
1.3942388 1.8388422 0.040280156 80
2.0149841 2.656569 -0.76978248 22
1.406462 1.853617 0.1219428 74
2.238133 2.9497004 -0.71973157 18
1.4093775 1.8567883 0.20394444 70
2.5253539 3.3258257 -0.66140497 15
1.4168695 1.8653046 0.28761166 67
2.8944385 3.8091433 -0.58741027 11
1.4165598 1.863546 0.37074974 79
1.4203199 1.8684926 -0.20533893 1
1.4248267 1.8737426 0.45755997 81
1.3821219 1.8169265 -0.11964 77
1.4208428 1.8671507 0.54168218 74
1.3808099 1.8138859 -0.039791487 83
1.8334587 2.4015381 -0.80958605 25
1.3933671 1.8244283 0.040070724 82
2.025429 2.651067 -0.77023244 20
1.4104977 1.8455228 0.12173345 78
2.2496073 2.9434302 -0.72011316 16
1.4037496 1.8360292 0.20220132 72
2.5333488 3.3122828 -0.66046637 15
1.4185467 1.8540413 0.28663671 69
2.9053056 3.7958636 -0.58692282 11
1.4134494 1.846042 0.36824676 72
1.3723284 1.7923357 -0.19749491 22
1.4241956 1.8594065 0.45527029 81
1.3884562 1.8120906 -0.11964 76
1.4273522 1.8621793 0.54168218 74
1.3846991 1.8058811 -0.039721675 85
1.4332621 1.86854 0.63100088 12
1.841831 2.395123 -0.80958605 25
1.3948506 1.8132133 0.039931107 82
2.0275381 2.634716 -0.767533 21
1.4144949 1.8374223 0.1215241 74
2.262264 2.9386704 -0.7208764 20
1.4125817 1.8342746 0.20254995 70
2.5364542 3.2924671 -0.65827632 15
1.4153163 1.8364995 0.28468683 69
2.918539 3.7856984 -0.58692282 11
1.4247091 1.847355 0.36949828 79
1.3761417 1.78438 -0.19714628 62
1.4174864 1.8373247 0.45107248 78
1.3850114 1.7945834 -0.11880264 77
1.4314606 1.8541013 0.54078233 71
1.387328 1.7962885 -0.039616965 81
1.8513627 2.3902068 -0.81010365 23
1.3962718 1.8020108 0.039791487 80
2.0343356 2.6245418 -0.76663321 16
1.4135567 1.8230039 0.12089607 78
2.2761166 2.9354107 -0.72202128 18
1.4214177 1.8324814 0.20289856 72
2.5503545 3.2867141 -0.65890205 15
1.4156327 1.8237069 0.28346813 73
2.9268649 3.7692165 -0.58594781 11
1.4275138 1.8376901 0.36855966 74
1.3811401 1.7779915 -0.19697197 73
1.4238917 1.8323652 0.45107248 78
1.3937184 1.792892 -0.11901198 76
1.4391208 1.8506312 0.54123223 77
1.3997295 1.7993264 -0.039791487 83
1.4415262 1.8523901 0.62893027 60
1.8632592 2.3882997 -0.81165653 27
1.4025539 1.7971256 0.039791487 84
2.043484 2.6174247 -0.76663321 16
1.4122193 1.8088607 0.12026804 78
2.2778897 2.9166172 -0.71934998 20
1.427806 1.8275082 0.20289856 70
2.561811 3.2777922 -0.65890205 15
1.4232113 1.8203191 0.28371185 71
2.9369018 3.7563629 -0.58546036 10
1.4238646 1.8204979 0.36605671 77
1.3861101 1.7715908 -0.19679767 78
1.4339089 1.8320222 0.45221734 81
1.392581 1.7785802 -0.11838394 77
1.4296324 1.8259016 0.53538352 69
1.3933574 1.778932 -0.039442439 85
1.8663961 2.3760307 -0.80958605 27
1.4035631 1.7861755 0.039651867 82
2.0521531 2.6106336 -0.76663321 16
1.4157418 1.8010271 0.1200587 78
2.2887633 2.9105899 -0.71973157 15
1.4240034 1.8102361 0.20150407 72
2.5836613 3.2832489 -0.66171783 15
1.434152 1.8218282 0.28468683 71
2.9444318 3.7403629 -0.58448541 11
1.4250048 1.8095586 0.36480519 74
1.387046 1.7607238 -0.19610041 78
1.439976 1.8272573 0.45221734 83
1.3984709 1.7739526 -0.11838394 77
1.4441242 1.8318636 0.53853279 77
1.3930573 1.7664512 -0.039267913 74
4.0873361 5.1810422 1.7682518 12
1.8670743 2.3607371 -0.80648017 27
1.4020345 1.7721014 0.039442439 82
2.0656359 2.6099265 -0.7684328 16
1.424499 1.7992061 0.12026804 78
2.3025668 2.9071996 -0.7208764 20
1.422577 1.7961327 0.20045821 74
2.5773602 3.2529876 -0.65733767 15
1.4340209 1.8092836 0.28346813 73
2.9710379 3.7471721 -0.58716655 9
1.4300851 1.8030263 0.36449236 82
1.3832771 1.743385 -0.19470593 78
1.4390227 1.8129929 0.44992763 83
1.4046543 1.7690605 -0.11838394 76
1.442027 1.8161287 0.53538352 72
1.3992152 1.7615775 -0.039267913 76
4.0825629 5.1380038 1.7584167 59
1.8793267 2.3584104 -0.80803311 21
1.406027 1.7638237 0.039372627 80
2.0642538 2.588625 -0.76438367 14
1.4335753 1.7970952 0.12047738 76
2.3058586 2.8895338 -0.71858674 11
1.4303929 1.792464 0.20063251 76
2.6065199 3.2651317 -0.66171783 1
1.4332098 1.7947087 0.2820057 73
1.4354509 1.796229 0.36417946 77
1.3921453 1.741416 -0.19505455 80
1.4333959 1.7923743 0.44611144 83
1.4036431 1.7545424 -0.1177559 76
1.4486742 1.8108308 0.53538352 72
1.4006642 1.7501925 -0.039128296 78
4.1061959 5.1290402 1.7604873 91
1.8915858 2.3560259 -0.80958605 13
1.4124818 1.758659 0.039372627 82
1.5244771 1.8974223 -0.56192774 1
1.4273305 1.7765099 0.11943066 74
1.5214052 1.8929238 -0.47206149 4
1.4357044 1.7856569 0.20045821 74
1.5141323 1.8825272 -0.38263875 7
1.432312 1.7801634 0.28054324 77
1.4957768 1.8590412 -0.29297391 12
1.4367576 1.7850524 0.362928 70
1.4007151 1.7396493 -0.19540317 78
1.4384127 1.7858305 0.44572985 81
1.4072524 1.7465219 -0.11754657 71
1.4476498 1.7966585 0.53268409 72
1.4092751 1.7484059 -0.039198104 78
4.1252885 5.116178 1.7610049 100
1.5362697 1.9005256 -0.65481222 10
1.4183065 1.7539649 0.039372627 80
1.5221815 1.8817512 -0.55877846 22
1.4256769 1.7624505 0.11880264 80
1.5227336 1.8817641 -0.47053501 31
1.4403647 1.7793372 0.20028389 76
1.510421 1.8652147 -0.38013577 41
1.4432044 1.781575 0.28151822 77
1.5006826 1.8525294 -0.29273018 64
1.4376947 1.7741387 0.36167651 77
1.406476 1.7349951 -0.19540317 78
1.4467988 1.7841015 0.44649309 83
1.4130368 1.7418454 -0.11754657 79
1.4462342 1.7827675 0.52998471 69
1.4075047 1.7344069 -0.03898868 78
4.1434479 5.103971 1.7615224 78
1.5328087 1.8834332 -0.65067112 32
1.4215899 1.746151 0.039302818 84
1.5296441 1.8782037 -0.5592283 30
1.4318199 1.7574635 0.11880264 80
1.5190455 1.8645271 -0.46748206 28
1.441222 1.7683735 0.19958666 78
1.5178468 1.8617265 -0.38044867 40
1.4491049 1.7767791 0.28151822 79
1.4883169 1.8242077 -0.28907412 50
1.4426304 1.7675787 0.36136368 82
1.4008842 1.7164292 -0.19383438 82
1.4551908 1.7823349 0.4472563 86
1.4137515 1.7309628 -0.11712788 77
1.4610797 1.7882717 0.53313398 73
1.405957 1.7201936 -0.038779248 81
4.1294446 5.0505919 1.7480639 36
1.5430483 1.8825533 -0.65222406 23
1.4175333 1.7288067 0.039023582 84
1.534954 1.8713473 -0.55877846 12
1.4430139 1.7586303 0.11922132 80
1.5267906 1.8607306 -0.46786368 7
1.4372737 1.7510114 0.19819216 76
1.5155598 1.8457311 -0.37825859 7
1.4527785 1.7686415 0.28103071 77
1.4291422 1.7392471 -0.2763997 55
1.4487904 1.7625332 0.36136368 79
1.3992748 1.7022947 -0.1927885 84
1.4514284 1.7651128 0.44420335 83
1.4210542 1.7275594 -0.11723255 81
1.4611206 1.7756376 0.5308845 70
1.4094117 1.7121873 -0.038709439 81
1.9124141 2.3166494 -0.80492729 24
1.4159192 1.714597 0.038814154 78
2.1086714 2.5525727 -0.76438367 18
1.4440553 1.7474239 0.11880264 78
2.358695 2.8542123 -0.71973157 17
1.4433769 1.7459841 0.19819216 78
2.641144 3.1937306 -0.65639907 15
1.4488212 1.7513229 0.27908084 79
1.4212824 1.7174256 -0.27371857 79
1.452415 1.7544216 0.36073789 82
1.4080474 1.7002227 -0.19313712 84
1.4500681 1.750963 0.44191366 81
1.4156079 1.7087464 -0.11629051 77
1.4710408 1.7750275 0.53223419 73
1.4179327 1.7103356 -0.038779248 78
15.558377 18.760143 6.5305223 5
1.929541 2.3200202 -0.80855072 22
1.4193387 1.7065687 0.038744342 82
2.1113365 2.5377069 -0.76213419 21
1.442479 1.7331628 0.11817461 82
2.3729086 2.850075 -0.7208764 13
1.4523163 1.7437443 0.19854078 78
2.6591539 3.1916182 -0.65796345 15
1.4473003 1.7371051 0.27761838 79
1.406934 1.6880552 -0.26981872 81
1.4547359 1.7447891 0.35979933 77
1.4114202 1.6922381 -0.1927885 86
1.4552178 1.7441292 0.44153205 78
1.4218616 1.7035463 -0.11629051 79
1.4687934 1.759153 0.52908486 68
1.4213299 1.7023065 -0.038709439 81
16.53524 19.796982 6.9115038 11
1.945069 2.3221579 -0.81165653 21
1.4281522 1.704421 0.038814154 80
2.128135 2.5389116 -0.76483357 16
1.4408225 1.7189326 0.11754657 82
2.3664434 2.8222182 -0.71591538 11
1.4558339 1.7356107 0.19819216 80
2.6639304 3.1747491 -0.65639907 7
1.4587628 1.7378702 0.27859333 77
1.4131112 1.6828876 -0.26981872 79
1.4531953 1.7306242 0.35792211 70
1.4160376 1.6857749 -0.19261418 80
1.4587708 1.7360331 0.44076881 78
1.425229 1.6955152 -0.11608116 77
1.4648921 1.742083 0.52548569 68
1.4208289 1.6896821 -0.038534917 83
11.468275 13.633489 4.7736583 18
1.9369704 2.2961576 -0.80492729 14
1.4312174 1.696619 0.038744342 82
1.6828423 1.9941964 -0.60241896 1
1.4468135 1.7138931 0.11754657 76
1.6441424 1.9469594 -0.4953402 2
1.4567409 1.72443 0.19749491 78
1.6431643 1.9451103 -0.4032881 1
1.4619548 1.7299912 0.27810585 77
1.4135575 1.6721287 -0.2688438 77
1.4515746 1.7164905 0.35604486 70
1.4154791 1.6732167 -0.19174263 82
1.4619832 1.7281886 0.44000554 78
1.4308434 1.6907799 -0.11608116 76
1.4719206 1.7387025 0.52593553 73
1.4241332 1.6816602 -0.038465101 83
11.503299 13.578643 4.7684827 3
1.6494493 1.9422137 -0.68276465 10
1.4293634 1.6824688 0.038534917 78
1.6468852 1.9378229 -0.58712226 21
1.4527876 1.7088319 0.11754657 80
1.6353304 1.9235467 -0.49076074 23
1.4547063 1.7104837 0.19644904 80
1.6384236 1.9258224 -0.40047228 34
1.4654121 1.7218535 0.27761838 79
1.4193861 1.6671839 -0.2688438 79
1.4575571 1.7114133 0.35604486 74
1.4158531 1.662446 -0.19104539 84
1.465461 1.7200856 0.43924233 78
1.4367369 1.6857748 -0.11608116 79
1.4754518 1.7305884 0.52503574 62
1.4273999 1.6736355 -0.038395293 85
16.405605 19.22888 6.7727771 5
1.6650082 1.9467214 -0.68638813 29
1.4300269 1.6713915 0.038395293 80
1.6523718 1.9305823 -0.58667231 27
1.4613421 1.7067841 0.1177559 84
1.6522503 1.9297565 -0.49381369 30
1.4554834 1.6993427 0.19575179 80
1.6361387 1.9095911 -0.39828217 48
1.4636627 1.707684 0.27615595 79
1.4251968 1.6622194 -0.2688438 81
1.4635218 1.7063154 0.35604486 74
1.4190528 1.6544693 -0.19069678 84
1.4612293 1.7030394 0.43618938 76
1.4348073 1.6716563 -0.11545313 74
1.4789445 1.722471 0.52413595 31
1.4358395 1.6716763 -0.038465101 85
16.46381 19.161243 6.7691536 10
1.6793586 1.9496793 -0.68949395 24
1.4384634 1.6694188 0.038465101 78
1.6438326 1.9070902 -0.5812735 11
1.4539529 1.6868016 0.11670919 82
1.6474376 1.9105965 -0.49037915 8
1.4666123 1.7002861 0.19644904 80
1.6311796 1.8904085 -0.39546639 12
1.464426 1.6965541 0.275181 86
1.4232066 1.648219 -0.26738134 79
1.4704636 1.7029476 0.35635775 79
1.4248198 1.6495054 -0.19069678 84
1.4645976 1.6949577 0.43542615 78
1.4354099 1.6605933 -0.11503445 76
1.4413748 1.6669059 -0.038465101 85
12.052 13.932855 4.9361968 6
1.9722426 2.2736106 -0.80648017 21
1.4439911 1.6646398 0.038465101 78
2.162307 2.4918392 -0.7616843 15
1.451977 1.6726662 0.11608116 80
