# This PCD file was generated using the MATLAB® pcwrite function
# from Computer Vision Toolbox®.
# .PCD v.7 - Point Cloud Data file format
VERSION .7
FIELDS x y z
SIZE 4 4 4
TYPE F F F
COUNT 1 1 1
WIDTH 1697
HEIGHT 1
VIEWPOINT 0 0 0 1 0 0 0
POINTS 1697
DATA ascii
3.468935 -0.362394 0.585472
3.467083 -0.351451 0.585003
3.465196 -0.340522 0.584534
3.391889 -0.577395 0.556591
3.412173 -0.570079 0.559445
3.424638 -0.561366 0.561097
3.425368 -0.550700 0.560947
3.433877 -0.541265 0.561999
3.425751 -0.529219 0.560496
3.428336 -0.518854 0.560647
3.424044 -0.507465 0.559745
3.425585 -0.496958 0.559745
3.431987 -0.487140 0.560496
3.430528 -0.476201 0.560046
3.432952 -0.465807 0.560196
3.437306 -0.455662 0.560647
3.443590 -0.445749 0.561398
3.446903 -0.435429 0.561698
3.450185 -0.425094 0.561999
3.457363 -0.415213 0.562900
3.460584 -0.404834 0.563201
3.462792 -0.394327 0.563351
3.466934 -0.384028 0.563801
3.467113 -0.373284 0.563651
3.464308 -0.362234 0.563050
3.467371 -0.351803 0.563351
3.467449 -0.341067 0.563201
3.469464 -0.330521 0.563351
3.390147 -0.643071 0.537268
3.391131 -0.632486 0.537124
3.393055 -0.622079 0.537124
3.397870 -0.612191 0.537557
3.406553 -0.602969 0.538568
3.410337 -0.592853 0.538856
3.417017 -0.583219 0.539578
3.419766 -0.572896 0.539722
3.418578 -0.561921 0.539289
3.412470 -0.550173 0.538135
3.416097 -0.540009 0.538423
3.414804 -0.529073 0.537990
3.419346 -0.519038 0.538423
3.421901 -0.508691 0.538568
3.423446 -0.498190 0.538568
3.426918 -0.487963 0.538856
3.436239 -0.478536 0.540011
3.435730 -0.467726 0.539722
3.440092 -0.457573 0.540156
3.445405 -0.447525 0.540733
3.445780 -0.436829 0.540589
3.448086 -0.426376 0.540733
3.448395 -0.415678 0.540589
3.452603 -0.405441 0.541022
3.453830 -0.394847 0.541022
3.457976 -0.384576 0.541455
3.462091 -0.374284 0.541888
3.465192 -0.363866 0.542176
3.462354 -0.352834 0.541599
3.466374 -0.342500 0.542032
3.467409 -0.331864 0.542032
3.470381 -0.321407 0.542321
3.379535 -0.691481 0.516323
3.380670 -0.680913 0.516185
3.380800 -0.670153 0.515908
3.381868 -0.659588 0.515769
3.381931 -0.648835 0.515492
3.383906 -0.638456 0.515492
3.387796 -0.628434 0.515769
3.396528 -0.619283 0.516738
3.401336 -0.609385 0.517154
3.408066 -0.599806 0.517846
3.410866 -0.589517 0.517985
3.415588 -0.579548 0.518400
3.417350 -0.569066 0.518400
3.410283 -0.557139 0.517154
3.411976 -0.546674 0.517154
3.412659 -0.536049 0.517015
3.412330 -0.525275 0.516738
3.416863 -0.515248 0.517154
3.421367 -0.505197 0.517569
3.427802 -0.495408 0.518262
3.430286 -0.485029 0.518400
3.435682 -0.475046 0.518954
3.439086 -0.464770 0.519231
3.440495 -0.454216 0.519231
3.439909 -0.443405 0.518954
3.440270 -0.432726 0.518816
3.438632 -0.421806 0.518400
3.436960 -0.410901 0.517985
3.438205 -0.400355 0.517985
3.440401 -0.389916 0.518123
3.442565 -0.379468 0.518262
3.450606 -0.369646 0.519231
3.457634 -0.359674 0.520062
3.458721 -0.349065 0.520062
3.458791 -0.338355 0.519924
3.460798 -0.327836 0.520062
3.461788 -0.317217 0.520062
3.459785 -0.306332 0.519647
3.385817 -0.747390 0.497325
3.372598 -0.733626 0.495206
3.368048 -0.721821 0.494279
3.372187 -0.711894 0.494544
3.373384 -0.701343 0.494411
3.373578 -0.690593 0.494147
3.375681 -0.680240 0.494147
3.378724 -0.670073 0.494279
3.379791 -0.659514 0.494147
3.381799 -0.649142 0.494147
3.385722 -0.639132 0.494411
3.391565 -0.629465 0.494941
3.393481 -0.619057 0.494941
3.401218 -0.609693 0.495736
3.406001 -0.599771 0.496133
3.408801 -0.589488 0.496265
3.411571 -0.579193 0.496398
3.409421 -0.568072 0.495868
3.410170 -0.557449 0.495736
3.414800 -0.547456 0.496133
3.414505 -0.536668 0.495868
3.417115 -0.526341 0.496001
3.416754 -0.515559 0.495736
3.422241 -0.505654 0.496265
3.425739 -0.495437 0.496530
3.429205 -0.485202 0.496795
3.433623 -0.475087 0.497192
3.438993 -0.465083 0.497722
3.436474 -0.454010 0.497192
3.435884 -0.443211 0.496928
3.433294 -0.432172 0.496398
3.430669 -0.421154 0.495868
3.429976 -0.410391 0.495603
3.429250 -0.399636 0.495338
3.436369 -0.389784 0.496133
3.438534 -0.379349 0.496265
3.444609 -0.369326 0.496928
3.450656 -0.359271 0.497590
3.454700 -0.348982 0.497987
3.454768 -0.338284 0.497855
3.457763 -0.327871 0.498119
3.455792 -0.316989 0.497722
3.454773 -0.306210 0.497457
3.460634 -0.296033 0.498119
3.379376 -0.813676 0.477594
3.336495 -0.792535 0.471647
3.342774 -0.783199 0.472153
3.343228 -0.772494 0.471900
3.345582 -0.762233 0.471900
3.350809 -0.752618 0.472279
3.354071 -0.742548 0.472406
3.355364 -0.732043 0.472279
3.359534 -0.722162 0.472533
3.359792 -0.711441 0.472279
3.365844 -0.701940 0.472786
3.367009 -0.691411 0.472659
3.369115 -0.681078 0.472659
3.371188 -0.670738 0.472659
3.375177 -0.660773 0.472912
3.376215 -0.650228 0.472786
3.381118 -0.640420 0.473165
3.385017 -0.630407 0.473418
3.386935 -0.620019 0.473418
3.389798 -0.609801 0.473545
3.392629 -0.599571 0.473671
3.397385 -0.589668 0.474051
3.400156 -0.579409 0.474178
3.400939 -0.568811 0.474051
3.401689 -0.558214 0.473925
3.408283 -0.548562 0.474557
3.402111 -0.536867 0.473545
3.408643 -0.527185 0.474178
3.409264 -0.516576 0.474051
3.412795 -0.506405 0.474304
3.415315 -0.496075 0.474431
3.417803 -0.485734 0.474557
3.419277 -0.475246 0.474557
3.420719 -0.464754 0.474557
3.421145 -0.454127 0.474431
3.420555 -0.443374 0.474178
3.418947 -0.432504 0.473798
3.422226 -0.422256 0.474051
3.421536 -0.411518 0.473798
3.425738 -0.401365 0.474178
3.428924 -0.391078 0.474431
3.433066 -0.380884 0.474810
3.441122 -0.371093 0.475696
3.446191 -0.360947 0.476202
3.450243 -0.350673 0.476582
3.454264 -0.340378 0.476962
3.457267 -0.329967 0.477215
3.456287 -0.319176 0.476962
3.460214 -0.308835 0.477341
3.458180 -0.297963 0.476962
3.458090 -0.287270 0.476835
3.342148 -0.859496 0.451877
3.329372 -0.845335 0.449955
3.328097 -0.834152 0.449474
3.325822 -0.822748 0.448873
3.331224 -0.813246 0.449234
3.332738 -0.802790 0.449114
3.336151 -0.792790 0.449234
3.339535 -0.782778 0.449354
3.343855 -0.772975 0.449594
3.345243 -0.762492 0.449474
3.347566 -0.752226 0.449474
3.351797 -0.742380 0.449714
3.353089 -0.731882 0.449594
3.355318 -0.721592 0.449594
3.357516 -0.711295 0.449594
3.358711 -0.700788 0.449474
3.360845 -0.690480 0.449474
3.362947 -0.680166 0.449474
3.365992 -0.670039 0.449594
3.372904 -0.660662 0.450195
3.371990 -0.649748 0.449834
3.376894 -0.639953 0.450195
3.379817 -0.629772 0.450315
3.383687 -0.619757 0.450555
3.385572 -0.609373 0.450555
3.390359 -0.599501 0.450916
3.392182 -0.589097 0.450916
3.392016 -0.578354 0.450675
3.395733 -0.568271 0.450916
3.394521 -0.557369 0.450555
3.393275 -0.546480 0.450195
3.395916 -0.536221 0.450315
3.399507 -0.526103 0.450555
3.398160 -0.515226 0.450195
3.403653 -0.505380 0.450675
3.407153 -0.495220 0.450916
3.410622 -0.485044 0.451156
3.411111 -0.474441 0.451036
3.414518 -0.464241 0.451276
3.414942 -0.453633 0.451156
3.418286 -0.443408 0.451396
3.417661 -0.432670 0.451156
3.419957 -0.422304 0.451276
3.423208 -0.412047 0.451516
3.428401 -0.402004 0.451997
3.429618 -0.391484 0.451997
3.433763 -0.381288 0.452357
3.437878 -0.371070 0.452718
3.444924 -0.361140 0.453439
3.446016 -0.350569 0.453439
3.450039 -0.340287 0.453799
3.454032 -0.329983 0.454159
3.459971 -0.319840 0.454760
3.458958 -0.309047 0.454520
3.458901 -0.298349 0.454400
3.458811 -0.287654 0.454280
3.307858 -0.870111 0.428903
3.332624 -0.865710 0.431539
3.332378 -0.854741 0.431195
3.334021 -0.844269 0.431081
3.332741 -0.833071 0.430622
3.333352 -0.822366 0.430393
3.334895 -0.811900 0.430279
3.336404 -0.801433 0.430164
3.336914 -0.790734 0.429935
3.340291 -0.780719 0.430049
3.342671 -0.770468 0.430049
3.345019 -0.760209 0.430049
3.346366 -0.749726 0.429935
3.349620 -0.739670 0.430049
3.355757 -0.730236 0.430508
3.355067 -0.719312 0.430164
3.358230 -0.709221 0.430279
3.358445 -0.698509 0.430049
3.360572 -0.688203 0.430049
3.360720 -0.677496 0.429820
3.355963 -0.665827 0.429018
3.363839 -0.656672 0.429706
3.370716 -0.647287 0.430279
3.373662 -0.637127 0.430393
3.378531 -0.627319 0.430737
3.385325 -0.617844 0.431310
3.390138 -0.607982 0.431654
3.392966 -0.597751 0.431768
3.394783 -0.587339 0.431768
3.396569 -0.576921 0.431768
3.397344 -0.566334 0.431654
3.397105 -0.555587 0.431424
3.396831 -0.544847 0.431195
3.397506 -0.534269 0.431081
3.400110 -0.523995 0.431195
3.400720 -0.513412 0.431081
3.404244 -0.503268 0.431310
3.408722 -0.493249 0.431654
3.411202 -0.482928 0.431768
3.413652 -0.472597 0.431883
3.416070 -0.462256 0.431997
3.417472 -0.451773 0.431997
3.418842 -0.441286 0.431997
3.425108 -0.431418 0.432570
3.424443 -0.420665 0.432341
3.429663 -0.410630 0.432800
3.430907 -0.400106 0.432800
3.435079 -0.389916 0.433143
3.436260 -0.379375 0.433143
3.434444 -0.368512 0.432800
3.437535 -0.358180 0.433029
3.441582 -0.347933 0.433373
3.446588 -0.337762 0.433831
3.448597 -0.327281 0.433945
3.453542 -0.317063 0.434404
3.455488 -0.306555 0.434518
3.456412 -0.295952 0.434518
3.457304 -0.285347 0.434518
3.459153 -0.274817 0.434633
3.340841 -0.867564 0.410646
3.334820 -0.855087 0.409671
3.339355 -0.845340 0.409888
3.337111 -0.833886 0.409346
3.339653 -0.823644 0.409346
3.343131 -0.813629 0.409454
3.345611 -0.803369 0.409454
3.346125 -0.792642 0.409238
3.348541 -0.782373 0.409238
3.350926 -0.772096 0.409238
3.351340 -0.761371 0.409021
3.352690 -0.750868 0.408913
3.356920 -0.741008 0.409129
3.360148 -0.730917 0.409238
3.362375 -0.720604 0.409238
3.361652 -0.709669 0.408913
3.363813 -0.699352 0.408913
3.363022 -0.688431 0.408588
3.361220 -0.677324 0.408154
3.361332 -0.666622 0.407937
3.365313 -0.656687 0.408154
3.368288 -0.646547 0.408262
3.372209 -0.636579 0.408479
3.379033 -0.627138 0.409021
3.384853 -0.617482 0.409454
3.390646 -0.607797 0.409888
3.394452 -0.597737 0.410104
3.398229 -0.587659 0.410321
3.400016 -0.577230 0.410321
3.401771 -0.566797 0.410321
3.402513 -0.556197 0.410213
3.403222 -0.545598 0.410104
3.402915 -0.534846 0.409888
3.404541 -0.524403 0.409888
3.406133 -0.513956 0.409888
3.407694 -0.503503 0.409888
3.410207 -0.493189 0.409996
3.413672 -0.483003 0.410213
3.418092 -0.472937 0.410538
3.421497 -0.462715 0.410754
3.425857 -0.452606 0.411079
3.429202 -0.442348 0.411296
3.432515 -0.432074 0.411513
3.436785 -0.421905 0.411838
3.439050 -0.411477 0.411946
3.442271 -0.401155 0.412163
3.442498 -0.390480 0.412055
3.443680 -0.379917 0.412055
3.442852 -0.369138 0.411838
3.441002 -0.358264 0.411513
3.443074 -0.347806 0.411621
3.445114 -0.337338 0.411730
3.447123 -0.326861 0.411838
3.451079 -0.316557 0.412163
3.455005 -0.306231 0.412488
3.455928 -0.295630 0.412488
3.458800 -0.285189 0.412705
3.460650 -0.274655 0.412813
3.463459 -0.264188 0.413030
3.464253 -0.253561 0.413030
3.331623 -0.856456 0.388219
3.332306 -0.845742 0.388014
3.332956 -0.835031 0.387810
3.337433 -0.825279 0.388014
3.338017 -0.814565 0.387810
3.339533 -0.804087 0.387708
3.340048 -0.793378 0.387503
3.344404 -0.783581 0.387708
3.342915 -0.772422 0.387299
3.345269 -0.762162 0.387299
3.348562 -0.752113 0.387401
3.350854 -0.741836 0.387401
3.352142 -0.731341 0.387299
3.355342 -0.721262 0.387401
3.354620 -0.710347 0.387094
3.359705 -0.700660 0.387401
3.359890 -0.689950 0.387196
3.361016 -0.679441 0.387094
3.361133 -0.668739 0.386889
3.362193 -0.658233 0.386787
3.365173 -0.648103 0.386889
3.368123 -0.637960 0.386992
3.373976 -0.628352 0.387401
3.377845 -0.618356 0.387605
3.380705 -0.608166 0.387708
3.385494 -0.598310 0.388014
3.389274 -0.588261 0.388219
3.394005 -0.578361 0.388526
3.392820 -0.567454 0.388219
3.395526 -0.557203 0.388321
3.397220 -0.546783 0.388321
3.398881 -0.536358 0.388321
3.402477 -0.526232 0.388526
3.405059 -0.515940 0.388628
3.405642 -0.505345 0.388526
3.405207 -0.494608 0.388321
3.410648 -0.484718 0.388730
3.411134 -0.474115 0.388628
3.414544 -0.463916 0.388833
3.419896 -0.453961 0.389242
3.425218 -0.443978 0.389651
3.430512 -0.433966 0.390060
3.432814 -0.423561 0.390162
3.436073 -0.413265 0.390367
3.435349 -0.402490 0.390162
3.436567 -0.391948 0.390162
3.436765 -0.381294 0.390060
3.435941 -0.370535 0.389855
3.438051 -0.360095 0.389958
3.440129 -0.349646 0.390060
3.442175 -0.339188 0.390162
3.444190 -0.328720 0.390264
3.447163 -0.318335 0.390469
3.449115 -0.307846 0.390571
3.451034 -0.297348 0.390674
3.454904 -0.287006 0.390980
3.455768 -0.276405 0.390980
3.457592 -0.265878 0.391083
3.457399 -0.255196 0.390980
3.456181 -0.244447 0.390776
3.324471 -0.844707 0.365545
3.333806 -0.836197 0.366218
3.328626 -0.824054 0.365449
3.332105 -0.814074 0.365545
3.332652 -0.803381 0.365353
3.335101 -0.793153 0.365353
3.337518 -0.782917 0.365353
3.338935 -0.772450 0.365257
3.342259 -0.762424 0.365353
3.341669 -0.751512 0.365065
3.342987 -0.741042 0.364969
3.350107 -0.731843 0.365449
3.350391 -0.721143 0.365257
3.353561 -0.711067 0.365353
3.356701 -0.700978 0.365449
3.358836 -0.690676 0.365449
3.358988 -0.679974 0.365257
3.362034 -0.669860 0.365353
3.362120 -0.659160 0.365161
3.362172 -0.648466 0.364969
3.365123 -0.638333 0.365065
3.368044 -0.628188 0.365161
3.370935 -0.618031 0.365257
3.375754 -0.608215 0.365545
3.378584 -0.598028 0.365641
3.380403 -0.587660 0.365641
3.382190 -0.577286 0.365641
3.384927 -0.567071 0.365737
3.386651 -0.556684 0.365737
3.388343 -0.546291 0.365737
3.389020 -0.535738 0.365641
3.392615 -0.525643 0.365833
3.397164 -0.515679 0.366122
3.397745 -0.505108 0.366026
3.401249 -0.494967 0.366218
3.403737 -0.484670 0.366314
3.407180 -0.474499 0.366506
3.409606 -0.464178 0.366602
3.413974 -0.454108 0.366890
3.420287 -0.444271 0.367370
3.424597 -0.434151 0.367658
3.426900 -0.423764 0.367754
3.428184 -0.413248 0.367754
3.431413 -0.402960 0.367946
3.429666 -0.392093 0.367658
3.424917 -0.380911 0.367082
3.424090 -0.370188 0.366890
3.428180 -0.359992 0.367178
3.426297 -0.349171 0.366890
3.429334 -0.338853 0.367082
3.435312 -0.328803 0.367562
3.439278 -0.318536 0.367850
3.440239 -0.307983 0.367850
3.443151 -0.297598 0.368042
3.446032 -0.287198 0.368234
3.448881 -0.276783 0.368426
3.450706 -0.266277 0.368522
3.455478 -0.255982 0.368906
3.456247 -0.245379 0.368906
3.464928 -0.235311 0.369674
3.322888 -0.829991 0.345243
3.324452 -0.819554 0.345153
3.327918 -0.809587 0.345243
3.329418 -0.799140 0.345153
3.331854 -0.788922 0.345153
3.334259 -0.778696 0.345153
3.338573 -0.768911 0.345333
3.338003 -0.758002 0.345062
3.342256 -0.748194 0.345243
3.344536 -0.737936 0.345243
3.346784 -0.727672 0.345243
3.349001 -0.717401 0.345243
3.352160 -0.707329 0.345333
3.355290 -0.697244 0.345423
3.357413 -0.686947 0.345423
3.358528 -0.676446 0.345333
3.358634 -0.665751 0.345153
3.360661 -0.655444 0.345153
3.362656 -0.645130 0.345153
3.364619 -0.634811 0.345153
3.369489 -0.625031 0.345423
3.372370 -0.614870 0.345514
3.375221 -0.604697 0.345604
3.378041 -0.594512 0.345694
3.379849 -0.584145 0.345694
3.379662 -0.573439 0.345514
3.380423 -0.562904 0.345423
3.381151 -0.552370 0.345333
3.382829 -0.541994 0.345333
3.385460 -0.531768 0.345423
3.388060 -0.521531 0.345514
3.391613 -0.511431 0.345694
3.396122 -0.501461 0.345965
3.398630 -0.491182 0.346055
3.399135 -0.480613 0.345965
3.403553 -0.470593 0.346236
3.407942 -0.460550 0.346507
3.410326 -0.450223 0.346597
3.414654 -0.440141 0.346868
3.419941 -0.430162 0.347229
3.422233 -0.419789 0.347319
3.426471 -0.409643 0.347590
3.425733 -0.398898 0.347410
3.424962 -0.388161 0.347229
3.421187 -0.377105 0.346778
3.421338 -0.366500 0.346687
3.422446 -0.356002 0.346687
3.423522 -0.345500 0.346687
3.426548 -0.335190 0.346868
3.432518 -0.325147 0.347319
3.436475 -0.314889 0.347590
3.437424 -0.304344 0.347590
3.442311 -0.294137 0.347951
3.445182 -0.283739 0.348132
3.448022 -0.273326 0.348313
3.449837 -0.262823 0.348403
3.450628 -0.252238 0.348403
3.454365 -0.241860 0.348674
3.461053 -0.231662 0.349215
3.327081 -0.833221 0.324664
3.324785 -0.821813 0.324243
3.329226 -0.812082 0.324412
3.333640 -0.802331 0.324580
3.336086 -0.792099 0.324580
3.339470 -0.782088 0.324664
3.341854 -0.771839 0.324664
3.345178 -0.761804 0.324748
3.347499 -0.751538 0.324748
3.350762 -0.741480 0.324833
3.350101 -0.730559 0.324580
3.353300 -0.720487 0.324664
3.354520 -0.709989 0.324580
3.353756 -0.699084 0.324327
3.356861 -0.688992 0.324412
3.358959 -0.678690 0.324412
3.359071 -0.667993 0.324243
3.362082 -0.657876 0.324327
3.366042 -0.647935 0.324496
3.368993 -0.637790 0.324580
3.372893 -0.627816 0.324748
3.375783 -0.617645 0.324833
3.379624 -0.607638 0.325001
3.380491 -0.597093 0.324917
3.381325 -0.586549 0.324833
3.383109 -0.576172 0.324833
3.382895 -0.565462 0.324664
3.382647 -0.554758 0.324496
3.383349 -0.544219 0.324412
3.386971 -0.534147 0.324580
3.387610 -0.523601 0.324496
3.392156 -0.513653 0.324748
3.394701 -0.503390 0.324833
3.398202 -0.493260 0.325001
3.399699 -0.482832 0.325001
3.405112 -0.472948 0.325338
3.408522 -0.462767 0.325506
3.412889 -0.452702 0.325759
3.416238 -0.442485 0.325927
3.419557 -0.432252 0.326096
3.421856 -0.421881 0.326180
3.421155 -0.411143 0.326011
3.421411 -0.400529 0.325927
3.418664 -0.389579 0.325590
3.418852 -0.378979 0.325506
3.420990 -0.368595 0.325590
3.426069 -0.358513 0.325927
3.427152 -0.348000 0.325927
3.433162 -0.337973 0.326348
3.437159 -0.327723 0.326601
3.439140 -0.317268 0.326685
3.448037 -0.307424 0.327359
3.449957 -0.296930 0.327443
3.451845 -0.286426 0.327527
3.453700 -0.275914 0.327611
3.454531 -0.265317 0.327611
3.455328 -0.254718 0.327611
3.459075 -0.244327 0.327864
3.461797 -0.233848 0.328032
3.464487 -0.223354 0.328201
3.315939 -0.819355 0.301367
3.318437 -0.809178 0.301367
3.326720 -0.800392 0.301834
3.328190 -0.789952 0.301756
3.330597 -0.779738 0.301756
3.333946 -0.769740 0.301834
3.337263 -0.759729 0.301912
3.337633 -0.749051 0.301756
3.338942 -0.738592 0.301678
3.343140 -0.728769 0.301834
3.345361 -0.718509 0.301834
3.346574 -0.708036 0.301756
3.346778 -0.697359 0.301601
3.348902 -0.687088 0.301601
3.350994 -0.676811 0.301601
3.354033 -0.666721 0.301678
3.357041 -0.656619 0.301756
3.364913 -0.647447 0.302223
3.367864 -0.637305 0.302300
3.371763 -0.627334 0.302456
3.375633 -0.617345 0.302611
3.376530 -0.606810 0.302534
3.377394 -0.596275 0.302456
3.378226 -0.585740 0.302378
3.376075 -0.574704 0.302067
3.375856 -0.564016 0.301912
3.376586 -0.553495 0.301834
3.377284 -0.542975 0.301756
3.379919 -0.532766 0.301834
3.381538 -0.522394 0.301834
3.386082 -0.512465 0.302067
3.390597 -0.502512 0.302300
3.394096 -0.492393 0.302456
3.396577 -0.482118 0.302534
3.403966 -0.472517 0.303000
3.406387 -0.462206 0.303078
3.407789 -0.451753 0.303078
3.409159 -0.441296 0.303078
3.410497 -0.430834 0.303078
3.408834 -0.420004 0.302845
3.409117 -0.409425 0.302767
3.411347 -0.399080 0.302845
3.410574 -0.388387 0.302689
3.412741 -0.378031 0.302767
3.417849 -0.367985 0.303078
3.420945 -0.357705 0.303234
3.425002 -0.347510 0.303467
3.432006 -0.337585 0.303933
3.435010 -0.327243 0.304089
3.437984 -0.316886 0.304244
3.440926 -0.306513 0.304400
3.446816 -0.296382 0.304789
3.445722 -0.285641 0.304633
3.447576 -0.275148 0.304711
3.450392 -0.264722 0.304867
3.448205 -0.253916 0.304633
3.448968 -0.243336 0.304633
3.452682 -0.232954 0.304867
3.453381 -0.222360 0.304867
3.454047 -0.211764 0.304867
3.310691 -0.809459 0.279949
3.317038 -0.800233 0.280235
3.319477 -0.790052 0.280235
3.321885 -0.779865 0.280235
3.324262 -0.769670 0.280235
3.328553 -0.759911 0.280379
3.331842 -0.749914 0.280450
3.333153 -0.739473 0.280379
3.337355 -0.729669 0.280522
3.339578 -0.719426 0.280522
3.339818 -0.708764 0.280379
3.339047 -0.697903 0.280164
3.342150 -0.687856 0.280235
3.342289 -0.677204 0.280092
3.346308 -0.667336 0.280235
3.348339 -0.657067 0.280235
3.355236 -0.647735 0.280594
3.358188 -0.637624 0.280665
3.363070 -0.627866 0.280881
3.365961 -0.617725 0.280952
3.368822 -0.607572 0.281024
3.367724 -0.596713 0.280809
3.369539 -0.586378 0.280809
3.366405 -0.575200 0.280450
3.370122 -0.565198 0.280594
3.370856 -0.554694 0.280522
3.371557 -0.544192 0.280450
3.374196 -0.534001 0.280522
3.374833 -0.523494 0.280450
3.379381 -0.513586 0.280665
3.382914 -0.503509 0.280809
3.387404 -0.493558 0.281024
3.390877 -0.483445 0.281167
3.395308 -0.473451 0.281382
3.397733 -0.463167 0.281454
3.396172 -0.452347 0.281239
3.400511 -0.442310 0.281454
3.400863 -0.431750 0.281382
3.403161 -0.421437 0.281454
3.404438 -0.410994 0.281454
3.406674 -0.400664 0.281526
3.407887 -0.390210 0.281526
3.411051 -0.379973 0.281669
3.413192 -0.369614 0.281741
3.417286 -0.359452 0.281956
3.419365 -0.349067 0.282027
3.422405 -0.338771 0.282171
3.425414 -0.328460 0.282314
3.426406 -0.317949 0.282314
3.431339 -0.307791 0.282601
3.434254 -0.297433 0.282744
3.435151 -0.286896 0.282744
3.437009 -0.276435 0.282816
3.439830 -0.266042 0.282959
3.440630 -0.255488 0.282959
3.442393 -0.245002 0.283031
3.444123 -0.234507 0.283102
3.445822 -0.224004 0.283174
3.445497 -0.213370 0.283102
3.450119 -0.203031 0.283389
3.318614 -0.807931 0.260801
3.322047 -0.797979 0.260867
3.323509 -0.787553 0.260801
3.322995 -0.776671 0.260604
3.328279 -0.767145 0.260801
3.331589 -0.757152 0.260867
3.332923 -0.746709 0.260801
3.335198 -0.736480 0.260801
3.337442 -0.726245 0.260801
3.337703 -0.715583 0.260669
3.338907 -0.705133 0.260604
3.339101 -0.694479 0.260472
3.340238 -0.684031 0.260406
3.342321 -0.673780 0.260406
3.344372 -0.663523 0.260406
3.346392 -0.653260 0.260406
3.349360 -0.643178 0.260472
3.353279 -0.633271 0.260604
3.355206 -0.622980 0.260604
3.358083 -0.612863 0.260669
3.360929 -0.602734 0.260735
3.362763 -0.592420 0.260735
3.363581 -0.581930 0.260669
3.364367 -0.571440 0.260604
3.366104 -0.561116 0.260604
3.367810 -0.550786 0.260604
3.374410 -0.541243 0.260933
3.372112 -0.530267 0.260669
3.374709 -0.520071 0.260735
3.385168 -0.511059 0.261329
3.381785 -0.499940 0.260999
3.385278 -0.489848 0.261131
3.387753 -0.479600 0.261197
3.389208 -0.469205 0.261197
3.390631 -0.458805 0.261197
3.393012 -0.448531 0.261263
3.396352 -0.438376 0.261395
3.399660 -0.428204 0.261526
3.404919 -0.418260 0.261790
3.406187 -0.407812 0.261790
3.410395 -0.397707 0.261988
3.413582 -0.387468 0.262120
3.416738 -0.377213 0.262252
3.416887 -0.366623 0.262186
3.419981 -0.356345 0.262318
3.422050 -0.345952 0.262384
3.422103 -0.335354 0.262318
3.423115 -0.324854 0.262318
3.426083 -0.314533 0.262449
3.427032 -0.304021 0.262449
3.427949 -0.293505 0.262449
3.431816 -0.283234 0.262647
3.433664 -0.272784 0.262713
3.435479 -0.262324 0.262779
3.436268 -0.251783 0.262779
3.440010 -0.241450 0.262977
3.443722 -0.231097 0.263175
3.445410 -0.220595 0.263241
3.448063 -0.210145 0.263372
3.451679 -0.199740 0.263570
3.331576 -0.789805 0.239853
3.333984 -0.779581 0.239853
3.335387 -0.769124 0.239793
3.334811 -0.758223 0.239615
3.333225 -0.747115 0.239376
3.332578 -0.736239 0.239197
3.332870 -0.725586 0.239078
3.335080 -0.715358 0.239078
3.335306 -0.704710 0.238958
3.337452 -0.694474 0.238958
3.338589 -0.684031 0.238899
3.340672 -0.673785 0.238899
3.342724 -0.663533 0.238899
3.344744 -0.653274 0.238899
3.343791 -0.642444 0.238720
3.345747 -0.632183 0.238720
3.347671 -0.621915 0.238720
3.351527 -0.612000 0.238839
3.355354 -0.602068 0.238958
3.360134 -0.592291 0.239137
3.362919 -0.582150 0.239197
3.365673 -0.571998 0.239257
3.365443 -0.561340 0.239137
3.367149 -0.551013 0.239137
3.366853 -0.540363 0.239018
3.370467 -0.530342 0.239137
3.372078 -0.519999 0.239137
3.375632 -0.509950 0.239257
3.382118 -0.500322 0.239555
3.383636 -0.489943 0.239555
3.387100 -0.479840 0.239674
3.388556 -0.469447 0.239674
3.391959 -0.459317 0.239793
3.396321 -0.449301 0.239972
3.400654 -0.439263 0.240151
3.405946 -0.429328 0.240390
3.409229 -0.419120 0.240509
3.412481 -0.408897 0.240629
3.412728 -0.398310 0.240569
3.414926 -0.387951 0.240629
3.414116 -0.377252 0.240509
3.412280 -0.366456 0.240330
3.416366 -0.356297 0.240509
3.418437 -0.345914 0.240569
3.418488 -0.335328 0.240509
3.422482 -0.325122 0.240688
3.430422 -0.315260 0.241106
3.432367 -0.304823 0.241166
3.432291 -0.294206 0.241106
3.436162 -0.283921 0.241285
3.439007 -0.273536 0.241404
3.437840 -0.262832 0.241285
3.440621 -0.252430 0.241404
3.444366 -0.242083 0.241583
3.447085 -0.231649 0.241702
3.449772 -0.221200 0.241822
3.458405 -0.211103 0.242299
3.459036 -0.200492 0.242299
3.476579 -0.190811 0.243313
3.334348 -0.792025 0.218542
3.331901 -0.780653 0.218275
3.330389 -0.769529 0.218062
3.329813 -0.758642 0.217902
3.330176 -0.747986 0.217795
3.328555 -0.736902 0.217581
3.325922 -0.725623 0.217314
3.327156 -0.715206 0.217261
3.329335 -0.704995 0.217261
3.330504 -0.694574 0.217208
3.333598 -0.684554 0.217261
3.335682 -0.674323 0.217261
3.336756 -0.663892 0.217208
3.337797 -0.653460 0.217154
3.341747 -0.643594 0.217261
3.341744 -0.632967 0.217154
3.343670 -0.622712 0.217154
3.347529 -0.612810 0.217261
3.352342 -0.603067 0.217421
3.357126 -0.593300 0.217581
3.358931 -0.582998 0.217581
3.360704 -0.572690 0.217581
3.359490 -0.561883 0.217421
3.359227 -0.551251 0.217314
3.358931 -0.540625 0.217208
3.359587 -0.530162 0.217154
3.363172 -0.520157 0.217261
3.366726 -0.510136 0.217368
3.370251 -0.500097 0.217475
3.374734 -0.490185 0.217635
3.375234 -0.479689 0.217581
3.385591 -0.470568 0.218062
3.392956 -0.460985 0.218382
3.398314 -0.451099 0.218596
3.406614 -0.441568 0.218969
3.408943 -0.431240 0.219023
3.408268 -0.420535 0.218916
3.408551 -0.409958 0.218863
3.408801 -0.399382 0.218809
3.407033 -0.388583 0.218649
3.405232 -0.377799 0.218489
3.404390 -0.367136 0.218382
3.407486 -0.356898 0.218489
3.411546 -0.346745 0.218649
3.414581 -0.336472 0.218756
3.420567 -0.326468 0.219023
3.427519 -0.316523 0.219343
3.433447 -0.306449 0.219610
3.432381 -0.295743 0.219503
3.436258 -0.285459 0.219663
3.437118 -0.274915 0.219663
3.435953 -0.264216 0.219556
3.436748 -0.253674 0.219556
3.439502 -0.243269 0.219663
3.441229 -0.232783 0.219717
3.446909 -0.222546 0.219984
3.450566 -0.212153 0.220144
3.453194 -0.201682 0.220250
3.454794 -0.191142 0.220304
3.462344 -0.180906 0.220677
3.325758 -0.780773 0.196539
3.322299 -0.769216 0.196257
3.321721 -0.758353 0.196116
3.322083 -0.747721 0.196021
3.321436 -0.736877 0.195880
3.322705 -0.726471 0.195833
3.322965 -0.715854 0.195739
3.324168 -0.705448 0.195692
3.325339 -0.695043 0.195644
3.328434 -0.685038 0.195692
3.328562 -0.674428 0.195597
3.330616 -0.664213 0.195597
3.331657 -0.653799 0.195550
3.333648 -0.643575 0.195550
3.338551 -0.633902 0.195692
3.341462 -0.623840 0.195739
3.345325 -0.613945 0.195833
3.350142 -0.604210 0.195974
3.351980 -0.593929 0.195974
3.353786 -0.583642 0.195974
3.355561 -0.573350 0.195974
3.354349 -0.562558 0.195833
3.354088 -0.551941 0.195739
3.354779 -0.541489 0.195692
3.354451 -0.530883 0.195597
3.358038 -0.520895 0.195692
3.362583 -0.511039 0.195833
3.366112 -0.501014 0.195927
3.368621 -0.490828 0.195974
3.374067 -0.481054 0.196163
3.380474 -0.471388 0.196398
3.382894 -0.461149 0.196445
3.390234 -0.451558 0.196728
3.396556 -0.441797 0.196963
3.400869 -0.431751 0.197105
3.397220 -0.420703 0.196869
3.397503 -0.410159 0.196822
3.398746 -0.399734 0.196822
3.396979 -0.388965 0.196681
3.395178 -0.378210 0.196539
3.396322 -0.367792 0.196539
3.399421 -0.357579 0.196634
3.403484 -0.347452 0.196775
3.408510 -0.337400 0.196963
3.413507 -0.327322 0.197152
3.418473 -0.317216 0.197340
3.423410 -0.307082 0.197529
3.424336 -0.296578 0.197529
3.424234 -0.285988 0.197482
3.426091 -0.275561 0.197529
3.425925 -0.264972 0.197482
3.424729 -0.254313 0.197387
3.427486 -0.243946 0.197482
3.432205 -0.233699 0.197670
3.433902 -0.223233 0.197717
3.436565 -0.212819 0.197811
3.440193 -0.202450 0.197953
3.443790 -0.192061 0.198094
3.444363 -0.181494 0.198094
3.292348 -0.769497 0.175463
3.318058 -0.764786 0.176456
3.318440 -0.754159 0.176373
3.320738 -0.743975 0.176373
3.322030 -0.733568 0.176332
3.324265 -0.723372 0.176332
3.326468 -0.713170 0.176332
3.328640 -0.702961 0.176332
3.329803 -0.692542 0.176290
3.332891 -0.682524 0.176332
3.334969 -0.672296 0.176332
3.337016 -0.662061 0.176332
3.339032 -0.651820 0.176332
3.341016 -0.641573 0.176332
3.344932 -0.631691 0.176414
3.346854 -0.621426 0.176414
3.349728 -0.611335 0.176456
3.352571 -0.601232 0.176497
3.353416 -0.590770 0.176456
3.355212 -0.580479 0.176456
3.357962 -0.570350 0.176497
3.358711 -0.559881 0.176456
3.357455 -0.549089 0.176332
3.359124 -0.538786 0.176332
3.360761 -0.528478 0.176332
3.362366 -0.518165 0.176332
3.365916 -0.508146 0.176414
3.369436 -0.498110 0.176497
3.371937 -0.487913 0.176538
3.375396 -0.477847 0.176621
3.379816 -0.467901 0.176745
3.384205 -0.457933 0.176869
3.385594 -0.447548 0.176869
3.388933 -0.437416 0.176952
3.393233 -0.427392 0.177076
3.397503 -0.417346 0.177200
3.392816 -0.406206 0.176952
3.392061 -0.395563 0.176869
3.395244 -0.385381 0.176952
3.389459 -0.374193 0.176662
3.394565 -0.364220 0.176828
3.395666 -0.353804 0.176828
3.396736 -0.343384 0.176828
3.401751 -0.333353 0.176993
3.406736 -0.323294 0.177159
3.409701 -0.313024 0.177241
3.412636 -0.302739 0.177324
3.416535 -0.292524 0.177448
3.417417 -0.282041 0.177448
3.419262 -0.271635 0.177490
3.421075 -0.261220 0.177531
3.422857 -0.250796 0.177572
3.424607 -0.240364 0.177614
3.428319 -0.230058 0.177738
3.431003 -0.219667 0.177820
3.432658 -0.209201 0.177862
3.434281 -0.198727 0.177903
3.437867 -0.188355 0.178027
3.437431 -0.177755 0.177986
3.439956 -0.167306 0.178068
3.310891 -0.764078 0.154877
3.313219 -0.753917 0.154877
3.315517 -0.743748 0.154877
3.318759 -0.733789 0.154912
3.320994 -0.723604 0.154912
3.324176 -0.713622 0.154947
3.328305 -0.703834 0.155017
3.330449 -0.693619 0.155017
3.333540 -0.683599 0.155052
3.336601 -0.673567 0.155087
3.337672 -0.663132 0.155052
3.342633 -0.653465 0.155158
3.344622 -0.643206 0.155158
3.346580 -0.632942 0.155158
3.346540 -0.622306 0.155087
3.350400 -0.612396 0.155158
3.351279 -0.601938 0.155122
3.355079 -0.592001 0.155193
3.355895 -0.581534 0.155158
3.357663 -0.571235 0.155158
3.358414 -0.560767 0.155122
3.360119 -0.550461 0.155122
3.360805 -0.539991 0.155087
3.363433 -0.529833 0.155122
3.365042 -0.519512 0.155122
3.367609 -0.509335 0.155158
3.372121 -0.499441 0.155263
3.376605 -0.489523 0.155368
3.378091 -0.479162 0.155368
3.381525 -0.469070 0.155438
3.383938 -0.458828 0.155473
3.387311 -0.448707 0.155543
3.389663 -0.438441 0.155578
3.392975 -0.428290 0.155649
3.396257 -0.418123 0.155719
3.397524 -0.407702 0.155719
3.398759 -0.397276 0.155719
3.397975 -0.386621 0.155649
3.397159 -0.375974 0.155578
3.395316 -0.365229 0.155473
3.396420 -0.354811 0.155473
3.399481 -0.344591 0.155543
3.401517 -0.334257 0.155578
3.405511 -0.324105 0.155684
3.409475 -0.313930 0.155789
3.413408 -0.303735 0.155894
3.417311 -0.293518 0.155999
3.418196 -0.283033 0.155999
3.421040 -0.272703 0.156069
3.422857 -0.262283 0.156105
3.424643 -0.251854 0.156140
3.426396 -0.241416 0.156175
3.432106 -0.231240 0.156350
3.433797 -0.220773 0.156385
3.438448 -0.210482 0.156525
3.441073 -0.200049 0.156596
3.436681 -0.189215 0.156420
3.439241 -0.178775 0.156490
3.442768 -0.168369 0.156596
3.441272 -0.157714 0.156525
3.307018 -0.752847 0.132244
3.318090 -0.744667 0.132500
3.319383 -0.734268 0.132472
3.321620 -0.724081 0.132472
3.324803 -0.714097 0.132500
3.327956 -0.704100 0.132529
3.330101 -0.693886 0.132529
3.333193 -0.683867 0.132557
3.337235 -0.674034 0.132614
3.338307 -0.663597 0.132586
3.340327 -0.653352 0.132586
3.342316 -0.643101 0.132586
3.344273 -0.632844 0.132586
3.346199 -0.622581 0.132586
3.347110 -0.612132 0.132557
3.349956 -0.602037 0.132586
3.349818 -0.591410 0.132529
3.350632 -0.580959 0.132500
3.352399 -0.570677 0.132500
3.354134 -0.560389 0.132500
3.354851 -0.549935 0.132472
3.355535 -0.539481 0.132444
3.359149 -0.529495 0.132500
3.360758 -0.519186 0.132500
3.363323 -0.509023 0.132529
3.365858 -0.498848 0.132557
3.370341 -0.488950 0.132643
3.371825 -0.478608 0.132643
3.376248 -0.468673 0.132728
3.378660 -0.458447 0.132756
3.382033 -0.448341 0.132813
3.384383 -0.438091 0.132842
3.387695 -0.427957 0.132899
3.390976 -0.417806 0.132956
3.394227 -0.407638 0.133012
3.395462 -0.397223 0.133012
3.396664 -0.386804 0.133012
3.397835 -0.376381 0.133012
3.398974 -0.365955 0.133012
3.401075 -0.355630 0.133041
3.403144 -0.345294 0.133069
3.406177 -0.335047 0.133126
3.409179 -0.324785 0.133183
3.414141 -0.314691 0.133297
3.417082 -0.304392 0.133354
3.419992 -0.294078 0.133411
3.420878 -0.283585 0.133411
3.422728 -0.273168 0.133439
3.423550 -0.262666 0.133439
3.424340 -0.252161 0.133439
3.427092 -0.241795 0.133496
3.431807 -0.231548 0.133610
3.434496 -0.221146 0.133667
3.438151 -0.210792 0.133752
3.442774 -0.200475 0.133866
3.444371 -0.189966 0.133894
3.440944 -0.179191 0.133780
3.441478 -0.168633 0.133780
3.439982 -0.157983 0.133724
3.442448 -0.147514 0.133780
3.305398 -0.743971 0.112709
3.314497 -0.735341 0.112868
3.315761 -0.724955 0.112845
3.317970 -0.714779 0.112845
3.319169 -0.704389 0.112822
3.323272 -0.694611 0.112868
3.326366 -0.684613 0.112890
3.328451 -0.674405 0.112890
3.333446 -0.664776 0.112958
3.336451 -0.654738 0.112981
3.338444 -0.644499 0.112981
3.339423 -0.634068 0.112958
3.340370 -0.623636 0.112936
3.342268 -0.613385 0.112936
3.344134 -0.603128 0.112936
3.344984 -0.592692 0.112913
3.344816 -0.582085 0.112868
3.346586 -0.571820 0.112868
3.348325 -0.561550 0.112868
3.350032 -0.551275 0.112868
3.352695 -0.541154 0.112890
3.355327 -0.531021 0.112913
3.357928 -0.520878 0.112936
3.360499 -0.510723 0.112958
3.362050 -0.500411 0.112958
3.365548 -0.490381 0.113004
3.368026 -0.480195 0.113026
3.371464 -0.470135 0.113072
3.372890 -0.459789 0.113072
3.375276 -0.449571 0.113094
3.377631 -0.439342 0.113117
3.379955 -0.429103 0.113140
3.379271 -0.418486 0.113094
3.384509 -0.408595 0.113185
3.387733 -0.398442 0.113231
3.390926 -0.388274 0.113276
3.393095 -0.377979 0.113299
3.396226 -0.367782 0.113344
3.397339 -0.357361 0.113344
3.399414 -0.347038 0.113367
3.402452 -0.336803 0.113412
3.405460 -0.326553 0.113457
3.409432 -0.316380 0.113526
3.411383 -0.306007 0.113548
3.415293 -0.295798 0.113616
3.416185 -0.285318 0.113616
3.418041 -0.274916 0.113639
3.419865 -0.264505 0.113662
3.421657 -0.254086 0.113684
3.422421 -0.243587 0.113684
3.427142 -0.233356 0.113775
3.428839 -0.222905 0.113798
3.433498 -0.212630 0.113889
3.435133 -0.202154 0.113911
3.433740 -0.191504 0.113866
3.438305 -0.181177 0.113957
3.438845 -0.170628 0.113957
3.439352 -0.160077 0.113957
3.440826 -0.149567 0.113979
3.440269 -0.138970 0.113957
3.309888 -0.730279 0.092124
3.312113 -0.720121 0.092124
3.315285 -0.710166 0.092140
3.318426 -0.700198 0.092157
3.322516 -0.690422 0.092190
3.326578 -0.680627 0.092223
3.329631 -0.670616 0.092240
3.333634 -0.660787 0.092273
3.337608 -0.650940 0.092306
3.338607 -0.640508 0.092289
3.339574 -0.630077 0.092273
3.339525 -0.619463 0.092240
3.340427 -0.609035 0.092223
3.341295 -0.598607 0.092207
3.344101 -0.588527 0.092223
3.345891 -0.578264 0.092223
3.348635 -0.568164 0.092240
3.352334 -0.558217 0.092273
3.356992 -0.548414 0.092323
3.358658 -0.538113 0.092323
3.360293 -0.527806 0.092323
3.361897 -0.517494 0.092323
3.364457 -0.507327 0.092339
3.366987 -0.497149 0.092356
3.367507 -0.486674 0.092339
3.370964 -0.476621 0.092372
3.373401 -0.466414 0.092389
3.375807 -0.456196 0.092406
3.376199 -0.445706 0.092389
3.376559 -0.435218 0.092372
3.378870 -0.424982 0.092389
3.382143 -0.414858 0.092422
3.383400 -0.404479 0.092422
3.387604 -0.394445 0.092472
3.390785 -0.384276 0.092505
3.390954 -0.373762 0.092488
3.394073 -0.363570 0.092522
3.396168 -0.353260 0.092538
3.399225 -0.343040 0.092571
3.400261 -0.332610 0.092571
3.403256 -0.322366 0.092605
3.406221 -0.312106 0.092638
3.412142 -0.302097 0.092721
3.417037 -0.291969 0.092787
3.420907 -0.281732 0.092837
3.424745 -0.271473 0.092886
3.427556 -0.261118 0.092920
3.427343 -0.250528 0.092903
3.426101 -0.239871 0.092870
3.428816 -0.229493 0.092903
3.430502 -0.219037 0.092920
3.432156 -0.208572 0.092936
3.434776 -0.198157 0.092969
3.438363 -0.187783 0.093019
3.439921 -0.177285 0.093036
3.443445 -0.166877 0.093085
3.445938 -0.156403 0.093118
3.447401 -0.145873 0.093135
3.447832 -0.135296 0.093135
3.301928 -0.730667 0.072018
3.309039 -0.721600 0.072071
3.314170 -0.712075 0.072103
3.319273 -0.702525 0.072135
3.322392 -0.692542 0.072145
3.328419 -0.683151 0.072188
3.332459 -0.673333 0.072209
3.332548 -0.662715 0.072188
3.335547 -0.652680 0.072199
3.334588 -0.641876 0.072167
3.332612 -0.630899 0.072124
3.332566 -0.620305 0.072103
3.334453 -0.610078 0.072103
3.335325 -0.599668 0.072092
3.339118 -0.589781 0.072113
3.344853 -0.580218 0.072156
3.349574 -0.570457 0.072188
3.353281 -0.560508 0.072209
3.359919 -0.551027 0.072262
3.361593 -0.540717 0.072262
3.364224 -0.530557 0.072273
3.367812 -0.520539 0.072294
3.368405 -0.510054 0.072284
3.368965 -0.499571 0.072273
3.372461 -0.489520 0.072294
3.375927 -0.479453 0.072316
3.378372 -0.469231 0.072326
3.379796 -0.458864 0.072326
3.381188 -0.448493 0.072326
3.382548 -0.438117 0.072326
3.384868 -0.427863 0.072337
3.385172 -0.417354 0.072326
3.386437 -0.406967 0.072326
3.387669 -0.396575 0.072326
3.390857 -0.386407 0.072348
3.391033 -0.375892 0.072337
3.392170 -0.365487 0.072337
3.393275 -0.355078 0.072337
3.394349 -0.344666 0.072337
3.396385 -0.334348 0.072348
3.399386 -0.324117 0.072369
3.404347 -0.314054 0.072411
3.411271 -0.304142 0.072475
3.416173 -0.294018 0.072518
3.420048 -0.283784 0.072550
3.422896 -0.273450 0.072571
3.424716 -0.263024 0.072582
3.424510 -0.252442 0.072571
3.425268 -0.241935 0.072571
3.423999 -0.231290 0.072550
3.424692 -0.220784 0.072550
3.428348 -0.210461 0.072582
3.430974 -0.200058 0.072603
3.438560 -0.189918 0.072678
3.439127 -0.179368 0.072678
3.442657 -0.168963 0.072710
3.445157 -0.158493 0.072731
3.446626 -0.147965 0.072741
3.448063 -0.137431 0.072752
3.450467 -0.126925 0.072773
3.301309 -0.720256 0.050268
3.318168 -0.713275 0.050331
3.322298 -0.703506 0.050339
3.324440 -0.693310 0.050339
3.328511 -0.683510 0.050347
3.328632 -0.672899 0.050339
3.329700 -0.662488 0.050335
3.328772 -0.651694 0.050322
3.327810 -0.640911 0.050310
3.324848 -0.629769 0.050289
3.324798 -0.619199 0.050280
3.325699 -0.608816 0.050276
3.328535 -0.598787 0.050280
3.332326 -0.588920 0.050289
3.337073 -0.579207 0.050301
3.341792 -0.569470 0.050314
3.344509 -0.559379 0.050318
3.348183 -0.549440 0.050326
3.352815 -0.539641 0.050339
3.357418 -0.529820 0.050351
3.359028 -0.519517 0.050351
3.363572 -0.509658 0.050364
3.366109 -0.499483 0.050368
3.369605 -0.489441 0.050377
3.373071 -0.479382 0.050385
3.375516 -0.469169 0.050389
3.378922 -0.459080 0.050398
3.380314 -0.448711 0.050398
3.381675 -0.438338 0.050398
3.382011 -0.427836 0.050393
3.382316 -0.417336 0.050389
3.383580 -0.406957 0.050389
3.384813 -0.396575 0.050389
3.388000 -0.386415 0.050398
3.390164 -0.376129 0.050402
3.391302 -0.365726 0.050402
3.393403 -0.355424 0.050406
3.393482 -0.344911 0.050402
3.393529 -0.334400 0.050398
3.396530 -0.324177 0.050406
3.399500 -0.313939 0.050414
3.400447 -0.303508 0.050414
3.404351 -0.293331 0.050427
3.408225 -0.283133 0.050439
3.409078 -0.272676 0.050439
3.409898 -0.262216 0.050439
3.410687 -0.251753 0.050439
3.409448 -0.241147 0.050431
3.412167 -0.230821 0.050439
3.415853 -0.220544 0.050452
3.416514 -0.210063 0.050452
3.419139 -0.199697 0.050460
3.422730 -0.189372 0.050473
3.427290 -0.179078 0.050490
3.430820 -0.168710 0.050502
3.435317 -0.158367 0.050519
3.438784 -0.147955 0.050532
3.441220 -0.137484 0.050540
3.443624 -0.127000 0.050548
3.445996 -0.116502 0.050557
3.315752 -0.724350 0.029105
3.308182 -0.712073 0.029126
3.319156 -0.703784 0.029107
3.319342 -0.693189 0.029111
3.320473 -0.682801 0.029113
3.320592 -0.672215 0.029117
3.322639 -0.662024 0.029117
3.321710 -0.651251 0.029124
3.323692 -0.641058 0.029124
3.324661 -0.630672 0.029126
3.326580 -0.620469 0.029126
3.327484 -0.610080 0.029128
3.330325 -0.600046 0.029126
3.332150 -0.589825 0.029126
3.334929 -0.579771 0.029124
3.337678 -0.569704 0.029121
3.340396 -0.559627 0.029119
3.343084 -0.549538 0.029117
3.348704 -0.539914 0.029109
3.351332 -0.529794 0.029107
3.352942 -0.519509 0.029107
3.355509 -0.509370 0.029105
3.358045 -0.499220 0.029103
3.359560 -0.488915 0.029103
3.362035 -0.478747 0.029101
3.364478 -0.468567 0.029098
3.365900 -0.458243 0.029098
3.368281 -0.448046 0.029096
3.372615 -0.438096 0.029090
3.374935 -0.427872 0.029088
3.376232 -0.417516 0.029088
3.377497 -0.407156 0.029088
3.383697 -0.397373 0.029078
3.384900 -0.386990 0.029078
3.386071 -0.376604 0.029078
3.388205 -0.366321 0.029075
3.389313 -0.355924 0.029075
3.390389 -0.345524 0.029075
3.390438 -0.335023 0.029078
3.392445 -0.324715 0.029075
3.393425 -0.314305 0.029075
3.394373 -0.303893 0.029075
3.395290 -0.293478 0.029075
3.399164 -0.283308 0.029069
3.399020 -0.272798 0.029071
3.399841 -0.262369 0.029071
3.401628 -0.252011 0.029069
3.402385 -0.241574 0.029069
3.403110 -0.231134 0.029069
3.408792 -0.221014 0.029059
3.411451 -0.210678 0.029054
3.414078 -0.200327 0.029050
3.416673 -0.189962 0.029046
3.419237 -0.179583 0.029042
3.421770 -0.169190 0.029038
3.427267 -0.158922 0.029027
3.430736 -0.148535 0.029021
3.435172 -0.138168 0.029013
3.438578 -0.127739 0.029006
3.441952 -0.117290 0.029000
3.445294 -0.106822 0.028994
3.311479 -0.710553 0.009703
3.309730 -0.699562 0.009734
3.309903 -0.688996 0.009750
3.312001 -0.678838 0.009750
3.313088 -0.668476 0.009758
3.316104 -0.658503 0.009750
3.318108 -0.648327 0.009750
3.321064 -0.638333 0.009742
3.323006 -0.628141 0.009742
3.327867 -0.618492 0.009719
3.328765 -0.608100 0.009727
3.332584 -0.598238 0.009711
3.335388 -0.588185 0.009703
3.337177 -0.577950 0.009703
3.339920 -0.567877 0.009695
3.342633 -0.557792 0.009687
3.345315 -0.547696 0.009679
3.347967 -0.537589 0.009672
3.349601 -0.527315 0.009672
3.351203 -0.517036 0.009672
3.351784 -0.506603 0.009679
3.353323 -0.496317 0.009679
3.352851 -0.485740 0.009695
3.354325 -0.475451 0.009695
3.355768 -0.465158 0.009695
3.357179 -0.454860 0.009695
3.357568 -0.444427 0.009703
3.363874 -0.434767 0.009664
3.368168 -0.424821 0.009640
3.370448 -0.414608 0.009632
3.374682 -0.404624 0.009609
3.378887 -0.394617 0.009585
3.381076 -0.384363 0.009577
3.383233 -0.374098 0.009569
3.385359 -0.363824 0.009562
3.388448 -0.353644 0.009546
3.390512 -0.343348 0.009538
3.393540 -0.333141 0.009522
3.395541 -0.322823 0.009514
3.399503 -0.312680 0.009491
3.402438 -0.302426 0.009475
3.403350 -0.291986 0.009475
3.403233 -0.281461 0.009483
3.404081 -0.271019 0.009483
3.404896 -0.260574 0.009483
3.402688 -0.249906 0.009507
3.403439 -0.239465 0.009507
3.404157 -0.229023 0.009507
3.406840 -0.218706 0.009491
3.409491 -0.208376 0.009475
3.412111 -0.198031 0.009460
3.414699 -0.187673 0.009444
3.418255 -0.177352 0.009420
3.420780 -0.166962 0.009405
3.424273 -0.156605 0.009381
3.429733 -0.146313 0.009342
3.433163 -0.135910 0.009318
3.436561 -0.125487 0.009295
3.435931 -0.114910 0.009302
3.446262 -0.104675 0.009224
3.445568 -0.094074 0.009232
3.304861 -0.687688 -0.011908
3.307935 -0.677746 -0.011923
3.309999 -0.667595 -0.011923
3.313012 -0.657631 -0.011937
3.315014 -0.647464 -0.011937
3.317966 -0.637479 -0.011951
3.321872 -0.627669 -0.011980
3.323782 -0.617474 -0.011980
3.328611 -0.607813 -0.012023
3.331445 -0.597775 -0.012037
3.335232 -0.587899 -0.012066
3.339976 -0.578176 -0.012109
3.343705 -0.568262 -0.012137
3.347406 -0.558330 -0.012166
3.349103 -0.548057 -0.012166
3.350768 -0.537780 -0.012166
3.351415 -0.527342 -0.012152
3.351041 -0.516752 -0.012123
3.351621 -0.506320 -0.012109
3.353159 -0.496035 -0.012109
3.351696 -0.485315 -0.012066
3.352180 -0.474889 -0.012052
3.353621 -0.464603 -0.012052
3.354039 -0.454177 -0.012037
3.355417 -0.443885 -0.012037
3.358746 -0.433845 -0.012066
3.364030 -0.424039 -0.012123
3.366307 -0.413839 -0.012137
3.370539 -0.403866 -0.012180
3.375735 -0.393988 -0.012238
3.378915 -0.383855 -0.012266
3.381071 -0.373597 -0.012281
3.382201 -0.363222 -0.012281
3.386283 -0.353156 -0.012323
3.388345 -0.342866 -0.012338
3.393362 -0.332860 -0.012395
3.395362 -0.322542 -0.012409
3.400318 -0.312490 -0.012467
3.404249 -0.302323 -0.012510
3.406157 -0.291963 -0.012524
3.405044 -0.281346 -0.012495
3.406887 -0.270978 -0.012510
3.406706 -0.260448 -0.012495
3.406492 -0.249922 -0.012481
3.406245 -0.239400 -0.012467
3.407961 -0.229016 -0.012481
3.409645 -0.218623 -0.012495
3.412296 -0.208283 -0.012524
3.413917 -0.197872 -0.012538
3.414508 -0.187397 -0.012538
3.420060 -0.177180 -0.012610
3.422585 -0.166784 -0.012638
3.425078 -0.156374 -0.012667
3.429538 -0.146036 -0.012724
3.433966 -0.135672 -0.012781
3.438363 -0.125282 -0.012839
3.441729 -0.114833 -0.012882
3.445064 -0.104365 -0.012925
3.448366 -0.093877 -0.012967
3.446639 -0.083249 -0.012939
3.302374 -0.678146 -0.032936
3.305418 -0.668209 -0.032956
3.308434 -0.658260 -0.032977
3.310437 -0.648107 -0.032977
3.313392 -0.638136 -0.032997
3.315334 -0.627968 -0.032997
3.317245 -0.617794 -0.032997
3.321092 -0.607973 -0.033039
3.324909 -0.598135 -0.033080
3.328698 -0.588280 -0.033121
3.333442 -0.578577 -0.033183
3.338159 -0.568851 -0.033244
3.340874 -0.558772 -0.033265
3.344546 -0.548843 -0.033306
3.345227 -0.538421 -0.033286
3.345876 -0.528000 -0.033265
3.345504 -0.517427 -0.033224
3.347075 -0.507160 -0.033224
3.348615 -0.496889 -0.033224
3.350124 -0.486614 -0.033224
3.351601 -0.476333 -0.033224
3.354037 -0.466186 -0.033244
3.355452 -0.455894 -0.033244
3.355843 -0.445466 -0.033224
3.358186 -0.435297 -0.033244
3.358514 -0.424866 -0.033224
3.360793 -0.414683 -0.033244
3.363043 -0.404489 -0.033265
3.366254 -0.394402 -0.033306
3.369435 -0.384299 -0.033347
3.372585 -0.374180 -0.033389
3.375705 -0.364046 -0.033430
3.377801 -0.353792 -0.033450
3.381854 -0.343730 -0.033512
3.385878 -0.333647 -0.033574
3.388876 -0.323447 -0.033615
3.392839 -0.313324 -0.033677
3.395776 -0.303091 -0.033718
3.397686 -0.292758 -0.033739
3.397572 -0.282250 -0.033718
3.400415 -0.271984 -0.033759
3.399240 -0.261397 -0.033718
3.399029 -0.250894 -0.033698
3.398785 -0.240394 -0.033677
3.402499 -0.230168 -0.033739
3.403189 -0.219728 -0.033739
3.406841 -0.209470 -0.033800
3.408466 -0.199075 -0.033821
3.413054 -0.188837 -0.033903
3.414615 -0.178417 -0.033924
3.418142 -0.168088 -0.033986
3.419641 -0.157646 -0.034006
3.422106 -0.147240 -0.034048
3.423541 -0.136780 -0.034068
3.426941 -0.126386 -0.034130
3.429312 -0.115939 -0.034171
3.432649 -0.105510 -0.034233
3.442951 -0.095253 -0.034439
3.442227 -0.084666 -0.034418
3.325059 -0.684345 -0.054072
3.306567 -0.669979 -0.053512
3.307626 -0.659636 -0.053485
3.308654 -0.649293 -0.053458
3.310630 -0.639139 -0.053458
3.312575 -0.628979 -0.053458
3.313507 -0.618630 -0.053432
3.317356 -0.608822 -0.053485
3.321175 -0.598996 -0.053538
3.324966 -0.589152 -0.053592
3.327743 -0.579119 -0.053619
3.333446 -0.569579 -0.053725
3.337149 -0.559680 -0.053779
3.339837 -0.549601 -0.053805
3.340521 -0.539193 -0.053779
3.342159 -0.528942 -0.053779
3.342778 -0.518533 -0.053752
3.345342 -0.508425 -0.053779
3.342931 -0.497572 -0.053672
3.347409 -0.487745 -0.053752
3.348890 -0.477473 -0.053752
3.350339 -0.467196 -0.053752
3.354728 -0.457319 -0.053832
3.356115 -0.447025 -0.053832
3.356480 -0.436598 -0.053805
3.357803 -0.426298 -0.053805
3.360087 -0.416117 -0.053832
3.362341 -0.405926 -0.053859
3.364563 -0.395725 -0.053886
3.366755 -0.385514 -0.053912
3.368915 -0.375294 -0.053939
3.370050 -0.364956 -0.053939
3.372149 -0.354720 -0.053966
3.375210 -0.344575 -0.054019
3.378241 -0.334415 -0.054072
3.380246 -0.324144 -0.054099
3.382220 -0.313864 -0.054126
3.387150 -0.303842 -0.054233
3.388066 -0.293449 -0.054233
3.388950 -0.283053 -0.054233
3.391796 -0.272814 -0.054286
3.393613 -0.262484 -0.054313
3.394403 -0.252071 -0.054313
3.397154 -0.241797 -0.054366
3.399875 -0.231509 -0.054420
3.402564 -0.221206 -0.054473
3.406220 -0.210950 -0.054553
3.407849 -0.200558 -0.054580
3.411443 -0.190268 -0.054660
3.414007 -0.179905 -0.054713
3.416540 -0.169529 -0.054767
3.416045 -0.159000 -0.054740
3.418514 -0.148605 -0.054793
3.419953 -0.138156 -0.054820
3.423358 -0.127774 -0.054900
3.422734 -0.117237 -0.054873
3.428074 -0.106890 -0.055007
3.432383 -0.096483 -0.055114
3.435661 -0.086026 -0.055194
3.435908 -0.075486 -0.055194
3.306554 -0.667155 -0.072851
3.306624 -0.656618 -0.072786
3.307642 -0.646278 -0.072753
3.307647 -0.635749 -0.072688
3.308600 -0.625413 -0.072656
3.310503 -0.615259 -0.072656
3.310409 -0.604740 -0.072591
3.314216 -0.594934 -0.072656
3.318978 -0.585286 -0.072753
3.321743 -0.575271 -0.072786
3.326448 -0.565581 -0.072883
3.330139 -0.555703 -0.072948
