# This PCD file was generated using the MATLAB® pcwrite function
# from Computer Vision Toolbox®.
# .PCD v.7 - Point Cloud Data file format
VERSION .7
FIELDS x y z
SIZE 4 4 4
TYPE F F F
COUNT 1 1 1
WIDTH 1761
HEIGHT 1
VIEWPOINT 0 0 0 1 0 0 0
POINTS 1761
DATA ascii
3.428857 0.541368 0.561248
3.423275 0.551256 0.560647
3.421568 0.561756 0.560647
3.419829 0.572250 0.560647
3.422930 0.583571 0.561398
3.419175 0.593731 0.561097
3.417337 0.604218 0.561097
3.418387 0.615225 0.561548
3.421345 0.626601 0.562299
3.420379 0.637275 0.562449
3.417436 0.647582 0.562299
3.422229 0.659373 0.563351
3.422130 0.670250 0.563651
3.418118 0.680359 0.563351
3.418922 0.691431 0.563801
3.417753 0.702116 0.563952
3.408808 0.711184 0.562900
3.407578 0.721844 0.563050
3.404381 0.732087 0.562900
3.408512 0.324060 0.533371
3.422273 0.335971 0.535536
3.426148 0.346969 0.536258
3.435894 0.358612 0.537846
3.432810 0.368940 0.537557
3.431661 0.379470 0.537557
3.428515 0.389772 0.537268
3.423372 0.399828 0.536691
3.421146 0.410211 0.536547
3.417908 0.420462 0.536258
3.419547 0.431319 0.536691
3.421151 0.442189 0.537124
3.416836 0.452293 0.536691
3.419354 0.463306 0.537268
3.422817 0.474475 0.537990
3.419386 0.484696 0.537701
3.416904 0.495042 0.537557
3.415369 0.505522 0.537557
3.411845 0.515702 0.537268
3.407313 0.525713 0.536835
3.403729 0.535856 0.536547
3.406954 0.547082 0.537268
3.399401 0.556570 0.536402
3.398654 0.567160 0.536547
3.400799 0.578249 0.537124
3.398034 0.588511 0.536980
3.394264 0.598589 0.536691
3.396307 0.609700 0.537268
3.395394 0.620295 0.537413
3.394448 0.630890 0.537557
3.400274 0.642774 0.538712
3.404116 0.654326 0.539578
3.404035 0.665147 0.539867
3.401008 0.675394 0.539722
3.400859 0.686217 0.540011
3.393892 0.695652 0.539289
3.394648 0.706667 0.539722
3.389559 0.716464 0.539289
3.385410 0.726443 0.539001
3.383166 0.736826 0.539001
3.379923 0.746988 0.538856
3.378801 0.251508 0.507737
3.384925 0.262406 0.508707
3.403848 0.274374 0.511476
3.403977 0.284898 0.511615
3.404074 0.295426 0.511753
3.406111 0.306133 0.512169
3.415017 0.317494 0.513553
3.420928 0.328631 0.514523
3.420889 0.339222 0.514661
3.421803 0.349916 0.514938
3.424653 0.360826 0.515492
3.423530 0.371331 0.515492
3.419422 0.381504 0.515077
3.417251 0.391881 0.514938
3.412098 0.401901 0.514384
3.405933 0.411774 0.513692
3.406620 0.422465 0.513969
3.402360 0.432540 0.513553
3.400035 0.442849 0.513415
3.402587 0.453800 0.513969
3.401179 0.464237 0.513969
3.401700 0.474943 0.514246
3.401208 0.485517 0.514384
3.398722 0.495807 0.514246
3.392287 0.505503 0.513553
3.390720 0.515908 0.513553
3.389121 0.526308 0.513553
3.384556 0.536240 0.513138
3.387784 0.547409 0.513830
3.386088 0.557800 0.513830
3.387291 0.568677 0.514246
3.389436 0.579733 0.514800
3.386665 0.589959 0.514661
3.384840 0.600346 0.514661
3.383956 0.610904 0.514800
3.381092 0.621104 0.514661
3.381118 0.631837 0.514938
3.381109 0.642577 0.515215
3.384957 0.654072 0.516046
3.386822 0.665216 0.516600
3.387679 0.676184 0.517015
3.385588 0.686574 0.517015
3.383466 0.696958 0.517015
3.380342 0.707132 0.516877
3.377188 0.717294 0.516738
3.374972 0.727652 0.516738
3.375626 0.738637 0.517154
3.373344 0.748990 0.517154
3.371030 0.759336 0.517154
3.430262 0.191581 0.493087
3.410858 0.200998 0.490571
3.408247 0.211339 0.490306
3.409560 0.221923 0.490571
3.405897 0.232180 0.490174
3.410112 0.242980 0.490836
3.407373 0.253294 0.490571
3.406580 0.263747 0.490571
3.402791 0.273958 0.490174
3.398971 0.284149 0.489776
3.398083 0.294576 0.489776
3.400126 0.305265 0.490174
3.400160 0.315787 0.490306
3.405095 0.326784 0.491101
3.401117 0.336937 0.490703
3.403026 0.347672 0.491101
3.405886 0.358525 0.491630
3.403785 0.368866 0.491498
3.401652 0.379197 0.491365
3.398503 0.389406 0.491101
3.392370 0.399252 0.490438
3.389162 0.409420 0.490174
3.387889 0.419816 0.490174
3.387569 0.430332 0.490306
3.385250 0.440596 0.490174
3.389777 0.451764 0.490968
3.385429 0.461760 0.490571
3.383996 0.472144 0.490571
3.382532 0.482524 0.490571
3.383978 0.493328 0.490968
3.379508 0.503270 0.490571
3.378927 0.513785 0.490703
3.379294 0.524452 0.490968
3.377669 0.534817 0.490968
3.376013 0.545178 0.490968
3.379215 0.556337 0.491630
3.379447 0.567029 0.491895
3.379645 0.577729 0.492160
3.378834 0.588264 0.492292
3.376037 0.598455 0.492160
3.375160 0.608985 0.492292
3.372301 0.619159 0.492160
3.373309 0.630047 0.492557
3.373308 0.640763 0.492822
3.373272 0.651485 0.493087
3.370285 0.661640 0.492955
3.371156 0.672558 0.493352
3.369076 0.682898 0.493352
3.365995 0.693031 0.493219
3.367733 0.704166 0.493749
3.367496 0.714906 0.494014
3.366256 0.725442 0.494147
3.365952 0.736190 0.494411
3.364645 0.746728 0.494544
3.362338 0.757047 0.494544
3.363865 0.768241 0.495074
3.421245 0.167910 0.471141
3.403874 0.177525 0.468989
3.401332 0.187858 0.468736
3.400740 0.198292 0.468736
3.398135 0.208603 0.468483
3.395499 0.218899 0.468230
3.391843 0.229114 0.467850
3.393103 0.239659 0.468103
3.391362 0.249995 0.467977
3.389590 0.260322 0.467850
3.387787 0.270641 0.467724
3.387929 0.281116 0.467850
3.384086 0.291253 0.467471
3.383177 0.301634 0.467471
3.382235 0.312012 0.467471
3.383237 0.322575 0.467724
3.382231 0.332953 0.467724
3.381194 0.343328 0.467724
3.379138 0.353597 0.467597
3.381982 0.364388 0.468103
3.380849 0.374762 0.468103
3.379683 0.385132 0.468103
3.375530 0.395153 0.467724
3.375286 0.405625 0.467850
3.375995 0.416222 0.468103
3.374702 0.426577 0.468103
3.372394 0.436801 0.467977
3.372021 0.447276 0.468103
3.370633 0.457619 0.468103
3.370196 0.468094 0.468230
3.368744 0.478432 0.468230
3.369224 0.489050 0.468483
3.364764 0.498947 0.468103
3.366159 0.509714 0.468483
3.366540 0.520342 0.468736
3.365908 0.530823 0.468863
3.363284 0.540989 0.468736
3.364545 0.551787 0.469116
3.360880 0.561779 0.468863
3.360118 0.572254 0.468989
3.359324 0.582730 0.469116
3.358498 0.593206 0.469242
3.357638 0.603683 0.469369
3.356746 0.614159 0.469495
3.354846 0.624455 0.469495
3.356813 0.635483 0.470002
3.355821 0.645966 0.470128
3.348957 0.655306 0.469495
3.354713 0.667126 0.470508
3.354595 0.677808 0.470761
3.353472 0.688296 0.470887
3.352315 0.698784 0.471014
3.351126 0.709270 0.471141
3.352814 0.720382 0.471647
3.354465 0.731511 0.472153
3.353173 0.742013 0.472279
3.350881 0.752297 0.472279
3.351459 0.763235 0.472659
3.349101 0.773514 0.472659
3.391145 0.186961 0.445269
3.388573 0.197248 0.445029
3.385970 0.207521 0.444789
3.383336 0.217780 0.444548
3.380671 0.228024 0.444308
3.377975 0.238255 0.444068
3.377228 0.248617 0.444068
3.376450 0.258977 0.444068
3.375639 0.269335 0.444068
3.373808 0.279607 0.443948
3.370956 0.289786 0.443707
3.370051 0.300127 0.443707
3.367137 0.310281 0.443467
3.365181 0.320516 0.443347
3.361218 0.330546 0.442987
3.360188 0.340856 0.442987
3.360114 0.351267 0.443107
3.360995 0.361788 0.443347
3.362829 0.372426 0.443707
3.363643 0.382967 0.443948
3.364424 0.393516 0.444188
3.365172 0.404073 0.444428
3.365887 0.414639 0.444669
3.365584 0.425088 0.444789
3.364264 0.435412 0.444789
3.362913 0.445731 0.444789
3.360546 0.455912 0.444669
3.360115 0.466357 0.444789
3.358668 0.476663 0.444789
3.357190 0.486965 0.444789
3.353716 0.496971 0.444548
3.354139 0.507556 0.444789
3.350604 0.517540 0.444548
3.350961 0.528127 0.444789
3.346385 0.537931 0.444428
3.346678 0.548517 0.444669
3.343021 0.558454 0.444428
3.341292 0.568708 0.444428
3.338553 0.578786 0.444308
3.337740 0.589199 0.444428
3.338847 0.599964 0.444789
3.340897 0.610920 0.445269
3.340959 0.621531 0.445510
3.343913 0.632702 0.446110
3.344881 0.643522 0.446471
3.344839 0.654162 0.446711
3.344764 0.664809 0.446951
3.344655 0.675461 0.447191
3.344512 0.686119 0.447432
3.342391 0.696376 0.447432
3.342181 0.707039 0.447672
3.341937 0.717707 0.447912
3.340689 0.728168 0.448032
3.341348 0.739058 0.448393
3.341002 0.749741 0.448633
3.337718 0.759767 0.448513
3.335371 0.770003 0.448513
3.332027 0.780006 0.448393
3.375399 0.188270 0.424320
3.374805 0.198624 0.424320
3.368231 0.208611 0.423632
3.364601 0.218751 0.423289
3.364905 0.229140 0.423403
3.362205 0.239321 0.423174
3.363436 0.249782 0.423403
3.362654 0.260100 0.423403
3.361840 0.270415 0.423403
3.359015 0.280563 0.423174
3.359128 0.290952 0.423289
3.356241 0.301080 0.423059
3.353323 0.311192 0.422830
3.350374 0.321290 0.422601
3.348384 0.331469 0.422486
3.348340 0.341841 0.422601
3.349251 0.352319 0.422830
3.348155 0.362593 0.422830
3.349988 0.373192 0.423174
3.351789 0.383806 0.423518
3.353555 0.394434 0.423862
3.356275 0.405196 0.424320
3.356002 0.415613 0.424434
3.355696 0.426032 0.424549
3.354374 0.436325 0.424549
3.354004 0.446745 0.424664
3.352618 0.457033 0.424664
3.353168 0.467590 0.424893
3.354668 0.478295 0.425237
3.350235 0.488156 0.424893
3.346757 0.498140 0.424664
3.347177 0.508703 0.424893
3.344619 0.518818 0.424778
3.344974 0.529386 0.425007
3.340392 0.539172 0.424664
3.338722 0.549418 0.424664
3.338000 0.559822 0.424778
3.338226 0.570394 0.425007
3.335481 0.580463 0.424893
3.334663 0.590867 0.425007
3.334790 0.601447 0.425237
3.335860 0.612212 0.425580
3.334943 0.622625 0.425695
3.339849 0.634148 0.426497
3.337888 0.644392 0.426497
3.335896 0.654629 0.426497
3.337769 0.665636 0.426955
3.338632 0.676464 0.427299
3.340433 0.687504 0.427758
3.340253 0.698155 0.427987
3.340039 0.708811 0.428216
3.338820 0.719263 0.428331
3.338539 0.729927 0.428560
3.334344 0.739736 0.428331
3.333028 0.750180 0.428445
3.328774 0.759961 0.428216
3.325459 0.769946 0.428101
3.321146 0.779691 0.427872
3.317772 0.789647 0.427758
3.356356 0.197792 0.400895
3.361687 0.208457 0.401545
3.357064 0.218512 0.401112
3.356377 0.228810 0.401112
3.353676 0.238965 0.400895
3.353919 0.249327 0.401003
3.351156 0.259462 0.400787
3.354308 0.270061 0.401220
3.350492 0.280102 0.400895
3.348626 0.290294 0.400787
3.345739 0.300389 0.400570
3.347771 0.310927 0.400895
3.345812 0.321102 0.400787
3.343822 0.331267 0.400678
3.343779 0.341625 0.400787
3.342715 0.351882 0.400787
3.341620 0.362136 0.400787
3.343457 0.372716 0.401112
3.342298 0.382972 0.401112
3.342095 0.393340 0.401220
3.343833 0.403949 0.401545
3.343565 0.414328 0.401653
3.345236 0.424960 0.401978
3.342931 0.435092 0.401870
3.343551 0.445609 0.402087
3.341183 0.455730 0.401978
3.340754 0.466116 0.402087
3.343245 0.476924 0.402520
3.343734 0.487466 0.402737
3.339272 0.497283 0.402412
3.339697 0.507824 0.402628
3.337141 0.517915 0.402520
3.335536 0.528151 0.402520
3.333900 0.538382 0.402520
3.331252 0.548446 0.402412
3.330534 0.558828 0.402520
3.332723 0.569713 0.402954
3.329980 0.579764 0.402845
3.332102 0.590672 0.403279
3.334187 0.601597 0.403712
3.333303 0.612003 0.403820
3.333364 0.622591 0.404037
3.334369 0.633371 0.404362
3.335338 0.644163 0.404687
3.333346 0.654393 0.404687
3.334248 0.665199 0.405012
3.336089 0.676215 0.405445
3.336919 0.687048 0.405771
3.336742 0.697689 0.405987
3.336531 0.708335 0.406204
3.334342 0.718568 0.406204
3.333093 0.729007 0.406312
3.328900 0.738799 0.406096
3.326617 0.749008 0.406096
3.322365 0.758768 0.405879
3.317116 0.768285 0.405554
3.311840 0.777776 0.405229
3.308471 0.787703 0.405120
3.305073 0.797617 0.405012
3.302610 0.807753 0.405012
3.336180 0.204792 0.378196
3.337522 0.215155 0.378401
3.340816 0.225662 0.378810
3.334154 0.235489 0.378196
3.336392 0.245937 0.378503
3.333638 0.256019 0.378299
3.328871 0.265928 0.377890
3.325065 0.275892 0.377583
3.323212 0.286007 0.377481
3.325291 0.296466 0.377787
3.328328 0.307033 0.378196
3.329351 0.317431 0.378401
3.329352 0.327742 0.378503
3.331300 0.338256 0.378810
3.333214 0.348786 0.379117
3.331139 0.358904 0.379015
3.328045 0.368902 0.378810
3.330851 0.379562 0.379219
3.329671 0.389779 0.379219
3.330435 0.400230 0.379424
3.329191 0.410446 0.379424
3.327916 0.420658 0.379424
3.326610 0.430866 0.379424
3.327245 0.441331 0.379628
3.324889 0.451403 0.379526
3.324474 0.461739 0.379628
3.326981 0.472496 0.380037
3.328469 0.483130 0.380344
3.326972 0.493339 0.380344
3.329376 0.504140 0.380753
3.326831 0.514200 0.380651
3.326220 0.524559 0.380753
3.320667 0.534129 0.380344
3.322939 0.544958 0.380753
3.324195 0.555643 0.381060
3.324436 0.566173 0.381265
3.324643 0.576710 0.381469
3.323838 0.587080 0.381571
3.326916 0.598155 0.382083
3.327023 0.608718 0.382287
3.325140 0.618922 0.382287
3.325180 0.629491 0.382492
3.322256 0.639501 0.382390
3.321255 0.649882 0.382492
3.323148 0.660845 0.382901
3.322080 0.671234 0.383003
3.323902 0.682223 0.383412
3.324715 0.693027 0.383719
3.322573 0.703224 0.383719
3.320400 0.713414 0.383719
3.320140 0.724022 0.383924
3.316931 0.733989 0.383821
3.314664 0.744162 0.383821
3.312365 0.754328 0.383821
3.308097 0.764038 0.383617
3.304769 0.773957 0.383515
3.301411 0.783862 0.383412
3.299958 0.794220 0.383515
3.296539 0.804105 0.383412
3.295988 0.814692 0.383617
3.324723 0.213407 0.356040
3.331005 0.224076 0.356712
3.327323 0.234084 0.356424
3.320633 0.243851 0.355847
3.319869 0.254038 0.355847
3.316098 0.263984 0.355559
3.315272 0.274156 0.355559
3.315407 0.284411 0.355655
3.316502 0.294758 0.355847
3.315582 0.304932 0.355847
3.317604 0.315386 0.356136
3.316620 0.325563 0.356136
3.315606 0.335737 0.356136
3.313570 0.345804 0.356040
3.316452 0.356395 0.356424
3.315343 0.366568 0.356424
3.315192 0.376850 0.356520
3.315009 0.387135 0.356616
3.314794 0.397422 0.356712
3.314547 0.407712 0.356808
3.315255 0.418129 0.357000
3.313957 0.428298 0.357000
3.314601 0.438725 0.357192
3.314226 0.449026 0.357288
3.315790 0.459602 0.357576
3.317321 0.470193 0.357864
3.317833 0.480654 0.358056
3.317327 0.490977 0.358152
3.315805 0.501152 0.358152
3.313269 0.511171 0.358056
3.310702 0.521178 0.357960
3.308104 0.531174 0.357864
3.306459 0.541321 0.357864
3.304783 0.551463 0.357864
3.306019 0.562100 0.358152
3.305260 0.572411 0.358248
3.308389 0.583414 0.358728
3.307563 0.593738 0.358824
3.311601 0.604958 0.359400
3.308751 0.614933 0.359304
3.304893 0.624710 0.359112
3.306870 0.635600 0.359496
3.305881 0.645933 0.359592
3.303884 0.656072 0.359592
3.302831 0.666403 0.359688
3.305647 0.677534 0.360168
3.306476 0.688281 0.360456
3.297532 0.696979 0.359784
3.302190 0.708557 0.360456
3.304863 0.719745 0.360937
3.303612 0.730096 0.361033
3.302327 0.740446 0.361129
3.301981 0.751016 0.361321
3.299661 0.761143 0.361321
3.297311 0.771263 0.361321
3.294929 0.781375 0.361321
3.292516 0.791480 0.361321
3.290073 0.801578 0.361321
3.289531 0.812145 0.361513
3.286058 0.821992 0.361417
3.282556 0.831825 0.361321
3.313687 0.226248 0.335853
3.309997 0.236201 0.335582
3.307271 0.246208 0.335402
3.306500 0.256353 0.335402
3.305698 0.266496 0.335402
3.303872 0.276554 0.335312
3.304000 0.286775 0.335402
3.304097 0.296999 0.335492
3.305154 0.307318 0.335673
3.304195 0.317456 0.335673
3.306179 0.327886 0.335944
3.308130 0.338331 0.336214
3.304105 0.348166 0.335944
3.305992 0.358622 0.336214
3.304876 0.368763 0.336214
3.303729 0.378901 0.336214
3.305518 0.389383 0.336485
3.307274 0.399880 0.336756
3.306032 0.410025 0.336756
3.305747 0.420291 0.336846
3.305429 0.430559 0.336937
3.307054 0.441092 0.337208
3.308646 0.451639 0.337478
3.309217 0.462062 0.337659
3.309756 0.472494 0.337840
3.308291 0.482646 0.337840
3.306795 0.492793 0.337840
3.305267 0.502936 0.337840
3.304693 0.513226 0.337930
3.304087 0.523518 0.338020
3.301482 0.533494 0.337930
3.300812 0.543782 0.338020
3.299128 0.553906 0.338020
3.300359 0.564528 0.338291
3.299592 0.574821 0.338381
3.297813 0.584941 0.338381
3.298944 0.595586 0.338652
3.301999 0.606602 0.339104
3.298164 0.616364 0.338923
3.298214 0.626851 0.339104
3.295298 0.636779 0.339013
3.295284 0.647269 0.339194
3.291329 0.656986 0.339013
3.290274 0.667278 0.339104
3.291137 0.677971 0.339374
3.291967 0.688676 0.339645
3.292761 0.699392 0.339916
3.293521 0.710120 0.340187
3.294246 0.720858 0.340458
3.293963 0.731393 0.340638
3.293647 0.741932 0.340819
3.292326 0.752255 0.340909
3.290003 0.762352 0.340909
3.284740 0.771760 0.340638
3.281388 0.781603 0.340548
3.280911 0.792133 0.340729
3.278465 0.802195 0.340729
3.277922 0.812728 0.340909
3.276379 0.823023 0.340999
3.275769 0.833562 0.341180
3.325572 0.224973 0.316497
3.318902 0.234753 0.315992
3.314192 0.244641 0.315655
3.312432 0.254732 0.315571
3.313621 0.265052 0.315739
3.310807 0.275052 0.315571
3.310940 0.285293 0.315655
3.309057 0.295361 0.315571
3.307142 0.305420 0.315486
3.306190 0.315565 0.315486
3.306198 0.325804 0.315571
3.306174 0.336047 0.315655
3.306118 0.346292 0.315739
3.304050 0.356327 0.315655
3.304922 0.366681 0.315823
3.301801 0.376593 0.315655
3.301620 0.386837 0.315739
3.304375 0.397440 0.316076
3.308085 0.408185 0.316497
3.304840 0.418083 0.316328
3.305518 0.428476 0.316497
3.308139 0.439139 0.316834
3.305789 0.449152 0.316749
3.303409 0.459155 0.316665
3.302971 0.469428 0.316749
3.301515 0.479559 0.316749
3.298057 0.489393 0.316581
3.295555 0.499360 0.316497
3.295977 0.509773 0.316665
3.296366 0.520193 0.316834
3.296722 0.530620 0.317002
3.296062 0.540893 0.317086
3.296353 0.551331 0.317255
3.297593 0.561943 0.317507
3.295853 0.572057 0.317507
3.295064 0.582339 0.317591
3.294242 0.592622 0.317676
3.293389 0.602905 0.317760
3.290544 0.612824 0.317676
3.290607 0.623287 0.317844
3.290636 0.633756 0.318012
3.287698 0.643657 0.317928
3.286685 0.653935 0.318012
3.285640 0.664213 0.318097
3.284563 0.674490 0.318181
3.284429 0.684971 0.318349
3.286212 0.695869 0.318686
3.286984 0.706576 0.318939
3.287722 0.717294 0.319191
3.287452 0.727807 0.319360
3.287148 0.738326 0.319528
3.284867 0.748408 0.319528
3.282555 0.758482 0.319528
3.277303 0.767868 0.319275
3.274931 0.777919 0.319275
3.272529 0.787962 0.319275
3.271064 0.798235 0.319360
3.270535 0.808744 0.319528
3.270938 0.819501 0.319781
3.273238 0.830757 0.320202
3.273569 0.841539 0.320454
3.274829 0.852582 0.320791
3.317636 0.234900 0.294369
3.312922 0.244782 0.294058
3.312156 0.254945 0.294058
3.307383 0.264787 0.293746
3.302581 0.274602 0.293435
3.301723 0.284732 0.293435
3.296862 0.294505 0.293124
3.296936 0.304711 0.293202
3.294993 0.314729 0.293124
3.295004 0.324934 0.293202
3.295975 0.335244 0.293358
3.297906 0.345666 0.293591
3.294847 0.355568 0.293435
3.293741 0.365675 0.293435
3.292603 0.375778 0.293435
3.292425 0.385994 0.293513
3.287266 0.395617 0.293202
3.290984 0.406311 0.293591
3.288733 0.416281 0.293513
3.290407 0.426753 0.293746
3.291059 0.437109 0.293902
3.290690 0.447338 0.293980
3.287327 0.457157 0.293824
3.285909 0.467240 0.293824
3.286433 0.477606 0.293980
3.280022 0.486954 0.293591
3.279498 0.497164 0.293669
3.282883 0.507986 0.294058
3.285249 0.518678 0.294369
3.285610 0.529071 0.294524
3.290858 0.540280 0.295068
3.292135 0.550868 0.295302
3.293378 0.561469 0.295535
3.291640 0.571570 0.295535
3.289871 0.581666 0.295535
3.285127 0.591226 0.295302
3.278395 0.600403 0.294913
3.272617 0.609728 0.294602
3.270731 0.619765 0.294602
3.266856 0.629419 0.294446
3.266866 0.639822 0.294602
3.269777 0.650815 0.294991
3.268742 0.661042 0.295068
3.268652 0.671468 0.295224
3.266576 0.681493 0.295224
3.274223 0.693579 0.296002
3.269156 0.702992 0.295768
3.266984 0.713018 0.295768
3.267701 0.723685 0.296002
3.267411 0.734144 0.296157
3.266115 0.744386 0.296235
3.264787 0.754628 0.296313
3.262457 0.764640 0.296313
3.259126 0.774415 0.296235
3.257704 0.784644 0.296313
3.260123 0.795818 0.296701
3.261538 0.806774 0.297013
3.260014 0.817019 0.297090
3.260391 0.827753 0.297324
3.263630 0.839242 0.297790
3.262969 0.849754 0.297946
3.263239 0.860523 0.298179
3.285699 0.240700 0.271778
3.290912 0.251237 0.272208
3.290126 0.261332 0.272208
3.288315 0.271342 0.272137
3.285479 0.281258 0.271993
3.279634 0.290894 0.271635
3.280712 0.301138 0.271778
3.277787 0.311012 0.271635
3.277810 0.321165 0.271707
3.276809 0.331219 0.271707
3.278754 0.341582 0.271922
3.275707 0.351426 0.271778
3.274613 0.361474 0.271778
3.273489 0.371519 0.271778
3.276296 0.382023 0.272065
3.272138 0.391716 0.271850
3.270921 0.401753 0.271850
3.275610 0.412536 0.272280
3.272351 0.422328 0.272137
3.269062 0.432103 0.271993
3.269698 0.442399 0.272137
3.266349 0.452154 0.271993
3.261984 0.461752 0.271778
3.261539 0.471901 0.271850
3.259089 0.481759 0.271778
3.260555 0.492203 0.271993
3.258044 0.502051 0.271922
3.263385 0.513131 0.272423
3.267704 0.524091 0.272853
3.274939 0.535565 0.273498
3.280167 0.546761 0.274000
3.280441 0.557156 0.274143
3.278716 0.567218 0.274143
3.276961 0.577274 0.274143
3.267321 0.585914 0.273570
3.270413 0.596832 0.273928
3.258761 0.605039 0.273212
3.255909 0.614848 0.273140
3.258905 0.625776 0.273498
3.249139 0.634240 0.272925
3.252069 0.645177 0.273283
3.254963 0.656139 0.273642
3.252935 0.666122 0.273642
3.254781 0.676912 0.273928
3.249762 0.686275 0.273713
3.252517 0.697289 0.274072
3.247439 0.706627 0.273857
3.249151 0.717449 0.274143
3.255694 0.729379 0.274788
3.248578 0.738257 0.274430
3.252129 0.749566 0.274860
3.254670 0.760677 0.275218
3.254262 0.771119 0.275362
3.252851 0.781333 0.275433
3.256253 0.792726 0.275863
3.257679 0.803669 0.276150
3.256165 0.813902 0.276222
3.256553 0.824624 0.276437
3.254974 0.834859 0.276509
3.254328 0.845343 0.276652
3.250755 0.855069 0.276580
3.250044 0.865553 0.276724
3.235250 0.250289 0.249528
3.267290 0.262842 0.251704
3.264480 0.272700 0.251572
3.265616 0.282885 0.251704
3.261751 0.292636 0.251506
3.263819 0.302917 0.251704
3.262874 0.312929 0.251704
3.263885 0.323134 0.251835
3.261885 0.333045 0.251769
3.262833 0.343259 0.251901
3.260772 0.353160 0.251835
3.260665 0.363273 0.251901
3.259535 0.373274 0.251901
3.259366 0.383389 0.251967
3.259165 0.393506 0.252033
3.258933 0.403625 0.252099
3.258669 0.413747 0.252165
3.257384 0.423743 0.252165
3.258047 0.433997 0.252297
3.256700 0.443990 0.252297
3.256311 0.454117 0.252363
3.250951 0.463543 0.252099
3.249514 0.473515 0.252099
3.250020 0.483775 0.252231
3.252466 0.494342 0.252495
3.247976 0.503860 0.252297
3.254300 0.515068 0.252824
3.256645 0.525684 0.253088
3.262894 0.536966 0.253615
3.260247 0.546810 0.253549
3.261505 0.557312 0.253747
3.261746 0.567658 0.253879
3.257041 0.577140 0.253681
3.255255 0.587130 0.253681
3.252457 0.596935 0.253615
3.248649 0.606545 0.253484
3.248734 0.616880 0.253615
3.247805 0.627033 0.253681
3.248804 0.637570 0.253879
3.248790 0.647923 0.254011
3.247765 0.658085 0.254077
3.244753 0.667845 0.254011
3.243666 0.678001 0.254077
3.241570 0.687949 0.254077
3.245298 0.699150 0.254472
3.241188 0.708677 0.254341
3.240947 0.719049 0.254472
3.229964 0.727020 0.253879
3.241338 0.740031 0.254802
3.242941 0.750870 0.255066
3.245480 0.761955 0.255395
3.247010 0.772831 0.255659
3.247534 0.783490 0.255857
3.249962 0.794633 0.256187
3.251383 0.805558 0.256450
3.246961 0.815045 0.256318
3.248313 0.825984 0.256582
3.246730 0.836195 0.256648
3.243184 0.845900 0.256582
3.238644 0.855337 0.256450
3.236005 0.865269 0.256450
3.231408 0.874672 0.256318
3.263666 0.262203 0.230905
3.261852 0.272131 0.230845
3.259012 0.281965 0.230726
3.258132 0.291963 0.230726
3.257221 0.301957 0.230726
3.255286 0.311854 0.230666
3.255307 0.321937 0.230726
3.256290 0.332125 0.230845
3.256249 0.342218 0.230905
3.250221 0.351670 0.230607
3.254087 0.362192 0.230905
3.254945 0.372400 0.231024
3.254778 0.382501 0.231084
3.252598 0.392365 0.231024
3.254351 0.402709 0.231203
3.255081 0.412943 0.231322
3.257758 0.423441 0.231561
3.255455 0.433302 0.231501
3.256088 0.443557 0.231621
3.250757 0.452994 0.231382
3.248364 0.462824 0.231322
3.245941 0.472644 0.231263
3.243488 0.482454 0.231203
3.242980 0.492552 0.231263
3.240467 0.502346 0.231203
3.238910 0.512286 0.231203
3.241265 0.522856 0.231442
3.238661 0.532635 0.231382
3.237996 0.542734 0.231442
3.238284 0.553001 0.231561
3.240506 0.563617 0.231800
3.239744 0.573730 0.231859
3.238951 0.583844 0.231919
3.244018 0.595038 0.232337
3.248065 0.606085 0.232695
3.246190 0.616048 0.232695
3.246245 0.626382 0.232814
3.244308 0.636338 0.232814
3.246257 0.647069 0.233052
3.245235 0.657223 0.233112
3.243203 0.667176 0.233112
3.239187 0.676715 0.232993
3.236119 0.686443 0.232933
3.234973 0.696578 0.232993
3.234771 0.706925 0.233112
3.233562 0.717062 0.233172
3.239138 0.728731 0.233649
3.237860 0.738887 0.233709
3.237523 0.749267 0.233828
3.236181 0.759424 0.233888
3.240634 0.770965 0.234305
3.240195 0.781372 0.234425
3.239722 0.791782 0.234544
3.241153 0.802678 0.234782
3.240612 0.813103 0.234902
3.239069 0.823287 0.234961
3.236528 0.833221 0.234961
3.234923 0.843398 0.235021
3.231355 0.853064 0.234961
3.226794 0.862458 0.234842
3.223169 0.872093 0.234782
3.220478 0.881978 0.234782
3.256164 0.270167 0.210001
3.248355 0.279555 0.209627
3.246488 0.289431 0.209574
3.248568 0.299665 0.209734
3.244651 0.309346 0.209574
3.240705 0.319005 0.209414
3.241698 0.329148 0.209521
3.241666 0.339196 0.209574
3.237632 0.348818 0.209414
3.239524 0.359080 0.209574
3.237415 0.368904 0.209521
3.236268 0.378834 0.209521
3.234099 0.388642 0.209467
3.237847 0.399174 0.209734
3.236607 0.409105 0.209734
3.236327 0.419161 0.209788
3.237995 0.429483 0.209948
3.237652 0.439549 0.210001
3.234310 0.449205 0.209894
3.232917 0.459126 0.209894
3.230505 0.468898 0.209841
3.224112 0.478074 0.209574
3.226579 0.488562 0.209788
3.224078 0.498306 0.209734
3.220562 0.507884 0.209627
3.223918 0.518555 0.209894
3.219356 0.527959 0.209734
3.220675 0.538327 0.209894
3.218024 0.548038 0.209841
3.219279 0.558420 0.210001
3.218534 0.568468 0.210055
3.219723 0.578870 0.210215
3.219897 0.589105 0.210321
3.222001 0.599712 0.210535
3.222108 0.609966 0.210642
3.222183 0.620226 0.210748
3.220265 0.630109 0.210748
3.222234 0.640765 0.210962
3.225147 0.651637 0.211229
3.219220 0.660725 0.211015
3.218155 0.670802 0.211069
3.220967 0.681707 0.211336
3.224718 0.692844 0.211656
3.222577 0.702734 0.211656
3.227231 0.714129 0.212030
3.226973 0.724464 0.212136
3.228630 0.735248 0.212350
3.230251 0.746050 0.212563
3.226974 0.755728 0.212510
3.229498 0.766779 0.212777
3.225189 0.776216 0.212670
3.221822 0.785870 0.212617
3.216488 0.795032 0.212457
3.219846 0.806352 0.212777
3.217356 0.816227 0.212777
3.214837 0.826094 0.212777
3.213254 0.836204 0.212830
3.212605 0.846568 0.212937
3.210957 0.856677 0.212991
3.206386 0.866004 0.212884
3.200824 0.875046 0.212724
3.200049 0.885395 0.212830
3.221734 0.285738 0.187966
3.220842 0.295621 0.187966
3.218926 0.305407 0.187919
3.219962 0.315476 0.188013
3.215997 0.325051 0.187872
3.215979 0.335020 0.187919
3.217915 0.345205 0.188060
3.213862 0.354746 0.187919
3.215736 0.364944 0.188060
3.215594 0.374924 0.188107
3.219387 0.385383 0.188343
3.218190 0.395258 0.188343
3.219935 0.405505 0.188484
3.218676 0.415381 0.188484
3.220357 0.425648 0.188626
3.216066 0.435123 0.188484
3.213727 0.444850 0.188437
3.210369 0.454427 0.188343
3.207971 0.464131 0.188296
3.203568 0.473531 0.188155
3.203088 0.483507 0.188202
3.201589 0.493332 0.188202
3.204008 0.503774 0.188390
3.202447 0.513601 0.188390
3.207756 0.524555 0.188720
3.202191 0.533735 0.188531
3.203493 0.544060 0.188673
3.203777 0.554226 0.188767
3.205012 0.564574 0.188908
3.202282 0.574227 0.188861
3.201488 0.584229 0.188908
3.199681 0.594048 0.188908
3.200787 0.604419 0.189050
3.201861 0.614802 0.189191
3.196038 0.623855 0.189002
3.195089 0.633852 0.189050
3.198025 0.644640 0.189285
3.198967 0.655051 0.189426
3.197921 0.665066 0.189474
3.200752 0.675908 0.189709
3.204523 0.686983 0.189992
3.205328 0.697449 0.190133
3.212926 0.709437 0.190604
3.212684 0.719728 0.190698
3.213382 0.730246 0.190840
3.214047 0.740775 0.190981
3.212732 0.750860 0.191028
3.213329 0.761405 0.191169
3.210006 0.771026 0.191122
3.206656 0.780634 0.191075
3.202306 0.789989 0.190981
3.197929 0.799324 0.190887
3.196430 0.809377 0.190934
3.196834 0.819925 0.191075
3.193337 0.829478 0.191028
3.197539 0.841052 0.191358
3.192048 0.850086 0.191216
3.188461 0.859615 0.191169
3.187736 0.869919 0.191264
3.186014 0.879961 0.191311
3.182338 0.889462 0.191264
3.203349 0.287417 0.168640
3.200463 0.297060 0.168557
3.200531 0.306972 0.168599
3.200568 0.316888 0.168640
3.199581 0.326706 0.168640
3.201545 0.336833 0.168764
3.199503 0.346546 0.168723
3.199418 0.356471 0.168764
3.199302 0.366398 0.168806
3.202132 0.376677 0.168971
3.203937 0.386858 0.169095
3.205710 0.397053 0.169219
3.208442 0.407388 0.169384
3.210150 0.417615 0.169509
3.208853 0.427462 0.169509
3.204556 0.436900 0.169384
3.201222 0.446454 0.169302
3.198848 0.456133 0.169260
3.194467 0.465513 0.169136
3.191047 0.475018 0.169054
3.194514 0.485555 0.169260
3.193997 0.495506 0.169302
3.195422 0.505770 0.169426
3.196815 0.516048 0.169550
3.197189 0.526177 0.169633
3.195559 0.535983 0.169633
3.197839 0.546457 0.169798
3.198117 0.556607 0.169881
3.198362 0.566764 0.169963
3.194641 0.576220 0.169881
3.194824 0.586378 0.169963
3.190063 0.595628 0.169839
3.189203 0.605598 0.169881
3.186349 0.615190 0.169839
3.183466 0.624771 0.169798
3.182514 0.634730 0.169839
3.182510 0.644887 0.169922
3.187368 0.656055 0.170212
3.188274 0.666443 0.170336
3.193057 0.677671 0.170625
3.193893 0.688094 0.170749
3.194695 0.698529 0.170873
3.196439 0.709191 0.171039
3.199123 0.720089 0.171245
3.198847 0.730345 0.171328
3.197564 0.740381 0.171369
3.198196 0.750871 0.171493
3.194906 0.760449 0.171452
3.195472 0.770949 0.171576
3.191150 0.780275 0.171493
3.186801 0.789581 0.171411
3.186302 0.799841 0.171493
3.186739 0.810350 0.171617
3.185205 0.820372 0.171659
3.186541 0.831147 0.171824
3.185908 0.841429 0.171907
3.185242 0.851715 0.171990
3.185508 0.862265 0.172114
3.181884 0.871771 0.172072
3.180157 0.881795 0.172114
3.174551 0.890739 0.171990
3.168919 0.899656 0.171866
3.209311 0.296959 0.148739
3.188488 0.304903 0.148038
3.189527 0.314880 0.148108
3.188545 0.324664 0.148108
3.191510 0.334862 0.148248
3.188481 0.344437 0.148178
3.189395 0.354438 0.148248
3.189286 0.364335 0.148283
3.189146 0.374234 0.148318
3.190959 0.384374 0.148423
3.195716 0.394897 0.148634
3.196473 0.404950 0.148704
3.197197 0.415012 0.148774
3.197891 0.425082 0.148844
3.195581 0.434757 0.148809
3.192252 0.444283 0.148739
3.193843 0.454497 0.148844
3.188477 0.463718 0.148704
3.185062 0.473205 0.148634
3.186560 0.483424 0.148739
3.188025 0.493656 0.148844
3.186495 0.503434 0.148844
3.184936 0.513208 0.148844
3.188277 0.523786 0.149020
3.188627 0.533895 0.149090
3.185003 0.543339 0.149020
3.188245 0.553963 0.149195
3.188498 0.564090 0.149265
3.186753 0.573869 0.149265
3.184977 0.583643 0.149265
3.182189 0.593229 0.149230
3.178390 0.602617 0.149160
3.176527 0.612365 0.149160
3.177575 0.622684 0.149265
3.178590 0.633015 0.149370
3.178592 0.643160 0.149440
3.182478 0.654115 0.149651
3.182413 0.664284 0.149721
3.183293 0.674666 0.149826
3.184139 0.685059 0.149932
3.182999 0.695038 0.149967
3.181827 0.705016 0.150002
3.179649 0.714774 0.150002
3.177441 0.724526 0.150002
3.177151 0.734721 0.150072
3.177801 0.745149 0.150177
3.176472 0.755126 0.150212
3.175112 0.765101 0.150247
3.174692 0.775313 0.150317
3.178119 0.786489 0.150528
3.176661 0.796478 0.150563
3.181952 0.808188 0.150843
3.183329 0.818942 0.150984
3.185637 0.829963 0.151159
3.184042 0.839988 0.151194
3.185312 0.850783 0.151334
3.184617 0.861073 0.151405
3.183888 0.871367 0.151475
3.179273 0.880597 0.151405
3.175594 0.890078 0.151370
3.170926 0.899271 0.151299
3.166230 0.908444 0.151229
3.167268 0.919267 0.151370
3.189191 0.304610 0.126897
3.183267 0.313902 0.126754
3.186267 0.324072 0.126868
3.181281 0.333428 0.126754
3.180243 0.343187 0.126754
3.179175 0.352942 0.126754
3.177084 0.362581 0.126726
3.177943 0.372559 0.126783
3.176785 0.382307 0.126783
3.179565 0.392542 0.126897
3.180329 0.402546 0.126954
3.181062 0.412559 0.127010
3.181763 0.422580 0.127067
3.182432 0.432609 0.127124
3.177130 0.441819 0.127010
3.181697 0.452409 0.127181
3.176338 0.461593 0.127067
3.176884 0.471629 0.127124
3.175422 0.481374 0.127124
3.177882 0.491725 0.127238
3.174383 0.501161 0.127181
3.179739 0.512010 0.127380
3.174208 0.521115 0.127266
3.176538 0.531511 0.127380
3.173907 0.541086 0.127352
3.173216 0.550992 0.127380
3.171511 0.560725 0.127380
3.172727 0.570984 0.127466
3.168011 0.580174 0.127380
3.168181 0.590257 0.127437
3.167337 0.600161 0.127466
3.167444 0.610254 0.127523
3.166538 0.620160 0.127551
3.169522 0.630849 0.127693
3.171491 0.641363 0.127807
3.173425 0.651895 0.127921
3.175324 0.662444 0.128035
3.169365 0.671354 0.127921
3.168268 0.681285 0.127949
3.165186 0.690788 0.127921
3.165004 0.700928 0.127978
3.159913 0.709977 0.127892
3.160643 0.720335 0.127978
3.158419 0.730028 0.127978
3.159084 0.740400 0.128063
3.157770 0.750319 0.128091
3.160312 0.761174 0.128234
3.164759 0.772527 0.128433
3.166255 0.783193 0.128547
3.167716 0.793876 0.128660
3.171078 0.805067 0.128831
3.174402 0.816286 0.129002
3.174785 0.826777 0.129087
3.174166 0.837024 0.129144
3.172549 0.847016 0.129172
3.169936 0.856745 0.129172
3.167292 0.866466 0.129172
3.162692 0.875646 0.129115
3.160954 0.885614 0.129144
3.156298 0.894762 0.129087
3.151617 0.903890 0.129030
3.147869 0.913276 0.129002
3.142175 0.922085 0.128916
3.209718 0.304529 0.108988
3.172950 0.310853 0.108171
3.171982 0.320586 0.108171
3.172972 0.330524 0.108217
3.169955 0.340043 0.108171
3.166909 0.349547 0.108126
3.164829 0.359148 0.108103
3.163712 0.368856 0.108103
3.162565 0.378560 0.108103
3.164366 0.388628 0.108171
3.164150 0.398459 0.108194
3.165888 0.408550 0.108262
3.166601 0.418523 0.108307
3.168274 0.428640 0.108375
3.166945 0.438358 0.108375
3.169544 0.448633 0.108466
3.170131 0.458642 0.108512
3.169698 0.468513 0.108534
3.167258 0.478085 0.108512
3.165776 0.487800 0.108512
3.163277 0.497355 0.108489
3.162723 0.507216 0.108512
3.160166 0.516755 0.108489
3.158566 0.526448 0.108489
3.152008 0.535297 0.108375
3.154291 0.545648 0.108466
3.152602 0.555322 0.108466
3.152851 0.565345 0.108512
3.153069 0.575375 0.108557
3.153255 0.585411 0.108602
3.153408 0.595454 0.108648
3.151567 0.605126 0.108648
3.153620 0.615560 0.108738
3.153678 0.625622 0.108784
3.154683 0.635888 0.108852
3.153697 0.645764 0.108875
3.152680 0.655640 0.108897
3.151632 0.665517 0.108920
3.146642 0.674553 0.108852
3.147489 0.684842 0.108920
3.146349 0.694711 0.108943
3.145178 0.704580 0.108965
3.143977 0.714447 0.108988
3.147615 0.725439 0.109124
3.148294 0.735776 0.109192
3.151859 0.746816 0.109328
3.152469 0.757184 0.109396
3.155959 0.768273 0.109533
3.155528 0.778431 0.109578
3.158944 0.789565 0.109714
3.157475 0.799499 0.109737
3.157913 0.809928 0.109805
3.155413 0.819613 0.109805
3.152884 0.829290 0.109805
3.150325 0.838959 0.109805
3.148701 0.848880 0.109827
3.147046 0.858800 0.109850
3.146324 0.868984 0.109896
3.143643 0.878633 0.109896
3.141895 0.888545 0.109918
3.141076 0.898731 0.109964
3.136384 0.907807 0.109918
3.132624 0.917144 0.109896
3.131713 0.927319 0.109941
3.161011 0.313540 0.088592
3.169981 0.324250 0.088758
3.168972 0.333974 0.088758
3.164950 0.343372 0.088708
3.163882 0.353081 0.088708
3.161790 0.362672 0.088692
3.159670 0.372254 0.088675
3.158513 0.381946 0.088675
3.159311 0.391880 0.088708
3.160077 0.401822 0.088741
3.160813 0.411773 0.088775
3.159535 0.421468 0.088775
3.160208 0.431429 0.088808
3.157879 0.440985 0.088791
3.159481 0.451094 0.088841
3.158082 0.460785 0.088841
3.155665 0.470324 0.088824
3.155196 0.480154 0.088841
3.152720 0.489678 0.088824
3.149227 0.499036 0.088791
3.150643 0.509173 0.088841
3.149066 0.518837 0.088841
3.147459 0.528495 0.088841
3.145823 0.538149 0.088841
3.145142 0.547969 0.088857
3.146400 0.558139 0.088907
3.146641 0.568144 0.088940
3.146850 0.578155 0.088974
3.148993 0.588540 0.089040
3.147173 0.598199 0.089040
3.148268 0.608419 0.089090
3.148349 0.618460 0.089123
3.147417 0.628311 0.089139
3.144495 0.637766 0.089123
3.143503 0.647612 0.089139
3.141501 0.657253 0.089139
3.138492 0.666680 0.089123
3.133499 0.675675 0.089073
3.136296 0.686352 0.089156
3.132223 0.695538 0.089123
3.136903 0.706680 0.089239
3.137644 0.716968 0.089289
3.138352 0.727267 0.089338
3.141947 0.738262 0.089438
3.145504 0.749286 0.089537
3.149022 0.760338 0.089637
3.149589 0.770708 0.089686
3.149150 0.780847 0.089720
3.149649 0.791235 0.089769
3.150114 0.801633 0.089819
3.147640 0.811294 0.089819
3.147071 0.821451 0.089852
3.142603 0.830592 0.089819
3.139074 0.839971 0.089803
3.135517 0.849337 0.089786
3.133861 0.859216 0.089803
3.133137 0.869361 0.089836
3.130455 0.878969 0.089836
3.130630 0.889388 0.089885
3.130769 0.899816 0.089935
3.129914 0.909974 0.089968
3.128067 0.919854 0.089985
3.128106 0.930301 0.090035
3.146574 0.310093 0.069675
3.135660 0.318735 0.069569
3.159530 0.330955 0.069835
3.155517 0.340326 0.069803
3.156446 0.350225 0.069824
3.155356 0.359908 0.069824
3.154238 0.369586 0.069824
3.152096 0.379142 0.069814
3.153895 0.389178 0.069846
3.150702 0.398602 0.069824
3.151448 0.408523 0.069846
3.151171 0.418321 0.069856
3.147891 0.427718 0.069835
3.146564 0.437373 0.069835
3.146197 0.447165 0.069846
3.146790 0.457103 0.069867
3.144383 0.466608 0.069856
3.143926 0.476402 0.069867
3.142450 0.486046 0.069867
3.141931 0.495840 0.069878
3.142370 0.505795 0.069899
3.141790 0.515595 0.069910
3.142166 0.525561 0.069931
3.142510 0.535534 0.069952
3.140852 0.545173 0.069952
3.142119 0.555328 0.069984
3.141385 0.565142 0.069995
3.142587 0.575317 0.070027
3.143756 0.585504 0.070059
3.141945 0.595146 0.070059
3.142069 0.605161 0.070080
3.141179 0.614990 0.070091
3.139277 0.624624 0.070091
3.136366 0.634054 0.070080
3.129508 0.642668 0.070027
3.130458 0.652879 0.070059
3.125506 0.661858 0.070027
3.122483 0.671234 0.070016
3.124317 0.681663 0.070059
3.124163 0.691677 0.070080
3.123978 0.701697 0.070101
3.127661 0.712610 0.070165
3.130331 0.723327 0.070218
3.132965 0.734067 0.070272
3.133617 0.744368 0.070303
3.135207 0.754915 0.070346
3.135791 0.765241 0.070378
3.139253 0.776297 0.070442
3.138796 0.786410 0.070463
3.140246 0.797020 0.070506
3.138754 0.806899 0.070516
3.136264 0.816525 0.070516
3.137612 0.827162 0.070559
3.132161 0.836011 0.070527
3.128616 0.845356 0.070516
3.127937 0.855477 0.070538
3.127225 0.865603 0.070559
3.128407 0.876271 0.070602
3.128590 0.886683 0.070634
3.130661 0.897654 0.070687
3.128853 0.907533 0.070697
3.127013 0.917410 0.070708
3.128019 0.928136 0.070751
3.126114 0.938016 0.070761
3.117947 0.326235 0.049246
3.149741 0.339338 0.049384
3.147691 0.348890 0.049380
3.147599 0.358658 0.049384
3.144498 0.368081 0.049375
3.145339 0.377965 0.049384
3.144165 0.387613 0.049384
3.141969 0.397132 0.049380
3.141728 0.406898 0.049384
3.139473 0.416403 0.049380
3.137190 0.425898 0.049375
3.136859 0.435659 0.049380
3.135508 0.445280 0.049380
3.135117 0.455041 0.049384
3.133706 0.464658 0.049384
3.134243 0.474569 0.049392
3.133760 0.484336 0.049396
3.134235 0.494259 0.049405
3.133691 0.504032 0.049409
3.135091 0.514129 0.049422
3.132512 0.523580 0.049417
3.132863 0.533524 0.049426
3.130226 0.542962 0.049422
3.134454 0.553607 0.049447
3.129788 0.562690 0.049434
3.129031 0.572469 0.049438
3.132175 0.582982 0.049459
3.127424 0.592030 0.049447
3.127557 0.602000 0.049455
3.127658 0.611977 0.049463
3.125766 0.621570 0.049463
3.122864 0.630958 0.049459
3.119934 0.640335 0.049455
3.122849 0.650925 0.049476
3.113011 0.658845 0.049442
3.111953 0.668603 0.049447
3.112818 0.678786 0.049459
3.113650 0.688982 0.049472
3.111522 0.698531 0.049472
3.114239 0.709184 0.049493
3.112049 0.718735 0.049493
3.114697 0.729420 0.049514
3.114390 0.739435 0.049522
3.115996 0.749923 0.049539
3.117567 0.760427 0.049556
3.121043 0.771429 0.049581
3.121572 0.781729 0.049593
3.123036 0.792287 0.049610
3.121559 0.802113 0.049614
3.122955 0.812694 0.049631
3.118513 0.821761 0.049623
3.115977 0.831325 0.049623
3.115342 0.841402 0.049631
3.115640 0.851748 0.049644
3.116867 0.862369 0.049660
3.114207 0.871928 0.049660
3.113441 0.882023 0.049669
3.116488 0.893225 0.049694
3.115654 0.903339 0.049702
3.114787 0.913456 0.049711
3.111970 0.923008 0.049711
3.109123 0.932551 0.049711
3.106248 0.942086 0.049711
3.104299 0.951904 0.049715
3.135926 0.327202 0.029609
3.137891 0.337143 0.029603
3.138829 0.346989 0.029599
3.132782 0.356050 0.029609
3.135648 0.366125 0.029601
3.133517 0.375624 0.029603
3.133343 0.385358 0.029601
3.128177 0.394468 0.029609
3.128936 0.404320 0.029605
3.128672 0.414049 0.029603
3.127387 0.423646 0.029603
3.129044 0.433651 0.029597
3.127699 0.443249 0.029597
3.132262 0.453705 0.029584
3.130855 0.463312 0.029584
3.130408 0.473065 0.029582
3.128942 0.482667 0.029582
3.127446 0.492264 0.029582
3.124934 0.501698 0.029584
3.124367 0.511445 0.029582
3.120810 0.520698 0.029586
3.116241 0.529766 0.029593
3.116571 0.539666 0.029589
3.108008 0.548007 0.029603
3.111233 0.558425 0.029593
3.113440 0.568687 0.029584
3.112663 0.578420 0.029582
3.107927 0.587408 0.029589
3.110038 0.597697 0.029580
3.109171 0.607428 0.029578
3.108273 0.617159 0.029576
3.104405 0.626296 0.029580
3.104428 0.636219 0.029576
3.104419 0.646149 0.029572
3.102422 0.655670 0.029572
3.104307 0.666025 0.029563
3.104203 0.675972 0.029559
3.103091 0.685709 0.029557
3.100972 0.695226 0.029557
3.100775 0.705180 0.029553
3.099571 0.714915 0.029551
3.100284 0.725105 0.029545
3.099018 0.734845 0.029542
3.100638 0.745285 0.029534
3.102223 0.755742 0.029526
3.104743 0.766456 0.029515
3.105287 0.776707 0.029509
3.105798 0.786968 0.029503
3.103369 0.796493 0.029503
3.104781 0.807018 0.029494
3.101324 0.816284 0.029496
3.098805 0.825795 0.029496
3.096257 0.835298 0.029496
3.095609 0.845321 0.029492
3.096856 0.855881 0.029484
3.094216 0.865378 0.029484
3.097319 0.876503 0.029471
3.095576 0.886277 0.029469
3.097645 0.897163 0.029459
3.094878 0.906662 0.029459
3.095917 0.917290 0.029450
3.094045 0.927071 0.029448
3.094058 0.937430 0.029442
3.089255 0.946332 0.029446
3.089202 0.956694 0.029440
3.149497 0.340595 0.011423
3.121603 0.347281 0.011635
3.123503 0.357196 0.011611
3.122393 0.366777 0.011611
3.119267 0.376116 0.011627
3.120083 0.385928 0.011611
3.118885 0.395499 0.011611
3.117657 0.405066 0.011611
3.116399 0.414629 0.011611
3.118085 0.424591 0.011588
3.116768 0.434155 0.011588
3.118391 0.444137 0.011564
3.119983 0.454133 0.011541
3.117586 0.463556 0.011549
3.120104 0.473718 0.011517
3.118636 0.483288 0.011517
3.119114 0.493165 0.011502
3.115612 0.502414 0.011517
3.112082 0.511647 0.011533
3.108525 0.520863 0.011549
3.106912 0.530397 0.011549
3.103300 0.539584 0.011564
3.101630 0.549103 0.011564
3.100915 0.558793 0.011556
3.101153 0.568664 0.011541
3.099394 0.578175 0.011541
3.097606 0.587681 0.011541
3.098734 0.597749 0.011517
3.098848 0.607637 0.011502
3.098931 0.617531 0.011486
3.098982 0.627432 0.011470
3.099981 0.637540 0.011447
3.098011 0.647047 0.011447
3.098946 0.657170 0.011423
3.096915 0.666674 0.011423
3.095832 0.676386 0.011415
3.093743 0.685880 0.011415
3.093575 0.695807 0.011399
3.091426 0.705294 0.011399
3.091196 0.715226 0.011384
3.090935 0.725162 0.011368
3.087722 0.734410 0.011376
3.091288 0.745284 0.011329
3.092873 0.755712 0.011297
3.093452 0.765917 0.011274
3.093997 0.776133 0.011250
3.094510 0.786360 0.011227
3.092083 0.795850 0.011227
3.090594 0.805584 0.011219
3.089075 0.815317 0.011211
3.086559 0.824790 0.011211
3.083049 0.833995 0.011219
3.081440 0.843714 0.011211
3.081728 0.853964 0.011187
3.080057 0.863684 0.011180
3.083165 0.874765 0.011132
3.081428 0.884495 0.011125
3.082542 0.895059 0.011093
3.085539 0.906200 0.011046
3.085620 0.916515 0.011022
3.082793 0.925978 0.011022
3.084723 0.936882 0.010983
3.084702 0.947221 0.010960
3.081781 0.956681 0.010960
3.112370 0.356105 -0.008431
3.115236 0.366118 -0.008488
3.112112 0.375435 -0.008459
3.111938 0.385103 -0.008474
3.109750 0.394523 -0.008459
3.107533 0.403933 -0.008445
3.105288 0.413333 -0.008431
3.105987 0.423128 -0.008459
3.104674 0.432655 -0.008459
3.106302 0.442601 -0.008502
3.105919 0.452272 -0.008517
3.111440 0.462828 -0.008617
3.110006 0.472372 -0.008617
3.112494 0.482523 -0.008674
3.110999 0.492070 -0.008674
3.111449 0.501930 -0.008703
3.105948 0.510825 -0.008645
3.103380 0.520186 -0.008631
3.101769 0.529705 -0.008631
3.099145 0.539047 -0.008617
3.096492 0.548379 -0.008603
3.095779 0.558053 -0.008617
3.095036 0.567728 -0.008631
3.094262 0.577405 -0.008645
3.093459 0.587081 -0.008660
3.092625 0.596758 -0.008674
3.091761 0.606436 -0.008688
3.091847 0.616309 -0.008717
3.091902 0.626189 -0.008746
3.093884 0.636477 -0.008803
3.091916 0.645966 -0.008803
3.091876 0.655863 -0.008832
3.089849 0.665346 -0.008832
3.087794 0.674822 -0.008832
3.086685 0.684509 -0.008846
3.084570 0.693975 -0.008846
3.084377 0.703880 -0.008874
3.085125 0.714016 -0.008917
3.085840 0.724162 -0.008960
3.084577 0.733857 -0.008975
3.085227 0.744020 -0.009018
3.085844 0.754194 -0.009061
3.084486 0.763898 -0.009075
3.083098 0.773601 -0.009089
3.081679 0.783302 -0.009103
3.079262 0.792753 -0.009103
3.077783 0.802448 -0.009118
3.078207 0.812652 -0.009161
3.077631 0.822608 -0.009189
3.075093 0.832047 -0.009189
3.075419 0.842269 -0.009232
3.076675 0.852768 -0.009289
3.075970 0.862743 -0.009318
3.077156 0.873267 -0.009375
3.076385 0.883255 -0.009404
3.077502 0.893804 -0.009461
3.087261 0.361374 -0.027519
3.096064 0.372037 -0.027725
3.093916 0.381412 -0.027705
3.092731 0.390902 -0.027705
3.092509 0.400517 -0.027725
3.090275 0.409871 -0.027705
3.090984 0.419619 -0.027746
3.089682 0.429101 -0.027746
3.088351 0.438578 -0.027746
3.088970 0.448338 -0.027787
3.085602 0.457519 -0.027746
3.091103 0.468032 -0.027890
3.085701 0.476902 -0.027808
3.096074 0.488237 -0.028055
3.091600 0.497256 -0.027993
3.093020 0.507225 -0.028055
3.090463 0.516547 -0.028034
3.086893 0.525690 -0.027993
3.084280 0.534987 -0.027973
3.083609 0.544621 -0.027993
3.078972 0.553547 -0.027931
3.077259 0.562991 -0.027931
3.075517 0.572429 -0.027931
3.074729 0.582048 -0.027952
3.074892 0.591857 -0.027993
3.076005 0.601864 -0.028055
3.078067 0.612078 -0.028137
3.078134 0.621915 -0.028178
3.078170 0.631758 -0.028220
3.079154 0.641811 -0.028281
3.078148 0.651462 -0.028302
3.076135 0.660903 -0.028302
3.074093 0.670337 -0.028302
3.072022 0.679765 -0.028302
3.071873 0.689625 -0.028343
3.073642 0.699934 -0.028426
3.072454 0.709586 -0.028446
3.074157 0.719921 -0.028529
3.073879 0.729811 -0.028570
3.073570 0.739706 -0.028611
3.073228 0.749607 -0.028652
3.071885 0.759272 -0.028673
3.069541 0.768692 -0.028673
3.069106 0.778598 -0.028714
3.067671 0.788259 -0.028734
3.066206 0.797919 -0.028755
3.068577 0.808596 -0.028858
3.068980 0.818780 -0.028920
3.051976 0.824280 -0.028611
3.101841 0.361619 -0.046810
3.081860 0.368870 -0.046303
3.083690 0.378690 -0.046383
3.082514 0.388148 -0.046383
3.081308 0.397604 -0.046383
3.080074 0.407055 -0.046383
3.078810 0.416503 -0.046383
3.077518 0.425946 -0.046383
3.079166 0.435808 -0.046463
3.079793 0.445539 -0.046516
3.079401 0.455132 -0.046543
3.080955 0.465026 -0.046623
3.082478 0.474934 -0.046703
3.082981 0.484700 -0.046757
3.082466 0.494315 -0.046783
3.083895 0.504254 -0.046863
3.081347 0.513549 -0.046837
3.078772 0.522832 -0.046810
3.074198 0.531763 -0.046730
3.074521 0.541539 -0.046783
3.067926 0.550085 -0.046650
3.064257 0.559135 -0.046596
3.066458 0.569265 -0.046703
3.066662 0.579042 -0.046757
3.064871 0.588447 -0.046757
3.066976 0.598615 -0.046863
3.070027 0.608996 -0.046997
3.071084 0.619005 -0.047077
3.072108 0.629027 -0.047157
3.075057 0.639469 -0.047291
3.072103 0.648693 -0.047264
3.070098 0.658115 -0.047264
3.069041 0.667744 -0.047291
3.066978 0.677156 -0.047291
3.064886 0.686562 -0.047291
3.064715 0.696406 -0.047344
3.063538 0.706030 -0.047371
3.063304 0.715881 -0.047424
3.064011 0.725968 -0.047504
3.065657 0.736300 -0.047611
3.065326 0.746176 -0.047664
3.063023 0.755576 -0.047664
3.060690 0.764970 -0.047664
3.088950 0.372471 -0.064347
3.067953 0.379500 -0.063698
3.065783 0.388785 -0.063665
3.065567 0.398317 -0.063698
3.065321 0.407852 -0.063730
3.066036 0.417523 -0.063795
3.065731 0.427065 -0.063828
3.066386 0.436750 -0.063893
3.067009 0.446443 -0.063957
3.065625 0.455850 -0.063957
3.068165 0.465852 -0.064087
3.067709 0.475415 -0.064120
3.067224 0.484980 -0.064152
3.066708 0.494547 -0.064185
3.067149 0.504277 -0.064250
3.063616 0.513355 -0.064185
3.063012 0.522919 -0.064217
3.063363 0.532655 -0.064282
3.062698 0.542225 -0.064314
3.058069 0.551088 -0.064217
3.058330 0.560827 -0.064282
3.058561 0.570573 -0.064347
3.058760 0.580326 -0.064412
3.055984 0.589519 -0.064379
3.062007 0.600427 -0.064639
3.062111 0.610208 -0.064704
