# .PCD v0.7 - Point Cloud Data file format
VERSION 0.7
FIELDS x y z intensity ring time
SIZE 4 4 4 4 2 4
TYPE F F F F U F
COUNT 1 1 1 1 1 1
WIDTH 946
HEIGHT 1
VIEWPOINT 0 0 0 1 0 0 0
POINTS 946
DATA ascii
2.1182611 -3.1798038 -0.20023739 32 6 -0.01379467
1.9809319 -2.9747789 0.82512045 37 14 -0.013792366
1.750747 -2.6301036 -0.055149604 51 7 -0.013790063
1.9712964 -2.9625504 0.95348942 36 15 -0.013787759
1.8053048 -2.7202914 -0.87480837 30 0 -0.013767023
2.0848818 -3.1427569 0.065830477 1 8 -0.013764719
1.7824343 -2.687865 -0.74458802 27 1 -0.013762414
2.0702105 -3.1230073 0.19636452 7 9 -0.01376011
1.8418807 -2.7785616 -0.64798737 9 2 -0.013757806
2.1482606 -3.2419777 0.34025604 4 10 -0.013755502
2.1491282 -3.2457476 0.47797161 28 11 -0.013750894
1.2709492 -1.920195 -0.2827369 1 4 -0.01374859
2.2290421 -3.3689923 0.63981706 83 12 -0.013746286
2.192035 -3.3143167 0.7723949 7 13 -0.013741679
2.0994382 -3.1755161 -0.19950469 33 6 -0.013739374
1.963015 -2.9702954 0.82197118 38 14 -0.01373707
1.726124 -2.6128399 -0.054660939 52 7 -0.013734766
1.9598788 -2.9678013 0.95297176 34 15 -0.013732462
1.7777343 -2.6991494 -0.86600858 33 0 -0.013711726
2.0673008 -3.1399941 0.065621048 1 8 -0.013709422
1.773041 -2.6940706 -0.74458802 29 1 -0.013707118
2.0560033 -3.1252089 0.19605052 1 9 -0.013704814
1.8289335 -2.7800534 -0.64684254 1 2 -0.01370251
2.1599205 -3.284415 0.34391654 4 10 -0.013700206
2.1465065 -3.2665012 0.47992152 24 11 -0.013695599
2.2042572 -3.3569374 0.63606256 83 12 -0.01369099
2.0821698 -3.1710067 -0.33188906 1 5 -0.013688686
2.178298 -3.3186653 0.7716316 9 13 -0.013686382
2.0861492 -3.1794856 -0.19929534 33 6 -0.013684078
1.9440845 -2.964093 0.81837195 39 14 -0.013681774
1.7126073 -2.6121602 -0.054521319 51 7 -0.01367947
1.9378587 -2.9568512 0.94727772 37 15 -0.013677166
1.7503332 -2.6778483 -0.85720873 34 0 -0.01365643
2.0541401 -3.1438434 0.065551244 2 8 -0.013654126
1.7572324 -2.6904538 -0.74188858 32 1 -0.013651822
2.0297954 -3.1089535 0.1945851 1 9 -0.013649519
1.7913127 -2.7436793 -0.63692045 1 2 -0.013647215
2.1604204 -3.3102884 0.34583399 6 10 -0.01364491
2.1502721 -3.2972524 0.48333386 26 11 -0.013640302
2.1903691 -3.3613019 0.63543689 86 12 -0.013635694
2.0667372 -3.1715786 -0.33119181 26 5 -0.01363339
2.1602707 -3.3163786 0.76934189 9 13 -0.013631086
2.0728586 -3.1834006 -0.199086 35 6 -0.013628783
1.9326631 -2.969228 0.81792206 38 14 -0.013626479
1.6991166 -2.611418 -0.054381698 51 7 -0.013624175
1.922259 -2.9555004 0.94468951 37 15 -0.01362187
1.7388723 -2.6807005 -0.8561734 36 0 -0.013601135
2.0192189 -3.1140814 0.064783335 2 8 -0.01359883
1.7435905 -2.6900301 -0.740089 34 1 -0.013596526
2.0243614 -3.1244006 0.19510846 7 9 -0.013594222
1.3013316 -2.0084763 -0.46519238 1 2 -0.013591918
2.1705141 -3.3512549 0.34932023 17 10 -0.013589614
2.1204143 -3.2764072 0.47919029 8 11 -0.013585006
2.1775498 -3.3672683 0.63512403 89 12 -0.013580399
2.0545719 -3.1771004 -0.33101749 34 5 -0.013578095
2.1444182 -3.3173044 0.76781541 9 13 -0.01357579
2.053062 -3.1771967 -0.19824862 35 6 -0.013573486
1.9180573 -2.9694083 0.81612247 19 14 -0.013571182
1.6899906 -2.6173332 -0.054381698 50 7 -0.013568878
1.9119308 -2.9621921 0.94468951 37 15 -0.013566574
1.7242762 -2.6786318 -0.85358524 33 0 -0.013545838
2.0126648 -3.1278374 0.064922951 4 8 -0.013543534
1.7268105 -2.6846273 -0.73693967 36 1 -0.01354123
2.0102019 -3.1264081 0.19479445 1 9 -0.013538926
1.3325369 -2.0724554 -0.47893062 1 2 -0.013536623
2.1663435 -3.3705432 0.3505404 94 10 -0.013534319
2.0875101 -3.2503831 0.47431552 24 11 -0.01352971
2.1572475 -3.3615489 0.63262105 82 12 -0.013525102
2.040241 -3.1792226 -0.33049458 37 5 -0.013522798
2.1307054 -3.3214643 0.76705217 9 13 -0.013520494
2.0376463 -3.177619 -0.19782993 38 6 -0.01351819
1.8855958 -2.9416325 0.80667448 15 14 -0.013515886
1.6765287 -2.6164813 -0.054242078 51 7 -0.013513582
1.8932433 -2.9558342 0.94054842 39 15 -0.013511278
1.7169952 -2.6878903 -0.85462052 40 0 -0.013490543
2.0178771 -3.1601253 0.065446526 2 8 -0.013488239
1.7111379 -2.6807828 -0.73424023 38 1 -0.013485935
2.0105696 -3.1498921 0.19584116 1 9 -0.01348363
1.3400787 -2.100265 -0.48427325 1 2 -0.013481326
2.1631362 -3.3915231 0.35193488 95 10 -0.013479022
2.0782855 -3.260998 0.474803 5 11 -0.013474414
2.1354747 -3.3520241 0.62949234 89 12 -0.013469806
2.0227096 -3.1762416 -0.3294487 37 5 -0.013467502
2.1180441 -3.3272254 0.76667058 10 13 -0.013465198
1.6780623 -2.6370766 -0.16381156 7 6 -0.013462895
1.8742702 -2.9465523 0.80622458 15 14 -0.013460591
1.6592568 -2.6085284 -0.053962842 49 7 -0.013458286
1.8834312 -2.9620957 0.94054842 39 15 -0.013455982
1.6972598 -2.6775508 -0.84944409 40 0 -0.013435246
2.0255873 -3.1955113 0.066039905 4 8 -0.013432942
1.6991093 -2.681504 -0.73289055 37 1 -0.013430638
2.0123866 -3.1771388 0.19709724 6 9 -0.013428334
1.7486295 -2.7617874 -0.63539398 10 2 -0.01342603
2.1363668 -3.3754838 0.34949452 94 10 -0.013423726
1.6744279 -2.6456149 -0.49589729 7 3 -0.013421422
2.0504789 -3.2410312 0.47090316 12 11 -0.013419118
2.1132059 -3.3427606 0.62636369 82 12 -0.013414511
1.6539907 -2.6173656 -0.27088004 29 5 -0.013412206
2.1038525 -3.3292518 0.7655257 12 13 -0.013409902
1.655442 -2.6206748 -0.16245082 33 6 -0.013407598
1.858246 -2.9428651 0.80352521 28 14 -0.013405294
1.6437374 -2.6041582 -0.053753413 51 7 -0.01340299
1.8627714 -2.9523139 0.93537205 40 15 -0.013400686
1.6935157 -2.69134 -0.8520323 42 0 -0.01337995
2.0154853 -3.2042553 0.066074811 5 8 -0.013377646
1.6804031 -2.6725712 -0.72884142 36 1 -0.013375342
2.0082181 -3.1939394 0.19772527 9 9 -0.013373038
1.6715544 -2.6595275 -0.61058879 27 2 -0.013370735
2.1135023 -3.3639925 0.3475771 84 10 -0.013368431
1.6588793 -2.6414068 -0.4940201 41 3 -0.013366126
2.0338757 -3.2397628 0.46968448 11 11 -0.013363822
2.097909 -3.3430572 0.62511224 82 12 -0.013359214
1.6410671 -2.6160851 -0.27018279 43 5 -0.01335691
2.0838749 -3.3232691 0.76247281 11 13 -0.013354606
1.634616 -2.6078224 -0.16129944 40 6 -0.013352302
1.8500314 -2.9526365 0.804425 37 14 -0.013349999
1.6287216 -2.5994275 -0.053543981 51 7 -0.013347695
1.8427166 -2.9421024 0.93019569 42 15 -0.013345391
1.6462539 -2.6366043 -0.83287972 37 0 -0.013324654
1.9942573 -3.193959 0.065725766 16 8 -0.013322351
1.6395456 -2.6268806 -0.71489447 42 1 -0.013320046
1.9981147 -3.2026243 0.19782993 31 9 -0.013317742
1.6445994 -2.637027 -0.6041013 42 2 -0.013315438
2.0975313 -3.3645861 0.34687987 78 10 -0.013313134
1.6396608 -2.6301303 -0.49089143 48 3 -0.01331083
2.0367694 -3.2683914 0.47285309 2 11 -0.013308526
2.0830944 -3.3453293 0.62417358 79 12 -0.013303919
1.6224496 -2.6065743 -0.26861399 43 5 -0.013301615
2.0738802 -3.3318279 0.7628544 12 13 -0.013299311
1.6206832 -2.6047494 -0.16077606 34 6 -0.013297006
1.8402302 -2.958755 0.804425 41 14 -0.013294702
1.6217498 -2.6084933 -0.053613789 51 7 -0.013292398
1.8273371 -2.9403131 0.92760748 43 15 -0.013290094
1.6309358 -2.6324816 -0.8297739 44 0 -0.01325655
1.9825375 -3.201247 0.065725766 33 8 -0.013254246
1.6217005 -2.6196167 -0.71129525 47 1 -0.013251942
1.9884648 -3.2133231 0.19803928 19 9 -0.013249638
1.6312522 -2.6360741 -0.60257488 45 2 -0.013247333
2.0847254 -3.370193 0.34670553 79 10 -0.013245029
1.6227372 -2.6243613 -0.48870131 45 3 -0.013242726
1.9986842 -3.2336199 0.46675962 1 11 -0.013240422
2.0708189 -3.3529418 0.62417358 86 12 -0.013235814
1.6175288 -2.6190023 -0.26931125 43 5 -0.01323351
2.0585608 -3.3343947 0.76170951 15 13 -0.013231206
1.6048319 -2.6004744 -0.16014804 37 6 -0.013228902
1.8181188 -2.9472358 0.79947603 38 14 -0.013226598
1.6121783 -2.6144199 -0.053613789 51 7 -0.013224293
1.819589 -2.9519243 0.92916042 42 15 -0.013221989
1.6237602 -2.6414502 -0.83080912 42 0 -0.013201253
1.9723977 -3.2098517 0.065760665 39 8 -0.013198949
1.6074467 -2.6169591 -0.70904571 39 1 -0.013196646
1.9709656 -3.2100325 0.19741124 19 9 -0.013194342
1.6127951 -2.6266944 -0.59914029 39 2 -0.013192038
2.0666952 -3.3672612 0.34565967 81 10 -0.013189734
1.5949727 -2.5997021 -0.48306966 42 3 -0.01318743
2.0019138 -3.2642679 0.47017199 1 11 -0.013185126
2.0456846 -3.3382542 0.62010628 77 12 -0.013180518
1.5896384 -2.5940547 -0.26617363 40 5 -0.013178213
2.044858 -3.3382123 0.76094633 17 13 -0.013175909
1.5936589 -2.602654 -0.15993871 33 6 -0.013173606
1.7976465 -2.9369433 0.79497701 38 14 -0.013171302
1.5884317 -2.5961511 -0.053125124 50 7 -0.013168998
1.8032259 -2.9483697 0.92605454 42 15 -0.013166694
1.6004471 -2.624012 -0.82356226 42 0 -0.013145958
1.9590998 -3.2133021 0.06569086 35 8 -0.013143654
1.5820754 -2.5959291 -0.70184726 39 1 -0.01314135
1.954553 -3.2083645 0.19688788 19 9 -0.013139046
1.5780811 -2.5903926 -0.58959985 38 2 -0.013136742
2.0466385 -3.3608415 0.34426519 79 10 -0.013134438
1.5858881 -2.6052539 -0.48306966 45 3 -0.013132134
1.9554229 -3.2135782 0.46188486 1 11 -0.013129829
2.030941 -3.3403108 0.61916769 79 12 -0.013125222
1.5702232 -2.5825632 -0.26443052 40 5 -0.013122918
2.0331931 -3.34533 0.76094633 22 13 -0.013120614
1.5835274 -2.6064939 -0.15983403 31 6 -0.01311831
1.7863723 -2.9415345 0.79452711 40 14 -0.013116006
1.575209 -2.5948424 -0.052985508 49 7 -0.013113702
1.7839036 -2.9397821 0.92139584 43 15 -0.013111398
1.5872772 -2.6229715 -0.82149172 41 0 -0.013090662
1.9354513 -3.199589 0.065272003 34 8 -0.013088358
1.5750208 -2.6047711 -0.70274711 40 1 -0.013086054
1.9381763 -3.2066209 0.19636452 19 9 -0.013083749
1.5659827 -2.5908444 -0.58845496 39 2 -0.013081446
2.0245917 -3.3509119 0.34252208 81 10 -0.013079142
1.5665721 -2.5938647 -0.47994098 42 3 -0.013076838
1.9339343 -3.2033901 0.45944747 2 11 -0.013074534
1.5723413 -2.6054718 -0.37365144 7 4 -0.01307223
2.0151873 -3.3406141 0.61791623 79 12 -0.013069926
1.5529655 -2.5743804 -0.26303601 41 5 -0.013067622
2.0052824 -3.3255067 0.75484043 27 13 -0.013065318
1.5692639 -2.6034529 -0.15931067 33 6 -0.013063014
1.7740822 -2.9444139 0.79362732 40 14 -0.013060709
1.5620148 -2.593473 -0.052845888 48 7 -0.013058405
1.7666562 -2.9344058 0.91777241 40 15 -0.013056102
1.5860666 -2.6417463 -0.82563275 33 0 -0.013035365
1.9222125 -3.2028964 0.065202191 39 8 -0.013033062
1.5589017 -2.5985553 -0.69959778 42 1 -0.013030758
1.9197811 -3.2013769 0.19563182 28 9 -0.013028454
1.5528909 -2.5895603 -0.58692849 42 2 -0.01302615
2.0108335 -3.3545406 0.34217343 79 10 -0.013023846
1.5514166 -2.5891504 -0.47806379 43 3 -0.013021542
1.9054 -3.1811705 0.45530388 9 11 -0.013019238
1.5652763 -2.614351 -0.37413892 48 4 -0.013016934
2.0024993 -3.345933 0.61760336 78 12 -0.013014629
1.5439698 -2.5797856 -0.26303601 43 5 -0.013012325
1.9916464 -3.3291166 0.7540772 33 13 -0.013010022
1.5550413 -2.6003442 -0.15878731 32 6 -0.013007718
1.7597939 -2.943898 0.79182774 40 14 -0.013005414
1.5529522 -2.5989099 -0.052845888 49 7 -0.01300311
1.7524397 -2.9339204 0.91570181 42 15 -0.013000806
1.570904 -2.6373084 -0.82252699 30 0 -0.01298007
1.9110206 -3.2095866 0.065202191 45 8 -0.012977766
1.5448381 -2.5956082 -0.6973483 43 1 -0.012975462
1.9045098 -3.2011929 0.19521314 37 9 -0.012973158
1.5438421 -2.5949652 -0.58692849 42 2 -0.012970854
1.995038 -3.3546898 0.3414762 81 10 -0.01296855
1.5383316 -2.5877578 -0.4768123 45 3 -0.012966245
1.8881998 -3.1775632 0.45384148 12 11 -0.012963942
1.5378934 -2.5890779 -0.36975163 42 4 -0.012961638
1.9837486 -3.341013 0.61541325 86 12 -0.012959334
1.5329212 -2.581733 -0.26268741 43 5 -0.01295703
1.9790115 -3.3343601 0.75369561 37 13 -0.012954726
1.5378021 -2.592015 -0.15794992 32 6 -0.012952422
1.7445368 -2.9416423 0.7895782 36 14 -0.012950118
1.5377524 -2.5939939 -0.052636456 49 7 -0.012947814
1.7431726 -2.9416819 0.91621947 43 15 -0.01294551
1.5548089 -2.6311333 -0.81890345 33 0 -0.012924774
1.9038736 -3.223125 0.065341808 39 8 -0.01292247
1.5337867 -2.5976288 -0.6964485 46 1 -0.012920165
1.9004304 -3.2198613 0.19594584 36 9 -0.012917862
1.5297852 -2.5918844 -0.58502042 43 2 -0.012915558
1.9833159 -3.3616333 0.3414762 81 10 -0.012913254
1.5312961 -2.5965152 -0.47743803 43 3 -0.01291095
1.8770964 -3.184135 0.45384148 19 11 -0.012908646
1.5268308 -2.5910101 -0.36926416 41 4 -0.012906342
1.9660585 -3.3377049 0.61353606 86 12 -0.012904038
1.5238998 -2.5870683 -0.26268741 40 5 -0.012901734
1.9633757 -3.334481 0.75216907 37 13 -0.01289943
1.5327972 -2.6042521 -0.15836863 31 6 -0.012897125
1.7263527 -2.9342768 0.78597897 36 14 -0.012894822
1.5226063 -2.5890033 -0.052427031 51 7 -0.012892518
1.7319144 -2.9460833 0.91570181 42 15 -0.012890214
1.5290059 -2.6082127 -0.81010365 34 0 -0.012869478
1.8966553 -3.2366519 0.065481432 45 8 -0.012867174
1.5247101 -2.6029668 -0.6964485 43 1 -0.01286487
1.8901886 -3.228199 0.19605052 46 9 -0.012862566
1.5147766 -2.5870435 -0.58273071 43 2 -0.012860262
1.963518 -3.3547797 0.34008169 87 10 -0.012857958
1.516238 -2.5916145 -0.47556084 45 3 -0.012855654
1.8589551 -3.1786728 0.45213532 34 11 -0.01285335
1.5137697 -2.5894687 -0.36828917 43 4 -0.012851045
1.9444294 -3.3274922 0.61040735 93 12 -0.012848742
1.5088286 -2.5820508 -0.26164153 39 5 -0.012846438
1.9537045 -3.3447044 0.75293231 42 13 -0.012844134
1.5176553 -2.5992379 -0.15774059 32 6 -0.01284183
1.7160995 -2.9402852 0.78597897 36 14 -0.012839526
1.5054979 -2.5804846 -0.052147791 51 7 -0.012837222
1.7128611 -2.9370916 0.91104311 43 15 -0.012834918
1.5111517 -2.5985043 -0.8054449 40 0 -0.012814182
1.8913755 -3.2536259 0.06569086 26 8 -0.012811878
1.5097401 -2.5981636 -0.69374907 46 1 -0.012809574
1.8995421 -3.2689869 0.19814396 27 9 -0.01280727
1.5037645 -2.5889201 -0.58196747 45 2 -0.012804965
1.9457935 -3.351275 0.33903584 87 10 -0.012802661
1.4992501 -2.5832233 -0.4730579 46 3 -0.012800358
1.8458561 -3.1817081 0.45164782 35 11 -0.012798054
1.5027299 -2.5913026 -0.3678017 41 4 -0.01279575
1.9284295 -3.3253777 0.60884303 89 12 -0.012793446
1.4908135 -2.5717883 -0.26007274 27 5 -0.012791142
1.9282372 -3.3277223 0.74758971 45 13 -0.012788838
1.5105749 -2.6079762 -0.15794992 29 6 -0.012786534
1.7019197 -2.9395118 0.78417933 36 14 -0.01278423
1.4949286 -2.5820019 -0.052077983 52 7 -0.012781925
1.6924678 -2.9243636 0.90534908 38 15 -0.012779621
1.494349 -2.5903764 -0.8013038 40 0 -0.012758886
1.8935658 -3.2823977 0.066144623 30 8 -0.012756581
1.4923546 -2.5879624 -0.68969995 47 1 -0.012754278
1.9060731 -3.3067446 0.20002805 28 9 -0.012751974
1.492758 -2.5907512 -0.58120424 43 2 -0.01274967
1.9311002 -3.3528674 0.3385129 90 10 -0.012747366
1.4867319 -2.5813339 -0.47180638 48 3 -0.012745062
1.8293524 -3.1774898 0.45018539 41 11 -0.012742758
1.4941287 -2.5962715 -0.3678017 45 4 -0.012740454
1.9168098 -3.3320889 0.60884303 89 12 -0.01273815
1.4798411 -2.5735221 -0.25972411 24 5 -0.012735846
1.9103413 -3.3221846 0.74491841 49 13 -0.012733541
1.4919654 -2.5956552 -0.15690321 32 6 -0.012731238
1.6902208 -2.9417601 0.78327954 38 14 -0.012728934
1.4859065 -2.5872045 -0.052077983 51 7 -0.01272663
1.6822494 -2.9302535 0.90534908 38 15 -0.012724326
1.4799923 -2.585258 -0.79819798 43 0 -0.01270359
1.8989811 -3.3184927 0.066738002 45 8 -0.012701286
1.4784738 -2.5846982 -0.68745047 46 1 -0.012698982
1.9000553 -3.3217156 0.20055141 55 9 -0.012696678
1.4802605 -2.5888698 -0.57967776 45 2 -0.012694374
1.9160165 -3.3523333 0.33781564 90 10 -0.01269207
1.4757522 -2.5830774 -0.47118065 46 3 -0.012689766
1.8113583 -3.1717892 0.44847921 48 11 -0.012687461
1.4761997 -2.5859556 -0.36560807 46 4 -0.012685157
1.902812 -3.3332803 0.60790437 93 12 -0.012682854
1.4712988 -2.5784154 -0.25972411 22 5 -0.01268055
1.898733 -3.3288329 0.74491841 48 13 -0.012678246
1.4749817 -2.5869668 -0.15606584 30 6 -0.012675942
1.6722224 -2.9340975 0.77968031 36 14 -0.012673638
1.4713778 -2.5816939 -0.05186855 51 7 -0.012671334
1.6706108 -2.9324584 0.9043138 38 15 -0.01266903
1.4709589 -2.5904083 -0.79819798 43 0 -0.012648294
1.896853 -3.3404222 0.067052148 71 8 -0.01264599
1.4670088 -2.5845025 -0.68610072 47 1 -0.012643686
1.8894342 -3.3300648 0.20065607 84 9 -0.012641381
1.4663723 -2.5854824 -0.57776964 48 2 -0.012639077
1.902338 -3.3555348 0.33746704 90 10 -0.012636774
1.4642559 -2.5828016 -0.47024205 50 3 -0.01263447
1.7978944 -3.1725976 0.44774801 52 11 -0.012632166
1.4607671 -2.5787458 -0.36390188 40 4 -0.012629862
1.8804584 -3.3209937 0.6044628 89 12 -0.012627558
1.4593451 -2.5783334 -0.25920117 21 5 -0.012625254
1.8857493 -3.3316936 0.74415511 50 13 -0.01262295
1.4644277 -2.5883672 -0.15585649 30 6 -0.012620646
1.6586463 -2.9328415 0.77788073 36 14 -0.012618341
1.460389 -2.5833323 -0.051798742 53 7 -0.012616038
1.6565627 -2.9315448 0.9022432 38 15 -0.012613734
1.4547739 -2.5818076 -0.79405683 40 0 -0.012592997
1.8920505 -3.3592191 0.067296483 99 8 -0.012590694
1.4570221 -2.5879092 -0.68565083 46 1 -0.01258839
1.8915126 -3.3610075 0.20212148 100 9 -0.012586086
1.45105 -2.5783544 -0.57509834 47 2 -0.012583782
1.8804545 -3.3427231 0.33554959 93 10 -0.012581478
1.4552313 -2.5878971 -0.47024205 50 3 -0.012579174
1.7868087 -3.178854 0.44774801 49 11 -0.01257687
1.44884 -2.5786374 -0.36317068 44 4 -0.012574566
1.858214 -3.3085921 0.60102129 83 12 -0.012572262
1.4390792 -2.5623128 -0.25710943 19 5 -0.012569957
1.8712249 -3.3331201 0.74301028 57 13 -0.012567654
1.455384 -2.5934632 -0.15585649 31 6 -0.01256535
1.644585 -2.9318149 0.77608109 38 14 -0.012563046
1.4435384 -2.5744605 -0.051519506 52 7 -0.012560742
1.6378187 -2.9221425 0.8975845 34 15 -0.012558438
1.4400979 -2.5767519 -0.79095107 43 0 -0.012537702
1.8647087 -3.3378713 0.066738002 63 8 -0.012535398
1.4489298 -2.594681 -0.68610072 49 1 -0.012533094
1.8768486 -3.3623579 0.20180747 100 9 -0.01253079
1.4439548 -2.5868325 -0.57586157 47 2 -0.012528486
1.8610084 -3.3353479 0.33415511 93 10 -0.012526182
1.4384915 -2.5791595 -0.46773914 45 3 -0.012523877
1.7728021 -3.1798701 0.44701681 44 11 -0.012521574
1.4398299 -2.5836792 -0.36317068 42 4 -0.01251927
1.8485764 -3.3185093 0.60164702 93 12 -0.012516966
1.4252785 -2.5586176 -0.25623786 25 5 -0.012514662
1.8452519 -3.3139024 0.73728597 61 13 -0.012512358
1.4463222 -2.5985277 -0.15585649 31 6 -0.012510054
1.636236 -2.9409437 0.77698094 37 14 -0.01250775
1.4345431 -2.5794837 -0.051519506 54 7 -0.012505446
1.6229153 -2.9193995 0.89499629 35 15 -0.012503142
1.4292214 -2.5783839 -0.78991574 40 0 -0.012482406
1.8452929 -3.3303666 0.066458762 53 8 -0.012480102
1.4323103 -2.5860851 -0.68250149 49 1 -0.012477797
1.8631655 -3.3653944 0.20159812 100 9 -0.012475494
1.4311126 -2.5849869 -0.5743351 47 2 -0.01247319
1.8483897 -3.3400807 0.3339808 90 10 -0.012470886
1.4227864 -2.5720654 -0.46554902 43 3 -0.012468582
1.7520856 -3.1686671 0.44457942 43 11 -0.012466278
1.4308023 -2.5886893 -0.36317068 42 4 -0.012463974
1.8341155 -3.3197546 0.60070843 89 12 -0.01246167
1.4201925 -2.5705528 -0.25693512 35 5 -0.012459366
1.829877 -3.3134491 0.7357595 68 13 -0.012457062
1.4275904 -2.5860751 -0.15480977 28 6 -0.012454757
1.625019 -2.944931 0.77653104 33 14 -0.012452453
1.4235989 -2.5809734 -0.051449694 53 7 -0.01245015
1.612715 -2.9250464 0.89499629 35 15 -0.012447846
1.4183513 -2.5799711 -0.78888047 38 0 -0.01242711
1.8336565 -3.3367877 0.066458762 53 8 -0.012424806
1.4148308 -2.5756965 -0.67845237 50 1 -0.012422502
1.8341037 -3.3403647 0.19971403 84 9 -0.012420198
1.4220806 -2.5899668 -0.5743351 47 2 -0.012417894
1.8328853 -3.3395257 0.33328354 96 10 -0.01241559
1.4147496 -2.578748 -0.46586189 46 3 -0.012413286
1.7333781 -3.1608391 0.44262949 43 11 -0.012410982
1.4122152 -2.5762606 -0.36073327 43 4 -0.012408677
1.8196684 -3.3209395 0.59976977 93 12 -0.012406373
1.4092962 -2.5720003 -0.25658652 45 5 -0.01240407
1.8135841 -3.3112068 0.73385143 81 13 -0.012401766
1.4127997 -2.5805311 -0.15418173 29 6 -0.012399462
1.6100516 -2.9420378 0.7742815 35 14 -0.012397158
1.4145809 -2.5859272 -0.051449694 52 7 -0.012394854
1.6006413 -2.9272683 0.89396101 34 15 -0.01239255
1.4019387 -2.5713375 -0.78473938 43 0 -0.012371814
1.816256 -3.332633 0.066249333 55 8 -0.01236951
1.40117 -2.5720632 -0.67620283 47 1 -0.012367206
1.8157468 -3.3344679 0.19898133 52 9 -0.012364902
1.4045814 -2.579397 -0.57090056 44 2 -0.012362598
1.8174069 -3.3389037 0.33258632 96 10 -0.012360293
1.4019632 -2.5767298 -0.4646104 47 3 -0.01235799
1.717592 -3.1581514 0.44141081 41 11 -0.012355686
1.3946811 -2.5654783 -0.35853964 39 4 -0.012353382
1.8005196 -3.313386 0.59726685 93 12 -0.012351078
1.3951049 -2.5683944 -0.25571495 44 5 -0.012348774
1.8067001 -3.3261433 0.7357595 99 13 -0.01234647
1.4037833 -2.5854473 -0.15418173 30 6 -0.012344166
1.5895469 -2.9287999 0.76933259 35 14 -0.012341862
1.3979172 -2.5767875 -0.051170457 54 7 -0.012339558
1.5867295 -2.9260447 0.89189047 38 15 -0.012337253
1.3925048 -2.5764585 -0.78473938 43 0 -0.012316518
1.8046118 -3.3389528 0.066249333 55 8 -0.012314213
1.3958883 -2.5837967 -0.67800248 49 1 -0.012311909
1.7917589 -3.3179398 0.1976206 30 9 -0.012309606
1.3848597 -2.5655236 -0.56670272 42 2 -0.012307302
1.7985343 -3.3332684 0.33136615 93 10 -0.012304998
1.3887588 -2.5748966 -0.46335894 45 3 -0.012302694
1.7084424 -3.1676219 0.44189829 45 11 -0.01230039
1.3866594 -2.5720787 -0.35878339 42 4 -0.012298086
1.7814459 -3.3057394 0.59476393 86 12 -0.012295782
1.3766824 -2.5557075 -0.25397182 41 5 -0.012293478
1.7907743 -3.3258283 0.73423308 96 13 -0.012291173
1.3924046 -2.5870576 -0.1539724 26 6 -0.01228887
1.5788015 -2.9346061 0.76933259 32 14 -0.012286566
1.3832294 -2.5710855 -0.050961025 52 7 -0.012284262
1.5673562 -2.9145513 0.8867141 38 15 -0.012281958
1.374377 -2.5642762 -0.77956301 41 0 -0.012261222
1.7791409 -3.3208671 0.065760665 53 8 -0.012258918
1.3864088 -2.5888958 -0.67800248 47 1 -0.012256614
1.7575368 -3.2819176 0.19510846 19 9 -0.01225431
1.3740427 -2.5668805 -0.56593949 41 2 -0.012252006
1.7793682 -3.3254724 0.32997164 93 10 -0.012249702
1.3741723 -2.5692773 -0.46148172 46 3 -0.012247398
1.6930773 -3.1668599 0.44092333 45 11 -0.012245093
1.377223 -2.5771437 -0.35878339 41 4 -0.01224279
1.768034 -3.3084528 0.59413815 86 12 -0.012240486
1.3639979 -2.553468 -0.25327459 44 5 -0.012238182
1.7736058 -3.3216679 0.73194337 100 13 -0.012235878
1.384306 -2.5936642 -0.15407708 27 6 -0.012233574
1.5648794 -2.9332221 0.767533 33 14 -0.01223127
1.3723639 -2.5723693 -0.050891217 52 7 -0.012228966
1.5526278 -2.9114816 0.88412589 39 15 -0.012226662
1.3690443 -2.5758817 -0.78163356 40 0 -0.012205926
1.7606111 -3.3126221 0.065481432 57 8 -0.012203622
1.3668448 -2.5728276 -0.67260367 44 1 -0.012201318
1.7254618 -3.2492251 0.19280569 21 9 -0.012199013
1.3650745 -2.571661 -0.56593949 40 2 -0.01219671
1.7686828 -3.3334231 0.33014596 96 10 -0.012194406
1.3582379 -2.5598605 -0.4589788 45 3 -0.012192102
1.6751254 -3.1584275 0.43897343 47 11 -0.012189798
1.3630903 -2.5711732 -0.35732093 44 4 -0.012187494
1.7527747 -3.3076227 0.59288669 86 12 -0.01218519
1.3569415 -2.5617349 -0.25362319 40 5 -0.012182886
1.7442014 -3.2928333 0.72431099 116 13 -0.012180582
1.3663517 -2.5805893 -0.15303035 28 6 -0.012178278
1.5560554 -2.9401176 0.7679829 35 14 -0.012175974
1.3615061 -2.5736091 -0.050821409 53 7 -0.012173669
1.5397463 -2.9117601 0.88257295 38 15 -0.012171365
1.3532867 -2.5667367 -0.77749246 42 0 -0.01215063
1.7481049 -3.3169787 0.065446526 59 8 -0.012148326
1.3514979 -2.5655138 -0.66945434 45 1 -0.012146022
1.6992205 -3.2269526 0.19113094 24 9 -0.012143718
1.3574538 -2.5779109 -0.56632113 43 2 -0.012141414
1.7548352 -3.3339806 0.32962301 99 10 -0.01213911
1.3492939 -2.5645862 -0.4589788 47 3 -0.012136806
1.6566986 -3.1501994 0.43702352 45 11 -0.012134502
1.3448701 -2.5583446 -0.35488355 43 4 -0.012132198
1.7421371 -3.3154697 0.59319955 129 12 -0.012129894
1.3442852 -2.5594006 -0.25292596 41 5 -0.012127589
1.7390871 -3.3110685 0.7269823 111 13 -0.012125285
1.351765 -2.5747328 -0.15240233 28 6 -0.012122982
1.5385385 -2.9317269 0.76438367 31 14 -0.012120678
1.3525141 -2.578346 -0.050821409 53 7 -0.012118374
1.53047 -2.918828 0.88309062 41 15 -0.01211607
1.3474488 -2.5785279 -0.77956301 39 0 -0.012095334
1.7402203 -3.3301499 0.065586142 61 8 -0.01209303
1.3371209 -2.5598521 -0.66675496 40 1 -0.012090726
1.6907191 -3.2381756 0.19144495 46 9 -0.012088422
1.3389126 -2.565464 -0.56250495 38 2 -0.012086118
1.7389178 -3.3333242 0.32892576 117 10 -0.012083814
1.3380586 -2.566011 -0.45835301 47 3 -0.012081509
1.6456921 -3.1559634 0.43702352 47 11 -0.012079205
1.3322616 -2.5559821 -0.3539086 42 4 -0.012076902
1.7168621 -3.2952528 0.58850652 100 12 -0.012074598
1.3316619 -2.5570085 -0.25222871 42 5 -0.012072294
1.7323788 -3.3278689 0.72927201 100 13 -0.01206999
1.3386313 -2.572583 -0.15198363 28 6 -0.012067686
1.516992 -2.9165998 0.75898486 31 14 -0.012065382
1.3305873 -2.5582144 -0.05033274 54 7 -0.012063078
1.5167075 -2.9172964 0.88102001 41 15 -0.012060774
1.3259979 -2.559202 -0.7723161 41 0 -0.012040038
1.7215655 -3.3240762 0.065341808 100 8 -0.012037734
1.3304172 -2.5699275 -0.66810459 44 1 -0.012035429
1.7183089 -3.320626 0.19594584 99 9 -0.012033125
1.3263401 -2.5631475 -0.56097847 43 2 -0.012030822
1.7135414 -3.3128288 0.32631108 94 10 -0.012028518
1.327279 -2.5671566 -0.45772728 47 3 -0.012026214
1.6313797 -3.1566834 0.43629229 43 11 -0.01202391
1.3247068 -2.5643754 -0.3543961 44 4 -0.012021606
1.6993353 -3.290992 0.58662933 42 12 -0.012019302
1.3131431 -2.5441678 -0.2504856 41 5 -0.012016998
1.329643 -2.57724 -0.15198363 28 6 -0.012012389
1.5094818 -2.9270732 0.76033455 31 14 -0.012010086
1.3175372 -2.5559642 -0.050193124 53 7 -0.012007782
1.4971564 -2.9056628 0.87584364 42 15 -0.012005478
1.3166088 -2.564045 -0.7723161 40 0 -0.011984741
1.7026442 -3.315834 0.065062575 61 8 -0.011982438
1.3178792 -2.567621 -0.66630501 44 1 -0.011980134
1.7103541 -3.3337119 0.19636452 67 9 -0.01197783
1.3169369 -2.5679915 -0.56097847 44 2 -0.011975526
1.6868459 -3.2907188 0.32352212 28 10 -0.011973222
1.3133569 -2.5632141 -0.45616296 43 3 -0.011970918
1.617635 -3.1570587 0.43556106 41 11 -0.011968614
1.3139373 -2.56545 -0.3539086 42 4 -0.01196631
1.6572311 -3.2371197 0.57599175 6 12 -0.011964006
1.302439 -2.5451884 -0.25013697 42 5 -0.011961702
1.6477261 -3.2213249 0.70332199 3 13 -0.011959398
1.3210976 -2.5838745 -0.1520883 29 6 -0.011957094
1.4969693 -2.9291158 0.75943476 30 14 -0.01195479
1.3049669 -2.5534253 -0.0500535 52 7 -0.011952486
1.4817315 -2.9005492 0.87273788 48 15 -0.011950182
1.304592 -2.561511 -0.77024549 43 0 -0.011916399
1.6756369 -3.2914619 0.064469188 12 8 -0.011914095
1.301838 -2.558311 -0.66270578 42 1 -0.011911791
1.3021835 -2.5600953 -0.55830717 42 2 -0.011907183
1.2967954 -2.5517061 -0.45334715 47 3 -0.011902575
1.5976145 -3.1449878 0.43312368 31 11 -0.011900271
1.3009274 -2.5609438 -0.35268989 45 4 -0.011897967
1.5955095 -3.1422021 0.55815822 9 12 -0.011895663
1.2939914 -2.5494938 -0.25013697 41 5 -0.011893359
1.6166049 -3.1865022 0.69454479 1 13 -0.011891055
1.3089087 -2.581116 -0.15166962 28 6 -0.011888751
1.4904042 -2.9390182 0.76078445 32 14 -0.011886447
1.2983009 -2.561306 -0.050123312 52 7 -0.011884143
1.4694856 -2.9002769 0.87118495 68 15 -0.011881839
1.2943485 -2.5623744 -0.76921022 42 0 -0.011861103
1.6259565 -3.2202432 0.062968284 6 8 -0.011858799
1.2880789 -2.5521758 -0.6600064 44 1 -0.011856495
1.6018167 -3.17381 0.18631603 9 9 -0.011854191
1.2936866 -2.5643995 -0.55830717 41 2 -0.011851887
1.5941147 -3.1612923 0.30975151 8 10 -0.011849583
1.2883264 -2.5559924 -0.45334715 45 3 -0.011847279
1.5800314 -3.136086 0.43117377 35 11 -0.011844975
1.2879622 -2.5563798 -0.35147122 43 4 -0.011842671
1.5815268 -3.1404188 0.55690676 44 12 -0.011840367
1.2819467 -2.5466523 -0.24943975 42 5 -0.011838063
1.5830861 -3.1462476 0.6846227 3 13 -0.011835759
1.2949575 -2.5747366 -0.15104158 29 6 -0.011833455
1.4683912 -2.9195712 0.75448585 33 14 -0.011831151
1.2898 -2.5655973 -0.050123312 53 7 -0.011828847
1.4581249 -2.9016814 0.87014967 71 15 -0.011826543
1.2858441 -2.5666525 -0.76921022 42 0 -0.011805807
1.5848262 -3.164824 0.061781518 26 8 -0.011803503
1.2778639 -2.552948 -0.65910655 42 1 -0.011801199
1.5755359 -3.1490173 0.18453661 39 9 -0.011798895
1.2777021 -2.5548525 -0.55525422 40 2 -0.011796591
1.5791668 -3.1576514 0.30887994 39 10 -0.011794287
1.2780766 -2.5567164 -0.45272139 46 3 -0.011791983
1.5687357 -3.1395326 0.43093005 40 11 -0.011789679
1.2737091 -2.5502048 -0.35000879 42 4 -0.011787375
1.564379 -3.1335485 0.55471671 45 12 -0.011785071
1.2748288 -2.554677 -0.24978836 41 5 -0.011782767
1.5677124 -3.1429703 0.68271458 8 13 -0.011780463
1.2841798 -2.5756664 -0.15083225 28 6 -0.011778159
1.4555824 -2.9194469 0.7531361 31 14 -0.011775855
1.270133 -2.5486069 -0.049704451 51 7 -0.011773551
1.4462645 -2.9032955 0.8691144 72 15 -0.011771247
1.2678388 -2.5540442 -0.76403385 43 0 -0.011750511
1.5714381 -3.1670289 0.06171171 45 8 -0.011748207
1.2667664 -2.5541229 -0.65820676 44 1 -0.011745903
1.5657581 -3.1583495 0.18474595 49 9 -0.011743599
1.2648426 -2.5524819 -0.55372775 42 2 -0.011741295
1.5596209 -3.1473513 0.30731115 42 10 -0.011738991
1.2704508 -2.5649245 -0.45334715 46 3 -0.011736687
1.5563372 -3.1434822 0.4306863 41 11 -0.011734383
1.2625924 -2.5512977 -0.34952128 43 4 -0.011732079
1.548504 -3.1304083 0.55315232 48 12 -0.011729775
1.2566259 -2.5414724 -0.24804525 41 5 -0.011727471
1.5527029 -3.141655 0.68118817 21 13 -0.011725167
1.2729619 -2.5767741 -0.15062289 29 6 -0.011722863
1.4483252 -2.931751 0.75493574 31 14 -0.011720559
1.2572421 -2.5460727 -0.049564835 52 7 -0.011718255
1.4262081 -2.8895211 0.86342037 70 15 -0.011715951
1.2542061 -2.5500064 -0.76144564 45 0 -0.011695215
1.5509974 -3.1548219 0.061362665 49 8 -0.011692911
1.2573968 -2.5587485 -0.65820676 38 1 -0.011690607
1.5529621 -3.1602108 0.18453661 49 9 -0.011688303
1.2550595 -2.555119 -0.5533461 44 2 -0.011685999
1.5384157 -3.1333735 0.30539373 46 10 -0.011683695
1.2514684 -2.5500567 -0.44990557 43 3 -0.011681391
1.5413083 -3.1420367 0.42971134 47 11 -0.011679087
1.252359 -2.5541258 -0.34927759 43 4 -0.011676783
1.535828 -3.132247 0.55252659 52 12 -0.011674479
1.2407321 -2.5315309 -0.24665076 41 5 -0.011672175
1.5399996 -3.1435299 0.68042493 15 13 -0.011669871
1.260446 -2.5740271 -0.15020421 29 6 -0.011667567
1.4332864 -2.928288 0.75268626 33 14 -0.011665263
1.2483469 -2.550446 -0.049564835 51 7 -0.011662959
1.4127175 -2.8875406 0.86134982 68 15 -0.011660655
1.2469903 -2.5578418 -0.76248091 45 0 -0.011639919
1.5387744 -3.1563528 0.061292849 68 8 -0.011637615
1.2412219 -2.547138 -0.6541577 41 1 -0.011635311
1.5427958 -3.1674078 0.18464127 57 9 -0.011633007
1.2452734 -2.5577195 -0.55296451 41 2 -0.011630703
1.5309566 -3.1458905 0.30609095 52 10 -0.011628399
1.2378188 -2.5435355 -0.44802836 43 3 -0.011626095
1.529144 -3.1435602 0.42922387 41 11 -0.011623791
1.2438823 -2.5582647 -0.34927759 42 4 -0.011621487
1.5326562 -3.153579 0.55534244 55 12 -0.011619183
1.2284056 -2.5286775 -0.24595349 41 5 -0.011616879
1.5304247 -3.1503851 0.68080652 16 13 -0.011614575
1.2484136 -2.5710063 -0.14978553 30 6 -0.011612271
1.4184624 -2.9225061 0.74998683 31 14 -0.011609967
1.2376913 -2.5511897 -0.049495026 52 7 -0.011607663
1.4009434 -2.8889778 0.86031455 68 15 -0.011605359
1.2359791 -2.5567451 -0.76092798 44 0 -0.011584623
1.5260069 -3.1581037 0.061223041 57 8 -0.011582319
1.2280853 -2.5426812 -0.65190816 42 1 -0.011580015
1.5322837 -3.1725066 0.18464127 60 9 -0.011577711
1.2367853 -2.5618348 -0.55296451 41 2 -0.011575407
1.5239794 -3.1581275 0.30678821 56 10 -0.011573103
1.2254999 -2.540724 -0.4467769 41 3 -0.011570799
1.5147128 -3.1417263 0.42824891 41 11 -0.011568495
1.2280506 -2.5482848 -0.34732765 41 4 -0.011566191
1.5187601 -3.1515262 0.55409092 49 12 -0.011563887
1.2200134 -2.5327373 -0.24595349 41 5 -0.011561583
1.5177149 -3.1521707 0.68004328 33 13 -0.011559279
1.2342348 -2.5645499 -0.14915749 27 6 -0.011556975
1.4023391 -2.9151468 0.7468375 37 14 -0.011554671
1.2274904 -2.5516758 -0.049425215 51 7 -0.011552367
1.3905184 -2.8918669 0.85979694 66 15 -0.011550063
1.2220381 -2.5505908 -0.75782222 43 0 -0.011529327
1.5233023 -3.1793776 0.061537188 61 8 -0.011527023
1.2213304 -2.5502546 -0.65280795 42 1 -0.011524719
1.5177507 -3.1706302 0.18422259 57 9 -0.011522415
1.2202086 -2.5501978 -0.54952991 39 2 -0.011520111
1.5189639 -3.1760097 0.3080084 50 10 -0.011517807
1.2204771 -2.5519018 -0.44802836 41 3 -0.011515503
1.5094234 -3.1574779 0.42971134 38 11 -0.011513199
1.2144581 -2.5415964 -0.34586522 43 4 -0.011510895
1.5060472 -3.1532433 0.55346519 49 12 -0.011508591
1.2094482 -2.5333846 -0.24560487 39 5 -0.011506287
1.5106369 -3.164273 0.68156981 43 13 -0.011503983
1.2308846 -2.5794442 -0.14978553 30 6 -0.011501679
1.3893086 -2.9127455 0.74503791 40 14 -0.011499375
1.2134122 -2.545115 -0.049215786 50 7 -0.011497071
1.3820778 -2.9001906 0.86083221 66 15 -0.011494767
1.2085999 -2.5441594 -0.75471634 44 0 -0.011474031
1.5121952 -3.1846755 0.061537188 61 8 -0.011471727
1.2115848 -2.552742 -0.65235806 41 1 -0.011469423
1.5058181 -3.1741042 0.18411791 54 9 -0.011467119
1.2083794 -2.5471349 -0.54800349 45 2 -0.011464815
1.5024477 -3.1684277 0.30678821 57 10 -0.011462511
1.2098693 -2.5525768 -0.44740263 40 3 -0.011460207
1.4992423 -3.1645215 0.42995507 36 11 -0.011457903
1.2030303 -2.5404377 -0.34513399 40 4 -0.011455599
1.495031 -3.1584811 0.55346519 55 12 -0.011453295
1.1971893 -2.5303872 -0.24490763 41 5 -0.011450991
1.507139 -3.1854985 0.68500435 51 13 -0.011448687
1.2210195 -2.5819194 -0.14968085 33 6 -0.011446383
1.3749684 -2.9087682 0.74278837 34 14 -0.011444079
1.1993952 -2.5384865 -0.049006358 51 7 -0.011441775
1.3645205 -2.889276 0.8561734 67 15 -0.011439471
1.1976222 -2.5450757 -0.75368112 44 0 -0.011418735
1.5002182 -3.1881249 0.061502282 67 8 -0.011416431
1.2001787 -2.5516653 -0.65100831 44 1 -0.011414127
1.4887809 -3.1666887 0.18338521 10 9 -0.011411823
1.1956953 -2.5444396 -0.54647696 44 2 -0.011409519
1.493366 -3.1793232 0.30731115 89 10 -0.011407215
1.1946292 -2.5444772 -0.44521254 45 3 -0.011404911
1.4924055 -3.1787198 0.43117377 38 11 -0.011402607
1.1933116 -2.542825 -0.34489027 43 4 -0.011400303
1.4890304 -3.1744108 0.55534244 59 12 -0.011397999
1.1832749 -2.5237269 -0.24386176 42 5 -0.011395695
1.492121 -3.1838906 0.68347788 51 13 -0.011393391
1.2123951 -2.5881863 -0.14978553 38 6 -0.011391087
1.3684299 -2.9226127 0.74503791 39 14 -0.011388783
1.1888311 -2.5390358 -0.04893655 51 7 -0.011386479
1.3495138 -2.8835232 0.85306764 68 15 -0.011384175
1.187914 -2.5474901 -0.75316346 45 0 -0.011363439
1.4859883 -3.1881647 0.061397567 61 8 -0.011361135
1.1875265 -2.5489814 -0.64920872 44 1 -0.011358831
1.4836221 -3.1845396 0.18411791 34 9 -0.011356527
1.1851488 -2.5450382 -0.54571378 45 2 -0.011354223
1.4822589 -3.1845167 0.30731115 82 10 -0.011351919
1.176574 -2.5289304 -0.44177097 43 3 -0.011349615
1.4782336 -3.1787684 0.43044254 33 11 -0.011347311
1.1861026 -2.5505748 -0.34537774 42 4 -0.011345007
1.4787731 -3.1813807 0.5556553 57 12 -0.011342703
1.1744578 -2.527842 -0.24386176 41 5 -0.011340399
1.4793444 -3.185518 0.68271458 51 13 -0.011338095
1.1974666 -2.5797212 -0.14905281 26 6 -0.011335791
1.3538076 -2.9165289 0.74233848 39 14 -0.011333487
1.1782775 -2.5395422 -0.048866738 51 7 -0.011331183
1.3394405 -2.888216 0.85306764 67 15 -0.011328879
1.1754068 -2.5426474 -0.75057524 44 0 -0.011308143
1.4796019 -3.2021511 0.06157209 57 8 -0.011305839
1.1741645 -2.5422902 -0.64650929 44 1 -0.011303535
1.4713786 -3.1858153 0.18390857 55 9 -0.011301231
1.1767026 -2.5489542 -0.54571378 44 2 -0.011298927
1.474195 -3.1948416 0.30783406 70 10 -0.011296623
1.1723179 -2.5417871 -0.44333532 45 3 -0.011294319
1.4676841 -3.1836529 0.43044254 36 11 -0.011292015
1.1693271 -2.5364666 -0.34294036 43 4 -0.011289711
1.4698682 -3.1898556 0.55628103 57 12 -0.011287407
1.1644019 -2.5281034 -0.24351314 42 5 -0.011285103
1.4687726 -3.1904063 0.68271458 51 13 -0.011282799
1.1864005 -2.5782349 -0.1487388 25 6 -0.011280495
1.3392407 -2.9103804 0.73963904 40 14 -0.011278191
1.1715211 -2.5470691 -0.04893655 51 7 -0.011275887
1.3258206 -2.8838658 0.85047942 66 15 -0.011273583
1.1701878 -2.5535564 -0.75264585 43 0 -0.011252847
1.1641049 -2.5426264 -0.6456095 44 1 -0.011248239
1.4369785 -3.1400805 0.18097776 33 9 -0.011245935
1.1608912 -2.5367756 -0.54227924 47 2 -0.011243631
1.4660785 -3.2051482 0.308357 67 10 -0.011241327
1.1622397 -2.5420678 -0.44270959 46 3 -0.011239023
1.4628948 -3.2011411 0.43214872 31 11 -0.011236719
1.1555176 -2.5296988 -0.34147793 43 4 -0.011234415
1.4570839 -3.1913729 0.5556553 52 12 -0.011232111
1.15557 -2.5321524 -0.24351314 42 5 -0.011229807
1.4663357 -3.2131202 0.68653083 50 13 -0.011227503
1.18862 -2.6057775 -0.15009953 23 6 -0.011225199
1.3226061 -2.9008522 0.73603982 39 14 -0.011222895
1.1559888 -2.5365858 -0.048657309 52 7 -0.011220591
1.3189487 -2.8955085 0.85254997 66 15 -0.011218287
1.1496435 -2.5331998 -0.74539888 42 0 -0.011197551
1.422236 -3.1338477 0.060071182 8 8 -0.011195247
1.1544176 -2.5448995 -0.6451596 45 1 -0.011192943
1.4515761 -3.2014668 0.18422259 31 9 -0.011190639
1.1499647 -2.537437 -0.54151595 41 2 -0.011188335
1.4534992 -3.2086854 0.30818272 63 10 -0.011186031
1.156989 -2.5553079 -0.44427395 38 3 -0.011183727
1.4508928 -3.2044196 0.431905 33 11 -0.011181423
1.155683 -2.5536106 -0.34415907 35 4 -0.011179119
1.4451212 -3.1946394 0.55534244 55 12 -0.011176815
1.1483657 -2.5398018 -0.24386176 36 5 -0.011174511
1.454549 -3.2184732 0.68653083 50 13 -0.011172207
1.2168835 -2.6938441 -0.15491444 52 6 -0.011169903
1.3143709 -2.9110086 0.73738956 34 14 -0.011167599
1.1454816 -2.5369606 -0.048587501 52 7 -0.011165295
1.3016816 -2.8842473 0.84789127 67 15 -0.011162991
1.1415863 -2.5389595 -0.74591655 36 0 -0.011142255
1.4074619 -3.1317437 0.059931565 11 8 -0.011139951
1.1514705 -2.5633345 -0.64875883 39 1 -0.011137647
1.419932 -3.1609674 0.18160579 24 9 -0.011135343
1.1427088 -2.5450177 -0.54227924 42 2 -0.011133039
1.4390266 -3.2064683 0.30748546 52 10 -0.011130735
1.1343179 -2.5286913 -0.43895519 47 3 -0.011128431
1.4423869 -3.2169614 0.43287995 25 11 -0.011126127
1.1333264 -2.5288455 -0.34025922 45 4 -0.011123823
1.4363842 -3.2050726 0.55628103 52 12 -0.011121519
1.1248323 -2.5110655 -0.24072415 46 5 -0.011119215
1.4400966 -3.216363 0.68500435 52 13 -0.011116911
1.2091043 -2.7017217 -0.1551238 61 6 -0.011114607
1.3002228 -2.9066844 0.73514003 37 14 -0.011112303
1.1349858 -2.5372927 -0.048517693 53 7 -0.011109999
1.2868749 -2.8781917 0.84478539 68 15 -0.011107695
1.1374332 -2.5535169 -0.74902231 42 0 -0.011086959
1.3905593 -3.1217804 0.059652328 13 8 -0.011084655
1.1279039 -2.5333142 -0.64021069 47 1 -0.011082351
1.4259421 -3.2042236 0.18380389 31 9 -0.011080047
1.1242433 -2.5274651 -0.53769976 47 2 -0.011077743
1.3808786 -3.1058795 0.29737538 37 10 -0.011075439
1.122716 -2.5252187 -0.43770367 49 3 -0.011073135
1.4002715 -3.1509795 0.42337415 13 11 -0.011070831
1.1233228 -2.5289614 -0.33977175 46 4 -0.011068527
1.4299972 -3.2208993 0.55815822 52 12 -0.011066223
1.1176764 -2.5186186 -0.24107277 51 5 -0.011063919
1.4278301 -3.2175319 0.68424112 52 13 -0.011061615
1.1904205 -2.6838076 -0.15386772 66 6 -0.011059311
1.2929465 -2.9163246 0.73648977 41 14 -0.011057007
1.1228817 -2.533926 -0.048378069 53 7 -0.011054703
1.2776022 -2.8844326 0.84530306 66 15 -0.011052399
1.1149154 -2.5254631 -0.73970485 45 0 -0.011031663
1.380461 -3.1284447 0.059687231 63 8 -0.011029359
1.110404 -2.5176225 -0.63526177 49 1 -0.011027055
1.3760771 -3.121459 0.17877965 33 9 -0.011024751
1.1166476 -2.5329759 -0.53808141 48 2 -0.011022447
1.3713748 -3.1122651 0.29754972 17 10 -0.011020143
1.1091173 -2.5182753 -0.43582645 47 3 -0.011017839
1.3836652 -3.1431303 0.42166796 17 11 -0.011015535
1.1072928 -2.5165143 -0.33757812 44 4 -0.011013231
1.420336 -3.2294879 0.55878401 52 12 -0.011010927
1.1061097 -2.5150161 -0.24037553 49 5 -0.011008623
1.4229105 -3.2368746 0.68729407 41 13 -0.011006319
1.1770282 -2.6788039 -0.15334436 77 6 -0.011004015
1.2741389 -2.9011934 0.7315408 36 14 -0.011001711
1.1140296 -2.5378301 -0.048378069 52 7 -0.010999407
1.2636452 -2.8800292 0.84271485 68 15 -0.010997103
1.1068671 -2.5311098 -0.74022251 44 0 -0.010976367
1.3687313 -3.1314123 0.059652328 12 8 -0.010974063
1.1023892 -2.5232689 -0.63571167 46 1 -0.010971759
1.3667711 -3.129904 0.17898898 1 9 -0.010969455
1.1007279 -2.5206654 -0.53464681 46 2 -0.010967151
1.3589088 -3.1133809 0.29720107 57 10 -0.010964847
1.1018996 -2.525753 -0.43645221 49 3 -0.010962543
1.3647509 -3.1297445 0.41923055 17 11 -0.010960239
1.0945363 -2.5112653 -0.33635944 45 4 -0.010957935
1.4066874 -3.2289932 0.55784535 38 12 -0.010955631
1.0973239 -2.5188618 -0.24037553 47 5 -0.010953327
1.4131706 -3.2454219 0.6880573 50 13 -0.010951023
1.1684676 -2.6847274 -0.15344904 81 6 -0.010948719
1.264004 -2.9056232 0.7315408 37 14 -0.010946415
1.1019746 -2.534368 -0.048238453 54 7 -0.010944111
1.2535839 -2.884423 0.84271485 68 15 -0.010941807
1.0903465 -2.517231 -0.73504615 44 0 -0.010921071
1.3554091 -3.1306655 0.059547611 11 8 -0.010918767
1.0928006 -2.5253131 -0.63526177 49 1 -0.010916463
1.3621804 -3.1493211 0.17982636 1 9 -0.010914159
1.0888048 -2.5172849 -0.53312039 46 2 -0.010911855
1.3401268 -3.0998173 0.29545796 51 10 -0.010909551
1.0938601 -2.5313971 -0.43676507 50 3 -0.010907247
1.3483078 -3.1217327 0.4175244 21 11 -0.010904943
1.0857633 -2.5150709 -0.33635944 48 4 -0.010902639
1.4016688 -3.2483935 0.56034833 82 12 -0.010900335
1.0822099 -2.5080419 -0.23898104 49 5 -0.010898031
1.4057211 -3.2593486 0.68996537 67 13 -0.010895727
1.1590886 -2.6887898 -0.15344904 70 6 -0.010893423
1.2492274 -2.8992796 0.72884142 39 14 -0.010891119
1.0867939 -2.5235064 -0.047959212 54 7 -0.010888815
1.2366337 -2.8728111 0.83805609 68 15 -0.010886511
1.0785067 -2.5139203 -0.73297554 46 0 -0.010865775
1.342108 -3.1298642 0.059442896 8 8 -0.010863471
1.0824438 -2.5255299 -0.63436198 47 1 -0.010861167
1.3370222 -3.121011 0.17794226 1 9 -0.010858863
1.0800112 -2.5210702 -0.53312039 47 2 -0.01085656
1.3261608 -3.0971503 0.29476073 11 10 -0.010854255
1.0803539 -2.5243039 -0.43488789 50 3 -0.010851951
1.3342798 -3.1191199 0.41654944 22 11 -0.010849647
1.0800993 -2.5261464 -0.33733436 45 4 -0.010847343
1.3965315 -3.2677984 0.56285131 100 12 -0.010845039
1.0703168 -2.5044761 -0.2382838 48 5 -0.010842735
1.3897079 -3.2534027 0.68767565 80 13 -0.010840431
1.148912 -2.6909826 -0.15334436 80 6 -0.010838127
1.2406291 -2.9072073 0.72974122 37 14 -0.010835823
1.0803319 -2.5328028 -0.04806393 56 7 -0.010833519
1.2220526 -2.8664477 0.83495027 68 15 -0.010831214
1.0697248 -2.5176694 -0.73297554 44 0 -0.01081048
1.3280482 -3.1271677 0.05930328 5 8 -0.010808175
1.0690525 -2.5185301 -0.63166255 49 1 -0.010805871
1.3229994 -3.1183045 0.17752358 1 9 -0.010803567
1.0712044 -2.5248249 -0.53312039 46 2 -0.010801263
1.3184532 -3.1090972 0.29545796 28 10 -0.010798959
1.0669104 -2.5171471 -0.43301064 51 3 -0.010796655
1.3094453 -3.0908577 0.41216215 37 11 -0.010794351
1.068953 -2.5244174 -0.33660313 45 4 -0.010792047
1.3812662 -3.2635572 0.56128693 100 12 -0.010789743
1.0631211 -2.5118666 -0.23863243 49 5 -0.010787439
1.3814025 -3.2654667 0.68920213 90 13 -0.010785135
1.1387334 -2.6931372 -0.1532397 60 6 -0.010782831
1.2289561 -2.9079304 0.72884142 39 14 -0.010780527
1.0714844 -2.5365584 -0.04806393 60 7 -0.010778223
1.2105361 -2.8671367 0.833915 73 15 -0.010775919
1.0594314 -2.517827 -0.73194027 42 0 -0.010755183
1.315574 -3.1280973 0.059233464 6 8 -0.010752879
1.0549687 -2.5096712 -0.62851328 43 1 -0.010750575
1.3082384 -3.1136966 0.17700022 3 9 -0.010748271
1.0631454 -2.5303586 -0.53350198 49 2 -0.010745967
1.3068206 -3.1118441 0.29528365 32 10 -0.010743663
1.055824 -2.5153916 -0.43207204 49 3 -0.010741359
1.2871289 -3.0679517 0.4085061 16 11 -0.010739055
1.0555284 -2.5171497 -0.33514073 48 4 -0.010736751
1.3675752 -3.2628934 0.56034833 100 12 -0.010734447
1.0528063 -2.5118871 -0.2382838 46 5 -0.010732143
1.3669615 -3.2630253 0.68767565 90 13 -0.010729839
1.125469 -2.6878846 -0.15271634 40 6 -0.010727535
1.2180456 -2.9104047 0.72839153 28 14 -0.010725231
1.0595367 -2.5329039 -0.047924306 59 7 -0.010722927
1.2020111 -2.8749092 0.83495027 70 15 -0.010720623
1.0506359 -2.5215096 -0.73194027 42 0 -0.010699887
1.3031089 -3.128979 0.059163656 7 8 -0.010697583
1.045453 -2.5115392 -0.62806332 47 1 -0.010695279
1.2942926 -3.1108682 0.17658153 3 9 -0.010692975
1.0475187 -2.5177405 -0.53006744 47 2 -0.010690671
1.2913604 -3.1053486 0.29423779 43 10 -0.010688367
1.0470371 -2.5190618 -0.43207204 47 3 -0.010686063
1.279458 -3.0797586 0.40948102 32 11 -0.010683759
1.0436906 -2.5134852 -0.33416575 48 4 -0.010681455
1.3516343 -3.2567003 0.55847108 100 12 -0.010679151
1.044032 -2.5155468 -0.2382838 50 5 -0.010676847
1.3570671 -3.2714043 0.68843889 90 13 -0.010674543
1.115315 -2.6899514 -0.15261166 24 6 -0.010672239
1.2078789 -2.914639 0.72839153 15 14 -0.010669935
1.0460973 -2.5255022 -0.047714882 59 7 -0.010667631
1.1919686 -2.8790877 0.83495027 68 15 -0.010665327
1.0388807 -2.5180187 -0.72986972 43 0 -0.01064459
1.289892 -3.1279621 0.059058942 7 8 -0.010642287
1.0381649 -2.5187769 -0.62896317 45 1 -0.010639983
1.2887511 -3.1282942 0.17731424 1 9 -0.010637679
1.033489 -2.5086751 -0.52739608 48 2 -0.010635375
1.2736858 -3.0932565 0.292669 16 10 -0.010633071
1.0389893 -2.524528 -0.43238491 51 3 -0.010630767
1.2709653 -3.0897136 0.41021225 53 11 -0.010628463
1.0356649 -2.518949 -0.33440951 49 4 -0.010626159
1.3342512 -3.2467818 0.55596817 96 12 -0.010623856
1.0291861 -2.5044329 -0.2368893 48 5 -0.010621551
1.342656 -3.2688568 0.68691242 92 13 -0.010619247
1.0922647 -2.6605711 -0.15072757 26 6 -0.010616943
1.1984376 -2.9206402 0.72884142 10 14 -0.010614639
1.0342402 -2.5217376 -0.047575258 58 7 -0.010612335
1.1760494 -2.8689308 0.83080912 45 15 -0.010610031
1.0246781 -2.5071435 -0.72572863 40 0 -0.010596037
1.2749748 -3.1211154 0.058849517 8 8 -0.010593733
1.0261233 -2.5131848 -0.62671363 44 1 -0.010591429
1.2715786 -3.1159077 0.17637219 10 9 -0.010589125
1.0251645 -2.5120883 -0.52739608 48 2 -0.010586821
1.2619159 -3.0937731 0.29232034 26 10 -0.010584516
1.0231545 -2.5096676 -0.42925623 50 3 -0.010582213
1.2644578 -3.1031032 0.41143093 52 11 -0.010579909
1.0220653 -2.5095003 -0.33270332 45 4 -0.010577605
1.3227321 -3.2493589 0.5556553 100 12 -0.010575301
1.0163682 -2.4967601 -0.23584343 49 5 -0.010572997
1.3258895 -3.2587433 0.68385947 92 13 -0.010570693
1.0932173 -2.6882303 -0.1520883 47 6 -0.010568389
1.2063568 -2.9679255 0.73963904 6 14 -0.010566085
1.0243667 -2.5214481 -0.04750545 59 7 -0.010563781
1.1650754 -2.869235 0.8297739 45 15 -0.010561476
1.0159203 -2.5107052 -0.72572863 42 0 -0.010540741
1.2670712 -3.1329622 0.058989134 7 8 -0.010538436
1.0151536 -2.5113311 -0.62536395 45 1 -0.010536133
1.2606943 -3.1203275 0.17637219 18 9 -0.010533829
1.0156538 -2.5138314 -0.52701449 47 2 -0.010531525
1.2518547 -3.1000073 0.29249465 15 10 -0.010529221
1.0121701 -2.5077281 -0.42831761 49 3 -0.010526917
1.2409933 -3.0762019 0.40728739 52 11 -0.010524613
1.0162683 -2.5204172 -0.33367831 47 4 -0.010522309
1.3106436 -3.2521238 0.55534244 96 12 -0.010520005
1.0091363 -2.5039883 -0.23619205 46 5 -0.010517701
1.310105 -3.2524257 0.68156981 95 13 -0.010515396
1.0771135 -2.6753554 -0.15114626 49 6 -0.010513093
1.2192689 -3.0299702 0.75403595 5 14 -0.010510789
1.0140666 -2.5212982 -0.047435641 57 7 -0.010508485
1.1507298 -2.86253 0.82666808 47 15 -0.010506181
1.0085868 -2.5178227 -0.7267639 43 0 -0.010485445
1.2538975 -3.1317966 0.05888442 6 8 -0.010483141
1.0034854 -2.5076222 -0.6235643 45 1 -0.010480837
1.248311 -3.1210001 0.17616285 6 9 -0.010478533
1.0083308 -2.5210068 -0.52777767 47 2 -0.010476229
1.2395471 -3.1006577 0.29214606 40 10 -0.010473925
1.0041429 -2.5130808 -0.4286305 50 3 -0.010471621
1.2287751 -3.076828 0.40679988 46 11 -0.010469317
1.001577 -2.5091999 -0.33172837 47 4 -0.010467013
1.2985511 -3.2548447 0.55502951 100 12 -0.010464709
0.99891269 -2.5037949 -0.23584343 47 5 -0.010462405
1.2987438 -3.256979 0.68156981 92 13 -0.010460101
1.0677685 -2.6790988 -0.15114626 55 6 -0.010457797
1.200752 -3.0142934 0.74908704 3 14 -0.010455493
1.0052594 -2.5248225 -0.047435641 57 7 -0.010453189
1.1450166 -2.8772986 0.8297739 47 15 -0.010450885
0.99551946 -2.5105534 -0.72365808 43 0 -0.010430149
1.2422214 -3.1342955 0.058849517 5 8 -0.010427845
0.99257267 -2.5056746 -0.62221462 43 1 -0.010425541
1.2307919 -3.1086257 0.17522079 12 9 -0.010423237
