# .PCD v0.7 - Point Cloud Data file format
VERSION 0.7
FIELDS x y z intensity ring time
SIZE 4 4 4 4 2 4
TYPE F F F F U F
COUNT 1 1 1 1 1 1
WIDTH 907
HEIGHT 1
VIEWPOINT 0 0 0 1 0 0 0
POINTS 907
DATA ascii
-0.92594391 0.57792014 0.29246551 1 15 -0.044933144
-0.47490054 0.29721197 -0.15011506 48 0 -0.044912405
-0.68474483 0.42870712 0.014101544 5 8 -0.044910103
-0.45582592 0.28549579 -0.12417299 48 1 -0.044907797
-0.80549377 0.5052852 0.11675084 2 11 -0.044896279
-0.72115004 0.4525519 0.13484652 2 12 -0.04489167
-0.92560315 0.58175582 0.25239509 1 14 -0.044882454
-0.92075169 0.5789308 0.29143026 1 15 -0.044877846
-0.47222626 0.2978372 -0.14959741 73 0 -0.044857111
-0.70023322 0.44164318 0.014450593 5 8 -0.044854805
-0.44993234 0.28388616 -0.12282327 49 1 -0.044852503
-0.7617172 0.48079363 0.047207039 3 9 -0.0448502
-0.7199083 0.45493126 0.10456391 5 11 -0.044840984
-0.71956593 0.45506644 0.13484652 2 12 -0.044836376
-0.9302547 0.58899188 0.25419468 1 14 -0.044827159
-0.93504339 0.59248149 0.29660663 1 15 -0.044822551
-0.47938883 0.30458149 -0.1521856 48 0 -0.044801816
-0.71556371 0.45481166 0.014799641 4 8 -0.04479951
-0.43578294 0.27709004 -0.11922406 50 1 -0.044797208
-0.76003432 0.48344943 0.047207039 3 9 -0.044794902
-0.71797305 0.45757544 0.13484652 2 12 -0.044781078
-0.90190792 0.57546425 0.24699625 1 14 -0.044771861
-0.89063603 0.56870967 0.28314805 1 15 -0.044767253
-0.4734419 0.303128 -0.15063269 48 0 -0.044746518
-0.71397173 0.45730668 0.014799641 4 8 -0.044744216
-0.44301715 0.2838662 -0.12147357 49 1 -0.04474191
-0.75834215 0.48609951 0.047207039 3 9 -0.044739608
-0.71637154 0.46007869 0.13484652 2 12 -0.044725783
-0.89333725 0.57439309 0.24519664 1 14 -0.044716567
-0.94388115 0.60735762 0.30074775 1 15 -0.044711959
-0.46588758 0.3005895 -0.14856213 49 0 -0.044691224
-0.70565069 0.45545828 0.014660021 4 8 -0.044688918
-0.4583948 0.29598168 -0.12597258 47 1 -0.044686615
-0.75664061 0.48874387 0.047207039 3 9 -0.04468431
-0.7028349 0.4541623 0.073210821 4 10 -0.044679701
-0.7147612 0.46257648 0.13484652 2 12 -0.044670485
-0.92730677 0.60082042 0.2550945 1 14 -0.044661272
-0.93527156 0.60644454 0.29867718 1 15 -0.044656664
-0.45668554 0.29702848 -0.14597395 75 0 -0.044635925
-0.70405656 0.4579187 0.014660021 4 8 -0.044633623
-0.4687928 0.30501947 -0.1291219 46 1 -0.044631317
-0.75493008 0.49138185 0.047207039 3 9 -0.044629015
-0.71348637 0.46493831 0.10456391 5 11 -0.044619799
-0.71314198 0.46506885 0.13484652 2 12 -0.04461519
-0.95772976 0.6255278 0.26409253 1 14 -0.044605974
-0.9234457 0.6033653 0.29557136 1 15 -0.044601366
-0.46210903 0.30285659 -0.1480445 49 0 -0.044580631
-0.64217001 0.42102504 0.013403447 6 8 -0.044578325
-0.45463556 0.29818553 -0.12552269 48 1 -0.044576023
-0.753124 0.49414554 0.047207039 3 9 -0.044573717
-0.71177751 0.46755025 0.10456391 5 11 -0.044564504
-0.71143275 0.46767935 0.13484652 2 12 -0.044559896
-0.95554054 0.62886691 0.26409253 1 14 -0.04455068
-0.92122793 0.60674602 0.29557136 1 15 -0.044546071
-0.46104902 0.3044678 -0.1480445 74 0 -0.044525336
-0.67406607 0.4453091 0.014101544 5 8 -0.044523031
-0.44383726 0.29332402 -0.12282327 49 1 -0.044520728
-0.75139445 0.49677145 0.047207039 3 9 -0.044518422
-0.710141 0.47003219 0.10456391 5 11 -0.044509206
-0.70979595 0.47015992 0.13484652 2 12 -0.044504598
-0.95333952 0.63219857 0.26409253 1 14 -0.044495381
-0.92876232 0.61636722 0.29867718 1 15 -0.044490773
-0.47124174 0.31356668 -0.15166797 48 0 -0.044470038
-0.6991415 0.46538839 0.014660021 4 8 -0.044467736
-0.4492988 0.29919189 -0.12462288 64 1 -0.04446543
-0.7497431 0.49926031 0.047207039 3 9 -0.044463128
-0.70849603 0.47250798 0.10456391 5 11 -0.044453911
-0.70823288 0.47251111 0.13484652 2 12 -0.044449303
-0.95112675 0.63552272 0.26409253 1 14 -0.044440087
-0.91707671 0.61300236 0.29557136 1 15 -0.044435479
-0.45409846 0.3044517 -0.14649159 75 0 -0.044414744
-0.7175256 0.48106724 0.015078879 4 8 -0.044412438
-0.44992259 0.30176568 -0.12507279 48 1 -0.044410136
-0.74799567 0.50187457 0.047207039 3 9 -0.04440783
-0.70657933 0.47498029 0.13484652 2 12 -0.044394005
-0.92314661 0.62126487 0.25689411 1 14 -0.044384792
-0.89570332 0.60324997 0.28935969 1 15 -0.044380184
-0.46269241 0.3124426 -0.14959741 49 0 -0.044359446
-0.67938715 0.45894265 0.014310974 5 8 -0.044357143
-0.4633981 0.31315452 -0.1291219 46 1 -0.044354837
-0.74632734 0.50435209 0.047207039 3 9 -0.044352535
-0.78746188 0.5329513 0.11675084 2 11 -0.044343319
-0.70500016 0.47732097 0.13484652 2 12 -0.044338711
-0.88871419 0.60260993 0.24789605 1 14 -0.044329494
-0.89689547 0.60838592 0.29039499 1 15 -0.044324886
-0.46159902 0.31405568 -0.14959741 73 0 -0.044304151
-0.68447483 0.46569252 0.014450593 5 8 -0.044301845
-0.45752409 0.31140009 -0.1277722 46 1 -0.044299543
-0.74456215 0.50695437 0.047207039 3 9 -0.044297237
-0.70332986 0.47977883 0.13484652 2 12 -0.044283416
-0.90602231 0.61874181 0.25329489 1 14 -0.0442742
-0.9170956 0.6267736 0.29764193 1 15 -0.044269592
-0.46374223 0.31776866 -0.15063269 48 0 -0.044248853
-0.68284506 0.46807894 0.014450593 5 8 -0.044246551
-0.44196978 0.30307651 -0.12372307 65 1 -0.044244248
-0.74278814 0.50955015 0.047207039 3 9 -0.044241942
-0.76676905 0.52698576 0.14736128 1 12 -0.044228118
-0.91348952 0.62852842 0.25599429 3 14 -0.044218902
-0.9180845 0.63216192 0.29867718 5 15 -0.044214293
-0.47057912 0.32487324 -0.15322088 71 0 -0.044193558
-0.67462528 0.46591422 0.014310974 5 8 -0.044191256
-0.45052898 0.31126362 -0.12642249 47 1 -0.04418895
-0.74100494 0.51213986 0.047207039 3 9 -0.044186648
-0.76492482 0.52965909 0.14736128 1 12 -0.044172823
-0.94573545 0.65510219 0.22362815 1 13 -0.044168215
-0.92890722 0.64392573 0.26094323 21 14 -0.044163607
-0.93809432 0.65077919 0.30592412 29 15 -0.044158999
-0.45834059 0.31879228 -0.14959741 49 0 -0.044138264
-0.67299467 0.46826643 0.014310974 5 8 -0.044135958
-0.45423809 0.31617415 -0.1277722 46 1 -0.044133656
-0.73921269 0.51472336 0.047207039 3 9 -0.04413135
-0.78003889 0.5437578 0.11675084 2 11 -0.044122133
-0.77927256 0.54362786 0.15048997 1 12 -0.044117525
-0.92895323 0.64828759 0.22019359 2 13 -0.044112917
-0.91547018 0.63935339 0.2577939 57 14 -0.044108309
-0.91523212 0.63966292 0.29919481 60 15 -0.044103704
-0.45716909 0.32047004 -0.14959741 73 0 -0.044082966
-0.70738006 0.49586496 0.015078879 4 8 -0.044080663
-0.46430036 0.32558987 -0.13092151 45 1 -0.044078358
-0.73741156 0.51730043 0.047207039 3 9 -0.044076055
-0.77813596 0.54647756 0.11675084 2 11 -0.044066839
-0.82585478 0.58042026 0.15987605 1 12 -0.044062231
-0.94744682 0.66637075 0.22515462 11 13 -0.044057623
-0.92427564 0.65055627 0.26094323 84 14 -0.044053014
-0.91931218 0.64730233 0.30126539 74 15 -0.044048406
-0.47340584 0.33432242 -0.15529144 70 0 -0.044027671
-0.6761598 0.47768527 0.014450593 5 8 -0.044025365
-0.44559824 0.31491768 -0.12597258 47 1 -0.044023063
-0.73560125 0.51987153 0.047207039 3 9 -0.044020757
-0.90120834 0.63809091 0.17489375 1 12 -0.044006936
-0.93870735 0.66513371 0.22362815 33 13 -0.044002328
-0.92517853 0.65603286 0.26184303 90 14 -0.04399772
-0.91704702 0.65050745 0.30126539 78 15 -0.043993112
-0.46121711 0.32813349 -0.15166797 72 0 -0.043972373
-0.66153669 0.47065112 0.014171354 5 8 -0.043970071
-0.44137615 0.31413367 -0.12507279 48 1 -0.043967769
-0.73378205 0.52243602 0.047207039 3 9 -0.043965463
-0.77430195 0.55189651 0.11675084 2 11 -0.043956246
-0.98260105 0.70088238 0.19116293 9 12 -0.043951638
-0.93809462 0.66938329 0.22400977 46 13 -0.04394703
-0.91824025 0.65569997 0.26049334 94 14 -0.043942422
-0.91948605 0.65707427 0.3028183 76 15 -0.043937813
-0.46797845 0.3352868 -0.15425615 47 0 -0.043917079
-0.67289263 0.48227668 0.014450593 5 8 -0.043914776
-0.44819555 0.32135004 -0.1273223 63 1 -0.04391247
-0.73204553 0.52486652 0.047207039 3 9 -0.043910168
-0.87879348 0.63101208 0.13283759 1 11 -0.043900952
-0.97064513 0.69722235 0.18928573 37 12 -0.043896344
-0.94691122 0.68067527 0.2266811 52 13 -0.043891735
-0.90961808 0.65434921 0.25869372 91 14 -0.043887127
-0.92514229 0.66576189 0.30540648 77 15 -0.043882519
-0.45270714 0.32674283 -0.14959741 73 0 -0.043861784
-0.70047605 0.50557089 0.015078879 4 8 -0.043859478
-0.4487074 0.32397529 -0.1277722 46 1 -0.043857176
-0.73020893 0.52741867 0.047207039 3 9 -0.04385487
-0.91530293 0.66183877 0.13868731 1 11 -0.043845654
-0.96340454 0.69713229 0.18834713 76 12 -0.043841045
-0.94782943 0.68611401 0.22744434 57 13 -0.043836437
-0.90744311 0.65736204 0.25869372 96 14 -0.043831829
-0.91812038 0.66558552 0.30385357 76 15 -0.043827221
-0.45775566 0.33294535 -0.15166797 48 0 -0.04380846
-0.69529575 0.50590378 0.015009069 4 8 -0.043806158
-0.44115791 0.32110846 -0.12597258 47 1 -0.043803852
-0.72827107 0.53009135 0.047207039 3 9 -0.04380155
-0.77945554 0.56776363 0.084366761 1 10 -0.043796942
-0.96248323 0.70159757 0.14624323 5 11 -0.043792333
-0.96722734 0.70531392 0.18959859 100 12 -0.043787725
-0.9325009 0.68049002 0.22439139 60 13 -0.043783117
-0.91750234 0.67003578 0.26229292 96 14 -0.043778509
-0.90787506 0.66324818 0.30126539 79 15 -0.043773901
-0.46126571 0.33796638 -0.15322088 47 0 -0.043753166
-0.70006651 0.51293415 0.015148689 4 8 -0.04375086
-0.44480592 0.32602575 -0.1273223 47 1 -0.043748558
-0.72641617 0.53263044 0.047207039 3 9 -0.043746252
-0.8770619 0.64355904 0.095174067 1 10 -0.043741643
-0.98095459 0.72005576 0.14941183 22 11 -0.043737035
-0.96953547 0.71219426 0.1905372 100 12 -0.043732427
-0.92391104 0.67892843 0.22286493 60 13 -0.043727819
-0.91841531 0.67538375 0.26319274 91 14 -0.043723211
-0.91489011 0.67328316 0.30437121 78 15 -0.043718603
-0.45703337 0.33720031 -0.1521856 72 0 -0.043697868
-0.71436095 0.52724981 0.015497738 3 8 -0.043695565
-0.44052964 0.3252615 -0.12642249 47 1 -0.043693259
-0.78238827 0.5778808 0.050975226 1 9 -0.043690957
-0.90056181 0.66540807 0.097963057 1 10 -0.043686349
-0.94970465 0.70223141 0.14502454 48 11 -0.043681741
-0.95116425 0.70382458 0.18740851 100 12 -0.043677133
-0.9246915 0.6844852 0.22362815 60 13 -0.043672524
-0.9066568 0.67162573 0.26049334 99 14 -0.043667916
-0.92184597 0.68337554 0.30747706 82 15 -0.043663308
-0.46670723 0.34686017 -0.15580907 69 0 -0.043642573
-0.69325894 0.51542282 0.015078879 4 8 -0.043640267
-0.44720998 0.33261207 -0.128672 46 1 -0.043637965
-0.72268009 0.53768861 0.047207039 3 9 -0.043635659
-0.94458371 0.70304549 0.10301808 3 10 -0.043631051
-0.95839185 0.71384275 0.14673071 93 11 -0.043626443
-0.94395024 0.70359862 0.1864699 100 12 -0.043621838
-0.93173993 0.69475031 0.22591786 60 13 -0.04361723
-0.90743059 0.67711711 0.26139313 96 14 -0.043612622
-0.92564631 0.69121289 0.3095476 79 15 -0.043608014
-0.44538921 0.33343619 -0.14907978 73 0 -0.043587275
-0.69145554 0.51783961 0.015078879 4 8 -0.043584973
-0.44760582 0.33533952 -0.1291219 46 1 -0.043582667
-0.77194196 0.57853758 0.050556537 2 9 -0.043580364
-0.96762979 0.72546113 0.10580707 20 10 -0.043575756
-0.96859699 0.72671449 0.14868061 100 11 -0.043571148
-0.93990886 0.70570332 0.18615703 100 12 -0.04356654
-0.93244857 0.70035648 0.2266811 61 13 -0.043561932
-0.91129261 0.684964 0.26319274 96 14 -0.043557324
-0.91087705 0.68514973 0.30540648 77 15 -0.043552715
-0.46118951 0.34778351 -0.1547738 70 0 -0.04353198
-0.67687255 0.51061594 0.014799641 4 8 -0.043529674
-0.45109913 0.34042156 -0.13047162 45 1 -0.043527372
-0.84324342 0.63658363 0.055371448 1 9 -0.04352507
-0.95714182 0.72283077 0.10493552 54 10 -0.043520462
-0.96922177 0.73248488 0.14916809 100 11 -0.043515854
-0.94059074 0.71136302 0.18678276 100 12 -0.043511245
-0.92060411 0.69650024 0.22439139 72 13 -0.043506637
-0.91821796 0.69519871 0.26589215 94 14 -0.043502029
-0.91155952 0.69065809 0.30644175 78 15 -0.043497421
-0.46766448 0.35523403 -0.15736198 69 0 -0.043476686
-0.68463916 0.52023464 0.015009069 4 8 -0.04347438
-0.44525388 0.33845612 -0.1291219 62 1 -0.043472078
-0.98568976 0.74953586 0.064896591 4 9 -0.043469772
-0.96254152 0.73219872 0.10580707 97 10 -0.043465164
-0.95086402 0.72383976 0.14673071 100 11 -0.043460555
-0.9443875 0.71942997 0.18803425 100 12 -0.043455947
-0.91816741 0.6997093 0.22439139 83 13 -0.043451339
-0.91578555 0.6983999 0.26589215 96 14 -0.043446731
-0.91835743 0.70086801 0.3095476 77 15 -0.043442123
-0.4664216 0.35686433 -0.15736198 69 0 -0.043421388
-0.70505041 0.53963673 0.015497738 3 8 -0.043419085
-0.43478599 0.33290023 -0.12642249 63 1 -0.043416779
-0.96721143 0.74082732 0.063849874 20 9 -0.043414477
-0.96788758 0.74161291 0.10667863 100 10 -0.043409869
-0.94990683 0.72836244 0.14697444 100 11 -0.043405261
-0.95127338 0.72993761 0.18991147 100 12 -0.043400653
-0.92194873 0.70769173 0.22591786 81 13 -0.043396045
-0.91025144 0.69921792 0.26499236 99 14 -0.043391436
-0.91437364 0.70289207 0.30902994 84 15 -0.043386828
-0.46364293 0.35731089 -0.15684435 69 0 -0.043366093
-0.70316249 0.54209453 0.015497738 3 8 -0.043363787
-0.45368204 0.34988707 -0.13227122 90 1 -0.043361485
-0.96303838 0.74297881 0.063745201 73 9 -0.043359179
-0.95898384 0.74011779 0.10598138 100 10 -0.043354571
-0.95364302 0.73652714 0.1479494 100 11 -0.043349963
-0.94559354 0.73083776 0.18928573 100 12 -0.043345354
-0.928792 0.71811056 0.22820757 81 13 -0.04334075
-0.90472257 0.70000601 0.26409253 96 14 -0.043336142
-0.91955209 0.71199328 0.31161815 82 15 -0.043331534
-0.45934084 0.35655802 -0.15580907 69 0 -0.043310795
-0.70126581 0.54454595 0.015497738 3 8 -0.043308493
-0.44476315 0.34549114 -0.13002171 46 1 -0.043306187
-0.95886201 0.74511045 0.063640527 100 9 -0.043303885
-0.95010215 0.73856968 0.10528414 100 10 -0.043299276
-0.95890033 0.74594581 0.14916809 100 11 -0.043294668
-0.93680173 0.72928029 0.18803425 100 12 -0.04329006
-0.92937756 0.7237609 0.22897081 81 13 -0.043285452
-0.91610736 0.71394086 0.26814166 100 14 -0.043280844
-0.9140144 0.71282262 0.31058288 77 15 -0.043276235
-0.44287428 0.34626025 -0.15063269 73 0 -0.0432555
-0.74661493 0.58394915 0.016544882 2 8 -0.043253195
-0.44048485 0.3446399 -0.1291219 62 1 -0.043250892
-0.96267784 0.75320905 0.06405922 100 9 -0.043248586
-0.9490872 0.74310982 0.10545845 100 10 -0.043243982
-0.95629048 0.74928874 0.14916809 100 11 -0.043239374
-0.43745863 0.34288815 -0.068246834 8 4 -0.043237068
-0.93593299 0.73360151 0.18834713 100 12 -0.043234766
-0.92375582 0.72457755 0.22820757 81 13 -0.043230157
-0.91514271 0.71833736 0.26859155 94 14 -0.043225549
-0.90556788 0.71107739 0.3085123 82 15 -0.043220941
-0.47353548 0.37290335 -0.16150309 66 0 -0.043200206
-0.75095844 0.59137052 0.016684501 10 8 -0.0431979
-0.44240117 0.34851056 -0.13002171 76 1 -0.043195598
-0.96318012 0.75903726 0.064268559 100 9 -0.043193292
-0.94492298 0.74518448 0.10528414 100 10 -0.043188684
-0.95224208 0.75122601 0.14892435 100 11 -0.043184076
-0.94421971 0.74543196 0.1905372 100 12 -0.043179467
-0.91210377 0.7203359 0.22591786 83 13 -0.043174859
-0.92498684 0.7310347 0.27219078 90 14 -0.043170251
-0.91217172 0.7214244 0.31161815 78 15 -0.043165643
-0.45715865 0.3624692 -0.15632671 69 0 -0.043144908
-0.75985664 0.60268688 0.016928835 9 8 -0.043142606
-0.43812877 0.3476302 -0.1291219 62 1 -0.0431403
-0.95270264 0.7561866 0.063745201 100 9 -0.043137997
-0.95180863 0.75574744 0.10633 100 10 -0.043133389
-0.94650549 0.75207585 0.14843687 100 11 -0.043128781
-0.94470417 0.75118226 0.19116293 100 12 -0.043124173
-0.91880232 0.73084855 0.22820757 81 13 -0.043119565
-0.91023195 0.72454983 0.26859155 94 14 -0.043114956
-0.84004301 0.66891891 -0.018743884 2 7 -0.043112651
-0.92022526 0.73302948 0.31524161 84 15 -0.043110348
-0.45890972 0.36647394 -0.15736198 69 0 -0.043089613
-0.75618589 0.60408753 0.016893929 10 8 -0.043087307
-0.43691269 0.34915733 -0.1291219 46 1 -0.043085005
-0.94693744 0.75701308 0.063535862 100 9 -0.043082699
-0.95694482 0.76528716 0.10720156 100 10 -0.043078091
-0.94387466 0.75537497 0.14843687 100 11 -0.043073483
-0.94361806 0.75571042 0.19147581 100 12 -0.043068875
-0.92543894 0.74141622 0.23049729 83 13 -0.043064266
-0.90769708 0.72772294 0.26859155 99 14 -0.043059662
-0.81586355 0.65433139 -0.018255217 2 7 -0.043057356
-0.91916776 0.73744607 0.31575924 82 15 -0.043055054
-0.44407946 0.35717669 -0.15270324 71 0 -0.043034315
-0.76497871 0.61549819 0.017138263 9 8 -0.043032013
-0.43569115 0.35068044 -0.1291219 46 1 -0.043029707
-0.95375711 0.76766294 0.064163886 100 9 -0.043027405
-0.94806123 0.76362354 0.10650431 100 10 -0.043022797
-0.95668751 0.77112263 0.15087426 100 11 -0.043018188
-0.93341821 0.75263566 0.18991147 100 12 -0.04301358
-0.91978937 0.74217641 0.22973405 81 13 -0.043008972
-0.90363532 0.72966254 0.26814166 100 14 -0.043004364
-0.8354705 0.67462116 -0.018743884 2 7 -0.043002062
-0.91070586 0.73563451 0.3136887 82 15 -0.042999756
-0.44733343 0.36237258 -0.15425615 70 0 -0.042979021
-0.74273354 0.60166818 0.016684501 12 8 -0.042976715
-0.44966626 0.36439237 -0.13362093 88 1 -0.042974412
-0.96038061 0.77853388 0.064791918 100 9 -0.042972106
-0.94384253 0.76567298 0.10633 100 10 -0.042967502
-0.95258361 0.77304012 0.15063052 100 11 -0.042962894
-0.93691891 0.7608704 0.19116293 100 12 -0.042958286
-0.92037076 0.74769831 0.23049729 83 13 -0.042953677
-0.91481954 0.74371874 0.27219078 90 14 -0.042949069
-0.78656811 0.63968247 -0.01769674 2 7 -0.042946763
-0.90513539 0.73637074 0.31265342 79 15 -0.042944461
-0.46559128 0.37972686 -0.16098545 66 0 -0.042923722
-0.75457364 0.61563438 0.016998643 11 8 -0.04292142
-0.43329406 0.35363799 -0.1291219 62 1 -0.042919118
-0.95920426 0.78314465 0.064896591 100 9 -0.042916812
-0.95055699 0.77636075 0.10737588 100 10 -0.042912204
-0.95141643 0.7776168 0.15087426 100 11 -0.042907596
-0.94190264 0.77038944 0.1927273 100 12 -0.042902987
-0.90863842 0.74344707 0.22820757 87 13 -0.042898379
-0.79132664 0.64769298 -0.053592026 1 6 -0.042896077
-0.91824913 0.75184578 0.27399039 88 14 -0.042893771
-0.78433043 0.64242423 -0.01769674 2 7 -0.042891469
-0.91152519 0.74687201 0.31575924 82 15 -0.042889163
-0.46270379 0.38020432 -0.1604678 66 0 -0.042868428
-0.75396514 0.61953419 0.017033549 9 8 -0.042866126
-0.42302445 0.34772363 -0.12642249 63 1 -0.04286382
-0.9502942 0.78141385 0.064477906 100 9 -0.042861518
-0.9523204 0.78363764 0.10789881 100 10 -0.042856909
-0.94716376 0.77967131 0.15063052 100 11 -0.042852301
-0.42907393 0.35332409 -0.068246834 8 4 -0.042849995
-0.94530636 0.77869642 0.19397876 100 12 -0.042847693
-0.9149968 0.75426519 0.23049729 85 13 -0.042843085
-0.74271983 0.61246872 -0.050451867 3 6 -0.042840779
-0.9109776 0.75148588 0.27264068 92 14 -0.042838477
-0.78208327 0.64515799 -0.01769674 2 7 -0.042836171
-0.91785276 0.75742686 0.31886509 82 15 -0.042833868
-0.45690879 0.37812227 -0.15891489 67 0 -0.042813133
-0.75939113 0.62866938 0.017208073 8 8 -0.042810827
-0.43075246 0.35672939 -0.1291219 46 1 -0.042808525
-0.94742358 0.78489184 0.064477906 100 9 -0.042806219
-0.95418143 0.79077089 0.10842174 100 10 -0.042801611
-0.94277155 0.7818706 0.15038678 100 11 -0.042797003
-0.93180549 0.7733252 0.19178867 100 12 -0.042792395
-0.91840047 0.76247078 0.23202376 81 13 -0.042787787
-0.73135871 0.60740113 -0.049823835 4 6 -0.042785484
-0.90535092 0.7521708 0.27174088 94 14 -0.042783178
-0.78894055 0.65568912 -0.017906168 2 7 -0.042780876
-0.91507065 0.7607857 0.31886509 82 15 -0.042778574
-0.45855418 0.38218847 -0.15995018 44 0 -0.042757835
-0.76179957 0.635158 0.017312787 6 8 -0.042755533
-0.44446987 0.37071291 -0.13362093 44 1 -0.042753227
-0.94927883 0.79203254 0.064791918 100 9 -0.042750925
-0.94529694 0.78899008 0.1077245 100 10 -0.042746317
-0.9476546 0.79151922 0.15160547 100 11 -0.042741708
-0.42653468 0.35638532 -0.068246834 8 4 -0.042739403
-0.93213171 0.7791068 0.1924144 100 12 -0.0427371
-0.92175806 0.7707091 0.23355024 83 13 -0.042732492
-0.74455404 0.62276441 -0.050870556 1 6 -0.04273019
-0.90720356 0.7590782 0.2730906 90 14 -0.042727884
-0.74677801 0.62506777 -0.016998643 3 7 -0.042725582
-0.90648454 0.75901461 0.31679454 82 15 -0.042723276
-0.45721728 0.38378683 -0.15995018 44 0 -0.042702541
-0.75957787 0.63781333 0.017312787 6 8 -0.042700235
-0.43720457 0.36724839 -0.13182132 45 1 -0.042697933
-0.95262474 0.8004809 0.065210611 100 9 -0.042695627
-0.94253707 0.79228508 0.1077245 100 10 -0.042691018
-0.94792402 0.79737812 0.15209295 100 11 -0.042686414
-0.93242913 0.78489989 0.19304016 100 12 -0.042681806
-0.90704823 0.76380527 0.23049729 87 13 -0.042677198
-0.75154066 0.6330803 -0.051498584 1 6 -0.042674892
-0.90454847 0.76224005 0.2730906 90 14 -0.042672589
-0.77517039 0.65344781 -0.01769674 2 7 -0.042670283
-0.90382957 0.76217425 0.31679454 79 15 -0.042667981
-0.44112158 0.37290862 -0.1547738 70 0 -0.042647243
-0.74665844 0.63142216 0.017068453 9 8 -0.04264494
-0.43591994 0.36877227 -0.13182132 60 1 -0.042642638
-0.95592308 0.80896217 0.065629296 100 9 -0.042640332
-0.94280702 0.79814494 0.10807312 100 10 -0.042635724
-0.94664949 0.80196524 0.15233669 100 11 -0.042631116
-0.93721747 0.79453689 0.1946045 100 12 -0.042626508
-0.90737116 0.76950651 0.23126051 83 13 -0.042621899
-0.74018824 0.62794721 -0.050870556 1 6 -0.042619597
-0.91228276 0.77421951 0.2762399 94 14 -0.042617291
-0.79117763 0.67168003 -0.018115599 2 7 -0.042614989
-0.90705365 0.7703265 0.31886509 79 15 -0.042612683
-0.46041077 0.39197865 -0.16202073 66 0 -0.042591948
-0.73683786 0.62754184 0.016893929 10 8 -0.042589646
-0.42572972 0.3627089 -0.1291219 62 1 -0.04258734
-0.943973 0.80452091 0.065001264 100 9 -0.042585038
-0.94759595 0.80789423 0.10894467 100 10 -0.042580429
-0.94082409 0.802688 0.15184921 100 11 -0.042575821
-0.94795913 0.80934733 0.19742033 100 12 -0.042571213
-0.91065103 0.77776933 0.23278698 83 13 -0.042566605
-0.73191768 0.6253376 -0.050451867 1 6 -0.042564299
-0.90661192 0.77486706 0.27534011 92 14 -0.042561997
-0.77970886 0.66664046 -0.017906168 2 7 -0.042559691
-0.90729541 0.77599937 0.31990036 82 15 -0.042557389
-0.45317328 0.38855368 -0.15995018 67 0 -0.042536654
-0.74982142 0.64312887 0.017242977 6 8 -0.042534348
-0.43481383 0.37307546 -0.13227122 90 1 -0.042532045
-0.94115889 0.80781114 0.065001264 100 9 -0.042529739
-0.95232832 0.8176868 0.10981624 100 10 -0.042525131
-0.93651086 0.80467355 0.15160547 100 11 -0.042520523
-0.93014985 0.79977262 0.19429164 100 12 -0.042515915
-0.916861 0.78862476 0.23507671 81 13 -0.042511307
-0.7509259 0.64612609 -0.051917274 1 6 -0.042509004
-0.8965168 0.77167058 0.2730906 90 14 -0.042506699
-0.78646934 0.67718697 -0.018115599 2 7 -0.042504396
-0.91629094 0.78924793 0.32404146 79 15 -0.04250209
-0.44450328 0.38382041 -0.15736198 69 0 -0.042482376
-0.7445454 0.6431278 0.017173167 6 8 -0.042480074
-0.42908528 0.3707687 -0.13092151 45 1 -0.042477768
-0.93984437 0.8123976 0.065105937 100 9 -0.042475466
-0.94042587 0.81318665 0.10877036 100 10 -0.042470858
-0.94420397 0.81703019 0.15331164 100 11 -0.042466249
-0.9348191 0.80948013 0.19585598 100 12 -0.042461641
-0.91410255 0.79182041 0.23507671 83 13 -0.042457033
-0.7728166 0.66967046 -0.053592026 1 6 -0.042454727
-0.90412521 0.78373033 0.2762399 94 14 -0.042452425
-0.75992793 0.6589669 -0.017557122 2 7 -0.042450119
-0.90477419 0.78484648 0.32093561 82 15 -0.042447817
-0.44899192 0.39044023 -0.15943255 67 0 -0.042427082
-0.73475224 0.63916057 0.016998643 6 8 -0.042424776
-0.43660879 0.37993982 -0.13362093 73 1 -0.042422473
-0.94754797 0.82485271 0.065838635 100 9 -0.042420167
-0.93758154 0.81646442 0.10877036 100 10 -0.042415559
-0.94433963 0.8229292 0.15379913 100 11 -0.042410951
-0.9304989 0.81143999 0.1955431 100 12 -0.042406343
-0.90837437 0.79242504 0.23431346 81 13 -0.042401735
-0.77047414 0.67236423 -0.053592026 1 6 -0.042399433
-0.90432018 0.78944474 0.27713972 94 14 -0.042397127
-0.78774744 0.68792212 -0.018255217 2 7 -0.042394824
-0.90202928 0.78799981 0.32093561 78 15 -0.042392518
-0.45053294 0.39455059 -0.1604678 66 0 -0.042371783
-0.7400372 0.64831018 0.017173167 6 8 -0.042369481
-0.43528 0.38146144 -0.13362093 59 1 -0.042367175
-0.95367408 0.83605498 0.066466674 100 9 -0.042364873
-0.93772155 0.8223598 0.10911899 100 10 -0.042360265
-0.9399693 0.82491124 0.15355539 100 11 -0.042355657
-0.41770002 0.36670023 -0.068246834 8 4 -0.042353351
-0.93805075 0.82380736 0.19773319 100 12 -0.042351048
-0.90265286 0.79299957 0.23355024 83 13 -0.04234644
-0.76812243 0.6750496 -0.053592026 1 6 -0.042344134
-0.90594977 0.7964564 0.27848941 90 14 -0.042341832
-0.90507483 0.79624784 0.32300618 79 15 -0.042337224
-0.44625521 0.39356524 -0.15943255 67 0 -0.042316489
-0.73327124 0.64692044 0.017068453 7 8 -0.042314183
-0.4310236 0.38039958 -0.13272113 74 1 -0.042311881
-0.9477551 0.83673531 0.066257328 100 9 -0.042309575
-0.94380558 0.83354121 0.11016486 100 10 -0.042304967
-0.93113416 0.82292932 0.15258044 100 11 -0.042300358
-0.93960857 0.83100283 0.1986718 100 12 -0.042295754
-0.90576059 0.80134934 0.23507671 81 13 -0.042291146
-0.90024596 0.79703039 0.27758962 90 14 -0.042286538
-0.90807378 0.80452663 0.32507673 77 15 -0.042281929
-0.4492119 0.39896914 -0.16098545 66 0 -0.042261191
-0.73997802 0.65744519 0.017277883 5 8 -0.042258888
-0.42095354 0.37413433 -0.13002171 46 1 -0.042256583
-0.94198966 0.83721989 0.066047981 100 9 -0.04225428
-0.94089019 0.83683068 0.11016486 100 10 -0.042249672
-0.93567026 0.83277315 0.15379913 100 11 -0.042245064
-0.4151299 0.36960727 -0.068246834 8 4 -0.042242762
-0.9279955 0.82623267 0.19679457 100 12 -0.042240456
-0.90882134 0.80972999 0.23660316 81 13 -0.042235848
-0.89745814 0.80016828 0.27758962 90 14 -0.042231239
-0.87614709 0.78116745 -0.020489125 2 7 -0.042228937
-0.9111678 0.81267715 0.32714728 77 15 -0.042226631
-0.44493666 0.39795896 -0.15995018 67 0 -0.042205896
-0.74375576 0.66522789 0.017417502 4 8 -0.04220359
-0.43132886 0.3859235 -0.13362093 59 1 -0.042201288
-0.94352609 0.84449887 0.066361994 100 9 -0.042198986
-0.93944752 0.84143913 0.11033916 100 10 -0.042194378
-0.94177425 0.84381944 0.15526156 100 11 -0.042189769
-0.9265765 0.83078569 0.19710746 100 12 -0.042185161
-0.90613097 0.81273955 0.23660316 81 13 -0.042180553
-0.89770037 0.80574304 0.27848941 90 14 -0.042175945
-0.89970231 0.8081072 0.32404146 79 15 -0.042171337
-0.44217885 0.39813963 -0.15943255 67 0 -0.042150602
-0.75331575 0.67852664 0.01769674 4 8 -0.042148296
-0.43866563 0.39525345 -0.13632034 43 1 -0.042145994
-0.94220448 0.84895998 0.066466674 100 9 -0.042143688
-0.93221289 0.84054744 0.10981624 100 10 -0.042139079
-0.94471824 0.8524211 0.15623651 100 11 -0.042134471
-0.41260445 0.37242442 -0.068246834 8 4 -0.042132169
-0.93408102 0.84311885 0.19929753 100 12 -0.042129863
-0.90037483 0.81326556 0.23583993 81 13 -0.042125255
-0.90355617 0.81671238 0.28118882 88 14 -0.042120647
-0.89701754 0.8110863 0.32404146 79 15 -0.042116039
-0.45080429 0.40876439 -0.16305602 65 0 -0.042095304
-0.71995246 0.65281308 0.016963739 4 8 -0.042093001
-0.42291841 0.38361338 -0.13182132 75 1 -0.042090695
-0.94515151 0.85761243 0.06688536 100 9 -0.042088393
-0.9307484 0.84513539 0.10999054 100 10 -0.042083785
-0.93894756 0.85287988 0.15574904 100 11 -0.042079177
-0.41136715 0.37379062 -0.068246834 8 4 -0.042076871
-0.93551773 0.85036016 0.20023614 100 12 -0.042074569
-0.90057802 0.81888837 0.23660316 81 13 -0.04206996
-0.90372604 0.8223269 0.28208864 88 14 -0.042065352
-0.89989448 0.81941515 0.32611203 78 15 -0.042060744
-0.44231215 0.40374503 -0.1604678 66 0 -0.042040009
-0.73686635 0.67285115 0.017417502 4 8 -0.042037703
-0.43020976 0.39297304 -0.13452074 58 1 -0.042035401
-0.93920326 0.85821182 0.066676013 100 9 -0.042033095
-0.93823469 0.85762691 0.11121072 100 10 -0.042028487
-0.93157047 0.85213268 0.15501782 100 11 -0.042023879
-0.41005993 0.37522417 -0.068246834 8 4 -0.042021576
-0.93837196 0.85895592 0.20148762 100 12 -0.04201927
-0.90060997 0.82467878 0.23736641 81 13 -0.042014666
-0.75405812 0.69072449 -0.053592026 1 6 -0.04201236
-0.89222932 0.81757742 0.27938923 90 14 -0.042010058
-0.90272397 0.82777387 0.32818255 77 15 -0.04200545
-0.45220578 0.41582435 -0.16460893 64 0 -0.041984711
-0.74334496 0.68354046 0.01762693 4 8 -0.041982409
-0.4288353 0.39447248 -0.13452074 58 1 -0.041980103
-0.93914139 0.86418968 0.06688536 100 9 -0.0419778
-0.93801612 0.86375952 0.11155935 100 10 -0.041973192
-0.93735081 0.86344868 0.15648025 100 11 -0.041968584
-0.40874767 0.37665331 -0.068246834 8 4 -0.041966282
-0.93536788 0.86222631 0.20148762 100 12 -0.041963976
-0.90768266 0.83729213 0.24003772 76 13 -0.041959368
-0.75152123 0.69348383 -0.053592026 1 6 -0.041957065
-0.88922673 0.82084221 0.27938923 90 14 -0.04195476
-0.90550619 0.83616239 0.33025309 77 15 -0.041950151
-0.4479166 0.41477519 -0.16357364 64 0 -0.041929416
-0.74083465 0.6862604 0.01762693 3 8 -0.04192711
-0.42452791 0.39339238 -0.13362093 59 1 -0.041924808
-0.93889689 0.87034178 0.067094706 100 9 -0.041922502
-0.93061274 0.86296409 0.11103641 100 10 -0.041917898
-0.9370898 0.86957932 0.15696773 100 11 -0.04191329
-0.93220156 0.86564863 0.20148762 100 12 -0.041908681
-0.90763116 0.84312785 0.24080098 76 13 -0.041904073
-0.74909592 0.69610292 -0.053592026 1 6 -0.041901767
-0.89492005 0.83190173 0.28208864 86 14 -0.041899465
-0.89960647 0.83684409 0.32921785 77 15 -0.041894857
-0.44505313 0.41501868 -0.16305602 65 0 -0.041874122
-0.72527438 0.67656589 0.017312787 2 8 -0.041871816
-0.42030263 0.39221281 -0.13272113 89 1 -0.041869514
-0.94315314 0.88042843 0.067618065 100 9 -0.041867208
-0.45780709 0.42736048 -0.12173614 10 2 -0.041864906
-0.92322612 0.86212778 0.11051348 100 10 -0.0418626
-0.94710207 0.88504326 0.15916139 100 11 -0.041857991
-0.92917395 0.8688975 0.20148762 100 12 -0.041853383
-0.89894766 0.84092617 0.2392745 76 13 -0.041848775
-0.74666172 0.69871336 -0.053592026 1 6 -0.041846473
-0.89201045 0.83502072 0.28208864 86 14 -0.041844167
-0.89527023 0.83865827 0.32870021 76 15 -0.041839559
-0.44078523 0.41392481 -0.16202073 66 0 -0.041818824
-0.7272808 0.6832009 0.017417502 3 8 -0.041816521
-0.42745152 0.40168467 -0.13542055 72 1 -0.041814215
-0.9431392 0.88628668 0.067827404 100 9 -0.041811913
-0.45631263 0.42895582 -0.12173614 10 2 -0.041809607
-0.9318226 0.87626445 0.11190797 100 10 -0.041807305
-0.93244201 0.87746042 0.15721147 100 11 -0.041802697
-0.40471447 0.38098362 -0.068246834 8 4 -0.041800391
-0.93491757 0.88009775 0.20336483 100 12 -0.041798089
-0.89171988 0.84002018 0.23812963 78 13 -0.041793481
-0.74421817 0.70131546 -0.053592026 1 6 -0.041791175
-0.89476228 0.8434763 0.28388825 88 14 -0.041788872
-0.89388961 0.8429479 0.32921785 78 15 -0.041784264
-0.44916308 0.42475235 -0.1656442 63 0 -0.041763529
-0.73518169 0.69522667 0.017661836 3 8 -0.041761223
-0.42045462 0.39774293 -0.13362093 88 1 -0.041758921
-0.93713856 0.88682765 0.067618065 100 9 -0.041756615
-0.48332742 0.45753956 -0.1293685 9 2 -0.041754313
-0.93309802 0.88362199 0.11243091 100 10 -0.041752007
-0.92808598 0.87918258 0.15696773 100 11 -0.041747399
-0.94044113 0.89151013 0.20524204 100 12 -0.04174279
-0.89605218 0.84972727 0.24003772 74 13 -0.041738182
-0.7418884 0.70377952 -0.053592026 1 6 -0.04173588
-0.89478737 0.84912163 0.28478804 90 14 -0.041733578
-0.8937434 0.84872365 0.33025309 77 15 -0.04172897
-0.45334893 0.43156749 -0.16771474 62 0 -0.041708231
-0.74433553 0.70882076 0.017941073 3 8 -0.041705929
-0.43035147 0.40996137 -0.13722014 57 1 -0.041703623
-0.93114555 0.88733786 0.067408718 100 9 -0.041701321
-0.43916968 0.41850799 -0.11791997 10 2 -0.041699015
-0.93448931 0.89083505 0.11295383 100 10 -0.041696712
-0.93219304 0.8892678 0.15818642 100 11 -0.041692104
-0.40211183 0.38372964 -0.068246834 8 4 -0.041689798
-0.93017948 0.88796729 0.2036777 100 12 -0.041687496
-0.89450055 0.85420585 0.24041936 83 13 -0.041682888
-0.83185536 0.79466075 -0.06029103 1 6 -0.041680586
-0.88336486 0.84416157 0.28208864 90 14 -0.04167828
-0.89915228 0.85984945 0.33335894 77 15 -0.041673671
-0.44207782 0.42378911 -0.16409127 43 0 -0.041652936
-0.76494956 0.73355991 0.018499551 3 8 -0.041650631
-0.43454292 0.4168573 -0.13901976 56 1 -0.041648328
-0.9338066 0.89611423 0.067827404 100 9 -0.041646022
-0.43487304 0.41731972 -0.11715673 10 2 -0.04164372
-0.92849922 0.89133239 0.11260521 100 10 -0.041641418
-0.9391042 0.90214294 0.15989259 100 11 -0.04163681
-0.92422605 0.88847089 0.20305197 100 12 -0.041632202
-0.90000385 0.86548805 0.24270906 83 13 -0.041627593
-0.88602948 0.85264504 0.28388825 88 14 -0.041622985
-0.88779646 0.85494244 0.33025309 78 15 -0.041618377
-0.4350363 0.41996282 -0.16202073 88 0 -0.041597638
-0.78108412 0.7542842 0.018953314 3 8 -0.041595336
-0.43308517 0.41837162 -0.13901976 56 1 -0.041593034
-0.93785429 0.90630782 0.06835077 100 9 -0.041590728
-0.45035502 0.4352065 -0.12173614 20 2 -0.041588426
-0.9253822 0.89456809 0.11260521 100 10 -0.04158612
-0.94022983 0.90955597 0.1606238 100 11 -0.041581511
-0.92537683 0.89581341 0.20399056 100 12 -0.041576903
-0.89415652 0.86589283 0.2419458 78 13 -0.041572295
-0.89144439 0.86386955 0.28658766 82 14 -0.041567687
-0.95480108 0.92558968 -0.023211701 2 7 -0.041565385
-0.88619357 0.85938114 0.33077076 76 15 -0.041563079
-0.45018998 0.43763784 -0.16823238 100 0 -0.041542344
-0.90747058 0.88247669 0.022094747 6 8 -0.041540042
-0.42044759 0.40901002 -0.13542055 87 1 -0.041537736
-0.94327289 0.91793376 0.068978801 100 9 -0.041535433
-0.46290302 0.45046806 -0.12555233 19 2 -0.041533127
-0.92939216 0.9047417 0.11347678 100 10 -0.041530825
-0.934205 0.91006225 0.16013633 100 11 -0.041526217
-0.9279024 0.90455347 0.20524204 100 12 -0.041521609
-0.88831735 0.86626744 0.24118258 85 13 -0.041517001
-0.92070585 0.89816546 -0.067408718 1 6 -0.041514695
-0.88842368 0.8669759 0.28658766 90 14 -0.041512392
-0.9558571 0.93310755 -0.023316415 23 7 -0.041510087
-0.88871676 0.86786813 0.33284131 76 15 -0.041507784
-0.43899617 0.42974681 -0.16460893 64 0 -0.041487049
-0.93867421 0.91921747 0.022932461 27 8 -0.041484743
-0.42458558 0.41592997 -0.13722014 57 1 -0.041482441
-0.93293053 0.9142313 0.068455435 100 9 -0.041480135
-0.44730565 0.43834007 -0.12173614 10 2 -0.041477833
-0.93049687 0.91216439 0.11399971 100 10 -0.041475527
-0.9267714 0.90914732 0.15940511 100 11 -0.041470919
-0.92755836 0.91055495 0.20586778 100 12 -0.041466311
-0.89089119 0.87486523 0.24270906 81 13 -0.041461702
-0.91329074 0.89717454 -0.067094706 3 6 -0.0414594
-0.87983191 0.86460841 0.28478804 88 14 -0.041457094
-0.9540202 0.93784034 -0.023351319 19 7 -0.041454792
-0.8925693 0.87773752 0.33542949 77 15 -0.04145249
-0.45125109 0.44483861 -0.16978529 61 0 -0.041431751
-0.93261218 0.9196803 0.022862652 60 8 -0.041429449
-0.42313102 0.41740963 -0.13722014 85 1 -0.041427143
-0.92831212 0.91607922 0.06835077 100 9 -0.041424841
-0.44018331 0.43438277 -0.12020968 10 2 -0.041422535
-0.92730713 0.91540694 0.11399971 100 10 -0.041420233
-0.92782903 0.9165619 0.16013633 100 11 -0.041415624
-0.9201597 0.90962094 0.20492917 100 12 -0.041411016
-0.89341593 0.8834914 0.24423553 83 13 -0.041406408
-0.93855119 0.92844969 -0.06918814 8 6 -0.041404106
-0.88096404 0.87178659 0.28613773 92 14 -0.0414018
-0.94363511 0.93413037 -0.023176797 25 7 -0.041399498
-0.89499038 0.88628542 0.33750004 77 15 -0.041397192
-0.44558251 0.44232804 -0.16823238 62 0 -0.041376457
-0.94074768 0.93420261 0.023141891 80 8 -0.041374151
-0.43134919 0.42849776 -0.14036946 82 1 -0.041371848
-0.93360895 0.92776108 0.068978801 100 9 -0.041369542
-0.44144949 0.43868434 -0.1209729 20 2 -0.04136724
-0.92551881 0.92004311 0.11417402 100 10 -0.041364934
-0.93166077 0.92679513 0.16135503 100 11 -0.04136033
-0.92117918 0.9170081 0.20586778 100 12 -0.041355722
-0.89310884 0.88937527 0.24499875 83 13 -0.041351113
-0.92681468 0.92326283 -0.068560109 20 6 -0.041348808
-0.88205689 0.8789829 0.28748745 88 14 -0.041346505
-0.94886601 0.94588929 -0.023386225 59 7 -0.041344199
-0.87821198 0.875763 0.33232367 78 15 -0.041341897
-0.44403574 0.44388074 -0.16823238 62 0 -0.041321158
-0.93041098 0.9304108 0.022967368 100 8 -0.041318856
-0.43260628 0.43275726 -0.14126927 81 1 -0.041316554
-0.93036467 0.93101424 0.068978801 100 9 -0.041314248
-0.43713999 0.43744519 -0.12020968 10 2 -0.041311946
-0.91948569 0.9204489 0.1138254 100 10 -0.04130964
-0.9312247 0.93285125 0.1618425 100 11 -0.041305032
-0.92355293 0.92581207 0.20711927 100 12 -0.041300423
-0.88722605 0.88970727 0.24423553 85 13 -0.041295815
-0.9306367 0.93356466 -0.069083467 27 6 -0.041293513
-0.88173437 0.88481724 0.28838724 90 14 -0.041291207
-0.95261455 0.95627946 -0.023560748 85 7 -0.041288905
-0.88196564 0.88566744 0.33491185 74 15 -0.041286599
-0.43567619 0.4385753 -0.1656442 63 0 -0.041265864
-0.92574835 0.93223387 0.022932461 100 8 -0.041263562
-0.42010981 0.42320067 -0.13767006 85 1 -0.041261256
-0.93695706 0.94418001 0.069711499 100 9 -0.041258954
-0.45773661 0.4612653 -0.12631556 9 2 -0.041256648
-0.92187971 0.9293108 0.11452264 100 10 -0.041254345
-0.92097521 0.92904729 0.1606238 100 11 -0.041249737
-0.92448616 0.93324029 0.20805787 100 12 -0.041245129
-0.88135231 0.89000869 0.24347228 81 13 -0.041240521
-0.92175186 0.93112993 -0.068664782 8 6 -0.041238215
-0.88001114 0.8892749 0.28883713 94 14 -0.041235913
-0.9492709 0.95959872 -0.023560748 100 7 -0.041233607
-0.88430214 0.89423525 0.3369824 76 15 -0.041231304
-0.43956935 0.44559461 -0.16771474 62 0 -0.041210569
-0.92670101 0.9397313 0.023037177 100 8 -0.041208263
-0.41589391 0.42188889 -0.13677025 86 1 -0.041205961
-0.9336555 0.94744492 0.069711499 100 9 -0.041203655
-0.43407542 0.4404864 -0.12020968 10 2 -0.041201353
-0.92282486 0.93678123 0.11504558 100 10 -0.041199047
-0.92051178 0.93508577 0.16111128 100 11 -0.041194439
-0.92122287 0.93646175 0.20805787 100 12 -0.041189831
-0.60779428 0.6178484 -0.075825498 5 5 -0.041187529
-0.88374645 0.89867902 0.24499875 83 13 -0.041185223
-0.88489234 0.90015846 -0.066152655 1 6 -0.04118292
-0.87690157 0.89234126 0.28883713 94 14 -0.041180614
-0.94311279 0.96005344 -0.023490939 100 7 -0.041178312
-0.88388246 0.90007329 0.3380177 76 15 -0.041176006
-0.44214571 0.45118922 -0.16926767 41 0 -0.041066647
-0.92497891 0.94422764 0.023072081 94 8 -0.041064344
-0.41858298 0.42744267 -0.13811995 56 1 -0.041062038
-0.92771423 0.94768137 0.06950216 100 9 -0.041059736
-0.43810579 0.4475351 -0.12173614 20 2 -0.04105743
-0.9294678 0.94980425 0.11626577 100 10 -0.041055128
-0.92295736 0.94381016 0.16208623 100 11 -0.04105052
-0.91811252 0.9395113 0.20805787 100 12 -0.041045912
-0.62802243 0.64265996 -0.078614481 4 5 -0.041043606
-0.88899273 0.91003084 0.24728847 85 13 -0.041041303
-0.85399419 0.87450927 -0.06405922 1 6 -0.041038997
-0.87665999 0.8980335 0.28973696 94 14 -0.041036695
-0.93014753 0.95315748 -0.023246605 53 7 -0.041034389
-0.88763773 0.90991372 0.34060588 78 15 -0.041032087
-0.43517885 0.44719183 -0.16719711 62 0 -0.041011352
-0.93004376 0.95605069 0.023281511 65 8 -0.041009046
-0.42252275 0.43448952 -0.13991956 69 1 -0.041006744
-0.92718482 0.95377815 0.069711499 100 9 -0.041004438
-0.45022559 0.46313888 -0.12555233 9 2 -0.041002136
-0.91920435 0.94589859 0.1153942 100 10 -0.04099983
-0.92380613 0.95129853 0.16281746 100 11 -0.040995222
-0.91207588 0.93987542 0.20743214 100 12 -0.040990613
-0.62300009 0.64198875 -0.078265861 4 5 -0.040988311
-0.88854474 0.9159469 0.2480517 85 13 -0.040986005
-0.90933424 0.93770432 -0.068455435 1 6 -0.040983703
-0.87894565 0.9066847 0.29153654 99 14 -0.040981397
-0.95743024 0.98799121 -0.024014512 26 7 -0.040979095
-0.87504727 0.90329355 0.3369824 73 15 -0.040976789
-0.43227279 0.44731891 -0.16667947 63 0 -0.040956054
-0.91280717 0.9449091 0.022932461 39 8 -0.040953752
-0.42371082 0.43876547 -0.14081937 68 1 -0.040951446
-0.92801154 0.96131945 0.070025519 100 9 -0.040949143
-0.41860828 0.43363285 -0.11715673 21 2 -0.040946838
-0.91589689 0.94910139 0.1153942 100 10 -0.040944535
-0.92736989 0.96166182 0.16403615 100 11 -0.040939927
-0.91290164 0.94732058 0.20837073 92 12 -0.040935319
-0.6041649 0.62694365 -0.076174118 5 5 -0.040933013
-0.88261807 0.91621482 0.24728847 83 13 -0.040930711
-0.8866595 0.92073196 -0.066990033 1 6 -0.040928405
-0.87847835 0.91255522 0.29243636 92 14 -0.040926103
-0.94426984 0.98124093 -0.023770178 50 7 -0.0409238
-0.87322789 0.90773493 0.33750004 79 15 -0.040921494
-0.43605912 0.45440054 -0.16875002 61 0 -0.040900759
-0.91227168 0.95097607 0.023002272 23 8 -0.040898453
-0.41678151 0.43461564 -0.13901976 70 1 -0.040896151
-0.93294305 0.97320366 0.070653543 100 9 -0.040893845
-0.43339533 0.45209825 -0.12173614 30 2 -0.040891543
-0.91809201 0.95804691 0.11609145 100 10 -0.040889237
-0.92126137 0.96202564 0.16354866 100 11 -0.040884629
-0.91778409 0.95906442 0.21024795 82 12 -0.040880024
-0.64054328 0.66935384 -0.081054844 3 5 -0.040877718
-0.87670034 0.91645294 0.24652523 83 13 -0.040875416
-0.98282713 1.0277513 -0.074526407 1 6 -0.04087311
-0.88336736 0.92406774 0.29513577 96 14 -0.040870808
-0.94222033 0.98597682 -0.023805084 76 7 -0.040868502
-0.87806064 0.91915905 0.34060588 78 15 -0.0408662
-0.43313757 0.45452139 -0.16823238 62 0 -0.040845461
-0.91584325 0.96139383 0.023176797 33 8 -0.040843159
-0.41794965 0.43889025 -0.13991956 69 1 -0.040840853
-0.92403185 0.9706679 0.070234857 100 9 -0.040838551
-0.44535109 0.46782804 -0.12555233 19 2 -0.040836245
-0.92298341 0.9699055 0.11713732 100 10 -0.040833943
-0.91379356 0.96092033 0.16281746 100 11 -0.040829334
-0.91715223 0.9651261 0.21087368 68 12 -0.040824726
-0.64918274 0.6831398 -0.082449332 3 5 -0.040822424
-0.88431305 0.93089497 0.24957818 85 13 -0.040820118
-0.92284507 0.97179627 -0.070234857 6 6 -0.040817816
-0.87476969 0.92149228 0.29333615 96 14 -0.04081551
-0.94427866 0.99506217 -0.023944702 94 7 -0.040813208
-0.87484676 0.9222185 0.34060588 82 15 -0.040810902
-0.44349894 0.4686591 -0.17289113 59 0 -0.040790167
-0.91110754 0.96313226 0.023141891 47 8 -0.040787861
-0.4164151 0.44034651 -0.13991956 69 1 -0.040785559
-0.91926587 0.97243619 0.070130184 100 9 -0.040783256
-0.42887983 0.45368621 -0.12135453 30 2 -0.04078095
-0.91959214 0.97312146 0.11713732 100 10 -0.040778648
-0.91588569 0.96987712 0.16379242 100 11 -0.04077404
-0.91513336 0.96975833 0.21118654 63 12 -0.040769432
-0.75345361 0.79842776 -0.096045621 1 5 -0.040767126
-0.88105816 0.93397611 0.24957818 85 13 -0.040764824
-0.92492855 0.98082381 -0.070653543 11 6 -0.040762518
-0.87154746 0.92454046 0.29333615 92 14 -0.040760215
-0.93394238 0.99107563 -0.023770178 100 7 -0.040757909
-0.87957042 0.93370348 0.3437117 82 15 -0.040755607
-0.42995384 0.45753419 -0.16823238 62 0 -0.040734872
-0.92416966 0.98379642 0.023560748 68 8 -0.040732566
-0.43088359 0.45884416 -0.14531837 65 1 -0.040730264
-0.92287236 0.9827587 0.070653543 100 9 -0.040727958
-0.43401203 0.46233749 -0.12326261 19 2 -0.040725656
-0.91618973 0.97632551 0.11713732 100 10 -0.04072335
-0.92064184 0.98175639 0.16525485 100 11 -0.040718742
-0.91191244 0.97278774 0.21118654 63 12 -0.040714134
-0.88144863 0.94061965 -0.11277953 1 5 -0.040711831
-0.88584596 0.94564241 0.25186789 87 13 -0.040709525
-0.92422956 0.9869622 -0.070862897 19 6 -0.040707223
-0.87364191 0.93326777 0.29513577 92 14 -0.040704917
-0.93065065 0.99416727 -0.023770178 100 7 -0.040702615
-0.87646931 0.93661517 0.3437117 79 15 -0.040700309
-0.4336262 0.46468186 -0.17030294 60 0 -0.040679574
-0.91953784 0.98539376 0.023525843 78 8 -0.040677272
-0.41872534 0.44887066 -0.14171916 68 1 -0.040674966
-0.92488456 0.99181724 0.071072236 100 9 -0.040672664
-0.43373418 0.46528566 -0.12364423 39 2 -0.040670358
-0.91141802 0.97805983 0.116963 100 10 -0.040668055
-0.92008722 0.98770905 0.16574231 100 11 -0.040663447
-0.91254938 0.98030251 0.21212517 57 12 -0.040658839
-0.87680274 0.94223195 -0.11260521 2 5 -0.040656533
-0.8773554 0.94282585 0.25034142 85 13 -0.040654231
-0.91959125 0.98855937 -0.070758224 7 6 -0.040651925
-0.8758505 0.94186813 0.29693538 99 14 -0.040649623
-0.92989784 1.0003389 -0.023839988 100 7 -0.04064732
-0.86793435 0.9340083 0.34164116 79 15 -0.040645014
-0.43602285 0.47036761 -0.17185585 60 0 -0.04062428
-0.9120152 0.98419708 0.023421129 98 8 -0.040621974
-0.41450724 0.4474704 -0.14081937 68 1 -0.040619671
-0.92141688 0.99503958 0.071072236 100 9 -0.040617365
-0.42551926 0.45951897 -0.12173614 30 2 -0.040615063
-0.91764379 0.99131167 0.11818319 100 10 -0.040612757
-0.91258997 0.98654306 0.16501111 100 11 -0.040608149
-0.90778071 0.98203158 0.2118123 52 12 -0.040603541
-0.85609168 0.92611468 -0.11033916 2 5 -0.040601239
-0.87139422 0.94299895 0.24957818 81 13 -0.040598936
-0.93104243 1.0079014 -0.071909614 25 6 -0.04059663
-0.88049001 0.95350963 0.29963478 94 14 -0.040594328
-0.93453854 1.012395 -0.024049416 100 7 -0.040592022
-0.87252933 0.94555074 0.34474698 79 15 -0.04058972
-0.44353697 0.48183608 -0.17547932 100 0 -0.040568981
-0.91940665 0.99914658 0.023700368 100 8 -0.040566679
-0.41558132 0.45178306 -0.14171916 68 1 -0.040564373
-0.91793805 0.99824971 0.071072236 100 9 -0.040562071
-0.42524162 0.46244657 -0.12211777 30 2 -0.040559765
-0.91552615 0.99597561 0.11835749 100 10 -0.040557463
-0.90779805 0.98826045 0.16476737 100 11 -0.040552855
-0.9096905 0.99101532 0.21306378 55 12 -0.040548246
-0.87845278 0.956985 -0.11365108 2 5 -0.040545944
-0.87340671 0.95182115 0.25110465 85 13 -0.040543638
-0.92481822 1.0082016 -0.071700267 45 6 -0.040541336
-0.86925393 0.94795948 0.29693538 96 14 -0.04053903
-0.93640375 1.0215473 -0.024189034 100 7 -0.040536728
-0.87183368 0.95143932 0.34578225 82 15 -0.040534422
-0.43012175 0.47054824 -0.17082058 60 0 -0.040513687
-0.91995984 1.0067787 0.023805084 100 8 -0.040511381
-0.41794473 0.45754734 -0.14306886 80 1 -0.040509079
-0.91714144 1.0043977 0.071281582 100 9 -0.040506773
-0.43421537 0.47552633 -0.12517071 28 2 -0.04050447
-0.91607344 1.0035802 0.11888044 100 10 -0.040502168
-0.91236943 1.0002228 0.1662298 100 11 -0.04049756
-0.89957207 0.98688525 0.21149944 57 12 -0.040492952
-0.8722558 0.95725274 -0.11330246 2 5 -0.040490646
-0.88065749 0.96647316 0.25415757 81 13 -0.040488344
-0.92532814 1.0158533 -0.07201428 46 6 -0.040486038
-0.86593962 0.95098799 0.29693538 94 14 -0.040483736
-0.92340964 1.0144582 -0.023944702 100 7 -0.04048143
-0.87890851 0.96590769 0.34992337 79 15 -0.040479127
-0.42449972 0.46782959 -0.16926767 61 0 -0.040458392
-0.92181516 1.0159074 0.023944702 100 8 -0.040456086
-0.42420056 0.46766388 -0.14576827 91 1 -0.040453784
-0.91631299 1.0105522 0.071490921 100 9 -0.040451478
-0.4271954 0.47129625 -0.12364423 39 2 -0.040449176
-0.91105145 1.0054544 0.11870612 100 10 -0.04044687
-0.91553551 1.010758 0.16744849 100 11 -0.040442262
-0.88949376 0.98269647 0.20993507 55 12 -0.040437654
-0.74993515 0.8288058 -0.097788744 1 5 -0.040435351
-0.87710899 0.96969467 0.25415757 85 13 -0.040433045
-0.91891986 1.0162748 -0.071804941 12 6 -0.040430743
-0.87028861 0.96282959 0.29963478 99 14 -0.040428437
-0.92522663 1.0236093 -0.024084322 100 7 -0.040426135
-0.87035078 0.96323633 0.34785283 77 15 -0.040423829
-0.41898456 0.46500289 -0.16771474 62 0 -0.040403094
-0.91808546 1.0192791 0.023944702 100 8 -0.040400792
-0.42509145 0.472112 -0.14666808 90 1 -0.040398486
-0.92079818 1.0226502 0.072118953 100 9 -0.040396184
-0.42817461 0.47570291 -0.12440747 29 2 -0.040393878
-0.90487075 1.0056661 0.11835749 100 10 -0.040391576
-0.91447943 1.017059 0.16793597 100 11 -0.040386967
-0.88473749 0.98432624 0.2096222 51 12 -0.040382359
-0.61121243 0.68025148 -0.080008969 3 5 -0.040380053
-0.87109518 0.96982908 0.25339437 81 13 -0.040377751
-0.8966856 0.99867094 -0.070339531 1 6 -0.040375445
-0.87212914 0.97166264 0.3014344 94 14 -0.040373143
-0.92298353 1.0283209 -0.024119226 100 7 -0.040370837
-0.86440301 0.96339244 0.34681752 82 15 -0.040368535
-0.42379957 0.47366112 -0.17030294 60 0 -0.0403478
-0.90936673 1.0163571 0.023805084 100 8 -0.040345494
-0.41053203 0.458994 -0.14216907 81 1 -0.040343191
-0.92254806 1.0318136 0.072537638 100 9 -0.040340886
-0.41866162 0.46841192 -0.12211777 40 2 -0.040338583
-0.90799189 1.0162476 0.11922905 100 10 -0.040336277
-0.90713465 1.0156443 0.16720475 100 11 -0.040331669
-0.88392669 0.99035639 0.21024795 57 12 -0.040327061
-0.58230561 0.65264738 -0.076522738 5 5 -0.040324759
-0.86787438 0.97271246 0.25339437 83 13 -0.040322453
-0.87408966 0.9803676 0.30323401 96 14 -0.040317848
-0.92471075 1.0375075 -0.024258846 100 7 -0.040315542
