# .PCD v0.7 - Point Cloud Data file format
VERSION 0.7
FIELDS x y z intensity ring time
SIZE 4 4 4 4 2 4
TYPE F F F F U F
COUNT 1 1 1 1 1 1
WIDTH 968
HEIGHT 1
VIEWPOINT 0 0 0 1 0 0 0
POINTS 968
DATA ascii
2.7118394 4.500792 1.4079756 13 15 -0.0028539849
2.1804926 3.6075215 -1.1294864 9 0 -0.002833249
5.130641 8.4884014 0.17312786 100 8 -0.002830945
2.5833576 4.2723579 -1.1526492 1 1 -0.0028286409
10.190598 16.846592 1.0318558 50 9 -0.0028263368
3.2027798 5.2925854 -1.2024784 9 2 -0.0028240329
7.4909711 12.373935 1.2655014 26 10 -0.0028217288
4.2945695 7.0939703 -1.313424 1 3 -0.002819425
5.8769102 9.7039413 1.3929666 34 11 -0.0028171209
5.0886216 8.399004 -1.2057754 73 4 -0.0028148168
4.3330956 7.149157 1.3240615 8 12 -0.0028125129
5.0947709 8.4025421 -0.8597042 70 5 -0.0028102088
3.6613765 6.0385189 1.3726799 19 13 -0.002807905
5.1345925 8.4648771 -0.51885873 57 6 -0.0028056009
3.4695952 5.7177157 1.544064 33 14 -0.0028032968
5.1645637 8.5075979 -0.17372125 60 7 -0.0028009929
3.1005633 5.1055508 1.6005371 41 15 -0.0027986888
2.1964619 3.6068711 -1.1315569 11 0 -0.0027779527
5.168561 8.4841032 0.17340712 100 8 -0.0027756488
2.5921695 4.2533307 -1.1499498 1 1 -0.002773345
10.16118 16.672852 1.0232726 50 9 -0.0027710409
3.2203116 5.2819362 -1.2024784 9 2 -0.0027687368
7.5309234 12.347326 1.2653271 23 10 -0.0027664327
5.1115546 8.3773603 -1.5543331 1 3 -0.0027641288
5.9117842 9.6850605 1.3932104 35 11 -0.002761825
5.1220455 8.387969 -1.2067504 76 4 -0.0027595209
4.3711905 7.1583529 1.3284416 11 12 -0.0027572168
5.1350732 8.406003 -0.86179596 72 5 -0.0027549127
4.0888634 6.6907558 1.5241823 20 13 -0.0027526089
5.1682749 8.4537201 -0.51927745 51 6 -0.002750305
3.2719443 5.3498039 1.447785 13 14 -0.0027480009
5.1979671 8.4989538 -0.17389578 45 7 -0.0027456968
3.1154594 5.0919456 1.5995017 13 15 -0.0027433927
2.2140911 3.607415 -1.1341451 17 0 -0.0027226568
5.2092175 8.4873695 0.17382596 100 8 -0.0027203527
2.6184947 4.2646399 -1.1553485 1 1 -0.0027180489
10.133604 16.497728 1.0146896 50 9 -0.002715745
3.2387311 5.2706618 -1.2024784 9 2 -0.0027134409
7.5802364 12.331149 1.2663729 19 10 -0.0027111368
5.1413746 8.3637304 -1.5549588 1 3 -0.0027088327
5.941792 9.6620197 1.392723 32 11 -0.0027065289
5.1581569 8.3844624 -1.2087002 73 4 -0.002704225
4.3992558 7.1480975 1.3293802 10 12 -0.0027019209
5.1706538 8.3982058 -0.86284184 70 5 -0.0026996168
5.2098989 8.4586411 -0.52063817 52 6 -0.0026950089
3.2365077 5.2526526 1.4243901 1 14 -0.002692705
5.2255058 8.4773512 -0.17382596 58 7 -0.0026904009
3.1403136 5.0925488 1.6031252 15 15 -0.0026880968
2.2179127 3.5869083 -1.130004 14 0 -0.00266695
5.2524896 8.4912415 0.17427972 94 8 -0.0026646459
2.6354172 4.2587872 -1.1562485 1 1 -0.002662342
10.117529 16.343388 1.0073626 53 9 -0.0026600379
3.2479205 5.2465401 -1.1994255 14 2 -0.0026577341
7.6252856 12.312719 1.2670702 19 10 -0.00265543
5.1955085 8.3860331 -1.5624677 2 3 -0.0026531259
5.9848876 9.6564102 1.3949165 30 11 -0.002650822
5.1978512 8.3832769 -1.2111377 75 4 -0.002648518
4.4252234 7.134376 1.3296931 11 12 -0.0026462141
5.2062383 8.3902645 -0.86388773 70 5 -0.00264391
3.6912754 5.9487815 1.3608499 9 13 -0.0026416059
5.2520313 8.4607668 -0.52189422 52 6 -0.0026393021
3.2301514 5.2015901 1.4135925 1 14 -0.002636998
5.2698412 8.4828386 -0.17431465 57 7 -0.0026346941
3.1529713 5.0733533 1.6005371 35 15 -0.00263239
2.226959 3.5721962 -1.1279335 14 0 -0.0026116539
5.285274 8.4779444 0.17438444 100 8 -0.00260935
2.6482038 4.2462554 -1.1553485 1 1 -0.0026070459
10.09946 16.18766 0.99993086 59 9 -0.0026047421
3.2702506 5.2395949 -1.2005702 14 2 -0.002602438
7.6682496 12.281309 1.2667215 23 10 -0.0026001339
5.2262082 8.3669357 -1.5624677 2 3 -0.00259783
6.0238194 9.643877 1.3961353 35 11 -0.0025955259
5.2418122 8.388649 -1.21455 73 4 -0.0025932221
4.4637108 7.1406617 1.3337604 11 12 -0.002590918
5.2376051 8.3754196 -0.8642363 70 5 -0.0025886139
3.7130558 5.9352117 1.3608499 37 13 -0.00258631
5.2978382 8.4651632 -0.5233596 58 6 -0.0025840059
3.2419543 5.1781545 1.4104432 1 14 -0.0025817021
5.3089638 8.4796495 -0.17462878 67 7 -0.002579398
2.8107328 4.4876475 1.4188461 15 15 -0.0025770939
2.2383847 3.5627668 -1.1274159 14 0 -0.002556358
5.3226943 8.4686756 0.17459388 100 8 -0.0025540539
2.6554523 4.2233224 -1.1517494 1 1 -0.00255175
10.0783 16.028875 0.99228984 50 9 -0.002549446
3.300015 5.2464304 -1.2047681 9 2 -0.0025471421
7.7153201 12.26121 1.2674187 23 10 -0.002544838
5.2638025 8.3620138 -1.5649706 1 3 -0.0025425339
6.0548916 9.615016 1.3951604 35 11 -0.0025402301
5.2799277 8.3811388 -1.2162561 73 4 -0.002537926
4.493876 7.1333928 1.3353248 11 12 -0.0025356221
5.2816834 8.380682 -0.86667669 70 5 -0.002533318
3.957813 6.277616 1.4425161 23 13 -0.0025310139
5.3316193 8.4533758 -0.52377832 60 6 -0.0025287101
3.235054 5.1272511 1.3996454 1 14 -0.002526406
5.3470702 8.4745941 -0.17490801 66 7 -0.0025241021
3.1914039 5.0561199 1.6020899 37 15 -0.002521798
2.2518418 3.5565631 -1.1279335 9 0 -0.0025010619
5.3582344 8.4628057 0.17483822 78 8 -0.002498758
2.6725721 4.2194314 -1.1530992 2 1 -0.0024964539
10.048668 15.858633 0.9839161 56 9 -0.0024941501
3.309901 5.2216129 -1.2017151 11 2 -0.002491846
7.7666116 12.247663 1.2688133 28 10 -0.0024895419
5.3063159 8.3678665 -1.5693507 2 3 -0.002487238
6.0846186 9.5915298 1.3946729 32 11 -0.0024849339
5.3130088 8.3719654 -1.2174748 73 4 -0.0024826301
4.5049868 7.0959821 1.3312575 22 12 -0.002480326
5.3215847 8.379014 -0.86841983 70 5 -0.0024780219
4.1996446 6.6124816 1.5226558 39 13 -0.002475718
5.3714027 8.4541931 -0.5249297 56 6 -0.0024734139
5.3916388 8.4795027 -0.17539668 66 7 -0.002468806
3.2111087 5.0482082 1.6031252 39 15 -0.0024665019
2.2677796 3.5555906 -1.130004 15 0 -0.002445766
5.4103289 8.4794531 0.1755712 100 8 -0.0024434619
2.6883302 4.2117209 -1.153549 1 1 -0.0024411581
10.0255 15.700573 0.97627503 65 9 -0.002438854
3.3187468 5.1973696 -1.1986622 11 2 -0.0024365501
7.8125443 12.230237 1.2696848 28 10 -0.002434246
5.343997 8.3626118 -1.5718536 2 3 -0.0024319419
6.1244802 9.580266 1.3961353 32 11 -0.0024296381
5.3496881 8.3650742 -1.2191811 73 4 -0.002427334
4.5382404 7.0935278 1.3337604 36 12 -0.0024250299
5.3622251 8.3814631 -0.87051159 68 5 -0.002422726
4.2428107 6.6291986 1.5299066 44 13 -0.0024204219
5.4181137 8.4623032 -0.52660441 55 6 -0.0024181181
3.3402987 5.2150598 1.4297889 16 14 -0.002415814
5.4190493 8.457263 -0.17532688 70 7 -0.0024135099
3.2318399 5.0418472 1.6046782 37 15 -0.002411206
2.2739093 3.5379026 -1.1268982 12 0 -0.0023904699
5.4442229 8.4672422 0.17571084 100 8 -0.002388166
2.7030165 4.2023106 -1.153549 1 1 -0.0023858619
10.012153 15.55967 0.96968073 51 9 -0.0023835581
3.3368678 5.1857543 -1.1986622 14 2 -0.002381254
7.8584204 12.20792 1.2702078 28 10 -0.0023789499
5.3913393 8.3721399 -1.5771725 2 3 -0.002376646
6.1589575 9.5604992 1.396379 30 11 -0.0023743419
5.3896065 8.3630352 -1.2216184 73 4 -0.0023720381
4.5586944 7.0710015 1.3325089 41 12 -0.002369734
5.3957696 8.3693905 -0.87120879 70 5 -0.0023674299
3.7615492 5.8323059 1.3490196 31 13 -0.002365126
5.4627771 8.466836 -0.52806985 56 6 -0.0023628219
3.337348 5.1706214 1.4207909 18 14 -0.0023605181
5.4572177 8.4517326 -0.17560612 68 7 -0.002358214
3.1582251 4.8893566 1.5596437 18 15 -0.0023559099
2.2862444 3.5299439 -1.1268982 14 0 -0.002335174
5.4791851 8.4565763 0.17588535 100 8 -0.0023328699
2.7134283 4.1863093 -1.1517494 2 1 -0.0023305661
9.9887362 15.410741 0.96245837 57 9 -0.002328262
3.3549483 5.1740756 -1.1986622 9 2 -0.0023259581
7.8283448 12.06842 1.2585289 26 10 -0.002323654
5.4237542 8.358242 -1.5781111 2 3 -0.0023213499
6.1858048 9.5289526 1.3949165 16 11 -0.0023190461
5.4328237 8.3658133 -1.224787 76 4 -0.002316742
4.5939536 7.0740666 1.3359504 62 12 -0.0023144381
5.4292917 8.3571892 -0.87190604 71 5 -0.002312134
5.557621 8.5481825 -0.53435016 51 6 -0.0023075261
3.6996253 5.6882305 1.5665591 5 14 -0.002305222
5.5124664 8.475502 -0.17647873 61 7 -0.0023029181
2.9162946 4.4821362 1.4328223 15 15 -0.002300614
2.2996092 3.5235596 -1.1274159 14 0 -0.0022798779
5.5334263 8.4785519 0.17672306 91 8 -0.002277574
2.7113161 4.1528111 -1.1450008 2 1 -0.0022752699
9.9769421 15.275445 0.95617801 63 9 -0.0022729661
3.3794329 5.1721931 -1.2009518 11 2 -0.002270662
7.8148265 11.955968 1.249639 23 10 -0.0022683579
5.4492822 8.3369026 -1.5774853 1 3 -0.002266054
6.2597413 9.5731812 1.4044224 3 11 -0.0022637499
5.4735742 8.3676872 -1.2277118 69 4 -0.0022614461
4.6510673 7.1075778 1.3453366 41 12 -0.002259142
5.478075 8.3681908 -0.87504369 71 5 -0.0022568379
3.776427 5.7687888 1.3402424 4 13 -0.002254534
5.6121964 8.5698071 -0.53686231 52 6 -0.00225223
3.7227409 5.6824498 1.5683587 40 14 -0.0022499259
5.6899972 8.6819954 -0.18119089 42 7 -0.002247622
3.1999061 4.8806701 1.5637847 11 15 -0.0022453179
2.3112822 3.5159137 -1.1274159 12 0 -0.002224582
5.6596766 8.6062155 0.17979468 57 8 -0.0022222779
2.7375765 4.1612306 -1.1499498 2 1 -0.0022199741
9.9511518 15.120402 0.94864166 60 9 -0.00221767
3.3857746 5.1445575 -1.1971357 9 2 -0.0022153659
7.965086 12.098064 1.2672445 28 10 -0.002213062
4.6373644 7.0409565 -1.3353248 1 3 -0.0022107579
6.2527127 9.4899397 1.3954041 9 11 -0.0022084541
5.5191345 8.3733931 -1.2313679 24 4 -0.00220615
4.7182565 7.1556163 1.3575385 53 12 -0.0022038459
5.5299225 8.3865738 -0.87887847 52 5 -0.002201542
3.7878942 5.7424603 1.3371896 2 13 -0.0021992379
5.6101737 8.5018234 -0.53382683 45 6 -0.0021969341
3.7371845 5.6612897 1.5661093 43 14 -0.00219463
5.6828036 8.6053438 -0.18000412 41 7 -0.0021923259
3.227571 4.8855906 1.5689611 9 15 -0.002190022
2.3288739 3.5158772 -1.130004 13 0 -0.0021692859
5.6631761 8.5464001 0.17895699 63 8 -0.002166982
2.7606978 4.1646442 -1.153549 1 1 -0.0021646779
9.9288092 14.97239 0.94152397 57 9 -0.0021623741
3.4037106 5.1327085 -1.1971357 14 2 -0.00216007
8.0292988 12.10339 1.2707307 21 10 -0.0021577659
5.5401206 8.348032 -1.5868714 1 3 -0.002155462
6.2967772 9.4845943 1.3978415 29 11 -0.002153158
5.4978127 8.2780085 -1.220156 33 4 -0.0021508541
4.7333689 7.1242938 1.3547227 10 12 -0.00214855
5.5172677 8.3041563 -0.87225467 49 5 -0.0021462459
3.7992208 5.7161236 1.3341365 13 13 -0.0021439421
5.6099615 8.4372816 -0.53100067 51 6 -0.002141638
3.3813403 5.0835505 1.4095433 20 14 -0.0021393341
5.6684947 8.5188637 -0.17860793 39 7 -0.00213703
3.3099058 4.9723902 1.6005371 35 15 -0.0021347259
2.3346972 3.4980865 -1.1268982 13 0 -0.00211399
5.6607709 8.4783506 0.17794473 60 8 -0.0021116859
2.7741373 4.1533608 -1.1530992 8 1 -0.0021093821
9.9144316 14.838001 0.93524361 63 9 -0.002107078
3.4216056 5.1207967 -1.1971357 11 2 -0.0021047741
8.1135693 12.138234 1.2773546 12 10 -0.00210247
5.5066376 8.2350454 -1.5690379 1 3 -0.0021001659
6.338675 9.4757586 1.3997915 26 11 -0.0020978621
5.5222573 8.2521687 -1.2191811 84 4 -0.002095558
4.7549105 7.1028047 1.353784 1 12 -0.0020932541
5.5295939 8.2600136 -0.86963999 64 5 -0.00209095
3.8224294 5.7077193 1.3352814 21 13 -0.0020886459
5.6104774 8.3745031 -0.52827919 56 6 -0.0020863421
3.7766166 5.6350613 1.5661093 42 14 -0.002084038
5.6547689 8.4342461 -0.17724663 46 7 -0.0020817341
3.0463867 4.542057 1.4654335 20 15 -0.00207943
2.3404243 3.4802971 -1.1237923 12 0 -0.0020586939
5.656848 8.408762 0.1768976 68 8 -0.00205639
2.7799149 4.1307173 -1.1494999 9 1 -0.002054086
9.8947763 14.697271 0.92854464 63 9 -0.0020517819
3.4438441 5.1153369 -1.1986622 9 2 -0.002049478
8.1202784 12.056954 1.2717766 16 10 -0.0020471739
5.5530119 8.2419844 -1.5740438 1 3 -0.0020448701
6.3761487 9.4601603 1.4007664 24 11 -0.002042566
5.5610189 8.2476549 -1.2213746 70 4 -0.0020402619
4.803978 7.1221905 1.3606671 13 12 -0.002037958
5.5639658 8.2489195 -0.87051159 70 5 -0.0020356539
4.373817 6.4820161 1.5199846 23 13 -0.0020333501
5.6229124 8.3300371 -0.52670908 62 6 -0.002031046
3.7995369 5.6266885 1.567459 47 14 -0.0020287419
5.6763339 8.4028606 -0.1770023 66 7 -0.002026438
3.3477838 4.9539633 1.6020899 39 15 -0.0020241339
2.3601451 3.4833012 -1.1274159 14 0 -0.002003398
5.6839199 8.3856564 0.17682779 86 8 -0.0020010939
2.7910352 4.1161504 -1.1481502 8 1 -0.0019987901
9.8877211 14.576692 0.92310166 66 9 -0.001996486
3.4616802 5.1032834 -1.1986622 9 2 -0.0019941819
8.1623192 12.028535 1.2717766 26 10 -0.001991878
5.5728707 8.2094765 -1.5715408 1 3 -0.0019895739
6.4057889 9.4329176 1.4000351 24 11 -0.0019872701
5.6009321 8.2446117 -1.2238121 72 4 -0.001984966
4.8432422 7.1266184 1.3647344 55 12 -0.0019826619
5.6061625 8.2492218 -0.87260324 68 5 -0.001980358
4.397522 6.4683318 1.5203662 23 13 -0.0019780539
5.6564512 8.3169641 -0.5271278 68 6 -0.0019757501
3.8246341 5.6214476 1.5697085 43 14 -0.001973446
5.7123847 8.3929129 -0.17721173 68 7 -0.0019711419
3.1312973 4.5989242 1.4907978 30 15 -0.001968838
2.3712013 3.4734452 -1.1268982 12 0 -0.0019481019
5.7221766 8.3789759 0.17710702 86 8 -0.0019457981
2.8097847 4.1128187 -1.1499498 9 1 -0.001943494
9.8619137 14.429956 0.91598397 66 9 -0.00194119
3.4861209 5.1008935 -1.2009518 9 2 -0.001938886
8.2064962 12.003264 1.2721252 26 10 -0.0019365819
5.6282597 8.229105 -1.5790497 1 3 -0.0019342781
6.4341955 9.403945 1.3990601 24 11 -0.001931974
5.6375198 8.2364807 -1.2255182 61 4 -0.00192967
5.6484332 8.2493277 -0.874695 66 5 -0.0019250619
4.4278421 6.4642792 1.5230374 25 13 -0.0019227581
5.6978607 8.3152962 -0.52827919 51 6 -0.001920454
3.4156289 4.982801 1.3946966 15 14 -0.00191815
5.7574806 8.3960094 -0.1777004 67 7 -0.001915846
3.1353076 4.5704446 1.4851037 80 15 -0.0019135419
2.3855004 3.4683311 -1.1279335 12 0 -0.001892806
5.7661276 8.3803654 0.17756079 81 8 -0.0018905019
2.8329601 4.115829 -1.153549 9 1 -0.0018881981
9.8394918 14.295177 0.90949428 57 9 -0.001885894
3.4905434 5.0692902 -1.1963725 11 2 -0.00188359
8.2619114 11.994232 1.2742169 26 10 -0.001881286
5.6771274 8.2386847 -1.5846813 1 3 -0.0018789819
6.4759932 9.3945036 1.40101 26 11 -0.001876678
5.6681843 8.2226429 -1.2262495 72 4 -0.001874374
4.7862263 6.9406238 1.3353248 10 12 -0.00187207
5.6907725 8.2492399 -0.87678677 66 5 -0.001869766
3.8571429 5.5891614 1.3200166 38 13 -0.0018674619
5.7450094 8.3216524 -0.52995396 71 6 -0.001865158
3.4288111 4.9666362 1.3933468 15 14 -0.001862854
5.7875671 8.3801594 -0.17777021 68 7 -0.0018605499
3.1757038 4.5965781 1.4970094 48 15 -0.001858246
2.3925879 3.4540496 -1.125863 15 0 -0.0018375099
5.806417 8.3792772 0.17794473 86 8 -0.0018352061
2.8321612 4.0855908 -1.1477003 6 1 -0.001832902
9.8254023 14.173829 0.90384203 63 9 -0.001830598
3.5140457 5.067368 -1.1986622 7 2 -0.001828294
8.2675743 11.917656 1.2689875 21 10 -0.0018259899
5.6999063 8.2133255 -1.5834299 1 3 -0.0018236861
6.5161653 9.3860235 1.4029599 26 11 -0.001821382
5.7123995 8.2282619 -1.2299055 73 4 -0.001819078
4.8069644 6.9214678 1.334699 7 12 -0.001816774
5.7226391 8.2368717 -0.87748402 63 5 -0.0018144699
3.880137 5.5827894 1.3215431 40 13 -0.0018121661
5.5981326 8.0516567 -0.51393914 42 6 -0.001809862
3.8768945 5.5760422 1.5679089 42 14 -0.001807558
5.8221741 8.3707733 -0.17797965 68 7 -0.001805254
3.327745 4.7826562 1.5611964 18 15 -0.0018029499
2.397398 3.4365892 -1.1227571 12 0 -0.001782214
5.8410363 8.3698168 0.17815416 76 8 -0.0017799099
2.8557329 4.0905581 -1.1517494 1 1 -0.001777606
9.8039198 14.037921 0.89735234 57 9 -0.001775302
3.5274599 5.0508575 -1.1975174 7 2 -0.001772998
8.2944956 11.872211 1.2670702 23 10 -0.001770694
5.7406893 8.213809 -1.5871843 1 3 -0.0017683899
6.5518074 9.3708687 1.403935 22 11 -0.001766086
5.7524667 8.2245369 -1.232343 51 4 -0.001763782
4.8424149 6.9208336 1.3378277 7 12 -0.0017614779
5.7590585 8.2309113 -0.87887847 61 5 -0.001759174
5.502224 7.8579922 -0.50273925 50 6 -0.001754566
3.9030395 5.5720553 1.5706083 45 14 -0.001752262
5.8651271 8.3700514 -0.17839849 67 7 -0.0017499579
3.1470375 4.4894323 1.469057 1 15 -0.0017476541
2.416045 3.4376824 -1.125863 15 0 -0.0017269179
5.8771162 8.3591928 0.17836359 100 8 -0.0017246141
2.8699956 4.0805645 -1.1517494 1 1 -0.00172231
9.7942514 13.920304 0.89201415 66 9 -0.001720006
3.5541079 5.0513573 -1.2005702 4 2 -0.001717702
8.3462048 11.857849 1.268639 21 10 -0.0017153979
5.7784257 8.2066402 -1.5896872 1 3 -0.0017130941
6.576479 9.3365803 1.4022288 24 11 -0.00171079
5.7960033 8.2255039 -1.2355115 40 4 -0.001708486
4.8836174 6.9281063 1.3425208 11 12 -0.001706182
5.8026791 8.231926 -0.88114458 59 5 -0.0017038779
4.5120373 6.3985891 1.5218927 22 13 -0.0017015741
5.4766593 7.7636647 -0.49792436 59 6 -0.00169927
3.9269619 5.564765 1.5724078 45 14 -0.001696966
5.9104557 8.3723974 -0.17888717 66 7 -0.001694662
3.1158841 4.4121437 1.4473162 1 15 -0.0016923579
2.4280276 3.4292297 -1.125863 15 0 -0.001671622
5.91782 8.3549442 0.17871265 100 8 -0.0016693179
2.8752098 4.0577998 -1.1481502 1 1 -0.001667014
9.7711639 13.785012 0.88552445 66 9 -0.00166471
3.5717154 5.0389228 -1.2005702 4 2 -0.001662406
8.4301891 11.888776 1.2750885 23 10 -0.001660102
5.8207541 8.2057533 -1.5934417 1 3 -0.001657798
6.6044273 9.3070955 1.4012538 29 11 -0.001655494
5.8315768 8.2149324 -1.236974 66 4 -0.00165319
4.9924092 7.0301986 1.3656731 55 12 -0.001650886
5.8431988 8.2252197 -0.88271332 60 5 -0.0016485819
5.4586062 7.681006 -0.49384215 56 6 -0.001643974
3.4585731 4.8648872 1.3780502 22 14 -0.00164167
5.9581861 8.3777895 -0.17944564 67 7 -0.001639366
3.1111085 4.3729053 1.4379987 3 15 -0.0016370619
2.4450696 3.4265971 -1.1279335 14 0 -0.001616326
5.9597225 8.3521423 0.17909659 91 8 -0.001614022
2.8961489 4.0572562 -1.1508496 1 1 -0.001611718
9.7542305 13.659798 0.87966281 66 9 -0.001609414
3.5833142 5.0162125 -1.1982806 4 2 -0.00160711
8.4818144 11.869147 1.2763087 26 10 -0.001604806
5.873765 8.2165051 -1.599699 1 3 -0.001602502
6.6391869 9.2872133 1.4017414 29 11 -0.001600198
5.8694568 8.2074423 -1.2389238 67 4 -0.001597894
4.9651966 6.940434 1.351594 50 12 -0.00159559
5.8846273 8.2225971 -0.8846308 64 5 -0.0015932859
3.9119954 5.4642148 1.3062785 26 13 -0.001590982
5.4692755 7.6365914 -0.49227205 59 6 -0.001588678
3.4956739 4.8791094 1.3856986 7 14 -0.001586374
5.9897208 8.3601923 -0.17951545 66 7 -0.00158407
3.1049728 4.3321843 1.4281635 16 15 -0.0015817659
2.4502494 3.4086299 -1.1248276 15 0 -0.00156103
6.0054736 8.351347 0.17955035 100 8 -0.001558726
2.922379 4.0624342 -1.1553485 1 1 -0.001556422
9.7446985 13.546223 0.87453395 69 9 -0.001554118
3.5893359 4.9877372 -1.1944643 4 2 -0.001551814
8.5220327 11.837849 1.2761344 23 10 -0.0015495099
5.8977904 8.1895399 -1.5984476 1 3 -0.001547206
6.6789856 9.2708683 1.4029599 26 11 -0.001544902
5.9169068 8.2100325 -1.2425799 64 4 -0.001542598
4.9928603 6.9278669 1.3525326 57 12 -0.001540294
5.6697693 7.8642297 -0.84819967 52 5 -0.0015379899
3.9494188 5.4760041 1.3123844 15 13 -0.001535686
5.4725289 7.5850577 -0.49017861 66 6 -0.001533382
3.9780016 5.51158 1.5692586 40 14 -0.001531078
6.0305724 8.3554468 -0.17986451 70 7 -0.001528774
3.1065047 4.302525 1.4219519 3 15 -0.0015264699
2.4576015 3.3937969 -1.1227571 13 0 -0.001505734
6.0425167 8.3443451 0.1798296 100 8 -0.00150343
2.9175436 4.0274692 -1.1481502 1 1 -0.001501126
9.7286415 13.42479 0.86888164 69 9 -0.001498822
3.6182468 4.9910741 -1.1982806 4 2 -0.001496518
8.5668087 11.812869 1.2766573 17 10 -0.0014942139
5.968987 8.2307034 -1.6103365 1 3 -0.00149191
6.7096901 9.2486706 1.4029599 11 11 -0.001489606
5.9557581 8.2064323 -1.2450173 61 4 -0.001487302
5.0007629 6.8880172 1.3481523 20 12 -0.001484998
5.6128893 7.7283196 -0.83564925 51 5 -0.0014826939
3.9664013 5.4612899 1.3120028 3 13 -0.00148039
3.4967239 4.8110638 1.3731012 7 14 -0.001475782
6.0714593 8.3505201 -0.18021354 71 7 -0.001473478
3.1271849 4.2994671 1.42454 1 15 -0.0014711739
2.4665668 3.3825059 -1.1217217 13 0 -0.0014504379
6.0763187 8.3296642 0.17996921 86 8 -0.001448134
2.9315856 4.0172596 -1.1481502 1 1 -0.00144583
9.7118893 13.308558 0.86343873 71 9 -0.001443526
3.6185734 4.9568477 -1.1929379 4 2 -0.001441222
8.6129827 11.794051 1.2777032 27 10 -0.0014389179
6.7419353 9.2251911 1.4029599 24 11 -0.00143431
6.0031099 8.211235 -1.2489171 63 4 -0.001432006
5.0189128 6.8650198 1.3469009 12 12 -0.001429702
5.5914426 7.6453347 -0.82867676 52 5 -0.0014273979
3.97385 5.4315658 1.3081865 1 13 -0.001425094
6.0701799 8.2938566 -0.53864175 67 6 -0.00142279
3.5088928 4.7925382 1.3713017 5 14 -0.001420486
6.1109333 8.3464737 -0.1805626 70 7 -0.001418182
3.5420957 4.8361163 1.6062311 20 15 -0.001415878
2.4875073 3.3863313 -1.125863 15 0 -0.0013951419
6.1299548 8.344923 0.18073712 55 8 -0.001392838
2.9448903 4.0075169 -1.1481502 1 1 -0.001390534
9.68612 13.176415 0.85705376 66 9 -0.00138823
3.6428313 4.9536762 -1.1952276 4 2 -0.001385926
8.658824 11.770331 1.2784004 27 10 -0.0013836219
5.0298972 6.8373666 -1.344398 1 3 -0.001381318
6.7701349 9.1995869 1.4024725 26 11 -0.001379014
6.0361934 8.1992741 -1.2501358 67 4 -0.00137671
5.0323043 6.8331409 1.344085 1 12 -0.001374406
5.5779142 7.5712328 -0.82275021 52 5 -0.0013721019
3.9767008 5.3978109 1.3032255 15 13 -0.001369798
6.105947 8.284934 -0.53937441 65 6 -0.001367494
3.5675526 4.838912 1.3879479 1 14 -0.00136519
6.1590195 8.3508425 -0.18112107 70 7 -0.001362886
3.5658357 4.8330507 1.609337 26 15 -0.001360582
2.500463 3.3791802 -1.1263806 14 0 -0.001338482
6.1759639 8.3432951 0.18119089 57 8 -0.001336178
2.9502807 3.9841683 -1.1445509 1 1 -0.0013338741
9.6738129 13.063876 0.85192472 71 9 -0.00133157
3.648416 4.9251537 -1.1914115 4 2 -0.001329266
8.7093449 11.752843 1.2797949 30 10 -0.001326962
4.9961028 6.7395411 -1.3287545 1 3 -0.001324658
6.8061752 9.1778994 1.4029599 24 11 -0.0013223541
6.0827651 8.1994133 -1.2535481 51 4 -0.00132005
5.0396504 6.7933207 1.3397049 3 12 -0.001317746
5.5674996 7.5021191 -0.81734651 56 5 -0.001315442
3.966032 5.3422132 1.2933035 23 13 -0.0013131381
6.1577086 8.2913599 -0.54125851 71 6 -0.001310834
3.5376146 4.7616696 1.3695021 58 14 -0.00130853
6.1976705 8.3421345 -0.1814003 67 7 -0.001306226
3.5942094 4.8360782 1.6145133 3 15 -0.001303922
2.5053136 3.3611395 -1.1232747 16 0 -0.001283186
6.2406425 8.3724728 0.18227293 100 8 -0.001280882
2.9844453 4.0024824 -1.1526492 1 1 -0.0012785781
9.6536798 12.941976 0.84616786 69 9 -0.001276274
3.6702788 4.918685 -1.1929379 4 2 -0.00127397
8.7550869 11.728754 1.2804921 27 10 -0.001271666
5.0018835 6.7007737 -1.3243743 1 3 -0.0012693621
6.8460732 9.168005 1.40491 24 11 -0.0012670581
6.412858 8.5847425 -1.3157015 60 4 -0.001264754
5.0597844 6.7709427 1.3387663 18 12 -0.00126245
6.5611224 8.7768202 -0.95871317 60 5 -0.001260146
3.9907775 5.3384676 1.2955931 31 13 -0.0012578421
6.5380206 8.7427435 -0.5721367 72 6 -0.001255538
4.0798573 5.4536591 1.5724078 45 14 -0.001253234
6.620944 8.8471813 -0.19288401 63 7 -0.00125093
3.2579513 4.3518224 1.4566337 30 15 -0.001248626
2.5141275 3.3497224 -1.1222395 16 0 -0.00122789
6.5868058 8.7728052 0.1914878 100 8 -0.001225586
2.9820149 3.9702251 -1.1463506 1 1 -0.0012232821
9.6484041 12.841136 0.84177166 74 9 -0.001220978
3.692467 4.9143329 -1.1948459 7 2 -0.001218674
8.793931 11.699658 1.2804921 30 10 -0.00121637
5.0252447 6.6832719 -1.3243743 1 3 -0.0012140661
6.8839984 9.1519852 1.4061285 27 11 -0.001211762
5.0833902 6.7532382 1.3387663 47 12 -0.001207154
6.5961843 8.7629709 -0.95958471 49 5 -0.00120485
4.0282826 5.3495989 1.301699 13 13 -0.0012025461
6.6454101 8.8219652 -0.57883573 83 6 -0.001200242
4.1035619 5.4456086 1.5742074 45 14 -0.001197938
6.6915078 8.8767128 -0.19403586 76 7 -0.001195634
3.5685606 4.7322054 1.5881137 48 15 -0.00119333
2.5269709 3.3424664 -1.1227571 12 0 -0.001172594
6.6125665 8.7433786 0.1913482 100 8 -0.0011702901
3.0005555 3.9660103 -1.1481502 1 1 -0.0011679861
9.6317024 12.726155 0.83643329 71 9 -0.001165682
3.7036767 4.8935866 -1.1929379 4 2 -0.001163378
8.8443413 11.681597 1.2818867 30 10 -0.001161074
5.1248689 6.7664738 -1.344398 1 3 -0.0011587701
6.9147058 9.1263151 1.4058849 26 11 -0.0011564661
5.7735748 7.6174407 -1.1736019 3 4 -0.001154162
5.1021538 6.7291594 1.3375148 25 12 -0.001151858
4.738625 6.2474356 1.5241823 24 13 -0.0011472501
6.689446 8.8162155 -0.57998711 81 6 -0.001144946
4.1307898 5.4421206 1.5773568 35 14 -0.001142642
6.7393842 8.8755951 -0.19452453 76 7 -0.001140338
3.5359805 4.655108 1.566373 20 15 -0.001138034
2.5397909 3.3351638 -1.1232747 16 0 -0.001117298
6.6551614 8.7361517 0.19169722 100 8 -0.0011149941
3.0143821 3.9555111 -1.1481502 1 1 -0.00111269
9.6179466 12.616215 0.8314091 74 9 -0.001110386
3.7243075 4.8853111 -1.1940827 7 2 -0.001108082
8.8886852 11.655407 1.2824095 30 10 -0.001105778
5.0621915 6.6354642 -1.3218714 1 3 -0.0011034741
6.9417067 9.095809 1.40491 29 11 -0.00110117
6.4000168 8.3830004 -1.2949837 12 4 -0.001098866
5.1208181 6.7050281 1.3362634 5 12 -0.001096562
5.9038029 7.7302423 -0.85098869 6 5 -0.001094258
4.7723246 6.2464557 1.5279986 23 13 -0.0010919541
6.7298803 8.8055067 -0.58082449 82 6 -0.00108965
4.1947398 5.4864945 1.5944531 6 14 -0.001087346
6.775187 8.8583679 -0.19466414 73 7 -0.001085042
3.3890357 4.429472 1.4944212 52 15 -0.001082738
2.557297 3.3339415 -1.125863 13 0 -0.001062002
6.6880536 8.7160387 0.19176705 100 8 -0.0010596981
3.0186777 3.9325991 -1.1445509 1 1 -0.0010573941
9.5974483 12.498612 0.82586145 71 9 -0.00105509
3.7233989 4.8489261 -1.1883584 4 2 -0.001052786
8.9305334 11.625886 1.2825838 27 10 -0.001050482
5.0516195 6.5738969 -1.3131109 1 3 -0.0010481781
6.9818764 9.0825443 1.4066161 29 11 -0.0010458741
6.3747873 8.289794 -1.2840155 28 4 -0.00104357
5.9258933 7.7032681 -0.85029143 6 5 -0.001038962
4.7917008 6.2266507 1.5272354 3 13 -0.001036658
6.7703247 8.7946205 -0.58166188 82 6 -0.001034354
3.5991466 4.6735868 1.3618537 13 14 -0.00103205
6.8133831 8.8441734 -0.19487357 76 7 -0.001029746
3.6721661 4.7649636 1.611925 46 15 -0.001027442
2.5594711 3.3127639 -1.1217217 15 0 -0.001006706
6.7269955 8.7037163 0.19201139 100 8 -0.0010044021
3.0419235 3.9343705 -1.1481502 1 1 -0.001002098
9.58848 12.397099 0.82136059 74 9 -0.00099979399
3.7451081 4.8421106 -1.1898849 4 2 -0.00099749002
8.9734964 11.597795 1.2829325 22 10 -0.00099518604
5.0745378 6.556222 -1.3131109 1 3 -0.00099288207
7.0159712 9.0612545 1.4071035 30 11 -0.00099057797
5.5904598 7.2175784 -1.1209544 11 4 -0.000988274
5.1287861 6.6191473 1.3262516 8 12 -0.00098597002
5.9478631 7.6762371 -0.84959412 8 5 -0.00098366605
4.0821357 5.2664542 1.2952114 10 13 -0.00098136207
6.4117947 8.2690182 -0.5483762 36 6 -0.00097905798
3.5975215 4.6378989 1.3551052 43 14 -0.000976754
6.8589268 8.8392935 -0.19529243 75 7 -0.00097445003
3.6804857 4.7414327 1.6083016 46 15 -0.00097214605
2.5722051 3.305335 -1.1222395 16 0 -0.00095141004
6.7462783 8.6659813 0.19169722 100 8 -0.00094910606
3.0556395 3.9237273 -1.1481502 1 1 -0.00094680203
9.5789127 12.295806 0.81685966 79 9 -0.000944498
3.7619865 4.8290091 -1.1898849 7 2 -0.00094219402
9.0126982 11.564832 1.2827581 15 10 -0.00093989004
5.116827 6.5633941 -1.318117 1 3 -0.00093758601
7.0524397 9.0429726 1.4080786 29 11 -0.00093528198
6.3238282 8.1057949 -1.2623228 45 4 -0.000932978
5.1615844 6.6136603 1.3287545 42 12 -0.00093067402
5.626493 7.2093587 -0.80008972 6 5 -0.00092837005
4.0739136 5.2181292 1.286816 32 13 -0.00092606602
6.2660489 8.0230694 -0.53351277 17 6 -0.00092376198
3.629287 4.6452751 1.3609538 39 14 -0.00092145801
6.9020524 8.8310547 -0.19564149 73 7 -0.00091915403
3.7053401 4.739213 1.611925 41 15 -0.00091685005
2.5801528 3.2917743 -1.1206865 12 0 -0.00089611404
6.7838931 8.6518202 0.19190666 100 8 -0.00089381001
3.0669112 3.9099715 -1.1472504 1 1 -0.00089150603
9.5675287 12.193155 0.81225413 82 9 -0.000889202
3.7885168 4.8282032 -1.1929379 4 2 -0.00088689802
9.0714693 11.556808 1.2853729 17 10 -0.00088459405
5.1201854 6.5206351 -1.3131109 1 3 -0.00088229001
7.0839643 9.0182981 1.4080786 29 11 -0.00087998598
6.2981195 8.0149918 -1.2515982 10 4 -0.000877682
5.1980662 6.6126871 1.3321961 45 12 -0.00087537803
5.6676292 7.2100387 -0.80235577 8 5 -0.00087307405
4.0981727 5.2115917 1.2887239 46 13 -0.00087077002
4.2191148 5.3615398 1.5751073 40 14 -0.00086616201
6.9439707 8.8210468 -0.19595562 69 7 -0.00086385803
3.7242525 4.7292843 1.6129603 15 15 -0.00086155406
2.5952179 3.287297 -1.1222395 14 0 -0.00084081804
6.8214865 8.6375046 0.1921161 100 8 -0.00083851401
3.0926206 3.9145339 -1.1517494 1 1 -0.00083621003
9.5444002 12.076632 0.80670649 68 9 -0.000833906
3.7907405 4.7964649 -1.1883584 7 2 -0.00083160202
9.1105165 11.523511 1.2851986 15 10 -0.00082929799
5.1429138 6.5027237 -1.3131109 1 3 -0.00082699402
7.1117086 8.988843 1.4073473 22 11 -0.00082469004
6.216414 7.8544259 -1.2299055 1 4 -0.00082238601
5.2125325 6.583662 1.330006 13 12 -0.00082008203
6.0761528 7.6744533 -0.85639226 2 5 -0.000817778
4.1224356 5.2049489 1.2906321 23 13 -0.00081547402
5.6819034 7.1713538 -0.47950208 24 6 -0.00081317005
4.2390161 5.3483062 1.5755571 42 14 -0.00081086601
6.992116 8.8186893 -0.19644429 64 7 -0.00080856204
3.7383361 4.7132292 1.611925 1 15 -0.000806258
2.6138916 3.2872894 -1.1253452 14 0 -0.00078552205
6.8665361 8.6324186 0.19253495 100 8 -0.00078321801
3.084424 3.8762674 -1.1436511 1 1 -0.00078091404
9.5147467 11.957402 0.80084491 33 9 -0.00077861
3.81235 4.7893486 -1.1898849 4 2 -0.00077630603
9.1544123 11.496313 1.2857215 12 10 -0.00077400199
5.2000422 6.5279961 -1.3218714 1 3 -0.00077169802
7.145514 8.9670696 1.4078349 13 11 -0.00076939404
6.1534667 7.7193618 -1.2121125 3 4 -0.00076709001
5.2060175 6.5308118 1.3228099 1 12 -0.00076478603
6.1438994 7.7046013 -0.86214459 4 5 -0.000762482
4.1577182 5.2120147 1.2959747 1 13 -0.00076017802
6.2052135 7.7759213 -0.52137089 56 6 -0.00075787405
4.2552271 5.3304319 1.5746574 42 14 -0.00075557001
5.728837 7.1763911 -0.16028289 11 7 -0.00075326604
3.3561294 4.2026472 1.4411045 37 15 -0.000750962
2.6168966 3.2675908 -1.1217217 12 0 -0.00073022599
6.8926225 8.6064806 0.19246514 26 8 -0.00072792202
3.0972624 3.8660171 -1.1436511 1 1 -0.00072561804
9.5714197 11.942818 0.80210096 66 9 -0.00072331401
3.8241315 4.7698851 -1.1883584 4 2 -0.00072101003
9.2069483 11.479833 1.2874646 12 10 -0.000718706
5.1870575 6.4675665 -1.3131109 1 3 -0.00071640202
7.1901155 8.9619064 1.4107596 19 11 -0.00071409805
6.1206346 7.6261492 -1.2006569 4 4 -0.00071179401
5.2052832 6.4833336 1.3168654 5 12 -0.00070949004
6.1370683 7.6411676 -0.85743815 8 5 -0.000707186
4.1848125 5.2104449 1.2990277 1 13 -0.00070488203
6.2422256 7.7693119 -0.52231288 55 6 -0.00070257799
4.2777624 5.3223681 1.576457 21 14 -0.00070027402
9.5605154 11.890889 -0.26632375 36 7 -0.00069797004
3.3695695 4.1894002 1.4405869 18 15 -0.00069566601
2.6240811 3.2543826 -1.1201688 15 0 -0.00067492999
5.7600632 7.1410799 0.16014329 15 8 -0.00067262602
3.1156344 3.8612475 -1.1454507 1 1 -0.00067032204
9.565382 11.850274 0.79812342 41 9 -0.00066801801
3.8399291 4.7571769 -1.1883584 4 2 -0.00066571403
9.2362022 11.438388 1.2862444 15 10 -0.00066341
5.2096038 6.4494195 -1.3131109 1 3 -0.00066110602
7.2226052 8.9382963 1.4110035 27 11 -0.00065880205
6.0923047 7.5368156 -1.1899325 4 4 -0.00065649801
5.2589364 6.5035238 1.3246872 31 12 -0.00065419404
5.3906693 6.6664329 -0.75006229 1 5 -0.00065189
4.1609964 5.1439071 1.2860527 7 13 -0.00064958603
6.2768412 7.7567959 -0.52294093 68 6 -0.000647282
4.2938638 5.3043728 1.5755571 39 14 -0.00064497802
8.6015005 10.621968 -0.2385744 5 7 -0.00064267404
3.7878866 4.6759863 1.6124427 18 15 -0.00064037001
2.6354244 3.2452035 -1.1201688 13 0 -0.000619634
9.5424042 11.746117 0.26415962 37 8 -0.00061733002
3.1241786 3.8442984 -1.1436511 1 1 -0.00061502605
9.5575514 11.756374 0.79404122 38 9 -0.00061272201
3.8713722 4.7620254 -1.1929379 4 2 -0.00061041804
9.2924185 11.426171 1.2885104 15 10 -0.000608114
5.3280768 6.5491834 -1.337202 5 3 -0.00060581003
7.2575188 8.9176502 1.4117346 29 11 -0.00060350599
5.3816419 6.6103168 -1.0466141 30 4 -0.00060120202
5.2878451 6.492785 1.3262516 37 12 -0.00059889804
5.3849711 6.6120429 -0.74605316 25 5 -0.00059659401
4.1665249 5.1141315 1.2822365 20 13 -0.00059429003
6.3051424 7.7363844 -0.5230456 50 6 -0.000591986
3.7102013 4.5507755 1.3555551 39 14 -0.00058968202
5.8592815 7.1841927 -0.16181871 7 7 -0.00058737805
3.8054082 4.6642313 1.6129603 15 15 -0.00058507401
2.6491833 3.2389746 -1.1212041 14 0 -0.000564338
9.5592852 11.683332 0.26349643 28 8 -0.00056203402
3.1351075 3.8303556 -1.1427513 1 1 -0.00055973005
9.5352678 11.645671 0.78880757 46 9 -0.00055742601
3.8879724 4.7484818 -1.1929379 4 2 -0.00055512204
9.330987 11.39212 1.2883362 100 10 -0.000552818
5.2820425 6.4465108 -1.3199942 7 3 -0.00055051403
7.2873473 8.8907261 1.4114909 30 11 -0.00054821
5.2763014 6.4349146 -1.0217527 12 4 -0.00054590602
5.2916803 6.4513803 1.3215585 8 12 -0.00054360204
5.2980847 6.4591885 -0.73088807 13 5 -0.00054129801
4.1706538 5.0828605 1.2780387 15 13 -0.00053899403
5.8962007 7.1832623 -0.48703846 6 6 -0.00053669
3.7149308 4.5242448 1.351506 5 14 -0.00053438602
8.5980196 10.467401 -0.2364452 12 7 -0.00053208199
3.8290265 4.6598744 1.6160662 15 15 -0.00052977802
2.6653841 3.2356734 -1.1232747 17 0 -0.000509042
13.153123 15.961692 0.36102048 100 8 -0.00050673803
3.1633346 3.8374321 -1.1481502 1 1 -0.00050443399
9.5250263 11.550686 0.7846207 38 9 -0.00050213002
3.884536 4.710649 -1.186832 4 2 -0.00049982604
9.4188728 11.417886 1.29496 22 10 -0.00049752201
5.2542233 6.3670888 -1.3074795 12 3 -0.00049521803
7.3233852 8.8713617 1.4124658 32 11 -0.000492914
5.2203612 6.3215585 -1.0066408 13 4 -0.00049061002
5.218555 6.3171253 1.2977805 3 12 -0.00048830605
5.2419276 6.345418 -0.72008073 24 5 -0.00048600201
4.1971269 5.0788631 1.2807101 7 13 -0.00048369804
6.3666348 7.7014136 -0.52367365 56 6 -0.000481394
3.7182827 4.4962311 1.3470069 45 14 -0.00047909003
8.5784245 10.369528 -0.2349094 14 7 -0.00047678599
3.8428042 4.6435037 1.6150309 15 15 -0.00047448202
2.6667955 3.2144547 -1.1191336 12 0 -0.000453746
13.239415 15.952611 0.36185819 100 8 -0.00045144203
3.1642616 3.8113737 -1.1436511 1 1 -0.000449138
9.5116959 11.452832 0.7802245 44 9 -0.00044683402
3.9072285 4.7046113 -1.1887401 7 2 -0.00044453004
9.4433956 11.366545 1.2928683 52 10 -0.00044222601
5.2019215 6.2590775 -1.2890202 58 3 -0.00043992203
7.3606558 8.8533745 1.4136845 34 11 -0.000437618
5.1789308 6.2269855 -0.99445397 17 4 -0.00043531402
5.2393098 6.2973537 1.2974676 8 12 -0.00043300999
5.1824903 6.2290602 -0.70892483 39 5 -0.00043070602
4.2324095 5.0853109 1.2860527 30 13 -0.00042840204
3.7613912 4.5161681 1.3569047 5 14 -0.00042379403
8.5851202 10.30419 -0.23410659 3 7 -0.00042149
3.8540437 4.624125 1.6129603 15 15 -0.00041918602
2.6804781 3.2080905 -1.1201688 17 0 -0.00039845001
3.1725476 3.7943244 -1.1418515 1 1 -0.000393842
9.5029249 11.361341 0.77624696 42 9 -0.00039153802
3.9286664 4.6969662 -1.1902666 11 2 -0.00038923405
9.4293079 11.269342 1.2855473 97 10 -0.00038693001
5.1286469 6.1272712 -1.2655549 49 3 -0.00038462604
7.3889685 8.8245821 1.413197 30 11 -0.000382322
5.143271 6.1403928 -0.9834857 24 4 -0.00038001803
5.3196206 6.3486743 1.3118596 32 12 -0.00037771399
5.1338243 6.1269369 -0.69933766 51 5 -0.00037541002
4.2526579 5.073514 1.286816 28 13 -0.00037310604
5.7041755 6.8027949 -0.4652667 19 6 -0.00037080201
4.392045 5.2360926 1.5778067 42 14 -0.00036849803
5.7353625 6.8351407 -0.15574528 11 7 -0.000366194
3.4429028 4.1016388 1.4348928 15 15 -0.00036389002
2.6916592 3.198715 -1.1201688 17 0 -0.00034315407
13.390376 15.907225 0.36294025 29 8 -0.00034084998
3.1782422 3.7742822 -1.1391522 1 1 -0.000338546
9.4942379 11.274765 0.77247876 44 9 -0.00033624202
3.9336536 4.6697116 -1.186832 14 2 -0.00033393805
9.4146681 11.172365 1.278226 87 10 -0.00033163407
5.1436396 6.1017785 -1.2639905 68 3 -0.00032932998
7.4197249 8.7987375 1.413197 30 11 -0.00032702601
5.1595554 6.1163311 -0.98251075 82 4 -0.00032472203
5.3495598 6.3415694 1.3140497 15 12 -0.00032241805
5.1513276 6.1044097 -0.69881475 63 5 -0.00032011396
4.2728734 5.0616398 1.2875792 25 13 -0.00031780999
6.9520683 8.2324944 -0.56470507 15 6 -0.00031550601
4.4115548 5.2222171 1.5782566 40 14 -0.00031320204
8.5453758 10.115664 -0.23113967 14 7 -0.00031089806
3.8929098 4.6066399 1.6160662 1 15 -0.00030859397
2.7003112 3.1863515 -1.1191336 12 0 -0.00028785807
13.487013 15.914598 0.36412701 100 8 -0.00028555398
3.2033401 3.778589 -1.1436511 1 1 -0.00028325
9.4753981 11.173016 0.76776856 52 9 -0.00028094603
3.9410403 4.6454711 -1.1841607 11 2 -0.00027864205
9.4084911 11.086264 1.2721252 66 10 -0.00027633808
5.1676793 6.0892081 -1.2649293 77 3 -0.00027403398
7.4501495 8.7755957 1.4134407 26 11 -0.00027173001
5.1836662 6.1037264 -0.98324198 99 4 -0.00026942603
5.3946867 6.3499541 1.3196814 2 12 -0.00026712206
5.1816349 6.0970192 -0.70003492 55 5 -0.00026481797
4.2718372 5.0264974 1.2822365 27 13 -0.00026251399
6.9366417 8.1591787 -0.56125087 16 6 -0.00026021001
4.4313717 5.2105289 1.5791564 39 14 -0.00025790604
8.5521259 10.052269 -0.23037177 8 7 -0.00025560206
3.4719944 4.0795798 1.4354105 13 15 -0.00025329797
2.7083542 3.1744406 -1.1180983 9 0 -0.00023256207
13.57104 15.900887 0.36489493 100 8 -0.00023025798
3.1962655 3.7436702 -1.1364527 1 1 -0.00022795401
9.4611626 11.077601 0.76347697 44 9 -0.00022565003
3.9640732 4.641335 -1.1864504 14 2 -0.00022334605
9.3973131 10.998957 1.2656757 95 10 -0.00022104196
5.1991692 6.0831466 -1.2674322 61 3 -0.00021873799
7.4820247 8.7510462 1.4136845 19 11 -0.00021643401
5.1984878 6.0780525 -0.9820233 96 4 -0.00021413004
5.3744383 6.2815533 1.3093567 11 12 -0.00021182606
5.2173672 6.097971 -0.70212668 60 5 -0.00020952197
5.129355 5.9929862 1.5333412 9 13 -0.00020721799
6.9365044 8.1015358 -0.55894804 16 6 -0.00020491402
3.7979481 4.4342761 1.3479067 39 14 -0.00020261004
5.8691936 6.8501287 -0.15745561 116 7 -0.00020030607
3.5013008 4.0850363 1.4416221 18 15 -0.00019800197
2.715641 3.1605723 -1.1165454 6 0 -0.00017726608
13.669481 15.903459 0.36604679 100 8 -0.00017496198
3.2245612 3.7502215 -1.1418515 1 1 -0.00017265801
9.4567909 10.994542 0.76002282 49 9 -0.00017035403
3.9623256 4.6066322 -1.1811076 11 2 -0.00016805006
9.3823748 10.904164 1.2585289 100 10 -0.00016574597
5.229394 6.0754395 -1.2696222 72 3 -0.00016344199
7.5177054 8.730895 1.4146595 14 11 -0.00016113801
5.2274475 6.0688925 -0.9834857 90 4 -0.00015883404
5.3718343 6.2343202 1.3034122 7 12 -0.00015653006
5.2308192 6.0706639 -0.7010808 55 5 -0.00015422597
5.161778 5.98843 1.5367758 9 13 -0.00015192199
6.939959 8.0485363 -0.55695927 10 6 -0.00014961802
4.4625492 5.1735625 1.5773568 39 14 -0.00014731404
8.5463209 9.9045115 -0.22834729 24 7 -0.00014501007
3.9396744 4.564157 1.6155485 13 15 -0.00014270598
2.7241299 3.1481514 -1.1155102 6 0 -0.00012196996
13.740613 15.873794 0.36646563 100 8 -0.00011966599
3.2376316 3.7389433 -1.1418515 1 1 -0.00011736201
9.4428072 10.901076 0.75583595 49 9 -0.00011505804
3.9758124 4.5898042 -1.1803445 14 2 -0.00011275406
9.3616619 10.803592 1.2506849 97 10 -0.00011044997
5.2428045 6.0481935 -1.267745 67 3 -0.00010814599
7.5468373 8.7030983 1.4144157 14 11 -0.00010584202
5.2498994 6.0521092 -0.98372942 92 4 -0.00010353804
5.4000349 6.2229915 1.3049763 11 12 -0.00010123407
5.2650347 6.0674176 -0.70282388 51 5 -9.8929973e-05
5.1672077 5.9525833 1.5321964 7 13 -9.6625998e-05
5.5537171 6.3955836 -0.44391361 9 6 -9.4322022e-05
4.4882479 5.1667819 1.5800562 39 14 -9.2018046e-05
8.5939608 9.8897104 -0.22869635 21 7 -8.9714071e-05
3.9403727 4.5328822 1.609337 13 15 -8.7409979e-05
2.727488 3.1298838 -1.1124043 6 0 -6.6673965e-05
13.828786 15.863419 0.36733824 100 8 -6.436999e-05
3.2429793 3.7188058 -1.1391522 1 1 -6.2066014e-05
9.4348507 10.81537 0.75217241 47 9 -5.9762038e-05
3.9969728 4.5818148 -1.1818709 9 2 -5.7458063e-05
9.3587055 10.724313 1.2452812 100 10 -5.5153971e-05
5.2690835 6.0358076 -1.2689966 72 3 -5.2849995e-05
7.5771732 8.6766996 1.4144157 14 11 -5.0546019e-05
5.2775221 6.041223 -0.98494816 90 4 -4.8242044e-05
5.4464235 6.2323637 1.310921 46 12 -4.5938068e-05
5.2809396 6.0429997 -0.70212668 60 5 -4.3633976e-05
5.172451 5.9167714 1.527617 7 13 -4.133e-05
5.4103441 6.1867242 -0.43072498 32 6 -3.9026025e-05
3.8428929 4.3927937 1.3474568 13 14 -3.6722049e-05
7.4208207 8.4797192 -0.19668862 36 7 -3.4418073e-05
3.9663506 4.5307293 1.6134779 13 15 -3.2113981e-05
2.7473159 3.1305084 -1.1160278 7 0 0
13.90387 15.83759 0.36786184 33 8 2.304e-06
3.2482226 3.6986797 -1.1364527 1 1 4.6079999e-06
9.3618155 10.656332 0.74338001 31 9 6.9120001e-06
4.015533 4.5707855 -1.1826342 14 2 9.2159999e-06
9.3526821 10.64219 1.239529 100 10 1.152e-05
5.3005524 6.0292478 -1.2714995 67 3 1.3824e-05
7.6296983 8.675539 1.4185592 9 11 1.6128e-05
5.2985797 6.0227628 -0.98494816 89 4 1.8432e-05
5.4733648 6.2192478 1.3121724 33 12 2.0736001e-05
5.3151627 6.0394864 -0.70386976 57 5 2.304e-05
4.3692894 4.9629679 1.2852895 13 13 2.5343999e-05
5.4292684 6.1648026 -0.43051565 73 6 2.7648e-05
3.8582025 4.3793535 1.3474568 43 14 2.9952e-05
7.4001307 8.3967571 -0.19536224 37 7 3.2256001e-05
3.5554392 4.0328555 1.4405869 13 15 3.4559998e-05
2.7646239 3.1281362 -1.1186159 9 0 5.5296001e-05
9.3391562 10.563429 0.24611384 85 8 5.7599998e-05
3.2766068 3.7048349 -1.1418515 1 1 5.9903999e-05
9.3367577 10.553281 0.73846042 91 9 6.2207997e-05
4.0210571 4.5449767 -1.1795813 11 2 6.4512002e-05
9.338274 10.551293 1.2327309 99 10 6.6815999e-05
5.3268027 6.0166259 -1.272751 82 3 6.9119997e-05
7.6322994 8.6176453 1.4134407 9 11 7.1424001e-05
5.3222017 6.0072026 -0.98543561 79 4 7.3727999e-05
5.4806271 6.1838436 1.3087308 10 12 7.6032004e-05
5.3401756 6.0253711 -0.70439273 63 5 7.8336001e-05
4.3800755 4.9403391 1.2833813 11 13 8.0639998e-05
5.4467797 6.1413279 -0.43020159 67 6 8.2944003e-05
3.8915708 4.3862681 1.3537554 41 14 8.5248001e-05
7.3776302 8.3125448 -0.19400094 40 7 8.7551998e-05
4.0171256 4.5245967 1.6212426 9 15 8.9856003e-05
2.7652495 3.1069245 -1.1144749 14 0 0.000110592
9.3387423 10.488943 0.2451365 100 8 0.000112896
3.2739668 3.6759112 -1.1364527 1 1 0.0001152
9.3291922 10.474536 0.73511088 91 9 0.000117504
4.0382009 4.5323815 -1.1799629 14 2 0.000119808
9.3260012 10.463597 1.2262813 100 10 0.000122112
5.3582907 6.009789 -1.2752539 87 3 0.00012441599
7.6781836 8.6087332 1.4163656 8 11 0.00012672
5.3500199 5.9984107 -0.98689806 79 4 0.000129024
5.4774323 6.1391015 1.3030992 11 12 0.00013132799
5.362504 6.0081782 -0.70456702 61 5 0.000133632
4.4195189 4.9499187 1.2898688 30 13 0.000135936
5.4681826 6.1222787 -0.43020159 67 6 0.00013823999
3.8996058 4.3660707 1.351506 45 14 0.000140544
7.3478637 8.2239151 -0.19250005 36 7 0.000142848
4.0539904 4.5357394 1.6300424 5 15 0.00014515199
2.7703812 3.0919816 -1.1124043 14 0 0.00016588801
9.3174152 10.395378 0.24367051 93 8 0.000168192
3.2939451 3.673739 -1.1391522 1 1 0.000170496
9.3585463 10.437592 0.73469228 100 9 0.00017280001
4.0466552 4.5116568 -1.1780548 9 2 0.000175104
9.3606462 10.432615 1.2262813 100 10 0.000177408
5.3649964 5.9772844 -1.2721251 73 3 0.00017971201
7.7159748 8.5935621 1.4180719 9 11 0.000182016
5.3765144 5.9880199 -0.98811674 61 4 0.00018432
5.474 6.0944529 1.2974676 5 12 0.00018662401
5.3850627 5.9933252 -0.70491564 65 5 0.000188928
4.4398479 4.9396148 1.2910137 46 13 0.000191232
5.4937959 6.110055 -0.43062031 66 6 0.00019353601
4.6072311 5.1240411 1.5908539 24 14 0.00019584
7.3282919 8.1474648 -0.19127838 35 7 0.000198144
4.0754709 4.5294504 1.6326306 11 15 0.000200448
2.7870884 3.0899506 -1.1149925 12 0 0.000221184
9.2995939 10.306518 0.24230921 38 8 0.00022348799
3.2747715 3.628078 -1.1283545 1 1 0.000225792
9.4136543 10.42562 0.73615766 100 9 0.000228096
4.0694876 4.5069566 -1.1803445 11 2 0.00023039999
9.4205675 10.429606 1.2295932 100 10 0.000232704
5.3821392 5.9565306 -1.2714995 57 3 0.000235008
7.7484212 8.5723476 1.418803 9 11 0.00023731199
5.4106994 5.9839387 -0.99055409 49 4 0.000239616
5.5137935 6.0958166 1.3018478 13 12 0.00024192
5.4112935 5.9804049 -0.7056129 61 5 0.00024422401
4.4641056 4.9336004 1.2933035 35 13 0.00024652801
5.5220709 6.1006866 -0.43124834 59 6 0.00024883199
4.6342468 5.1180382 1.5940032 14 14 0.00025113599
7.3217773 8.0833044 -0.19037086 37 7 0.00025344
4.0730977 4.4951534 1.6253836 11 15 0.000255744
2.7905991 3.0711365 -1.1118866 14 0 0.00027647999
9.2924738 10.226641 0.24119227 35 8 0.00027878399
3.3267381 3.6598864 -1.1418515 1 1 0.000281088
9.4526796 10.39565 0.73636699 100 9 0.000283392
4.0727696 4.4774866 -1.1765283 11 2 0.00028569601
9.4909105 10.430378 1.2337767 100 10 0.00028800001
5.4026041 5.9353051 -1.2711866 51 3 0.00029030399
7.8050241 8.5746059 1.4236778 9 11 0.00029260799
5.4315557 5.965014 -0.99055409 74 4 0.000294912
5.5430183 6.0852957 1.303725 47 12 0.000297216
5.4482412 5.9791503 -0.70770466 59 5 0.00029952
4.482162 4.9172015 1.2933035 17 13 0.00030182401
5.543046 6.0789299 -0.43114361 58 6 0.00030412801
4.6109476 5.0549474 1.5796063 21 14 0.00030643199
7.3000884 8.0030327 -0.18907937 34 7 0.00030873599
3.6525431 4.0028481 1.4519749 5 15 0.00031104
2.8117366 3.0727782 -1.1160278 12 0 0.00033177601
9.2866936 10.145306 0.24007531 35 8 0.00033407999
3.3322327 3.639046 -1.1391522 1 1 0.00033638399
9.5230932 10.396282 0.73887914 100 9 0.000338688
4.0989819 4.4748249 -1.1795813 9 2 0.000340992
9.5555305 10.42803 1.2374372 100 10 0.00034329601
5.4219532 5.9149551 -1.2708738 18 3 0.00034560001
5.4520392 5.9436049 -0.99031037 77 4 0.00035020799
5.5732965 6.0736728 1.3056022 56 12 0.000352512
5.4758124 5.9674363 -0.70857614 63 5 0.000354816
4.5192099 4.923224 1.2990277 2 13 0.00035712001
5.5655851 6.0610147 -0.43124834 63 6 0.00035942401
4.6325212 5.0431256 1.580956 4 14 0.00036172799
7.2806606 7.9232154 -0.18782279 35 7 0.00036403199
3.882906 4.2241082 1.5373851 45 15 0.000366336
2.8119731 3.0515783 -1.1118866 15 0 0.00038707201
9.2773237 10.064308 0.23892345 41 8 0.00038937599
3.313211 3.5930085 -1.1283545 1 1 0.00039167999
9.5864124 10.392336 0.74097258 100 9 0.000393984
4.1065912 4.4518304 -1.1772915 9 2 0.000396288
9.6040316 10.407791 1.239006 100 10 0.000398592
4.79005 5.1891108 -1.1185066 2 3 0.00040089601
7.8931174 8.5477028 1.4285525 68 11 0.00040320001
5.4781399 5.9303713 -0.99128538 74 4 0.00040550399
5.5797181 6.0382209 1.3021606 45 12 0.00040780799
5.4952588 5.9468217 -0.70840186 59 5 0.000410112
5.4212546 5.8646817 1.5524222 16 13 0.000412416
5.5921302 6.0474162 -0.431667 63 6 0.00041472001
4.0016756 4.3259597 1.360504 15 14 0.00041702401
7.3123503 7.9021544 -0.18792751 37 7 0.00041932799
4.1049747 4.4345241 1.6191721 45 15 0.00042163199
2.8226073 3.0417447 -1.1118866 17 0 0.00044236801
9.2579775 9.9732428 0.23752725 41 8 0.00044467201
3.3496025 3.6071243 -1.1364527 1 1 0.00044697599
9.6344147 10.375121 0.74201924 100 9 0.00044927999
4.1180968 4.4331541 -1.1761467 9 2 0.000451584
9.6647139 10.400477 1.2421436 100 10 0.000453888
5.3878012 5.7959337 -1.253353 9 3 0.00045619201
5.5150304 5.9286556 -0.99421012 72 4 0.00046079999
5.5835643 6.0023298 1.2984062 12 12 0.00046310399
5.5186996 5.9305186 -0.70875043 65 5 0.000465408
4.6123285 4.9547825 1.3158189 1 13 0.000467712
5.6213708 6.0366306 -0.43229502 63 6 0.00047001601
4.0140967 4.3091116 1.3596041 7 14 0.00047232001
7.3494215 7.8895659 -0.18820675 37 7 0.00047462399
4.1143889 4.4152346 1.6171014 45 15 0.00047692799
2.8358469 3.0346956 -1.112922 15 0 0.00049766398
9.250042 9.8986521 0.2364801 55 8 0.00049996801
3.3429141 3.5760672 -1.1301541 1 1 0.00050227199
9.7169523 10.391029 0.74557811 100 9 0.00050457602
4.1335478 4.4187512 -1.1761467 9 2 0.00050687999
9.7254667 10.392861 1.2452812 100 10 0.00050918403
5.3948431 5.7650561 -1.2505373 11 3 0.000511488
7.9958854 8.5416021 1.4365959 87 11 0.00051379198
5.5387325 5.91468 -0.99494141 59 4 0.00051609601
5.6314931 6.0116334 1.3046635 1 12 0.00051839999
5.5461779 5.9184885 -0.70962203 40 5 0.00052070402
4.5844345 4.8921843 1.3032255 3 13 0.000523008
5.6317983 6.0077548 -0.43156233 72 6 0.00052531197
4.6855378 4.9965777 1.5814059 40 14 0.00052761601
6.6887498 7.1302743 -0.17064963 26 7 0.00052991998
4.1363869 4.4078879 1.6196897 43 15 0.00053222402
2.8405993 3.0196476 -1.1108514 15 0 0.00055295997
9.3050919 9.8881502 0.23700368 68 8 0.00055526401
3.3687332 3.5785666 -1.1346531 1 1 0.00055756798
9.7545319 10.358504 0.74568278 68 9 0.00055987202
4.1508689 4.4078789 -1.1769099 9 2 0.00056217599
9.7871971 10.38956 1.2487675 100 10 0.00056448003
5.4108686 5.7418776 -1.2495986 11 3 0.000566784
