# .PCD v0.7 - Point Cloud Data file format
VERSION 0.7
FIELDS x y z intensity ring time
SIZE 4 4 4 4 2 4
TYPE F F F F U F
COUNT 1 1 1 1 1 1
WIDTH 918
HEIGHT 1
VIEWPOINT 0 0 0 1 0 0 0
POINTS 918
DATA ascii
-0.85527152 1.0915529 0.21963401 81 12 -0.0822201
-0.86072904 1.098913 0.27133042 61 13 -0.082215495
-0.86119151 1.1002944 0.3225798 78 14 -0.082210883
-0.6099565 0.77958626 -0.017277883 21 7 -0.082208581
-0.86524904 1.1062737 0.37632293 58 15 -0.082206279
-0.62148285 0.79660738 -0.27072471 6 0 -0.082185544
-0.81902015 1.0501854 0.023246605 7 8 -0.082183234
-0.40976927 0.5256142 -0.15386651 82 1 -0.082180932
-0.42359003 0.54353791 -0.13394792 59 2 -0.082176328
-0.89139551 1.1442235 0.12689877 100 10 -0.082174018
-0.88773268 1.1403426 0.17744178 100 11 -0.082169414
-0.46327311 0.59531462 -0.092620708 4 4 -0.082167111
-0.85892642 1.1037365 0.22151121 84 12 -0.082164802
-0.86050361 1.10656 0.27247527 47 13 -0.082160197
-0.86212867 1.1094487 0.32437941 76 14 -0.082155593
-0.597552 0.76897252 -0.016998643 20 7 -0.082153283
-0.86631626 1.1152391 0.37839344 61 15 -0.082150981
-0.63644332 0.82168114 -0.27848932 12 0 -0.082130246
-0.67961115 0.87741297 0.019372171 5 8 -0.082127944
-0.40563771 0.52388859 -0.15296671 83 1 -0.082125634
-0.9058587 1.1703539 0.0775619 41 9 -0.082123332
-0.4192875 0.54190761 -0.13318469 60 2 -0.082121029
-0.89227146 1.1536322 0.12759601 100 10 -0.082118727
-0.86937606 1.1244347 0.17451692 100 11 -0.082114115
-0.85144502 1.1020389 0.22057262 78 12 -0.082109511
-0.86522931 1.1202842 0.27514657 9 13 -0.082104899
-0.85606331 1.1092162 0.32347962 78 14 -0.082100295
-0.59974992 0.77738696 -0.017138263 9 7 -0.082097992
-0.86477745 1.1213162 0.37942874 69 15 -0.082095683
-0.65373915 0.84981763 -0.28728914 12 0 -0.082074948
-0.87036473 1.1318252 0.024922037 24 8 -0.082072645
-0.41093269 0.53457129 -0.15566613 92 1 -0.082070343
-0.89568287 1.1655906 0.077038541 79 9 -0.082068034
-0.4127031 0.53706831 -0.13165821 62 2 -0.082065731
-0.89208233 1.1613246 0.12811893 34 10 -0.082063429
-0.89203727 1.1621054 0.17987917 100 11 -0.082058825
-0.45921016 0.59845424 -0.092620708 4 4 -0.082056515
-0.84398633 1.1003019 0.21963401 73 12 -0.082054213
-0.8290593 1.0812321 0.2648429 1 13 -0.082049608
-0.84981596 1.1091038 0.3225798 82 14 -0.082044996
-0.60311258 0.78741324 -0.017312787 5 7 -0.082042694
-0.86907923 1.1350648 0.3830522 72 15 -0.082040392
-0.64710343 0.84760141 -0.28573623 14 0 -0.082019649
-0.86155504 1.1284986 0.024782417 74 8 -0.082017347
-0.41024652 0.53755152 -0.15611602 92 1 -0.082015045
-0.89160889 1.1687099 0.077038541 40 9 -0.082012743
-0.41787484 0.54794395 -0.13394792 59 2 -0.082010441
-0.89506769 1.1740931 0.12916481 37 10 -0.082008131
-0.89158523 1.1699486 0.18061039 100 11 -0.082003526
-0.45711821 0.60005367 -0.092620708 4 4 -0.082001224
-0.84373111 1.1079557 0.22057262 78 12 -0.081998914
-0.81557947 1.0717651 0.26178995 1 13 -0.08199431
-0.8551814 1.1246209 0.32617903 73 14 -0.081989698
-0.6197266 0.81498206 -0.017871264 2 7 -0.081987396
-0.86861879 1.1427058 0.38460511 72 15 -0.081985094
-0.64414054 0.84985524 -0.28573623 16 0 -0.081964359
-0.80910784 1.067894 0.023386225 84 8 -0.081962056
-0.41650948 0.5499258 -0.15926534 77 1 -0.081959747
-0.89816952 1.1863014 0.077980585 13 9 -0.081957445
-0.41595975 0.5493992 -0.13394792 59 2 -0.081955142
-0.88374919 1.1676785 0.12811893 97 10 -0.08195284
-0.89806777 1.1874583 0.18280403 25 11 -0.081948228
-0.454916 0.60172492 -0.092620708 4 4 -0.081945926
-0.8444283 1.1173447 0.22182411 70 12 -0.081943624
-0.81183356 1.0746052 0.26178995 1 13 -0.081939012
-0.85594738 1.1338203 0.32797864 78 14 -0.081934407
-0.60950822 0.80767071 -0.017661836 2 7 -0.081932098
-0.86907858 1.1520505 0.38667569 63 15 -0.081929795
-0.64697802 0.85981667 -0.28832445 9 0 -0.08190906
-0.59621829 0.79264623 0.017312787 28 8 -0.081906758
-0.41458747 0.55137628 -0.15926534 99 1 -0.081904456
-0.90602356 1.2053946 0.079027303 37 9 -0.081902146
-0.41639876 0.55398649 -0.13471116 59 2 -0.081899844
-0.8832581 1.1755352 0.12864187 100 10 -0.081897542
-0.88795805 1.1826485 0.18158534 46 11 -0.08189293
-0.45281261 0.60330933 -0.092620708 4 4 -0.081890628
-0.83222461 1.1092247 0.21963401 20 12 -0.081888326
-0.80807775 1.0774324 0.26178995 1 13 -0.081883714
-0.85432196 1.1399198 0.32887843 76 14 -0.081879109
-0.64265484 0.85780478 -0.01870898 2 7 -0.081876807
-0.87431592 1.1674477 0.39081678 57 15 -0.081874505
-0.65206581 0.87290353 -0.2919479 9 0 -0.081853762
-0.58746523 0.78671151 0.017138263 55 8 -0.08185146
-0.40450019 0.54188877 -0.15611602 92 1 -0.081849158
-0.89344954 1.1973445 0.078294598 79 9 -0.081846856
-0.41211435 0.55228955 -0.13394792 59 2 -0.081844546
-0.88510585 1.186596 0.12951343 100 10 -0.081842244
-0.88263774 1.1841494 0.18134159 100 11 -0.081837639
-0.45070404 0.60488617 -0.092620708 4 4 -0.08183533
-0.86256671 1.1580654 0.22870721 28 12 -0.081833027
-0.80431163 1.0802468 0.26178995 1 13 -0.081828423
-0.84335792 1.1335144 0.32617903 82 14 -0.081823811
-0.67545807 0.9081797 -0.019756125 2 7 -0.081821509
-0.8829146 1.1875459 0.39651078 64 15 -0.081819206
-0.64901465 0.87517452 -0.2919479 15 0 -0.081798472
-0.58709747 0.79197013 0.017208073 45 8 -0.081796162
-0.40956777 0.55269152 -0.15881544 88 1 -0.08179386
-0.89283085 1.2052709 0.078608617 100 9 -0.081791557
-0.4078466 0.55056971 -0.13318469 60 2 -0.081789255
-0.89044422 1.2024877 0.13090792 100 10 -0.081786945
-0.88440305 1.1952016 0.18256028 100 11 -0.081782341
-0.48164397 0.65114188 -0.099445395 4 4 -0.081780039
-0.84325159 1.1404209 0.22463992 53 12 -0.081777737
-0.81920761 1.1083081 0.26789585 1 13 -0.081773125
-0.84402746 1.1427213 0.32797864 80 14 -0.08176852
-0.78868645 1.0681857 -0.023176797 2 7 -0.08176621
-0.89826679 1.2170441 0.40531066 80 15 -0.081763908
-0.6310665 0.85721028 -0.2852186 20 0 -0.081743173
-0.5878849 0.79884642 0.017312787 34 8 -0.081740871
-0.40763617 0.55411774 -0.15881544 88 1 -0.081738561
-0.89119637 1.2114424 0.078817956 100 9 -0.081736259
-0.40941146 0.55673504 -0.13432954 68 2 -0.081733957
-0.88152063 1.1991676 0.13021068 100 10 -0.081731655
-0.88727653 1.2078809 0.18402272 100 11 -0.081727043
-0.46996859 0.64001888 -0.097495481 4 4 -0.081724741
-0.84647989 1.1527646 0.22651713 76 12 -0.081722438
-0.83391666 1.1364868 0.27400175 1 13 -0.081717826
-0.84349006 1.1503755 0.32932836 83 14 -0.081713222
-0.88564688 1.2078701 -0.026143704 15 7 -0.08171092
-0.88623124 1.2091094 0.40168718 73 15 -0.08170861
-0.62579089 0.85628831 -0.28418332 26 0 -0.081687875
-0.58051318 0.79433346 0.017173167 37 8 -0.081685573
-0.41499278 0.56805509 -0.16241467 94 1 -0.081683271
-0.89285141 1.2226108 0.079341315 98 9 -0.081680968
-0.41325352 0.56608909 -0.13623764 57 2 -0.081678659
-0.87732959 1.2022371 0.13021068 100 10 -0.081676356
-0.89028579 1.2204387 0.18548515 100 11 -0.081671752
-0.46784374 0.64157373 -0.097495481 4 4 -0.081669442
-0.84245104 1.155712 0.22651713 81 12 -0.08166714
-0.46229869 0.63443464 -0.068678722 7 5 -0.081664838
-0.83014357 1.1392457 0.27400175 2 13 -0.081662536
-0.84425932 1.1594676 0.33112797 87 14 -0.081657924
-0.88966322 1.2222713 -0.02638804 22 7 -0.081655622
-0.88314205 1.2137575 0.40220481 77 15 -0.081653319
-0.62067825 0.855232 -0.28314805 28 0 -0.081632584
-0.57186574 0.78826183 0.016998643 40 8 -0.081630275
-0.41071936 0.56634498 -0.16151486 95 1 -0.081627972
-0.88623345 1.2224861 0.079131976 69 9 -0.08162567
-0.41137391 0.56745648 -0.13623764 57 2 -0.081623368
-0.8768456 1.2099797 0.13073361 100 10 -0.081621058
-0.8871842 1.225147 0.18572889 100 11 -0.081616454
-0.44232145 0.61104268 -0.092620708 4 4 -0.081614152
-0.84188563 1.1634471 0.22745575 78 12 -0.081611842
-0.44384012 0.6133666 -0.066238366 8 5 -0.08160954
-0.82155895 1.1357739 0.27247527 1 13 -0.081607237
-0.84819758 1.1734631 0.33427727 82 14 -0.081602626
-0.89358896 1.2367157 -0.026632372 21 7 -0.081600323
-0.88003141 1.2183988 0.40272245 63 15 -0.081598021
-0.61881858 0.85896075 -0.28366569 34 0 -0.081577286
-0.57729071 0.80161226 0.017242977 27 8 -0.081574984
-0.39507714 0.54879677 -0.15611602 92 1 -0.081572674
-0.82713014 1.1493791 0.074212395 42 9 -0.081570372
-0.41397774 0.57526302 -0.13776411 56 2 -0.08156807
-0.88308781 1.2275897 0.13230242 65 10 -0.081565768
-0.88174385 1.2266244 0.18548515 100 11 -0.081561156
-0.44018567 0.6125831 -0.092620708 4 4 -0.081558853
-0.84473407 1.1760046 0.22933295 78 12 -0.081556551
-0.42774817 0.59549373 -0.06414663 8 5 -0.081554241
-0.83705598 1.1657448 0.27896276 2 13 -0.081551939
-0.84182447 1.17325 0.33337748 76 14 -0.081547335
-0.8682881 1.2105784 -0.026004087 11 7 -0.081545033
-0.88365239 1.2324535 0.4063459 52 15 -0.081542723
-0.61694038 0.86268675 -0.28418332 38 0 -0.081521988
-0.56751162 0.79386181 0.017033549 12 8 -0.081519686
-0.40675551 0.56919855 -0.16151486 85 1 -0.081517383
-0.58860141 0.82397103 0.053068664 23 9 -0.081515074
-0.4142496 0.57989949 -0.13852733 56 2 -0.081512772
-0.8822704 1.2355292 0.13282534 66 10 -0.081510469
-0.87745702 1.2296946 0.18548515 69 11 -0.081505857
-0.43804449 0.61411601 -0.092620708 4 4 -0.081503555
-0.82686222 1.1596454 0.22557852 33 12 -0.081501253
-0.82500541 1.1574686 0.27629143 1 13 -0.081496648
-0.83772421 1.1761812 0.33337748 75 14 -0.081492037
-0.85361916 1.1989408 -0.025689943 1 7 -0.081489734
-0.88158506 1.2386787 0.40738121 62 15 -0.081487432
-0.60497898 0.85223287 -0.2800422 26 0 -0.08146669
-0.86330676 1.2165886 0.026038991 9 8 -0.081464387
-0.41153088 0.58015174 -0.16421427 82 1 -0.081462085
-0.58803201 0.82927912 0.053278007 37 9 -0.081459783
-0.41108716 0.57974058 -0.13814571 64 2 -0.081457481
-0.88025695 1.2418523 0.13317397 100 10 -0.081455171
-0.88463271 1.2489493 0.18792254 60 11 -0.081450567
-0.43589833 0.61564124 -0.092620708 4 4 -0.081448264
-0.84563315 1.1947725 0.23183592 48 12 -0.081445955
-0.86404872 1.2212433 0.29079291 1 13 -0.08144135
-0.84261298 1.1918281 0.33697668 75 14 -0.081436738
-0.88171476 1.2480594 0.40945172 72 15 -0.081432134
-0.59977514 0.85118103 -0.27900696 18 0 -0.081411399
-0.87747985 1.245752 0.026597466 24 8 -0.081409097
-0.41399112 0.58795822 -0.16601388 80 1 -0.081406787
-0.58297926 0.82795841 0.053068664 37 9 -0.081404485
-0.40228105 0.57153922 -0.135856 66 2 -0.081402183
-0.87247747 1.2400287 0.13265103 100 10 -0.08139988
-0.88483483 1.2585249 0.18889751 100 11 -0.081395268
-0.84166676 1.19757 0.23183592 70 12 -0.081390664
-0.83721441 1.1921192 0.28316057 1 13 -0.081386052
-0.84292549 1.2011425 0.33877629 75 14 -0.081381448
-0.87979043 1.2541393 0.41048703 100 15 -0.081376836
-0.60565794 0.86593395 -0.28314805 18 0 -0.081356101
-0.88251257 1.2617644 0.026876707 31 8 -0.081353799
-0.40645576 0.58134246 -0.16376437 92 1 -0.081351496
-0.58122987 0.83162522 0.053173337 31 9 -0.081349187
-0.41377616 0.59225273 -0.14043543 62 2 -0.081346884
-0.87612879 1.2545011 0.13387121 100 10 -0.081344582
-0.87724721 1.2565695 0.18816628 100 11 -0.08133997
-0.43169767 0.61859405 -0.092620708 4 4 -0.081337668
-0.83861113 1.2021209 0.23214878 73 12 -0.081335366
-0.82651836 1.185227 0.28087085 1 13 -0.081330754
-0.84116566 1.2071291 0.33967611 76 14 -0.081326149
-0.67892557 0.9746663 -0.020733459 2 7 -0.081323847
-0.87871873 1.2619591 0.41203994 100 15 -0.081321537
-0.6049872 0.87111098 -0.28418332 22 0 -0.081300803
-0.88266468 1.2714076 0.027016325 57 8 -0.0812985
-0.4044241 0.58275765 -0.16376437 92 1 -0.081296198
-0.56693888 0.81723875 0.052126616 15 9 -0.081293896
-0.40845284 0.58878213 -0.13929057 70 2 -0.081291586
-0.87991184 1.2688601 0.13509139 100 10 -0.081289284
-0.8728559 1.2596239 0.18816628 100 11 -0.081284679
-0.42953587 0.62009704 -0.092620708 4 4 -0.08128237
-0.83890826 1.2115369 0.23340026 73 12 -0.081280068
-0.84919298 1.2268473 0.2900297 3 13 -0.081275463
-0.83694655 1.2100583 0.33967611 75 14 -0.081270851
-0.67779386 0.98031968 -0.020803269 9 7 -0.081268549
-0.8907842 1.2888569 0.41980451 100 15 -0.081266247
-0.605079 0.87809467 -0.28573623 22 0 -0.081245512
-0.87708682 1.2728343 0.026981421 52 8 -0.081243202
-0.40349302 0.58577049 -0.16421427 100 1 -0.0812409
-0.80874479 1.1745342 0.074735753 6 9 -0.081238598
-0.40406597 0.58704078 -0.13852733 64 2 -0.081236295
-0.87525493 1.2720767 0.13509139 100 10 -0.081233986
-0.872953 1.2692055 0.18914123 100 11 -0.081229381
-0.83019829 1.2079462 0.23214878 73 12 -0.081224769
-0.84913671 1.2364248 0.29155618 33 13 -0.081220165
-0.82919812 1.2082971 0.33832639 68 14 -0.08121556
-0.64947468 0.94640642 -0.020035362 4 7 -0.081213251
-0.8884657 1.2951442 0.42083979 100 15 -0.081210949
-0.59982878 0.87701237 -0.28470096 24 0 -0.081190214
-0.88483024 1.294199 0.027365373 9 8 -0.081187911
-0.41123933 0.60172558 -0.16826339 86 1 -0.081185602
-0.84048784 1.230263 0.078085259 39 9 -0.081183299
-0.40533665 0.59331101 -0.13967219 63 2 -0.081180997
-0.87530404 1.2817054 0.13578865 100 10 -0.081178695
-0.8750093 1.2822345 0.19060367 100 11 -0.081174083
-0.48102012 0.70514894 -0.10480764 3 4 -0.081171781
-0.82687855 1.2126129 0.23246165 70 12 -0.081169479
-0.84481525 1.2393814 0.29155618 58 13 -0.081164867
-0.83375192 1.224069 0.34192562 72 14 -0.081160262
-0.6595071 0.96861559 -0.02045422 2 7 -0.08115796
-0.87719065 1.2888099 0.41773397 81 15 -0.08115565
-0.59676349 0.87910098 -0.28470096 24 0 -0.081134915
-0.89153582 1.3138264 0.027714422 6 8 -0.081132613
-0.40366679 0.59509373 -0.16601388 90 1 -0.081130311
-0.87766111 1.2943531 0.081958115 66 9 -0.081128009
-0.40546665 0.59797227 -0.14043543 62 2 -0.081125699
-0.86523563 1.2765065 0.1349171 100 10 -0.081123397
-0.86941451 1.2836376 0.19035992 88 11 -0.081118792
-0.45407164 0.67066056 -0.099445395 4 4 -0.081116483
-0.83039123 1.2269431 0.23465173 73 12 -0.08111418
-0.83828324 1.2390709 0.29079291 64 13 -0.081109576
-0.83493143 1.2350439 0.34417513 70 14 -0.081104964
-0.65612173 0.97091198 -0.02045422 2 7 -0.081102662
-0.86727923 1.2838602 0.41514575 70 15 -0.08110036
-0.59800923 0.88758731 -0.28677151 28 0 -0.081079625
-0.87800753 1.3036619 0.027435182 36 8 -0.081077315
-0.39614537 0.58841664 -0.16376437 92 1 -0.081075013
-0.87871349 1.3056936 0.082481474 98 9 -0.08107271
-0.40995374 0.60915637 -0.14272514 59 2 -0.081070408
-0.86855894 1.2910911 0.13613726 100 10 -0.081068099
-0.86160636 1.2817221 0.18962872 64 11 -0.081063494
-0.46722814 0.69530874 -0.10285773 3 4 -0.081061192
-0.83161044 1.2380334 0.23621608 76 12 -0.081058882
-0.8317644 1.2387296 0.2900297 70 13 -0.081054278
-0.83712947 1.2476605 0.34687454 70 14 -0.081049666
-0.86494422 1.2900887 0.41618103 70 15 -0.081045061
-0.5970552 0.89288098 -0.28780681 24 0 -0.081024326
-0.87678552 1.3117061 0.027539898 60 8 -0.081022024
-0.39625448 0.59303641 -0.16466418 91 1 -0.081019714
-0.87193197 1.305431 0.082272127 87 9 -0.081017412
-0.40782499 0.6105836 -0.14272514 59 2 -0.08101511
-0.86736614 1.299086 0.1366602 100 10 -0.081012808
-0.85602564 1.2830703 0.18938497 54 11 -0.081008196
-0.44497284 0.66720819 -0.098470435 4 4 -0.081005894
-0.83166647 1.2475034 0.23746756 76 12 -0.081003591
-0.54595721 0.81893826 -0.086109869 1 5 -0.081001282
-0.83396792 1.2514275 0.29231939 74 13 -0.08099898
-0.83276892 1.2505752 0.34687454 85 14 -0.080994375
-0.86043537 1.2931002 0.41618103 69 15 -0.080989763
-0.58966172 0.88852125 -0.28573623 28 0 -0.080845118
-0.87330735 1.3164248 0.027574802 98 8 -0.080842815
-0.40172082 0.60578471 -0.16781349 87 1 -0.080840513
-0.86649406 1.3066509 0.082167462 95 9 -0.080838203
-0.40460628 0.61036718 -0.14234352 52 2 -0.080835901
-0.87052965 1.3137318 0.13788037 100 10 -0.080833599
-0.85811698 1.2959818 0.19084741 54 11 -0.080828987
-0.43825835 0.66213608 -0.097495481 4 4 -0.080826685
-0.82534462 1.2469597 0.23684181 61 12 -0.080824383
-0.54309541 0.82083887 -0.086109869 1 5 -0.08082208
-0.82742822 1.2510563 0.29155618 61 13 -0.080819771
-0.82624984 1.2502228 0.34597474 71 14 -0.080815166
-0.86659765 1.3112742 -0.027435182 1 7 -0.080812864
-0.85294831 1.2911106 0.41462815 68 15 -0.080810554
-0.59186977 0.89864081 -0.28832445 22 0 -0.080789819
-0.87663615 1.331004 0.027819136 100 8 -0.080787517
-0.40078145 0.6087411 -0.16826339 86 1 -0.080785215
-0.87400603 1.3280196 0.083318852 91 9 -0.080782913
-0.40139434 0.61013556 -0.1419619 60 2 -0.080780603
-0.86374938 1.3134331 0.13753176 100 10 -0.080778301
-0.85490525 1.3004789 0.19109115 48 11 -0.080773696
-0.4513225 0.68681127 -0.10090782 3 4 -0.080771387
-0.82532537 1.2564372 0.23809329 61 12 -0.080769084
-0.51398122 0.78275895 -0.081926398 3 5 -0.080766782
-0.83836144 1.2767683 0.29689881 59 13 -0.08076448
-0.82958305 1.2643609 0.34912404 68 14 -0.080759868
-0.87298256 1.3310122 -0.027784232 4 7 -0.080757566
-0.84208053 1.2843869 0.4115223 65 15 -0.080755264
-0.58782941 0.89898157 -0.28780681 28 0 -0.080734529
-0.86870205 1.3290346 0.027714422 98 8 -0.080732219
-0.39865395 0.61013651 -0.16826339 86 1 -0.080729917
-0.87154961 1.3344065 0.083528191 87 9 -0.080727614
-0.41117826 0.62954414 -0.14615969 63 2 -0.080725312
-0.85938877 1.3162904 0.13753176 100 10 -0.080723003
-0.859038 1.3167555 0.19304106 50 11 -0.080718398
-0.46627179 0.71498674 -0.10480764 3 4 -0.080716096
-0.82524914 1.2659297 0.23934476 76 12 -0.080713786
-0.50485414 0.77444476 -0.08088053 3 5 -0.080711484
-0.83068371 1.2747526 0.29575396 66 13 -0.080709182
-0.83154434 1.2770476 0.35182345 82 14 -0.080704577
-0.86505818 1.329024 -0.027679518 19 7 -0.080702268
-0.83021736 1.2759835 0.40789884 51 15 -0.080699965
-0.58889395 0.90751034 -0.28987733 39 0 -0.08067923
-0.86079311 1.3270257 0.027609706 94 8 -0.080676928
-0.40076277 0.61806458 -0.170063 84 1 -0.080674618
-0.86797231 1.3391168 0.083632864 95 9 -0.080672316
-0.40150329 0.61944348 -0.14348838 59 2 -0.080670014
-0.86020601 1.3276423 0.13840331 100 10 -0.080667712
-0.85551494 1.3214127 0.19328479 51 11 -0.0806631
-0.44867373 0.69327837 -0.1013953 3 4 -0.080660798
-0.82404435 1.2737782 0.24028336 73 12 -0.080658495
-0.50431234 0.77954793 -0.08122915 3 5 -0.080656193
-0.82516313 1.2759957 0.29537234 80 13 -0.080653884
-0.82708186 1.2799424 0.35182345 96 14 -0.080649279
-0.86909419 1.3454732 -0.027958756 35 7 -0.080646977
-0.82575858 1.2788736 0.40789884 39 15 -0.080644667
-0.59095198 0.91768163 -0.29246551 71 0 -0.080623932
-0.86589742 1.345155 0.02792385 98 8 -0.08062163
-0.396494 0.61618209 -0.1691632 85 1 -0.080619328
-0.86329228 1.3421386 0.083632864 83 9 -0.080617018
-0.40358669 0.62744606 -0.14501485 57 2 -0.080614716
-0.86203128 1.3406924 0.13944918 100 10 -0.080612414
-0.42828766 0.66635835 -0.12546046 1 3 -0.080610111
-0.84123975 1.3093603 0.19109115 55 11 -0.080607809
-0.45054168 0.70152164 -0.10237025 3 4 -0.080605499
-0.82066053 1.2783091 0.24059623 70 12 -0.080603197
-0.52311575 0.81483585 -0.084715381 2 5 -0.080600895
-0.82282436 1.2821732 0.29613557 76 13 -0.080598593
-0.81840092 1.27626 0.35002384 92 14 -0.080593981
-0.86655015 1.3518659 -0.028028565 30 7 -0.080591679
-0.82545805 1.2882547 0.40996939 15 15 -0.080589376
-0.58566481 0.9164831 -0.29143026 82 0 -0.080568634
-0.87303782 1.366707 0.028307803 100 8 -0.080566332
-0.39958441 0.62577474 -0.17141271 91 1 -0.08056403
-0.86290079 1.3518779 0.084051557 95 9 -0.080561727
-0.40139419 0.62885094 -0.14501485 57 2 -0.080559425
-0.86377656 1.3537709 0.14049506 100 10 -0.080557115
-0.42595884 0.66784942 -0.12546046 1 3 -0.080554813
-0.84093308 1.3189839 0.1920661 52 11 -0.080552511
-0.4587591 0.71983016 -0.10480764 3 4 -0.080550209
-0.81619304 1.2811661 0.24059623 68 12 -0.080547899
-0.50313985 0.7897712 -0.081926398 3 5 -0.080545597
-0.82678062 1.2982851 0.29918852 76 13 -0.080543295
-0.8160336 1.282397 0.35092363 90 14 -0.080538683
-0.84143442 1.3228241 -0.027365373 7 7 -0.08053638
-0.82510281 1.297649 0.41203994 6 15 -0.080534078
-0.5772894 0.91036433 -0.28884208 54 0 -0.080513343
-0.87147379 1.3748128 0.028412517 100 8 -0.080511041
-0.40052655 0.63210416 -0.17276241 99 1 -0.080508731
-0.86458915 1.3650051 0.084679581 95 9 -0.080506429
-0.39709577 0.62693101 -0.14425161 58 2 -0.080504127
-0.85584861 1.3517276 0.13997212 100 10 -0.080501825
-0.42362484 0.66933233 -0.12546046 1 3 -0.080499515
-0.83526278 1.3202336 0.19182236 54 11 -0.080497213
-0.81277126 1.2856774 0.2409091 65 12 -0.080492608
-0.49825051 0.7881546 -0.08157777 3 5 -0.080490299
-0.82853651 1.3111209 0.30147824 72 13 -0.080487996
-0.8157137 1.2918289 0.35272324 87 14 -0.080483392
-0.82778376 1.3119581 0.41566339 1 15 -0.08047878
-0.57102126 0.9074688 -0.28728914 18 0 -0.080458045
-0.86347508 1.3727688 0.028307803 100 8 -0.080455743
-0.40246695 0.64009726 -0.17456202 96 1 -0.080453441
-0.86725849 1.3798521 0.085412286 98 9 -0.080451131
-0.3969942 0.63163787 -0.14501485 57 2 -0.080448829
-0.85430443 1.3597682 0.14049506 100 10 -0.080446526
-0.42128599 0.67080688 -0.12546046 1 3 -0.080444224
-0.82959336 1.32146 0.19157861 55 11 -0.080441914
-0.81247753 1.2952 0.24216059 60 12 -0.08043731
-0.497614 0.79326451 -0.081926398 3 5 -0.080435008
-0.82082564 1.3090155 0.30033338 68 13 -0.080432698
-0.81533843 1.3012737 0.35452285 86 14 -0.080428094
-0.81704843 1.3050151 0.41255757 1 15 -0.080423489
-0.58319771 0.93403637 -0.29505375 16 0 -0.080402747
-0.85973698 1.3774706 0.028342709 98 8 -0.080400445
-0.39300963 0.62992477 -0.17141271 91 1 -0.080398142
-0.86877829 1.3930389 0.086040318 98 9 -0.08039584
-0.39894271 0.63968301 -0.14654131 56 2 -0.08039353
-0.85482323 1.3711954 0.14136662 100 10 -0.080391228
-0.8218264 1.3192934 0.19084741 54 11 -0.080386624
-0.81108332 1.3030591 0.24309918 58 12 -0.080382012
-0.52011061 0.83559209 -0.086109869 1 5 -0.08037971
-0.81521368 1.3102058 0.29995176 59 13 -0.080377407
-0.82005173 1.3190063 0.35857198 80 14 -0.080372795
-0.58705544 0.94756204 -0.29867718 15 0 -0.080347456
-0.86124027 1.390664 0.028552137 98 8 -0.080345146
-0.39285973 0.63460672 -0.17231251 90 1 -0.080342844
-0.86075717 1.3909682 0.085726306 95 9 -0.080340542
-0.3987734 0.64441067 -0.14730455 55 2 -0.08033824
-0.85632002 1.3843378 0.14241248 100 10 -0.08033593
-0.81095421 1.3120223 0.18938497 56 11 -0.080331326
-0.81171954 1.314286 0.24466354 53 12 -0.080326721
-0.81372964 1.318055 0.30109662 57 13 -0.080322109
-0.81339592 1.3185439 0.35767215 75 14 -0.080317505
-0.62450927 1.0127473 -0.020768363 9 7 -0.080315195
-0.58070934 0.94466799 -0.29712427 15 0 -0.080292158
-0.86580324 1.4089953 0.02886628 100 8 -0.080289856
-0.38962233 0.63431364 -0.17186262 91 1 -0.080287546
-0.85694188 1.3956662 0.085830979 91 9 -0.080285244
-0.39035818 0.63576043 -0.14501485 57 2 -0.080282941
-0.85773605 1.3975066 0.14345835 100 10 -0.080280639
-0.81882346 1.3351514 0.19230984 65 11 -0.080276027
-0.80815923 1.3187954 0.2449764 55 12 -0.080271423
-0.8224557 1.3426509 0.30605766 59 13 -0.080266811
-0.81082344 1.3246992 0.35857198 71 14 -0.080262206
-0.5990538 0.97910011 -0.020035362 14 7 -0.080259904
-0.40015706 0.65427756 0.20550233 6 15 -0.080257595
-0.57841408 0.94833893 -0.29764193 15 0 -0.08023686
-0.86504388 1.4188383 0.0290059 100 8 -0.080234557
-0.39247635 0.64399022 -0.17411213 87 1 -0.080232255
-0.85622096 1.4054719 0.086249664 91 9 -0.080229953
-0.39017925 0.64047253 -0.14577809 56 2 -0.080227643
-0.85181671 1.3987904 0.14328404 100 10 -0.080225341
-0.46323541 0.76099062 -0.14110391 1 3 -0.080223039
-0.81209379 1.3346102 0.19182236 60 11 -0.080220737
-0.8066293 1.3266723 0.245915 57 12 -0.080216125
-0.81674397 1.3438363 0.30567604 57 13 -0.08021152
-0.60769278 1.0002655 -0.061337747 1 6 -0.080209211
-0.8092286 1.3325185 0.35992166 65 14 -0.080206908
-0.6205368 1.0222107 -0.020873079 2 7 -0.080204606
-0.38383994 0.63254863 0.19825539 7 15 -0.080202304
-0.57410014 0.94869912 -0.29712427 16 0 -0.080181569
-0.86008555 1.4218495 0.0290059 100 8 -0.080179259
-0.39224285 0.64869136 -0.17501192 86 1 -0.080176957
-0.86085677 1.4236852 0.087191716 95 9 -0.080174655
-0.39301905 0.65023136 -0.14768617 60 2 -0.080172352
-0.84589815 1.4000502 0.14310972 93 10 -0.080170043
-0.40951473 0.67805713 -0.12546046 1 3 -0.080167741
-0.81461209 1.3493323 0.19352853 63 11 -0.080165438
-0.8052876 1.3344135 0.24685362 55 12 -0.080160826
-0.8110345 1.3449975 0.30529439 53 13 -0.080156222
-0.57532823 0.95448524 -0.058406934 2 6 -0.08015392
-0.80681771 1.3385326 0.36082149 59 14 -0.08015161
-0.64810413 1.075647 -0.021920223 2 7 -0.080149308
-0.36579296 0.60733986 0.18997319 8 15 -0.080147006
-0.57393533 0.95556593 -0.29867718 28 0 -0.080126271
-0.85639542 1.4264079 0.029040804 98 8 -0.080123968
-0.39109212 0.65165955 -0.17546181 77 1 -0.080121659
-0.8612693 1.435095 0.087715074 98 9 -0.080119357
-0.38783088 0.64648038 -0.14654131 56 2 -0.080117054
-0.85149771 1.4199344 0.14485285 100 10 -0.080114752
-0.40726373 0.67941153 -0.12546046 1 3 -0.080112442
-0.8070724 1.3469176 0.1927973 60 11 -0.08011014
-0.80694795 1.3472447 0.24873082 60 12 -0.080105536
-0.80455375 1.3443103 0.30453119 54 13 -0.080100924
-0.56190586 0.9392485 -0.057360213 2 6 -0.080098622
-0.80837685 1.3512349 0.36352089 58 14 -0.080096319
-0.84569353 1.4141711 -0.028761568 1 7 -0.080094017
-0.36377704 0.60854948 0.18997319 8 15 -0.080091707
-0.56878483 0.95414537 -0.29764193 31 0 -0.080070972
-0.85575473 1.4361117 0.029180422 98 8 -0.08006867
-0.39092365 0.65630126 -0.17636162 100 1 -0.080066368
-0.85625494 1.4380925 0.087715074 91 9 -0.080064058
-0.39371982 0.6612581 -0.14959426 58 2 -0.080061756
-0.85493588 1.4364473 0.14624733 98 10 -0.080059454
-0.40500864 0.68075824 -0.12546046 1 3 -0.080057152
-0.8046304 1.3529992 0.19328479 64 11 -0.080054842
-0.80022234 1.3466568 0.24810509 51 12 -0.080050237
-0.80811214 1.3604746 0.30758414 53 13 -0.080045633
-0.56184733 0.94625849 -0.057674225 6 6 -0.080043323
-0.80564481 1.3573998 0.36442071 57 14 -0.080041021
-0.86421978 1.4566697 -0.029564377 18 7 -0.080038719
-0.35573789 0.59984595 0.18686737 8 15 -0.080036417
-0.56725019 0.95954943 -0.29867718 20 0 -0.080015674
-0.85582489 1.4476968 0.029354947 94 8 -0.080013372
-0.38962188 0.65933943 -0.17681152 83 1 -0.08001107
-0.8481828 1.4359134 0.087401055 95 9 -0.080008768
-0.38730094 0.65593445 -0.14806779 54 2 -0.080006465
-0.85472912 1.44815 0.1471189 94 10 -0.080004156
-0.402511 0.68223798 -0.12546046 1 3 -0.080001853
-0.80393779 1.3626384 0.19425975 64 11 -0.079999551
-0.80454558 1.3647569 0.25092092 57 12 -0.079994939
-0.81109124 1.3769603 0.31063706 52 13 -0.079990335
-0.55432206 0.94142717 -0.057255544 5 6 -0.079988033
-0.80264157 1.3637022 0.3653205 57 14 -0.079985723
-0.85202986 1.4476138 -0.029320043 22 7 -0.079983421
-0.3232736 0.5494675 0.17082058 21 15 -0.079981118
-0.56682891 0.96652311 -0.30023012 16 0 -0.079960383
-0.85455793 1.4577246 0.029494567 94 8 -0.079958081
-0.39212874 0.66916984 -0.17906104 80 1 -0.079955772
-0.85300857 1.4562464 0.088447772 95 9 -0.079953469
-0.38798562 0.66236454 -0.14921264 59 2 -0.079951167
-0.84564167 1.4442476 0.14642164 94 10 -0.079948865
-0.4001269 0.68363899 -0.12546046 1 3 -0.079946555
-0.80695713 1.3792833 0.19620967 64 11 -0.079944253
-0.79854077 1.3659914 0.25060806 55 12 -0.079939649
-0.8102423 1.3865632 0.31216353 52 13 -0.079935037
-0.56110591 0.96060246 -0.058302261 4 6 -0.079932734
-0.80377167 1.3765931 0.36801991 56 14 -0.079930432
-0.81849402 1.4023695 -0.028342709 1 7 -0.079928122
-0.32807216 0.56232899 0.17444403 41 15 -0.07992582
-0.56053746 0.96348619 -0.29867718 18 0 -0.079905085
-0.8514753 1.4641559 0.029564377 94 8 -0.079902783
-0.38979068 0.67053449 -0.17906104 72 1 -0.079900481
-0.85394114 1.4695761 0.089075804 95 9 -0.079898171
-0.39158952 0.67389959 -0.15150236 56 2 -0.079895869
-0.84459829 1.4540818 0.1471189 90 10 -0.079893567
-0.39773822 0.68503147 -0.12546046 1 3 -0.079891264
-0.80712014 1.3906759 0.19742836 63 11 -0.079888955
-0.47814956 0.82418764 -0.11699458 1 4 -0.079886653
-0.80466872 1.3875674 0.2540496 57 12 -0.07988435
-0.80539763 1.389383 0.31216353 52 13 -0.079879738
-0.55074012 0.95045835 -0.057569556 6 6 -0.079877436
-0.80384487 1.387822 0.37026942 51 14 -0.079875134
-0.58715051 1.0141104 -0.02045422 2 7 -0.079872832
-0.32417205 0.56012666 0.17340876 41 15 -0.079870522
-0.55620497 0.96376395 -0.29815957 22 0 -0.079849787
-0.84635961 1.4671189 0.029564377 89 8 -0.079847485
-0.388421 0.67357928 -0.17951094 64 1 -0.079845183
-0.85479039 1.4829305 0.089703836 95 9 -0.07984288
-0.3902151 0.67696351 -0.15188397 56 2 -0.079840571
-0.8415072 1.4604737 0.14746751 90 10 -0.079838268
-0.39534444 0.68641573 -0.12546046 1 3 -0.079835966
-0.79829872 1.3866036 0.19645341 63 11 -0.079833664
-0.80572993 1.4006416 0.25592682 57 12 -0.079829052
-0.54045486 0.93950033 -0.094825447 1 5 -0.07982675
-0.80249977 1.3955899 0.31292677 51 13 -0.079824448
-0.53846109 0.93679076 -0.056627508 8 6 -0.079822138
-0.80579174 1.4024473 0.37341875 39 14 -0.079819836
-0.57563937 1.0022815 -0.020174982 14 7 -0.079817533
-0.32221472 0.56125492 0.17340876 41 15 -0.079815231
-0.55859637 0.97575885 -0.30126539 24 0 -0.079794496
-0.84520555 1.4770069 0.029703995 94 8 -0.079792187
-0.38413236 0.67154783 -0.17861113 65 1 -0.079789884
-0.84663492 1.4807035 0.089389823 87 9 -0.079787582
-0.39564577 0.69195592 -0.15493691 58 2 -0.07978528
-0.84727889 1.4824301 0.14938495 82 10 -0.07978297
-0.40078545 0.70151299 -0.12796341 1 3 -0.079780668
-0.79640728 1.3945529 0.19718461 69 11 -0.079778366
-0.8067103 1.4137398 0.25780404 57 12 -0.079773754
-0.80151451 1.4052039 0.31445324 50 13 -0.079769149
-0.54013425 0.94733983 -0.057150867 9 6 -0.079766847
-0.80282152 1.4086374 0.37431854 22 14 -0.079764545
-0.58005589 1.0181851 -0.02045422 2 7 -0.079762235
-0.31260592 0.54894632 0.16926767 43 15 -0.079759933
-0.55995679 0.98610222 -0.30385357 31 0 -0.079739198
-0.84991556 1.4973392 0.030053046 80 8 -0.079736896
-0.38851777 0.68474901 -0.18176045 53 1 -0.079734586
-0.84835875 1.4958107 0.090122528 95 9 -0.079732284
-0.39129105 0.68991727 -0.15417367 60 2 -0.079729982
-0.84602916 1.4923117 0.15008219 82 10 -0.079727679
-0.41976073 0.74071687 -0.13484652 1 3 -0.07972537
-0.79349095 1.4007791 0.1976721 64 11 -0.079723068
-0.79982477 1.4131086 0.25717828 57 12 -0.079718463
-0.80627173 1.4250807 0.31826943 50 13 -0.079713851
-0.57221884 1.0118055 -0.060919058 1 6 -0.079711549
-0.7998172 1.4148244 0.37521836 10 14 -0.079709247
-0.32018882 0.56685483 0.17444403 41 15 -0.079704635
-0.54892653 0.97458518 -0.29971248 31 0 -0.0796839
-0.84860826 1.5072668 0.030192664 89 8 -0.079681598
-0.39281526 0.69798899 -0.18490976 57 1 -0.079679295
-0.84704876 1.5057261 0.090541214 83 9 -0.079676993
-0.3840673 0.68272358 -0.15226559 56 2 -0.079674684
-0.83886206 1.4917824 0.14973356 86 10 -0.079672381
-0.41620445 0.74045569 -0.13453366 9 3 -0.079670079
-0.80026531 1.4243077 0.20059694 64 11 -0.079667777
-0.79295284 1.4124472 0.25655255 57 12 -0.079663165
-0.80321413 1.4313103 0.31903264 51 13 -0.07965856
-0.80345178 1.4329053 0.37926748 2 14 -0.079653949
-0.31348711 0.55954212 0.17185585 52 15 -0.079649344
-0.54457927 0.97480869 -0.29919481 30 0 -0.079628609
-0.84139204 1.5067277 0.030122854 80 8 -0.079626299
-0.39512536 0.70786393 -0.18715927 41 1 -0.079623997
-0.84665382 1.5173941 0.091064572 87 9 -0.079621695
-0.38168198 0.68405998 -0.15226559 56 2 -0.079619393
-0.83559096 1.4981815 0.15008219 82 10 -0.079617083
-0.40303615 0.72292525 -0.1310921 13 3 -0.079614781
-0.79722166 1.4305604 0.20108443 69 11 -0.079612479
-0.46369275 0.83240694 -0.11699458 1 4 -0.079610176
-0.78129023 1.4031256 0.25436246 51 12 -0.079607867
-0.80012232 1.4375365 0.31979591 50 13 -0.079603262
-0.3665458 0.65909421 0.17411213 9 14 -0.07959865
-0.83169603 1.496106 -0.029878521 1 7 -0.079596348
-0.30590203 0.55050105 0.16875002 43 15 -0.079594046
-0.54398185 0.98177326 -0.30074775 28 0 -0.079573311
-0.84000254 1.5166531 0.030262474 80 8 -0.079571009
-0.41247356 0.74504173 -0.19660722 32 1 -0.079568699
-0.84715396 1.5308255 0.091692604 80 9 -0.079566397
-0.38879773 0.70256591 -0.15608177 51 2 -0.079564095
-0.83807105 1.5150366 0.15147668 86 10 -0.079561792
-0.39859861 0.72087014 -0.13046636 14 3 -0.079559483
-0.79222286 1.4333347 0.20108443 64 11 -0.07955718
-0.41854554 0.75756872 -0.10627007 3 4 -0.079554878
-0.79835218 1.4456158 0.26155844 57 12 -0.079552576
-0.58754665 1.0638998 -0.10633 1 5 -0.079550266
-0.79509979 1.4403206 0.31979591 50 13 -0.079547964
-0.38494933 0.69791001 0.18400995 15 14 -0.07954336
-0.85060644 1.5427791 -0.030751141 11 7 -0.079541057
-0.30304599 0.54987359 0.16823238 43 15 -0.079538748
-0.5442732 0.99043822 -0.3028183 20 0 -0.079514742
-0.84048009 1.5300918 0.0304719 80 8 -0.07951244
-0.42018765 0.76526695 -0.20155615 27 1 -0.079510137
-0.83988357 1.5302714 0.091483258 80 9 -0.079507828
-0.38917691 0.70908195 -0.15722662 56 2 -0.079505526
-0.84044367 1.5319273 0.15287116 86 10 -0.079503223
-0.39797971 0.72572112 -0.1310921 17 3 -0.079500921
-0.78912342 1.4395726 0.20157191 64 11 -0.079498611
-0.42162177 0.76947051 -0.10773251 2 4 -0.079496309
-0.79709721 1.4553238 0.26280993 57 12 -0.079494007
-0.58478677 1.0676917 -0.10650431 2 5 -0.079491705
-0.7938388 1.4499753 0.32132238 51 13 -0.079489395
-0.52543598 0.96012658 -0.057360213 1 6 -0.079487093
-0.37409386 0.68386251 0.17996083 16 14 -0.079484791
-0.84809369 1.5510026 -0.030855855 46 7 -0.079482488
-0.30575725 0.55940402 0.17082058 42 15 -0.079480179
-0.54173726 0.99402815 -0.30333593 16 0 -0.079459444
-0.83991671 1.5417967 0.030646425 74 8 -0.079457141
-0.42590117 0.78213215 -0.20560527 20 1 -0.079454839
-0.83740169 1.5384563 0.091797277 83 9 -0.079452537
-0.39420822 0.72423089 -0.16027956 57 2 -0.079450227
-0.84270918 1.5488524 0.15426566 86 10 -0.079447925
-0.39544386 0.72710603 -0.1310921 17 3 -0.079445623
-0.78883374 1.4510387 0.2027906 67 11 -0.079443321
-0.40755966 0.75000703 -0.10480764 3 4 -0.079441011
-0.78258318 1.4407392 0.25968125 53 12 -0.079438709
-0.56488913 1.0399634 -0.10354102 1 5 -0.079436406
-0.79439288 1.4630896 0.32361206 50 13 -0.079434104
-0.37170425 0.68516427 0.17996083 50 14 -0.079429492
-0.84172153 1.5521957 -0.030820949 59 7 -0.07942719
-0.30748528 0.5672614 0.17289113 41 15 -0.079424888
-0.52816004 0.97721875 -0.29764193 15 0 -0.079404153
-0.84023297 1.5552751 0.030855855 74 8 -0.079401843
-0.45742947 0.84705758 -0.22225164 9 1 -0.079399541
-0.83866698 1.5536731 0.092529982 78 9 -0.079397239
-0.38235196 0.70832634 -0.15646338 56 2 -0.079394937
-0.83635175 1.5500311 0.15409136 90 10 -0.079392627
-0.40134299 0.74412948 -0.13390793 15 3 -0.079390325
-0.79318452 1.4712567 0.205228 56 11 -0.079388022
-0.78691775 1.4608531 0.26280993 53 12 -0.079383411
-0.79300427 1.4727679 0.32513854 50 13 -0.079378806
-0.54333144 1.0094974 -0.060081679 1 6 -0.079376504
-0.37115672 0.68988997 0.18086064 73 14 -0.079374202
-0.83535141 1.5533628 -0.030786045 8 7 -0.079371892
-0.30275938 0.56322646 0.17133822 31 15 -0.07936959
-0.52839583 0.98586738 -0.29971248 15 0 -0.079348855
-0.83291054 1.5546731 0.030786045 74 8 -0.079346552
-0.52438819 0.97921079 -0.25644422 6 1 -0.079344243
-0.83700848 1.5636348 0.092948668 77 9 -0.079341941
-0.38728914 0.72350371 -0.15951632 57 2 -0.079339638
-0.83281553 1.5564547 0.15443997 90 10 -0.079337336
-0.3940846 0.73681647 -0.13234358 16 3 -0.079335026
-0.79272318 1.4827697 0.20644669 57 11 -0.079332724
-0.78832835 1.475788 0.26500002 55 12 -0.07932812
-0.51067775 0.95601285 -0.094825447 1 5 -0.079325818
-0.79155701 1.4824547 0.32666501 51 13 -0.079323508
-0.54168493 1.014912 -0.06029103 1 6 -0.079321206
-0.36874643 0.6911813 0.18086064 97 14 -0.079318903
-0.29715642 0.55746084 0.16926767 32 15 -0.079314291
-0.52857798 0.99452913 -0.301783 15 0 -0.079293557
-0.83216918 1.566401 0.030960569 71 8 -0.079291254
-0.5319348 1.0016885 -0.26184303 7 1 -0.079288952
-0.83903694 1.5806597 0.093786038 74 9 -0.079286642
-0.38568196 0.72658533 -0.15989795 52 2 -0.07928434
-0.83298075 1.569912 0.15548584 94 10 -0.079282038
-0.39151037 0.73818749 -0.13234358 16 3 -0.079279736
-0.78568327 1.4820199 0.2059592 57 11 -0.079277433
-0.78687096 1.4855129 0.26625147 60 12 -0.079272822
-0.50733775 0.95778954 -0.094825447 1 5 -0.079270519
-0.78637779 1.4852084 0.32666501 51 13 -0.079268217
-0.36633167 0.69246417 0.18086064 100 14 -0.079263605
-0.82822579 1.5662279 -0.030925665 1 7 -0.079261303
-0.30152828 0.57045013 0.17289113 41 15 -0.079259001
-0.52510345 0.99636805 -0.301783 15 0 -0.079238258
-0.83322006 1.5816811 0.031204903 73 8 -0.079235956
-0.5338825 1.013885 -0.26454243 10 1 -0.079233654
-0.83537519 1.5871136 0.093995392 74 9 -0.079231352
-0.38588673 0.73313892 -0.16104279 51 2 -0.079229049
-0.83213371 1.5816265 0.15635739 86 10 -0.07922674
-0.39076996 0.74304646 -0.1329693 22 3 -0.079224437
-0.78512388 1.4935387 0.20717789 56 11 -0.079222135
-0.78627306 1.496995 0.26781586 73 12 -0.079217523
-0.48731488 0.92780471 -0.091687836 1 5 -0.079215221
-0.79031503 1.5053267 0.3304812 51 13 -0.079212919
-0.36119634 0.68856162 0.17951094 100 14 -0.079208307
-0.87011254 1.6594309 -0.03270581 7 7 -0.079206005
-0.28967011 0.55267745 0.16719711 33 15 -0.079203703
-0.521622 0.99819505 -0.301783 15 0 -0.079182968
-0.83139759 1.5916697 0.031344522 73 8 -0.079180665
-0.54747725 1.0485641 -0.2730906 11 1 -0.079178356
-0.82825828 1.5863342 0.093786038 75 9 -0.079176053
-0.37969166 0.72751963 -0.15951632 57 2 -0.079173751
-0.83490175 1.6004195 0.1579262 90 10 -0.079171449
-0.38817403 0.74440593 -0.1329693 28 3 -0.079169139
-0.78632808 1.5085927 0.20888408 57 11 -0.079166837
-0.77582836 1.4890827 0.26593861 48 12 -0.079162233
-0.47118938 0.90476054 -0.08924748 1 5 -0.079159923
-0.79230738 1.5220078 0.33353412 49 13 -0.079157621
-0.35159698 0.67598724 0.17591172 100 14 -0.079153016
-0.8424595 1.6197292 -0.031868093 27 7 -0.079150707
-0.29763833 0.57248938 0.17289113 41 15 -0.079148404
-0.51991171 1.0034406 -0.3028183 15 0 -0.079127669
-0.83531386 1.6121733 0.03169357 76 8 -0.079125367
-0.58611894 1.1317041 -0.29423597 10 1 -0.079123065
-0.83373475 1.6104997 0.095042109 77 9 -0.079120755
-0.37714961 0.72884071 -0.15951632 52 2 -0.079118453
-0.82747978 1.5997846 0.15757757 94 10 -0.079116151
-0.3857035 0.74568892 -0.1329693 31 3 -0.079113849
-0.78861493 1.5252986 0.21083398 55 11 -0.079111539
-0.77334601 1.4970468 0.26687723 50 12 -0.079106934
-0.46345791 0.89754808 -0.088375926 9 5 -0.079104632
-0.7944622 1.5385821 0.33658707 49 13 -0.079102322
-0.56061757 1.086177 -0.06405922 1 6 -0.07910002
-0.3556079 0.68927228 0.17906104 100 14 -0.079097718
-0.82580155 1.6013329 -0.031449236 37 7 -0.079095416
-0.28767172 0.55807066 0.16823238 43 15 -0.079093114
-0.50775158 0.98797667 -0.29764193 15 0 -0.079072371
-0.82785404 1.6115216 0.031623758 74 8 -0.079070069
-0.59907776 1.1666808 -0.30278412 9 1 -0.079067767
-0.83357966 1.6240616 0.095670134 75 9 -0.079065464
-0.3801097 0.74056697 -0.16180603 55 2 -0.079063155
-0.82580763 1.6096109 0.15827483 90 10 -0.079060853
-0.38219661 0.74527317 -0.13265644 34 3 -0.07905855
-0.79052961 1.5421745 0.21278389 55 11 -0.079056248
-0.77441859 1.5120447 0.26906732 49 12 -0.079051636
-0.45396626 0.88674605 -0.087155737 19 5 -0.079049334
-0.79087561 1.5448413 0.33735034 42 13 -0.079047032
-0.58593786 1.1450227 -0.067408718 1 6 -0.079044729
-0.35319957 0.6905095 0.17906104 100 14 -0.07904242
-0.83841383 1.6398151 -0.032147333 15 7 -0.079040118
-0.27956805 0.54702985 0.16460893 56 15 -0.079037815
-0.50237328 0.98638821 -0.29660663 13 0 -0.07901708
-0.82403916 1.6179652 0.03169357 73 8 -0.079014771
-0.59323359 1.1652913 -0.30188429 9 1 -0.079012468
-0.83515227 1.6412016 0.096507512 80 9 -0.079010166
-0.38184339 0.75070459 -0.16371413 42 2 -0.079007864
-0.82532078 1.6232827 0.1593207 90 10 -0.079005554
-0.38125259 0.75019091 -0.13328218 34 3 -0.079003252
-0.77974582 1.5343063 0.21132146 55 11 -0.07900095
-0.77271277 1.5217841 0.27031878 51 12 -0.078996345
-0.44816315 0.88299525 -0.086632803 64 5 -0.078994036
-0.78698498 1.5512311 0.33811355 25 13 -0.078991733
-0.56728375 1.1186618 -0.065733969 2 6 -0.078989431
-0.35330972 0.69701385 0.18041074 99 14 -0.078987129
-0.83268505 1.6427315 -0.032147333 35 7 -0.078984819
-0.28464204 0.5617885 0.16875002 54 15 -0.078982517
-0.50066835 0.99158502 -0.29764193 13 0 -0.078961782
-0.82080603 1.6263304 0.031798285 71 8 -0.07895948
-0.58632517 1.1622384 -0.30053461 10 1 -0.07895717
-0.82761872 1.6405406 0.096298166 75 9 -0.078954868
-0.38364023 0.76079792 -0.16562222 45 2 -0.078952566
-0.82323611 1.6332706 0.16001794 94 10 -0.078950264
-0.38040903 0.75504559 -0.13390793 37 3 -0.078947961
-0.78036672 1.5495648 0.21302763 53 11 -0.078945652
-0.77450192 1.5385875 0.27282172 47 12 -0.078941047
-0.44955564 0.89345336 -0.087504365 34 5 -0.078938745
-0.7824471 1.555723 0.33849517 10 13 -0.078936435
-0.59028864 1.1741687 -0.068874128 2 6 -0.078934133
-0.34562433 0.68779546 0.17771132 100 14 -0.078931831
-0.82335377 1.6384811 -0.032007713 56 7 -0.078929529
-0.28007782 0.55759978 0.16719711 44 15 -0.078927219
-0.48077482 0.96050352 -0.28780681 16 0 -0.078906484
-0.82704467 1.6522897 0.032252047 76 8 -0.078904182
-0.58246803 1.1641762 -0.30053461 10 1 -0.078901879
-0.8236742 1.6469922 0.096507512 72 9 -0.078899577
-0.37747097 0.75510806 -0.16409574 57 2 -0.078897268
-0.8264358 1.653957 0.16176106 94 10 -0.078894965
-0.38320094 0.76690513 -0.13578513 39 3 -0.078892663
-0.77877212 1.5592476 0.21400258 56 11 -0.078890361
-0.77000886 1.543049 0.27313459 46 12 -0.078885749
-0.44643435 0.89501703 -0.087504365 27 5 -0.078883447
-0.78692359 1.5776341 0.34269297 2 13 -0.078881145
-0.59530365 1.1939937 -0.069920845 2 6 -0.078878835
-0.34160331 0.68544942 0.17681152 100 14 -0.078876533
-0.66694337 1.3388506 -0.0261088 15 7 -0.07887423
-0.28932366 0.58105552 0.17392641 41 15 -0.078871928
-0.46040782 0.92748475 -0.27745402 38 0 -0.078851193
-0.8266046 1.6659147 0.032461476 76 8 -0.078848884
-0.58446151 1.1784232 -0.30368391 9 1 -0.078846581
-0.82324314 1.6605936 0.097135544 77 9 -0.078844279
-0.37845308 0.76339149 -0.16562222 54 2 -0.078841977
-0.8227154 1.6602592 0.16210969 94 10 -0.078839667
-0.38315174 0.77354854 -0.13672373 37 3 -0.078837365
-0.7777288 1.5708512 0.21522127 57 11 -0.078835063
-0.76549339 1.5474981 0.27344745 47 12 -0.078830451
-0.43993008 0.88934928 -0.086807117 21 5 -0.078828149
-0.80577689 1.6296477 0.3533783 1 13 -0.078825846
-0.59290171 1.1996455 -0.070130184 1 6 -0.078823544
-0.33834526 0.68489063 0.17636162 100 14 -0.078821234
-0.64898473 1.3142756 -0.025585229 22 7 -0.078818932
-0.27532318 0.55780923 0.16667947 33 15 -0.07881663
-0.44863802 0.9117527 -0.27227765 52 0 -0.078795895
-0.82078481 1.6687897 0.032461476 74 8 -0.078793593
-0.5855034 1.190949 -0.30638334 10 1 -0.078791283
-0.8244881 1.6777977 0.097972922 77 9 -0.078788981
-0.37578583 0.76470798 -0.16562222 49 2 -0.078786679
-0.81955051 1.6684854 0.16263261 98 10 -0.078784376
-0.38044938 0.77488124 -0.13672373 48 3 -0.078782067
-0.77748781 1.5842491 0.21668372 55 11 -0.078779764
-0.76617491 1.5625762 0.27563757 43 12 -0.07877516
-0.42980593 0.87656808 -0.085412621 38 5 -0.07877285
-0.35079232 0.71573973 0.15493691 5 13 -0.078770548
-0.57289469 1.169423 -0.068246089 1 6 -0.078768246
-0.33680964 0.68781751 0.17681152 100 14 -0.078765944
-0.63911873 1.3057564 -0.0253758 41 7 -0.078763641
-0.27167651 0.55529624 0.1656442 22 15 -0.078761332
-0.4488399 0.92025858 -0.2743482 92 0 -0.078740597
-0.81670755 1.6752393 0.032531288 74 8 -0.078738295
-0.57280624 1.1754671 -0.30188429 10 1 -0.078735992
-0.82212442 1.6878481 0.098391607 75 9 -0.078733683
-0.37655288 0.77307522 -0.16714869 48 2 -0.07873138
-0.8198269 1.6838756 0.1638528 94 10 -0.078729078
-0.37774238 0.77620447 -0.13672373 55 3 -0.078726776
-0.76934755 1.5815982 0.2159525 51 11 -0.078724466
-0.76416934 1.572348 0.27688903 28 12 -0.078719862
-0.43458143 0.89419091 -0.086981431 24 5 -0.07871756
-0.33542368 0.69047129 0.14921264 12 13 -0.078715257
-0.33695921 0.69424868 0.17816123 100 14 -0.078710645
-0.63804781 1.315176 -0.025515417 45 7 -0.078708343
-0.28490934 0.58752972 0.17496169 20 15 -0.078706041
-0.44478428 0.92008042 -0.27383056 80 0 -0.078685299
-0.81781453 1.6924844 0.032810524 76 8 -0.078682996
-0.57378453 1.1879884 -0.30458373 9 1 -0.078680694
-0.81970143 1.6979017 0.0988103 78 9 -0.078678392
-0.38068053 0.7885288 -0.17020163 42 2 -0.07867609
-0.819139 1.6974934 0.16489866 90 10 -0.07867378
-0.37846318 0.78463525 -0.13797522 50 3 -0.078671478
-0.76813293 1.5932145 0.21717119 48 11 -0.078669176
-0.76296276 1.583904 0.27845338 13 12 -0.078664564
-0.4349162 0.90288228 -0.087678678 22 5 -0.078662261
-0.33982509 0.70578897 0.15226559 16 13 -0.078659959
-0.33284438 0.6919083 0.17726143 100 14 -0.078655347
-0.6325869 1.315593 -0.025480513 28 7 -0.078653045
-0.2820197 0.58677948 0.17444403 20 15 -0.078650743
-0.44073528 0.91988492 -0.2733129 94 0 -0.078630008
-0.8205393 1.713364 0.033159573 74 8 -0.078627706
-0.57131726 1.1934993 -0.30548352 9 1 -0.078625396
-0.81406677 1.7006105 0.0988103 78 9 -0.078623094
-0.3779259 0.78985274 -0.17020163 42 2 -0.078620791
-0.81836677 1.7111266 0.16594453 90 10 -0.078618489
-0.37827811 0.79129815 -0.13891383 53 3 -0.07861618
-0.76281381 1.5971206 0.2803306 11 12 -0.078609273
-0.43347886 0.90799081 -0.088027291 21 5 -0.078606963
-0.3466602 0.72646129 0.15646338 30 13 -0.078604661
-0.32539505 0.68251169 0.17456202 100 14 -0.078600056
-0.62822038 1.3176837 -0.025480513 28 7 -0.078597747
-0.28505889 0.59817511 0.17754988 9 15 -0.078595445
-0.42840633 0.9022218 -0.26761889 84 0 -0.07857471
-0.81914127 1.7251078 0.033334095 24 8 -0.078572407
-0.56401366 1.1883454 -0.30368391 9 1 -0.078570105
-0.81326151 1.714269 0.099438325 75 9 -0.078567795
-0.37011924 0.78052378 -0.16791193 51 2 -0.078565493
-0.811535 1.7121727 0.16577022 82 10 -0.078563191
-0.37903601 0.7996884 -0.1401653 50 3 -0.078560889
-0.76831925 1.6217275 0.22033979 7 11 -0.078558579
-0.76230532 1.6104863 0.28220782 15 12 -0.078553975
-0.42945445 0.90769756 -0.087852985 19 5 -0.078551672
-0.34173015 0.72228295 0.15531853 42 13 -0.078549363
-0.32646134 0.69063425 0.17636162 100 14 -0.078544758
-0.6176374 1.3072122 -0.02523618 33 7 -0.078542456
-0.28544393 0.60440707 0.17910279 19 15 -0.078540146
-0.42870373 0.9106288 -0.26968947 76 0 -0.078519411
-0.81907493 1.7406222 0.033578429 17 8 -0.078517109
-0.56152129 1.1938337 -0.30458373 10 1 -0.078514807
-0.81777358 1.7386441 0.1006944 75 9 -0.078512505
-0.3708702 0.78885359 -0.16943841 44 2 -0.078510195
-0.80500579 1.7130512 0.1655959 32 10 -0.078507893
-0.37792209 0.80458242 -0.14079103 53 3 -0.078505591
-0.77530867 1.6513529 0.22399586 29 11 -0.078503288
-0.76954818 1.6398293 0.28690085 35 12 -0.078498676
-0.41713497 0.88927478 -0.085935563 34 5 -0.078496374
-0.33087263 0.70569563 0.15150236 51 13 -0.078494072
-0.3232221 0.69000483 0.17591172 100 14 -0.07848946
-0.61160278 1.3056312 -0.02516637 22 7 -0.078487158
-0.29081085 0.62109643 0.18376154 27 15 -0.078484856
-0.42470589 0.91036898 -0.26917183 60 0 -0.078464121
-0.81076241 1.7378919 0.033473715 70 8 -0.078461811
-0.55426466 1.1886247 -0.30278412 9 1 -0.078459509
-0.8184492 1.7559705 0.10153177 71 9 -0.078457206
-0.37723446 0.80971891 -0.1736362 42 2 -0.078454904
-0.81247795 1.7447494 0.16838489 28 10 -0.078452595
-0.37775338 0.81120348 -0.14172964 55 3 -0.078450292
-0.77317858 1.6611137 0.22497083 52 11 -0.07844799
-0.77214932 1.6604171 0.29002953 55 12 -0.078443378
-0.41486782 0.89253229 -0.086109869 39 5 -0.078441076
-0.3260479 0.70144814 0.1503575 58 13 -0.078438774
-0.5991835 1.2896515 -0.074526407 1 6 -0.078436472
-0.32257357 0.69460779 0.17681152 87 14 -0.078434169
-0.61209291 1.3186413 -0.0253758 20 7 -0.07843186
-0.29270628 0.63086993 0.18634972 36 15 -0.078429557
-0.42492813 0.91878611 -0.27124238 54 0 -0.078408822
-0.81224251 1.7570479 0.033787858 84 8 -0.07840652
-0.55011249 1.1905521 -0.30278412 9 1 -0.078404211
-0.80980283 1.753377 0.10121775 26 9 -0.078401908
-0.3761934 0.81453019 -0.17439944 40 2 -0.078399606
-0.80919325 1.7528607 0.16890782 74 10 -0.078397304
-0.37326434 0.80892986 -0.14110391 56 3 -0.078394994
-0.7657131 1.6601973 0.22448336 58 11 -0.078392692
-0.76800233 1.6666902 0.29065526 52 12 -0.078388087
-0.41690886 0.90476018 -0.087155737 50 5 -0.078385785
-0.32359755 0.70258188 0.1503575 58 13 -0.078383476
-0.57797402 1.2554504 -0.072432972 1 6 -0.078381173
-0.31037164 0.67448586 0.17141271 77 14 -0.078378871
