# .PCD v0.7 - Point Cloud Data file format
VERSION 0.7
FIELDS x y z intensity ring time
SIZE 4 4 4 4 2 4
TYPE F F F F U F
COUNT 1 1 1 1 1 1
WIDTH 903
HEIGHT 1
VIEWPOINT 0 0 0 1 0 0 0
POINTS 903
DATA ascii
-0.50456131 -0.044498406 -0.098457448 13 2 -0.075708151
-0.5903399 -0.051855769 -0.093860693 2 3 -0.075703539
-0.50623524 -0.043221682 -0.13613883 81 0 -0.075665474
-0.52620995 -0.044742085 -0.12192348 49 1 -0.075660869
-0.59050858 -0.04989782 -0.093860693 2 3 -0.075651653
-0.50061399 -0.040894084 -0.13458592 82 0 -0.075610176
-0.5108245 -0.041638412 -0.11832426 51 1 -0.075605571
-0.50094599 -0.040657185 -0.097694211 13 2 -0.075600959
-0.59068751 -0.047733296 -0.093860693 2 3 -0.075596355
-0.51038355 -0.039899163 -0.1371741 81 0 -0.075554885
-0.49931645 -0.038858652 -0.11562484 52 1 -0.075550273
-0.51282907 -0.039820213 -0.099983923 12 2 -0.075545669
-0.59085053 -0.045670964 -0.093860693 2 3 -0.075541057
-0.49703428 -0.037110582 -0.13355063 83 0 -0.075499587
-0.49361891 -0.036682207 -0.11427514 70 1 -0.075494975
-0.5247122 -0.038900755 -0.10227363 12 2 -0.07549037
-0.59100634 -0.043608215 -0.093860693 2 3 -0.075485758
-0.5067957 -0.036060937 -0.13613883 81 0 -0.075444289
-0.4976317 -0.035234187 -0.11517494 52 1 -0.075439684
-0.49351072 -0.034855962 -0.096167736 13 2 -0.075435072
-0.59115499 -0.041544937 -0.093860693 2 3 -0.075430468
-0.49535376 -0.033509333 -0.13303299 84 0 -0.07538899
-0.51718903 -0.034895632 -0.11967396 50 1 -0.075384386
-0.52497095 -0.035236627 -0.10227363 12 2 -0.075379781
-0.59128952 -0.039584342 -0.093860693 2 3 -0.07537517
-0.50702941 -0.032610442 -0.13613883 81 0 -0.0753337
-0.49202573 -0.031473015 -0.11382524 53 1 -0.075329088
-0.50549221 -0.032245833 -0.098457448 13 2 -0.075324483
-0.59142411 -0.037520241 -0.093860693 2 3 -0.075319871
-0.50907379 -0.030868785 -0.13665645 54 0 -0.075278401
-0.50380373 -0.030460976 -0.11652464 52 1 -0.075273797
-0.52520412 -0.031570904 -0.10227363 12 2 -0.075269185
-0.5205707 -0.031109897 -0.082597405 2 3 -0.075264581
-0.49953493 -0.028540609 -0.13406827 55 0 -0.075223103
-0.48834711 -0.027730392 -0.11292543 53 1 -0.075218499
-0.52531117 -0.029737392 -0.10227363 12 2 -0.075213887
-0.49306449 -0.027739288 -0.078217238 3 3 -0.075209282
-0.51699322 -0.027727878 -0.13872701 53 0 -0.075167812
-0.50011218 -0.026734965 -0.11562484 52 1 -0.0751632
-0.49315378 -0.026104057 -0.078217238 3 3 -0.075153984
-0.50936466 -0.025625035 -0.13665645 54 0 -0.075112514
-0.52161187 -0.026058644 -0.12057376 50 1 -0.075107902
-0.54059315 -0.026723173 -0.085726097 2 3 -0.075098693
-0.49787262 -0.023304997 -0.13355063 83 0 -0.075057216
-0.50612658 -0.023514193 -0.11697455 51 1 -0.075052612
-0.54068315 -0.024835972 -0.085726097 2 3 -0.075043395
-0.50567108 -0.021901315 -0.13562119 82 0 -0.075001925
-0.49647081 -0.021329224 -0.11472505 52 1 -0.074997313
-0.4934001 -0.020938501 -0.078217238 3 3 -0.074988097
-0.51539606 -0.020520197 -0.13820937 53 0 -0.074946627
-0.48875335 -0.019288683 -0.11292543 35 1 -0.074942015
-0.49347016 -0.019216072 -0.078217238 3 3 -0.074932799
-0.51160342 -0.018580878 -0.1371741 54 0 -0.074891329
-0.49466011 -0.017792515 -0.11427514 52 1 -0.074886724
-0.51722395 -0.018332971 -0.081971675 2 3 -0.074877508
-0.5161441 -0.01676159 -0.11922406 50 1 -0.074831426
-0.55282336 -0.017662996 -0.087603308 2 3 -0.07482221
-0.50592762 -0.014838851 -0.13562119 82 0 -0.07478074
-0.51814735 -0.015016246 -0.11967396 67 1 -0.074776128
-0.54103422 -0.015396021 -0.085726097 2 3 -0.074766912
-0.51370114 -0.013272435 -0.13769174 81 0 -0.074725442
-0.49481931 -0.012611642 -0.11427514 35 1 -0.074720837
-0.49369037 -0.012324224 -0.078217238 3 3 -0.074711621
-0.51760709 -0.011565374 -0.13872701 53 0 -0.074670143
-0.49291208 -0.010841576 -0.11382524 53 1 -0.074665539
-0.52532917 -0.011279413 -0.083223142 2 3 -0.074656323
-0.50991821 -0.0096128546 -0.13665645 81 0 -0.074614853
-0.502689 -0.0093010478 -0.11607475 52 1 -0.074610241
-0.56486648 -0.010155649 -0.089480527 2 3 -0.074601024
-0.50222224 -0.0077142762 -0.13458592 55 0 -0.074559554
-0.51051247 -0.0076632621 -0.11787436 51 1 -0.074554943
-0.56489855 -0.0081838202 -0.089480527 2 3 -0.074545726
-0.50417668 -0.0060720495 -0.13510354 55 0 -0.074504256
-0.51443225 -0.006015854 -0.11877415 51 1 -0.074499652
-0.51192123 -0.0044675209 -0.1371741 54 0 -0.074448965
-0.51444936 -0.0043100049 -0.11877415 51 1 -0.074444354
-0.49382895 -0.0038785615 -0.078217238 3 3 -0.074435137
-0.52159232 -0.0028221465 -0.13976228 53 0 -0.074393667
-0.49107623 -0.0024856227 -0.11337533 53 1 -0.074389055
-0.52544481 -0.0023844701 -0.083223142 2 3 -0.074379839
-0.51193994 -0.00089352805 -0.1371741 54 0 -0.074337959
-0.51056951 -0.00071292405 -0.11787436 51 1 -0.074333355
-0.53335154 -0.00046548957 -0.084474623 2 3 -0.074324138
-0.49841699 0.0008697749 -0.13355063 55 0 -0.074282661
-0.49303022 0.0010325824 -0.11382524 53 1 -0.074278057
-0.53334993 0.0013962724 -0.084474623 2 3 -0.07426884
-0.50034273 0.0026198174 -0.13406827 55 0 -0.07422737
-0.510562 0.0028514185 -0.11787436 34 1 -0.074222758
-0.53334177 0.0032580174 -0.084474623 2 3 -0.074213542
-0.5215801 0.0045517804 -0.13976228 53 0 -0.074172072
-0.48716497 0.0044213827 -0.11247552 36 1 -0.07416746
-0.49382144 0.0047404841 -0.078217238 3 3 -0.074158244
-0.51962936 0.0063488209 -0.13924466 53 0 -0.074116774
-0.48714656 0.0061220084 -0.11247552 36 1 -0.074112169
-0.50960362 0.0066710832 -0.080720194 2 3 -0.074102953
-0.51380914 0.008071485 -0.13769174 54 0 -0.074061476
-0.50271016 0.0080727618 -0.11607475 34 1 -0.074056871
-0.50957721 0.0084499056 -0.080720194 2 3 -0.074047655
-0.50412035 0.0096795466 -0.13510354 27 0 -0.074006185
-0.49293712 0.0096369404 -0.11382524 53 1 -0.074001573
-0.53324431 0.010704245 -0.084474623 2 3 -0.073992357
-0.50264162 0.011582025 -0.11607475 34 1 -0.073946282
-0.50950581 0.012007098 -0.080720194 2 3 -0.073937066
-0.5117653 0.013401014 -0.1371741 27 0 -0.073895589
-0.50844228 0.01349159 -0.11742445 51 1 -0.073890984
-0.52525795 0.014213128 -0.083223142 2 3 -0.073881768
-0.55033547 0.016333556 -0.14752688 25 0 -0.073840298
-0.49280915 0.014798383 -0.11382524 35 1 -0.073835686
-0.50940955 0.015563826 -0.080720194 2 3 -0.073826469
-0.51165926 0.016973482 -0.1371741 27 0 -0.073785
-0.48691151 0.016322659 -0.11247552 36 1 -0.073780388
-0.4935582 0.016804181 -0.078217238 3 3 -0.073771179
-0.51159686 0.018759297 -0.1371741 27 0 -0.073729701
-0.50632572 0.018743102 -0.11697455 51 1 -0.073725097
-0.54482025 0.020453736 -0.086351842 2 3 -0.073715881
-0.51152831 0.020545125 -0.1371741 27 0 -0.073674411
-0.49846858 0.020194745 -0.11517494 35 1 -0.073669799
-0.49342886 0.020249339 -0.078217238 3 3 -0.073660582
-0.51917356 0.022667646 -0.13924466 26 0 -0.073619112
-0.48866078 0.021506203 -0.11292543 17 1 -0.0736145
-0.49335518 0.021971736 -0.078217238 3 3 -0.073605284
-0.53066939 0.025025664 -0.14235048 26 0 -0.073563814
-0.52362055 0.024876552 -0.12102367 16 1 -0.07355921
-0.53273749 0.025589246 -0.084474623 2 3 -0.073549993
-0.5344376 0.027073387 -0.14338575 25 0 -0.073508516
-0.50796086 0.025909891 -0.11742445 17 1 -0.073503911
-0.52475393 0.027041934 -0.083223142 2 3 -0.073494695
-0.78195024 0.04070643 -0.068504408 7 5 -0.073485479
-0.48804328 0.026431441 -0.13096245 28 0 -0.073453225
-0.51565075 0.028107122 -0.11922406 16 1 -0.073448613
-0.53254586 0.029307704 -0.084474623 2 3 -0.073439397
-0.4956626 0.028579701 -0.13303299 28 0 -0.073397927
-0.53889507 0.031261198 -0.12462288 16 1 -0.073393323
-0.50877637 0.029781301 -0.080720194 2 3 -0.073384106
-0.50327283 0.030781474 -0.13510354 55 0 -0.073342629
-0.52711236 0.032424115 -0.12192348 16 1 -0.073338024
-0.49289656 0.030578693 -0.078217238 3 3 -0.073328808
-0.70989507 0.044414133 -0.062229201 9 5 -0.073319592
-0.5262962 0.034034051 -0.14131519 26 0 -0.073287338
-0.50366598 0.032658774 -0.11652464 17 1 -0.073282726
-0.49279246 0.032212809 -0.078217238 3 3 -0.07327351
-0.78130567 0.051620282 -0.068504408 7 5 -0.073264293
-0.5300352 0.036041263 -0.14235048 52 0 -0.07323204
-0.51132578 0.034948241 -0.11832426 17 1 -0.073227428
-0.51238412 0.03529023 -0.081345931 2 3 -0.073218212
-0.49907532 0.03568653 -0.13406827 55 0 -0.073176742
-0.51897562 0.037291706 -0.12012386 16 1 -0.073172137
-0.51619828 0.037363809 -0.081971675 2 3 -0.073162921
-1.0176493 0.074016996 -0.12528169 1 4 -0.073158309
-0.50280058 0.037717443 -0.13510354 55 0 -0.073121451
-0.49552348 0.037345495 -0.11472505 35 1 -0.073116839
-0.50818586 0.038567517 -0.080720194 2 3 -0.073107623
-1.0450956 0.079681851 -0.12869403 1 4 -0.073103018
-0.85225022 0.065128237 -0.074779622 5 5 -0.073098406
-1.1444268 0.088259473 -0.020035362 14 7 -0.07308919
-0.51999915 0.040833447 -0.13976228 53 0 -0.073066153
-1.0964421 0.086291738 0.019197647 1 8 -0.07306385
-0.5089891 0.040147629 -0.11787436 34 1 -0.073061541
-1.0930851 0.086411439 0.057464886 1 9 -0.073059238
-1.076472 0.085854597 -0.13259386 3 4 -0.07304772
-0.87982243 0.070325024 -0.077219985 4 5 -0.073043108
-1.102254 0.088878892 -0.019302363 35 7 -0.073033899
-0.51215196 0.042016648 -0.13769174 54 0 -0.07301712
-1.1021131 0.090610094 0.019302363 9 8 -0.073014818
-0.48748204 0.040163927 -0.11292543 35 1 -0.073012516
-1.0848148 0.08956939 0.057046197 6 9 -0.073010206
-1.0781832 0.089211024 0.09465114 2 10 -0.073005602
-1.0761814 0.08942388 0.13259386 1 11 -0.07300099
-1.0603398 0.088293627 -0.13064395 6 4 -0.072998688
-1.1181281 0.093302093 0.17770956 3 12 -0.072996385
-0.99075902 0.082673803 -0.086981431 3 5 -0.072994083
-1.1445094 0.095704898 0.22324654 1 13 -0.072991773
-1.017035 0.085223868 -0.053487353 1 6 -0.072989471
-1.1059225 0.093061313 -0.019372171 100 7 -0.072984867
-0.51970142 0.044462729 -0.13976228 53 0 -0.072961822
-1.0818663 0.092748597 0.018953314 40 8 -0.07295952
-0.48539725 0.041698411 -0.11247552 54 1 -0.072957218
-1.0685763 0.091984972 0.056208819 27 9 -0.072954915
-1.0758802 0.092802867 0.094476826 19 10 -0.072950304
-0.5116902 0.044227265 -0.081345931 2 3 -0.072948001
-1.0600412 0.091809392 0.13064395 10 11 -0.072945699
-1.0461816 0.090792976 -0.12893778 7 4 -0.072943389
-1.0745006 0.09343984 0.17082645 18 12 -0.072941087
-1.0321473 0.08975675 -0.090641975 4 5 -0.072938785
-1.087449 0.094756812 0.21217963 5 13 -0.072936483
-0.99882412 0.08720997 -0.052545305 3 6 -0.072934173
-1.0793767 0.094433293 0.25014558 1 14 -0.072931871
-1.0796942 0.094650693 -0.01891841 100 7 -0.072929569
-1.050745 0.092297673 0.28263038 1 15 -0.072927266
-0.48490685 0.043191466 -0.13044479 57 0 -0.072906531
-1.0536511 0.094035558 0.018464647 89 8 -0.072904222
-1.0543238 0.094466805 0.055476118 69 9 -0.072899617
-1.0477678 0.094063714 0.092036456 45 10 -0.072895005
-0.5233373 0.047074858 -0.083223142 2 3 -0.072892703
-1.0676224 0.096221849 0.1316189 42 11 -0.072890401
-1.0577205 0.095515512 -0.13040021 8 4 -0.072888099
-1.0407231 0.094163701 0.16550769 44 12 -0.072885789
-1.0476853 0.094977967 -0.092036456 9 5 -0.072883487
-1.0792735 0.098031774 0.21065316 22 13 -0.072881185
-1.0283333 0.093585514 -0.054115385 7 6 -0.072878882
-1.0770997 0.098023593 0.24969566 18 14 -0.07287658
-1.0534685 0.096058384 -0.018464647 100 7 -0.07287427
-1.0369496 0.09473487 0.27900696 7 15 -0.072871968
-0.5116756 0.047466706 -0.13769174 54 0 -0.072851233
-1.0552905 0.09808208 0.018499551 100 8 -0.072848931
-0.49284783 0.045893617 -0.11427514 52 1 -0.072846621
-1.0619249 0.09907259 0.055894807 100 9 -0.072844319
-1.0355135 0.096790828 0.090990596 83 10 -0.072839715
-0.51136059 0.047887579 -0.081345931 2 3 -0.072837405
-1.069239 0.10031968 0.13186264 81 11 -0.072835103
-1.0771271 0.1012494 -0.13283759 8 4 -0.0728328
-1.0384042 0.097792305 0.16519481 79 12 -0.072830498
-1.0354286 0.09769439 -0.090990596 9 5 -0.072828196
-1.0554523 0.09976951 0.20607373 69 13 -0.072825886
-1.0279833 0.097353935 -0.054115385 7 6 -0.072823584
-1.070913 0.10141954 0.24834597 76 14 -0.072821282
-1.0630633 0.10086332 -0.018639171 100 7 -0.07281898
-1.0058246 0.095609643 0.27072471 42 15 -0.07281667
-0.50765228 0.048970785 -0.13665645 54 0 -0.072795935
-1.0569142 0.10214138 0.018534455 100 8 -0.072793633
-0.50043505 0.04845088 -0.11607475 52 1 -0.072791331
-1.0715125 0.10374118 0.056418166 100 9 -0.072789021
-1.0510163 0.1021271 0.092385083 100 10 -0.072784416
-1.0491071 0.10231122 0.12942526 100 11 -0.072779812
-1.0609432 0.10365244 -0.13088769 8 4 -0.072777502
-1.0518187 0.10276099 0.16738489 100 12 -0.0727752
-1.0489619 0.1026667 -0.092210777 9 5 -0.072772898
-1.0414205 0.10211208 0.20340241 100 13 -0.072770596
-1.023662 0.10055122 -0.053906042 2 6 -0.072768286
-1.0588977 0.10419891 0.24564654 100 14 -0.072765984
-1.070665 0.10535683 -0.01877879 100 7 -0.072763681
-0.99779457 0.098361991 0.2686542 100 15 -0.072761379
-0.52862316 0.052856687 -0.14235048 52 0 -0.072740637
-1.0585594 0.10584467 0.01856936 100 8 -0.072738335
-0.49833256 0.049915902 -0.11562484 52 1 -0.072736032
-1.0433218 0.10468914 0.054952759 100 9 -0.07273373
-1.0447062 0.10519638 0.09186215 100 10 -0.072729118
-1.0250611 0.10339894 0.1265004 83 11 -0.072724514
-1.0684938 0.10796816 -0.13186264 7 4 -0.072722211
-1.0200083 0.10324892 0.162379 67 12 -0.072719902
-1.0367037 0.10512167 -0.091164902 10 5 -0.0727176
-1.0547489 0.10695145 0.20607373 100 13 -0.072715297
-0.96768588 0.098293886 -0.050975226 1 6 -0.072712995
-1.0430366 0.10613166 0.24204734 100 14 -0.072710685
-1.0782483 0.10990465 -0.01891841 100 7 -0.072708383
-0.99744511 0.10184461 0.2686542 100 15 -0.072706081
-0.52652347 0.054410819 -0.14183284 52 0 -0.072685346
-1.0601727 0.10974502 0.018604266 100 8 -0.072683044
-0.48846352 0.050650153 -0.11337533 35 1 -0.072680734
-1.0350225 0.1073244 0.054534074 100 9 -0.072678432
-1.0364249 0.10783547 0.091164902 66 10 -0.072673827
-1.0562646 0.11045875 -0.13040021 7 4 -0.072666913
-1.0621096 0.11125737 -0.093430951 12 5 -0.072662301
-1.0602268 0.11124696 0.20721859 100 13 -0.072659999
-1.0150086 0.10668167 -0.053487353 1 6 -0.072657697
-1.0426598 0.10977191 0.24204734 100 14 -0.072655395
-1.0579908 0.11138596 -0.01856936 100 7 -0.072653085
-0.99518067 0.10494865 0.26813653 100 15 -0.072650783
-0.4975166 0.053169116 -0.13406827 55 0 -0.072630048
-1.0637796 0.1136851 0.018674076 100 8 -0.072627746
-0.49216822 0.052684538 -0.11427514 35 1 -0.072625443
-1.0445709 0.11200107 0.055057433 86 9 -0.072623134
-1.0162326 0.10932162 0.089421786 10 10 -0.072618529
-0.58921355 0.063384876 -0.093860693 2 3 -0.072616227
-1.0559124 0.11377635 0.13040021 41 11 -0.072613917
-1.0578661 0.11417364 -0.13064395 6 4 -0.072611615
-1.0291016 0.11125107 0.16394335 43 12 -0.072609313
-1.0498298 0.11367702 -0.092385083 12 5 -0.072607011
-1.0225916 0.11090843 -0.053906042 3 6 -0.072602399
-1.0461646 0.11364985 0.24294713 100 14 -0.072600096
-1.0655473 0.11594339 -0.01870898 100 7 -0.072597794
-0.98712629 0.10758486 0.26606598 100 15 -0.072595492
-0.51077908 0.056300256 -0.13769174 54 0 -0.07257475
-1.0514505 0.11608136 0.018464647 100 8 -0.072572447
-0.50360298 0.055687197 -0.11697455 34 1 -0.072570145
-1.0396274 0.11532705 0.091513529 47 10 -0.072563231
-0.49082389 0.054534249 -0.078217238 3 3 -0.072560929
-1.0555087 0.11746151 0.13040021 93 11 -0.072558627
-1.0475967 0.11676637 -0.12942526 5 4 -0.072556317
-1.0326333 0.11528074 0.16456908 79 12 -0.072554015
-1.0415267 0.11627358 -0.091687836 12 5 -0.072551712
-1.0301784 0.11518873 0.20149431 4 13 -0.07254941
-1.0360922 0.11603329 -0.054638743 5 6 -0.072547108
-1.0593178 0.11882132 0.24609646 66 14 -0.072544798
-1.0651362 0.11966217 -0.01870898 100 7 -0.072542496
-1.000183 0.11254204 0.26968947 100 15 -0.072540194
-0.49330419 0.056117665 -0.13303299 56 0 -0.072519459
-1.0291837 0.1172606 0.018080693 81 8 -0.072517149
-1.0814661 0.1235998 0.057046197 49 9 -0.072512545
-1.0293212 0.1178222 0.090641975 87 10 -0.072507933
-0.51418084 0.058947101 -0.081971675 2 3 -0.072505631
-1.0452316 0.12001328 0.12918152 100 11 -0.072503328
-1.0392944 0.11951509 -0.12845029 3 4 -0.072501026
-1.0459615 0.12046675 0.16675916 100 12 -0.072498724
-1.0569489 0.12173221 -0.093082331 12 5 -0.072496414
-1.0473229 0.120809 0.20492886 22 13 -0.072494112
-1.0376649 0.11987822 -0.054743413 7 6 -0.07249181
-1.0569607 0.12229434 0.24564654 18 14 -0.072489507
-1.0766305 0.12476087 -0.01891841 100 7 -0.072487198
-1.0017029 0.11625537 0.27020708 100 15 -0.072484896
-0.51996714 0.060990077 -0.14027993 53 0 -0.072464161
-0.48965418 0.057607755 -0.11382524 35 1 -0.072459549
-1.0393738 0.12246612 0.05484809 100 9 -0.072457246
-1.0447328 0.12328241 0.092036456 100 10 -0.072452642
-0.49043122 0.057959519 -0.078217238 3 3 -0.07245034
-1.0329783 0.12226094 0.12771909 100 11 -0.07244803
-1.0487273 0.12431054 -0.12966898 3 4 -0.072445728
-1.0514194 0.12481572 0.16769776 100 12 -0.072443426
-1.0486037 0.12448146 -0.092385083 13 5 -0.072441123
-1.0546929 0.12539099 0.20645534 76 13 -0.072438814
-1.0471563 0.12468032 -0.055266771 20 6 -0.072436512
-1.0507224 0.12529115 0.24429685 97 14 -0.072434209
-1.0622892 0.12685844 -0.018674076 100 7 -0.072431907
-1.020473 0.12204514 0.27538347 30 15 -0.072429597
-0.52934057 0.063963495 -0.14286812 51 0 -0.072408862
-1.0620886 0.12852682 0.018674076 48 8 -0.07240656
-0.49138469 0.059550963 -0.11427514 35 1 -0.072404258
-1.0528189 0.12777793 0.055580791 100 9 -0.072401956
-1.0522075 0.12789008 0.092733704 100 10 -0.072397344
-0.51767856 0.063012682 -0.082597405 2 3 -0.072395042
-1.0404272 0.12682678 0.12869403 100 11 -0.072392739
-1.0541984 0.12869219 -0.13040021 4 4 -0.07239043
-1.0215657 0.12488946 0.16300473 100 12 -0.072388127
-1.0560733 0.12910815 -0.093082331 12 5 -0.072385825
-1.0639924 0.13026473 0.20836343 100 13 -0.072383523
-1.0368026 0.12711956 -0.054743413 39 6 -0.072381213
-1.0348048 0.12705818 0.24069762 100 14 -0.072378911
-1.0499314 0.12910125 -0.018464647 44 7 -0.072376609
-1.0142887 0.12489824 0.27383056 36 15 -0.072374307
-0.50994325 0.063426413 -0.13769174 54 0 -0.072353572
-1.0338526 0.12877288 0.018185407 99 8 -0.072351262
-0.49117377 0.061265983 -0.11427514 35 1 -0.07234896
-1.0602939 0.13244244 0.05599948 100 9 -0.072346658
-1.0438467 0.13057277 0.092036456 100 10 -0.072342046
-0.50569516 0.063346192 -0.080720194 2 3 -0.072339743
-1.0517962 0.13194031 0.13015647 100 11 -0.072337441
-1.0714693 0.13459782 -0.13259386 5 4 -0.072335139
-1.0074039 0.12672877 0.16081464 75 12 -0.072332829
-1.047709 0.13179906 -0.092385083 12 5 -0.072330527
-1.0596355 0.13348724 0.20760021 100 13 -0.072328225
-1.034371 0.1304882 -0.054638743 48 6 -0.072325923
-1.0517554 0.1328675 0.24474674 100 14 -0.072323613
-1.1010554 0.13929076 -0.019372171 22 7 -0.072321311
-1.0042638 0.12722431 0.27124238 100 15 -0.072319008
-0.50397009 0.064470552 -0.13613883 27 0 -0.072298273
-1.0532315 0.1349221 0.018534455 100 8 -0.072295971
-0.49095693 0.062980145 -0.11427514 35 1 -0.072293662
-1.0479393 0.1346157 0.055371448 100 9 -0.072291359
-1.0354803 0.1331992 0.091339223 100 10 -0.072286755
-1.0493605 0.13535678 0.12991273 100 11 -0.072282143
-1.0532743 0.13604875 -0.13040021 5 4 -0.072279841
-0.99324208 0.12847078 0.15862457 15 12 -0.072277538
-1.0413147 0.13468874 -0.09186215 10 5 -0.072275229
-1.0474812 0.13567196 0.20531049 100 13 -0.072272927
-1.0477741 0.13589607 -0.055371448 48 6 -0.072270624
-1.0512851 0.13653803 0.24474674 100 14 -0.072268322
-1.0846986 0.1410699 -0.019092934 80 7 -0.07226602
-0.98465669 0.12823401 0.26606598 100 15 -0.07226371
-0.49608043 0.065222062 -0.13406827 55 0 -0.072242975
-1.0428412 0.13729271 0.018359931 100 8 -0.072240673
-0.49266618 0.064948112 -0.11472505 35 1 -0.072238371
-1.0553834 0.13931845 0.055790137 100 9 -0.072236061
-1.0310584 0.13629071 0.090990596 100 10 -0.072231457
-1.0429779 0.1382367 0.12918152 100 11 -0.072226845
-1.0488573 0.13920224 -0.12991273 5 4 -0.072224542
-1.0417415 0.13844261 0.16644628 45 12 -0.07222224
-1.0368882 0.13779764 -0.091513529 9 5 -0.072219938
-1.0411628 0.13855086 0.20416564 100 13 -0.072217636
-1.0472933 0.13955268 -0.055371448 48 6 -0.072215326
-1.0508022 0.1402069 0.24474674 100 14 -0.072213024
-1.0742891 0.14353155 -0.01891841 100 7 -0.072210722
-0.98994756 0.13243887 0.26761889 100 15 -0.072208419
-0.49967867 0.067470454 -0.13510354 55 0 -0.072187677
-1.052264 0.1422715 0.018534455 100 8 -0.072185375
-1.0430156 0.14139207 0.055162102 100 9 -0.07218077
-1.0424222 0.14149664 0.092036456 100 10 -0.072176158
-0.48934498 0.06650985 -0.078217238 3 3 -0.072173856
-1.0247862 0.13946733 0.12698787 100 11 -0.072171554
-1.0483651 0.14286236 -0.12991273 5 4 -0.072169252
-1.049081 0.14314641 0.16769776 85 12 -0.072166942
-1.0423231 0.14222431 -0.092036456 9 5 -0.07216464
-1.0503988 0.14351323 0.20607373 100 13 -0.072162338
-1.032948 0.1413126 -0.054638743 51 6 -0.072160035
-1.046445 0.14334512 0.24384695 100 14 -0.072157726
-1.0638757 0.14592198 -0.018743884 100 7 -0.072155423
-0.9971348 0.13694505 0.26968947 100 15 -0.072153121
-0.48604518 0.067357823 -0.13148008 56 0 -0.072132386
-1.0537416 0.1462186 0.01856936 100 8 -0.072130084
-0.4825497 0.067045085 -0.11247552 36 1 -0.072127774
-1.0346029 0.14393097 0.054743413 100 9 -0.072125472
-1.0320553 0.14376017 0.091164902 100 10 -0.072120868
-0.48910981 0.068217702 -0.078217238 3 3 -0.072118558
-1.0242932 0.14304368 0.12698787 30 11 -0.072116256
-1.0399961 0.1454214 -0.12893778 4 4 -0.072113954
-1.0407495 0.1457122 0.16644628 100 12 -0.072111651
-1.0220889 0.14309958 -0.090293348 3 5 -0.072109342
-1.0498915 0.14717896 0.20607373 100 13 -0.072107039
-1.0383821 0.14575003 -0.054952759 49 6 -0.072104737
-1.0343596 0.14536975 0.24114752 100 14 -0.072102435
-1.0514787 0.14796284 -0.018534455 100 7 -0.072100125
-1.0100414 0.14231135 0.2733129 100 15 -0.072097823
-0.50110811 0.071228981 -0.13562119 54 0 -0.072077088
-1.0413463 0.14820543 0.018359931 100 8 -0.072074786
-0.49967602 0.071203351 -0.11652464 34 1 -0.072072484
-1.0261853 0.14641315 0.054324731 47 9 -0.072070174
-1.0137959 0.14482601 0.0895961 52 10 -0.072065569
-1.0316479 0.14774373 0.12796283 11 11 -0.072060958
-1.0473422 0.15017785 -0.12991273 3 4 -0.072058655
-1.0343686 0.14850207 0.16550769 100 12 -0.072056353
-0.99397284 0.14270253 -0.087852985 3 5 -0.072054051
-1.0571445 0.15196 0.20760021 100 13 -0.072051741
-1.037867 0.14937407 -0.054952759 50 6 -0.072049439
-1.0415611 0.15009128 0.24294713 100 14 -0.072047137
-1.0568936 0.15248877 -0.018639171 100 7 -0.072044834
-1.0018904 0.14473164 0.27124238 100 15 -0.072042525
-0.50659144 0.073813371 -0.1371741 54 0 -0.07202179
-0.50135273 0.073228776 -0.11697455 34 1 -0.072017185
-1.0632164 0.15548547 0.056313496 16 9 -0.072014883
-1.0527304 0.15451498 0.13064395 15 11 -0.072005667
-1.0369914 0.15239002 -0.12869403 1 4 -0.072003357
-1.0260267 0.1509614 0.16425622 100 12 -0.072001055
-0.98361284 0.14472096 -0.086981431 3 5 -0.071998753
-1.0527229 0.15507698 0.20683697 100 13 -0.07199645
-1.0551221 0.1556188 -0.055894807 45 6 -0.071994141
-1.0448866 0.15429525 0.24384695 100 14 -0.071991839
-1.0504202 0.15529969 -0.018534455 100 7 -0.071989536
-0.97844678 0.14483351 0.26503071 100 15 -0.071987234
-0.49104521 0.073299453 -0.13303299 28 0 -0.071966499
-1.0580859 0.15813194 0.018674076 29 8 -0.071964189
-1.0666177 0.1597874 0.056522839 63 9 -0.071959585
-1.0147305 0.15219563 0.089770414 3 10 -0.071954973
-1.0659258 0.16025494 0.13235012 22 11 -0.071950369
-1.0364531 0.15600865 -0.12869403 1 4 -0.071948066
-1.0352601 0.15601383 0.16582055 100 12 -0.071945757
-1.0067434 0.15171637 -0.089073166 1 5 -0.071943454
-1.0405276 0.15699361 0.20454726 100 13 -0.071941152
-1.0407485 0.15721248 -0.055162102 16 6 -0.07193885
-1.0481952 0.15852448 0.24474674 100 14 -0.071936548
-1.0597575 0.16046256 -0.01870898 100 7 -0.071934238
-0.99321556 0.15056422 0.26917183 100 15 -0.071931936
-0.50606376 0.077348255 -0.1371741 54 0 -0.071911201
-1.0338072 0.15819472 0.018255217 84 8 -0.071908899
-1.0443375 0.16017917 0.055371448 100 9 -0.071904287
-1.0378246 0.15936562 0.09186215 9 10 -0.071899682
-0.49787194 0.076540843 -0.079781592 2 3 -0.071897373
-1.0457402 0.16095474 0.12991273 51 11 -0.07189507
-1.0229955 0.15781955 0.16394335 70 12 -0.071890466
-0.99833131 0.15401454 -0.088375926 1 5 -0.071888164
-1.0438538 0.1612239 0.20531049 100 13 -0.071885854
-0.97703177 0.15107781 -0.051812604 1 6 -0.071883552
-1.0399323 0.16099015 0.24294713 100 14 -0.07188125
-1.0572149 0.16385432 -0.018674076 100 7 -0.071878947
-1.0022289 0.15551135 0.27176002 100 15 -0.071876638
-0.50960797 0.07971137 -0.13820937 53 0 -0.071855903
-1.0470781 0.16396782 0.018499551 100 8 -0.0718536
-0.48900703 0.076663785 -0.11427514 52 1 -0.071851298
-1.0358796 0.16258489 0.054952759 100 9 -0.071848996
-1.0569445 0.1660801 0.093605265 41 10 -0.071844384
-0.50150442 0.078892231 -0.080407321 2 3 -0.071842082
-1.0275236 0.16182466 0.12771909 87 11 -0.07183978
-1.0048774 0.15861759 0.16112752 22 12 -0.071835168
-0.97023529 0.15314941 -0.085935563 2 5 -0.071832865
-1.0510414 0.16609246 0.20683697 100 13 -0.071830563
-1.0080621 0.15948093 -0.053487353 1 6 -0.071828254
-1.039364 0.16461898 0.24294713 100 14 -0.071825951
-1.0487363 0.16629104 -0.018534455 42 7 -0.071823649
-1.0093119 0.16022035 0.27383056 100 15 -0.071821347
-0.48834315 0.078132391 -0.13251536 56 0 -0.071800612
-1.0405757 0.16667302 0.018394835 100 8 -0.071798302
-0.48681229 0.078061864 -0.11382524 35 1 -0.071796
-1.0327526 0.1659746 0.091513529 92 10 -0.071789086
-0.49732545 0.08001478 -0.079781592 2 3 -0.071786784
-1.0406712 0.16762011 0.12942526 100 11 -0.071784481
-1.0433202 0.16842039 0.16738489 41 12 -0.071779869
-0.87134844 0.14065945 -0.077219985 4 5 -0.071777567
-1.0504552 0.1697603 0.20683697 100 13 -0.071775265
-1.0587614 0.17129223 -0.056208819 2 6 -0.071772963
-1.0426304 0.16886921 0.24384695 100 14 -0.071770653
-1.0560452 0.17123106 -0.018674076 10 7 -0.071768351
-0.99349123 0.1612663 0.26968947 100 15 -0.071766049
-0.49378696 0.080772147 -0.13406827 55 0 -0.071745314
-0.49422911 0.081021726 -0.11562484 35 1 -0.071740702
-1.0701954 0.17563462 0.056836855 24 9 -0.0717384
-1.030201 0.16925584 0.091339223 100 10 -0.071733795
-0.49704313 0.081750289 -0.079781592 2 3 -0.071731485
-1.0479147 0.17254153 0.13040021 100 11 -0.071729183
-1.0251848 0.16916679 0.16456908 68 12 -0.071724579
-0.83546758 0.13786136 -0.074082382 5 5 -0.071722269
-1.0498562 0.17342582 0.20683697 100 13 -0.071719967
-1.0285995 0.17009909 -0.054638743 5 6 -0.071717665
-1.0458797 0.17314424 0.24474674 100 14 -0.071715362
-1.0534683 0.17458916 -0.018639171 21 7 -0.07171306
-0.99292231 0.16473329 0.26968947 100 15 -0.07171075
-0.48778579 0.081539765 -0.13251536 56 0 -0.071697474
-1.0413589 0.17426383 0.018429741 31 8 -0.071695171
-1.0459387 0.17540529 0.055580791 73 9 -0.071690559
-1.0296038 0.17285091 0.091339223 100 10 -0.071685955
-1.033603 0.17389324 0.12869403 100 11 -0.071681343
-1.0382233 0.17504299 0.16675916 100 12 -0.071676739
-0.85855728 0.14475155 -0.076174118 5 5 -0.071674436
-1.0337573 0.17447583 0.20378402 100 13 -0.071672127
-1.0260302 0.17335583 -0.054534074 2 6 -0.071669824
-1.045269 0.17679375 0.24474674 100 14 -0.071667522
-1.0449659 0.17693034 -0.018499551 60 7 -0.07166522
-0.99615055 0.16884392 0.27072471 100 15 -0.07166291
-0.50463676 0.086168572 -0.1371741 54 0 -0.071642175
-1.0289177 0.17587602 0.018220313 89 8 -0.071639873
-1.04532 0.17905551 0.055580791 100 9 -0.071635269
-1.0309579 0.17678034 0.091513529 100 10 -0.071630657
-0.51592934 0.088560082 -0.082910277 2 3 -0.071628354
-1.0271205 0.17649165 0.12796283 100 11 -0.071626052
-1.0473396 0.18034205 0.16832352 100 12 -0.07162144
-0.90517068 0.1558619 -0.080357596 3 5 -0.071619138
-1.0370115 0.17875028 0.20454726 100 13 -0.071616836
-1.0408049 0.17977825 0.24384695 100 14 -0.071612224
-1.0502533 0.18159904 -0.018604266 49 7 -0.071609922
-1.0069765 0.17429681 0.27383056 100 15 -0.07160762
-0.50242972 0.087597638 -0.13665645 54 0 -0.071586885
-1.0460268 0.18256082 0.018534455 100 8 -0.071584575
-0.49527329 0.086528055 -0.11607475 52 1 -0.071582273
-1.0446887 0.18270305 0.055580791 100 9 -0.07157997
-1.0362221 0.1814087 0.092036456 100 10 -0.071575359
-0.49615979 0.086950786 -0.079781592 2 3 -0.071573056
-1.0401847 0.18247668 0.12966898 100 11 -0.071570754
-1.0214115 0.17955112 0.16425622 100 12 -0.071566142
-0.92816859 0.1631602 -0.082449332 6 5 -0.07156384
-1.0479826 0.18441026 0.20683697 100 13 -0.071561538
-1.0324944 0.18205668 0.24204734 100 14 -0.071556933
-1.049613 0.18526378 -0.018604266 26 7 -0.071554624
-1.0082643 0.1781469 0.2743482 92 15 -0.071552321
-0.48500323 0.086304881 -0.13199772 56 0 -0.071531586
-1.0453832 0.18621103 0.018534455 100 8 -0.071529284
-0.48729423 0.086888045 -0.11427514 35 1 -0.071526974
-1.0322475 0.18424299 0.054952759 100 9 -0.071524672
-1.0336212 0.18467431 0.09186215 100 10 -0.071520068
-1.0434495 0.18680617 0.13015647 100 11 -0.071515456
-1.0168899 0.1824176 0.16363046 100 12 -0.071510851
-0.94720429 0.16991687 -0.084192447 5 5 -0.071508549
-1.0531294 0.18910825 0.20798181 100 13 -0.071506239
-1.004501 0.18055737 -0.053487353 1 6 -0.071503937
-1.0395244 0.18703979 0.24384695 100 14 -0.071501635
-1.0194395 0.18360962 -0.018080693 10 7 -0.071499333
-0.99622905 0.17960899 0.27124238 86 15 -0.071497023
-0.50370675 0.09144821 -0.1371741 54 0 -0.071476288
-1.0388244 0.18878636 0.018429741 100 8 -0.071473986
-0.4927398 0.089634821 -0.11562484 52 1 -0.071471684
-1.0433878 0.18999191 0.055580791 100 9 -0.071469374
-1.0212097 0.18613762 0.090816282 100 10 -0.07146477
-1.0427911 0.19044739 0.13015647 100 11 -0.071460165
-1.01819 0.18632172 0.16394335 100 12 -0.071455553
-0.95637411 0.17518233 -0.085064009 4 5 -0.071453251
-1.0447384 0.19136831 0.20645534 50 13 -0.071450949
-1.0388652 0.1906673 0.24384695 100 14 -0.071446337
-1.0581279 0.19439356 -0.01877879 12 7 -0.071444035
-0.99179602 0.18238637 0.27020708 90 15 -0.071441732
-0.50146866 0.092941724 -0.13665645 54 0 -0.07142099
-1.038159 0.19241141 0.018429741 100 8 -0.071418688
-0.49242392 0.091354273 -0.11562484 35 1 -0.071416385
-1.0427183 0.19363263 0.055580791 100 9 -0.071414083
-1.0283558 0.19133712 0.091513529 100 10 -0.071409471
-0.4990899 0.092951395 -0.080407321 2 3 -0.071407169
-1.0343138 0.19263244 0.12918152 100 11 -0.071404867
-1.0233591 0.19096182 0.16488194 100 12 -0.071400255
-0.96163231 0.17961711 -0.085586935 4 5 -0.071397953
-1.0208722 0.19086654 0.20187594 9 13 -0.071395651
-1.0439055 0.19555034 0.24519664 100 14 -0.071391039
-1.0476153 0.19624527 -0.018604266 23 7 -0.071388736
-0.99495095 0.18655936 0.27124238 86 15 -0.071386434
-0.50873429 0.096126355 -0.13872701 80 0 -0.071365699
-1.0335172 0.1954717 0.018359931 100 8 -0.071363397
-1.0341862 0.19578545 0.055162102 100 9 -0.071358785
-1.0296391 0.19529665 0.091687836 100 10 -0.071354181
-1.0258 0.19493967 0.12820657 100 11 -0.071349569
-1.0343298 0.19674742 0.16675916 100 12 -0.071344964
-0.92576933 0.17626499 -0.082449332 3 5 -0.071342655
-1.0587705 0.20177972 0.20950828 43 13 -0.071340352
-1.03556 0.19773087 0.24339703 100 14 -0.071335748
-1.0606734 0.20252605 -0.0188486 30 7 -0.071333438
-0.99808866 0.1907566 0.27227765 84 15 -0.071331136
-0.51218963 0.098632082 -0.13976228 53 0 -0.071310401
-1.0407178 0.20041049 0.018499551 100 8 -0.071308099
-1.0315355 0.19901592 0.055057433 100 9 -0.071303487
-1.0387321 0.20078044 0.092559397 100 10 -0.071298882
-0.49844566 0.096346445 -0.080407321 2 3 -0.07129658
-1.0329437 0.19984862 0.12918152 100 11 -0.07129427
-1.0220009 0.19810157 0.16488194 100 12 -0.071289666
-1.0503864 0.20379391 0.20798181 92 13 -0.071285054
-1.0310727 0.2004202 0.24249724 100 14 -0.07128045
-1.0462198 0.20355396 -0.018604266 49 7 -0.071278147
-0.99931294 0.19460846 0.27279529 82 15 -0.071275845
-0.49290201 0.096614122 -0.13458592 55 0 -0.071255103
-1.0400119 0.20404206 0.018499551 100 8 -0.071252801
-0.48761585 0.095754854 -0.11472505 52 1 -0.071250498
-1.0288748 0.20223004 0.054952759 100 9 -0.071248196
-1.0263311 0.20191607 0.091513529 100 10 -0.071243584
-0.50198263 0.098849088 -0.081033058 2 3 -0.071241282
-1.0361351 0.20422056 0.12966898 100 11 -0.07123898
-1.0154893 0.20051982 0.16394335 100 12 -0.071234368
-0.76814985 0.15181895 -0.068504408 7 5 -0.071232066
-1.0515946 0.20783965 0.20836343 100 13 -0.071229763
-1.0265436 0.20326108 0.24159741 100 14 -0.071225151
-1.0455029 0.20720451 -0.018604266 84 7 -0.071222849
-0.99104774 0.19659224 0.27072471 82 15 -0.071220547
-0.47738934 0.095391855 -0.13044479 57 0 -0.071199812
-1.0275277 0.20532042 0.018290123 100 8 -0.071197502
-0.50638765 0.10127808 -0.11922406 33 1 -0.0711952
-1.0438299 0.20895657 0.055790137 100 9 -0.071192898
-1.0236306 0.20528468 0.091339223 100 10 -0.071188286
-0.51323742 0.10302072 -0.082910277 2 3 -0.071185984
-1.0393085 0.20861749 0.13015647 100 11 -0.071183681
-1.020593 0.2052314 0.16488194 100 12 -0.071179077
-1.0431275 0.21014196 0.20683697 100 13 -0.071174465
-1.0372531 0.20933507 0.24429685 78 14 -0.071169861
-1.0467335 0.21124835 -0.018639171 94 7 -0.071167551
-0.98846185 0.19966795 0.27020708 84 15 -0.071165249
-0.49977025 0.10167935 -0.13665645 54 0 -0.071144514
-1.0248088 0.20868586 0.018255217 100 8 -0.071142212
-0.47737071 0.097295657 -0.11247552 36 1 -0.071139902
-1.0430942 0.21259898 0.055790137 100 9 -0.0711376
-1.0229079 0.2088566 0.091339223 100 10 -0.071132995
-0.51481003 0.10520726 -0.083223142 2 3 -0.071130693
-1.0268679 0.21003854 0.12869403 100 11 -0.071128383
-1.0218056 0.20918888 0.16519481 100 12 -0.071123779
-1.0289251 0.21102087 0.20416564 100 13 -0.071119167
-1.0480069 0.21512471 0.24699625 25 14 -0.071114562
-1.0499072 0.21570599 -0.01870898 100 7 -0.07111226
-0.99722016 0.2050627 0.27279529 77 15 -0.071109951
-0.4994303 0.10333612 -0.13665645 54 0 -0.071089216
-1.0260693 0.21248867 0.018290123 100 8 -0.071086913
-1.0267378 0.21281399 0.054952759 100 9 -0.071082309
-1.026111 0.21305765 0.091687836 100 10 -0.071077697
-0.50285405 0.10450217 -0.081345931 2 3 -0.071075395
-1.0242221 0.21303864 0.12845029 100 11 -0.071073093
-1.0307759 0.21458925 0.16675916 100 12 -0.071068481
-1.0397509 0.21683662 0.20645534 100 13 -0.071063876
-1.0434725 0.21780254 0.24609646 9 14 -0.071059264
-1.066803 0.22286683 -0.019023122 100 7 -0.071056962
-0.99653465 0.20836851 0.27279529 77 15 -0.07105466
-0.49908492 0.10499161 -0.13665645 54 0 -0.071033925
-1.0331861 0.21753812 0.018429741 100 8 -0.071031615
-1.0181717 0.21474771 0.054534074 100 9 -0.071027011
-1.0273483 0.21687074 0.09186215 100 10 -0.071022399
-0.51023555 0.10780251 -0.082597405 2 3 -0.071020097
-1.0312787 0.21807672 0.12942526 100 11 -0.071017794
-1.0203581 0.21613927 0.16519481 100 12 -0.071013182
-1.0409468 0.22069061 0.20683697 100 13 -0.071008578
-1.0407996 0.22103879 0.24564654 54 14 -0.071003966
-1.0425466 0.22160023 -0.018604266 100 7 -0.071001664
-1.00147 0.21305156 0.2743482 73 15 -0.070999362
-0.49115914 0.10511608 -0.13458592 55 0 -0.070978627
-1.0285099 0.22030565 0.018359931 100 8 -0.070976324
-0.48779407 0.10457386 -0.11517494 35 1 -0.070974015
-1.0252271 0.21997678 0.054952759 100 9 -0.070971712
-1.0207412 0.21920063 0.091339223 100 10 -0.070967108
-0.50599366 0.10875264 -0.081971675 2 3 -0.070964798
-1.032452 0.22209248 0.12966898 100 11 -0.070962496
-1.0099422 0.21761897 0.16363046 100 12 -0.070957892
-1.0440085 0.22515039 0.20760021 100 13 -0.07095328
-1.0343072 0.22343634 0.24429685 84 14 -0.070948675
-1.0339485 0.22354747 -0.018464647 100 7 -0.070946373
-0.98939139 0.21409462 0.27124238 15 15 -0.070944063
-0.48890153 0.10641903 -0.13406827 55 0 -0.070923328
-1.0257808 0.22346862 0.018325027 100 8 -0.070921026
-0.48933008 0.10669121 -0.11562484 52 1 -0.070918724
-1.0322584 0.22525746 0.055371448 100 9 -0.070916414
-1.0199698 0.22276212 0.091339223 100 10 -0.07091181
-0.48245311 0.10545643 -0.078217238 3 3 -0.070909508
-1.0374881 0.22696781 0.13040021 100 11 -0.070907198
-1.0149651 0.22241178 0.16456908 100 12 -0.070902593
-1.0297923 0.22584926 0.20492886 100 13 -0.070897989
-1.0297143 0.2262089 0.24339703 87 14 -0.070893377
-1.037068 0.2280141 -0.018534455 100 7 -0.070891075
-0.99995822 0.22003795 0.2743482 11 15 -0.070888773
-0.4866409 0.1077074 -0.13355063 55 0 -0.07086803
-1.0191373 0.22575048 0.018220313 100 8 -0.070865728
-0.49085724 0.10882045 -0.11607475 52 1 -0.070863426
-1.0431648 0.23145486 0.05599948 100 9 -0.070861124
-1.021131 0.22675306 0.091513529 100 10 -0.070856512
-0.48208207 0.10713989 -0.078217238 3 3 -0.070854209
-1.0308763 0.22929494 0.12966898 100 11 -0.070851907
-1.0199668 0.22724205 0.16550769 100 12 -0.070847295
-1.0289977 0.22944255 0.20492886 100 13 -0.070842691
-1.0422317 0.23277533 0.24654636 69 14 -0.070838079
-1.044072 0.23337767 -0.018674076 100 7 -0.070835777
-1.0010693 0.22394888 0.27486584 57 15 -0.070833474
-0.49003148 0.11025356 -0.13458592 55 0 -0.070812739
-1.0202938 0.22974613 0.018255217 100 8 -0.070810437
-0.48096907 0.10839098 -0.11382524 53 1 -0.070808128
-1.0267639 0.23157936 0.055162102 100 9 -0.070805825
-1.0261636 0.23163243 0.092036456 100 10 -0.070801221
-0.51253426 0.11578663 -0.083223142 2 3 -0.070798911
-1.0165161 0.22982739 0.12796283 100 11 -0.070796609
-1.0268738 0.23254624 0.16675916 100 12 -0.070792004
-1.03202 0.23390074 0.20569211 95 13 -0.070787393
-1.037612 0.23554918 0.24564654 13 14 -0.070782788
-1.051051 0.2387929 -0.018813694 100 7 -0.070780478
-0.98709518 0.22444366 0.27124238 49 15 -0.070778176
-0.48964363 0.11196344 -0.13458592 55 0 -0.070757441
-1.0389788 0.23776694 0.018604266 100 8 -0.070755139
-0.48438692 0.11093935 -0.11472505 52 1 -0.070752837
-1.0162154 0.23293093 0.054638743 100 9 -0.070750527
-1.0253488 0.23521301 0.092036456 100 10 -0.070745923
-0.50442588 0.11580686 -0.081971675 2 3 -0.07074362
-1.0215116 0.23470812 0.12869403 100 11 -0.070741311
-1.0029552 0.23081285 0.16300473 100 12 -0.070736706
-1.0465026 0.2410271 0.20874506 34 13 -0.070732094
-1.0346234 0.23886162 -0.018534455 100 7 -0.070725188
-0.99759918 0.23049732 0.2743482 40 15 -0.070722878
-0.47795936 0.11104884 -0.13148008 56 0 -0.070702143
-1.0381426 0.24139223 0.018604266 100 8 -0.070699841
-0.4783026 0.11130445 -0.11337533 35 1 -0.070697539
-1.0309578 0.2401012 0.055476118 100 9 -0.070695236
-1.0206409 0.23788601 0.091687836 100 10 -0.070690624
-0.53864574 0.12564406 -0.087603308 2 3 -0.070688322
-1.0303518 0.24052887 0.12991273 100 11 -0.07068602
-0.98867887 0.23116426 0.16081464 51 12 -0.070681408
-1.0318365 0.24201511 -0.018499551 100 7 -0.070669889
-0.98926574 0.23221211 0.27227765 34 15 -0.070667587
-0.48508966 0.11449152 -0.13355063 55 0 -0.070646852
-1.0295089 0.2431758 0.018464647 100 8 -0.070644543
-0.4873935 0.11521503 -0.11562484 52 1 -0.07064224
-1.0281699 0.24323845 0.055371448 100 9 -0.070639938
-1.0139879 0.24007022 0.091164902 100 10 -0.070635326
-0.51898229 0.12296924 -0.084474623 2 3 -0.070633024
-1.0217798 0.2422917 0.12893778 97 11 -0.070630722
-1.0446023 0.24885914 -0.018743884 100 7 -0.070614591
-0.99032819 0.23611191 0.27279529 27 15 -0.070612289
-0.49220157 0.11798543 -0.13562119 54 0 -0.070591554
-1.0247649 0.24583481 0.018394835 100 8 -0.070589252
-0.4794088 0.11509585 -0.11382524 35 1 -0.070586942
-1.0350826 0.24869233 0.055790137 100 9 -0.07058464
-1.0053951 0.24174511 0.090467662 96 10 -0.070580035
-0.48013881 0.11553701 -0.078217238 3 3 -0.070577726
-1.0456709 0.25297424 -0.01877879 100 7 -0.0705593
-0.98949796 0.23956764 0.27279529 28 15 -0.070556991
-0.51055723 0.12427151 -0.14079757 52 0 -0.070536256
-1.0336149 0.25177699 0.01856936 100 8 -0.070533954
-0.47521752 0.11584553 -0.11292543 53 1 -0.070531651
-1.022566 0.24946375 0.055162102 100 9 -0.070529349
-1.0161582 0.24808845 0.091513529 38 10 -0.070524737
-0.51043546 0.12471391 -0.083223142 2 3 -0.070522435
-0.73053181 0.17930056 0.17366222 9 14 -0.070506305
-1.0447813 0.25662303 -0.01877879 100 7 -0.070504002
-0.9924078 0.24394225 0.27383056 27 15 -0.0705017
-0.49886766 0.12327237 -0.13769174 54 0 -0.070480965
-1.0404946 0.25730368 0.01870898 100 8 -0.070478655
-0.47670189 0.11797179 -0.11337533 35 1 -0.070476353
-1.0119954 0.25063074 0.054638743 60 9 -0.070474051
-0.49849334 0.12364165 -0.081345931 2 3 -0.070467137
-0.75147688 0.18680704 0.12264463 3 12 -0.070460223
-0.73349655 0.18247329 0.14692293 6 13 -0.070455618
-0.72990155 0.18184951 0.17366222 9 14 -0.070451006
-1.0419389 0.25978443 -0.018743884 97 7 -0.070448704
-0.99529892 0.24834029 0.27486584 27 15 -0.070446402
-0.4834438 0.12125333 -0.13355063 55 0 -0.070425667
-1.0163157 0.25509232 0.018290123 85 8 -0.070423365
-0.48384735 0.12153395 -0.11517494 35 1 -0.070421055
-0.52870858 0.13309661 -0.086351842 2 3 -0.070411839
-0.69335949 0.17493178 0.11325856 4 12 -0.070404932
-0.73285514 0.18503258 0.14692293 6 13 -0.07040032
-0.75949079 0.19203962 0.18086064 8 14 -0.070395716
-1.0235784 0.25900507 -0.018429741 49 7 -0.070393413
-0.98131686 0.24849349 0.27124238 28 15 -0.070391104
-0.48488972 0.12341664 -0.13406827 55 0 -0.070346355
-0.49097362 0.12514764 -0.11697455 51 1 -0.070341751
-0.49379021 0.12614095 -0.080720194 2 3 -0.070332535
-0.6307956 0.16137399 -0.079946294 6 4 -0.070327923
-0.69657201 0.178331 0.11388431 8 12 -0.07032562
-0.70177543 0.17979369 0.14081705 7 13 -0.070321009
-0.76636624 0.1966268 0.18266025 7 14 -0.070316404
-1.0207312 0.26207921 -0.018394835 2 7 -0.070314102
-0.97108811 0.2495134 0.2686542 10 15 -0.070311792
-0.49380839 0.12752357 -0.13665645 54 0 -0.070291057
-0.47166702 0.12198143 -0.11247552 36 1 -0.070286453
-0.51629323 0.13381098 -0.084474623 2 3 -0.070277236
-0.69558847 0.18040946 0.088233411 8 11 -0.070274934
-0.59564269 0.15459839 -0.075558998 7 4 -0.070272624
-0.66917807 0.17380907 0.10950414 8 12 -0.070270322
-0.71634454 0.18619314 0.14386998 6 13 -0.070265718
-0.75813162 0.19733718 0.18086064 8 14 -0.070261106
-0.4952291 0.12973611 -0.1371741 54 0 -0.070235766
-0.69371915 0.18225271 0.062752135 7 10 -0.07022424
-0.50053936 0.13159412 -0.081971675 2 3 -0.070221938
-0.67959636 0.17879584 0.086283498 8 11 -0.070219636
-0.59509939 0.15667664 -0.075558998 7 4 -0.070217334
-0.69152135 0.18206243 0.11325856 8 12 -0.070215024
-0.76884502 0.20270684 0.15455531 5 13 -0.07021042
-0.74990153 0.19799234 0.17906104 8 14 -0.070205815
-0.48543787 0.12898356 -0.13458592 55 0 -0.070180468
-0.51225853 0.13620567 -0.12237337 82 1 -0.070175856
-0.6736061 0.17923266 0.036530498 9 9 -0.070173554
-0.67767698 0.18056914 0.061357643 7 10 -0.07016895
-0.51537049 0.13732205 -0.084474623 2 3 -0.07016664
-0.67899972 0.18104851 0.086283498 8 11 -0.070164338
-0.58690459 0.15660213 -0.074584045 7 4 -0.070162036
-0.69469875 0.18549424 0.11388431 8 12 -0.070159733
-0.75299484 0.20120089 0.15150236 5 13 -0.070155121
-0.74924082 0.20047805 0.17906104 8 14 -0.070150517
-0.48500746 0.13059264 -0.13458592 55 0 -0.07012517
-0.71440822 0.19249457 0.012914781 7 8 -0.070122868
-0.48543838 0.13089041 -0.11607475 34 1 -0.070120566
-0.67297637 0.18158291 0.036530498 9 9 -0.070118256
-0.6539923 0.17658307 0.0592659 8 10 -0.070113651
-0.49581808 0.13396762 -0.081345931 2 3 -0.070111349
-0.6898613 0.18652634 0.087745935 17 11 -0.070109047
-0.57868969 0.15657589 -0.073609091 7 4 -0.070106737
-0.67497975 0.18275549 0.11075561 8 12 -0.070104435
-0.56348121 0.15256648 -0.051073264 13 5 -0.070102133
-0.76365757 0.20690869 0.15379207 5 13 -0.070099831
-0.72596747 0.19696878 0.17366222 9 14 -0.070095219
-0.47336674 0.129232 -0.13148008 56 0 -0.070069872
-0.65200382 0.17812344 0.011797828 8 8 -0.07006757
-0.50001657 0.13669524 -0.11967396 50 1 -0.070065267
-0.64151484 0.17549859 0.034855749 20 9 -0.070062965
-0.64952862 0.17781276 0.058917284 16 10 -0.070058353
-0.51820958 0.1419605 -0.08510036 2 3 -0.070056051
-0.68920594 0.18893328 0.087745935 8 11 -0.070053749
-0.5781396 0.15859495 -0.073609091 7 4 -0.070051447
-0.68576711 0.18824798 0.11263283 8 12 -0.070049137
-0.53604674 0.14714867 -0.048632905 13 5 -0.070046835
-0.71370929 0.19605224 0.14386998 6 13 -0.070044532
-0.72527552 0.19950171 0.17366222 9 14 -0.070039921
-0.92379469 0.25445533 0.2567485 1 15 -0.070035316
-0.47663647 0.13191427 -0.13251536 56 0 -0.070014581
-0.63788801 0.17666224 0.011553493 37 8 -0.070012279
-0.48639074 0.13479654 -0.11652464 34 1 -0.070009969
-0.66784298 0.18520924 0.036321156 19 9 -0.070007667
-0.67578167 0.18753785 0.061357643 7 10 -0.070003062
-0.47583723 0.13214009 -0.078217238 3 3 -0.070000753
-0.70193064 0.19505841 0.089452103 16 11 -0.069998451
-0.60053271 0.16699401 -0.076533951 7 4 -0.069996148
-0.70603961 0.19646594 0.11607439 7 12 -0.069993846
-0.5547244 0.15436025 -0.050376017 13 5 -0.069991536
-0.72815102 0.2027555 0.14692293 6 13 -0.069989234
-0.75460881 0.21040678 0.18086064 8 14 -0.06998463
-0.50221378 0.14088227 -0.13976228 53 0 -0.069959283
-0.62956631 0.17672586 0.011413874 37 8 -0.069956981
-0.6498878 0.18267524 0.035379112 30 9 -0.069952369
-0.65402538 0.18396124 0.059440218 16 10 -0.069947764
-0.51340288 0.14450443 -0.084474623 2 3 -0.069945462
-0.68787014 0.19374025 0.087745935 8 11 -0.069943152
-0.56937569 0.16047311 -0.072634131 7 4 -0.06994085
-0.69394231 0.19571194 0.11419717 8 12 -0.069938548
-0.56185269 0.15845881 -0.051073264 26 5 -0.069936246
-0.75011224 0.21169482 0.15150236 5 13 -0.069933936
-0.75386983 0.2130394 0.18086064 8 14 -0.069929332
-0.9219957 0.26089865 0.2567485 1 15 -0.069924727
-0.501719 0.14263435 -0.13976228 53 0 -0.069903985
-0.63856244 0.18165821 0.011588398 45 8 -0.069901682
-0.47794068 0.13605483 -0.11472505 35 1 -0.06989938
-0.6358003 0.18111235 0.034646407 20 9 -0.069897078
-0.6821202 0.19443561 0.062054887 7 10 -0.069892466
-0.5698837 0.16255076 -0.093860693 2 3 -0.069890164
-0.67573655 0.19287103 0.086283498 17 11 -0.069887862
-0.56499445 0.16136944 -0.072146654 7 4 -0.069885552
-0.69325489 0.19813308 0.11419717 8 12 -0.06988325
-0.58428431 0.16698915 -0.053165 49 5 -0.069880947
-0.74559355 0.21323209 0.15073912 5 13 -0.069878645
-0.72314662 0.20708576 0.17366222 9 14 -0.069874033
-0.91365141 0.26198527 0.25467795 1 15 -0.069869429
-0.49379262 0.1422458 -0.13769174 54 0 -0.069848694
-0.6436888 0.1855479 0.011693113 36 8 -0.069846384
-0.48682493 0.14042267 -0.11697455 51 1 -0.069844082
-0.65435344 0.1888693 0.035693128 29 9 -0.06984178
-0.67760903 0.19570996 0.061706264 7 10 -0.069837168
-0.54274499 0.15686043 -0.089480527 2 3 -0.069834866
-0.70175654 0.20294958 0.089695849 16 11 -0.069832563
-0.59112364 0.17106625 -0.075558998 7 4 -0.069830261
-0.68117458 0.19725488 0.11231996 8 12 -0.069827959
-0.55881894 0.16182309 -0.050898954 39 5 -0.069825649
-0.74861604 0.21692625 0.15150236 5 13 -0.069823347
-0.78979522 0.22915776 0.18985869 6 14 -0.069818743
-0.90902102 0.26409498 0.25364268 1 15 -0.069814131
-0.51183796 0.14938095 -0.14286812 51 0 -0.069793396
-0.64303726 0.18779354 0.011693113 36 8 -0.069791093
-0.47510868 0.13884144 -0.11427514 35 1 -0.069788784
-0.6536901 0.19115244 0.035693128 19 9 -0.069786482
-0.64632648 0.18912145 0.058917284 8 10 -0.069781877
-0.4891122 0.14321168 -0.080720194 2 3 -0.069779575
-0.70485371 0.20651439 0.090183318 8 11 -0.069777265
-0.58290327 0.17089471 -0.074584045 7 4 -0.069774963
-0.69564581 0.20408008 0.11482291 7 12 -0.069772661
-0.56016248 0.16433364 -0.051073264 39 5 -0.069770359
-0.72524911 0.21290238 0.14692293 6 13 -0.069768049
-0.75907618 0.2231202 0.18266025 7 14 -0.069763444
-0.91735995 0.26999372 0.25623086 3 15 -0.069758832
-0.48167205 0.14240342 -0.13458592 55 0 -0.069738097
-0.63854271 0.18890248 0.011623302 36 8 -0.069735795
-0.49704421 0.14713679 -0.11967396 33 1 -0.069733493
-0.66259396 0.1962692 0.036216486 19 9 -0.069731191
-0.67240578 0.19930324 0.061357643 7 10 -0.069726579
-0.53027362 0.15727548 -0.087603308 2 3 -0.069724277
-0.68890417 0.20445521 0.088233411 8 11 -0.069721974
-0.58610916 0.17405853 -0.075071529 7 4 -0.069719665
-0.68356794 0.20313112 0.1129457 8 12 -0.069717363
-0.55194598 0.16401795 -0.050376017 26 5 -0.06971506
-0.72450149 0.21543269 0.14692293 6 13 -0.069712758
-0.79564703 0.23689033 0.1916583 6 14 -0.069708146
-0.916412 0.27319404 0.25623086 3 15 -0.069703542
-0.52003586 0.15572146 -0.14545631 50 0 -0.069682807
-0.64937276 0.19457407 0.011832732 35 8 -0.069680497
-0.63129652 0.18939798 0.034541734 20 9 -0.069675893
-0.67552251 0.20279489 0.061706264 7 10 -0.069671281
