# .PCD v0.7 - Point Cloud Data file format
VERSION 0.7
FIELDS x y z intensity ring time
SIZE 4 4 4 4 2 4
TYPE F F F F U F
COUNT 1 1 1 1 1 1
WIDTH 977
HEIGHT 1
VIEWPOINT 0 0 0 1 0 0 0
POINTS 977
DATA ascii
8.9891939 4.2472572 1.5746696 42 12 -0.043105099
6.0947514 2.8783727 -0.58969575 35 5 -0.043102793
7.4725862 3.5274935 1.6062301 22 13 -0.043100491
6.1251044 2.8900936 -0.3549425 32 6 -0.043098185
5.6242914 2.6525877 1.4356377 37 14 -0.043095883
6.4333148 3.0341477 -0.12415642 18 7 -0.043093577
5.5969753 2.6385138 1.6579949 48 15 -0.043091275
3.630022 1.7050645 -1.0746168 9 0 -0.04307054
6.6082101 3.1039548 0.12743747 62 8 -0.043068234
4.244175 1.9926356 -1.0824645 11 1 -0.043065932
18.697186 8.7743254 1.0824124 91 9 -0.043063626
5.2202988 2.4487011 -1.1208121 9 2 -0.043061323
6.3589258 2.9814463 0.61444795 100 10 -0.043059018
5.6643281 2.6557772 -0.99085599 30 3 -0.043056715
11.158821 5.2295504 1.5131298 14 11 -0.043054409
6.0616345 2.8394778 -0.82188696 27 4 -0.043052107
8.9914417 4.2099872 1.5724794 40 12 -0.043049801
6.111979 2.8604598 -0.59039295 27 5 -0.043047499
6.1292272 2.8672283 -0.35462847 36 6 -0.043042891
5.6665964 2.6496065 1.4441857 13 14 -0.043040588
6.4148798 2.9981272 -0.12359794 11 7 -0.043038283
5.6184044 2.6246829 1.6616182 45 15 -0.04303598
3.6251483 1.6881253 -1.0715109 9 0 -0.043015242
6.53017 3.0395219 0.12572713 90 8 -0.043012939
4.2617059 1.9827415 -1.085164 8 1 -0.043010633
6.3131952 2.9358487 0.36488631 17 9 -0.043008331
5.2212691 2.428066 -1.1192856 9 2 -0.043006025
6.3181896 2.9368265 0.60956728 100 10 -0.043003723
5.3618488 2.4911644 -0.9364168 34 3 -0.043001417
11.200415 5.2014337 1.5162985 5 11 -0.042999115
6.0679083 2.8166282 -0.82139945 28 4 -0.042996809
6.2340155 2.8924136 1.0884712 31 12 -0.042994507
6.0888987 2.8250833 -0.58725542 33 5 -0.042992204
6.2746277 2.9099224 1.3444403 3 13 -0.042989898
6.1319504 2.8424542 -0.35420978 33 6 -0.042987596
6.4891663 3.0066688 1.6511407 50 14 -0.04298529
6.3055472 2.9202511 -0.12129422 12 7 -0.042982988
4.9613447 2.2966671 1.4649159 30 15 -0.042980682
3.6292639 1.674652 -1.0709932 11 0 -0.042959947
6.606112 3.0468576 0.12698372 67 8 -0.042957641
4.2562132 1.9621412 -1.0820146 8 1 -0.042955339
18.667284 8.6017971 1.0771787 24 9 -0.042953033
5.2118816 2.4016106 -1.1154695 11 2 -0.042950731
6.366405 2.9322588 0.61322778 100 10 -0.042948429
5.3561578 2.4658232 -0.93391389 31 3 -0.042946123
11.220303 5.1631422 1.5165422 10 11 -0.04294382
6.0650787 2.7896247 -0.81969327 26 4 -0.042941514
9.017024 4.145462 1.5718536 18 12 -0.042939212
6.0842414 2.7971525 -0.58586085 27 5 -0.042936906
6.2490678 2.8716083 1.336808 40 13 -0.042934604
6.1309447 2.8160317 -0.35358176 36 6 -0.042932298
6.5102491 2.9888761 1.6538402 52 14 -0.042929996
6.4120274 2.9424272 -0.12314418 3 7 -0.04292769
4.9412355 2.2664492 1.4566337 39 15 -0.042925388
3.6368454 1.6627758 -1.0715109 10 0 -0.042904649
6.5694203 3.0021672 0.12607619 67 8 -0.042902347
4.2665806 1.9488924 -1.0829144 11 1 -0.042900044
18.689932 8.5332613 1.0767601 45 9 -0.042897739
5.2291636 2.3874788 -1.1173775 9 2 -0.042895436
6.3711648 2.9075348 0.61270487 100 10 -0.04289313
5.3503542 2.4405544 -0.93141097 31 3 -0.042890828
11.249096 5.1288834 1.5180047 7 11 -0.042888522
6.0729733 2.767612 -0.81944954 28 4 -0.04288622
9.0494165 4.1221523 1.5749824 16 12 -0.042883914
6.0885286 2.773421 -0.585338 36 5 -0.042881612
6.2644134 2.8522193 1.3379527 9 13 -0.042879306
6.1225595 2.7863393 -0.35253504 34 6 -0.042877004
6.5241895 2.9677479 1.65474 58 14 -0.042874698
6.4076962 2.9134073 -0.12286495 1 7 -0.042872395
4.9948449 2.2699673 1.4700923 9 15 -0.042870089
3.6443875 1.6508667 -1.0720285 9 0 -0.042849354
6.2683525 2.8381791 0.12010746 90 8 -0.042847052
4.2680321 1.9315758 -1.0815647 11 1 -0.042844746
18.705048 8.4613781 1.0759227 35 9 -0.042842444
5.2374663 2.3692098 -1.1173775 9 2 -0.042840138
6.3830891 2.8861032 0.61287922 100 10 -0.042837836
5.3444409 2.4153535 -0.92890793 32 3 -0.04283553
11.25065 5.0822272 1.5158111 3 11 -0.042833228
6.0536475 2.7333302 -0.81554973 27 4 -0.042830922
9.0799551 4.0978494 1.5777982 18 12 -0.042828619
6.0909085 2.7488711 -0.58464068 26 5 -0.042826314
6.2546468 2.8214533 1.3337549 20 13 -0.042824011
6.1103973 2.7551033 -0.35127899 33 6 -0.042821705
6.538063 2.9465556 1.6556398 56 14 -0.042819403
6.3704228 2.8696666 -0.12195742 1 7 -0.042817097
5.6439328 2.5412252 1.6585126 41 15 -0.042814795
3.6501274 1.6381363 -1.0720285 11 0 -0.04279406
6.3001165 2.8261006 0.12052631 82 8 -0.042791754
4.2889748 1.923043 -1.085164 11 1 -0.042789452
6.2351027 2.794323 0.35808265 17 9 -0.042787146
5.2206221 2.3396735 -1.1120348 9 2 -0.042784844
6.298574 2.8214483 0.60381496 59 10 -0.042782538
5.3528399 2.396682 -0.92890793 31 3 -0.042780235
6.2565541 2.800004 0.84162974 63 11 -0.042777929
6.0559049 2.7089386 -0.81457478 31 4 -0.042775627
6.2196932 2.7808988 1.0790851 28 12 -0.042773321
6.0931921 2.7243388 -0.58394349 36 5 -0.042771019
6.2375708 2.7875893 1.3280307 31 13 -0.042768713
6.1145072 2.7313118 -0.35096496 31 6 -0.042766411
5.7226534 2.5550718 1.4468851 13 14 -0.042764105
6.2763133 2.800962 -0.11996785 11 7 -0.042761803
5.6545339 2.522294 1.6590302 43 15 -0.0427595
3.652293 1.6238141 -1.0709932 11 0 -0.042738762
6.3062878 2.8024693 0.12045651 62 8 -0.04273646
4.2974405 1.9088539 -1.0856137 9 1 -0.042734154
6.305059 2.7992845 0.36153683 57 9 -0.042731851
5.2359352 2.324621 -1.1135614 9 2 -0.042729545
6.3011007 2.7962108 0.60311776 52 10 -0.042727243
5.3539486 2.3747823 -0.92765647 32 3 -0.042724937
6.3207331 2.8022828 0.84894192 71 11 -0.042722635
6.0508051 2.6813474 -0.81262481 28 4 -0.042720329
9.1047287 4.0327644 1.5771725 33 12 -0.042718027
6.0808029 2.6933744 -0.58185172 26 5 -0.042715721
6.2472639 2.7657974 1.3280307 31 13 -0.042713419
6.1203518 2.7083335 -0.3507556 32 6 -0.042711116
5.7137136 2.5272017 1.4423862 80 14 -0.04270881
6.3025126 2.7863119 -0.12028199 69 7 -0.042706508
5.6615376 2.5017583 1.6585126 45 15 -0.042704202
3.6490984 1.6071647 -1.068405 9 0 -0.042683467
6.2940698 2.7707689 0.12003765 62 8 -0.042681161
4.3005109 1.8922704 -1.0847139 9 1 -0.042678859
6.3111334 2.7756548 0.36132747 65 9 -0.042676553
5.2440162 2.3063335 -1.1135614 9 2 -0.042674251
6.2889342 2.7645786 0.601026 57 10 -0.042671945
5.344121 2.3481312 -0.92452782 32 3 -0.042669643
6.3032117 2.7682333 0.84528583 69 11 -0.04266734
6.05831 2.6594131 -0.81238109 30 4 -0.042665035
9.1277952 4.0049238 1.5787368 37 12 -0.042662732
6.0628009 2.6601226 -0.57923704 35 5 -0.042660426
7.6215281 3.3424418 1.6176788 29 13 -0.042658124
6.1169634 2.6813414 -0.35002291 33 6 -0.042655818
5.7367806 2.5134966 1.4459854 46 14 -0.042653516
6.2847252 2.7522607 -0.11975842 47 7 -0.04265121
5.0632157 2.2162766 1.4809626 50 15 -0.042648908
3.6582274 1.5959611 -1.0694402 11 0 -0.042628169
6.292706 2.7439845 0.11982822 65 8 -0.042625867
4.2838659 1.8671263 -1.0788652 8 1 -0.042623565
6.3079667 2.7480226 0.36059478 63 9 -0.042621259
5.2520356 2.2880132 -1.1135614 11 2 -0.042618956
6.2894135 2.7386303 0.6001544 61 10 -0.04261665
5.3377948 2.3231571 -0.92202479 30 3 -0.042614348
6.3019152 2.7414613 0.84382337 45 11 -0.042612042
6.0529928 2.6319153 -0.81043118 24 4 -0.04260974
6.2194848 2.703021 1.0740792 25 12 -0.042607434
6.0775309 2.6413271 -0.57976002 26 5 -0.042605132
7.6313462 3.3150401 1.6172972 27 13 -0.042602826
6.1097984 2.6528122 -0.34908086 30 6 -0.042600524
6.2869534 2.7271271 -0.11961879 49 7 -0.042595915
5.3155165 2.3046365 1.5523967 43 15 -0.04259361
3.6566832 1.5801156 -1.0673697 9 0 -0.042572875
6.2802153 2.7124918 0.11940937 72 8 -0.042570572
4.2957249 1.8544774 -1.080215 9 1 -0.042568266
6.2716756 2.7062027 0.35797796 74 9 -0.042565964
5.2563853 2.2681091 -1.1127981 13 2 -0.042563658
6.2769804 2.7071924 0.59806269 61 10 -0.042561356
5.3422441 2.3029454 -0.92139912 30 3 -0.04255905
6.2768083 2.7045202 0.83919233 71 11 -0.042556748
6.0402646 2.6013496 -0.80750632 28 4 -0.042554442
6.0665841 2.6114295 -0.57784253 32 5 -0.042549834
7.6500854 3.2914832 1.6188235 27 13 -0.042547531
6.1025071 2.6243687 -0.34813881 33 6 -0.042545225
6.4953938 2.7919855 1.6322449 3 14 -0.042542923
6.2707138 2.6941121 -0.11913013 54 7 -0.042540617
5.6998506 2.4476719 1.662136 13 15 -0.042538315
3.6781607 1.5741836 -1.0720285 9 0 -0.04251758
6.2730994 2.6834731 0.11909522 67 8 -0.042515274
4.3057566 1.8410023 -1.0811148 9 1 -0.042512972
6.2847567 2.6858652 0.35818732 65 9 -0.042510666
5.253438 2.2451191 -1.1105084 11 2 -0.042508364
6.2900562 2.6868317 0.59841132 59 10 -0.042506058
5.3448009 2.281955 -0.92046052 28 3 -0.042503756
6.2898617 2.6841533 0.83967984 78 11 -0.04250145
6.0401778 2.5763564 -0.80628765 22 4 -0.042499147
6.3690386 2.7153101 1.0966057 46 12 -0.042496841
6.0811615 2.5925796 -0.5783655 26 5 -0.042494539
7.6723647 3.2693789 1.6211133 31 13 -0.042492233
6.1024423 2.599139 -0.34761545 31 6 -0.042489931
6.4046912 2.7265482 1.6070504 66 14 -0.042487625
6.2800789 2.6722083 -0.11913013 52 7 -0.042485323
5.322587 2.2636933 1.5498085 3 15 -0.042483017
3.6691327 1.555943 -1.0678874 12 0 -0.042468548
6.2764406 2.6603131 0.11899051 57 8 -0.042466246
4.3064537 1.8244363 -1.0797651 8 1 -0.04246394
6.2899513 2.6634502 0.35797796 65 9 -0.042461637
5.253624 2.2246222 -1.108982 13 2 -0.042459331
6.2750788 2.6558611 0.59614527 57 10 -0.042457029
5.3414226 2.2596018 -0.91858327 29 3 -0.042454723
6.2950726 2.6617327 0.83919233 78 11 -0.042452421
6.0358891 2.5509012 -0.80458146 30 4 -0.042450115
6.3652697 2.6887953 1.0944157 91 12 -0.042447813
6.054853 2.5576704 -0.57505357 31 5 -0.042445507
7.6867814 3.2454433 1.6218765 34 13 -0.042443205
6.1055083 2.5765569 -0.34730142 36 6 -0.042440899
6.533998 2.7560387 1.6371938 39 14 -0.042438596
6.2631097 2.6404905 -0.11864146 51 7 -0.042436291
5.1609416 2.174762 1.5006329 54 15 -0.042433988
3.669198 1.5408826 -1.0663346 11 0 -0.042413253
6.269093 2.6314237 0.11867636 60 8 -0.042410947
4.3145928 1.8101455 -1.080215 9 1 -0.042408645
6.2789488 2.6329832 0.35682657 57 9 -0.042406339
5.2794619 2.2138631 -1.1127981 9 2 -0.042404037
6.2732863 2.6293213 0.59509945 64 10 -0.042401731
5.3310571 2.2333114 -0.91545457 25 3 -0.042399429
6.2878451 2.6328437 0.83699876 79 11 -0.042397123
6.0429254 2.5290515 -0.80433774 23 4 -0.042394821
6.3545699 2.6581762 1.0909741 53 12 -0.042392515
6.0655813 2.5372896 -0.57522792 27 5 -0.042390212
6.2381482 2.6081967 1.3142924 10 13 -0.042387906
6.1089373 2.5529172 -0.34698743 31 6 -0.042385604
5.8386917 2.4387884 1.4608321 37 14 -0.042383298
6.2612162 2.613991 -0.11843203 52 7 -0.042380996
5.6480904 2.3568571 1.6398776 45 15 -0.04237869
3.6781211 1.5295496 -1.0673697 9 0 -0.042357955
6.2579293 2.6010804 0.11829241 57 8 -0.042355653
4.3136873 1.7920821 -1.0784154 9 1 -0.042353347
6.2433801 2.5937552 0.35431448 57 9 -0.042351045
5.276278 2.1909049 -1.1105084 13 2 -0.042348739
6.2456226 2.5921309 0.59161317 64 10 -0.042346437
5.3278732 2.2101462 -0.91357738 27 3 -0.042344131
6.2144794 2.5766666 0.82603049 78 11 -0.042341828
6.0388799 2.5026207 -0.80263156 30 4 -0.042339522
6.4016728 2.6529686 1.0975443 63 12 -0.04233722
6.0541544 2.5077128 -0.57331049 33 5 -0.042334914
7.7273908 3.1992142 1.6256927 5 13 -0.042332612
6.0956655 2.5224147 -0.34573138 38 6 -0.042330306
5.820158 2.4072189 1.4540836 50 14 -0.042328004
6.2661552 2.5916834 -0.11836223 49 7 -0.042325702
5.7397833 2.3728061 1.6642065 43 15 -0.042323396
3.6923704 1.5203781 -1.069958 12 0 -0.042302661
6.2498784 2.5734627 0.11797827 60 8 -0.042300355
4.3051896 1.7718352 -1.0748161 9 1 -0.042298052
6.2690187 2.5787854 0.3552565 59 9 -0.042295747
5.2766309 2.169486 -1.108982 11 2 -0.042293444
6.2675323 2.5756164 0.59283334 59 10 -0.042291138
5.3278642 2.1894639 -0.91232592 29 3 -0.042288836
6.2266631 2.5575511 0.826518 84 11 -0.04228653
6.0324545 2.4765513 -0.80068165 26 4 -0.042284228
6.4291692 2.6381068 1.100673 66 12 -0.042281926
6.0628705 2.4865658 -0.57331049 28 5 -0.04227962
7.7797346 3.1907034 1.6344699 6 13 -0.042277317
6.0892115 2.4961278 -0.34489399 32 6 -0.042275012
5.8461404 2.3952949 1.4585826 65 14 -0.042272709
6.2677608 2.5667646 -0.1182226 54 7 -0.042270403
5.2867589 2.1639488 1.530656 43 15 -0.042268101
3.6956031 1.5073946 -1.0694402 9 0 -0.042247362
6.2569723 2.5508745 0.11794336 57 8 -0.04224506
4.322176 1.7612096 -1.0775156 11 1 -0.042242754
6.2576365 2.5485985 0.35410511 55 9 -0.042240452
5.2728872 2.1475315 -1.1066922 11 2 -0.042238146
6.2723489 2.5533142 0.59248471 61 10 -0.042235844
5.3318143 2.1693649 -0.91170013 38 3 -0.042233542
6.2190037 2.5290687 0.82432431 76 11 -0.042231236
6.031868 2.45174 -0.79946297 31 4 -0.042228933
6.3267016 2.5702963 1.081588 56 12 -0.042226627
6.0636988 2.4634485 -0.57261318 33 5 -0.042224325
6.2010098 2.5179684 1.3009357 15 13 -0.042222019
6.0941873 2.4733534 -0.34468466 41 6 -0.042219717
5.8905821 2.3895254 1.4675807 22 14 -0.042217411
6.2247939 2.5238304 -0.11724527 52 7 -0.042215109
5.7615809 2.3348508 1.6657594 43 15 -0.042212803
3.6990502 1.4937646 -1.0689226 11 0 -0.042192068
6.2639832 2.528271 0.11790846 57 8 -0.042189762
4.331912 1.7475685 -1.0784154 8 1 -0.04218746
6.2590837 2.5237565 0.35368642 57 9 -0.042185158
5.291275 2.1335216 -1.108982 9 2 -0.042182852
6.259047 2.5224683 0.59039295 59 10 -0.042180549
5.3595109 2.1588576 -0.91514176 31 3 -0.042178243
6.2130613 2.501415 0.8223744 79 11 -0.042175941
6.0367055 2.429189 -0.79897547 28 4 -0.042173635
6.2238407 2.5032308 1.062503 63 12 -0.042171333
6.0537763 2.4348309 -0.5708701 31 5 -0.042169027
6.2170486 2.4992352 1.3024622 3 13 -0.042166725
6.0898099 2.4468546 -0.34395194 36 6 -0.042164419
5.9187799 2.3769357 1.4725296 38 14 -0.042162117
6.2354226 2.50283 -0.11728017 45 7 -0.042159811
5.3877983 2.1615143 1.5555025 13 15 -0.042157508
3.6916857 1.4758227 -1.0652993 11 0 -0.042136773
6.248631 2.4967427 0.1174547 60 8 -0.042134468
4.3343663 1.7309922 -1.0775156 9 1 -0.042132165
6.253016 2.4959676 0.35284904 57 9 -0.042129859
5.2841039 2.1092145 -1.105929 9 2 -0.042127557
6.2234015 2.4828842 0.58620954 57 10 -0.042125251
5.3982062 2.1525757 -0.92046052 27 3 -0.042122949
6.2051582 2.473099 0.82018077 74 11 -0.042120643
6.0322399 2.4029584 -0.79726928 30 4 -0.042118341
6.436254 2.5626004 1.0972315 36 12 -0.042116035
6.0511317 2.4092636 -0.56982422 33 5 -0.042113733
7.7853584 3.0981734 1.6287457 25 13 -0.042111427
6.0946031 2.4241042 -0.34374261 44 6 -0.042109124
5.9379063 2.3605785 1.4752289 43 14 -0.042106818
6.2125273 2.4685004 -0.11668679 49 7 -0.042104516
5.7741494 2.2931445 1.6647241 11 15 -0.04210221
3.6950188 1.4622154 -1.0647817 11 0 -0.042081475
6.2387114 2.4675651 0.11710566 67 8 -0.042079173
4.3276968 1.7108357 -1.0743662 9 1 -0.042076867
6.2616911 2.4741237 0.35284904 63 9 -0.042074565
5.2914348 2.0907555 -1.105929 9 2 -0.042072259
6.2505598 2.468468 0.58795261 52 10 -0.042069957
5.4387612 2.1467726 -0.92609209 25 3 -0.042067651
6.2340665 2.4594359 0.82286185 73 11 -0.042065348
6.0332026 2.3789785 -0.79629439 30 4 -0.042063043
6.5425639 2.5785041 1.1138135 25 12 -0.04206074
6.0520911 2.3852029 -0.56912696 31 5 -0.042058434
7.7924733 3.0695376 1.6279825 6 13 -0.042056132
6.0807252 2.3940394 -0.34248653 34 6 -0.042053826
6.0095787 2.3648138 1.4909756 15 14 -0.042051524
6.1950536 2.4365511 -0.11619812 37 7 -0.042049222
5.794703 2.2779264 1.6683476 33 15 -0.042046916
3.7018988 1.4500139 -1.0652993 9 0 -0.042026181
6.2417011 2.4435844 0.11700094 65 8 -0.042023875
4.3245687 1.6921672 -1.0721167 8 1 -0.042021573
6.251688 2.4449778 0.35180232 63 9 -0.042019267
5.2987003 2.072273 -1.105929 9 2 -0.042016964
6.2442942 2.4408298 0.58655816 59 10 -0.042014658
5.4793415 2.1407125 -0.93172377 25 3 -0.042012356
6.2407637 2.4369392 0.82261819 74 11 -0.04201005
6.0229783 2.3506854 -0.79385698 28 4 -0.042007748
6.5717688 2.5635455 1.1172551 35 12 -0.042005442
6.0529561 2.3611648 -0.56842977 33 5 -0.04200314
6.1916618 2.4140303 1.291777 18 13 -0.042000838
6.0797405 2.3691716 -0.34196317 38 6 -0.041998532
6.5298729 2.5432644 1.617848 22 14 -0.041996229
6.2109742 2.4178143 -0.11633775 31 7 -0.041993923
5.8044205 2.2583842 1.6688653 39 15 -0.041991621
3.7123418 1.4391769 -1.0668522 13 0 -0.041970883
6.2483287 2.4210577 0.11696602 60 8 -0.04196858
4.3413515 1.6812868 -1.0748161 9 1 -0.041966274
6.2508726 2.4195342 0.35127899 65 9 -0.041963972
5.2839313 2.045259 -1.1013496 9 2 -0.041961666
6.2490602 2.4175789 0.58620954 61 10 -0.041959364
5.5254698 2.1365373 -0.93829399 25 3 -0.041957058
6.2436781 2.4129915 0.82188696 73 11 -0.041954756
6.0218887 2.3260689 -0.79263824 33 4 -0.041952454
6.5511904 2.5292113 1.1122491 10 12 -0.041950148
6.0537252 2.3371556 -0.56773251 33 5 -0.041947845
7.8301978 3.0214219 1.6314169 24 13 -0.041945539
6.0786567 2.3443398 -0.34143981 34 6 -0.041943237
6.1186752 2.3585505 1.5139207 7 14 -0.041940931
6.1839228 2.3824584 -0.11567455 36 7 -0.041938629
5.8194799 2.2408845 1.6709359 39 15 -0.041936323
3.7047172 1.4213665 -1.0632287 11 0 -0.041915588
6.2436709 2.3942215 0.11672169 65 8 -0.041913282
4.3417354 1.664029 -1.0734664 8 1 -0.04191098
6.2443585 2.3919854 0.35044158 65 9 -0.041908674
5.291038 2.0268033 -1.1013496 6 2 -0.041906372
6.2202468 2.3815043 0.58272326 52 10 -0.041904069
5.5697932 2.131355 -0.94455141 24 3 -0.041901764
6.2279601 2.3819621 0.81871831 74 11 -0.041899461
6.0262632 2.3036182 -0.7921508 27 4 -0.041897155
6.593195 2.5190167 1.1178808 51 12 -0.041894853
6.0432353 2.3088973 -0.56598938 27 5 -0.041892547
7.8462 2.99617 1.6325619 27 13 -0.041890245
6.0718746 2.3174112 -0.34060243 37 6 -0.041887939
5.8883514 2.2461896 1.4549835 3 14 -0.041885637
6.1454897 2.3430467 -0.11480194 40 7 -0.041883331
5.8200455 2.2178068 1.6688653 41 15 -0.041881029
3.7132676 1.409798 -1.0642639 11 0 -0.041860294
6.2295561 2.3638976 0.11630284 72 8 -0.041857988
4.356627 1.6523196 -1.0757159 9 1 -0.041855685
6.2377291 2.364512 0.34960422 74 9 -0.041853379
5.3164382 2.0152819 -1.1051657 9 2 -0.041851077
6.2154808 2.3548346 0.58150309 57 10 -0.041848771
5.608604 2.1237934 -0.94987023 22 3 -0.041846469
6.2510877 2.3658333 0.82066822 74 11 -0.041844163
6.0268412 2.2797575 -0.79117584 33 4 -0.041841861
6.0363483 2.2821529 -0.56459486 35 5 -0.041837253
7.8474259 2.9652994 1.6306537 14 13 -0.041834947
6.0761905 2.2947893 -0.3403931 34 6 -0.041832644
6.1167617 2.3088918 1.5094216 7 14 -0.041830339
6.1592431 2.3236992 -0.11490664 25 7 -0.041828036
5.6307225 2.1231816 1.6124427 24 15 -0.04182573
3.7145498 1.395468 -1.0632287 12 0 -0.041804995
6.2265368 2.3379216 0.11609341 65 8 -0.041802693
4.3550706 1.6343621 -1.0739163 9 1 -0.041800387
6.247406 2.3445139 0.34970888 63 9 -0.041798085
5.3160882 1.9939524 -1.1036394 9 2 -0.041795779
6.2311249 2.3359227 0.58220035 54 10 -0.041793477
5.6474304 2.1159835 -0.95518899 25 3 -0.041791171
6.2388592 2.336339 0.81798708 76 11 -0.041788869
6.0269313 2.2569759 -0.79020089 27 4 -0.041786563
6.6767902 2.4990077 1.1291441 46 12 -0.04178426
6.0386801 2.2589724 -0.56407195 27 5 -0.041781954
7.8779583 2.9454496 1.6348516 12 13 -0.041779652
6.0617132 2.2651772 -0.33913705 36 6 -0.041777346
6.1170816 2.2858677 1.5076219 8 14 -0.041775044
6.1463079 2.2955668 -0.11452269 33 7 -0.041772738
5.8350072 2.1781394 1.6688653 39 15 -0.041770436
3.7155356 1.3817946 -1.0621934 12 0 -0.041749701
6.226757 2.3144753 0.1159538 62 8 -0.041747395
4.3440256 1.6138043 -1.0698671 8 1 -0.041745093
6.2345514 2.3161342 0.3485575 65 9 -0.041742787
5.3263526 1.9776777 -1.1044025 9 2 -0.041740485
6.2350998 2.3138616 0.58185172 54 10 -0.041738179
5.8359203 2.1645663 -0.98585016 54 3 -0.041735876
6.2279601 2.3087356 0.81554973 79 11 -0.04173357
6.0157704 2.2300758 -0.78776348 33 4 -0.041731268
6.3256888 2.3437121 1.0684476 100 12 -0.041728962
6.0330596 2.2340903 -0.56285179 31 5 -0.04172666
6.1735296 2.2848823 1.2795652 41 13 -0.041724354
6.0504584 2.2381353 -0.33809033 34 6 -0.041722052
6.1100063 2.2601626 1.5040227 7 14 -0.04171975
6.1107483 2.2592216 -0.11371988 29 7 -0.041717444
5.8603191 2.1654723 1.6740416 39 15 -0.041715141
3.7200966 1.3694683 -1.0621934 9 0 -0.041694403
6.2268915 2.2910502 0.11581416 62 8 -0.0416921
4.3548408 1.6014066 -1.0712169 9 1 -0.041689795
6.2219782 2.2867768 0.34740612 70 9 -0.041687492
5.3070827 1.9505235 -1.0990598 9 2 -0.041685186
6.2146864 2.282866 0.57923704 65 10 -0.041682884
5.8801537 2.1588163 -0.99210751 50 3 -0.041680578
6.1964455 2.2737112 0.81043118 87 11 -0.041678276
6.0067439 2.2029128 -0.78556985 24 4 -0.04167597
6.7140479 2.4609802 1.1325856 57 12 -0.041673668
6.0464334 2.2150748 -0.5633747 26 5 -0.041671365
6.1681681 2.2596714 1.2768939 13 13 -0.04166906
6.0559721 2.2173705 -0.33798563 31 6 -0.041666757
6.1087089 2.235471 1.5017732 10 14 -0.041664451
6.1016946 2.2316966 -0.11340573 27 7 -0.041662149
5.8424406 2.1357183 1.6667948 39 15 -0.041659843
3.7250915 1.3558234 -1.0621934 12 0 -0.041639108
6.2179384 2.2631462 0.11550003 67 8 -0.041636802
4.3677292 1.5888613 -1.0730165 9 1 -0.0416345
6.2224135 2.2623158 0.34698743 63 9 -0.041632194
5.3252678 1.9350806 -1.1013496 9 2 -0.041629892
6.2230115 2.2600741 0.57923704 62 10 -0.04162759
5.8694577 2.130511 -0.98897886 51 3 -0.041625284
6.2192721 2.2574875 0.81238109 87 11 -0.041622981
6.0050669 2.1785457 -0.78435117 27 4 -0.041620675
6.7430258 2.4449339 1.1360272 62 12 -0.041618373
6.022284 2.1824164 -0.56041139 28 5 -0.041616067
6.1727171 2.2357099 1.2761306 26 13 -0.041613765
6.0509133 2.1903989 -0.33725294 34 6 -0.041611459
6.102201 2.2077639 1.4981741 10 14 -0.041609157
6.1244907 2.2158282 -0.11368498 30 7 -0.041606851
5.3320928 1.9280852 1.5192679 43 15 -0.041604549
3.7207129 1.339541 -1.0596052 11 0 -0.04158381
6.2167845 2.2369542 0.1153255 62 8 -0.041581508
4.3771911 1.5741599 -1.0739163 9 1 -0.041579206
6.2265143 2.239228 0.34677809 63 9 -0.0415769
5.3209038 1.9124997 -1.0990598 9 2 -0.041574597
6.2158628 2.2329473 0.57784253 65 10 -0.041572291
5.8694224 2.107338 -0.98772728 36 3 -0.041569989
6.1976089 2.2239513 0.80848128 91 11 -0.041567683
6.0126338 2.1575747 -0.78435117 22 4 -0.041565381
6.7682528 2.4273846 1.1388431 61 12 -0.041563075
6.0317411 2.1620522 -0.56058574 26 5 -0.041560773
7.9215155 2.8378778 1.6356149 27 13 -0.041558467
6.0641627 2.1712852 -0.33756694 32 6 -0.041556165
6.1204972 2.1914558 1.5008734 8 14 -0.041553859
6.0775881 2.1748955 -0.11267274 29 7 -0.041551556
5.8681216 2.0987816 1.6699005 37 15 -0.04154925
3.7196755 1.3252491 -1.0580523 9 0 -0.041528516
6.2034454 2.2089489 0.11494155 60 8 -0.041526213
4.3695364 1.5550612 -1.070767 11 1 -0.041523907
6.2207346 2.2138786 0.34604537 59 9 -0.041521605
5.3272171 1.8948427 -1.0990598 9 2 -0.041519299
6.2194786 2.2109895 0.57749397 65 10 -0.041516997
5.8894086 2.0924907 -0.9899174 16 3 -0.041514691
6.1787615 2.1940858 0.80506897 87 11 -0.041512389
6.0122733 2.1349657 -0.78337622 27 4 -0.041510083
6.1451783 2.1809528 1.0327804 37 12 -0.041507781
6.0257344 2.1373742 -0.55936551 27 5 -0.041505475
6.1507826 2.1805248 1.2684983 12 13 -0.041503172
6.0449734 2.1418264 -0.33610156 38 6 -0.041500866
6.1130357 2.165942 1.4972742 10 14 -0.041498564
6.0791125 2.1527252 -0.11256802 30 7 -0.041496258
5.8914394 2.0851128 1.6745592 24 15 -0.041493956
3.7331591 1.3161193 -1.0606405 11 0 -0.041473221
6.2050791 2.1863701 0.11483683 57 8 -0.041470915
4.3765063 1.5412107 -1.0712169 9 1 -0.041468613
6.2114673 2.1861873 0.34510332 57 9 -0.041466307
5.340878 1.8797748 -1.1005863 9 2 -0.041464005
6.2042222 2.1824172 0.5754022 65 10 -0.041461699
5.9168143 2.0801573 -0.99335897 20 3 -0.041459396
6.1504188 2.1610823 0.80043793 89 11 -0.041457091
6.0009604 2.1073868 -0.78093886 27 4 -0.041454788
6.2888193 2.2072432 1.0556198 91 12 -0.041452482
6.029397 2.1150126 -0.55901694 27 5 -0.04145018
7.9475737 2.7878773 1.6371413 23 13 -0.041447874
6.0407343 2.1178026 -0.33547351 32 6 -0.041445572
6.0966506 2.1362114 1.4914254 14 14 -0.041443266
6.1130109 2.1407492 -0.11305669 30 7 -0.041440964
5.7090492 1.9981622 1.6207249 20 15 -0.041438662
3.7343092 1.3011574 -1.0596052 11 0 -0.041417923
6.1975646 2.1594374 0.11455759 72 8 -0.041415621
4.3818593 1.5259254 -1.0712169 9 1 -0.041413315
6.1964259 2.1566122 0.34384724 57 9 -0.041411012
5.3273363 1.853088 -1.0963886 4 2 -0.041408706
6.2140608 2.1603184 0.57557648 75 10 -0.041406404
5.9243984 2.0584583 -0.99335897 19 3 -0.041404098
6.1766768 2.1461136 0.80287528 89 11 -0.041401796
5.9970293 2.0825183 -0.7794764 24 4 -0.04139949
6.1863813 2.1470659 1.0371606 41 12 -0.041397188
6.0254488 2.090034 -0.55797106 28 5 -0.041394882
7.9651589 2.7612951 1.6386677 27 13 -0.04139258
6.0484552 2.0956492 -0.33547351 38 6 -0.041390277
6.0989151 2.1119404 1.4900758 10 14 -0.041387971
6.0599794 2.0984576 -0.11193974 33 7 -0.041385669
5.9113302 2.0458248 1.6761122 39 15 -0.041383363
3.7260432 1.2837085 -1.0559818 8 0 -0.041362628
6.2035484 2.1360521 0.11452269 60 8 -0.041360322
4.3837371 1.5085877 -1.0703171 9 1 -0.04135802
6.211843 2.1364863 0.34426597 55 9 -0.041355714
5.3170629 1.8287377 -1.0929539 8 2 -0.041353412
6.200839 2.1314883 0.57365906 62 10 -0.041351106
5.9371519 2.0396926 -0.99429762 22 3 -0.041348804
6.1769905 2.1208832 0.80190039 85 11 -0.041346502
5.9971108 2.0579481 -0.77850145 27 4 -0.041344196
6.201684 2.1269391 1.0384121 45 12 -0.041341893
6.0214005 2.0651088 -0.55692518 31 5 -0.041339587
6.1658506 2.1134503 1.2669718 15 13 -0.041337285
6.0538454 2.0738747 -0.33536884 33 6 -0.041334979
6.1062508 2.0906367 1.4900758 8 14 -0.041332677
6.060061 2.0736439 -0.11180011 24 7 -0.041330371
5.6921272 1.946631 1.611925 67 15 -0.041328069
3.7250159 1.2688246 -1.0544289 12 0 -0.04130733
6.1977148 2.1098781 0.11427836 55 8 -0.041305028
4.3945117 1.4951584 -1.0716668 8 1 -0.041302726
6.2022452 2.1090016 0.34332392 59 9 -0.04130042
5.3382845 1.8152217 -1.096007 8 2 -0.041298117
6.1969213 2.105988 0.57261318 62 10 -0.041295812
5.9367542 2.0164127 -0.99304616 20 3 -0.041293509
6.1787176 2.0973928 0.80116916 87 11 -0.041291203
6.0080166 2.0382783 -0.7789889 22 4 -0.041288901
6.2146826 2.1071823 1.0393507 71 12 -0.041286595
6.0097036 2.0376811 -0.5551821 30 5 -0.041284293
6.1322842 2.0780506 1.2585762 31 13 -0.041281987
6.0572634 2.05145 -0.33515951 36 6 -0.041279685
6.1153564 2.0699351 1.4905257 3 14 -0.041277379
6.0937829 2.0614476 -0.11228879 20 7 -0.041275077
5.4371858 1.838269 1.5379028 43 15 -0.041272771
3.7385759 1.2588973 -1.057017 14 0 -0.041252036
6.1841946 2.0812132 0.11389441 60 8 -0.041249733
4.3923159 1.4773233 -1.0698671 11 1 -0.041247427
6.2019963 2.0847945 0.34290522 59 9 -0.041245125
5.3538923 1.7997053 -1.0979151 13 2 -0.041242819
6.1853485 2.077997 0.5708701 65 10 -0.041240517
5.9381394 1.9937897 -0.99210751 24 3 -0.041238211
6.1427155 2.0612884 0.79556316 85 11 -0.041235909
5.9981556 2.0116146 -0.77679521 26 4 -0.041233603
6.2051439 2.0798244 1.0365349 75 12 -0.041231301
6.0130019 2.0154228 -0.55483341 30 5 -0.041228995
8.0010834 2.6802342 1.6401943 26 13 -0.041226692
6.0416594 2.022686 -0.33390343 36 6 -0.041224387
6.1262407 2.0498106 1.4914254 3 14 -0.041222084
6.0800796 2.0331888 -0.11190483 23 7 -0.041219778
5.951097 1.9889022 1.6812886 46 15 -0.041217476
3.7466137 1.2470589 -1.0580523 10 0 -0.041196741
6.1781397 2.0551934 0.11365007 72 8 -0.041194435
4.3808026 1.4564501 -1.0658182 8 1 -0.041192133
6.1902823 2.0568335 0.34185851 74 9 -0.041189827
5.3582792 1.7803854 -1.0975335 9 2 -0.041187525
6.1850019 2.0538802 0.57017285 65 10 -0.041185219
5.9488115 1.9742949 -0.99273324 25 3 -0.041182917
6.1743684 2.0479567 0.79873174 73 11 -0.041180611
5.9994888 1.9887894 -0.7760641 22 4 -0.041178308
6.1992393 2.0538044 1.0343448 81 12 -0.041176002
6.0408044 2.0013151 -0.55675089 25 5 -0.0411737
8.025301 2.6572232 1.6432471 25 13 -0.041171394
6.05058 2.0022104 -0.33400813 29 6 -0.041169092
6.1204071 2.0241318 1.4882761 3 14 -0.041166786
6.0985322 2.0157168 -0.11211426 22 7 -0.041164484
5.9653411 1.9705391 1.6833591 46 15 -0.041162178
3.7509437 1.233974 -1.0580523 12 0 -0.041151524
6.1852756 2.0336165 0.11365007 62 8 -0.041149221
4.3858595 1.4411503 -1.0658182 9 1 -0.041146915
6.1951709 2.0356722 0.34175381 63 9 -0.041144613
5.3420787 1.7543187 -1.0929539 8 2 -0.041142307
6.194026 2.0329006 0.57034713 57 10 -0.041140005
5.9500356 1.951672 -0.99179459 16 3 -0.041137699
6.1833658 2.0270081 0.79897547 78 11 -0.041135397
6.0063944 1.9678365 -0.7760641 23 4 -0.041133091
6.1928754 2.0289321 1.0321548 78 12 -0.041130789
6.0439658 1.9789779 -0.55640227 26 5 -0.041128483
8.0438576 2.6322443 1.6451553 23 13 -0.04112618
6.0594301 1.9816999 -0.33411276 33 6 -0.041123874
6.1255827 2.002151 1.4878262 1 14 -0.041121572
6.0709696 1.9843009 -0.11148597 27 7 -0.041119266
5.9791889 1.9531443 1.6854297 43 15 -0.041116964
3.7423685 1.216691 -1.0544289 12 0 -0.041096229
6.1900845 2.0124743 0.11361516 60 8 -0.041093923
4.4017348 1.4302101 -1.0685174 9 1 -0.041091621
6.1946402 2.0115685 0.34133515 63 9 -0.041089315
5.3556385 1.7380857 -1.0944804 10 2 -0.041087013
6.1783428 2.0038893 0.56825542 57 10 -0.041084707
5.9733863 1.9374136 -0.99461043 27 3 -0.041082405
6.186276 2.0052724 0.79848802 82 11 -0.041080099
6.0204415 1.950353 -0.77703899 28 4 -0.041077796
6.1924028 2.0048668 1.0309032 76 12 -0.04107549
6.0299864 1.9511199 -0.55448484 35 5 -0.041073188
6.1398063 1.9866544 1.2543784 23 13 -0.041070882
6.0583677 1.9591353 -0.3336941 44 6 -0.04106858
6.1581488 1.9902152 1.4941249 3 14 -0.041066274
6.0740538 1.9618664 -0.11141616 27 7 -0.041063972
5.9804544 1.930482 1.6838769 39 15 -0.041061666
3.7390254 1.20191 -1.0523583 9 0 -0.041040931
6.1799359 1.9853513 0.11330102 62 8 -0.041038629
4.4141221 1.4172205 -1.0703171 8 1 -0.041036323
6.1898675 1.9873501 0.34070709 63 9 -0.04103402
5.3464179 1.7155188 -1.0914276 8 2 -0.041031715
6.1716728 1.9791327 0.56703526 60 10 -0.041029412
5.9669452 1.9123319 -0.99242038 23 3 -0.041027106
6.1913476 1.9830587 0.79824424 80 11 -0.041024804
6.025321 1.9287219 -0.77679521 19 4 -0.041022498
6.1613898 1.9722779 1.0246458 76 12 -0.041020196
6.0307298 1.9292929 -0.55396187 25 5 -0.04101789
8.1363869 2.6013494 1.6604201 3 13 -0.041015588
6.0537539 1.9343295 -0.33306605 31 6 -0.041013282
6.1576328 1.9663373 1.4923253 1 14 -0.04101098
6.099575 1.9477975 -0.11176521 22 7 -0.041008677
5.4935956 1.7532315 1.5451498 43 15 -0.041006371
3.7524045 1.1917741 -1.0549464 11 0 -0.040985636
6.1617098 1.9569763 0.11284725 67 8 -0.04098333
4.3965082 1.3955009 -1.0649183 11 1 -0.040981028
6.1739221 1.9584829 0.33945104 76 9 -0.040978722
5.3448882 1.6944712 -1.0899011 8 2 -0.04097642
6.1443558 1.9467467 0.56389767 75 10 -0.040974114
5.9732533 1.8925356 -0.99242038 33 3 -0.040971812
6.1713953 1.9541256 0.79483193 84 11 -0.040969506
6.0203295 1.9051358 -0.77533287 28 4 -0.040967204
6.213439 1.9650558 1.0321548 95 12 -0.040964901
6.0241294 1.9040252 -0.55274171 31 5 -0.040962595
8.201128 2.5921016 1.6718684 3 13 -0.040960293
6.0487084 1.9106328 -0.33243802 44 6 -0.040957987
6.1399608 1.9382819 1.4864765 8 14 -0.040955685
6.0681968 1.9144593 -0.11106712 29 7 -0.040953379
3.7544928 1.1787462 -1.0544289 13 0 -0.040930338
6.1704111 1.9360559 0.11288217 65 8 -0.040928036
4.4013529 1.3801445 -1.0649183 9 1 -0.04092573
6.1788149 1.9363238 0.33934638 74 9 -0.040923428
5.3654652 1.6814353 -1.0929539 6 2 -0.040921122
6.1583829 1.9287406 0.56459486 65 10 -0.04091882
5.9666271 1.8675414 -0.99023032 24 3 -0.040916517
6.1762843 1.9319803 0.79458821 82 11 -0.040914211
6.0098901 1.8787796 -0.77313918 22 4 -0.040911909
6.222146 1.9439421 1.0324676 100 12 -0.040909603
6.0266061 1.8828508 -0.55239308 31 5 -0.040907301
8.1726456 2.5517578 1.6642361 2 13 -0.040904995
6.043901 1.8859389 -0.33181 36 6 -0.040902693
6.8703766 2.1425166 1.6614884 35 14 -0.040900387
6.0691156 1.891479 -0.1109624 24 7 -0.040898085
6.0553498 1.8860329 1.6994059 1 15 -0.040895779
3.7530487 1.1639177 -1.052876 9 0 -0.040875044
6.1694922 1.9121358 0.11274255 57 8 -0.040872738
4.4042826 1.364197 -1.0644684 8 1 -0.040870436
6.168364 1.9094298 0.33840433 63 9 -0.040868133
5.365675 1.6609557 -1.0918092 12 2 -0.040865827
6.1498518 1.9025199 0.56320041 70 10 -0.040863525
5.9768844 1.847868 -0.99085599 30 3 -0.040861219
6.1754031 1.9080663 0.7936132 78 11 -0.040858917
6.0069289 1.8548598 -0.77192044 26 4 -0.040856611
6.215682 1.9181319 1.0302775 85 12 -0.040854309
6.0331421 1.8618009 -0.55239308 28 5 -0.040852003
8.1064596 2.5000725 1.6489714 48 13 -0.040849701
6.0389957 1.8612989 -0.33118194 33 6 -0.040847395
6.8852639 2.1208143 1.6632881 47 14 -0.040845092
6.0661244 1.8673452 -0.11078788 29 7 -0.040842786
5.7498465 1.7688833 1.611925 3 15 -0.040840484
3.7533944 1.1496772 -1.0518407 10 0 -0.040819749
6.1723037 1.8894222 0.11267274 62 8 -0.040817443
4.4071536 1.3482435 -1.0640185 9 1 -0.040815141
6.1746626 1.8889625 0.33840433 70 9 -0.040812835
5.3545432 1.6370484 -1.0883746 8 2 -0.040810533
6.1373997 1.8752236 0.56145728 70 10 -0.040808227
6.0040798 1.8333404 -0.99429762 28 3 -0.040805925
6.176331 1.8847587 0.79288203 84 11 -0.040803619
6.0114665 1.8333056 -0.77167672 24 4 -0.040801316
6.1520967 1.8761932 1.0187013 81 12 -0.040799011
6.0224514 1.8355037 -0.55082428 41 5 -0.040796708
8.1583347 2.4849153 1.6577487 78 13 -0.040794402
6.0435457 1.8396244 -0.33107728 40 6 -0.0407921
6.9094038 2.1018732 1.6673372 56 14 -0.040789794
6.1258512 1.8635128 -0.11176521 28 7 -0.040787492
5.9867206 1.8200471 1.6766298 48 15 -0.040785186
3.7444408 1.132654 -1.0482172 13 0 -0.040764451
6.1613092 1.8637311 0.11235859 60 8 -0.040762149
4.4190621 1.335878 -1.0658182 9 1 -0.040759843
6.1620998 1.8616197 0.33735761 76 9 -0.040757541
5.3639832 1.6194835 -1.0891378 10 2 -0.040755235
6.1324635 1.8503339 0.56041139 85 10 -0.040752932
6.0611877 1.8288281 -1.002745 15 3 -0.040750626
6.1673427 1.8596804 0.79093212 84 11 -0.040748324
6.0232153 1.8150773 -0.77240795 42 4 -0.040746018
6.1945467 1.8655282 1.0246458 65 12 -0.040743716
5.979218 1.7995394 -0.54629219 61 5 -0.04074141
8.1364498 2.4487922 1.6516427 15 13 -0.040739108
5.7187295 1.7200558 -0.31296906 22 6 -0.040736802
6.9238009 2.0811946 1.6691369 58 14 -0.0407345
6.162962 1.8513215 -0.11232369 59 7 -0.040732197
5.493463 1.6491653 1.5368675 33 15 -0.040729892
3.7592819 1.1235507 -1.0513231 11 0 -0.040709157
6.1524496 1.8376328 0.11207936 77 8 -0.040706851
4.4087596 1.3159841 -1.0622189 9 1 -0.040704548
6.1739807 1.8428903 0.33767161 65 9 -0.040702242
5.3768492 1.603933 -1.0906643 8 2 -0.04069994
6.1462035 1.8322629 0.56110865 60 10 -0.040697634
5.972878 1.7794573 -0.98710161 84 3 -0.040695332
6.1623802 1.8347467 0.78946966 84 11 -0.040693026
6.0349088 1.7967942 -0.77313918 63 4 -0.040690724
6.1760859 1.8376508 1.0205785 63 12 -0.040688418
6.0386257 1.7956034 -0.55117291 58 5 -0.040686116
8.1449471 2.4203813 1.6516427 9 13 -0.040683813
5.6596017 1.6807494 -0.30941018 31 6 -0.040681507
6.9381371 2.0604401 1.6709365 52 14 -0.040679205
6.1403103 1.822341 -0.11180011 42 7 -0.040676899
5.5526123 1.6468706 1.551879 80 15 -0.040674597
3.7592816 1.1099831 -1.0502877 11 0 -0.040653858
6.1450834 1.8132602 0.11183503 55 8 -0.040651556
4.411231 1.3008045 -1.061769 11 1 -0.04064925
6.1589856 1.8161907 0.33652022 70 9 -0.040646948
5.3859053 1.5872024 -1.0914276 8 2 -0.040644642
6.163713 1.8152496 0.56215453 62 10 -0.04064234
5.6243801 1.6553435 -0.92859513 27 3 -0.040640034
6.1531959 1.8098185 0.78751975 84 11 -0.040637732
6.016077 1.7694883 -0.7699706 75 4 -0.040635429
6.1650891 1.8121477 1.0177628 68 12 -0.040633123
5.6813388 1.6688756 -0.51805371 19 5 -0.040630821
8.1698847 2.3983335 1.6550773 3 13 -0.040628515
5.6517282 1.6580378 -0.30867749 28 6 -0.040626213
6.9430609 2.0368738 1.6704865 50 14 -0.040623907
6.0849152 1.7839646 -0.11068317 46 7 -0.040621605
5.4913025 1.6088926 1.5332441 43 15 -0.040619299
3.7685051 1.0991342 -1.0518407 14 0 -0.040598564
6.1491427 1.792311 0.11180011 60 8 -0.040596258
4.4248738 1.288897 -1.0640185 9 1 -0.040593956
6.1480279 1.7896612 0.33557817 59 9 -0.04059165
5.3722887 1.5638472 -1.0876113 10 2 -0.040589347
6.1677861 1.7942419 0.56198025 67 10 -0.040587045
5.6108694 1.6311727 -0.92546642 36 3 -0.040584739
6.1610694 1.789959 0.78776348 82 11 -0.040582437
6.0031538 1.742941 -0.76753318 72 4 -0.040580131
6.1562004 1.7862113 1.0152597 75 12 -0.040577829
5.6677074 1.6444758 -0.51631063 22 5 -0.040575523
8.1759062 2.3706827 1.6546957 7 13 -0.040573221
5.5823808 1.617606 -0.30459529 34 6 -0.040570915
6.9482574 2.0120816 1.6700366 56 14 -0.040568613
5.9566422 1.7238054 -0.10823982 46 7 -0.040566307
5.5005975 1.5907865 1.5342795 60 15 -0.040564004
3.7518983 1.0800933 -1.0461466 9 0 -0.040543269
5.5576982 1.598895 0.10094472 19 8 -0.040540963
4.4293461 1.2734423 -1.0640185 9 1 -0.040538661
6.129283 1.7610182 0.33421743 63 9 -0.040536355
5.3777151 1.5450834 -1.0876113 8 2 -0.040534053
6.1376257 1.7622557 0.55866832 75 10 -0.040531747
5.6013389 1.607217 -0.92296344 36 3 -0.040529445
6.1520147 1.764063 0.78581363 85 11 -0.040527139
5.4882379 1.5726912 -0.70099252 22 4 -0.040524837
6.1396089 1.7581866 1.0115054 78 12 -0.040522531
5.6216969 1.6098732 -0.51160419 24 5 -0.040520228
8.1954565 2.3453677 1.6569853 7 13 -0.040517922
5.582232 1.5964637 -0.30428126 45 6 -0.04051562
6.9589863 1.9888883 1.6709365 53 14 -0.040513314
5.6434379 1.6118373 -0.10244562 21 7 -0.040511012
5.4893985 1.5668026 1.5296206 52 15 -0.040508706
3.7537868 1.0664628 -1.0456289 8 0 -0.040487971
5.5497794 1.5756633 0.10070039 26 8 -0.040485669
4.4281411 1.2563765 -1.0626688 11 1 -0.040483363
6.1334715 1.7390687 0.33411276 65 9 -0.040481061
5.381187 1.5257679 -1.0872297 12 2 -0.040478755
6.1437397 1.740822 0.55866832 65 10 -0.040476453
5.5765052 1.5790424 -0.9179576 37 3 -0.040474147
6.1581349 1.742579 0.78581363 82 11 -0.040471844
5.4898734 1.5524451 -0.70050502 40 4 -0.040469538
6.145709 1.7367429 1.0115054 72 12 -0.040467236
5.6064672 1.5833025 -0.50968677 28 5 -0.04046493
8.2073717 2.3178148 1.6577487 9 13 -0.040462628
5.5781598 1.5742571 -0.30375794 41 6 -0.040460322
6.9790154 1.9682854 1.6740857 50 14 -0.04045802
5.6240082 1.5850774 -0.10199186 36 7 -0.040455714
5.4762387 1.5423954 1.5244442 22 15 -0.040453412
3.7651122 1.0547811 -1.0476996 14 0 -0.040432677
5.5533204 1.5557404 0.10066548 28 8 -0.040430371
4.413733 1.235659 -1.0581697 8 1 -0.040428068
6.1375813 1.7171086 0.33400813 57 9 -0.040425763
5.3999782 1.5097336 -1.0899011 8 2 -0.04042346
6.1462412 1.7172184 0.55831969 65 10 -0.040421154
5.5518131 1.5500946 -0.91295165 36 3 -0.040418852
6.1469727 1.7162663 0.78361994 84 11 -0.040416546
5.4971719 1.5338044 -0.7007488 60 4 -0.040414244
6.1365113 1.7110368 1.0090024 72 12 -0.040411938
5.6004453 1.5605127 -0.50864094 30 5 -0.040409636
8.2233782 2.2898223 1.6592751 10 13 -0.04040733
5.5684991 1.5495168 -0.30292055 41 6 -0.040405028
5.6275811 1.564899 -0.10195696 38 7 -0.040400419
5.4908953 1.5258576 1.5270324 39 15 -0.040398117
3.7706327 1.0421473 -1.0482172 12 0 -0.040377378
5.5589848 1.5353771 0.10066548 28 8 -0.040375076
4.4219899 1.2205094 -1.0590695 11 1 -0.04037277
6.122654 1.6887615 0.33285671 65 9 -0.040370468
5.395752 1.488266 -1.0879929 12 2 -0.040368162
6.1406732 1.6925782 0.55727381 65 10 -0.04036586
5.5495725 1.5286059 -0.91170013 41 3 -0.040363554
6.1321688 1.6879314 0.78093886 82 11 -0.040361252
5.4893589 1.5099591 -0.69904256 72 4 -0.040358946
6.1408377 1.6880088 1.0086895 70 12 -0.040356643
5.5885687 1.5361997 -0.50707209 30 5 -0.040354341
8.2332125 2.2616248 1.6596566 13 13 -0.040352035
5.5719481 1.5295395 -0.30281588 46 6 -0.040349733
7.1094389 1.9502574 1.7019798 1 14 -0.040347427
5.6255636 1.5421489 -0.10181734 41 7 -0.040345125
6.0908136 1.668543 1.6921589 48 15 -0.040342819
3.77052 1.0279617 -1.0471818 9 0 -0.040322084
5.573957 1.5185928 0.10084001 28 8 -0.040319778
4.4243431 1.2045553 -1.0586197 11 1 -0.040317476
6.1169491 1.6642314 0.33222869 65 9 -0.04031517
5.3990202 1.4689053 -1.0876113 10 2 -0.040312868
6.1234727 1.6648618 0.5551821 85 10 -0.040310565
5.5396242 1.5050827 -0.90919721 37 3 -0.040308259
6.1188664 1.6613128 0.77850145 82 11 -0.040305957
5.4965115 1.4913094 -0.69928634 73 4 -0.040303651
6.0914021 1.6515734 0.99961638 67 12 -0.040301349
5.574667 1.5114701 -0.50532901 30 5 -0.040299043
8.2524271 2.2359502 1.6619464 12 13 -0.040296741
5.5695419 1.5079937 -0.30239719 48 6 -0.040294435
5.8972497 1.5956185 1.4104432 18 14 -0.040292133
5.603888 1.5151941 -0.10132867 42 7 -0.040289827
6.1003304 1.648281 1.6931943 48 15 -0.040287524
3.7666228 1.0127881 -1.0451113 11 0 -0.040266786
5.5792246 1.4991254 0.10084001 28 8 -0.040264484
4.4398136 1.1921351 -1.0613191 9 1 -0.040262181
6.1301503 1.6460078 0.33264738 74 9 -0.040259875
5.3927379 1.4469988 -1.0853217 12 2 -0.040257573
6.1330957 1.6445068 0.55553067 65 10 -0.040255267
5.5295801 1.4816452 -0.90669429 37 3 -0.040252965
6.145721 1.645593 0.78118259 84 11 -0.040250659
5.5052619 1.4741023 -0.69977379 76 4 -0.040248357
6.1063862 1.6339186 1.0011806 28 12 -0.040246051
5.5548873 1.4853095 -0.50306296 28 5 -0.040243749
8.2791491 2.2122002 1.6657627 22 13 -0.040241443
5.5844197 1.4911207 -0.30292055 49 6 -0.04023914
5.9232192 1.5815849 1.415392 3 14 -0.040236834
5.6011534 1.4945387 -0.10118905 42 7 -0.040234532
6.1057634 1.6280408 1.6931943 48 15 -0.040232226
3.7662261 0.99930197 -1.0440761 13 0 -0.040211491
5.5764337 1.4785641 0.10070039 30 8 -0.040209189
4.4324393 1.1744119 -1.0586197 12 1 -0.040206883
6.1220603 1.6220909 0.33191466 63 9 -0.040204581
5.3899145 1.4270989 -1.0837952 12 2 -0.040202275
6.123107 1.6200813 0.55413622 65 10 -0.040199973
5.5191846 1.4592618 -0.90419132 38 3 -0.040197667
6.1453853 1.6236838 0.78045136 82 11 -0.040195365
5.513958 1.4568532 -0.70026129 72 4 -0.040193059
6.1098619 1.6131543 1.0008678 16 12 -0.040190756
5.525105 1.4577327 -0.49992532 27 5 -0.04018845
8.2978296 2.1877382 1.6680523 29 13 -0.040186148
5.5893345 1.4725922 -0.30292055 49 6 -0.040183842
7.0911279 1.8682618 1.6929817 1 14 -0.04018154
5.5983434 1.4739212 -0.10104944 41 7 -0.040179234
6.1111274 1.6077884 1.6931943 48 15 -0.040176932
3.7732568 0.9877845 -1.0451113 15 0 -0.040156197
5.5774364 1.4590528 0.10063057 30 8 -0.040153891
4.432539 1.1587198 -1.0577198 9 1 -0.040151589
6.1180224 1.5981883 0.3313913 59 9 -0.040149283
5.4079146 1.4126894 -1.0864664 12 2 -0.04014698
6.1245894 1.598762 0.55378759 60 10 -0.040144674
5.5048795 1.435964 -0.90106261 40 3 -0.040142372
6.127686 1.5972859 0.77752644 78 11 -0.040140066
5.5151682 1.4365947 -0.69977379 72 4 -0.040137764
6.1403074 1.5982841 1.0049351 42 12 -0.040135458
5.5183411 1.43639 -0.49887949 28 5 -0.040133156
8.2879381 2.1557591 1.6646177 29 13 -0.04013085
5.5767894 1.4495285 -0.3019785 51 6 -0.040128548
5.9319615 1.5407373 1.4149421 16 14 -0.040126242
5.6073251 1.4553763 -0.10111924 38 7 -0.04012394
6.1110926 1.5849901 1.6916413 30 15 -0.040121637
3.7729416 0.9736411 -1.0440761 12 0 -0.040100899
5.5902405 1.4415735 0.10077019 33 8 -0.040098596
4.4290075 1.1412983 -1.0559202 9 1 -0.04009629
6.115828 1.5748289 0.33097261 74 9 -0.040093988
5.410912 1.3933127 -1.0860848 12 2 -0.040091682
6.1301332 1.5773718 0.55378759 62 10 -0.04008938
5.4983783 1.4137919 -0.89918542 38 3 -0.040087074
6.1255341 1.5739089 0.77655149 82 11 -0.040084772
5.5182266 1.4168394 -0.69953007 75 4 -0.040082466
6.1114068 1.5680084 0.99930352 81 12 -0.040080164
5.5040216 1.4121711 -0.49713635 27 5 -0.040077858
6.060863 1.5539099 1.2162166 48 13 -0.040075555
5.5779457 1.4290602 -0.30176917 49 6 -0.040073253
6.0467982 1.5480578 1.4410365 5 14 -0.040070947
5.6046224 1.4338101 -0.10097963 38 7 -0.040068645
5.5419884 1.4167563 1.5327265 33 15 -0.040066339
3.7688272 0.95856285 -1.0420054 14 0 -0.040045604
5.597177 1.4225423 0.1008051 38 8 -0.040043298
4.4329648 1.1258301 -1.0559202 12 1 -0.040040996
6.0997224 1.5491327 0.32982123 89 9 -0.04003869
5.4100327 1.3729715 -1.0849401 12 2 -0.040036388
6.1182208 1.5515577 0.55221879 67 10 -0.040034082
5.4879618 1.3907069 -0.8966825 38 3 -0.04003178
6.1136699 1.5481358 0.77435786 80 11 -0.040029477
5.5135164 1.3951349 -0.69831145 70 4 -0.040027171
6.1127429 1.5467627 0.99867773 71 12 -0.040024869
5.5205069 1.3958788 -0.49818221 45 5 -0.040022563
6.0890918 1.5385137 1.220796 16 13 -0.040020261
5.5887098 1.4110488 -0.30208316 54 6 -0.040017955
6.0842881 1.5350438 1.4486848 5 14 -0.040015653
5.5899563 1.4103258 -0.10063057 38 7 -0.040013347
6.1479659 1.5499653 1.6988882 45 15 -0.040011045
3.7684028 0.94446117 -1.0409703 9 0 -0.039990306
5.6038032 1.4044609 0.10084001 52 8 -0.039988004
4.4310031 1.1097021 -1.0545706 8 1 -0.039985701
6.1070304 1.5283175 0.32992589 85 9 -0.039983395
5.4033647 1.3512194 -1.0826503 12 2 -0.039981093
6.1158676 1.5282578 0.55152148 60 10 -0.039978787
5.4810448 1.3696257 -0.89480525 40 3 -0.039976485
6.1322527 1.5312183 0.7760641 82 11 -0.039974179
5.5200381 1.3773254 -0.69855517 78 4 -0.039971877
6.1046891 1.5220691 0.99648768 63 12 -0.039969571
5.5040793 1.3713028 -0.49626479 42 5 -0.039967269
8.3154135 2.071727 1.6657627 14 13 -0.039964963
5.5972338 1.3934743 -0.30229253 54 6 -0.039962661
7.1124301 1.7693723 1.6920818 3 14 -0.039960355
5.5870829 1.3888762 -0.10049096 41 7 -0.039958052
6.1402135 1.5252396 1.6952648 35 15 -0.039955746
3.7733896 0.9324218 -1.0414879 12 0 -0.039935011
5.6009064 1.3829724 0.10070039 73 8 -0.039932709
4.4405251 1.0956318 -1.0559202 9 1 -0.039930403
6.1178813 1.5094939 0.33023992 70 9 -0.039928101
5.3963795 1.3304725 -1.0803605 12 2 -0.039925795
6.1073604 1.5046335 0.55030131 62 10 -0.039923493
5.5088086 1.356155 -0.89855969 52 3 -0.039921187
6.1182847 1.50506 0.77362669 75 11 -0.039918885
5.5209575 1.3570993 -0.69806767 69 4 -0.039916579
6.1097026 1.5018181 0.99648768 57 12 -0.039914276
5.5182714 1.3554181 -0.49713635 60 5 -0.03991197
8.3264074 2.0436218 1.6665258 27 13 -0.039909668
5.6059437 1.3748778 -0.30250186 56 6 -0.039907362
7.1848087 1.7607708 1.7078284 4 14 -0.03990506
5.6033115 1.3731955 -0.10070039 41 7 -0.039902754
6.143362 1.5044084 1.6947472 11 15 -0.039900452
3.780376 0.92015737 -1.0425231 15 0 -0.039879717
5.6015759 1.3634441 0.10063057 90 8 -0.039877411
4.4195185 1.0749122 -1.0500715 12 1 -0.039875109
6.1172919 1.4867127 0.32992589 65 9 -0.039872803
5.4143457 1.3148692 -1.0830319 12 2 -0.039870501
6.1145115 1.4837769 0.55047566 60 10 -0.039868195
5.4691238 1.3271641 -0.89136374 51 3 -0.039865892
6.1135955 1.482425 0.77240795 73 11 -0.039863586
5.537003 1.3415869 -0.69953007 69 4 -0.039861284
6.1110673 1.4795537 0.99586189 56 12 -0.039858978
5.5462065 1.3417703 -0.49922809 56 5 -0.039856676
6.0471067 1.4629509 1.2093475 13 13 -0.03985437
5.5988245 1.3534628 -0.3018738 52 6 -0.039852068
7.0977888 1.7145158 1.6857833 6 14 -0.039849762
5.6275091 1.3583211 -0.10104944 23 7 -0.03984746
6.1711121 1.4883887 1.7009588 11 15 -0.039845154
3.7741709 0.90470666 -1.039935 9 0 -0.039825916
5.610425 1.343837 0.10070039 90 8 -0.039823614
4.4177423 1.0573467 -1.0487218 7 1 -0.039821308
6.1032743 1.4596375 0.32887918 85 9 -0.039819006
5.4017172 1.2918556 -1.0795974 12 2 -0.0398167
6.0944619 1.4564024 0.54820961 75 10 -0.039814398
5.4816375 1.3089436 -0.8926152 29 3 -0.039812092
6.0823011 1.4512523 0.76777691 82 11 -0.03980979
5.5264354 1.317602 -0.69758022 72 4 -0.039807484
6.1087627 1.4553127 0.99461043 60 12 -0.039805181
5.5741153 1.3279417 -0.50131983 57 5 -0.039802875
8.3442917 1.9863522 1.6672891 18 13 -0.039800573
5.5940323 1.3306234 -0.30135047 51 6 -0.039798267
7.1021299 1.6880373 1.6853334 50 14 -0.039795965
5.6869259 1.3506225 -0.10202677 20 7 -0.039793659
6.1878037 1.4684381 1.7040646 26 15 -0.039791357
3.7810669 0.89241338 -1.0409703 8 0 -0.039770622
5.6287055 1.3274591 0.10094472 95 8 -0.039768316
4.4289932 1.0437062 -1.0505214 9 1 -0.039766014
6.1025 1.4369493 0.32856518 76 9 -0.039763708
5.3966384 1.2707407 -1.0776893 10 2 -0.039761405
6.1169629 1.4392281 0.5497784 60 10 -0.039759099
5.5073252 1.2947752 -0.89605671 27 3 -0.039756797
6.112452 1.4359152 0.77094555 80 11 -0.039754491
5.5310006 1.2983043 -0.69758022 70 4 -0.039752189
6.1080356 1.4326284 0.99367183 66 12 -0.039749883
5.6019936 1.3139371 -0.50341159 56 5 -0.039747581
8.3683777 1.9612465 1.6707237 10 13 -0.039745275
5.6064219 1.3129085 -0.30176917 51 6 -0.039742973
7.0965939 1.6605734 1.6826339 48 14 -0.039740667
5.7169194 1.3366829 -0.10248053 21 7 -0.039738365
5.5269489 1.2912456 1.5208209 20 15 -0.039736059
