# .PCD v0.7 - Point Cloud Data file format
VERSION 0.7
FIELDS x y z intensity ring time
SIZE 4 4 4 4 2 4
TYPE F F F F U F
COUNT 1 1 1 1 1 1
WIDTH 950
HEIGHT 1
VIEWPOINT 0 0 0 1 0 0 0
POINTS 950
DATA ascii
2.8766298 -3.4710765 0.55353063 87 11 -0.070296369
1.441178 -1.7396108 -0.27737463 1 4 -0.070294067
2.858825 -3.4520442 0.70989966 86 12 -0.070291765
1.4436294 -1.743189 -0.19801784 1 5 -0.070289463
2.5151744 -3.0381637 0.76667058 33 13 -0.070287153
1.4287206 -1.726413 -0.1174419 1 6 -0.070284851
2.5129178 -3.037595 0.9101519 35 14 -0.070282549
1.4145674 -1.7105258 -0.038744342 1 7 -0.070280246
2.5036283 -3.0285184 1.052876 36 15 -0.070277937
2.1545579 -2.6127584 -0.90741962 5 0 -0.070257202
2.6151555 -3.1724372 0.07176429 13 8 -0.0702549
2.3286238 -2.8258507 -0.84536606 29 1 -0.070252597
2.7873757 -3.3837631 0.22975488 42 9 -0.070250295
1.5191257 -1.8441581 -0.46442911 1 2 -0.070247985
2.8585143 -3.4713566 0.39342102 91 10 -0.070245683
2.8367467 -3.4473739 0.54816836 72 11 -0.070241079
1.4603184 -1.7752922 -0.28224945 1 4 -0.070238769
2.842994 -3.4574249 0.70896107 82 12 -0.070236467
1.4223506 -1.7297505 -0.19592611 1 5 -0.070234165
2.500814 -3.0423748 0.7655257 34 13 -0.070231862
1.4277575 -1.7375619 -0.11786059 1 6 -0.070229553
2.4948776 -3.0373137 0.90745258 35 14 -0.07022725
1.4187398 -1.7278169 -0.039023582 2 7 -0.070224948
2.4832358 -3.0252934 1.0487348 31 15 -0.070222646
2.1588871 -2.6367052 -0.91311359 5 0 -0.070201911
2.5926664 -3.1676197 0.071450152 13 8 -0.070199601
2.305171 -2.8173716 -0.84041709 28 1 -0.070197299
2.8387716 -3.4707718 0.23498847 78 9 -0.070194997
2.2920136 -2.8022883 -0.70370364 7 2 -0.070192695
2.8375511 -3.4705162 0.39220083 84 10 -0.070190385
1.4638653 -1.7910433 -0.36636955 1 3 -0.070188083
2.8159039 -3.4464943 0.54646218 55 11 -0.070185781
1.4415553 -1.765004 -0.27981204 1 4 -0.070183478
2.8159163 -3.448966 0.70520669 78 12 -0.070181169
1.4137838 -1.7316184 -0.19557749 1 5 -0.070178866
2.4889374 -3.0495646 0.76514411 30 13 -0.070176564
1.426734 -1.7487253 -0.11827926 1 6 -0.070174262
2.4707117 -3.0293918 0.90250361 39 14 -0.07017196
1.3950098 -1.7110605 -0.038534917 2 7 -0.07016965
2.4653375 -3.0249577 1.0456289 33 15 -0.070167348
2.1435769 -2.6367302 -0.91052544 5 0 -0.070146613
2.5677211 -3.15958 0.071066193 9 8 -0.070144311
2.2904074 -2.819351 -0.8386175 28 1 -0.070142001
2.8190844 -3.4713578 0.23436043 79 9 -0.070139699
2.8141184 -3.4664786 0.39063203 80 10 -0.070135094
1.4576043 -1.7961423 -0.36636955 1 3 -0.070132785
2.7976029 -3.4485943 0.54524344 52 11 -0.070130482
1.4203815 -1.7515235 -0.27688718 1 4 -0.07012818
2.783957 -3.434222 0.70020074 78 12 -0.070125878
1.402712 -1.7303517 -0.19488023 1 5 -0.070123576
2.4733334 -3.0521331 0.76361769 30 13 -0.070121266
1.4306786 -1.7661103 -0.11911664 1 6 -0.070118964
2.4503112 -3.0258825 0.89890444 36 14 -0.070116661
1.3839958 -1.7097024 -0.038395293 2 7 -0.070114359
2.4499028 -3.0275381 1.0435584 33 15 -0.07011205
2.1319332 -2.6411903 -0.90949017 5 0 -0.070091315
2.3645489 -2.9304173 0.065725766 8 8 -0.070089012
2.2744346 -2.8197448 -0.83636802 29 1 -0.07008671
2.803189 -3.4765124 0.23404641 78 9 -0.0700844
2.7907479 -3.4623191 0.38906324 84 10 -0.070079796
1.4339744 -1.7796848 -0.36198941 1 3 -0.070077494
2.7830582 -3.4552472 0.544756 58 11 -0.070075192
1.4042993 -1.7441013 -0.27493724 1 4 -0.070072882
2.7521353 -3.4192977 0.69519484 78 12 -0.07007058
1.3841711 -1.7197168 -0.19313712 1 5 -0.070068277
2.4528186 -3.0485113 0.76056474 27 13 -0.070065975
1.3944627 -1.7337421 -0.11660452 2 6 -0.070063666
2.4324076 -3.0253046 0.89620501 36 14 -0.070061363
1.3730085 -1.7082884 -0.038255677 4 7 -0.070059061
2.4260101 -3.0195057 1.0378644 35 15 -0.070056759
2.1106193 -2.6335411 -0.9043138 6 0 -0.070036016
2.5255957 -3.1524589 0.07050772 10 8 -0.070033714
2.2597058 -2.8215823 -0.83456844 12 1 -0.070031412
2.7847955 -3.4784806 0.23352307 79 9 -0.07002911
2.764951 -3.4549289 0.38714582 89 10 -0.070024498
1.4228171 -1.7785094 -0.36073789 1 3 -0.070022196
2.7635412 -3.4556384 0.5432936 52 11 -0.070019893
1.4180354 -1.7738011 -0.27883708 1 4 -0.070017591
2.7327836 -3.4196248 0.69331765 77 12 -0.070015281
1.3806473 -1.7276508 -0.19348574 2 5 -0.070012979
2.431134 -3.0432494 0.75713015 27 13 -0.070010677
1.383417 -1.7323562 -0.11618583 3 6 -0.070008375
2.413322 -3.0231159 0.89305568 34 14 -0.070006065
1.3807571 -1.7302639 -0.038639627 7 7 -0.070003763
2.4070225 -3.0173841 1.034241 34 15 -0.070001461
2.1086309 -2.6499629 -0.90741962 5 0 -0.069980726
2.2469358 -2.8247852 0.06300319 8 8 -0.069978423
2.7602084 -3.4725451 0.23247635 76 9 -0.069973812
2.7479162 -3.4583194 0.38644853 89 10 -0.069969207
1.3969426 -1.7587162 -0.35573202 1 3 -0.069966897
2.7156644 -3.4201801 0.53622514 24 11 -0.069964595
1.392089 -1.7538625 -0.27493724 1 4 -0.069962293
2.7159185 -3.4229531 0.69206619 77 12 -0.069959991
1.3993757 -1.763675 -0.19697197 1 5 -0.069957681
2.4095163 -3.0378735 0.75369561 30 13 -0.069955379
1.3848068 -1.7465649 -0.11681387 2 6 -0.069953077
2.4015441 -3.0299945 0.89260578 36 14 -0.069950774
1.367258 -1.7256689 -0.038430199 7 7 -0.069948465
2.3892784 -3.0166814 1.0311351 34 15 -0.069946162
2.0945778 -2.6512437 -0.90534908 6 0 -0.069925427
2.2358224 -2.8310421 0.062968284 9 8 -0.069923125
2.7270358 -3.4555054 0.2306969 74 9 -0.069918513
2.7284236 -3.4585049 0.38540271 89 10 -0.069913909
1.4054736 -1.7821947 -0.35948643 1 3 -0.069911607
2.6852748 -3.406255 0.53256911 13 11 -0.069909297
1.3687568 -1.7368832 -0.27152494 1 4 -0.069906995
2.7015088 -3.4293089 0.6914404 82 12 -0.069904692
1.3808815 -1.752898 -0.19522884 2 5 -0.06990239
2.3940387 -3.0400963 0.75216907 28 13 -0.069900081
1.3712894 -1.7419721 -0.11618583 2 6 -0.069897778
2.3728762 -3.0153873 0.88585728 34 14 -0.069895476
1.3649353 -1.7351462 -0.038534917 5 7 -0.069893174
2.3727627 -3.0174105 1.0285469 32 15 -0.069890872
2.0817335 -2.6539788 -0.90379614 5 0 -0.069870129
2.2185235 -2.8293877 0.062758856 11 8 -0.069867827
2.7069371 -3.4535263 0.22996421 67 9 -0.069863223
2.7089632 -3.4585967 0.38435683 85 10 -0.069858611
1.3943728 -1.7808686 -0.35823497 3 3 -0.069856308
2.6843801 -3.4296758 0.53476268 58 11 -0.069854006
1.3626857 -1.7416505 -0.27152494 1 4 -0.069851696
2.6755154 -3.4195797 0.68768603 77 12 -0.069849394
1.3870291 -1.7734014 -0.19697197 1 5 -0.069847092
2.3822031 -3.0468879 0.75178748 27 13 -0.06984479
1.3799595 -1.7656319 -0.1174419 1 6 -0.069842488
2.3515379 -3.0098312 0.8818081 36 14 -0.069840178
1.3567113 -1.7365111 -0.038465101 6 7 -0.069837876
2.3591762 -3.0206945 1.026994 34 15 -0.069835573
2.0700827 -2.658181 -0.90276086 6 0 -0.069814838
2.2017565 -2.8272626 0.062549427 12 8 -0.069812529
2.6850529 -3.4503446 0.22912684 64 9 -0.069807924
2.6870894 -3.4554491 0.38296232 89 10 -0.069803312
1.3933101 -1.7917202 -0.35948643 1 3 -0.06980101
2.6851749 -3.4542315 0.53720009 90 11 -0.069798708
1.3739552 -1.7681042 -0.27493724 1 4 -0.069796406
2.6502321 -3.4117379 0.68424439 71 12 -0.069794104
1.3710546 -1.7656432 -0.19557749 1 5 -0.069791794
2.3672695 -3.048568 0.75026101 24 13 -0.069789492
1.3679731 -1.7623098 -0.11691854 3 6 -0.069787189
2.3415442 -3.0176127 0.8818081 36 14 -0.069784887
1.3445135 -1.7333361 -0.038290579 6 7 -0.069782577
2.3367801 -3.0136447 1.0218177 34 15 -0.069780275
2.049437 -2.6497498 -0.8975845 2 0 -0.06975954
2.1869814 -2.828603 0.062409807 12 8 -0.069757238
2.6339173 -3.4091201 0.22577733 15 9 -0.069752626
2.6597836 -3.4438417 0.38069627 84 10 -0.069748022
1.4474062 -1.8747525 -0.37512988 1 3 -0.069745719
2.645206 -3.427439 0.5315941 76 11 -0.06974341
1.3750505 -1.7823198 -0.2763997 1 4 -0.069741108
2.6395133 -3.4225326 0.68455732 78 12 -0.069738805
1.3505908 -1.7512476 -0.19348574 1 5 -0.069736503
2.3458257 -3.0428193 0.74682647 23 13 -0.069734193
1.3496214 -1.7512541 -0.11587181 3 6 -0.069731891
2.3214822 -3.013418 0.87820894 36 14 -0.069729589
1.3469955 -1.7491093 -0.038534917 6 7 -0.069727287
2.3121049 -3.0034137 1.015606 34 15 -0.069724977
1.5624871 -2.034802 -0.68742341 1 0 -0.069704242
2.1637011 -2.8187709 0.062025853 6 8 -0.06970194
1.5801754 -2.0593247 -0.59926957 1 1 -0.069699638
2.5053058 -3.2661583 0.21572883 9 9 -0.069697335
2.6368353 -3.4388757 0.3791275 80 10 -0.069692723
1.4408532 -1.8797935 -0.37512988 1 3 -0.069690421
2.6296041 -3.4319248 0.53086293 78 11 -0.069688119
1.3543358 -1.7681975 -0.27347484 1 4 -0.069685809
2.6167426 -3.4176095 0.68174148 74 12 -0.069683507
1.350526 -1.7638609 -0.19435729 2 5 -0.069681205
2.3220642 -3.0338402 0.74262863 27 13 -0.069678903
1.3410729 -1.7527821 -0.11566247 4 6 -0.069676593
2.3050296 -3.0137637 0.87595946 33 14 -0.069674291
1.3360234 -1.7474461 -0.038395293 6 7 -0.069671988
2.2945683 -3.0022566 1.0125002 34 15 -0.069669686
1.5296081 -2.0064445 -0.6760354 1 0 -0.069648951
2.1744535 -2.8533447 0.062619232 11 8 -0.069646642
2.4672685 -3.2399259 0.21342604 1 9 -0.069642037
1.4166193 -1.8602521 -0.45450708 7 2 -0.069639735
2.6151612 -3.4353762 0.37773296 85 10 -0.069637425
1.4342827 -1.8848116 -0.37512988 1 3 -0.069635123
2.5983789 -3.4158041 0.52696311 45 11 -0.069632821
1.3601711 -1.7887157 -0.27591223 1 4 -0.069630519
2.5976245 -3.4172869 0.67986429 79 12 -0.069628209
1.3491836 -1.774909 -0.19505455 2 5 -0.069625907
2.3090844 -3.038801 0.7418654 33 13 -0.069623604
1.3252816 -1.744729 -0.11482509 4 6 -0.069621302
2.2779973 -3.0000627 0.86966079 34 14 -0.069618993
1.3323334 -1.7552844 -0.038465101 6 7 -0.06961669
2.2840748 -3.0102477 1.0125002 34 15 -0.069614388
1.4992782 -1.9809632 -0.66568261 1 0 -0.069593653
2.1849906 -2.8880277 0.063212618 1 8 -0.069591351
1.5657604 -2.0703061 -0.59926957 1 1 -0.069589041
2.4270363 -3.2102818 0.21091393 1 9 -0.069586739
1.5000994 -1.9842068 -0.48351002 1 2 -0.069584437
2.597147 -3.4365363 0.37686142 78 10 -0.069582134
1.4276947 -1.8898067 -0.37512988 1 3 -0.069579825
2.5625134 -3.3931708 0.52208835 30 11 -0.069577523
1.3491348 -1.7871152 -0.27493724 1 4 -0.06957522
2.5678315 -3.4026821 0.6751712 78 12 -0.069572918
1.3453801 -1.7827886 -0.19540317 2 5 -0.069570608
2.2937334 -3.0405731 0.74033892 31 13 -0.069568306
1.340829 -1.7780484 -0.11670919 4 6 -0.069566004
2.2604728 -2.9986594 0.86696136 33 14 -0.069563702
1.3201813 -1.7519397 -0.038290579 6 7 -0.0695614
2.2665787 -3.008944 1.0093943 35 15 -0.06955909
1.4946752 -1.9892737 -0.66671789 2 0 -0.069538355
2.2109244 -2.9436047 0.06425976 1 8 -0.069536053
1.4859802 -1.9791397 -0.57137567 2 1 -0.06953375
2.3666601 -3.1532414 0.20662238 6 9 -0.069531441
1.479022 -1.9705887 -0.47893062 2 2 -0.069529139
2.5731783 -3.4296443 0.37511832 78 10 -0.069526836
1.4210895 -1.8947786 -0.37512988 1 3 -0.069524534
2.5149295 -3.3544462 0.51477611 16 11 -0.069522224
1.3476504 -1.7981677 -0.27591223 1 4 -0.069519922
2.547647 -3.4005582 0.67298114 83 12 -0.06951762
1.3403432 -1.7890687 -0.19557749 2 5 -0.069515318
2.2783988 -3.0422757 0.73881245 33 13 -0.069513015
1.3250384 -1.7699271 -0.11587181 3 6 -0.069510706
2.242986 -2.9971704 0.86426198 34 14 -0.069508404
1.320047 -1.7645432 -0.038465101 6 7 -0.069506101
2.2410214 -2.9967253 1.002665 32 15 -0.069503799
1.4911875 -1.9991244 -0.66827077 4 0 -0.069483057
2.165971 -2.9048142 0.063247517 5 8 -0.069480754
1.4930379 -2.0030642 -0.57677448 1 1 -0.069478452
2.3532524 -3.1582804 0.20641303 31 9 -0.06947615
1.5073251 -2.0229683 -0.49037915 1 2 -0.069473848
2.5516698 -3.4258225 0.3737238 84 10 -0.069471538
1.4144667 -1.8997277 -0.37512988 1 3 -0.069469236
2.4866121 -3.3409111 0.5113638 15 11 -0.069466934
1.3366256 -1.7964904 -0.27493724 1 4 -0.069464631
2.5345826 -3.4078455 0.67266828 78 12 -0.069462322
1.3186327 -1.7729533 -0.19331144 3 5 -0.069460019
2.2560515 -3.0344551 0.73499632 30 13 -0.069457717
1.3355316 -1.7969838 -0.11733723 4 6 -0.069455415
2.2348344 -3.0081103 0.86516178 33 14 -0.069453105
1.3055336 -1.7579025 -0.038220771 7 7 -0.069450803
2.2190318 -2.9890184 0.99748862 32 15 -0.069448501
1.4853497 -2.0058701 -0.66878843 1 0 -0.069427766
2.1903207 -2.9589679 0.06425976 1 8 -0.069425464
1.4674903 -1.9831994 -0.56957608 1 1 -0.069423154
2.3374627 -3.1600523 0.20599434 34 9 -0.069420852
2.532588 -3.4250963 0.37267792 84 10 -0.069416247
1.3913887 -1.8824141 -0.37074974 1 3 -0.069413938
2.4772942 -3.3527637 0.51185131 45 11 -0.069411635
1.3303466 -1.8011451 -0.27493724 1 4 -0.069409333
2.5144584 -3.4055479 0.67047822 83 12 -0.069407031
1.3278209 -1.7983823 -0.19557749 2 5 -0.069404721
2.2314551 -3.0233564 0.73041683 33 13 -0.069402419
1.3173931 -1.7855632 -0.11629051 5 6 -0.069400117
2.2127538 -3.0002096 0.86066276 34 14 -0.069397815
1.3041362 -1.7688873 -0.038360391 8 7 -0.069395505
2.204 -2.9905257 0.99541807 32 15 -0.069393203
1.489781 -2.026608 -0.6739648 1 0 -0.069372468
2.1799786 -2.9665956 0.06425976 1 8 -0.069370165
1.4951693 -2.0354259 -0.58307308 1 1 -0.069367863
2.3181427 -3.1569235 0.20526163 36 9 -0.069365554
2.519438 -3.4323096 0.37250364 89 10 -0.069360949
1.373123 -1.8713335 -0.36762103 1 3 -0.069358647
2.4479647 -3.3373802 0.50819516 13 11 -0.069356337
1.3240513 -1.8057779 -0.27493724 1 4 -0.069354035
2.4978843 -3.4079316 0.66922677 79 12 -0.069351733
1.3227129 -1.8046131 -0.19575179 3 5 -0.069349431
2.2139258 -3.0216255 0.72812718 33 13 -0.069347121
1.3111523 -1.7901508 -0.11629051 4 6 -0.069344819
2.1896043 -2.9906192 0.85571378 36 14 -0.069342516
1.3097639 -1.7895654 -0.038709439 7 7 -0.069340214
2.1878445 -2.9904048 0.99282992 34 15 -0.069337904
1.5533025 -2.1285481 -0.70605838 1 0 -0.069317169
2.1931798 -3.0064976 0.064957857 1 8 -0.069314867
1.9771844 -2.7113965 -0.77473146 12 1 -0.069312565
2.2835789 -3.1327169 0.2031682 13 9 -0.069310263
2.4992282 -3.4298115 0.37128347 92 10 -0.069305651
1.3851914 -1.9016622 -0.37262696 1 3 -0.069303349
2.4292891 -3.3362765 0.50673276 10 11 -0.069301046
1.3060578 -1.7943392 -0.27249986 1 4 -0.069298737
2.4662156 -3.3894761 0.663908 82 12 -0.069296435
1.3152333 -1.8076084 -0.19557749 2 5 -0.069294132
2.2045197 -3.0309224 0.72850877 34 13 -0.06929183
1.3072445 -1.7979475 -0.11649985 5 6 -0.06928952
2.1722775 -2.9887862 0.85301441 34 14 -0.069287218
1.2858783 -1.7698597 -0.038185868 4 7 -0.069284916
2.1739869 -2.9933345 0.99127698 32 15 -0.069282614
1.9776622 -2.730026 -0.90327853 10 0 -0.069261879
2.1463134 -2.9639263 0.063875809 6 8 -0.069259569
1.9791347 -2.7340672 -0.77923048 31 1 -0.069257267
2.2890215 -3.1633217 0.20463361 1 9 -0.069254965
2.4802349 -3.4288287 0.37023759 86 10 -0.069250353
1.4109541 -1.9513067 -0.38138729 1 3 -0.06924805
2.4025109 -3.3238213 0.50356412 12 11 -0.069245748
1.297461 -1.7956692 -0.27201241 1 4 -0.069243446
2.448586 -3.3900571 0.66234362 79 12 -0.069241136
1.3054159 -1.8073428 -0.19505455 2 5 -0.069238834
2.1858819 -3.0274572 0.72583747 33 13 -0.069236532
1.2916094 -1.7895436 -0.11566247 4 6 -0.06923423
2.1549902 -2.9868686 0.85031497 33 14 -0.069231927
1.2843715 -1.7808248 -0.038325485 1 7 -0.069229618
2.1488378 -2.9805334 0.98454767 34 15 -0.069227315
1.9681206 -2.7369127 -0.90327853 12 0 -0.069206581
2.138289 -2.9746478 0.063945621 5 8 -0.069204278
1.9673046 -2.7377942 -0.77833068 38 1 -0.069201969
2.2709749 -3.1615598 0.20400558 1 9 -0.069199666
1.3755795 -1.9150264 -0.45832324 1 2 -0.069197364
2.4543056 -3.4180443 0.36814582 92 10 -0.069195062
1.3810965 -1.9241242 -0.37512988 1 3 -0.069192752
2.3642769 -3.2950916 0.49795815 58 11 -0.06919045
1.3120109 -1.8292227 -0.2763997 1 4 -0.069188148
2.4309821 -3.3905566 0.66077924 82 12 -0.069185846
1.2898115 -1.7989351 -0.19366007 2 5 -0.069183543
2.1638637 -3.0191116 0.72202128 31 13 -0.069181234
1.2853551 -1.7940413 -0.11566247 5 6 -0.069178931
2.1422815 -2.991204 0.84941518 33 14 -0.069176629
2.1339235 -2.9817321 0.98247713 35 15 -0.069172017
1.9540651 -2.7374766 -0.90120792 13 0 -0.069151282
2.1058235 -2.9511659 0.063282423 4 8 -0.06914898
1.9452878 -2.7271929 -0.77338171 37 1 -0.069146678
2.2367344 -3.1369438 0.20191215 1 9 -0.069144376
1.3688862 -1.9198164 -0.45832324 1 2 -0.069142066
2.4296386 -3.4087443 0.36622843 91 10 -0.069139764
1.3743715 -1.9289334 -0.37512988 1 3 -0.069137461
2.351609 -3.3017073 0.49771443 72 11 -0.069135159
1.2987095 -1.8240886 -0.27493724 1 4 -0.06913285
2.4099689 -3.3861465 0.65827632 82 12 -0.069130547
1.2927666 -1.8164122 -0.19505455 2 5 -0.069128245
2.1476212 -3.0186484 0.72011316 27 13 -0.069125943
1.2929754 -1.8180486 -0.11691854 3 6 -0.069123633
2.1318271 -2.9986639 0.84941518 34 14 -0.069121331
2.1190269 -2.9828632 0.98040658 34 15 -0.069116727
1.9478483 -2.7490098 -0.90276086 15 0 -0.069095992
2.1047559 -2.9715533 0.063561663 6 8 -0.069093682
1.9278738 -2.7228336 -0.77023244 34 1 -0.06909138
2.2326937 -3.1545136 0.20254017 1 9 -0.069089077
1.3803236 -1.9502225 -0.46442911 1 2 -0.069086775
2.4062181 -3.4009402 0.36448529 17 10 -0.069084466
1.36763 -1.9337192 -0.37512988 1 3 -0.069082163
2.3331938 -3.3001704 0.496252 90 11 -0.069079861
1.2992085 -1.8383377 -0.2763997 1 4 -0.069077559
2.3958547 -3.3913112 0.65765053 82 12 -0.069075249
1.2944655 -1.8323046 -0.19627473 1 5 -0.069072947
2.1416013 -3.0325408 0.72163963 13 13 -0.069070645
1.2751027 -1.8062344 -0.11587181 3 6 -0.069068342
2.1078637 -2.9869802 0.84401631 19 14 -0.069066033
1.8673564 -2.6471462 -0.056545798 1 7 -0.069063731
2.1063755 -2.9870842 0.97937131 34 15 -0.069061428
1.9337953 -2.7494717 -0.90069032 18 0 -0.069040693
2.207082 -3.1391952 0.066982336 15 8 -0.069038391
1.9082727 -2.7151971 -0.76618326 29 1 -0.069036081
2.207891 -3.1426768 0.20128411 1 9 -0.069033779
1.9490943 -2.7743099 -0.65905434 33 2 -0.069031477
2.2809703 -3.2479017 0.34722847 1 10 -0.069029175
1.3608717 -1.9384813 -0.37512988 1 3 -0.069026865
2.3136775 -3.2969205 0.49454582 85 11 -0.069024563
1.2791035 -1.8233602 -0.27347484 1 4 -0.069022261
2.3681238 -3.3770111 0.65327036 78 12 -0.069019958
1.2960691 -1.8482308 -0.19749491 2 5 -0.069017649
2.1794603 -3.1091256 0.73804927 4 13 -0.069015346
1.276813 -1.8221241 -0.11660452 2 6 -0.069013044
2.08289 -2.9735701 0.83816761 16 14 -0.069010742
1.8386061 -2.6258016 -0.055952415 27 7 -0.06900844
2.0881813 -2.9833398 0.97574782 37 15 -0.06900613
1.9180303 -2.746366 -0.8975845 30 0 -0.068990469
2.2103965 -3.1661727 0.067401193 52 8 -0.068988167
1.8925666 -2.7119219 -0.76348388 27 1 -0.068985865
2.1928866 -3.143429 0.20086543 1 9 -0.068983555
1.9421302 -2.7839782 -0.65981752 43 2 -0.068981253
2.2314391 -3.199883 0.34130189 1 10 -0.06897895
1.3544359 -1.9429835 -0.37512988 1 3 -0.068976648
2.3061366 -3.3094606 0.49527705 84 11 -0.068974338
1.2912037 -1.8536538 -0.27737463 1 4 -0.068972036
2.347882 -3.3718767 0.65076745 77 12 -0.068969734
1.2751323 -1.8312627 -0.19522884 2 5 -0.068967432
2.2050283 -3.1678989 0.75026101 4 13 -0.068965122
1.277608 -1.8361846 -0.11723255 2 6 -0.06896282
2.0774689 -2.9868605 0.83996725 34 14 -0.068960518
1.8253225 -2.6253169 -0.055812798 45 7 -0.068958215
2.070559 -2.9791436 0.9721244 34 15 -0.068955906
1.8996271 -2.7403431 -0.89344335 38 0 -0.068935171
2.1719959 -3.1344218 0.06656348 6 8 -0.068932869
1.886418 -2.7233174 -0.76483357 30 1 -0.068930566
2.1705306 -3.134644 0.1998187 1 9 -0.068928264
1.92793 -2.7842844 -0.65829104 47 2 -0.068925954
2.2157202 -3.2010996 0.34060463 1 10 -0.068923652
1.3476454 -1.9476994 -0.37512988 1 3 -0.06892135
2.2753739 -3.289736 0.49113351 72 11 -0.068919048
1.2892414 -1.864681 -0.27834961 1 4 -0.068916738
2.3327284 -3.3751767 0.64982885 79 12 -0.068914436
1.264201 -1.8291466 -0.19453162 1 5 -0.068912134
2.2486386 -3.2547238 0.7689603 4 13 -0.068909831
1.2711908 -1.8406332 -0.11723255 2 6 -0.068907522
2.0537446 -2.9748497 0.83456844 35 14 -0.068905219
1.8047891 -2.6152143 -0.05546375 43 7 -0.068902917
2.0447893 -2.9640906 0.96487743 37 15 -0.068900615
1.8834796 -2.7374082 -0.89033753 37 0 -0.06887988
2.1508424 -3.127156 0.066249333 4 8 -0.06887757
1.8658597 -2.7138276 -0.76033455 31 1 -0.068875268
2.1403441 -3.1142199 0.19803928 3 9 -0.068872966
1.9170873 -2.7893794 -0.65790945 42 2 -0.068870664
2.2000198 -3.2022457 0.33990738 1 10 -0.068868354
1.3408384 -1.9523919 -0.37512988 1 3 -0.068866052
2.2582591 -3.2894754 0.48991477 73 11 -0.06886375
1.2759851 -1.8593493 -0.27688718 2 4 -0.068861447
2.3186977 -3.3800414 0.64920312 79 12 -0.068859138
1.2690791 -1.8499782 -0.19627473 2 5 -0.068856835
2.2439258 -3.2722676 0.77125001 4 13 -0.068854533
1.2624996 -1.8417645 -0.11702321 1 6 -0.068852231
2.0345354 -2.9691403 0.83096921 39 14 -0.068849929
1.7956493 -2.6214981 -0.05546375 44 7 -0.068847619
2.0300646 -2.9648342 0.96280694 36 15 -0.068845317
1.869555 -2.7375848 -0.88826698 39 0 -0.068824582
2.1275115 -3.1164777 0.065865383 5 8 -0.06882228
1.8420953 -2.6993985 -0.75448585 9 1 -0.06881997
2.1305859 -3.1233218 0.19814396 33 9 -0.068817668
1.9051263 -2.7928104 -0.65714622 42 2 -0.068815365
2.1776037 -3.1934445 0.33816427 10 10 -0.068813063
1.3340154 -1.9570601 -0.37512988 1 3 -0.068810754
2.2009332 -3.2300794 0.47992152 11 11 -0.068808451
1.2683694 -1.8621513 -0.27664346 3 4 -0.068806149
2.302438 -3.3815832 0.6479516 79 12 -0.068803847
1.2581286 -1.8478093 -0.19557749 1 5 -0.068801545
2.238013 -3.2881954 0.77315807 6 13 -0.068799235
2.0175831 -2.9665556 0.82826978 39 14 -0.06879463
1.7842394 -2.6244428 -0.055393942 44 7 -0.068792328
2.0197031 -2.9719024 0.96280694 37 15 -0.068790019
1.8534842 -2.7344992 -0.88516116 37 0 -0.068769284
2.1267154 -3.1387846 0.066179529 5 8 -0.068766981
1.3244995 -1.9555423 -0.54528135 1 1 -0.068764679
2.112952 -3.1208167 0.19751592 36 9 -0.068762369
1.8854598 -2.784812 -0.65371162 45 2 -0.068760067
2.1709104 -3.2076266 0.33886153 52 10 -0.068757765
2.1851966 -3.2311649 0.47894657 15 11 -0.068753161
1.2563028 -1.8583446 -0.27542472 2 4 -0.068750851
2.2839839 -3.3797791 0.64607441 79 12 -0.068748549
1.2628266 -1.8686974 -0.19732061 2 5 -0.068746246
2.2309172 -3.302495 0.77468461 6 13 -0.068743944
2.000674 -2.9638889 0.82557034 38 14 -0.068739332
1.7672378 -2.6190515 -0.055149604 51 7 -0.06873703
2.002835 -2.9693248 0.95970106 37 15 -0.068734728
1.8320661 -2.7233207 -0.87946719 34 0 -0.068713985
2.1135139 -3.1428702 0.066109717 4 8 -0.068711683
1.3002704 -1.9342773 -0.53808296 1 1 -0.068709381
2.0964758 -3.1198847 0.19699256 34 9 -0.068707079
1.8680626 -2.7799702 -0.65104032 41 2 -0.068704776
2.1530342 -3.2052615 0.33781564 48 10 -0.068702467
2.1661606 -3.2272351 0.47724038 35 11 -0.068697862
1.2564445 -1.8726093 -0.27688718 1 4 -0.06869556
2.2622693 -3.3729663 0.64325857 89 12 -0.06869325
1.2429781 -1.853238 -0.19522884 1 5 -0.068690948
2.2182822 -3.3086314 0.7743029 7 13 -0.068688646
2.1415877 -3.1954446 -0.20159812 7 6 -0.068686344
1.9892315 -2.9692357 0.82512045 37 14 -0.068684034
1.7491831 -2.6119123 -0.054870363 51 7 -0.068681732
1.9806365 -2.9586394 0.95400703 37 15 -0.06867943
1.8086035 -2.7088127 -0.87273788 33 0 -0.068658695
2.0880992 -3.1286061 0.065655954 6 8 -0.068656392
2.0800316 -3.1188757 0.1964692 33 9 -0.06865178
1.85399 -2.7799406 -0.64951384 31 2 -0.068649478
2.1429381 -3.2144151 0.33798996 9 10 -0.068647176
2.1636865 -3.2479937 0.47919029 44 11 -0.068642564
1.2476996 -1.873679 -0.2763997 1 4 -0.068640262
2.2428195 -3.3693318 0.64106852 86 12 -0.06863796
1.315991 -1.9769804 -0.20777929 1 5 -0.06863565
2.1969311 -3.3016441 0.77086836 7 13 -0.068633348
2.1160405 -3.1812818 -0.20023739 31 6 -0.068631046
1.9745387 -2.9696701 0.82332087 38 14 -0.068628743
1.740055 -2.6180019 -0.054870363 51 7 -0.068626434
1.9670897 -2.9607077 0.95245409 34 15 -0.068624131
1.7959359 -2.7102783 -0.87118495 30 0 -0.068603396
2.0749571 -3.1325417 0.065586142 1 8 -0.068601094
1.7805574 -2.6891086 -0.74458802 29 1 -0.068598792
2.0614154 -3.1144593 0.1957365 3 9 -0.068596482
1.8334389 -2.7700241 -0.64569765 7 2 -0.06859418
2.1415992 -3.2368302 0.33955875 4 10 -0.068591878
2.1534305 -3.2571824 0.47943404 22 11 -0.068587266
1.2893094 -1.9508917 -0.28712422 1 4 -0.068584964
2.2288671 -3.3738439 0.64044279 86 12 -0.068582661
2.1832294 -3.3060164 0.77010518 9 13 -0.06857805
2.0972207 -3.1769812 -0.19950469 33 6 -0.068575747
1.9630873 -2.9749179 0.82287097 38 14 -0.068573445
1.730906 -2.6240599 -0.054870363 51 7 -0.068571143
1.9535526 -2.9627178 0.95090121 37 15 -0.068568841
1.7769108 -2.7020037 -0.86652619 31 0 -0.068548098
2.0618129 -3.1364238 0.065516338 1 8 -0.068545796
1.7679492 -2.6904218 -0.74323827 31 1 -0.068543494
2.0455921 -3.1129322 0.19521314 1 9 -0.068541192
1.4195569 -2.1610684 -0.50259089 1 2 -0.068538882
2.1565332 -3.2842572 0.34374225 3 10 -0.06853658
2.1355135 -3.2547214 0.47797161 16 11 -0.068531975
2.2089999 -3.3680022 0.63793981 86 12 -0.068527363
2.0777707 -3.169127 -0.33154044 1 5 -0.068525061
2.1716759 -3.3136175 0.77010518 9 13 -0.068522759
2.079551 -3.1742585 -0.19887665 35 6 -0.068520457
1.9441501 -2.9687102 0.81927174 38 14 -0.068518147
1.7178128 -2.6230938 -0.054730747 52 7 -0.068515845
1.9394846 -2.9627142 0.94883066 36 15 -0.068513542
1.7590215 -2.6952479 -0.86238509 31 0 -0.068492807
2.0448432 -3.1331961 0.065306902 1 8 -0.068490498
1.7536937 -2.6881092 -0.74098879 34 1 -0.068488196
2.0303495 -3.1133616 0.19479445 1 9 -0.068485893
2.1711619 -3.3318269 0.34792572 9 10 -0.068481281
2.1452951 -3.2933884 0.48260266 27 11 -0.068476677
2.1896865 -3.3641038 0.63574976 89 12 -0.068472072
2.0666959 -3.1763606 -0.33154044 30 5 -0.068469763
2.1606758 -3.3208008 0.77010518 9 13 -0.068467461
2.0679243 -3.1794627 -0.19877198 36 6 -0.068465158
1.9247348 -2.9604366 0.81522262 35 14 -0.068462856
1.6955695 -2.6089537 -0.05431189 48 7 -0.068460546
1.929131 -2.9694662 0.94883066 36 15 -0.068458244
1.7343172 -2.6767464 -0.85462052 36 0 -0.068437509
2.0317197 -3.1369576 0.065237097 4 8 -0.068435207
1.7453589 -2.6958501 -0.74143869 31 1 -0.068432897
2.0167577 -3.1150477 0.19448043 7 9 -0.068430595
2.17417 -3.3607552 0.35019177 21 10 -0.068425991
2.1186986 -3.2775171 0.47919029 8 11 -0.068421379
2.1656535 -3.3514366 0.63199526 89 12 -0.068416774
2.0518272 -3.1765022 -0.33084321 35 5 -0.068414472
2.1458757 -3.3233745 0.7689603 10 13 -0.068412162
2.0535643 -3.1816275 -0.19845797 35 6 -0.06840986
1.9101632 -2.9605873 0.81342304 17 14 -0.068407558
1.682572 -2.6078408 -0.05417227 50 7 -0.068405256
1.9098498 -2.961236 0.94417191 39 15 -0.068402946
1.7176493 -2.6714096 -0.85099703 33 0 -0.068382211
2.0148172 -3.1335859 0.065027662 1 8 -0.068379909
1.7300878 -2.691787 -0.73873925 36 1 -0.068377607
2.0112698 -3.13047 0.19500379 1 9 -0.068375304
1.3441826 -2.0929759 -0.48351002 1 2 -0.068372995
2.1570437 -3.359941 0.34932023 84 10 -0.068370692
2.0938804 -3.2628064 0.47602168 24 11 -0.068366088
2.1528752 -3.3573132 0.63168246 86 12 -0.068361476
2.0342753 -3.1735806 -0.32979733 37 5 -0.068359174
2.1337838 -3.3288195 0.76857871 9 13 -0.068356872
2.0397696 -3.1833749 -0.19814396 36 6 -0.068354562
1.8835175 -2.9406497 0.80622458 18 14 -0.06835226
1.6713023 -2.6103299 -0.054102462 51 7 -0.068349957
1.8932532 -2.9581215 0.94106609 39 15 -0.068347655
1.7108601 -2.6803477 -0.8520323 40 0 -0.06832692
2.0146227 -3.1574576 0.065376714 2 8 -0.068324611
1.7112499 -2.683023 -0.73469019 39 1 -0.068322308
2.0132148 -3.1576807 0.19625986 1 9 -0.068320006
2.1544564 -3.3805165 0.35071471 95 10 -0.068315394
2.0846107 -3.2734444 0.47650915 4 11 -0.06831079
2.1337192 -3.3531418 0.62949234 89 12 -0.068306178
2.0199771 -3.1756189 -0.32927439 28 5 -0.068303876
2.104238 -3.3080864 0.76209116 9 13 -0.068301573
1.6632103 -2.6157515 -0.16245082 7 6 -0.068299271
1.8816042 -2.9603634 0.80982381 16 14 -0.068296961
1.6600355 -2.6127725 -0.05403265 51 7 -0.068294659
1.8767016 -2.9549279 0.93796021 42 15 -0.068292357
1.6948241 -2.6768072 -0.84892654 37 0 -0.068271622
2.0153558 -3.1830554 0.065760665 2 8 -0.06826932
1.6904099 -2.6708667 -0.72974122 34 1 -0.06826701
2.0117905 -3.1798797 0.19720189 9 9 -0.068264708
1.7513806 -2.7693398 -0.63692045 14 2 -0.068262406
2.135664 -3.3782859 0.34966883 94 10 -0.068260103
1.6673043 -2.6384337 -0.49433297 12 3 -0.068257794
2.0509026 -3.2454607 0.47139066 15 11 -0.068255492
2.1188376 -3.3555586 0.62855375 83 12 -0.068250887
1.6558107 -2.6232858 -0.27140298 37 5 -0.068248577
2.1004803 -3.3290596 0.76514411 10 13 -0.068246275
1.6472191 -2.6116943 -0.1618228 39 6 -0.068243973
1.8551519 -2.942513 0.80307525 27 14 -0.068241671
1.6509051 -2.618551 -0.05403265 51 7 -0.068239368
1.8601955 -2.9516547 0.93485445 40 15 -0.068237059
1.6978024 -2.7023365 -0.85513818 40 0 -0.068216324
2.0089934 -3.1988878 0.065935194 6 8 -0.068214022
1.6661034 -2.6539378 -0.72344255 36 1 -0.068211719
2.0022454 -3.1906154 0.19741124 10 9 -0.06820941
1.6571746 -2.6407387 -0.60600942 29 2 -0.068207107
2.1185648 -3.3772814 0.34879729 97 10 -0.068204805
1.6601831 -2.6475847 -0.4949587 43 3 -0.068202503
2.0326679 -3.2428639 0.46992823 9 11 -0.068200193
2.094991 -3.3448868 0.62511224 82 12 -0.068195589
1.6445283 -2.6256728 -0.27105436 46 5 -0.068193287
2.083638 -3.3280509 0.76323599 12 13 -0.068190984
1.631735 -2.60727 -0.16119476 44 6 -0.068188675
1.8417689 -2.9440143 0.80172557 37 14 -0.068186373
1.6264527 -2.6008477 -0.053543981 51 7 -0.06818407
1.8483405 -2.9568145 0.93433678 43 15 -0.068181768
1.6423692 -2.6344745 -0.83184445 42 0 -0.068161026
2.0009875 -3.2109725 0.066039905 16 8 -0.068158723
1.639313 -2.6316187 -0.71579427 42 1 -0.068156421
1.9963744 -3.2060623 0.1979346 37 9 -0.068154119
1.6375692 -2.6298418 -0.60219324 45 2 -0.068151817
2.0951815 -3.3660498 0.34687987 81 10 -0.068149507
1.648844 -2.6500094 -0.49433297 53 3 -0.068147205
2.0286744 -3.261739 0.47163439 1 11 -0.068144903
2.078089 -3.3437903 0.62354785 83 12 -0.068140291
1.6248363 -2.614475 -0.26931125 46 5 -0.068137988
2.0730443 -3.336972 0.76361769 13 13 -0.068135686
1.6226242 -2.6129498 -0.16119476 36 6 -0.068133384
1.8263422 -2.9421473 0.79947603 37 14 -0.068131074
1.611038 -2.5963147 -0.053334557 49 7 -0.068128772
1.8298615 -2.950115 0.93019569 43 15 -0.06812647
1.6219838 -2.6221189 -0.82615042 40 0 -0.068105735
1.9834569 -3.2077329 0.065830477 37 8 -0.068103433
1.6321663 -2.64064 -0.71669406 54 1 -0.068101123
1.9878322 -3.2160625 0.19814396 19 9 -0.068098821
1.6252837 -2.6305311 -0.60104835 43 2 -0.068096519
2.0739963 -3.3580863 0.34531105 78 10 -0.068094216
1.6229805 -2.628855 -0.48932707 42 3 -0.068091907
2.0089364 -3.2552862 0.46968448 1 11 -0.068089604
2.0607662 -3.3405759 0.62167066 79 12 -0.068085
1.6041965 -2.6014762 -0.2673938 38 5 -0.06808269
2.0521116 -3.3291464 0.7601831 16 13 -0.068080388
1.6124457 -2.6168976 -0.16109009 38 6 -0.068078086
1.815039 -2.9468451 0.79902619 41 14 -0.068075784
1.6003222 -2.598237 -0.053264745 51 7 -0.068073474
1.8109534 -2.9413614 0.92553693 42 15 -0.068071172
1.612821 -2.6277649 -0.82615042 40 0 -0.068050437
1.9633948 -3.1989539 0.065516338 39 8 -0.068048134
1.6050572 -2.6161392 -0.70859581 39 1 -0.068045832
1.9724172 -3.2161715 0.19772527 18 9 -0.068043523
1.6048046 -2.6177771 -0.59685057 39 2 -0.06804122
2.0601795 -3.3619082 0.34496242 84 10 -0.068038918
1.5853539 -2.5870628 -0.48056671 45 3 -0.068036616
1.9981306 -3.26193 0.46968448 1 11 -0.068034306
2.0480616 -3.3460641 0.62135774 82 12 -0.068029702
1.5836681 -2.5883653 -0.26547641 39 5 -0.068027399
2.0369623 -3.3292344 0.75865656 20 13 -0.06802509
1.5912539 -2.6017842 -0.15983403 32 6 -0.068022788
1.8032237 -2.9495225 0.79812634 40 14 -0.068020485
1.5912429 -2.6038077 -0.053264745 50 7 -0.068018183
1.799668 -2.9460163 0.92501926 43 15 -0.068015873
1.5980675 -2.6231999 -0.8230446 40 0 -0.067995138
1.9501362 -3.2023723 0.065446526 34 8 -0.067992836
1.5766629 -2.5900991 -0.70004767 39 1 -0.067990534
1.9466437 -3.1991501 0.19625986 18 9 -0.067988232
1.5818273 -2.5996041 -0.59150791 41 2 -0.067985922
2.0469496 -3.3653169 0.34461379 84 10 -0.06798362
1.576314 -2.5925808 -0.48056671 41 3 -0.067981318
1.9413683 -3.1942453 0.45896 1 11 -0.067979015
2.0302172 -3.3430624 0.61948055 78 12 -0.067974404
1.5725554 -2.5904713 -0.26512775 39 5 -0.067972101
2.0243099 -3.3346465 0.75827497 23 13 -0.067969799
1.5759455 -2.5970778 -0.15920599 31 6 -0.067967489
1.7838211 -2.9408035 0.79407722 37 14 -0.067965187
1.5821443 -2.6093462 -0.053264745 51 7 -0.067962885
1.7843667 -2.9440198 0.92243111 42 15 -0.067960583
1.5944368 -2.6389604 -0.82615042 39 0 -0.067939848
1.9337759 -3.2006021 0.065272003 37 8 -0.067937538
1.5645899 -2.5905826 -0.69869798 42 1 -0.067935236
1.9261748 -3.190537 0.1953178 19 9 -0.067932934
1.5641735 -2.5919371 -0.58845496 39 2 -0.067930631
2.0315137 -3.3676786 0.34409088 81 10 -0.067928322
1.5647608 -2.5949576 -0.47994098 43 3 -0.067926019
1.9097048 -3.1670034 0.4540852 2 11 -0.067923717
1.561754 -2.5909936 -0.37145779 11 4 -0.067921415
2.0144575 -3.3433607 0.61822909 82 12 -0.067919105
1.557336 -2.5857046 -0.2640819 45 5 -0.067916803
2.0110614 -3.3403614 0.75789338 27 13 -0.067914501
1.5674462 -2.6045475 -0.15931067 33 6 -0.067912199
1.7659991 -2.9356325 0.79092795 41 14 -0.067909896
1.5606567 -2.5942905 -0.052845888 49 7 -0.067907587
1.7750747 -2.9518862 0.92294878 45 15 -0.067905284
1.5862085 -2.6461668 -0.82666808 33 0 -0.067884549
1.9199762 -3.2042375 0.065202191 37 8 -0.067882247
1.5600913 -2.6046584 -0.70094746 40 1 -0.067879938
1.9160521 -3.1989546 0.19542249 31 9 -0.067877635
1.5490652 -2.587275 -0.58616525 41 2 -0.067875333
2.0095141 -3.3576534 0.34234774 81 10 -0.067873031
1.5536652 -2.5970135 -0.47931525 42 3 -0.067870721
1.9113292 -3.1961296 0.45725381 9 11 -0.067868419
1.559832 -2.608355 -0.37316394 48 4 -0.067866117
1.9936527 -3.3351123 0.61541325 83 12 -0.067863815
1.5421684 -2.580863 -0.26303601 41 5 -0.067861512
1.9953622 -3.3406191 0.75636691 30 13 -0.067859203
1.5552734 -2.6048586 -0.15899664 32 6 -0.0678569
1.7532573 -2.9364531 0.7895782 37 14 -0.067854598
1.5433927 -2.5859854 -0.052566648 50 7 -0.067852296
1.7518929 -2.936497 0.91621947 42 15 -0.067849986
1.5626086 -2.6265087 -0.81890345 31 0 -0.067829251
1.9062735 -3.2054307 0.065097481 39 8 -0.067826949
1.5444748 -2.5980918 -0.69779819 42 1 -0.067824647
1.9074746 -3.2087245 0.19563182 36 9 -0.067822345
1.5404774 -2.5923975 -0.58616525 41 2 -0.067820035
1.9881939 -3.3471689 0.34060463 81 10 -0.067817733
1.5369765 -2.588563 -0.4768123 43 3 -0.06781543
1.8926147 -3.1887934 0.45530388 12 11 -0.067813128
1.5400292 -2.5947356 -0.37048283 45 4 -0.067810819
1.9825819 -3.3417053 0.61541325 83 12 -0.067808516
1.5275037 -2.5756805 -0.26199016 43 5 -0.067806214
1.9752626 -3.3320184 0.75293231 37 13 -0.067803912
1.5425541 -2.6031291 -0.15857796 30 6 -0.067801602
1.739536 -2.935545 0.78777856 38 14 -0.0677993
1.5348088 -2.5910892 -0.052566648 49 7 -0.067796998
1.7372243 -2.9339786 0.91363126 45 15 -0.067794695
1.5509435 -2.6266859 -0.81735063 34 0 -0.067773961
1.898683 -3.2169006 0.065202191 42 8 -0.067771651
1.5308994 -2.5948071 -0.69554865 46 1 -0.067769349
1.9059576 -3.2305143 0.19657388 39 9 -0.067767046
1.5298774 -2.5941095 -0.58540201 42 2 -0.067764744
1.9760715 -3.3520272 0.34043032 84 10 -0.067762434
1.5243725 -2.5868382 -0.47556084 45 3 -0.067760132
1.8719546 -3.177948 0.45286649 27 11 -0.06775783
1.5324236 -2.6015389 -0.37072656 40 4 -0.067755528
1.9654759 -3.338048 0.61353606 86 12 -0.067753218
1.5189538 -2.5807319 -0.26199016 41 5 -0.067750916
1.9592252 -3.3300893 0.75102425 39 13 -0.067748614
1.524801 -2.5927353 -0.15763591 33 6 -0.067746311
1.7317679 -2.9446568 0.78867841 38 14 -0.067744002
1.5241809 -2.5927172 -0.052496839 51 7 -0.0677417
1.7206341 -2.9280646 0.91000783 42 15 -0.067739397
1.5305042 -2.6118131 -0.81113893 36 0 -0.067718662
1.886994 -3.2214537 0.065167286 45 8 -0.06771636
1.5173632 -2.5914612 -0.69329917 47 1 -0.06771405
1.8901886 -3.228199 0.19605052 46 9 -0.067711748
1.5202749 -2.5974741 -0.58502042 43 2 -0.067709446
1.9629325 -3.3551226 0.34008169 84 10 -0.067707144
1.507808 -2.5782375 -0.4730579 45 3 -0.067704834
1.8573985 -3.1772833 0.45189157 37 11 -0.067702532
1.5137697 -2.5894687 -0.36828917 43 4 -0.06770023
1.9504092 -3.3377254 0.6122846 86 12 -0.067697927
1.5123976 -2.5891957 -0.26233879 39 5 -0.067695618
1.9432217 -3.3280914 0.74911612 45 13 -0.067693315
1.511161 -2.5891528 -0.15711255 32 6 -0.067691013
1.7102057 -2.9301867 0.78327954 36 14 -0.067688711
1.5135596 -2.5943027 -0.052427031 51 7 -0.067686409
1.7118878 -2.9354229 0.91052544 43 15 -0.067684099
1.5156127 -2.609318 -0.80855072 40 0 -0.067676067
1.8936881 -3.261533 0.065830477 23 8 -0.067673765
1.5044669 -2.592212 -0.69194949 46 1 -0.067671463
1.8972595 -3.2703123 0.19814396 19 9 -0.067669153
1.5024089 -2.5897069 -0.58196747 45 2 -0.067666851
1.9470369 -3.3574643 0.33955875 87 10 -0.067664549
1.497897 -2.584008 -0.4730579 48 3 -0.067662247
1.8392133 -3.1740863 0.45042911 37 11 -0.067659937
1.4973931 -2.5852182 -0.36682677 42 4 -0.067657635
1.928087 -3.330142 0.60946876 89 12 -0.067655332
1.4974531 -2.5863624 -0.26146722 31 5 -0.06765303
1.9284616 -3.33213 0.74835294 45 13 -0.06765072
1.5012082 -2.5949364 -0.15711255 30 6 -0.067648418
1.6945271 -2.9302807 0.78147995 36 14 -0.067646116
1.4911243 -2.5795827 -0.052008174 52 7 -0.067643814
1.6962247 -2.9355807 0.9084549 43 15 -0.067641504
1.4949217 -2.5945063 -0.80233908 40 0 -0.067620769
1.9012542 -3.3010473 0.066493668 31 8 -0.067618467
1.4944369 -2.5957589 -0.69149953 47 1 -0.067616165
1.8997792 -3.3011498 0.19960935 33 9 -0.067613862
1.4855258 -2.5813227 -0.57891452 45 2 -0.067611553
1.9283507 -3.3521512 0.33833858 90 10 -0.067609251
1.4868989 -2.5857959 -0.47243217 46 3 -0.067606948
1.8301014 -3.1839292 0.45091662 44 11 -0.067604646
1.4834152 -2.5818233 -0.36560807 46 4 -0.067602336
1.9085804 -3.3231485 0.60696578 89 12 -0.067600034
1.4824622 -2.5812075 -0.26042137 24 5 -0.067597732
1.9119309 -3.330328 0.74644482 48 13 -0.06759543
1.4881647 -2.5932317 -0.15669388 30 6 -0.06759312
1.6823488 -2.9327972 0.78058016 36 14 -0.067590818
1.4781318 -2.5778327 -0.05186855 52 7 -0.067588516
1.6811641 -2.9331033 0.90586674 35 15 -0.067586213
1.4801042 -2.5896451 -0.7992332 44 0 -0.067565478
1.8986475 -3.3232906 0.066807814 49 8 -0.067563169
1.4815011 -2.5941908 -0.68969995 49 1 -0.067560866
1.9060674 -3.3389831 0.20149344 58 9 -0.067558564
1.4745597 -2.5830827 -0.57815129 47 2 -0.067556262
1.909726 -3.3467484 0.33711842 87 10 -0.067553952
1.4719914 -2.5806754 -0.47055492 48 3 -0.06755165
1.8101271 -3.1747777 0.44872296 52 11 -0.067549348
1.4763597 -2.590435 -0.36609554 46 4 -0.067547046
1.8920799 -3.3212082 0.60540146 93 12 -0.067544736
1.4596359 -2.5621297 -0.25798097 22 5 -0.067542434
1.8964082 -3.3301575 0.74491841 53 13 -0.067540132
1.4771273 -2.594939 -0.15648453 31 6 -0.067537829
1.6721015 -2.9386516 0.78058016 36 14 -0.067535527
1.4691244 -2.5829766 -0.05186855 52 7 -0.067533217
1.6575478 -2.915442 0.89861977 37 15 -0.067530915
1.4615283 -2.5779901 -0.79405683 42 0 -0.06751018
1.8890073 -3.3333774 0.066877626 78 8 -0.067507878
1.4647527 -2.5857816 -0.68610072 47 1 -0.067505568
1.9012892 -3.3577821 0.20222615 91 9 -0.067503266
1.4645666 -2.5865057 -0.57776964 48 2 -0.067500964
1.8921434 -3.3429904 0.33607253 93 10 -0.067498662
1.4590832 -2.5789208 -0.46930346 48 3 -0.067496352
1.7980566 -3.1793487 0.44847921 48 11 -0.06749405
1.4643779 -2.5903881 -0.36536431 40 4 -0.067491747
1.8804753 -3.3277926 0.60540146 93 12 -0.067489445
1.4516637 -2.5689442 -0.25815532 21 5 -0.067487143
1.877048 -3.3230817 0.7418654 50 13 -0.067484833
1.4602046 -2.5861659 -0.15564716 30 6 -0.067482531
1.6580021 -2.9376819 0.77878052 37 14 -0.067480229
1.4561689 -2.5811226 -0.051728934 52 7 -0.067477927
1.6492589 -2.9245758 0.89965498 38 15 -0.067475617
1.456308 -2.589812 -0.79612744 41 0 -0.067454882
1.8822592 -3.3486669 0.067052148 82 8 -0.06745258
1.4518996 -2.5840828 -0.68430108 47 1 -0.067450278
1.8901442 -3.3640683 0.20222615 100 9 -0.067447968
1.4536064 -2.5881789 -0.57700646 48 2 -0.067445666
1.8755859 -3.3408885 0.335201 90 10 -0.067443363
1.4471723 -2.5788302 -0.46836486 45 3 -0.067441061
1.7743225 -3.1630991 0.44531062 45 11 -0.067438759
1.446589 -2.579901 -0.36317068 41 4 -0.067436449
1.8655649 -3.3271184 0.60415 83 12 -0.067434147
1.4436616 -2.5757337 -0.25832963 22 5 -0.067431845
1.8615984 -3.3227625 0.74033892 61 13 -0.067429543
1.4453129 -2.5807915 -0.15501912 30 6 -0.067427233
1.64393 -2.9366498 0.77698094 38 14 -0.067424931
1.4456481 -2.5824471 -0.051659122 53 7 -0.067422628
1.6376647 -2.926657 0.89861977 35 15 -0.067420326
1.4453769 -2.5915048 -0.79509211 41 0 -0.067399584
1.8633522 -3.3409188 0.066772908 59 8 -0.067397282
1.4395267 -2.5820751 -0.68250149 47 1 -0.067394979
1.8686674 -3.3531995 0.20117943 100 9 -0.067392677
1.4378755 -2.5812314 -0.5743351 46 2 -0.067390375
1.8677895 -3.354378 0.33589822 96 10 -0.067388065
1.4357291 -2.5784373 -0.46742624 41 3 -0.067385763
1.7628584 -3.1672308 0.44506687 40 11 -0.067383461
1.4322349 -2.5742755 -0.36170825 41 4 -0.067381158
1.8462589 -3.3197992 0.60164702 96 12 -0.067378849
1.4307896 -2.573792 -0.25763237 26 5 -0.067376547
1.8467538 -3.3220539 0.73881245 64 13 -0.067374244
1.4367466 -2.5855701 -0.15501912 30 6 -0.067371942
1.628505 -2.9318638 0.7742815 37 14 -0.067369632
1.4308007 -2.5769882 -0.051449694 54 7 -0.06736733
1.6265017 -2.9306664 0.89810216 34 15 -0.067365028
1.4255502 -2.5760005 -0.78888047 43 0 -0.067344293
1.849743 -3.3439031 0.066703096 60 8 -0.067341991
1.4305047 -2.5870843 -0.68250149 47 1 -0.067339681
1.8521202 -3.3509617 0.20065607 96 9 -0.067337379
1.4226596 -2.5739572 -0.57166374 43 2 -0.067335077
1.8431672 -3.3361382 0.33345786 96 10 -0.067332774
1.4314951 -2.5920794 -0.46899059 45 3 -0.067330465
1.7498733 -3.1698895 0.44457942 43 11 -0.067328162
1.4251586 -2.5827353 -0.36219573 42 4 -0.06732586
1.8251191 -3.3089263 0.59851831 96 12 -0.067323558
1.4160249 -2.5683017 -0.25658652 35 5 -0.067321248
1.8351468 -3.3284798 0.73881245 72 13 -0.067318946
1.4277124 -2.5905697 -0.15501912 31 6 -0.067316644
1.6182609 -2.9375305 0.7742815 36 14 -0.067314342
1.4179381 -2.57496 -0.051310074 54 7 -0.067312032
1.6078777 -2.9210944 0.89344335 38 15 -0.06730973
1.4142407 -2.5778205 -0.78784519 40 0 -0.067288995
1.8284408 -3.3328075 0.066354051 57 8 -0.067286693
1.4205283 -2.590353 -0.6820516 50 1 -0.06728439
1.8346516 -3.3468981 0.20002805 81 9 -0.067282081
1.4103861 -2.5739892 -0.57051897 41 2 -0.067279778
1.8232703 -3.3288918 0.33206338 96 10 -0.067277476
1.4087043 -2.5730507 -0.4646104 46 3 -0.067275174
1.7368909 -3.1724958 0.44409195 43 11 -0.067272864
1.4094636 -2.5755048 -0.36048955 45 4 -0.067270562
1.8069215 -3.3031461 0.59632826 89 12 -0.06726826
1.4003601 -2.5609922 -0.25536633 46 5 -0.067265958
1.8097521 -3.3110657 0.73346978 85 13 -0.067263648
1.416293 -2.5922794 -0.15480977 30 6 -0.067261346
1.6065496 -2.9417315 0.77383161 33 14 -0.067259043
1.4089414 -2.5798938 -0.051310074 54 7 -0.067256741
1.5921173 -2.9165154 0.89033753 37 15 -0.067254439
1.4033875 -2.5793476 -0.78680992 42 0 -0.067233697
1.8104807 -3.3289466 0.066144623 57 8 -0.067231394
1.4035789 -2.5818453 -0.67845237 50 1 -0.067229092
1.8191421 -3.3462627 0.19960935 46 9 -0.06722679
1.3976429 -2.5719965 -0.56899244 42 2 -0.06722448
1.8116391 -3.3352358 0.33206338 96 10 -0.067222178
1.3940587 -2.5675368 -0.46273321 45 3 -0.067219876
1.7205169 -3.1701169 0.44287321 45 11 -0.067217574
1.397624 -2.5751748 -0.35975835 42 4 -0.067215264
1.7963221 -3.3111696 0.59664112 86 12 -0.067212962
1.3914119 -2.5658648 -0.25536633 44 5 -0.067210659
1.7963125 -3.3139105 0.73270655 99 13 -0.067208357
1.4015266 -2.5866714 -0.15418173 30 6 -0.067206055
1.5912154 -2.9367626 0.77113223 33 14 -0.067203745
1.3942133 -2.5742462 -0.051100649 53 7 -0.067201443
1.5773283 -2.9135606 0.88774931 39 15 -0.067199141
1.3893205 -2.5737872 -0.7837041 40 0 -0.067178406
1.7937344 -3.324373 0.065935194 53 8 -0.067176096
1.3857586 -2.5693338 -0.67395335 41 1 -0.067173794
1.7833847 -3.306572 0.19688788 27 9 -0.067171492
1.3909695 -2.5800734 -0.56975567 42 2 -0.067169189
1.7996237 -3.3394713 0.33188906 93 10 -0.06716688
1.3817897 -2.5651889 -0.46148172 45 3 -0.067164578
1.6968195 -3.1513352 0.4394609 41 11 -0.067162275
1.381548 -2.5658128 -0.35780841 42 4 -0.067159973
1.785332 -3.3171084 0.59664112 96 12 -0.067157671
1.3810077 -2.5669556 -0.2550177 43 5 -0.067155361
1.7834533 -3.316391 0.73194337 100 13 -0.067153059
1.385376 -2.5772309 -0.15334436 27 6 -0.067150757
1.5759318 -2.9317243 0.7684328 35 14 -0.067148454
1.3856691 -2.5788555 -0.051100649 52 7 -0.067146145
1.5667442 -2.9170735 0.88723171 38 15 -0.067143843
1.3807777 -2.5783806 -0.7837041 44 0 -0.067123108
1.780813 -3.326777 0.065865383 53 8 -0.067120805
1.3763113 -2.572197 -0.67350346 44 1 -0.067118496
1.7445147 -3.2617028 0.19385241 19 9 -0.067116193
1.3749986 -2.570822 -0.56670272 41 2 -0.067113891
1.78854 -3.3454206 0.33188906 99 10 -0.067111589
1.3751376 -2.5732412 -0.46210748 46 3 -0.067109287
1.6882306 -3.1604469 0.43994835 45 11 -0.067106977
1.3697782 -2.565366 -0.35707721 45 4 -0.067104675
1.7653711 -3.3076358 0.59382528 89 12 -0.067102373
1.3682878 -2.564729 -0.25432047 42 5 -0.06710007
1.7705982 -3.3188226 0.73118013 100 13 -0.067097761
1.3768218 -2.581811 -0.15334436 29 6 -0.067095459
1.5574385 -2.9217305 0.76438367 29 14 -0.067093156
1.369136 -2.5695581 -0.050821409 54 7 -0.067090854
1.5547358 -2.9191144 0.88619649 38 15 -0.067088544
1.3622608 -2.5663602 -0.77852774 42 0 -0.067067809
1.7654395 -3.3259075 0.065725766 55 8 -0.067065507
1.369151 -2.5804284 -0.67440325 44 1 -0.067063205
1.7200171 -3.2430701 0.19238698 19 9 -0.067060903
1.3600495 -2.5654373 -0.56441307 42 2 -0.067058593
1.7650715 -3.3308277 0.32979733 99 10 -0.067056291
1.3647722 -2.5765183 -0.46179458 50 3 -0.067053989
1.6771882 -3.1663206 0.43994835 47 11 -0.067051686
1.3589572 -2.5666234 -0.35658973 45 4 -0.067049377
1.7454985 -3.2980642 0.5910095 86 12 -0.067047074
1.3500099 -2.5518785 -0.25257733 41 5 -0.067044772
1.7538333 -3.3166122 0.72927201 125 13 -0.06704247
1.3673496 -2.5868399 -0.15334436 29 6 -0.06704016
1.5530922 -2.9394801 0.767533 35 14 -0.067037858
1.3545535 -2.5637131 -0.050611977 52 7 -0.067035556
1.5400258 -2.9159827 0.88360828 39 15 -0.067033254
1.3478954 -2.5608428 -0.77542186 42 0 -0.067012519
1.7457885 -3.3181987 0.065446526 57 8 -0.067010209
1.3578701 -2.5819798 -0.67350346 47 1 -0.067007907
1.6993901 -3.2313771 0.19134027 27 9 -0.067005605
1.349259 -2.5666935 -0.56364983 42 2 -0.067003302
1.7469467 -3.3246229 0.32857716 100 10 -0.067000993
1.3456661 -2.5620296 -0.45835301 49 3 -0.06699869
1.6628034 -3.1671736 0.43921715 48 11 -0.066996388
1.3495409 -2.5715868 -0.35658973 45 4 -0.066994086
1.7358111 -3.3076355 0.59163523 131 12 -0.066991776
1.3355407 -2.545989 -0.25153148 44 5 -0.066989474
1.7413336 -3.3209753 0.72889042 114 13 -0.066987172
1.3546032 -2.5845211 -0.15292569 32 6 -0.06698487
1.5392045 -2.9379787 0.76573336 36 14 -0.06698256
1.3455961 -2.5684259 -0.050611977 54 7 -0.066980258
1.5226681 -2.9076493 0.87946719 39 15 -0.066977955
1.3407358 -2.5689573 -0.77645719 45 0 -0.06695722
1.7292243 -3.3133326 0.065237097 64 8 -0.066954918
1.3366817 -2.5622795 -0.6672048 43 1 -0.066952609
1.7001052 -3.2603118 0.19270101 52 9 -0.066950306
1.3375692 -2.5661647 -0.56250495 43 2 -0.066948004
1.732569 -3.3253999 0.32805422 117 10 -0.066945702
1.3335118 -2.5594709 -0.45710155 49 3 -0.066943392
1.6412888 -3.1515427 0.43629229 48 11 -0.06694109
1.3364227 -2.5672443 -0.35537103 43 4 -0.066938788
1.7133129 -3.2926464 0.58788079 90 12 -0.066936485
1.3284841 -2.5541706 -0.25188008 44 5 -0.066934176
1.720346 -3.3075724 0.72469258 100 13 -0.066931874
1.3404973 -2.5783663 -0.15229765 29 6 -0.066929571
1.5267575 -2.9378793 0.76438367 31 14 -0.066927269
1.3329351 -2.566009 -0.05047236 53 7 -0.066924967
1.5125092 -2.9129465 0.87946719 41 15 -0.066922657
1.3268805 -2.5630958 -0.77335137 41 0 -0.066901922
1.7176479 -3.3193486 0.065237097 100 8 -0.06689962
1.320567 -2.5530825 -0.66360557 43 1 -0.066897318
1.7180672 -3.3229997 0.19605052 100 9 -0.066895008
1.3290521 -2.570586 -0.56250495 43 2 -0.066892706
1.7123849 -3.3134267 0.32631108 90 10 -0.066890404
1.3191298 -2.5535793 -0.45522434 45 3 -0.066888101
1.6239023 -3.1449058 0.43458611 41 11 -0.066885792
1.3210802 -2.5595458 -0.35366488 45 4 -0.066883489
1.7027146 -3.3003626 0.58819366 24 12 -0.066881187
1.3186474 -2.5570216 -0.2517058 45 5 -0.066878885
1.324168 -2.5688276 -0.15146028 30 6 -0.066874273
1.5093522 -2.9293325 0.76078445 31 14 -0.066871971
1.325801 -2.5742018 -0.050542168 52 7 -0.066869669
