# .PCD v0.7 - Point Cloud Data file format
VERSION 0.7
FIELDS x y z intensity ring time
SIZE 4 4 4 4 2 4
TYPE F F F F U F
COUNT 1 1 1 1 1 1
WIDTH 973
HEIGHT 1
VIEWPOINT 0 0 0 1 0 0 0
POINTS 973
DATA ascii
6.6273885 3.917866 -0.13438353 32 7 -0.075661272
4.6834841 2.7675989 1.457669 52 15 -0.075658962
3.4785302 2.0498295 -1.0818636 12 0 -0.075641155
6.2561979 3.6851835 0.12673938 25 8 -0.075638853
4.1007624 2.4145706 -1.0986609 8 1 -0.075636551
6.164885 3.6299472 0.37493482 23 9 -0.075634241
5.0183082 2.9536517 -1.131879 6 2 -0.075631939
6.2524347 3.6785586 0.63466811 52 10 -0.075629637
5.9085135 3.474828 -1.0856553 87 3 -0.075627334
6.3249345 3.7182417 0.90085822 66 11 -0.075625025
6.2194724 3.6547835 -0.88574642 56 4 -0.075622723
6.4138408 3.7690012 1.1782646 63 12 -0.07562042
6.4130526 3.7670286 -0.6507048 49 5 -0.075618118
6.3097615 3.7048783 1.4222903 2 13 -0.075615808
6.2922435 3.6931159 -0.38236654 56 6 -0.075613506
6.042531 3.5451303 1.6173981 34 14 -0.075611204
6.5489326 3.8422341 -0.13253358 15 7 -0.075608902
4.707633 2.7608492 1.4623276 39 15 -0.075606592
3.4823289 2.0357234 -1.0808283 12 0 -0.075585857
6.244216 3.6502862 0.12625071 57 8 -0.075583555
4.1188416 2.4068587 -1.1013604 8 1 -0.075581253
15.764571 9.2083883 0.95680606 42 9 -0.07557895
5.0285883 2.936115 -1.131879 6 2 -0.075576641
6.2273793 3.6346176 0.63083327 52 10 -0.075574338
5.9097667 3.4492424 -1.0837781 78 3 -0.075572036
6.306366 3.6792426 0.89647096 75 11 -0.075569734
6.368742 3.7141402 -0.90524554 60 4 -0.075567424
6.4337835 3.7505705 1.1795161 12 12 -0.075565122
6.4691982 3.7696989 -0.65506256 52 5 -0.07556282
6.32371 3.6849208 1.4226719 1 13 -0.075560518
6.2319717 3.6300068 -0.37797031 45 6 -0.075558208
5.4479842 3.1720786 1.4554334 7 14 -0.075555906
6.4931722 3.7791164 -0.13113739 69 7 -0.075553603
5.2916608 3.0785835 1.6403952 39 15 -0.075551301
3.4924023 2.0261042 -1.0818636 12 0 -0.075530566
6.2655683 3.6334846 0.12642524 90 8 -0.075528257
4.1187887 2.3875787 -1.0991108 9 1 -0.075525954
15.86056 9.1903486 0.96067894 39 9 -0.075523652
5.0382967 2.9194245 -1.131879 9 2 -0.07552135
6.2187099 3.6019614 0.6287415 54 10 -0.07551904
5.9115148 3.4226522 -1.081901 87 3 -0.075516738
6.3208899 3.6581998 0.89671469 42 11 -0.075514436
6.5122561 3.7674353 -0.92376971 57 4 -0.075512134
8.4783611 4.9028811 1.5512043 18 12 -0.075509824
6.5144334 3.7671776 -0.65837449 51 5 -0.075507522
6.3161364 3.6510353 1.4180925 1 13 -0.075505219
6.305131 3.6432056 -0.38163382 78 6 -0.075502917
5.4809618 3.1657116 1.461282 22 14 -0.075500615
6.5201778 3.7644281 -0.13141662 55 7 -0.075498305
5.3157592 3.0678196 1.6445363 45 15 -0.075496003
3.5061505 2.0177562 -1.0839342 15 0 -0.075475268
6.2712798 3.6076047 0.12628561 95 8 -0.075472966
4.1186519 2.368329 -1.0968614 8 1 -0.075470656
15.94622 9.1657867 0.96392375 18 9 -0.075468354
5.0654774 2.9116046 -1.1356952 6 2 -0.075466052
6.2968936 3.6179488 0.63536537 19 10 -0.075463749
5.9200006 3.4000268 -1.0812751 81 3 -0.07546144
6.3060746 3.620301 0.89281487 43 11 -0.075459138
6.5529165 3.7604876 -0.92766953 56 4 -0.075456835
6.3484364 3.6416707 1.1591796 36 12 -0.075454533
6.5344572 3.7483785 -0.65907168 52 5 -0.075452231
6.3441701 3.6377561 1.421527 2 13 -0.075449921
6.4616337 3.7036076 -0.39032158 37 6 -0.075447619
5.9383721 3.4023135 1.5800562 58 14 -0.075445317
6.2851343 3.5995338 -0.12642524 52 7 -0.075443015
5.3264365 3.0492442 1.6445363 30 15 -0.075440705
3.5098176 2.0035887 -1.0828989 12 0 -0.07541997
6.2456231 3.5638895 0.12551771 95 8 -0.075417668
4.123508 2.3520074 -1.0959616 9 1 -0.075415365
16.075283 9.1654625 0.96978533 27 9 -0.075413056
5.0585556 2.8841794 -1.131879 6 2 -0.075410753
6.3337173 3.6097596 0.6378057 30 10 -0.075408451
5.9318318 3.3793428 -1.0812751 77 3 -0.075406149
6.2997003 3.5874593 0.89013374 50 11 -0.075403847
6.2658224 3.5667193 -0.88525897 44 4 -0.075401537
8.5089483 4.8416171 1.5505786 18 12 -0.075399235
6.6167684 3.764961 -0.66604418 51 5 -0.075396933
6.3448844 3.6087928 1.4188558 1 13 -0.07539463
6.271379 3.565536 -0.378075 48 6 -0.075392321
5.4690442 3.1081131 1.452284 22 14 -0.075390019
6.2924457 3.5746078 -0.12632053 18 7 -0.075387716
5.3723254 3.0506668 1.6554067 15 15 -0.075385414
3.5117462 1.98847 -1.0813459 11 0 -0.075364672
6.2928314 3.561765 0.1262158 100 8 -0.075362369
4.1401739 2.3423963 -1.0982111 8 1 -0.075360067
16.17498 9.1476421 0.9738676 33 9 -0.075357765
5.0600476 2.8616731 -1.1299709 6 2 -0.075355463
6.292511 3.5572345 0.63240206 59 10 -0.075353153
5.9573517 3.3663893 -1.0837781 42 3 -0.075350851
6.2931709 3.5547097 0.88745266 47 11 -0.075348549
6.6446943 3.7517388 -0.93693155 50 4 -0.075346246
8.5361204 4.817709 1.5524559 16 12 -0.075343937
6.8537011 3.8681672 -0.68853039 36 5 -0.075341634
6.4121609 3.6174905 1.4310676 1 13 -0.075339332
6.6404238 3.7447438 -0.39953274 45 6 -0.07533703
5.467978 3.0823038 1.4491347 39 14 -0.07533472
6.3223076 3.5624363 -0.12666957 23 7 -0.075332418
5.387991 3.0347404 1.6569597 18 15 -0.075330116
3.5102448 1.9714687 -1.0787579 13 0 -0.075309381
6.2790718 3.5250914 0.12569223 72 8 -0.075307079
4.1381269 2.322211 -1.0955117 6 1 -0.075304769
16.288683 9.1370449 0.97878718 12 9 -0.075302467
5.0819921 2.8507149 -1.1326423 9 2 -0.075300165
6.365715 3.5693514 0.63850296 47 10 -0.075297862
6.2812958 3.519135 0.8840403 56 11 -0.07529325
8.551158 4.7869244 1.552143 24 12 -0.075288646
6.1613193 3.4490964 -0.61775988 9 5 -0.075286336
7.1306148 3.9900677 1.5882941 22 13 -0.075284034
6.2891455 3.5177667 -0.37765631 21 6 -0.075281732
5.4599915 3.0527406 1.4441857 46 14 -0.07527943
6.271863 3.5052264 -0.125413 38 7 -0.07527712
4.7475548 2.6522319 1.4571513 35 15 -0.075274818
3.5204811 1.9610831 -1.0797932 12 0 -0.075254083
6.139339 3.4185174 0.12265551 17 8 -0.07525178
4.1376944 2.3030121 -1.0932621 9 1 -0.075249478
6.2081003 3.453963 0.37231803 2 9 -0.075247169
5.0936284 2.8339109 -1.1330239 4 2 -0.075244866
6.392065 3.5548575 0.63989747 51 10 -0.075242564
5.4972777 3.0559781 -0.99617481 5 3 -0.075240262
10.638465 5.9115663 1.4943621 21 11 -0.075237952
5.5219159 3.0671523 -0.77557659 2 4 -0.07523565
6.4142056 3.5613103 1.1619954 50 12 -0.075233348
7.1731772 3.9827085 -0.71781468 49 5 -0.075231045
7.1427836 3.9641981 1.5879126 26 13 -0.075228736
6.1931028 3.4357219 -0.37116665 11 6 -0.075226434
5.479136 3.0383871 1.4464353 41 14 -0.075224131
6.3382788 3.5133638 -0.12649503 20 7 -0.075221829
4.7703023 2.6431351 1.4612924 11 15 -0.075219527
3.5323761 1.9515872 -1.0813459 10 0 -0.075198784
6.1442337 3.3931978 0.12251589 15 8 -0.075196482
4.1474152 2.2894957 -1.0937121 8 1 -0.07519418
6.692265 3.6928089 0.40057945 2 9 -0.075191878
5.1034875 2.8161173 -1.1330239 4 2 -0.075189568
6.4393277 3.5517671 0.64338368 54 10 -0.075187266
5.4750447 3.0186474 -0.99023032 4 3 -0.075184964
10.667724 5.8791928 1.4955807 17 11 -0.075182661
5.4873834 3.0229533 -0.76923937 2 4 -0.075180352
6.4629359 3.5589068 1.1685656 75 12 -0.07517805
7.1678395 3.9470718 -0.71589726 43 5 -0.075175747
7.1634545 3.9430325 1.5894389 25 13 -0.075173445
6.2015586 3.4121554 -0.37095729 10 6 -0.075171143
5.4760489 3.0117285 1.4428362 9 14 -0.075168833
6.4924417 3.5692544 -0.12932234 79 7 -0.075166531
4.7473316 2.608789 1.4514573 43 15 -0.075164229
3.5408616 1.9401726 -1.0818636 15 0 -0.075143494
6.1858535 3.3880641 0.12310927 40 8 -0.075141184
4.1434159 2.2684546 -1.0905627 9 1 -0.075138882
6.6963558 3.6646302 0.40005609 17 9 -0.07513658
5.1063981 2.7945142 -1.1314974 4 2 -0.075134277
6.6614413 3.6440084 0.66430104 83 10 -0.075131968
5.4508843 2.9805646 -0.98397291 6 3 -0.075129665
6.2481275 3.4150839 0.87429076 16 11 -0.075127363
5.4700298 2.9885504 -0.76533955 5 4 -0.075125061
6.4701176 3.5334861 1.167627 71 12 -0.075122759
7.1640863 3.9124792 -0.71415412 45 5 -0.075120449
7.1875148 3.9236457 1.5917287 25 13 -0.075118147
6.2099261 3.388572 -0.37074795 6 6 -0.075115845
6.2255926 3.395715 1.6371938 11 14 -0.075113542
6.4802828 3.5331666 -0.12883367 59 7 -0.075111233
4.7614989 2.594974 1.4530102 52 15 -0.07510893
3.5374279 1.9222672 -1.0787579 13 0 -0.075088196
16.512405 8.969243 0.32800052 3 8 -0.075085893
4.1718607 2.2651348 -1.0959616 9 1 -0.075083584
6.6880417 3.629802 0.39880002 4 9 -0.075081281
5.10922 2.772928 -1.1299709 6 2 -0.075078979
6.6601081 3.6131372 0.66290659 78 10 -0.075076677
5.4543099 2.957751 -0.98272139 48 3 -0.075074375
6.2669902 3.3970385 0.87526566 14 11 -0.075072065
5.4682088 2.9628224 -0.76363337 2 4 -0.075069763
6.4546213 3.495826 1.162621 81 12 -0.075067461
6.1808462 3.3475492 -0.61497092 13 5 -0.075065158
7.2149806 3.9060087 1.5947818 25 13 -0.075062849
6.2094183 3.3602252 -0.37001523 7 6 -0.075060546
6.2476931 3.379524 1.6398932 4 14 -0.075058244
6.4697099 3.4981589 -0.12837991 60 7 -0.075055942
4.7654276 2.5755851 1.4514573 15 15 -0.075053632
3.5390151 1.9071573 -1.0772049 10 0 -0.075032897
6.1512609 3.3134983 0.12195742 22 8 -0.075030595
4.1745925 2.2477896 -1.0946118 8 1 -0.075028293
6.162508 3.316782 0.36677042 6 9 -0.075025991
5.1084957 2.7494924 -1.1276813 6 2 -0.075023681
6.6270614 3.5653224 0.65837449 69 10 -0.075021379
5.4454632 2.9284039 -0.97927988 24 3 -0.075019076
6.2735653 3.3723204 0.87453443 63 11 -0.075016774
5.4575343 2.93244 -0.76070851 4 4 -0.075014465
6.4180574 3.4471045 1.1538608 71 12 -0.075012162
7.1473446 3.8388007 -0.70979631 34 5 -0.07500986
7.2251105 3.8789439 1.5940183 25 13 -0.075007558
6.1876736 3.3205843 -0.36802649 23 6 -0.075005248
6.1993465 3.3254552 1.6241466 29 14 -0.075002946
6.3338437 3.3961787 -0.1254479 67 7 -0.075000644
5.4197154 2.9048097 1.6476421 46 15 -0.074998342
3.5490587 1.8966123 -1.0782403 14 0 -0.074977607
6.1927733 3.3080244 0.1225508 82 8 -0.074975297
4.1669431 2.224942 -1.0905627 9 1 -0.074972995
6.4976497 3.4694242 0.38603005 14 9 -0.074970692
5.1371145 2.7418106 -1.131879 9 2 -0.07496839
6.2298822 3.3236558 0.61775988 76 10 -0.07496608
5.4713387 2.9177444 -0.98209572 19 3 -0.074963778
6.2765408 3.3457305 0.87331581 68 11 -0.074961476
5.5027752 2.9320426 -0.76558328 6 4 -0.074959174
6.4259658 3.4239459 1.153235 75 12 -0.074956864
7.1589413 3.8128934 -0.70962203 46 5 -0.074954562
7.2351418 3.8518529 1.5932552 25 13 -0.07495226
6.1992264 3.2989662 -0.36802649 14 6 -0.074949957
6.2212396 3.3092875 1.6268461 39 14 -0.074947648
6.4739494 3.4437127 -0.12799595 67 7 -0.074945346
5.431025 2.8877268 1.6481597 41 15 -0.074943043
3.5590711 1.8860221 -1.0792755 14 0 -0.074922308
4.1674104 2.2074618 -1.0887631 9 1 -0.074917696
6.1796465 3.2719545 0.36645639 100 9 -0.074915394
5.1466537 2.7238629 -1.131879 6 2 -0.074913092
6.2449694 3.303751 0.61810851 71 10 -0.07491079
5.484477 2.9014306 -0.98272139 22 3 -0.07490848
6.3806071 3.3740819 0.88623393 87 11 -0.074906178
5.5142236 2.9147048 -0.76582706 6 4 -0.074903876
6.409934 3.3867273 1.1482291 66 12 -0.074901573
7.1545911 3.7785745 -0.70787895 49 5 -0.074899264
7.2582898 3.8333411 1.5955449 25 13 -0.074896961
6.1854053 3.2653351 -0.36656106 23 6 -0.074894659
5.5410557 2.9239404 1.4464353 16 14 -0.074892357
6.4788566 3.4173598 -0.12785633 67 7 -0.074890055
4.798533 2.5299802 1.4535278 11 15 -0.074887745
3.5738552 1.8787045 -1.0818636 12 0 -0.07486701
16.855776 8.8569918 0.33236364 34 8 -0.074864708
4.1716399 2.1910899 -1.0878633 9 1 -0.074862406
6.1645036 3.2364388 0.36488631 97 9 -0.074860096
5.1382751 2.6976564 -1.1280628 6 2 -0.074857794
6.2929382 3.3024676 0.62176907 73 10 -0.074855492
5.5103159 2.8905258 -0.98553723 24 3 -0.074853189
6.2903767 3.2983236 0.87209707 84 11 -0.07485088
5.5208473 2.8935969 -0.76533955 8 4 -0.074848577
6.4164686 3.3615799 1.1472905 62 12 -0.074846275
7.1511993 3.7465045 -0.70631009 33 5 -0.074843973
7.275104 3.8098047 1.5963081 25 13 -0.074841671
6.1967654 3.2437253 -0.36656106 23 6 -0.074839361
5.5702229 2.9145172 1.4513842 20 14 -0.074837059
6.4623933 3.3798966 -0.12729785 68 7 -0.074834757
5.4630356 2.8560083 1.6517832 41 15 -0.074832454
3.5649741 1.8581808 -1.0772049 12 0 -0.074811712
6.1715322 3.2154381 0.12146875 22 8 -0.07480941
4.1827197 2.178314 -1.0887631 11 1 -0.074807107
6.1828513 3.2185884 0.36530501 38 9 -0.074804805
5.1302471 2.6706371 -1.1242466 6 2 -0.074802503
6.2849855 3.2703657 0.61985165 76 10 -0.074800193
5.5273814 2.8749206 -0.98678869 20 3 -0.074797891
6.3828721 3.3184659 0.88330907 74 11 -0.074795589
5.5361977 2.8770552 -0.76607072 9 4 -0.074793287
6.4176455 3.3336999 1.1454133 60 12 -0.074790977
7.1271033 3.702234 -0.70264959 46 5 -0.074788675
7.2988138 3.789813 1.5985978 25 13 -0.074786372
6.1956415 3.2156329 -0.36582837 35 6 -0.07478407
5.5492253 2.8789036 1.4432859 30 14 -0.074781761
6.3534398 3.2947178 -0.12492433 59 7 -0.074779458
5.4661117 2.8333638 1.6497126 45 15 -0.074777156
3.5628572 1.8412915 -1.0746168 13 0 -0.074756421
17.078875 8.8226194 0.33554 31 8 -0.074754119
4.1989555 2.1681716 -1.0910126 8 1 -0.074751809
6.1940479 3.1969879 0.36530501 10 9 -0.074749507
5.1639614 2.6653204 -1.1295893 6 2 -0.074747205
6.2503276 3.2246547 0.61531955 90 10 -0.074744903
5.5461612 2.8601372 -0.98835307 21 3 -0.074742593
6.5055776 3.3534679 0.89866465 25 11 -0.074740291
5.5638537 2.8668034 -0.76850814 9 4 -0.074737988
6.3835821 3.2877626 1.1372787 62 12 -0.074735686
7.1222696 3.6682119 -0.70090652 47 5 -0.074733377
7.3137431 3.7652128 1.5989794 23 13 -0.074731074
6.2121558 3.1967294 -0.36614239 34 6 -0.074728772
5.5471106 2.8532743 1.4401367 48 14 -0.07472647
6.4538212 3.3182399 -0.12666957 65 7 -0.07472416
5.4776864 2.8151505 1.6502303 39 15 -0.074721858
3.5761406 1.8323665 -1.0766873 12 0 -0.074701123
17.219919 8.8194609 0.33770406 31 8 -0.074698821
4.1960897 2.1481738 -1.0883132 11 1 -0.074696518
6.1749439 3.1598778 0.36352557 46 9 -0.074694209
5.1749821 2.6481717 -1.1299709 4 2 -0.074691907
6.2987962 3.2218692 0.61898005 100 10 -0.074689604
5.5613866 2.8434591 -0.98929167 19 3 -0.074687302
6.2467976 3.1925211 0.86137259 29 11 -0.074684992
5.584435 2.8527815 -0.7699706 11 4 -0.07468269
6.3791852 3.2573762 1.1344628 71 12 -0.074680388
7.1243834 3.6378934 -0.69986063 43 5 -0.074678086
6.2019281 3.1641316 -0.36488631 11 6 -0.074673474
5.5587711 2.8347833 1.4405866 20 14 -0.074671172
6.4582396 3.2920573 -0.12652995 64 7 -0.074668869
5.466825 2.7854865 1.6440187 22 15 -0.07466656
3.585959 1.8216227 -1.0777225 9 0 -0.074645825
17.339746 8.8045702 0.33944932 25 8 -0.074643523
4.1931367 2.1282206 -1.0856137 8 1 -0.07464122
6.184155 3.1374018 0.3634209 87 9 -0.074638918
5.1754398 2.6256511 -1.1280628 6 2 -0.074636608
6.3082266 3.1989629 0.61880577 100 10 -0.074634306
5.5836129 2.8302794 -0.99148178 22 3 -0.074632004
10.938052 5.5419865 1.5055741 29 11 -0.074629702
5.594358 2.833272 -0.7699706 11 4 -0.074627392
6.378181 3.2288418 1.1322728 47 12 -0.07462509
7.1228185 3.6058013 -0.69846606 43 5 -0.074622788
7.3381014 3.7131715 1.5985978 17 13 -0.074620485
6.2984829 3.1857347 -0.36991057 1 6 -0.074618176
5.5512419 2.8065681 1.4360875 5 14 -0.074615873
6.4661231 3.2676883 -0.12646013 61 7 -0.074613571
5.5058274 2.7811954 1.6528184 45 15 -0.074611269
3.5871191 1.8064883 -1.0761696 9 0 -0.074590534
6.1729589 3.107374 0.12063103 22 8 -0.074588224
4.2109847 2.1188273 -1.0883132 11 1 -0.074585922
18.378225 9.2432928 1.0781208 42 9 -0.07458362
5.1670337 2.5987494 -1.1242466 6 2 -0.074581318
6.3051143 3.1697626 0.61741126 100 10 -0.074579008
5.6075797 2.8178656 -0.9939847 21 3 -0.074576706
10.969743 5.5100164 1.5072802 33 11 -0.074574403
5.611311 2.8172879 -0.77094555 11 4 -0.074572101
6.3894134 3.2065563 1.1322728 36 12 -0.074569792
6.3103971 3.1655266 1.3722984 3 13 -0.074565187
6.2363648 3.1270235 -0.36561903 43 6 -0.074562885
5.5662322 2.7897916 1.4374373 9 14 -0.074560583
6.2951236 3.1537409 -0.12289985 65 7 -0.074558273
5.5241404 2.7662833 1.6554067 48 15 -0.074555971
3.5899467 1.7922291 -1.0751344 10 0 -0.074535236
4.2113805 2.1006351 -1.0865136 8 1 -0.074530624
18.503328 9.225421 1.0835637 84 9 -0.074528322
5.1778312 2.5815716 -1.1246282 6 2 -0.074526019
6.2822576 3.1308537 0.61409938 100 10 -0.074523717
5.6368308 2.8079646 -0.99742627 20 3 -0.074521407
10.999573 5.4769969 1.5087426 21 11 -0.074519105
5.6299944 2.8021102 -0.77216423 13 4 -0.074516803
7.1157093 3.5400131 -0.69532847 41 5 -0.074512199
7.3779063 3.668848 1.6016507 20 13 -0.074509889
6.2669163 3.1150129 -0.36677042 38 6 -0.074507587
5.6143308 2.789422 1.4473351 11 14 -0.074505284
6.4422102 3.1993439 -0.12555261 59 7 -0.074502982
4.8485317 2.4068303 1.4504219 52 15 -0.074500673
3.5892549 1.7762604 -1.0730639 9 0 -0.074479938
18.561995 9.1819782 0.36147425 84 8 -0.074477635
4.2291684 2.0911028 -1.089213 8 1 -0.074475333
18.621361 9.2032566 1.088588 43 9 -0.074473031
5.1780105 2.5591338 -1.1227202 6 2 -0.074470721
6.3038669 3.1141982 0.61514527 100 10 -0.074468419
5.5367842 2.7340436 -0.97802842 28 3 -0.074466117
11.029304 5.4438419 1.510205 17 11 -0.074463814
5.6575446 2.7912223 -0.77460164 15 4 -0.074461505
6.2823129 3.0980926 1.1094334 40 12 -0.074459203
7.1065807 3.5045764 -0.69323677 49 5 -0.0744569
7.387146 3.6413374 1.6008875 21 13 -0.074454598
6.3408051 3.1228118 1.6317949 45 14 -0.074449986
6.2290773 3.0664394 -0.12118951 56 7 -0.074447684
4.8603687 2.3916004 1.4514573 46 15 -0.074445382
3.5989025 1.7654213 -1.0740991 9 0 -0.074424647
18.701662 9.1699457 0.36356854 100 8 -0.074422337
4.2224422 2.0694695 -1.0856137 11 1 -0.074420035
6.3206244 3.096442 0.36886385 17 9 -0.074417733
5.1763344 2.5358598 -1.1204305 6 2 -0.07441543
6.3146996 3.0921731 0.61514527 100 10 -0.074413121
5.5090332 2.6964669 -0.9714582 23 3 -0.074410819
11.060721 5.4114127 1.5119112 36 11 -0.074408516
5.9686275 2.9188356 -0.81579345 11 4 -0.074406214
6.2948613 3.0770161 1.1097462 7 12 -0.074403904
6.1181669 2.9906456 -0.59579664 36 5 -0.074401602
7.4103961 3.6206987 1.6031773 25 13 -0.0743993
2.0961697 1.0237294 -0.12225681 1 6 -0.074396998
6.3534164 3.1015186 1.6322449 39 14 -0.074394688
6.2325554 3.0411677 -0.1210499 67 7 -0.074392386
5.5441227 2.7040501 1.6528184 43 15 -0.074390084
3.606781 1.7536919 -1.0746168 11 0 -0.074369349
18.740749 9.1081085 0.36370814 100 8 -0.074367046
4.2226291 2.0513105 -1.0838141 9 1 -0.074364737
18.749842 9.1044283 1.0923562 100 9 -0.074362434
5.2063479 2.528065 -1.1250099 9 2 -0.074360132
6.3254542 3.0701134 0.61514527 100 10 -0.07435783
5.7654529 2.7970684 -1.0149469 94 3 -0.07435552
11.06883 5.3675714 1.5104488 36 11 -0.074353218
6.0752406 2.9447408 -0.82895535 23 4 -0.074350916
8.9028111 4.3133788 1.5668478 13 12 -0.074348614
6.1142259 2.9623196 -0.59440213 28 5 -0.074346304
7.430059 3.5982306 1.6047038 25 13 -0.074344002
2.0673714 1.0007429 -0.12037271 54 6 -0.074341699
6.2179313 3.0072031 -0.12056123 54 7 -0.074337095
5.574399 2.694772 1.6590302 46 15 -0.074334785
3.6163597 1.7427708 -1.075652 9 0 -0.074314117
18.743607 9.0287466 0.36314967 100 8 -0.074311815
4.2402987 2.0416317 -1.0865136 11 1 -0.074309513
18.740334 9.0231514 1.0900534 100 9 -0.074307203
5.1939106 2.4996629 -1.1204305 6 2 -0.074304901
6.3163834 3.038512 0.61322778 100 10 -0.074302599
5.837491 2.8068852 -1.0258973 61 3 -0.074300297
11.094651 5.3323483 1.5114237 15 11 -0.074297987
6.0747471 2.9183571 -0.82749295 24 4 -0.074295685
6.2284136 2.9921796 1.0944157 11 12 -0.074293382
6.1029768 2.930608 -0.59231043 31 5 -0.07429108
7.4602714 3.5807695 1.6085199 12 13 -0.074288771
2.0780551 0.99697548 -0.1207914 90 6 -0.074286468
5.6369157 2.7031775 1.4432859 15 14 -0.074284166
6.4262075 3.0816817 -0.12440075 31 7 -0.074281864
5.581563 2.6754353 1.6585126 48 15 -0.074279554
3.6189353 1.7284708 -1.0746168 9 0 -0.074258819
18.731939 8.946722 0.36234686 90 8 -0.074256517
4.2452874 2.0267184 -1.0860636 9 1 -0.074254215
18.724852 8.9353123 1.0873319 100 9 -0.074251913
5.1955166 2.4781353 -1.118904 6 2 -0.074249603
6.3377409 3.0215912 0.61427367 100 10 -0.074247301
5.830718 2.7798622 -1.0230815 56 3 -0.074244998
11.131987 5.3049183 1.5141048 19 11 -0.074242696
6.0754299 2.893929 -0.82627422 24 4 -0.074240386
8.9622841 4.2671151 1.5721666 37 12 -0.074238084
6.0915804 2.8990138 -0.59021866 28 5 -0.074235782
7.4845138 3.5619178 1.6111913 11 13 -0.07423348
2.0813496 0.99007934 -0.1207914 94 6 -0.07423117
5.6247301 2.6744266 1.4378871 37 14 -0.074228868
6.4188647 3.0506492 -0.12405171 27 7 -0.074226566
5.5821428 2.6517923 1.6559243 45 15 -0.074224263
3.614172 1.7114986 -1.0715109 11 0 -0.074203528
6.5953555 3.1218388 0.12736766 47 8 -0.074201219
4.2505741 2.0110545 -1.0856137 8 1 -0.074198917
18.707438 8.8509645 1.0846105 100 9 -0.074196614
5.2108059 2.4642487 -1.1204305 6 2 -0.074194312
6.3387194 2.9963019 0.61340207 100 10 -0.074192002
5.8189535 2.7493668 -1.019327 55 3 -0.0741897
11.170183 5.2753506 1.516786 31 11 -0.074187398
6.0783134 2.8693159 -0.82529926 24 4 -0.074185096
8.9781704 4.2382164 1.5724794 45 12 -0.074182786
6.0903497 2.8736947 -0.58917278 35 5 -0.074180484
7.475594 3.5257185 1.6066117 22 13 -0.074178182
2.0884058 0.98451173 -0.12100074 94 6 -0.074175879
5.644608 2.6597614 1.4405866 35 14 -0.074173577
6.414475 3.0225258 -0.12377247 18 7 -0.074171267
5.5944023 2.6349113 1.6569597 46 15 -0.074168965
3.6288679 1.7029766 -1.0740991 9 0 -0.07414823
6.5948105 3.0948517 0.12715824 72 8 -0.074145928
4.2501631 1.9936366 -1.0838141 11 1 -0.074143618
18.700247 8.7677984 1.0824124 87 9 -0.074141316
5.2051539 2.4393809 -1.1173775 9 2 -0.074139014
6.3437285 2.9716203 0.61287922 100 10 -0.074136712
5.4022956 2.5306208 -0.94486433 22 3 -0.074134402
11.185815 5.2374396 1.5165422 12 11 -0.0741321
6.0716143 2.8415689 -0.82310557 27 4 -0.074129798
8.9964905 4.2085223 1.5731052 40 12 -0.074127495
6.0931239 2.8490434 -0.58847558 31 5 -0.074125193
2.0844219 0.9741978 -0.12058206 89 6 -0.074120581
5.6869426 2.6567011 1.4491347 11 14 -0.074118279
6.4231739 2.9992719 -0.12373756 9 7 -0.074115977
5.6070657 2.6170022 1.6579949 45 15 -0.074113667
3.6344948 1.6909342 -1.0740991 9 0 -0.074092932
6.5366702 3.039772 0.12583186 95 8 -0.07409063
4.237658 1.969752 -1.0788652 8 1 -0.074088328
6.3649368 2.9572084 0.36781713 17 9 -0.074086018
5.231019 2.4303799 -1.1211938 6 2 -0.074083716
6.3336701 2.9413342 0.61096174 100 10 -0.074081413
5.3537602 2.4851317 -0.93485248 31 3 -0.074079111
6.2088542 2.8807395 0.84041107 17 11 -0.074076809
6.0652895 2.81284 -0.820912 24 4 -0.074074499
6.2421947 2.8935575 1.0897226 35 12 -0.074072197
6.0916934 2.8237929 -0.5874297 33 5 -0.074069895
6.2596097 2.9003069 1.3410057 6 13 -0.074067593
2.0841856 0.96523666 -0.12037271 89 6 -0.074065283
6.4919853 3.0052192 1.6515907 50 14 -0.074062981
2.1487689 0.9942373 -0.041327298 1 7 -0.074060678
4.9638996 2.2957463 1.4654335 39 15 -0.074058376
3.6386213 1.6774274 -1.0735815 11 0 -0.074037634
6.6071734 3.0445547 0.12698372 67 8 -0.074035332
4.2692881 1.9663622 -1.085164 9 1 -0.074033029
18.663034 8.5919313 1.0767601 31 9 -0.074030727
5.2269878 2.4063568 -1.1185224 13 2 -0.074028425
6.3656168 2.9292066 0.6130535 100 10 -0.074026115
5.3552237 2.4631281 -0.93360102 34 3 -0.074023813
11.216696 5.156733 1.5158111 10 11 -0.074021511
6.0588369 2.7841923 -0.81871831 28 4 -0.074019209
9.0130863 4.1398411 1.5709151 15 12 -0.074016899
6.0978913 2.8008499 -0.58708107 30 5 -0.074014597
6.2518539 2.8702462 1.3371896 40 13 -0.074012294
2.0984333 0.96295398 -0.12100074 92 6 -0.074009992
6.5006638 2.9817286 1.6511407 53 14 -0.074007683
2.1195071 0.9717291 -0.040699009 34 7 -0.07400538
4.9648576 2.2751868 1.4633629 46 15 -0.074003078
3.6356678 1.6607034 -1.0709932 9 0 -0.073982343
6.4849696 2.9608421 0.12443566 72 8 -0.073980041
4.281445 1.9538735 -1.0865136 11 1 -0.073977731
18.696545 8.5283947 1.0769694 49 9 -0.073975429
5.2228518 2.3823943 -1.115851 9 2 -0.073973127
6.3649263 2.9020078 0.61200762 100 10 -0.073970824
5.3601942 2.44278 -0.93297523 31 3 -0.073968515
11.259919 5.1290708 1.5192233 5 11 -0.073966213
6.0558715 2.7572691 -0.81701219 24 4 -0.07396391
9.0526543 4.1198072 1.5752953 18 12 -0.073961608
6.0894976 2.7712929 -0.585338 38 5 -0.073959298
6.2671957 2.8508456 1.3383343 9 13 -0.073956996
2.105418 0.95727706 -0.12121009 94 6 -0.073954694
6.5234523 2.9646611 1.6542901 58 14 -0.073952392
2.1028593 0.95522684 -0.040315062 92 7 -0.073950082
5.0237808 2.2810051 1.4783745 31 15 -0.07394778
3.6379232 1.6464086 -1.069958 10 0 -0.073927045
6.2784538 2.8401089 0.12028199 85 8 -0.073924743
4.288238 1.9389195 -1.0865136 11 1 -0.07392244
18.704361 8.4532032 1.0757134 31 9 -0.073920131
5.2239804 2.360913 -1.1143246 9 2 -0.073917829
6.3568611 2.8715684 0.61026448 100 10 -0.073915526
5.3506832 2.4159293 -0.92984658 32 3 -0.073913224
11.284992 5.0929985 1.5201983 5 11 -0.073910914
6.0636501 2.7352953 -0.81676841 28 4 -0.073908612
9.0597744 4.0849409 1.5740438 15 12 -0.07390631
6.0809689 2.7418342 -0.5835948 28 5 -0.073904008
6.2448916 2.8144298 1.3314652 23 13 -0.073901698
2.1123891 0.95156199 -0.12141944 92 6 -0.073899396
6.5426435 2.9458768 1.6565396 50 14 -0.073897094
2.1244161 0.95608795 -0.040664107 100 7 -0.073894791
5.637773 2.5360823 1.6564419 43 15 -0.073892489
3.6454113 1.6344892 -1.0704756 11 0 -0.073871747
6.2719059 2.8108168 0.11996785 72 8 -0.073869444
4.29498 1.9239379 -1.0865136 11 1 -0.073867142
6.2852964 2.8141804 0.36090881 38 9 -0.07386484
5.2536926 2.3522897 -1.118904 9 2 -0.07386253
6.2868285 2.8135526 0.60259479 57 10 -0.073860228
5.3410525 2.3891697 -0.92671788 31 3 -0.073857926
6.2665939 2.8018687 0.84284848 63 11 -0.073855624
6.0604744 2.7084444 -0.81506222 28 4 -0.073853314
6.2242699 2.7803421 1.0797108 22 12 -0.073851012
6.0873408 2.7178991 -0.58324623 15 5 -0.073848709
6.2403374 2.7862093 1.3284123 15 13 -0.073846407
2.1047542 0.93929929 -0.1207914 92 6 -0.073844105
5.7466793 2.5633972 1.4527339 16 14 -0.073841795
2.1186087 0.94459438 -0.040489584 100 7 -0.073839493
5.6554141 2.5203202 1.6590302 39 15 -0.073837191
3.6460803 1.6187662 -1.0689226 9 0 -0.073816456
6.2999563 2.797019 0.12031689 65 8 -0.073814146
4.2892022 1.9033997 -1.0833644 9 1 -0.073811844
6.3060346 2.7970867 0.36153683 61 9 -0.073809542
5.2443304 2.3250623 -1.1150879 9 2 -0.07380724
6.3007417 2.792104 0.60294342 54 10 -0.07380493
5.3497729 2.3695788 -0.92671788 32 3 -0.073802628
6.3090043 2.794452 0.84723574 71 11 -0.073800325
6.053556 2.6800387 -0.8128686 28 4 -0.073798023
9.1133623 4.0327787 1.5784239 30 12 -0.073795721
6.1186552 2.7063091 -0.585338 1 5 -0.073793411
6.2433243 2.7601447 1.3268858 25 13 -0.073791109
2.1081831 0.9315781 -0.1207914 92 6 -0.073788807
5.7186012 2.5257845 1.4432859 86 14 -0.073786505
2.1328676 0.94204217 -0.040699009 100 7 -0.073784195
5.6571088 2.4974415 1.6569597 41 15 -0.073781893
3.6605499 1.6099205 -1.0715109 9 0 -0.073761158
6.299181 2.769083 0.12010746 62 8 -0.073758855
4.2961488 1.8876671 -1.0833644 9 1 -0.073756546
6.2961273 2.7651222 0.36038542 65 9 -0.073754244
5.2416277 2.3020089 -1.1127981 11 2 -0.073751941
6.2995024 2.7652893 0.60189754 54 10 -0.073749639
5.3471589 2.3461268 -0.92484063 30 3 -0.073747337
6.3046627 2.7649267 0.84528583 74 11 -0.073745027
6.0487928 2.6514592 -0.81091869 28 4 -0.073742725
9.1317015 4.0009375 1.5790497 33 12 -0.073740423
2.1315007 0.93388963 -0.20359582 1 5 -0.07373812
7.6322694 3.3423886 1.6195869 30 13 -0.073735811
2.1150811 0.9258157 -0.12100074 97 6 -0.073733509
5.7220273 2.5034626 1.4419363 30 14 -0.073731206
2.1289783 0.93101221 -0.040559392 100 7 -0.073728904
5.0820765 2.2213626 1.4861389 50 15 -0.073726594
3.664376 1.5963602 -1.0709932 11 0 -0.073705859
6.2923088 2.7398911 0.11979332 60 8 -0.073703557
4.293777 1.8687716 -1.0811148 8 1 -0.073701255
6.2984161 2.7399392 0.35996673 65 9 -0.073698953
5.2496319 2.2836967 -1.1127981 9 2 -0.073696643
6.2890196 2.7345426 0.59998012 61 10 -0.073694341
5.3516922 2.3258739 -0.92421496 31 3 -0.073692039
6.2978873 2.7357886 0.8430922 53 11 -0.073689736
6.0489078 2.6263742 -0.80970001 24 4 -0.073687427
6.2172751 2.6981916 1.0734534 32 12 -0.073685125
2.1237814 0.92168498 -0.20254995 41 5 -0.073682822
7.638484 3.3133881 1.6184419 27 13 -0.07368052
2.1256299 0.92160451 -0.12141944 94 6 -0.07367821
5.725368 2.4811475 1.4405866 1 14 -0.073675908
2.1248748 0.92039728 -0.040419776 100 7 -0.073673606
5.5986037 2.4238923 1.6347013 46 15 -0.073671304
3.6557364 1.5774355 -1.0668522 9 0 -0.073650569
6.2706184 2.7044487 0.11919994 15 8 -0.073648259
4.3056436 1.8560854 -1.0824645 9 1 -0.073645957
6.2891269 2.7111294 0.35892001 74 9 -0.073643655
5.2593746 2.2661335 -1.1131797 13 2 -0.073641352
6.2692471 2.6999652 0.59719115 66 10 -0.073639043
5.338006 2.2978048 -0.92046052 30 3 -0.07363674
6.2946353 2.7082946 0.84138602 71 11 -0.073634438
6.053936 2.604733 -0.80921251 30 4 -0.073632136
2.1178336 0.91033137 -0.20167838 86 5 -0.073627524
7.6518078 3.2874773 1.6188235 29 13 -0.073625222
2.1361744 0.91733181 -0.12183812 92 6 -0.07362292
6.5106926 2.7958696 1.6358441 6 14 -0.07362061
2.1352656 0.91650021 -0.040559392 100 7 -0.073618308
3.6698289 1.5691004 -1.0694402 9 0 -0.073595271
2.1569295 0.92178935 0.040943347 1 8 -0.073592968
4.2992296 1.8364394 -1.0793152 8 1 -0.073590659
6.3017564 2.6918294 0.35912937 59 9 -0.073588356
5.2686672 2.24945 -1.1135614 13 2 -0.073586054
6.2745008 2.677598 0.59684253 59 10 -0.073583752
5.3292432 2.2731168 -0.91764468 28 3 -0.073581442
6.2853217 2.6796191 0.83894861 78 11 -0.07357914
6.0497589 2.5791917 -0.80750632 24 4 -0.073576838
6.3713288 2.7149763 1.0969186 42 12 -0.073574536
2.1208405 0.90330374 -0.20167838 89 5 -0.073572226
7.6590552 3.260545 1.6180604 29 13 -0.073569924
2.1245022 0.90398741 -0.12100074 92 6 -0.073567621
6.4069586 2.7261961 1.6075002 69 14 -0.073565319
2.1419733 0.91097999 -0.040629201 100 7 -0.073563017
5.2589793 2.2355542 1.5311736 9 15 -0.073560707
3.6732326 1.5561712 -1.0689226 12 0 -0.073539972
2.1415606 0.90683371 0.040594298 42 8 -0.07353767
4.3052964 1.8221714 -1.0793152 8 1 -0.073535368
6.2798438 2.6565857 0.35734996 55 9 -0.073533058
5.2547879 2.2218714 -1.108982 11 2 -0.073530756
6.2815108 2.6559987 0.59666818 57 10 -0.073528454
5.3331132 2.2538924 -0.91701895 28 3 -0.073526151
6.2777147 2.6518106 0.83675498 79 11 -0.073523842
6.0386076 2.5495663 -0.80482519 28 4 -0.07352154
6.3734875 2.6896455 1.0956671 91 12 -0.073519237
2.1331599 0.89976627 -0.20254995 93 5 -0.073516935
7.6902895 3.2421811 1.6222582 31 13 -0.073514633
2.127645 0.89656544 -0.12100074 87 6 -0.073512323
6.5403476 2.7560282 1.6385435 35 14 -0.073510021
2.1525121 0.90660179 -0.040768825 100 7 -0.073507719
5.1670418 2.1752093 1.5021858 54 15 -0.073505417
3.6896014 1.5471791 -1.0720285 9 0 -0.073484674
2.1504023 0.90129775 0.040699009 89 8 -0.073482372
4.3101482 1.8056273 -1.0788652 9 1 -0.07348007
6.2655883 2.6235244 0.35598922 59 9 -0.073477767
5.2484069 2.1965342 -1.105929 9 2 -0.073475465
6.2893648 2.63219 0.5964939 61 10 -0.073473155
5.3340478 2.2312822 -0.91576743 28 3 -0.073470853
6.2745709 2.623425 0.83504879 78 11 -0.073468551
6.0369234 2.5228229 -0.80336279 24 4 -0.073466249
6.2794046 2.6228716 1.0778337 67 12 -0.073463939
2.1474748 0.89654779 -0.20359582 100 5 -0.073461637
7.7202396 3.2215314 1.6260743 13 13 -0.073459335
2.1382902 0.891837 -0.12141944 89 6 -0.073457032
5.8219819 2.4282293 1.4563332 43 14 -0.073454723
2.1484375 0.89562804 -0.040629201 100 7 -0.073452421
5.7384858 2.3910506 1.6657594 39 15 -0.073450118
3.6809733 1.5277205 -1.0678874 10 0 -0.073429383
2.1499975 0.89187717 0.040629201 84 8 -0.073427081
4.3149366 1.7890723 -1.0784154 8 1 -0.073424771
6.2437959 2.5875416 0.35420978 57 9 -0.073422469
5.2632976 2.1812055 -1.1074555 13 2 -0.073420167
6.2584748 2.592345 0.59265906 71 10 -0.073417865
5.3348894 2.2086957 -0.91451597 28 3 -0.073415555
6.2291174 2.5776377 0.82773668 78 11 -0.073413253
6.0351224 2.4961283 -0.80190039 30 4 -0.073410951
6.3820777 2.6383283 1.0937898 61 12 -0.073408648
2.1321783 0.88143498 -0.20185271 98 5 -0.073406339
7.7532115 3.2035618 1.6306537 4 13 -0.073404036
2.1487744 0.88741648 -0.12183812 89 6 -0.073401734
5.8164325 2.4009247 1.4527339 65 14 -0.073399432
2.1480086 0.88622272 -0.040559392 100 7 -0.073397122
5.7472105 2.3700032 1.6657594 41 15 -0.07339482
3.6844962 1.5141284 -1.0673697 12 0 -0.073374085
2.1530974 0.88436723 0.040629201 85 8 -0.073371783
4.3301697 1.777699 -1.0806649 9 1 -0.073369481
6.2749629 2.5748308 0.35546586 57 9 -0.073367171
5.2599816 2.1583493 -1.1051657 9 2 -0.073364869
6.2619548 2.5682163 0.59213609 57 10 -0.073362567
5.3352561 2.1870615 -0.91326451 29 3 -0.073360264
6.2417502 2.5573852 0.82822412 84 11 -0.073357955
6.043798 2.4750478 -0.80190039 24 4 -0.073355652
6.4259839 2.6302507 1.0997344 68 12 -0.07335335
2.1315544 0.87247688 -0.20150407 93 5 -0.073351048
7.7916031 3.1876271 1.636378 5 13 -0.073348738
2.1555562 0.88142282 -0.12204745 94 6 -0.073346436
5.8716788 2.3997767 1.4644314 49 14 -0.073344134
2.1584938 0.88174361 -0.040699009 100 7 -0.073341832
5.2886448 2.1593347 1.530656 39 15 -0.073339522
3.6879694 1.5005307 -1.0668522 9 0 -0.073318787
2.1617286 0.87910551 0.040733919 89 8 -0.073316485
4.3291278 1.7596365 -1.0788652 9 1 -0.073314182
6.2723656 2.5494938 0.35483781 55 9 -0.07331188
5.28931 2.1488438 -1.1097453 13 2 -0.073309571
6.2598066 2.5418434 0.59109026 57 10 -0.073307268
5.3318763 2.1639659 -0.91138726 43 3 -0.073304966
6.2175279 2.5221515 0.8238368 78 11 -0.073302664
6.0390959 2.4497702 -0.8001942 31 4 -0.073300354
6.2808986 2.5465779 1.0734534 65 12 -0.073298052
2.1419735 0.86802375 -0.20220132 95 5 -0.07329575
6.1831875 2.5044522 1.296738 37 13 -0.073293447
2.1512148 0.87089467 -0.12162878 87 6 -0.073291138
5.9085064 2.3919911 1.4716297 26 14 -0.073288836
2.1632595 0.87533152 -0.040733919 100 7 -0.073286533
5.7596264 2.3293824 1.6647241 35 15 -0.073284231
3.6965094 1.4897361 -1.0678874 10 0 -0.073263496
2.1609223 0.87043828 0.040664107 89 8 -0.073261186
4.3114386 1.7358105 -1.0730165 8 1 -0.073258884
6.254847 2.5182383 0.35337242 57 9 -0.073256582
5.3000493 2.1327562 -1.1105084 9 2 -0.07325428
6.2589583 2.517355 0.59021866 57 10 -0.07325197
5.373847 2.1602707 -0.91733181 30 3 -0.073249668
6.207438 2.4941168 0.82139945 74 11 -0.073247366
6.0287671 2.4223278 -0.79775679 24 4 -0.073245063
6.2196512 2.4977634 1.0615644 68 12 -0.073242754
2.1522365 0.86388397 -0.20289856 93 5 -0.073240452
7.7693887 3.116977 1.6272193 20 13 -0.073238149
2.1540909 0.86375666 -0.12162878 97 6 -0.073235847
5.9164057 2.372386 1.4716297 49 14 -0.073233545
2.1791437 0.8733598 -0.040978249 100 7 -0.073231235
5.3154035 2.1292398 1.5342795 15 15 -0.073228933
3.7014287 1.4774705 -1.0678874 12 0 -0.073208198
2.1693692 0.86549008 0.040768825 85 8 -0.073205896
4.326221 1.7251135 -1.075266 9 1 -0.073203586
6.2506113 2.4912145 0.3526397 14 9 -0.073201284
5.2815604 2.1049941 -1.1051657 9 2 -0.073198982
6.2450604 2.487736 0.5881269 61 10 -0.073196679
5.4140148 2.1555948 -0.92296344 25 3 -0.07319437
6.1953859 2.465446 0.81871831 82 11 -0.073192067
6.0113626 2.3909955 -0.79434443 9 4 -0.073189765
6.4761443 2.5745518 1.1038017 28 12 -0.073187463
2.1626444 0.85931033 -0.20359582 95 5 -0.073185161
7.7961025 3.0977221 1.6306537 25 13 -0.073182851
2.1643684 0.85955673 -0.12204745 97 6 -0.073180549
5.9318967 2.3545935 1.4734293 29 14 -0.073178247
2.1673083 0.85984987 -0.040699009 100 7 -0.073175944
5.8004913 2.3000906 1.6719712 15 15 -0.073173635
3.6996315 1.4610566 -1.0658169 11 0 -0.0731529
2.1779559 0.8601172 0.040873535 80 8 -0.073150598
4.3358426 1.7114316 -1.0761659 8 1 -0.073148295
2.1997552 0.86783749 0.12393155 4 9 -0.073145993
5.2746282 2.0798616 -1.1021129 6 2 -0.073143683
5.4476109 2.1458714 -0.92734367 25 3 -0.073139079
6.248282 2.4612644 0.82456803 73 11 -0.073136777
6.5347219 2.5714614 1.1122491 25 12 -0.073132165
2.1582146 0.84883851 -0.20289856 98 5 -0.073129863
7.8000941 3.0662556 1.6291273 12 13 -0.07312756
2.1675041 0.85161865 -0.12204745 100 6 -0.073125251
6.0166693 2.3627548 1.4923253 28 14 -0.073122948
2.1665742 0.85081691 -0.040629201 100 7 -0.073120646
5.8048887 2.2784157 1.6709359 35 15 -0.073118344
3.7011108 1.4467258 -1.0647817 11 0 -0.073097609
2.1755068 0.84994423 0.040768825 85 8 -0.073095299
4.3511615 1.6990734 -1.0784154 8 1 -0.073092997
2.2029209 0.85976964 0.12393155 59 9 -0.073090695
5.2964878 2.0671461 -1.1051657 9 2 -0.073088393
2.4687002 0.96300185 0.23183426 3 10 -0.073086083
5.4900355 2.1404774 -0.9332881 27 3 -0.073083781
6.2628093 2.4405103 0.82529926 74 11 -0.073081478
2.1752999 0.84723896 -0.28663671 2 4 -0.073079176
6.5753965 2.5596769 1.117568 38 12 -0.073076867
2.1538839 0.83803332 -0.20220132 98 5 -0.073074564
6.2024932 2.4132664 1.2936851 6 13 -0.073072262
2.1779096 0.84694242 -0.12246615 94 6 -0.07306996
6.577055 2.5563579 1.6290956 19 14 -0.07306765
2.1808619 0.84721547 -0.040838633 100 7 -0.073065348
5.8005943 2.2522314 1.6673124 39 15 -0.073063046
3.7081902 1.4338485 -1.0652993 13 0 -0.073042311
2.1747293 0.84090418 0.040699009 85 8 -0.073040009
4.3443427 1.6789563 -1.075266 9 1 -0.073037699
2.1984568 0.8491956 0.12351287 100 9 -0.073035397
5.2930393 2.0434783 -1.1028761 11 2 -0.073033094
2.4759307 0.95538217 0.23218289 54 10 -0.073030792
5.5199614 2.1288693 -0.93704253 25 3 -0.073028482
6.2453613 2.4086323 0.82188696 74 11 -0.07302618
2.1745391 0.83821416 -0.28614923 58 4 -0.073023878
6.1898246 2.3847322 1.050614 16 12 -0.073021576
2.1642334 0.83337295 -0.20289856 91 5 -0.073019266
7.8328295 3.0145919 1.6314169 25 13 -0.073016964
2.1772711 0.83752066 -0.12225681 100 6 -0.073014662
6.1516547 2.3650961 1.5215689 7 14 -0.073012359
2.1950052 0.84390277 -0.041048057 100 7 -0.073010057
5.8120265 2.2333567 1.6683476 41 15 -0.073007748
3.7088203 1.4214557 -1.0642639 11 0 -0.072990894
2.1848302 0.83692861 0.040838633 76 8 -0.072988592
4.3441353 1.6632102 -1.0739163 8 1 -0.07298629
2.1936519 0.83942991 0.12309418 78 9 -0.07298398
5.3027468 2.0291662 -1.1036394 6 2 -0.072981678
2.4899204 0.9523015 0.23322876 57 10 -0.072979376
5.5723825 2.1301162 -0.94486433 24 3 -0.072977073
6.2028289 2.3698723 0.81530601 76 11 -0.072974764
2.1734533 0.82996053 -0.28566176 83 4 -0.072972462
6.6199112 2.5265765 1.1222609 51 12 -0.072970159
2.1704192 0.82836914 -0.20324717 91 5 -0.072967857
7.8417406 2.9913359 1.6314169 26 13 -0.072965547
2.1760139 0.82963324 -0.12204745 97 6 -0.072963245
6.0202479 2.2940965 1.4873765 1 14 -0.072960943
2.2013831 0.83842665 -0.041117873 100 7 -0.072958641
5.8298473 2.2192087 1.6714535 39 15 -0.072956331
3.7155657 1.409187 -1.0647817 10 0 -0.072935596
2.1877382 0.82929748 0.040838633 76 8 -0.072933294
4.3517375 1.6487255 -1.0743662 9 1 -0.072930992
2.2003043 0.83318269 0.12330353 84 9 -0.072928689
5.287765 2.0023022 -1.0990598 9 2 -0.07292638
2.4708681 0.93514317 0.23113704 58 10 -0.072924078
5.6130409 2.1232305 -0.9504959 22 3 -0.072921775
2.1744795 0.82166845 -0.285418 91 4 -0.072917163
2.1844811 0.82501101 -0.20429306 95 5 -0.072912559
7.8558097 2.9653296 1.6321803 12 13 -0.072910257
2.1863713 0.82485294 -0.12246615 94 6 -0.072907947
6.1066265 2.3026311 1.5067222 10 14 -0.072905645
2.1968114 0.82791579 -0.040978249 100 7 -0.072903343
5.34763 2.0143039 1.5311736 30 15 -0.07290104
3.7114191 1.3928138 -1.0621934 13 0 -0.072880305
2.201854 0.82586884 0.041048057 76 8 -0.072877996
4.3501673 1.6307898 -1.0725666 9 1 -0.072875693
2.2088106 0.82759881 0.12361754 87 9 -0.072873391
5.298399 1.9852083 -1.0998231 6 2 -0.072871089
2.4517272 0.91812706 0.22904527 58 10 -0.072868779
5.668519 2.121629 -0.9586305 24 3 -0.072866477
2.5546224 0.95564282 0.33489698 1 11 -0.072864175
2.1847723 0.8168534 -0.28639299 91 4 -0.072861873
6.6669955 2.4913626 1.1272669 46 12 -0.072859563
2.1798823 0.81459141 -0.20359582 95 5 -0.072857261
7.8973761 2.949568 1.6386677 12 13 -0.072854958
2.1892374 0.81721652 -0.12246615 89 6 -0.072852656
6.1164522 2.2819836 1.5071721 7 14 -0.072850354
2.1959407 0.81884563 -0.040908441 100 7 -0.072848044
5.8451972 2.1784573 1.6714535 39 15 -0.072845742
3.7144475 1.3791765 -1.0616758 11 0 -0.072825007
2.1972239 0.81539547 0.040908441 76 8 -0.072822705
4.3649683 1.6189842 -1.0748161 9 1 -0.072820395
2.219177 0.82265985 0.12403623 87 9 -0.072818093
5.2979341 1.9639702 -1.0982966 11 2 -0.072815791
2.4343657 0.90194958 0.22712786 50 10 -0.072813489
5.8629875 2.1711113 -0.99023032 48 3 -0.072811179
2.5188477 0.93224955 0.32977846 26 11 -0.072808877
2.1876101 0.80922252 -0.28639299 89 4 -0.072806574
6.6385956 2.4543734 1.1210095 75 12 -0.072804272
2.1827126 0.80697668 -0.20359582 93 5 -0.07280197
6.1710415 2.2802887 1.2788019 15 13 -0.07279966
2.2070649 0.81510568 -0.12330353 92 6 -0.072797358
6.1115837 2.2558939 1.5040227 7 14 -0.072795056
2.2025378 0.81255901 -0.040978249 100 7 -0.072792754
5.856391 2.1593785 1.6724888 39 15 -0.072790444
3.7156122 1.3648709 -1.0606405 9 0 -0.072769709
2.1963027 0.80634183 0.040838633 85 8 -0.072767407
4.3577871 1.5990376 -1.0716668 11 1 -0.072765104
2.2220349 0.81490898 0.12403623 87 9 -0.072762795
5.3231893 1.952226 -1.1021129 6 2 -0.072760493
2.4356289 0.89276022 0.22695355 53 10 -0.07275819
5.8760948 2.1526721 -0.99116892 50 3 -0.072755888
2.5127659 0.92003942 0.32855979 45 11 -0.072753586
2.1978784 0.80430961 -0.28736794 86 4 -0.072751276
6.72504 2.4596853 1.13415 60 12 -0.072748974
2.1893981 0.80033976 -0.20394444 84 5 -0.072746672
6.1531487 2.2492983 1.2734593 25 13 -0.07274437
2.2023928 0.80465436 -0.12288483 94 6 -0.07274206
6.1249123 2.2365534 1.5053725 12 14 -0.072739758
2.2166319 0.80897981 -0.041187681 100 7 -0.072737455
5.7658892 2.1031733 1.6445363 41 15 -0.072735153
3.7278531 1.3538822 -1.0627111 12 0 -0.072714411
2.2066221 0.80140132 0.040978249 76 8 -0.072712108
4.3560147 1.5811574 -1.0698671 9 1 -0.072709806
2.2248662 0.80714709 0.12403623 87 9 -0.072707504
5.311852 1.9260088 -1.0982966 9 2 -0.072705202
2.4145331 0.87500304 0.2246875 52 10 -0.072702892
5.8635149 2.1237192 -0.98772728 47 3 -0.07270059
2.5066302 0.90788192 0.32734108 60 11 -0.072698288
2.1894736 0.79257804 -0.28590551 91 4 -0.072695985
6.7633047 2.44695 1.139156 62 12 -0.072693676
2.1996732 0.79540199 -0.20464167 86 5 -0.072691374
7.9154077 2.8606498 1.6359965 12 13 -0.072689071
2.1978133 0.7938633 -0.12246615 94 6 -0.072686769
6.1092405 2.2054856 1.4995238 10 14 -0.072684459
2.2194424 0.80123675 -0.041187681 100 7 -0.072682157
5.3352547 1.925018 1.5197855 37 15 -0.072679855
3.7325566 1.3408602 -1.0627111 10 0 -0.07265912
2.211427 0.79398346 0.041013155 80 8 -0.072656818
4.365449 1.5664986 -1.070767 9 1 -0.072654508
2.22015 0.79667914 0.12361754 90 9 -0.072652206
5.3259344 1.9101075 -1.0998231 6 2 -0.072649904
2.2450233 0.80471903 0.20865084 60 10 -0.072647601
5.8634524 2.1005781 -0.98647583 31 3 -0.072645292
2.5099406 0.89868909 0.32734108 67 11 -0.072642989
2.1961017 0.78588605 -0.28639299 89 4 -0.072640687
6.7718058 2.4233248 1.139156 60 12 -0.072638385
2.2080641 0.78973222 -0.20516461 93 5 -0.072636075
7.9290414 2.8343258 1.6367596 25 13 -0.072633773
2.2080944 0.78887379 -0.12288483 97 6 -0.072631471
6.1058898 2.1802163 1.4968243 8 14 -0.072629169
2.2184589 0.79214019 -0.041117873 100 7 -0.072626859
5.8714051 2.0953341 1.6704183 39 15 -0.072624557
3.7208312 1.322001 -1.0580523 9 0 -0.072603822
2.2234695 0.78999257 0.041187681 76 8 -0.07260152
4.3761287 1.5539688 -1.0721167 11 1 -0.072599217
2.236093 0.79359996 0.12435025 93 9 -0.072596908
5.3214684 1.8875656 -1.0975335 9 2 -0.072594605
2.2496963 0.79754376 0.20882516 93 10 -0.072592303
5.9057622 2.093662 -0.99242038 14 3 -0.072590001
2.5110357 0.88969833 0.32709733 71 11 -0.072587691
2.2024384 0.7799238 -0.28688046 89 4 -0.072585389
6.1508036 2.1769078 1.0334063 65 12 -0.072583087
2.203294 0.77936268 -0.20446737 93 5 -0.072580785
6.1726637 2.1834323 1.2726961 32 13 -0.072578475
2.221997 0.78554094 -0.12351287 97 6 -0.072576173
6.1020613 2.1560624 1.4941249 8 14 -0.07257387
2.2174392 0.78306019 -0.041048057 100 7 -0.072571568
5.867754 2.0709672 1.6673124 18 15 -0.072569266
3.7233715 1.3090149 -1.0575346 11 0 -0.072548524
2.2205529 0.78023916 0.041082963 80 8 -0.072546221
4.3907204 1.541911 -1.0743662 9 1 -0.072543919
2.2481351 0.78948867 0.12487361 84 9 -0.072541617
5.3276978 1.8699098 -1.0975335 6 2 -0.072539307
2.2335277 0.78348452 0.20708205 86 10 -0.072537005
5.8981214 2.0678043 -0.9899174 9 3 -0.072534703
2.5159998 0.88158363 0.32734108 67 11 -0.0725324
2.2088938 0.77354485 -0.28736794 89 4 -0.072530091
6.2773075 2.1982851 1.0534298 65 12 -0.072527789
2.2058666 0.77205133 -0.20446737 93 5 -0.072525486
7.9555635 2.782882 1.6382861 27 13 -0.072523184
2.224725 0.77778143 -0.12351287 94 6 -0.072520882
6.1003523 2.1315336 1.4918754 14 14 -0.072518572
2.2275751 0.77834046 -0.041187681 100 7 -0.07251627
5.8745885 2.0514987 1.6673124 33 15 -0.072513968
3.7315674 1.2972795 -1.0585699 11 0 -0.072493233
2.2193508 0.77155739 0.041013155 80 8 -0.072490923
4.381083 1.5222267 -1.070767 9 1 -0.072488621
2.2508774 0.78163588 0.12487361 84 9 -0.072486319
5.3212094 1.8467964 -1.0948621 6 2 -0.072484016
2.2418962 0.77764153 0.20760499 94 10 -0.072481707
5.8881493 2.0424092 -0.98710161 1 3 -0.072479405
2.5207851 0.87388492 0.32758483 71 11 -0.072477102
2.21895 0.76881462 -0.28834289 89 4 -0.0724748
6.2028117 2.1479177 1.0396636 68 12 -0.072472498
2.2123139 0.76564938 -0.204816 95 5 -0.072470188
7.9610381 2.7551985 1.6375229 27 13 -0.072467886
2.2197418 0.76778752 -0.12309418 97 6 -0.072465584
6.0926528 2.1062 1.4882761 7 14 -0.072463281
2.2416191 0.77447754 -0.04139711 100 7 -0.072460972
5.8999739 2.0372868 1.6724888 39 15 -0.07245867
3.7358487 1.2848988 -1.0585699 9 0 -0.072437935
2.2314863 0.76705539 0.041187681 76 8 -0.072435632
4.3753114 1.5031265 -1.0680676 9 1 -0.072433323
2.2422574 0.76988399 0.12424557 87 9 -0.07243102
5.3365879 1.8323292 -1.0967702 8 2 -0.072428718
2.2463472 0.77084887 0.20777929 86 10 -0.072426416
2.2142196 0.75939214 -0.37074974 8 3 -0.072424114
2.5144305 0.86186391 0.32636613 79 11 -0.072421804
2.2141085 0.75849038 -0.28736794 86 4 -0.072419502
6.2009277 2.1230519 1.0380992 42 12 -0.0724172
2.2186105 0.75960004 -0.20516461 100 5 -0.072414897
6.1483808 2.1038656 1.2631556 28 13 -0.072412588
2.2224085 0.76003385 -0.12309418 97 6 -0.072410285
6.1202521 2.091851 1.4932251 8 14 -0.072407983
2.2424159 0.76600313 -0.041362204 100 7 -0.072405681
5.523119 1.8856031 1.5637847 67 15 -0.072403371
3.7476273 1.2743372 -1.0606405 14 0 -0.072382636
2.2417228 0.76183653 0.041327298 73 8 -0.072380334
4.3786864 1.4872166 -1.0676178 8 1 -0.072378032
2.2449315 0.76205176 0.12424557 87 9 -0.07237573
5.3206434 1.8061157 -1.0921907 6 2 -0.07237342
2.2622316 0.76748419 0.20899945 90 10 -0.072371118
2.2336936 0.75736773 -0.37356552 66 3 -0.072368816
2.5230639 0.85499215 0.32709733 57 11 -0.072366513
2.2205031 0.75203115 -0.28785542 86 4 -0.072364204
6.2083006 2.1013949 1.0380992 71 12 -0.072361901
2.2325716 0.75568414 -0.20621049 95 5 -0.072359599
6.1370912 2.0760982 1.2593395 43 13 -0.072357297
2.2364006 0.75610918 -0.12372221 100 6 -0.072354987
6.1053619 2.06299 1.4878262 3 14 -0.072352685
2.2450764 0.75817037 -0.041362204 100 7 -0.072350383
5.5058727 1.8582798 1.5570555 48 15 -0.072348081
3.742897 1.2581708 -1.0580523 13 0 -0.072327346
2.2481601 0.75527996 0.04139711 73 8 -0.072325036
4.4060206 1.4793655 -1.0730165 11 1 -0.072322734
2.2589386 0.75802368 0.12487361 84 9 -0.072320431
5.3343596 1.7900314 -1.0937172 10 2 -0.072318129
2.2535629 0.75578225 0.2079536 94 10 -0.07231582
2.226959 0.74642658 -0.3720012 73 3 -0.072313517
2.5166216 0.84302771 0.32587865 58 11 -0.072311215
2.2306437 0.74679685 -0.28883037 84 4 -0.072308913
6.176259 2.0665467 1.0315289 35 12 -0.072306603
2.227638 0.74535704 -0.20551322 98 5 -0.072304301
8.0266905 2.6841385 1.6451553 34 13 -0.072301999
2.2428143 0.74956572 -0.12393155 97 6 -0.072299697
6.1273131 2.046603 1.4914254 3 14 -0.072297387
2.2439156 0.74906319 -0.041292395 100 7 -0.072295085
5.9448075 1.9833407 1.6792181 48 15 -0.072292782
3.7344332 1.2408332 -1.0544289 11 0 -0.072272047
2.2469871 0.74616671 0.041327298 73 8 -0.072269745
4.3963609 1.4590666 -1.0694174 8 1 -0.072267435
2.2653623 0.75139087 0.12508295 84 9 -0.072265133
5.351757 1.7751073 -1.096007 8 2 -0.072262831
2.2561874 0.74791062 0.2079536 90 10 -0.072260529
2.2220502 0.73616403 -0.37074974 81 3 -0.072258219
2.5346251 0.83922899 0.32782856 58 11 -0.072255917
2.2294681 0.73775804 -0.28834289 81 4 -0.072253615
2.2264431 0.73632586 -0.20516461 91 5 -0.072249003
8.0322828 2.6548696 1.6443919 34 13 -0.072246701
