# .PCD v0.7 - Point Cloud Data file format
VERSION 0.7
FIELDS x y z intensity ring time
SIZE 4 4 4 4 2 4
TYPE F F F F U F
COUNT 1 1 1 1 1 1
WIDTH 950
HEIGHT 1
VIEWPOINT 0 0 0 1 0 0 0
POINTS 950
DATA ascii
2.5823934 -3.1708441 0.07138034 12 8 -0.078903981
2.3019712 -2.8275294 -0.84176683 29 1 -0.078901671
2.8340642 -3.4823453 0.23530249 79 9 -0.078899369
2.2987909 -2.8246305 -0.70790142 1 2 -0.078897066
2.8177469 -3.4635298 0.39063203 80 10 -0.078894764
1.4544991 -1.7884848 -0.36511809 1 3 -0.078892455
2.8074744 -3.4533644 0.54646218 49 11 -0.078890152
1.422215 -1.750035 -0.27688718 1 4 -0.07888785
2.7937794 -3.4389708 0.70176506 79 12 -0.078885548
1.4095485 -1.7350677 -0.19557749 1 5 -0.078883238
2.4740527 -3.0464933 0.7628544 28 13 -0.078880936
1.4048334 -1.7304975 -0.11681387 1 6 -0.078878634
2.4559343 -3.026341 0.89980417 37 14 -0.078876331
1.3895648 -1.712911 -0.038500007 3 7 -0.078874029
2.4518549 -3.0234706 1.0430408 33 15 -0.07887172
2.1371276 -2.6419601 -0.91052544 5 0 -0.078850985
2.3399544 -2.8937311 0.064957857 1 8 -0.078848682
2.2798364 -2.8203924 -0.83726782 29 1 -0.07884638
2.8187342 -3.4870644 0.23498847 81 9 -0.07884407
2.7993796 -3.4655945 0.38976046 84 10 -0.078839466
1.4259094 -1.7658869 -0.35948643 1 3 -0.078837164
2.7779469 -3.4415178 0.54304987 57 11 -0.078834854
1.4385356 -1.7827966 -0.28127447 1 4 -0.078832552
2.7711959 -3.4343808 0.69894928 78 12 -0.07883025
1.4034833 -1.7399774 -0.19557749 1 5 -0.078827947
2.4510803 -3.0398276 0.75903821 27 13 -0.078825645
1.4037979 -1.7416106 -0.11723255 1 6 -0.078823335
2.4453554 -3.0348952 0.89980417 37 14 -0.078821033
1.3788583 -1.7112811 -0.038360391 3 7 -0.078818731
2.432121 -3.0195484 1.0388998 35 15 -0.078816429
2.130312 -2.6524165 -0.91156071 5 0 -0.078795686
2.5432198 -3.1665211 0.070891678 15 8 -0.078793384
2.2619309 -2.8173001 -0.83411849 27 1 -0.078791082
2.7852926 -3.4704027 0.23320904 76 9 -0.07878878
2.7797863 -3.4660194 0.38871458 84 10 -0.078784168
1.4200456 -1.7706058 -0.35948643 1 3 -0.078781866
2.7640357 -3.4476135 0.54256237 57 11 -0.078779563
1.4003385 -1.747283 -0.27493724 1 4 -0.078777261
2.7554855 -3.4394083 0.69801068 79 12 -0.078774951
1.3899285 -1.7355347 -0.19453162 1 5 -0.078772649
2.4397593 -3.046406 0.75865656 26 13 -0.078770347
1.3780432 -1.72131 -0.1155578 3 6 -0.078768045
2.4170136 -3.0201654 0.89305568 36 14 -0.078765735
1.3816208 -1.7270143 -0.038604725 6 7 -0.078763433
2.419153 -3.0250022 1.0378644 35 15 -0.078761131
2.1142764 -2.6504049 -0.9084549 5 0 -0.078740396
2.2591124 -2.8329821 0.063247517 8 8 -0.078738093
2.7557359 -3.458236 0.23174362 76 9 -0.078733481
2.7620707 -3.4674268 0.38784304 89 10 -0.078728877
1.4138564 -1.7755518 -0.35948643 1 3 -0.078726567
2.7346764 -3.4354973 0.53915 37 11 -0.078724265
1.3769264 -1.7304138 -0.27152494 1 4 -0.078721963
2.7213283 -3.4211783 0.692379 79 12 -0.078719661
1.3863417 -1.7434949 -0.19488023 1 5 -0.078717351
2.4230008 -3.0472207 0.7567485 27 13 -0.078715049
1.3695405 -1.7229826 -0.11534845 3 6 -0.078712747
2.3967578 -3.0163782 0.88945645 36 14 -0.078710444
1.370609 -1.7255629 -0.038465101 10 7 -0.078708135
2.3989685 -3.0213246 1.0337234 32 15 -0.078705832
2.0973527 -2.6490488 -0.90534908 6 0 -0.078685097
2.2467272 -2.8377151 0.063177712 9 8 -0.078682795
2.7399306 -3.4631357 0.23142964 78 9 -0.078678183
2.7320437 -3.4556458 0.38540271 85 10 -0.078673579
1.4122384 -1.7869211 -0.36073789 1 3 -0.078671277
2.7054355 -3.423218 0.53573769 21 11 -0.078668967
1.3979509 -1.7694776 -0.27688718 1 4 -0.078666665
2.6983507 -3.4167044 0.68956316 78 12 -0.078664362
1.366667 -1.7311217 -0.1929628 2 5 -0.07866206
2.4045184 -3.0468345 0.75445884 28 13 -0.078659751
1.3780609 -1.7468073 -0.11660452 1 6 -0.078657448
2.3784459 -3.0159612 0.88675708 36 14 -0.078655146
1.3645773 -1.7303367 -0.038465101 6 7 -0.078652844
2.3776433 -3.0160263 1.0290645 34 15 -0.078650534
2.0880933 -2.6563537 -0.90534908 6 0 -0.078629799
2.232605 -2.8412137 0.063072994 11 8 -0.078627497
2.7191887 -3.4616838 0.2306969 73 9 -0.078622892
2.7076631 -3.4494894 0.3836596 89 10 -0.078618281
1.3913593 -1.773191 -0.35698348 2 3 -0.078615978
2.6928709 -3.433111 0.53573769 51 11 -0.078613676
1.3890064 -1.7714654 -0.2763997 1 4 -0.078611366
2.6815326 -3.4198852 0.6883117 77 12 -0.078609064
1.3790526 -1.7594036 -0.19557749 1 5 -0.078606762
2.3817601 -3.0397553 0.75064266 28 13 -0.07860446
1.3768812 -1.7578964 -0.11702321 1 6 -0.07860215
2.3655012 -3.0211766 0.88585728 36 14 -0.078599848
1.3498995 -1.7240682 -0.038220771 6 7 -0.078597546
2.3575759 -3.0121372 1.0249234 35 15 -0.078595243
2.0764308 -2.6605804 -0.9043138 6 0 -0.078574508
2.2059462 -2.8265316 0.062584333 15 8 -0.078572199
2.6997192 -3.4617052 0.23006889 67 9 -0.078567594
2.6870322 -3.4479189 0.38243937 84 10 -0.078562982
1.3806144 -1.7715628 -0.35573202 1 3 -0.07856068
2.688791 -3.4514174 0.53720009 90 11 -0.078558378
1.3758061 -1.7666645 -0.27493724 1 4 -0.078556076
2.6622977 -3.419872 0.68643451 78 12 -0.078553766
1.3533248 -1.7390484 -0.1927885 1 5 -0.078551464
2.3668437 -3.0414395 0.74911612 28 13 -0.078549162
1.3661389 -1.756147 -0.11660452 2 6 -0.078546859
2.3458993 -3.0166974 0.88225806 37 14 -0.078544557
1.352464 -1.7398211 -0.038465101 6 7 -0.078542247
2.3423054 -3.0142465 1.0228529 35 15 -0.078539945
2.0628626 -2.6613438 -0.9022432 5 0 -0.07851921
2.1887176 -2.8247304 0.062374901 11 8 -0.078516908
2.6741683 -3.4537368 0.22891749 49 9 -0.078512296
2.670706 -3.4505081 0.38174215 84 10 -0.078507692
1.4493685 -1.8732358 -0.37512988 1 3 -0.078505382
2.652437 -3.4293778 0.53232533 81 11 -0.07850308
1.3574888 -1.7557517 -0.27249986 1 4 -0.078500777
2.6443043 -3.4213297 0.68487018 74 12 -0.078498475
1.3572978 -1.756138 -0.19418299 1 5 -0.078496173
2.3514116 -3.0434682 0.74758971 22 13 -0.078493863
1.349013 -1.7466786 -0.11566247 3 6 -0.078491561
2.3234458 -3.0094426 0.87775904 36 14 -0.078489259
1.3488265 -1.7476977 -0.038534917 6 7 -0.078486957
2.3246891 -3.0132272 1.0197471 34 15 -0.078484647
2.1800635 -2.8339384 0.062409807 9 8 -0.07846161
2.6489329 -3.4471712 0.38034767 84 10 -0.078452393
1.4428209 -1.8782836 -0.37512988 1 3 -0.078450091
2.6295691 -3.4244459 0.5301317 75 11 -0.078447789
1.3634391 -1.7762262 -0.27493724 1 4 -0.078445479
2.6203198 -3.4148672 0.68174148 74 12 -0.078443177
1.3535851 -1.7640264 -0.19453162 2 5 -0.078440875
2.3336041 -3.0423112 0.74529999 26 13 -0.078438573
1.3453382 -1.7545468 -0.11587181 4 6 -0.078436263
2.3034425 -3.0051613 0.87415981 36 14 -0.078433961
1.3402851 -1.7492205 -0.038465101 6 7 -0.078431658
2.3047593 -3.0090542 1.015606 34 15 -0.078429356
1.5410911 -2.0171223 -0.68017644 1 0 -0.078408621
2.1750128 -2.8478878 0.062549427 9 8 -0.078406312
1.5751389 -2.0631795 -0.59926957 1 1 -0.078404009
2.4803538 -3.250042 0.21426344 4 9 -0.078401707
1.4054646 -1.8415999 -0.45030925 3 2 -0.078399405
2.6235907 -3.4389718 0.37843022 80 10 -0.078397095
1.4362557 -1.8833085 -0.37512988 1 3 -0.078394793
2.6139891 -3.4288678 0.52940047 63 11 -0.078392491
1.3620435 -1.7872905 -0.27591223 1 4 -0.078390189
2.603596 -3.4177079 0.68049002 75 12 -0.078387879
1.3437973 -1.7639859 -0.19400868 2 5 -0.078385577
2.3217807 -3.0488768 0.74491841 33 13 -0.078383274
1.3392056 -1.759232 -0.11587181 3 6 -0.078380972
2.2905784 -3.010082 0.87326002 36 14 -0.078378662
1.330539 -1.7491139 -0.038360391 6 7 -0.07837636
2.2825482 -3.0017033 1.0104296 34 15 -0.078374058
1.5200311 -2.0040193 -0.6739648 1 0 -0.078353323
2.1686833 -2.8602428 0.062654138 5 8 -0.078351021
1.5373223 -2.0282862 -0.58757216 1 1 -0.078348711
2.4388399 -3.2188821 0.21164663 9 9 -0.078346409
1.4523805 -1.916912 -0.46748206 1 2 -0.078344107
2.5947294 -3.4258735 0.37598985 77 10 -0.078341804
1.429673 -1.8883106 -0.37512988 1 3 -0.078339495
2.5900249 -3.4221427 0.52696311 36 11 -0.078337193
1.3462147 -1.7793692 -0.27396232 1 4 -0.07833489
2.5797346 -3.4110198 0.67736137 71 12 -0.078332588
1.3448427 -1.7782004 -0.19505455 3 5 -0.078330278
2.2921803 -3.0319054 0.73881245 33 13 -0.078327976
1.3402818 -1.7734565 -0.11649985 3 6 -0.078325674
2.2741838 -3.0102849 0.87101048 33 14 -0.078323372
1.3183998 -1.7457687 -0.038185868 6 7 -0.078321069
2.2650728 -3.0004015 1.0073237 34 15 -0.07831876
1.5133772 -2.0090487 -0.6739648 1 0 -0.078299999
2.214519 -2.9409015 0.06425976 1 8 -0.078297697
1.4883971 -1.9773228 -0.57137567 1 1 -0.078295395
2.3873229 -3.1726904 0.20808777 1 9 -0.078293085
1.4885111 -1.9781928 -0.4812203 1 2 -0.078290783
2.5809593 -3.4312749 0.37564126 80 10 -0.078288481
1.4234034 -1.8930411 -0.37512988 1 3 -0.078286178
2.5345314 -3.3720002 0.51794475 18 11 -0.078283869
1.3498464 -1.79652 -0.27591223 1 4 -0.078281567
2.5672221 -3.4179764 0.67704844 72 12 -0.078279264
1.337431 -1.7812907 -0.19488023 2 5 -0.078276962
2.2726834 -3.0269301 0.7357595 30 13 -0.078274652
1.3319956 -1.7746966 -0.11629051 3 6 -0.07827235
2.2595108 -3.0115745 0.86921084 33 14 -0.078270048
1.3210021 -1.7613293 -0.038430199 6 7 -0.078267746
2.2458398 -2.9955308 1.0031826 34 15 -0.078265436
1.4886533 -1.9913726 -0.66620022 4 0 -0.078244701
2.180294 -2.9165809 0.063561663 1 8 -0.078242399
1.4779862 -1.977823 -0.57002598 2 1 -0.078240097
2.3499372 -3.1458023 0.20578501 31 9 -0.078237794
1.5070932 -2.0182426 -0.48961592 1 2 -0.078235485
2.5635984 -3.4343247 0.37494397 80 10 -0.078233182
1.4164553 -1.8982456 -0.37512988 1 3 -0.07823088
2.4859431 -3.3315067 0.51038885 13 11 -0.078228578
1.3316982 -1.785309 -0.27347484 1 4 -0.078226268
2.549372 -3.4189987 0.67548412 75 12 -0.078223966
1.3300142 -1.784351 -0.19470593 2 5 -0.078221664
2.256882 -3.0289423 0.73423308 31 13 -0.078219362
1.3207099 -1.7731595 -0.11587181 3 6 -0.078217052
2.2321644 -2.9979529 0.86291224 33 14 -0.07821475
1.3243997 -1.7787613 -0.038709439 7 7 -0.078212447
2.2330627 -3.0002527 1.0021474 34 15 -0.078210145
1.4886007 -2.0058649 -0.6693061 2 0 -0.07818941
2.1755464 -2.9325826 0.063736185 9 8 -0.078187101
1.4788527 -1.9941839 -0.57317531 1 1 -0.078184798
2.3377523 -3.1523817 0.20568034 34 9 -0.078182496
1.5397906 -2.0771141 -0.50259089 1 2 -0.078180194
2.5444775 -3.4336481 0.37389815 80 10 -0.078177884
1.4098207 -1.9031781 -0.37512988 1 3 -0.078175582
2.4796226 -3.3485723 0.51160759 39 11 -0.07817328
1.332232 -1.799751 -0.27493724 1 4 -0.078170978
2.5268443 -3.4135876 0.67266828 78 12 -0.078168668
1.3332584 -1.8017954 -0.19610041 2 5 -0.078166366
2.2462952 -3.0368018 0.73423308 31 13 -0.078164063
1.321637 -1.7873945 -0.11649985 4 6 -0.078161761
2.214736 -2.9963236 0.8602128 34 14 -0.078159459
1.3039191 -1.7640764 -0.038290579 8 7 -0.078157149
2.2214284 -3.0064754 1.0016297 32 15 -0.078154847
1.487319 -2.0188255 -0.67189431 1 0 -0.078134112
2.1836011 -2.9639301 0.06425976 1 8 -0.07813181
1.5161445 -2.0587041 -0.59027153 1 1 -0.0781295
2.3172617 -3.1476555 0.20484295 34 9 -0.078127198
2.5277536 -3.4360895 0.37320086 85 10 -0.078122593
1.3800905 -1.8760192 -0.36887249 1 3 -0.078120284
2.4649765 -3.3519788 0.51087636 34 11 -0.078117982
1.3262564 -1.804159 -0.27493724 1 4 -0.078115679
2.4903488 -3.3889592 0.66609806 79 12 -0.078113377
1.3222431 -1.8000156 -0.19540317 3 5 -0.078111075
2.2315633 -3.037905 0.73270655 31 13 -0.078108765
1.3109741 -1.785328 -0.11608116 4 6 -0.078106463
2.1967158 -2.992655 0.85706353 36 14 -0.078104161
1.2953873 -1.7653928 -0.038220771 7 7 -0.078101858
2.1926391 -2.9892876 0.99334759 32 15 -0.078099549
1.460084 -1.9956822 -0.66257679 1 0 -0.078078814
2.1614373 -2.9553933 0.063910715 1 8 -0.078076512
1.5319512 -2.0954468 -0.59926957 1 1 -0.078074209
2.3027248 -3.1508875 0.20452894 31 9 -0.0780719
2.499891 -3.4219294 0.37076053 89 10 -0.078067295
1.3688737 -1.874444 -0.36762103 1 3 -0.078064993
2.4462383 -3.3509431 0.5094139 10 11 -0.078062691
1.3199506 -1.8087775 -0.27493724 1 4 -0.078060381
2.4761755 -3.3944395 0.66547227 83 12 -0.078058079
1.3186151 -1.8076096 -0.19575179 2 5 -0.078055777
2.2070644 -3.0266407 0.72812718 33 13 -0.078053474
1.30944 -1.796349 -0.11649985 4 6 -0.078051165
2.1862559 -3.0003045 0.85706353 36 14 -0.078048863
1.2939266 -1.7763692 -0.038360391 6 7 -0.07804656
2.1719565 -2.9828677 0.98868877 34 15 -0.078044258
1.9787256 -2.7244813 -0.9022432 8 0 -0.078023516
2.191052 -3.0179389 0.065097481 1 8 -0.078021213
1.983618 -2.7332242 -0.77968031 29 1 -0.078018911
2.279984 -3.1427398 0.20348223 1 9 -0.078016609
2.484422 -3.425796 0.37023759 86 10 -0.078011997
1.3901484 -1.9175947 -0.37512988 1 3 -0.078009695
2.413559 -3.3305283 0.50502658 10 11 -0.078007393
1.3206164 -1.8230196 -0.2763997 1 4 -0.07800509
2.458519 -3.3950629 0.663908 82 12 -0.078002781
1.2982745 -1.7928369 -0.19366007 2 5 -0.078000478
2.1838229 -3.0168328 0.72392935 34 13 -0.077998176
1.3055032 -1.8041451 -0.11670919 4 6 -0.077995874
2.1689169 -2.9984438 0.8543641 33 14 -0.077993564
1.2888898 -1.7824953 -0.038395293 1 7 -0.077991262
2.1581361 -2.9857342 0.98713589 32 15 -0.07798896
1.9793711 -2.7454755 -0.90690196 9 0 -0.077968225
2.1208763 -2.9428322 0.063317336 8 8 -0.077965923
1.9660916 -2.7290637 -0.77653104 38 1 -0.077963613
2.2736685 -3.1571622 0.2039009 1 9 -0.077961311
1.3962749 -1.9388343 -0.46442911 1 2 -0.077959009
2.4643002 -3.4231288 0.36901742 89 10 -0.077956706
1.3834461 -1.9224354 -0.37512988 1 3 -0.077954397
2.362505 -3.2841432 0.49673948 39 11 -0.077952094
1.307291 -1.8179482 -0.27493724 1 4 -0.077949792
2.437429 -3.3907919 0.66140497 82 12 -0.07794749
1.2920084 -1.7973577 -0.19366007 2 5 -0.07794518
2.166405 -3.0148714 0.72163963 34 13 -0.077942878
1.2945372 -1.8022026 -0.11629051 4 6 -0.077940576
2.1516175 -2.9964991 0.85166472 34 14 -0.077938274
2.1443219 -2.9885404 0.98558295 34 15 -0.077933662
1.9664026 -2.7476554 -0.90534908 14 0 -0.077912927
2.1071005 -2.9453382 0.063212618 5 8 -0.077910624
1.9474847 -2.7232292 -0.77293181 34 1 -0.077908322
2.2486959 -3.1455822 0.20264484 1 9 -0.077906013
1.3666637 -1.9117539 -0.45679674 1 2 -0.07790371
2.4442272 -3.4203625 0.36779723 94 10 -0.077901408
1.3767273 -1.9272529 -0.37512988 1 3 -0.077899106
2.3510268 -3.2923696 0.49673948 69 11 -0.077896796
1.2894039 -1.8063436 -0.27249986 1 4 -0.077894494
2.4198411 -3.3912399 0.6598407 86 12 -0.077892192
1.3030856 -1.8261843 -0.19627473 2 5 -0.077889889
2.1592882 -3.0272102 0.72278452 30 13 -0.07788758
1.2836001 -1.8002055 -0.11587181 5 6 -0.077885278
2.1275713 -2.9849486 0.84626585 34 14 -0.077882975
2.1293943 -2.9897132 0.9835124 34 15 -0.077878371
1.9478489 -2.7419033 -0.90120792 16 0 -0.077857628
2.1083846 -2.9689796 0.063561663 2 8 -0.077855326
1.9368391 -2.7284217 -0.77248192 37 1 -0.077853024
2.2215202 -3.1306088 0.20117943 1 9 -0.077850722
1.3827053 -1.9485348 -0.46442911 1 2 -0.077848412
2.4115241 -3.3996224 0.36465961 63 10 -0.07784611
1.3699914 -1.9320469 -0.37512988 1 3 -0.077843808
2.3418159 -3.3037956 0.49722698 90 11 -0.077841505
1.3014535 -1.836749 -0.2763997 1 4 -0.077839196
2.3931456 -3.37871 0.6557734 77 12 -0.077836893
1.2920967 -1.8242184 -0.19557749 1 5 -0.077834591
2.1521118 -3.039536 0.72392935 16 13 -0.077832289
1.288847 -1.8209776 -0.11691854 3 6 -0.077829987
2.114888 -2.9891756 0.84536606 34 14 -0.077827677
2.1100233 -2.9845083 0.97937131 34 15 -0.077823073
1.9360396 -2.7455282 -0.90017265 16 0 -0.077802338
2.1648309 -3.0711188 0.065586142 9 8 -0.077800028
1.9228132 -2.7287936 -0.77068228 33 1 -0.077797726
2.2013776 -3.1252813 0.20034206 1 9 -0.077795424
1.9558741 -2.7767417 -0.66019917 30 2 -0.077793121
1.363239 -1.9368172 -0.37512988 1 3 -0.077788509
2.3291266 -3.3103263 0.4969832 93 11 -0.077786207
1.2927502 -1.8380332 -0.27591223 1 4 -0.077783905
2.3802009 -3.385427 0.65546048 79 12 -0.077781603
1.2765538 -1.8156785 -0.19418299 2 5 -0.077779293
2.1482618 -3.0566671 0.72621906 6 13 -0.077776991
1.2893715 -1.8352709 -0.11754657 3 6 -0.077774689
2.0999613 -2.9901607 0.84356648 5 14 -0.077772386
1.8601965 -2.64974 -0.056510892 12 7 -0.077770077
2.0907147 -2.9792051 0.97523022 34 15 -0.077767774
1.9253362 -2.7506866 -0.89965498 25 0 -0.077747039
2.2068322 -3.1540258 0.067191765 45 8 -0.077744737
1.8976395 -2.7131324 -0.76438367 28 1 -0.077742428
2.1978703 -3.1423843 0.20097008 1 9 -0.077740125
1.9495445 -2.788379 -0.66134399 40 2 -0.077737823
2.2530506 -3.2236733 0.34409088 1 10 -0.077735521
1.35647 -1.941564 -0.37512988 1 3 -0.077733219
2.3039181 -3.2989066 0.49405837 85 11 -0.077730909
1.2934676 -1.8520749 -0.27737463 1 4 -0.077728607
2.3599155 -3.3803439 0.65295756 79 12 -0.077726305
1.28047 -1.8348283 -0.19575179 2 5 -0.077724002
2.1959889 -3.147876 0.74606317 4 13 -0.077721693
1.2726755 -1.8250164 -0.11660452 2 6 -0.07771939
2.0844605 -2.9891155 0.84131694 34 14 -0.077717088
1.8376768 -2.6362085 -0.056092035 45 7 -0.077714786
2.076406 -2.9797819 0.97315967 39 15 -0.077712476
1.9128965 -2.7522972 -0.89810216 36 0 -0.077691741
2.1860921 -3.1465464 0.066877626 22 8 -0.077689439
1.8886322 -2.7194102 -0.76438367 34 1 -0.077687137
2.1555376 -3.1037228 0.19803928 1 9 -0.077684835
1.9369283 -2.7899904 -0.66019917 41 2 -0.077682525
2.2037261 -3.1754744 0.33816427 1 10 -0.077680223
1.350024 -1.9460516 -0.37512988 1 3 -0.07767792
2.2771287 -3.2836912 0.490646 72 11 -0.077675618
1.2873187 -1.856354 -0.27737463 1 4 -0.077673309
2.3441908 -3.3816571 0.6517061 79 12 -0.077671006
1.2721089 -1.8357891 -0.19540317 2 5 -0.077668704
2.2459061 -3.2422903 0.76667058 4 13 -0.077666402
1.2643427 -1.8259426 -0.11639518 2 6 -0.077664092
2.0623336 -2.9783878 0.83636802 35 14 -0.07766179
1.817544 -2.6258457 -0.055742987 43 7 -0.077659488
2.0599179 -2.977119 0.97005379 36 15 -0.077657185
1.8949809 -2.7459059 -0.89396101 36 0 -0.077636451
2.1461227 -3.1109817 0.0659701 4 8 -0.077634141
1.8718596 -2.7144282 -0.76123434 31 1 -0.077631839
2.1378889 -3.1013618 0.19741124 1 9 -0.077629536
1.9209803 -2.7866998 -0.65790945 42 2 -0.077627234
2.211272 -3.2090147 0.34095326 1 10 -0.077624924
1.3435633 -1.9505177 -0.37512988 1 3 -0.077622622
2.2673533 -3.2928593 0.49088979 76 11 -0.07762032
1.274078 -1.8510252 -0.27591223 1 4 -0.077618018
2.3234148 -3.3768003 0.64920312 79 12 -0.077615708
1.2727904 -1.8498458 -0.19644904 2 5 -0.077613406
2.2573926 -3.2820718 0.7743029 4 13 -0.077611104
1.26507 -1.8399999 -0.11702321 2 6 -0.077608801
2.0375755 -2.9646904 0.83051926 41 14 -0.077606492
1.7970434 -2.6156921 -0.055393942 44 7 -0.07760419
2.0396702 -2.9699595 0.96539509 39 15 -0.077601887
1.8744671 -2.7365656 -0.88878465 42 0 -0.077581152
2.146548 -3.134954 0.066319145 5 8 -0.07757885
1.8557689 -2.7112973 -0.75853497 36 1 -0.07757654
2.1360726 -3.1219923 0.19824862 13 9 -0.077574238
1.9045894 -2.7836664 -0.65561974 42 2 -0.077571936
2.1820605 -3.1904008 0.33816427 6 10 -0.077569634
1.3367465 -1.9551957 -0.37512988 1 3 -0.077567324
2.2188823 -3.2466698 0.48284638 13 11 -0.077565022
1.267609 -1.8554614 -0.27591223 5 4 -0.07756272
2.3038151 -3.373471 0.64701301 82 12 -0.077560417
1.2652018 -1.8526319 -0.19627473 1 5 -0.077558108
2.2459226 -3.2899315 0.7743029 6 13 -0.077555805
2.0283127 -2.9733946 0.83096921 38 14 -0.077551201
1.7845222 -2.6169925 -0.055289224 50 7 -0.077548899
2.0184102 -2.961098 0.96021873 39 15 -0.077546589
1.8486115 -2.7191279 -0.88102001 39 0 -0.077525854
2.1299717 -3.1341581 0.066144623 6 8 -0.077523552
2.1217954 -3.1244729 0.1979346 36 9 -0.07751894
1.891066 -2.7857554 -0.65447485 45 2 -0.077516638
2.1697917 -3.1963501 0.33798996 31 10 -0.077514336
1.3299135 -1.95985 -0.37512988 1 3 -0.077512033
2.1997354 -3.2428958 0.4811402 13 11 -0.077509724
1.2622384 -1.8615175 -0.27615595 3 4 -0.077507421
2.2853758 -3.3716815 0.64513582 78 12 -0.077505119
1.2528152 -1.8490098 -0.19540317 2 5 -0.077502817
2.2360511 -3.3013926 0.7750662 6 13 -0.077500515
2.0146434 -2.9756155 0.82961947 34 14 -0.077495903
1.7753762 -2.6232054 -0.055289224 51 7 -0.077493601
2.0015666 -2.9585252 0.95711285 37 15 -0.077491298
1.8418735 -2.7306898 -0.88257295 33 0 -0.077470556
2.1106446 -3.130338 0.065900289 2 8 -0.077468254
1.2960978 -1.9229914 -0.53538352 1 1 -0.077465951
2.1114454 -3.1338851 0.19803928 37 9 -0.077463649
1.8819396 -2.794296 -0.6548565 39 2 -0.077461347
2.1558359 -3.2009759 0.33764133 58 10 -0.077459037
2.1667767 -3.2196457 0.47650915 26 11 -0.077454433
1.2609473 -1.8743669 -0.27737463 1 4 -0.077452131
2.2719004 -3.3783963 0.64482296 83 12 -0.077449821
1.2515874 -1.8618566 -0.19627473 2 5 -0.077447519
2.2151761 -3.2965293 0.77201319 7 13 -0.077445216
2.1560693 -3.2097795 -0.20264484 1 6 -0.077442914
1.9972037 -2.9732738 0.82692009 41 14 -0.077440605
1.7657497 -2.6296952 -0.055289224 51 7 -0.077438302
1.9864031 -2.959425 0.9550423 34 15 -0.077436
1.824332 -2.7261834 -0.87894952 33 0 -0.077415265
2.0913744 -3.1264179 0.065655954 9 8 -0.077412963
1.2977067 -1.9406886 -0.53898275 1 1 -0.077410653
2.0860608 -3.1196527 0.19667853 36 9 -0.077408351
1.8667192 -2.7926872 -0.65294844 37 2 -0.077406049
2.1407685 -3.2038865 0.33711842 13 10 -0.077403747
1.3155113 -1.969546 -0.37512988 1 3 -0.077401437
2.1549613 -3.2275658 0.47650915 41 11 -0.077399135
1.2474571 -1.8690692 -0.27591223 1 4 -0.077396832
2.2568038 -3.3813763 0.64388436 82 12 -0.07739453
1.280465 -1.9192504 -0.20185271 1 5 -0.07739222
2.2112808 -3.3156755 0.77468461 7 13 -0.077389918
2.1238022 -3.1857114 -0.20065607 30 6 -0.077387616
1.9808894 -2.9724655 0.82467055 38 14 -0.077385314
1.7521238 -2.6291864 -0.055149604 51 7 -0.077383004
1.9717765 -2.9599102 0.95297176 34 15 -0.077380702
1.8073233 -2.7212703 -0.87532604 30 0 -0.077359967
2.0787828 -3.1300044 0.065586142 1 8 -0.077357665
1.7827634 -2.6853077 -0.74413806 21 1 -0.077355362
2.0641143 -3.1102741 0.19563182 15 9 -0.077353053
1.8395946 -2.7730105 -0.64684254 11 2 -0.077350751
2.1537967 -3.2478697 0.34095326 4 10 -0.077348448
2.1508274 -3.2446218 0.47797161 34 11 -0.077343836
1.2609894 -1.9029813 -0.28029951 1 4 -0.077341534
2.2308056 -3.3678246 0.63981706 86 12 -0.077339232
2.2067766 -3.3328116 0.77697426 9 13 -0.07733462
2.1033051 -3.1777475 -0.19971403 33 6 -0.077332318
1.9624193 -2.9660163 0.82107133 39 14 -0.077330016
1.7319043 -2.6186075 -0.054800555 52 7 -0.077327713
1.960367 -2.9651632 0.95245409 37 15 -0.077325404
1.7802106 -2.699831 -0.86652619 33 0 -0.077304669
2.0678442 -3.1372416 0.065586142 1 8 -0.077302366
1.7744513 -2.6931417 -0.74458802 30 1 -0.077300064
2.0455551 -3.1057842 0.19489913 1 9 -0.077297762
2.1484923 -3.2633147 0.34182483 3 10 -0.07729315
2.1416705 -3.2554264 0.47845906 34 11 -0.077288546
2.2092702 -3.3607354 0.63700122 89 12 -0.077283934
2.1254191 -3.2331815 -0.3385129 1 5 -0.077281632
2.1778789 -3.3142428 0.77086836 7 13 -0.077279329
2.0900071 -3.1817312 -0.19950469 33 6 -0.07727702
1.9499147 -2.9695907 0.82017154 39 14 -0.077274717
1.7161696 -2.6146066 -0.05459113 51 7 -0.077272415
1.9394068 -2.9558361 0.94727772 36 15 -0.077270113
1.7559661 -2.6833978 -0.85927927 33 0 -0.077249378
2.0568807 -3.1444404 0.065586142 2 8 -0.077247068
1.7586408 -2.6895332 -0.74188858 32 1 -0.077244766
2.0303304 -3.1062183 0.19448043 1 9 -0.077242464
1.3072352 -1.9999493 -0.46442911 1 2 -0.077240162
2.1610634 -3.3074887 0.34565967 4 10 -0.077237852
2.150913 -3.2944641 0.48309013 16 11 -0.077233247
2.1910496 -3.3585 0.63512403 89 12 -0.077228636
2.0738409 -3.1788394 -0.33206338 19 5 -0.077226333
2.1727314 -3.3316915 0.77315807 9 13 -0.077224031
2.0767064 -3.1856608 -0.19929534 35 6 -0.077221729
1.9352812 -2.9698484 0.81837195 39 14 -0.077219427
1.7026664 -2.613879 -0.054451507 52 7 -0.077217117
1.9238065 -2.9544933 0.94468951 37 15 -0.077214815
1.7413278 -2.6814098 -0.85669106 34 0 -0.07719408
2.0317371 -3.1297965 0.06513238 2 8 -0.077191778
1.7460594 -2.6907516 -0.74053884 31 1 -0.077189468
2.0265419 -3.1229868 0.19510846 6 9 -0.077187166
2.1722686 -3.3501179 0.34932023 11 10 -0.077182561
2.1318445 -3.2902904 0.48138395 11 11 -0.077177949
2.1777525 -3.3624313 0.6344983 89 12 -0.077173345
2.0551527 -3.1743517 -0.33084321 35 5 -0.077171043
2.1461549 -3.3161809 0.76781541 9 13 -0.077168733
2.0579796 -3.1811521 -0.19856264 36 6 -0.077166431
1.9243637 -2.9746134 0.81792206 27 14 -0.077164128
1.6918173 -2.6161525 -0.054381698 51 7 -0.077161826
1.9108523 -2.9559898 0.94313669 37 15 -0.077159517
1.7292863 -2.6822987 -0.85513818 33 0 -0.077138782
2.0137649 -3.1247506 0.064888045 8 8 -0.077136479
1.7286841 -2.6834211 -0.73693967 36 1 -0.077134177
2.0064397 -3.1145785 0.19416642 3 9 -0.077131875
2.1665392 -3.3656795 0.35019177 91 10 -0.077127263
2.0940745 -3.2556031 0.47529048 15 11 -0.077122658
2.1612487 -3.3613267 0.63293391 83 12 -0.077118047
2.0424602 -3.1777973 -0.33049458 35 5 -0.077115744
2.1319628 -3.3183243 0.76667058 10 13 -0.077113442
2.035547 -3.1694734 -0.19741124 38 6 -0.077111132
1.8934276 -2.9481845 0.80892402 11 14 -0.07710883
1.6831325 -2.6217484 -0.054381698 51 7 -0.077106528
1.8989522 -2.959058 0.94210136 37 15 -0.077104226
1.720382 -2.6880181 -0.85513818 39 0 -0.077083491
2.0206342 -3.1583631 0.065446526 2 8 -0.077081181
1.7155765 -2.6825716 -0.73514003 38 1 -0.077078879
2.018698 -3.1565495 0.19636452 1 9 -0.077076577
1.3080724 -2.0461624 -0.47206149 1 2 -0.077074274
2.1671677 -3.3913131 0.35210916 95 10 -0.077071965
2.0854034 -3.2658758 0.47577798 6 11 -0.07706736
2.1383994 -3.3501592 0.62949234 82 12 -0.077062748
2.0297675 -3.1811936 -0.33014596 35 5 -0.077060446
2.1230586 -3.3286865 0.76743382 10 13 -0.077058144
2.0153623 -3.1610491 -0.1964692 16 6 -0.077055842
1.8721167 -2.9363718 0.80397505 21 14 -0.077053532
1.6636821 -2.6104519 -0.05403265 51 7 -0.07705123
1.8818634 -2.953934 0.93847787 40 15 -0.077048928
1.7010987 -2.6774027 -0.84996176 40 0 -0.077028193
2.0262311 -3.1903667 0.0659701 4 8 -0.07702589
1.7024934 -2.6816654 -0.73334044 39 1 -0.077023581
2.0135717 -3.1716571 0.19688788 6 9 -0.077021278
1.7483648 -2.7549818 -0.63424915 5 2 -0.077018976
2.1420352 -3.37661 0.34984317 91 10 -0.077016674
1.6682727 -2.6308067 -0.49339435 2 3 -0.077014364
2.0596833 -3.2493002 0.47236562 9 11 -0.077012062
2.1198769 -3.345552 0.62730229 86 12 -0.077007458
1.6567308 -2.6156323 -0.27088004 13 5 -0.077005148
2.1099079 -3.332391 0.76667058 10 13 -0.077002846
1.6577282 -2.6192293 -0.16245082 33 6 -0.077000543
1.8623689 -2.942564 0.80397505 27 14 -0.076998241
1.644325 -2.5990558 -0.053683605 51 7 -0.076995939
1.8658621 -2.9503615 0.93537205 39 15 -0.076993629
1.6949245 -2.6904528 -0.8520323 40 0 -0.076975346
2.0129001 -3.1964309 0.065935194 4 8 -0.076973043
1.685955 -2.6782875 -0.73064101 39 1 -0.076970741
2.0167792 -3.2050712 0.19845797 9 9 -0.076968431
1.7043147 -2.7085018 -0.62203735 23 2 -0.076966129
2.1184464 -3.3679445 0.34810004 84 10 -0.076963827
1.6623647 -2.6438823 -0.49464583 41 3 -0.076961525
2.0450788 -3.2538238 0.47187814 15 11 -0.076959215
2.1001263 -3.3439972 0.62542504 79 12 -0.076954611
1.6498541 -2.6270361 -0.27140298 41 5 -0.076952308
2.087702 -3.3255029 0.76323599 12 13 -0.076949999
1.6465974 -2.6238837 -0.16234615 38 6 -0.076947697
1.8536485 -2.9549687 0.80532479 37 14 -0.076945394
1.6296291 -2.5988586 -0.053543981 51 7 -0.076943092
1.8427176 -2.9398222 0.92967808 43 15 -0.076940782
1.6517303 -2.6422946 -0.83495027 33 0 -0.076920047
1.9953722 -3.1932628 0.065725766 16 8 -0.076917745
1.6414946 -2.6279609 -0.71534431 40 1 -0.076915443
1.9992322 -3.2019267 0.19782993 28 9 -0.076913141
1.6459798 -2.6361654 -0.6041013 40 2 -0.076910831
2.1024573 -3.3685582 0.34740278 84 10 -0.076908529
1.6426699 -2.6329095 -0.49151716 46 3 -0.076906227
2.0305572 -3.2558894 0.47114691 2 11 -0.076903924
2.0884407 -3.3513079 0.62542504 83 12 -0.076899312
1.6301364 -2.61587 -0.26965985 47 5 -0.07689701
2.0791953 -3.3377695 0.76438087 13 13 -0.076894708
1.6247596 -2.6092701 -0.16109009 32 6 -0.076892398
1.8422925 -2.9597666 0.80487484 38 14 -0.076890096
1.6226603 -2.6079271 -0.053613789 51 7 -0.076887794
1.8334646 -2.9478772 0.93019569 42 15 -0.076885492
1.6343504 -2.6349108 -0.83080912 42 0 -0.076864757
1.9894826 -3.2087059 0.065900289 30 8 -0.076862447
1.6271782 -2.6253929 -0.71309483 47 1 -0.076860145
1.9848874 -3.2037923 0.19751592 21 9 -0.076857843
1.6336658 -2.636888 -0.60295647 48 2 -0.07685554
2.0875387 -3.3707948 0.34687987 81 10 -0.076853231
1.6241114 -2.6235113 -0.48870131 45 3 -0.076850928
1.9941094 -3.2224448 0.46529719 1 11 -0.076848626
2.0725741 -3.3518569 0.62417358 83 12 -0.076844014
1.616348 -2.6150479 -0.26896262 45 5 -0.076841712
2.064435 -3.3399966 0.76323599 16 13 -0.07683941
1.6061937 -2.5996337 -0.16014804 34 6 -0.076837108
1.8206857 -2.9479415 0.79992598 40 14 -0.076834805
1.6114461 -2.610172 -0.053543981 51 7 -0.076832496
1.8221488 -2.9526153 0.92967808 43 15 -0.076830193
1.6216457 -2.635947 -0.8292563 43 0 -0.076809458
1.9761742 -3.2122247 0.065830477 42 8 -0.076807156
1.6139207 -2.6244171 -0.71129525 42 1 -0.076804847
1.9695083 -3.2038956 0.19709724 19 9 -0.076802544
1.6116562 -2.622786 -0.59837705 38 2 -0.076800242
2.0741274 -3.3767259 0.34670553 84 10 -0.07679794
1.6000142 -2.6058788 -0.48432118 42 3 -0.07679563
2.0015452 -3.259836 0.46968448 1 11 -0.076793328
2.0505316 -3.3422337 0.62104493 79 12 -0.076788723
1.5884609 -2.5901024 -0.265825 40 5 -0.076786421
2.0439711 -3.3341508 0.7601831 16 13 -0.076784112
1.5987413 -2.6089094 -0.16035739 33 6 -0.076781809
1.7996898 -2.9379773 0.79542696 40 14 -0.076779507
1.5897907 -2.595319 -0.053125124 49 7 -0.076777205
1.8027518 -2.9441302 0.92501926 42 15 -0.076774895
1.6043825 -2.6284001 -0.82511514 40 0 -0.07675416
1.9570965 -3.2074971 0.065586142 34 8 -0.076751858
1.586026 -2.6003678 -0.703197 37 1 -0.076749556
1.952073 -3.20052 0.1964692 19 9 -0.076747246
1.5779634 -2.5881648 -0.5892182 39 2 -0.076744944
2.0498853 -3.3635294 0.34461379 84 10 -0.076742642
1.5867975 -2.6047003 -0.48306966 45 3 -0.076740339
1.9730642 -3.2400229 0.46578467 1 11 -0.076738037
2.0285811 -3.3324978 0.61791623 79 12 -0.076733425
1.5690533 -2.5786111 -0.2640819 40 5 -0.076731123
2.0343606 -3.34462 0.76094633 22 13 -0.076728821
1.5844371 -2.6059411 -0.15983403 32 6 -0.076726511
1.7924596 -2.9492371 0.79677659 37 14 -0.076724209
1.5765674 -2.5940173 -0.052985508 49 7 -0.076721907
1.786446 -2.9404986 0.9219135 40 15 -0.076719604
1.5831887 -2.6141551 -0.81890345 44 0 -0.076698862
1.9391979 -3.2019963 0.065341808 37 8 -0.07669656
1.5763848 -2.603946 -0.70274711 39 1 -0.076694258
1.938821 -3.203897 0.19625986 19 9 -0.076691955
1.5668871 -2.5902977 -0.58845496 41 2 -0.076689653
2.0309153 -3.3587298 0.34339362 81 10 -0.076687343
1.5658857 -2.5896633 -0.47931525 43 3 -0.076685041
1.9284232 -3.1904848 0.45774129 2 11 -0.076682739
1.5716525 -2.6012499 -0.37316394 2 4 -0.076680437
2.0148935 -3.3361766 0.61729044 83 12 -0.076678127
1.5559238 -2.5772493 -0.26338464 41 5 -0.076675825
2.0080385 -3.3261368 0.75522202 27 13 -0.076673523
1.5737227 -2.6077609 -0.15962468 32 6 -0.07667122
1.77663 -2.9451535 0.79407722 38 14 -0.076668911
1.5633724 -2.5926549 -0.052845888 51 7 -0.076666608
1.7691895 -2.9351349 0.91829002 43 15 -0.076664306
1.5914307 -2.6475387 -0.82770336 34 0 -0.076643571
1.9197696 -3.1950333 0.065062575 37 8 -0.076641269
1.5572517 -2.5927269 -0.69824809 40 1 -0.076638959
1.9220154 -3.2000358 0.19563182 25 9 -0.076636657
1.5582887 -2.5954795 -0.58845496 41 2 -0.076634355
2.0177157 -3.3620291 0.343045 79 10 -0.076632053
1.5487071 -2.5815618 -0.4768123 45 3 -0.076629743
1.9101281 -3.1852798 0.45603511 8 11 -0.076627441
1.5646039 -2.6101255 -0.37365144 48 4 -0.076625139
2.0007727 -3.3377569 0.6163519 82 12 -0.076622836
1.5514652 -2.5892315 -0.2640819 40 5 -0.076620527
1.9933892 -3.3280733 0.7540772 30 13 -0.076618224
1.5605063 -2.606384 -0.15920599 32 6 -0.076615922
1.7623355 -2.9446483 0.79227757 37 14 -0.07661362
1.5547661 -2.5978251 -0.052845888 49 7 -0.07661131
1.7564713 -2.9360118 0.91673708 42 15 -0.076609008
1.5712953 -2.6348262 -0.82200933 33 0 -0.076588273
1.9112127 -3.2048166 0.06513238 46 8 -0.076585971
1.5436565 -2.5895073 -0.69599855 42 1 -0.076583669
1.9016321 -3.1912839 0.19468978 37 9 -0.076581359
1.5492194 -2.600903 -0.58845496 39 2 -0.076579057
1.9978135 -3.3553567 0.34165049 81 10 -0.076576754
1.5421588 -2.5900781 -0.47743803 43 3 -0.076574452
1.8904175 -3.1762443 0.45384148 12 11 -0.076572143
1.5437603 -2.5948277 -0.37072656 42 4 -0.07656984
1.9901191 -3.3464184 0.61666471 83 12 -0.076567538
1.538345 -2.5877805 -0.26338464 41 5 -0.076565236
1.9813389 -3.3329778 0.75369561 34 13 -0.076562926
1.5416522 -2.5943744 -0.15815927 31 6 -0.076560624
1.7445997 -2.9370728 0.78867841 36 14 -0.076558322
1.5416051 -2.5963585 -0.052706268 49 7 -0.076556019
1.745226 -2.940464 0.91621947 43 15 -0.076553717
1.5595973 -2.635035 -0.82045639 34 0 -0.076532975
1.9030687 -3.2166317 0.065237097 35 8 -0.076530673
1.5316319 -2.5898476 -0.69464886 43 1 -0.07652837
1.8975953 -3.2099376 0.19542249 36 9 -0.076526068
1.5325929 -2.5925062 -0.58540201 42 2 -0.076523758
1.9866761 -3.361963 0.34165049 81 10 -0.076521456
1.531099 -2.5920439 -0.4768123 43 3 -0.076519154
1.8803279 -3.1845329 0.4540852 16 11 -0.076516852
1.5266216 -2.5865242 -0.36877668 42 4 -0.076514542
1.9703957 -3.3397341 0.61416179 86 12 -0.07651224
1.5257055 -2.5860038 -0.26268741 41 5 -0.076509938
1.9706897 -3.3415647 0.7540772 39 13 -0.076507635
1.5325867 -2.59974 -0.15815927 31 6 -0.076505333
1.7274112 -2.9313922 0.78552908 40 14 -0.076503024
1.5244132 -2.5879397 -0.052427031 51 7 -0.076500721
1.7329907 -2.9432089 0.9151842 43 15 -0.076498419
1.5347391 -2.6138086 -0.8121742 36 0 -0.076477684
1.8979021 -3.2336028 0.065446526 39 8 -0.076475374
1.5225822 -2.5951784 -0.69464886 46 1 -0.076473072
1.8914315 -3.2251558 0.19594584 40 9 -0.07647077
1.5165821 -2.5859852 -0.58273071 43 2 -0.076468468
1.9648522 -3.3516891 0.33990738 87 10 -0.076466158
1.5200447 -2.5939639 -0.47618657 46 3 -0.076463856
1.8631806 -3.1807997 0.45262277 39 11 -0.076461554
1.5175836 -2.5918376 -0.36877668 42 4 -0.076459251
1.9487474 -3.3295436 0.61103308 86 12 -0.076456949
1.5106307 -2.5809968 -0.26164153 41 5 -0.076454639
1.951082 -3.334867 0.75102425 39 13 -0.076452337
1.5214859 -2.6016259 -0.15794992 32 6 -0.076450035
1.7181517 -2.9390864 0.78597897 38 14 -0.076447733
1.5113345 -2.5863392 -0.052287407 51 7 -0.076445423
1.7129626 -2.932559 0.91000783 43 15 -0.076443121
1.5110204 -2.5941098 -0.80440962 40 0 -0.076422386
1.8896221 -3.2453921 0.065551244 33 8 -0.076420084
1.5115535 -2.5971091 -0.69374907 43 1 -0.076417774
1.889201 -3.2472756 0.19688788 31 9 -0.076415472
1.5085334 -2.5929606 -0.58311236 42 2 -0.07641317
1.9471312 -3.3481936 0.33886153 93 10 -0.076410867
1.501053 -2.5821762 -0.4730579 46 3 -0.076408565
1.8470795 -3.1787024 0.45140409 34 11 -0.076406255
1.5065328 -2.5936859 -0.36828917 42 4 -0.076403953
1.9331461 -3.3294921 0.60978162 86 12 -0.076401651
1.4946095 -2.5741928 -0.26042137 30 5 -0.076399349
1.9335167 -3.3314693 0.74873453 45 13 -0.076397039
1.510391 -2.6034658 -0.15774059 32 6 -0.076394737
1.7078818 -2.9450662 0.78597897 37 14 -0.076392435
1.4962802 -2.5812187 -0.052077983 51 7 -0.076390132
1.6949672 -2.9251485 0.90586674 41 15 -0.076387823
1.5009897 -2.5976961 -0.80389202 42 0 -0.076367088
1.8892837 -3.2710159 0.065935194 26 8 -0.076364785
1.4985812 -2.595619 -0.69194949 46 1 -0.076362483
1.8978208 -3.2884476 0.19898133 27 9 -0.076360181
1.4965289 -2.5931091 -0.58196747 43 2 -0.076357871
1.9334404 -3.3515184 0.3385129 87 10 -0.076355569
1.4880832 -2.5805552 -0.47180638 46 3 -0.076353267
1.8349811 -3.1834109 0.45116034 39 11 -0.076350965
1.4954879 -2.595489 -0.3678017 43 4 -0.076348655
1.923484 -3.3396437 0.61040735 96 12 -0.076346353
1.4826316 -2.5742149 -0.25989842 24 5 -0.07634405
1.9111009 -3.3194826 0.74453676 46 13 -0.076341748
1.4933242 -2.5948734 -0.15690321 29 6 -0.076339439
1.6917608 -2.9408748 0.78327954 38 14 -0.076337136
1.4892547 -2.5898929 -0.052147791 51 7 -0.076334834
1.6847464 -2.931047 0.90586674 39 15 -0.076332532
1.4851884 -2.5911872 -0.80026853 42 0 -0.076311797
1.8957478 -3.3088226 0.06656348 39 8 -0.076309487
1.4807956 -2.5856144 -0.6879003 49 1 -0.076307185
1.9017947 -3.3207202 0.20055141 52 9 -0.076304883
1.4874684 -2.5983171 -0.58196747 43 2 -0.076302581
1.9197508 -3.3547881 0.33816427 93 10 -0.076300271
1.475143 -2.5788751 -0.47055492 48 3 -0.076297969
1.810063 -3.1656709 0.44774801 45 11 -0.076295666
1.4775535 -2.5851824 -0.36560807 46 4 -0.076293364
1.9035767 -3.3305686 0.60759157 89 12 -0.076291054
1.4726485 -2.5776446 -0.25972411 24 5 -0.076288752
1.9024227 -3.3312478 0.74568158 49 13 -0.07628645
1.4763359 -2.5861943 -0.15606584 29 6 -0.076284148
1.6766561 -2.9382989 0.78103006 35 14 -0.076281838
1.4747117 -2.5843964 -0.051938362 51 7 -0.076279536
1.6740602 -2.9349396 0.90534908 37 15 -0.076277234
1.472315 -2.589638 -0.79819798 43 0 -0.076256499
1.8986015 -3.3394287 0.067052148 57 8 -0.076254196
1.4702874 -2.5871222 -0.68700051 49 1 -0.076251887
1.893151 -3.3325481 0.20086543 81 9 -0.076249585
1.468695 -2.5864215 -0.57815129 45 2 -0.076247282
1.9070451 -3.3597364 0.33798996 90 10 -0.07624498
1.4685334 -2.5871885 -0.47118065 48 3 -0.07624267
1.8015144 -3.1751089 0.44823548 52 11 -0.076240368
1.4630969 -2.5797074 -0.36414564 41 4 -0.076238066
1.8812232 -3.31829 0.60415 86 12 -0.076235764
1.4626595 -2.5810361 -0.2595498 21 5 -0.076233454
1.8855575 -3.3272898 0.74339187 53 13 -0.076231152
1.4657828 -2.5876002 -0.15585649 32 6 -0.07622885
1.6601816 -2.9319727 0.77788073 37 14 -0.076226547
1.4597715 -2.5790868 -0.051728934 53 7 -0.076224245
1.6561947 -2.927314 0.90120792 37 15 -0.076221935
1.454227 -2.5776806 -0.79302156 43 0 -0.0762012
1.8888975 -3.349519 0.067121953 100 8 -0.076198898
1.4612477 -2.5922389 -0.68700051 47 1 -0.076196596
1.8873893 -3.3495762 0.20149344 100 9 -0.076194286
1.4543273 -2.5810151 -0.57586157 47 2 -0.076191984
1.8831823 -3.3434741 0.33572391 93 10 -0.076189682
1.456586 -2.5871348 -0.47024205 50 3 -0.07618738
1.7865261 -3.1744578 0.44726053 49 11 -0.07618507
1.4482431 -2.5744181 -0.36268318 43 4 -0.076182768
1.8657556 -3.3179493 0.60289848 96 12 -0.076180466
1.442374 -2.5650325 -0.25745806 18 5 -0.076178163
1.8710456 -3.3287172 0.74224705 56 13 -0.076175861
1.4586984 -2.5961833 -0.15606584 31 6 -0.076173551
1.6461198 -2.9309535 0.77608109 38 14 -0.076171249
1.4429284 -2.5702171 -0.051449694 53 7 -0.076168947
1.6421851 -2.9263387 0.89913744 37 15 -0.076166645
1.4414469 -2.5759978 -0.79095107 41 0 -0.076145902
1.8723136 -3.3473659 0.06694743 66 8 -0.0761436
1.4521904 -2.5973237 -0.68700051 47 1 -0.076141298
1.8815318 -3.3666048 0.20212148 100 9 -0.076138996
1.4443512 -2.584362 -0.57547992 48 2 -0.076136693
1.8685846 -3.3448095 0.335201 96 10 -0.076134384
1.4417678 -2.5818555 -0.46836486 45 3 -0.076132081
1.7725316 -3.1754751 0.44652933 43 11 -0.076129779
1.4411825 -2.5829251 -0.36317068 42 4 -0.076127477
1.8493514 -3.3158159 0.60133415 89 12 -0.076125167
1.4295294 -2.563091 -0.25676081 25 5 -0.076122865
1.8498552 -3.3180802 0.73843086 63 13 -0.076120563
1.4457381 -2.594281 -0.15564716 32 6 -0.076118261
1.6358792 -2.9366815 0.77608109 37 14 -0.076115951
1.4358934 -2.5787323 -0.051519506 54 7 -0.076113649
1.6244439 -2.9185491 0.89499629 37 15 -0.076111346
1.4286965 -2.5742569 -0.78888047 43 0 -0.076090612
1.8509169 -3.3363948 0.066598386 61 8 -0.076088309
1.4336644 -2.5853345 -0.68250149 49 1 -0.076086
1.8639588 -3.3626711 0.20149344 100 9 -0.076083697
1.4324659 -2.5842373 -0.5743351 47 2 -0.076081395
1.8511041 -3.3408546 0.33415511 96 10 -0.076079093
1.4231757 -2.569592 -0.46523616 45 3 -0.076076783
1.7556673 -3.1712227 0.44506687 43 11 -0.076074481
1.4311965 -2.5862031 -0.36292693 39 4 -0.076072179
1.8368095 -3.3205225 0.60102129 93 12 -0.076069877
1.4225026 -2.5715525 -0.25710943 37 5 -0.076067567
1.8297116 -3.3090544 0.73499632 71 13 -0.076065265
1.4308764 -2.5888233 -0.15501912 31 6 -0.076062962
1.6246759 -2.9406683 0.77563125 33 14 -0.07606066
1.4268835 -2.5837288 -0.051519506 54 7 -0.076058351
1.6123791 -2.9208193 0.89396101 35 15 -0.076056048
1.4197018 -2.5792282 -0.78888047 39 0 -0.076035313
1.8325113 -3.3305712 0.066354051 55 8 -0.076033011
1.4161792 -2.5749555 -0.67845237 50 1 -0.076030709
1.8397015 -3.3464043 0.20013271 87 9 -0.076028399
1.4196534 -2.5823398 -0.57280862 47 2 -0.076026097
1.837512 -3.3438036 0.33380648 96 10 -0.076023795
1.4141978 -2.574544 -0.46523616 46 3 -0.076021492
1.7378989 -3.1651514 0.44336072 45 11 -0.076019183
1.4116541 -2.5720403 -0.36024579 43 4 -0.076016881
1.8252075 -3.3269141 0.60102129 96 12 -0.076014578
1.4077677 -2.5660217 -0.25606358 44 5 -0.076012276
1.8172055 -3.3136997 0.73461467 81 13 -0.076009966
1.4160707 -2.5832939 -0.15439108 30 6 -0.076007664
1.607846 -2.9343586 0.77248192 36 14 -0.076005362
1.4159347 -2.5851862 -0.051449694 53 7 -0.07600306
1.6012459 -2.9247351 0.89344335 34 15 -0.07600075
1.4088387 -2.5807769 -0.78784519 41 0 -0.075980015
1.8170429 -3.3299263 0.066214427 57 8 -0.075977713
1.4006501 -2.5679076 -0.67530304 48 1 -0.075975411
1.8213166 -3.3405309 0.19940001 61 9 -0.075973108
1.4021726 -2.5717664 -0.56937408 44 2 -0.075970799
1.8248752 -3.348448 0.33363217 99 10 -0.075968497
1.4033122 -2.5759954 -0.4646104 46 3 -0.075966194
1.7211443 -3.1607382 0.44189829 41 11 -0.075963892
1.3988712 -2.5699782 -0.35927087 44 4 -0.075961582
1.8013105 -3.3107076 0.59695399 89 12 -0.07595928
1.4026109 -2.5779202 -0.25676081 46 5 -0.075956978
1.8093795 -3.3269217 0.73614115 93 13 -0.075954676
1.4051371 -2.5847116 -0.15418173 30 6 -0.075952366
1.5910801 -2.9279673 0.76933259 32 14 -0.075950064
1.399266 -2.5760553 -0.051170457 53 7 -0.075947762
1.5882612 -2.9252136 0.89189047 37 15 -0.075945459
1.3924637 -2.572088 -0.7837041 43 0 -0.075924724
1.8035051 -3.332731 0.066144623 53 8 -0.075922415
1.391678 -2.5727811 -0.67530304 48 1 -0.075920112
1.8010954 -3.3310564 0.19845797 36 9 -0.07591781
1.388518 -2.5680103 -0.56746602 42 2 -0.075915508
1.8037025 -3.3372703 0.33188906 93 10 -0.075913198
1.389617 -2.5721884 -0.46304604 43 3 -0.075910896
1.7082142 -3.1632335 0.44141081 41 11 -0.075908594
1.388006 -2.5713522 -0.35878339 42 4 -0.075906292
1.7813007 -3.3013291 0.59413815 83 12 -0.075903982
1.3822505 -2.5617595 -0.25466907 46 5 -0.07590168
1.7949597 -3.3280332 0.73499632 99 13 -0.075899377
1.3942105 -2.5860848 -0.1539724 29 6 -0.075897075
1.5780765 -2.9283571 0.7679829 30 14 -0.075894773
1.3826789 -2.5668397 -0.050891217 53 7 -0.075892463
1.5688823 -2.9137301 0.8867141 38 15 -0.075890161
1.3770807 -2.5650187 -0.78008062 41 0 -0.075869426
1.7833505 -3.3231483 0.065830477 50 8 -0.075867124
1.3808466 -2.5741887 -0.67440325 43 1 -0.075864814
1.7592548 -3.2809968 0.19510846 19 9 -0.075862512
1.3776898 -2.569381 -0.56670272 42 2 -0.07586021
1.7816896 -3.3242292 0.32997164 90 10 -0.075857908
1.3778313 -2.5718 -0.46210748 45 3 -0.075855598
1.6971619 -3.1691773 0.44141081 45 11 -0.075853296
1.3771479 -2.5726812 -0.35829589 42 4 -0.075850993
1.769766 -3.3075268 0.59413815 96 12 -0.075848691
1.3686001 -2.5577853 -0.25379753 43 5 -0.075846389
1.7740723 -3.3169665 0.73118013 100 13 -0.075844079
1.3851749 -2.5909357 -0.1539724 30 6 -0.075841777
1.5641713 -2.9269726 0.76618326 30 14 -0.075839475
1.3737105 -2.5716505 -0.050891217 52 7 -0.075837173
1.5523324 -2.9072597 0.88309062 42 15 -0.075834863
1.3626716 -2.5595782 -0.7769748 42 0 -0.075814128
1.7651635 -3.3169959 0.065586142 55 8 -0.075811826
1.3617855 -2.5600679 -0.66945434 42 1 -0.075809523
1.7281008 -3.2500844 0.19291034 21 9 -0.075807221
1.3641044 -2.5655069 -0.56479466 39 2 -0.075804912
1.7710098 -3.3321874 0.33014596 99 10 -0.075802609
1.3651385 -2.5696158 -0.46085599 49 3 -0.075800307
1.6814339 -3.1663158 0.4401921 48 11 -0.075798005
1.3662981 -2.5739658 -0.35780841 43 4 -0.075795695
1.7554321 -3.3084495 0.59319955 89 12 -0.075793393
1.3587295 -2.560787 -0.25362319 42 5 -0.075791091
1.7468451 -3.293654 0.72469258 100 13 -0.075788788
1.3686383 -2.5816381 -0.15313502 29 6 -0.075786479
1.5539446 -2.9324148 0.76618326 30 14 -0.075784177
1.3628533 -2.5728958 -0.050821409 54 7 -0.075781874
1.5394627 -2.9075389 0.88153768 38 15 -0.075779572
1.3573362 -2.5711529 -0.7790454 41 0 -0.075758837
1.7517078 -3.3196001 0.065516338 55 8 -0.075756527
1.3492043 -2.5579114 -0.66765475 42 1 -0.075754225
1.7027727 -3.2295959 0.19134027 22 9 -0.075751923
1.3551407 -2.5702531 -0.56479466 43 2 -0.075749621
1.7584386 -3.3365867 0.32997164 100 10 -0.075747311
1.3543195 -2.5708699 -0.46023026 47 3 -0.075745009
1.6564978 -3.1458189 0.43653604 46 11 -0.075742707
1.3517572 -2.5681796 -0.35634598 42 4 -0.075740404
1.7493911 -3.3250461 0.5950768 123 12 -0.075738095
1.3479269 -2.5619879 -0.25327459 44 5 -0.075735793
1.7389932 -3.3066821 0.72621906 123 13 -0.07573349
1.3559009 -2.5793285 -0.15271634 30 6 -0.075731188
1.5328215 -2.9171202 0.76078445 29 14 -0.075728878
1.3520043 -2.5740969 -0.0507516 53 7 -0.075726576
1.5302022 -2.9146054 0.88205534 39 15 -0.075724274
1.346561 -2.5724521 -0.77801007 41 0 -0.075703539
1.7373286 -3.320379 0.06541162 59 8 -0.075701237
1.3447828 -2.5712395 -0.66990423 47 1 -0.075698927
1.685937 -3.2249002 0.19071224 39 9 -0.075696625
1.3397937 -2.562789 -0.5621233 42 2 -0.075694323
1.7421671 -3.3338754 0.32910007 113 10 -0.07569202
1.3416789 -2.5685782 -0.4589788 49 3 -0.075689711
1.6455067 -3.1515818 0.43653604 47 11 -0.075687408
1.3335997 -2.555284 -0.3539086 43 4 -0.075685106
1.7213284 -3.2996073 0.58944511 100 12 -0.075682804
1.3389759 -2.5666773 -0.25327459 44 5 -0.075680494
1.734702 -3.3266585 0.72927201 100 13 -0.075678192
1.3431966 -2.5769613 -0.15229765 31 6 -0.07567589
1.5190277 -2.9155402 0.75898486 28 14 -0.075673588
1.3346978 -2.5628378 -0.050437454 56 7 -0.075671285
1.5200188 -2.9199293 0.88205534 41 15 -0.075668976
1.3273404 -2.5563293 -0.77179843 41 0 -0.075647831
1.7281505 -3.3296714 0.065481432 100 8 -0.075645529
1.3308647 -2.5653057 -0.6672048 43 1 -0.075643227
1.7135077 -3.3028686 0.19500379 88 9 -0.075640917
1.3240573 -2.5532751 -0.55907035 42 2 -0.075638615
1.7173488 -3.3131011 0.32648543 100 10 -0.075636312
1.3313364 -2.569505 -0.45835301 47 3 -0.07563401
1.6332206 -3.1534958 0.43604854 41 11 -0.0756317
1.326944 -2.5632184 -0.3543961 44 4 -0.075629398
1.7018723 -3.2874563 0.58631647 61 12 -0.075627096
1.3194691 -2.5498695 -0.25118285 41 5 -0.075624794
1.7128369 -3.3114669 0.72469258 19 13 -0.075622484
1.3346437 -2.5814011 -0.15229765 31 6 -0.075620182
1.5111408 -2.9240239 0.75988466 28 14 -0.07561788
1.3211312 -2.5563595 -0.050228026 56 7 -0.075615577
1.5019718 -2.9075263 0.87687898 42 15 -0.075613268
1.3131034 -2.5506413 -0.76869255 41 0 -0.075592533
1.707031 -3.3158271 0.065097481 70 8 -0.075590231
1.3178921 -2.5610411 -0.66495532 40 1 -0.075587928
1.7129308 -3.3301427 0.19625986 73 9 -0.075585626
1.3169323 -2.5613732 -0.55983365 42 2 -0.075583316
1.6948447 -3.2978108 0.32439366 53 10 -0.075581014
1.3173906 -2.5633645 -0.45647582 45 3 -0.075578712
1.6218475 -3.1571288 0.43580481 48 11 -0.07557641
1.3184366 -2.5676045 -0.3543961 44 4 -0.0755741
1.3051034 -2.5438232 -0.25013697 44 5 -0.075569496
1.6606219 -3.2367773 0.70713818 6 13 -0.075567193
1.3242533 -2.5822585 -0.1520883 29 6 -0.075564884
1.499658 -2.9255502 0.75898486 27 14 -0.075562581
1.3112879 -2.5591762 -0.050193124 51 7 -0.075560279
1.4891715 -2.9075933 0.87532604 45 15 -0.075557977
1.3081524 -2.5618639 -0.77076316 41 0 -0.075537242
1.6790825 -3.2897055 0.064469188 20 8 -0.075534932
1.3036306 -2.5552108 -0.66225594 45 1 -0.07553263
1.6795193 -3.2933996 0.19374773 10 9 -0.075530328
1.3066473 -2.5622282 -0.55907035 42 2 -0.075528026
1.3012602 -2.5538669 -0.45397288 45 3 -0.075523414
1.6018081 -3.145082 0.43336743 36 11 -0.075521111
1.3058637 -2.5651147 -0.35342112 43 4 -0.075518809
1.6090019 -3.1619351 0.56191266 6 12 -0.0755165
1.2930465 -2.5410345 -0.24943975 41 5 -0.075514197
1.6128205 -3.1708083 0.69149184 1 13 -0.075511895
1.3079898 -2.5726225 -0.15125093 30 6 -0.075509593
1.489437 -2.9307671 0.75898486 29 14 -0.075507291
1.3023466 -2.5637376 -0.050193124 54 7 -0.075504981
1.472016 -2.8989935 0.87118495 66 15 -0.075502679
1.2974567 -2.5629673 -0.76972789 42 0 -0.075481944
1.6359887 -3.2330971 0.063247517 8 8 -0.075479642
1.2903057 -2.5510509 -0.6600064 43 1 -0.075477332
1.6184502 -3.2012098 0.18799078 6 9 -0.07547503
1.2994671 -2.5702779 -0.55983365 42 2 -0.075472727
1.5950755 -3.1563437 0.30940288 2 10 -0.075470425
1.2905563 -2.5548673 -0.45334715 49 3 -0.075468116
1.5827674 -3.134706 0.43117377 20 11 -0.075465813
1.2861688 -2.5483913 -0.35049626 42 4 -0.075463511
