# .PCD v0.7 - Point Cloud Data file format
VERSION 0.7
FIELDS x y z intensity ring time
SIZE 4 4 4 4 2 4
TYPE F F F F U F
COUNT 1 1 1 1 1 1
WIDTH 952
HEIGHT 1
VIEWPOINT 0 0 0 1 0 0 0
POINTS 952
DATA ascii
2.8939848 -3.1142981 0.074207634 4 8 -0.084177576
2.6167879 -2.8169849 -0.88765687 1 1 -0.084175274
3.2786813 -3.5295165 0.25246868 45 9 -0.084172964
3.2735248 -3.526433 0.42096224 100 10 -0.08416836
3.2589586 -3.5132 0.58838522 84 11 -0.084163748
2.8797441 -3.1054888 0.67079103 35 12 -0.084159143
2.8636632 -3.0903106 0.81895226 42 13 -0.084154539
2.8520136 -3.0798948 0.96908909 50 14 -0.084149927
2.51355 -2.7143874 -0.064573906 37 7 -0.084147625
2.8438244 -3.0721262 1.1217217 31 15 -0.084145322
2.3114605 -2.5040283 -0.91311359 5 0 -0.08412458
2.8768594 -3.1165307 0.074033104 9 8 -0.084122278
3.2582159 -3.5321312 0.25184065 45 9 -0.084117673
3.2314868 -3.5056095 0.41712737 96 10 -0.084113061
2.5558848 -2.7726972 -0.59726685 1 3 -0.084110759
3.1369848 -3.4042835 0.56839865 36 11 -0.084108457
2.9705815 -3.2259603 0.69456911 52 12 -0.084103845
1.6057483 -1.7444041 -0.20743066 1 5 -0.084101543
2.8427622 -3.0882337 0.81589925 42 13 -0.084099241
2.8325493 -3.0792956 0.96593982 53 14 -0.084094629
2.5121813 -2.7319763 -0.064783335 7 7 -0.084092326
2.8173952 -3.0649676 1.1155102 33 15 -0.084090024
2.2940047 -2.501713 -0.90949017 2 0 -0.084069289
2.8862319 -3.1486657 0.074556686 32 8 -0.084066987
3.0866761 -3.3696961 0.23948936 16 9 -0.084062375
3.0503078 -3.3311605 0.39516413 28 10 -0.084057771
2.5275178 -2.7612028 -0.59288669 1 3 -0.084055461
3.0486977 -3.3317363 0.55450553 37 11 -0.084053159
3.0246212 -3.3077419 0.70989966 42 12 -0.084048554
2.8041484 -3.0677073 0.80788535 43 13 -0.084043942
2.8099549 -3.0762148 0.9618907 45 14 -0.084039338
2.8001666 -3.0676489 1.112922 31 15 -0.084034726
2.2904606 -2.515419 -0.91156071 4 0 -0.084013991
2.8832998 -3.1675944 0.074766114 58 8 -0.084011689
3.0412967 -3.3435135 0.23687255 24 9 -0.084007077
2.5311153 -2.7826347 -0.73118013 1 2 -0.084004775
3.0346401 -3.3373652 0.39464122 45 10 -0.084002472
3.0236998 -3.3276665 0.55206817 61 11 -0.083997861
3.0276639 -3.334367 0.7133413 49 12 -0.083993256
2.7841866 -3.0673015 0.80521399 39 13 -0.083988644
2.783489 -3.0686839 0.95649189 50 14 -0.08398404
2.7790627 -3.0659542 1.1087809 31 15 -0.083979428
2.3036926 -2.5477586 -0.92036057 3 0 -0.083958693
2.8842931 -3.1909904 0.075080253 58 8 -0.083956391
3.0255907 -3.3496628 0.23655853 53 9 -0.083951786
3.0269778 -3.3523743 0.39516413 46 10 -0.083947174
3.0147252 -3.3411484 0.55255568 52 11 -0.08394257
3.0067461 -3.3346453 0.71115112 57 12 -0.083937958
2.7629473 -3.0653343 0.80216104 39 13 -0.083933353
2.7636306 -3.0682454 0.95334262 43 14 -0.083928742
1.582922 -1.7580131 -0.041292395 1 7 -0.083926439
2.7605891 -3.0670209 1.105675 28 15 -0.083924137
2.2780068 -2.5370975 -0.91363126 3 0 -0.083903402
2.8798156 -3.2084804 0.075254776 43 8 -0.083901092
3.0165467 -3.3631771 0.23676789 53 9 -0.083896488
3.0032866 -3.3495686 0.39359534 69 10 -0.083891876
3.0056932 -3.3546085 0.55304313 63 11 -0.083887272
2.9898171 -3.3392339 0.70989966 57 12 -0.08388266
2.7496119 -3.0720346 0.80139786 39 13 -0.083878055
2.7477067 -3.0720634 0.95154291 37 14 -0.083873451
1.5287927 -1.7098616 -0.040035821 1 7 -0.083871141
2.7344174 -3.0593538 1.0994633 29 15 -0.083868839
2.251138 -2.5248466 -0.90638429 2 0 -0.083848104
2.8313439 -3.1767139 0.074277438 17 8 -0.083845802
3.0040491 -3.3716707 0.23666322 17 9 -0.08384119
2.5018375 -2.8089874 -0.73118013 1 2 -0.083838888
2.9902511 -3.3585439 0.39342102 76 10 -0.083836585
2.9926455 -3.3635969 0.5527994 63 11 -0.083831973
2.9866042 -3.3579862 0.71177691 63 12 -0.083827369
1.5753689 -1.7718878 -0.20743066 1 5 -0.083825067
2.7284379 -3.0698743 0.79834485 31 13 -0.083822757
1.6038038 -1.8051381 -0.12654836 1 6 -0.083820455
2.7227318 -3.0656087 0.94659406 32 14 -0.083818153
1.570919 -1.7687467 -0.041292395 1 7 -0.08381585
2.7101486 -3.0525138 1.0937693 33 15 -0.083813541
2.2320659 -2.5211179 -0.9022432 4 0 -0.083792806
2.7598178 -3.1172135 0.072671816 10 8 -0.083790503
2.9949083 -3.385128 0.23687255 1 9 -0.083785899
2.492017 -2.8177035 -0.73118013 1 2 -0.083783589
2.9824681 -3.3734391 0.39394394 76 10 -0.083781287
2.9775314 -3.36904 0.55206817 70 11 -0.083776683
2.9735568 -3.3669102 0.71146405 61 12 -0.083772071
1.5691744 -1.7773758 -0.20743066 1 5 -0.083769768
2.6948547 -3.0524137 0.79147577 27 13 -0.083767466
1.597809 -1.8104467 -0.12654836 1 6 -0.083765157
2.7073944 -3.0687757 0.94479448 32 14 -0.083762854
1.5382817 -1.7442243 -0.040594298 1 7 -0.083760552
2.6943667 -3.056159 1.0916989 33 15 -0.08375825
2.2377272 -2.5444629 -0.90793723 3 0 -0.083737515
2.7858891 -3.1688797 0.073649161 18 8 -0.083735205
2.9783928 -3.3890398 0.23645388 1 9 -0.083730601
2.9725802 -3.3848081 0.39411828 75 10 -0.083725989
2.9592061 -3.3719525 0.55084944 69 11 -0.083721384
2.9688888 -3.3841772 0.71302837 67 12 -0.083716772
1.5632716 -1.7825698 -0.20743066 1 5 -0.08371447
2.6867716 -3.0647547 0.79223901 27 13 -0.083712168
2.6799717 -3.0591519 0.93894571 34 14 -0.083707556
1.506135 -1.7192329 -0.039896201 1 7 -0.083705254
2.6727626 -3.0519969 1.0870401 33 15 -0.083702952
2.2351851 -2.5595341 -0.91052544 4 0 -0.083682217
2.7753656 -3.1781006 0.073649161 18 8 -0.083679914
2.9639182 -3.3964062 0.23624454 63 9 -0.083675303
2.9620562 -3.3966653 0.39429256 76 10 -0.083670698
2.9493127 -3.3832436 0.55109322 70 11 -0.083666086
2.9466777 -3.3826041 0.71052545 72 12 -0.083661482
1.5570397 -1.7880157 -0.20743066 1 5 -0.083659172
2.6662791 -3.0618029 0.78918606 34 13 -0.08365687
2.6493444 -3.0445008 0.93174726 34 14 -0.083652265
1.513249 -1.7395672 -0.040245246 1 7 -0.083649963
2.6544871 -3.0525615 1.0839342 33 15 -0.083647653
2.2173779 -2.5571041 -0.90690196 4 0 -0.083630562
2.7610791 -3.1852293 0.073579341 18 8 -0.08362826
2.9527574 -3.4087563 0.23634921 68 9 -0.083623648
2.9462688 -3.4024653 0.39376962 84 10 -0.083619043
2.943387 -3.4015357 0.5523119 69 11 -0.083614431
2.9316761 -3.390393 0.70989966 78 12 -0.083609827
1.5169063 -1.7542553 -0.20289856 1 5 -0.083607525
2.6460521 -3.0611579 0.7865147 34 13 -0.083605215
1.5787628 -1.8270793 -0.12654836 1 6 -0.083602913
2.6305246 -3.0453424 0.92904782 34 14 -0.08360061
1.4676559 -1.6996958 -0.039198104 1 7 -0.083598308
2.6319196 -3.0491085 1.0792755 33 15 -0.083595999
2.2071776 -2.5633645 -0.90638429 5 0 -0.083575264
2.7368984 -3.1796923 0.073230296 18 8 -0.083572961
2.4035144 -2.7933569 -0.85076487 1 1 -0.083570659
2.9213045 -3.3963296 0.23477912 65 9 -0.083568357
2.417084 -2.8101192 -0.72049481 1 2 -0.083566047
2.9278793 -3.4051754 0.39289808 82 10 -0.083563745
2.9263206 -3.4057672 0.55133694 69 11 -0.083559141
2.9236839 -3.4051023 0.71083826 79 12 -0.083554529
1.4900068 -1.7353537 -0.20010957 1 5 -0.083552226
2.6276784 -3.0614371 0.78422499 34 13 -0.083549924
2.6097291 -3.0426726 0.92544866 35 14 -0.083545312
1.4747301 -1.7199895 -0.039547153 1 7 -0.08354301
2.6061742 -3.0406756 1.0730639 33 15 -0.083540708
2.1919396 -2.5637119 -0.90379614 5 0 -0.083519973
2.7114911 -3.1725051 0.072846346 18 8 -0.083517663
2.9236994 -3.4232123 0.23593052 84 9 -0.083513059
2.9198565 -3.4199207 0.39342102 78 10 -0.083508447
2.9118378 -3.4129407 0.55084944 72 11 -0.083503842
1.5148766 -1.7762017 -0.28663671 1 4 -0.08350154
2.9130614 -3.41679 0.71115112 77 12 -0.08349923
1.4839402 -1.7405442 -0.20010957 1 5 -0.083496928
2.6029682 -3.0541546 0.78002721 33 13 -0.083494626
1.4701197 -1.7255533 -0.11880264 1 6 -0.083492324
2.5978286 -3.0502803 0.9249987 39 14 -0.083490022
1.4687172 -1.7251269 -0.039547153 1 7 -0.083487712
2.5867798 -3.0394557 1.0694402 35 15 -0.08348541
2.1892283 -2.5787113 -0.90638429 4 0 -0.083464675
2.7004006 -3.1819508 0.072846346 18 8 -0.083462372
2.9194832 -3.4425366 0.23655853 92 9 -0.083457761
2.9104772 -3.4331315 0.39376962 78 10 -0.083453156
2.8999066 -3.4230843 0.55084944 69 11 -0.083448544
2.9036696 -3.4299533 0.71177691 63 12 -0.08344394
1.4984528 -1.770044 -0.20289856 1 5 -0.083441637
2.5846817 -3.05423 0.7777375 33 13 -0.083439328
2.5720649 -3.0414739 0.91959995 34 14 -0.083434723
1.4626865 -1.730243 -0.039547153 1 7 -0.083432421
2.5711665 -3.0425646 1.0673697 33 15 -0.083430111
2.181459 -2.5878143 -0.90690196 3 0 -0.083409376
2.6879888 -3.1898284 0.072811447 18 8 -0.083407074
2.8997302 -3.4435399 0.23593052 91 9 -0.083402462
1.5377277 -1.8261101 -0.46404752 1 2 -0.08340016
2.8997588 -3.4447942 0.39394394 65 10 -0.083397858
1.5224156 -1.8092082 -0.37450415 1 3 -0.083395556
2.8892181 -3.4347055 0.55109322 70 11 -0.083393253
2.8942215 -3.4430923 0.71240264 100 12 -0.083388641
2.5664268 -3.0542152 0.77544779 31 13 -0.083384037
2.5489016 -3.0355098 0.91510093 32 14 -0.083379425
1.456638 -1.7353382 -0.039547153 1 7 -0.083377123
2.5555634 -3.0456018 1.0652993 33 15 -0.083374821
2.1699326 -2.5924506 -0.90586674 6 0 -0.083354078
2.6691377 -3.1899896 0.072602011 25 8 -0.083351776
2.3592775 -2.8206639 -0.84896529 1 1 -0.083349474
2.8876922 -3.4536409 0.23593052 78 9 -0.083347172
1.5313441 -1.8314667 -0.46404752 1 2 -0.083344869
2.896661 -3.4655969 0.39516413 100 10 -0.08334256
2.8962994 -3.4676228 0.55474925 99 11 -0.083337955
2.8796537 -3.450141 0.71177691 89 12 -0.083333343
2.5456879 -3.0510957 0.7723949 31 13 -0.083328739
1.4673208 -1.759259 -0.1200587 1 6 -0.083326437
2.533298 -3.0384016 0.91330135 29 14 -0.083324127
1.4121628 -1.694329 -0.038500007 1 7 -0.083321825
2.525131 -3.0307565 1.057017 33 15 -0.083319522
2.1621046 -2.601495 -0.90638429 4 0 -0.083298787
2.6452079 -3.1839063 0.072252966 19 8 -0.083296485
2.3543975 -2.8348784 -0.85076487 1 1 -0.083294176
2.8092782 -3.3837917 0.23048759 45 9 -0.083291873
1.5249416 -1.8368009 -0.46404752 1 2 -0.083289571
2.8781841 -3.4680204 0.39429256 93 10 -0.083287269
2.8791087 -3.4715998 0.55377436 85 11 -0.083282657
1.491196 -1.7987078 -0.28688046 1 4 -0.083280355
2.8587694 -3.4495251 0.7095868 83 12 -0.083278053
1.4137259 -1.7058678 -0.19383438 1 5 -0.083275743
2.5224972 -3.0448449 0.76857871 33 13 -0.083273441
1.4509794 -1.7520642 -0.11922132 1 6 -0.083271138
2.5177057 -3.0412211 0.91150165 32 14 -0.083268836
1.4164393 -1.7115728 -0.038779248 1 7 -0.083266526
2.4997599 -3.0216901 1.0508054 35 15 -0.083264224
2.1579294 -2.6149862 -0.9084549 5 0 -0.083243489
2.6213527 -3.1776943 0.071903922 16 8 -0.083241187
2.3283701 -2.8235345 -0.84491616 27 1 -0.083238885
2.7910974 -3.3858716 0.22996421 46 9 -0.083236575
2.8533907 -3.4626703 0.39254946 91 10 -0.083231971
1.5033865 -1.8250513 -0.37450415 1 3 -0.083229668
2.8379498 -3.4463832 0.54816836 73 11 -0.083227359
1.4470603 -1.7579234 -0.27956831 1 4 -0.083225057
2.83918 -3.4503307 0.70770961 79 12 -0.083222754
1.4178903 -1.7230998 -0.19522884 1 5 -0.083220452
2.5006287 -3.0399854 0.76514411 34 13 -0.083218142
1.4372436 -1.7478621 -0.11859328 1 6 -0.08321584
2.4984124 -3.0394533 0.90835232 35 14 -0.083213538
1.4129952 -1.7195964 -0.038849056 2 7 -0.083211236
2.4842918 -3.0244262 1.0487348 33 15 -0.083208933
2.1475635 -2.6210084 -0.90793723 5 0 -0.083188191
2.6064432 -3.1821842 0.071799204 12 8 -0.083185889
2.30492 -2.8150589 -0.83996725 28 1 -0.083183587
2.8367925 -3.464649 0.23467445 74 9 -0.083181284
2.2905045 -2.7984498 -0.7029404 7 2 -0.083178975
2.8337162 -3.4633577 0.39150357 85 10 -0.083176672
1.4344753 -1.7538348 -0.3588607 1 3 -0.08317437
2.818363 -3.4470477 0.5467059 58 11 -0.083172068
1.4258403 -1.7445196 -0.27664346 1 4 -0.083169758
2.8177221 -3.4474909 0.70520669 79 12 -0.083167456
1.4269941 -1.7465535 -0.19732061 1 5 -0.083165154
2.4862764 -3.0441341 0.76399928 31 13 -0.083162852
1.4210284 -1.7404917 -0.1177559 1 6 -0.083160549
2.4754658 -3.0330584 0.9038533 37 14 -0.08315824
1.3971697 -1.7118788 -0.038569819 2 7 -0.083155937
2.4705851 -3.0281572 1.0471818 31 15 -0.083153635
2.1420588 -2.6329846 -0.90949017 5 0 -0.0831329
2.5845187 -3.1768494 0.071485057 10 8 -0.083130591
2.295572 -2.8226869 -0.83996725 30 1 -0.083128288
2.8234215 -3.4729805 0.23456979 79 9 -0.083125986
2.8140714 -3.4639492 0.39045769 85 10 -0.083121374
1.4386158 -1.7708477 -0.36136368 1 3 -0.083119072
2.7931514 -3.4394243 0.54402483 55 11 -0.08311677
1.4225496 -1.7523205 -0.27713093 1 4 -0.083114468
2.7907336 -3.4388995 0.7014522 74 12 -0.083112165
1.4058262 -1.7329565 -0.19522884 1 5 -0.083109856
2.4699833 -3.044739 0.76209116 26 13 -0.083107553
1.407701 -1.7358868 -0.11712788 1 6 -0.083105251
2.456804 -3.030654 0.90070403 39 14 -0.083102949
1.3962216 -1.72296 -0.038709439 3 7 -0.083100639
2.4539199 -3.0292571 1.0445937 33 15 -0.083098337
2.1260307 -2.631058 -0.90638429 5 0 -0.083077602
2.3070252 -2.8560662 0.064085238 6 8 -0.0830753
2.2795839 -2.8231018 -0.83771771 29 1 -0.08307299
2.8062632 -3.476598 0.23415108 79 9 -0.083070688
2.7875557 -3.4546554 0.38836598 87 10 -0.083066083
1.4398667 -1.7850839 -0.36324087 1 3 -0.083063781
2.7848668 -3.4537895 0.544756 58 11 -0.083061472
1.4363563 -1.782004 -0.28103071 1 4 -0.083059169
2.7712762 -3.4393907 0.69957501 82 12 -0.083056867
1.397269 -1.7347499 -0.19488023 1 5 -0.083054565
2.4556458 -3.0487554 0.76094633 28 13 -0.083052255
1.3941176 -1.7314559 -0.11649985 1 6 -0.083049953
2.4352133 -3.0255487 0.8966549 34 14 -0.083047651
1.3851845 -1.7215911 -0.038569819 4 7 -0.083045349
2.4312229 -3.0227509 1.0394174 35 15 -0.083043039
2.1187906 -2.6418467 -0.90741962 5 0 -0.083022304
2.5372553 -3.1636159 0.07078696 13 8 -0.083020002
2.2648394 -2.8249602 -0.83591807 20 1 -0.083017699
2.7828696 -3.4723463 0.23320904 78 9 -0.083015397
2.7599299 -3.4461873 0.38627425 87 10 -0.083010785
1.4160308 -1.7687602 -0.3588607 1 3 -0.083008483
2.7653499 -3.4541912 0.5432936 52 11 -0.083006181
1.4598956 -1.8242041 -0.28688046 1 4 -0.083003871
2.7370412 -3.4212785 0.69394338 74 12 -0.083001569
1.3812503 -1.7271687 -0.19348574 1 5 -0.082999267
2.4321959 -3.0424006 0.75713015 27 13 -0.082996964
1.3877622 -1.7365539 -0.11649985 2 6 -0.082994655
2.4192424 -3.0283637 0.89485526 34 14 -0.082992353
1.37043 -1.7154793 -0.038325485 6 7 -0.08299005
2.4086018 -3.0161233 1.034241 32 15 -0.082987748
2.109556 -2.6492264 -0.90741962 5 0 -0.082967013
2.2529032 -2.8302591 0.063142806 8 8 -0.082964703
2.7614207 -3.4715815 0.23247635 76 9 -0.082960099
2.7354829 -3.4402053 0.38453114 82 10 -0.082955487
1.4024729 -1.764414 -0.35698348 1 3 -0.082953185
2.7193277 -3.4223404 0.53671265 30 11 -0.082950883
1.4087518 -1.7735838 -0.27810585 1 4 -0.08294858
2.7183416 -3.4235518 0.692379 78 12 -0.082946271
1.3826464 -1.7413417 -0.19453162 1 5 -0.082943968
2.414238 -3.0416455 0.75484043 28 13 -0.082941666
1.3655536 -1.721048 -0.11513911 3 6 -0.082939364
2.4001796 -3.0261023 0.89170599 37 14 -0.082937054
1.3691026 -1.7267584 -0.038465101 8 7 -0.082934752
2.3939312 -3.0203891 1.032688 34 15 -0.08293245
2.0907104 -2.6444507 -0.90327853 6 0 -0.082911715
2.2343304 -2.8271236 0.062898472 9 8 -0.082909413
2.7356689 -3.4639575 0.23132494 78 9 -0.082904801
2.7333341 -3.4622433 0.38592559 85 10 -0.082900196
1.4085431 -1.7848054 -0.36011216 1 3 -0.082897887
2.6876931 -3.4068754 0.53281283 16 11 -0.082895584
1.3853433 -1.7566687 -0.27469352 1 4 -0.082893282
2.701483 -3.4268148 0.69112754 82 12 -0.08289098
1.3679253 -1.7352051 -0.19331144 2 5 -0.08288867
2.4011755 -3.0469704 0.7540772 28 13 -0.082886368
1.3657174 -1.7336485 -0.11566247 1 6 -0.082884066
2.3775454 -3.0191519 0.88720697 36 14 -0.082881764
1.3729621 -1.7440971 -0.038744342 6 7 -0.082879461
2.3797896 -3.0241725 1.0311351 32 15 -0.082877152
2.099359 -2.6745267 -0.91104311 4 0 -0.082856417
2.2269175 -2.838052 0.062968284 11 8 -0.082854114
2.7069101 -3.4510098 0.22985955 66 9 -0.082849503
2.7138574 -3.4623554 0.38487977 89 10 -0.082844898
1.404741 -1.7928209 -0.36073789 2 3 -0.082842596
2.6843529 -3.4271762 0.53451896 55 11 -0.082840286
1.3721658 -1.7518762 -0.27323109 1 4 -0.082837984
2.6730554 -3.4139798 0.68674743 77 12 -0.082835682
1.3802803 -1.7635036 -0.19592611 1 5 -0.08283338
2.3881054 -3.0522408 0.75331396 27 13 -0.082831077
1.3818059 -1.7667232 -0.11754657 1 6 -0.082828768
2.3519132 -3.0070646 0.88135827 34 14 -0.082826465
1.3573173 -1.7360375 -0.038465101 6 7 -0.082824163
2.3590412 -3.0183485 1.0264764 35 15 -0.082821861
2.0726621 -2.6586204 -0.90327853 6 0 -0.082801118
2.2039723 -2.8280711 0.062584333 13 8 -0.082798816
2.6880867 -3.4505134 0.22923151 66 9 -0.082794212
2.6852264 -3.4493253 0.38243937 85 10 -0.0827896
1.4133463 -1.8161771 -0.36449236 1 3 -0.082787298
2.6827242 -3.4485936 0.53646892 85 11 -0.082784995
1.3736621 -1.765818 -0.27469352 1 4 -0.082782693
2.6532311 -3.4119091 0.68455732 74 12 -0.082780384
1.381761 -1.777509 -0.19697197 1 5 -0.082778081
2.3695383 -3.0492918 0.75064266 26 13 -0.082775779
1.3636872 -1.7555228 -0.11649985 2 6 -0.082773477
2.3395374 -3.0117695 0.88045847 34 14 -0.082771167
1.3417414 -1.7278936 -0.038185868 6 7 -0.082768865
2.3371727 -3.0108945 1.0213 34 15 -0.082766563
2.0531895 -2.6517313 -0.89861977 3 0 -0.082745828
2.1823425 -2.8195508 0.062235285 11 8 -0.082743526
2.6564746 -3.434598 0.22755675 30 9 -0.082738914
2.6615865 -3.4424484 0.38069627 85 10 -0.082734309
1.4459717 -1.8708687 -0.37450415 1 3 -0.082731999
2.6518552 -3.4323373 0.53256911 79 11 -0.082729697
1.3893309 -1.7988815 -0.27908084 1 4 -0.082727395
2.6437194 -3.4242771 0.68518305 85 12 -0.082725093
1.3609406 -1.7633941 -0.19488023 2 5 -0.082722783
2.3438201 -3.0369282 0.74568158 24 13 -0.082720481
1.3468783 -1.7458035 -0.1155578 3 6 -0.082718179
2.3254397 -3.0152884 0.87910873 36 14 -0.082715876
1.3405855 -1.7389013 -0.038325485 6 7 -0.082713567
2.3124981 -3.0006723 1.0150883 34 15 -0.082711264
2.1749239 -2.8303227 0.062305093 6 8 -0.082688227
2.5191793 -3.2806871 0.21677555 6 9 -0.082683615
2.6416743 -3.4426968 0.37965041 85 10 -0.082679011
1.4391048 -1.8761559 -0.37450415 1 3 -0.082676709
2.6277759 -3.425822 0.5301317 73 11 -0.082674399
1.3540535 -1.765913 -0.27323109 1 4 -0.082672097
2.6185317 -3.4162388 0.68174148 72 12 -0.082669795
1.3499298 -1.761808 -0.19418299 2 5 -0.082667492
2.327898 -3.0392637 0.74415511 27 13 -0.082665183
1.3404708 -1.7507282 -0.1155578 4 6 -0.08266288
2.3096349 -3.017601 0.87730908 36 14 -0.082660578
1.3308612 -1.7388065 -0.038220771 6 7 -0.082658276
2.2949662 -2.9995205 1.0119824 34 15 -0.082655966
1.5256215 -1.9997667 -0.6739648 1 0 -0.082635231
2.1693861 -2.8446352 0.062444709 11 8 -0.082632929
1.5725167 -2.0627291 -0.59881973 1 1 -0.082630627
2.4756632 -3.248596 0.21405408 1 9 -0.082628325
1.4196486 -1.8628806 -0.45527029 8 2 -0.082626015
2.6236043 -3.4439726 0.37877885 84 10 -0.082623713
1.433744 -1.8827395 -0.37481701 1 3 -0.08262141
2.5995712 -3.4148967 0.52696311 55 11 -0.082619108
1.3644017 -1.79298 -0.27664346 1 4 -0.082616799
2.6047971 -3.4242413 0.68142867 85 12 -0.082614496
1.3437717 -1.7665094 -0.19418299 2 5 -0.082612194
2.3101449 -3.0379946 0.7418654 34 13 -0.082609892
1.3295166 -1.7490364 -0.11513911 3 6 -0.082607582
2.2861183 -3.0085773 0.87236023 33 14 -0.08260528
1.3365748 -1.7595966 -0.038569819 6 7 -0.082602978
2.2816205 -3.0048344 1.0109472 34 15 -0.082600676
1.5116334 -1.99584 -0.67085898 1 0 -0.082579941
2.1799636 -2.8792937 0.063038096 2 8 -0.082577631
1.4923925 -1.9718654 -0.57092577 1 1 -0.082575329
2.4305673 -3.2126203 0.21112327 1 9 -0.082573026
1.4640718 -1.9351478 -0.47167987 1 2 -0.082570724
2.60075 -3.4388072 0.37721002 77 10 -0.082568415
1.4271632 -1.8877327 -0.37481701 1 3 -0.082566112
2.5744693 -3.4065292 0.52428192 33 11 -0.08256381
1.348562 -1.7850605 -0.27469352 1 4 -0.082561508
2.5773523 -3.4128199 0.67736137 77 12 -0.082559198
1.3387979 -1.772779 -0.19435729 2 5 -0.082556896
2.2936118 -3.0382056 0.73995733 33 13 -0.082554594
1.3306218 -1.7632322 -0.11576715 3 6 -0.082552291
2.2615192 -2.9978702 0.86696136 33 14 -0.082549989
1.3207927 -1.7514786 -0.038290579 6 7 -0.08254768
2.2664664 -3.0066102 1.0088767 34 15 -0.082545377
1.4884037 -1.9794875 -0.66361207 2 0 -0.082524642
2.209549 -2.939636 0.064189956 1 8 -0.08252234
1.492524 -1.9864107 -0.57362521 1 1 -0.08252003
2.3581648 -3.1396394 0.20578501 4 9 -0.082517728
1.4926794 -1.9873399 -0.4831284 2 2 -0.082515426
2.5779641 -3.4335256 0.37564126 78 10 -0.082513124
1.4205651 -1.8927029 -0.37481701 1 3 -0.082510814
2.5256312 -3.3662715 0.51672608 16 11 -0.082508512
1.3578067 -1.8104019 -0.27786213 1 4 -0.08250621
2.5535738 -3.4059906 0.67423266 82 12 -0.082503907
1.3290162 -1.7726594 -0.19383438 3 5 -0.082501605
2.2782829 -3.0399091 0.73843086 33 13 -0.082499295
1.3220638 -1.7646695 -0.1155578 3 6 -0.082496993
2.2487049 -3.0026264 0.86606157 33 14 -0.082494691
1.3206627 -1.7640822 -0.038465101 6 7 -0.082492389
2.2432249 -2.9974897 1.0031826 32 15 -0.082490079
1.489574 -1.9955077 -0.66723549 4 0 -0.082469344
2.1586132 -2.8928397 0.06300319 1 8 -0.082467042
1.4925719 -2.0009806 -0.57632458 1 1 -0.08246474
2.3555486 -3.1590595 0.2065177 31 9 -0.082462437
1.5068575 -2.0208678 -0.48999751 1 2 -0.082460128
2.5540562 -3.4265292 0.37389815 84 10 -0.082457826
1.4139497 -1.8976501 -0.37481701 1 3 -0.082455523
2.4889641 -3.3416348 0.51160759 13 11 -0.082453221
1.3467367 -1.8087616 -0.27688718 1 4 -0.082450911
2.532234 -3.4022069 0.67172968 82 12 -0.082448609
1.326389 -1.7820824 -0.19435729 3 5 -0.082446307
2.2559385 -3.0320923 0.73461467 31 13 -0.082444005
1.3182797 -1.7724787 -0.11576715 4 6 -0.082441695
2.2335591 -3.0042024 0.86426198 33 14 -0.082439393
1.3168828 -1.7718916 -0.038534917 7 7 -0.082437091
2.2223792 -2.9913452 0.99852395 34 15 -0.082434788
1.4906504 -2.01156 -0.67085898 2 0 -0.082414053
2.1782598 -2.9405277 0.063875809 8 8 -0.082411744
1.4693424 -1.9842532 -0.57002598 1 1 -0.082409441
2.3373773 -3.1576312 0.20588967 33 9 -0.082407139
2.537339 -3.4290171 0.37320086 84 10 -0.082402527
1.3979193 -1.889869 -0.37231407 1 3 -0.082400225
2.4761038 -3.3487065 0.5113638 43 11 -0.082397923
1.335695 -1.8070661 -0.27591223 1 4 -0.082395621
2.5179949 -3.4078479 0.67110395 82 12 -0.082393311
1.3177923 -1.7834967 -0.19400868 2 5 -0.082391009
2.231344 -3.020998 0.73003525 31 13 -0.082388707
1.31683 -1.7834965 -0.11618583 5 6 -0.082386404
2.2161152 -3.0025728 0.86156255 33 14 -0.082384095
1.3059407 -1.770041 -0.038395293 8 7 -0.082381792
2.2107773 -2.9975297 0.99800628 30 15 -0.08237949
1.501936 -2.0416491 -0.67914116 1 0 -0.082358755
2.1786447 -2.9626126 0.064189956 1 8 -0.082356453
1.5362775 -2.0898592 -0.59881973 1 1 -0.082354143
2.3180618 -3.1545048 0.20515697 36 9 -0.082351841
1.5299141 -2.081964 -0.50220931 1 2 -0.082349539
2.5194569 -3.4298241 0.37232932 85 10 -0.082347237
1.3936521 -1.8979216 -0.3729398 1 3 -0.082344927
2.4467802 -3.3333256 0.50770777 19 11 -0.082342625
1.3223327 -1.8021148 -0.2744498 1 4 -0.082340322
2.5014105 -3.4102445 0.66985244 82 12 -0.08233802
1.3174508 -1.7961184 -0.19488023 3 5 -0.082335711
2.2207851 -3.0287685 0.73003525 31 13 -0.082333408
1.2987891 -1.7719734 -0.11513911 4 6 -0.082331106
2.1929514 -2.9929988 0.85661358 36 14 -0.082328804
1.3068439 -1.7842683 -0.038604725 7 7 -0.082326502
2.1934531 -2.9958758 0.99490041 32 15 -0.082324192
1.4948001 -2.0468793 -0.67914116 1 0 -0.082303762
2.1682899 -2.9701996 0.064189956 1 8 -0.08230146
1.5289733 -2.0952089 -0.59881973 1 1 -0.082299158
2.295815 -3.1460407 0.20411025 21 9 -0.082296848
2.5027735 -3.4321587 0.3716321 89 10 -0.082292244
1.3846914 -1.8995823 -0.37231407 1 3 -0.082289942
2.4304533 -3.3354285 0.50673276 10 11 -0.082287632
1.3093351 -1.7968637 -0.27298734 1 4 -0.08228533
2.4726424 -3.3945708 0.66515946 86 12 -0.082283027
1.3088275 -1.797485 -0.19453162 2 5 -0.082280725
2.2055779 -3.0301528 0.72850877 33 13 -0.082278416
1.2996464 -1.7861863 -0.11576715 3 6 -0.082276113
2.1726954 -2.9860725 0.85256451 31 14 -0.082273811
1.2926861 -1.777272 -0.038360391 5 7 -0.082271509
2.1778259 -2.9953208 0.99231225 34 15 -0.082269199
1.9768229 -2.7258623 -0.9022432 9 0 -0.082248464
2.1795552 -3.0065157 0.064818241 2 8 -0.082246162
1.9828528 -2.7361865 -0.78013027 30 1 -0.08224386
2.2865417 -3.1552541 0.20421492 1 9 -0.082241558
2.478524 -3.4226885 0.36971465 86 10 -0.082236946
1.376068 -1.9009632 -0.37168834 1 3 -0.082234643
2.4077418 -3.3273876 0.50429535 10 11 -0.082232341
1.3312987 -1.8397931 -0.27883708 1 4 -0.082230031
2.447479 -3.3835452 0.66140497 83 12 -0.082227729
1.3075293 -1.8082733 -0.19522884 2 5 -0.082225427
2.190917 -3.0310857 0.7269823 33 13 -0.082223125
1.2983949 -1.7969617 -0.11618583 4 6 -0.082220815
2.1570747 -2.9853632 0.85031497 34 14 -0.082218513
1.2797601 -1.7718226 -0.038150962 1 7 -0.082216211
2.1565726 -2.9868636 0.98713589 34 15 -0.082213908
1.964386 -2.7277 -0.90069032 11 0 -0.082193173
2.1345234 -2.96504 0.063771099 5 8 -0.082190864
1.9726301 -2.7411649 -0.77968031 36 1 -0.082188562
2.2778466 -3.1664588 0.20442426 1 9 -0.082186259
1.3800205 -1.9190875 -0.4594681 1 2 -0.082183957
2.4625077 -3.4244184 0.36901742 95 10 -0.082181647
1.3628386 -1.8958921 -0.36981112 1 3 -0.082179345
2.3665767 -3.2934401 0.49795815 55 11 -0.082177043
1.3225526 -1.8412044 -0.27834961 1 4 -0.082174741
2.4310446 -3.3856494 0.66015351 83 12 -0.082172431
1.2884297 -1.7950222 -0.19331144 2 5 -0.082170129
2.1654441 -3.0179784 0.72202128 34 13 -0.082167827
1.2944428 -1.804729 -0.11639518 5 6 -0.082165524
2.1443694 -2.9897077 0.84941518 35 14 -0.082163222
1.3201756 -1.8412848 -0.039547153 1 7 -0.082160912
2.1371298 -2.9818115 0.98299474 34 15 -0.08215861
1.9599912 -2.7427402 -0.90327853 13 0 -0.082137875
2.1038816 -2.9451814 0.063177712 5 8 -0.082135573
1.9467157 -2.7261739 -0.77338171 36 1 -0.082133263
2.2406971 -3.1390233 0.20212148 1 9 -0.082130961
1.3661352 -1.914544 -0.45717838 1 2 -0.082128659
2.4360523 -3.4139588 0.36692566 94 10 -0.082126357
1.3742344 -1.9266057 -0.37481701 1 3 -0.082124047
2.3556426 -3.3037086 0.49820194 70 11 -0.082121745
1.3042732 -1.8298745 -0.27591223 1 4 -0.082119443
2.4128876 -3.3864927 0.65858912 82 12 -0.08211714
1.2922447 -1.8143378 -0.19488023 3 5 -0.082114838
2.148675 -3.0178983 0.72011316 27 13 -0.082112528
1.2855031 -1.8062067 -0.11618583 5 6 -0.082110226
2.1266172 -2.9880211 0.84671575 35 14 -0.082107924
2.1239476 -2.9864759 0.98195946 35 15 -0.082103312
1.9499253 -2.7499056 -0.90327853 15 0 -0.082082577
2.1081059 -2.974081 0.063631475 5 8 -0.082080275
1.9276973 -2.7205706 -0.76978248 34 1 -0.082077973
2.2204885 -3.1337886 0.20128411 1 9 -0.082075663
1.3798696 -1.9481386 -0.46404752 1 2 -0.082073361
2.4062538 -3.3984737 0.36431101 35 10 -0.082071058
1.3968351 -1.9735512 -0.38295162 1 3 -0.082068756
2.3343456 -3.2993557 0.496252 87 11 -0.082066454
1.2864125 -1.818211 -0.27347484 1 4 -0.082064144
2.395349 -3.3868313 0.65702486 79 12 -0.082061842
1.2882037 -1.8220912 -0.19522884 2 5 -0.08205954
2.1437926 -3.0333965 0.72202128 13 13 -0.082057238
1.2780381 -1.8090516 -0.11608116 3 6 -0.082054928
2.1105521 -2.9874678 0.84446627 30 14 -0.082052626
2.1068251 -2.9844027 0.97885364 34 15 -0.082048021
1.9341226 -2.7468791 -0.90017265 16 0 -0.082027279
2.2006686 -3.1265924 0.066738002 11 8 -0.082024977
1.9130582 -2.7189791 -0.767533 30 1 -0.082022674
2.2054873 -3.1346011 0.20086543 1 9 -0.082020372
1.9505469 -2.773289 -0.65905434 36 2 -0.08201807
1.3607509 -1.9361525 -0.37481701 1 3 -0.082013458
2.3188269 -3.3005815 0.49527705 93 11 -0.082011156
1.2940698 -1.8419585 -0.2763997 1 4 -0.082008854
2.3761578 -3.38344 0.65483475 82 12 -0.082006544
1.2798649 -1.8230919 -0.19488023 2 5 -0.082004242
2.1449995 -3.0565591 0.72583747 4 13 -0.082001939
1.2674439 -1.8067394 -0.11566247 3 6 -0.081999637
2.0827272 -2.9689248 0.83726782 9 14 -0.081997328
1.8484757 -2.6359782 -0.056196753 23 7 -0.081995025
2.0946991 -2.9882088 0.97781837 35 15 -0.081992723
1.9183611 -2.743778 -0.89706683 28 0 -0.081971988
2.2131994 -3.1666541 0.067436099 52 8 -0.081969686
1.8917543 -2.7077355 -0.76258409 28 1 -0.081967376
2.1808093 -3.1226308 0.19960935 1 9 -0.081965074
1.9447119 -2.7845707 -0.66019917 43 2 -0.081962772
2.2433789 -3.2134168 0.34287068 1 10 -0.081960469
1.3543228 -1.9406544 -0.37481701 1 3 -0.08195816
2.3033261 -3.3017406 0.49430209 82 11 -0.081955858
1.2671937 -1.8171552 -0.27201241 1 4 -0.081953555
2.3507769 -3.3722677 0.65108031 77 12 -0.081951253
1.2783698 -1.8338641 -0.19557749 2 5 -0.081948943
2.2179112 -3.1828513 0.7540772 4 13 -0.081946641
1.2774276 -1.8338766 -0.11712788 2 6 -0.081944339
2.0790324 -2.9857721 0.83996725 34 14 -0.081942037
1.8301238 -2.6292846 -0.055917513 45 7 -0.081939727
2.0699117 -2.9748876 0.97108907 37 15 -0.081937425
1.904366 -2.7441094 -0.89499629 36 0 -0.08191669
2.1827552 -3.1464288 0.06684272 9 8 -0.081914388
1.8900645 -2.7255321 -0.76573336 32 1 -0.081912085
2.175585 -3.1384315 0.20013271 1 9 -0.081909776
1.930506 -2.784888 -0.65867269 43 2 -0.081907474
2.2321482 -3.2212284 0.34287068 1 10 -0.081905171
2.2782259 -3.2901759 0.4913772 67 11 -0.081900559
1.2811793 -1.8509479 -0.2763997 1 4 -0.081898257
2.3389912 -3.3804529 0.65108031 78 12 -0.081895955
1.2560894 -1.8153771 -0.19313712 1 5 -0.081893653
2.2324739 -3.227711 0.7628544 4 13 -0.081891343
1.2642033 -1.8284675 -0.11649985 2 6 -0.081889041
2.0586257 -2.9785831 0.83591807 35 14 -0.081886739
1.8072948 -2.6159141 -0.055498652 43 7 -0.081884436
2.0474389 -2.9646091 0.96539509 37 15 -0.081882134
1.8816252 -2.7316489 -0.88878465 36 0 -0.081861392
2.1456752 -3.1161473 0.066039905 4 8 -0.081859089
1.8661754 -2.7112451 -0.75988466 30 1 -0.081856787
2.1515768 -3.1258864 0.19887665 1 9 -0.081854485
1.9196603 -2.7899923 -0.65829104 41 2 -0.081852175
2.2095997 -3.2125847 0.34112757 1 10 -0.081849873
1.3407418 -1.9500619 -0.37481701 1 3 -0.081847571
2.2644787 -3.294837 0.49088979 75 11 -0.081845269
1.2690899 -1.8472277 -0.275181 2 4 -0.081842959
2.3210571 -3.3784215 0.64920312 78 12 -0.081840657
1.2723033 -1.8525982 -0.19662334 1 5 -0.081838354
2.2489722 -3.275948 0.7723949 4 13 -0.081836052
1.2691141 -1.849337 -0.11754657 1 6 -0.08183375
2.0404992 -2.9745023 0.8327688 37 14 -0.08183144
1.8020039 -2.6268399 -0.055603366 45 7 -0.081829138
2.036504 -2.9697893 0.96487743 37 15 -0.081826836
1.8709881 -2.7366054 -0.88826698 40 0 -0.081806101
2.1364584 -3.1248965 0.066074811 5 8 -0.081803791
1.8461788 -2.7013297 -0.7553857 18 1 -0.081801489
2.1327658 -3.1218338 0.19814396 25 9 -0.081799187
1.9076954 -2.7934337 -0.6575278 42 2 -0.081796885
2.1815221 -3.195595 0.3385129 9 10 -0.081794575
1.3342676 -1.9544972 -0.37481701 1 3 -0.081792273
2.2043068 -3.2301817 0.48016527 11 11 -0.08178997
1.2685506 -1.8596256 -0.2763997 5 4 -0.081787668
2.3059113 -3.3816068 0.64826447 79 12 -0.081785366
1.2658291 -1.8570278 -0.19662334 1 5 -0.081783056
2.2513659 -3.3028543 0.77697426 6 13 -0.081780754
2.0185566 -2.9635355 0.82781988 41 14 -0.08177615
1.7928236 -2.6331141 -0.055603366 50 7 -0.08177384
2.0174294 -2.9641035 0.96073633 37 15 -0.081771538
1.8543079 -2.7316065 -0.88464355 34 0 -0.081750803
2.1232917 -3.1290255 0.066004999 5 8 -0.0817485
2.1140091 -3.1176879 0.19741124 36 9 -0.081743889
1.8902223 -2.7887001 -0.6548565 47 2 -0.081741586
2.1697955 -3.2011623 0.33833858 43 10 -0.081739284
1.3274372 -1.9591428 -0.37481701 1 3 -0.081736982
2.188565 -3.2312822 0.47919029 15 11 -0.081734672
1.2587128 -1.8591107 -0.27566847 3 4 -0.08173237
2.2819142 -3.3716404 0.64482296 82 12 -0.081730068
1.2492912 -1.8465832 -0.19505455 2 5 -0.081727766
2.2282467 -3.2948213 0.77315807 6 13 -0.081725456
2.0027428 -2.9624915 0.82557034 37 14 -0.081720851
1.7701855 -2.6194737 -0.05518451 50 7 -0.081718549
2.0059888 -2.9695268 0.96021873 36 15 -0.081716239
1.8291752 -2.7159517 -0.87739658 36 0 -0.081695504
2.1084588 -3.1318104 0.065900289 4 8 -0.081693202
1.3393642 -1.9901813 -0.55382949 1 1 -0.0816909
2.0958793 -3.1154723 0.19678321 36 9 -0.081688598
1.8745105 -2.7874634 -0.65294844 41 2 -0.081686288
2.1547124 -3.2041337 0.33781564 55 10 -0.081683986
2.1733859 -3.234339 0.47845906 31 11 -0.081679381
1.2507833 -1.8620639 -0.27542472 1 4 -0.081677072
2.264035 -3.3717813 0.64325857 86 12 -0.08167477
1.2569498 -1.8726554 -0.19732061 1 5 -0.081672467
2.2238126 -3.3143783 0.77582937 7 13 -0.081670165
2.1404779 -3.1913795 -0.20138879 3 6 -0.081667855
1.9875294 -2.9633384 0.82377076 38 14 -0.081665553
1.753891 -2.6159787 -0.054975081 51 7 -0.081663251
1.9864876 -2.964021 0.95607764 36 15 -0.081660949
1.8138421 -2.7146063 -0.87480837 33 0 -0.081640214
2.0958552 -3.1378543 0.065865383 8 8 -0.081637904
1.3320607 -1.995077 -0.55382949 1 1 -0.081635602
2.0827734 -3.1194472 0.19657388 36 9 -0.0816333
1.8604097 -2.7874579 -0.65142196 34 2 -0.081630997
2.1396372 -3.2070374 0.3372927 10 10 -0.081628688
2.1659212 -3.2488899 0.47943404 44 11 -0.081624083
1.2351435 -1.8534207 -0.27347484 1 4 -0.081621781
2.2456791 -3.3698013 0.64138144 86 12 -0.081619471
1.314472 -1.9732047 -0.20743066 1 5 -0.081617169
2.2100534 -3.3188524 0.7750662 7 13 -0.081614867
2.1271114 -3.1955063 -0.20117943 31 6 -0.081612565
1.9788138 -2.9738479 0.82467055 38 14 -0.081610255
1.7403179 -2.6154258 -0.054835461 51 7 -0.081607953
1.9675696 -2.9580688 0.95193648 34 15 -0.08160565
1.7990171 -2.7128713 -0.87222022 30 0 -0.081584916
2.0765972 -3.1314547 0.065586142 2 8 -0.081582613
1.7841185 -2.6914246 -0.74548781 28 1 -0.081580304
2.0696654 -3.1233683 0.19636452 7 9 -0.081578001
1.8387424 -2.7759309 -0.64722413 7 2 -0.081575699
2.1537285 -3.2526951 0.34130189 4 10 -0.081573397
2.1474659 -3.2444673 0.47772786 28 11 -0.081568785
1.2881399 -1.946905 -0.28663671 1 4 -0.081566483
2.2317231 -3.3743241 0.64075565 86 12 -0.081564181
2.1860428 -3.3065104 0.77048677 7 13 -0.081559569
2.1021874 -3.1808813 -0.1998187 32 6 -0.081557266
1.9646448 -2.9738898 0.82287097 38 14 -0.081554964
1.7311779 -2.6214845 -0.054835461 52 7 -0.081552662
1.9508462 -2.9552453 0.94883066 34 15 -0.081550352
1.7783252 -2.7010729 -0.86652619 33 0 -0.081529617
2.0579581 -3.1269917 0.065341808 1 8 -0.081527315
1.7682866 -2.6878676 -0.74278837 30 1 -0.081525013
2.0499709 -3.117224 0.19552715 1 9 -0.081522703
1.829527 -2.7820129 -0.64722413 1 2 -0.081520401
2.1560638 -3.279798 0.34339362 3 10 -0.081518099
2.1383076 -3.2552617 0.47821537 26 11 -0.081513487
2.2134273 -3.3721852 0.63887841 86 12 -0.081508882
2.0881765 -3.1813641 -0.33293492 1 5 -0.08150658
2.1809497 -3.3239701 0.77277648 9 13 -0.081504278
2.0844991 -3.1781793 -0.19919068 33 6 -0.081501968
1.9446355 -2.9660621 0.81882185 39 14 -0.081499666
1.7176319 -2.6208215 -0.054695841 51 7 -0.081497364
1.9405184 -2.9620371 0.94883066 34 15 -0.081495062
1.7625457 -2.6975608 -0.86342037 31 0 -0.081474319
2.0514045 -3.1408529 0.065481432 1 8 -0.081472017
1.7546319 -2.6874969 -0.74098879 31 1 -0.081469715
2.0259778 -3.10429 0.19427109 1 9 -0.081467412
1.7876148 -2.7390597 -0.63577563 1 2 -0.08146511
2.1652858 -3.3190086 0.34670553 6 10 -0.081462801
2.1453605 -3.2909758 0.4823589 23 11 -0.081458196
2.193017 -3.3666496 0.63637549 93 12 -0.081453584
2.0705335 -3.1786168 -0.33188906 28 5 -0.081451282
2.1650486 -3.3249817 0.77125001 9 13 -0.08144898
2.0690343 -3.1787405 -0.19877198 35 6 -0.081446677
1.9289564 -2.9646649 0.81657231 38 14 -0.081444368
1.6997507 -2.6133907 -0.054416601 51 7 -0.081442066
1.9280616 -2.9655533 0.94779539 37 15 -0.081439763
1.7373536 -2.6793828 -0.85565579 34 0 -0.081419028
2.0295517 -3.1312144 0.06513238 2 8 -0.081416726
1.7420614 -2.6886988 -0.73963904 32 1 -0.081414416
2.0058987 -3.0959055 0.19332905 9 9 -0.081412114
1.3362002 -2.0630817 -0.47778577 1 2 -0.081409812
2.1699293 -3.3516338 0.34932023 16 10 -0.08140751
2.1252337 -3.285111 0.480409 8 11 -0.081402898
2.1700411 -3.3556569 0.63293391 89 12 -0.081398293
2.0529361 -3.1757858 -0.33084321 35 5 -0.081395984
2.1449046 -3.3193271 0.768197 9 13 -0.081393681
2.0514235 -3.1758773 -0.19814396 35 6 -0.081391379
1.9122535 -2.9615576 0.81387293 19 14 -0.081389077
1.684567 -2.6089334 -0.054207176 50 7 -0.081386767
1.9087881 -2.9573231 0.94313669 37 15 -0.081384465
1.7185818 -2.6708097 -0.85099703 33 0 -0.08136373
2.0094187 -3.1227925 0.064818241 2 8 -0.081361428
1.7331356 -2.6944609 -0.73963904 32 1 -0.081359126
2.0091219 -3.1247284 0.19468978 1 9 -0.081356816
2.1571395 -3.3575113 0.34914589 99 10 -0.081352212
2.096092 -3.2637455 0.47626543 23 11 -0.0813476
2.1529801 -3.3548992 0.63136959 83 12 -0.081342995
2.03108 -3.1661625 -0.32910007 37 5 -0.081340693
2.1307054 -3.3214643 0.76705217 10 13 -0.081338383
2.0387244 -3.1793001 -0.1979346 35 6 -0.081336081
1.890854 -2.9498355 0.80892402 15 14 -0.081333779
1.6711344 -2.6080627 -0.054067552 52 7 -0.081331477
1.8880335 -2.9477003 0.93796021 39 15 -0.081329167
1.7117954 -2.6797504 -0.8520323 39 0 -0.081308432
2.0157247 -3.1567543 0.065376714 2 8 -0.08130613
1.7121865 -2.6824255 -0.73469019 36 1 -0.081303827
2.0110939 -3.151927 0.19594584 1 9 -0.081301525
1.3897113 -2.1780527 -0.50220931 1 2 -0.081299216
2.1631362 -3.3915231 0.35193488 95 10 -0.081296913
2.0814862 -3.2660201 0.47553423 5 11 -0.081292309
2.1370118 -3.3557293 0.63011813 83 12 -0.081287697
2.0227096 -3.1762416 -0.3294487 35 5 -0.081285395
2.1127727 -3.3189449 0.76476252 10 13 -0.081283092
1.6651955 -2.6168563 -0.1625555 7 6 -0.081280783
1.8826374 -2.9597065 0.80982381 15 14 -0.081278481
1.6620202 -2.6138802 -0.054067552 51 7 -0.081276178
1.8766966 -2.9526422 0.93744266 43 15 -0.081273876
1.6982942 -2.6791825 -0.84996176 39 0 -0.081253141
2.0218182 -3.1907976 0.065935194 4 8 -0.081250831
1.6955131 -2.6768618 -0.7315408 37 1 -0.081248529
2.0075581 -3.1707399 0.19667853 6 9 -0.081246227
1.7496797 -2.7634463 -0.63577563 10 2 -0.081243925
2.1384983 -3.3788512 0.34984317 94 10 -0.081241615
1.6707977 -2.6408989 -0.4949587 7 3 -0.081239313
2.0446079 -3.2330003 0.46968448 13 11 -0.081237011
2.1210642 -3.3564882 0.62886661 86 12 -0.081232399
1.6518621 -2.6139972 -0.27053142 29 5 -0.081230097
2.1022232 -3.3279591 0.76514411 12 13 -0.081227794
1.6496527 -2.6125202 -0.16192746 37 6 -0.081225492
1.8587729 -2.9448371 0.80397505 26 14 -0.08122319
1.6464838 -2.6095188 -0.053858127 51 7 -0.08122088
1.8653479 -2.9575412 0.93692499 40 15 -0.081218578
1.7002461 -2.7030823 -0.85565579 40 0 -0.081197843
2.0181189 -3.2096858 0.066179529 5 8 -0.081195541
1.6757888 -2.6662648 -0.72704178 37 1 -0.081193231
2.0039155 -3.1895666 0.19741124 9 9 -0.081190929
1.6731791 -2.6631444 -0.61135209 28 2 -0.081188627
2.1203327 -3.3761718 0.34879729 87 10 -0.081186324
1.6594684 -2.6433692 -0.49433297 41 3 -0.081184015
2.0280342 -3.2317104 0.46846578 11 11 -0.081181712
2.0998905 -3.34881 0.62605083 82 12 -0.081177108
1.6501367 -2.6315632 -0.27175158 46 5 -0.081174806
2.0905936 -3.3352771 0.76514411 12 13 -0.081172496
1.6352208 -2.6098001 -0.1614041 40 6 -0.081170194
1.8464131 -2.9480045 0.80307525 37 14 -0.081167892
1.630998 -2.6050804 -0.053648699 51 7 -0.081165589
1.8529629 -2.9607592 0.93588972 40 15 -0.08116328
1.6437483 -2.6336143 -0.83184445 37 0 -0.081142545
2.0005522 -3.2065313 0.0659701 16 8 -0.081140243
1.6417222 -2.6324134 -0.71624416 42 1 -0.08113794
1.9927701 -3.196542 0.19741124 33 9 -0.081135638
1.6379075 -2.6273177 -0.60181159 47 2 -0.081133328
2.099051 -3.3683343 0.34722847 84 10 -0.081131026
1.6450089 -2.6407623 -0.49276862 51 3 -0.081128724
2.0303819 -3.2606764 0.47163439 2 11 -0.081126422
2.0840135 -3.3494105 0.62479931 82 12 -0.08112181
1.6198895 -2.6034739 -0.26826537 45 5 -0.081119508
2.0758278 -3.337553 0.76399928 13 13 -0.081117205
1.6250467 -2.6137962 -0.16129944 36 6 -0.081114896
1.8330256 -2.9494662 0.80172557 37 14 -0.081112593
1.6134528 -2.5971689 -0.053369459 49 7 -0.081110291
1.8314061 -2.9491563 0.93019569 45 15 -0.081107989
1.627425 -2.6278391 -0.82822096 42 0 -0.081087254
1.9830314 -3.2032933 0.065760665 33 8 -0.081084944
1.6335486 -2.6397851 -0.71669406 50 1 -0.081082642
1.9847518 -3.2085743 0.19772527 19 9 -0.08108034
1.625628 -2.6280103 -0.60066676 45 2 -0.081078038
2.0799456 -3.3637786 0.3460083 81 10 -0.081075728
1.623318 -2.6263247 -0.48901421 42 3 -0.081073426
2.0137711 -3.2593 0.47041571 1 11 -0.081071123
2.0640078 -3.3432176 0.62229639 82 12 -0.081066512
1.610792 -2.6091125 -0.26826537 43 5 -0.081064209
2.0569477 -3.3330839 0.76132792 15 13 -0.081061907
1.6117184 -2.6126535 -0.16088074 37 6 -0.081059605
1.8196501 -2.9508705 0.80037582 40 14 -0.081057295
1.6001799 -2.5959761 -0.053229842 51 7 -0.081054993
1.8129933 -2.9423738 0.92605454 45 15 -0.081052691
1.6111623 -2.6219823 -0.82459748 41 0 -0.081031956
1.9666047 -3.2016764 0.065586142 39 8 -0.081029654
1.6090291 -2.6205609 -0.7099455 39 1 -0.081027344
1.9735396 -3.215483 0.19772527 18 9 -0.081025042
1.6102828 -2.6236293 -0.59837705 37 2 -0.081022739
2.064024 -3.3642251 0.34531105 81 10 -0.081020437
1.5893553 -2.5915608 -0.48150533 43 3 -0.081018128
1.9982316 -3.2595401 0.46944076 1 11 -0.081015825
2.0481977 -3.3436642 0.62104493 82 12 -0.081011221
1.5808601 -2.5807397 -0.26477915 41 5 -0.081008911
2.039149 -3.3301978 0.75903821 16 13 -0.081006609
1.5942473 -2.6046355 -0.16004337 33 6 -0.081004307
1.8032366 -2.9472306 0.79767644 41 14 -0.081002004
1.5931948 -2.6049581 -0.053299651 50 7 -0.080999702
1.800696 -2.9453878 0.92501926 43 15 -0.080997393
1.606023 -2.6341879 -0.82666808 40 0 -0.080975056
1.9491725 -3.198276 0.065376714 35 8 -0.080972753
1.5785807 -2.5912127 -0.70049757 40 1 -0.080970451
1.9477602 -3.1984704 0.19625986 18 9 -0.080968142
1.5878402 -2.6074359 -0.59341598 39 2 -0.080965839
2.0501957 -3.368006 0.34496242 81 10 -0.080963537
1.5802993 -2.5970929 -0.48150533 42 3 -0.080961235
1.957957 -3.2190075 0.46261609 1 11 -0.080958925
2.0324099 -3.3440413 0.61979342 78 12 -0.080954321
1.5718421 -2.5862424 -0.26477915 40 5 -0.080952018
2.0224156 -3.3289058 0.75713015 23 13 -0.080949709
1.5758154 -2.5948205 -0.15910132 32 6 -0.080947407
1.7858589 -2.9418461 0.79452711 38 14 -0.080945104
1.5799428 -2.6036651 -0.05316003 50 7 -0.080942802
1.786396 -2.9450486 0.92294878 45 15 -0.080940492
1.5968182 -2.6397781 -0.82666808 40 0 -0.080919757
1.9359269 -3.201638 0.065306902 35 8 -0.080917455
1.5695262 -2.5967069 -0.70049757 43 1 -0.080915153
1.9334855 -3.2001214 0.19594584 19 9 -0.080912851
1.5645156 -2.5894375 -0.58807337 41 2 -0.080910541
2.0343068 -3.3683202 0.34426519 87 10 -0.080908239
1.5732663 -2.6059756 -0.48213109 43 3 -0.080905937
1.9282464 -3.1952298 0.45822877 2 11 -0.080903634
1.5718867 -2.6057463 -0.37365144 7 4 -0.080901325
2.0135841 -3.3392739 0.61760336 83 12 -0.080899023
1.5628047 -2.5917134 -0.26477915 41 5 -0.08089672
2.010783 -3.3359454 0.75713015 27 13 -0.080894418
1.5646868 -2.5968838 -0.15889199 31 6 -0.080892108
1.7675358 -2.9347076 0.79092795 38 14 -0.080889806
1.5605307 -2.5920324 -0.052810986 51 7 -0.080887504
1.7761054 -2.9512661 0.92294878 43 15 -0.080885202
1.5846114 -2.6403668 -0.82511514 36 0 -0.080864467
1.9226824 -3.2049465 0.065237097 35 8 -0.080862157
1.5544393 -2.5921423 -0.69779819 40 1 -0.080859855
1.9156725 -3.1945255 0.19521314 28 9 -0.080857553
1.5514294 -2.5881472 -0.5865469 39 2 -0.08085525
2.0133202 -3.360019 0.34269637 84 10 -0.080852941
1.5580698 -2.6012836 -0.48025388 45 3 -0.080850638
1.9119825 -3.1934254 0.45701009 8 11 -0.080848336
1.5576842 -2.6027007 -0.37243277 45 4 -0.080846034
1.9964129 -3.335763 0.61572611 83 12 -0.080843724
1.5414741 -2.5766354 -0.26268741 41 5 -0.080841422
1.9971108 -3.3395741 0.75636691 31 13 -0.08083912
1.5556123 -2.6023297 -0.15889199 32 6 -0.080836818
1.7532823 -2.9341681 0.7891283 38 14 -0.080834515
1.5478234 -2.5903268 -0.052671362 48 7 -0.080832206
1.7514492 -2.9322622 0.9151842 42 15 -0.080829903
1.5664903 -2.6309431 -0.82045639 31 0 -0.080809169
1.9069285 -3.202714 0.065062575 42 8 -0.080806866
1.5478281 -2.600632 -0.69869798 40 1 -0.080804557
1.9065521 -3.2046258 0.19542249 37 9 -0.080802254
1.5423856 -2.5935471 -0.5865469 42 2 -0.080799952
1.9883441 -3.3447618 0.34043032 81 10 -0.08079765
1.5393411 -2.5894561 -0.4771252 43 3 -0.08079534
1.8952982 -3.1895087 0.45554763 12 11 -0.080793038
1.5419484 -2.5959048 -0.37072656 46 4 -0.080790736
1.9847571 -3.3427114 0.61572611 83 12 -0.080788434
1.5284029 -2.5751472 -0.26199016 43 5 -0.080786131
1.9780095 -3.3326716 0.75331396 35 13 -0.080783822
1.5530883 -2.6177804 -0.15952002 30 6 -0.080781519
1.7415546 -2.9366138 0.78822851 36 14 -0.080779217
1.538772 -2.5957141 -0.052671362 49 7 -0.080776915
1.7402182 -2.9366961 0.91466653 45 15 -0.080774605
1.5528433 -2.6278071 -0.81786817 36 0 -0.08075387
1.8977712 -3.2127943 0.06513238 42 8 -0.080751568
1.5327958 -2.5959508 -0.69599855 43 1 -0.080749266
1.9024608 -3.2233012 0.19615518 36 9 -0.080746956
1.5277892 -2.5885026 -0.58425713 42 2 -0.080744654
1.9772414 -3.3513372 0.34043032 87 10 -0.080742352
1.5262787 -2.5880075 -0.47587368 43 3 -0.080740049
1.8720558 -3.1755843 0.45262277 20 11 -0.080737747
1.536909 -2.6081126 -0.37170154 43 4 -0.080735438
1.9670612 -3.339407 0.61384892 86 12 -0.080733135
1.5178325 -2.5767679 -0.26164153 41 5 -0.080730833
1.9573989 -3.3243303 0.74987942 39 13 -0.080728531
1.5277317 -2.5956454 -0.15784526 32 6 -0.080726221
1.7332699 -2.946034 0.7891283 38 14 -0.080723919
1.52362 -2.5907271 -0.052461933 50 7 -0.080721617
1.723103 -2.9310949 0.91104311 40 15 -0.080719315
1.5299829 -2.6098793 -0.81062132 34 0 -0.080698572
1.8885673 -3.2228496 0.065202191 42 8 -0.08069627
1.5158454 -2.5878332 -0.69239932 46 1 -0.080693968
1.8901886 -3.228199 0.19605052 46 9 -0.080691665
1.5217204 -2.5989027 -0.58540201 43 2 -0.080689363
1.963518 -3.3547797 0.34008169 87 10 -0.080687054
1.5132455 -2.5864995 -0.47462222 46 3 -0.080684751
1.856951 -3.1752455 0.45164782 37 11 -0.080682449
1.5137697 -2.5894687 -0.36828917 41 4 -0.080680147
1.9553925 -3.3462532 0.61384892 83 12 -0.080677837
1.510839 -2.5854912 -0.26199016 40 5 -0.080675535
1.9467731 -3.3328378 0.75026101 42 13 -0.080673233
1.5126199 -2.5906138 -0.15721723 31 6 -0.08067093
1.7151172 -2.938602 0.78552908 37 14 -0.080668621
1.5125518 -2.5925753 -0.052392125 51 7 -0.080666319
1.7109147 -2.9337542 0.91000783 42 15 -0.080664016
1.5169787 -2.6085241 -0.80855072 42 0 -0.080643281
1.8903705 -3.2518971 0.065655954 27 8 -0.080640979
1.5038656 -2.5880539 -0.69104964 47 1 -0.080638669
1.8955282 -3.2620795 0.19772527 25 9 -0.080636367
1.5067228 -2.594013 -0.58311236 43 2 -0.080634065
1.9497952 -3.3581672 0.33973309 87 10 -0.080631763
1.5002418 -2.5849319 -0.47337076 48 3 -0.080629453
1.8438638 -3.1782742 0.45116034 37 11 -0.080627151
1.5007381 -2.5878682 -0.36731425 42 4 -0.080624849
1.9304113 -3.3287952 0.60946876 93 12 -0.080622546
1.4968086 -2.5821304 -0.26111859 28 5 -0.080620237
1.9292214 -3.329421 0.7479713 46 13 -0.080617934
1.5035676 -2.5958781 -0.15721723 32 6 -0.080615632
1.6970375 -2.9310794 0.78192985 36 14 -0.08061333
1.4939265 -2.5802712 -0.052043077 52 7 -0.08061102
1.6982739 -2.9343958 0.9084549 43 15 -0.080608718
1.4895225 -2.5820098 -0.79871565 42 0 -0.080587983
1.8965635 -3.2875943 0.066249333 30 8 -0.080585681
1.4943016 -2.5913389 -0.69059974 46 1 -0.080583379
1.8960989 -3.2894409 0.19898133 30 9 -0.080581069
1.4898177 -2.5856481 -0.58005941 47 2 -0.080578767
1.9291115 -3.3494143 0.33816427 90 10 -0.080576465
1.4956049 -2.5967398 -0.47462222 46 3 -0.080574162
1.8323237 -3.1826508 0.45091662 39 11 -0.080571853
1.4891781 -2.5876689 -0.36658302 46 4 -0.08056955
1.9108998 -3.3218153 0.60696578 86 12 -0.080567248
1.4808342 -2.5752492 -0.25989842 25 5 -0.080564946
1.9152344 -3.3306942 0.74682647 48 13 -0.080562636
1.4929607 -2.5973866 -0.15700789 31 6 -0.080560334
1.6843959 -2.931622 0.78058016 40 14 -0.080558032
1.4829187 -2.5820024 -0.051973268 51 7 -0.08055573
1.6803256 -2.9269025 0.9043138 39 15 -0.080553427
1.477113 -2.5802283 -0.79664505 42 0 -0.080532685
1.8969948 -3.3150215 0.06666819 42 8 -0.080530383
1.4833118 -2.5931559 -0.68969995 46 1 -0.08052808
1.9044324 -3.3307164 0.20107476 58 9 -0.080525778
1.481235 -2.5905743 -0.58005941 43 2 -0.080523469
1.9110732 -3.3436847 0.3369441 87 10 -0.080521166
1.4786921 -2.588223 -0.47211927 46 3 -0.080518864
1.8182496 -3.183856 0.45018539 48 11 -0.080516562
1.478168 -2.5894036 -0.36609554 46 4 -0.080514252
1.8973351 -3.3250337 0.60634005 93 12 -0.08051195
1.4633991 -2.5645714 -0.25832963 22 5 -0.080509648
1.8977602 -3.3271272 0.74453676 49 13 -0.080507345
1.4799279 -2.5956421 -0.1565892 31 6 -0.080505043
1.6731873 -2.9357908 0.78013027 38 14 -0.080502734
1.4699376 -2.5802126 -0.051833645 52 7 -0.080500431
1.6653186 -2.9243565 0.90172559 34 15 -0.080498129
1.4661895 -2.5820091 -0.79560977 42 0 -0.080477394
