# .PCD v0.7 - Point Cloud Data file format
VERSION 0.7
FIELDS x y z intensity ring time
SIZE 4 4 4 4 2 4
TYPE F F F F U F
COUNT 1 1 1 1 1 1
WIDTH 956
HEIGHT 1
VIEWPOINT 0 0 0 1 0 0 0
POINTS 956
DATA ascii
6.1120129 1.4155641 0.99367183 68 12 -0.026521945
5.6078086 1.2977574 -0.50358588 60 5 -0.026519641
8.3604336 1.934769 1.6680523 12 13 -0.026517337
5.602282 1.2954512 -0.30135047 51 6 -0.026515033
7.1144948 1.6438181 1.6857833 52 14 -0.026512729
5.7634959 1.3306078 -0.10324844 23 7 -0.026510425
6.1780829 1.4251901 1.6988882 43 15 -0.026508121
3.7847161 0.8682065 -1.0404526 13 0 -0.026487384
5.6271892 1.2898325 0.10077019 38 8 -0.02648508
4.4354639 1.0158572 -1.0505214 9 1 -0.026482776
6.0763636 1.3905575 0.32668105 63 9 -0.026480474
5.4026027 1.2363694 -1.0773077 12 2 -0.026478169
6.1064625 1.396324 0.54803526 62 10 -0.026475865
5.5615697 1.2707057 -0.90356559 31 3 -0.026473561
6.1058717 1.3939464 0.76899564 82 11 -0.026471257
5.5293717 1.2613186 -0.69636148 70 4 -0.026468953
6.0995827 1.3902709 0.99085599 63 12 -0.026466649
5.6431623 1.2862395 -0.5063749 50 5 -0.026464345
8.3728771 1.9068834 1.6691971 10 13 -0.026462041
5.6106644 1.2767724 -0.30155981 51 6 -0.026459737
7.1163883 1.6181113 1.6848834 53 14 -0.026457433
5.8012552 1.318014 -0.10384182 19 7 -0.026455129
6.198092 1.4070356 1.7030294 43 15 -0.026452824
3.7745326 0.85201144 -1.0368291 8 0 -0.02643209
5.6453114 1.2732629 0.10101452 40 8 -0.026429785
4.4408841 1.0007979 -1.0509714 11 1 -0.026427481
6.081181 1.369337 0.32668105 63 9 -0.026425177
5.3858175 1.2127577 -1.0731099 10 2 -0.026422873
6.0860305 1.369313 0.54576921 60 10 -0.026420569
5.5948806 1.2577847 -0.90825862 29 3 -0.026418265
6.0816474 1.3660969 0.76533955 87 11 -0.026415961
5.5453629 1.2446167 -0.69782394 54 4 -0.026413657
6.0600657 1.3590302 0.98365998 68 12 -0.026411353
5.6592822 1.2691505 -0.50742072 49 5 -0.026409049
8.4158831 1.8857988 1.6764479 1 13 -0.026406744
5.6891499 1.2737604 -0.30553734 15 6 -0.02640444
7.1257968 1.594113 1.6857833 52 14 -0.026402136
5.864367 1.3108408 -0.10488896 13 7 -0.026399832
6.1935391 1.3832846 1.7004411 46 15 -0.026397528
3.7623963 0.83548301 -1.032688 12 0 -0.026376793
5.6536269 1.2544142 0.10108434 21 8 -0.026374489
4.438643 0.98402357 -1.0496217 11 1 -0.026372185
6.0917726 1.3494012 0.32699507 80 9 -0.026369881
5.3881006 1.1935295 -1.0727283 12 2 -0.026367577
6.0888276 1.3476311 0.54559493 52 10 -0.026365273
5.6050234 1.2395254 -0.90919721 25 3 -0.026362969
6.0980082 1.3474336 0.76680195 73 11 -0.026360665
5.9044032 1.3035704 -0.74242812 56 4 -0.02635836
6.0898499 1.3433986 0.98772728 66 12 -0.026356056
5.6792426 1.2528201 -0.50881523 49 5 -0.026353752
6.0833874 1.3408595 1.210874 4 13 -0.026351448
5.7189178 1.2594793 -0.30689809 37 6 -0.026349144
7.1389308 1.5709029 1.6875829 48 14 -0.02634684
5.9587464 1.3101162 -0.10649458 13 7 -0.026344536
5.5417027 1.2174093 1.5203031 26 15 -0.026342232
3.776614 0.82481694 -1.0357939 12 0 -0.026321497
6.0018258 1.3097054 0.10722758 32 8 -0.026319193
4.4363389 0.96727931 -1.0482719 10 1 -0.026316889
6.0847373 1.3255764 0.32636705 53 9 -0.026314585
5.3979893 1.1759665 -1.073873 10 2 -0.02631228
6.0818138 1.3238248 0.54454905 62 10 -0.026309976
5.6247578 1.2233123 -0.91170013 22 3 -0.026307672
6.0890961 1.323187 0.76509583 82 11 -0.026305368
6.0136714 1.3056948 -0.75559002 60 4 -0.026303064
6.0964327 1.3225532 0.98804021 68 12 -0.02630076
5.7069464 1.2380583 -0.51090699 55 5 -0.026298456
6.1878023 1.341244 1.2307181 1 13 -0.026296152
6.0785451 1.3164481 -0.32594836 55 6 -0.02629385
7.151989 1.5476239 1.6893824 54 14 -0.026291545
6.0961919 1.3180455 -0.10886811 30 7 -0.026289241
5.5383658 1.1964245 1.5182326 39 15 -0.026286937
3.7794704 0.81162804 -1.0357939 10 0 -0.0262662
6.0865235 1.3059515 0.10865869 62 8 -0.026263896
4.430161 0.94974399 -1.0460224 8 1 -0.026261592
6.0795631 1.3022354 0.32584369 63 9 -0.026259288
5.3943825 1.1554705 -1.0723467 12 2 -0.026256984
6.0825009 1.3017575 0.54420048 65 10 -0.02625468
5.6463795 1.2073869 -0.91451597 21 3 -0.026252376
6.0878544 1.3006781 0.7643646 84 11 -0.026250072
5.6143909 1.1985003 -0.70489234 16 4 -0.02624777
6.0932841 1.2996145 0.98678869 68 12 -0.026245466
5.738513 1.2239467 -0.51334733 57 5 -0.026243161
6.2116485 1.3237265 1.2345343 8 13 -0.026240857
6.087009 1.2960581 -0.32615772 48 6 -0.026238553
7.1497235 1.5210254 1.6875829 52 14 -0.026236249
6.1027117 1.2971718 -0.10890301 69 7 -0.026233945
5.5311689 1.1746806 1.5151267 52 15 -0.026231641
3.7936215 0.80082524 -1.0388998 9 0 -0.026210904
6.0910454 1.284696 0.10865869 62 8 -0.0262086
4.4277291 0.93306744 -1.0446726 10 1 -0.026206296
6.0547552 1.2748346 0.32427362 59 9 -0.026203992
5.3945403 1.1358258 -1.0715834 10 2 -0.026201688
6.0909071 1.2813363 0.54454905 65 10 -0.026199386
5.6776237 1.1933569 -0.91889614 22 3 -0.026197081
6.0884714 1.2786049 0.76387709 84 11 -0.026194777
5.9604712 1.2506381 -0.74779034 13 4 -0.026192473
6.0784507 1.2742825 0.98365998 75 12 -0.026190169
5.7720008 1.2100384 -0.51596195 42 5 -0.026187865
6.2085447 1.3004272 1.2330078 15 13 -0.026185561
6.0778122 1.2719371 -0.32542503 52 6 -0.026183257
7.151175 1.4952594 1.6866829 42 14 -0.026180953
6.0935006 1.2730004 -0.10865869 51 7 -0.026178649
5.5314541 1.1545751 1.5140915 65 15 -0.026176345
3.7793698 0.78404534 -1.034241 15 0 -0.026155608
6.0857015 1.2613984 0.10848416 65 8 -0.026153306
4.4385915 0.91918987 -1.0464723 7 1 -0.026151001
6.0533009 1.2524761 0.32395959 76 9 -0.026148697
5.3830919 1.1138046 -1.0685304 8 2 -0.026146393
6.0699782 1.2548221 0.542283 75 10 -0.026144089
5.7204447 1.1815264 -0.92515355 22 3 -0.026141785
6.079289 1.2545344 0.76217091 85 11 -0.026139481
6.003684 1.2378402 -0.7526651 68 4 -0.026137177
6.0635133 1.2490755 0.98053133 76 12 -0.026134873
5.9362044 1.2228501 -0.5302555 65 5 -0.026132569
6.0822859 1.2518331 1.2070577 37 13 -0.026130265
6.0822158 1.2507123 -0.32542503 52 6 -0.026127961
7.1678033 1.4726461 1.6893824 13 14 -0.026125656
6.086154 1.249308 -0.10844925 51 7 -0.026123352
5.5486984 1.1379752 1.517715 18 15 -0.026121048
3.7726185 0.76892167 -1.0316528 14 0 -0.026100313
6.0822301 1.2385498 0.10834454 77 8 -0.026098009
4.4475017 0.90485495 -1.047822 11 1 -0.026095705
6.0732942 1.2345226 0.32479697 70 9 -0.026093401
5.3984909 1.0973549 -1.0708202 12 2 -0.026091097
6.0743217 1.2336276 0.542283 67 10 -0.026088793
5.7380862 1.1642992 -0.92734367 24 3 -0.026086489
6.0875225 1.2340963 0.76265842 85 11 -0.026084185
6.0138054 1.2180593 -0.75339633 68 4 -0.026081881
6.075582 1.229468 0.98178285 76 12 -0.026079576
6.0244083 1.2191124 -0.5377509 72 5 -0.026077272
6.2078509 1.2551033 1.2310997 16 13 -0.026074968
6.076755 1.2274976 -0.32490164 55 6 -0.026072664
6.0210342 1.2151484 1.4180914 5 14 -0.02607036
6.080677 1.226078 -0.10827474 54 7 -0.026068056
5.5412736 1.1163117 1.5146091 5 15 -0.026065752
3.7752798 0.75574708 -1.0316528 9 0 -0.026045017
6.0590644 1.2118193 0.10785587 60 8 -0.026042713
4.4296126 0.88512546 -1.042873 10 1 -0.026040409
6.06952 1.2128118 0.32437828 63 9 -0.026038105
5.3868861 1.0754303 -1.0677671 10 2 -0.026035801
6.0746832 1.2116357 0.54193443 67 10 -0.026033496
5.8757882 1.1709014 -0.94893163 78 3 -0.026031192
6.0762177 1.2097397 0.76070851 85 11 -0.026028888
6.0413842 1.2017055 -0.75632119 70 4 -0.026026584
6.0641265 1.2062292 0.97927988 78 12 -0.02602428
6.0540304 1.2031256 -0.54001695 63 5 -0.026021976
6.210268 1.2330482 1.2307181 13 13 -0.026019672
6.0731668 1.2047222 -0.32448295 57 6 -0.026017368
6.0367084 1.196398 1.4207909 71 14 -0.026015066
6.078824 1.2047448 -0.10817002 54 7 -0.026012762
3.7911637 0.74517137 -1.0352762 14 0 -0.025989721
6.0610876 1.1913358 0.10782097 55 8 -0.025987417
4.4172263 0.86742616 -1.0392739 7 1 -0.025985112
6.0580373 1.1885401 0.3235409 63 9 -0.025982808
5.3906074 1.0566186 -1.0677671 10 2 -0.025980504
6.0808306 1.1908079 0.54210871 75 10 -0.0259782
6.0386 1.1825379 -0.97458684 74 3 -0.025975896
6.0626631 1.1861515 0.75851488 87 11 -0.025973592
6.0375433 1.1801429 -0.7553463 61 4 -0.025971288
6.0721769 1.1858125 0.97990561 76 12 -0.025968984
6.0718832 1.1846551 -0.54123718 60 5 -0.025966682
6.2201037 1.2135736 1.2318629 12 13 -0.025964377
6.0751677 1.1841954 -0.32437828 58 6 -0.025962073
6.0196013 1.1722738 1.4158419 52 14 -0.025959769
6.0869179 1.1842805 -0.10823982 54 7 -0.025957465
6.3243546 1.229331 1.7263231 17 15 -0.025955161
3.7936141 0.73259419 -1.0352762 18 0 -0.025934424
6.0593185 1.1690361 0.10771625 60 8 -0.02593212
4.4221401 0.85237163 -1.0397238 10 1 -0.025929816
6.0425377 1.1636081 0.32249418 57 9 -0.025927512
5.36902 1.0339091 -1.0628061 12 2 -0.025925208
6.07692 1.1691321 0.54141146 70 10 -0.025922904
6.0679092 1.1663005 -0.97865415 56 3 -0.025920602
6.0550699 1.1627339 0.75705242 84 11 -0.025918297
6.0669689 1.1639241 -0.75851488 57 4 -0.025915993
6.0588188 1.1612641 0.97708976 75 12 -0.025913689
6.075778 1.1645147 -0.54123718 57 5 -0.025911385
6.2243023 1.1918523 1.2318629 5 13 -0.025909081
6.0674944 1.1607316 -0.32375026 60 6 -0.025906777
6.0160003 1.1497922 1.4140424 15 14 -0.025904473
6.0733376 1.159649 -0.10792568 54 7 -0.025902169
3.7961481 0.71934837 -1.0352762 11 0 -0.025879128
6.0613976 1.1475043 0.10768134 62 8 -0.025876824
4.4289179 0.83765554 -1.0406237 11 1 -0.025874522
6.0426373 1.1417682 0.32228485 63 9 -0.025872217
5.3822417 1.0169852 -1.0647143 10 2 -0.025869913
6.0555124 1.1431065 0.53914541 77 10 -0.025867609
6.0855317 1.1476735 -0.98084426 50 3 -0.025865305
6.0649438 1.1426946 0.75778365 82 11 -0.025863001
6.0670938 1.1420033 -0.75802737 56 4 -0.025860697
6.0414805 1.1360905 0.97364825 72 12 -0.025858393
6.0602245 1.1396153 -0.53949404 58 5 -0.025856089
6.1473856 1.1548949 1.215835 31 13 -0.025853785
6.0675831 1.1388063 -0.3235409 58 6 -0.025851481
6.0257239 1.1298614 1.415392 67 14 -0.025849177
6.053762 1.1340251 -0.10750683 58 7 -0.025846872
6.374558 1.1929668 1.7377111 91 15 -0.025844568
3.7701461 0.70079803 -1.0275117 10 0 -0.025823833
6.0555358 1.1245149 0.10750683 60 8 -0.025821529
4.4452276 0.82467771 -1.0437729 7 1 -0.025819225
6.054441 1.1221256 0.32270354 55 9 -0.025816921
5.3780365 0.99676138 -1.0631877 12 2 -0.025814617
6.0535884 1.1208749 0.5386225 62 10 -0.025812313
6.0545368 1.1199577 -0.97521257 46 3 -0.025810009
6.0669427 1.1211575 0.75753987 84 11 -0.025807705
6.0808034 1.1226214 -0.75924611 46 4 -0.025805401
6.0473523 1.1153544 0.97396111 75 12 -0.025803097
6.0524101 1.1162872 -0.53844815 60 5 -0.025800793
6.2150941 1.1451707 1.2284284 27 13 -0.025798488
6.0793786 1.1190643 -0.32395959 62 6 -0.025796184
6.0257974 1.1081171 1.4144921 11 14 -0.02579388
6.0655508 1.1143302 -0.10764644 54 7 -0.025791576
5.6110373 1.0298172 1.5285853 30 15 -0.025789272
3.7877738 0.69040573 -1.0316528 14 0 -0.025768537
6.0436854 1.1005028 0.10722758 60 8 -0.025766233
4.4212375 0.80427188 -1.0374742 7 1 -0.025763929
6.0622511 1.1017004 0.32291287 55 9 -0.025761625
5.3525095 0.97271818 -1.0574635 12 2 -0.025759321
6.0515833 1.0986677 0.53809953 67 10 -0.025757017
6.0506353 1.097405 -0.97396111 45 3 -0.025754713
6.0512862 1.0964352 0.75510252 80 11 -0.025752408
6.0729651 1.0992656 -0.75778365 46 4 -0.025750104
6.051209 1.0942369 0.97396111 75 12 -0.0257478
6.0523486 1.094443 -0.53809953 53 5 -0.025745496
6.2209859 1.1238195 1.2288101 22 13 -0.025743192
6.0616269 1.093936 -0.32280821 57 6 -0.025740888
7.2397738 1.3052504 1.6983805 39 14 -0.025738584
6.0654669 1.092446 -0.10757664 54 7 -0.02573628
5.6203017 1.0112522 1.5301383 15 15 -0.025733978
3.7844555 0.67615932 -1.0300999 10 0 -0.025713241
6.0415845 1.078347 0.10712288 57 8 -0.025710937
4.4201808 0.78815085 -1.0365745 11 1 -0.025708633
6.0503297 1.0777287 0.32207552 57 9 -0.025706328
5.3887305 0.95987993 -1.063951 12 2 -0.025704024
6.0573425 1.0778874 0.53827387 65 10 -0.02570172
6.0427589 1.0742043 -0.97208387 47 3 -0.025699416
6.0413957 1.0728743 0.75339633 75 11 -0.025697112
6.0650382 1.0759782 -0.75632119 48 4 -0.025694808
6.0472112 1.0717299 0.97270966 75 12 -0.025692504
6.0561318 1.0733109 -0.53809953 50 5 -0.0256902
6.2190714 1.1010687 1.2276652 13 13 -0.025687898
6.0457416 1.0692902 -0.32176149 57 6 -0.025685593
7.257719 1.2823459 1.7015297 7 14 -0.025683289
6.0653052 1.0705701 -0.10750683 54 7 -0.025680985
5.6257005 0.99196154 1.530656 22 15 -0.025678681
3.7905989 0.66361028 -1.0311351 8 0 -0.025657944
6.0512209 1.0582861 0.10722758 60 8 -0.02565564
4.430584 0.77405703 -1.0383741 8 1 -0.025653336
6.0383148 1.0538541 0.32123813 63 9 -0.025651032
5.3765764 0.9383623 -1.0608981 12 2 -0.025648728
6.0394778 1.0529737 0.53635645 77 10 -0.025646424
6.0367422 1.0514084 -0.97051954 51 3 -0.02564412
6.031414 1.0493959 0.75169015 73 11 -0.025641818
6.0531101 1.0520854 -0.75437129 49 4 -0.025639514
6.0353451 1.0479096 0.97020662 75 12 -0.025637209
6.0480638 1.0501179 -0.53705364 52 5 -0.025634905
6.2306147 1.0806938 1.2291917 6 13 -0.025632601
6.0514045 1.0485251 -0.32186615 59 6 -0.025630297
6.0063486 1.0396358 1.4072938 22 14 -0.025627993
6.0571828 1.0473458 -0.1072974 54 7 -0.025625689
5.6310315 0.97265083 1.5311736 54 15 -0.025623385
3.7852755 0.64906937 -1.0290645 13 0 -0.025602648
6.0430527 1.0351297 0.10701816 77 8 -0.025600344
4.4332585 0.75858974 -1.0383741 10 1 -0.02559804
6.0380187 1.0320982 0.3210288 70 9 -0.025595736
5.3740134 0.91859758 -1.0597532 12 2 -0.025593434
6.0509725 1.0332254 0.53705364 60 10 -0.025591129
6.0501118 1.0319889 -0.97208387 47 3 -0.025588825
6.0467815 1.0303379 0.75315261 80 11 -0.025586521
6.0469613 1.0292826 -0.75315261 56 4 -0.025584217
6.0272818 1.0248475 0.96832943 75 12 -0.025581913
6.0340142 1.0259923 -0.53548485 56 5 -0.025579609
6.025311 1.0234333 1.1879768 16 13 -0.025577305
6.0491204 1.0263915 -0.32155213 54 6 -0.025575001
7.2568884 1.2300144 1.6992803 39 14 -0.025572697
6.0450287 1.0235267 -0.10701816 57 7 -0.025570393
5.6210589 0.95073217 1.5275501 37 15 -0.025568089
3.7856133 0.63553149 -1.0285469 13 0 -0.025547354
6.0387397 1.0127074 0.10687853 60 8 -0.025545049
4.4416451 0.74407482 -1.0397238 8 1 -0.025542745
6.0494642 1.0123322 0.32144746 63 9 -0.025540441
5.3752508 0.89950764 -1.0593716 10 2 -0.025538137
6.0388212 1.0094707 0.53565919 60 10 -0.025535833
6.0380898 1.0082653 -0.96958095 49 3 -0.025533529
6.0523 1.0095494 0.75339633 82 11 -0.025531225
6.0603075 1.009801 -0.75437129 50 4 -0.025528921
6.0327706 1.0041306 0.96864235 72 12 -0.025526617
6.0336285 1.0042733 -0.53513628 58 5 -0.025524313
6.2147665 1.0333055 1.2246122 1 13 -0.025522009
6.0526662 1.0052682 -0.32155213 55 6 -0.025519704
6.0485649 1.0024177 -0.10701816 54 7 -0.025515096
5.6205316 0.93047267 1.5265148 11 15 -0.025512792
3.7878082 0.62231594 -1.0285469 7 0 -0.025492057
6.0284257 0.9893536 0.1066342 62 8 -0.025489753
4.4249849 0.72541231 -1.0352248 8 1 -0.025487449
6.0470471 0.99024528 0.32113346 59 9 -0.025485145
5.37642 0.88042545 -1.05899 4 2 -0.025482841
6.0324764 0.98677528 0.5347876 60 10 -0.025480537
6.041573 0.98718053 -0.96958095 47 3 -0.025478233
6.0342355 0.98490345 0.7507152 73 11 -0.025475929
6.0442033 0.98544449 -0.75193387 55 4 -0.025473624
6.03234 0.98242962 0.96801656 72 12 -0.02547132
6.0370975 0.98320436 -0.53513628 53 5 -0.025469016
8.582427 1.3962047 1.6901863 30 13 -0.025466712
6.0423388 0.98189324 -0.32081944 52 6 -0.025464408
7.2749162 1.1808864 1.7015297 36 14 -0.025462104
6.0539999 0.98162234 -0.10705306 52 7 -0.0254598
5.6962113 0.92258584 1.5461851 90 15 -0.025457496
3.7899575 0.60908926 -1.0285469 9 0 -0.025436761
6.0377655 0.96925366 0.10673892 60 8 -0.025434457
4.4274902 0.70996273 -1.0352248 8 1 -0.025432153
6.0366631 0.96691841 0.32040074 63 9 -0.025429849
5.3271203 0.85326791 -1.0486863 6 2 -0.025427544
6.0339174 0.96539563 0.53461331 60 10 -0.02542524
6.0352283 0.96452808 -0.96801656 50 3 -0.025422936
6.0297956 0.96258068 0.7497403 73 11 -0.025420632
6.0260434 0.96090025 -0.7492528 56 4 -0.025418328
6.0337815 0.96105736 0.9677037 70 12 -0.025416024
6.0385246 0.96181291 -0.53496194 51 5 -0.02541372
8.6027603 1.3687034 1.6932391 32 13 -0.025411416
6.0378404 0.95954007 -0.32040074 52 6 -0.025409114
7.2809181 1.1557921 1.7019798 40 14 -0.02540681
6.0455399 0.95860332 -0.10684364 54 7 -0.025404505
3.7958777 0.5964548 -1.0295821 14 0 -0.025381465
6.0371609 0.94755608 0.10666911 60 8 -0.02537916
4.441493 0.69631338 -1.0379242 10 1 -0.025376856
6.0261889 0.94367599 0.31966805 59 9 -0.025374552
5.3145494 0.83223623 -1.0456334 12 2 -0.025372248
5.9998493 0.93848139 0.53130138 75 10 -0.025369944
6.0346551 0.94284385 -0.96739089 51 3 -0.02536764
6.027235 0.94060701 0.74900907 75 11 -0.025365336
6.0234756 0.93894649 -0.74852157 55 4 -0.025363032
6.0175815 0.93694901 0.96457505 70 12 -0.02536073
6.0398769 0.94042045 -0.5347876 30 5 -0.025358425
8.6171856 1.3401721 1.6951473 29 13 -0.025356121
6.0411525 0.93845946 -0.32040074 53 6 -0.025353817
7.2829828 1.1300693 1.7015297 42 14 -0.025351513
6.0389695 0.9359616 -0.10666911 54 7 -0.025349209
5.7177863 0.88516068 1.5503261 45 15 -0.025346905
3.7902985 0.5820291 -1.0275117 11 0 -0.025326168
6.0265956 0.92435288 0.10642478 82 8 -0.025323864
4.4323387 0.67903572 -1.0352248 8 1 -0.02532156
6.027472 0.92233407 0.31956339 70 9 -0.025319256
6.0208149 0.92024004 0.53287023 60 10 -0.025314648
6.0457206 0.9229641 -0.96864235 43 3 -0.025312345
6.0285187 0.91926432 0.74876529 73 11 -0.025310041
6.024754 0.9176144 -0.74827784 59 4 -0.025307737
6.0051918 0.91355968 0.96207207 66 12 -0.025305433
8.635397 1.3121505 1.6978186 10 13 -0.025300825
6.0285945 0.91496992 -0.31956339 52 6 -0.025298521
5.9940491 0.90865386 1.3996454 22 14 -0.025296217
6.0224276 0.91188359 -0.10632006 57 7 -0.025293913
5.713201 0.86404222 1.5482556 60 15 -0.025291609
3.7827549 0.56736118 -1.0249234 8 0 -0.025286436
6.0218744 0.90212667 0.10628515 65 8 -0.025284132
4.4289002 0.66269565 -1.033875 7 1 -0.025281828
6.0344477 0.90293342 0.31977272 63 9 -0.025279524
6.0180783 0.89833671 0.53234726 60 10 -0.025274916
4.5816154 0.68309194 -0.73367769 12 3 -0.025272612
6.0277643 0.89762884 0.74827784 73 11 -0.025270307
6.0238376 0.89704412 -0.74779034 60 4 -0.025268003
6.0257726 0.89626026 0.96488786 75 12 -0.025265699
2.2919953 0.34049642 -0.20272426 2 5 -0.025263395
8.6360407 1.2814207 1.6970552 30 13 -0.025261093
6.0396543 0.89509022 -0.31998208 52 6 -0.025258789
7.3001447 1.0818977 1.7037793 34 14 -0.025256485
6.0333314 0.89307708 -0.10645968 55 7 -0.025254181
5.7561674 0.85102355 1.559126 48 15 -0.025251877
3.7941725 0.55621576 -1.0275117 11 0 -0.02523114
6.0129614 0.88041258 0.10607573 62 8 -0.025228836
4.4291453 0.64772207 -1.0334252 11 1 -0.025226532
6.0334568 0.88233799 0.31956339 63 9 -0.025224227
4.442821 0.64893007 -0.87276042 1 2 -0.025221923
6.0210247 0.87837344 0.53234726 62 10 -0.025219619
4.5506253 0.66305405 -0.72835892 25 3 -0.025217315
6.0208859 0.87620699 0.74705911 75 11 -0.025215013
6.0366011 0.87849396 -0.74900907 50 4 -0.025212709
6.0208926 0.875135 0.9636364 67 12 -0.025210405
2.2950833 0.3331807 -0.20289856 44 5 -0.025208101
8.6363564 1.2522138 1.696292 27 13 -0.025205797
6.0267763 0.87276828 -0.3191447 51 6 -0.025203492
7.3210497 1.0601987 1.7078284 37 14 -0.025201188
6.0342803 0.87277985 -0.10642478 52 7 -0.025198884
5.8373504 0.84325647 1.5803492 37 15 -0.02519658
3.7845223 0.54198658 -1.0244058 9 0 -0.025175843
6.0198078 0.86103559 0.10614554 62 8 -0.025173539
4.4139066 0.63054937 -1.029376 12 1 -0.025171235
6.0187044 0.85873127 0.31862134 65 9 -0.025168933
6.0239043 0.85840338 0.53234726 62 10 -0.025164325
4.5782232 0.65157712 -0.73242623 3 3 -0.025162021
6.0178623 0.85539645 0.74632788 80 11 -0.025159717
6.0199766 0.85462815 -0.74657166 55 4 -0.025157413
6.0278225 0.85466582 0.96426219 68 12 -0.025155108
2.2961755 0.32556745 -0.20289856 81 5 -0.025152804
8.6424055 1.2238407 1.6966736 19 13 -0.0251505
6.0256815 0.85221976 -0.31893536 51 6 -0.025148196
5.9682074 0.84302586 1.3915472 41 14 -0.025145892
6.0313501 0.85087132 -0.10632006 54 7 -0.025143588
5.8287797 0.82125914 1.5772433 50 15 -0.025141284
3.7940438 0.52984232 -1.0264764 9 0 -0.025120549
6.0148544 0.83891076 0.10600592 62 8 -0.025118245
4.41222 0.61460131 -1.0284761 16 1 -0.025115941
6.0058398 0.83551651 0.31778398 65 9 -0.025113637
6.0229168 0.83682078 0.53199863 62 10 -0.025109028
4.6156888 0.64048022 -0.73805791 1 3 -0.025106724
6.0168791 0.83384132 0.74584043 80 11 -0.02510442
6.0071926 0.83143032 -0.74462175 61 4 -0.025102116
6.0170717 0.8317275 0.96207207 71 12 -0.025099812
2.2992718 0.31782362 -0.20307288 100 5 -0.025097508
8.6505156 1.1942046 1.697437 4 13 -0.025095204
6.0207062 0.83008832 -0.31851667 45 6 -0.0250929
7.3205514 1.0079989 1.7060288 37 14 -0.025090596
6.022397 0.82817954 -0.10611063 54 7 -0.025088292
5.8296976 0.8006435 1.5767257 31 15 -0.025085988
3.7843854 0.5150314 -1.0233705 9 0 -0.025065253
6.0157647 0.81764185 0.10597102 77 8 -0.025062948
4.3853731 0.59526527 -1.0217277 13 1 -0.025060644
6.0166364 0.81561863 0.31820264 65 9 -0.02505834
4.4998498 0.61000216 -0.8826825 1 2 -0.025056036
6.0021086 0.81258547 0.52990693 70 10 -0.025053732
6.0138516 0.8120349 0.74510926 78 11 -0.025049124
6.0100584 0.81045467 -0.74462175 53 4 -0.02504682
5.9964457 0.80755633 0.95831764 66 12 -0.025044516
2.2885196 0.30820069 -0.20202701 100 5 -0.025042212
8.6896534 1.1687092 1.704306 10 13 -0.025039908
5.9836044 0.8026377 1.3937967 5 14 -0.025035299
6.0173235 0.80608881 -0.10597102 55 7 -0.025032995
5.8554344 0.78336161 1.5829374 9 15 -0.025030691
3.7880747 0.50207466 -1.0238881 13 0 -0.025009956
6.0106521 0.79558671 0.10583139 67 8 -0.025007652
4.3932204 0.58071882 -1.0230774 7 1 -0.025005348
6.0194464 0.79461586 0.31820264 65 9 -0.025003044
4.3618126 0.57579476 -0.85520601 3 2 -0.02500074
6.0068841 0.79188806 0.53008121 60 10 -0.024998436
6.0205851 0.79155934 0.74559671 75 11 -0.024993828
6.0285964 0.79153943 -0.74657166 53 4 -0.024991523
6.0109806 0.78815931 0.96019489 68 12 -0.024989219
2.2816796 0.29917368 -0.20132977 100 5 -0.024986915
8.6819992 1.1368461 1.7020162 23 13 -0.024984611
2.3170669 0.30299103 -0.12246615 17 6 -0.024982309
7.3428683 0.95888603 1.709628 36 14 -0.024980005
6.0141521 0.78430212 -0.1058663 52 7 -0.024977701
5.8734589 0.76491469 1.5870785 1 15 -0.024975397
3.7974684 0.48983634 -1.0259588 9 0 -0.02495466
5.9975266 0.77255529 0.10555216 60 8 -0.024952356
4.3082438 0.55419266 -1.0028318 1 1 -0.024950052
6.0162411 0.7728343 0.31788865 63 9 -0.024947748
4.3267984 0.55581182 -0.84795523 13 2 -0.024945443
6.0076361 0.77066016 0.52990693 62 10 -0.024943139
6.0154357 0.76952952 0.74462175 78 11 -0.024938531
6.0234466 0.76948309 -0.74559671 49 4 -0.024936229
6.011735 0.76692355 0.95988196 66 12 -0.024933925
2.2946193 0.2923201 -0.20237562 100 5 -0.024931621
8.6820202 1.106035 1.7012531 28 13 -0.024929317
2.3002789 0.29263201 -0.1215241 62 6 -0.024927013
7.35777 0.93472397 1.7123275 36 14 -0.024924709
6.0168529 0.76330811 -0.1058663 51 7 -0.024922404
6.3724747 0.80728984 1.7211467 28 15 -0.0249201
3.7954047 0.47543526 -1.0249234 8 0 -0.024899364
5.9902654 0.75037676 0.10537763 62 8 -0.024897059
4.3101521 0.53914958 -1.0028318 1 1 -0.024894755
6.0070105 0.75034195 0.31726059 70 9 -0.024892451
4.3619246 0.54408157 -0.85444272 28 2 -0.024890147
6.0064654 0.74814475 0.5295583 62 10 -0.024887845
5.9964161 0.7458303 0.74194062 80 11 -0.024883237
6.0103354 0.74649936 -0.7436468 52 4 -0.024880933
5.9986925 0.74398732 0.95737904 66 12 -0.024878629
2.2916713 0.28381824 -0.20202701 100 5 -0.024876324
8.6918621 1.0749311 1.7023981 24 13 -0.02487402
2.3092649 0.28517878 -0.1219428 100 6 -0.024871716
6.0234494 0.74278855 -0.1059361 52 7 -0.024867108
6.3522453 0.78221202 1.7149351 18 15 -0.024864804
3.8008764 0.46264976 -1.0259588 10 0 -0.024844067
6.0048862 0.72985953 0.10558706 72 8 -0.024841765
4.2753429 0.51888841 -0.99428362 8 1 -0.024839461
5.9877834 0.72672331 0.31610921 59 9 -0.024837157
4.3560019 0.5279063 -0.85291624 34 2 -0.024834853
6.0031066 0.72645402 0.52903533 60 10 -0.024832549
4.5046725 0.54432851 -0.71866006 2 3 -0.024830244
5.9794016 0.72147071 0.73950326 84 11 -0.02482794
5.9913526 0.72184896 -0.74096566 56 4 -0.024825636
5.9679132 0.71902496 0.95206028 75 12 -0.024823332
2.2926481 0.27581757 -0.20202701 100 5 -0.024821028
8.7247992 1.0480944 1.7081223 9 13 -0.024818724
2.304297 0.27640197 -0.12162878 100 6 -0.02481642
5.938241 0.71124762 1.3807496 9 14 -0.024814116
6.0101223 0.71985716 -0.10565687 50 7 -0.024811812
5.9367733 0.7100209 1.6020899 11 15 -0.024809508
3.7947938 0.44847324 -1.0238881 13 0 -0.024788773
5.993372 0.70830381 0.10534272 77 8 -0.024786469
4.2886519 0.50607908 -0.99698305 16 1 -0.024784165
6.0002017 0.70698458 0.31663257 76 9 -0.02478186
4.3441696 0.51109302 -0.85024494 34 2 -0.024779556
5.9957118 0.7043367 0.52816379 70 10 -0.024777252
4.5398049 0.53330636 -0.72397882 9 3 -0.024774948
6.0054207 0.7044118 0.74242812 80 11 -0.024772644
6.0075145 0.70359457 -0.74267185 48 4 -0.02477034
5.990006 0.7004872 0.95518899 72 12 -0.024768036
2.285681 0.26688814 -0.20132977 100 5 -0.024765732
6.0547695 0.70698673 1.184924 1 13 -0.024763428
2.3052008 0.26875958 -0.12162878 100 6 -0.024761124
7.3710256 0.8580755 1.7132272 33 14 -0.024758819
5.9927354 0.69656312 -0.10530782 51 7 -0.024756515
5.8893228 0.68350136 1.5886314 13 15 -0.024754211
3.7943413 0.43566543 -1.0233705 8 0 -0.024733476
5.9918346 0.68692166 0.10527291 60 8 -0.024731172
4.2690954 0.48866689 -0.9920342 13 1 -0.024728868
6.000648 0.68581009 0.3165279 65 9 -0.024726564
4.3204827 0.49378511 -0.84528393 25 2 -0.02472426
5.9940557 0.68399692 0.52781516 65 10 -0.024721956
4.5278997 0.51588964 -0.7217887 2 3 -0.024719652
6.0058699 0.68322152 0.74218434 78 11 -0.024717348
6.0099335 0.68262142 -0.74267185 48 4 -0.024715044
5.9904518 0.67934972 0.95487607 75 12 -0.02471274
2.276655 0.258185 -0.20045821 100 5 -0.024710435
8.7473383 0.99044931 1.7111752 2 13 -0.024708131
2.3100941 0.26116049 -0.12183812 100 6 -0.024705827
7.3894677 0.83408725 1.7168264 36 14 -0.024703525
6.0150013 0.67787814 -0.10565687 25 7 -0.024701221
5.8859138 0.66229278 1.5870785 15 15 -0.024698917
3.7919989 0.4219915 -1.0223353 9 0 -0.02467818
5.9743218 0.66379219 0.10492387 60 8 -0.024675876
4.2475328 0.47118455 -0.98663533 8 1 -0.024673572
6.0069761 0.66530079 0.31673726 65 9 -0.024671268
4.310472 0.47740501 -0.84299421 13 2 -0.024668964
5.9884853 0.66219205 0.52711791 65 10 -0.02466666
4.5375271 0.5009492 -0.72304016 1 3 -0.024664355
5.9904599 0.6602968 0.73999077 80 11 -0.024662051
6.0142531 0.66185421 -0.74291557 35 4 -0.024659747
5.9927869 0.6584363 0.95487607 70 12 -0.024657443
2.285464 0.25110728 -0.20115545 100 5 -0.024655141
6.0829754 0.66727096 1.1895033 4 13 -0.024652837
2.2990794 0.25178999 -0.12121009 100 6 -0.024650533
7.4078317 0.80998421 1.7204256 21 14 -0.024648229
2.3755236 0.25932401 -0.041711252 7 7 -0.024645925
5.8920302 0.64216012 1.5881137 15 15 -0.02464362
3.7934489 0.40875137 -1.0223353 11 0 -0.024622884
5.9845552 0.64379072 0.10506349 60 8 -0.02462058
4.2375259 0.4551053 -0.98393589 1 1 -0.024618275
5.9894028 0.64219749 0.31569052 59 9 -0.024615971
4.2964959 0.46068019 -0.83994126 1 2 -0.024613667
5.9867978 0.64086139 0.52676928 65 10 -0.024611363
4.5078206 0.48174745 -0.71803427 1 3 -0.024609061
5.9828591 0.6383276 0.73877203 82 11 -0.024606757
5.9829707 0.63728344 -0.73877203 8 4 -0.024604453
5.9911203 0.63709414 0.9542504 71 12 -0.024602149
2.2922704 0.24375942 -0.20167838 100 5 -0.024599845
8.673996 0.92085946 1.6955289 1 13 -0.02459754
2.3039167 0.24418466 -0.12141944 100 6 -0.024595236
5.9377933 0.62827957 1.3785001 5 14 -0.024592932
2.3366418 0.24682836 -0.041013155 66 7 -0.024590628
5.8884721 0.62098259 1.5865607 15 15 -0.024588324
3.7986953 0.39590859 -1.0233705 11 0 -0.024567587
5.9827881 0.62248421 0.10499368 60 8 -0.024565283
4.2235823 0.43869907 -0.98033673 1 1 -0.024562981
5.9836617 0.62046397 0.31527182 59 9 -0.024560677
5.9889979 0.6199609 0.52676928 62 10 -0.024556069
4.5094748 0.46600807 -0.71803427 1 3 -0.024553765
5.9850507 0.61744088 0.73877203 85 11 -0.024551461
5.9697275 0.61375141 0.9504959 71 12 -0.024546852
2.3010352 0.23657088 -0.20237562 100 5 -0.024544548
8.7650423 0.89959794 1.7127017 5 13 -0.024542244
2.3007812 0.23573434 -0.12121009 100 6 -0.02453994
7.3919811 0.75606334 1.7154768 39 14 -0.024537636
2.3195846 0.2368428 -0.040699009 91 7 -0.024535332
5.8867607 0.6000309 1.5855255 16 15 -0.024533028
3.7885215 0.38148394 -1.0202647 8 0 -0.024512293
5.9829345 0.60139781 0.10495877 72 8 -0.024509989
4.252234 0.42667809 -0.98663533 1 1 -0.024507685
5.9678011 0.5988217 0.3143298 63 9 -0.024505381
4.3230491 0.43302178 -0.84452063 1 2 -0.024503076
5.965353 0.5964759 0.52450323 77 10 -0.024500772
4.5110741 0.45026517 -0.71803427 1 3 -0.024498468
5.9851947 0.59634703 0.73852831 84 11 -0.024496164
2.2834997 0.22711867 -0.28176194 18 4 -0.02449386
5.9560051 0.59238893 0.94799298 81 12 -0.024491556
2.2859857 0.22696303 -0.20098113 100 5 -0.024489252
5.9802232 0.59268975 1.1681327 11 13 -0.024486948
2.3055651 0.22809431 -0.12141944 100 6 -0.024484644
7.4042716 0.73121506 1.7177262 37 14 -0.02448234
2.3123977 0.22836275 -0.040559392 100 7 -0.024480036
5.8848729 0.58012849 1.5844903 18 15 -0.024477731
3.7859843 0.36788434 -1.0192294 11 0 -0.024456996
5.9829054 0.58135927 0.10492387 60 8 -0.024454692
4.2419877 0.4114469 -0.98393589 1 1 -0.024452388
5.9778066 0.5787577 0.31474847 57 9 -0.024450084
4.2659097 0.41226423 -0.83307213 1 2 -0.02444778
5.9773154 0.57660431 0.52537483 75 10 -0.024445476
4.469285 0.43113148 -0.71115112 4 3 -0.024443172
5.9871392 0.57649732 0.73852831 80 11 -0.024440868
2.2842402 0.21954553 -0.28176194 82 4 -0.024438564
5.9718003 0.57291669 0.95018309 72 12 -0.02443626
2.2827976 0.21860163 -0.20063251 100 5 -0.024433956
6.0837803 0.58258528 1.1879768 1 13 -0.024431651
2.3102851 0.22082809 -0.12162878 100 6 -0.024429347
7.426055 0.70850992 1.7222252 9 14 -0.024427043
2.3131807 0.22028898 -0.040559392 100 7 -0.024424739
5.8676305 0.55775326 1.5793139 18 15 -0.024422437
3.7910302 0.3556892 -1.0202647 12 0 -0.0244017
5.9689708 0.55897838 0.10464463 57 8 -0.024399396
4.2084732 0.39337149 -0.97583771 1 1 -0.024397092
5.9837675 0.55826002 0.3149578 63 9 -0.024394788
4.2613888 0.39756945 -0.83192724 4 2 -0.024392484
5.9672918 0.55566961 0.52432895 65 10 -0.02439018
4.435359 0.41223639 -0.7055195 7 3 -0.024387876
5.9812083 0.55486262 0.73755336 87 11 -0.024385571
2.2928996 0.21230218 -0.2827369 89 4 -0.024383267
5.9717975 0.55188441 0.94987023 70 12 -0.024380963
2.2914824 0.21136542 -0.20132977 100 5 -0.024378659
6.1131458 0.56387413 1.1933196 1 13 -0.024376357
2.2991087 0.21166311 -0.12100074 100 6 -0.024374053
7.4401264 0.68365175 1.7249247 12 14 -0.024371749
2.3219004 0.21294521 -0.040699009 100 7 -0.024369445
5.8695416 0.53726923 1.5793139 11 15 -0.024367141
3.7980807 0.34231126 -1.0218177 10 0 -0.024346404
5.972877 0.53832006 0.10467953 52 8 -0.0243441
4.198175 0.37763214 -0.97313827 1 1 -0.024341796
5.9697661 0.53593916 0.31412044 57 9 -0.024339492
4.2530413 0.38106892 -0.83001924 15 2 -0.024337187
5.9613504 0.53308618 0.52363169 75 10 -0.024334883
4.4427428 0.39650503 -0.70645815 11 3 -0.024332579
5.9732223 0.53309697 0.73633462 82 11 -0.024330277
2.2817631 0.20323984 -0.28127447 100 4 -0.024327973
5.965816 0.5303371 0.94861871 70 12 -0.024325669
2.2822833 0.2024844 -0.20045821 100 5 -0.024323365
6.1581955 0.54526949 1.2017151 2 13 -0.024321061
2.2998691 0.20323555 -0.12100074 100 6 -0.024318757
5.9342651 0.52335727 1.3753507 3 14 -0.024316452
2.3246217 0.20501404 -0.040733919 100 7 -0.024314148
5.8790789 0.51745337 1.5813844 11 15 -0.024311844
3.8069508 0.32971895 -1.0238881 9 0 -0.024291107
4.2208877 0.36408564 -0.97808713 2 1 -0.024286499
5.9696999 0.51388526 0.31401578 59 9 -0.024284195
4.2563009 0.36639199 -0.83040082 28 2 -0.024281893
5.9552345 0.51159018 0.52293444 73 10 -0.024279589
4.424418 0.37930605 -0.70332944 24 3 -0.024277285
5.9652467 0.51035571 0.73511589 80 11 -0.024274981
2.2646916 0.1933561 -0.27908084 100 4 -0.024272677
5.9598475 0.50779545 0.94736725 71 12 -0.024270372
2.2929022 0.19536161 -0.20132977 100 5 -0.024268068
8.822443 0.75014991 1.7210972 10 13 -0.024265764
2.2965846 0.19486792 -0.1207914 100 6 -0.02426346
7.4312353 0.62924296 1.7217753 39 14 -0.024261156
2.3094168 0.19514599 -0.040454678 100 7 -0.024258852
5.8847857 0.49622795 1.5824198 13 15 -0.024256548
3.7907519 0.31498745 -1.0192294 13 0 -0.024235813
2.3256633 0.19284032 0.040733919 8 8 -0.024233509
4.1988282 0.34742033 -0.97268838 2 1 -0.024231205
5.965486 0.49254933 0.31370175 54 9 -0.024228901
4.2360315 0.3497543 -0.82620305 25 2 -0.024226597
5.9410987 0.48949468 0.52153993 70 10 -0.024224292
4.4139028 0.36288938 -0.7014522 28 3 -0.024221988
5.9511647 0.48822993 0.73316604 84 11 -0.024219684
2.2732666 0.1860991 -0.28005576 100 4 -0.02421738
5.9163008 0.48329082 0.94017124 78 12 -0.024215076
2.2796698 0.18622169 -0.20010957 100 5 -0.024212772
8.8465328 0.7211014 1.7252951 30 13 -0.024210468
2.3052135 0.18749723 -0.12121009 100 6 -0.024208164
7.4392138 0.60377383 1.7231251 36 14 -0.02420586
2.3080909 0.18692143 -0.040419776 100 7 -0.024203556
5.8845568 0.47552606 1.5819021 7 15 -0.024201252
3.7879767 0.30144766 -1.0181942 11 0 -0.024180517
2.3183486 0.18408731 0.040594298 70 8 -0.024178213
4.2039003 0.33306825 -0.97358811 3 1 -0.024175908
5.9631047 0.47244719 0.31349242 60 9 -0.024173604
4.2333126 0.33465713 -0.82543975 13 2 -0.0241713
5.9288678 0.46765515 0.52031976 87 10 -0.024168996
4.4013572 0.34639367 -0.69926214 20 3 -0.024166692
5.9627271 0.46823174 0.73438478 78 11 -0.024164388
2.2778602 0.17847228 -0.28054324 100 4 -0.024162084
5.9513493 0.46629328 0.94549 75 12 -0.02415978
2.2723606 0.17764129 -0.19941233 100 5 -0.024157476
8.8724833 0.69205076 1.7298744 21 13 -0.024155172
2.3098364 0.17976089 -0.12141944 100 6 -0.024152867
7.4568195 0.57900733 1.7267244 37 14 -0.024150563
2.316673 0.17988509 -0.040559392 100 7 -0.024148259
5.8764706 0.45526743 1.5793139 11 15 -0.024145955
3.7851534 0.28792924 -1.0171589 10 0 -0.02412522
2.3129647 0.17594272 0.040489584 88 8 -0.024122916
4.2146974 0.319864 -0.97583771 7 1 -0.024120612
5.9706922 0.4520857 0.31380641 56 9 -0.024118308
4.2501159 0.32106 -0.82849264 4 2 -0.024116004
5.9324503 0.44710481 0.52049404 80 10 -0.0241137
4.408391 0.33224261 -0.70020074 11 3 -0.024111396
5.9563289 0.44786185 0.73340976 82 11 -0.024109092
2.2863579 0.17151099 -0.28151822 100 4 -0.024106788
5.9509706 0.44536734 0.94517714 67 12 -0.024104483
2.2809143 0.17030314 -0.20010957 100 5 -0.024102179
6.0828996 0.45417619 1.1856872 1 13 -0.024099875
2.2944858 0.17091268 -0.12058206 100 6 -0.024097573
5.9273138 0.44047621 1.3722014 22 14 -0.024095269
2.3252633 0.17238915 -0.040699009 100 7 -0.024092965
5.8626118 0.43361041 1.5751728 13 15 -0.024090661
3.7918675 0.2757968 -1.0187118 8 0 -0.024069924
2.3195481 0.16830142 0.040594298 90 8 -0.02406762
4.2002387 0.30402538 -0.97223842 11 1 -0.024065316
5.9582143 0.43127272 0.31307372 52 9 -0.024063012
4.2041612 0.30357176 -0.81933385 3 2 -0.024060708
5.9339008 0.42742798 0.52049404 80 10 -0.024058403
4.3917913 0.31557915 -0.69738495 4 3 -0.024056099
5.9499359 0.42649838 0.73243481 82 11 -0.024053795
2.2730823 0.16253737 -0.27981204 100 4 -0.024051491
5.9504452 0.42548823 0.94486433 71 12 -0.024049189
2.2854414 0.16302131 -0.20045821 100 5 -0.024046885
6.0648651 0.43154505 1.1818709 1 13 -0.024044581
2.2910841 0.16261896 -0.12037271 100 6 -0.024042277
7.4703064 0.52892858 1.7289737 37 14 -0.024039973
2.3258221 0.16467781 -0.040699009 100 7 -0.024037668
5.8755798 0.41498473 1.5782787 13 15 -0.024035364
3.8005161 0.2630935 -1.0207824 13 0 -0.024014628
2.3240833 0.16088636 0.040664107 89 8 -0.024012323
4.2167768 0.29117003 -0.97583771 13 1 -0.024010019
5.9537058 0.41005874 0.3127597 50 9 -0.024007715
4.2345753 0.29091394 -0.82505816 6 2 -0.024005413
5.9353566 0.40671629 0.52049404 75 10 -0.024003107
4.4125214 0.30236503 -0.7005136 1 3 -0.024000805
5.9532981 0.40689903 0.73267853 84 11 -0.023998501
2.2617259 0.15418902 -0.27834961 100 4 -0.023996197
5.9400692 0.40391186 0.94298708 70 12 -0.023993893
2.2899721 0.15531166 -0.20080683 100 5 -0.023991589
6.0858507 0.41275766 1.1856872 1 13 -0.023989284
2.2995815 0.15556023 -0.1207914 97 6 -0.02398698
7.4642425 0.50362641 1.7271742 34 14 -0.023984676
2.3144119 0.15575196 -0.040489584 100 7 -0.023982372
5.865427 0.39369479 1.5751728 13 15 -0.023980068
3.7918599 0.24786766 -1.0181942 11 0 -0.023960352
2.3267055 0.15168515 0.040699009 85 8 -0.023958048
4.2315245 0.27512455 -0.97898698 10 1 -0.023955744
5.9512501 0.38693738 0.31255037 50 9 -0.02395344
4.241538 0.27503228 -0.82620305 9 2 -0.023951136
5.9169922 0.38263607 0.51875097 75 10 -0.023948831
4.3900442 0.28312302 -0.69675916 1 3 -0.023946527
5.9529028 0.38287181 0.73243481 75 11 -0.023944223
2.2722063 0.1461411 -0.27956831 100 4 -0.023941919
5.9356623 0.38072279 0.94204849 72 12 -0.023939615
2.2786214 0.1457551 -0.19976096 100 5 -0.023937311
8.8559103 0.56492412 1.7249134 2 13 -0.023935009
2.3001873 0.14632843 -0.1207914 100 6 -0.023932705
5.9063845 0.37573987 1.3663527 9 14 -0.023930401
2.3070099 0.14635822 -0.040349964 100 7 -0.023928097
5.8572555 0.37055901 1.5725845 15 15 -0.023925792
3.7888045 0.23505355 -1.0171589 8 0 -0.023905056
2.3172166 0.14335068 0.040524486 94 8 -0.023902752
4.2304683 0.26096964 -0.97853714 11 1 -0.023900447
4.2424269 0.26096615 -0.82620305 13 2 -0.023895839
5.9062963 0.36227894 0.51770508 70 10 -0.023893535
4.3870158 0.26832119 -0.69613349 1 3 -0.023891231
5.9422507 0.3624053 0.73097235 82 11 -0.023888929
2.2766411 0.13884751 -0.28005576 100 4 -0.023886625
5.9092884 0.359357 0.93766832 68 12 -0.023884321
2.2711372 0.13771512 -0.19906372 100 5 -0.023882017
8.8773308 0.53674459 1.7287296 3 13 -0.023879712
2.3046472 0.13893968 -0.12100074 100 6 -0.023877408
5.915379 0.35661894 1.3681523 22 14 -0.023875104
2.3174632 0.1393064 -0.040524486 100 7 -0.0238728
5.8391681 0.34998173 1.5674082 15 15 -0.023870496
3.7741351 0.2215813 -1.0130178 8 0 -0.023849759
2.3136866 0.13543248 0.040454678 89 8 -0.023847455
4.2235284 0.24648614 -0.97673744 3 1 -0.023845151
2.3587682 0.13724522 0.12382689 12 9 -0.023842849
4.2824678 0.24917594 -0.83383536 30 2 -0.023840545
5.9154215 0.34315372 0.51840234 70 10 -0.023838241
4.5259266 0.26175657 -0.71803427 1 3 -0.023835937
5.9414382 0.34258217 0.73072863 80 11 -0.023833632
2.2751298 0.13078517 -0.27981204 100 4 -0.023831328
5.9637537 0.34178039 0.94611579 81 12 -0.023829024
2.2716041 0.129787 -0.19906372 100 5 -0.02382672
8.830061 0.50450122 1.719189 1 13 -0.023824416
2.2971191 0.13084258 -0.12058206 94 6 -0.023822112
5.8971319 0.33486471 1.3636533 9 14 -0.023819808
2.3159389 0.13110358 -0.040489584 100 7 -0.023817504
5.849998 0.33013982 1.5699965 16 15 -0.0238152
3.788424 0.20848903 -1.0166413 13 0 -0.023794465
2.3181386 0.12757453 0.040524486 89 8 -0.023792161
4.2146344 0.23120897 -0.97448796 2 1 -0.023789857
2.3353014 0.12770148 0.12257081 79 9 -0.023787552
4.2892337 0.23379771 -0.83498025 24 2 -0.023785248
5.9226084 0.32179591 0.51892531 67 10 -0.023782944
2.2703316 0.12295654 -0.36011216 1 3 -0.02378064
5.9346695 0.32140961 0.72975373 80 11 -0.023778336
2.2656617 0.12230705 -0.27859333 100 4 -0.023776032
5.943213 0.31979465 0.94267422 72 12 -0.023773728
2.2839806 0.12249645 -0.20010957 100 5 -0.023771424
8.8612576 0.4737038 1.7249134 25 13 -0.02376912
2.2896054 0.12199776 -0.12016336 97 6 -0.023766816
7.5018215 0.39840537 1.7343726 37 14 -0.023764512
2.3203764 0.12323012 -0.040559392 100 7 -0.023762207
5.8607607 0.3102265 1.5725845 15 15 -0.023759903
3.7949169 0.19556275 -1.0181942 9 0 -0.023739168
2.3225849 0.11928292 0.040594298 94 8 -0.023736864
4.225184 0.21625899 -0.97673744 1 1 -0.02373456
2.3257596 0.11904012 0.12204745 84 9 -0.023732256
4.2684555 0.21772484 -0.83078241 18 2 -0.023729952
5.9097662 0.30041054 0.51770508 15 10 -0.023727648
2.2865295 0.11583085 -0.36261514 57 3 -0.023725344
5.9417558 0.29995739 0.7304849 78 11 -0.02372304
2.2660947 0.11400267 -0.27859333 100 4 -0.023720736
5.9245644 0.29805294 0.93954557 72 12 -0.023718432
2.2903638 0.11482288 -0.20063251 100 5 -0.023716127
8.8903084 0.44414264 1.7302561 18 13 -0.023713823
2.2940073 0.11420281 -0.12037271 94 6 -0.023711519
7.4934349 0.37173551 1.7321231 21 14 -0.023709215
2.3128035 0.11473392 -0.040419776 100 7 -0.023706911
5.856019 0.28948182 1.5710317 11 15 -0.023704607
3.7839985 0.1817577 -1.0150883 8 0 -0.023683872
2.3269625 0.11177154 0.040664107 89 8 -0.023681568
4.2609153 0.20392226 -0.98483574 1 1 -0.023679264
2.3321462 0.11120575 0.12236147 84 9 -0.02367696
4.245657 0.2017047 -0.82620305 10 2 -0.023674656
2.6588557 0.12585437 0.23288015 1 10 -0.023672352
2.2790086 0.10787467 -0.36136368 100 3 -0.023670048
5.9407344 0.28015983 0.73024112 54 11 -0.023667743
2.2644777 0.10639363 -0.27834961 100 4 -0.023665439
5.9137297 0.27681759 0.93766832 74 12 -0.023663135
2.2788093 0.10627092 -0.19958666 100 5 -0.023660831
5.9206305 0.27610508 1.1521047 17 13 -0.023658527
2.3023536 0.10696511 -0.1207914 100 6 -0.023656225
7.5024133 0.34724265 1.7339227 12 14 -0.023653921
2.3091943 0.10647629 -0.040349964 100 7 -0.023651617
5.8685732 0.26956907 1.5741374 9 15 -0.023649313
3.769141 0.16851896 -1.0109472 8 0 -0.023628576
2.315352 0.10311601 0.040454678 94 8 -0.023626272
4.3647833 0.19362371 -1.0086806 7 1 -0.023623968
2.338506 0.10332823 0.12267549 90 9 -0.023621663
4.2345347 0.18710536 -0.82391334 3 2 -0.023619359
2.6373632 0.1160735 0.23096271 34 10 -0.023617055
2.253716 0.098793566 -0.35729638 99 3 -0.023614751
2.2767341 0.099007472 -0.27981204 100 4 -0.023610145
5.9107122 0.25600058 0.93704253 79 12 -0.023607841
2.2712042 0.097971678 -0.1988894 100 5 -0.023605537
8.9009714 0.38395625 1.7317824 10 13 -0.023603233
2.3027129 0.098929323 -0.1207914 100 6 -0.023600928
7.5288897 0.32213676 1.7397714 9 14 -0.023598624
2.3075542 0.098329306 -0.040315062 100 7 -0.02359632
5.8617582 0.24875867 1.572067 11 15 -0.023594016
3.7890356 0.15549619 -1.0161237 13 0 -0.023573279
2.3077059 0.094704702 0.040315062 94 8 -0.023570975
4.3810091 0.17902194 -1.0122797 41 1 -0.023568671
2.3448393 0.095408782 0.12298951 93 9 -0.023566367
4.250885 0.17222047 -0.82696623 9 2 -0.023564063
2.6417525 0.10656497 0.23131134 43 10 -0.023561761
2.2540629 0.090533122 -0.35729638 100 3 -0.023559457
2.6677983 0.10715055 0.32782856 15 11 -0.023557153
2.281033 0.09121763 -0.28029951 100 4 -0.023554849
5.9253864 0.2359153 0.93923265 75 12 -0.023552544
2.2775049 0.090280324 -0.19941233 100 5 -0.02355024
8.888587 0.35079002 1.7291112 18 13 -0.023547936
2.2950773 0.090173468 -0.12037271 100 6 -0.023545632
5.9040656 0.23094127 1.3641032 13 14 -0.023543328
2.3138781 0.090508811 -0.040419776 100 7 -0.023541024
5.8799639 0.22897077 1.5767257 7 15 -0.02353872
3.7837636 0.14205061 -1.0145707 9 0 -0.023517983
2.3140326 0.08647044 0.040419776 85 8 -0.023515681
4.3738465 0.1626748 -1.0104802 63 1 -0.023513377
2.3292062 0.086222209 0.12215213 93 9 -0.023511073
4.2475367 0.15723468 -0.82620305 18 2 -0.023508769
2.6261797 0.096757844 0.22991684 55 10 -0.023506464
2.2543652 0.082663819 -0.35729638 100 3 -0.02350416
2.6562705 0.096936822 0.32636613 43 11 -0.023501856
2.2654819 0.082280725 -0.27834961 100 4 -0.023499552
5.9222636 0.21405472 0.93860692 77 12 -0.023497248
2.2778063 0.082329191 -0.19941233 100 5 -0.023494944
5.9781699 0.21503074 1.1627901 16 13 -0.02349264
2.287394 0.081877388 -0.11995402 100 6 -0.023490336
7.5348973 0.26839179 1.7406713 37 14 -0.023488032
2.3221881 0.082310155 -0.040559392 100 7 -0.023485728
5.8884864 0.20769179 1.5787963 5 15 -0.023483424
3.780375 0.12871127 -1.0135354 8 0 -0.023462689
2.3203158 0.078594893 0.040524486 89 8 -0.023460384
4.3821783 0.14766967 -1.0122797 66 1 -0.02345808
2.3255007 0.077957898 0.1219428 93 9 -0.023455776
4.2578702 0.14273684 -0.82811105 15 2 -0.023453472
2.5607893 0.085398085 0.22416456 66 10 -0.023451168
2.2605629 0.074989997 -0.35823497 100 3 -0.023448864
2.6585765 0.087730132 0.32660985 52 11 -0.02344656
2.2617874 0.07424137 -0.27786213 100 4 -0.023444256
5.9052052 0.19279914 0.93579108 74 12 -0.023441952
2.2820625 0.074507095 -0.19976096 100 5 -0.023439648
5.9945817 0.19467278 1.165843 57 13 -0.023437344
2.295651 0.074149705 -0.12037271 100 6 -0.023435039
7.5318928 0.24196127 1.7397714 45 14 -0.023432735
2.3144665 0.073948763 -0.040419776 100 7 -0.023430431
5.8872447 0.18707295 1.5782787 5 15 -0.023428127
3.7672849 0.11510055 -1.009912 9 0 -0.023407392
2.3225749 0.070556216 0.040559392 85 8 -0.023405088
4.3748755 0.13213772 -1.0104802 68 1 -0.023402784
2.3337317 0.070487484 0.12236147 93 9 -0.02340048
4.2583427 0.12787209 -0.82811105 6 2 -0.023398176
2.3539555 0.07027594 0.20603617 90 10 -0.023395872
2.2627852 0.067158855 -0.35854784 100 3 -0.023393568
2.6628351 0.078565814 0.32709733 62 11 -0.023391264
2.2679851 0.066520862 -0.27859333 100 4 -0.023388959
5.9077868 0.17327762 0.93610394 77 12 -0.023386655
2.2743425 0.066310056 -0.19906372 100 5 -0.023384351
5.9442015 0.17226629 1.1559209 64 13 -0.023382047
2.2919028 0.066020302 -0.12016336 100 6 -0.023379743
7.5463266 0.2160642 1.7429208 43 14 -0.023377441
2.3027055 0.065930381 -0.040210344 100 7 -0.023375137
5.8897638 0.16760242 1.5787963 5 15 -0.023372833
3.7676635 0.10195036 -1.009912 12 0 -0.023352096
2.3167989 0.062690973 0.040454678 94 8 -0.023349792
4.3850298 0.11789002 -1.0127296 70 1 -0.023347488
2.3359601 0.062393513 0.12246615 97 9 -0.023345184
4.3039021 0.11420561 -0.83688831 1 2 -0.023342879
2.3362615 0.061585531 0.20446737 90 10 -0.023340575
2.2550969 0.059445973 -0.35729638 100 3 -0.023338271
2.6511745 0.069423862 0.32563493 62 11 -0.023335967
2.2721622 0.0591022 -0.27908084 100 4 -0.023333663
5.8846598 0.15204073 0.93234956 67 12 -0.023331359
2.266593 0.058165666 -0.19836646 100 5 -0.023329057
5.8642735 0.15048991 1.1402746 72 13 -0.023326753
2.3000956 0.058623731 -0.12058206 100 6 -0.023324449
2.3149161 0.05819295 -0.040419776 100 7 -0.02331984
5.8652067 0.14641678 1.572067 9 15 -0.023317536
3.7660496 0.089410678 -1.0093943 9 0 -0.0232968
2.3090072 0.05441549 0.040315062 89 8 -0.023294495
4.3659325 0.10212582 -1.0082307 72 1 -0.023292191
2.3401475 0.054739613 0.12267549 97 9 -0.023289887
4.3160334 0.10020699 -0.83917803 1 2 -0.023287583
2.336453 0.053838339 0.20446737 90 10 -0.023285279
2.2473912 0.051392611 -0.35604486 100 3 -0.023282977
2.6434624 0.059989516 0.32465994 64 11 -0.023280673
2.276324 0.051260374 -0.27956831 100 4 -0.023278369
5.9108043 0.13310497 0.9364168 59 12 -0.023276065
2.2787249 0.050915465 -0.19941233 100 5 -0.02327376
5.9648647 0.13223931 1.1597371 49 13 -0.023271456
2.2883055 0.050331507 -0.11995402 100 6 -0.023269152
5.8682084 0.12804441 1.3551052 33 14 -0.023266848
2.3150964 0.050515447 -0.040419776 100 7 -0.023264544
5.7381873 0.12420817 1.5379028 9 15 -0.02326224
3.7798593 0.076536939 -1.0130178 7 0 -0.023241503
2.3171721 0.04691954 0.040454678 89 8 -0.023239199
4.3565059 0.087452613 -1.0059811 68 1 -0.023236897
2.3283432 0.046332709 0.12204745 97 9 -0.023234593
4.3438368 0.085681506 -0.84452063 1 2 -0.023232289
2.3445945 0.045837421 0.20516461 94 10 -0.023229985
2.2514997 0.044017389 -0.35667065 100 3 -0.02322768
2.6297538 0.050953232 0.32295379 60 11 -0.023225376
2.2685423 0.04355846 -0.27859333 100 4 -0.023223072
5.9072828 0.11239487 0.93579108 27 12 -0.023220768
2.2749047 0.042886294 -0.19906372 100 5 -0.023218464
5.9947143 0.11301179 1.1654614 41 13 -0.02321616
2.284466 0.042667709 -0.11974468 94 6 -0.023213856
7.6416512 0.1413915 1.7645161 1 14 -0.023211552
2.3232563 0.042581007 -0.040559392 100 7 -0.023209248
5.8506145 0.1062096 1.5679258 11 15 -0.023206944
3.7762289 0.063937396 -1.0119824 7 0 -0.023186209
2.3173215 0.038831297 0.040454678 89 8 -0.023183905
4.3606815 0.072310574 -1.006881 68 1 -0.0231816
2.3205028 0.038074423 0.12162878 100 9 -0.023179296
4.2930593 0.070439801 -0.83459854 3 2 -0.023176992
2.3447335 0.038062677 0.20516461 90 10 -0.023174688
2.2575645 0.036253545 -0.35760921 100 3 -0.023172384
2.6378551 0.041900035 0.32392874 76 11 -0.02317008
2.2647109 0.035576537 -0.27810585 100 4 -0.023167776
2.6940889 0.041852664 0.42675328 6 12 -0.023165472
