# .PCD v0.7 - Point Cloud Data file format
VERSION 0.7
FIELDS x y z intensity ring time
SIZE 4 4 4 4 2 4
TYPE F F F F U F
COUNT 1 1 1 1 1 1
WIDTH 988
HEIGHT 1
VIEWPOINT 0 0 0 1 0 0 0
POINTS 988
DATA ascii
4.4061003 13.584772 1.2494646 26 10 -0.034944732
3.4689038 10.682544 1.3790736 17 11 -0.034940124
4.169467 12.832294 -1.656692 1 4 -0.034937821
2.8607633 8.7993088 1.4654782 34 12 -0.034935515
4.319478 13.286112 -1.2222722 3 5 -0.034933213
2.0746393 6.3775158 1.3036071 25 13 -0.034930907
4.906508 15.073813 -0.83078104 3 6 -0.034928605
1.7790819 5.462471 1.3263115 11 14 -0.034926299
6.3329172 19.433022 -0.35676211 79 7 -0.034923997
1.8422129 5.6496091 1.5922549 39 15 -0.034921691
1.3171026 4.0225468 -1.1341451 12 0 -0.034900956
6.3752618 19.459158 0.3574253 77 8 -0.034898654
1.5619237 4.7646279 -1.1575981 8 1 -0.034896348
6.1047492 18.611483 1.0265175 18 9 -0.034894045
1.9653928 5.9918718 -1.225757 2 2 -0.034891739
4.455348 13.574993 1.2499877 28 10 -0.034889437
2.6452625 8.055089 -1.3428336 1 3 -0.034887131
3.5055544 10.668482 1.3788298 16 11 -0.034884829
4.2092657 12.802578 -1.6547421 1 4 -0.034882523
2.8883772 8.7798872 1.4639139 35 12 -0.034880221
4.3577385 13.246348 -1.2200061 1 5 -0.034877915
2.0956626 6.3665051 1.3028439 43 13 -0.034875613
5.1652713 15.682612 -0.86532277 58 6 -0.034873307
1.7963077 5.450675 1.3249618 13 14 -0.034871005
6.4007177 19.410795 -0.35676211 83 7 -0.034868699
1.8619213 5.6431451 1.5922549 39 15 -0.034866396
1.326882 4.0050879 -1.1305215 10 0 -0.034845661
6.4481874 19.451967 0.35770452 80 8 -0.034843355
1.5828418 4.7720942 -1.1607474 6 1 -0.034841053
6.1683245 18.596821 1.0268315 21 9 -0.034838747
1.9764006 5.955162 -1.2196511 2 2 -0.034836445
4.5014539 13.555574 1.249639 61 10 -0.034834139
2.6733658 8.045805 -1.3428336 1 3 -0.034831837
3.545902 10.6656 1.3800485 14 11 -0.034829531
4.2664647 12.825479 -1.6596169 1 4 -0.034827229
2.91311 8.7571402 1.4617239 37 12 -0.034824923
4.2995024 12.917244 -1.1910703 1 5 -0.03482262
2.1253159 6.3815031 1.3074232 31 13 -0.034820314
5.2180924 15.6588 -0.86500871 67 6 -0.034818012
1.819023 5.4554634 1.3276612 15 14 -0.034815706
6.4682188 19.398947 -0.35693663 72 7 -0.034813404
1.8781775 5.6296086 1.5901842 39 15 -0.034811102
1.3377858 3.9912732 -1.1279335 12 0 -0.034790363
6.5132971 19.432371 0.35773942 77 8 -0.034788061
1.5986569 4.766819 -1.1607474 8 1 -0.034785755
6.2357311 18.582756 1.0272502 21 9 -0.034783453
1.9971776 5.9482265 -1.2196511 2 2 -0.034781147
4.5474787 13.536 1.2492903 28 10 -0.034778845
2.7000306 8.0368958 -1.3428336 1 3 -0.034776539
3.5875742 10.672601 1.382486 32 11 -0.034774236
2.9468131 8.756278 1.4632881 38 12 -0.034769628
4.3547359 12.93237 -1.1938593 1 5 -0.034767322
2.1470942 6.3762798 1.3078048 20 13 -0.03476502
5.2648935 15.62627 -0.86417139 61 6 -0.034762718
1.8402157 5.4586344 1.3299106 16 14 -0.034760412
6.5416431 19.393305 -0.35725078 83 7 -0.03475811
1.8965832 5.6193576 1.589149 39 15 -0.034755804
1.3522531 3.9904745 -1.1289687 11 0 -0.034735069
6.5836539 19.417093 0.35787904 77 8 -0.034732763
1.6096507 4.7446008 -1.1566983 8 1 -0.03473046
6.3018484 18.564657 1.0274596 25 9 -0.034728155
2.0055313 5.9081082 -1.212782 2 2 -0.034725852
4.6013088 13.547258 1.2517307 83 10 -0.034723546
2.7280664 8.0274229 -1.3428336 1 3 -0.034721244
3.6165016 10.635579 1.3793174 100 11 -0.034718942
2.974812 8.7384596 1.4620367 35 12 -0.034714334
4.4168572 12.974442 -1.1990887 1 5 -0.034712028
2.1611083 6.3445883 1.3028439 20 13 -0.034709726
5.3103909 15.581328 -0.86270601 58 6 -0.03470742
1.8586284 5.4503336 1.3294607 41 14 -0.034705117
6.6170435 19.393064 -0.35766962 83 7 -0.034702811
1.9186851 5.6200156 1.5912195 39 15 -0.034700509
1.3680525 3.9912124 -1.1305215 8 0 -0.03467977
6.6559291 19.407236 0.35812336 73 8 -0.034677468
1.6312641 4.7536988 -1.1602976 8 1 -0.034675166
6.3633661 18.533104 1.0269363 25 9 -0.03467286
2.0414424 5.9456363 -1.2219409 2 2 -0.034670558
4.6511621 13.53865 1.2524281 100 10 -0.034668252
3.6594131 10.639786 1.381511 32 11 -0.034663644
4.3401742 12.611928 -1.6376804 1 4 -0.034661341
3.0078716 8.7354918 1.4632881 34 12 -0.034659036
4.4621229 12.958944 -1.1990887 1 5 -0.034656733
2.187077 6.3481431 1.3051336 27 13 -0.034654427
6.6639466 19.331581 -1.0716312 48 6 -0.034652125
1.8820916 5.456708 1.33261 11 14 -0.034649819
6.6899204 19.384966 -0.35794884 83 7 -0.034647517
1.6841807 4.8773856 1.3826115 1 15 -0.034645211
1.3832427 3.990063 -1.1315569 9 0 -0.034624476
6.7308464 19.404665 0.35850734 77 8 -0.034622174
1.6452909 4.740612 -1.1584979 8 1 -0.034619868
6.4201627 18.488134 1.0256802 18 9 -0.034617566
2.0583215 5.9273458 -1.2196511 2 2 -0.03461526
4.6977358 13.520452 1.2522538 47 10 -0.034612957
4.3189187 12.409225 -1.6133065 1 4 -0.034606043
3.0350959 8.7156134 1.4617239 35 12 -0.034603741
4.507328 12.94329 -1.1990887 1 5 -0.034601435
2.2111626 6.3460312 1.3062785 32 13 -0.034599133
6.7379565 19.327061 -1.0726779 50 6 -0.034596827
1.8998427 5.446425 1.3317102 16 14 -0.034594525
6.7614961 19.372828 -0.35815829 79 7 -0.034592219
1.9591445 5.6101327 1.5922549 39 15 -0.034589916
1.3952459 3.9797409 -1.130004 17 0 -0.034569182
6.8058167 19.40181 0.35889128 80 8 -0.034566876
1.6624755 4.7366786 -1.1589478 8 1 -0.034564573
6.495914 18.497646 1.0274596 25 9 -0.034562267
2.0894086 5.9497623 -1.225757 2 2 -0.034559965
4.7442393 13.502092 1.2520794 100 10 -0.034557659
2.811981 7.998414 -1.3428336 1 3 -0.034555357
3.7408545 10.634576 1.3841921 43 11 -0.034553051
4.3648419 12.401564 -1.6142814 1 4 -0.034550749
4.5630732 12.957545 -1.2018777 3 5 -0.034546141
2.2404797 6.3586426 1.3104763 75 13 -0.034543835
6.8113523 19.320379 -1.07362 53 6 -0.034541532
1.9201409 5.4434357 1.33261 16 14 -0.034539226
6.8270874 19.343449 -0.35805357 72 7 -0.034536924
1.9748547 5.5923305 1.589149 39 15 -0.034534618
1.4130017 3.9857717 -1.1331098 9 0 -0.034520149
6.8741746 19.379818 0.35892621 84 8 -0.034517847
1.6842126 4.7455392 -1.162547 9 1 -0.034515541
6.5585508 18.479769 1.027669 25 9 -0.034513239
2.1101635 5.9424329 -1.225757 2 2 -0.034510933
4.7940135 13.492957 1.2527766 54 10 -0.034508631
2.8398819 7.9885502 -1.3428336 1 3 -0.034506325
4.4006243 12.372057 -1.6123315 1 4 -0.034501716
3.1334279 8.804553 1.4801831 1 12 -0.034499414
6.5077233 18.275818 -1.6972709 2 5 -0.034497108
2.2639782 6.3544822 1.3112395 30 13 -0.034494806
6.8868041 19.319059 -1.074876 53 6 -0.0344925
1.939489 5.4407101 1.3335099 16 14 -0.034490198
6.8280435 19.143658 -0.35477251 52 7 -0.034487892
1.9933902 5.5857496 1.589149 41 15 -0.03448559
1.4249071 3.9774265 -1.1320745 12 0 -0.034464855
6.9438057 19.371973 0.35920542 84 8 -0.034462549
1.695334 4.7270875 -1.1593977 8 1 -0.034460247
6.6204658 18.459797 1.0277736 28 9 -0.034457941
2.1298563 5.9354029 -1.225757 2 2 -0.034455638
4.8468142 13.499486 1.2548684 100 10 -0.034453332
2.8663554 7.9790893 -1.3428336 1 3 -0.03445103
4.4443111 12.36487 -1.6133065 1 4 -0.034446422
3.1271801 8.6955948 1.4636011 9 12 -0.034444116
6.5655994 18.246637 -1.6965737 12 5 -0.034441814
2.2843716 6.3450928 1.3108579 16 13 -0.034439508
6.9535437 19.303629 -1.0752947 55 6 -0.034437206
1.9628054 5.448915 1.3371091 39 14 -0.0344349
6.9423456 19.261999 -0.35739037 43 7 -0.034432597
2.0119011 5.5791092 1.589149 41 15 -0.034430292
1.4374324 3.9708629 -1.1315569 12 0 -0.034409557
7.0161753 19.371403 0.3596243 94 8 -0.034407254
1.7083436 4.7141113 -1.1575981 8 1 -0.034404948
6.6828256 18.430943 1.0274596 25 9 -0.034402646
2.1495287 5.9283071 -1.225757 2 2 -0.03440034
4.8935885 13.488958 1.2553912 120 10 -0.034398038
4.4982963 12.379132 -1.6172063 1 4 -0.034391124
3.1602082 8.6920538 1.4648525 33 12 -0.034388822
6.6301436 18.236002 -1.6976196 29 5 -0.034386516
2.3087575 6.3467064 1.312766 10 13 -0.034384213
7.0188808 19.28422 -1.0755041 55 6 -0.034381907
7.0485582 19.344748 -0.35937995 68 7 -0.034377303
2.0326884 5.5756817 1.5901842 41 15 -0.034374997
1.4539413 3.9730775 -1.1336274 9 0 -0.034354262
7.0919976 19.369329 0.36004314 94 8 -0.034351956
1.7288119 4.7190981 -1.1602976 8 1 -0.034349654
6.7546864 18.428127 1.0286109 28 9 -0.034347348
2.1702108 5.9207668 -1.225757 2 2 -0.034345046
2.9206011 7.959394 -1.3428336 1 3 -0.034340438
3.1884878 8.6754065 1.4639139 33 12 -0.034333527
6.8298521 18.583023 -1.7321332 93 5 -0.034331221
2.3376753 6.3570347 1.3165821 56 13 -0.034328919
7.0930448 19.278349 -1.0765507 55 6 -0.034326613
2.0068543 5.4515386 1.3411582 1 14 -0.034324311
7.1167374 19.321899 -0.35941488 79 7 -0.034322005
2.0561457 5.5794287 1.5932901 41 15 -0.034319703
1.4644473 3.9589198 -1.1310393 10 0 -0.034298964
7.1651244 19.359459 0.36032242 84 8 -0.034296662
1.7445985 4.7112069 -1.1598476 8 1 -0.034294356
6.8231215 18.415678 1.0292389 28 9 -0.034292053
2.1908607 5.913157 -1.225757 2 2 -0.034289747
4.9966431 13.478752 1.2576573 100 10 -0.034287445
2.948369 7.9491501 -1.3428336 1 3 -0.034285143
3.218066 8.6623716 1.4636011 34 12 -0.034278229
6.9085593 18.596422 -1.7356194 25 5 -0.034275927
2.3584788 6.3451571 1.3158189 12 13 -0.034273621
2.3391664 6.2864709 1.548563 21 14 -0.034269013
7.1911035 19.315683 -0.35976389 10 7 -0.03426671
1.78632 4.7955828 1.3712233 1 15 -0.034264404
1.4755522 3.9465451 -1.1289687 15 0 -0.034243669
7.1037273 18.989712 0.35389993 20 8 -0.034241363
1.7623984 4.7087388 -1.1607474 8 1 -0.034239061
6.8894691 18.39736 1.0295531 25 9 -0.034236759
2.2114899 5.9054728 -1.225757 2 2 -0.034234453
5.0450644 13.46496 1.258006 100 10 -0.034232151
2.9760971 7.9388103 -1.3428336 1 3 -0.034229845
3.2482817 8.6510868 1.4636011 31 12 -0.034222934
2.3757818 6.3240199 1.3131475 11 13 -0.034218326
6.9527059 18.497358 -1.0356239 24 6 -0.03421602
2.3693264 6.3001561 1.5539619 49 14 -0.034213718
6.9648256 18.510012 -0.34520859 70 7 -0.034211412
2.0896049 5.5504737 1.589149 39 15 -0.03420911
1.4947816 3.9558282 -1.1331098 10 0 -0.034188375
7.0702639 18.701057 0.34897831 100 8 -0.034186069
1.775378 4.6934443 -1.1584979 8 1 -0.034183767
6.9614186 18.393745 1.0307044 28 9 -0.034181461
2.232089 5.8977175 -1.225757 2 2 -0.034179159
5.08497 13.428638 1.2562628 23 10 -0.034176853
3.0037928 7.9283729 -1.3428336 1 3 -0.03417455
3.2840686 8.6544685 1.466104 37 12 -0.034167636
5.5113978 14.524125 -1.3591067 1 5 -0.034165334
2.4027221 6.328536 1.3158189 11 13 -0.034163028
7.0207653 18.482319 -1.0361474 36 6 -0.034160726
7.0372181 18.506144 -0.34559253 60 7 -0.034156118
2.1096501 5.5449524 1.5896666 43 15 -0.034153812
1.5051359 3.9415619 -1.1305215 11 0 -0.034133077
7.1283689 18.657585 0.3486293 100 8 -0.034130774
1.7903577 4.6835785 -1.1575981 8 1 -0.034128468
7.0241604 18.365602 1.030495 28 9 -0.034126166
2.2386374 5.8532157 -1.2181247 2 2 -0.03412386
5.1332412 13.414526 1.2566115 2 10 -0.034121558
3.315671 8.6466417 1.4667298 34 12 -0.034112342
6.1298938 15.985601 -1.4978585 2 5 -0.034110036
2.4262033 6.3237767 1.3165821 13 13 -0.034107734
7.0888209 18.467018 -1.0366707 15 6 -0.034105428
2.0806787 5.4175301 1.3398085 3 14 -0.034103125
7.1118121 18.507603 -0.34608123 40 7 -0.034100823
2.133847 5.5501766 1.5932901 43 15 -0.034098517
1.5244502 3.9507027 -1.1346627 13 0 -0.034077782
7.1905675 18.625128 0.34848964 100 8 -0.034075476
1.8102055 4.6863894 -1.1598476 8 1 -0.034073174
7.0893388 18.353388 1.0311232 28 9 -0.034070868
2.2732115 5.88199 -1.225757 2 2 -0.034068566
5.1800327 13.396526 1.2566115 2 10 -0.03406626
4.0844274 10.552122 1.3893106 100 11 -0.034061652
3.3393307 8.6227045 1.4645396 33 12 -0.034057043
2.4518123 6.3244209 1.3184903 26 13 -0.034052439
7.160459 18.460785 -1.0377175 36 6 -0.034050133
2.1623232 5.5719233 1.3798498 1 14 -0.034047831
7.1789298 18.498831 -0.34636045 33 7 -0.034045525
1.5340201 3.9345579 -1.1315569 12 0 -0.034022484
7.2682772 18.642166 0.34925756 100 8 -0.034020182
1.827862 4.6858068 -1.1611973 8 1 -0.034017876
7.1562705 18.335972 1.0315418 28 9 -0.034015574
2.2937281 5.8740196 -1.225757 2 2 -0.034013268
5.2630191 13.471151 1.2653271 2 10 -0.034010965
4.1056633 10.503391 1.3846796 21 11 -0.034006357
3.3686917 8.6091557 1.4642268 34 12 -0.034001749
6.3009038 16.094551 -1.5121521 6 5 -0.033999447
2.4756329 6.3235688 1.3200166 25 13 -0.033997141
7.2354832 18.472271 -1.0397062 13 6 -0.033994839
2.1694131 5.5356913 1.3726513 20 14 -0.033992533
7.2449241 18.477381 -0.34643027 33 7 -0.03399023
1.8985422 4.8395367 1.3929642 1 15 -0.033987924
1.5435196 3.9204619 -1.1289687 12 0 -0.033967189
7.3406315 18.63529 0.34960663 100 8 -0.033964884
1.8420627 4.6739593 -1.1598476 8 1 -0.033962581
7.222425 18.316456 1.0318558 25 9 -0.033960275
2.3131933 5.8663816 -1.225757 2 2 -0.033957973
5.2645197 13.344276 1.2550427 4 10 -0.033955671
4.1634455 10.542541 1.391748 81 11 -0.033951063
3.4001775 8.601018 1.4648525 34 12 -0.033946455
2.4991341 6.318541 1.3207799 7 13 -0.033941846
6.2063613 15.683489 -0.88395441 40 6 -0.03393954
2.1980505 5.5516396 1.3785001 52 14 -0.033937238
6.2856941 15.867774 -0.2979126 17 7 -0.033934932
1.884106 4.7538576 1.370188 1 15 -0.03393263
1.5607662 3.9240251 -1.1315569 15 0 -0.033911895
7.4063702 18.61141 0.3496415 100 8 -0.033909589
1.858368 4.6675005 -1.1598476 8 1 -0.033907287
7.2885399 18.296696 1.0321698 25 9 -0.033904981
2.3336585 5.8582706 -1.225757 2 2 -0.033902679
5.299263 13.296207 1.2522538 26 10 -0.033900373
3.1403291 7.8752899 -1.3428336 1 3 -0.03389807
4.1663861 10.443129 1.380536 26 11 -0.033895764
3.4316432 8.5927658 1.4654782 34 12 -0.033891156
6.1930618 15.507303 -1.4609046 2 5 -0.033888854
2.5306463 6.333478 1.3257409 1 13 -0.033886548
6.2306757 15.58569 -0.87966281 37 6 -0.033884246
2.216691 5.5421243 1.3780502 45 14 -0.03388194
6.3068724 15.760331 -0.29630697 25 7 -0.033879638
1.8935072 4.7293186 1.3650117 43 15 -0.033877332
1.5766141 3.9239314 -1.1331098 11 0 -0.033856597
7.4795022 18.605852 0.35002548 100 8 -0.033854295
1.8717397 4.6537538 -1.158048 5 1 -0.033851989
7.3426666 18.247059 1.030809 21 9 -0.033849686
2.3540921 5.8500896 -1.225757 2 2 -0.03384738
5.3478785 13.283172 1.2527766 26 10 -0.033845078
3.1677983 7.8642812 -1.3428336 1 3 -0.033842772
4.2295246 10.494805 1.3893106 61 11 -0.03384047
2.9243438 7.2489252 1.2380226 8 12 -0.033835862
6.4700322 16.038052 -1.5130236 18 5 -0.033833556
2.5571465 6.3355303 1.3280307 1 13 -0.033831254
5.9664488 14.774914 -0.83507258 37 6 -0.033828948
5.9848857 14.805683 -0.27874985 31 7 -0.03382434
1.9186949 4.7441716 1.3712233 31 15 -0.033822037
1.5888494 3.9148231 -1.1320745 12 0 -0.033801302
7.5526829 18.600008 0.35040942 100 8 -0.033798996
1.8916394 4.656219 -1.1602976 8 1 -0.033796694
7.4461799 18.319378 1.0363567 9 9 -0.033794388
2.3745 5.841836 -1.225757 2 2 -0.033792086
5.3949671 13.266267 1.2529509 26 10 -0.03378978
3.1952288 7.8531761 -1.3428336 1 3 -0.033787478
4.2361979 10.406433 1.3795611 56 11 -0.033785172
2.9608059 7.2661157 1.2427155 2 12 -0.033780564
6.5485196 16.070726 -1.518253 18 5 -0.033778261
2.5725772 6.3102026 1.3245962 28 13 -0.033775955
5.9976239 14.704063 -0.83224642 40 6 -0.033773653
2.568995 6.2951384 1.5697085 66 14 -0.033771351
6.0032759 14.703242 -0.27721402 34 7 -0.033769045
1.934514 4.7356563 1.3707057 46 15 -0.033766743
1.6010389 3.9056787 -1.1310393 14 0 -0.033746004
7.6266646 18.595736 0.35082829 100 8 -0.033743702
1.9034436 4.6387701 -1.1575981 1 1 -0.033741396
7.482779 18.226757 1.0325886 21 9 -0.033739094
2.3958941 5.8330941 -1.225757 2 2 -0.033736788
5.436697 13.236298 1.2519051 23 10 -0.033734486
3.2226241 7.8419743 -1.3428336 1 3 -0.03373218
4.2830677 10.417286 1.3829734 19 11 -0.033729877
2.971869 7.2210274 1.236771 1 12 -0.033725269
6.6157346 16.066877 -1.5201705 12 5 -0.033722967
2.9673533 7.2029109 1.5142603 29 13 -0.033720661
6.022552 14.611815 -0.82826895 39 6 -0.033718359
2.576103 6.2500978 1.5607104 64 14 -0.033716053
6.0316963 14.626735 -0.27616689 31 7 -0.033713751
1.9473478 4.7199459 1.3681176 67 15 -0.033711445
1.6131264 3.8944294 -1.1294864 12 0 -0.03369071
7.6993594 18.578743 0.35103768 100 8 -0.033688404
1.9234171 4.6389632 -1.1593977 2 1 -0.033686101
7.5518246 18.204744 1.0329025 21 9 -0.033683795
2.4172587 5.8242731 -1.225757 2 2 -0.033681493
5.4867053 13.219962 1.2522538 26 10 -0.033679191
4.3204565 10.399685 1.3827296 94 11 -0.033674583
2.9854195 7.1790795 1.2314522 13 12 -0.033669975
2.9876995 7.1774864 1.5112073 27 13 -0.033665366
6.0545635 14.538018 -0.82533813 42 6 -0.033663061
2.5892525 6.2172279 1.5548617 12 14 -0.033660758
6.0583429 14.539925 -0.2749452 36 7 -0.033658452
1.9668654 4.7181253 1.3696705 56 15 -0.03365615
1.6296259 3.8938377 -1.1310393 10 0 -0.033635411
7.7697244 18.555931 0.35114241 100 8 -0.033633109
1.934382 4.6175036 -1.1557984 1 1 -0.033630807
7.610683 18.167227 1.0322745 21 9 -0.033628501
2.4375734 5.8158002 -1.225757 2 2 -0.033626199
5.5366602 13.203439 1.2526023 23 10 -0.033623893
4.3616147 10.391102 1.3837045 19 11 -0.033619285
3.0242302 7.2013979 1.2370839 6 12 -0.033614676
3.0119734 7.165204 1.5108256 29 13 -0.033610068
6.0727572 14.439469 -0.82094187 10 6 -0.033607766
2.6139624 6.2153368 1.5566614 10 14 -0.03360546
6.082695 14.456019 -0.27375844 40 7 -0.033603158
1.9870695 4.7201343 1.3722585 43 15 -0.033600852
1.6417767 3.8866327 -1.1305215 12 0 -0.033580117
8.1153545 19.202372 0.36388266 79 8 -0.033577815
1.9527208 4.6182432 -1.1575981 1 1 -0.033575509
7.6685572 18.136368 1.0319605 18 9 -0.033573207
2.4446063 5.7787557 -1.2196511 2 2 -0.033570901
5.5843005 13.194179 1.2534739 26 10 -0.033568598
3.6154706 8.5299263 1.4673554 16 12 -0.033559382
3.0380161 7.1605992 1.5119705 26 13 -0.033554774
5.8693247 13.827258 -0.78723752 1 6 -0.033552468
2.6353219 6.2084274 1.5571113 17 14 -0.033550166
6.1079211 14.382397 -0.27274621 34 7 -0.03354786
2.0042212 4.7170753 1.3732939 33 15 -0.033545557
1.659961 3.8936067 -1.1341451 9 0 -0.033524822
8.1970291 19.217665 0.36468551 83 8 -0.033522516
1.9741426 4.626081 -1.1611973 2 1 -0.033520214
7.7239809 18.091118 1.0309138 21 9 -0.033517908
2.4760919 5.7995057 -1.225757 2 2 -0.033515606
5.6280203 13.175589 1.2534739 28 10 -0.0335133
4.4304357 10.361946 1.3837045 22 11 -0.033508692
3.6475496 8.5227051 1.4682941 27 12 -0.033504084
2.6900408 6.282392 1.3284123 5 13 -0.033499476
5.8663807 13.693895 -0.78074789 10 6 -0.033497173
2.6531374 6.1902356 1.5548617 15 14 -0.033494867
6.127357 14.28931 -0.27138492 36 7 -0.033492565
2.0214374 4.7118254 1.3738115 41 15 -0.033490263
1.6643772 3.8664947 -1.1279335 9 0 -0.033469524
8.2727575 19.209139 0.36506945 72 8 -0.033467222
1.9825686 4.6012645 -1.1566983 2 1 -0.033464916
7.7965755 18.086052 1.0321698 18 9 -0.033462614
2.4761155 5.7439518 -1.215835 2 2 -0.033460308
5.6692405 13.144888 1.2524281 26 10 -0.033458006
3.6710112 8.4954138 1.4657912 30 12 -0.033448789
3.0921435 7.1523671 1.5146419 26 13 -0.033444181
5.9268289 13.702665 -0.7824226 10 6 -0.033441879
2.4317119 5.619359 1.4135925 43 14 -0.033439573
6.1470118 14.198099 -0.27005854 34 7 -0.033437271
2.0394073 4.7082863 1.3748468 13 15 -0.033434965
1.677861 3.8606627 -1.1279335 14 0 -0.03341423
8.3445492 19.191143 0.36527887 72 8 -0.033411924
1.992398 4.5800209 -1.1530992 1 1 -0.033409622
7.8485289 18.04179 1.0311232 15 9 -0.033407316
2.4961467 5.7352753 -1.215835 2 2 -0.033405013
5.7166843 13.12867 1.2527766 9 10 -0.033402707
4.514565 10.35806 1.3873608 39 11 -0.033398103
3.703902 8.4940557 1.4676683 33 12 -0.033393495
6.0413394 13.847838 -1.3218039 1 5 -0.033391189
3.1115921 7.1289349 1.5119705 26 13 -0.033388887
6.013792 13.771579 -0.78755152 16 6 -0.033386581
2.4138651 5.5251198 1.3919971 50 14 -0.033384278
6.1732421 14.129995 -0.26915103 34 7 -0.033381972
2.0820909 4.7634521 1.3929642 1 15 -0.03337967
1.6928803 3.8583198 -1.1289687 10 0 -0.033358932
8.4121561 19.172525 0.36545339 72 8 -0.033356629
2.0154092 4.5912318 -1.1575981 1 1 -0.033354327
7.9235106 18.041712 1.0326931 12 9 -0.033352021
2.5366864 5.7732587 -1.225757 2 2 -0.033349719
5.7656817 13.115932 1.2534739 21 10 -0.033347413
3.4119039 7.7614932 -1.3428336 1 3 -0.033345111
3.7343235 8.4828844 1.4679812 31 12 -0.033338197
6.0896378 13.826667 -1.3218039 1 5 -0.033335894
3.1320488 7.1113915 1.510444 26 13 -0.033333588
6.0827799 13.804565 -0.79058707 19 6 -0.033331286
2.4266727 5.5046015 1.3888478 20 14 -0.03332898
6.1934738 14.042495 -0.26789445 40 7 -0.033326678
2.4005251 5.4401512 1.5932901 18 15 -0.033324372
1.708795 3.8597503 -1.1310393 9 0 -0.033303637
8.4927931 19.174128 0.36604679 82 8 -0.033301335
2.0377407 4.5984211 -1.1611973 1 1 -0.033299029
7.9744 17.995249 1.0315418 18 9 -0.033296727
2.5558188 5.7648149 -1.225757 2 2 -0.033294421
5.8099489 13.098562 1.2536482 23 10 -0.033292118
3.438978 7.7495351 -1.3428336 1 3 -0.033289813
3.7656391 8.4776754 1.4692327 37 12 -0.033282902
2.7947497 6.2859654 1.3371896 13 13 -0.033278294
6.165019 13.859893 -0.79498327 13 6 -0.033275988
2.4149714 5.4266624 1.3713017 48 14 -0.033273686
6.2310672 14.001781 -0.2675105 44 7 -0.03327138
2.4154108 5.4251008 1.5912195 15 15 -0.033269078
1.7214683 3.8519983 -1.1305215 12 0 -0.033248343
8.5669422 19.169592 0.36650056 86 8 -0.033246037
2.0466139 4.5774074 -1.1575981 1 1 -0.033243734
8.0371628 17.967306 1.0315418 18 9 -0.033241428
2.5598857 5.7200189 -1.2181247 2 2 -0.033239126
5.8523827 13.070927 1.2529509 23 10 -0.03323682
3.4646556 7.7380896 -1.3428336 1 3 -0.033234518
3.7919786 8.4572687 1.4679812 34 12 -0.033227604
3.187614 7.1060295 1.5138787 24 13 -0.033222996
6.2551093 13.937769 -0.80063552 10 6 -0.033220693
2.4249701 5.400847 1.3668026 41 14 -0.033218388
6.3012056 14.027373 -0.26841801 44 7 -0.033216085
2.4406672 5.4307332 1.5953608 18 15 -0.033213779
1.7349049 3.8459651 -1.1305215 11 0 -0.033195496
8.6503115 19.167225 0.36705902 86 8 -0.033193193
2.0713959 4.5876365 -1.1620972 1 1 -0.033190887
8.1046104 17.941364 1.0317512 18 9 -0.033188585
2.5636737 5.6752644 -1.2104924 2 2 -0.033186279
5.9004388 13.055864 1.2534739 23 10 -0.033183977
3.509269 7.7613387 -1.3490911 1 3 -0.033181671
3.8229485 8.4433146 1.4679812 37 12 -0.033174761
3.2128289 7.0925088 1.513497 26 13 -0.033170152
6.0423341 13.332617 -0.76714051 46 6 -0.033167847
6.3732319 14.049708 -0.26929063 40 7 -0.033163238
2.1483967 4.7339168 1.3929642 1 15 -0.033160936
1.7451148 3.8328545 -1.1284511 9 0 -0.033140201
8.7221336 19.147833 0.36726844 86 8 -0.033137895
2.0825493 4.5697379 -1.1593977 2 1 -0.033135593
8.1721478 17.923876 1.0323793 18 9 -0.033133287
2.6160429 5.7377362 -1.225757 2 2 -0.033130985
5.9426656 13.027939 1.2527766 21 10 -0.033128679
3.5199397 7.7130985 -1.3428336 1 3 -0.033126377
3.8515787 8.4281206 1.4676683 33 12 -0.033119462
3.2375653 7.0812516 1.513497 25 13 -0.033114854
6.0821881 13.296915 -0.76630318 82 6 -0.033112552
2.797652 6.1134229 1.5521622 40 14 -0.033110246
6.4438763 14.074652 -0.27019817 46 7 -0.033107944
2.1407721 4.6736979 1.377435 5 15 -0.033105638
1.7592908 3.8284945 -1.1289687 14 0 -0.033084903
8.7964411 19.133619 0.36758259 90 8 -0.033082601
2.0952299 4.5553594 -1.1575981 1 1 -0.033080295
8.2413473 17.909752 1.0332165 18 9 -0.033077992
2.6360569 5.728569 -1.225757 2 2 -0.033075687
5.9964409 13.025211 1.2545198 21 10 -0.033073384
3.5468402 7.7007656 -1.3428336 1 3 -0.033071078
4.7037807 10.207982 1.3800485 8 11 -0.033068776
3.8884196 8.4307699 1.4704841 34 12 -0.033064168
6.1176867 13.252028 -0.76494241 10 6 -0.033057254
2.8197935 6.1053886 1.5526122 42 14 -0.033054952
6.5172882 14.104716 -0.2712104 44 7 -0.033052649
2.5007796 5.4097013 1.5969136 48 15 -0.033050343
1.77996 3.8381028 -1.1336274 13 0 -0.033029608
8.8741045 19.126385 0.36803636 86 8 -0.033027302
2.1094782 4.5444818 -1.1566983 1 1 -0.033025
8.2987719 17.870005 1.0325886 15 9 -0.033022694
2.6345391 5.6730356 -1.215835 2 2 -0.033020392
6.0427012 13.006012 1.2546941 19 10 -0.033018086
3.5737011 7.6883368 -1.3428336 1 3 -0.033015784
4.739387 10.191499 1.3800485 11 11 -0.033013478
3.9186606 8.4189348 1.4707971 35 12 -0.033008873
2.91646 6.262929 1.3429137 1 13 -0.033004265
5.9471326 12.765317 -0.7380417 3 6 -0.033001959
2.8377938 6.0884438 1.5508126 42 14 -0.032999657
6.5952206 14.143499 -0.27239716 40 7 -0.032997351
2.5253613 5.4131961 1.6005371 56 15 -0.032995049
1.7958025 3.8371158 -1.1351804 14 0 -0.03297431
8.9492998 19.113401 0.3683854 78 8 -0.032972008
2.1269834 4.5406199 -1.1575981 1 1 -0.032969702
8.3661804 17.85178 1.0332165 6 9 -0.0329674
2.6543245 5.6638055 -1.215835 2 2 -0.032965094
6.0897589 12.988446 1.2550427 19 10 -0.032962792
3.6005189 7.6758146 -1.3428336 1 3 -0.032960489
4.787581 10.201851 1.3837045 3 11 -0.032958183
4.5733895 9.7410088 -1.3213075 1 4 -0.032955881
3.946347 8.4016294 1.4701713 35 12 -0.032953575
3.3140452 7.0522914 1.5146419 24 13 -0.032948967
4.5759587 9.7332315 -0.5636583 16 6 -0.032946665
2.8590307 6.0785003 1.5508126 36 14 -0.032944359
6.6632791 14.160199 -0.27316508 42 7 -0.032942057
2.5475342 5.4113383 1.6026076 56 15 -0.032939751
1.8050616 3.822089 -1.1325922 13 0 -0.032919016
9.0279274 19.107355 0.36887407 86 8 -0.03291671
2.1461482 4.540216 -1.1593977 1 1 -0.032914408
8.4275951 17.820662 1.0331119 18 9 -0.032912105
2.6740804 5.6545048 -1.215835 2 2 -0.032909799
6.129951 12.956302 1.2539967 19 10 -0.032907497
3.6272852 7.6632018 -1.3428336 1 3 -0.032905191
4.8333607 10.206604 1.3866295 1 11 -0.032902889
4.5648704 9.6352854 -1.3091207 22 4 -0.032900583
3.9756441 8.387805 1.4701713 38 12 -0.032898281
4.5628533 9.6266985 -0.93204349 18 5 -0.032895975
3.3394852 7.0424533 1.5150236 27 13 -0.032893673
4.5636811 9.6197548 -0.55800605 17 6 -0.032891367
2.5075607 5.2832971 1.3501562 24 14 -0.032889064
6.7332559 14.180204 -0.27400279 42 7 -0.032886758
2.5655804 5.4006667 1.6020899 52 15 -0.032884456
1.8142362 3.8070455 -1.130004 15 0 -0.032863721
9.1023111 19.091972 0.36918822 82 8 -0.032861415
2.1535952 4.5151076 -1.1548988 1 1 -0.032859113
8.4926596 17.805237 1.0338446 18 9 -0.032856807
2.6938007 5.6451368 -1.215835 2 2 -0.032854505
6.1794291 12.943817 1.2548684 9 10 -0.032852199
3.6540148 7.6504927 -1.3428336 1 3 -0.032849897
4.8578358 10.166385 1.3834609 14 11 -0.032847591
4.5496726 9.5172081 -1.2952274 18 4 -0.032845289
3.9957716 8.3585339 1.4673554 34 12 -0.032842983
4.5517311 9.5172462 -0.9229793 19 5 -0.03284068
3.0149338 6.3011127 1.3577969 4 13 -0.032838374
4.5489388 9.502883 -0.55214435 28 6 -0.032836072
2.5293558 5.2815413 1.3519558 22 14 -0.032833766
6.8113332 14.222727 -0.27525935 42 7 -0.032831464
2.5851464 5.3956132 1.6031252 52 15 -0.032829158
1.8333734 3.8128772 -1.1336274 12 0 -0.032808423
9.1369724 19.002213 0.36803636 45 8 -0.032806121
2.1685572 4.5079403 -1.1548988 2 1 -0.032803815
8.556488 17.779083 1.0340539 18 9 -0.032801513
2.7100816 5.628624 -1.2143085 2 2 -0.032799207
6.224577 12.922166 1.2548684 21 10 -0.032796904
3.6793668 7.6383324 -1.3428336 1 3 -0.032794598
4.8915148 10.150223 1.3834609 19 11 -0.032792296
4.5346522 9.4055109 -1.2820656 18 4 -0.03278999
4.0249262 8.3445339 1.4673554 17 12 -0.032787688
4.5433598 9.4151697 -0.91461235 19 5 -0.032785382
3.0537262 6.3282132 1.3658109 1 13 -0.03278308
4.53614 9.396019 -0.54680616 26 6 -0.032780774
2.5468576 5.2731237 1.3519558 31 14 -0.032778472
6.8879132 14.254679 -0.27634141 36 7 -0.032776169
2.6073244 5.3935156 1.6051958 43 15 -0.032773864
1.8468513 3.8085144 -1.1341451 12 0 -0.032753129
9.1072397 18.772297 0.36419684 36 8 -0.032750823
2.1893842 4.5108628 -1.1575981 1 1 -0.03274852
8.6106501 17.732937 1.0331119 18 9 -0.032746214
2.7321637 5.6266699 -1.215835 2 2 -0.032743912
6.2743559 12.915792 1.2562628 21 10 -0.032741606
3.7060056 7.6254435 -1.3428336 1 3 -0.032739304
4.9260507 10.1313 1.3832171 17 11 -0.032736998
4.5240417 9.3003683 -1.2698786 18 4 -0.032734696
4.0609436 8.3446445 1.4698585 13 12 -0.03273239
4.5379419 9.3248072 -0.90729129 19 5 -0.032730088
3.3911994 6.9653287 1.5058646 23 13 -0.032727785
4.5208101 9.2813683 -0.54104918 30 6 -0.032725479
2.5652475 5.2642016 1.3519558 45 14 -0.032723177
6.9647913 14.286272 -0.27742347 42 7 -0.032720871
1.8592862 3.8003087 -1.1336274 15 0 -0.03269783
9.0786419 18.54821 0.36046201 38 8 -0.032695528
2.1982594 4.489192 -1.1539989 1 1 -0.032693222
8.6698656 17.69739 1.0327979 18 9 -0.03269092
2.7742457 5.6629372 -1.225757 2 2 -0.032688614
6.3237839 12.902758 1.2571344 23 10 -0.032686312
3.732599 7.6124611 -1.3428336 1 3 -0.032684006
4.9613881 10.114042 1.3832171 16 11 -0.032681704
4.5144973 9.1989822 -1.2581792 18 4 -0.032679401
4.0952682 8.3410578 1.4717356 38 12 -0.032677095
4.5327039 9.232007 -0.89979583 16 5 -0.032674793
3.1012964 6.3137875 1.3673373 15 13 -0.032672487
4.5091352 9.1759062 -0.5358156 65 6 -0.032670185
2.5930638 5.2744532 1.3569047 30 14 -0.032667879
7.0331545 14.299554 -0.27815646 25 7 -0.032665577
2.6756201 5.437583 1.6238307 1 15 -0.032663271
1.8716847 3.7920635 -1.1331098 9 0 -0.032642536
9.0503712 18.328138 0.35679698 40 8 -0.03264023
2.2208226 4.4954681 -1.1575981 1 1 -0.032637928
8.7368937 17.677761 1.0334258 18 9 -0.032635622
2.7678993 5.6004186 -1.2143085 2 2 -0.032633319
6.3670216 12.877032 1.2567859 23 10 -0.032631017
4.5369062 9.1716719 -1.6206613 1 3 -0.032628711
4.9984217 10.100222 1.3837045 16 11 -0.032626409
4.5219212 9.1333551 -1.2513546 64 4 -0.032624103
4.1217308 8.3214006 1.4707971 38 12 -0.032621801
4.5215726 9.128644 -0.89125466 17 5 -0.032619495
3.1233156 6.3029237 1.3673373 33 13 -0.032617193
4.5384784 9.1547403 -0.53550154 71 6 -0.032614887
2.6192534 5.2810807 1.3609538 20 14 -0.032612585
9.0366545 18.212208 -0.35487723 35 7 -0.032610279
2.6748295 5.388411 1.611925 26 15 -0.032607976
1.8771595 3.7699432 -1.1284511 13 0 -0.032587241
9.034934 18.137136 0.35369048 100 8 -0.032584935
2.2365003 4.487689 -1.1575981 1 1 -0.032582633
8.786067 17.622135 1.0319605 6 9 -0.032580327
2.7699101 5.5555835 -1.2066761 2 2 -0.032578025
6.4119296 12.85473 1.2567859 23 10 -0.032575719
4.5353746 9.0886135 -1.6087722 1 3 -0.032573417
5.0336456 10.082712 1.3837045 16 11 -0.032571111
4.556438 9.1228409 -1.2520857 82 4 -0.032568809
4.1533999 8.3122644 1.4717356 37 12 -0.032566503
4.5525174 9.1110239 -0.89108032 64 5 -0.0325642
3.1488106 6.2990065 1.3688638 32 13 -0.032561895
4.5855966 9.1692095 -0.53728098 71 6 -0.032559592
2.6376708 5.2719064 1.3609538 20 14 -0.032557286
9.0643749 18.109024 -0.35348105 100 7 -0.032554984
2.6936238 5.3790402 1.611925 18 15 -0.032552678
1.8963765 3.7754521 -1.1320745 14 0 -0.032531943
9.1053782 18.11978 0.35396972 100 8 -0.032529641
2.2556539 4.4868188 -1.1593977 1 1 -0.032527335
8.9175205 17.730536 1.0401249 3 9 -0.032525033
2.7892847 5.5458813 -1.2066761 2 2 -0.032522727
6.4621387 12.842948 1.2578317 23 10 -0.032520425
4.5795093 9.0974274 -1.6131524 1 3 -0.032518119
5.0670218 10.061536 1.3832171 17 11 -0.032515816
4.5900397 9.1104279 -1.2525733 73 4 -0.03251351
4.1850595 8.3030062 1.4726743 33 12 -0.032511208
4.5842957 9.0950766 -0.89108032 57 5 -0.032508902
3.1734266 6.2932377 1.3700087 14 13 -0.0325066
4.6166739 9.1513643 -0.53717631 75 6 -0.032504294
2.6841557 5.3183379 1.3753507 1 14 -0.032501992
9.1365404 18.095123 -0.35383007 100 7 -0.032499686
2.6836386 5.3127022 1.594843 31 15 -0.032497384
1.9130374 3.7757027 -1.1341451 9 0 -0.032476649
9.1803217 18.111074 0.35442346 100 8 -0.032474343
2.2624874 4.4615378 -1.1548988 1 1 -0.032472041
8.9504461 17.6423 1.0367755 12 9 -0.032469735
2.8388283 5.5956383 -1.2196511 2 2 -0.032467432
6.51054 12.827416 1.2585289 23 10 -0.032465126
4.6112351 9.0813875 -1.6131524 1 3 -0.032462824
5.1021152 10.043786 1.3832171 21 11 -0.032460518
4.622715 9.096118 -1.252817 69 4 -0.032458216
4.210434 8.2813044 1.4714227 16 12 -0.03245591
4.6304607 9.1074352 -0.89386928 55 5 -0.032453608
3.5300455 6.9400811 1.513497 25 13 -0.032451302
4.654027 9.1458721 -0.53780431 77 6 -0.032449
3.0572281 6.0053329 1.5557615 43 14 -0.032446697
9.2132578 18.089853 -0.35435367 77 7 -0.032444391
2.7083077 5.3153505 1.5984664 39 15 -0.032442089
1.9262065 3.7690012 -1.1341451 11 0 -0.03242135
9.2443914 18.0807 0.35445839 40 8 -0.032419048
2.2780483 4.4536123 -1.1548988 1 1 -0.032416742
9.0119791 17.610949 1.0367755 12 9 -0.03241444
2.8368807 5.5437493 -1.2104924 2 2 -0.032412134
6.5598073 12.813484 1.2594005 26 10 -0.032409832
4.6627207 9.1039152 -1.6200355 1 3 -0.032407526
5.138051 10.027679 1.3834609 26 11 -0.032405224
4.6589594 9.0887623 -1.2540357 73 4 -0.032402918
3.7489524 7.3103566 1.3012221 1 12 -0.032400616
4.6676807 9.1018524 -0.89491516 57 5 -0.032398313
3.5434971 6.9067554 1.5089177 21 13 -0.032396007
4.6959496 9.1491194 -0.53895575 78 6 -0.032393705
3.0737226 5.9859557 1.553512 43 14 -0.032391399
9.3028507 18.109163 -0.3553659 63 7 -0.032389097
1.938465 3.7605379 -1.1336274 15 0 -0.032366056
9.3175354 18.067869 0.35484233 40 8 -0.03236375
2.2935817 4.4456325 -1.1548988 1 1 -0.032361448
9.0715628 17.575834 1.0365661 12 9 -0.032359142
2.847209 5.5163674 -1.2066761 2 2 -0.03235684
6.6035838 12.788736 1.2592262 23 10 -0.032354537
4.6890335 9.0770531 -1.6181583 1 3 -0.032352231
5.1821351 10.02732 1.3858984 26 11 -0.032349929
4.6997762 9.0900764 -1.2564731 73 4 -0.032347623
3.7798944 7.3077512 1.3030992 3 12 -0.032345321
4.7040033 9.0943508 -0.89578676 68 5 -0.032343015
3.3528421 6.4793582 1.4180925 34 13 -0.032340713
4.736124 9.1486349 -0.5398978 72 6 -0.032338407
3.092808 5.9717288 1.5526122 42 14 -0.032336105
9.383482 18.110315 -0.35602909 72 7 -0.032333799
2.3683956 4.5691004 1.3789879 3 15 -0.032331496
1.9497986 3.7503197 -1.1325922 9 0 -0.032310758
9.3888474 18.051203 0.35515645 40 8 -0.032308456
2.318078 4.4548883 -1.1593977 1 1 -0.032306153
9.1070395 17.494453 1.0336351 28 9 -0.032303847
2.8664486 5.5063944 -1.2066761 2 2 -0.032301545
6.67487 12.816854 1.2642812 2 10 -0.032299239
4.7389383 9.0956707 -1.6244158 1 3 -0.032296937
5.220778 10.016211 1.3868732 26 11 -0.032294631
4.7388229 9.0876961 -1.258423 70 4 -0.032292329
3.8099437 7.3032722 1.3046635 2 12 -0.032290023
4.7347918 9.0761118 -0.89561236 67 5 -0.032287721
3.319123 6.3597054 1.3944323 32 13 -0.032285415
4.7754273 9.1462088 -0.54073519 77 6 -0.032283112
9.4614649 18.105806 -0.35658759 72 7 -0.032278504
2.4192371 4.627573 1.3991758 33 15 -0.032276198
1.9646695 3.7469139 -1.1336274 15 0 -0.032255463
9.4610949 18.036028 0.35550553 37 8 -0.032253161
2.326371 4.4329638 -1.1557984 1 1 -0.032250855
9.1717529 17.469637 1.0340539 65 9 -0.032248553
2.9075508 5.5380754 -1.215835 2 2 -0.032246247
6.7019696 12.759961 1.2609693 14 10 -0.032243945
4.7706618 9.079072 -1.6244158 1 3 -0.032241639
5.2538552 9.9944143 1.3863858 26 11 -0.032239337
4.7806783 9.0904264 -1.2611041 60 4 -0.032237031
3.8400145 7.2986689 1.3062279 3 12 -0.032234728
4.7794352 9.0842142 -0.89805281 67 5 -0.032232422
3.6265974 6.8901191 1.513497 31 13 -0.03223012
4.8101144 9.1347866 -0.54104918 78 6 -0.032227814
2.7711146 5.2603383 1.3726513 1 14 -0.032225512
9.5395298 18.100971 -0.35714605 76 7 -0.032223206
2.404741 4.5609989 1.3815762 1 15 -0.032220904
1.9777377 3.7400327 -1.1336274 14 0 -0.032200169
9.5389614 18.03117 0.35606399 40 8 -0.032197863
2.3363607 4.4144831 -1.1530992 1 1 -0.032195561
9.2380476 17.455011 1.034996 100 9 -0.032193255
2.9507513 5.5730028 -1.225757 2 2 -0.032190952
6.7436748 12.731206 1.2604463 26 10 -0.032188646
3.9698706 7.4914613 -1.3428336 1 3 -0.032186344
5.277555 9.9549665 1.3834609 11 11 -0.032184038
4.812654 9.0780315 -1.2615916 67 4 -0.032181736
3.8623478 7.2824039 1.3056022 3 12 -0.03217943
4.8204517 9.0850754 -0.89979583 68 5 -0.032177128
3.3928936 6.3918705 1.406644 9 13 -0.032174822
4.8438473 9.1214666 -0.54125851 78 6 -0.03217252
3.1623616 5.9550552 1.5566614 45 14 -0.032170214
9.6098099 18.088669 -0.35753 79 7 -0.032167912
2.4216652 4.5564122 1.3826115 37 15 -0.032165609
1.9946738 3.741977 -1.1362157 9 0 -0.032144871
9.6146946 18.029436 0.35665739 40 8 -0.032142568
2.3564894 4.4170275 -1.1557984 1 1 -0.032140262
9.3090382 17.448954 1.0364614 100 9 -0.03213796
2.9359384 5.5008345 -1.2120188 2 2 -0.032135654
6.7905459 12.717563 1.261318 26 10 -0.032133352
4.8602681 9.0986605 -1.6338017 1 3 -0.032131046
5.3236394 9.9619207 1.3868732 22 11 -0.032128744
4.8474121 9.070775 -1.2628102 64 4 -0.032126438
3.8883367 7.2730403 1.3062279 3 12 -0.032124136
4.8618307 9.0901222 -0.9018876 63 5 -0.03212183
3.3890648 6.3338456 1.3963403 2 13 -0.032119527
4.883492 9.122963 -0.54230523 82 6 -0.032117225
3.1774921 5.9359455 1.5544118 43 14 -0.032114919
9.6829634 18.081381 -0.3580187 83 7 -0.032112617
2.4449735 4.5636816 1.3872701 41 15 -0.032110311
1.9988415 3.7200263 -1.1315569 15 0 -0.032089576
9.6876812 18.022114 0.35714605 40 8 -0.03208727
2.3674331 4.4023228 -1.1539989 1 1 -0.032084968
9.3840885 17.442736 1.0380315 86 9 -0.032082662
2.9504421 5.4841537 -1.2104924 2 2 -0.03208036
6.8317404 12.693217 1.2611436 26 10 -0.032078054
4.931622 9.1590204 -1.647568 1 3 -0.032075752
5.3575845 9.945961 1.387117 29 11 -0.032073449
4.8884654 9.0712729 -1.2652477 66 4 -0.032071143
3.9136992 7.2594237 1.3062279 3 12 -0.032068841
4.8973131 9.0801105 -0.90258491 67 5 -0.032066535
3.3727701 6.2534547 1.3810756 1 13 -0.032064233
4.9269986 9.1313248 -0.54377061 86 6 -0.032061927
3.200969 5.9299636 1.5557615 47 14 -0.032059625
9.755517 18.065065 -0.35836771 61 7 -0.032057319
2.4590535 4.5517192 1.3862349 22 15 -0.032055017
2.0115411 3.7109776 -1.1310393 12 0 -0.032034278
5.2478652 9.6814861 0.19222081 100 8 -0.032031976
2.382787 4.3940315 -1.1539989 1 1 -0.032029673
9.4544363 17.427427 1.0390781 100 9 -0.032027368
2.9742699 5.4802036 -1.2120188 2 2 -0.032025065
6.8801165 12.671597 1.2614923 26 10 -0.032022759
4.9500709 9.1131124 -1.6425622 1 3 -0.032020457
5.399848 9.9411554 1.3890669 30 11 -0.032018151
4.9305243 9.0733404 -1.2679287 75 4 -0.032015849
3.9427917 7.2526598 1.3074795 3 12 -0.032013543
4.9346924 9.0734606 -0.90363067 71 5 -0.032011241
3.350631 6.1582732 1.3627579 1 13 -0.032008935
4.9623408 9.1167145 -0.54397994 66 6 -0.032006633
3.2245474 5.9216137 1.5566614 10 14 -0.032004327
5.2473202 9.6362677 -0.19152272 37 7 -0.032002024
2.4767742 4.5465012 1.3872701 20 15 -0.031999718
2.0263367 3.7073228 -1.1320745 11 0 -0.031978983
5.233429 9.5709505 0.19040576 28 8 -0.031976681
2.4026158 4.392108 -1.1557984 1 1 -0.031974375
9.5240059 17.40317 1.0397062 59 9 -0.031972073
2.9933801 5.469789 -1.2120188 2 2 -0.031969767
6.9252605 12.649252 1.2616665 23 10 -0.031967465
4.9685683 9.0715208 -1.6381818 1 3 -0.031965159
5.4257569 9.9021454 1.3863858 27 11 -0.031962857
4.9723325 9.0708761 -1.2701224 69 4 -0.031960551
3.9712451 7.2416244 1.3081051 3 12 -0.031958248
4.9717464 9.0623016 -0.90432799 68 5 -0.031955943
3.3796604 6.1603107 1.3658109 1 13 -0.03195364
2.8850362 5.2543793 1.383899 16 14 -0.031949032
4.9985905 9.0999308 -0.18122579 19 7 -0.031946726
2.1882572 3.9820693 1.2174848 3 15 -0.031944424
2.0389793 3.6981788 -1.1315569 15 0 -0.031923689
5.0080543 9.0833092 0.18105127 57 8 -0.031921383
2.4216986 4.3905196 -1.1575981 1 1 -0.031919081
9.5895166 17.378563 1.0402296 31 9 -0.031916775
2.996331 5.4278431 -1.2051498 4 2 -0.031914473
6.9754324 12.630759 1.2623638 23 10 -0.031912167
4.0770826 7.3795395 -1.3353248 1 3 -0.031909864
5.4650874 9.8918343 1.3876045 29 11 -0.031907558
4.9473119 8.9509583 -1.2557418 36 4 -0.031905256
3.9926772 7.2208018 1.3068537 7 12 -0.03190295
4.9531984 8.9542351 -0.89526373 37 5 -0.031900648
3.4031687 6.1495986 1.3661925 1 13 -0.031898342
4.9210401 8.8887634 -0.53246611 8 6 -0.03189604
3.2706127 5.9052081 1.558461 40 14 -0.031893734
4.9905992 9.010705 -0.17979468 35 7 -0.031891432
2.8903131 5.2164097 1.5979488 37 15 -0.031889126
2.053401 3.6968219 -1.1331098 9 0 -0.031857014
4.9788966 8.9600277 0.17892207 26 8 -0.031854711
2.4305627 4.3722458 -1.1548988 1 1 -0.031852406
9.6529236 17.357138 1.0408576 34 9 -0.031850103
3.0210006 5.4321289 -1.2082026 4 2 -0.031847797
7.0199184 12.617489 1.2632353 26 10 -0.031845495
4.0752702 7.3218169 -1.3271902 1 3 -0.031843189
5.4949646 9.8684521 1.3868732 27 11 -0.031840887
4.9267316 8.844326 -1.2430674 21 4 -0.031838581
4.0223689 7.2178764 1.3087308 7 12 -0.031836279
4.9421196 8.8646708 -0.88794273 28 5 -0.031833973
3.802001 6.8196416 1.5176948 21 13 -0.031831671
4.9197536 8.8209324 -0.5293259 8 6 -0.031829365
3.2806039 5.8795867 1.5544118 43 14 -0.031827062
4.9697733 8.9033089 -0.17797965 37 7 -0.031824756
2.9113619 5.2135434 1.6000193 37 15 -0.031822454
2.0612705 3.6791592 -1.130004 14 0 -0.031801719
4.96909 8.8693228 0.17745607 26 8 -0.031799413
2.4458089 4.3637352 -1.1548988 1 1 -0.031797111
9.7329931 17.358177 1.0429511 53 9 -0.031794805
3.0284052 5.3987603 -1.2032416 11 2 -0.031792503
7.0641642 12.588202 1.2628866 26 10 -0.031790197
4.1504312 7.3929548 -1.3428336 1 3 -0.031787895
5.5381274 9.864789 1.3890669 30 11 -0.031785589
4.9050846 8.7336102 -1.2299055 27 4 -0.031783286
4.0426993 7.1951814 1.3071665 8 12 -0.031780981
4.9222703 8.7570496 -0.87887847 30 5 -0.031778678
3.5344403 6.2854381 1.401683 34 13 -0.031776372
4.9256091 8.7558422 -0.52649975 10 6 -0.03177407
3.3088238 5.8794107 1.557561 38 14 -0.031771764
4.9635553 8.819684 -0.17665327 41 7 -0.031769462
2.9276488 5.1999822 1.5989841 37 15 -0.031767156
2.0779018 3.6786692 -1.1320745 14 0 -0.031746421
4.9504099 8.760519 0.17564102 31 8 -0.031744119
2.4541132 4.3411708 -1.1512995 1 1 -0.031741813
9.8103104 17.346727 1.0444164 65 9 -0.031739511
3.0510967 5.3949919 -1.2047681 9 2 -0.031737205
7.1061039 12.559997 1.2625381 26 10 -0.031734902
4.1100416 7.2615256 -1.3215585 1 3 -0.031732596
5.575222 9.8461523 1.3893106 30 11 -0.031730294
4.8998809 8.6499405 -1.2206435 25 4 -0.031727988
4.0709939 7.1837525 1.3077923 11 12 -0.031725686
4.9135137 8.6704788 -0.87190604 30 5 -0.03172338
3.8390846 6.7717657 1.5131154 7 13 -0.031721078
4.9147615 8.6656284 -0.52210355 9 6 -0.031718772
4.9474759 8.716218 -0.17494293 35 7 -0.031714167
2.9428711 5.1824975 1.5969136 37 15 -0.031711861
2.0849953 3.6613204 -1.1289687 10 0 -0.031691127
4.9413633 8.673686 0.17424482 31 8 -0.031688821
2.4653933 4.3258047 -1.1494999 1 1 -0.031686518
9.8876238 17.341873 1.0461959 45 9 -0.031684212
3.0699115 5.3843083 -1.2047681 11 2 -0.03168191
7.1597714 12.552423 1.2642812 14 10 -0.031679604
4.143198 7.2608595 -1.3240615 1 3 -0.031677302
5.6075926 9.8231821 1.3888232 27 11 -0.031674996
4.8965721 8.5741758 -1.2123563 31 4 -0.031672694
4.1029029 7.1815052 1.3099824 10 12 -0.031670392
4.9052019 8.5858068 -0.86510789 33 5 -0.031668086
3.8704951 6.7719593 1.5161684 25 13 -0.031665783
4.9082975 8.5842676 -0.51823068 10 6 -0.031663477
3.359462 5.8730845 1.5620601 43 14 -0.031661175
4.9391389 8.6312056 -0.17358163 37 7 -0.031658869
2.590467 4.5250397 1.3971052 18 15 -0.031656567
2.107379 3.6707761 -1.1341451 15 0 -0.031635828
4.9387469 8.5991592 0.17309296 31 8 -0.031633526
2.4940708 4.3408275 -1.1557984 1 1 -0.03163122
9.9620199 17.331501 1.0476613 100 9 -0.031628918
3.0906405 5.3769655 -1.2055314 7 2 -0.031626612
7.2025542 12.525625 1.2641069 23 10 -0.03162431
4.17837 7.263474 -1.3271902 1 3 -0.031622007
5.6398602 9.8001108 1.3883356 26 11 -0.031619702
4.8947797 8.5019789 -1.2045567 36 4 -0.031617399
4.1397786 7.1876798 1.3137368 8 12 -0.031615093
4.9073009 8.5202885 -0.86022717 31 5 -0.031612791
3.8960655 6.7618117 1.5169315 27 13 -0.031610485
4.9123015 8.5220909 -0.51550919 14 6 -0.031608183
3.3731296 5.849504 1.5589108 45 14 -0.031605877
4.9382558 8.5602198 -0.1724996 42 7 -0.031603575
2.6052799 4.5142975 1.3965876 3 15 -0.031601269
2.1124389 3.6500204 -1.130004 13 0 -0.031580534
4.9416828 8.535141 0.17215054 99 8 -0.031578228
2.4974864 4.3118606 -1.1503997 1 1 -0.031575926
10.031475 17.312172 1.0486033 100 9 -0.031573623
3.1015182 5.3525548 -1.2024784 11 2 -0.031571317
7.2472353 12.502129 1.2642812 26 10 -0.031569015
4.0986543 7.0677094 -1.294026 2 3 -0.031566709
5.6770258 9.7855139 1.3890669 30 11 -0.031564407
4.8855681 8.417881 -1.195051 37 4 -0.031562101
4.1608744 7.1663537 1.3124853 10 12 -0.031559799
4.8939939 8.429019 -0.85273176 39 5 -0.031557493
3.5883255 6.1777582 1.388708 18 13 -0.031555191
4.9360008 8.4945297 -0.51488119 58 6 -0.031552885
3.3758979 5.8073688 1.5508126 31 14 -0.031550582
4.9570498 8.5239124 -0.17211564 42 7 -0.031548277
3.0047531 5.1647534 1.6010547 37 15 -0.031545974
2.1232193 3.6392877 -1.1289687 12 0 -0.031525239
4.9784966 8.529933 0.17239487 100 8 -0.031522933
2.5144887 4.3064814 -1.1512995 1 1 -0.031520631
10.115018 17.316711 1.0510107 56 9 -0.031518325
3.1182041 5.338304 -1.2017151 9 2 -0.031516023
7.2928333 12.4802 1.2646297 26 10 -0.031513717
4.1302805 7.0652962 -1.2962161 2 3 -0.031511415
5.7141576 9.7707767 1.389798 24 11 -0.031509109
4.9239383 8.4161997 -1.1972445 88 4 -0.031506807
4.1898575 7.1586037 1.3137368 7 12 -0.031504501
4.9203696 8.4067249 -0.85220885 64 5 -0.031502198
3.6108618 6.1668882 1.3890896 30 13 -0.031499892
4.9726825 8.489315 -0.51561385 57 6 -0.03149759
3.0917089 5.2760172 1.4117929 11 14 -0.031495284
4.9958777 8.5220814 -0.17242977 60 7 -0.031492982
3.0217824 5.1525698 1.6005371 39 15 -0.031490676
2.1349316 3.6301885 -1.1284511 14 0 -0.031469941
5.0082436 8.5125017 0.17239487 100 8 -0.031467639
2.5472975 4.327908 -1.1593977 1 1 -0.031465333
10.117636 17.183199 1.0450444 100 9 -0.031463031
3.1348257 5.3240042 -1.2009518 9 2 -0.031460725
7.3323121 12.4478 1.2639326 28 10 -0.031458423
4.1509051 7.0440297 -1.2949647 4 3 -0.031456117
5.7421789 9.7405119 1.3883356 9 11 -0.031453814
4.9583306 8.4075089 -1.1984632 73 4 -0.031451508
4.2178297 7.1490393 1.3146753 8 12 -0.031449206
4.9628439 8.4118071 -0.8544749 70 5 -0.0314469
3.96766 6.722331 1.5173131 18 13 -0.031444598
5.0093966 8.483943 -0.51634657 54 6 -0.031442292
3.1547077 5.3406963 1.4320384 35 14 -0.03143999
5.0316968 8.5149212 -0.17263921 60 7 -0.031437688
3.0338528 5.1320114 1.5974313 39 15 -0.031435382
2.1574426 3.6393313 -1.1336274 10 0 -0.031414647
5.0389452 8.4966879 0.17242977 100 8 -0.031412341
2.5484679 4.295527 -1.1530992 1 1 -0.031410038
10.220418 17.226852 1.0497547 26 9 -0.031407733
3.1674209 5.3366642 -1.2062945 9 2 -0.03140543
7.3828359 12.434122 1.2651527 28 10 -0.031403124
4.1663871 7.0142126 -1.2921488 6 3 -0.031400822
5.793386 9.7494192 1.3924793 29 11 -0.031398516
4.9942985 8.4046717 -1.2004131 70 4 -0.031396214
4.2576628 7.1621828 1.3196814 11 12 -0.031393908
5.0023584 8.4115562 -0.85621798 67 5 -0.031391606
3.9921069 6.7101269 1.5176948 25 13 -0.031389304
5.0410218 8.4698391 -0.51655596 56 6 -0.031386998
3.1484773 5.2900181 1.4212408 61 14 -0.031384695
5.0691118 8.5136538 -0.17295335 43 7 -0.031382389
3.0528326 5.1252408 1.5984664 39 15 -0.031380087
2.1645453 3.6238649 -1.1310393 13 0 -0.031359348
5.0783792 8.4988127 0.17281373 100 8 -0.031357046
2.5586998 4.2803607 -1.1512995 1 1 -0.03135474
10.206782 17.074575 1.0425323 40 9 -0.031352438
3.183084 5.322762 -1.2055314 11 2 -0.031350132
7.4260774 12.412989 1.2655014 26 10 -0.03134783
4.1886115 6.998662 -1.291836 5 3 -0.031345524
5.8246636 9.7284517 1.3922355 32 11 -0.031343222
5.0292788 8.3999863 -1.2021192 73 4 -0.031340919
4.2915425 7.1649694 1.3228099 8 12 -0.031338613
5.0384192 8.4085932 -0.85761249 70 5 -0.031336311
4.019382 6.7052722 1.5196029 35 13 -0.031334005
5.0752463 8.4633522 -0.51718402 54 6 -0.031331703
3.1750238 5.294589 1.4252899 15 14 -0.031329397
5.1106915 8.5190887 -0.17340712 61 7 -0.031327095
2.7059669 4.5088329 1.4090109 13 15 -0.031324789
2.1775458 3.6183224 -1.1315569 14 0 -0.031304054
5.117878 8.5007715 0.17319769 100 8 -0.031301748
2.5789115 4.2818689 -1.1539989 1 1 -0.031299446
10.187989 16.908827 1.0345774 40 9 -0.03129714
3.1784282 5.2751813 -1.1971357 9 2 -0.031294838
7.4723396 12.396828 1.2663729 26 10 -0.031292535
4.2260766 7.0084167 -1.2962161 2 3 -0.031290229
5.8538184 9.7039814 1.3915043 29 11 -0.031287927
5.061645 8.3874807 -1.2028506 73 4 -0.031285621
4.3236718 7.1617842 1.325 10 12 -0.031283319
5.0786309 8.4123077 -0.8597042 71 5 -0.031281013
3.6569247 6.0549812 1.3749697 36 13 -0.031278711
5.1156759 8.4669886 -0.51844001 56 6 -0.031276405
3.2297771 5.3435125 1.4414864 11 14 -0.031274103
5.134192 8.4909286 -0.17319769 36 7 -0.031271797
3.0906458 5.1093025 1.6000193 37 15 -0.031269494
2.1841524 3.6007886 -1.1284511 10 0 -0.031248758
5.1558213 8.4965305 0.17347692 100 8 -0.031246454
2.6019318 4.2861681 -1.1575981 1 1 -0.031244149
10.169191 16.745127 1.0267268 46 9 -0.031241845
3.2090504 5.2841916 -1.2017151 9 2 -0.031239541
7.5103984 12.362154 1.2655014 23 10 -0.031237237
5.0989742 8.3896475 -1.5549588 1 3 -0.031234933
