# .PCD v0.7 - Point Cloud Data file format
VERSION 0.7
FIELDS x y z intensity ring time
SIZE 4 4 4 4 2 4
TYPE F F F F U F
COUNT 1 1 1 1 1 1
WIDTH 915
HEIGHT 1
VIEWPOINT 0 0 0 1 0 0 0
POINTS 915
DATA ascii
-0.92571211 0.97005731 0.11731163 100 10 -0.086560957
-0.92061436 0.96538979 0.16379242 100 11 -0.086556353
-0.91304767 0.95812446 0.2096222 69 12 -0.086551741
-0.65563387 0.68800217 -0.08314658 2 5 -0.086549439
-0.8815496 0.92539459 0.24843332 85 13 -0.086547136
-0.9393521 0.98641664 -0.071386255 3 6 -0.086544827
-0.87202448 0.91603577 0.29198647 92 14 -0.086542524
-0.94153172 0.98939675 -0.023839988 90 7 -0.086540222
-0.88545424 0.93079364 0.34422934 84 15 -0.08653792
-0.43750384 0.4610329 -0.17030294 60 0 -0.086517185
-0.91520381 0.96476078 0.023211701 40 8 -0.086514875
-0.41837052 0.44117862 -0.14036946 82 1 -0.086512573
-0.92199677 0.97260123 0.070234857 100 9 -0.086510271
-0.42951286 0.453087 -0.12135453 20 2 -0.086507969
-0.91957945 0.97039038 0.116963 100 10 -0.086505659
-0.92269868 0.97436297 0.16476737 100 11 -0.086501054
-0.91105545 0.9627406 0.20993507 61 12 -0.086496443
-0.69705063 0.73659509 -0.088724539 1 5 -0.08649414
-0.88371074 0.93417108 0.2499598 87 13 -0.086491838
-0.92904168 0.98243386 -0.070862897 9 6 -0.086489536
-0.87149894 0.92190641 0.29288626 96 14 -0.086487234
-0.93395191 0.98831707 -0.023735272 98 7 -0.086484924
-0.87556672 0.92685729 0.34164116 79 15 -0.086482622
-0.42529267 0.45130965 -0.16616184 63 0 -0.086461887
-0.92142904 0.97813833 0.023456035 69 8 -0.086459585
-0.42350778 0.44972998 -0.14261897 81 1 -0.086457275
-0.92270309 0.98017651 0.070548877 100 9 -0.086454973
-0.42927435 0.45601302 -0.12173614 30 2 -0.08645267
-0.90799427 0.96488845 0.11591713 100 10 -0.086450368
-0.91929185 0.97757787 0.16476737 100 11 -0.086445756
-0.91445297 0.97311258 0.21149944 60 12 -0.086441152
-0.87184614 0.92777258 -0.11138504 1 5 -0.08643885
-0.87506765 0.93152642 0.24843332 83 13 -0.08643654
-0.92560685 0.98567063 -0.070862897 19 6 -0.086434238
-0.87361062 0.93062615 0.29468587 94 14 -0.086431935
-0.93596983 0.99740386 -0.023874892 100 7 -0.086429633
-0.87232584 0.92990816 0.34164116 79 15 -0.086427324
-0.44087461 0.4711287 -0.17289113 59 0 -0.086406589
-0.91527689 0.97842807 0.023386225 84 8 -0.086404286
-0.42459735 0.4540523 -0.14351878 80 1 -0.086401984
-0.92336798 0.98776835 0.070862897 100 9 -0.086399682
-0.44108695 0.4718506 -0.12555233 28 2 -0.086397372
-0.91278237 0.97678661 0.116963 100 10 -0.08639507
-0.91587412 0.9807806 0.16476737 100 11 -0.086390465
-0.913746 0.97918713 0.21212517 56 12 -0.086385854
-0.87132084 0.93372357 -0.11173366 1 5 -0.086383551
-0.87181079 0.93457514 0.24843332 81 13 -0.086381249
-0.91943604 0.98597443 -0.070653543 9 6 -0.086378939
-0.87567198 0.93937171 0.29648548 96 14 -0.086376637
-0.93248272 1.0006648 -0.023874892 100 7 -0.086374335
-0.87170821 0.93577445 0.34267643 82 15 -0.086372033
-0.4352822 0.46841931 -0.17133822 80 0 -0.086351298
-0.91866052 0.98894274 0.023560748 100 8 -0.086348988
-0.41637969 0.44839156 -0.14126927 81 1 -0.086346686
-0.91991436 0.99098551 0.070862897 100 9 -0.086344384
-0.43409446 0.46763194 -0.12402585 39 2 -0.086342081
-0.92291969 0.99457151 0.11870612 100 10 -0.086339772
-0.90704584 0.97814935 0.16379242 100 11 -0.086335167
-0.91032261 0.98237056 0.21212517 53 12 -0.086330555
-0.79899108 0.86222762 -0.10284378 3 5 -0.086328253
-0.87654805 0.94625443 0.25072303 83 13 -0.086325951
-0.93091601 1.0052978 -0.071804941 11 6 -0.086323649
-0.86974013 0.93956232 0.29558566 99 14 -0.086321339
-0.93713284 1.0127202 -0.024084322 100 7 -0.086319037
-0.88024294 0.95157474 0.34733516 84 15 -0.086316735
-0.44281521 0.47987413 -0.17496169 77 0 -0.086296
-0.92198247 0.99949247 0.023735272 100 8 -0.086293697
-0.41613305 0.4512749 -0.14171916 81 1 -0.086291388
-0.91915673 0.99712783 0.071072236 100 9 -0.086289085
-0.44310454 0.48069263 -0.12707879 37 2 -0.086286783
-0.91944253 0.99778688 0.11870612 100 10 -0.086284481
-0.91169375 0.99007154 0.16525485 100 11 -0.086279869
-0.90421283 0.98263502 0.21149944 53 12 -0.086275265
-0.85668659 0.93098688 -0.11068779 2 5 -0.086272955
-0.8812145 0.95797801 0.25301275 85 13 -0.086270653
-0.92740136 1.008541 -0.071804941 41 6 -0.08626835
-0.86645508 0.94259256 0.29558566 99 14 -0.086266048
-0.92817992 1.0100955 -0.023944702 100 7 -0.086263746
-0.87560934 0.9532187 0.34681752 79 15 -0.086261436
-0.43730521 0.47706765 -0.17340876 78 0 -0.086244345
-0.9200139 1.0040188 0.023770178 100 8 -0.086242042
-0.41595054 0.45408937 -0.14216907 81 1 -0.08623974
-0.91854292 1.0031163 0.071281582 100 9 -0.086237431
-0.42294624 0.46188831 -0.12173614 40 2 -0.086235128
-0.91343808 0.99789101 0.11835749 100 10 -0.086232826
-0.91644466 1.0018774 0.16671728 100 11 -0.086228214
-0.8969509 0.98125398 0.21056081 55 12 -0.08622361
-0.88434309 0.96780074 -0.11469696 2 5 -0.086221308
-0.87803286 0.960895 0.25301275 85 13 -0.086218998
-0.93078685 1.0189841 -0.072328299 47 6 -0.086216696
-0.86595267 0.94833887 0.29648548 96 14 -0.086214393
-0.92212886 1.0102141 -0.023874892 100 7 -0.086212091
-0.86983895 0.95326328 0.34578225 78 15 -0.086209781
-0.43815404 0.48152497 -0.17444403 77 0 -0.086189047
-0.91112024 1.001308 0.023630559 100 8 -0.086186744
-0.41960803 0.46130487 -0.14396867 79 1 -0.086184442
-0.91772306 1.0092717 0.071490921 100 9 -0.08618214
-0.43445584 0.47796318 -0.12555233 48 2 -0.08617983
-0.90709484 0.99828315 0.11800887 100 10 -0.086177528
-0.91694599 1.0094786 0.16744849 100 11 -0.086172923
-0.89750326 0.98876709 0.21149944 57 12 -0.086168312
-0.76983559 0.84841478 -0.10022911 1 5 -0.086166009
-0.87186718 0.96119809 0.25224951 83 13 -0.086163707
-0.92704582 1.0223888 -0.072328299 23 6 -0.086161397
-0.87294084 0.96305752 0.30008471 99 14 -0.086159095
-0.9253118 1.0208349 -0.024049416 100 7 -0.086156793
-0.86391205 0.95343047 0.34474698 79 15 -0.086154491
-0.42222372 0.46728423 -0.16875002 82 0 -0.086133756
-0.91012514 1.0076084 0.023700368 100 8 -0.086131446
-0.41399649 0.45850056 -0.14261897 81 1 -0.086129144
-0.92222536 1.0213634 0.072118953 100 9 -0.086126842
-0.42883834 0.47510463 -0.12440747 58 2 -0.086124539
-0.91161287 1.0103189 0.11905474 100 10 -0.08612223
-0.90792263 1.0069355 0.16647354 100 11 -0.086117625
-0.88875616 0.98602468 0.21024795 53 12 -0.086113013
-0.63083333 0.70011961 -0.082449332 3 5 -0.086110711
-0.87113458 0.96715319 0.25301275 83 13 -0.086108409
-0.90609753 1.0063235 -0.070967562 4 6 -0.086106107
-0.87739629 0.97478914 0.30278412 96 14 -0.086103804
-0.92308086 1.0255448 -0.024084322 100 7 -0.086101495
-0.86833167 0.9650569 0.34785283 79 15 -0.086099193
-0.43478182 0.48457202 -0.17444403 58 0 -0.086078458
-0.90811425 1.0121094 0.023735272 100 8 -0.086076155
-0.42028081 0.46857515 -0.14531837 91 1 -0.086073846
-0.91598791 1.0216024 0.071909614 100 9 -0.086071543
-0.43110853 0.48098451 -0.12555233 38 2 -0.086069241
-0.91339886 1.0194304 0.11975199 100 10 -0.086066939
-0.90590286 1.0114194 0.16671728 100 11 -0.086062327
-0.88794357 0.99206483 0.21087368 57 12 -0.086057723
-0.6151005 0.6874693 -0.080706216 3 5 -0.08605542
-0.87054062 0.97296286 0.25377598 85 13 -0.086053111
-0.86636549 0.96897697 0.30008471 96 14 -0.086048506
-0.92749101 1.0377064 -0.024293751 100 7 -0.086046204
-0.87268019 0.97672588 0.35095865 78 15 -0.086043894
-0.43831405 0.49177986 -0.1765146 57 0 -0.086023159
-0.9125573 1.0242314 0.023944702 100 8 -0.086020857
-0.42901152 0.4816812 -0.1489176 87 1 -0.086018555
-0.9097603 1.0218101 0.071700267 100 9 -0.086016245
-0.42951119 0.4824115 -0.12555233 38 2 -0.086013943
-0.92061019 1.0343602 0.12114649 100 10 -0.086011641
-0.90632486 1.0190252 0.16744849 100 11 -0.086007036
-0.8805384 0.99072886 0.20993507 58 12 -0.086002424
-0.58105147 0.65376419 -0.076522738 5 5 -0.086000122
-0.87496316 0.98480153 0.25606567 85 13 -0.08599782
-0.86039019 0.96908063 0.29918489 96 14 -0.085993208
-0.9212085 1.0379462 -0.024223939 100 7 -0.085990906
-0.87695831 0.9884364 0.35406446 78 15 -0.085988604
-0.42251104 0.47739378 -0.17082058 60 0 -0.085967861
-0.9169265 1.036397 0.02415413 100 8 -0.085965559
-0.41829044 0.47295746 -0.14576827 78 1 -0.085963257
-0.9128024 1.0324609 0.072223626 100 9 -0.085960954
-0.43042535 0.48684952 -0.12631556 47 2 -0.085958652
-0.90907747 1.0286099 0.12010061 100 10 -0.085956343
-0.90801853 1.0281343 0.16842344 100 11 -0.085951738
-0.87184656 0.98787212 0.20868361 57 12 -0.085947126
-0.56558228 0.64085013 -0.074779622 5 5 -0.085944824
-0.8767153 0.99373877 0.25759214 83 13 -0.085942522
-0.84944975 0.96317255 -0.067304045 1 6 -0.085940219
-0.86731207 0.98377228 0.30278412 96 14 -0.08593791
-0.91757947 1.0411557 -0.024223939 100 7 -0.085935608
-0.86711735 0.98424387 0.35147628 74 15 -0.085933305
-0.42849359 0.48757246 -0.17392641 78 0 -0.08591257
-0.91198355 1.0380888 0.024119226 100 8 -0.085910268
-0.42563841 0.48466441 -0.1489176 100 1 -0.085907958
-0.91578096 1.0431459 0.072746992 100 9 -0.085905656
-0.42742792 0.48687372 -0.12593395 57 2 -0.085903354
-0.90548158 1.0317768 0.12010061 100 10 -0.085901052
-0.91227704 1.0402527 0.16988587 100 11 -0.08589644
-0.8722986 0.99536616 0.2096222 61 12 -0.085891835
-0.5580892 0.63682675 -0.074082382 5 5 -0.085889526
-0.87065375 0.99383956 0.25682893 81 13 -0.085887223
-0.86900747 0.99265867 0.30458373 96 14 -0.085882619
-0.91920722 1.0503718 -0.024363559 100 7 -0.085880309
-0.86622047 0.99017274 0.35251155 76 15 -0.085878007
-0.42805931 0.49052063 -0.17444403 77 0 -0.085857272
-0.9030962 1.0352384 0.023979606 100 8 -0.08585497
-0.41882077 0.48027235 -0.14711799 89 1 -0.085852668
-0.91213429 1.0463359 0.072746992 100 9 -0.085850358
-0.43217629 0.49576208 -0.12784202 56 2 -0.085848056
-0.90841925 1.0424416 0.12097216 100 10 -0.085845754
-0.90472937 1.0389396 0.16915466 100 11 -0.085841142
-0.87011534 0.99989539 0.20993507 65 12 -0.085836537
-0.86717927 0.99687266 0.25682893 87 13 -0.085831925
-0.86809379 0.99862766 0.30548352 96 14 -0.085827321
-0.92340505 1.0626305 -0.024572989 100 7 -0.085825019
-0.86529279 0.99610692 0.35354683 76 15 -0.085822716
-0.41495839 0.47887209 -0.16978529 61 0 -0.085801974
-0.90864193 1.0489647 0.024223939 100 8 -0.085799672
-0.40821213 0.4714191 -0.14396867 92 1 -0.085797369
-0.91109061 1.0525337 0.072956331 100 9 -0.085795067
-0.42273372 0.48836142 -0.12555233 57 2 -0.085792758
-0.91259718 1.054646 0.12201804 100 10 -0.085790455
-0.90109742 1.0420913 0.16915466 100 11 -0.085785851
-0.87049431 1.0074106 0.21087368 68 12 -0.085781239
-0.87139452 1.0088078 0.25911862 85 13 -0.085776635
-0.86460257 1.0016518 0.30548352 96 14 -0.085772023
-0.92752832 1.0749313 -0.024782417 100 7 -0.08576972
-0.86938089 1.0078986 0.35665265 74 15 -0.085767418
-0.43470454 0.50521219 -0.17858516 74 0 -0.085746683
-0.90888685 1.0566783 0.024328655 100 8 -0.085744374
-0.41418713 0.48170692 -0.14666808 90 1 -0.085742071
-0.90480727 1.0526785 0.072746992 100 9 -0.085739769
-0.42102644 0.48983407 -0.12555233 48 2 -0.085737467
-0.91020864 1.0593364 0.12219235 100 10 -0.085735157
-0.90650642 1.055773 0.17086083 100 11 -0.085730553
-0.86697274 1.010443 0.21087368 68 12 -0.085725948
-0.87298042 1.0178043 0.26064509 85 13 -0.085721336
-0.8623693 1.0061432 0.30593342 96 14 -0.085716732
-0.92507172 1.0796807 -0.024817321 24 7 -0.085714422
-0.86837107 1.0138615 0.35768795 73 15 -0.08571212
-0.41913462 0.49056989 -0.17289113 59 0 -0.085691385
-0.91298473 1.0689682 0.024538083 100 8 -0.085689083
-0.41882998 0.49056 -0.1489176 87 1 -0.085686773
-0.908907 1.0649452 0.073375016 100 9 -0.085684471
-0.41931415 0.49130067 -0.12555233 57 2 -0.085682169
-0.90391874 1.059476 0.12184373 100 10 -0.085679866
-0.90667957 1.0634625 0.17159206 100 11 -0.085675254
-0.85831618 1.0074482 0.2096222 70 12 -0.08567065
-0.86942208 1.0208455 0.26064509 85 13 -0.085666038
-0.86390418 1.0150833 0.30773303 94 14 -0.085661434
-0.89538151 1.0524421 -0.024119226 16 7 -0.085659131
-0.86232328 1.0139434 0.35665265 69 15 -0.085656822
-0.42491806 0.50086892 -0.17599694 57 0 -0.085636087
-0.90666121 1.0690982 0.024468275 100 8 -0.085633785
-0.42089543 0.49647847 -0.1502673 74 1 -0.085631482
-0.91034889 1.0742065 0.073793709 100 9 -0.08562918
-0.41759649 0.49276146 -0.12555233 57 2 -0.08562687
-0.89763939 1.0595841 0.12149511 100 10 -0.085624568
-0.91450512 1.0802569 0.1737857 100 11 -0.085619964
-0.85989732 1.0164709 0.21087368 68 12 -0.085615352
-0.87092447 1.0298703 0.26217157 81 13 -0.085610747
-0.65373224 0.7733137 -0.053068664 1 6 -0.085608438
-0.85783982 1.0151161 0.30683324 99 14 -0.085606135
-0.81943738 0.97001624 -0.022164557 18 7 -0.085603833
-0.85628617 1.0139953 0.35561737 69 15 -0.085601531
-0.41818884 0.4964391 -0.17392641 39 0 -0.085580796
-0.89777184 1.0661379 0.024328655 87 8 -0.085578486
-0.41790491 0.49645367 -0.14981739 86 1 -0.085576184
-0.91173774 1.0834901 0.074212395 100 9 -0.085573882
-0.42472234 0.50473124 -0.12822366 55 2 -0.08557158
-0.90547854 1.0764332 0.12306391 100 10 -0.08556927
-0.90306509 1.074325 0.17232326 100 11 -0.085564665
-0.86396694 1.0285419 0.2127509 78 12 -0.085560054
-0.86732447 1.032904 0.26217157 83 13 -0.085555449
-0.617643 0.73581684 -0.050347198 3 6 -0.085553147
-0.86932236 1.0360184 0.31223205 94 14 -0.085550837
-0.66440284 0.79208547 -0.018045789 26 7 -0.085548535
-0.86018914 1.0258598 0.35872319 67 15 -0.085546233
-0.4263688 0.5097506 -0.17806751 37 0 -0.085525498
-0.90174079 1.07847 0.024538083 70 8 -0.085523196
-0.4049215 0.48445249 -0.14576827 91 1 -0.085520886
-0.90282732 1.0805358 0.073793709 100 9 -0.085518584
-0.42547539 0.50922406 -0.1289869 54 2 -0.085516281
-0.90426964 1.0826459 0.12341253 100 10 -0.085513979
-0.89422107 1.071375 0.1713483 100 11 -0.085509367
-0.86543262 1.0376191 0.21400237 76 12 -0.085504763
-0.86119896 1.0329096 0.26140836 87 13 -0.085500151
-0.60356194 0.72416043 -0.04940515 9 6 -0.085497849
-0.8582164 1.0300633 0.30953264 96 14 -0.085495546
-0.63731873 0.76520509 -0.017382598 66 7 -0.085493244
-0.86154705 1.034795 0.36079377 67 15 -0.085490935
-0.41964984 0.50529104 -0.17599694 38 0 -0.0854702
-0.89797097 1.0816109 0.024538083 46 8 -0.085467897
-0.42314059 0.50985616 -0.15296671 95 1 -0.085465595
-0.89649981 1.0806061 0.073584363 100 9 -0.085463285
-0.41742772 0.50315118 -0.12707879 56 2 -0.085460983
-0.90811652 1.0949973 0.1244584 100 10 -0.085458681
-0.89934295 1.0851887 0.17305449 100 11 -0.085454069
-0.86054564 1.0391122 0.21368951 73 12 -0.085449465
-0.86510015 1.044983 0.26369804 92 13 -0.08544486
-0.61376393 0.74164987 -0.050451867 7 6 -0.08544255
-0.85461581 1.0330526 0.30953264 99 14 -0.085440248
-0.62317443 0.75355577 -0.017068453 87 7 -0.085437946
-0.86531478 1.0467299 0.36389959 64 15 -0.085435644
-0.4350906 0.52761906 -0.18324389 35 0 -0.085414901
-0.90309346 1.0955402 0.024782417 29 8 -0.085412599
-0.40772599 0.49478719 -0.14801779 88 1 -0.085410297
-0.9028815 1.0960612 0.074421734 100 9 -0.085407995
-0.41317245 0.50157446 -0.12631556 57 2 -0.085405692
-0.90048879 1.0935465 0.12393546 100 10 -0.085403383
-0.90437901 1.0990512 0.17476064 100 11 -0.085398778
-0.85565829 1.0405842 0.21337664 76 12 -0.085394166
-0.86394012 1.0510298 0.26446128 94 13 -0.085389562
-0.62511939 0.76076204 -0.051603258 2 6 -0.08538726
-0.85842586 1.0450647 0.31223205 100 14 -0.08538495
-0.618002 0.75263572 -0.016998643 91 7 -0.085382648
-0.85675323 1.043771 0.36182904 66 15 -0.085380346
-0.44303697 0.54109257 -0.18738499 33 0 -0.085359611
-0.90179712 1.1017805 0.024852226 38 8 -0.085357308
-0.42327291 0.51732254 -0.15431643 82 1 -0.085354999
-0.90303588 1.103687 0.074735753 100 9 -0.085352696
-0.42011967 0.51365149 -0.1289869 63 2 -0.085350394
-0.89540523 1.0951406 0.12376115 100 10 -0.085348092
-0.90304869 1.1052761 0.17524813 100 11 -0.08534348
-0.85595185 1.0480056 0.21431525 73 12 -0.085338876
-0.85902494 1.0525179 0.26407966 99 13 -0.085334264
-0.60478383 0.74127376 -0.050137851 1 6 -0.085331962
-0.86216295 1.0571157 0.31493148 100 14 -0.085329659
-0.61803073 0.75778019 -0.017068453 87 7 -0.08532735
-0.86061186 1.0555899 0.36493486 61 15 -0.085325047
-0.47282979 0.58160973 -0.20084359 28 0 -0.085304312
-0.90192252 1.1094202 0.024956942 55 8 -0.08530201
-0.40434885 0.49755085 -0.14801779 88 1 -0.085299708
-0.90673411 1.1161333 0.075363785 100 9 -0.085297398
-0.41832399 0.51511496 -0.1289869 63 2 -0.085295096
-0.897856 1.1059935 0.12463271 100 10 -0.085292794
-0.9006291 1.1098062 0.17549187 100 11 -0.085288182
-0.85850972 1.0586582 0.21587959 76 12 -0.085283577
-0.85676599 1.0568861 0.26446128 92 13 -0.085278966
-0.63753098 0.78672367 -0.053068664 1 6 -0.085276663
-0.86355895 1.0660261 0.3167311 92 14 -0.085274361
-0.6191569 0.76459521 -0.017173167 78 7 -0.085272059
-0.85935253 1.0615909 0.36597013 63 15 -0.085269749
-0.50488102 0.62525916 -0.21533746 22 0 -0.085249014
-0.89553267 1.1094495 0.024887133 47 8 -0.085246712
-0.41117567 0.50957549 -0.15116711 97 1 -0.08524441
-0.89656264 1.111519 0.074840426 97 9 -0.085242108
-0.43140465 0.53483653 -0.13356631 60 2 -0.085239798
-0.90168679 1.118271 0.12567857 100 10 -0.085237496
-0.88927704 1.1036686 0.17402944 100 11 -0.085232891
-0.86100304 1.069342 0.21744394 84 12 -0.085228279
-0.86045778 1.0690466 0.26675099 87 13 -0.085223675
-0.63478112 0.78894418 -0.053068664 1 6 -0.085221365
-0.85738999 1.0659968 0.31583127 86 14 -0.085219063
-0.6214965 0.77298546 -0.017312787 60 7 -0.085216761
-0.87016475 1.0826533 0.3721818 58 15 -0.085214458
-0.49171278 0.61353815 -0.21067871 24 0 -0.085193723
-0.89415586 1.1156893 0.024956942 8 8 -0.085191414
-0.40817606 0.50948673 -0.1507172 85 1 -0.085189112
-0.89767146 1.1208774 0.075259112 97 9 -0.085186809
-0.41962576 0.52415305 -0.13051336 63 2 -0.085184507
-0.90380639 1.1293465 0.12655014 100 10 -0.085182197
-0.90029967 1.1253673 0.1769543 100 11 -0.085177593
-0.85479784 1.0692552 0.21681818 84 12 -0.085172981
-0.86878765 1.0875319 0.27056718 83 13 -0.085168377
-0.85834002 1.0752243 0.31763089 83 14 -0.085163772
-0.6125564 0.76733637 -0.017138263 37 7 -0.085161462
-0.86879051 1.0887039 0.37321708 58 15 -0.08515916
-0.52084267 0.65455443 -0.22413731 18 0 -0.085138425
-0.91246748 1.1471288 0.025585229 25 8 -0.085136123
-0.41237006 0.51860601 -0.15296671 95 1 -0.085133813
-0.89623922 1.1271309 0.075468451 90 9 -0.085131511
-0.4226799 0.53176236 -0.13203983 61 2 -0.085129209
-0.89366156 1.1246947 0.12567857 100 10 -0.085126907
-0.89493483 1.1271048 0.17671056 100 11 -0.085122295
-0.85106045 1.0722322 0.21681818 84 12 -0.08511769
-0.86864585 1.0951726 0.27171201 74 13 -0.085113078
-0.86063409 1.0858498 0.3198804 80 14 -0.085108474
-0.606148 0.7647683 -0.017033549 30 7 -0.085106172
-0.86618435 1.0932443 0.37373474 56 15 -0.085103862
-0.57484096 0.72761422 -0.2484663 8 0 -0.085083127
-0.89254278 1.1297504 0.025131466 54 8 -0.085080825
-0.4166871 0.52761722 -0.15521623 81 1 -0.085078523
-0.89724988 1.1365227 0.075887144 87 9 -0.08507622
-0.41838849 0.53015232 -0.13127659 62 2 -0.085073911
-0.8823263 1.1184218 0.12463271 100 10 -0.085071608
-0.90594333 1.1487706 0.17963544 100 11 -0.085067004
-0.85464883 1.0845056 0.21869542 81 12 -0.085062392
-0.86257982 1.0949626 0.2709488 64 13 -0.085057788
-0.86667186 1.1009474 0.32347962 78 14 -0.085053176
-0.60471153 0.76845086 -0.017068453 26 7 -0.085050873
-0.85997385 1.0932248 0.37269944 57 15 -0.085048571
-0.59150624 0.75383323 -0.2567485 7 0 -0.085027836
-0.87378407 1.1139779 0.024712607 31 8 -0.085025527
-0.4100329 0.52293444 -0.15341662 83 1 -0.085023224
-0.89717293 1.1442072 0.076201163 50 9 -0.085020922
-0.41662848 0.53153658 -0.13127659 62 2 -0.08501862
-0.88229877 1.1260467 0.12515564 100 10 -0.08501631
-0.89458483 1.1425482 0.17817299 100 11 -0.085011706
-0.45759258 0.58463943 -0.091158278 5 4 -0.085009404
-0.85591751 1.093556 0.21994688 84 12 -0.085007094
-0.85754263 1.0964206 0.27056718 57 13 -0.085002489
-0.86282325 1.1039661 0.32347962 76 14 -0.084997877
-0.60708541 0.77675438 -0.017208073 21 7 -0.084995575
-0.86704838 1.1097713 0.37735817 58 15 -0.084993273
-0.62923729 0.80770892 -0.2743482 8 0 -0.084972538
-0.7902047 1.0143317 0.022443794 7 8 -0.084970236
-0.41428342 0.53197873 -0.15566613 92 1 -0.084967926
-0.4268277 0.54848158 -0.13509277 58 2 -0.084963322
-0.89426643 1.1495631 0.12742169 100 10 -0.084961019
-0.88347977 1.136106 0.17671056 100 11 -0.084956408
-0.85451949 1.0996566 0.22057262 81 12 -0.084951803
-0.85992414 1.1070104 0.27247527 42 13 -0.084947191
-0.85676795 1.1037424 0.3225798 73 14 -0.084942587
-0.60559642 0.7804485 -0.017242977 18 7 -0.084940284
-0.8726418 1.1250025 0.38149929 61 15 -0.084937975
-0.65477967 0.84657526 -0.28677151 12 0 -0.084931374
-0.69474614 0.89857161 0.019825934 6 8 -0.084929071
-0.40875584 0.52886784 -0.15431643 94 1 -0.084926769
-0.90361542 1.1695638 0.077457219 52 9 -0.084924459
-0.41530791 0.5375396 -0.13203983 61 2 -0.084922157
-0.89390159 1.1574085 0.12794463 100 10 -0.084919855
-0.87809664 1.1377653 0.17646682 100 11 -0.084915243
-0.45349985 0.58781976 -0.091158278 5 4 -0.084912941
-0.84565759 1.0965244 0.21932115 81 12 -0.084910639
-0.85271651 1.1068753 0.3225798 76 14 -0.084901422
-0.58809036 0.76365095 -0.016824121 7 7 -0.08489912
-0.86851233 1.1281936 0.38149929 69 15 -0.08489681
-0.64005518 0.83353335 -0.28159514 14 0 -0.084876075
-0.88520581 1.1532056 0.0253758 42 8 -0.084873773
-0.41283867 0.53802174 -0.15656593 91 1 -0.084871471
-0.89952761 1.1727107 0.077457219 74 9 -0.084869169
-0.41581887 0.5421015 -0.13280307 60 2 -0.084866859
-0.88864398 1.1589404 0.12777032 24 10 -0.084864557
-0.90068173 1.1754892 0.18182908 100 11 -0.084859952
-0.45144534 0.58939916 -0.091158278 5 4 -0.084857643
-0.84542775 1.1041747 0.22025976 76 12 -0.08485534
-0.84124124 1.0991044 0.2690407 1 13 -0.084850736
-0.85239953 1.1144886 0.32392952 80 14 -0.084846124
-0.59999609 0.78476208 -0.017242977 6 7 -0.084843822
-0.86574233 1.1327531 0.38201693 72 15 -0.08484152
-0.64885396 0.8511256 -0.28677151 16 0 -0.084820785
-0.86299407 1.1324309 0.024852226 89 8 -0.084818475
-0.41450071 0.54411012 -0.15791564 77 1 -0.084816173
-0.89300883 1.1726654 0.07724788 23 9 -0.08481387
-0.41749248 0.5482353 -0.13394792 68 2 -0.084811568
-0.88459277 1.1620356 0.12777032 42 10 -0.084809259
-0.89537138 1.1770459 0.18158534 100 11 -0.084804654
-0.84754509 1.1149824 0.22182411 81 12 -0.084800042
-0.83264858 1.0957813 0.26751423 1 13 -0.084795438
-0.84850371 1.1174575 0.32392952 76 14 -0.084790833
-0.60088032 0.79162991 -0.017347692 2 7 -0.084788524
-0.86061496 1.1342294 0.38149929 72 15 -0.084786221
-0.65054214 0.85954708 -0.28884208 15 0 -0.084765486
-0.80112302 1.0588903 0.023176797 41 8 -0.084763184
-0.412599 0.54555362 -0.15791564 100 1 -0.084760875
-0.90336353 1.194894 0.078503944 19 9 -0.084758572
-0.41676012 0.55125552 -0.13432954 59 2 -0.08475627
-0.88413519 1.1698847 0.12829326 100 10 -0.084753968
-0.44731957 0.59253639 -0.091158278 5 4 -0.084747054
-0.84007835 1.1132035 0.22088549 58 12 -0.084744751
-0.82408881 1.0924121 0.26598775 1 13 -0.08474014
-0.85398263 1.1328615 0.32752874 80 14 -0.084735535
-0.61014771 0.8096931 -0.01769674 2 7 -0.084733233
-0.87059885 1.155743 0.38771093 64 15 -0.084730923
-0.65682131 0.87416869 -0.29298317 9 0 -0.084710188
-0.59086102 0.78666663 0.017173167 41 8 -0.084707886
-0.40718207 0.54231536 -0.15656593 91 1 -0.084705584
-0.89798778 1.1964427 0.078399271 49 9 -0.084703274
-0.41954717 0.5589878 -0.135856 57 2 -0.084700972
-0.88722068 1.1825258 0.12933911 100 10 -0.08469867
-0.88355929 1.1785036 0.18085413 56 11 -0.084694065
-0.44524863 0.59409416 -0.091158278 5 4 -0.084691755
-0.81791669 1.0921395 0.26522452 1 13 -0.084684849
-0.84535271 1.1295944 0.32572913 80 14 -0.084680237
-0.67200214 0.89828396 -0.019581601 2 7 -0.084677935
-0.88044298 1.1773399 0.3939226 60 15 -0.084675632
-0.65492117 0.87800437 -0.29350081 11 0 -0.08465489
-0.59050196 0.79193068 0.017242977 47 8 -0.084652588
-0.41343874 0.55467063 -0.15971525 97 1 -0.084650286
-0.88664621 1.1899606 0.077771239 79 9 -0.084647983
-0.41290146 0.55415165 -0.13432954 59 2 -0.084645681
-0.88903785 1.1936051 0.13021068 100 10 -0.084643371
-0.88299614 1.1863577 0.18158534 100 11 -0.084638767
-0.44317198 0.59564483 -0.091158278 5 4 -0.084636465
-0.84996939 1.1428169 0.22557852 32 12 -0.084634155
-0.81175679 1.0918366 0.26446128 1 13 -0.084629551
-0.84372854 1.1356671 0.32662892 78 14 -0.084624939
-0.65932441 0.88778085 -0.019302363 2 7 -0.084622636
-0.89360082 1.2036731 0.40168718 64 15 -0.084620334
-0.64150566 0.86631221 -0.28884208 15 0 -0.084599599
-0.58773422 0.79398698 0.017242977 42 8 -0.084597297
-0.41845512 0.56550938 -0.16241467 73 1 -0.084594987
-0.8955524 1.210711 0.078922629 100 9 -0.084592685
-0.41446722 0.56032461 -0.1354744 67 2 -0.084590383
-0.88723534 1.1999049 0.1305593 100 10 -0.084588081
-0.89064652 1.2053982 0.18402272 100 11 -0.084583469
-0.44109023 0.59718812 -0.091158278 5 4 -0.084581167
-0.84128189 1.1394202 0.22432704 65 12 -0.084578864
-0.82193124 1.1136186 0.2690407 1 13 -0.084574252
-0.84554285 1.1464468 0.32887843 83 14 -0.084569648
-0.85083348 1.1540416 -0.02502675 3 7 -0.084567338
-0.88824743 1.2052302 0.40116954 74 15 -0.084565036
-0.62703532 0.85298109 -0.28366569 22 0 -0.084544301
-0.58022267 0.78958797 0.017103357 42 8 -0.084541999
-0.41532472 0.56539619 -0.16196476 85 1 -0.084539697
-0.89013833 1.2122201 0.078817956 100 9 -0.084537387
-0.40902269 0.55702072 -0.13432954 59 2 -0.084535085
-0.8783254 1.1965705 0.12986206 100 10 -0.084532782
-0.8899554 1.2133019 0.18475394 100 11 -0.084528171
-0.45778364 0.62433815 -0.095058098 4 4 -0.084525868
-0.84197032 1.148723 0.22557852 81 12 -0.084523566
-0.836604 1.1418195 0.27514657 1 13 -0.084518954
-0.84614044 1.155681 0.33067805 90 14 -0.08451435
-0.88931674 1.2150972 -0.026283324 15 7 -0.084512047
-0.88403517 1.2083232 0.40116954 77 15 -0.084509745
-0.62291533 0.8536039 -0.28314805 24 0 -0.084489003
-0.57157034 0.78353107 0.016928835 40 8 -0.084486701
-0.41105232 0.56369328 -0.16106495 86 1 -0.084484398
-0.88964415 1.2200062 0.079131976 100 9 -0.084482096
-0.41517118 0.5695504 -0.13700087 65 2 -0.084479786
-0.88001013 1.2076801 0.13073361 100 10 -0.084477484
-0.88571495 1.2164009 0.18475394 100 11 -0.08447288
-0.45560166 0.62593222 -0.095058098 4 4 -0.08447057
-0.84396905 1.159494 0.22714287 78 12 -0.084468268
-0.45599458 0.62670189 -0.067807168 7 5 -0.084465966
-0.83261353 1.1447327 0.27514657 1 13 -0.084463663
-0.8443929 1.1617801 0.33157787 90 14 -0.084459051
-0.89233679 1.2277449 -0.026492754 26 7 -0.084456749
-0.88002306 1.2112484 0.40116954 75 15 -0.084454447
-0.6199317 0.85577327 -0.28314805 28 0 -0.084433712
-0.57835376 0.79837775 0.017208073 32 8 -0.084431402
-0.40689471 0.56189668 -0.16016515 87 1 -0.0844291
-0.87601125 1.2101612 0.078294598 70 9 -0.084426798
-0.42123687 0.58212996 -0.13967219 55 2 -0.084424496
-0.88396299 1.2220451 0.13195379 100 10 -0.084422186
-0.88051349 1.2177225 0.1845102 100 11 -0.084417582
-0.47678092 0.65961611 -0.099932872 3 4 -0.084415279
-0.84223008 1.1656356 0.22776861 78 12 -0.084412977
-0.42580608 0.5895263 -0.063623689 9 5 -0.084410667
-0.83111221 1.1506704 0.27590984 1 13 -0.084408365
-0.83939493 1.162994 0.33112797 82 14 -0.084403761
-0.89389604 1.2389604 -0.026667278 21 7 -0.084401451
-0.87918007 1.2190133 0.40272245 59 15 -0.084399149
-0.61709064 0.85782421 -0.28314805 32 0 -0.084378414
-0.5802334 0.8068856 0.017347692 22 8 -0.084376112
-0.40720588 0.56647819 -0.16106495 86 1 -0.084373802
-0.75057119 1.0445302 0.067408718 31 9 -0.0843715
-0.41013911 0.57076889 -0.13661924 57 2 -0.084369197
-0.87990588 1.2249695 0.13195379 51 10 -0.084366895
-0.88088727 1.2272396 0.18548515 100 11 -0.084362283
-0.83585364 1.1653578 0.22714287 70 12 -0.084357679
-0.45171815 0.62979126 -0.067807168 7 5 -0.084355377
-0.82709026 1.1535648 0.27590984 1 13 -0.084353067
-0.83533037 1.1659168 0.33112797 76 14 -0.084348463
-0.86162096 1.2030554 -0.025829561 7 7 -0.08434616
-0.88391632 1.2346407 0.40686354 50 15 -0.084343851
-0.61184698 0.85682887 -0.28211278 42 0 -0.084323116
-0.58322245 0.81704384 0.017522216 7 8 -0.084320813
-0.41314957 0.57900017 -0.16421427 92 1 -0.084318511
-0.58918548 0.82600796 0.053173337 28 9 -0.084316209
-0.40358382 0.56580389 -0.13509277 67 2 -0.084313899
-0.87678152 1.2296555 0.1321281 86 10 -0.084311597
-0.88120538 1.2367741 0.18646011 41 11 -0.084306993
-0.82261539 1.1553948 0.22463992 26 12 -0.084302381
-0.82078141 1.1532459 0.27514657 1 13 -0.084297776
-0.83803171 1.1783541 0.33382738 75 14 -0.084293164
-0.84698796 1.1913877 -0.025515417 1 7 -0.084290862
-0.8818391 1.2408684 0.40789884 64 15 -0.08428856
-0.59991521 0.84635067 -0.27797166 22 0 -0.084267825
-0.8670817 1.2237175 0.026178611 11 8 -0.084265515
-0.41112578 0.58043891 -0.16421427 92 1 -0.084263213
-0.58399057 0.82479936 0.052963994 34 9 -0.084260911
-0.40841341 0.57682288 -0.13738248 56 2 -0.084258609
-0.87248355 1.2327087 0.1321281 100 10 -0.084256299
-0.89407682 1.2641529 0.1901162 78 11 -0.084251694
-0.84137857 1.1905229 0.23089729 53 12 -0.084247082
-0.83940709 1.1881733 0.28277895 1 13 -0.084242478
-0.83840913 1.1876401 0.33562699 75 14 -0.084237866
-0.88307053 1.2518319 0.41048703 84 15 -0.084233262
-0.60140407 0.8547594 -0.2800422 18 0 -0.084212527
-0.87660998 1.2463642 0.026597466 24 8 -0.084210224
-0.40573484 0.57708788 -0.16286457 84 1 -0.084207915
-0.58455336 0.83173484 0.053278007 37 9 -0.084205613
-0.41317084 0.58788234 -0.13967219 55 2 -0.08420331
-0.87619305 1.2471585 0.13334829 100 10 -0.084201008
-0.88281548 1.2575177 0.18865377 100 11 -0.084196396
-0.83948684 1.1966866 0.23152302 68 12 -0.084191792
-0.84878117 1.210385 0.28735834 1 13 -0.08418718
-0.8432045 1.2033269 0.33922619 75 14 -0.084182575
-0.87869513 1.254907 0.41048703 100 15 -0.084177963
-0.60726553 0.86952424 -0.28418332 18 0 -0.084157228
-0.88713467 1.2707323 0.027051231 38 8 -0.084154926
-0.40929404 0.58649111 -0.16511407 91 1 -0.084152624
-0.57136178 0.81902784 0.052335959 31 9 -0.084150314
-0.41223931 0.59093118 -0.14005381 62 2 -0.084148012
-0.8741132 1.2534781 0.1336969 100 10 -0.08414571
-0.8750155 1.2557058 0.18792254 100 11 -0.084141098
-0.83643305 1.2012311 0.23183592 73 12 -0.084136494
-0.84903699 1.219786 0.28888482 1 13 -0.084131889
-0.83232284 1.196664 0.33652678 76 14 -0.084127277
-0.6860655 0.98675126 -0.020977791 2 7 -0.084124975
-0.88092476 1.2674844 0.41359285 100 15 -0.084122673
-0.60092497 0.86687553 -0.28263038 20 0 -0.08410193
-0.88155484 1.2721775 0.027016325 64 8 -0.084099628
-0.40724441 0.58791614 -0.16511407 91 1 -0.084097326
-0.5605405 0.80952299 0.051603258 14 9 -0.084095024
-0.40235072 0.58106798 -0.13738248 56 2 -0.084092721
-0.87313461 1.2614363 0.13421984 100 10 -0.084090412
-0.87514335 1.2652833 0.18889751 100 11 -0.084085807
-0.47866768 0.6923157 -0.10334522 3 4 -0.084083505
-0.83335817 1.2057683 0.23214878 76 12 -0.084081195
-0.85146928 1.232434 0.29117453 4 13 -0.084076591
-0.83035523 1.2027693 0.3374266 75 14 -0.084071979
-0.66557974 0.96445298 -0.02045422 14 7 -0.084069677
-0.88307732 1.2800926 0.41669869 100 15 -0.084067374
-0.5989902 0.87055957 -0.28314805 22 0 -0.08404664
-0.87484199 1.2719519 0.026946515 48 8 -0.084044337
-0.40739796 0.59254569 -0.16601388 90 1 -0.084042028
-0.80885082 1.1768855 0.074840426 7 9 -0.084039725
-0.4058798 0.59055883 -0.13929057 63 2 -0.084037423
-0.87098205 1.2677609 0.13456847 100 10 -0.084035121
-0.44284606 0.64482647 -0.12389611 1 3 -0.084032811
-0.87296867 1.2716032 0.18938497 100 11 -0.084030509
-0.83137929 1.2119277 0.23277451 70 12 -0.084025905
-0.84716237 1.2353984 0.29117453 39 13 -0.084021293
-0.83496362 1.218521 0.3410258 71 14 -0.084016688
-0.66107923 0.96512043 -0.020419316 2 7 -0.084014378
-0.88187748 1.2879496 0.4182516 100 15 -0.084012076
-0.59485841 0.87104958 -0.28263038 24 0 -0.083991341
-0.40972078 0.60040289 -0.16781349 87 1 -0.083986737
-0.84975833 1.2456988 0.079027303 47 9 -0.083984427
-0.41045406 0.60170299 -0.14158028 61 2 -0.083982125
-0.86879671 1.2740855 0.1349171 100 10 -0.083979823
-0.87299609 1.2812045 0.19035992 100 11 -0.083975211
-0.82936704 1.2180883 0.23340026 68 12 -0.083970606
-0.84174049 1.2367249 0.29079291 66 13 -0.083965994
-0.8285135 1.2182052 0.34012601 70 14 -0.08396139
-0.65320939 0.9608072 -0.020279696 2 7 -0.083959088
-0.87411898 1.2862265 0.41669869 75 15 -0.083956778
-0.5939824 0.87631893 -0.28366569 24 0 -0.083936043
-0.87491488 1.2912718 0.027225753 9 8 -0.083933741
-0.40325102 0.5953756 -0.16601388 90 1 -0.083931439
-0.87787759 1.2966189 0.082062788 81 9 -0.083929136
-0.41275406 0.60963482 -0.14310676 59 2 -0.083926827
-0.86881113 1.2837104 0.13561434 100 10 -0.083924524
-0.86629415 1.2809556 0.18987246 79 11 -0.08391992
-0.4869566 0.72031397 -0.10675755 3 4 -0.08391761
-0.83174604 1.2307962 0.23527746 70 12 -0.083915308
-0.83522016 1.2364022 0.2900297 66 13 -0.083910704
-0.83515871 1.237242 0.34462503 70 14 -0.083906092
-0.64985132 0.96308166 -0.020279696 2 7 -0.08390379
-0.86854327 1.2876685 0.41618103 71 15 -0.083901487
-0.59091961 0.87838721 -0.28366569 30 0 -0.083880752
-0.87709719 1.3042746 0.027435182 40 8 -0.083878443
-0.39682168 0.59031028 -0.16421427 92 1 -0.08387614
-0.87111795 1.2963601 0.081853449 100 9 -0.083873838
-0.40843338 0.60781294 -0.14234352 60 2 -0.083871536
-0.86876845 1.2933512 0.13631159 100 10 -0.083869226
-0.85739243 1.2773786 0.18889751 58 11 -0.083864622
-0.46010646 0.68574417 -0.1013953 3 4 -0.08386232
-0.83074594 1.2386136 0.23621608 73 12 -0.08386001
-0.83199275 1.2409407 0.29041129 72 13 -0.083855405
-0.83408904 1.2450066 0.34597474 75 14 -0.083850801
-0.86619282 1.2939029 0.41721633 69 15 -0.083846189
-0.59321356 0.88847756 -0.28625387 24 0 -0.083825454
-0.88031012 1.3189709 0.027679518 74 8 -0.083823152
-0.40341112 0.60466045 -0.16781349 97 1 -0.083820842
-0.86658782 1.2993928 0.081853449 87 9 -0.08381854
-0.4008629 0.60106814 -0.14043543 62 2 -0.083816238
-0.86866879 1.303007 0.13700882 100 10 -0.083813936
-0.86173248 1.2935807 0.19084741 56 11 -0.083809324
-0.4423061 0.66421437 -0.097982958 4 4 -0.083807021
-0.82532293 1.2398612 0.23590319 70 12 -0.083804719
-0.5685702 0.85414827 -0.089770414 1 5 -0.083802417
-0.83200604 1.2503754 0.29193777 74 13 -0.083800107
-0.82650137 1.243042 0.34462503 80 14 -0.083795503
-0.8606016 1.2953098 0.41669869 68 15 -0.083790891
-0.5943768 0.89698464 -0.28832445 24 0 -0.083770156
-0.87570035 1.3220359 0.027679518 100 8 -0.083767854
-0.40560126 0.61256433 -0.16961309 84 1 -0.083765551
-0.8675583 1.3107376 0.082376808 95 9 -0.083763249
-0.40634727 0.61392373 -0.14310676 59 2 -0.08376094
-0.86631423 1.3093544 0.13735744 100 10 -0.083758637
-0.8648755 1.308172 0.19255358 52 11 -0.083754033
-0.4180952 0.63263208 -0.093108192 4 4 -0.083751723
-0.81663436 1.2361422 0.23465173 58 12 -0.083749421
-0.53703123 0.81290591 -0.085238315 2 5 -0.083747119
-0.83629161 1.2663779 0.29499072 61 13 -0.083744816
-0.82859677 1.2556788 0.34732443 70 14 -0.083740205
-0.85994768 1.3036838 -0.027260659 1 7 -0.083737902
-0.84650415 1.2837906 0.41203994 69 15 -0.0837356
-0.58911932 0.89582551 -0.28728914 30 0 -0.083714865
-0.86998194 1.3234135 0.027644612 98 8 -0.083712555
-0.40239051 0.61234778 -0.1691632 85 1 -0.083710253
-0.8717503 1.3271123 0.083214179 95 9 -0.083707951
-0.40420195 0.61533839 -0.14310676 59 2 -0.083705649
-0.85736442 1.3057085 0.1366602 100 10 -0.083703339
-0.85812622 1.3078634 0.1920661 48 11 -0.083698735
-0.43765855 0.6672858 -0.097982958 4 4 -0.083696432
-0.82314491 1.2555052 0.23778042 61 12 -0.083694123
-0.50797224 0.77478671 -0.081054844 3 5 -0.083691821
-0.82971394 1.2660052 0.29422748 61 13 -0.083689518
-0.82741123 1.2634546 0.34867415 63 14 -0.083684906
-0.87839234 1.341812 -0.02799366 9 7 -0.083682604
-0.8346132 1.2754219 0.40841648 68 15 -0.083680302
-0.59232348 0.90758348 -0.29039499 30 0 -0.083659567
-0.86317223 1.3230925 0.027574802 98 8 -0.083657265
-0.40344387 0.61864567 -0.1705129 100 1 -0.083654955
-0.8758378 1.3435326 0.084051557 91 9 -0.083652653
-0.39776284 0.61016703 -0.14158028 61 2 -0.083650351
-0.85823989 1.3170397 0.13753176 100 10 -0.083648048
-0.85355526 1.310851 0.1920661 52 11 -0.083643436
-0.45915025 0.70541114 -0.10334522 3 4 -0.083641134
-0.82198954 1.263338 0.23871902 73 12 -0.083638832
-0.51395744 0.78991514 -0.082449332 3 5 -0.083636522
-0.82743031 1.2721854 0.29499072 76 13 -0.08363422
-0.83149159 1.2794067 0.35227334 80 14 -0.083629616
-0.88023925 1.3549317 -0.028203089 26 7 -0.083627313
-0.82910365 1.2767075 0.40789884 71 15 -0.083625004
-0.58946949 0.90943974 -0.29039499 39 0 -0.083591223
-0.86227304 1.3308326 0.027679518 94 8 -0.083588921
-0.39090481 0.60355353 -0.16601388 90 1 -0.083586618
-0.86618572 1.3378946 0.083528191 95 9 -0.083584309
-0.40651375 0.62789369 -0.14539646 57 2 -0.083582006
-0.85951078 1.3280926 0.13840331 100 10 -0.083579704
-0.84835523 1.3118589 0.19182236 51 11 -0.083575092
-0.44184467 0.6835106 -0.099932872 3 4 -0.08357279
-0.819089 1.2675731 0.2390319 70 12 -0.083570488
-0.52863216 0.81839275 -0.085238315 2 5 -0.083568186
-0.82556021 1.2780768 0.29575396 80 13 -0.083565876
-0.82535475 1.2787378 0.35137355 93 14 -0.083561271
-0.87272614 1.3526493 -0.028098376 34 7 -0.083558969
-0.82823002 1.2841761 0.40945172 80 15 -0.08355666
-0.58613205 0.91159427 -0.29039499 75 0 -0.083535925
-0.87059987 1.3540188 0.028098376 100 8 -0.083533622
-0.39301038 0.61147165 -0.16781349 97 1 -0.08353132
-0.8636691 1.3442708 0.083737537 95 9 -0.083529018
-0.40420949 0.62937951 -0.14539646 57 2 -0.083526708
-0.86432499 1.3463234 0.13997212 100 10 -0.083524406
-0.84484261 1.3164833 0.1920661 55 11 -0.083519801
-0.43945593 0.68504894 -0.099932872 3 4 -0.083517492
-0.81679159 1.2737504 0.23965763 68 12 -0.08351519
-0.51071918 0.79675001 -0.082797952 3 5 -0.083512887
-0.82722503 1.2910124 0.29804367 76 13 -0.083510585
-0.81856054 1.2784722 0.35047373 92 14 -0.083505973
-0.86045104 1.343899 -0.02785404 21 7 -0.083503671
-0.82686627 1.291941 0.41100466 73 15 -0.083501369
-0.58190751 0.91200596 -0.28987733 75 0 -0.083480634
-0.87208343 1.3673162 0.028307803 100 8 -0.083478324
-0.40752855 0.63919902 -0.17501192 100 1 -0.083476022
-0.86434036 1.3556978 0.084260903 98 9 -0.08347372
-0.40095508 0.62913096 -0.14501485 64 2 -0.083471417
-0.86069024 1.3510127 0.14014643 100 10 -0.083469108
-0.42018715 0.65981555 -0.12389611 1 3 -0.083466806
-0.84214407 1.3229198 0.19255358 52 11 -0.083464503
-0.81234074 1.2765936 0.23965763 68 12 -0.083459891
-0.51007378 0.80189002 -0.08314658 2 5 -0.083457589
-0.82271385 1.2938918 0.29804367 76 13 -0.083455287
-0.81827331 1.2879008 0.35227334 87 14 -0.083450682
-0.85039306 1.338455 -0.027679518 1 7 -0.083448373
-0.82338744 1.2964499 0.4115223 77 15 -0.083446071
-0.57045323 0.90097398 -0.28573623 42 0 -0.083425336
-0.86861444 1.3718899 0.028342709 100 8 -0.083423033
-0.39915338 0.63066715 -0.17231251 81 1 -0.083420724
-0.87134922 1.3772725 0.085412286 95 9 -0.083418421
-0.39770731 0.62886733 -0.14463322 57 2 -0.083416119
-0.85383958 1.350641 0.13979781 100 10 -0.083413817
-0.84093398 1.3307393 0.19328479 56 11 -0.083409205
-0.81209797 1.2861028 0.2409091 61 12 -0.083404601
-0.51365244 0.81377447 -0.084192447 2 5 -0.083402298
-0.82051462 1.2999332 0.29880691 74 13 -0.083399989
-0.81711632 1.2955523 0.35362303 82 14 -0.083395384
-0.81576663 1.2944134 0.40996939 71 15 -0.083390772
-0.58185428 0.92575955 -0.29298317 15 0 -0.083370037
-0.86062855 1.3698341 0.028237993 100 8 -0.083367735
-0.39694962 0.63205653 -0.17231251 90 1 -0.083365433
-0.86865979 1.3836889 0.085621633 95 9 -0.083363123
-0.39770728 0.63350832 -0.14539646 64 2 -0.083360821
-0.85571051 1.3635905 0.14084367 100 10 -0.083358519
-0.82784677 1.3202125 0.19133489 56 11 -0.083353914
-0.81284809 1.2972991 0.24247345 60 12 -0.083349302
-0.49190921 0.78508317 -0.081054844 3 5 -0.083347
-0.81284541 1.297798 0.29766205 66 13 -0.083344698
-0.82085991 1.3116118 0.35722226 78 14 -0.083340086
-0.81738937 1.3070806 0.41307521 69 15 -0.083335482
-0.58884233 0.94417673 -0.29815957 15 0 -0.083314739
-0.86430526 1.3864052 0.028517231 100 8 -0.083312437
-0.39164913 0.62847656 -0.17096281 100 1 -0.083310135
-0.86488014 1.3884083 0.085726306 98 9 -0.083307832
-0.39756939 0.63822562 -0.14615969 63 2 -0.08330553
-0.85621148 1.3750255 0.14171523 100 10 -0.083303221
-0.81798941 1.314667 0.1901162 55 11 -0.083298616
-0.81040096 1.3034836 0.24309918 57 12 -0.083294004
-0.81867284 1.3173025 0.30147824 63 13 -0.0832894
-0.8121646 1.3078469 0.35542265 73 14 -0.083284788
-0.64016688 1.0312777 -0.021187222 2 7 -0.083282486
-0.81995219 1.3214163 0.41669869 65 15 -0.083280183
-0.58147645 0.93965554 -0.29608899 15 0 -0.083259448
-0.86577189 1.3996178 0.02872666 100 8 -0.083257146
-0.39457715 0.63812727 -0.17321232 88 1 -0.083254836
-0.85897857 1.3897197 0.085621633 95 9 -0.083252534
-0.39740372 0.6429494 -0.14692293 55 2 -0.083250232
-0.85664231 1.3864808 0.14258678 100 10 -0.08324793
-0.81860977 1.3259597 0.19133489 58 11 -0.083243318
-0.80688286 1.3079859 0.24341206 54 12 -0.083238713
-0.81716138 1.3251653 0.30262309 58 13 -0.083234102
-0.81168324 1.3173105 0.35722226 71 14 -0.083229497
-0.61873543 1.0045609 -0.020593841 14 7 -0.083227187
-0.8153342 1.3242706 0.41669869 57 15 -0.083224885
-0.57196552 0.93190151 -0.29298317 15 0 -0.08320415
-0.86401945 1.4077441 0.028831376 98 8 -0.083201848
-0.39438558 0.64282274 -0.17411213 100 1 -0.083199546
-0.85725516 1.3978173 0.085935652 91 9 -0.083197236
-0.38991427 0.6360327 -0.14501485 64 2 -0.083194934
-0.85363728 1.3930087 0.14293543 100 10 -0.083192632
-0.821235 1.3406582 0.19304106 67 11 -0.08318802
-0.79818749 1.304055 0.24216059 52 12 -0.083183415
-0.81639647 1.3348505 0.30414957 53 13 -0.083178803
-0.63236141 1.0343492 -0.063535862 1 6 -0.083176501
-0.8058337 1.3186136 0.35677236 67 14 -0.083174199
-0.59541291 0.97429484 -0.01993065 10 7 -0.083171897
-0.81070638 1.3271089 0.41669869 56 15 -0.083169594
-0.57373321 0.94214219 -0.29557136 15 0 -0.083148852
-0.85677415 1.4074855 0.028761568 98 8 -0.08314655
-0.39506567 0.64925832 -0.17546181 86 1 -0.083144248
-0.86042976 1.4146007 0.086773023 98 9 -0.083141945
-0.39177278 0.64409918 -0.14654131 63 2 -0.083139636
-0.84773415 1.3942778 0.14276111 100 10 -0.083137333
-0.81322324 1.3385698 0.19230984 58 11 -0.083132729
-0.80365282 1.3238579 0.24528927 55 12 -0.083128117
-0.80765778 1.3309788 0.30262309 54 13 -0.083123513
-0.59767199 0.98532057 -0.060395699 1 6 -0.08312121
-0.81132931 1.3380822 0.36127138 58 14 -0.083118901
-0.62293243 1.0277739 -0.020977791 2 7 -0.083116598
-0.81084228 1.3383324 0.41928688 51 15 -0.083114296
-0.57843292 0.95736718 -0.29971248 16 0 -0.083093561
-0.8539238 1.4138908 0.028831376 98 8 -0.083091252
-0.39380422 0.65230161 -0.17591172 93 1 -0.083088949
-0.85961401 1.4244359 0.087191716 91 9 -0.083086647
-0.39662254 0.65722919 -0.14921264 59 2 -0.083084345
-0.85109532 1.4108764 0.14415559 100 10 -0.083082035
-0.40394098 0.66988474 -0.12389611 1 3 -0.083079733
-0.81674433 1.3550011 0.19425975 69 11 -0.083077431
-0.80819964 1.3418844 0.24810509 57 12 -0.083072826
-0.80705756 1.3405176 0.30414957 53 13 -0.083068214
-0.56745273 0.94290775 -0.057674225 1 6 -0.083065912
-0.81067145 1.3475858 0.36307099 57 14 -0.08306361
-0.68735558 1.1430471 -0.023281511 2 7 -0.0830613
-0.81313276 1.3527446 0.42291033 52 15 -0.083058998
-0.57210755 0.95440972 -0.29815957 28 0 -0.083038263
-0.85617828 1.4288702 0.02907571 100 8 -0.083035961
-0.38351396 0.64029801 -0.17231251 81 1 -0.083033651
-0.8579641 1.4324191 0.087505728 95 9 -0.083031349
-0.39130029 0.65355641 -0.14806779 60 2 -0.083029047
-0.85435104 1.4275153 0.14555009 100 10 -0.083026744
-0.4016 0.67129076 -0.12389611 1 3 -0.083024442
-0.79978317 1.3373997 0.19133489 58 11 -0.083022133
-0.80881327 1.3530345 0.24966943 55 12 -0.083017528
-0.80841351 1.3534396 0.30643925 52 13 -0.083012916
-0.57439697 0.96203125 -0.05872095 3 6 -0.083010614
-0.80420119 1.3469198 0.3621712 58 14 -0.083008312
-0.85265774 1.4286454 -0.029040804 1 7 -0.083006009
-0.81458068 1.365388 0.42601615 53 15 -0.0830037
-0.56795198 0.95464134 -0.29764193 28 0 -0.082982965
-0.85654551 1.4402953 0.029250234 98 8 -0.082980663
-0.39234239 0.6599924 -0.17726143 90 1 -0.08297836
-0.85116845 1.4318225 0.087296382 95 9 -0.082976058
-0.39314267 0.66160142 -0.14959426 58 2 -0.082973748
-0.85571712 1.4406186 0.14659595 93 10 -0.082971446
-0.39937186 0.67261869 -0.12389611 1 3 -0.082969144
-0.81358117 1.3707715 0.19572218 69 11 -0.082966842
-0.80331373 1.3540106 0.24935657 57 12 -0.08296223
-0.80992806 1.3662456 0.30872896 52 13 -0.082957625
-0.55389416 0.93472081 -0.056941528 6 6 -0.082955316
-0.80171674 1.3529323 0.36307099 57 14 -0.082953013
-0.85708791 1.4469495 -0.029354947 33 7 -0.082950711
-0.81398576 1.3747309 0.4280867 52 15 -0.082948409
-0.56085438 0.94986528 -0.29557136 18 0 -0.082927674
-0.85481405 1.4482939 0.029354947 94 8 -0.082925364
-0.38718107 0.65625453 -0.17591172 76 1 -0.082923062
-0.85225242 1.4451073 0.087924413 95 9 -0.08292076
-0.39083099 0.66296965 -0.14959426 58 2 -0.082918458
-0.84789991 1.4382993 0.14607303 90 10 -0.082916148
-0.39713931 0.67393935 -0.12389611 1 3 -0.082913846
-0.80701572 1.3700414 0.19523472 64 11 -0.082911544
-0.79257083 1.3465918 0.24747935 53 12 -0.082906932
-0.81112576 1.3792181 0.31101868 52 13 -0.082902327
-0.56277442 0.9573099 -0.058197591 4 6 -0.082900025
-0.80093992 1.3624424 0.36487061 57 14 -0.082897715
-0.84899223 1.4447606 -0.029250234 13 7 -0.082895413
-0.80918175 1.3775641 0.4280867 52 15 -0.082893111
-0.56029725 0.95691586 -0.29712427 16 0 -0.082872376
-0.85152 1.4548692 0.029424759 94 8 -0.082870074
-0.39067742 0.66776139 -0.17861113 81 1 -0.082867764
-0.85400838 1.4602897 0.088657118 91 9 -0.082865462
-0.38641664 0.66100794 -0.14883102 59 2 -0.082863159
-0.84664434 1.4482777 0.14677027 90 10 -0.082860857
-0.39466637 0.67539048 -0.12389611 1 3 -0.082858548
-0.80399156 1.376418 0.19572218 61 11 -0.082856245
-0.37434995 0.64113677 -0.091158278 5 4 -0.082853943
-0.80256575 1.3750788 0.25217238 60 12 -0.082851641
-0.80606484 1.382182 0.31101868 51 13 -0.082847029
-0.54920298 0.94211143 -0.057150867 5 6 -0.082844727
-0.8018291 1.3754703 0.36757001 57 14 -0.082842425
-0.80607229 1.3838592 0.429122 52 15 -0.082837813
-0.55872649 0.96230435 -0.29815957 18 0 -0.082817078
-0.84618223 1.4579802 0.029424759 89 8 -0.082814775
-0.39018327 0.67255992 -0.17951094 72 1 -0.082812473
-0.85491955 1.4736271 0.08928515 91 9 -0.082810163
-0.39198625 0.67593944 -0.15188397 56 2 -0.082807861
-0.84532762 1.4582658 0.14746751 90 10 -0.082805559
-0.39218843 0.67683238 -0.12389611 1 3 -0.082803257
-0.79894108 1.3793558 0.19572218 64 11 -0.082800947
-0.37199771 0.64250439 -0.091158278 5 4 -0.082798645
-0.79083282 1.365905 0.2499823 53 12 -0.082796343
-0.8012349 1.3849875 0.31101868 51 13 -0.082791738
-0.53791255 0.93019092 -0.056313496 6 6 -0.082789429
-0.80263346 1.388523 0.37026942 57 14 -0.082787126
-0.59644943 1.0318329 -0.020803269 2 7 -0.082784824
-0.80510247 1.3933554 0.43119255 53 15 -0.082782522
-0.55825633 0.96927112 -0.29971248 22 0 -0.082761779
-0.84733057 1.4711754 0.029634187 89 8 -0.082759477
-0.38114452 0.66202831 -0.17636162 67 1 -0.082757175
-0.84777761 1.4731404 0.089075804 91 9 -0.082754873
-0.3915821 0.68070722 -0.1526472 55 2 -0.082752571
-0.84917039 1.4767525 0.14903632 86 10 -0.082750261
-0.4056969 0.7055285 -0.12890202 1 3 -0.082747959
-0.79436284 1.3819973 0.19572218 61 11 -0.082745656
-0.80376822 1.3994908 0.25561395 57 12 -0.082741044
-0.80250275 1.3978524 0.31330839 50 13 -0.08273644
-0.53383058 0.93023729 -0.056208819 9 6 -0.082734138
-0.79802489 1.3911768 0.37026942 56 14 -0.082731828
-0.58090782 1.0130917 -0.020384412 9 7 -0.082729526
-0.80407679 1.4028611 0.43326309 55 15 -0.082727224
-0.55695647 0.97447139 -0.30074775 26 0 -0.082706489
-0.85012615 1.4880145 0.029913425 89 8 -0.082704186
-0.38462988 0.67350805 -0.17906104 64 1 -0.082701877
-0.84685004 1.4828809 0.089494489 91 9 -0.082699575
-0.38348293 0.67177194 -0.1503575 58 2 -0.082697272
-0.84723127 1.4847517 0.14955924 78 10 -0.08269497
-0.40714663 0.71380371 -0.13015349 1 3 -0.08269266
-0.7974 1.3985574 0.1976721 64 11 -0.082690358
-0.79912323 1.4021484 0.25561395 57 12 -0.082685754
-0.80539095 1.4142932 0.31636134 51 13 -0.082681142
