# .PCD v0.7 - Point Cloud Data file format
VERSION 0.7
FIELDS x y z intensity ring time
SIZE 4 4 4 4 2 4
TYPE F F F F U F
COUNT 1 1 1 1 1 1
WIDTH 950
HEIGHT 1
VIEWPOINT 0 0 0 1 0 0 0
POINTS 950
DATA ascii
5.6963587 -1.5199429 1.145999 67 13 -0.036521073
5.2428713 -1.3999206 -0.28439364 73 6 -0.036518771
5.7233782 -1.5292927 1.3677025 90 14 -0.036516465
5.1463904 -1.3760833 -0.09298642 60 7 -0.036514163
6.638073 -1.776183 1.8412387 35 15 -0.036511857
3.477457 -0.93503499 -0.96487743 10 0 -0.036491122
5.039948 -1.3561083 0.091101564 72 8 -0.03648882
4.0174737 -1.0817412 -0.96054095 11 1 -0.036486514
5.687356 -1.5313722 0.30867749 98 9 -0.036484212
4.7599692 -1.2825559 -0.95824283 9 2 -0.036481906
5.6825752 -1.5322124 0.51491612 100 10 -0.036479603
5.6631455 -1.5290942 0.72024786 87 11 -0.036474995
5.6618609 -1.5298078 0.92890793 86 12 -0.036470387
5.3314581 -1.441533 -0.48319143 68 5 -0.036468081
5.6985989 -1.5418687 1.1475254 68 13 -0.036465779
5.2495198 -1.4213449 -0.28502163 70 6 -0.036463473
5.7295618 -1.5513196 1.3704019 90 14 -0.036461171
5.137939 -1.3920962 -0.092916615 58 7 -0.036458865
6.6340108 -1.7986916 1.8417563 19 15 -0.036456563
3.4594254 -0.94249904 -0.96073633 8 0 -0.036435828
5.019989 -1.3686061 0.090822324 66 8 -0.036433522
4.0101047 -1.094032 -0.95964122 11 1 -0.036431219
5.6899538 -1.5523264 0.30909619 98 9 -0.036428913
4.7556901 -1.2983334 -0.95824283 9 2 -0.036426611
5.6505551 -1.543697 0.51247573 87 10 -0.036424305
4.988482 -1.3637584 -0.8190909 1 3 -0.036422003
5.6771908 -1.5531037 0.72268528 91 11 -0.036419697
4.6087685 -1.2608163 -0.58667904 67 4 -0.036417395
5.6681881 -1.551704 0.93078518 96 12 -0.036415089
5.3304925 -1.4602578 -0.48354006 60 5 -0.036412787
5.6820936 -1.5576431 1.1452357 71 13 -0.036410481
5.24863 -1.4398018 -0.28523099 70 6 -0.036408179
5.7112303 -1.5667021 1.3672525 86 14 -0.036405876
5.1371508 -1.4101851 -0.09298642 58 7 -0.03640357
6.6280098 -1.8206807 1.8417563 8 15 -0.036401268
3.4674547 -0.95704973 -0.96384215 13 0 -0.036380529
5.0154233 -1.3852454 0.090822324 72 8 -0.036378227
3.9876719 -1.1021327 -0.9551422 8 1 -0.036375921
5.6768007 -1.570049 0.30867749 94 9 -0.036373619
4.7759571 -1.3209001 -0.96320391 11 2 -0.036371313
5.6607666 -1.5666779 0.51387024 92 10 -0.036369011
5.0105844 -1.3876746 -0.82347113 1 3 -0.036366705
5.6681838 -1.570861 0.72219777 91 11 -0.036364403
4.6119905 -1.2790183 -0.58765399 27 4 -0.036362097
5.670351 -1.5735931 0.93203664 93 12 -0.036359794
5.327282 -1.4793888 -0.48371434 12 5 -0.036357492
5.676897 -1.5764772 1.1452357 67 13 -0.036355186
5.2322807 -1.4539905 -0.28460297 73 6 -0.036352884
5.7245016 -1.5918494 1.3717515 88 14 -0.036350578
5.1399035 -1.4302529 -0.093126044 59 7 -0.036348276
6.6253362 -1.8448422 1.8427917 36 15 -0.03634597
3.4639235 -0.96975213 -0.96384215 10 0 -0.036325235
5.0163336 -1.4043612 0.090927035 68 8 -0.036322929
3.9744177 -1.1134169 -0.95289266 10 1 -0.036320627
5.6828246 -1.5930901 0.30930555 94 9 -0.036318321
4.7635226 -1.336275 -0.96167743 11 2 -0.036316019
5.6722507 -1.5922614 0.51543909 90 10 -0.036313716
5.0282855 -1.4124404 -0.82722551 1 3 -0.03631141
5.6607547 -1.5901003 0.72195405 89 11 -0.036309108
5.4292421 -1.5260911 -0.69246167 75 4 -0.036306802
5.67243 -1.5955164 0.9332881 100 12 -0.0363045
5.6824193 -1.6004668 1.1475254 68 13 -0.036299892
5.2192268 -1.470991 -0.28418428 73 6 -0.036297586
7.7217431 -2.1777568 1.852247 36 14 -0.036295284
5.1387286 -1.4492713 -0.093195848 58 7 -0.036292978
6.6225748 -1.869007 1.843827 36 15 -0.036290675
3.4642344 -0.98289216 -0.96487743 9 0 -0.036269937
5.0169239 -1.424376 0.091031753 72 8 -0.036267634
3.9834318 -1.1317043 -0.95604193 11 1 -0.036265332
5.6637807 -1.6090962 0.30857283 92 9 -0.036263026
4.7418332 -1.3480628 -0.95824283 11 2 -0.036260724
5.6628256 -1.6109614 0.51509041 80 10 -0.036258418
5.0613227 -1.4408005 -0.83348292 1 3 -0.036256116
5.6701617 -1.6151879 0.72390395 98 11 -0.03625381
5.4102488 -1.5421709 -0.69075549 70 4 -0.036251508
5.6554275 -1.6120582 0.93141097 83 12 -0.036249202
5.6862373 -1.6229867 1.1494334 67 13 -0.036244594
5.2217422 -1.4913944 -0.28460297 70 6 -0.036242291
7.6822419 -2.1955938 1.8445988 48 14 -0.036239985
5.1336384 -1.4672 -0.093195848 59 7 -0.036237683
6.6308699 -1.8963624 1.8479681 36 15 -0.036235377
3.4496424 -0.99177581 -0.96177161 17 0 -0.036214642
5.0217824 -1.4437677 0.091206275 68 8 -0.03621234
3.9721661 -1.1427525 -0.95424235 8 1 -0.036210034
5.6658063 -1.6310669 0.30899152 88 9 -0.036207732
4.7333255 -1.3635197 -0.9574796 7 2 -0.036205426
5.6361084 -1.6246482 0.51317304 92 10 -0.036203124
5.0679054 -1.4608597 -0.83536011 2 3 -0.036200818
5.6628671 -1.6334319 0.72366023 94 11 -0.036198515
5.4089193 -1.5612044 -0.69124299 70 4 -0.036196209
5.6573577 -1.6339818 0.93266243 93 12 -0.036193907
5.6883678 -1.6440142 1.1509598 67 13 -0.036189299
5.2263613 -1.5114765 -0.28512633 69 6 -0.036186993
5.6962867 -1.6484576 1.3690522 20 14 -0.036184691
5.1208024 -1.4828858 -0.093056232 59 7 -0.036182385
6.6242094 -1.919497 1.8479681 38 15 -0.036180083
3.4352057 -0.99997026 -0.95866579 11 0 -0.036159348
5.007112 -1.4584919 0.091031753 66 8 -0.036157042
3.9775078 -1.1593379 -0.95649189 12 1 -0.03615474
5.6696653 -1.6536304 0.30951488 94 9 -0.036152434
4.7212391 -1.3770099 -0.95595312 9 2 -0.036150131
5.6249523 -1.6416546 0.51265007 95 10 -0.036147825
5.0798411 -1.4835248 -0.83817595 2 3 -0.036145523
5.6609416 -1.6543027 0.72414774 94 11 -0.036143217
5.4072471 -1.5811895 -0.69173044 72 4 -0.036140915
5.649724 -1.6531653 0.93234956 100 12 -0.036138609
5.6694059 -1.6599987 1.1482886 68 13 -0.036134001
5.2268033 -1.5313956 -0.28544036 70 6 -0.036131699
5.6605773 -1.6595592 1.3618537 80 14 -0.036129393
5.1213512 -1.5024407 -0.09316095 59 7 -0.03612709
6.6156149 -1.9420637 1.8474505 40 15 -0.036124788
3.4296644 -1.0120075 -0.95814812 11 0 -0.03610405
4.9962368 -1.4742634 0.090927035 68 8 -0.036101747
3.9584846 -1.1687999 -0.95289266 10 1 -0.036099441
5.6638589 -1.673411 0.30951488 90 9 -0.036097139
4.7180433 -1.3948612 -0.95633471 11 2 -0.036094833
5.6131659 -1.6605645 0.51212716 92 10 -0.036092531
5.1103582 -1.5127869 -0.8441205 2 3 -0.036090225
5.6494222 -1.6723626 0.72341651 87 11 -0.036087923
5.4016948 -1.600055 -0.69173044 69 4 -0.036085617
5.651494 -1.6751219 0.93360102 100 12 -0.036083315
4.5996284 -1.3642188 -0.41974208 8 5 -0.036081009
5.6595197 -1.6796498 1.1475254 70 13 -0.036078706
5.2173257 -1.5494051 -0.28523099 73 6 -0.036076404
5.643249 -1.6769644 1.3591542 80 14 -0.036074098
5.1237435 -1.5225867 -0.093300566 59 7 -0.036071796
6.6143513 -1.9667969 1.8490034 36 15 -0.03606949
3.4335148 -1.0261858 -0.96021873 11 0 -0.036048755
5.002295 -1.4960034 0.091136463 76 8 -0.036046449
3.9448395 -1.1805073 -0.95064318 10 1 -0.036044147
5.6598964 -1.6937442 0.30961955 88 9 -0.036041841
4.7187872 -1.4130114 -0.9574796 7 2 -0.036039539
5.6340551 -1.6881542 0.51456749 87 10 -0.036037233
5.1239676 -1.5362893 -0.84724921 1 3 -0.03603493
5.6451559 -1.6936278 0.72366023 91 11 -0.036032628
5.2722125 -1.5827426 -0.67588747 48 4 -0.036030322
5.6531801 -1.6971108 0.93485248 100 12 -0.03602802
4.6120114 -1.3854247 -0.42131084 38 5 -0.036025714
5.657382 -1.7005254 1.1482886 68 13 -0.036023412
5.2042351 -1.5653064 -0.2848123 70 6 -0.036021106
5.650423 -1.7005845 1.3623036 82 14 -0.036018804
5.1222267 -1.5416155 -0.093370378 59 7 -0.036016498
6.6129947 -1.9915444 1.8505563 40 15 -0.036014196
3.4373078 -1.0404034 -0.96228927 12 0 -0.035993457
5.0068765 -1.51548 0.091310993 72 8 -0.035991155
3.9427681 -1.1941472 -0.95109308 10 1 -0.035988852
5.6501265 -1.7123318 0.30941018 92 9 -0.035986546
4.7006755 -1.4254862 -0.95480824 11 2 -0.035984244
5.6243153 -1.7066532 0.51421887 87 10 -0.035981938
5.1415281 -1.5601554 -0.85100359 1 3 -0.035979636
5.6509051 -1.715799 0.72512263 94 11 -0.03597733
5.2536387 -1.5961775 -0.67418122 57 4 -0.035975028
5.641552 -1.7151099 0.93391389 96 12 -0.035972722
4.6281157 -1.407894 -0.42322829 39 5 -0.03597042
5.6648598 -1.7232763 1.1509598 67 13 -0.035968114
5.202837 -1.5837189 -0.28502163 73 6 -0.035965811
5.6410246 -1.7181771 1.3614038 86 14 -0.035963506
5.1053376 -1.5559878 -0.09316095 59 7 -0.035961203
5.6673036 -1.7283429 1.5875961 1 15 -0.035958897
3.4172146 -1.0467041 -0.95763052 10 0 -0.035938162
5.0015559 -1.5329479 0.091310993 72 8 -0.03593586
3.9572067 -1.2136166 -0.9555921 10 1 -0.035933554
5.6482363 -1.7322303 0.30961955 88 9 -0.035931252
4.6790304 -1.4358826 -0.9513737 7 2 -0.035928946
5.6148152 -1.724125 0.51387024 77 10 -0.035926644
5.15871 -1.5850554 -0.85475802 1 3 -0.035924338
5.6562667 -1.7390144 0.72658509 94 11 -0.035922036
5.3846431 -1.6565325 -0.69173044 70 4 -0.03591973
5.6358333 -1.7338086 0.93391389 96 12 -0.035917427
4.6310382 -1.4255781 -0.42392552 39 5 -0.035915121
5.6700673 -1.7465072 1.1532496 66 13 -0.035912819
5.2049122 -1.6042236 -0.28544036 73 6 -0.035910513
5.6387167 -1.7390058 1.3623036 84 14 -0.035908211
5.1001496 -1.5729091 -0.09316095 58 7 -0.035905905
5.622776 -1.7351643 1.5767257 11 15 -0.035903603
3.411695 -1.0580537 -0.95711285 12 0 -0.035882868
4.9888053 -1.5471561 0.091171376 72 8 -0.035880562
3.9382713 -1.2221122 -0.95199287 8 1 -0.03587826
5.6516924 -1.754897 0.3101429 90 9 -0.035875954
4.6589909 -1.4475468 -0.94832075 8 2 -0.035873652
5.6106648 -1.7443053 0.51404458 70 10 -0.035871346
5.3382845 -1.6596247 -0.88541919 6 3 -0.035869043
5.6466775 -1.756582 0.72609758 94 11 -0.035866737
5.3904934 -1.6779195 -0.6931929 69 4 -0.035864435
5.6410627 -1.7569954 0.93579108 100 12 -0.035862129
4.6374464 -1.4452916 -0.4249714 39 5 -0.035859827
5.6567473 -1.7629637 1.1517231 67 13 -0.035857521
5.6329193 -1.757695 1.3623036 90 14 -0.035852913
5.1022635 -1.5930865 -0.093300566 59 7 -0.035850611
6.5939803 -2.0601106 1.8510739 36 15 -0.035848305
3.4081676 -1.0693616 -0.95711285 14 0 -0.035826921
4.9833746 -1.5645609 0.091171376 72 8 -0.035824619
3.9376993 -1.2370198 -0.95289266 12 1 -0.035822313
5.6455321 -1.7746145 0.3101429 86 9 -0.035820011
4.6822586 -1.4718194 -0.954045 10 2 -0.035817705
5.6010489 -1.7617056 0.5136959 75 10 -0.035815403
5.4549365 -1.7167951 -0.9057557 54 3 -0.035813097
5.640511 -1.776282 0.72609758 94 11 -0.035810795
5.3883901 -1.6979189 -0.69368041 69 4 -0.035808489
5.6405478 -1.7784578 0.93672973 100 12 -0.035806186
4.6649313 -1.4708471 -0.42793471 39 5 -0.035803881
5.6393251 -1.7791548 1.1494334 64 13 -0.035801578
5.2052994 -1.6432225 -0.28606835 2 6 -0.035799272
5.6323237 -1.7791076 1.3636533 91 14 -0.03579697
5.1004844 -1.6120923 -0.093370378 59 7 -0.035794664
6.5904331 -2.08428 1.8521091 38 15 -0.035792362
3.3988905 -1.0794975 -0.95555997 8 0 -0.035771627
4.987411 -1.5849745 0.091345899 76 8 -0.035769321
3.9166434 -1.2454426 -0.9488436 10 1 -0.035767019
5.6412067 -1.7949158 0.3102476 88 9 -0.035764713
4.6677384 -1.4851784 -0.95213693 7 2 -0.035762411
5.6138506 -1.7872909 0.51543909 70 10 -0.035760105
5.4733787 -1.7436208 -0.909823 97 3 -0.035757802
5.6380596 -1.7971661 0.72658509 91 11 -0.035755496
5.3748651 -1.7143048 -0.69270545 72 4 -0.035753194
5.6437144 -1.8011388 0.93829399 100 12 -0.035750888
4.6787496 -1.4931793 -0.42967781 41 5 -0.035748586
5.6517825 -1.8048007 1.1532496 66 13 -0.03574628
5.1938238 -1.6595585 -0.28575432 75 6 -0.035743978
5.6167984 -1.7957901 1.3614038 86 14 -0.035741672
5.0948267 -1.6298864 -0.093370378 60 7 -0.03573937
6.5923171 -2.1102173 1.8546973 40 15 -0.035737064
3.4024582 -1.09372 -0.95763052 13 0 -0.035716329
4.9799447 -1.6017621 0.091310993 72 8 -0.035714027
3.9067073 -1.2573158 -0.94749385 10 1 -0.035711721
5.6349068 -1.8145965 0.3102476 88 9 -0.035709418
4.6587882 -1.5002592 -0.9513737 10 2 -0.035707112
5.6151628 -1.80932 0.51613629 80 10 -0.03570481
5.4522181 -1.7578663 -0.90732002 66 3 -0.035702504
5.6393089 -1.8192735 0.72756004 91 11 -0.035700202
5.3650703 -1.7318363 -0.69221795 72 4 -0.035697896
5.6298738 -1.8183998 0.93704253 96 12 -0.035695594
4.7019477 -1.5186877 -0.43229246 35 5 -0.035693288
5.6454482 -1.8245182 1.1532496 67 13 -0.035690986
5.1689959 -1.671533 -0.28470761 70 6 -0.03568868
5.610496 -1.8153856 1.3614038 88 14 -0.035686377
5.0891061 -1.6476609 -0.093370378 60 7 -0.035684075
6.5977755 -2.1373832 1.8583208 42 15 -0.035681769
3.3875971 -1.1020045 -0.9545247 10 0 -0.035661034
4.9819288 -1.6216111 0.091450609 72 8 -0.035658728
3.9097061 -1.2733589 -0.94929349 10 1 -0.035656426
5.6304369 -1.8348736 0.31035227 90 9 -0.03565412
4.6572561 -1.5177288 -0.95213693 7 2 -0.035651818
5.6012363 -1.8264391 0.51543909 85 10 -0.035649512
5.444171 -1.7762747 -0.90700716 57 3 -0.03564721
5.6499076 -1.8444917 0.72975373 100 11 -0.035644904
5.36654 -1.7530192 -0.6931929 72 4 -0.035642602
5.6216149 -1.8374269 0.93672973 100 12 -0.035640299
4.6985121 -1.5357105 -0.4324668 30 5 -0.035637993
5.6483755 -1.8472648 1.1551577 67 13 -0.035635691
5.1764178 -1.6939142 -0.28544036 70 6 -0.035633385
5.604125 -1.8349587 1.3614038 88 14 -0.035631083
5.0833235 -1.6654149 -0.093370378 59 7 -0.035628777
6.5829315 -2.1579938 1.8562503 43 15 -0.035626475
3.3800597 -1.1126146 -0.95348942 9 0 -0.035605736
4.9724393 -1.6377405 0.091380797 72 8 -0.035603434
3.9033866 -1.2863886 -0.9488436 10 1 -0.035601128
5.6353788 -1.8582693 0.31098029 90 9 -0.035598826
4.6482005 -1.5327468 -0.9513737 8 2 -0.03559652
5.5948267 -1.8459798 0.51543909 85 10 -0.035594217
5.4398131 -1.795887 -0.90732002 61 3 -0.035591915
5.6113915 -1.8536174 0.72561014 78 11 -0.035589609
5.3679276 -1.7742327 -0.69416779 72 4 -0.035587307
5.6226683 -1.8595196 0.93798119 100 12 -0.035585001
4.7101469 -1.5577321 -0.43403557 27 5 -0.035582699
5.638165 -1.8657364 1.1543945 67 13 -0.035580393
5.1761603 -1.7138561 -0.28575432 69 6 -0.035578091
5.5976858 -1.8545095 1.3614038 90 14 -0.035575785
5.0812755 -1.6844075 -0.093440183 59 7 -0.035573483
6.571691 -2.1797431 1.855215 43 15 -0.035571177
3.3706567 -1.1225753 -0.95193648 9 0 -0.035550442
4.9647951 -1.6544553 0.091345899 76 8 -0.035548136
3.8914776 -1.2975404 -0.9470439 8 1 -0.035545833
5.6345415 -1.8798252 0.31129432 88 9 -0.035543531
4.6353731 -1.5464773 -0.94984722 10 2 -0.035541225
5.5807896 -1.8629744 0.51474178 80 10 -0.035538923
5.4335113 -1.8148645 -0.90732002 64 3 -0.035536617
5.6312447 -1.8820026 0.7290225 100 11 -0.035534315
5.3617015 -1.7929598 -0.69416779 72 4 -0.035532009
5.6255097 -1.8822691 0.93954557 95 12 -0.035529707
4.7349119 -1.5842792 -0.43682456 19 5 -0.035527401
5.6223092 -1.8822896 1.1524864 67 13 -0.035525098
5.1682534 -1.7312795 -0.28564969 64 6 -0.035522792
5.6022639 -1.8777536 1.3641032 86 14 -0.03552049
5.0791569 -1.7034057 -0.093509994 59 7 -0.035518184
6.5658741 -2.203284 1.8557327 19 15 -0.035515882
3.3795331 -1.1386518 -0.95555997 13 0 -0.035495147
4.96278 -1.673053 0.091415711 76 8 -0.035492841
3.8869245 -1.3111161 -0.9470439 11 1 -0.035490539
5.6225996 -1.8965845 0.31098029 80 9 -0.035488233
4.6225061 -1.5601372 -0.94832075 7 2 -0.035485931
5.6006794 -1.8913684 0.51718217 85 10 -0.035483625
5.4383717 -1.8376139 -0.90919721 59 3 -0.035481323
5.6039557 -1.8946544 0.72634137 87 11 -0.035479017
5.3516498 -1.8103924 -0.69368041 72 4 -0.035476714
5.6267219 -1.9034456 0.94079703 97 12 -0.035474408
4.7821946 -1.6186836 -0.44170532 20 5 -0.035472106
5.6324396 -1.9075713 1.1559209 67 13 -0.0354698
5.0675983 -1.717259 -0.28041607 43 6 -0.035467498
5.5882936 -1.8947946 1.3623036 84 14 -0.035465192
5.0848432 -1.7240922 -0.093719423 58 7 -0.03546289
6.5987792 -2.2386994 1.8671206 1 15 -0.035460584
3.3755376 -1.1504416 -0.95555997 13 0 -0.035439849
4.962883 -1.6914364 0.091520421 72 8 -0.035437547
3.8862443 -1.3252566 -0.94794375 8 1 -0.035435241
5.6216159 -1.9181346 0.31129432 88 9 -0.035432938
4.6133161 -1.5749947 -0.94755751 10 2 -0.035430633
5.5978141 -1.9121948 0.5175308 95 10 -0.03542833
5.42664 -1.8537223 -0.90825862 51 3 -0.035426024
5.6258178 -1.9228574 0.7299974 100 11 -0.035423722
5.3437386 -1.8274866 -0.69343662 73 4 -0.035421416
5.5845323 -1.9109238 0.93485248 89 12 -0.035419114
4.9103479 -1.681188 -0.45408139 24 5 -0.035416808
5.6409426 -1.9313264 1.1589739 48 13 -0.035414506
4.9900761 -1.7094581 -0.27643853 51 6 -0.0354122
5.5746055 -1.9107882 1.360504 90 14 -0.035409898
5.0636611 -1.7366414 -0.093440183 60 7 -0.035407595
6.5653429 -2.2529409 1.8598738 40 15 -0.035405289
3.3625717 -1.1584828 -0.95297176 9 0 -0.035384554
4.9607296 -1.7100533 0.091590226 72 8 -0.035382248
3.8852792 -1.3400848 -0.9488436 11 1 -0.035379946
5.622438 -1.9403522 0.31171298 88 9 -0.03537764
4.6043563 -1.5890034 -0.94679433 5 2 -0.035375338
5.582026 -1.927496 0.51665926 77 10 -0.035373032
5.2950416 -1.8294336 -0.88729644 31 3 -0.03537073
5.6096907 -1.9392407 0.72877878 87 11 -0.035368424
5.3279467 -1.8428843 -0.69221795 63 4 -0.035366122
5.5871615 -1.933636 0.9364168 37 12 -0.035363816
4.8783865 -1.6883392 -0.45164105 17 5 -0.035361513
5.6286011 -1.949078 1.157829 17 13 -0.035359211
4.9689813 -1.7216352 -0.27560118 52 6 -0.035356905
5.578949 -1.9340656 1.3632034 90 14 -0.035354603
5.0575681 -1.7543062 -0.093440183 59 7 -0.035352297
6.561089 -2.2771118 1.8609091 47 15 -0.035349995
3.3475614 -1.1663994 -0.94986594 16 0 -0.035329256
4.9490652 -1.725384 0.091485515 76 8 -0.035326954
3.8713777 -1.3504298 -0.94659406 10 1 -0.035324648
5.6231732 -1.9625989 0.31213167 62 9 -0.035322346
4.5691237 -1.5947148 -0.94068843 10 2 -0.03532004
5.567739 -1.9443415 0.51596195 52 10 -0.035317738
4.9193892 -1.718891 -0.82534832 77 3 -0.035315432
5.5822744 -1.9516041 0.72609758 42 11 -0.035313129
5.1397262 -1.7978926 -0.66857523 43 4 -0.035310827
5.5617332 -1.9466015 0.9332881 23 12 -0.035308521
4.8837471 -1.709307 -0.45268691 28 5 -0.035306219
5.5772939 -1.9531404 1.1486702 16 13 -0.035303913
4.9610567 -1.7383095 -0.27549651 50 6 -0.035301611
5.5795197 -1.9561067 1.365003 75 14 -0.035299305
5.0551882 -1.7732737 -0.093509994 59 7 -0.035297003
6.5567455 -2.3012798 1.8619443 47 15 -0.035294697
3.3525798 -1.1812874 -0.95245409 10 0 -0.035273962
4.9411263 -1.7419841 0.091450609 72 8 -0.035271656
3.8574517 -1.3606938 -0.94434458 10 1 -0.035269354
5.6072164 -1.9779133 0.31160831 20 9 -0.035267048
4.589448 -1.6198019 -0.94603103 8 2 -0.035264745
5.5571613 -1.9624379 0.51561338 67 10 -0.035262443
5.0809875 -1.7952809 -0.85350657 91 3 -0.035260137
5.5660706 -1.9677696 0.72487891 21 11 -0.035257835
5.103476 -1.8052311 -0.66467547 37 4 -0.035255529
5.5869069 -1.976233 0.93860692 72 12 -0.035253227
4.9059238 -1.7363153 -0.45530161 34 5 -0.035250921
5.5926495 -1.9804611 1.1532496 70 13 -0.035248619
4.9756665 -1.7629533 -0.2766479 42 6 -0.035246313
7.6500058 -2.7120149 1.8738421 19 14 -0.03524401
5.0624728 -1.7947047 -0.093754329 59 7 -0.035241704
6.5600028 -2.326885 1.8650501 45 15 -0.035239402
3.3447964 -1.1916862 -0.95141882 9 0 -0.035218667
4.9409742 -1.7603734 0.091555327 76 8 -0.035216361
3.8529181 -1.3734779 -0.94434458 8 1 -0.035214059
5.5645356 -1.9847257 0.30961955 34 9 -0.035211753
4.583766 -1.6358123 -0.94603103 10 2 -0.035209451
5.5671644 -1.9878541 0.51718217 72 10 -0.035207145
4.9801288 -1.7782426 -0.83755022 27 3 -0.035204843
5.5726004 -1.9908917 0.72658509 68 11 -0.035202537
4.8824973 -1.7453035 -0.63664556 43 4 -0.035200235
5.5911341 -1.9997143 0.94048411 95 12 -0.035197929
5.5823545 -1.997673 1.1524864 63 13 -0.03519332
5.0844955 -1.8205128 -0.28303289 54 6 -0.035191018
7.6409702 -2.7373681 1.8738421 4 14 -0.035188712
5.0561776 -1.8123649 -0.093754329 59 7 -0.03518641
6.5554771 -2.3510737 1.8660854 47 15 -0.035184104
3.3371911 -1.2014626 -0.95038354 10 0 -0.035163369
4.9479685 -1.7823538 0.091799662 76 8 -0.035161067
3.8554335 -1.3895619 -0.94614416 11 1 -0.035158761
5.5804706 -2.0112939 0.31087559 82 9 -0.035156459
4.5690818 -1.6476736 -0.94412297 10 2 -0.035154153
5.5886536 -2.0164478 0.51979685 92 10 -0.03515185
4.964601 -1.792262 -0.8359859 77 3 -0.035149544
5.5898881 -2.0190985 0.72975373 99 11 -0.035147242
4.8950443 -1.7690828 -0.63908291 57 4 -0.035144936
5.5733256 -2.0142157 0.93860692 100 12 -0.035142634
5.1281986 -1.8543576 -0.47709054 1 5 -0.035140328
5.5938087 -2.0238261 1.1563026 67 13 -0.035138026
5.1250591 -1.8552456 -0.28564969 68 6 -0.03513572
7.6332016 -2.7646873 1.8742923 6 14 -0.035133418
5.0426192 -1.8263981 -0.093614712 59 7 -0.035131112
6.5585423 -2.376749 1.8691912 45 15 -0.03512881
3.3293462 -1.2117828 -0.94934833 15 0 -0.035108075
4.9420304 -1.798752 0.091799662 76 8 -0.035105769
3.8453112 -1.400339 -0.94479448 8 1 -0.035103466
5.5809226 -2.0334961 0.31129432 72 9 -0.03510116
4.5503907 -1.6589055 -0.94145161 10 2 -0.035098858
5.5740943 -2.0332124 0.51909959 92 10 -0.035096552
4.9549189 -1.8073614 -0.83536011 70 3 -0.03509425
5.5757027 -2.0349019 0.72877878 98 11 -0.035091944
4.9525495 -1.8084559 -0.64736998 78 4 -0.035089642
5.5736823 -2.0363696 0.93985838 100 12 -0.035087336
4.9308243 -1.802474 -0.45931077 13 5 -0.035085034
5.590754 -2.0437129 1.1570657 67 13 -0.035082728
5.132009 -1.877033 -0.28638238 69 6 -0.035080425
7.633141 -2.7933331 1.8765416 46 14 -0.035078123
5.0362134 -1.8439888 -0.093614712 59 7 -0.035075817
6.5429502 -2.3969698 1.8671206 47 15 -0.035073515
3.3198698 -1.2208164 -0.94779539 12 0 -0.035052776
4.9319677 -1.814611 0.091729842 85 8 -0.035050474
3.8385708 -1.4130796 -0.94434458 11 1 -0.035048168
5.5812869 -2.0557261 0.31171298 84 9 -0.035045866
4.5577607 -1.6787359 -0.94412297 12 2 -0.03504356
5.5691905 -2.0523744 0.51927388 95 10 -0.035041258
4.9393134 -1.8212296 -0.83379585 74 3 -0.035038952
5.5648408 -2.052978 0.72829127 92 11 -0.03503665
4.9424815 -1.824358 -0.64688253 73 4 -0.035034344
5.5683932 -2.0564973 0.94017124 97 12 -0.035032041
4.8572226 -1.794814 -0.45303556 74 5 -0.035029739
5.5817447 -2.0625353 1.1566842 55 13 -0.035027433
5.1366658 -1.899091 -0.2870104 67 6 -0.035025131
7.6270003 -2.8213129 1.8774415 45 14 -0.035022825
5.0334964 -1.8629456 -0.093684517 59 7 -0.035020523
6.5345435 -2.4197943 1.8671206 47 15 -0.035018217
3.3135622 -1.2323028 -0.94727772 9 0 -0.034997482
4.9218559 -1.8304218 0.091660038 76 8 -0.034995176
3.8336148 -1.4264703 -0.94434458 8 1 -0.034992874
5.5871792 -2.0800736 0.3124457 82 9 -0.034990568
4.5570965 -1.6974857 -0.94526786 10 2 -0.034988265
5.5541635 -2.0699897 0.51857668 80 10 -0.034985963
4.9344554 -1.8400109 -0.83410865 59 3 -0.034983657
5.5762401 -2.0793262 0.73072863 98 11 -0.034981355
4.9360833 -1.8415991 -0.64688253 75 4 -0.034979049
5.5759859 -2.0814488 0.94267422 97 12 -0.034976747
5.1906238 -1.9386296 -0.48476022 64 5 -0.034974441
5.5741477 -2.0829797 1.1566842 68 13 -0.034972139
5.1147046 -1.9123096 -0.28617305 67 6 -0.034969833
7.6312103 -2.8547108 1.8810407 37 14 -0.034967531
5.0307083 -1.8819056 -0.093754329 59 7 -0.034965225
6.5405312 -2.4480069 1.8712618 43 15 -0.034962922
3.3255155 -1.2499791 -0.95193648 14 0 -0.034942184
4.9207292 -1.8505607 0.091764756 80 8 -0.034939881
3.8174176 -1.4363939 -0.94164515 10 1 -0.034937579
5.5683026 -2.0963154 0.31181765 80 9 -0.034935273
4.5437942 -1.7106156 -0.94374132 10 2 -0.034932971
5.563684 -2.0956855 0.52014548 92 10 -0.034930665
4.9372454 -1.8607073 -0.83567303 74 3 -0.034928363
5.5518651 -2.0934467 0.728535 91 11 -0.034926057
4.9293008 -1.8596785 -0.64688253 75 4 -0.034923755
5.5757122 -2.1046622 0.94392568 97 12 -0.034921449
5.2117848 -1.9672908 -0.48737493 67 5 -0.034919146
5.576026 -2.1058924 1.1585923 67 13 -0.03491684
5.1079984 -1.9301516 -0.28617305 69 6 -0.034914538
5.0312586 -1.9031614 -0.093893945 58 7 -0.03490993
6.5387421 -2.4746981 1.8733324 19 15 -0.034907624
3.3139083 -1.2588357 -0.94986594 8 0 -0.034886889
4.9217162 -1.8705676 0.091904372 80 8 -0.034884587
3.8178451 -1.4517884 -0.94299489 10 1 -0.034882281
5.5609512 -2.1157398 0.31181765 80 9 -0.034879979
4.5267854 -1.7222773 -0.94145161 10 2 -0.034877673
5.5730929 -2.1214728 0.52171427 90 10 -0.034875371
4.934412 -1.8793365 -0.83629876 72 3 -0.034873065
5.5760579 -2.12483 0.73267853 100 11 -0.034870762
4.9246345 -1.8775808 -0.64712632 73 4 -0.034868456
5.5277271 -2.108623 0.93704253 56 12 -0.034866154
5.2123327 -1.9883118 -0.48807216 67 5 -0.034863848
5.5778122 -2.1288438 1.1605004 67 13 -0.034861546
5.1086926 -1.9508201 -0.28659174 69 6 -0.03485924
7.598352 -2.9030478 1.8778914 49 14 -0.034856938
5.0171132 -1.9178561 -0.093754329 58 7 -0.034854632
5.5809579 -2.1345096 1.6010547 35 15 -0.03485233
3.2914584 -1.2634726 -0.94468951 11 0 -0.034831595
4.9226236 -1.890604 0.092043988 80 8 -0.034829289
3.8127542 -1.4651065 -0.94299489 10 1 -0.034826986
5.5650907 -2.1384676 0.3124457 80 9 -0.034824681
4.5097513 -1.7338411 -0.93916196 8 2 -0.034822378
5.5582156 -2.1380522 0.52101701 90 10 -0.034820072
4.9351959 -1.8993871 -0.83755022 72 3 -0.03481777
5.5649023 -2.1428547 0.73219109 98 11 -0.034815464
4.9202328 -1.8946145 -0.64736998 78 4 -0.034813162
5.555727 -2.1404352 0.94298708 81 12 -0.034810856
5.1979237 -2.0036275 -0.48737493 70 5 -0.034808554
5.5813375 -2.15254 1.1627901 70 13 -0.034806248
5.1130323 -1.972955 -0.28721976 69 6 -0.034803946
7.6341352 -2.9457674 1.8891391 15 14 -0.03480164
5.010726 -1.9344828 -0.093754329 59 7 -0.034799337
5.584662 -2.1571815 1.6041605 1 15 -0.034797035
3.2836483 -1.2729839 -0.9436543 12 0 -0.034776296
4.9125986 -1.9054713 0.091974184 80 8 -0.034773994
3.8060575 -1.4770366 -0.94254488 8 1 -0.034771688
5.5616932 -2.1583555 0.31265503 82 9 -0.034769386
4.5131273 -1.7523394 -0.94107002 10 2 -0.03476708
5.5566664 -2.1586368 0.52153993 100 10 -0.034764778
4.9251876 -1.9143112 -0.83692449 72 3 -0.034762472
5.5429645 -2.1555409 0.73024112 84 11 -0.03476017
4.925024 -1.9152371 -0.64883244 73 4 -0.034757864
5.5596442 -2.1631446 0.94486433 91 12 -0.034755562
5.1912508 -2.0208535 -0.48737493 68 5 -0.034753256
5.5595336 -2.1653361 1.1597371 67 13 -0.034750953
5.1083226 -1.9906245 -0.28732443 70 6 -0.034748651
7.604352 -2.9632838 1.8841901 69 14 -0.034746345
5.0117354 -1.9539939 -0.093893945 57 7 -0.034744043
6.4971581 -2.5344424 1.8686736 36 15 -0.034741737
3.2776101 -1.2831616 -0.94313669 8 0 -0.034721002
4.8988047 -1.9188342 0.09183456 80 8 -0.034718696
3.7902517 -1.4853835 -0.93984544 11 1 -0.034716394
5.5597034 -2.1799436 0.31296906 78 9 -0.034714088
4.5018082 -1.7651458 -0.93992513 7 2 -0.034711786
5.540204 -2.1734135 0.52066839 80 10 -0.03470948
4.9224901 -1.9320766 -0.83755022 72 3 -0.034707177
5.5635023 -2.1847944 0.73389727 100 11 -0.034704875
4.927547 -1.9360465 -0.65005112 72 4 -0.034702569
5.5538979 -2.1832604 0.94517714 95 12 -0.034700267
5.1878734 -2.0404205 -0.48772353 68 5 -0.034697961
5.5504956 -2.1830418 1.1593555 67 13 -0.034695659
5.092401 -2.0038967 -0.28680107 67 6 -0.034693353
7.5975871 -2.9912374 1.8850898 67 14 -0.034691051
5.0048847 -1.9714763 -0.093893945 58 7 -0.034688745
6.5008526 -2.5620646 1.872297 40 15 -0.034686442
3.2818666 -1.2987202 -0.94572484 9 0 -0.034665704
4.8995152 -1.938866 0.091974184 80 8 -0.034663402
3.7669251 -1.4914311 -0.93534642 7 1 -0.034661099
5.5539169 -2.2000723 0.31307372 80 9 -0.034658793
4.4715815 -1.7722301 -0.93496412 10 2 -0.034656491
5.5599823 -2.2047207 0.52328306 100 10 -0.034654185
4.9153752 -1.9501053 -0.83755022 72 3 -0.034651883
5.5373898 -2.1968806 0.73145986 94 11 -0.034649577
4.9170685 -1.9517703 -0.64956367 69 4 -0.034647275
5.5609298 -2.208467 0.94768006 97 12 -0.034644969
5.1918292 -2.0629313 -0.48876941 68 5 -0.034642667
5.5570521 -2.209173 1.1624085 67 13 -0.034640361
5.0868773 -2.0232859 -0.28690574 70 6 -0.034638058
7.602869 -3.0255489 1.8891391 66 14 -0.034635752
5.0054045 -1.9918922 -0.094033569 58 7 -0.03463345
6.5044336 -2.5897434 1.8759204 38 15 -0.034631144
3.2737255 -1.3087339 -0.94468951 9 0 -0.034610409
4.8923755 -1.9568105 0.091974184 80 8 -0.034608107
3.779526 -1.5124677 -0.93984544 11 1 -0.034605801
5.5513787 -2.222641 0.31338775 76 9 -0.034603499
4.4817715 -1.7943957 -0.93839866 8 2 -0.034601193
5.5522523 -2.2241156 0.52328306 87 10 -0.034598891
4.9195399 -1.9716607 -0.83942741 72 3 -0.034596585
5.5403557 -2.2215946 0.73292232 96 11 -0.034594283
4.9080391 -1.9690398 -0.64931989 72 4 -0.034591977
5.5308003 -2.2200041 0.94392568 85 12 -0.034589674
5.1916285 -2.0849164 -0.48946664 67 5 -0.034587368
5.5620599 -2.2336786 1.1650798 70 13 -0.034585066
5.0871968 -2.0440087 -0.28732443 70 6 -0.03458276
7.5904536 -3.0513427 1.8886892 36 14 -0.034580458
4.9906487 -2.0072398 -0.093893945 58 7 -0.034578152
6.505651 -2.6178932 1.8790263 42 15 -0.03457585
3.2706978 -1.3214476 -0.94520718 10 0 -0.034555115
4.8929315 -1.9768724 0.0921138 80 8 -0.034552809
3.7742233 -1.5256515 -0.93984544 8 1 -0.034550507
5.5454373 -2.2427542 0.31349242 82 9 -0.034548201
4.4678855 -1.8078647 -0.93687224 7 2 -0.034545898
5.5422168 -2.2437029 0.52310878 95 10 -0.034543592
4.9232659 -1.9941279 -0.84130466 69 3 -0.03454129
5.5436063 -2.2453918 0.73438478 96 11 -0.034538984
4.9103351 -1.9898882 -0.65053862 73 4 -0.034536682
5.5413232 -2.2467189 0.94705439 95 12 -0.034534376
5.1806269 -2.1015282 -0.48911804 67 5 -0.034532074
5.5574737 -2.2555261 1.165843 70 13 -0.034529768
5.0870733 -2.0656464 -0.28774312 70 6 -0.034527466
7.5701919 -3.0754752 1.8864396 48 14 -0.03452516
4.9873171 -2.0261533 -0.093963757 57 7 -0.034522858
6.4928942 -2.6391315 1.8779911 42 15 -0.034520552
3.2537763 -1.3271791 -0.94158375 7 0 -0.034502983
4.882298 -1.9924288 0.092043988 80 8 -0.034500681
3.7616582 -1.5358702 -0.93804586 8 1 -0.034498375
5.5546112 -2.267926 0.31443447 93 9 -0.034496073
4.4636831 -1.8234131 -0.93725383 10 2 -0.034493767
5.5421233 -2.2650843 0.52380598 100 10 -0.034491464
4.9093127 -2.0074525 -0.8400532 72 3 -0.034489159
5.5265489 -2.2609706 0.73316604 85 11 -0.034486856
4.914382 -2.011528 -0.65200108 72 4 -0.03448455
5.5374985 -2.2665787 0.94768006 95 12 -0.034482248
5.166254 -2.1156759 -0.48842075 67 5 -0.034479942
5.5263467 -2.2642667 1.160882 67 13 -0.03447764
5.0912838 -2.0870495 -0.28837115 73 6 -0.034475334
7.5851927 -3.1109142 1.8927382 49 14 -0.034473032
4.984271 -2.0441985 -0.094033569 57 7 -0.034470726
6.484107 -2.6606481 1.8779911 40 15 -0.034468424
3.2562687 -1.3414723 -0.9436543 12 0 -0.034447689
4.8793621 -2.0101316 0.0921138 80 8 -0.034445383
3.7511396 -1.5461081 -0.93669617 10 1 -0.03444308
5.5522008 -2.2895856 0.31474847 87 9 -0.034440774
4.4627352 -1.8412294 -0.93839866 7 2 -0.034438472
5.5268159 -2.2813754 0.52310878 100 10 -0.034436166
4.9062805 -2.025229 -0.84067887 69 3 -0.034433864
5.5447073 -2.2898932 0.73657835 98 11 -0.034431558
4.9186931 -2.0323622 -0.65346348 72 4 -0.034429256
5.5441575 -2.2919319 0.95018309 97 12 -0.03442695
5.1735668 -2.1397884 -0.48981526 67 5 -0.034424648
5.5423923 -2.2923348 1.165843 70 13 -0.034422342
5.0732617 -2.0993392 -0.28774312 73 6 -0.03442004
7.5892391 -3.142014 1.8963374 42 14 -0.034417734
4.9844952 -2.0646458 -0.094173186 57 7 -0.034415431
6.4854879 -2.6877034 1.8810968 15 15 -0.034413125
3.2571535 -1.3544884 -0.94520718 13 0 -0.03439239
4.876008 -2.028688 0.092183605 80 8 -0.034390088
3.7385235 -1.556197 -0.93489659 10 1 -0.034387782
5.5372019 -2.3049147 0.3143298 87 9 -0.03438548
4.4384818 -1.8484703 -0.93458253 10 2 -0.034383174
5.5339332 -2.3058207 0.52450323 95 10 -0.034380872
4.9028273 -2.0438626 -0.84130466 72 3 -0.034378566
5.5366802 -2.3092339 0.73657835 98 11 -0.034376264
4.9060726 -2.047226 -0.65273225 73 4 -0.034373958
5.5365267 -2.3103044 0.95018309 97 12 -0.034371655
5.1701193 -2.158468 -0.49016386 67 5 -0.034369349
5.5379801 -2.3131809 1.1666063 67 13 -0.034367047
5.0640602 -2.1162655 -0.28763846 67 6 -0.034364741
4.9776216 -2.0811634 -0.094173186 57 7 -0.034360137
6.5727787 -2.7494526 1.9090494 3 15 -0.034357831
3.2470622 -1.3636057 -0.9436543 7 0 -0.034337096
4.8747849 -2.047169 0.092288323 76 8 -0.03433479
3.7387321 -1.5708504 -0.93624628 8 1 -0.034332488
5.5364871 -2.3273249 0.31474847 85 9 -0.034330182
4.4356217 -1.8654746 -0.93534577 7 2 -0.03432788
5.5387053 -2.3305328 0.5257234 87 10 -0.034325574
4.8996649 -2.0616422 -0.84193045 72 3 -0.034323271
5.5253329 -2.3260412 0.7360909 98 11 -0.034320965
4.8955975 -2.0619426 -0.65224481 73 4 -0.034318663
5.5029435 -2.3188772 0.94580293 87 12 -0.034316361
5.1735687 -2.1811457 -0.49120975 67 5 -0.034314055
5.5483694 -2.3391595 1.1704224 70 13 -0.034311753
5.0588546 -2.1338229 -0.28774312 73 6 -0.034309447
7.5533133 -3.1875379 1.8927382 19 14 -0.034307145
4.9666414 -2.0969701 -0.094103374 57 7 -0.034304839
6.5400062 -2.7626069 1.90232 1 15 -0.034302536
3.2318504 -1.3698424 -0.94054842 9 0 -0.034281798
4.8749738 -2.0672956 0.092427947 76 8 -0.034279495
3.7386081 -1.586175 -0.93759602 10 1 -0.03427719
5.5356836 -2.3497581 0.31516716 87 9 -0.034274887
4.4185681 -1.8755708 -0.93305606 10 2 -0.034272581
5.5291128 -2.3481083 0.52554911 95 10 -0.034270279
4.9069829 -2.0849123 -0.84443337 67 3 -0.034267977
5.5263143 -2.3491969 0.73730958 96 11 -0.034265671
4.9029841 -2.0852339 -0.65419465 73 4 -0.034263369
5.5275335 -2.3519938 0.95143455 95 12 -0.034261063
5.162641 -2.1967301 -0.49086115 66 5 -0.034258761
5.5437832 -2.3600507 1.1711857 71 13 -0.034256455
5.0624003 -2.1561646 -0.28837115 70 6 -0.034254152
7.520628 -3.2047172 1.8873394 28 14 -0.034251846
4.9592915 -2.1142943 -0.094103374 57 7 -0.034249544
6.4681296 -2.7588911 1.8842027 17 15 -0.034247238
3.214617 -1.3757946 -0.93692499 8 0 -0.034226503
4.856698 -2.079577 0.092218518 80 8 -0.034224197
3.729466 -1.5976806 -0.93669617 7 1 -0.034221895
5.5311193 -2.3706408 0.31537652 91 9 -0.034219593
4.4192119 -1.8940767 -0.93458253 10 2 -0.034217287
5.5245452 -2.3689644 0.52589774 100 10 -0.034214985
4.8924141 -2.0989132 -0.84318191 69 3 -0.034212679
5.5290256 -2.3731709 0.73877203 94 11 -0.034210376
4.9102678 -2.1086023 -0.65614462 73 4 -0.03420807
5.5211048 -2.3720539 0.95174736 91 12 -0.034205768
5.1512804 -2.2131646 -0.49051252 66 5 -0.034203462
5.5210814 -2.3731856 1.1681327 67 13 -0.03420116
5.0658522 -2.1785567 -0.28899917 73 6 -0.034198854
7.5111861 -3.2317195 1.8877892 28 14 -0.034196552
4.9592276 -2.1347547 -0.09424299 57 7 -0.034194246
6.4549112 -2.7799239 1.8831675 43 15 -0.034191944
3.2257552 -1.3939041 -0.94158375 7 0 -0.034171209
4.8439031 -2.0941367 0.0921138 76 8 -0.034168903
3.7167118 -1.6075947 -0.93489659 10 1 -0.034166601
5.5342259 -2.3937268 0.31600451 87 9 -0.034164295
4.4107718 -1.9087114 -0.93420094 10 2 -0.034161992
5.510757 -2.3858597 0.52537483 92 10 -0.034159686
4.8850579 -2.115978 -0.84318191 67 3 -0.034157384
5.5261722 -2.3948245 0.73950326 98 11 -0.034155078
4.9028773 -2.1257296 -0.65614462 73 4 -0.034152776
5.531332 -2.3982072 0.95487607 91 12 -0.03415047
5.1508346 -2.2343037 -0.49120975 66 5 -0.034148168
5.5235701 -2.3971326 1.1704224 71 13 -0.034145862
5.0472245 -2.1914539 -0.28837115 70 6 -0.03414356
7.5087962 -3.2618012 1.8900387 28 14 -0.034141254
4.9594584 -2.1543756 -0.094382621 56 7 -0.034138951
6.4545164 -2.8051641 1.8857557 38 15 -0.034136645
3.2173283 -1.4036106 -0.94054842 7 0 -0.034115911
4.8424301 -2.112587 0.092218518 72 8 -0.034113608
3.706002 -1.6175722 -0.93354684 10 1 -0.034111302
5.5258369 -2.4130301 0.31600451 95 9 -0.034109
4.4094796 -1.9264543 -0.93534577 10 2 -0.034106694
5.5279541 -2.4162526 0.52781516 92 10 -0.034104392
4.8816333 -2.1337478 -0.84380758 74 3 -0.034102086
5.5163817 -2.4123411 0.73925954 99 11 -0.034099784
4.8976202 -2.142772 -0.65638834 69 4 -0.034097478
5.5283561 -2.4198768 0.95581466 87 12 -0.034095176
5.1539545 -2.2570658 -0.49225563 63 5 -0.03409287
5.5299773 -2.4217367 1.1734754 70 13 -0.034090567
5.0380998 -2.2073777 -0.28826648 69 6 -0.034088261
7.4979382 -3.2866836 1.8900387 22 14 -0.034085959
4.9628954 -2.1764929 -0.094592042 55 7 -0.034083657
6.4517612 -2.8307822 1.8878261 33 15 -0.034081351
3.2197287 -1.4173852 -0.94261903 9 0 -0.034060616
4.8423467 -2.1327014 0.092358135 65 8 -0.03405831
3.6967669 -1.6289271 -0.93264711 8 1 -0.034056008
5.5155525 -2.4314985 0.31589985 93 9 -0.034053702
4.3886948 -1.9347302 -0.93229276 10 2 -0.0340514
5.5326715 -2.4401989 0.52903533 95 10 -0.034049094
4.9066863 -2.1651297 -0.84943926 40 3 -0.034046791
5.5151916 -2.4347892 0.74023443 96 11 -0.034044486
5.2278605 -2.309032 -0.70172375 27 4 -0.034042183
5.5090346 -2.4343693 0.95393753 87 12 -0.034039877
5.1537313 -2.2773654 -0.49295285 64 5 -0.034037575
5.5286727 -2.4442005 1.1750019 70 13 -0.034035273
5.0431504 -2.2306056 -0.28899917 73 6 -0.034032967
7.4828558 -3.3112586 1.8891391 22 14 -0.034030665
4.9479542 -2.1905653 -0.094452426 55 7 -0.034028359
6.4471393 -2.8556328 1.889379 42 15 -0.034026057
3.1935771 -1.4192014 -0.93640739 9 0 -0.034005318
4.8385277 -2.1512163 0.092427947 65 8 -0.034003016
3.6999609 -1.6457814 -0.93489659 10 1 -0.03400071
5.4979081 -2.4466767 0.31537652 91 9 -0.033998407
4.3693595 -1.9444505 -0.92962146 10 2 -0.033996101
5.5204797 -2.457876 0.52868676 100 10 -0.033993799
4.8612051 -2.1653647 -0.84286904 25 3 -0.033991493
5.5229778 -2.4612982 0.74242812 92 11 -0.033989191
5.3122339 -2.3684924 -0.71415442 30 4 -0.033986889
5.5059156 -2.4559984 0.95487607 91 12 -0.033984583
5.1493897 -2.2969646 -0.49330151 50 5 -0.033982281
5.5308638 -2.4682848 1.1772915 71 13 -0.033979975
5.0408044 -2.2506387 -0.2893132 66 6 -0.033977672
7.4765892 -3.3397431 1.8904886 33 14 -0.033975367
4.9366264 -2.206192 -0.094382621 55 7 -0.033973064
6.430078 -2.8749664 1.8873086 43 15 -0.033970758
3.1850781 -1.428759 -0.93537205 7 0 -0.033950023
4.8309889 -2.168093 0.092427947 65 8 -0.033947717
3.6924157 -1.6578884 -0.93444669 8 1 -0.033945415
5.4824762 -2.4616225 0.3149578 95 9 -0.033943109
4.3661275 -1.9612995 -0.93038476 10 2 -0.033940807
5.5045972 -2.4738641 0.52798945 100 10 -0.033938505
4.821188 -2.1677389 -0.83723736 36 3 -0.033936199
5.5071106 -2.4773047 0.74145311 92 11 -0.033933897
5.3075547 -2.3886507 -0.71464187 25 4 -0.033931591
5.5103502 -2.4799182 0.95706618 87 12 -0.033929288
5.5010524 -2.4768887 -0.52781516 63 5 -0.033926982
5.5007343 -2.4779 1.1727122 70 13 -0.03392468
5.0147085 -2.2600143 -0.28826648 33 6 -0.033922374
4.9493356 -2.2315915 -0.094766572 49 7 -0.033917766
6.4222698 -2.8970675 1.8878261 45 15 -0.033915464
3.1800714 -1.4398683 -0.93537205 12 0 -0.033894729
4.8146639 -2.1799769 0.092253424 70 8 -0.033892423
3.6797972 -1.6669073 -0.93264711 8 1 -0.033890121
5.4738498 -2.4807448 0.3149578 95 9 -0.033887815
4.3574662 -1.9757174 -0.93000305 10 2 -0.033885513
5.5031862 -2.4963562 0.52868676 100 10 -0.033883207
4.8031788 -2.1788187 -0.83536011 41 3 -0.033880904
5.5079036 -2.499655 0.74267185 94 11 -0.033878598
5.4044394 -2.4538374 -0.72877878 25 4 -0.033876296
5.5070553 -2.5015888 0.95800477 91 12 -0.03387399
5.5177665 -2.507616 -0.5302555 62 5 -0.033871688
5.5103602 -2.50425 1.1765283 71 13 -0.033869382
5.5053596 -2.5031371 -0.31694657 65 6 -0.03386708
7.4856133 -3.405081 1.898587 18 14 -0.033864774
4.9851975 -2.2687337 -0.095604278 23 7 -0.033862472
5.5207162 -2.5136082 1.6253836 18 15 -0.033860166
3.1752794 -1.4504058 -0.93537205 10 0 -0.033839431
4.8270316 -2.2059126 0.092637375 38 8 -0.033837128
3.6721838 -1.6789318 -0.93219715 10 1 -0.033834822
5.4506273 -2.4931908 0.31412044 91 9 -0.03383252
4.3598175 -1.9942396 -0.93191117 10 2 -0.033830214
5.5166178 -2.5245404 0.53077847 95 10 -0.033827912
4.7775831 -2.1873484 -0.83223146 46 3 -0.033825606
5.5045595 -2.5213459 0.74340308 100 11 -0.033823304
5.5059233 -2.5231335 -0.7436468 30 4 -0.033820998
5.5072684 -2.5249128 0.9595691 78 12 -0.033818696
5.5162239 -2.5301843 -0.53095281 66 5 -0.03381639
5.5033693 -2.5242882 1.1769099 17 13 -0.033814088
5.5129261 -2.5298364 -0.31788865 66 6 -0.033811782
7.4789939 -3.433629 1.8999366 18 14 -0.033809479
5.0008712 -2.296972 -0.096058048 28 7 -0.033807173
5.5136633 -2.5336704 1.6259012 1 15 -0.033804871
3.1857305 -1.4693161 -0.94003081 8 0 -0.033784136
5.4693813 -2.5225768 0.1051333 67 8 -0.03378183
3.6556842 -1.6868409 -0.92949772 7 1 -0.033779528
5.4654651 -2.5230844 0.31548119 97 9 -0.033777222
4.3382201 -2.0036201 -0.92885822 10 2 -0.03377492
5.5055194 -2.5439069 0.53060412 87 10 -0.033772614
4.7516031 -2.1965554 -0.82910275 49 3 -0.033770312
5.4903183 -2.5380461 0.74267185 40 11 -0.033768006
5.4880743 -2.5381713 -0.74242812 24 4 -0.033765703
5.4733224 -2.5325084 0.95518899 36 12 -0.033763397
5.5182066 -2.554446 -0.53199863 67 5 -0.033761095
5.4922991 -2.5436172 1.1765283 15 13 -0.033758789
5.5072408 -2.5517042 -0.31809795 69 6 -0.033756487
5.4826374 -2.5414672 1.3951464 13 14 -0.033754185
5.5098848 -2.5540974 -0.10600592 93 7 -0.033751879
5.564373 -2.5805354 1.643501 1 15 -0.033749577
3.1613164 -1.47146 -0.93433678 8 0 -0.033728838
5.51267 -2.5670867 0.10614554 82 8 -0.033726536
3.6530101 -1.7018744 -0.93039757 10 1 -0.03372423
5.4493828 -2.5387733 0.31506249 34 9 -0.033721928
4.3329792 -2.0195806 -0.92923987 10 2 -0.033719622
5.4839659 -2.5572155 0.52938396 20 10 -0.033717319
4.7331662 -2.2081175 -0.82722551 49 3 -0.033715013
5.4827781 -2.5589917 0.74291557 22 11 -0.033712711
5.5151567 -2.5741038 -0.74730289 27 4 -0.033710405
5.4698186 -2.5541058 0.95612758 30 12 -0.033708103
5.5056462 -2.572006 -0.53165001 62 5 -0.033705801
5.5154014 -2.5777359 1.1833974 66 13 -0.033703495
5.5163932 -2.5793726 -0.3191447 66 6 -0.033701193
7.4671974 -3.4915361 1.9030858 15 14 -0.033698887
5.5118036 -2.5783989 -0.10621535 47 7 -0.033696584
6.4004416 -2.9954619 1.8935202 42 15 -0.033694278
3.154671 -1.4811143 -0.93381917 9 0 -0.033673543
5.4661174 -2.5674999 0.10541254 20 8 -0.033671238
3.6491098 -1.7148075 -0.93084741 10 1 -0.033668935
5.457202 -2.5644751 0.31600451 21 9 -0.033666629
4.3227048 -2.0322676 -0.92847663 10 2 -0.033664327
5.4610329 -2.5686028 0.52798945 22 10 -0.033662025
4.7240305 -2.2229598 -0.8269127 43 3 -0.033659719
5.5012026 -2.5898421 0.74657166 66 11 -0.033657417
5.5119786 -2.5949154 -0.74803412 30 4 -0.033655111
5.484551 -2.5831726 0.96019489 72 12 -0.033652809
5.5060987 -2.5944953 -0.53252155 53 5 -0.033650503
5.4784098 -2.5826168 1.1772915 61 13 -0.0336482
5.5041962 -2.5959475 -0.31893536 19 6 -0.033645894
7.4538159 -3.5154479 1.9026359 13 14 -0.033643592
5.4941802 -2.5923958 -0.10604082 19 7 -0.033641286
6.3817377 -3.0125463 1.890932 47 15 -0.033638984
3.1532338 -1.4932209 -0.93485445 9 0 -0.033618245
5.4611869 -2.5873246 0.10548234 30 8 -0.033615943
3.6398816 -1.7252297 -0.92994767 8 1 -0.033613641
5.480701 -2.598912 0.31788865 65 9 -0.033611335
4.3248115 -2.050797 -0.93038476 10 2 -0.033609033
5.4758854 -2.5977995 0.5302555 85 10 -0.033606727
4.720202 -2.2403071 -0.82753843 50 3 -0.033604424
5.49617 -2.6097736 0.74705911 91 11 -0.033602118
5.4795775 -2.6030667 -0.74486554 11 4 -0.033599816
5.4986939 -2.6133246 0.96426219 95 12 -0.03359751
5.4826136 -2.6068549 -0.5311271 16 5 -0.033595208
5.4981837 -2.6142585 1.1833974 67 13 -0.033592902
5.484736 -2.6090381 -0.31830731 17 6 -0.0335906
7.4502978 -3.5456321 1.9048855 12 14 -0.033588294
5.4995418 -2.6184354 -0.10632006 28 7 -0.033585992
6.3781595 -3.0381277 1.8930025 43 15 -0.033583686
3.1459968 -1.5039349 -0.93433678 8 0 -0.033562951
5.4882054 -2.623621 0.10618044 77 8 -0.033560649
3.625047 -1.7337208 -0.92769814 10 1 -0.033558343
5.4950171 -2.6292341 0.31924936 89 9 -0.03355604
4.3013282 -2.0590055 -0.92695016 10 2 -0.033553734
5.4860945 -2.6273189 0.53217298 80 10 -0.033551432
4.7279921 -2.2652743 -0.83035421 46 3 -0.033549126
5.4852366 -2.6280849 0.74681538 89 11 -0.033546824
5.4758277 -2.6247523 -0.74559671 13 4 -0.033544518
5.4877572 -2.6316481 0.96394926 78 12 -0.033542216
5.4698873 -2.6242533 -0.53077847 16 5 -0.03353991
5.4991856 -2.6394901 1.1856872 68 13 -0.033537608
5.4967418 -2.639498 -0.31956339 57 6 -0.033535302
5.4646411 -2.625257 1.3996454 22 14 -0.033532999
5.5246153 -2.6540689 -0.10698325 65 7 -0.033530694
6.3779626 -3.0653944 1.8961084 45 15 -0.033528391
3.1442077 -1.5165857 -0.93537205 9 0 -0.033507656
5.491159 -2.6498024 0.10642478 90 8 -0.03350535
3.6239331 -1.7495372 -0.92904782 8 1 -0.033503048
5.4894028 -2.6501358 0.31945869 89 9 -0.033500742
4.2799721 -2.0671763 -0.92389715 8 2 -0.03349844
5.4876537 -2.6516538 0.53321886 80 10 -0.033496134
4.7289491 -2.2860632 -0.8319186 50 3 -0.033493832
5.4898639 -2.655086 0.74876529 98 11 -0.033491526
5.4804659 -2.6517212 -0.74754661 26 4 -0.033489224
5.4856501 -2.6542296 0.96520072 85 12 -0.033486918
5.4911804 -2.6580884 -0.53374171 33 5 -0.033484615
5.5076075 -2.6672268 1.1895033 67 13 -0.033482309
5.492887 -2.6612813 -0.31987742 63 6 -0.033480007
7.4194746 -3.5963044 1.903536 10 14 -0.033477701
5.5117188 -2.6715932 -0.10691345 67 7 -0.033475399
3.1354206 -1.5258613 -0.93433678 10 0 -0.033452358
5.4913321 -2.6723721 0.1065993 85 8 -0.033450056
3.6181114 -1.7615451 -0.92904782 8 1 -0.03344775
5.4890971 -2.6736546 0.31998208 80 9 -0.033445448
4.2815542 -2.0864036 -0.92580527 10 2 -0.033443142
5.480155 -2.6716661 0.53339314 87 10 -0.033440839
4.7355461 -2.3086572 -0.83442152 52 3 -0.033438534
5.4614034 -2.6637044 0.74608415 94 11 -0.033436231
5.4787784 -2.6733627 -0.74852157 13 4 -0.033433925
5.4710264 -2.6707621 0.96426219 81 12 -0.033431623
5.4639659 -2.6684966 -0.53199863 17 5 -0.033429317
5.5022607 -2.6871991 1.1902666 67 13 -0.033427015
5.4930043 -2.6838658 -0.32040074 66 6 -0.033424713
5.5884576 -2.7317126 1.4360875 5 14 -0.033422407
5.4754133 -2.6776388 -0.10638987 58 7 -0.033420105
6.3321128 -3.09796 1.8888614 1 15 -0.033417799
3.1164694 -1.5294414 -0.93019569 12 0 -0.033397064
5.4694057 -2.6853552 0.10635497 82 8 -0.033394758
3.6084423 -1.7724458 -0.92814809 10 1 -0.033392455
4.2622786 -2.0945296 -0.92313397 8 2 -0.033387847
5.473053 -2.6907034 0.53356743 85 10 -0.033385541
4.7345495 -2.3286607 -0.83567303 55 3 -0.033383239
5.4966006 -2.7046628 0.75217766 98 11 -0.033380937
5.4800992 -2.697731 -0.74998403 1 4 -0.033378631
5.4763179 -2.6958697 0.96676511 91 12 -0.033376329
5.4622369 -2.6901224 -0.53269589 15 5 -0.033374023
5.4787579 -2.6994474 1.1872137 68 13 -0.03337172
5.490768 -2.7065558 -0.32081944 65 6 -0.033369415
5.5614104 -2.7425842 1.4315885 46 14 -0.033367112
5.4880257 -2.7063947 -0.10680873 60 7 -0.033364806
6.3512564 -3.1334715 1.8976613 36 15 -0.033362504
3.1145744 -1.542025 -0.93123102 10 0 -0.033341765
3.5920672 -1.7792122 -0.92544866 8 1 -0.033337161
4.787148 -2.3721964 0.27999741 1 9 -0.033334855
4.2690125 -2.1163709 -0.92618686 10 2 -0.033332553
5.4529181 -2.7044797 0.53252155 80 10 -0.033330247
4.7268014 -2.3443484 -0.83567303 52 3 -0.033327945
5.4787097 -2.7184634 0.75095892 94 11 -0.033325639
5.4924603 -2.726481 -0.75290889 16 4 -0.033323336
5.4792585 -2.7211199 0.96895516 97 12 -0.03332103
5.4777932 -2.7215836 -0.53513628 42 5 -0.033318728
5.4856005 -2.7254627 1.1906482 67 13 -0.033316422
5.4817624 -2.7247491 -0.32081944 65 6 -0.03331412
5.5418158 -2.755805 1.428889 65 14 -0.033311814
5.4857063 -2.7290976 -0.10694835 60 7 -0.033309512
6.3350921 -3.1530399 1.8961084 1 15 -0.033307206
3.1129007 -1.5540705 -0.93226624 7 0 -0.033286471
5.4510002 -2.7225215 0.10635497 5 8 -0.033284169
3.5840914 -1.7908689 -0.9249987 10 1 -0.033281863
4.7685356 -2.3827019 0.27936935 1 9 -0.033279561
4.2918239 -2.1454389 -0.93267435 5 2 -0.033277255
5.4546113 -2.7278945 0.53356743 75 10 -0.033274952
4.7309551 -2.3670208 -0.83786315 45 3 -0.033272646
5.4727378 -2.7393484 0.75144643 94 11 -0.033270344
5.4740348 -2.7411921 -0.75169015 41 4 -0.033268038
5.4596071 -2.7339675 0.96707797 87 12 -0.033265736
5.475863 -2.7433033 -0.53583348 53 5 -0.03326343
5.4795642 -2.7463541 1.1914115 67 13 -0.033261128
5.4757886 -2.7456577 -0.3210288 71 6 -0.033258822
5.5095181 -2.7637734 1.4230404 84 14 -0.03325652
5.492713 -2.7553434 -0.10726249 63 7 -0.033254214
6.3401413 -3.1818292 1.9007671 34 15 -0.033251911
3.1022809 -1.5623204 -0.93071336 14 0 -0.033231176
5.443728 -2.7414823 0.10638987 15 8 -0.03322887
3.572912 -1.8001139 -0.92364907 11 1 -0.033226568
4.7887254 -2.4137163 0.28104413 11 9 -0.033224262
4.44909 -2.2435 -0.96854651 1 2 -0.03322196
5.4432774 -2.7460208 0.53339314 52 10 -0.033219654
4.7883358 -2.415616 -0.84943926 38 3 -0.033217352
5.4724846 -2.7619536 0.7526651 98 11 -0.033215046
5.4595981 -2.7566454 -0.75095892 59 4 -0.033212744
5.4658995 -2.7610242 0.96989381 91 12 -0.033210438
5.4787016 -2.7686915 -0.53705364 58 5 -0.033208136
5.4809399 -2.7698226 1.1937011 66 13 -0.03320583
5.463089 -2.7619987 -0.32081944 63 6 -0.033203527
5.4916282 -2.7776313 1.4207909 82 14 -0.033201221
5.4830613 -2.7745001 -0.10726249 63 7 -0.033198919
