# .PCD v0.7 - Point Cloud Data file format
VERSION 0.7
FIELDS x y z intensity ring time
SIZE 4 4 4 4 2 4
TYPE F F F F U F
COUNT 1 1 1 1 1 1
WIDTH 929
HEIGHT 1
VIEWPOINT 0 0 0 1 0 0 0
POINTS 929
DATA ascii
1.3223184 -1.797487 -0.19522884 3 5 -0.0034432951
2.2301934 -3.0316021 0.73156172 31 13 -0.003440991
1.3122203 -1.7844123 -0.11608116 5 6 -0.003438687
2.2022672 -2.995831 0.85841322 36 14 -0.0034363831
1.3001719 -1.769322 -0.038325485 8 7 -0.0034340792
2.195869 -2.9893129 0.99386519 32 15 -0.0034317751
1.4714023 -2.0089443 -0.66723549 1 0 -0.003411039
2.1859505 -2.9845357 0.064573906 1 8 -0.0034087352
2.3037443 -3.1476672 0.20442426 31 9 -0.003404127
2.5016823 -3.42062 0.37076053 89 10 -0.003399519
1.3745183 -1.8801056 -0.36887249 1 3 -0.0033972152
2.4485772 -3.3492341 0.5094139 10 11 -0.0033949111
1.3376112 -1.8302937 -0.27834961 1 4 -0.003392607
2.4773796 -3.391115 0.66515946 86 12 -0.0033903031
1.3125111 -1.7972649 -0.19470593 2 5 -0.003387999
2.2051761 -3.0207276 0.7269823 31 13 -0.0033856952
1.3150899 -1.8021166 -0.11691854 4 6 -0.0033833911
2.1855299 -2.9960108 0.85616374 34 14 -0.003381087
1.2998804 -1.7819275 -0.038500007 6 7 -0.0033787831
2.171762 -2.9782288 0.98765355 32 15 -0.003376479
2.1961589 -3.0216439 0.065202191 1 8 -0.003353439
1.9827579 -2.7290323 -0.77878052 27 1 -0.0033511352
2.2957132 -3.1609378 0.20473827 1 9 -0.0033488311
2.4862154 -3.4244947 0.37023759 86 10 -0.0033442231
1.3725882 -1.8912872 -0.37012401 1 3 -0.003341919
2.4211311 -3.3372977 0.50624532 10 11 -0.0033396152
1.3285631 -1.83197 -0.27786213 1 4 -0.0033373111
2.4637744 -3.3985729 0.66484654 82 12 -0.003335007
1.3109072 -1.808288 -0.19540317 2 5 -0.0033327031
2.1888583 -3.0204582 0.72507423 34 13 -0.003330399
1.2994179 -1.7937565 -0.11608116 4 6 -0.0033280952
2.1670578 -2.992573 0.85301441 33 14 -0.0033257911
1.3003759 -1.7963988 -0.038709439 2 7 -0.003323487
2.1608315 -2.9861691 0.98765355 32 15 -0.0033211831
1.9728941 -2.7334735 -0.90327853 11 0 -0.003300447
2.132947 -2.9563162 0.063631475 12 8 -0.0032981432
1.9652405 -2.7248726 -0.77563125 38 1 -0.0032958391
2.270649 -3.1494908 0.20348223 1 9 -0.0032935352
1.3926971 -1.9317328 -0.46290264 1 2 -0.0032912311
2.4637623 -3.4186053 0.36866876 84 10 -0.003288927
1.3613594 -1.8896557 -0.36887249 1 3 -0.0032866232
2.3758252 -3.2990146 0.49917686 27 11 -0.0032843191
1.3105621 -1.8204857 -0.27542472 1 4 -0.0032820152
2.4403574 -3.3911185 0.66171783 82 12 -0.0032797111
1.2999319 -1.8063841 -0.19470593 2 5 -0.003277407
2.1714227 -3.018518 0.72278452 34 13 -0.0032751032
1.2791559 -1.7788229 -0.11482509 3 6 -0.0032727991
2.1520486 -2.9937897 0.85121477 33 14 -0.0032704952
1.3034327 -1.8139185 -0.03898868 1 7 -0.0032681911
2.1481409 -2.9905553 0.98661828 32 15 -0.003265887
1.965591 -2.743484 -0.9043138 12 0 -0.0032451511
2.134258 -2.980001 0.06398052 2 8 -0.003242847
1.9579855 -2.7348852 -0.77653104 36 1 -0.003240543
2.2642908 -3.1638947 0.2039009 1 9 -0.0032382391
1.3768051 -1.9238104 -0.45984969 2 2 -0.0032359352
2.450655 -3.4255641 0.36849448 94 10 -0.0032336311
1.3731399 -1.9201047 -0.37387842 1 3 -0.003231327
2.3562138 -3.2959836 0.49747071 67 11 -0.003229023
1.2972746 -1.8153588 -0.27396232 1 4 -0.0032267191
2.4216166 -3.3899724 0.6598407 78 12 -0.003224415
1.307516 -1.8303654 -0.19679767 2 5 -0.0032221111
2.162014 -3.0276768 0.72316611 30 13 -0.0032198071
1.2868633 -1.8027844 -0.11608116 5 6 -0.003217503
2.1280024 -2.9822481 0.84581596 35 14 -0.0032151991
2.132081 -2.990171 0.98403007 34 15 -0.0032105912
1.9504042 -2.7424572 -0.90172559 15 0 -0.003189855
2.1273189 -2.9923224 0.064085238 1 8 -0.0031875512
1.9348806 -2.7226417 -0.77113223 34 1 -0.0031852471
2.2324126 -3.1424713 0.20201682 1 9 -0.003182943
1.3791772 -1.9414086 -0.46290264 1 2 -0.0031806391
2.417918 -3.4048574 0.36535689 82 10 -0.003178335
1.3847245 -1.9506589 -0.37888432 1 3 -0.0031760312
2.3446944 -3.3041883 0.49747071 82 11 -0.0031737271
1.29093 -1.819876 -0.27396232 1 4 -0.003171423
2.3926289 -3.3742337 0.65514761 79 12 -0.0031691191
1.2884418 -1.8170403 -0.19488023 2 5 -0.003166815
2.1514323 -3.0352054 0.72316611 19 13 -0.0031645112
1.2898003 -1.8203026 -0.11691854 3 6 -0.0031622071
2.1175795 -2.9896579 0.84581596 33 14 -0.003159903
2.1104693 -2.9818263 0.97885364 34 15 -0.003155295
1.9341345 -2.7397795 -0.89861977 16 0 -0.0031345591
2.1145549 -2.9964621 0.064015426 8 8 -0.003132255
1.9231186 -2.7261941 -0.77023244 31 1 -0.0031299512
2.2081642 -3.1302722 0.20076075 1 9 -0.0031276471
1.9641161 -2.7853439 -0.66248888 24 2 -0.003125343
1.3597016 -1.9296441 -0.37387842 1 3 -0.0031207351
2.3320029 -3.3107295 0.49722698 93 11 -0.0031184312
1.3074268 -1.8568333 -0.27883708 1 4 -0.0031161271
2.3837013 -3.3853798 0.6557734 83 12 -0.003113823
1.2775043 -1.8150098 -0.19418299 2 5 -0.0031115189
2.1442132 -3.0475137 0.72431099 9 13 -0.0031092151
1.2765445 -1.8149917 -0.11629051 4 6 -0.0031069112
2.0981641 -2.984278 0.84221673 4 14 -0.0031046071
1.8562952 -2.6402612 -0.056336369 7 7 -0.003102303
2.0894616 -2.9730029 0.97367728 35 15 -0.0030999989
1.9256676 -2.7480965 -0.89913744 23 0 -0.003079263
2.2010007 -3.1410208 0.06694743 28 8 -0.0030769589
1.9040054 -2.7181911 -0.76618326 29 1 -0.0030746551
2.2063887 -3.1510496 0.20159812 1 9 -0.0030723512
1.9476267 -2.7825327 -0.66019917 38 2 -0.0030700471
2.2775826 -3.2551427 0.3475771 1 10 -0.003067743
1.3532952 -1.9341425 -0.37387842 1 3 -0.0030654389
2.3096342 -3.3021777 0.4947896 81 11 -0.0030631351
1.2785127 -1.8286209 -0.27396232 1 4 -0.0030608312
2.3628163 -3.3807268 0.65327036 79 12 -0.0030585271
1.2780073 -1.8292575 -0.19522884 2 5 -0.003056223
2.20943 -3.162436 0.74987942 4 13 -0.0030539189
1.2762367 -1.8274022 -0.11681387 2 6 -0.0030516151
2.0871408 -2.9896214 0.84176683 35 14 -0.0030493112
1.8447789 -2.6434453 -0.056266561 45 7 -0.0030470071
2.079071 -2.9802785 0.97367728 34 15 -0.003044703
1.9110273 -2.7465382 -0.89654922 33 0 -0.0030239671
2.191165 -3.150326 0.066982336 42 8 -0.0030216631
1.8900558 -2.718421 -0.76438367 32 1 -0.003019359
2.1702991 -3.1226509 0.19929534 1 9 -0.0030170551
1.9361478 -2.7857513 -0.65943593 42 2 -0.0030147512
2.2235773 -3.2005002 0.34095326 1 10 -0.0030124472
1.3465357 -1.9388545 -0.37387842 1 3 -0.0030101431
2.2879045 -3.2955437 0.49259594 76 11 -0.003007839
1.2721218 -1.8330727 -0.27396232 1 4 -0.0030055351
2.3498752 -3.387331 0.65295756 82 12 -0.0030032312
1.2787482 -1.8433079 -0.19627473 1 5 -0.0030009272
2.2185152 -3.1991684 0.7567485 4 13 -0.0029986231
1.2584713 -1.8154317 -0.11576715 2 6 -0.002996319
2.062263 -2.9760659 0.83591807 35 14 -0.0029940151
1.8218764 -2.6301422 -0.055847701 47 7 -0.0029917113
2.0653563 -2.982753 0.9721244 37 15 -0.0029894072
1.8926458 -2.7404752 -0.89240813 34 0 -0.0029686713
1.8739138 -2.7153788 -0.7616843 34 1 -0.0029640631
2.1480443 -3.1137674 0.19824862 1 9 -0.002961759
1.9208378 -2.7844129 -0.6575278 43 2 -0.0029594551
2.2123921 -3.2082424 0.34095326 1 10 -0.002957151
1.3397597 -1.9435431 -0.37387842 1 3 -0.0029548472
2.2696288 -3.2937024 0.49113351 76 11 -0.0029525431
1.2657154 -1.837502 -0.27396232 1 4 -0.002950239
2.3201125 -3.3694808 0.6479516 78 12 -0.0029479351
1.2802157 -1.8592472 -0.19749491 2 5 -0.002945631
2.2574253 -3.2796667 0.77392131 6 13 -0.0029433272
1.2747691 -1.8527215 -0.11786059 1 6 -0.0029410231
2.0352969 -2.9591622 0.82916957 37 14 -0.002938719
1.8047539 -2.6249514 -0.055603366 49 7 -0.0029364151
2.0428956 -2.9724312 0.96643037 37 15 -0.002934111
1.8732378 -2.7327242 -0.88774931 39 0 -0.0029133749
2.1408598 -3.1243069 0.066109717 5 8 -0.0029110711
1.860019 -2.7154725 -0.75988466 39 1 -0.0029087672
2.1394191 -3.1245425 0.19845797 9 9 -0.0029064631
1.9077792 -2.7862411 -0.65638298 41 2 -0.002904159
2.1775472 -3.1814187 0.3372927 4 10 -0.0029018549
1.3329672 -1.9482079 -0.37387842 1 3 -0.0028995511
2.2446697 -3.2819424 0.48820862 31 11 -0.0028972472
1.2749788 -1.8648509 -0.27737463 5 4 -0.0028949431
2.3049927 -3.3726666 0.64701301 79 12 -0.002892639
1.2658485 -1.8521901 -0.19627473 2 5 -0.0028903349
2.2492859 -3.2923899 0.7750662 6 13 -0.0028880311
1.286316 -1.8835495 -0.11953534 1 6 -0.0028857272
2.0205605 -2.9598107 0.82736999 37 14 -0.0028834231
1.7865624 -2.618021 -0.055324126 51 7 -0.002881119
2.0227096 -2.9651811 0.96177161 39 15 -0.0028788149
1.8528203 -2.723274 -0.88257295 40 0 -0.002858079
2.1209443 -3.1185329 0.065830477 5 8 -0.0028557749
2.1251316 -3.1270356 0.19814396 36 9 -0.0028511672
1.8969384 -2.7912598 -0.65600139 43 2 -0.0028488631
2.1675487 -3.1906483 0.33746704 19 10 -0.002846559
1.3261585 -1.952849 -0.37387842 1 3 -0.002844255
2.1975224 -3.2372005 0.480409 12 11 -0.0028419511
1.2617737 -1.8594346 -0.27591223 4 4 -0.0028396472
2.2887704 -3.3741531 0.64576155 79 12 -0.0028373431
1.2493094 -1.841758 -0.19470593 2 5 -0.002835039
2.2212522 -3.2758472 0.76934189 6 13 -0.002832735
2.0145888 -2.973299 0.82916957 35 14 -0.0028281272
1.7796559 -2.627553 -0.055393942 50 7 -0.0028258231
2.0036821 -2.9594259 0.95763052 37 15 -0.0028235191
1.8431743 -2.7274806 -0.88205534 34 0 -0.0027880671
2.1077785 -3.1202092 0.065725766 2 8 -0.002785763
1.2890508 -1.9089396 -0.5317843 2 1 -0.0027834591
2.1141796 -3.132041 0.19803928 37 9 -0.0027811551
1.882668 -2.7890694 -0.65409327 42 2 -0.0027788512
2.1597428 -3.2007449 0.33781564 60 10 -0.0027765471
1.3200169 -1.9570055 -0.37387842 1 3 -0.002774243
2.1706951 -3.2193997 0.47675291 20 11 -0.0027719392
1.2648017 -1.8765582 -0.27786213 2 4 -0.0027696351
2.277055 -3.3796887 0.64544868 82 12 -0.0027673312
1.2354041 -1.8343228 -0.19348574 1 5 -0.0027650271
2.2208204 -3.2974648 0.77277648 7 13 -0.002762723
1.9997978 -2.9715297 0.82692009 38 14 -0.0027581151
1.7691599 -2.6298122 -0.055324126 51 7 -0.0027558112
1.990063 -2.9592938 0.95555997 39 15 -0.0027535071
1.8245586 -2.7213817 -0.87791425 34 0 -0.002732771
2.0968742 -3.127548 0.065725766 8 8 -0.0027304671
1.2953986 -1.9328531 -0.53718311 1 1 -0.002728163
2.087671 -3.1161718 0.19657388 36 9 -0.0027258592
1.870248 -2.7926886 -0.65333003 41 2 -0.0027235551
2.1546474 -3.2185736 0.33886153 21 10 -0.002721251
2.1583402 -3.2253072 0.47650915 42 11 -0.002716643
1.256036 -1.8776617 -0.27737463 1 4 -0.0027143392
2.2619498 -3.3826902 0.64451009 86 12 -0.0027120351
1.2422802 -1.8585013 -0.19557749 1 5 -0.002709731
2.2119918 -3.3104796 0.77392131 9 13 -0.0027074271
2.1288002 -3.1871786 -0.20086543 25 6 -0.002705123
1.9813186 -2.9674945 0.82377076 37 14 -0.0027028192
1.7599695 -2.6359718 -0.055324126 51 7 -0.0027005151
1.9818658 -2.9694359 0.95659518 37 15 -0.002698211
1.8107673 -2.7213001 -0.87584364 30 0 -0.0026774751
2.0842898 -3.1335473 0.06569086 2 8 -0.002675171
1.7857168 -2.6856854 -0.74458802 14 1 -0.0026728672
2.0707076 -3.1154857 0.19605052 27 9 -0.0026705631
1.8387535 -2.766499 -0.64569765 14 2 -0.0026682592
2.15663 -3.2459888 0.34095326 6 10 -0.0026659551
2.1530919 -3.2431192 0.47797161 35 11 -0.0026613472
1.2425596 -1.8723288 -0.27591223 1 4 -0.0026590431
2.2342482 -3.3679123 0.64012986 83 12 -0.0026567392
1.3084785 -1.9724042 -0.20708205 1 5 -0.0026544351
2.1949975 -3.3099995 0.77201319 7 13 -0.002652131
2.1077302 -3.1796076 -0.19992337 32 6 -0.0026498272
1.965566 -2.96627 0.82152128 39 14 -0.0026475231
1.7348363 -2.6190648 -0.054835461 52 7 -0.0026452192
1.96137 -2.9621832 0.95193648 36 15 -0.0026429151
1.7842243 -2.7018116 -0.86756152 30 0 -0.002622179
2.0645256 -3.1274529 0.06541162 1 8 -0.0026198751
1.7774044 -2.6935289 -0.74503791 31 1 -0.002617571
2.0521219 -3.1110244 0.1953178 1 9 -0.0026152672
1.8280046 -2.7712619 -0.64531606 2 2 -0.0026129631
2.1562541 -3.2701306 0.34269637 3 10 -0.002610659
2.1472189 -3.2589035 0.47919029 28 11 -0.002606051
2.2148747 -3.3641417 0.63793981 89 12 -0.0026014431
2.1931438 -3.3324013 0.77544779 9 13 -0.0025968351
2.0944231 -3.1836085 -0.19971403 33 6 -0.002594531
1.9530582 -2.9698567 0.82062149 39 14 -0.0025922272
1.7190928 -2.6150789 -0.054626033 51 7 -0.0025899231
1.9457136 -2.9609394 0.94934833 39 15 -0.002587619
1.7631339 -2.6902499 -0.86186743 31 0 -0.0025668831
2.0514042 -3.1312952 0.065341808 1 8 -0.002564579
1.7647886 -2.6948259 -0.74368823 34 1 -0.0025622752
2.0324984 -3.1048002 0.19448043 1 9 -0.0025599711
1.3731488 -2.0975921 -0.4873262 1 2 -0.0025576672
2.1502805 -3.2859733 0.34356794 6 10 -0.0025553631
2.143435 -3.2780087 0.48089647 13 11 -0.0025507552
2.1977155 -3.3635845 0.63637549 83 12 -0.002546147
2.079329 -3.1823947 -0.33258632 13 5 -0.0025438431
2.1643212 -3.3137369 0.76934189 9 13 -0.002541539
2.0789299 -3.1842105 -0.19929534 33 6 -0.0025392352
1.9384191 -2.9701285 0.81882185 39 14 -0.0025369311
1.7077687 -2.6177142 -0.054556224 51 7 -0.002534627
1.9258686 -2.9531493 0.94468951 37 15 -0.0025323231
1.742146 -2.6785741 -0.8561734 34 0 -0.002511587
2.0361021 -3.1317303 0.065202191 2 8 -0.0025092831
1.7447518 -2.6846302 -0.73918921 32 1 -0.002506979
2.0249126 -3.1169004 0.19479445 4 9 -0.0025046752
2.1811171 -3.3586264 0.35036606 9 10 -0.002500067
2.1471078 -3.308784 0.48430881 16 11 -0.002495459
2.1816626 -3.3646052 0.63512403 83 12 -0.0024908511
2.059536 -3.1762595 -0.33119181 35 5 -0.002488547
2.1484697 -3.314682 0.76781541 9 13 -0.0024862431
2.05477 -3.1713338 -0.19803928 35 6 -0.0024839391
1.929099 -2.9785123 0.81927174 30 14 -0.0024816352
1.6964474 -2.620302 -0.054486416 51 7 -0.0024793311
1.9155484 -2.9598541 0.94468951 36 15 -0.002477027
1.7306904 -2.6813927 -0.85513818 34 0 -0.0024562911
2.0208211 -3.1320977 0.065062575 8 8 -0.002453987
1.7290328 -2.6808779 -0.73648977 32 1 -0.0024516832
2.0113177 -3.1185629 0.19448043 3 9 -0.0024493791
2.1693807 -3.366219 0.35036606 84 10 -0.0024447711
2.0925546 -3.2494996 0.47455928 12 11 -0.0024401632
2.1683547 -3.3684998 0.6344983 93 12 -0.0024355552
2.0462801 -3.1800783 -0.33084321 35 5 -0.0024332511
2.1336997 -3.3172076 0.76667058 10 13 -0.002430947
2.0393667 -3.1717672 -0.1976206 35 6 -0.0024286432
1.9012946 -2.9570277 0.81162345 13 14 -0.0024263391
1.6855862 -2.6225486 -0.054416601 50 7 -0.0024240352
1.9015459 -2.9596887 0.94261903 37 15 -0.0024217311
1.7197045 -2.6838639 -0.85410291 36 0 -0.002400995
2.0125804 -3.1421494 0.06513238 1 8 -0.0023986911
1.7190824 -2.6849554 -0.73603982 36 1 -0.002396387
2.0138888 -3.1453998 0.1957365 1 9 -0.0023940832
1.33666 -2.0884702 -0.48198354 1 2 -0.0023917791
2.1710904 -3.3935347 0.35245782 95 10 -0.002389475
2.0860441 -3.2631109 0.47553423 9 11 -0.0023848671
2.1412168 -3.3507032 0.62980521 89 12 -0.0023802591
2.0292878 -3.1767724 -0.32979733 35 5 -0.002377955
2.1269138 -3.3308835 0.768197 10 13 -0.0023756512
2.0256138 -3.1734617 -0.19730657 31 6 -0.0023733471
1.8694601 -2.9288208 0.80217546 23 14 -0.002371043
1.6661241 -2.6112661 -0.054067552 51 7 -0.0023687391
1.8886043 -2.961092 0.94106609 37 15 -0.002366435
1.7014633 -2.6748815 -0.84944409 40 0 -0.0023456991
2.0193172 -3.1758053 0.06569086 4 8 -0.002343395
1.7059878 -2.684063 -0.73424023 36 1 -0.0023410912
2.0082521 -3.1608396 0.19625986 4 9 -0.0023387871
1.7613882 -2.772294 -0.63844693 1 2 -0.002336483
2.1405985 -3.3704422 0.34932023 94 10 -0.0023341791
1.6675328 -2.6265974 -0.49276862 1 3 -0.002331875
2.0571299 -3.2415173 0.47139066 8 11 -0.0023295712
2.1199865 -3.3431435 0.62698942 83 12 -0.002324963
1.657033 -2.6130819 -0.27070573 5 5 -0.0023226591
2.113755 -3.3346021 0.76743382 10 13 -0.002320355
1.6590993 -2.618361 -0.16245082 28 6 -0.0023180512
1.8644388 -2.9435601 0.804425 27 14 -0.0023157471
1.6484413 -2.6035502 -0.053788319 50 7 -0.002313443
1.867925 -2.9513426 0.93588972 39 15 -0.0023111391
1.6838671 -2.6677353 -0.84530306 39 0 -0.002290403
2.0167558 -3.1963644 0.0659701 2 8 -0.0022880991
1.6934894 -2.6850569 -0.73289055 39 1 -0.0022857951
2.0099885 -3.1881044 0.19751592 7 9 -0.0022834912
1.7234302 -2.7335851 -0.62814325 23 2 -0.0022811871
2.1224468 -3.3677804 0.34827435 87 10 -0.002278883
1.6646715 -2.6424305 -0.49464583 37 3 -0.0022765792
2.0532067 -3.2604365 0.47309685 19 11 -0.0022742751
2.1030438 -3.3421633 0.62542504 89 12 -0.0022696671
1.6521461 -2.6255953 -0.27140298 38 5 -0.002267363
2.0885131 -3.3203564 0.76247281 11 13 -0.0022650592
1.6520755 -2.6275182 -0.16266017 33 6 -0.0022627551
1.8531154 -2.9484003 0.80397505 37 14 -0.0022604512
1.6372154 -2.605902 -0.053718507 51 7 -0.0022581471
1.8493919 -2.944757 0.93174857 42 15 -0.002255843
1.6653155 -2.6588619 -0.8406443 34 0 -0.0022351071
1.9981583 -3.1915202 0.065725766 15 8 -0.002232803
1.6437871 -2.6265275 -0.71534431 40 1 -0.0022304992
2.0041444 -3.203567 0.19803928 21 9 -0.0022281951
1.6499017 -2.638345 -0.60486454 40 2 -0.0022258912
2.105396 -3.3667221 0.34740278 90 10 -0.0022235871
1.6428727 -2.628125 -0.49089143 45 3 -0.002221283
2.0260339 -3.242332 0.46944076 4 11 -0.0022189792
2.0924108 -3.3511593 0.62573791 91 12 -0.0022143712
1.640402 -2.6282527 -0.27105436 51 5 -0.0022120671
2.0742509 -3.3246572 0.76170951 11 13 -0.002209763
1.6276377 -2.6098299 -0.16119476 36 6 -0.0022074592
1.8438437 -2.9565046 0.804425 38 14 -0.0022051551
1.6281095 -2.6116009 -0.053718507 51 7 -0.0022028512
1.8380798 -2.9495556 0.93123102 43 15 -0.0022005471
1.6392481 -2.6386919 -0.83236206 42 0 -0.002179811
1.9885571 -3.20222 0.065795571 23 8 -0.0021775072
1.6269554 -2.6209447 -0.71219504 42 1 -0.0021752031
1.9871235 -3.2024059 0.19751592 27 9 -0.002172899
1.6360811 -2.6377008 -0.60333806 45 2 -0.0021705951
2.0930419 -3.3744161 0.34740278 84 10 -0.002168291
1.6311474 -2.6307707 -0.49026567 46 3 -0.0021659872
2.016228 -3.2531106 0.46992823 1 11 -0.0021636831
2.0759537 -3.3520885 0.62448645 83 12 -0.0021590751
1.6202706 -2.6173069 -0.26931125 41 5 -0.002156771
2.057919 -3.3255599 0.7601831 13 13 -0.0021544672
1.6117572 -2.6055865 -0.16056673 36 6 -0.0021521631
1.8237686 -2.9483268 0.80037582 40 14 -0.002149859
1.6164227 -2.6141491 -0.053648699 50 7 -0.0021475551
1.8221784 -2.9480557 0.92864275 42 15 -0.002145251
1.6265255 -2.6397483 -0.83080912 46 0 -0.0021245151
1.976807 -3.209487 0.065795571 42 8 -0.002122211
1.6183599 -2.6285498 -0.71264493 43 1 -0.0021199072
1.9686035 -3.1974175 0.19678321 18 9 -0.0021176031
1.6155452 -2.6250041 -0.59914029 41 2 -0.002115299
2.0743966 -3.3718829 0.34635693 84 10 -0.0021129951
1.6070069 -2.6131744 -0.4858855 45 3 -0.002110691
2.000133 -3.2537143 0.46895328 1 11 -0.0021083872
2.0549326 -3.3441677 0.62167066 82 12 -0.002103779
1.5965254 -2.599179 -0.26687086 45 5 -0.0021014751
2.046298 -3.3327231 0.7601831 16 13 -0.002099171
1.6036969 -2.6128991 -0.1606714 38 6 -0.0020968672
1.8042915 -2.9397275 0.79632676 36 14 -0.0020945631
1.5926479 -2.5959129 -0.05316003 51 7 -0.002092259
1.8128867 -2.9560452 0.92916042 43 15 -0.0020899551
1.6036514 -2.6220548 -0.82356226 38 0 -0.002069219
1.9588516 -3.204082 0.065551244 34 8 -0.0020669152
1.5933753 -2.6072969 -0.70544648 36 1 -0.0020646111
1.9579895 -3.203928 0.19678321 18 9 -0.0020623072
1.5832916 -2.5918131 -0.59036303 37 2 -0.0020600031
2.0517817 -3.3600388 0.34443948 81 10 -0.002057699
1.5900992 -2.6050005 -0.48338255 48 3 -0.0020553952
1.9727892 -3.233216 0.46505347 1 11 -0.0020530911
2.0314887 -3.3307261 0.61791623 77 12 -0.0020484831
1.5775259 -2.5874474 -0.26512775 40 5 -0.002046179
2.0352349 -3.3394907 0.7601831 19 13 -0.0020438752
1.5867106 -2.6045575 -0.15983403 30 6 -0.0020415711
1.7935191 -2.9440303 0.7958768 43 14 -0.0020392672
1.5777901 -2.5909326 -0.052950602 50 7 -0.0020369631
1.79102 -2.942239 0.92294878 43 15 -0.002034659
1.590938 -2.6207528 -0.82149172 41 0 -0.0020139231
1.9399166 -3.1968837 0.065272003 34 8 -0.002011619
1.5786563 -2.6025693 -0.70274711 40 1 -0.0020093152
1.9447228 -3.2073276 0.19657388 18 9 -0.0020070111
1.5736704 -2.5953708 -0.58998144 39 2 -0.0020047072
2.0364971 -3.3600087 0.34374225 81 10 -0.0020024031
1.5681453 -2.5882959 -0.47931525 43 3 -0.002000099
1.9312065 -3.1888011 0.45774129 1 11 -0.001997795
1.5975666 -2.6389351 -0.37876993 1 4 -0.0019954911
2.0198498 -3.3377969 0.61791623 78 12 -0.0019931872
1.5622972 -2.5827098 -0.2640819 40 5 -0.0019908831
2.0109401 -3.3243835 0.75522202 26 13 -0.0019885791
1.5759977 -2.6063867 -0.15962468 32 6 -0.001986275
1.7771837 -2.9402661 0.79317743 41 14 -0.0019839711
1.5666687 -2.5930014 -0.052880794 51 7 -0.001981667
1.7697527 -2.9302826 0.91725475 42 15 -0.0019793632
1.5863038 -2.6348414 -0.82407987 36 0 -0.001958627
1.9215257 -3.1916432 0.065027662 37 8 -0.0019563232
1.5595139 -2.591367 -0.69824809 39 1 -0.0019540191
1.9293972 -3.2072504 0.19615518 22 9 -0.0019517151
1.5601001 -2.5943909 -0.58845496 41 2 -0.0019494111
2.0159566 -3.3537893 0.34234774 81 10 -0.001947107
1.5545785 -2.5872531 -0.47806379 45 3 -0.0019448032
1.9169966 -3.190418 0.45701009 6 11 -0.0019424991
1.565859 -2.6070576 -0.37340769 40 4 -0.0019401951
2.0061526 -3.34144 0.61729044 82 12 -0.0019378911
1.5532721 -2.5881476 -0.2640819 39 5 -0.001935587
1.997732 -3.3300481 0.75484043 30 13 -0.0019332832
1.5582173 -2.5984423 -0.15878731 32 6 -0.0019309791
1.7683989 -2.950103 0.79407722 40 14 -0.0019286751
1.5555514 -2.5950236 -0.052810986 49 7 -0.0019263711
1.7585205 -2.9347851 0.91673708 45 15 -0.001924067
1.5741248 -2.6353872 -0.82252699 31 0 -0.0019033311
1.9108402 -3.2003815 0.065062575 45 8 -0.001901027
1.5420158 -2.5836785 -0.69464886 40 1 -0.0018987231
1.9048833 -3.1916702 0.19479445 36 9 -0.0018964191
1.5530462 -2.603193 -0.5892182 39 2 -0.0018941151
2.0001557 -3.353961 0.34165049 79 10 -0.0018918111
1.5435151 -2.5892701 -0.47743803 42 3 -0.0018895071
1.9002094 -3.1888964 0.45579138 11 11 -0.0018872031
1.5420713 -2.5889025 -0.36999539 45 4 -0.0018848991
1.9914442 -3.3433311 0.6163519 79 12 -0.001882595
1.5421898 -2.5901301 -0.2637333 41 5 -0.0018802912
1.9810752 -3.3285658 0.75293231 34 13 -0.0018779871
1.5450528 -2.5970001 -0.15836863 32 6 -0.0018756831
1.7481294 -2.9395087 0.7895782 41 14 -0.0018733791
1.5444392 -2.5970004 -0.05274117 51 7 -0.001871075
1.7482655 -2.9409053 0.91673708 43 15 -0.0018687712
1.5599918 -2.632556 -0.81993878 30 0 -0.001848035
1.9022555 -3.2101414 0.06513238 34 8 -0.0018457312
1.536419 -2.5938079 -0.69599855 42 1 -0.0018434271
1.9008536 -3.2103302 0.19552715 36 9 -0.0018411231
1.5319505 -2.5883241 -0.58463877 41 2 -0.0018388191
1.9894506 -3.3626373 0.34182483 84 10 -0.001836515
1.5308969 -2.587574 -0.47618657 43 3 -0.0018342112
1.8835615 -3.1849279 0.45432895 15 11 -0.0018319071
1.5304468 -2.5888758 -0.36926416 40 4 -0.0018296031
1.9737321 -3.3400583 0.61447465 83 12 -0.0018272991
1.5311123 -2.5920663 -0.26338464 40 5 -0.001824995
1.9690279 -3.3334267 0.75255072 39 13 -0.0018226912
1.5344011 -2.5986695 -0.15815927 32 6 -0.0018203871
1.7324291 -2.93522 0.78687876 40 14 -0.0018180831
1.5313002 -2.5954864 -0.052601553 49 7 -0.0018157791
1.7379891 -2.9469903 0.91673708 43 15 -0.001813475
1.5395015 -2.6177316 -0.81372708 34 0 -0.0017927391
1.8971188 -3.2271054 0.065341808 39 8 -0.0017904351
1.5243936 -2.594115 -0.69464886 43 1 -0.0017881311
1.8942449 -3.2235043 0.19594584 40 9 -0.0017858271
1.5173925 -2.5832331 -0.58234906 41 2 -0.0017835231
1.9682004 -3.352035 0.34008169 84 10 -0.0017812192
1.5238547 -2.5963092 -0.4768123 43 3 -0.0017789151
1.8664051 -3.1812105 0.45286649 41 11 -0.0017766111
1.5173841 -2.5873525 -0.36828917 40 4 -0.0017743071
1.9486547 -3.3227296 0.61009449 86 12 -0.0017720031
1.5104172 -2.5765035 -0.2612929 37 5 -0.001769699
1.9544027 -3.3351979 0.75140589 42 13 -0.0017673951
1.523302 -2.6005628 -0.15794992 32 6 -0.0017650911
1.7182341 -2.9345229 0.78507918 41 14 -0.0017627871
1.512581 -2.5832939 -0.052252505 50 7 -0.0017604831
1.7184484 -2.936065 0.91156071 45 15 -0.001758179
1.5157518 -2.5980601 -0.8059625 40 0 -0.0017374431
1.8864073 -3.2333786 0.065341808 39 8 -0.0017351391
1.510874 -2.5907388 -0.69239932 42 1 -0.0017328351
1.8920342 -3.2456255 0.19688788 36 9 -0.0017305311
1.5083661 -2.5885141 -0.58234906 42 2 -0.0017282271
1.9494679 -3.3468335 0.33886153 87 10 -0.0017259232
1.5052942 -2.5842791 -0.47368363 46 3 -0.0017236191
1.8518505 -3.1805201 0.45189157 34 11 -0.0017213151
1.5087955 -2.5923703 -0.36828917 45 4 -0.0017190111
1.9420109 -3.3380487 0.61165881 89 12 -0.0017167071
1.5004126 -2.5800378 -0.26111859 32 5 -0.001714403
1.9354361 -3.3280835 0.74835294 44 13 -0.0017120991
1.5106547 -2.5986934 -0.15753125 31 6 -0.0017097951
1.7094723 -2.9418895 0.78552908 37 14 -0.0017074911
1.4995366 -2.5816412 -0.052112885 51 7 -0.0017051871
1.7013993 -2.9303505 0.90793723 42 15 -0.001702883
1.4993842 -2.5896978 -0.80182141 39 0 -0.0016821472
1.8891323 -3.264174 0.065830477 22 8 -0.0016798431
1.4969425 -2.5875628 -0.69014984 46 1 -0.0016775391
1.9006901 -3.2867901 0.19898133 24 9 -0.0016752351
1.500757 -2.5952013 -0.58273071 43 2 -0.0016729311
1.9363647 -3.3498299 0.3385129 87 10 -0.001670627
1.4883579 -2.5758348 -0.47118065 46 3 -0.0016683231
1.83478 -3.176651 0.45042911 42 11 -0.0016660191
1.4977521 -2.594183 -0.3678017 43 4 -0.0016637151
1.9273849 -3.3396745 0.61072022 93 12 -0.0016614111
1.4864194 -2.5766308 -0.26024702 25 5 -0.001659107
1.9149777 -3.3195143 0.74491841 48 13 -0.0016568031
1.4975834 -2.5970299 -0.15711255 29 6 -0.0016544991
1.6953 -2.9410856 0.78372949 37 14 -0.0016521951
1.4885192 -2.5833945 -0.052043077 51 7 -0.0016498911
1.6844109 -2.9245536 0.9043138 41 15 -0.0016475871
1.4898823 -2.5951757 -0.80182141 39 0 -0.0016268512
1.8946519 -3.3002303 0.066423863 37 8 -0.0016245471
1.4820814 -2.5826313 -0.68745047 46 1 -0.0016222431
1.9051059 -3.3211241 0.20065607 49 9 -0.0016199391
1.484399 -2.5887628 -0.58005941 42 2 -0.0016176351
1.9220922 -3.3534472 0.33816427 87 10 -0.001615331
1.4808712 -2.5847006 -0.47180638 46 3 -0.0016130271
1.8167723 -3.1709795 0.44872296 48 11 -0.0016107231
1.4807955 -2.5856142 -0.36585179 43 4 -0.0016084191
1.9068831 -3.3309529 0.60790437 89 12 -0.0016061151
1.4764271 -2.5800743 -0.26007274 23 5 -0.001603811
1.9027982 -3.3265107 0.74491841 49 13 -0.0016015071
1.4801236 -2.5886307 -0.15627518 31 6 -0.0015992031
1.6758059 -2.9320521 0.77968031 40 14 -0.0015968991
1.4814769 -2.592047 -0.052112885 51 7 -0.0015945951
1.6751502 -2.9320927 0.90483141 38 15 -0.0015922911
1.4808143 -2.6003606 -0.80182141 40 0 -0.001571555
1.8934249 -3.3262687 0.066807814 52 8 -0.0015692511
1.4706783 -2.5846581 -0.68655062 46 1 -0.0015669471
1.8939081 -3.3298204 0.20076075 78 9 -0.0015646431
1.4724416 -2.5888088 -0.57891452 47 2 -0.0015623391
1.9064358 -3.3532083 0.33746704 93 10 -0.001560035
1.4698877 -2.5864189 -0.47118065 46 3 -0.0015577311
1.8021963 -3.1724389 0.44799173 45 11 -0.0015554271
1.463467 -2.5772147 -0.36390188 40 4 -0.0015531231
1.8868606 -3.3241763 0.60540146 89 12 -0.0015508191
1.4669603 -2.5854685 -0.26007274 22 5 -0.0015485151
1.889237 -3.3297172 0.74415511 49 13 -0.0015462111
1.4691083 -2.5903068 -0.15606584 32 6 -0.0015439071
1.6569115 -2.9226267 0.77563125 36 14 -0.0015416031
1.4640793 -2.5835414 -0.051833645 52 7 -0.0015392991
1.661536 -2.9331703 0.90327853 39 15 -0.0015369951
1.4560767 -2.578855 -0.79353923 40 0 -0.001516259
1.8906515 -3.3485293 0.067121953 88 8 -0.0015139551
1.462605 -2.5914733 -0.68700051 47 1 -0.0015116511
1.892087 -3.3538065 0.20180747 100 9 -0.0015093471
1.4542637 -2.5787973 -0.57547992 48 2 -0.0015070431
1.8853275 -3.3445523 0.33589822 96 10 -0.001504739
1.4584588 -2.5883472 -0.47055492 48 3 -0.0015024351
1.7901369 -3.1769812 0.44774801 48 11 -0.0015001311
1.4573845 -2.5874963 -0.36463311 41 4 -0.0014978271
1.8645853 -3.3118081 0.60195988 93 12 -0.0014955231
1.4471778 -2.5714738 -0.25815532 20 5 -0.0014932191
1.8702826 -3.3246415 0.74148381 57 13 -0.0014909151
1.4576465 -2.5921922 -0.15585649 32 6 -0.0014886111
1.6480976 -2.9320774 0.77653104 37 14 -0.0014863071
1.4491731 -2.5781772 -0.05162422 52 7 -0.0014840032
1.6408781 -2.9204257 0.8975845 38 15 -0.0014816991
1.4441895 -2.5766757 -0.79146868 42 0 -0.001315117
1.8736725 -3.3443134 0.066912524 66 8 -0.001312813
1.4540032 -2.5963094 -0.68700051 47 1 -0.001310509
1.883882 -3.3652904 0.20212148 100 9 -0.001308205
1.4471142 -2.5850663 -0.57586157 47 2 -0.001305901
1.8689734 -3.3400269 0.33485237 96 10 -0.001303597
1.4397128 -2.5739522 -0.46711335 45 3 -0.001301293
1.775717 -3.1759691 0.44677305 43 11 -0.0012989891
1.4439536 -2.5836508 -0.36341441 40 4 -0.001296685
1.8593729 -3.32832 0.60383707 93 12 -0.001294381
1.4264598 -2.5533957 -0.25588927 28 5 -0.001292077
1.8521711 -3.316788 0.73843086 63 13 -0.001289773
1.4456017 -2.589783 -0.1554378 31 6 -0.0012874689
1.6388783 -2.9372406 0.77653104 37 14 -0.001285165
1.4386677 -2.5794756 -0.051554412 52 7 -0.001282861
1.6293031 -2.9224765 0.89654922 37 15 -0.001280557
1.4276773 -2.5681934 -0.78732753 44 0 -0.001259821
1.8522741 -3.3333538 0.06656348 61 8 -0.001257517
1.4335765 -2.5809259 -0.6816017 49 1 -0.0012552131
1.8663063 -3.3613691 0.20149344 100 9 -0.001252909
1.4361758 -2.5866692 -0.57509834 45 2 -0.001250605
1.8553699 -3.3430462 0.33450374 96 10 -0.001248301
1.4278444 -2.5737801 -0.46617478 43 3 -0.001245997
1.754993 -3.1647878 0.44433567 43 11 -0.0012436931
1.4301142 -2.5799944 -0.36219573 42 4 -0.001241389
1.8400848 -3.320967 0.60133415 96 12 -0.001239085
1.4242977 -2.5705585 -0.25710943 33 5 -0.001236781
1.8377283 -3.3180807 0.73728597 68 13 -0.001234477
1.4307486 -2.5843294 -0.15480977 30 6 -0.0012321729
1.6276718 -2.9412384 0.77608109 35 14 -0.001229869
1.4257829 -2.5774825 -0.051414788 52 7 -0.001227565
1.6153523 -2.9213834 0.89447862 37 15 -0.001225261
1.4205697 -2.5765448 -0.78836286 43 0 -0.001204525
1.8367664 -3.332794 0.066423863 59 8 -0.001202221
1.4189167 -2.5756731 -0.67890227 49 1 -0.0011999171
1.8401104 -3.3416202 0.19992337 87 9 -0.001197613
1.4261909 -2.589947 -0.57471669 48 2 -0.001195309
1.8417673 -3.3460109 0.33415511 96 10 -0.001193005
1.4178991 -2.5770178 -0.46586189 45 3 -0.001190701
1.7372386 -3.1587191 0.44262949 41 11 -0.0011883969
1.4134492 -2.5710542 -0.36024579 42 4 -0.001186093
1.8246759 -3.3204453 0.6000827 93 12 -0.001183789
1.4114779 -2.5685303 -0.25641218 41 5 -0.001181485
1.8195187 -3.3124301 0.73461467 81 13 -0.001179181
1.4159511 -2.5788035 -0.15418173 30 6 -0.0011768769
1.610832 -2.9349437 0.77293181 35 14 -0.001174573
1.4187008 -2.5859501 -0.051484596 54 7 -0.001172269
1.6079317 -2.932086 0.89603156 33 15 -0.001169965
1.4115672 -2.5814879 -0.78836286 40 0 -0.001149229
1.8222443 -3.333921 0.066319145 57 8 -0.001146925
1.4089831 -2.5789001 -0.67845237 50 1 -0.0011446211
1.8226912 -3.3375056 0.19929534 69 9 -0.001142317
1.4077318 -2.5776789 -0.57090056 43 2 -0.001140013
1.8224391 -3.3384295 0.3327606 96 10 -0.001137709
1.4051101 -2.5750153 -0.4646104 46 3 -0.001135405
1.7271525 -3.1665068 0.44287321 43 11 -0.0011331011
1.3987646 -2.5655155 -0.35878339 44 4 -0.001130797
1.8055117 -3.3129182 0.59757972 93 12 -0.001128493
1.4005966 -2.5699427 -0.25606358 42 5 -0.001126189
1.8107626 -3.3239334 0.7357595 96 13 -0.001123885
1.4069411 -2.5837302 -0.15418173 32 6 -0.0011215809
1.593124 -2.9268558 0.76933259 30 14 -0.001119277
1.4020201 -2.5768342 -0.051205363 52 7 -0.001116973
1.5875341 -2.9190125 0.89033753 37 15 -0.001114669
1.3933384 -2.5694172 -0.7831865 42 0 -0.001093933
1.8067842 -3.3332293 0.066179529 57 8 -0.001091629
1.396259 -2.5769491 -0.67665279 50 1 -0.0010893249
1.8015182 -3.3262854 0.19824862 34 9 -0.001087021
1.3921806 -2.570493 -0.5682292 41 2 -0.001084717
1.8060317 -3.33601 0.33188906 99 10 -0.001082413
1.3979937 -2.5833788 -0.46523616 46 3 -0.001080109
1.7132554 -3.1672783 0.44214204 45 11 -0.0010778049
1.3916888 -2.5738747 -0.35927087 42 4 -0.001075501
1.7826656 -3.298347 0.59382528 86 12 -0.001073197
1.3835917 -2.5610356 -0.25466907 42 5 -0.001070893
1.7935498 -3.3198702 0.73346978 100 13 -0.001068589
1.3941175 -2.5815961 -0.15376306 29 6 -0.001066285
1.5791949 -2.9255395 0.767533 30 14 -0.001063981
1.3892184 -2.5746732 -0.051065743 54 7 -0.001061677
1.569999 -2.910934 0.88619649 38 15 -0.001059373
1.3784235 -2.5642972 -0.78008062 40 0 -0.001038637
1.7856699 -3.3219023 0.065830477 55 8 -0.001036333
1.3900223 -2.5869572 -0.67800248 49 1 -0.0010340291
1.7691057 -3.293844 0.19594584 21 9 -0.001031725
1.3790351 -2.5686591 -0.56670272 42 2 -0.001029421
1.7881403 -3.3320739 0.33084321 99 10 -0.001027117
1.3773104 -2.5675964 -0.46148172 49 3 -0.001024813
1.7021893 -3.1732392 0.44214204 47 11 -0.0010225091
1.3808198 -2.5752184 -0.35878339 42 4 -0.001020205
1.7758076 -3.3132548 0.59538966 93 12 -0.001017901
1.3708798 -2.5588245 -0.25397182 42 5 -0.001015597
1.7758087 -3.3160374 0.73118013 100 13 -0.0010132929
1.3865312 -2.5902102 -0.1539724 30 6 -0.001010989
1.5629454 -2.9209986 0.76483357 27 14 -0.001008685
1.3764489 -2.5724542 -0.050926123 51 7 -0.001006381
1.5525393 -2.9027684 0.88205534 38 15 -0.001004077
1.3694639 -2.5690932 -0.78008062 40 0 -0.00098334101
1.7678404 -3.317836 0.065621048 53 8 -0.00098103704
1.3713704 -2.5748346 -0.67350346 47 1 -0.00097873295
1.7331858 -3.2541656 0.19322437 19 9 -0.00097642897
1.3709831 -2.5751903 -0.56708437 43 2 -0.000974125
1.7708822 -3.3277421 0.32979733 93 10 -0.00097182102
1.3664839 -2.5689006 -0.46085599 49 3 -0.00096951699
1.6784321 -3.1566713 0.43897343 48 11 -0.00096721301
1.3695087 -2.5767558 -0.35829589 41 4 -0.00096490898
1.7577417 -3.3072231 0.59319955 89 12 -0.000962605
1.36007 -2.5600753 -0.25362319 44 5 -0.00096030103
1.7550149 -3.3048766 0.72736394 100 13 -0.00095799699
1.36999 -2.5809212 -0.15313502 29 6 -0.00095569296
1.5582198 -2.936765 0.767533 30 14 -0.00095338898
1.3665236 -2.5754766 -0.050891217 56 7 -0.00095108501
1.5478282 -2.9184103 0.88516116 37 15 -0.00094878103
1.3568765 -2.5670259 -0.77801007 41 0 -0.00092804502
1.7530901 -3.3166084 0.065481432 55 8 -0.00092574104
1.3509899 -2.5569687 -0.66765475 39 1 -0.00092343701
1.7040943 -3.2266405 0.1912356 21 9 -0.00092113297
1.3601525 -2.576488 -0.56632113 44 2 -0.000918829
1.7573957 -3.3303792 0.3294487 99 10 -0.00091652502
1.35427 -2.5664299 -0.45960453 46 3 -0.00091422099
1.6642503 -3.1551964 0.43799844 48 11 -0.00091191696
1.351698 -2.5637233 -0.3558585 43 4 -0.00090961298
1.7480284 -3.3168337 0.59382528 105 12 -0.000907309
1.3492684 -2.5612817 -0.25327459 44 5 -0.00090500503
1.739471 -3.3019934 0.72545588 129 13 -0.00090270099
1.3558403 -2.5748467 -0.15250699 29 6 -0.00090039696
1.5375808 -2.9212229 0.76213419 27 14 -0.00089809299
1.3593873 -2.5837705 -0.050961025 55 7 -0.00089578901
1.5304383 -2.9101164 0.88102001 38 15 -0.00089348503
1.3465625 -2.5680895 -0.7769748 41 0 -0.00087274902
1.7396461 -3.3191655 0.06541162 57 8 -0.00087044499
1.3447692 -2.5668476 -0.66900444 42 1 -0.00086814101
1.6841166 -3.2145817 0.19018888 34 9 -0.00086583698
1.3452258 -2.5688097 -0.56364983 42 2 -0.000863533
1.7463421 -3.3361886 0.3294487 107 10 -0.00086122903
1.3471351 -2.5746419 -0.46023026 49 3 -0.00085892499
1.6486263 -3.1521914 0.43677977 47 11 -0.00085662096
1.339062 -2.5613894 -0.35488355 43 4 -0.00085431698
1.7324438 -3.3138595 0.59226096 127 12 -0.00085201301
1.3407674 -2.565742 -0.25327459 42 5 -0.00084970903
1.7415686 -3.3341475 0.73118013 100 13 -0.000847405
1.3468441 -2.5795636 -0.15250699 31 6 -0.00084510096
1.5201614 -2.9127512 0.75853497 29 14 -0.00084279699
1.3387841 -2.5652177 -0.050507262 53 7 -0.00084049301
1.5225666 -2.9186015 0.88205534 38 15 -0.00083818904
1.3304608 -2.5590618 -0.7728337 41 0 -0.00081745302
1.7295521 -3.3266902 0.065446526 100 8 -0.00081514899
1.3344524 -2.5678344 -0.66810459 47 1 -0.00081284501
1.7051091 -3.2824748 0.19385241 75 9 -0.00081054098
1.3317273 -2.5647779 -0.56174171 44 2 -0.000808237
1.7209189 -3.3157382 0.32683402 100 10 -0.00080593297
1.3349499 -2.5720818 -0.4589788 47 3 -0.00080362899
1.6381645 -3.1576412 0.43677977 45 11 -0.00080132502
1.3305607 -2.5658159 -0.35488355 42 4 -0.00079902099
1.7063209 -3.291826 0.58725506 78 12 -0.00079671701
1.3208044 -2.5491781 -0.25118285 44 5 -0.00079441298
1.7295997 -3.338161 0.73079848 41 13 -0.000792109
1.3364453 -2.5804689 -0.15229765 30 6 -0.00078980502
1.5122856 -2.9212375 0.75943476 29 14 -0.00078750099
1.3261456 -2.5627716 -0.050367646 53 7 -0.00078519701
1.5043815 -2.9084554 0.87739658 39 15 -0.00078289298
1.3166549 -2.553158 -0.76972789 39 0 -0.00076215703
1.7069345 -3.3113778 0.065027662 79 8 -0.00075985299
1.3236957 -2.5690124 -0.6672048 44 1 -0.00075754902
1.7146741 -3.3292456 0.19625986 99 9 -0.00075524498
1.31872 -2.5604532 -0.55983365 42 2 -0.00075294101
1.7017062 -3.3054838 0.32526523 61 10 -0.00075063697
1.3169247 -2.5591614 -0.45585006 47 3 -0.000748333
1.6253163 -3.1598096 0.43629229 45 11 -0.00074602902
1.3179655 -2.5633829 -0.3539086 44 4 -0.00074372499
1.3087007 -2.5464556 -0.2504856 41 5 -0.00073911698
1.6739789 -3.2586091 0.71209919 7 13 -0.000736813
1.3292544 -2.5886717 -0.15250699 30 6 -0.00073450903
1.5020797 -2.9264984 0.75943476 29 14 -0.00073220499
1.3162788 -2.5656059 -0.05033274 54 7 -0.00072990102
1.4871675 -2.8999367 0.87325549 44 15 -0.00072759698
1.3077347 -2.5577383 -0.76972789 39 0 -0.00070686097
1.6844448 -3.2959485 0.064608812 26 8 -0.00070455699
1.3058547 -2.5562632 -0.66270578 43 1 -0.00070225302
1.6876018 -3.3049712 0.19448043 12 9 -0.00069994899
1.3142388 -2.5737834 -0.56174171 43 2 -0.00069764501
1.6675133 -3.2670388 0.32090744 9 10 -0.00069534098
1.3034948 -2.5549448 -0.45428574 43 3 -0.000693037
1.6043564 -3.1460114 0.43361115 40 11 -0.00069073302
1.3072066 -2.5644307 -0.35342112 43 4 -0.00068842899
1.6178315 -3.1751728 0.56441563 8 12 -0.00068612501
1.2979947 -2.5474579 -0.25013697 40 5 -0.00068382098
1.6242813 -3.1892073 0.69568962 2 13 -0.00068151701
1.3129615 -2.5790567 -0.15166962 29 6 -0.00067921297
1.4900875 -2.9282501 0.75853497 29 14 -0.000676909
1.3018759 -2.5594907 -0.050123312 54 7 -0.00067460502
1.4717824 -2.894778 0.87014967 61 15 -0.00067230099
1.2987984 -2.5622876 -0.76972789 41 0 -0.00065156497
1.6431046 -3.242943 0.063456953 8 8 -0.000649261
1.2907608 -2.5486364 -0.65955651 40 1 -0.00064695702
1.6318533 -3.2235272 0.18935151 4 9 -0.00064465299
1.2990395 -2.5660939 -0.55907035 42 2 -0.00064234901
1.6246144 -3.2106187 0.31480655 1 10 -0.00064004498
1.2936771 -2.5577164 -0.45397288 45 3 -0.000637741
1.582617 -3.1303339 0.4306863 11 11 -0.00063543703
1.2928751 -2.5583479 -0.35195872 43 4 -0.00063313299
1.5871437 -3.1420105 0.55753249 33 12 -0.00063082902
1.2872978 -2.5484166 -0.24978836 44 5 -0.00062852498
1.5848229 -3.138777 0.68347788 1 13 -0.00062622101
1.2967516 -2.5693598 -0.15083225 29 6 -0.00062391697
1.4745904 -2.9229946 0.75583553 32 14 -0.000621613
1.2947344 -2.5675905 -0.050193124 53 7 -0.00061930902
1.4634081 -2.9033482 0.87118495 70 15 -0.00061700499
1.2846419 -2.5564487 -0.76662207 42 0 -0.00059626898
1.5913841 -3.1682465 0.061886236 9 8 -0.000593965
1.2827308 -2.5548682 -0.6600064 44 1 -0.00059166102
1.5793821 -3.1470902 0.18453661 25 9 -0.00058935699
1.2830293 -2.5565753 -0.5560174 41 2 -0.00058705301
1.5812368 -3.152158 0.30853131 30 10 -0.00058474898
1.2829703 -2.5586851 -0.45334715 45 3 -0.00058244501
1.5743492 -3.1411629 0.43141752 42 11 -0.00058014097
1.2786018 -2.5521963 -0.35049626 44 4 -0.000577837
1.5690907 -3.1334012 0.55502951 49 12 -0.00057553302
1.2801788 -2.5564573 -0.25013697 44 5 -0.00057322899
1.5703416 -3.1372674 0.6819514 2 13 -0.00057092501
1.2877749 -2.5738707 -0.15083225 29 6 -0.00056862098
1.4600199 -2.9194093 0.75358605 31 14 -0.000566317
1.2768226 -2.5542078 -0.049844075 54 7 -0.00056401303
1.4506741 -2.9032543 0.86963201 71 15 -0.00056170899
1.272265 -2.5540009 -0.76455152 43 0 -0.00054097298
1.5749671 -3.1630418 0.061676804 49 8 -0.000538669
1.2738048 -2.5593302 -0.6600064 44 1 -0.00053636503
1.568387 -3.1525841 0.18453661 43 9 -0.00053406099
1.271474 -2.5557652 -0.55487263 43 2 -0.00053175702
1.5640141 -3.1451705 0.30731115 46 10 -0.00052945298
1.274031 -2.5631478 -0.45334715 46 3 -0.00052714901
1.5616082 -3.1430838 0.43093005 38 11 -0.00052484497
1.2679197 -2.5530882 -0.35000879 43 4 -0.000522541
1.5493602 -3.1211653 0.55190086 48 12 -0.00052023702
1.2606167 -2.5394952 -0.24804525 42 5 -0.00051793299
1.5602539 -3.1444883 0.68233299 15 13 -0.00051562901
1.2770076 -2.5747716 -0.15062289 28 6 -0.00051332498
1.4506862 -2.926234 0.75403595 31 14 -0.000511021
1.2625713 -2.5478983 -0.049634643 51 7 -0.00050871697
1.4328138 -2.8927205 0.86497331 68 15 -0.00050641299
1.2564994 -2.5445688 -0.76041043 42 0 -0.00048567698
1.5550656 -3.1505883 0.061327755 52 8 -0.00048337301
1.263139 -2.5602655 -0.65910655 44 1 -0.00048106897
1.5564892 -3.1562481 0.18443193 40 9 -0.000478765
1.2616765 -2.5584271 -0.55449098 40 2 -0.00047646102
1.5468594 -3.1381013 0.30609095 41 10 -0.00047415699
1.2580914 -2.5534039 -0.4508442 45 3 -0.00047185301
1.546242 -3.1396117 0.42971134 40 11 -0.00046954898
1.2589998 -2.5574985 -0.35000879 43 4 -0.000467245
1.5410722 -3.1318722 0.55283946 59 12 -0.00046494103
1.2499851 -2.5403049 -0.24769662 42 5 -0.00046263699
1.5449356 -3.1411071 0.68042493 20 13 -0.00046033302
1.2697749 -2.5827982 -0.15083225 29 6 -0.00045802898
1.4421817 -2.9347777 0.75493574 34 14 -0.00045572501
1.2519066 -2.5487006 -0.049564835 52 7 -0.00045342097
1.4193017 -2.8907676 0.8629027 68 15 -0.000451117
1.2493081 -2.5524096 -0.76144564 41 0 -0.00043038098
1.5423012 -3.152405 0.061257947 57 8 -0.00042807701
1.2473454 -2.5506539 -0.65550733 42 1 -0.00042577297
1.5445856 -3.1598675 0.18432724 55 9 -0.000423469
1.2510141 -2.5592875 -0.55372775 41 2 -0.00042116502
1.5350213 -3.1416917 0.30591667 59 10 -0.00041886099
1.2448367 -2.5489044 -0.44927984 43 3 -0.00041655701
1.5335315 -3.141422 0.42922387 40 11 -0.00041425298
1.2483237 -2.5583096 -0.34952128 41 4 -0.000411949
1.5344602 -3.1461096 0.55440378 42 12 -0.00040964497
1.2384899 -2.5392807 -0.24717368 45 5 -0.00040734099
1.5356822 -3.1500101 0.68118817 16 13 -0.00040503702
1.2520022 -2.5692606 -0.14978553 29 6 -0.00040273299
1.4251018 -2.9257784 0.75133651 33 14 -0.00040042901
1.2430023 -2.553055 -0.049564835 51 7 -0.00039812498
1.4075121 -2.8922303 0.86186743 68 15 -0.000395821
1.2370182 -2.5498023 -0.75937515 44 0 -0.00037508499
1.5321603 -3.1595685 0.061292849 55 8 -0.00037278101
1.2341844 -2.5462246 -0.65325785 41 1 -0.00037047698
1.5352875 -3.1688352 0.18453661 54 9 -0.000368173
1.2412165 -2.5618722 -0.5533461 38 2 -0.00036586903
1.5301244 -3.1595829 0.30713683 52 10 -0.00036356499
1.2350709 -2.5514565 -0.44896698 46 3 -0.00036126102
1.5182334 -3.1378214 0.42800516 41 11 -0.00035895698
1.2324719 -2.5483549 -0.3475714 43 4 -0.00035665301
1.5217497 -3.1478899 0.55377805 52 12 -0.00035434897
1.2270174 -2.5382068 -0.24665076 40 5 -0.000352045
1.5195521 -3.1447453 0.67889845 30 13 -0.00034974102
1.2412888 -2.5700181 -0.14957617 29 6 -0.00034743699
1.40895 -2.9184506 0.74818724 40 14 -0.00034513301
1.232345 -2.5537763 -0.049495026 53 7 -0.00034282898
1.3974077 -2.8971257 0.86186743 70 15 -0.000340525
1.2281098 -2.554105 -0.75937515 43 0 -0.00031978905
1.5237206 -3.1703045 0.061397567 64 8 -0.00031748496
1.2236011 -2.547004 -0.65235806 39 1 -0.00031518098
1.5216234 -3.1687734 0.18422259 57 9 -0.000312877
1.2246181 -2.5502613 -0.54991156 39 2 -0.00031057303
1.5182239 -3.1631083 0.30696252 50 10 -0.00030826905
1.2261571 -2.555752 -0.44896698 45 3 -0.00030596496
1.510705 -3.1502616 0.42898014 41 11 -0.00030366099
1.2218528 -2.5490611 -0.3470839 44 4 -0.00030135701
1.5090446 -3.1496196 0.55315232 52 12 -0.00029905303
1.2198713 -2.546068 -0.24699937 42 5 -0.00029674894
1.5136539 -3.1606541 0.68118817 43 13 -0.00029444497
1.2340349 -2.5779388 -0.14978553 26 6 -0.00029214099
1.3920248 -2.9092882 0.74458802 40 14 -0.00028983701
1.2165211 -2.5436304 -0.049215786 50 7 -0.00028753304
1.3856198 -2.8985 0.86083221 68 15 -0.00028522895
1.2142006 -2.5479126 -0.75626928 44 0 -0.00026449305
1.5135049 -3.1774096 0.061432473 60 8 -0.00026218896
1.2121897 -2.5459814 -0.65100831 42 1 -0.00025988498
1.5131282 -3.179476 0.18453661 54 9 -0.00025758101
1.2072723 -2.536793 -0.54609537 40 2 -0.00025527703
1.5063174 -3.16659 0.30678821 57 10 -0.00025297306
1.2146837 -2.5546646 -0.44802836 40 3 -0.00025066896
1.5031075 -3.1626871 0.42995507 35 11 -0.00024836499
1.2078366 -2.5425525 -0.3456215 43 4 -0.00024606101
1.4971943 -3.1530836 0.55283946 55 12 -0.00024375704
1.1973029 -2.5215139 -0.24421038 41 5 -0.00024145294
1.5085039 -3.1783342 0.68385947 50 13 -0.00023914897
1.2207485 -2.5732079 -0.14926216 28 6 -0.00023684499
1.3810261 -2.9123685 0.74413806 41 14 -0.00023454102
1.2024955 -2.5370195 -0.049006358 51 7 -0.00023223704
1.3721851 -2.8963358 0.85876161 68 15 -0.00022993295
1.201174 -2.5434015 -0.75368112 45 0 -0.00020919705
1.5015509 -3.1808648 0.061397567 61 8 -0.00020689296
1.2024639 -2.548435 -0.65055847 41 1 -0.00020458899
1.4994642 -3.1793191 0.18422259 42 9 -0.00020228501
1.1992469 -2.5427675 -0.54647696 38 2 -0.00019998103
1.4961042 -3.1736305 0.30696252 83 10 -0.00019767694
1.1956549 -2.5374458 -0.44427395 43 3 -0.00019537297
1.4929043 -3.1697106 0.43019882 36 11 -0.00019306899
1.2006451 -2.5503452 -0.34610897 44 4 -0.00019076501
1.4920666 -3.1708019 0.55502951 61 12 -0.00018846104
1.1851008 -2.5184667 -0.24351314 42 5 -0.00018615695
1.4957296 -3.1800272 0.68309623 51 13 -0.00018385297
1.215158 -2.5846832 -0.14968085 39 6 -0.000181549
1.3700225 -2.9154081 0.74368823 40 14 -0.00017924502
1.1902319 -2.5339615 -0.048866738 51 7 -0.00017694104
1.3538568 -2.8836207 0.85358524 67 15 -0.00017463695
1.1881944 -2.53883 -0.75109291 42 0 -0.00015390106
1.4912859 -3.1878982 0.061432473 67 8 -0.00015159696
1.190259 -2.5455554 -0.64875883 45 1 -0.00014929299
1.4866661 -3.1809151 0.18401325 9 9 -0.00014698901
1.1887014 -2.543381 -0.54571378 38 2 -0.00014468504
1.4858607 -3.1806386 0.30713683 90 10 -0.00014238094
1.1867899 -2.541604 -0.44427395 41 3 -0.00014007697
1.4809916 -3.1731036 0.42995507 35 11 -0.00013777299
1.1900568 -2.5509229 -0.3456215 42 4 -0.00013546902
1.4809889 -3.1759913 0.55502951 56 12 -0.00013316504
1.1763021 -2.5225883 -0.24351314 41 5 -0.00013086095
1.4829612 -3.1816702 0.68233299 51 13 -0.00012855697
1.200224 -2.5762362 -0.14894815 30 6 -0.000126253
1.3598378 -2.9201725 0.74368823 40 14 -0.00012394902
1.1830672 -2.5417268 -0.04893655 51 7 -0.00012164505
1.342153 -2.8848259 0.85254997 67 15 -0.00011934096
1.1817636 -2.5482197 -0.75264585 45 0 -9.8604942e-05
1.4776257 -3.1876414 0.061327755 59 8 -9.6300966e-05
1.1772698 -2.5408537 -0.64650929 44 1 -9.399699e-05
1.4713569 -3.1770236 0.18348989 79 9 -9.1693015e-05
1.178991 -2.5457332 -0.54533213 39 2 -8.9389039e-05
1.4772599 -3.1912301 0.30765978 68 10 -8.7084947e-05
1.1729339 -2.5349746 -0.4423967 43 3 -8.4780972e-05
1.4707392 -3.1800561 0.43019882 33 11 -8.2476996e-05
1.1728158 -2.5370424 -0.34318411 41 4 -8.017302e-05
1.4698939 -3.1811411 0.55502951 57 12 -7.7869045e-05
1.1691612 -2.5302961 -0.24386176 42 5 -7.5564953e-05
1.4734923 -3.190392 0.68309623 50 13 -7.3260977e-05
1.1870383 -2.5713434 -0.14842479 20 6 -7.0957001e-05
1.3398387 -2.9036677 0.73828936 40 14 -6.8653026e-05
1.1725125 -2.5422091 -0.048866738 52 7 -6.634905e-05
1.3312659 -2.8877389 0.8520323 71 15 -6.4044958e-05
1.170441 -2.5470631 -0.75109291 44 0 -4.3308944e-05
1.4714978 -3.2036834 0.061537188 13 8 -4.1004969e-05
1.1683936 -2.5449476 -0.64650929 42 1 -3.8700993e-05
1.4485958 -3.1567266 0.18202448 28 9 -3.6397018e-05
1.1635469 -2.5355585 -0.54227924 42 2 -3.4093042e-05
1.4686035 -3.2018003 0.30818272 60 10 -3.178895e-05
1.1640784 -2.5390534 -0.4423967 43 3 -2.9484974e-05
1.4645919 -3.1959982 0.43166125 33 11 -2.7180999e-05
1.1606458 -2.5339017 -0.34220913 41 4 -2.4877023e-05
1.4571356 -3.1826608 0.55440378 56 12 -2.2573047e-05
1.1570038 -2.5271158 -0.24316452 41 5 -2.0268955e-05
1.4656148 -3.2026565 0.6846227 51 13 -1.796498e-05
1.180548 -2.58092 -0.1487388 20 6 -1.5661004e-05
1.3280739 -2.9047825 0.73738956 40 14 -1.3357028e-05
1.160307 -2.5390112 -0.048727117 51 7 -1.1053053e-05
1.3203753 -2.8906112 0.8515147 70 15 -8.7489607e-06
1.1576269 -2.5401802 -0.74798709 42 0 0
1.4307548 -3.1409578 0.060245708 7 8 2.304e-06
1.1587776 -2.5450587 -0.6456095 44 1 4.6079999e-06
1.4411535 -3.1667151 0.18233849 40 9 6.9120001e-06
1.1547624 -2.5374143 -0.54189759 43 2 9.2159999e-06
1.4593621 -3.2082119 0.308357 70 10 1.152e-05
1.1626365 -2.5570836 -0.44489968 38 3 1.3824e-05
1.4561871 -3.2041979 0.43214872 32 11 1.6128e-05
1.1584265 -2.5501871 -0.34391531 35 4 1.8432e-05
1.4463134 -3.1854241 0.55409092 59 12 2.0736001e-05
1.1523539 -2.5379946 -0.24386176 36 5 2.304e-05
1.4587915 -3.2143965 0.68614918 50 13 2.5343999e-05
