# .PCD v0.7 - Point Cloud Data file format
VERSION 0.7
FIELDS x y z intensity ring time
SIZE 4 4 4 4 2 4
TYPE F F F F U F
COUNT 1 1 1 1 1 1
WIDTH 910
HEIGHT 1
VIEWPOINT 0 0 0 1 0 0 0
POINTS 910
DATA ascii
-0.57808709 0.055663466 -0.091983475 2 3 -0.035538048
-1.0452619 0.1008314 0.12893778 100 11 -0.035535745
-1.0748825 0.10387785 -0.13259386 7 4 -0.035533439
-1.0499419 0.10165277 0.16707203 100 12 -0.035531137
-1.049051 0.10175132 -0.092210777 9 5 -0.035528831
-1.0395727 0.10083199 0.20302078 100 13 -0.035526529
-1.0138272 0.098513439 -0.053382684 4 6 -0.035524223
-1.060946 0.10327887 0.24609646 100 14 -0.035521921
-1.0707564 0.10442252 -0.01877879 100 7 -0.035519615
-1.0017254 0.097866952 0.26968947 84 15 -0.035517313
-0.51329857 0.050781578 -0.13820937 53 0 -0.035496578
-1.0526817 0.10432926 0.018464647 100 8 -0.035494272
-0.48480144 0.048133299 -0.11247552 36 1 -0.035491969
-1.0632874 0.10575517 0.05599948 100 9 -0.035489663
-1.0448158 0.10410237 0.09186215 100 10 -0.035485055
-1.0310767 0.10309668 0.1272316 100 11 -0.035480447
-1.0587116 0.10604676 -0.13064395 7 4 -0.035478145
-1.0338565 0.10373936 0.16456908 100 12 -0.035475839
-1.0645486 0.10700648 -0.093605265 10 5 -0.035473537
-1.0567951 0.10622711 0.20645534 100 13 -0.035471231
-0.97174567 0.097849637 -0.051184569 1 6 -0.035468929
-1.0567011 0.10659049 0.24519664 100 14 -0.035466623
-1.0743645 0.10856137 -0.0188486 100 7 -0.03546432
-0.99176753 0.10039029 0.26710126 100 15 -0.035462014
-0.52271783 0.053648897 -0.14079757 52 0 -0.035441279
-1.060268 0.10882011 0.018604266 100 8 -0.035438977
-0.49044609 0.050423082 -0.11382524 35 1 -0.035436671
-1.0350972 0.10660158 0.054534074 100 9 -0.035434369
-1.0503728 0.1085453 0.092385083 85 10 -0.035429761
-1.054386 0.10933226 -0.13015647 7 4 -0.035422847
-1.0275937 0.1067351 0.16363046 19 12 -0.035420544
-1.0522785 0.10948496 -0.092559397 10 5 -0.035418238
-1.0505407 0.10948949 0.20531049 100 13 -0.035415936
-0.97535342 0.10182516 -0.051393915 1 6 -0.03541363
-1.0446744 0.1092467 0.24249724 100 14 -0.035411328
-1.0660237 0.1114793 -0.01870898 100 7 -0.035409026
-0.99909645 0.10465667 0.26917183 100 15 -0.03540672
-0.49947467 0.053025741 -0.13458592 55 0 -0.035385985
-1.0598621 0.11270522 0.018604266 100 8 -0.035383679
-0.49413356 0.052633256 -0.11472505 35 1 -0.035381377
-1.0446489 0.1112721 0.055057433 100 9 -0.035379071
-1.061893 0.11385838 0.13113143 31 11 -0.035369854
-1.0599191 0.11364674 -0.13088769 6 4 -0.035367552
-1.0448916 0.11221991 0.16644628 41 12 -0.035365246
-1.045947 0.11251815 -0.092036456 12 5 -0.035362944
-1.05796 0.11399698 0.20683697 40 13 -0.035360642
-1.0027922 0.10822961 -0.052859318 2 6 -0.035358336
-1.0404314 0.11229193 0.24159741 100 14 -0.035356034
-1.0616519 0.11476993 -0.018639171 100 7 -0.035353728
-1.0044869 0.10876721 0.27072471 100 15 -0.035351425
-0.49545535 0.054261155 -0.13355063 55 0 -0.035330687
-1.0415926 0.11425684 0.018290123 100 8 -0.035328384
-0.49395627 0.054271474 -0.11472505 52 1 -0.035326079
-1.0416881 0.11481931 0.091687836 38 10 -0.035319168
-0.57725352 0.063729465 -0.091983475 2 3 -0.035316862
-1.0457251 0.11563375 0.12918152 70 11 -0.03531456
-1.0516444 0.11628829 -0.12991273 6 4 -0.035312258
-1.0366602 0.1148145 0.16519481 76 12 -0.035309952
-1.045568 0.11598605 -0.092036456 12 5 -0.03530765
-1.040143 0.11575154 -0.05484809 4 6 -0.035303041
-1.051674 0.11703476 0.24429685 93 14 -0.035300735
-1.0612655 0.1182899 -0.018639171 100 7 -0.035298433
-0.99644095 0.11124032 0.2686542 100 15 -0.035296127
-0.51830858 0.058504045 -0.13976228 53 0 -0.035275392
-1.0332597 0.11681174 0.018150503 100 8 -0.035273086
-0.48990089 0.055470705 -0.11382524 35 1 -0.035270784
-1.0656972 0.1208556 0.056208819 31 9 -0.035268478
-1.039322 0.11804823 0.091513529 83 10 -0.035263874
-0.57703906 0.065643236 -0.091983475 2 3 -0.035261568
-1.0354743 0.11797731 0.12796283 100 11 -0.035259265
-1.0551766 0.12040865 -0.13040021 4 4 -0.035256959
-1.0441035 0.11932968 0.16644628 100 12 -0.035254657
-1.0570337 0.12099434 -0.093082331 12 5 -0.035252351
-1.05523 0.12078788 0.20645534 14 13 -0.035250049
-1.0278478 0.11783529 -0.054220054 6 6 -0.035247743
-1.0396428 0.11937158 0.24159741 18 14 -0.035245441
-1.0668058 0.12267881 -0.018743884 100 7 -0.035243135
-0.9960466 0.11471789 0.2686542 100 15 -0.035240833
-0.50657749 0.059061054 -0.13665645 54 0 -0.035220098
-0.48389745 0.056502309 -0.11247552 36 1 -0.03521549
-1.0474151 0.12248702 0.055266771 96 9 -0.035213184
-1.0428399 0.12232096 0.09186215 100 10 -0.035208575
-0.52970928 0.062226512 -0.084474623 2 3 -0.035206273
-1.0429424 0.12251752 0.12893778 100 11 -0.035203967
-1.0527785 0.12385926 -0.13015647 3 4 -0.035201665
-1.0554514 0.1243605 0.16832352 100 12 -0.035199359
-1.0486902 0.12374941 -0.092385083 13 5 -0.035197057
-1.0684282 0.12626763 0.20912668 60 13 -0.035194751
-1.0611271 0.12559256 -0.05599948 12 6 -0.035192449
-1.0643559 0.12616307 0.24744615 72 14 -0.035190143
-1.0743144 0.12734349 -0.018883504 100 7 -0.03518784
-1.0109872 0.12001594 0.27279529 58 15 -0.035185535
-0.51979476 0.06244177 -0.14027993 53 0 -0.0351648
-1.0582074 0.12730765 0.018604266 34 8 -0.035162497
-0.49916512 0.06014045 -0.11607475 52 1 -0.035160191
-1.0568737 0.1275212 0.055790137 100 9 -0.035157889
-1.0483407 0.1266775 0.092385083 100 10 -0.035153281
-0.50203389 0.060752768 -0.080094457 2 3 -0.035150975
-1.0464276 0.12681668 0.12942526 100 11 -0.035148673
-1.0464054 0.12699956 -0.12942526 4 4 -0.035146367
-1.0294964 0.12512966 0.16425622 100 12 -0.035144065
-1.0521852 0.12807371 -0.092733704 12 5 -0.035141759
-1.0601853 0.12904751 0.20760021 92 13 -0.035139456
-1.0368911 0.12639575 -0.054743413 39 6 -0.03513715
-1.0406965 0.12704395 0.24204734 100 14 -0.035134848
-1.0659007 0.13030955 -0.018743884 57 7 -0.035132542
-1.0143756 0.12419015 0.27383056 14 15 -0.03513024
-0.52531403 0.065058954 -0.14183284 52 0 -0.035109505
-1.0418804 0.12903452 0.018325027 99 8 -0.035107199
-0.48928255 0.06068312 -0.11382524 35 1 -0.035104897
-1.05444 0.1309637 0.055685461 100 9 -0.035102591
-1.0399609 0.12953372 0.091687836 100 10 -0.035097983
-0.52140969 0.065037422 -0.083223142 2 3 -0.035095681
-1.0499183 0.13096032 0.12991273 100 11 -0.035093375
-1.0617139 0.13261983 -0.13137516 5 4 -0.035091072
-1.0114124 0.12651563 0.16144039 98 12 -0.035088766
-1.0359163 0.12976465 -0.091339223 12 5 -0.035086464
-1.0597053 0.13293244 0.20760021 100 13 -0.035084158
-1.042366 0.1309419 -0.055057433 50 6 -0.035081856
-1.0440907 0.1313439 0.24294713 100 14 -0.035079554
-1.0773437 0.13552703 -0.018953314 20 7 -0.035077248
-1.0101024 0.12724733 0.27279529 100 15 -0.035074946
-0.49825466 0.06347429 -0.13458592 55 0 -0.035054207
-1.0493349 0.1338643 0.018464647 100 8 -0.035051905
-0.50452107 0.064451672 -0.11742445 51 1 -0.035049599
-1.0519953 0.13439053 0.055580791 100 9 -0.035047296
-1.0355499 0.13265704 0.091339223 100 10 -0.035042688
-0.49374899 0.06333831 -0.078842975 2 3 -0.035040382
-1.0553379 0.13556612 0.13064395 100 11 -0.03503808
-1.0651824 0.13683072 -0.13186264 6 4 -0.035035774
-1.0188015 0.13105372 0.16269186 28 12 -0.035033472
-1.0453373 0.13465261 -0.092210777 10 5 -0.03503117
-1.0494992 0.13537467 0.20569211 100 13 -0.035028864
-1.0597298 0.13688259 -0.05599948 47 6 -0.035026561
-1.0455822 0.13505518 0.24339703 100 14 -0.035024256
-1.088763 0.14082593 -0.019162742 57 7 -0.035021953
-0.99624127 0.12903525 0.26917183 100 15 -0.035019647
-0.51719683 0.067631073 -0.13976228 53 0 -0.034998912
-1.0469023 0.13708368 0.018429741 100 8 -0.034996606
-0.49657577 0.065110989 -0.11562484 35 1 -0.034994304
-1.0515438 0.13787837 0.055580791 100 9 -0.034991998
-1.0370797 0.13634981 0.091513529 100 10 -0.034987394
-0.48961926 0.064459637 -0.078217238 3 3 -0.034985088
-1.039138 0.13698941 0.12869403 100 11 -0.034982786
-1.0529145 0.13880558 -0.13040021 6 4 -0.03498048
-1.0457789 0.13805057 0.16707203 42 12 -0.034978177
-1.0409346 0.13759618 -0.09186215 10 5 -0.034975871
-1.0412594 0.13782378 0.20416564 100 13 -0.034973569
-1.0434304 0.13829669 -0.055162102 48 6 -0.034971263
-1.052856 0.13954595 0.24519664 100 14 -0.034968961
-1.0863078 0.14417259 -0.019127838 100 7 -0.034966655
-0.9881478 0.13132025 0.26710126 100 15 -0.034964353
-0.49590796 0.066520609 -0.13406827 55 0 -0.034943614
-1.0484239 0.14082083 0.018464647 100 8 -0.034941312
-1.0391798 0.13994847 0.054952759 100 9 -0.034936704
-1.0346473 0.13952193 0.091339223 100 10 -0.034932096
-0.52072459 0.070312239 -0.083223142 2 3 -0.034929793
-1.0308093 0.13937072 0.12771909 100 11 -0.034927487
-1.0504564 0.14221381 -0.13015647 6 4 -0.034925185
-1.0433329 0.1414351 0.16675916 79 12 -0.034922879
-1.0424467 0.14131497 -0.092036456 9 5 -0.034920577
-1.0446873 0.14180411 0.20492886 100 13 -0.034918271
-1.0310918 0.14014195 -0.054534074 49 6 -0.034915969
-1.0446386 0.14216912 0.24339703 100 14 -0.034913663
-1.0719283 0.14607336 -0.018883504 100 7 -0.034911361
-0.99725395 0.13607465 0.26968947 100 15 -0.034909055
-0.5262934 0.072467551 -0.14235048 52 0 -0.03488832
-1.0518878 0.14502592 0.018534455 100 8 -0.034886017
-0.48260802 0.066623986 -0.11247552 54 1 -0.034883711
-1.0386851 0.14357507 0.054952759 100 9 -0.034881409
-1.0420481 0.14422528 0.092036456 100 10 -0.034876801
-0.50090927 0.069417737 -0.080094457 2 3 -0.034874495
-1.0322827 0.14324093 0.12796283 53 11 -0.034872193
-1.0381563 0.14424063 -0.12869403 4 4 -0.034869887
-1.0369633 0.14425935 0.16582055 100 12 -0.034867585
-1.0380006 0.14440364 -0.091687836 4 5 -0.034865279
-1.0480751 0.14599165 0.20569211 100 13 -0.034862977
-1.0464213 0.14594771 -0.055371448 47 6 -0.034860671
-1.0364159 0.14473665 0.24159741 100 14 -0.034858368
-1.0555685 0.14759885 -0.018604266 100 7 -0.034856062
-1.0063388 0.14089446 0.27227765 100 15 -0.03485376
-0.49543148 0.069981076 -0.13406827 55 0 -0.034833025
-1.0553352 0.14925691 0.018604266 100 8 -0.034830719
-0.48623151 0.068854667 -0.11337533 53 1 -0.034828417
-1.032245 0.14635877 0.054638743 72 9 -0.034826111
-1.0218123 0.14506148 0.090293348 72 10 -0.034821503
-1.041577 0.14842372 -0.12918152 3 4 -0.034814592
-1.0325422 0.14732015 0.16519481 100 12 -0.034812286
-1.0098512 0.14426249 -0.08924748 3 5 -0.034809984
-1.0553331 0.15075983 0.20721859 100 13 -0.034807678
-1.0379969 0.14846836 -0.054952759 48 6 -0.034805376
-1.0397626 0.14890584 0.24249724 100 14 -0.03480307
-1.0451494 0.14986344 -0.018429741 100 7 -0.034800768
-1.0058409 0.14440639 0.27227765 100 15 -0.034798466
-0.49325982 0.071519263 -0.13355063 55 0 -0.034777727
-1.0211648 0.14806184 0.018010885 41 8 -0.034775425
-0.49177381 0.071391433 -0.11472505 52 1 -0.034773119
-0.48867154 0.071289435 -0.078217238 3 3 -0.034763902
-1.0312575 0.15044414 0.12796283 13 11 -0.0347616
-1.0508739 0.15349315 -0.13040021 1 4 -0.034759294
-1.0261581 0.15006602 0.16425622 100 12 -0.034756992
-0.98371357 0.1440345 -0.086981431 1 5 -0.034754686
-1.0470035 0.15348776 0.20569211 100 13 -0.034752384
-1.0512784 0.15430185 -0.055685461 46 6 -0.034750082
-1.0392098 0.15271604 0.24249724 100 14 -0.034747776
-1.0564907 0.15525553 -0.018639171 100 7 -0.034745473
-0.98430669 0.14482304 0.26658365 100 15 -0.034743167
-0.49491802 0.07352452 -0.13406827 55 0 -0.034722432
-1.0265491 0.15268596 0.018115599 9 8 -0.034720127
-1.0687042 0.15933755 0.056627508 56 9 -0.034715518
-1.0207481 0.15236942 0.090293348 5 10 -0.03471091
-0.51186395 0.076498553 -0.081971675 2 3 -0.034708608
-1.028736 0.15392913 0.12771909 11 11 -0.034706306
-1.0542305 0.1579317 -0.13088769 1 4 -0.034704
-1.0275546 0.15411907 0.16456908 100 12 -0.034701698
-0.99502689 0.14924037 -0.088027291 1 5 -0.034699392
-1.0386955 0.1559754 0.20416564 100 13 -0.034697089
-1.0546834 0.15856472 -0.055894807 27 6 -0.034694783
-1.0463786 0.15750265 0.24429685 100 14 -0.034692481
-1.0598693 0.15972245 -0.01870898 100 7 -0.034690175
-0.99905103 0.15073569 0.27072471 100 15 -0.034687873
-0.5252164 0.079900287 -0.14235048 52 0 -0.034667134
-1.0358944 0.15777385 0.018290123 63 8 -0.034664832
-0.4873974 0.074321136 -0.11382524 35 1 -0.03466253
-1.0266796 0.15673707 0.054429401 100 9 -0.034660224
-1.0438442 0.15954418 0.092385083 5 10 -0.034655616
-0.49597254 0.07589446 -0.07946872 2 3 -0.034653313
-1.04389 0.15992381 0.12966898 41 11 -0.034651008
-0.99873269 0.15318434 -0.124063 1 4 -0.034648705
-1.021153 0.15680555 0.16363046 90 12 -0.034646399
-1.0063158 0.15452722 -0.089073166 1 5 -0.034644097
-1.0400851 0.15989853 0.20454726 100 13 -0.034641791
-0.96529287 0.14857273 -0.051184569 3 6 -0.034639489
-1.0381185 0.15996711 0.24249724 100 14 -0.034637183
-1.0593053 0.16342114 -0.01870898 100 7 -0.034634881
-1.0023372 0.15481165 0.27176002 100 15 -0.034632575
-0.52302551 0.081435964 -0.14183284 52 0 -0.03461184
-1.0432405 0.16262107 0.018429741 100 8 -0.034609538
-1.0498061 0.16401961 0.055685461 100 9 -0.034604929
-1.0472178 0.16380271 0.092733704 29 10 -0.034600321
-0.49180147 0.077013947 -0.078842975 2 3 -0.034598015
-1.0335197 0.16202945 0.12845029 87 11 -0.034595713
-1.0205994 0.16036911 0.16363046 33 12 -0.034591105
-0.9467231 0.14876077 -0.083843827 2 5 -0.034588799
-1.0453389 0.16444343 0.20569211 100 13 -0.034586497
-0.99633545 0.15691283 -0.052859318 1 6 -0.034584191
-1.0298538 0.16237585 0.24069762 100 14 -0.034581888
-1.046877 0.16524711 -0.018499551 84 7 -0.034579583
-1.0017908 0.15830955 0.27176002 100 15 -0.03457728
-0.49221319 0.07839933 -0.13355063 55 0 -0.034556545
-1.0485908 0.16720612 0.018534455 100 8 -0.034554239
-0.48301792 0.077107482 -0.11292543 35 1 -0.034551937
-1.0407377 0.16651268 0.092210777 82 10 -0.034545023
-0.52273786 0.083728932 -0.083848879 2 3 -0.034542721
-1.036868 0.166265 0.12893778 100 11 -0.034540415
-1.0473382 0.16831866 0.16801062 40 12 -0.034535807
-0.92259228 0.14827064 -0.081752084 3 5 -0.034533504
-1.048635 0.16871506 0.20645534 100 13 -0.034531198
-1.0194439 0.16420102 -0.054115385 1 6 -0.034528896
-1.0408242 0.16783084 0.24339703 100 14 -0.03452659
-0.99741781 0.16118912 0.27072471 100 15 -0.034521982
-0.50145596 0.081757061 -0.13613883 54 0 -0.03450346
-1.0223144 0.16686067 0.018080693 24 8 -0.034501158
-0.49234822 0.080448702 -0.11517494 35 1 -0.034498852
-1.0683466 0.17456567 0.056732185 18 9 -0.03449655
-1.0243907 0.16775049 0.090816282 100 10 -0.034491941
-0.49903518 0.081809618 -0.080094457 2 3 -0.034489635
-1.048005 0.17199284 0.13040021 100 11 -0.034487333
-1.0350488 0.1700523 0.16613342 62 12 -0.034482725
-0.8591314 0.14130412 -0.076174118 5 5 -0.034480419
-1.0441353 0.17191924 0.20569211 100 13 -0.034478117
-1.0523365 0.17345847 -0.055894807 6 6 -0.034475811
-1.0440775 0.17209713 0.24429685 100 14 -0.034473509
-1.0595088 0.17483063 -0.018743884 17 7 -0.034471203
-1.0006611 0.16529928 0.27176002 100 15 -0.0344689
-0.48403129 0.080564857 -0.13148008 56 0 -0.034448165
-1.0296454 0.17156458 0.018220313 15 8 -0.034445859
-0.49015656 0.081760332 -0.11472505 52 1 -0.034443557
-1.0559416 0.17613582 0.05610415 59 9 -0.034441251
-1.0336545 0.17278884 0.091687836 100 10 -0.034436643
-1.0298085 0.17251547 0.12820657 100 11 -0.034432035
-1.0383756 0.17413695 0.16675916 100 12 -0.034427427
-0.87437725 0.14679132 -0.077568613 4 5 -0.034425125
-1.0396872 0.17473002 0.20492886 100 13 -0.034422819
-1.0300901 0.17330225 -0.054743413 3 6 -0.034420516
-1.0473446 0.17620513 0.24519664 100 14 -0.03441821
-1.041176 0.17535418 -0.018429741 55 7 -0.034415908
-0.99629754 0.16797437 0.27072471 100 15 -0.034413602
-0.5085209 0.086375065 -0.13820937 53 0 -0.034392867
-1.0310422 0.17531332 0.018255217 66 8 -0.034390565
-1.0376004 0.17680109 0.055162102 100 9 -0.034385957
-1.0350398 0.17655066 0.09186215 100 10 -0.034381349
-0.50237602 0.085782543 -0.080720194 2 3 -0.034379043
-1.0351009 0.17693293 0.12893778 100 11 -0.03437674
-1.0397085 0.1780943 0.16707203 100 12 -0.034372132
-0.91313416 0.15657687 -0.081054844 3 5 -0.034369826
-1.0468421 0.17950404 0.20645534 100 13 -0.034367524
-1.0351995 0.1778799 0.24249724 100 14 -0.034362916
-1.0523821 0.18102124 -0.018639171 52 7 -0.034360614
-0.99951279 0.17210674 0.27176002 100 15 -0.034358308
-0.51391107 0.089229636 -0.13976228 53 0 -0.034337573
-1.0304241 0.17891103 0.018255217 100 8 -0.034335267
-0.47998887 0.083426192 -0.11247552 54 1 -0.034332965
-1.0428801 0.18144903 0.055476118 100 9 -0.034330659
-1.0383114 0.18102755 0.092210777 100 10 -0.03432605
-0.51762593 0.090340145 -0.083223142 2 3 -0.034323748
-1.034477 0.18054505 0.12893778 100 11 -0.034321442
-1.0312971 0.18036103 0.16582055 100 12 -0.034316838
-0.94398272 0.16526061 -0.083843827 5 5 -0.034314532
-1.0461771 0.18333997 0.20645534 100 13 -0.03431223
-0.99344522 0.17427729 -0.052859318 1 6 -0.034309924
-1.0307019 0.18099855 0.24159741 100 14 -0.034307621
-1.0458351 0.18365605 -0.018534455 28 7 -0.034305315
-1.0046139 0.1765983 0.2733129 94 15 -0.034303013
-0.50028104 0.088663258 -0.13613883 54 0 -0.034282275
-1.0533888 0.18687846 0.018674076 100 8 -0.034279972
-1.0382751 0.18457103 0.055266771 100 9 -0.034275364
-1.0259036 0.1825565 0.091164902 100 10 -0.034270756
-0.49785981 0.088682309 -0.080094457 2 3 -0.034268454
-1.0338084 0.18433541 0.12893778 100 11 -0.034266148
-1.017017 0.18170768 0.16363046 100 12 -0.03426154
-0.95320672 0.17030688 -0.084715381 4 5 -0.034259237
-1.0513287 0.1880274 0.20760021 100 13 -0.034256931
-1.0377365 0.18597031 0.24339703 100 14 -0.034252323
-1.0372819 0.18607569 -0.018394835 15 7 -0.034250021
-0.99255127 0.17823036 0.27020708 86 15 -0.034247715
-0.49426541 0.089377761 -0.13458592 55 0 -0.03422698
-1.0369883 0.18770497 0.018394835 100 8 -0.034224674
-0.48513222 0.087900974 -0.11382524 53 1 -0.034222372
-1.0395898 0.18855064 0.055371448 100 9 -0.03422007
-1.0232997 0.18578056 0.090990596 100 10 -0.034215461
-0.50143433 0.091126047 -0.080720194 2 3 -0.034213156
-1.0468298 0.19042994 0.13064395 100 11 -0.034210853
-1.0280366 0.18738197 0.16550769 100 12 -0.034206245
-0.96828717 0.17649134 -0.086109869 3 5 -0.034203939
-1.050666 0.19169611 0.20760021 66 13 -0.034201637
-1.040915 0.19029249 0.24429685 100 14 -0.034197029
-1.0346589 0.18933541 -0.018359931 7 7 -0.034194723
-0.98812276 0.18099783 0.26917183 86 15 -0.034192421
-0.5015496 0.092504099 -0.13665645 54 0 -0.034171686
-1.0284609 0.18987118 0.018255217 100 8 -0.03416938
-0.48098981 0.088885739 -0.11292543 53 1 -0.034167077
-1.0487788 0.19381174 0.055894807 100 9 -0.034164771
-1.0206859 0.18898848 0.090816282 100 10 -0.034160163
-0.48945934 0.090715922 -0.078842975 2 3 -0.034157861
-1.034448 0.19191036 0.12918152 100 11 -0.034155555
-1.031294 0.19151115 0.16613342 100 12 -0.034150947
-0.95003563 0.17659324 -0.084541067 4 5 -0.034148645
-1.0326192 0.19213039 0.20416564 12 13 -0.034146339
-1.0479074 0.19535337 0.24609646 100 14 -0.034141731
-1.0635128 0.19826257 -0.018883504 17 7 -0.034139428
-0.98941612 0.18462797 0.26968947 82 15 -0.034137122
-0.51261514 0.096396312 -0.13976228 53 0 -0.034116387
-1.0238951 0.19254155 0.018185407 100 8 -0.034114085
-1.0422077 0.19636212 0.055580791 100 9 -0.034109477
-1.0258936 0.1936592 0.091339223 100 10 -0.034104869
-0.51633114 0.097468473 -0.083223142 2 3 -0.034102563
-1.0318553 0.19497113 0.12893778 100 11 -0.034100261
-1.0325601 0.19547759 0.16644628 100 12 -0.034095652
-0.94158328 0.17842467 -0.083843827 2 5 -0.034093346
-1.0609102 0.20103645 0.2098899 30 13 -0.034091044
-1.030023 0.19555594 0.24204734 100 14 -0.034086436
-1.047098 0.19898708 -0.018604266 28 7 -0.034084134
-0.9963569 0.18952434 0.27176002 82 15 -0.034081828
-0.51229262 0.098095693 -0.13976228 53 0 -0.034061093
-1.0350004 0.19837299 0.018394835 100 8 -0.034058787
-0.48037365 0.092157677 -0.11292543 53 1 -0.034056485
-1.027786 0.19736218 0.05484809 100 9 -0.034054179
-1.0389417 0.19969238 0.092559397 100 10 -0.034049571
-0.50434893 0.097031042 -0.081345931 2 3 -0.034047268
-1.0311686 0.19857158 0.12893778 100 11 -0.034044962
-1.0221734 0.19720969 0.16488194 100 12 -0.034040354
-0.88226736 0.17037685 -0.078614481 4 5 -0.034038052
-1.0544193 0.20362154 0.20874506 70 13 -0.03403575
-1.0255075 0.19840989 0.24114752 100 14 -0.034031142
-1.0503235 0.20340107 -0.018674076 44 7 -0.034028836
-0.99568921 0.19300139 0.27176002 82 15 -0.034026533
-0.49107325 0.09589985 -0.13406827 55 0 -0.034005795
-1.0401895 0.20313472 0.018499551 100 8 -0.034003492
-0.48578668 0.094955355 -0.11427514 35 1 -0.034001186
-1.0368912 0.20286611 0.055371448 100 9 -0.033998884
-1.0323372 0.20234923 0.092036456 100 10 -0.033994276
-0.52337414 0.10268184 -0.084474623 2 3 -0.03399197
-1.0343649 0.20293418 0.12942526 100 11 -0.033989668
-1.0137256 0.1992524 0.16363046 100 12 -0.03398506
-1.0498132 0.20672643 0.20798181 100 13 -0.033980452
-1.0247734 0.202167 0.24114752 100 14 -0.033975843
-1.0378357 0.20474394 -0.018464647 68 7 -0.033973541
-0.98932362 0.19535311 0.27020708 84 15 -0.033971235
-0.47936717 0.095352016 -0.13096245 56 0 -0.0339505
-1.0315932 0.20538373 0.018359931 100 8 -0.033948194
-0.49690241 0.09902031 -0.11697455 51 1 -0.033945892
-1.0361408 0.20666514 0.055371448 100 9 -0.033943586
-1.0140402 0.20244107 0.090467662 100 10 -0.033938982
-0.54238331 0.10837895 -0.087603308 2 3 -0.033936676
-1.0336143 0.20672397 0.12942526 100 11 -0.033934373
-1.0207361 0.20451914 0.16488194 100 12 -0.033929765
-1.0336857 0.20730118 0.20492886 100 13 -0.033925157
-1.0336142 0.2076624 0.24339703 91 14 -0.033920549
-1.0664852 0.21445985 -0.018988218 100 7 -0.033918243
-0.99049491 0.19935882 0.27072471 82 15 -0.033915941
-0.5074324 0.10277721 -0.13872701 53 0 -0.033895206
-1.0249906 0.20779154 0.018255217 100 8 -0.0338929
-0.48127511 0.097654097 -0.11337533 53 1 -0.033890598
-1.035413 0.21028073 0.055371448 100 9 -0.033888292
-1.0250421 0.20836078 0.091513529 100 10 -0.033883683
-0.50328737 0.10239492 -0.081345931 2 3 -0.033881381
-1.0367768 0.21112294 0.12991273 100 11 -0.033879075
-1.0316291 0.21044974 0.16675916 100 12 -0.033874467
-1.0329559 0.21090819 0.20492886 100 13 -0.033869859
-1.0347924 0.21165945 0.24384695 45 14 -0.033865251
-1.0520165 0.21537381 -0.018743884 100 7 -0.033862948
-0.98790038 0.20242754 0.27020708 76 15 -0.033860642
-0.51085466 0.10532807 -0.13976228 53 0 -0.033839907
-1.0262175 0.21177208 0.018290123 100 8 -0.033837605
-1.0248932 0.21187206 0.05484809 100 9 -0.033832997
-1.0243084 0.21193761 0.091513529 100 10 -0.033828389
-0.50292683 0.10415111 -0.081345931 2 3 -0.033826083
-1.0204831 0.21151757 0.12796283 100 11 -0.033823781
-1.0308882 0.21404955 0.16675916 100 12 -0.033819173
-1.0322133 0.21451262 0.20492886 100 13 -0.033814564
-1.0610467 0.2210843 -0.01891841 100 7 -0.03380765
-0.99286133 0.20705795 0.27176002 78 15 -0.033805348
-0.49535853 0.1039369 -0.13562119 54 0 -0.033784613
-1.0293859 0.21617517 0.018359931 100 8 -0.033782307
-0.49011698 0.10301585 -0.11562484 52 1 -0.033780005
-1.0280564 0.21627042 0.055057433 100 9 -0.033777699
-1.0255121 0.21592234 0.091687836 100 10 -0.033773091
-0.51029193 0.10753535 -0.082597405 2 3 -0.033770788
-1.0236233 0.21589756 0.12845029 100 11 -0.033768483
-1.0243366 0.21642172 0.16582055 100 12 -0.033763874
-1.0429831 0.22055174 0.20721859 100 13 -0.033759266
-1.0371023 0.21968615 0.24474674 34 14 -0.033754662
-1.0485311 0.22229855 -0.01870898 100 7 -0.033752356
-1.0015814 0.21252719 0.2743482 73 15 -0.033750053
-0.51577473 0.11010185 -0.14131519 52 0 -0.033729315
-1.0384028 0.22185615 0.018534455 100 8 -0.033727013
-0.49166012 0.10513345 -0.11607475 52 1 -0.033724707
-1.0253421 0.21943997 0.054952759 100 9 -0.033722404
-1.0189075 0.21824884 0.091164902 100 10 -0.033717796
-0.5446803 0.11676919 -0.088229045 2 3 -0.03371549
-1.0306271 0.22113544 0.12942526 100 11 -0.033713188
-1.0119873 0.21750528 0.16394335 100 12 -0.03370858
-1.0460454 0.22501661 0.20798181 100 13 -0.033703972
-1.0496643 0.22617815 0.24789605 78 14 -0.033699363
-1.0438393 0.22511393 -0.018639171 100 7 -0.033697061
-0.9838382 0.21235378 0.26968947 34 15 -0.033694755
-0.50783587 0.11026201 -0.13924466 53 0 -0.03367402
-1.0219893 0.22208226 0.018255217 100 8 -0.033671714
-0.49700278 0.10809147 -0.11742445 34 1 -0.033669412
-1.0343276 0.22514176 0.055476118 100 9 -0.033667106
-1.0142461 0.22095574 0.090816282 100 10 -0.033662502
-0.54040927 0.11782828 -0.087603308 2 3 -0.033660196
-1.0376068 0.22642459 0.13040021 100 11 -0.033657894
-1.018941 0.22272399 0.16519481 100 12 -0.033653285
-1.0299104 0.22531006 0.20492886 100 13 -0.033648677
-1.0412542 0.22817256 0.24609646 93 14 -0.033644069
-1.0469537 0.22961302 -0.01870898 100 7 -0.033641763
-0.97743011 0.21454422 0.26813653 7 15 -0.033639461
-0.49047011 0.10828556 -0.13458592 55 0 -0.033618722
-1.0173029 0.22478543 0.018185407 100 8 -0.03361642
-0.48901135 0.10814264 -0.11562484 35 1 -0.033614118
-1.0374756 0.22943303 0.055685461 100 9 -0.033611812
-1.0134686 0.2244948 0.090816282 100 10 -0.033607204
-0.52842343 0.11714867 -0.085726097 2 3 -0.033604901
-1.0271204 0.22789496 0.12918152 100 11 -0.033602595
-1.0201253 0.22652973 0.16550769 100 12 -0.033597987
-1.0233685 0.227625 0.20378402 100 13 -0.033593379
-1.0423939 0.23204771 0.24654636 78 14 -0.033588771
-1.0461864 0.23308362 -0.01870898 100 7 -0.033586469
-0.98614097 0.21988653 0.27072471 42 15 -0.033584163
-0.51084369 0.11456154 -0.14027993 53 0 -0.033563428
-1.020454 0.22903357 0.018255217 100 8 -0.033561125
-1.0289143 0.23112105 0.055266771 100 9 -0.033556517
-1.0243813 0.23047844 0.09186215 100 10 -0.033551909
-0.50876075 0.11456092 -0.082597405 2 3 -0.033549603
-1.0244224 0.23086339 0.12893778 100 11 -0.033547301
-1.0232223 0.23078059 0.16613342 100 12 -0.033542693
-1.030268 0.23274787 0.20531049 95 13 -0.033538084
-1.0340157 0.23378392 0.24474674 25 14 -0.033533476
-1.0454079 0.23655166 -0.01870898 100 7 -0.03353117
-0.97786987 0.22144878 0.2686542 52 15 -0.033528868
-0.50292641 0.11453901 -0.13820937 53 0 -0.033508133
-1.0235884 0.2333051 0.018325027 100 8 -0.033505827
-1.0183655 0.23248859 0.054743413 100 9 -0.033501219
-1.0274962 0.23476177 0.092210777 100 10 -0.033496611
-0.50837803 0.1162473 -0.082597405 2 3 -0.033494309
-1.0275214 0.23514493 0.12942526 100 11 -0.033492003
-1.0147089 0.23258559 0.16488194 100 12 -0.033487394
-1.0390582 0.23835796 0.20721859 54 13 -0.033482786
-1.0445757 0.24019939 -0.01870898 100 7 -0.033475876
-0.99780005 0.22962648 0.2743482 40 15 -0.033473574
-0.49685711 0.1150739 -0.13665645 54 0 -0.033452835
-1.0364046 0.24003504 0.01856936 100 8 -0.033450533
-0.48409483 0.11220712 -0.11472505 52 1 -0.033448227
-1.0253301 0.23784727 0.055162102 100 9 -0.033445925
-1.0188659 0.23672281 0.091513529 100 10 -0.033441316
-0.5387333 0.125268 -0.087603308 2 3 -0.03343901
-1.0286278 0.23917982 0.12966898 100 11 -0.033436708
-0.98695618 0.22985362 0.16050178 64 12 -0.0334321
-1.0359418 0.24202423 -0.01856936 100 7 -0.033420581
-0.99134898 0.23178858 0.27279529 33 15 -0.033418275
-0.47764742 0.11238293 -0.13148008 56 0 -0.03339754
-1.0218927 0.24062376 0.018325027 100 8 -0.033395234
-0.47798988 0.11263971 -0.11337533 53 1 -0.033392932
-1.0283395 0.24252038 0.055371448 100 9 -0.033390626
-1.0141553 0.2393623 0.091164902 100 10 -0.033386018
-0.49984333 0.1180658 -0.081345931 2 3 -0.033383716
-1.0238805 0.24203525 0.12918152 100 11 -0.033381414
-1.0408845 0.24720597 -0.018674076 100 7 -0.033365283
-0.98297483 0.23363365 0.27072471 28 15 -0.033362981
-0.49604166 0.11853981 -0.13665645 54 0 -0.033342242
-1.0171567 0.24325913 0.018255217 100 8 -0.03333994
-0.50412679 0.12065785 -0.11967396 50 1 -0.033337638
-1.0274866 0.24610876 0.055371448 100 9 -0.033335332
-1.0113759 0.24243648 0.090990596 100 10 -0.033330724
-0.50711167 0.12165298 -0.082597405 2 3 -0.033328421
-1.0095176 0.24236368 0.12747534 38 11 -0.033326115
-1.0497351 0.25318187 -0.0188486 100 7 -0.033309989
-0.98778713 0.23842332 0.27227765 28 15 -0.033307683
-0.49562481 0.12027061 -0.13665645 54 0 -0.033286948
-1.020188 0.24775182 0.018325027 100 8 -0.033284646
-0.48287278 0.1173545 -0.11472505 52 1 -0.03328234
-1.0227399 0.24874985 0.055162102 100 9 -0.033280037
-1.0124595 0.24643637 0.091164902 56 10 -0.033275429
-0.4990069 0.12155249 -0.081345931 2 3 -0.033273123
-0.75905025 0.18573835 0.18041074 8 14 -0.033256996
-1.0469027 0.25636902 -0.018813694 100 7 -0.03325469
-0.98882508 0.24232973 0.27279529 27 15 -0.033252388
-0.495202 0.12199983 -0.13665645 54 0 -0.033231653
-1.0173753 0.25083274 0.018290123 100 8 -0.033229347
-0.4957042 0.12230721 -0.11787436 51 1 -0.033227045
-1.0160483 0.25088206 0.05484809 79 9 -0.033224739
-0.51775563 0.12803568 -0.084474623 2 3 -0.033217829
-0.7190119 0.17820382 0.11732586 3 12 -0.033210915
-0.72409624 0.17959808 0.14501485 6 13 -0.033206306
-0.72057199 0.17899098 0.17141271 9 14 -0.033201698
-1.0382388 0.25809219 -0.018674076 100 7 -0.033199396
-0.98797315 0.24577992 0.27279529 27 15 -0.03319709
-0.49666899 0.12410968 -0.1371741 54 0 -0.033180475
-1.0204178 0.25517538 0.018359931 100 8 -0.033178173
-0.48206279 0.12063872 -0.11472505 35 1 -0.033175867
-0.50583202 0.12686856 -0.082597405 2 3 -0.033166651
-0.68776453 0.17288214 0.11231996 4 12 -0.03315974
-0.74634391 0.18774562 0.14959426 6 13 -0.033155132
-0.74265081 0.18709224 0.17681152 8 14 -0.033150524
-1.0296211 0.25957832 -0.018534455 65 7 -0.033148218
-0.98340642 0.24810943 0.27176002 25 15 -0.033145916
-0.49248758 0.12489288 -0.13613883 54 0 -0.033125181
-0.9865706 0.2503736 0.017766548 27 8 -0.033122875
-0.48163873 0.12232071 -0.11472505 35 1 -0.033120573
-0.50538611 0.12863348 -0.082597405 2 3 -0.033111356
-0.62131816 0.15837204 -0.078727603 6 4 -0.033106748
-0.68524283 0.17479362 0.11200709 8 12 -0.033104442
-0.77231562 0.19714774 0.15493691 5 13 -0.033099834
-0.74954528 0.19161409 0.17861113 8 14 -0.033095226
-1.0209596 0.26118815 -0.018394835 7 7 -0.033092923
-0.97504842 0.2496244 0.26968947 13 15 -0.033090618
-0.48643592 0.12516701 -0.13458592 55 0 -0.033069883
-0.47743464 0.12302854 -0.11382524 53 1 -0.033065274
-0.5623129 0.14521453 -0.091983475 2 3 -0.033056058
-0.70535541 0.18228586 0.089452103 8 11 -0.033053756
-0.62076157 0.16053991 -0.078727603 6 4 -0.03305145
-0.69992751 0.18114378 0.11451004 8 12 -0.033049148
-0.7222085 0.18704465 0.14501485 6 13 -0.033044539
-0.76773518 0.19912159 0.18311015 7 14 -0.033039931
-0.91994655 0.23894246 0.25467795 1 15 -0.033035323
-0.48223564 0.12597251 -0.13355063 55 0 -0.033014588
-0.48265842 0.12617294 -0.11517494 52 1 -0.03300998
-0.72275651 0.18934189 0.065366805 6 10 -0.033003066
-0.56177688 0.14727469 -0.091983475 2 3 -0.033000764
-0.68935317 0.18071993 0.087502196 8 11 -0.032998458
-0.60483652 0.15867582 -0.076777697 7 4 -0.032996155
-0.68400586 0.17957309 0.11200709 8 12 -0.032993853
-0.72151804 0.18969043 0.14501485 6 13 -0.032989245
-0.74061686 0.19498821 0.17681152 8 14 -0.032984637
-0.5191412 0.1375508 -0.1439034 51 0 -0.03295929
-0.47654203 0.12644182 -0.11382524 35 1 -0.032954682
-0.66047263 0.17549129 0.059788838 7 10 -0.032947771
-0.53453273 0.14212821 -0.087603308 2 3 -0.032945469
-0.69060451 0.18375558 0.087745935 17 11 -0.032943163
-0.60425091 0.16089159 -0.076777697 7 4 -0.032940861
-0.68146604 0.18145138 0.11169422 8 12 -0.032938555
-0.73223335 0.19524273 0.14730455 6 13 -0.032933947
-0.75499398 0.20159392 0.18041074 8 14 -0.032929339
-0.4850758 0.1303387 -0.13458592 55 0 -0.032903995
-0.84007019 0.22572482 0.015183594 4 8 -0.032901689
-0.47988394 0.12903345 -0.11472505 35 1 -0.032899387
-0.68467492 0.18422675 0.037158534 9 9 -0.032897085
-0.66755122 0.17986913 0.060486082 7 10 -0.032892477
-0.56076145 0.15109503 -0.091983475 2 3 -0.032890171
-0.69957459 0.18862869 0.088964626 8 11 -0.032887869
-0.56921607 0.15358624 -0.0723904 7 4 -0.032885563
-0.67892134 0.1833141 0.11138135 8 12 -0.03288326
-0.76948768 0.20791182 0.15493691 5 13 -0.032878652
-0.75432134 0.2040965 0.18041074 8 14 -0.032874044
-0.48277685 0.13143906 -0.13406827 55 0 -0.032848701
-0.66177487 0.1802963 0.011972351 8 8 -0.032846395
-0.49259144 0.13429585 -0.11787436 51 1 -0.032844093
-0.68984103 0.18807225 0.037472546 17 9 -0.032841787
-0.65541881 0.17893332 0.059440218 16 10 -0.032837179
-0.5221197 0.14263991 -0.085726097 2 3 -0.032834876
-0.69508219 0.19002254 0.08847715 16 11 -0.03283257
-0.56101751 0.15347701 -0.071415439 7 4 -0.032830268
-0.68593115 0.1876495 0.11263283 8 12 -0.032827962
-0.60532999 0.16571307 -0.054908119 11 5 -0.03282566
-0.7536093 0.2064469 0.15188397 5 13 -0.032823354
-0.77615607 0.21291474 0.18580957 7 14 -0.032818746
-0.9165647 0.25160357 0.25467795 1 15 -0.032814138
-0.4916262 0.13569331 -0.13665645 54 0 -0.032793403
-0.62647617 0.17291313 0.011344064 28 8 -0.0327911
-0.48087287 0.13281573 -0.11517494 52 1 -0.032788794
-0.68918031 0.19047913 0.037472546 17 9 -0.032786492
-0.66631138 0.18440886 0.060486082 15 10 -0.032781884
-0.51022094 0.14120914 -0.083848879 2 3 -0.032779578
-0.67914361 0.18808793 0.086527243 8 11 -0.032777276
-0.56815749 0.15745708 -0.0723904 7 4 -0.03277497
-0.70430726 0.19532166 0.11576151 7 12 -0.032772668
-0.56635112 0.15716949 -0.051421888 13 5 -0.032770362
-0.76805466 0.21314473 0.15493691 5 13 -0.03276806
-0.7754457 0.21548739 0.18580957 7 14 -0.032763451
-0.49675506 0.13888337 -0.13820937 53 0 -0.032738108
-0.64705205 0.18102534 0.011728018 36 8 -0.032735802
-0.65197021 0.18264668 0.035483781 19 9 -0.032731194
-0.66185939 0.18554169 0.060137462 7 10 -0.032726586
-0.49450922 0.13872096 -0.081345931 2 3 -0.032724284
-0.69759512 0.19582227 0.088964626 8 11 -0.032721978
-0.5676043 0.15943952 -0.0723904 7 4 -0.032719675
-0.68650609 0.19296817 0.1129457 8 12 -0.032717369
-0.54853737 0.15429007 -0.049853083 27 5 -0.032715067
-0.74084717 0.20838207 0.14959426 6 13 -0.032712765
-0.76718575 0.21607967 0.18400995 7 14 -0.032708157
-0.91478586 0.25799626 0.25467795 1 15 -0.032703549
-0.51111132 0.14491908 -0.14235048 52 0 -0.03268281
-0.64449227 0.18273754 0.011693113 45 8 -0.032680508
-0.46868551 0.13297804 -0.11247552 54 1 -0.032678202
-0.65517133 0.18601236 0.035693128 19 9 -0.0326759
-0.65734202 0.18687661 0.059788838 7 10 -0.032671291
-0.5205974 0.14809951 -0.085726097 2 3 -0.032668985
-0.67781401 0.19282448 0.086527243 8 11 -0.032666683
-0.58231819 0.16576786 -0.074340306 7 4 -0.032664381
-0.68772817 0.19590439 0.11325856 8 12 -0.032662075
-0.57865256 0.16494258 -0.05264207 37 5 -0.032659773
-0.77028561 0.21971239 0.15570015 5 13 -0.032657467
-0.7813791 0.22317159 0.18760918 7 14 -0.032652859
-0.93245453 0.26649663 0.25985435 1 15 -0.03264825
-0.4827514 0.13870028 -0.13458592 55 0 -0.032627515
-0.67072409 0.19283381 0.012181779 41 8 -0.03262521
-0.47943163 0.13792777 -0.11517494 35 1 -0.032622907
-0.65835679 0.18940279 0.03590247 28 9 -0.032620601
-0.64902753 0.18696398 0.059091594 8 10 -0.032615997
-0.48211533 0.13897321 -0.07946872 2 3 -0.032613691
-0.71143466 0.20521045 0.09091454 15 11 -0.032611389
-0.58552128 0.16900192 -0.074827783 7 4 -0.032609083
-0.66616321 0.192278 0.10981701 8 12 -0.032606781
-0.55127519 0.15922166 -0.050201707 40 5 -0.032604475
-0.75442553 0.21803889 0.1526472 5 13 -0.032602172
-0.74315667 0.21506335 0.17861113 8 14 -0.032597564
-0.91296244 0.26437613 0.25467795 1 15 -0.032592956
-0.47855458 0.13930468 -0.13355063 55 0 -0.032572221
-0.63744086 0.18555562 0.011588398 36 8 -0.032569915
-0.48645559 0.14169674 -0.11697455 51 1 -0.032567613
-0.67111397 0.19561182 0.036635175 27 9 -0.032565307
-0.66367173 0.19369395 0.060486082 7 10 -0.032560699
-0.53474736 0.1560671 -0.088229045 2 3 -0.032558396
-0.69169521 0.20200369 0.08847715 8 11 -0.032556091
-0.5849576 0.17094268 -0.074827783 7 4 -0.032553788
-0.69013566 0.20180987 0.11388431 8 12 -0.032551482
-0.55836487 0.16338302 -0.050898954 39 5 -0.03254918
-0.73862439 0.21612871 0.14959426 6 13 -0.032546874
-0.74991995 0.21971829 0.18041074 8 14 -0.032542266
-0.91388774 0.26810524 0.25519559 3 15 -0.032537658
-0.48920828 0.14416739 -0.13665645 54 0 -0.032516923
-0.62911713 0.18551721 0.011448778 37 8 -0.032514621
-0.48221987 0.14229091 -0.11607475 34 1 -0.032512315
-0.66084951 0.19512537 0.036111813 19 9 -0.032510012
-0.66684717 0.1970228 0.060834706 7 10 -0.032505404
-0.48115826 0.14225152 -0.07946872 2 3 -0.032503098
-0.68337184 0.20216444 0.087502196 8 11 -0.032500796
-0.57293671 0.16960277 -0.073365353 7 4 -0.03249849
-0.69132107 0.20477855 0.11419717 8 12 -0.032496188
-0.54823989 0.16250008 -0.050027393 13 5 -0.032493882
-0.77551162 0.22986417 0.15722662 5 13 -0.03249158
-0.80519444 0.23896821 0.19390781 6 14 -0.032486971
-0.91294628 0.27129391 0.25519559 4 15 -0.032482363
-0.49608085 0.14817086 -0.13872701 53 0 -0.032461628
-0.64187807 0.191718 0.011693113 36 8 -0.032459322
-0.48172027 0.14397331 -0.11607475 34 1 -0.03245702
-0.65442377 0.19571419 0.035797797 19 9 -0.032454714
-0.66612059 0.1994656 0.060834706 7 10 -0.032450106
-0.5298323 0.1587557 -0.087603308 2 3 -0.032447804
-0.67505562 0.20226954 0.086527243 8 11 -0.032445498
-0.55332649 0.1659006 -0.070927963 7 4 -0.032443196
-0.70763057 0.21229927 0.11701299 7 12 -0.03244089
-0.56293541 0.16899575 -0.051421888 13 5 -0.032438587
-0.75210083 0.22592735 0.1526472 5 13 -0.032436281
-0.76325774 0.22956914 0.18400995 7 14 -0.032431677
-0.93789214 0.28227359 0.26244253 2 15 -0.032427069
-0.52514631 0.15885109 -0.14700922 50 0 -0.03240633
-0.66031057 0.19986261 0.012042161 34 8 -0.032404028
-0.46999884 0.14234854 -0.11337533 35 1 -0.032401722
-0.65755969 0.19915509 0.03600714 19 9 -0.03239942
-0.67686015 0.20525877 0.061880577 7 10 -0.032394812
-0.52549446 0.15945694 -0.086977579 2 3 -0.032392506
-0.66671187 0.20243542 0.085552283 8 11 -0.032390203
-0.55271471 0.16792753 -0.070927963 7 4 -0.032387897
-0.69743484 0.21189687 0.11544865 7 12 -0.032385595
-0.54709214 0.16632342 -0.050027393 13 5 -0.032383293
-0.74755114 0.22740841 0.15188397 5 13 -0.032380987
-0.74753827 0.22768977 0.18041074 8 14 -0.032376379
-0.92026973 0.28047669 0.25778377 3 15 -0.032371771
-0.49503431 0.15163067 -0.13872701 26 0 -0.032351036
-0.66155612 0.20263687 0.012077065 25 8 -0.03234873
-0.50119853 0.15361434 -0.12102367 33 1 -0.032346427
-0.67213631 0.20613426 0.036844518 18 9 -0.032344121
-0.67233038 0.20645039 0.061531954 7 10 -0.032339517
-0.50985593 0.15655985 -0.084474623 2 3 -0.032337211
-0.70778286 0.217472 0.09091454 7 11 -0.032334909
-0.55215484 0.16975951 -0.070927963 7 4 -0.032332603
-0.67781049 0.20852154 0.11231996 4 12 -0.032330301
-0.76180381 0.23450698 0.15493691 5 13 -0.032325692
-0.77657586 0.23935086 0.18760918 7 14 -0.032321084
-0.92482299 0.28539631 0.25933671 4 15 -0.032316476
-0.47607622 0.14755239 -0.13355063 55 0 -0.032295737
-0.64556515 0.20020615 0.011797828 26 8 -0.032293435
-0.47088027 0.14612201 -0.11382524 35 1 -0.032291133
-0.6885795 0.21380965 0.037786566 17 9 -0.032288827
-0.67164207 0.20867881 0.061531954 7 10 -0.032284219
-0.50176108 0.1559929 -0.083223142 2 3 -0.032281917
-0.70701939 0.21994132 0.09091454 7 11 -0.032279611
-0.55534971 0.17286572 -0.071415439 7 4 -0.032277308
-0.69216657 0.21558587 0.11482291 3 12 -0.032275002
-0.79096997 0.24651116 0.16104279 4 13 -0.032270394
-0.77573556 0.24206035 0.18760918 7 14 -0.032265786
-0.90906948 0.28401408 0.25519559 6 15 -0.032261178
-0.49030426 0.15383996 -0.13769174 54 0 -0.032240443
-0.62387574 0.19586951 0.011413874 37 8 -0.032238141
-0.66877556 0.21022254 0.036739845 9 9 -0.032233533
-0.67090952 0.211022 0.061531954 7 10 -0.032228924
-0.48613939 0.15299939 -0.080720194 2 3 -0.032226618
-0.67973948 0.21406007 0.087502196 8 11 -0.032224316
-0.56231618 0.17718959 -0.0723904 7 4 -0.03222201
-0.6801061 0.21443664 0.1129457 4 12 -0.032219708
-0.71146864 0.22446175 0.14501485 6 13 -0.0322151
-0.80090123 0.25298432 0.19390781 6 14 -0.032210492
-0.91544026 0.2895157 0.25726613 5 15 -0.032205883
-0.49160549 0.15613529 -0.13820937 53 0 -0.032185148
-0.64796329 0.20591946 0.011867636 35 8 -0.032182842
-0.47727707 0.15176795 -0.11562484 35 1 -0.03218054
-0.67184407 0.21376687 0.036949188 9 9 -0.032178234
-0.68915379 0.21940692 0.063275069 7 10 -0.032173626
-0.47430927 0.15109785 -0.078842975 2 3 -0.032171324
-0.65629208 0.20919701 0.084577329 9 11 -0.032169018
-0.54278189 0.17311946 -0.069953009 8 4 -0.032166716
-0.68311709 0.21801051 0.11357144 4 12 -0.03216441
-0.74060428 0.23649924 0.15112074 5 13 -0.032159802
-0.80001324 0.25577843 0.19390781 6 14 -0.032155193
-0.93098307 0.29801002 0.26192489 4 15 -0.032150589
-0.48921832 0.15725917 -0.13769174 54 0 -0.03212985
-0.6358186 0.20450626 0.011658208 36 8 -0.032127548
-0.6939072 0.22345731 0.038205251 8 9 -0.03212294
-0.66562718 0.21447876 0.06118333 7 10 -0.032118332
-0.50762028 0.16366336 -0.084474623 2 3 -0.032116026
-0.68578529 0.22123818 0.08847715 8 11 -0.032113723
-0.54973078 0.17745231 -0.070927963 7 4 -0.032111418
-0.68235201 0.22039357 0.11357144 4 12 -0.032109115
-0.74724662 0.24149798 0.1526472 5 13 -0.032104507
-0.79911566 0.2585693 0.19390781 6 14 -0.032099899
-0.92993718 0.301258 0.26192489 5 15 -0.032095291
-0.50336319 0.16374674 -0.14183284 52 0 -0.032074556
-0.65791887 0.2141517 0.012077065 25 8 -0.03207225
-0.4706471 0.15328582 -0.11427514 35 1 -0.032069948
-0.6703735 0.21833503 0.036949188 9 9 -0.032067642
-0.66108596 0.21556544 0.060834706 7 10 -0.032063033
-0.52206951 0.17033605 -0.086977579 2 3 -0.032060731
-0.69255716 0.22609513 0.089452103 8 11 -0.032058429
-0.54910803 0.17937003 -0.070927963 7 4 -0.032056123
-0.68912834 0.22510867 0.11482291 3 12 -0.032053821
-0.74639904 0.2441051 0.1526472 5 13 -0.032049213
-0.70560861 0.2310373 0.17141271 9 14 -0.032044604
-0.91424632 0.29952845 0.25778377 6 15 -0.032039996
-0.48627353 0.16006669 -0.1371741 54 0 -0.032019258
-0.63441187 0.2088294 0.011658208 36 8 -0.032016955
-0.47383803 0.15606497 -0.11517494 35 1 -0.032014653
-0.68857634 0.22692497 0.037995908 17 9 -0.032012347
-0.65276128 0.21537468 0.060137462 7 10 -0.032007739
-0.50649452 0.16711482 -0.084474623 2 3 -0.032005437
-0.67672348 0.22341166 0.087502196 8 11 -0.032003131
-0.53343093 0.17620881 -0.068978056 8 4 -0.032000829
-0.6883384 0.22751281 0.11482291 3 12 -0.031998523
-0.7679531 0.25397632 0.15722662 5 13 -0.031993914
-0.79733706 0.26400271 0.19390781 6 14 -0.031989306
-0.894858 0.29663906 0.25260741 7 15 -0.031984698
-0.49490497 0.16472879 -0.13976228 53 0 -0.031963963
-0.63367903 0.21104267 0.011658208 27 8 -0.031961661
-0.48253438 0.16079836 -0.11742445 34 1 -0.031959355
-0.71055788 0.23678426 0.039251972 8 9 -0.031957053
-0.65960336 0.22006032 0.060834706 7 10 -0.031952444
-0.49466568 0.16512889 -0.082597405 2 3 -0.031950139
-0.6684081 0.22325709 0.086527243 8 11 -0.031947836
-0.54410887 0.1818451 -0.070440486 7 4 -0.03194553
-0.67259198 0.22478506 0.11231996 4 12 -0.031943228
-0.70748425 0.23672086 0.14501485 6 13 -0.03193862
-0.91401803 0.30635831 0.25830141 6 15 -0.031929404
-0.50348109 0.16953796 -0.14235048 52 0 -0.031908669
-0.6329757 0.21314289 0.011658208 27 8 -0.031906363
-0.47276476 0.15928656 -0.11517494 52 1 -0.03190406
-0.67944533 0.2290546 0.037577223 8 9 -0.031901754
-0.67770886 0.22873284 0.062577821 7 10 -0.031897146
-0.50534523 0.17055856 -0.084474623 2 3 -0.031894844
-0.67518711 0.2280128 0.087502196 8 11 -0.031892538
-0.51341277 0.17348105 -0.066540666 8 4 -0.031890236
-0.69425905 0.23472363 0.11607439 3 12 -0.03188793
-0.75876766 0.25668105 0.15570015 5 13 -0.031883322
-0.79552162 0.2694239 0.19390781 6 14 -0.031878714
-0.93123853 0.3157503 0.2634778 5 15 -0.031874105
-0.49191427 0.167557 -0.13924466 53 0 -0.031839848
-0.65868932 0.22449261 0.012146875 16 8 -0.031837545
-0.49615559 0.1691951 -0.12102367 33 1 -0.031835239
-0.66725963 0.22767371 0.036949188 9 9 -0.031832937
-0.66182214 0.22594716 0.06118333 7 10 -0.031828329
-0.47106895 0.16091564 -0.078842975 2 3 -0.031826023
-0.68561721 0.23433824 0.088964626 8 11 -0.031823721
-0.51277351 0.17536153 -0.066540666 8 4 -0.031821415
-0.69339406 0.23726664 0.11607439 3 12 -0.031819113
-0.772681 0.2645478 0.15875308 4 13 -0.031814504
-0.70235604 0.24074413 0.17141271 9 14 -0.031809896
-0.92093873 0.31602621 0.26088959 4 15 -0.031805288
-0.4767144 0.16423891 -0.13510354 55 0 -0.031784553
-0.65412062 0.22548711 0.012077065 17 8 -0.031782247
-0.48082402 0.1658427 -0.11742445 51 1 -0.031779945
-0.67778891 0.23391072 0.037577223 8 9 -0.031777639
-0.69869483 0.2412622 0.064669557 6 10 -0.031773031
-0.50037771 0.17288022 -0.083848879 2 3 -0.031770729
-0.68854737 0.23802707 0.089452103 8 11 -0.031768423
-0.51215822 0.1771505 -0.066540666 8 4 -0.03176612
-0.67389423 0.23322509 0.1129457 4 12 -0.031763814
-0.75691152 0.26210395 0.15570015 5 13 -0.031759206
-0.79357326 0.27510965 0.19390781 6 14 -0.031754598
-0.91252971 0.31670535 0.25881904 6 15 -0.03174999
-0.49802959 0.17352967 -0.14131519 52 0 -0.031729255
-0.63633537 0.22184458 0.011762922 26 8 -0.031726953
-0.48576224 0.16944548 -0.11877415 51 1 -0.031724647
-0.67696822 0.23627524 0.037577223 8 9 -0.031722344
-0.65646654 0.22924843 0.060834706 7 10 -0.031717736
-0.50350082 0.17592888 -0.084474623 2 3 -0.03171543
-0.71394658 0.2496008 0.092864446 7 11 -0.031713128
-0.53776938 0.18811347 -0.069953009 8 4 -0.031710822
-0.67680496 0.23688097 0.11357144 4 12 -0.03170852
-0.79675615 0.27902007 0.16409574 4 13 -0.031703912
-0.90412724 0.31732965 0.2567485 5 15 -0.031694695
-0.46280181 0.16306889 -0.13148008 56 0 -0.03167396
-0.63744313 0.22472921 0.011797828 17 8 -0.031671654
-0.47230351 0.16660228 -0.11562484 52 1 -0.031669352
-0.70250684 0.24794322 0.039042629 8 9 -0.031667046
-0.68196404 0.24082649 0.063275069 7 10 -0.031662438
-0.49915865 0.17636919 -0.083848879 2 3 -0.031660136
-0.68686885 0.24282841 0.089452103 8 11 -0.03165783
-0.51090902 0.18072161 -0.066540666 8 4 -0.031655528
-0.69087148 0.24451461 0.11607439 3 12 -0.031653225
-0.76246578 0.27000335 0.15722662 5 13 -0.031648617
-0.90483469 0.32112965 0.25726613 5 15 -0.031639401
-0.49316642 0.17570563 -0.14027993 53 0 -0.031618662
-0.64983988 0.23165315 0.012042161 17 8 -0.03161636
-0.46437716 0.16563125 -0.11382524 53 1 -0.031614054
-0.68658859 0.24502338 0.038205251 8 9 -0.031611752
-0.68111926 0.24320555 0.063275069 7 10 -0.031607144
-0.50226033 0.17943969 -0.084474623 2 3 -0.031604841
-0.68601704 0.2452244 0.089452103 8 11 -0.031602535
-0.51775169 0.185178 -0.067515619 8 4 -0.031600233
-0.67141497 0.24026926 0.1129457 4 12 -0.031597927
-0.76891202 0.27531022 0.15875308 4 13 -0.031593319
-0.91825485 0.32950607 0.26140723 4 15 -0.031584103
-0.49073252 0.17677133 -0.13976228 53 0 -0.031563368
-0.63397735 0.2284959 0.011762922 17 8 -0.031561062
-0.47846165 0.17253982 -0.11742445 51 1 -0.03155876
-0.68572915 0.24741855 0.038205251 8 9 -0.031556457
-0.68026614 0.24558163 0.063275069 7 10 -0.031551849
-0.5164941 0.18656048 -0.086977579 2 3 -0.031549543
-0.73369652 0.26515993 0.095789306 6 11 -0.031547241
-0.50963491 0.18428402 -0.066540666 8 4 -0.031544935
-0.68914759 0.24933183 0.11607439 3 12 -0.031542633
-0.93889147 0.3406156 0.26761889 4 15 -0.031528808
-0.49192774 0.17914431 -0.14027993 53 0 -0.031508073
-0.66699547 0.24303003 0.012391209 16 8 -0.031505767
-0.47419474 0.17287399 -0.11652464 52 1 -0.031503465
-0.70362461 0.25665486 0.039251972 8 9 -0.031501159
-0.67940474 0.24795473 0.063275069 7 10 -0.031496551
-0.5009954 0.18294175 -0.084474623 2 3 -0.031494249
-0.73649561 0.26908189 0.09627679 6 11 -0.031491943
-0.53509045 0.1956035 -0.069953009 8 4 -0.03148964
-0.68827307 0.25173593 0.11607439 3 12 -0.031487335
-0.77434605 0.28337032 0.16027956 4 13 -0.031482726
-0.92137331 0.33790419 0.26296017 3 15 -0.03147351
-0.49311239 0.18152764 -0.14079757 52 0 -0.031452775
-0.66239005 0.24397466 0.012321399 16 8 -0.031450473
-0.47175989 0.17385435 -0.11607475 52 1 -0.031448167
-0.70647228 0.26049113 0.039461315 7 9 -0.031445865
-0.67853504 0.25032479 0.063275069 7 10 -0.031441256
-0.46699685 0.17237683 -0.078842975 2 3 -0.03143895
-0.71320599 0.26339826 0.093351923 7 11 -0.031436648
-0.50833595 0.18783747 -0.066540666 8 4 -0.031434342
-0.70591819 0.26098695 0.11920308 3 12 -0.03143204
-0.79176527 0.2928828 0.16409574 4 13 -0.031427432
-0.93105644 0.34514728 0.26606598 5 15 -0.031418215
-0.49609685 0.18459523 -0.14183284 52 0 -0.031397481
-0.62967581 0.23442461 0.011728018 18 8 -0.031395175
-0.48758563 0.18162203 -0.12012386 50 1 -0.031392872
-0.69432968 0.25877082 0.038833283 8 9 -0.031390566
-0.67765713 0.25269184 0.063275069 7 10 -0.031385958
