# .PCD v0.7 - Point Cloud Data file format
VERSION 0.7
FIELDS x y z intensity
SIZE 4 4 4 4
TYPE F F F F
COUNT 1 1 1 1
WIDTH 1347
HEIGHT 1
VIEWPOINT 0 0 0 1 0 0 0
POINTS 1347
DATA ascii
1.2800983 0.61607033 -0.32797864 1
1.2716877 0.60656416 -0.32527924 1
1.2772156 0.60400963 -0.32617903 1
1.275787 0.59789401 -0.32527924 1
1.2849362 0.59671992 -0.32707885 1
1.2799298 0.58897334 -0.32527924 1
1.2749871 0.58104479 -0.32347962 1
1.2769068 0.57681382 -0.32347962 1
1.2824699 0.5739454 -0.32437941 1
1.2809026 0.56788528 -0.32347962 1
1.2721713 0.55870992 -0.32078022 1
1.2794747 0.55659753 -0.32212991 1
1.276041 0.54981428 -0.32078022 1
1.2815371 0.54688668 -0.32168001 1
1.2906185 0.54544413 -0.32347962 1
1.2816348 0.53664559 -0.32078022 1
1.2798074 0.53089881 -0.3198804 1
1.2780477 0.52494764 -0.3189806 1
1.2907034 0.52488756 -0.32168001 1
1.29072 0.51965147 -0.32123011 1
1.2816643 0.51081413 -0.31853068 1
1.2798142 0.50490654 -0.31763089 1
1.2889175 0.50304675 -0.3194305 1
1.2796725 0.49455449 -0.3167311 1
1.2977725 0.49634951 -0.32078022 1
1.2866538 0.48721334 -0.31763089 1
1.2810473 0.47998381 -0.31583127 1
1.2827152 0.47550884 -0.31583127 1
1.2861967 0.47169968 -0.31628117 1
1.2988269 0.47119439 -0.3189806 1
1.2895391 0.46248379 -0.31628117 1
1.2837994 0.4553735 -0.31448159 1
1.2890584 0.45218036 -0.31538138 1
1.2979151 0.45045868 -0.31718099 1
1.2957153 0.44488671 -0.31628117 1
1.2898793 0.43785518 -0.31448159 1
1.2729993 0.42692852 -0.30998254 1
1.2892053 0.42761242 -0.31358176 1
1.2962456 0.42493045 -0.31493148 1
1.3013549 0.42183226 -0.31583127 1
1.295396 0.41490906 -0.31403166 1
1.2912627 0.40862066 -0.31268197 1
1.2945411 0.40469253 -0.31313187 1
1.301532 0.40189579 -0.31448159 1
1.3029267 0.39735106 -0.31448159 1
1.2949078 0.39021647 -0.31223205 1
1.2906588 0.38402644 -0.31088236 1
1.3013402 0.38226464 -0.31313187 1
1.3007948 0.37717798 -0.31268197 1
1.3058505 0.37370703 -0.31358176 1
1.2920164 0.3653608 -0.30998254 1
1.2895299 0.35980076 -0.30908275 1
1.2945356 0.35633191 -0.30998254 1
1.2957716 0.3518106 -0.30998254 1
1.3008175 0.34806675 -0.31088236 1
1.3039088 0.34402069 -0.31133226 1
1.2937858 0.33652404 -0.30863285 1
1.2986697 0.33320069 -0.30953264 1
1.3017142 0.32914284 -0.30998254 1
1.3065804 0.32576689 -0.31088236 1
1.302032 0.31980985 -0.30953264 1
1.2955639 0.31343031 -0.30773303 1
1.2966503 0.30890569 -0.30773303 1
1.3052561 0.30638573 -0.30953264 1
1.3139126 0.30358213 -0.31133226 1
1.3035629 0.29640174 -0.30863285 1
1.2988843 0.29057357 -0.30728313 1
1.3036472 0.28710264 -0.30818295 1
1.31221 0.28442952 -0.30998254 1
1.3208675 0.28124174 -0.31178215 1
1.3047223 0.27280807 -0.30773303 1
1.2998934 0.26730269 -0.30638334 1
1.304593 0.26376262 -0.30728313 1
1.315017 0.2613351 -0.30953264 1
1.3197916 0.25725892 -0.31043246 1
1.3072397 0.2503151 -0.30728313 1
1.2966141 0.24359186 -0.30458373 1
1.3089975 0.24095429 -0.30728313 1
1.3117895 0.23650101 -0.30773303 1
1.3202425 0.23350689 -0.30953264 1
1.3114092 0.22746262 -0.30728313 1
1.3045489 0.22135085 -0.30548352 1
1.3091964 0.21720615 -0.30638334 1
1.319527 0.21442601 -0.30863285 1
1.3260043 0.21096794 -0.30998254 1
1.3113281 0.20394191 -0.30638334 1
1.306252 0.19848529 -0.30503362 1
1.3127199 0.19478214 -0.30638334 1
1.3172822 0.19052768 -0.30728313 1
1.3217661 0.18670313 -0.30818295 1
1.312757 0.18075931 -0.30593342 1
1.3036923 0.17510761 -0.30368391 1
1.3120247 0.17156678 -0.30548352 1
1.3242147 0.16846116 -0.30818295 1
1.3228605 0.16359946 -0.30773303 1
1.3176191 0.1582832 -0.30638334 1
1.3104211 0.15277985 -0.30458373 1
1.318692 0.14908062 -0.30638334 1
1.3192044 0.14447628 -0.30638334 1
1.3197007 0.13987079 -0.30638334 1
1.3221194 0.13546222 -0.30683324 1
1.3167664 0.13027041 -0.30548352 1
1.3172129 0.12567353 -0.30548352 1
1.325406 0.12178773 -0.30728313 1
1.3277642 0.11733228 -0.30773303 1
1.3203987 0.1120374 -0.30593342 1
1.3149548 0.10695338 -0.30458373 1
1.3230915 0.10296839 -0.30638334 1
1.3331598 0.099071048 -0.30863285 1
1.3393126 0.095063128 -0.30998254 1
1.326026 0.089469455 -0.30683324 1
1.3243854 0.084716097 -0.30638334 1
1.3227278 0.079975277 -0.30593342 1
1.332727 0.075911358 -0.30818295 1
1.3368881 0.071233824 -0.30908275 1
1.3254392 0.066216379 -0.30638334 1
1.3237156 0.061498538 -0.30593342 1
1.3200282 0.056711152 -0.30503362 1
1.3377432 0.05279433 -0.30908275 1
1.3437618 0.048334207 -0.31043246 1
1.3302883 0.043200828 -0.30728313 1
1.334327 0.038669541 -0.30818295 1
1.3305575 0.03391261 -0.30728313 1
1.3384608 0.02943958 -0.30908275 1
1.3541428 0.025055354 -0.31268197 1
1.3386338 0.020094646 -0.30908275 1
1.3328499 0.01535412 -0.30773303 1
1.3348441 0.010717439 -0.30818295 1
1.3426682 0.0060929148 -0.30998254 1
1.3485276 0.0014118542 -0.31133226 1
1.3348842 -0.0027957787 -0.30818295 1
1.334865 -0.0076883552 -0.30818295 1
1.3387251 -0.01261756 -0.30908275 1
1.3484188 -0.017181003 -0.31133226 1
1.3405604 -0.021527268 -0.30953264 1
1.3385289 -0.026168477 -0.30908275 1
1.3384293 -0.030840652 -0.30908275 1
1.3441577 -0.035667531 -0.31043246 1
1.3498685 -0.040534772 -0.31178215 1
1.3555617 -0.04544232 -0.31313187 1
1.3437105 -0.049741302 -0.31043246 1
1.3415815 -0.054352537 -0.30998254 1
1.3452773 -0.059206571 -0.31088236 1
1.3470089 -0.063994579 -0.31133226 1
1.3623471 -0.069490299 -0.31493148 1
1.3445836 -0.073290773 -0.31088236 1
1.3423741 -0.07787095 -0.31043246 1
1.3537645 -0.083274111 -0.31313187 1
1.3554101 -0.088125564 -0.31358176 1
1.3589827 -0.093122728 -0.31448159 1
1.3528183 -0.097445875 -0.31313187 1
1.3505445 -0.101785 -0.31268197 1
1.348238 -0.10634541 -0.31223205 1
1.3575696 -0.11185108 -0.31448159 1
1.3610539 -0.11692277 -0.31538138 1
1.3528736 -0.12097874 -0.31358176 1
1.3485624 -0.12533973 -0.31268197 1
1.3481165 -0.13004634 -0.31268197 1
1.3495934 -0.13494524 -0.31313187 1
1.3646213 -0.14126061 -0.3167311 1
1.2610139 0.67275363 -0.2778179 2
1.2616193 0.66742939 -0.27743632 2
1.2708958 0.66666907 -0.27896276 2
1.2784404 0.66494679 -0.28010762 2
1.2666802 0.65350276 -0.27705467 2
1.2689538 0.64907694 -0.27705467 2
1.2677097 0.64286792 -0.27629143 2
1.2769625 0.64196587 -0.2778179 2
1.2756808 0.63575393 -0.27705467 2
1.2708519 0.62781858 -0.27552822 2
1.2659829 0.61992466 -0.27400175 2
1.268139 0.61550212 -0.27400175 2
1.2738184 0.61277348 -0.27476496 2
1.283038 0.61170316 -0.27629143 2
1.2708598 0.60073322 -0.27323848 2
1.2729491 0.59629309 -0.27323848 2
1.2785845 0.59349895 -0.27400175 2
1.2771835 0.58716887 -0.27323848 2
1.2792252 0.58270729 -0.27323848 2
1.2776726 0.5766229 -0.27247527 2
1.2759935 0.57077974 -0.27171201 2
1.2779782 0.56632191 -0.27171201 2
1.2835425 0.56343597 -0.27247527 2
1.2855016 0.5589518 -0.27247527 2
1.2802322 0.55135524 -0.2709488 2
1.2749255 0.54380226 -0.26942232 2
1.2804331 0.54087615 -0.27018553 2
1.2822195 0.53662735 -0.27018553 2
1.2839919 0.53237271 -0.27018553 2
1.2822102 0.52639592 -0.26942232 2
1.276765 0.51895958 -0.26789585 2
1.2822113 0.51596582 -0.26865909 2
1.2876524 0.51293963 -0.26942232 2
1.2895237 0.50821698 -0.26942232 2
1.2839738 0.50085837 -0.26789585 2
1.2802196 0.49425307 -0.26675099 2
1.2855192 0.49140662 -0.26751423 2
1.2853906 0.48622137 -0.26713261 2
1.2961886 0.48539898 -0.2690407 2
1.2813064 0.47473297 -0.26560614 2
1.2792692 0.46890584 -0.2648429 2
1.2883623 0.4668898 -0.26636937 2
1.2936804 0.4637143 -0.26713261 2
1.298992 0.46050793 -0.26789585 2
1.2857702 0.45077419 -0.2648429 2
1.2798386 0.44393471 -0.26331642 2
1.2887315 0.44223669 -0.2648429 2
1.2940623 0.43877143 -0.26560614 2
1.299309 0.43549913 -0.26636937 2
1.2859122 0.42602196 -0.26331642 2
1.2873178 0.42175564 -0.26331642 2
1.2925177 0.41846856 -0.26407966 2
1.2976378 0.41537744 -0.2648429 2
1.3046954 0.41262159 -0.26598775 2
1.2892624 0.40279531 -0.26255319 2
1.2906607 0.39829215 -0.26255319 2
1.2882872 0.39264008 -0.26178995 2
1.2952898 0.38983777 -0.2629348 2
1.2984574 0.38610014 -0.26331642 2
1.2884943 0.37824762 -0.26102671 2
1.2898068 0.37374726 -0.26102671 2
1.298654 0.37140232 -0.26255319 2
1.2998145 0.36732027 -0.26255319 2
1.304871 0.36383575 -0.26331642 2
1.2947754 0.35615411 -0.26102671 2
1.2922823 0.35037899 -0.26026347 2
1.2972907 0.34687981 -0.26102671 2
1.2984934 0.34235021 -0.26102671 2
1.303481 0.33880299 -0.26178995 2
1.2932447 0.33132708 -0.25950024 2
1.3019502 0.32896009 -0.26102671 2
1.3030902 0.32441431 -0.26102671 2
1.3079724 0.32102695 -0.26178995 2
1.3090852 0.31645894 -0.26178995 2
1.3006324 0.30961451 -0.25988188 2
1.2997935 0.30462483 -0.25950024 2
1.2969708 0.29942927 -0.258737 2
1.301837 0.29577035 -0.25950024 2
1.3105254 0.29293704 -0.26102671 2
1.2999853 0.28605834 -0.258737 2
1.2971382 0.28068864 -0.25797379 2
1.3019991 0.27674854 -0.258737 2
1.3068006 0.27300525 -0.25950024 2
1.3057756 0.26827541 -0.25911862 2
1.3047338 0.26355472 -0.258737 2
1.2978979 0.25769752 -0.25721052 2
1.3026878 0.25368899 -0.25797379 2
1.3112787 0.25061467 -0.25950024 2
1.3082864 0.24531198 -0.258737 2
1.3014531 0.23909591 -0.25721052 2
1.3061439 0.23524845 -0.25797379 2
1.3030503 0.23023227 -0.25721052 2
1.3154528 0.22769105 -0.25950024 2
1.3220857 0.2238517 -0.26064509 2
1.3093013 0.21698812 -0.25797379 2
1.3022621 0.21138713 -0.25644732 2
1.3126506 0.20860784 -0.25835541 2
1.3211306 0.2052303 -0.25988188 2
1.3160158 0.19973393 -0.258737 2
1.3050865 0.19318396 -0.25644732 2
1.3057529 0.18862747 -0.25644732 2
1.3141795 0.1851643 -0.25797379 2
1.3186764 0.18133987 -0.258737 2
1.3251389 0.1775174 -0.25988188 2
1.3120931 0.17134282 -0.25721052 2
1.3087881 0.16626716 -0.25644732 2
1.3132575 0.16217853 -0.25721052 2
1.3216126 0.15852833 -0.258737 2
1.3202078 0.15368797 -0.25835541 2
1.3148837 0.14841768 -0.25721052 2
1.319297 0.14425404 -0.25797379 2
1.3197925 0.1396476 -0.25797379 2
1.3280841 0.13583851 -0.25950024 2
1.3246428 0.13081621 -0.258737 2
1.3192281 0.12563282 -0.25759214 2
1.3137933 0.1204901 -0.25644732 2
1.3239843 0.11676539 -0.25835541 2
1.3263402 0.11230841 -0.258737 2
1.3267241 0.10767821 -0.258737 2
1.3212198 0.10259011 -0.25759214 2
1.3254856 0.098268159 -0.25835541 2
1.3238621 0.093502708 -0.25797379 2
1.3300414 0.089507207 -0.25911862 2
1.324468 0.084488653 -0.25797379 2
1.3267145 0.079983294 -0.25835541 2
1.3211184 0.07478752 -0.25721052 2
1.3252923 0.070383385 -0.25797379 2
1.3294517 0.065951645 -0.258737 2
1.3335853 0.061723832 -0.25950024 2
1.3298697 0.05690081 -0.258737 2
1.3261368 0.052103847 -0.25797379 2
1.3302345 0.047615819 -0.258737 2
1.3343171 0.043098547 -0.25950024 2
1.3383844 0.038553357 -0.26026347 2
1.3306603 0.033682849 -0.258737 2
1.3268441 0.028951764 -0.25797379 2
1.330863 0.024392268 -0.258737 2
1.3407552 0.019891808 -0.26064509 2
1.3467059 0.015278677 -0.26178995 2
1.3349718 0.010485468 -0.25950024 2
1.3310739 0.0058079939 -0.258737 2
1.3350124 0.0011653512 -0.25950024 2
1.3428619 -0.0032812373 -0.26102671 2
1.3467674 -0.0082270363 -0.26178995 2
1.3388778 -0.0128527 -0.26026347 2
1.3309755 -0.017191084 -0.258737 2
1.3387631 -0.021732125 -0.26026347 2
1.3465307 -0.026560018 -0.26178995 2
1.3542807 -0.0314424 -0.26331642 2
1.3423872 -0.035855006 -0.26102671 2
1.3383293 -0.040422063 -0.26026347 2
1.3460286 -0.045357931 -0.26178995 2
1.3497857 -0.050202105 -0.26255319 2
1.3554872 -0.055152882 -0.26369804 2
1.3395957 -0.059190776 -0.26064509 2
1.33742 -0.063772969 -0.26026347 2
1.345032 -0.068842463 -0.26178995 2
1.3526248 -0.07396587 -0.26331642 2
1.3523583 -0.078686953 -0.26331642 2
1.3461969 -0.083044447 -0.26217157 2
1.3400214 -0.087359883 -0.26102671 2
1.3534188 -0.092978805 -0.26369804 2
1.353086 -0.097702555 -0.26369804 2
1.3586096 -0.10286979 -0.2648429 2
1.346518 -0.10644621 -0.26255319 2
1.3559213 -0.11195353 -0.26446128 2
1.3496543 -0.11618079 -0.26331642 2
1.3492405 -0.12089125 -0.26331642 2
1.3566294 -0.12632835 -0.2648429 2
1.354226 -0.13087425 -0.26446128 2
1.3557144 -0.13579625 -0.2648429 2
1.3513266 -0.14012277 -0.26407966 2
1.3566855 -0.14546685 -0.26522452 2
1.3639748 -0.15106615 -0.26675099 2
1.3536863 -0.15471175 -0.2648429 2
1.3570375 -0.15989552 -0.26560614 2
1.3564711 -0.16463149 -0.26560614 2
1.3597844 -0.16985214 -0.26636937 2
1.3591832 -0.17459765 -0.26636937 2
1.360512 -0.17959796 -0.26675099 2
1.3598769 -0.18434593 -0.26675099 2
1.2824619 0.63299733 -0.22651713 3
1.2935358 0.63285708 -0.22808148 3
1.2761856 0.61885655 -0.22463992 3
1.2587531 0.60498613 -0.22119835 3
1.2644242 0.60228723 -0.22182411 3
1.2628423 0.59640348 -0.22119835 3
1.2720728 0.59534121 -0.22244984 3
1.2651831 0.58674151 -0.22088549 3
1.2637348 0.58045173 -0.22025976 3
1.2675514 0.57685488 -0.22057262 3
1.2676566 0.57183629 -0.22025976 3
1.2732518 0.56902009 -0.22088549 3
1.266199 0.5605734 -0.21932115 3
1.2645302 0.55456311 -0.21869542 3
1.2718933 0.55250764 -0.21963401 3
1.2810724 0.5511871 -0.22088549 3
1.2793541 0.54516351 -0.22025976 3
1.2739695 0.53762192 -0.21900828 3
1.2684553 0.53034663 -0.21775681 3
1.2702072 0.52613699 -0.21775681 3
1.2830015 0.52619761 -0.21963401 3
1.2811702 0.52022916 -0.21900828 3
1.2719815 0.51133281 -0.21713105 3
1.2737584 0.50689054 -0.21713105 3
1.2792836 0.50366616 -0.21775681 3
1.2847153 0.50063169 -0.21838254 3
1.2863685 0.49636832 -0.21838254 3
1.2807118 0.4890559 -0.21713105 3
1.2675444 0.47921854 -0.21462812 3
1.2803105 0.47894341 -0.21650532 3
1.2782695 0.47309977 -0.21587959 3
1.2910428 0.47271025 -0.21775681 3
1.2816223 0.46394056 -0.21587959 3
1.2795142 0.45813251 -0.21525384 3
1.2848299 0.45498183 -0.21587959 3
1.28641 0.45049506 -0.21587959 3
1.2878969 0.44622633 -0.21587959 3
1.2893695 0.44195333 -0.21587959 3
1.2797548 0.43342227 -0.21400237 3
1.2868794 0.43083414 -0.21494098 3
1.2883012 0.42656395 -0.21494098 3
1.297292 0.42452142 -0.21619245 3
1.2874161 0.41656864 -0.21431525 3
1.2813359 0.40966615 -0.21306378 3
1.2865255 0.40638059 -0.21368951 3
1.2879361 0.4018876 -0.21368951 3
1.2931068 0.39855272 -0.21431525 3
1.2869312 0.39173526 -0.21306378 3
1.2844394 0.3863284 -0.21243803 3
1.2971421 0.38521636 -0.21431525 3
1.2946877 0.37957427 -0.21368951 3
1.2960045 0.37505355 -0.21368951 3
1.2897083 0.368357 -0.21243803 3
1.290859 0.36430368 -0.21243803 3
1.295929 0.36085501 -0.21306378 3
1.3009902 0.35737589 -0.21368951 3
1.3022914 0.35260481 -0.21368951 3
1.2958801 0.3460187 -0.21243803 3
1.289439 0.339481 -0.21118654 3
1.2982643 0.3369633 -0.21243803 3
1.3032018 0.33363637 -0.21306378 3
1.3101046 0.33053464 -0.21400237 3
1.3054428 0.3247574 -0.21306378 3
1.2950566 0.31737769 -0.21118654 3
1.298077 0.31331894 -0.21149944 3
1.3049282 0.31015587 -0.21243803 3
1.3117197 0.30717775 -0.21337664 3
1.3050842 0.30082265 -0.21212517 3
1.3022735 0.29539156 -0.21149944 3
1.3032966 0.29084423 -0.21149944 3
1.3042541 0.28652039 -0.21149944 3
1.3148507 0.28428125 -0.21306378 3
1.3062223 0.27740863 -0.21149944 3
1.2975616 0.27060184 -0.20993507 3
1.3023219 0.26709148 -0.21056081 3
1.3109462 0.26433277 -0.2118123 3
1.3137531 0.260369 -0.21212517 3
1.3088813 0.25442097 -0.21118654 3
1.3019567 0.24859688 -0.20993507 3
1.3028164 0.24405096 -0.20993507 3
1.3134168 0.24105692 -0.21149944 3
1.3162357 0.23659112 -0.2118123 3
1.3053409 0.23016654 -0.20993507 3
1.306097 0.22583686 -0.20993507 3
1.3069159 0.22104855 -0.20993507 3
1.3174618 0.21786875 -0.21149944 3
1.3181771 0.21349831 -0.21149944 3
1.3091227 0.20757937 -0.20993507 3
1.3098394 0.20300806 -0.20993507 3
1.3144462 0.19902638 -0.21056081 3
1.3190752 0.19478413 -0.21118654 3
1.3158368 0.18961532 -0.21056081 3
1.3125463 0.18469992 -0.20993507 3
1.3092687 0.17958058 -0.20930934 3
1.3098571 0.17523752 -0.20930934 3
1.3124197 0.17091957 -0.2096222 3
1.3228068 0.16757829 -0.21118654 3
1.3135808 0.16175361 -0.2096222 3
1.3062918 0.15622872 -0.20837073 3
1.3166403 0.15280627 -0.20993507 3
1.3191288 0.14843056 -0.21024795 3
1.3235663 0.14425273 -0.21087368 3
1.3122748 0.13838901 -0.20899647 3
1.31275 0.13380712 -0.20899647 3
1.3151748 0.12941769 -0.20930934 3
1.3274177 0.12594587 -0.21118654 3
1.3317838 0.12167063 -0.2118123 3
1.3203936 0.11598427 -0.20993507 3
1.3129169 0.11071025 -0.20868361 3
1.3211712 0.10676273 -0.20993507 3
1.3254747 0.10245571 -0.21056081 3
1.3337044 0.098409407 -0.2118123 3
1.3222005 0.093152806 -0.20993507 3
1.3185756 0.088273287 -0.20930934 3
1.3228185 0.083920471 -0.20993507 3
1.3309907 0.079775482 -0.21118654 3
1.3332466 0.075007245 -0.21149944 3
1.3216643 0.069728725 -0.2096222 3
1.3218883 0.065345183 -0.2096222 3
1.3339483 0.06127404 -0.21149944 3
1.3321803 0.056534469 -0.21118654 3
1.3442129 0.052344784 -0.21306378 3
1.3345168 0.047302064 -0.21149944 3
1.3248018 0.042328309 -0.20993507 3
1.3308653 0.037871849 -0.21087368 3
1.3349389 0.033324908 -0.21149944 3
1.3429466 0.028834153 -0.2127509 3
1.3311888 0.023933442 -0.21087368 3
1.3312643 0.019286862 -0.21087368 3
1.3332987 0.01466113 -0.21118654 3
1.3353171 0.010022067 -0.21149944 3
1.3471961 0.0054081012 -0.21337664 3
1.3393054 0.00070098223 -0.21212517 3
1.339301 -0.0035062893 -0.21212517 3
1.3392791 -0.0084150489 -0.21212517 3
1.3431898 -0.013362999 -0.2127509 3
1.3451133 -0.017843304 -0.21306378 3
1.3430716 -0.022271011 -0.2127509 3
1.3291608 -0.026681552 -0.21056081 3
1.3409085 -0.031600263 -0.21243803 3
1.34079 -0.03628071 -0.21243803 3
1.3485531 -0.041202024 -0.21368951 3
1.3464267 -0.04584188 -0.21337664 3
1.3403366 -0.050319184 -0.21243803 3
1.3441002 -0.055159524 -0.21306378 3
1.3517933 -0.06020252 -0.21431525 3
1.3574941 -0.06520512 -0.21525384 3
1.3493671 -0.069536611 -0.21400237 3
1.3451715 -0.074029259 -0.21337664 3
1.3527929 -0.079186067 -0.21462812 3
1.3465935 -0.083540767 -0.21368951 3
1.3640341 -0.089403518 -0.21650532 3
1.347948 -0.093075722 -0.21400237 3
1.3476149 -0.097780369 -0.21400237 3
1.3512228 -0.10254766 -0.21462812 3
1.3547949 -0.1075764 -0.21525384 3
1.3544111 -0.11230487 -0.21525384 3
1.3520429 -0.11686186 -0.21494098 3
1.343757 -0.12087277 -0.21368951 3
1.3551277 -0.12666565 -0.21556671 3
1.3586096 -0.13177657 -0.21619245 3
1.3660033 -0.13730845 -0.21744394 3
1.3576565 -0.14125817 -0.21619245 3
1.3532271 -0.14557384 -0.21556671 3
1.3566372 -0.15073286 -0.21619245 3
1.3600279 -0.15591748 -0.21681818 3
1.3633988 -0.1611276 -0.21744394 3
1.3549844 -0.16493103 -0.21619245 3
1.3544005 -0.16965979 -0.21619245 3
1.3577183 -0.17489122 -0.21681818 3
1.3649328 -0.18066633 -0.21806967 3
1.3682086 -0.1859618 -0.21869542 3
1.3636382 -0.19019087 -0.21806967 3
1.359055 -0.19439028 -0.21744394 3
1.3622773 -0.19970614 -0.21806967 3
1.3654789 -0.20504685 -0.21869542 3
1.3686596 -0.21041234 -0.21932115 3
1.3640141 -0.21457462 -0.21869542 3
1.3632568 -0.2193346 -0.21869542 3
1.3663812 -0.2247331 -0.21932115 3
1.3753287 -0.23113824 -0.22088549 3
1.2759017 0.57501972 -0.1718358 4
1.2815264 0.57218075 -0.17232326 4
1.2798847 0.56609887 -0.1718358 4
1.2709438 0.55684763 -0.17037337 4
1.2655957 0.54924697 -0.16939841 4
1.2638577 0.54325765 -0.16891092 4
1.2712259 0.54117501 -0.16964214 4
1.2839876 0.54158562 -0.17110457 4
1.2894399 0.53885531 -0.17159206 4
1.2693019 0.52524304 -0.16866718 4
1.2692906 0.52005684 -0.16842344 4
1.2674191 0.51413083 -0.16793597 4
1.2784166 0.5134021 -0.16915466 4
1.2838905 0.51040286 -0.16964214 4
1.2764281 0.50228393 -0.16842344 4
1.269011 0.49400187 -0.16720475 4
1.2724943 0.49050522 -0.16744849 4
1.2853272 0.4903051 -0.16891092 4
1.2850891 0.48533842 -0.16866718 4
1.2811968 0.47876528 -0.16793597 4
1.2772746 0.47222474 -0.16720475 4
1.2807794 0.46844545 -0.16744849 4
1.2880068 0.46599823 -0.16817972 4
1.2915753 0.46194249 -0.16842344 4
1.2800795 0.45279759 -0.16671728 4
1.2797005 0.44789407 -0.16647354 4
1.2811787 0.44364822 -0.16647354 4
1.29211 0.44238809 -0.16769223 4
1.2898856 0.43660244 -0.16720475 4
1.2839466 0.42935392 -0.1662298 4
1.2797095 0.42322358 -0.16549858 4
1.2830657 0.41937095 -0.16574231 4
1.2957828 0.41877627 -0.16720475 4
1.2934545 0.41304314 -0.16671728 4
1.2892095 0.40673354 -0.16598606 4
1.2830406 0.39986792 -0.16501111 4
1.2882228 0.39655581 -0.16549858 4
1.2933979 0.39321113 -0.16598606 4
1.2946948 0.38891953 -0.16598606 4
1.2922379 0.38326976 -0.16549858 4
1.2821373 0.37540948 -0.16403615 4
1.2910682 0.37313598 -0.16501111 4
1.2961806 0.36971632 -0.16549858 4
1.2954251 0.36510417 -0.16525485 4
1.287129 0.35792056 -0.16403615 4
1.290285 0.35395029 -0.16427989 4
1.2895964 0.34892601 -0.16403615 4
1.3023752 0.34726533 -0.16549858 4
1.3074192 0.34372684 -0.16598606 4
1.289395 0.3341803 -0.16354866 4
1.2866495 0.32891962 -0.1630612 4
1.2954895 0.32636642 -0.16403615 4
1.3004177 0.323026 -0.16452362 4
1.3015374 0.31848437 -0.16452362 4
1.2968518 0.31254423 -0.16379242 4
1.2960033 0.30755675 -0.16354866 4
1.3047479 0.30506539 -0.16452362 4
1.3000013 0.29917383 -0.16379242 4
1.3107181 0.296826 -0.16501111 4
1.2981327 0.28945336 -0.16330492 4
1.2893906 0.2830193 -0.16208623 4
1.3020132 0.28102934 -0.16354866 4
1.3069183 0.27707908 -0.16403615 4
1.3117642 0.2733255 -0.16452362 4
1.2971058 0.26578647 -0.16257372 4
1.2960341 0.26109123 -0.16232997 4
1.29884 0.25717783 -0.16257372 4
1.3037155 0.25294465 -0.1630612 4
1.3084471 0.24936286 -0.16354866 4
1.2976019 0.24260536 -0.16208623 4
1.2984824 0.23784745 -0.16208623 4
1.2993047 0.23331372 -0.16208623 4
1.3039813 0.22969279 -0.16257372 4
1.3165122 0.22716455 -0.16403615 4
1.3055915 0.22035584 -0.16257372 4
1.3024356 0.2151497 -0.16208623 4
1.31294 0.21241495 -0.16330492 4
1.3136734 0.20783092 -0.16330492 4
1.3143909 0.20324372 -0.16330492 4
1.3072411 0.19746804 -0.16232997 4
1.3039947 0.1923247 -0.1618425 4
1.3125505 0.1886735 -0.16281746 4
1.3131688 0.18432076 -0.16281746 4
1.3177378 0.18027361 -0.16330492 4
1.3124255 0.17511487 -0.16257372 4
1.3051547 0.16950956 -0.16159877 4
1.3155854 0.16619755 -0.16281746 4
1.3181279 0.16184586 -0.1630612 4
1.3265693 0.15818422 -0.16403615 4
1.3113378 0.15172701 -0.16208623 4
1.3079141 0.14670578 -0.16159877 4
1.3182857 0.14321162 -0.16281746 4
1.3227259 0.13902435 -0.16330492 4
1.327153 0.13480783 -0.16379242 4
1.3137861 0.12881802 -0.16208623 4
1.3102753 0.12385731 -0.16159877 4
1.3166304 0.11982284 -0.16232997 4
1.3249508 0.11591791 -0.16330492 4
1.3293036 0.1116254 -0.16379242 4
1.3217703 0.10634742 -0.16281746 4
1.3161957 0.1012757 -0.16208623 4
1.3224806 0.097117133 -0.16281746 4
1.3307164 0.093286641 -0.16379242 4
1.3310338 0.088640645 -0.16379242 4
1.3234105 0.083494246 -0.16281746 4
1.317749 0.07851959 -0.16208623 4
1.3219792 0.074141912 -0.16257372 4
1.3262067 0.069503561 -0.1630612 4
1.3383262 0.065688848 -0.16452362 4
1.3226831 0.060294565 -0.16257372 4
1.3189188 0.055509873 -0.16208623 4
1.3230718 0.05105903 -0.16257372 4
1.3291935 0.04664886 -0.16330492 4
1.3313323 0.042071167 -0.16354866 4
1.3275025 0.037313063 -0.1630612 4
1.3256402 0.032629784 -0.16281746 4
1.3277307 0.028044436 -0.1630612 4
1.3337748 0.023514243 -0.16379242 4
1.3417884 0.018970253 -0.16476737 4
1.3259665 0.014117628 -0.16281746 4
1.3339479 0.0095455209 -0.16379242 4
1.3280178 0.0048682024 -0.1630612 4
1.3458927 0.00023529488 -0.16525485 4
1.3439016 -0.0039874483 -0.16501111 4
1.3339528 -0.0088472394 -0.16379242 4
1.3299437 -0.013463358 -0.16330492 4
1.3358465 -0.017953569 -0.16403615 4
1.3437151 -0.022750858 -0.16501111 4
1.3475968 -0.027522225 -0.16549858 4
1.3316162 -0.031846359 -0.16354866 4
1.331497 -0.036494371 -0.16354866 4
1.339298 -0.0413872 -0.16452362 4
1.3391454 -0.04606197 -0.16452362 4
1.3508786 -0.051187169 -0.16598606 4
1.3387911 -0.055409767 -0.16452362 4
1.3306571 -0.059726637 -0.16354866 4
1.3383718 -0.064754874 -0.16452362 4
1.3460673 -0.069837682 -0.16549858 4
1.3497795 -0.074755453 -0.16598606 4
1.3475286 -0.079349913 -0.16574231 4
1.3373371 -0.083435141 -0.16452362 4
1.3469418 -0.088755436 -0.16574231 4
1.3486042 -0.093594037 -0.16598606 4
1.3542086 -0.098733999 -0.16671728 4
1.3479359 -0.10277145 -0.16598606 4
1.3396536 -0.10684472 -0.16501111 4
1.3511418 -0.11250868 -0.16647354 4
1.3586515 -0.11791089 -0.16744849 4
1.3542776 -0.12229569 -0.16696103 4
1.3459369 -0.12628052 -0.16598606 4
1.3415364 -0.13059327 -0.16549858 4
1.3529228 -0.13647068 -0.16696103 4
1.3524381 -0.14119244 -0.16696103 4
1.3637788 -0.14719053 -0.16842344 4
1.3514196 -0.15063071 -0.16696103 4
1.3429972 -0.15444002 -0.16598606 4
1.3601915 -0.16122998 -0.16817972 4
1.3615909 -0.16621751 -0.16842344 4
1.3649415 -0.17146416 -0.16891092 4
1.3564596 -0.17521046 -0.16793597 4
1.3479685 -0.17889968 -0.16696103 4
1.3552034 -0.18467599 -0.16793597 4
1.3624144 -0.19050501 -0.16891092 4
1.3656712 -0.1958231 -0.16939841 4
1.3531952 -0.19885726 -0.16793597 4
1.3564188 -0.20417054 -0.16842344 4
1.353736 -0.20860177 -0.16817972 4
1.3628039 -0.21487178 -0.16939841 4
1.3679249 -0.22057556 -0.17012961 4
1.3632293 -0.22470346 -0.16964214 4
1.352649 -0.22781222 -0.16842344 4
1.3635838 -0.23455158 -0.16988587 4
1.3705773 -0.2406833 -0.17086083 4
1.3716828 -0.24581619 -0.17110457 4
1.3610528 -0.24881785 -0.16988587 4
1.360176 -0.25356728 -0.16988587 4
1.365133 -0.25942546 -0.1706171 4
1.3720148 -0.26569876 -0.17159206 4
1.3788692 -0.2720232 -0.172567 4
1.3701264 -0.27527064 -0.17159206 4
1.3730469 -0.28084719 -0.17207953 4
1.2832654 0.53075892 -0.12149511 5
1.2740475 0.52174616 -0.12044924 5
1.2666291 0.51355231 -0.11957768 5
1.2610183 0.50615883 -0.11888044 5
1.2721233 0.50521076 -0.11975199 5
1.2701703 0.4993102 -0.11940337 5
1.2719055 0.49487311 -0.11940337 5
1.2661881 0.48756617 -0.11870612 5
1.2640747 0.48194468 -0.11835749 5
1.2657492 0.47752956 -0.11835749 5
1.2747916 0.47611821 -0.11905474 5
1.2764459 0.47166514 -0.11905474 5
1.2706803 0.4642489 -0.11835749 5
1.2647983 0.45710155 -0.11766025 5
1.2701383 0.45402533 -0.11800887 5
1.2792294 0.45224503 -0.11870612 5
1.278919 0.44712019 -0.1185318 5
1.2690972 0.4389686 -0.11748594 5
1.2725072 0.43518034 -0.11766025 5
1.2721311 0.43009734 -0.11748594 5
1.2849622 0.42944422 -0.1185318 5
1.2845616 0.42433098 -0.11835749 5
1.2745985 0.41635659 -0.11731163 5
1.2722518 0.41068107 -0.116963 5
1.2793008 0.40827736 -0.11748594 5
1.2807183 0.40380892 -0.11748594 5
1.2859247 0.40052125 -0.11783457 5
1.2720805 0.39134297 -0.11644007 5
1.2753452 0.38747907 -0.11661438 5
1.2785981 0.38359833 -0.11678869 5
1.2836837 0.38048831 -0.11713732 5
1.2830918 0.37544516 -0.116963 5
1.2805661 0.36985928 -0.11661438 5
1.2780173 0.36429429 -0.11626577 5
1.2829911 0.36135742 -0.11661438 5
1.2880838 0.35794389 -0.116963 5
1.2893871 0.35322013 -0.116963 5
1.2829187 0.34663868 -0.11626577 5
1.2764199 0.34010667 -0.11556852 5
1.2853074 0.33767375 -0.11626577 5
1.2903357 0.33418447 -0.11661438 5
1.2972859 0.33115634 -0.11713732 5
1.2887162 0.3244209 -0.11626577 5
1.2743706 0.31608298 -0.11487127 5
1.2831533 0.31374845 -0.11556852 5
1.2900515 0.31066713 -0.11609145 5
1.2930667 0.30662149 -0.11626577 5
1.2863684 0.30029452 -0.11556852 5
1.2815319 0.29468727 -0.11504558 5
1.2883826 0.29153153 -0.11556852 5
1.2952265 0.28833151 -0.11609145 5
1.2961756 0.2840344 -0.11609145 5
1.2874209 0.27740943 -0.11521988 5
1.2864797 0.2722767 -0.11504558 5
1.2854718 0.26737833 -0.11487127 5
1.3039192 0.26670772 -0.11644007 5
1.3008897 0.26159632 -0.11609145 5
1.2958864 0.25612235 -0.11556852 5
1.2889924 0.24985467 -0.11487127 5
1.2937711 0.24609861 -0.11521988 5
1.3024569 0.24304257 -0.11591713 5
1.3033388 0.2382675 -0.11591713 5
1.2963179 0.23231037 -0.11521988 5
1.295119 0.22766504 -0.11504558 5
1.3037597 0.22449614 -0.11574282 5
1.3045739 0.21971516 -0.11574282 5
1.3092644 0.21580896 -0.11609145 5
1.2981714 0.20956065 -0.11504558 5
1.2949233 0.20463288 -0.11469696 5
1.2995678 0.20071939 -0.11504558 5
1.3042351 0.196549 -0.1153942 5
1.3088555 0.19257487 -0.11574282 5
1.3055755 0.18743895 -0.1153942 5
1.2983292 0.18177512 -0.11469696 5
1.2989249 0.17746836 -0.11469696 5
1.3074363 0.17398535 -0.1153942 5
1.3080062 0.16964841 -0.1153942 5
1.2987067 0.16383438 -0.11452264 5
1.2972931 0.15905848 -0.11434833 5
1.3037757 0.15523545 -0.11487127 5
1.3122265 0.15159775 -0.11556852 5
1.3127477 0.14701658 -0.11556852 5
1.3013681 0.14114401 -0.11452264 5
1.3018528 0.13660079 -0.11452264 5
1.3062863 0.1324573 -0.11487127 5
1.3126895 0.12847921 -0.1153942 5
1.3170971 0.12427086 -0.11574282 5
1.3095859 0.11895131 -0.11504558 5
1.3099931 0.11437955 -0.11504558 5
1.3103844 0.10980577 -0.11504558 5
1.3187038 0.10586844 -0.11574282 5
1.3230382 0.10157056 -0.11609145 5
1.3114624 0.096077897 -0.11504558 5
1.3098023 0.091361098 -0.11487127 5
1.3120861 0.087148808 -0.11504558 5
1.3203361 0.083068945 -0.11574282 5
1.3246095 0.078464396 -0.11609145 5
1.3129395 0.073174596 -0.11504558 5
1.3092076 0.068384185 -0.11469696 5
1.3134184 0.064007394 -0.11504558 5
1.3195945 0.059922371 -0.11556852 5
1.3237768 0.055482268 -0.11591713 5
1.312017 0.050403092 -0.11487127 5
1.3121849 0.045822639 -0.11487127 5
1.3183111 0.041430011 -0.1153942 5
1.326414 0.037050162 -0.11609145 5
1.3285271 0.032468215 -0.11626577 5
1.3226565 0.027705695 -0.11574282 5
1.3107927 0.022880238 -0.11469696 5
1.316841 0.018388309 -0.11521988 5
1.3149049 0.01377035 -0.11504558 5
1.3308839 0.0092913145 -0.11644007 5
1.318954 0.0046041571 -0.1153942 5
1.314977 -0 -0.11504558 5
1.3229394 -0.0043870495 -0.11574282 5
1.3268991 -0.0092636524 -0.11609145 5
1.3348278 -0.013978793 -0.11678869 5
1.3228209 -0.018240344 -0.11574282 5
1.3227532 -0.022626873 -0.11574282 5
1.3266499 -0.027326064 -0.11609145 5
1.3265465 -0.031956773 -0.11609145 5
1.3343934 -0.036806833 -0.11678869 5
1.3322654 -0.041402627 -0.11661438 5
1.3221568 -0.045708656 -0.11574282 5
1.327962 -0.05055093 -0.11626577 5
1.3357401 -0.055517025 -0.116963 5
1.3434998 -0.060538039 -0.11766025 5
1.33134 -0.064647555 -0.11661438 5
1.3330959 -0.069397986 -0.11678869 5
1.328867 -0.073829889 -0.11644007 5
1.3365568 -0.078937918 -0.11713732 5
1.3462156 -0.084224932 -0.11800887 5
1.3280209 -0.087741449 -0.11644007 5
1.3316816 -0.092653148 -0.11678869 5
1.3313501 -0.097301006 -0.11678869 5
1.3349756 -0.10225204 -0.11713732 5
1.3386011 -0.10699588 -0.11748594 5
1.3302776 -0.11100512 -0.11678869 5
1.3338518 -0.11599319 -0.11713732 5
1.3334389 -0.12064851 -0.11713732 5
1.3409442 -0.12604818 -0.11783457 5
1.3484278 -0.1315017 -0.1185318 5
1.3380492 -0.13520628 -0.11766025 5
1.3375691 -0.13987611 -0.11766025 5
1.3410344 -0.14497255 -0.11800887 5
1.3524007 -0.15097906 -0.11905474 5
1.3558241 -0.15615481 -0.11940337 5
1.3394427 -0.15900761 -0.11800887 5
1.3388795 -0.16368216 -0.11800887 5
1.3363233 -0.16810608 -0.11783457 5
1.3475838 -0.17430313 -0.11888044 5
1.3548672 -0.18005589 -0.11957768 5
1.3463341 -0.18370673 -0.11888044 5
1.3397652 -0.18757641 -0.11835749 5
1.3469909 -0.19338448 -0.11905474 5
1.3502501 -0.19866523 -0.11940337 5
1.3574289 -0.20456485 -0.12010061 5
1.344892 -0.20747927 -0.11905474 5
1.3441596 -0.21217258 -0.11905474 5
1.3473448 -0.21749832 -0.11940337 5
1.3524747 -0.22317323 -0.1199263 5
1.3615106 -0.22954908 -0.12079786 5
1.3489202 -0.23227167 -0.11975199 5
1.3481013 -0.23697886 -0.11975199 5
1.3590322 -0.24379392 -0.12079786 5
1.3581729 -0.24853635 -0.12079786 5
1.3690486 -0.25546861 -0.12184373 5
1.3485756 -0.2565228 -0.12010061 5
1.351584 -0.26198694 -0.12044924 5
1.3584799 -0.26824713 -0.12114649 5
1.3614416 -0.27377304 -0.12149511 5
1.3643816 -0.27932289 -0.12184373 5
1.3516952 -0.28164527 -0.12079786 5
1.3546021 -0.28718832 -0.12114649 5
1.3633295 -0.29401514 -0.12201804 5
1.2762026 0.4761377 -0.071386255 6
1.2816043 0.47306287 -0.071595594 6
1.2701151 0.46379119 -0.070862897 6
1.2868353 0.46455804 -0.071700267 6
1.2752823 0.4553622 -0.070967562 6
1.2617977 0.44558766 -0.070130184 6
1.2671168 0.44249707 -0.070339531 6
1.2761284 0.44090131 -0.070758224 6
1.2813631 0.43795919 -0.070967562 6
1.2716061 0.42942598 -0.070339531 6
1.2730972 0.42498493 -0.070339531 6
1.2744997 0.42076045 -0.070339531 6
1.279758 0.41754833 -0.070548877 6
1.2811356 0.41330186 -0.070548877 6
1.274959 0.40640074 -0.070130184 6
1.2725596 0.40074825 -0.069920845 6
1.2739509 0.39630342 -0.069920845 6
1.2753263 0.39185494 -0.069920845 6
1.2805088 0.38856035 -0.070130184 6
1.2817904 0.38431156 -0.070130184 6
1.2716331 0.3764343 -0.06950216 6
1.2806078 0.37423375 -0.069920845 6
1.2857444 0.37086806 -0.070130184 6
1.2870311 0.36637798 -0.070130184 6
1.2843305 0.36125153 -0.069920845 6
1.2778857 0.35462949 -0.06950216 6
1.2791158 0.35016632 -0.06950216 6
1.2881037 0.34755725 -0.069920845 6
1.2854489 0.34203136 -0.069711499 6
1.2904989 0.33855614 -0.069920845 6
1.280071 0.33104861 -0.069292814 6
1.2850322 0.32778949 -0.06950216 6
1.2900424 0.32427594 -0.069711499 6
1.2949878 0.32095745 -0.069920845 6
1.2844589 0.31359258 -0.069292814 6
1.2816617 0.30817348 -0.069083467 6
1.2905039 0.30553803 -0.06950216 6
1.2915099 0.30125713 -0.06950216 6
1.2964469 0.29764053 -0.069711499 6
1.2896852 0.29135314 -0.069292814 6
1.2828957 0.28511596 -0.068874128 6
1.2877365 0.28171346 -0.069083467 6
1.2926171 0.27805763 -0.069292814 6
1.3014441 0.27496859 -0.069711499 6
1.2945737 0.26880077 -0.069292814 6
1.2876304 0.26290777 -0.068874128 6
1.2924114 0.25942275 -0.069083467 6
1.2971839 0.25590834 -0.069292814 6
1.298113 0.25115249 -0.069292814 6
1.2950144 0.24610026 -0.069083467 6
1.2959076 0.24135244 -0.069083467 6
1.2928541 0.23588377 -0.068874128 6
1.2976016 0.23207296 -0.069083467 6
1.3062329 0.22914936 -0.06950216 6
1.2912775 0.22188212 -0.068664782 6
1.2881428 0.21648613 -0.068455435 6
1.2928323 0.21263628 -0.068664782 6
1.3014177 0.20961799 -0.069083467 6
1.3060514 0.2059242 -0.069292814 6
1.2949183 0.19953856 -0.068664782 6
1.2916571 0.19442233 -0.068455435 6
1.3002653 0.19084731 -0.068874128 6
1.3048778 0.18687332 -0.069083467 6
1.3054901 0.18254603 -0.069083467 6
1.2982036 0.17690885 -0.068664782 6
1.2987832 0.17260252 -0.068664782 6
1.3033394 0.16857992 -0.068874128 6
1.3039198 0.1640303 -0.068874128 6
1.3124144 0.1604469 -0.069292814 6
1.3010664 0.15445232 -0.068664782 6
1.3015977 0.14990947 -0.068664782 6
1.3021131 0.14536479 -0.068664782 6
1.3105552 0.1416776 -0.069083467 6
1.3110418 0.13710234 -0.069083467 6
1.2995895 0.13132061 -0.068455435 6
1.3040158 0.12717076 -0.068664782 6
1.3044517 0.12261777 -0.068664782 6
1.30885 0.11842386 -0.068874128 6
1.3132349 0.11420012 -0.069083467 6
1.3056641 0.10895193 -0.068664782 6
1.3060365 0.10439331 -0.068664782 6
1.3063929 0.099833399 -0.068664782 6
1.3186854 0.096144311 -0.069292814 6
1.318997 0.091771126 -0.069292814 6
1.3113376 0.086639374 -0.068874128 6
1.3036585 0.081562847 -0.068455435 6
1.3119105 0.077482402 -0.068874128 6
1.316174 0.07289467 -0.069083467 6
1.3204097 0.068506539 -0.069292814 6
1.3086601 0.063545942 -0.068664782 6
1.3088739 0.058978382 -0.068664782 6
1.3130629 0.054574739 -0.068874128 6
1.3212286 0.050295137 -0.069292814 6
1.317404 0.045544513 -0.069083467 6
1.3135624 0.04082121 -0.068874128 6
1.3097038 0.03612591 -0.068664782 6
1.3138155 0.031650446 -0.068874128 6
1.3219053 0.027228983 -0.069292814 6
1.3259861 0.022682475 -0.06950216 6
1.3140748 0.017890297 -0.068874128 6
1.3181235 0.013343924 -0.069083467 6
1.3221565 0.0087688733 -0.069292814 6
1.3221791 0.0041545411 -0.069292814 6
1.3301744 -0.00046431849 -0.069711499 6
1.3221767 -0.0048460527 -0.069292814 6
1.3141613 -0.0096334778 -0.068874128 6
1.3261025 -0.01435037 -0.06950216 6
1.3300416 -0.018804273 -0.069711499 6
1.333966 -0.023284461 -0.069920845 6
1.3218956 -0.027689764 -0.069292814 6
1.3217909 -0.032303877 -0.069292814 6
1.3256631 -0.037029121 -0.06950216 6
1.3335108 -0.041907262 -0.069920845 6
1.3413407 -0.046840645 -0.070339531 6
1.3291942 -0.051062487 -0.069711499 6
1.3210258 -0.05536738 -0.069292814 6
1.3288052 -0.060340691 -0.069711499 6
1.3325763 -0.065173857 -0.069920845 6
1.3443078 -0.070452191 -0.070548877 6
1.3281004 -0.074252337 -0.069711499 6
1.3278332 -0.078887828 -0.069711499 6
1.3315364 -0.083773166 -0.069920845 6
1.3352216 -0.088685326 -0.070130184 6
1.3388888 -0.093624219 -0.070339531 6
1.3305862 -0.097712137 -0.069920845 6
1.3342376 -0.10242975 -0.070130184 6
1.333872 -0.10708648 -0.070130184 6
1.3454318 -0.1127426 -0.070758224 6
1.3450301 -0.11743832 -0.070758224 6
1.3366556 -0.12140997 -0.070339531 6
1.3322468 -0.1256998 -0.070130184 6
1.3357755 -0.13073856 -0.070339531 6
1.339285 -0.13580346 -0.070548877 6
1.3507209 -0.14172813 -0.071176901 6
1.3422756 -0.14558077 -0.070758224 6
1.3377895 -0.1498207 -0.070548877 6
1.3372583 -0.15448955 -0.070548877 6
1.3486104 -0.16057335 -0.071176901 6
1.3520067 -0.16576602 -0.071386255 6
1.3434935 -0.1694845 -0.070967562 6
1.3389324 -0.17365934 -0.070758224 6
1.3462369 -0.17938723 -0.071176901 6
1.3495604 -0.1846268 -0.071386255 6
1.3607749 -0.19100223 -0.07201428 6
1.3482386 -0.19404393 -0.071386255 6
1.3396494 -0.19758329 -0.070967562 6
1.3429012 -0.20285499 -0.071176901 6
1.3500803 -0.20876218 -0.071595594 6
1.3532888 -0.21409778 -0.071804941 6
1.3485898 -0.21818236 -0.071595594 6
1.34782 -0.22288848 -0.071595594 6
1.3509727 -0.22825739 -0.071804941 6
1.3541038 -0.23365097 -0.07201428 6
1.361148 -0.23976214 -0.072432972 6
1.3485082 -0.24239193 -0.071804941 6
1.3496183 -0.24745782 -0.071909614 6
1.2970914 0.42771685 -0.023839988 7
1.2794909 0.4172135 -0.023490939 7
1.2733262 0.41029185 -0.023351319 7
1.2823725 0.40827078 -0.023490939 7
1.2837895 0.40379286 -0.023490939 7
1.2775528 0.39693552 -0.023351319 7
1.2751074 0.39129996 -0.023281511 7
1.2763981 0.38706908 -0.023281511 7
1.2854036 0.38490662 -0.023421129 7
1.2867395 0.38041705 -0.023421129 7
1.2765418 0.37256199 -0.023211701 7
1.2778347 0.36810341 -0.023211701 7
1.2791119 0.36364037 -0.023211701 7
1.2879486 0.36178347 -0.023351319 7
1.2930577 0.35835388 -0.023421129 7
1.2827274 0.35067379 -0.023211701 7
1.2839435 0.34619439 -0.023211701 7
1.2813386 0.34045881 -0.023141891 7
1.2902569 0.33801135 -0.023281511 7
1.2913706 0.33373111 -0.023281511 7
1.2809007 0.32625946 -0.023072081 7
1.2819755 0.32201031 -0.023072081 7
1.2830918 0.31753308 -0.023072081 7
1.2919636 0.31494701 -0.023211701 7
1.2930551 0.31043497 -0.023211701 7
1.2824016 0.30338338 -0.023002272 7
1.2795573 0.29799822 -0.022932461 7
1.2922848 0.29621023 -0.023141891 7
1.293311 0.29169777 -0.023141891 7
1.3020797 0.28914165 -0.023281511 7
1.2913098 0.2822597 -0.023072081 7
1.2844671 0.27606934 -0.022932461 7
1.2854702 0.27135995 -0.022932461 7
1.2942418 0.26849562 -0.023072081 7
1.2990438 0.26500195 -0.023141891 7
1.2920728 0.25911954 -0.023002272 7
1.2850771 0.25328693 -0.022862652 7
1.2899234 0.24933445 -0.022932461 7
1.2947153 0.24557586 -0.023002272 7
1.3073604 0.24324934 -0.023211701 7
1.2885703 0.23487046 -0.022862652 7
1.2933192 0.23107415 -0.022932461 7
1.2940786 0.22678372 -0.022932461 7
1.2988039 0.22294268 -0.023002272 7
1.307501 0.21950419 -0.023141891 7
1.292473 0.21234617 -0.022862652 7
1.2931701 0.20805864 -0.022862652 7
1.2978393 0.20416453 -0.022932461 7
1.30645 0.20084868 -0.023072081 7
1.3071431 0.19628738 -0.023072081 7
1.2959491 0.18998274 -0.022862652 7
1.2966043 0.18545817 -0.022862652 7
1.2932829 0.18037826 -0.022792844 7
1.3057625 0.17770618 -0.023002272 7
1.3063747 0.17314802 -0.023002272 7
1.304988 0.16833071 -0.022967368 7
1.2916785 0.1620318 -0.022723034 7
1.3001763 0.15849015 -0.022862652 7
1.3126366 0.15536061 -0.023072081 7
1.3211175 0.15169041 -0.023211701 7
1.2977899 0.14442417 -0.022792844 7
1.3022623 0.14032125 -0.022862652 7
1.2987665 0.13536038 -0.022792844 7
1.3131585 0.13222808 -0.023037177 7
1.3195831 0.12822396 -0.023141891 7
1.3100678 0.12268438 -0.022967368 7
1.304513 0.1175724 -0.022862652 7
1.3049154 0.11301836 -0.022862652 7
1.317259 0.10945588 -0.023072081 7
1.3275999 0.10565056 -0.023246605 7
1.3120093 0.099801987 -0.022967368 7
1.3083441 0.095160797 -0.022897556 7
1.3126582 0.090869725 -0.022967368 7
1.3169582 0.086549051 -0.023037177 7
1.3232398 0.082323633 -0.023141891 7
1.315534 0.077235639 -0.023002272 7
1.3098056 0.07231205 -0.022897556 7
1.3140442 0.067946963 -0.022967368 7
1.3162706 0.063455619 -0.023002272 7
1.3284703 0.059396144 -0.023211701 7
1.3166816 0.054264773 -0.023002272 7
1.3128663 0.04951727 -0.022932461 7
1.3130312 0.044934489 -0.022932461 7
1.3211751 0.040596828 -0.023072081 7
1.3293047 0.036202226 -0.023211701 7
1.3094316 0.031087525 -0.022862652 7
1.3135307 0.026597183 -0.022932461 7
1.3236127 0.022179743 -0.023106987 7
1.3276809 0.017612033 -0.023176797 7
1.3377324 0.013075457 -0.023351319 7
1.325772 0.0083307112 -0.023141891 7
1.3237934 0.0036969148 -0.023106987 7
1.3217983 -0.00092278945 -0.023072081 7
1.3397861 -0.005144434 -0.023386225 7
1.335759 -0.010024946 -0.023316415 7
1.3317167 -0.014643579 -0.023246605 7
1.3296614 -0.019031012 -0.023211701 7
1.3255881 -0.023601085 -0.023141891 7
1.3354938 -0.028440991 -0.023316415 7
1.3353864 -0.033102561 -0.023316415 7
1.329266 -0.037594128 -0.023211701 7
1.3251293 -0.042106885 -0.023141891 7
1.336965 -0.047155112 -0.023351319 7
1.3407886 -0.051976625 -0.023421129 7
1.3425969 -0.056740966 -0.023456035 7
1.3304049 -0.060878702 -0.023246605 7
1.3341789 -0.065719068 -0.023316415 7
1.3319446 -0.070270479 -0.023281511 7
1.3436702 -0.075593337 -0.023490939 7
1.3433982 -0.080283165 -0.023490939 7
1.3331313 -0.084340714 -0.023316415 7
1.3228526 -0.088327579 -0.023141891 7
1.3345048 -0.093785793 -0.023351319 7
1.3421637 -0.098797858 -0.023490939 7
1.3497857 -0.10409734 -0.023630559 7
1.3414412 -0.10816545 -0.023490939 7
1.3330849 -0.11217658 -0.023351319 7
1.3366693 -0.11717848 -0.023421129 7
1.3482008 -0.12293314 -0.023630559 7
1.3557266 -0.12839264 -0.023770178 7
1.3433293 -0.1319513 -0.023560748 7
1.3388817 -0.13623475 -0.023490939 7
1.3463529 -0.14174497 -0.023630559 7
1.3498259 -0.14687638 -0.023700368 7
1.3493049 -0.15158725 -0.023700368 7
1.3447948 -0.15583591 -0.023630559 7
1.3363003 -0.15958071 -0.023490939 7
1.3476435 -0.16570857 -0.023700368 7
1.3589603 -0.17191759 -0.023909798 7
1.3583519 -0.17666019 -0.023909798 7
1.3537627 -0.18087098 -0.023839988 7
1.3451985 -0.18450847 -0.023700368 7
1.3524671 -0.19031759 -0.023839988 7
1.3557529 -0.19560854 -0.023909798 7
1.3491272 -0.19946238 -0.023805084 7
1.2750897 0.38448641 0.023246605 8
1.2764238 0.38003406 0.023246605 8
1.2662315 0.37219232 0.023037177 8
1.2828871 0.37222755 0.023316415 8
1.2745664 0.36499482 0.023141891 8
1.2718583 0.35990015 0.023072081 8
1.2750331 0.3559958 0.023106987 8
1.2820518 0.35313565 0.023211701 8
1.2852062 0.34918284 0.023246605 8
1.2748876 0.34136698 0.023037177 8
1.2760714 0.33691436 0.023037177 8
1.2753046 0.33195391 0.023002272 8
1.280272 0.32871786 0.023072081 8
1.289166 0.32620934 0.023211701 8
1.2785993 0.31902811 0.023002272 8
1.2758213 0.31360799 0.022932461 8
1.2769083 0.3091529 0.022932461 8
1.2896508 0.30747604 0.023141891 8
1.2887167 0.30274069 0.023106987 8
1.2780757 0.29553756 0.022897556 8
1.2751999 0.29018667 0.022827748 8
1.2801079 0.28660709 0.022897556 8
1.2888626 0.28408247 0.023037177 8
1.2956601 0.28107902 0.023141891 8
1.2829913 0.27341047 0.022897556 8
1.2800702 0.26788729 0.022827748 8
1.2829101 0.26404369 0.022862652 8
1.2857386 0.26018485 0.022897556 8
1.290517 0.25669968 0.022967368 8
1.2875237 0.25120237 0.022897556 8
1.2824578 0.24580243 0.022792844 8
1.2852733 0.24169353 0.022827748 8
1.2881169 0.23734376 0.022862652 8
1.2948821 0.23368612 0.022967368 8
1.2917117 0.22869386 0.022897556 8
1.284582 0.2230404 0.022757938 8
1.2893339 0.21900071 0.022827748 8
1.2940732 0.21492854 0.022897556 8
1.2987263 0.21127912 0.022967368 8
1.2895459 0.20539816 0.022792844 8
1.2823515 0.19966459 0.022653224 8
1.2909485 0.19638981 0.022792844 8
1.29756 0.19276415 0.022897556 8
1.3041948 0.18886714 0.023002272 8
1.288974 0.18230124 0.022723034 8
1.2876216 0.17752731 0.022688128 8
1.2901852 0.17352261 0.022723034 8
1.3026794 0.17057662 0.022932461 8
1.3012834 0.16577534 0.022897556 8
1.2899469 0.15975697 0.022688128 8
1.2885114 0.15501468 0.022653224 8
1.2969896 0.15144332 0.022792844 8
1.3014841 0.14736529 0.022862652 8
1.307954 0.14347579 0.022967368 8
1.2985044 0.13785343 0.022792844 8
1.294999 0.13291189 0.022723034 8
1.299435 0.12878479 0.022792844 8
1.3038577 0.12462895 0.022862652 8
1.3082674 0.12044317 0.022932461 8
1.3007125 0.11516991 0.022792844 8
1.2971214 0.11029093 0.022723034 8
1.3014847 0.10608704 0.022792844 8
1.3078279 0.10201015 0.022897556 8
1.3161527 0.098038174 0.023037177 8
1.3025081 0.092679873 0.022792844 8
1.2948432 0.087592505 0.022653224 8
1.30911 0.083968394 0.022897556 8
1.3153833 0.079760991 0.023002272 8
1.3096644 0.07482703 0.022897556 8
1.2979488 0.069385558 0.022688128 8
1.2961746 0.064981163 0.022653224 8
1.3003885 0.060642846 0.022723034 8
1.3025901 0.056189105 0.022757938 8
1.3187634 0.052275799 0.023037177 8
1.3009523 0.047021713 0.022723034 8
1.3011085 0.042479914 0.022723034 8
1.3072454 0.038113661 0.022827748 8
1.3133675 0.033703841 0.022932461 8
1.3094788 0.029030763 0.022862652 8
1.3015747 0.024309933 0.022723034 8
1.3016517 0.019766096 0.022723034 8
1.309711 0.01531617 0.022862652 8
1.3117561 0.010760386 0.022897556 8
1.3137853 0.0061917631 0.022932461 8
1.3077998 0.0015980783 0.022827748 8
1.3077985 -0.0025107958 0.022827748 8
1.3137794 -0.0073376046 0.022932461 8
1.3257414 -0.012263781 0.023141891 8
1.3296925 -0.016710287 0.023211701 8
1.3176332 -0.020929063 0.023002272 8
1.3135533 -0.025450854 0.022932461 8
1.3174549 -0.030127292 0.023002272 8
1.3253378 -0.034936663 0.023141891 8
1.3332031 -0.039801434 0.023281511 8
1.3170671 -0.043921743 0.023002272 8
1.3109108 -0.048298024 0.022897556 8
1.3267187 -0.053518455 0.023176797 8
1.3305194 -0.058324393 0.023246605 8
1.3303077 -0.062968425 0.023246605 8
1.3220915 -0.0672056 0.023106987 8
1.3218489 -0.071820155 0.023106987 8
1.3215901 -0.076433837 0.023106987 8
1.3332908 -0.081781134 0.023316415 8
1.3389838 -0.086822867 0.023421129 8
1.3247072 -0.09054175 0.023176797 8
1.3263776 -0.095308624 0.023211701 8
1.3300425 -0.10000639 0.023281511 8
1.3336723 -0.1049623 0.023351319 8
1.3372837 -0.10994475 0.023421129 8
1.3249375 -0.11358721 0.023211701 8
1.3305082 -0.11874469 0.023316415 8
1.3320768 -0.12357303 0.023351319 8
1.3336278 -0.12841375 0.023386225 8
1.3351612 -0.13326681 0.023421129 8
1.3326988 -0.13772103 0.023386225 8
1.3282332 -0.14194718 0.023316415 8
1.3297174 -0.14680214 0.023351319 8
1.339131 -0.1525747 0.023525843 8
1.3346182 -0.1567816 0.023456035 8
1.2854061 0.33434442 0.069606826 9
1.2768921 0.32737502 0.069083467 9
1.2818432 0.32411838 0.069292814 9
1.2810286 0.31915933 0.06918814 9
1.2782557 0.31373331 0.068978801 9
1.2715777 0.30739188 0.068560109 9
1.2648184 0.30132228 0.068141423 9
1.2716961 0.29827392 0.068455435 9
1.2746756 0.29428202 0.068560109 9
1.2834855 0.291601 0.068978801 9
1.276649 0.28559932 0.068560109 9
1.2775892 0.2813639 0.068560109 9
1.2766117 0.27647948 0.068455435 9
1.2795699 0.27221447 0.068560109 9
1.2883322 0.26938102 0.068978801 9
1.2774805 0.26269385 0.06835077 9
1.2783448 0.25845575 0.06835077 9
1.2831124 0.25499466 0.068560109 9
1.2840384 0.25028977 0.068560109 9
1.2966744 0.24805804 0.06918814 9
1.2818285 0.24058254 0.06835077 9
1.2787731 0.23516062 0.068141423 9
1.2795861 0.23069508 0.068141423 9
1.2882111 0.2278416 0.068560109 9
1.2889984 0.2233444 0.068560109 9
1.2819319 0.21728247 0.068141423 9
1.2846527 0.21313415 0.068246089 9
1.2814096 0.20823185 0.06803675 9
1.2939638 0.20563811 0.068664782 9
1.2986209 0.20173353 0.068874128 9
1.2914186 0.19600075 0.068455435 9
1.2822165 0.19002734 0.067932077 9
1.2848487 0.18583657 0.06803675 9
1.2973557 0.18302414 0.068664782 9
1.3038912 0.17953852 0.068978801 9
1.2906531 0.17312755 0.068246089 9
1.2872888 0.16810368 0.06803675 9
1.2938118 0.16436459 0.06835077 9
1.3003242 0.16058135 0.068664782 9
1.3008767 0.15604106 0.068664782 9
1.2776072 0.14872874 0.067408718 9
1.2860571 0.14516388 0.067827404 9
1.286556 0.1406741 0.067827404 9
1.2969702 0.13723278 0.06835077 9
1.3053888 0.13351721 0.068769448 9
1.2899463 0.12738973 0.067932077 9
1.2903831 0.12288585 0.067932077 9
1.2908041 0.11838172 0.067932077 9
1.3051362 0.11510313 0.068664782 9
1.3095105 0.11088334 0.068874128 9
1.3039173 0.1058272 0.068560109 9
1.2903399 0.10019235 0.067827404 9
1.2966404 0.096357174 0.068141423 9
1.3009534 0.092112876 0.06835077 9
1.2992742 0.087436676 0.068246089 9
1.293592 0.082519054 0.067932077 9
1.2938721 0.078003339 0.067932077 9
1.3001186 0.073826365 0.068246089 9
1.2963794 0.069075391 0.06803675 9
