# .PCD v0.7 - Point Cloud Data file format
VERSION 0.7
FIELDS x y z intensity
SIZE 4 4 4 4
TYPE F F F F
COUNT 1 1 1 1
WIDTH 449
HEIGHT 1
VIEWPOINT 0 0 0 1 0 0 0
POINTS 449
DATA ascii
3.1330762 -0.20370521 -0.16454425 6
3.0944867 -0.21204616 -0.1625555 6
3.0797832 -0.2218422 -0.1618228 6
3.086956 -0.23319305 -0.16224147 6
3.074177 -0.24302274 -0.16161345 6
3.0733542 -0.25321576 -0.16161345 6
3.0684719 -0.26360029 -0.1614041 6
3.0595279 -0.2741321 -0.16098543 6
3.0711789 -0.27571636 -0.053823221 7
3.054575 -0.2844398 -0.16077606 6
3.0442646 -0.28455162 -0.053369459 7
3.0535636 -0.29510054 -0.16077606 6
3.0173781 -0.29266667 -0.052915696 7
3.0570741 -0.30513656 -0.26878831 5
3.0485404 -0.30535954 -0.16056673 6
3.0342984 -0.30446795 -0.053229842 7
3.0480628 -0.31498668 -0.26809105 5
3.0316176 -0.313822 -0.15972935 6
3.0292392 -0.31464455 -0.05316003 7
3.0489829 -0.32530406 -0.26826537 5
3.0225601 -0.32355204 -0.15931067 6
3.0281792 -0.32468811 -0.05316003 7
3.0478289 -0.33594498 -0.26826537 5
3.0214708 -0.33357343 -0.15931067 6
3.0151021 -0.33393568 -0.052950602 7
3.0347598 -0.34523064 -0.26721951 5
3.016319 -0.34366614 -0.15910132 6
3.0019975 -0.34309596 -0.05274117 7
3.0216634 -0.35442922 -0.26617363 5
3.0229735 -0.35565266 -0.15952002 6
3.0047536 -0.35404077 -0.052810986 7
2.9703765 -0.35524759 0.052217599 8
3.0243638 -0.36545265 -0.26652226 5
3.0058515 -0.36428031 -0.15868263 6
2.9994655 -0.36456883 -0.05274117 7
2.9711032 -0.36585841 0.052252505 8
3.0151608 -0.37502372 -0.265825 5
2.996634 -0.37378165 -0.15826395 6
2.9981747 -0.37503666 -0.05274117 7
2.9698083 -0.37622726 0.052252505 8
3.009881 -0.38504073 -0.26547641 5
2.9913492 -0.38373131 -0.15805461 6
2.9809804 -0.38345897 -0.052461933 7
2.9664936 -0.38633329 0.052217599 8
3.0349643 -0.39848292 -0.37584507 4
3.0085187 -0.39554483 -0.26547641 5
2.9899914 -0.3941707 -0.15805461 6
2.9756587 -0.39333805 -0.052392125 7
2.9512529 -0.39482978 0.051973268 8
3.019784 -0.40721744 -0.37413892 4
2.9913239 -0.40391123 -0.2640819 5
2.9925556 -0.40514126 -0.15826395 6
2.9663417 -0.40264684 -0.052252505 7
2.9399512 -0.40376875 0.051798742 8
3.0163777 -0.41748381 -0.37389517 4
2.9898956 -0.41435042 -0.2640819 5
2.975297 -0.4133859 -0.15742657 6
2.9688792 -0.41355059 -0.052322313 7
2.9385238 -0.41402861 0.051798742 8
3.0070405 -0.4268944 -0.37292022 4
2.9923761 -0.42534539 -0.26443052 5
2.9619722 -0.42207846 -0.15679854 6
2.9674175 -0.42391139 -0.052322313 7
2.9410191 -0.42485529 0.05186855 8
2.9799948 -0.43367195 -0.36975163 4
2.9829872 -0.4346391 -0.2637333 5
2.9604809 -0.43241513 -0.15679854 6
2.9461339 -0.43136996 -0.051973268 7
2.9415722 -0.4348982 0.05190346 8
2.9220309 -0.43305141 0.15480977 9
2.9883575 -0.44501352 -0.37097031 4
2.9697056 -0.44276571 -0.26268741 5
2.9669321 -0.44341093 -0.15721723 6
2.9367764 -0.43995219 -0.051833645 7
2.9301505 -0.44366673 0.051728934 8
2.9264255 -0.44414771 0.1551238 9
2.9907107 -0.45604053 -0.37145779 4
2.9563246 -0.45132512 -0.26164153 5
2.9653661 -0.45376477 -0.15721723 6
2.9352229 -0.45020083 -0.051833645 7
2.9187033 -0.45236078 0.051554412 8
2.9169629 -0.45313376 0.15470509 9
2.9891007 -0.46647727 -0.37145779 4
2.9546506 -0.46215758 -0.26164153 5
2.9479785 -0.4616411 -0.15637985 6
2.9415357 -0.46168423 -0.051973268 7
2.9171064 -0.46254623 0.051554412 8
2.9074733 -0.4620592 0.15428641 9
2.9639308 -0.47315317 -0.36853293 4
2.9530194 -0.47246847 -0.26164153 5
2.9344342 -0.4705455 -0.15575182 6
2.9320083 -0.47068143 -0.051833645 7
2.9114439 -0.47259405 0.051484596 8
2.903789 -0.47239181 0.15418173 9
2.950422 -0.48209268 -0.3670705 4
2.9513519 -0.48277354 -0.26164153 5
2.9367158 -0.48143196 -0.15596117 6
2.9223707 -0.48012787 -0.051694028 7
2.913722 -0.48340857 0.051554412 8
2.8981819 -0.48186988 0.1539724 9
2.9948642 -0.49901927 -0.4808796 3
2.9487214 -0.49238864 -0.3670705 4
2.9339278 -0.49044475 -0.26024702 5
2.938957 -0.49234009 -0.15617052 6
2.9127884 -0.4890016 -0.051554412 7
2.9061022 -0.49257386 0.051449694 8
2.9004204 -0.49265239 0.15418173 9
2.9561043 -0.50317234 -0.47493511 3
2.9508984 -0.50334615 -0.36755794 4
2.9282701 -0.50001234 -0.25989842 5
2.9411578 -0.50326967 -0.15637985 6
2.9150059 -0.49984208 -0.05162422 7
2.8925426 -0.5006687 0.051240265 8
2.8888435 -0.5010671 0.15365838 9
2.9445989 -0.51179665 -0.47337076 3
2.9510789 -0.51398426 -0.3678017 4
2.9265068 -0.5102309 -0.25989842 5
2.9157736 -0.50940841 -0.1551238 6
2.9093037 -0.50932461 -0.051554412 7
2.8868387 -0.51006663 0.051170457 8
2.8851104 -0.51079988 0.15355371 9
2.9427946 -0.52207214 -0.47337076 3
2.9297223 -0.52080798 -0.36536431 4
2.9286311 -0.52114135 -0.26024702 5
2.9100451 -0.51888204 -0.15491444 6
2.9114454 -0.52018034 -0.05162422 7
2.8929126 -0.52155966 0.051310074 8
2.8675861 -0.51802725 0.15271634 9
2.8663857 -0.518327 0.25484338 10
2.940954 -0.53234124 -0.47337076 3
2.9298398 -0.53138572 -0.36560807 4
2.9228735 -0.53064919 -0.25989842 5
2.9082162 -0.52903682 -0.15491444 6
2.8899388 -0.5267542 -0.051275171 7
2.8871412 -0.53093141 0.051240265 8
2.869781 -0.52825671 0.15292569 9
2.8508439 -0.52579981 0.25362319 10
2.9390779 -0.54260385 -0.47337076 3
2.9318709 -0.5423317 -0.36609554 4
2.9053304 -0.5379467 -0.25850391 5
2.9063518 -0.53918517 -0.15491444 6
2.8803117 -0.53487414 -0.051135551 7
2.8735714 -0.53829336 0.051030833 8
2.8659563 -0.53790247 0.152821 9
2.8450751 -0.53501147 0.25327459 10
2.9294968 -0.55088687 -0.47211927 3
2.9339581 -0.55278623 -0.36658302 4
2.8995197 -0.54734576 -0.25815532 5
2.908473 -0.54956168 -0.1551238 6
2.8862863 -0.54641294 -0.051275171 7
2.8638179 -0.54682052 0.050891217 8
2.8640614 -0.54790324 0.152821 9
2.8432853 -0.54444319 0.25327459 10
2.917856 -0.55925018 -0.47055492 3
2.9281116 -0.56227559 -0.36609554 4
2.8975914 -0.55746365 -0.25815532 5
2.890847 -0.55668932 -0.15428641 6
2.8843613 -0.5564847 -0.051275171 7
2.8658175 -0.55757767 0.050961025 8
2.8562505 -0.55675101 0.15250699 9
2.8432262 -0.5552426 0.2534489 10
2.9216027 -0.57107776 -0.47149354 3
2.9105458 -0.56944394 -0.36414564 4
2.8995378 -0.56834126 -0.25850391 5
2.8770282 -0.56497192 -0.15365838 6
2.8824015 -0.56654954 -0.051275171 7
2.8657165 -0.56846672 0.050995931 8
2.842437 -0.56488019 0.15187897 9
2.8432245 -0.56555253 0.25362319 10
2.9157166 -0.58050108 -0.47086781 3
2.9045458 -0.57933116 -0.36365816 4
2.8975363 -0.57845902 -0.25850391 5
2.8750386 -0.57501125 -0.15365838 6
2.8646197 -0.57396746 -0.050995931 7
2.8656745 -0.57886237 0.051030833 8
2.848278 -0.57638323 0.15229765 9
2.9248607 -0.59188062 -0.58005941 2
2.827564 -0.57270521 0.25240302 10
2.9175446 -0.59146035 -0.47149354 3
2.9025056 -0.58946639 -0.36365816 4
2.87988 -0.58539474 -0.25710943 5
2.873014 -0.58504349 -0.15365838 6
2.85868 -0.58316392 -0.050926123 7
2.8460083 -0.58523697 0.050716694 8
2.8463511 -0.58582532 0.15229765 9
2.809937 -0.57935309 0.25100854 10
2.9057891 -0.59964466 -0.46992919 3
2.896647 -0.5982852 -0.36317068 4
2.8739169 -0.59463644 -0.25676081 5
2.8748658 -0.59587932 -0.15386772 6
2.8567305 -0.59264046 -0.050926123 7
2.8323076 -0.59221578 0.050507262 8
2.8443928 -0.59526092 0.15229765 9
2.8021502 -0.58744168 0.2504856 10
2.8979847 -0.6080603 -0.46899059 3
2.8130529 -0.59075236 0.35293365 11
2.8985324 -0.60870343 -0.36365816 4
2.8680298 -0.60334319 -0.25641218 5
2.8611481 -0.60293841 -0.1532397 6
2.8547497 -0.60211045 -0.050926123 7
2.830328 -0.60160482 0.050507262 8
2.8305769 -0.60269046 0.15166962 9
2.8021357 -0.59714592 0.25065991 10
2.8882248 -0.61601889 -0.46773914 3
2.7877822 -0.59510463 0.35000879 11
2.8828008 -0.61591417 -0.36195198 4
2.8736994 -0.61501867 -0.25710943 5
2.8473086 -0.61041003 -0.15261166 6
2.8526304 -0.61207175 -0.050926123 7
2.828104 -0.61197442 0.050507262 8
2.8127337 -0.60967624 0.15083225 9
2.8077164 -0.60910183 0.25135714 10
2.8898084 -0.6274389 -0.46836486 3
2.7739434 -0.60278904 0.34854636 11
2.8747048 -0.6252104 -0.36122078 4
2.8675323 -0.62469888 -0.25676081 5
2.8411496 -0.61999017 -0.15240233 6
2.8386459 -0.61996299 -0.050716694 7
2.827795 -0.62276596 0.050542168 8
2.8143809 -0.62084186 0.15104158 9
2.7899008 -0.61595225 0.24996266 10
2.8874893 -0.63802642 -0.46836486 3
2.783345 -0.61552393 0.35000879 11
2.8723941 -0.63574255 -0.36122078 4
2.8536632 -0.63211936 -0.25571495 5
2.8428676 -0.63076913 -0.15261166 6
2.8324504 -0.62949526 -0.050646886 7
2.8138957 -0.63001156 0.05033274 8
2.8063498 -0.62935084 0.15072757 9
2.7799575 -0.62394178 0.24926542 10
2.8736804 -0.64550406 -0.46648762 3
2.7792425 -0.62480044 0.34976503 11
2.8740306 -0.64663666 -0.36170825 4
2.8436642 -0.6403259 -0.2550177 5
2.8445451 -0.64156765 -0.152821 6
2.826335 -0.63849729 -0.050577074 7
2.8058298 -0.63849896 0.050228026 8
2.8158197 -0.64180619 0.15135561 9
2.7797053 -0.634085 0.24943975 10
2.8637064 -0.65377247 -0.46523616 3
2.7596278 -0.63051862 0.3475714 11
2.8640153 -0.65489501 -0.36073327 4
2.8452961 -0.65113717 -0.25536633 5
2.826714 -0.64792323 -0.15198363 6
2.8240891 -0.64835912 -0.050577074 7
2.7996874 -0.64738816 0.050158214 8
2.7960505 -0.6475755 0.15041354 9
2.7755339 -0.64333421 0.24926542 10
2.8652554 -0.66465747 -0.46586189 3
2.7496753 -0.63835198 0.34659645 11
2.8539777 -0.6630913 -0.35975835 4
2.8391247 -0.66016269 -0.2550177 5
2.8166544 -0.65597427 -0.15156494 6
2.8218086 -0.65821314 -0.050577074 7
2.7974105 -0.65715694 0.050158214 8
2.7898848 -0.65641677 0.15020421 9
2.7752109 -0.6534754 0.24943975 10
2.8744543 -0.67737359 -0.46773914 3
2.7532265 -0.64931315 0.34732765 11
2.8400536 -0.67031354 -0.35829589 4
2.836803 -0.67006904 -0.2550177 5
2.8182347 -0.66672182 -0.15177429 6
2.8078189 -0.66529274 -0.050367646 7
2.8009348 -0.66831005 0.050262932 8
2.7953465 -0.66800809 0.15062289 9
2.7709751 -0.66269529 0.24926542 10
2.7509432 -0.65891975 0.34732765 11
2.8415575 -0.68114865 -0.35878339 4
2.8266969 -0.67810816 -0.25432047 5
2.8081222 -0.67468888 -0.15135561 6
2.7977023 -0.67321843 -0.050228026 7
2.7830374 -0.67431599 0.049983691 8
2.787293 -0.67586219 0.15030889 9
2.7550921 -0.66907245 0.24804525 10
2.7524841 -0.66945666 0.34781513 11
2.8391623 -0.69106334 -0.35878339 4
2.8165696 -0.68608481 -0.25362319 5
2.8135114 -0.68638039 -0.15177429 6
2.7954547 -0.6824922 -0.050228026 7
2.7710764 -0.68115443 0.049809169 8
2.781038 -0.68463266 0.15009953 9
2.7527399 -0.67868543 0.24804525 10
2.7329035 -0.67430079 0.3456215 11
2.8464911 -0.70285386 -0.36000207 4
2.8141575 -0.6959123 -0.25362319 5
2.7957096 -0.69186813 -0.1509369 6
2.8008192 -0.6941703 -0.050367646 7
2.7745025 -0.69227552 0.049913883 8
2.7766938 -0.69385195 0.14999487 9
2.7562728 -0.68926024 0.24856818 10
2.7228305 -0.68190718 0.34464651 11
2.8228395 -0.70747715 -0.35732093 4
2.8156993 -0.70620996 -0.25397182 5
2.7855291 -0.69967657 -0.15051822 6
2.8022575 -0.70491838 -0.050437454 7
2.7740076 -0.70244706 0.049948789 8
2.7587669 -0.6996125 0.14915749 9
2.7480564 -0.69740689 0.24804525 10
2.7242813 -0.69238544 0.34513399 11
2.8145812 -0.71585846 -0.35658973 4
2.8170788 -0.71701717 -0.25432047 5
2.7869406 -0.71038222 -0.15072757 6
2.7842793 -0.71073896 -0.050158214 7
2.777349 -0.7136187 0.0500535 8
2.7603004 -0.70975178 0.14936683 9
2.7359581 -0.70451099 0.24717368 10
2.7314591 -0.70436931 0.34635273 11
2.8139875 -0.72617489 -0.35683349 4
2.7952676 -0.7218644 -0.25257733 5
2.7844441 -0.72010618 -0.15072757 6
2.7741635 -0.71796399 -0.050018597 7
2.7594864 -0.71879238 0.049774267 8
2.7674692 -0.72190332 0.14989018 9
2.7296267 -0.71304983 0.24682505 10
2.7271876 -0.71292114 0.34610897 11
2.8154047 -0.73650718 -0.35732093 4
2.7811668 -0.72858787 -0.25153148 5
2.7859046 -0.73034877 -0.1509369 6
2.7755089 -0.72865891 -0.050088406 7
2.7472939 -0.72586632 0.049599741 8
2.7610707 -0.73053747 0.14968085 9
2.7233953 -0.7210778 0.24647643 10
2.8128169 -0.74633032 -0.35732093 4
2.7901599 -0.74136144 -0.25257733 5
2.7678967 -0.73596311 -0.15009953 6
2.7768128 -0.73937178 -0.050158214 7
2.7486064 -0.73648685 0.049669549 8
2.7450006 -0.73654777 0.14894815 9
2.7303545 -0.73363966 0.24734798 10
2.7967758 -0.75253379 -0.35561478 4
2.7875552 -0.75109637 -0.25257733 5
2.7574675 -0.74402189 -0.14968085 6
2.7703543 -0.74801761 -0.050088406 7
2.7420294 -0.74550682 0.049599741 8
2.7404857 -0.74560076 0.14884347 9
2.720088 -0.74107111 0.24665076 10
2.8112342 -0.76748466 -0.35780841 4
2.7849164 -0.76082212 -0.25257733 5
2.7625594 -0.75575072 -0.15009953 6
2.7600112 -0.75557137 -0.049948789 7
2.7491815 -0.75725079 0.049774267 8
2.730165 -0.75303817 0.14842479 9
2.7117233 -0.74897015 0.24612781 10
2.7707229 -0.76734799 -0.25153148 5
2.7600381 -0.76490754 -0.15009953 6
2.7419422 -0.76092309 -0.049669549 7
2.7330389 -0.76307821 0.049529929 8
2.7294431 -0.76310134 0.14852946 9
2.7015498 -0.75581121 0.24543057 10
2.7565181 -0.7737841 -0.2504856 5
2.7573514 -0.77453721 -0.15009953 6
2.750819 -0.77373838 -0.049878977 7
2.7226622 -0.77043575 0.049390312 8
2.7344491 -0.77480221 0.14894815 9
2.6987612 -0.76570779 0.24543057 10
2.757633 -0.78449184 -0.25083423 5
2.742969 -0.7813552 -0.14947151 6
2.7442553 -0.7822395 -0.049809169 7
2.7236645 -0.7815128 0.04946012 8
2.7202096 -0.78103536 0.14832011 9
2.6999016 -0.77622455 0.24577919 10
2.7548778 -0.79411298 -0.25083423 5
2.732549 -0.78870976 -0.14905281 6
2.749193 -0.79403347 -0.049948789 7
2.7210581 -0.79054034 0.04946012 8
2.709796 -0.7882942 0.14790143 9
2.7029145 -0.78731591 0.24630213 10
2.7559142 -0.80484152 -0.25118285 5
2.737587 -0.80000782 -0.14947151 6
2.7310507 -0.79913253 -0.049669549 7
2.7163634 -0.79946923 0.049425215 8
2.7108591 -0.7988776 0.14811078 9
2.6907334 -0.79345709 0.24543057 10
2.7417662 -0.81058675 -0.25013697 5
2.7386079 -0.81069273 -0.14968085 6
2.7167411 -0.80525118 -0.04946012 7
2.7135563 -0.80894625 0.049425215 8
2.7080541 -0.8083353 0.14811078 9
2.6784022 -0.79999363 0.24455902 10
2.7351027 -0.81900942 -0.24978836 5
2.7319353 -0.8191002 -0.14947151 6
2.7215748 -0.8170293 -0.049599741 7
2.6973157 -0.81436753 0.04918088 8
2.7053587 -0.81731111 0.14811078 9
2.7360404 -0.82970798 -0.25013697 5
2.7214148 -0.82631022 -0.14905281 6
2.722677 -0.82721251 -0.049669549 7
2.7003374 -0.82506073 0.049285594 8
2.6891203 -0.82265979 0.14737807 9
2.7331276 -0.83925349 -0.25013697 5
2.7072048 -0.83181059 -0.14842479 6
2.7197728 -0.83671135 -0.049669549 7
2.6993515 -0.83507264 0.049320504 8
2.6728771 -0.82790482 0.14664535 9
2.7157273 -0.84481502 -0.14905281 6
2.6977434 -0.84025347 -0.049320504 7
2.6983285 -0.84508765 0.049355406 8
2.6814055 -0.84081554 0.14727339 9
2.716572 -0.85548943 -0.14926216 6
2.6947939 -0.84966522 -0.049320504 7
2.6839249 -0.8508755 0.049145978 8
2.6822615 -0.85137868 0.14748274 9
2.7097633 -0.86375368 -0.14905281 6
2.6956215 -0.86028248 -0.049390312 7
2.6714182 -0.85718423 0.048971456 8
2.6792731 -0.86073637 0.14748274 9
2.695327 -0.869528 -0.14842479 6
2.696408 -0.87091607 -0.04946012 7
2.6722133 -0.8677392 0.049041264 8
2.6648562 -0.86637849 0.14685471 9
2.688478 -0.87769139 -0.14821544 6
2.6857486 -0.87783796 -0.049320504 7
2.6691682 -0.87706172 0.049041264 8
2.6542268 -0.87317866 0.14643602 9
2.6872942 -0.88769704 -0.14832011 6
2.682668 -0.88720757 -0.049320504 7
2.6736808 -0.88889694 0.04918088 8
2.6588972 -0.88449734 0.14685471 9
2.6898623 -0.89897132 -0.14863414 6
2.6645393 -0.89102536 -0.049041264 7
2.6631365 -0.89520967 0.049041264 8
2.6652584 -0.89695859 0.14737807 9
2.6906507 -0.90916497 -0.14884347 6
2.6765668 -0.90544724 -0.049320504 7
2.6486359 -0.90063769 0.048831832 8
2.6603782 -0.90514851 0.14727339 9
2.6742313 -0.91402984 -0.14811078 6
2.6659811 -0.91172963 -0.04918088 7
2.6531992 -0.91201609 0.048971456 8
2.6617467 -0.91963184 -0.14758742 6
2.6705029 -0.92317885 -0.049320504 7
2.6539381 -0.92212206 0.049041264 8
2.6521628 -0.92721558 -0.049041264 7
2.64693 -0.93005455 0.048971456 8
2.6451395 -0.93513459 -0.048971456 7
2.6303139 -0.9350611 0.048727117 8
2.6418593 -0.94436222 -0.048971456 7
2.6271987 -0.9437784 0.048727117 8
2.6385467 -0.95357817 -0.048971456 7
2.6126108 -0.94884741 0.048517693 8
2.6408365 -0.96484131 -0.049076166 7
2.6243005 -0.96347499 0.048796929 8
2.6299491 -0.97128254 -0.04893655 7
2.6245005 -0.97447902 0.048866738 8
2.6226249 -0.97951597 -0.048866738 7
2.6135943 -0.98082393 0.048727117 8
2.6229315 -0.99007714 -0.04893655 7
2.6045454 -0.98781371 0.048622403 8
2.6233706 -1.0001942 -0.049006358 7
