# .PCD v0.7 - Point Cloud Data file format
VERSION 0.7
FIELDS x y z intensity
SIZE 4 4 4 4
TYPE F F F F
COUNT 1 1 1 1
WIDTH 777
HEIGHT 1
VIEWPOINT 0 0 0 1 0 0 0
POINTS 777
DATA ascii
2.3868194 0.33841953 -0.126339 6
2.3800724 0.32899255 -0.12592033 6
2.3771918 0.32056364 -0.12571098 6
2.3980682 0.31571177 -0.21161415 5
2.3683949 0.31096423 -0.12518762 6
2.3872979 0.30582052 -0.21056828 5
2.3714471 0.30294755 -0.12529229 6
2.3666029 0.29477593 -0.20865084 5
2.3685257 0.29417709 -0.12508295 6
2.3616834 0.28579441 -0.2081279 5
2.3695383 0.28590694 -0.12508295 6
2.3606877 0.27731803 -0.2079536 5
2.3625872 0.27670404 -0.12466426 6
2.3557026 0.26839873 -0.20743066 5
2.3516316 0.26710346 -0.12403623 6
2.3625662 0.26083058 -0.2079536 5
2.3485792 0.25845554 -0.12382689 6
2.3515759 0.25131115 -0.20690772 5
2.3574111 0.25110254 -0.12424557 6
2.358386 0.2503739 -0.04139711 7
2.3812969 0.24650383 -0.29394889 4
2.3445113 0.24228124 -0.20621049 5
2.3542998 0.24246339 -0.12403623 6
2.3492572 0.24152862 -0.041222587 7
2.3781509 0.23820946 -0.29346141 4
2.349308 0.23449217 -0.20655911 5
2.3471413 0.23386221 -0.12361754 6
2.3560555 0.23391987 -0.041327298 7
2.3592086 0.22799766 -0.291024 4
2.3501122 0.22629063 -0.20655911 5
2.3360147 0.22452171 -0.12298951 6
2.3508861 0.22512183 -0.041222587 7
2.3501077 0.2188402 -0.28980532 4
2.3508878 0.21808632 -0.20655911 5
2.3447769 0.21669286 -0.12340819 6
2.33971 0.21581392 -0.041013155 7
2.3469396 0.20987207 -0.28931785 4
2.3357587 0.20846133 -0.20516461 5
2.3415401 0.20815353 -0.12319885 6
2.3245502 0.20582432 -0.040733919 7
2.3555694 0.20235744 -0.2902928 4
2.3325019 0.19996576 -0.204816 5
2.3422527 0.19997814 -0.12319885 6
2.3252544 0.19771045 -0.040733919 7
2.3523042 0.19380935 -0.28980532 4
2.3331857 0.19182307 -0.204816 5
2.3309927 0.19082479 -0.12257081 6
2.3298833 0.19032353 -0.040803727 7
2.3450184 0.18538134 -0.28883037 4
2.3338411 0.18367693 -0.204816 5
2.3276303 0.18278053 -0.12236147 6
2.3345208 0.18250063 -0.040873535 7
2.3538063 0.17863628 -0.37387842 3
2.3337743 0.17629676 -0.28736794 4
2.3384106 0.17623655 -0.20516461 5
2.3282545 0.17465386 -0.12236147 6
2.327167 0.17375657 -0.040733919 7
2.3174653 0.16937119 0.040559392 8
2.3524454 0.17027679 -0.37356552 3
2.3343756 0.16814867 -0.28736794 4
2.3231134 0.16693102 -0.20377012 5
2.3368187 0.16709487 -0.12278017 6
2.3157914 0.16477998 -0.040524486 7
2.3100631 0.16072598 0.040419776 8
2.3471134 0.16165635 -0.37262696 3
2.3468311 0.16081502 -0.28883037 4
2.3197064 0.15854849 -0.2034215 5
2.329417 0.15839531 -0.12236147 6
2.3203154 0.15736963 -0.040594298 7
2.3105834 0.15306401 0.040419776 8
2.337781 0.15322666 -0.37106261 3
2.3354659 0.15225627 -0.28736794 4
2.3242221 0.15070856 -0.20377012 5
2.317971 0.14989698 -0.12173345 6
2.3168595 0.14901304 -0.040524486 7
2.3190866 0.14549789 0.040559392 8
2.326472 0.14433195 -0.36918539 3
2.3280582 0.14361352 -0.28639299 4
2.3247092 0.1430008 -0.20377012 5
2.3144927 0.14156035 -0.1215241 6
2.3253248 0.14181665 -0.040664107 7
2.3135674 0.13745138 0.040454678 8
2.3269379 0.13661565 -0.36918539 3
2.3245583 0.13566178 -0.28590551 4
2.3251941 0.13488455 -0.20377012 5
2.3189375 0.13411555 -0.12173345 6
2.3098345 0.13278015 -0.04038487 7
2.3100851 0.12834561 0.04038487 8
2.3313899 0.1278968 -0.36981112 3
2.3171332 0.12630239 -0.28493056 4
2.3137364 0.12571335 -0.20272426 5
2.3194354 0.12520991 -0.12173345 6
2.2983463 0.12326693 -0.040175438 7
2.300534 0.11976071 0.040210344 8
2.3239312 0.11935206 -0.36855966 3
2.3215249 0.11841605 -0.285418 4
2.3101814 0.11743321 -0.20237562 5
2.3198583 0.11711331 -0.12173345 6
2.3107457 0.11584468 -0.04038487 7
2.2949462 0.11143804 0.04010563 8
2.3124948 0.11067321 -0.36668244 3
2.321924 0.11031107 -0.285418 4
2.306597 0.10918054 -0.20202701 5
2.3082826 0.10845175 -0.12110542 6
2.3071408 0.10759214 -0.040315062 7
2.293323 0.10333806 0.040070724 8
2.3202121 0.10373709 -0.45145413 2
2.3128672 0.10259981 -0.36668244 3
2.310396 0.10168328 -0.2839556 4
2.3149261 0.10147676 -0.20272426 5
2.2926841 0.099701084 -0.12026804 6
2.3075025 0.099537447 -0.040315062 7
2.2996643 0.095580772 0.040175438 8
2.3087907 0.09515284 -0.44916439 2
2.321106 0.094847761 -0.3679339 3
2.3067539 0.093859129 -0.28346813 4
2.3112845 0.093234308 -0.20237562 5
2.3010006 0.092016123 -0.12068672 6
2.2958312 0.091406986 -0.04010563 7
2.3039649 0.088106468 0.040245246 8
2.2852068 0.086990833 0.11984935 9
2.3051696 0.08734788 -0.44840118 2
2.3214078 0.087150633 -0.3679339 3
2.3070526 0.08620961 -0.28346813 4
2.3036168 0.08527495 -0.20167838 5
2.3012931 0.084384583 -0.12068672 6
2.2881281 0.083501987 -0.039966013 7
2.2882566 0.079907916 0.039966013 8
2.2894886 0.079150848 0.1200587 9
2.3093848 0.079435162 -0.44916439 2
2.3058903 0.078912064 -0.36543098 3
2.3033714 0.078020938 -0.28298062 4
2.2959354 0.076966777 -0.20098113 5
2.3055661 0.076482892 -0.12089607 6
2.2964001 0.075778708 -0.04010563 7
2.280539 0.071271151 0.039826389 8
2.3077297 0.071314633 0.12100074 9
2.3116229 0.071031123 -0.44954604 2
2.2982662 0.070218131 -0.36417946 3
2.3115785 0.06981837 -0.2839556 4
2.2922189 0.06843283 -0.20063251 5
2.2938526 0.067679144 -0.12026804 6
2.2966623 0.067361981 -0.04010563 7
2.2847829 0.063021772 0.039896201 8
2.2979822 0.062984496 0.12047738 9
2.3079314 0.062854104 -0.44878277 2
2.3024573 0.061900772 -0.36480519 3
2.299902 0.061430398 -0.28249314 4
2.3004107 0.06064048 -0.20132977 5
2.2781019 0.059256695 -0.11943066 6
2.2928858 0.059240818 -0.040035821 7
2.2849793 0.055445269 0.039896201 8
2.2702248 0.054690812 0.11901198 9
2.3002763 0.055011988 -0.4472563 2
2.3105493 0.054451834 -0.36605671 3
2.2921548 0.053616993 -0.28151822 4
2.3005993 0.05301217 -0.20132977 5
2.2862732 0.05188363 -0.11984935 6
2.2850726 0.051457386 -0.039896201 7
2.2851505 0.047867063 0.039896201 8
2.2763927 0.046889789 0.119326 9
2.2925949 0.047223531 -0.44572985 2
2.3028171 0.046628874 -0.36480519 3
2.2923279 0.045616031 -0.28151822 4
2.276866 0.044513311 -0.19923802 5
2.2904265 0.044378541 -0.1200587 6
2.277241 0.043327909 -0.039756581 7
2.2753067 0.039716087 0.039721675 8
2.2745452 0.038908642 0.11922132 9
2.2966785 0.03888632 -0.44649309 2
2.2950726 0.038057815 -0.36355373 3
2.2964427 0.037679654 -0.2820057 4
2.2889605 0.036757722 -0.20028389 5
2.2905736 0.035982821 -0.1200587 6
2.2813771 0.03544119 -0.039826389 7
2.2694387 0.031293113 0.039616965 8
2.2895577 0.03117088 -0.52863497 1
2.27667 0.030599102 0.119326 9
2.2968004 0.030869663 -0.44649309 2
2.28334 0.029890532 -0.36167651 3
2.3005354 0.02931251 -0.28249314 4
2.2751291 0.02859167 -0.19906372 5
2.2826967 0.027889887 -0.11964 6
2.285491 0.02712726 -0.039896201 7
2.2775323 0.023453949 0.039756581 8
2.2838066 0.023119943 -0.52728528 1
2.268774 0.022571769 0.1189073 9
2.2929678 0.022812471 -0.44572985 2
2.2913315 0.021996338 -0.362928 3
2.2887135 0.021171181 -0.28103071 4
2.2791996 0.020686455 -0.19941233 5
2.2747915 0.019851293 -0.11922132 6
2.2815723 0.019115128 -0.039826389 7
2.2736011 0.015476989 0.039686773 8
2.2799761 0.015121372 -0.52638549 1
2.2608502 0.014599939 0.11848862 9
2.2812541 0.014731701 -0.44344014 2
2.2913945 0.013997354 -0.362928 3
2.2808332 0.013137786 -0.28005576 4
2.2892199 0.012785469 -0.20028389 5
2.2668581 0.011870399 -0.11880264 6
2.2696276 0.011091597 -0.039616965 7
2.2776408 0.0075532026 0.039756581 8
2.2839124 0.0071764919 -0.52728528 1
2.2588899 0.0067025591 0.11838394 9
2.2773652 0.0067573786 -0.4426769 2
2.2573686 0.0063040801 0.19749491 10
2.2914293 0.0059981989 -0.362928 3
2.2848353 0.0051845135 -0.28054324 4
2.2852659 0.0047855685 -0.19993527 5
2.2788689 0.0039778291 -0.11943066 6
2.2576542 0.0031527735 -0.039407536 7
2.2616556 -0.00039473336 0.039477345 8
2.2917182 -0.00079996063 -0.52908486 1
2.2648916 -0.00079059636 0.11869796 9
2.2852278 -0.0011965425 -0.44420335 2
2.2334683 -0.0015592552 0.19540317 10
2.2795842 -0.0019893127 -0.36105078 3
2.2848396 -0.0027914594 -0.28054324 4
2.2693295 -0.0031685836 -0.19854078 5
2.2788689 -0.0039773802 -0.11943066 6
2.26565 -0.0047451728 -0.039547153 7
2.2556412 -0.0082673943 0.039372627 8
2.2800093 -0.0087546501 -0.52638549 1
2.2628763 -0.0090838149 0.11859328 9
2.2832468 -0.0091655878 -0.44382176 2
2.249388 -0.0094222696 0.19679767 10
2.2716618 -0.0099120568 -0.35979933 3
2.2808459 -0.010748313 -0.28005576 4
2.2772739 -0.011128948 -0.19923802 5
2.2668581 -0.011869349 -0.11880264 6
2.269619 -0.012676076 -0.039616965 7
2.2595978 -0.016169619 0.039442439 8
2.2643754 -0.016599035 -0.52278626 1
2.2508476 -0.016892739 0.11796526 9
2.2851636 -0.017150283 -0.44420335 2
2.2453568 -0.017243441 0.19644904 10
2.2795146 -0.017903632 -0.36105078 3
2.2728546 -0.01864475 -0.27908084 4
2.2812059 -0.019111432 -0.19958666 5
2.2628083 -0.019747227 -0.11859328 6
2.2655618 -0.02056215 -0.039547153 7
2.2575283 -0.024035705 0.039407536 8
2.2682009 -0.024545254 -0.52368605 1
2.2467804 -0.024705637 0.1177559 9
2.2752743 -0.025018957 -0.44229528 2
2.2492673 -0.025125604 0.19679767 10
2.2715373 -0.025770878 -0.35979933 3
2.2688053 -0.02653195 -0.27859333 4
2.2771406 -0.02702692 -0.19923802 5
2.2587314 -0.027596982 -0.11838394 6
2.257478 -0.028369799 -0.039407536 7
2.2614295 -0.031972338 0.039477345 8
2.2681015 -0.032462601 -0.52368605 1
2.2446837 -0.032519285 0.11765125 9
2.265358 -0.032818798 -0.44038719 2
2.2451818 -0.032918442 0.19644904 10
2.2753837 -0.033758473 -0.36042506 3
2.2647293 -0.034391116 -0.27810585 4
2.2650797 -0.034791864 -0.19819216 5
2.2586212 -0.035481256 -0.11838394 6
2.2493672 -0.03612126 -0.039267913 7
2.2533066 -0.039725013 0.039337724 8
2.2777164 -0.040553004 -0.52593553 1
2.2525442 -0.040498104 0.11806992 9
2.2691553 -0.040796749 -0.4411504 2
2.2311084 -0.040502243 0.19522884 10
2.2673516 -0.041556038 -0.35917357 3
2.2725346 -0.042444564 -0.27908084 4
2.2609606 -0.042623151 -0.19784354 5
2.2664714 -0.043518476 -0.11880264 6
2.2532263 -0.044050977 -0.039337724 7
2.2411587 -0.04733691 0.039128296 8
2.2639229 -0.048213039 -0.52278626 1
2.2483954 -0.04827496 0.11786059 9
2.2729249 -0.048801627 -0.44191366 2
2.2349377 -0.048376262 0.19557749 10
2.2553434 -0.04921177 -0.35729638 3
2.2763417 -0.050464928 -0.27956831 4
2.2687654 -0.050693136 -0.19854078 5
2.2503316 -0.051067166 -0.11796526 6
2.2570572 -0.052008063 -0.039407536 7
2.2409799 -0.055159725 0.039128296 8
2.2598445 -0.056018725 -0.52188647 1
2.2442203 -0.056023348 0.11765125 9
2.2727406 -0.056735314 -0.44191366 2
2.2387388 -0.056277487 0.19592611 10
2.2551579 -0.057084087 -0.35729638 3
2.2602761 -0.058003135 -0.27761838 4
2.2685747 -0.058612298 -0.19854078 5
2.2421532 -0.058712851 -0.11754657 6
2.2568619 -0.059886348 -0.039407536 7
2.2487803 -0.062814116 0.039267913 8
2.2596464 -0.063512333 -0.52188647 1
2.2280502 -0.063013434 0.11681387 9
2.2627275 -0.063994169 -0.44000554 2
2.2385397 -0.063701108 0.19592611 10
2.2589056 -0.064675219 -0.35792211 3
2.2561028 -0.065383159 -0.27713093 4
2.2723391 -0.066647567 -0.1988894 5
2.2439427 -0.066206679 -0.11765125 6
2.244658 -0.067012005 -0.039198104 7
2.2525446 -0.070789069 0.039337724 8
2.2594109 -0.071399584 -0.52188647 1
2.2338054 -0.070980683 0.11712788 9
2.2585533 -0.07216166 -0.43924233 2
2.2303255 -0.071649425 0.19522884 10
2.2586532 -0.072954081 -0.35792211 3
2.2558608 -0.073258027 -0.27713093 4
2.2521794 -0.07392548 -0.19714628 5
2.255662 -0.074828014 -0.11827926 6
2.232419 -0.074447021 -0.03898868 7
2.2362823 -0.078483492 0.039058488 8
2.2591341 -0.079680264 -0.52188647 1
2.2415142 -0.079450503 0.11754657 9
2.2543635 -0.07990595 -0.4384791 2
2.2181153 -0.079008758 0.19418299 10
2.2465398 -0.080413833 -0.35604486 3
2.2377369 -0.080489799 0.27493724 11
2.2595448 -0.081669077 -0.27761838 4
2.2439437 -0.081497349 -0.19644904 5
2.2513952 -0.082554907 -0.11806992 6
2.2401245 -0.082924634 -0.039128296 7
2.2220075 -0.085749313 0.038814154 8
2.2588422 -0.087565623 -0.52188647 1
2.2372317 -0.087118939 0.11733723 9
2.2619181 -0.088080227 -0.44000554 2
2.2257893 -0.087062433 0.19488023 10
2.2344027 -0.087789923 -0.35416767 3
2.2176068 -0.087517656 0.27249986 11
2.2592459 -0.089555867 -0.27761838 4
2.247627 -0.089488201 -0.19679767 5
2.2391195 -0.08993233 -0.1174419 6
2.2398212 -0.090743631 -0.039128296 7
2.2296863 -0.093841374 0.03895377 8
2.2487876 -0.095038489 -0.51963693 1
2.2249413 -0.09441971 0.11670919 9
2.2576737 -0.095808782 -0.43924233 2
2.2294528 -0.095000997 0.19522884 10
2.2419767 -0.095926672 -0.35541913 3
2.2093549 -0.094917201 0.27152494 11
2.24702 -0.096928254 -0.27615595 4
2.251282 -0.097505756 -0.19714628 5
2.2348011 -0.097573519 -0.11723255 6
2.2434862 -0.098737352 -0.039198104 7
2.235338 -0.10189705 0.039058488 8
2.2464955 -0.10279857 -0.51918703 1
2.2245979 -0.10218562 0.11670919 9
2.241636 -0.10296825 -0.43618938 2
2.2291079 -0.10278265 0.19522884 10
2.2455747 -0.1039347 -0.35604486 3
2.2149591 -0.1029051 0.27225614 11
2.242702 -0.10458628 -0.27566847 4
2.2509279 -0.10536359 -0.19714628 5
2.2344468 -0.10537384 -0.11723255 6
2.2311435 -0.10599862 -0.03898868 7
2.2409608 -0.10999332 0.039163202 8
2.2578013 -0.11121492 -0.52188647 1
2.2222524 -0.10946385 0.11660452 9
2.2412629 -0.11079241 -0.43618938 2
2.2207758 -0.1101682 0.19453162 10
2.2491446 -0.11196904 -0.35667065 3
2.2046733 -0.11014087 0.27103746 11
2.2423234 -0.11241414 -0.27566847 4
2.2425871 -0.11281975 -0.19644904 5
2.238055 -0.11337498 -0.1174419 6
2.2227912 -0.11299068 -0.038849056 7
2.2226107 -0.1164821 0.038849056 8
2.2258456 -0.11743074 0.11681387 9
2.2408626 -0.1186152 -0.43618938 2
2.2144089 -0.1176025 0.19400868 10
2.2329798 -0.11858877 -0.35416767 3
2.2142074 -0.11797935 0.27225614 11
2.2459028 -0.12006126 -0.27615595 4
2.2382004 -0.12043304 -0.19610041 5
2.2376666 -0.12079601 -0.1174419 6
2.2223833 -0.12074898 -0.038849056 7
2.2162008 -0.12390486 0.038744342 8
2.2254221 -0.12519968 0.11681387 9
2.2482975 -0.12648663 -0.43771586 2
2.2000823 -0.12415929 0.1927885 10
2.2286074 -0.1261593 -0.35354191 3
2.2078362 -0.12537003 0.27152494 11
2.2454698 -0.1279002 -0.27615595 4
2.2377887 -0.12785451 -0.19610041 5
2.2292554 -0.12814769 -0.11702321 6
2.2339263 -0.12919857 -0.039058488 7
2.2217436 -0.13199589 0.038849056 8
2.215003 -0.13237135 0.11629051 9
2.2439232 -0.13409965 -0.43695265 2
2.2056019 -0.13219586 0.19331144 10
2.2281535 -0.13393781 -0.35354191 3
2.1954963 -0.1323593 0.27006248 11
2.2331212 -0.13501877 -0.27469352 4
2.2333515 -0.13542391 -0.19575179 5
2.2248075 -0.13568531 -0.11681387 6
2.2334616 -0.13699564 -0.039058488 7
2.2232652 -0.13987596 0.038883962 8
2.2065542 -0.13959791 0.11587181 9
2.2434413 -0.14193158 -0.43695265 2
2.2071154 -0.14002018 0.19348574 10
2.2355583 -0.14221635 -0.3547934 3
2.204926 -0.14065407 0.27128118 11
2.2326365 -0.142813 -0.27469352 4
2.2447948 -0.14398411 -0.19679767 5
2.2283065 -0.14370757 -0.11702321 6
2.2209969 -0.14401469 -0.038849056 7
2.220768 -0.14750324 0.038849056 8
2.2100394 -0.14756551 0.11608116 9
2.2233434 -0.14845382 -0.43313646 2
2.1966734 -0.14705817 0.19261418 10
2.2389901 -0.15028363 -0.35541913 3
2.2064023 -0.14848314 0.27152494 11
2.2281628 -0.1503382 -0.27420604 4
2.2283759 -0.15074326 -0.19540317 5
2.2277913 -0.15148494 -0.11702321 6
2.2125006 -0.1512211 -0.038709439 7
2.2142551 -0.15483579 0.038744342 8
2.211503 -0.15541913 0.11618583 9
2.2345619 -0.15703963 -0.43542615 2
2.184222 -0.15388498 0.19156833 10
2.2266288 -0.15726322 -0.35354191 3
2.2098308 -0.15646438 0.27201241 11
2.231585 -0.15839612 -0.27469352 4
2.2068424 -0.15702702 0.35041323 12
2.2238612 -0.15823799 -0.19505455 5
2.2272489 -0.15926045 -0.11702321 6
2.2119591 -0.15894325 -0.038709439 7
2.2037292 -0.16183175 0.038569819 8
2.2129388 -0.16328472 0.11629051 9
2.2379158 -0.16512768 -0.43618938 2
2.1916194 -0.16209623 0.19226557 10
2.2142467 -0.16415836 -0.35166472 3
2.1973932 -0.16329452 0.27054995 11
2.2349775 -0.16647974 -0.275181 4
2.1924915 -0.16369984 0.34822315 12
2.2232955 -0.16599976 -0.19505455 5
2.2147295 -0.16613764 -0.11639518 6
2.219367 -0.1672646 -0.038849056 7
2.2071385 -0.16983007 0.038639627 8
2.2044196 -0.17000788 0.11587181 9
2.2334111 -0.17263587 -0.43542615 2
2.1950128 -0.1700532 0.19261418 10
2.2136602 -0.17188652 -0.35166472 3
2.1888938 -0.17034779 0.269575 11
2.2185502 -0.17304534 -0.27323109 4
2.1939063 -0.17112313 0.34853604 12
2.2227023 -0.17375949 -0.19505455 5
2.2101538 -0.17355473 -0.11618583 6
2.2188001 -0.17462336 -0.038849056 7
2.2065632 -0.17714827 0.038639627 8
2.1938589 -0.17689911 0.11534845 9
2.2210538 -0.17948207 -0.43313646 2
2.194406 -0.17771418 0.19261418 10
2.217016 -0.17954527 -0.35229045 3
2.1922739 -0.17792666 0.27006248 11
2.2179642 -0.18040136 -0.27323109 4
2.1775446 -0.17749636 0.3460331 12
2.226054 -0.18184157 -0.19540317 5
2.2135475 -0.18120885 -0.11639518 6
2.2022331 -0.18105653 -0.038569819 7
2.2119098 -0.18535048 0.038744342 8
2.1972089 -0.18489097 0.1155578 9
2.2126207 -0.18618786 -0.43160996 2
2.1858635 -0.18432048 0.19191694 10
2.2203124 -0.18761563 -0.35291618 3
2.2015295 -0.18641548 0.27128118 11
2.2212768 -0.18847807 -0.27371857 4
2.1710072 -0.18459426 0.34509447 12
2.2174647 -0.18893425 -0.19470593 5
2.2148912 -0.18910438 -0.11649985 6
2.197603 -0.18840104 -0.038500007 7
2.2052729 -0.19254851 0.038639627 8
2.2005291 -0.19290836 0.11576715 9
2.2236581 -0.19532703 -0.4338997 2
2.179219 -0.19180676 0.191394 10
2.2078037 -0.19471101 -0.35103899 3
2.1731815 -0.19165762 0.26786885 11
2.2206054 -0.19623061 -0.27371857 4
2.17822 -0.19286826 0.34634593 12
2.2088535 -0.19596921 -0.19400868 5
2.2181618 -0.19757545 -0.11670919 6
2.2009156 -0.19642647 -0.038569819 7
2.1906121 -0.19936131 0.038395293 8
2.2077632 -0.20169924 0.11618583 9
2.230783 -0.20380232 -0.43542615 2
2.1765521 -0.19923089 0.19121969 10
2.203176 -0.20205566 -0.35041323 3
2.1823485 -0.20052966 0.26908755 11
2.2238247 -0.20473218 -0.27420604 4
2.1794658 -0.20103198 0.34665883 12
2.2081559 -0.20367832 -0.19400868 5
2.2015488 -0.20384395 -0.11587181 6
2.2041631 -0.20486203 -0.038639627 7
2.1938844 -0.20738313 0.038465101 8
2.191139 -0.20789532 0.11534845 9
2.1857605 -0.20776995 0.19209124 10
2.2063904 -0.21011953 -0.35103899 3
2.1717544 -0.20720354 0.26786885 11
2.2112401 -0.21136025 -0.27274361 4
2.180717 -0.20882681 0.34697169 12
2.2113981 -0.21176484 -0.19435729 5
2.1928713 -0.21076323 -0.11545313 6
2.2074156 -0.21293877 -0.038709439 7
2.1951375 -0.2152351 0.038500007 8
2.184437 -0.21495581 0.11503445 9
2.1870048 -0.21559384 0.19226557 10
2.2056437 -0.21781997 -0.35103899 3
2.1808953 -0.21576031 0.26908755 11
2.2025869 -0.21829449 -0.27176866 4
2.1681805 -0.21526669 0.34509447 12
2.2225413 -0.22066388 -0.19540317 5
2.204047 -0.21960464 -0.11608116 6
2.1907406 -0.21905115 -0.038430199 7
2.1903937 -0.22249207 0.038430199 8
2.1856604 -0.22278211 0.11513911 9
2.1723645 -0.22180997 0.19104539 10
2.2048697 -0.22551776 -0.35103899 3
2.1801291 -0.22337173 0.26908755 11
2.2057612 -0.22638698 -0.27225614 4
2.1654508 -0.22263169 0.34478158 12
2.1979744 -0.22597547 -0.19331144 5
2.2032671 -0.22729684 -0.11608116 6
2.1859846 -0.22628514 -0.038360391 7
2.181649 -0.22930054 0.038290579 8
2.1888418 -0.23082906 0.11534845 9
2.1656327 -0.22876365 0.19052245 10
2.1962113 -0.23238142 -0.3497875 3
2.187232 -0.23181731 0.27006248 11
2.2089055 -0.2345043 -0.27274361 4
2.1666248 -0.23039804 0.34509447 12
2.1932094 -0.23322503 -0.1929628 5
2.2024601 -0.23498631 -0.11608116 6
2.1931345 -0.23476562 -0.038500007 7
2.1768589 -0.23648256 0.038220771 8
2.1900082 -0.23868452 0.11545313 9
2.170763 -0.23697041 0.19104539 10
2.1914594 -0.23961677 -0.34916177 3
2.1745696 -0.23815411 0.26860005 11
2.2080734 -0.24221338 -0.27274361 4
2.1716981 -0.23860681 0.3460331 12
2.200304 -0.24174978 -0.19366007 5
2.1897149 -0.24135995 -0.11545313 6
2.1962767 -0.2428592 -0.038569819 7
2.1840122 -0.24459022 0.038360391 8
2.1772959 -0.24460766 0.11482509 9
2.1699653 -0.24416763 0.19104539 10
2.1906528 -0.2468826 -0.34916177 3
2.1619325 -0.24402802 0.26713762 11
2.1954229 -0.24819629 -0.27128118 4
2.1846347 -0.24736285 0.34822315 12
2.2034495 -0.24949324 -0.19400868 5
2.1889026 -0.24861997 -0.11545313 6
2.1954594 -0.25014099 -0.038569819 7
2.183145 -0.25221238 0.038360391 8
2.168493 -0.25128675 0.11440641 9
2.1730578 -0.2522001 0.191394 10
2.193702 -0.25498405 -0.3497875 3
2.1689546 -0.25249124 0.26811257 11
2.1905997 -0.25539848 -0.27079371 4
2.1986074 -0.25672105 -0.19366007 5
2.1840541 -0.2557945 -0.11524379 6
2.182657 -0.25640324 -0.038360391 7
2.1862226 -0.26030427 0.038430199 8
2.1755805 -0.25942227 0.11482509 9
2.1583161 -0.25812775 0.19017383 10
2.1967211 -0.26310977 -0.35041323 3
2.1720021 -0.26053357 0.26860005 11
2.1975784 -0.26399058 -0.27176866 4
2.1897852 -0.2634421 -0.1929628 5
2.1871135 -0.26389521 -0.11545313 6
2.177824 -0.26315999 -0.038290579 7
2.1734381 -0.26609457 0.038220771 8
2.1786265 -0.26750174 0.11503445 9
2.157402 -0.26566011 0.19017383 10
2.1840734 -0.26894441 -0.34853604 3
2.1671858 -0.26724884 0.26811257 11
2.1927507 -0.27078995 -0.27128118 4
2.1769888 -0.26961502 -0.19191694 5
2.1901906 -0.27163813 -0.11566247 6
2.1749077 -0.27051359 -0.038255677 7
2.1645601 -0.27267992 0.038081151 8
2.1816428 -0.27560553 0.11524379 9
2.1604624 -0.27331296 0.19052245 10
2.1831214 -0.27656659 -0.34853604 3
2.1583624 -0.27381283 0.26713762 11
2.1976998 -0.27919295 -0.27201241 4
2.1839399 -0.27821961 -0.19261418 5
2.1773419 -0.27776524 -0.11503445 6
2.1799009 -0.27886504 -0.038360391 7
2.1596289 -0.27972028 0.038011342 8
2.1727445 -0.28219023 0.11482509 9
2.1633976 -0.28174424 0.19087107 10
2.1899281 -0.28558809 -0.3497875 3
2.1514881 -0.28057513 0.26640642 11
2.1947436 -0.28660563 -0.27176866 4
2.1908579 -0.28687602 -0.19331144 5
2.1723485 -0.28522372 -0.11482509 6
2.1808968 -0.28673327 -0.038395293 7
2.1724644 -0.28948271 0.038255677 8
2.1578383 -0.2883004 0.11409239 9
2.1584513 -0.28876576 0.19052245 10
2.156348 -0.28925058 0.26713762 11
2.1897435 -0.2941193 -0.27128118 4
2.1898432 -0.29452181 -0.19331144 5
2.1752985 -0.29333872 -0.11503445 6
2.1738861 -0.29392093 -0.038290579 7
2.1714406 -0.29706424 0.038255677 8
2.162755 -0.29664513 0.11440641 9
2.1475611 -0.294943 0.18965089 10
2.1592581 -0.29731742 0.26762509 11
2.1965697 -0.30284569 -0.27225614 4
2.1769595 -0.30052918 -0.19226557 5
2.1742613 -0.30093014 -0.11503445 6
2.1688855 -0.30095771 -0.038220771 7
2.1624691 -0.30353034 0.038116053 8
2.1656618 -0.3047494 0.11461575 9
2.152437 -0.3032715 0.19017383 10
2.1542759 -0.30429757 0.26713762 11
2.19943 -0.31106728 -0.27274361 4
2.1719518 -0.30756766 -0.19191694 5
2.1811073 -0.30964082 -0.11545313 6
2.1658421 -0.30824491 -0.038185868 7
2.1534793 -0.30993745 0.037976436 8
2.1645849 -0.31230709 0.11461575 9
2.1513653 -0.31078306 0.19017383 10
2.155165 -0.31209999 0.26738134 11
2.1944017 -0.31817314 -0.27225614 4
2.1787517 -0.31629226 -0.19261418 5
2.1642015 -0.31495139 -0.11461575 6
2.1687105 -0.31638062 -0.038255677 7
2.1543627 -0.31774437 0.038011342 8
2.1595299 -0.31927678 0.11440641 9
2.1463256 -0.31770739 0.18982521 10
2.1854236 -0.32466426 -0.27128118 4
2.1736929 -0.32330933 -0.19226557 5
2.1670399 -0.32309294 -0.11482509 6
2.173526 -0.32483563 -0.038360391 7
2.1591721 -0.32615861 0.038116053 8
2.1505034 -0.32561699 0.11398773 9
2.1530828 -0.32639199 0.19052245 10
2.1725018 -0.33049947 -0.26981872 4
2.1725512 -0.33089501 -0.19226557 5
2.1619501 -0.33005252 -0.11461575 6
2.1545887 -0.32969838 -0.038046245 7
2.1560442 -0.333388 0.038081151 8
2.153301 -0.33373344 0.11419707 9
2.146024 -0.33298916 0.18999951 10
2.1831038 -0.33991331 -0.27128118 4
2.1674459 -0.33786282 -0.19191694 5
2.1686783 -0.33883041 -0.11503445 6
2.1573758 -0.33783603 -0.038116053 7
2.148942 -0.33997452 0.037976436 8
2.1540954 -0.34156063 0.11430173 9
2.1350098 -0.33891633 0.18912795 10
2.1740625 -0.34628275 -0.27030623 4
2.1623182 -0.34479913 -0.19156833 5
2.1674824 -0.34639844 -0.11503445 6
2.1542089 -0.34504834 -0.038081151 7
2.14182 -0.34651557 0.037871722 8
2.1549225 -0.34902129 0.11440641 9
2.1338139 -0.34636688 0.18912795 10
2.1845961 -0.35578406 -0.27176866 4
2.168967 -0.35362732 -0.19226557 5
2.1583753 -0.35267392 -0.11461575 6
2.1550262 -0.3525129 -0.038116053 7
2.1485512 -0.35491988 0.038011342 8
2.1497502 -0.35588887 0.11419707 9
2.1424193 -0.3554436 0.18999951 10
2.1755714 -0.36172414 -0.27079371 4
2.1677196 -0.36119628 -0.19226557 5
2.1532538 -0.3591722 -0.11440641 6
2.1636443 -0.3616817 -0.038290579 7
2.1453273 -0.36208472 0.037976436 8
2.1406176 -0.36205834 0.11377838 9
2.1412289 -0.36254615 0.18999951 10
2.166467 -0.36798638 -0.26981872 4
2.1664455 -0.36876082 -0.19226557 5
2.1519871 -0.36668631 -0.11440641 6
2.154484 -0.36788568 -0.038150962 7
2.1460211 -0.36991078 0.038011342 8
2.1452453 -0.37054819 0.11409239 9
2.1261435 -0.36801305 0.18877934 10
2.1729932 -0.37690356 -0.27079371 4
2.1533673 -0.37427381 -0.19121969 5
2.1545639 -0.37525663 -0.11461575 6
2.1453068 -0.37403017 -0.038011342 7
2.1387427 -0.37673315 0.037906628 8
2.1438727 -0.3784084 0.11409239 9
2.1248457 -0.37543246 0.18877934 10
2.1520479 -0.38178819 -0.19121969 5
2.1611068 -0.38417348 -0.11503445 6
2.1478589 -0.3825919 -0.038081151 7
2.1374147 -0.38419646 0.037906628 8
2.1445045 -0.38624364 0.11419707 9
2.150702 -0.38929793 -0.19121969 5
2.1440308 -0.38886338 -0.11419707 6
2.1504455 -0.39080217 -0.038150962 7
2.1380272 -0.39201567 0.03794153 8
2.1373184 -0.39227131 0.11388306 9
2.1434519 -0.39571774 -0.19069678 5
2.1387327 -0.3956185 -0.11398773 6
2.1570024 -0.39938739 -0.038290579 7
2.1347501 -0.39873636 0.037906628 8
2.13201 -0.39899477 0.11367371 9
2.1498897 -0.40467158 -0.191394 5
2.1413343 -0.40344822 -0.11419707 6
2.1398757 -0.40394688 -0.038011342 7
2.1392384 -0.40730765 0.038011342 8
2.1306751 -0.40606263 0.11367371 9
2.1465793 -0.41142359 -0.19121969 5
2.1516814 -0.41318026 -0.11482509 6
2.1345963 -0.4102858 -0.03794153 7
2.1280601 -0.41249672 0.03783682 8
2.1370871 -0.41502056 0.11409239 9
2.1353526 -0.4170047 -0.19034813 5
2.1463792 -0.41954693 -0.11461575 6
2.141001 -0.41927168 -0.038081151 7
2.1225371 -0.41988868 0.037767008 8
2.1315596 -0.42244676 0.11388306 9
2.1416264 -0.42638451 -0.19104539 5
2.1369178 -0.42622262 -0.11419707 6
2.1432974 -0.42827308 -0.038150962 7
2.1288998 -0.42887482 0.037906628 8
2.1300719 -0.42988473 0.11388306 9
2.1420774 -0.43425348 -0.19121969 5
2.1275876 -0.43208921 -0.11377838 6
2.1496274 -0.43734664 -0.038290579 7
2.1254308 -0.43590173 0.037871722 8
2.1168959 -0.43453631 0.11325502 9
2.1483538 -0.44333872 -0.19191694 5
2.1299784 -0.44032195 -0.11398773 6
2.128583 -0.44042093 -0.03794153 7
2.1278887 -0.44376394 0.03794153 8
2.1310065 -0.44519046 0.11409239 9
2.1311941 -0.44755933 -0.19052245 5
2.1363246 -0.44902605 -0.11440641 6
2.1270328 -0.44784838 -0.03794153 7
2.1224144 -0.45035884 0.037871722 8
2.1257222 -0.45416328 -0.19017383 5
2.1347442 -0.4564805 -0.11440641 6
2.1254563 -0.45527038 -0.03794153 7
2.1149654 -0.45649898 0.037767008 8
2.1291537 -0.46345207 -0.11419707 6
2.13167 -0.4643895 -0.038081151 7
2.115231 -0.46467668 0.037801914 8
2.1197226 -0.46915492 -0.11377838 6
2.1338582 -0.47306499 -0.038150962 7
2.1155481 -0.47249332 0.03783682 8
2.1219692 -0.47742814 -0.11398773 6
2.1204891 -0.47787285 -0.03794153 7
2.1177862 -0.48076048 0.037906628 8
2.1280777 -0.48661312 -0.11440641 6
2.1110957 -0.48311764 -0.037801914 7
2.106437 -0.48553488 0.037732106 8
2.1303434 -0.4945707 -0.11461575 6
2.1171873 -0.49229538 -0.03794153 7
2.1047294 -0.49288476 0.037732106 8
2.1169405 -0.4992533 -0.11398773 6
2.1193485 -0.50060219 -0.038011342 7
2.1029961 -0.50022864 0.037732106 8
2.1113002 -0.50570923 -0.11377838 6
2.125366 -0.50986296 -0.038150962 7
2.1070685 -0.50897503 0.03783682 8
2.117285 -0.5149641 -0.11419707 6
2.1119158 -0.51443905 -0.03794153 7
2.1154745 -0.52235162 -0.11419707 6
2.1023424 -0.51988775 -0.037801914 7
2.125262 -0.53264606 -0.11482509 6
2.1005149 -0.52722311 -0.037801914 7
2.1040335 -0.53513831 -0.11377838 6
2.1102889 -0.53751367 -0.038011342 7
2.1122718 -0.54587734 -0.038081151 7
2.0987475 -0.55020463 -0.037871722 7
2.0929489 -0.55649954 -0.037801914 7
2.0987167 -0.56588423 -0.03794153 7
2.0986576 -0.57373405 -0.037976436 7
