# .PCD v0.7 - Point Cloud Data file format
VERSION 0.7
FIELDS x y z intensity
SIZE 4 4 4 4
TYPE F F F F
COUNT 1 1 1 1
WIDTH 1328
HEIGHT 1
VIEWPOINT 0 0 0 1 0 0 0
POINTS 1328
DATA ascii
1.7970511 0.12692344 -0.094414078 6
1.7873189 0.12560911 -0.031274714 7
1.821043 0.12382699 -0.28909093 3
1.8141985 0.12272543 -0.22326466 4
1.7871161 0.12026675 -0.15670602 5
1.7974832 0.12064932 -0.094414078 6
1.775775 0.11856962 -0.031065283 7
1.8175421 0.11689854 -0.2884652 3
1.8106536 0.11613819 -0.22277717 4
1.7835482 0.11377367 -0.15635739 5
1.7819673 0.11304917 -0.093576699 6
1.7801694 0.11262233 -0.031135093 7
1.7942783 0.10911407 -0.28471076 3
1.7952152 0.10854299 -0.22082727 4
1.7839532 0.10723627 -0.15635739 5
1.7783636 0.10658963 -0.093367353 6
1.7765779 0.10585944 -0.031065283 7
1.7966383 0.10265005 -0.28502363 3
1.7955831 0.10227538 -0.22082727 4
1.7863059 0.10112144 -0.15653172 5
1.7827306 0.10029481 -0.093576699 6
1.7689502 0.099209853 -0.030925665 7
1.8008798 0.097531989 -0.28564936 3
1.7879668 0.096207596 -0.21985231 4
1.7746775 0.094870448 -0.15548584 5
1.7750425 0.094580151 -0.093158014 6
1.7652595 0.093440138 -0.030855855 7
1.7893882 0.090333603 -0.28377217 3
1.7882918 0.089965366 -0.21985231 4
1.7749978 0.088675462 -0.15548584 5
1.7833565 0.088469036 -0.093576699 6
1.7615803 0.087080576 -0.030786045 7
1.7817998 0.083715618 -0.28252068 3
1.7965411 0.083780631 -0.22082727 4
1.7713162 0.08229363 -0.15513723 5
1.7676934 0.081507839 -0.092739321 6
1.7738593 0.081481062 -0.030995475 7
1.773985 0.078694761 0.030995475 8
1.824075 0.079959884 -0.35490477 2
1.7820675 0.077806853 -0.28252068 3
1.7730104 0.076791376 -0.21790241 4
1.7715925 0.076111294 -0.15513723 5
1.7599722 0.075303502 -0.092320636 6
1.7661412 0.07495071 -0.030855855 7
1.7482746 0.071440049 0.030541712 8
1.790982 0.072559893 -0.34841725 2
1.7823282 0.071586169 -0.28252068 3
1.7693006 0.070443526 -0.21741492 4
1.7718475 0.069926351 -0.15513723 5
1.756233 0.069002301 -0.092111297 6
1.7504066 0.068162315 -0.030576617 7
1.7445166 0.065188847 0.0304719 8
1.7657309 0.065055832 -0.34345621 2
1.7865268 0.06519676 -0.28314641 3
1.7655681 0.064124204 -0.21692745 4
1.7601341 0.063310839 -0.15409136 5
1.7604661 0.062707506 -0.092320636 6
1.750634 0.062051374 -0.030576617 7
1.7287555 0.058255218 0.030192664 8
1.7934176 0.059807502 -0.34879887 2
1.7748977 0.058569692 -0.28126919 3
1.7737275 0.057910457 -0.21790241 4
1.7603444 0.057166811 -0.15409136 5
1.7566818 0.056433223 -0.092111297 6
1.7508398 0.055940513 -0.030576617 7
1.7349353 0.05270464 0.030297378 8
1.7857658 0.053312976 -0.3472724 2
1.767184 0.052449543 -0.28001773 3
1.7739098 0.052029446 -0.21790241 4
1.75655 0.050905801 -0.15374273 5
1.7448807 0.050262842 -0.091483258 6
1.7550222 0.049941897 -0.030646425 7
1.7371078 0.046701547 0.030332282 8
1.7820078 0.047286227 -0.34650916 2
1.763407 0.046176709 -0.279392 3
1.7582051 0.045426384 -0.2159525 4
1.7527257 0.044978723 -0.1533941 5
1.7410523 0.044071056 -0.091273919 6
1.7511878 0.043715984 -0.030576617 7
1.7412585 0.040730689 0.030402092 8
1.7703856 0.040794581 -0.34421945 2
1.7675072 0.040110994 -0.28001773 3
1.7543838 0.039199673 -0.21546502 4
1.7528721 0.038860664 -0.1533941 5
1.745189 0.038080055 -0.091483258 6
1.7393342 0.037344914 -0.030367188 7
1.7373914 0.034573108 0.030332282 8
1.7626657 0.034460563 -0.34269297 2
1.7676364 0.033940528 -0.28001773 3
1.7584794 0.033150692 -0.2159525 4
1.7450289 0.032592468 -0.15269686 5
1.7453113 0.031988341 -0.091483258 6
1.7314565 0.031129854 -0.030227568 7
1.735502 0.028475828 0.030297378 8
1.7594807 0.028562114 -0.40626162 1
1.7667011 0.028370919 -0.34345621 2
1.7598435 0.027645534 -0.27876624 3
1.7546147 0.026950808 -0.21546502 4
1.7371634 0.026379513 -0.15199961 5
1.7414182 0.025836155 -0.091273919 6
1.7315546 0.02508612 -0.030227568 7
1.7155957 0.022159718 0.02994833 8
1.7615181 0.022444567 -0.40671152 1
1.7609 0.022129325 -0.34231135 2
1.7480781 0.021357939 -0.27688903 3
1.754698 0.020827102 -0.21546502 4
1.7372484 0.020012697 -0.15199961 5
1.7335093 0.019667048 -0.090855226 6
1.7356308 0.019085227 -0.030297378 7
1.7216614 0.016227119 0.030053046 8
1.7537911 0.016223013 -0.40491191 1
1.727558 0.015679648 0.090541214 9
1.7668588 0.015727971 -0.34345621 2
1.7520951 0.014984942 -0.27751476 3
1.748805 0.014651576 -0.21473379 4
1.7412922 0.013980804 -0.15234824 5
1.7255809 0.013251493 -0.090436541 6
1.7356867 0.013026994 -0.030297378 7
1.7197096 0.009905668 0.030018138 8
1.7577363 0.0098170927 -0.40581173 1
1.703637 0.0092176124 0.08928515 9
1.7472708 0.0094536953 -0.33964002 2
1.7521368 0.0088684307 -0.27751476 3
1.7389216 0.0081953956 -0.2135151 4
1.7413318 0.0075981095 -0.15234824 5
1.7256167 0.0072291964 -0.090436541 6
1.7237248 0.0066187824 -0.03008795 7
1.7257328 0.0039158552 0.030122854 8
1.7577598 0.0036809195 -0.40581173 1
1.7176396 0.0032979553 0.090017848 9
1.7472937 0.0030499496 -0.33964002 2
1.7482069 0.0024413394 -0.27688903 3
1.7429098 0.002129765 -0.21400258 4
1.7254088 0.0015061338 -0.15095374 5
1.7256316 0.00090318249 -0.090436541 6
1.719738 0.00060078496 -0.030018138 7
1.7077394 -0.001490284 0.029808709 8
1.7519165 -0.0018346031 -0.40446201 1
1.705658 -0.0020838554 0.089389823 9
1.7472948 -0.0024396852 -0.33964002 2
1.7442555 -0.0027398723 -0.2762633 3
1.7389377 -0.0033385248 -0.2135151 4
1.7174354 -0.0038967438 -0.1502565 5
1.7256267 -0.0042165099 -0.090436541 6
1.7157321 -0.0047912402 -0.02994833 7
1.7017233 -0.0077222283 0.029703995 8
1.7441032 -0.0082189534 -0.4026624 1
1.7096335 -0.0083549116 0.08959917 9
1.747274 -0.0088438243 -0.33964002 2
1.7363324 -0.0090914983 -0.27501184 3
1.7389138 -0.0097120283 -0.2135151 4
1.7253791 -0.010238726 -0.15095374 5
1.7096201 -0.010742 -0.08959917 6
1.715703 -0.01107968 -0.02994833 7
1.7016836 -0.013959303 0.029703995 8
1.7362666 -0.014546053 -0.40086278 1
1.6976081 -0.01451849 0.088971131 9
1.7472326 -0.014942894 -0.33964002 2
1.7362875 -0.015455414 -0.27501184 3
1.7309265 -0.016011948 -0.21254015 4
1.7253327 -0.01626136 -0.15095374 5
1.7055779 -0.016670583 -0.089389823 6
1.71965 -0.017408455 -0.030018138 7
1.7694588 -0.020383602 -0.47415653 0
1.7056237 -0.01994597 0.029773805 8
1.7401025 -0.020652924 -0.4017626 1
1.6895586 -0.020347953 0.088552445 9
1.735391 -0.020899929 -0.33735034 2
1.736223 -0.021516092 -0.27501184 3
1.7189504 -0.021902166 -0.21107772 4
1.7332344 -0.02238672 -0.151651 5
1.7095034 -0.022677042 -0.08959917 6
1.7075816 -0.023247715 -0.029808709 7
1.7597188 -0.026415065 -0.47156835 0
1.7055438 -0.025899587 0.029773805 8
1.7419683 -0.026756816 -0.4022125 1
1.6994669 -0.026103992 0.089075804 9
1.7274555 -0.026835468 -0.33582386 2
1.7361373 -0.027576514 -0.27501184 3
1.7188684 -0.027602291 -0.21107772 4
1.7132244 -0.028109843 -0.14990787 5
1.7054199 -0.028577257 -0.089389823 6
1.6954988 -0.028707018 -0.029599281 7
1.7461007 -0.032002546 -0.46794486 0
1.6954516 -0.03137026 0.029599281 8
1.7360249 -0.03242407 -0.40086278 1
1.6953773 -0.031664889 0.088866465 9
1.727357 -0.032563768 -0.33582386 2
1.6752963 -0.031874832 0.14659595 10
1.7241861 -0.033106066 -0.27313459 3
1.7227368 -0.033379022 -0.2115652 4
1.7091378 -0.033712365 -0.14955924 5
1.7133032 -0.034392819 -0.089808509 6
1.6993928 -0.034410298 -0.029669091 7
1.7324651 -0.037500009 -0.46432137 0
1.6893405 -0.036861543 0.029494567 8
1.7261664 -0.037966501 -0.39861327 1
1.6992564 -0.037374627 0.089075804 9
1.7311651 -0.038378738 -0.33658707 2
1.6672139 -0.037252109 0.1458987 10
1.7122177 -0.038556665 -0.2712574 3
1.7226167 -0.039091639 -0.2115652 4
1.7050329 -0.039288085 -0.14921063 5
1.6932126 -0.039607078 -0.088761792 6
1.7032677 -0.040139731 -0.029738901 7
1.7419877 -0.043485921 -0.46690959 0
1.6932073 -0.0425639 0.029564377 8
1.7162905 -0.043443907 -0.39636377 1
1.6871436 -0.042706121 0.088447772 9
1.7329909 -0.044169299 -0.33696869 2
1.6611061 -0.042627253 0.14537577 10
1.7199793 -0.044438452 -0.27250886 3
1.7105711 -0.044494126 -0.21010277 4
1.71286 -0.045151971 -0.14990787 5
1.693072 -0.045221757 -0.088761792 6
1.7071232 -0.04589523 -0.029808709 7
1.7360234 -0.049704466 -0.46535668 0
1.6930399 -0.04876953 0.029564377 8
1.7141718 -0.049677681 -0.39591387 1
1.6789814 -0.04895113 0.088029087 9
1.7131844 -0.050247587 -0.33315253 2
1.6669132 -0.048890457 0.1458987 10
1.7158557 -0.050625671 -0.27188313 3
1.7024509 -0.050824955 -0.20912781 4
1.7086911 -0.051608238 -0.14955924 5
1.6968784 -0.051844325 -0.088971131 6
1.6949418 -0.052081257 -0.029599281 7
1.728106 -0.055817503 -0.4632861 0
1.6928498 -0.054974504 0.029564377 8
1.721769 -0.056214467 -0.39771348 1
1.6747984 -0.054973535 0.087819748 9
1.7090644 -0.05639689 -0.3323893 2
1.6587577 -0.054736834 0.14520147 10
1.7235558 -0.057176236 -0.27313459 3
1.710189 -0.057330444 -0.21010277 4
1.696543 -0.057465866 -0.14851339 5
1.696677 -0.058063339 -0.088971131 6
1.6867455 -0.058018211 -0.029459663 7
1.7201674 -0.06187319 -0.46121556 0
1.6806464 -0.060745355 0.029354947 8
1.7176564 -0.062383223 -0.39681366 1
1.6745857 -0.061111607 0.087819748 9
1.7127808 -0.062505491 -0.33315253 2
1.6525726 -0.060597084 0.14467853 10
1.7035943 -0.062765703 -0.27000591 3
1.7159185 -0.06381955 -0.21083398 4
1.688368 -0.063089959 -0.14781614 5
1.6924723 -0.063834943 -0.088761792 6
1.6865216 -0.064200059 -0.029459663 7
1.7257321 -0.068105862 -0.46276847 0
1.6684355 -0.066136308 0.029145518 8
1.7076921 -0.067990951 -0.39456415 1
1.6743622 -0.066956632 0.087819748 9
1.7184373 -0.068719171 -0.33429739 2
1.6583235 -0.066605151 0.14520147 10
1.6994174 -0.068552732 -0.26938018 3
1.7097349 -0.069566727 -0.21010277 4
1.6921189 -0.069145776 -0.14816476 5
1.688248 -0.069577895 -0.088552445 6
1.6902831 -0.070252798 -0.029529471 7
1.729344 -0.074295208 -0.46380374 0
1.6721901 -0.072132185 0.029215328 8
1.7035507 -0.073782854 -0.39366436 1
1.67014 -0.072335802 0.087610394 9
1.7103413 -0.074376047 -0.33277091 2
1.6521094 -0.072132654 0.14467853 10
1.7031146 -0.07465741 -0.27000591 3
1.6936294 -0.074537784 -0.20815286 4
1.6958482 -0.07522855 -0.14851339 5
1.6760232 -0.07493531 -0.087924413 6
1.6860455 -0.075678267 -0.029459663 7
1.7232988 -0.079761557 -0.46225086 0
1.6799319 -0.078048185 0.029354947 8
1.7032967 -0.079431623 -0.39366436 1
1.6539304 -0.077129476 0.086773023 9
1.6983188 -0.07949654 -0.3304812 2
1.6578318 -0.07789138 0.14520147 10
1.6949649 -0.079932518 -0.26875445 3
1.6894072 -0.079965942 -0.20766538 4
1.6955894 -0.080851771 -0.14851339 5
1.6717757 -0.080301151 -0.087715074 6
1.6817905 -0.081076406 -0.029389855 7
1.7210952 -0.085380062 -0.46173319 0
1.6836584 -0.083817467 0.029424759 8
1.7069165 -0.085273989 -0.39456415 1
1.6576406 -0.083102301 0.086982369 9
1.6921636 -0.084833033 -0.32933635 2
1.6356757 -0.082287334 0.14328404 10
1.7065278 -0.086150356 -0.27063167 3
1.6930828 -0.08606413 -0.20815286 4
1.6833581 -0.086158924 -0.14746751 5
1.683468 -0.086459145 -0.088343106 6
1.669515 -0.086326875 -0.029180422 7
1.7149835 -0.091379255 -0.46018028 0
1.6673806 -0.088842839 0.029145518 8
1.7027166 -0.091023669 -0.39366436 1
1.6653179 -0.089315906 0.087401055 9
1.6977224 -0.091351017 -0.3304812 2
1.6333736 -0.08817444 0.14310972 10
1.6825308 -0.091122605 -0.26687723 3
1.6491799 -0.08931639 0.2027906 11
1.6888078 -0.091758177 -0.20766538 4
1.6750895 -0.091599271 -0.14677027 5
1.6791513 -0.09240929 -0.08813376 6
1.6731969 -0.092374511 -0.029250234 7
1.7050104 -0.096817501 -0.4575921 0
1.6550649 -0.094271198 0.02893609 8
1.6926436 -0.09670803 -0.39141485 1
1.6630021 -0.095014483 0.087296382 9
1.693473 -0.097051956 -0.32971796 2
1.6390232 -0.09421847 0.14363267 10
1.6822025 -0.096995175 -0.26687723 3
1.6151513 -0.093411878 0.19864705 11
1.6924236 -0.098177277 -0.20815286 4
1.6787374 -0.09767732 -0.1471189 5
1.6668555 -0.097569793 -0.087505728 6
1.6728643 -0.0982145 -0.029250234 7
1.7008053 -0.10253599 -0.4565568 0
1.6547433 -0.099759065 0.02893609 8
1.6884232 -0.10208528 -0.39051503 1
1.6526923 -0.10021444 0.086773023 9
1.6970434 -0.10320103 -0.3304812 2
1.6426618 -0.10018173 0.14398128 10
1.6818717 -0.10257304 -0.26687723 3
1.6207768 -0.099130958 0.19937825 11
1.6802006 -0.10305982 -0.20669043 4
1.6783863 -0.10353661 -0.1471189 5
1.654562 -0.10235682 -0.086877696 6
1.6844863 -0.10479829 -0.029459663 7
1.7139515 -0.10903404 -0.46018028 0
1.6643631 -0.10617111 0.029110614 8
1.6919461 -0.10822716 -0.39141485 1
1.6443597 -0.10547141 0.086354338 9
1.6810179 -0.10782271 -0.32742825 2
1.6403321 -0.10550054 0.14380698 10
1.6893884 -0.10895175 -0.26812872 3
1.6323068 -0.10555653 0.2008407 11
1.6679451 -0.1081535 -0.205228 4
1.6780146 -0.10939465 -0.1471189 5
1.6661527 -0.10891337 -0.087505728 6
1.6641562 -0.10936625 -0.029110614 7
1.6942655 -0.11401813 -0.45500392 0
1.6579968 -0.11157738 0.0290059 8
1.6896136 -0.1140013 -0.39096493 1
1.6439816 -0.11121065 0.086354338 9
1.6766939 -0.11371754 -0.32666501 2
1.624032 -0.11043063 0.14241248 10
1.6850359 -0.11487423 -0.26750296 3
1.6299478 -0.11111869 0.20059694 11
1.6794401 -0.11478721 -0.20669043 4
1.6656964 -0.11443203 -0.14607303 5
1.6657423 -0.1150194 -0.087505728 6
1.6557846 -0.11462218 -0.028970996 7
1.690003 -0.11965861 -0.45396861 0
1.649598 -0.11708716 0.02886628 8
1.6930722 -0.1204699 -0.39186475 1
1.6435629 -0.11723541 0.086354338 9
1.6762867 -0.1195696 -0.32666501 2
1.6156874 -0.11553046 0.14171523 10
1.6728028 -0.119908 -0.26562575 3
1.6315097 -0.11723428 0.2008407 11
1.6770282 -0.12079929 -0.20644669 4
1.6613123 -0.11995871 -0.1457244 5
1.6613467 -0.12054414 -0.087296382 6
1.663331 -0.1212718 -0.029110614 7
1.6953547 -0.12598662 -0.45552155 0
1.6372143 -0.12195335 0.028656852 8
1.6732081 -0.12492813 -0.38736573 1
1.6471269 -0.1232699 0.086563677 9
1.6758591 -0.1254202 -0.32666501 2
1.6252083 -0.12191477 0.14258678 10
1.6566155 -0.12456154 -0.2631228 3
1.6033777 -0.12084001 0.19742836 11
1.6765963 -0.12665246 -0.20644669 4
1.6648568 -0.12605791 -0.14607303 5
1.6489668 -0.12543365 -0.086668357 6
1.6589097 -0.12677243 -0.029040804 7
1.6968307 -0.13205363 -0.45603919 0
1.6407658 -0.12797856 0.02872666 8
1.6649904 -0.13016044 -0.38556612 1
1.634762 -0.12779734 0.085935652 9
1.6832401 -0.13188268 -0.32819149 2
1.6227866 -0.12743109 0.14241248 10
1.6640477 -0.13096341 -0.26437429 3
1.6167986 -0.12752874 0.19913453 11
1.6603355 -0.13096282 -0.20449677 4
1.6723515 -0.13249801 -0.14677027 5
1.640555 -0.13055509 -0.086249664 6
1.6584803 -0.13227288 -0.029040804 7
1.6944579 -0.13752352 -0.45552155 0
1.6443187 -0.13374306 0.028796472 8
1.6684343 -0.13599767 -0.38646591 1
1.6323386 -0.13305545 0.085830979 9
1.6671396 -0.13618505 -0.32513854 2
1.6263267 -0.13313687 0.14276111 10
1.6636044 -0.13648087 -0.26437429 3
1.6084532 -0.13223892 0.19815956 11
1.6559353 -0.13614266 -0.20400929 4
1.6679316 -0.13771509 -0.14642164 5
1.6440939 -0.13632473 -0.086459011 6
1.6540469 -0.13744068 -0.028970996 7
1.6843677 -0.14232849 -0.45293337 0
1.6478512 -0.13953252 0.02886628 8
1.6699158 -0.14169441 -0.3869158 1
1.6338544 -0.13892177 0.085935652 9
1.6627666 -0.14138009 -0.3243753 2
1.6139649 -0.13751435 0.14171523 10
1.6670791 -0.14233293 -0.26500002 3
1.6000944 -0.13689516 0.19718461 11
1.6613834 -0.1424308 -0.20474051 4
1.6555305 -0.14251117 -0.14537577 5
1.6476126 -0.14211929 -0.086668357 6
1.6495725 -0.14286847 -0.028901186 7
1.6761371 -0.14782219 -0.4508628 0
1.6334105 -0.14405403 0.028621947 8
1.6713524 -0.14769419 -0.38736573 1
1.6293806 -0.14427184 0.085726306 9
1.658326 -0.14712648 -0.32361206 2
1.6055119 -0.14272323 0.14101799 10
1.6547406 -0.14739056 -0.2631228 3
1.6035613 -0.14283192 0.1976721 11
1.6588989 -0.14805278 -0.20449677 4
1.6114036 -0.14409742 0.25623968 12
1.6470851 -0.14757796 -0.14467853 5
1.6470807 -0.14815713 -0.086668357 6
1.637114 -0.14754869 -0.028691756 7
1.6794584 -0.15402496 -0.45189807 0
1.6229149 -0.14912495 0.028447423 8
1.657216 -0.15256843 -0.3842164 1
1.636796 -0.1509766 0.086144991 9
1.6656221 -0.1536355 -0.32513854 2
1.6010361 -0.14795996 0.14066936 10
1.6463482 -0.1524373 -0.26187131 3
1.5931441 -0.1477915 0.19645341 11
1.6702046 -0.15523422 -0.2059592 4
1.6010301 -0.14908677 0.25467533 12
1.6544951 -0.15406539 -0.14537577 5
1.6425761 -0.15353386 -0.086459011 6
1.6445261 -0.15429519 -0.028831376 7
1.6808336 -0.16006957 -0.4524157 0
1.6263659 -0.15516891 0.028517231 8
1.6547335 -0.15816684 -0.3837665 1
1.6163775 -0.15478529 0.085098274 9
1.6611671 -0.15907438 -0.3243753 2
1.6104262 -0.15449907 0.14154093 10
1.6497387 -0.15856117 -0.26249707 3
1.5827388 -0.1524004 0.19523472 11
1.6459415 -0.15877607 -0.20303436 4
1.6005001 -0.15467452 0.25467533 12
1.6539474 -0.15983973 -0.14537577 5
1.6301026 -0.15810969 -0.085830979 6
1.647958 -0.16042222 -0.028901186 7
1.6860322 -0.16650537 -0.45396861 0
1.6278042 -0.1610419 0.028552137 8
1.6502926 -0.16355759 -0.38286668 1
1.6079051 -0.15935662 0.084679581 9
1.6488798 -0.16370818 -0.32208559 2
1.6039293 -0.15952799 0.14101799 10
1.6452439 -0.16392717 -0.26187131 3
1.5861475 -0.15831858 0.19572218 11
1.6493278 -0.16491553 -0.20352182 4
1.5862193 -0.15860535 0.25248525 12
1.6494143 -0.16521493 -0.14502715 5
1.6295408 -0.16379882 -0.085830979 6
1.6315 -0.16428341 -0.028621947 7
1.6739098 -0.17121029 -0.4508628 0
1.6312399 -0.16684595 0.028621947 8
1.6594344 -0.17002238 -0.38511622 1
1.6152864 -0.16578396 0.085098274 9
1.6482984 -0.16946284 -0.32208559 2
1.595435 -0.16430934 0.14032075 10
1.6486212 -0.16978683 -0.26249707 3
1.6014107 -0.16520722 0.1976721 11
1.6448226 -0.16997589 -0.20303436 4
1.5758318 -0.16312434 0.25092092 12
1.636937 -0.1697385 -0.14398128 5
1.6329618 -0.16961437 -0.086040318 6
1.6309166 -0.16997741 -0.028621947 7
1.6618059 -0.17554259 -0.44775698 0
1.6226932 -0.17169738 0.028482327 8
1.6607686 -0.17601924 -0.38556612 1
1.6127416 -0.17092903 0.084993601 9
1.6516318 -0.1753424 -0.32284883 2
1.5869566 -0.16875635 0.13962351 10
1.6362331 -0.17428522 -0.26061985 3
1.5968765 -0.17037499 0.19718461 11
1.6481669 -0.17613824 -0.20352182 4
1.585103 -0.16939865 0.25248525 12
1.6284407 -0.17431757 -0.14328404 5
1.6283882 -0.1748869 -0.085830979 6
1.6343204 -0.17581254 -0.028691756 7
1.6650238 -0.18176161 -0.44879225 0
1.6042238 -0.17512441 0.028168185 8
1.6543641 -0.18089014 -0.3842164 1
1.6141205 -0.17677495 0.085098274 9
1.6510098 -0.18110658 -0.32284883 2
1.5922991 -0.17494762 0.14014643 10
1.6277918 -0.17884724 -0.25936839 3
1.5824906 -0.17414948 0.19547844 11
1.6475738 -0.18160278 -0.20352182 4
1.5845021 -0.17493065 0.25248525 12
1.631783 -0.1804388 -0.14363267 5
1.6198587 -0.1794064 -0.085412286 6
1.6297218 -0.18107466 -0.028621947 7
1.6605071 -0.18742965 -0.44775698 0
1.6075137 -0.18173216 0.028237993 8
1.6439755 -0.18614484 -0.38196689 1
1.6035072 -0.18184613 0.084574915 9
1.6503348 -0.18715663 -0.32284883 2
1.5975864 -0.18145709 0.14066936 10
1.6310185 -0.18554272 -0.25999412 3
1.5640593 -0.17820203 0.19328479 11
1.6350306 -0.18657728 -0.20205939 4
1.5897065 -0.18168631 0.25342387 12
1.6350698 -0.18687086 -0.14398128 5
1.6151894 -0.18516992 -0.08520294 6
1.6290146 -0.18733102 -0.028621947 7
1.6655993 -0.19389489 -0.44930989 0
1.6207732 -0.18896334 0.028482327 8
1.6452514 -0.19210824 -0.38241678 1
1.5988952 -0.18697834 0.084365569 9
1.6399217 -0.19177607 -0.32094073 2
1.5929854 -0.18656906 0.14032075 10
1.6342849 -0.19169518 -0.26061985 3
1.5693424 -0.18435535 0.19401602 11
1.6304264 -0.19181959 -0.20157191 4
1.5812155 -0.18630971 0.25217238 12
1.6383649 -0.19304346 -0.14432991 5
1.6145332 -0.19080685 -0.08520294 6
1.6164359 -0.19160385 -0.028412517 7
1.65724 -0.19878744 -0.44723931 0
1.6181184 -0.19438124 0.028447423 8
1.6407012 -0.19738455 -0.38151699 1
1.6022322 -0.19275655 0.084574915 9
1.6353439 -0.19702961 -0.32017753 2
1.5804561 -0.19069645 0.13927487 10
1.6316445 -0.19716173 -0.26030698 3
1.5864257 -0.1919786 0.19620967 11
1.6336882 -0.1979873 -0.20205939 4
1.5668616 -0.18988858 0.2499823 12
1.6218581 -0.19684085 -0.14293543 5
1.6138573 -0.19644147 -0.08520294 6
1.6157916 -0.19696309 -0.028412517 7
1.6527015 -0.20409752 -0.44620407 0
1.5996034 -0.19754025 0.028133281 8
1.6477737 -0.20378095 -0.38331661 1
1.6015496 -0.19834821 0.084574915 9
1.6346462 -0.20273681 -0.32017753 2
1.5837353 -0.19670328 0.13962351 10
1.6251009 -0.20184097 -0.25936839 3
1.5818404 -0.19674827 0.19572218 11
1.6330227 -0.20340373 -0.20205939 4
1.5701096 -0.1958458 0.25060806 12
1.6172069 -0.20200707 -0.14258678 5
1.5701809 -0.196133 0.30758414 13
1.6171607 -0.20228793 -0.085412286 6
1.6150942 -0.20260206 -0.028412517 7
1.6520156 -0.20957696 -0.44620407 0
1.5909691 -0.20211466 0.02799366 8
1.6335201 -0.20781 -0.38016728 1
1.6048101 -0.20444228 0.084784262 9
1.6339649 -0.20815641 -0.32017753 2
1.5791215 -0.20144978 0.13927487 10
1.6126295 -0.20601048 -0.25749114 3
1.5673608 -0.20050551 0.19401602 11
1.6382097 -0.20985949 -0.2027906 4
1.5733351 -0.20182797 0.25123379 12
1.6165282 -0.20736881 -0.14258678 5
1.5694867 -0.20161277 0.30758414 13
1.608521 -0.20691238 -0.084993601 6
1.6104107 -0.20772693 -0.028342709 7
1.6531897 -0.21559213 -0.44672167 0
1.5902538 -0.20766695 0.02799366 8
1.6289202 -0.21300544 -0.37926748 1
1.5961652 -0.20900559 0.084365569 9
1.6332283 -0.21385872 -0.32017753 2
1.5863106 -0.20799682 0.13997212 10
1.6158179 -0.21215267 -0.2581169 3
1.5568104 -0.20468156 0.1927973 11
1.6295948 -0.21454024 -0.20181565 4
1.576538 -0.20783506 0.25185952 12
1.6197453 -0.21353109 -0.14293543 5
1.572666 -0.20760392 0.30834734 13
1.5998688 -0.21147898 -0.084574915 6
1.6176052 -0.21439801 -0.028482327 7
1.6581713 -0.22213101 -0.44827461 0
1.5994289 -0.21454598 0.028168185 8
1.6320297 -0.21920896 -0.38016728 1
1.5795904 -0.21244618 0.083528191 9
1.6285803 -0.21903507 -0.31941426 2
1.5737276 -0.21193728 0.13892625 10
1.6150675 -0.21779162 -0.2581169 3
1.5678899 -0.21170838 0.19425975 11
1.6249017 -0.21969533 -0.20132817 4
1.5640577 -0.21174689 0.2499823 12
1.6229004 -0.22000161 -0.14328404 5
1.5797137 -0.2141472 0.30987382 13
1.6030791 -0.21759957 -0.084784262 6
1.6009955 -0.21788591 -0.028203089 7
1.6439494 -0.22636236 -0.44465113 0
1.5986702 -0.2201277 0.028168185 8
1.6312544 -0.22490448 -0.38016728 1
1.5867532 -0.21905123 0.083946884 9
1.6219325 -0.22419621 -0.31826943 2
1.5689931 -0.21715756 0.13857763 10
1.6142583 -0.22370969 -0.2581169 3
1.5651751 -0.21690755 0.19401602 11
1.6241248 -0.22536594 -0.20132817 4
1.5456997 -0.21475856 0.24716648 12
1.6063353 -0.22346897 -0.14188954 5
1.5789182 -0.21993572 0.30987382 13
1.6062269 -0.22402546 -0.084993601 6
1.5962644 -0.22291996 -0.028133281 7
1.631672 -0.23047827 -0.44154531 0
1.5820128 -0.22374542 0.027888944 8
1.6342782 -0.2314283 -0.3810671 1
1.5899339 -0.22514875 0.084156223 9
1.6191962 -0.22958083 -0.31788781 2
1.5563898 -0.22095284 0.13753176 10
1.6056447 -0.22823119 -0.25686541 3
1.5584737 -0.22180361 0.19328479 11
1.6173922 -0.23047698 -0.20059694 4
1.5566745 -0.22182475 0.2490437 12
1.6016008 -0.22851193 -0.14154093 5
1.5625926 -0.22322467 0.30682087 13
1.6093893 -0.23019645 -0.08520294 6
1.5915174 -0.22792363 -0.028063469 7
1.6346813 -0.23672621 -0.44258058 0
1.5733459 -0.22784393 0.027749326 8
1.6180731 -0.23460944 -0.37746787 1
1.5970446 -0.23184505 0.084574915 9
1.6203278 -0.23551387 -0.31826943 2
1.5694104 -0.22839276 0.13875194 10
1.6009694 -0.23298548 -0.25623968 3
1.5596939 -0.22725675 0.19352853 11
1.622512 -0.23669888 -0.20132817 4
1.5519813 -0.22668622 0.24841796 12
1.5968505 -0.23352456 -0.1411923 5
1.5540735 -0.22726882 0.30529439 13
1.5967602 -0.23379602 -0.084574915 6
1.5907121 -0.23347765 -0.028063469 7
1.6357983 -0.24242891 -0.44309825 0
1.5764972 -0.23392157 0.027819136 8
1.6133891 -0.23968342 -0.37656805 1
1.5764703 -0.23448001 0.083528191 9
1.6214796 -0.24117459 -0.31865105 2
1.5666738 -0.23330241 0.13857763 10
1.6001464 -0.23857246 -0.25623968 3
1.5451479 -0.23064819 0.19182236 11
1.6138226 -0.24118739 -0.20035322 4
1.5570416 -0.23297924 0.24935657 12
1.6039071 -0.2402779 -0.14188954 5
1.5571538 -0.23327389 0.30605766 13
1.5880336 -0.23818332 -0.084156223 6
1.605707 -0.24140726 -0.028342709 7
1.6368089 -0.24871302 -0.44361585 0
1.5835789 -0.24062474 0.027958756 8
1.6144693 -0.24560682 -0.37701797 1
1.5677441 -0.23877858 0.083109505 9
1.60894 -0.2453403 -0.31636134 2
1.5677778 -0.23934364 0.13875194 10
1.607072 -0.24562952 -0.25749114 3
1.5541447 -0.23753996 0.19304106 11
1.6090463 -0.24621868 -0.19986574 4
1.5464557 -0.23691721 0.24779223 12
1.6069975 -0.24647927 -0.14223817 5
1.5640506 -0.24017154 0.30758414 13
1.58715 -0.24400216 -0.084156223 6
1.5850906 -0.24396877 -0.02799366 7
1.630204 -0.25353441 -0.44206294 0
1.5846623 -0.24673487 0.02799366 8
1.6154838 -0.25182262 -0.37746787 1
1.574752 -0.24575487 0.083528191 9
1.6041942 -0.25034961 -0.3155981 2
1.55709 -0.24327697 0.13788037 10
1.5983983 -0.25001669 -0.25623968 3
1.5513024 -0.24292748 0.1927973 11
1.6120554 -0.25272939 -0.20035322 4
1.5377712 -0.24135852 0.24654076 12
1.5923492 -0.24992472 -0.14101799 5
1.5593237 -0.24502009 0.30682087 13
1.5862886 -0.24954087 -0.084156223 6
1.5631108 -0.24617434 0.3653205 14
1.5841857 -0.24977678 -0.02799366 7
1.6178619 -0.25740209 -0.43895712 0
1.577867 -0.25132129 0.027888944 8
1.6165192 -0.25776705 -0.37791777 1
1.5778291 -0.25187999 0.083737537 9
1.6110654 -0.2571857 -0.31712458 2
1.5444269 -0.2468242 0.13683452 10
1.5936148 -0.25497046 -0.25561395 3
1.546525 -0.24771313 0.19230984 11
1.6111634 -0.25835499 -0.20035322 4
1.5369192 -0.24672487 0.24654076 12
1.5875326 -0.25484994 -0.14066936 5
1.5507053 -0.2492156 0.30529439 13
1.5932953 -0.25634554 -0.084574915 6
1.5391546 -0.24791043 0.35992166 14
1.5833042 -0.25530508 -0.02799366 7
1.620767 -0.26366827 -0.4399924 0
1.5611905 -0.25425601 0.027609706 8
1.611763 -0.26278105 -0.37701797 1
1.5730428 -0.25646812 0.083528191 9
1.6062827 -0.26217532 -0.31636134 2
1.5474886 -0.25285631 0.13718314 10
1.5810182 -0.25861832 -0.25373673 3
1.5417329 -0.25246844 0.19182236 11
1.6141697 -0.26461971 -0.2008407 4
1.5419407 -0.2527788 0.24747935 12
1.5866334 -0.26038989 -0.14066936 5
1.5459514 -0.2539905 0.30453119 13
1.5766246 -0.25931251 -0.083737537 6
1.5459713 -0.25454798 0.36172128 14
1.5824488 -0.26055411 -0.02799366 7
1.6255538 -0.27027476 -0.44154531 0
1.5662565 -0.26041564 0.027714422 8
1.6012713 -0.26652461 -0.37476847 1
1.5563772 -0.25933135 0.08269082 9
1.6092305 -0.26842672 -0.31712458 2
1.5505269 -0.25891283 0.13753176 10
1.5801519 -0.26385975 -0.25373673 3
1.5310975 -0.25594315 0.19060367 11
1.5976204 -0.26734993 -0.19889079 4
1.5468936 -0.25913879 0.24841796 12
1.5857149 -0.26592669 -0.14066936 5
1.5451006 -0.25911564 0.30453119 13
1.5718167 -0.26387802 -0.083528191 6
1.5335879 -0.25773537 0.35902187 14
1.5815297 -0.26607633 -0.02799366 7
1.6246486 -0.27566382 -0.44154531 0
1.5712525 -0.26688591 0.027819136 8
1.6022524 -0.27243912 -0.37521836 1
1.5534934 -0.26442739 0.082586147 9
1.6005899 -0.27244392 -0.3155981 2
1.5535879 -0.2647225 0.13788037 10
1.5870104 -0.27070251 -0.25498822 3
1.5360651 -0.26228848 0.19133489 11
1.5927639 -0.27225611 -0.1984033 4
1.5342972 -0.26253787 0.24654076 12
1.5848243 -0.27118367 -0.14066936 5
1.5441867 -0.26450744 0.30453119 13
1.574823 -0.27003816 -0.083737537 6
1.5249964 -0.26176828 0.35722226 14
1.572708 -0.27024066 -0.02785404 7
1.6084486 -0.27869472 -0.43740419 0
1.5663707 -0.27168548 0.027749326 8
1.6051315 -0.2786971 -0.37611815 1
1.5584643 -0.27087453 0.082900167 9
1.5957608 -0.27735698 -0.31483486 2
1.5428398 -0.26843628 0.13700882 10
1.5860558 -0.27624056 -0.25498822 3
1.5410069 -0.26867163 0.1920661 11
1.5957149 -0.27849683 -0.19889079 4
1.5197501 -0.2655122 0.24435066 12
1.5760174 -0.27534252 -0.13997212 5
1.543254 -0.26989609 0.30453119 13
1.5738708 -0.27553368 -0.083737537 6
1.5279124 -0.26776269 0.35812208 14
1.5678159 -0.27503777 -0.027784232 7
1.6055636 -0.28397107 -0.43688658 0
1.5595056 -0.27610564 0.027644612 8
1.6060678 -0.28463843 -0.37656805 1
1.5614424 -0.27701071 0.083109505 9
1.5947829 -0.28292555 -0.31483486 2
1.5399318 -0.2734718 0.13683452 10
1.581192 -0.28108376 -0.25436246 3
1.5420141 -0.2743969 0.19230984 11
1.5908244 -0.28336895 -0.1984033 4
1.5265929 -0.27220249 0.24560213 12
1.5711238 -0.28014269 -0.13962351 5
1.5345715 -0.27390155 0.30300471 13
1.5807639 -0.28243098 -0.084156223 6
1.5346414 -0.27446678 0.35992166 14
1.570783 -0.28121352 -0.02785404 7
1.6026615 -0.2892307 -0.43636894 0
1.5447574 -0.2790592 0.027400278 8
1.5954762 -0.2885091 -0.37431854 1
1.5604658 -0.28245947 0.083109505 9
1.5937855 -0.28849065 -0.31483486 2
1.5389677 -0.27884552 0.13683452 10
1.5685391 -0.28448629 -0.25248525 3
1.5273747 -0.27729568 0.19060367 11
1.6015443 -0.29104993 -0.19986574 4
1.5256333 -0.27752963 0.24560213 12
1.5740567 -0.28633839 -0.13997212 5
1.5258802 -0.2778497 0.30147824 13
1.569944 -0.28615645 -0.083632864 6
1.5375082 -0.2805216 0.36082149 14
1.5737262 -0.28741342 -0.02792385 7
1.6092418 -0.29622218 -0.43843949 0
1.5536069 -0.28626153 0.027574802 8
1.5887102 -0.29301623 -0.37296885 1
1.551614 -0.28645438 0.08269082 9
1.5927688 -0.29405224 -0.31483486 2
1.5379851 -0.28421578 0.13683452 10
1.5753063 -0.29139704 -0.25373673 3
1.5244455 -0.28226408 0.19035992 11
1.5888073 -0.29446802 -0.1984033 4
1.5324242 -0.28429472 0.24685362 12
1.5730476 -0.29183114 -0.13997212 5
1.5326221 -0.28460807 0.30300471 13
1.5630448 -0.2905398 -0.083318852 6
1.5250245 -0.28374797 0.35812208 14
1.5766451 -0.29363728 -0.02799366 7
1.6176915 -0.30361953 -0.44102767 0
1.5565288 -0.29242131 0.027644612 8
1.5838473 -0.29783976 -0.37206903 1
1.5447165 -0.29076043 0.082376808 9
1.5840153 -0.29815757 -0.31330839 2
1.5448154 -0.29105824 0.13753176 10
1.5703971 -0.29616189 -0.25311098 3
1.5273523 -0.28832012 0.19084741 11
1.5780169 -0.2981694 -0.19718461 4
1.5236586 -0.28817374 0.24560213 12
1.568104 -0.29657981 -0.13962351 5
1.5316193 -0.28995618 0.30300471 13
1.5580964 -0.29525036 -0.083109505 6
1.5163664 -0.28761697 0.35632247 14
1.5559646 -0.29540908 -0.027644612 7
1.5843654 -0.3030937 -0.43222782 0
1.5594265 -0.29860497 0.027714422 8
1.5866259 -0.30410028 -0.37296885 1
1.5456536 -0.29652703 0.082481474 9
1.5791086 -0.30294523 -0.31254515 2
1.5320501 -0.29419452 0.13648589 10
1.5771133 -0.30313325 -0.25436246 3
1.5302353 -0.29439986 0.19133489 11
1.5867128 -0.30555269 -0.1984033 4
1.5071261 -0.29049954 0.24309918 12
1.5631464 -0.30129749 -0.13927487 5
1.542164 -0.29753229 0.30529439 13
1.5649004 -0.30220214 -0.083528191 6
1.5191798 -0.29364797 0.35722226 14
1.5509974 -0.30007893 -0.027574802 7
1.550524 -0.30251488 0.027574802 8
1.5951177 -0.31150433 -0.37521836 1
1.5485294 -0.30268684 0.08269082 9
1.5780416 -0.3084555 -0.31254515 2
1.5192819 -0.29724523 0.13544002 10
1.5644141 -0.30635881 -0.25248525 3
1.5311462 -0.30012146 0.19157861 11
1.5817407 -0.31032515 -0.19791584 4
1.5157948 -0.29766184 0.24466354 12
1.5542649 -0.30521637 -0.13857763 5
1.5218521 -0.29912719 0.30147824 13
1.5677553 -0.30843392 -0.083737537 6
1.5219697 -0.29970214 0.35812208 14
1.5538642 -0.30626446 -0.027644612 7
1.5357293 -0.30519691 0.027330469 8
1.5787302 -0.31402898 -0.37161914 1
1.551381 -0.30887032 0.082900167 9
1.5769552 -0.31396198 -0.31254515 2
1.528005 -0.30449358 0.13631159 10
1.5672097 -0.31259051 -0.25311098 3
1.5164626 -0.30274388 0.18987246 11
1.5884343 -0.31740049 -0.19889079 4
1.5128094 -0.30256373 0.24435066 12
1.5570976 -0.31142139 -0.13892625 5
1.5130984 -0.30289617 0.29995176 13
1.5549191 -0.31155023 -0.083109505 6
1.5247356 -0.30577937 0.35902187 14
1.5567069 -0.31247368 -0.027714422 7
1.5424944 -0.31214222 0.027470089 8
1.5814445 -0.32031158 -0.37251896 1
1.5385487 -0.31190288 0.082272127 9
1.5796978 -0.32024485 -0.31330839 2
1.530838 -0.31061783 0.1366602 10
1.5622373 -0.3172729 -0.25248525 3
1.5134513 -0.30764005 0.18962872 11
1.5717548 -0.3197771 -0.19694087 4
1.5156153 -0.30863088 0.2449764 12
1.5560009 -0.31685477 -0.13892625 5
1.5158794 -0.3089602 0.300715 13
1.5499083 -0.31617761 -0.082900167 6
1.5634434 -0.31950727 -0.02785404 7
1.5413954 -0.31752461 0.027470089 8
1.5688651 -0.32346877 -0.36981952 1
1.5374506 -0.31727147 0.082272127 9
1.5708795 -0.32416993 -0.31178191 2
1.5238907 -0.31475055 0.13613726 10
1.5649892 -0.323524 -0.25311098 3
1.516256 -0.31372553 0.1901162 11
1.5667413 -0.32445654 -0.19645341 4
1.5048575 -0.31191492 0.24341206 12
1.566591 -0.32471055 -0.13997212 5
1.5186362 -0.31504729 0.30147824 13
1.5507507 -0.32199192 -0.083004832 6
1.5427408 -0.32089058 -0.027504994 7
1.5461491 -0.32413408 0.027574802 8
1.5696336 -0.32934332 -0.37026942 1
1.5304698 -0.32140481 0.081958115 9
1.5620528 -0.32803738 -0.31025544 2
1.5169336 -0.31883857 0.13561434 10
1.5599842 -0.32817158 -0.25248525 3
1.5151516 -0.31901634 0.1901162 11
1.5694841 -0.33074215 -0.19694087 4
1.497961 -0.31594294 0.24247345 12
1.549852 -0.32688755 -0.13857763 5
1.5213692 -0.32115746 0.30224147 13
1.5535254 -0.3282288 -0.083214179 6
1.5376985 -0.32544565 -0.027435182 7
1.5332739 -0.3270264 0.027365373 8
1.581815 -0.33766821 -0.37341875 1
1.5273855 -0.32632789 0.081853449 9
1.568578 -0.33512872 -0.31178191 2
1.5080179 -0.32246521 0.1349171 10
1.5568976 -0.33320156 -0.25217238 3
1.5120878 -0.3238875 0.18987246 11
1.570261 -0.33663476 -0.19718461 4
1.5026433 -0.32241312 0.24341206 12
1.5370133 -0.32978767 -0.13753176 5
1.512561 -0.32481727 0.300715 13
1.5582284 -0.33490869 -0.083528191 6
1.5443728 -0.33249477 -0.027574802 7
1.5262604 -0.3311047 0.027260659 8
1.5653918 -0.33987987 -0.36981952 1
1.5340439 -0.33335391 0.082272127 9
1.5673987 -0.34060204 -0.31178191 2
1.506883 -0.3277272 0.1349171 10
1.5441439 -0.33611321 -0.25029516 3
1.5070688 -0.3283186 0.18938497 11
1.5651973 -0.34126821 -0.19669713 4
1.5015087 -0.32765636 0.24341206 12
1.5397458 -0.33600035 -0.13788037 5
1.4999096 -0.32758167 0.29842529 13
1.5414402 -0.33693388 -0.08269082 6
1.5432026 -0.33788359 -0.027574802 7
1.5270482 -0.3368611 0.027295565 8
1.5622929 -0.34492189 -0.36936963 1
1.5231785 -0.33628622 0.081748769 9
1.5662001 -0.34607124 -0.31178191 2
1.5174022 -0.33556649 0.13596295 10
1.5603197 -0.34534311 -0.25311098 3
1.5000993 -0.33228931 0.18865377 11
1.5523683 -0.34415177 -0.19523472 4
1.5023425 -0.33306131 0.24372493 12
1.5463439 -0.34309933 -0.13857763 5
1.5025901 -0.33366653 0.29918852 13
1.538305 -0.34187916 -0.082586147 6
1.5420738 -0.34299919 -0.027574802 7
1.5278739 -0.34236035 0.027330469 8
1.5611405 -0.35010076 -0.36936963 1
1.5180978 -0.34072629 0.08153943 9
1.5573205 -0.34981507 -0.31025544 2
1.5162216 -0.3408612 0.13596295 10
1.5514568 -0.34878239 -0.25185952 3
1.498989 -0.33726197 0.18865377 11
1.5415355 -0.3471173 -0.19401602 4
1.4934624 -0.3365663 0.24247345 12
1.549024 -0.34937173 -0.13892625 5
1.5053055 -0.33951133 0.29995176 13
1.5352147 -0.34653872 -0.082481474 6
1.5291643 -0.345734 -0.027365373 7
1.5383682 -0.35035583 0.027539898 8
1.569409 -0.35771337 -0.37161914 1
1.5207936 -0.34691173 0.081748769 9
1.5504097 -0.35366756 -0.30911061 2
1.5073134 -0.3441135 0.13526571 10
1.5579327 -0.35595581 -0.25311098 3
1.5055434 -0.34426239 0.18962872 11
1.5519248 -0.35515317 -0.19547844 4
1.4845763 -0.34001338 0.24122196 12
1.5361428 -0.35210586 -0.13788037 5
1.5041113 -0.34476379 0.29995176 13
1.5437292 -0.35412833 -0.083004832 6
1.5240504 -0.3501741 -0.027295565 7
1.5196019 -0.35166591 0.027225753 8
1.5738462 -0.36450854 -0.37296885 1
1.5234648 -0.35312018 0.081958115 9
1.552928 -0.36023498 -0.30987382 2
1.4963381 -0.34738296 0.13439415 10
1.5450729 -0.35898122 -0.25123379 3
1.5043324 -0.34951562 0.18962872 11
1.5506757 -0.36056826 -0.19547844 4
1.4872285 -0.34608889 0.24184772 12
1.5271425 -0.35565817 -0.13718314 5
1.4951897 -0.34849176 0.29842529 13
1.5307506 -0.35706183 -0.082376808 6
1.5306081 -0.35731024 -0.027435182 7
1.5144098 -0.35631722 0.027155945 8
1.5183346 -0.35752037 0.081748769 9
1.5535719 -0.3661038 -0.31025544 2
1.4970555 -0.35306135 0.13456847 10
1.5438104 -0.36437234 -0.25123379 3
1.4972454 -0.35365793 0.18889751 11
1.5512755 -0.36670598 -0.19572218 4
1.4898561 -0.35218707 0.24247345 12
1.5297695 -0.36190411 -0.13753176 5
1.4996954 -0.35506573 0.29957014 13
1.521721 -0.36056098 -0.081958115 6
1.52546 -0.36172813 -0.027365373 7
1.5132198 -0.36133718 0.027155945 8
1.5170774 -0.36281815 0.081748769 9
1.5522845 -0.37152457 -0.31025544 2
1.5016267 -0.3596772 0.13509139 10
1.5387516 -0.36856952 -0.25060806 3
1.484482 -0.35584462 0.18743508 11
1.5442599 -0.37045896 -0.19499096 4
1.4905384 -0.35784662 0.24278632 12
1.5323714 -0.36817268 -0.13788037 5
1.516633 -0.36467132 -0.081748769 6
1.5319645 -0.36892349 -0.027504994 7
1.5197229 -0.36850208 0.027295565 8
1.5080384 -0.3662262 0.081330083 9
1.5434128 -0.37481683 -0.30872896 2
1.5004257 -0.36465481 0.13509139 10
1.5451334 -0.37580594 -0.25185952 3
1.4909459 -0.36290213 0.18841003 11
1.5352427 -0.37396792 -0.19401602 4
1.4796844 -0.36070815 0.24122196 12
1.5349482 -0.37446386 -0.13822901 5
1.5231121 -0.37185797 -0.082167462 6
1.5190126 -0.37141901 -0.027295565 7
1.5184274 -0.37380463 0.027295565 8
1.5028725 -0.3705318 0.081120737 9
1.5382165 -0.37953061 -0.30796573 2
1.4836048 -0.36633077 0.1336969 10
1.5437456 -0.3814666 -0.25185952 3
1.4935243 -0.3690567 0.18889751 11
1.5358549 -0.37980118 -0.19425975 4
1.470746 -0.36397284 0.23997049 12
1.5258958 -0.3779037 -0.13753176 5
1.525616 -0.37839961 -0.082376808 6
1.5099436 -0.37479213 -0.027155945 7
1.5092871 -0.37742695 0.027155945 8
1.509254 -0.37797841 0.08153943 9
1.5330734 -0.3839438 -0.30720252 2
1.4842496 -0.37199163 0.13387121 10
1.5309085 -0.38396958 -0.2499823 3
1.4921616 -0.37452823 0.18889751 11
1.5383031 -0.38639501 -0.19474722 4
1.4751496 -0.37080568 0.2409091 12
1.5129739 -0.38031349 -0.13648589 5
1.5281595 -0.38469785 -0.082586147 6
1.5163159 -0.38227925 -0.027295565 7
1.504084 -0.38170922 0.027086135 8
1.5117967 -0.38422835 0.081748769 9
1.5374321 -0.39074364 -0.30834734 2
1.4810112 -0.37667927 0.1336969 10
1.5257301 -0.3883366 -0.24935657 3
1.4869978 -0.37875462 0.18841003 11
1.536945 -0.39176235 -0.19474722 4
1.4776745 -0.37692913 0.24153483 12
1.5154982 -0.38657731 -0.13683452 5
1.5113262 -0.38607508 -0.081748769 6
1.5110977 -0.38657859 -0.027225753 7
1.5027424 -0.38695714 0.027086135 8
1.4950418 -0.38525245 0.080911398 9
1.5341578 -0.39561769 -0.30796573 2
1.4835457 -0.38284236 0.13404553 10
1.5243653 -0.39366001 -0.24935657 3
1.4760569 -0.38145944 0.18719132 11
1.5298026 -0.39563385 -0.19401602 4
1.4764163 -0.38182724 0.24153483 12
1.5141395 -0.39186502 -0.13683452 5
1.5099694 -0.39134824 -0.081748769 6
1.5136788 -0.39259157 -0.027295565 7
1.5014509 -0.3919383 0.027086135 8
1.4898232 -0.38945851 0.080702052 9
1.5213714 -0.3979893 -0.30567604 2
1.4802728 -0.38751397 0.13387121 10
1.5345173 -0.40171438 -0.25123379 3
1.4843854 -0.38886741 0.18841003 11
1.5188811 -0.39818767 -0.1927973 4
1.4655209 -0.38447222 0.23997049 12
1.5204709 -0.39917174 -0.13753176 5
1.5125268 -0.39736831 -0.081958115 6
1.5045636 -0.39583772 -0.027155945 7
1.5039399 -0.39820063 0.027155945 8
1.5000379 -0.39772782 0.081330083 9
1.5200434 -0.40303215 -0.30567604 2
1.4770539 -0.39190966 0.1336969 10
1.5292873 -0.40605456 -0.25060806 3
1.4791819 -0.39302707 0.18792254 11
1.5251557 -0.4055275 -0.19377227 4
1.4641699 -0.38958549 0.23997049 12
1.5037354 -0.40011308 -0.13613726 5
1.4995508 -0.39956018 -0.081330083 6
1.4993083 -0.40005612 -0.027086135 7
1.4948155 -0.40137359 0.027016325 8
1.494783 -0.40192428 0.081120737 9
1.5186272 -0.40833563 -0.30567604 2
1.4737529 -0.39654547 0.1335226 10
1.516416 -0.40830874 -0.24873082 3
1.4816344 -0.39922085 0.18841003 11
1.5218142 -0.41033202 -0.19352853 4
1.4704298 -0.39675242 0.24122196 12
1.5023296 -0.40535966 -0.13613726 5
1.5174284 -0.41000193 -0.082376808 6
1.5017635 -0.40633184 -0.027155945 7
1.4895465 -0.40553844 0.026946515 8
1.4991517 -0.40871567 0.081434757 9
1.5171926 -0.41363418 -0.30567604 2
1.4723598 -0.40168741 0.1335226 10
1.5111701 -0.412559 -0.24810509 3
1.4725723 -0.40229774 0.18743508 11
1.5242023 -0.41668862 -0.19401602 4
1.5047492 -0.41165277 -0.13648589 5
1.496725 -0.41001919 -0.081330083 6
1.5041928 -0.41262949 -0.027225753 7
1.4939047 -0.41233161 0.027051231 8
1.4880905 -0.41128591 0.080911398 9
1.5403395 -0.42572671 -0.31063706 2
1.4728688 -0.40735555 0.1336969 10
1.5097209 -0.41783148 -0.24810509 3
1.4615935 -0.40478635 0.18621638 11
1.5131735 -0.41935572 -0.1927973 4
1.4994631 -0.41583791 -0.13613726 5
1.4952846 -0.41524124 -0.081330083 6
1.5027432 -0.41787758 -0.027225753 7
1.4905305 -0.41700497 0.027016325 8
1.4904922 -0.4175553 0.081120737 9
1.4714379 -0.41249436 0.1336969 10
1.5196649 -0.42630008 -0.2499823 3
1.471639 -0.4131048 0.1876788 11
1.5059673 -0.42302468 -0.1920661 4
1.5095108 -0.42430434 -0.13718314 5
1.4976712 -0.4215405 -0.08153943 6
1.497426 -0.42203572 -0.027155945 7
1.4948374 -0.42384183 0.027121039 8
1.4832616 -0.42111903 0.080806725 9
1.4661561 -0.41653913 0.13334829 10
1.5219678 -0.43268245 -0.25060806 3
1.4682788 -0.41769615 0.18743508 11
1.510209 -0.42990935 -0.1927973 4
1.500356 -0.4273876 -0.13648589 5
1.5000318 -0.42786145 -0.081748769 6
1.4920981 -0.42616174 -0.027086135 7
1.4876575 -0.42714101 0.027016325 8
1.4818569 -0.42603543 0.080806725 9
1.4551932 -0.41864452 0.13247673 10
1.5091349 -0.43444827 -0.24873082 3
1.4707005 -0.4236618 0.18792254 11
1.5068676 -0.43436527 -0.19255358 4
1.4835408 -0.42820209 -0.13509139 5
1.4986048 -0.43283334 -0.081748769 6
1.4906766 -0.43110737 -0.027086135 7
1.4784771 -0.43009695 0.026876707 8
1.4918662 -0.43455684 0.081434757 9
1.4574742 -0.425091 0.13282534 10
1.4999473 -0.43776289 -0.24747935 3
1.4615903 -0.42656833 0.18694758 11
1.5167754 -0.44296142 -0.19401602 4
1.4915987 -0.43617392 -0.13596295 5
1.4893411 -0.43607819 -0.081330083 6
1.4891627 -0.43630821 -0.027086135 7
1.4788088 -0.43607858 0.026911611 8
1.4750154 -0.43523985 0.080597378 9
1.4636246 -0.43243408 0.1335226 10
1.5078818 -0.44579622 -0.2490437 3
1.4504993 -0.4291068 0.18572889 11
1.5056242 -0.44570038 -0.1927973 4
1.4977084 -0.44364148 -0.1366602 5
1.476321 -0.43786684 -0.080702052 6
1.4952989 -0.44377944 -0.027225753 7
1.481187 -0.44212401 0.026981421 8
1.4620055 -0.43695432 0.079969354 9
1.4621061 -0.43754047 0.1335226 10
1.5063952 -0.4507941 -0.2490437 3
1.4566751 -0.43619224 0.18670385 11
1.4965318 -0.44841173 -0.19182236 4
1.4961507 -0.4488667 -0.1366602 5
1.4825126 -0.44505712 -0.081120737 6
1.4784203 -0.44439128 -0.026946515 7
1.485377 -0.44902757 0.027086135 8
1.4738525 -0.44610527 0.080702052 9
1.4511129 -0.43949893 0.13265103 10
1.5010314 -0.45490375 -0.24841796 3
1.4551436 -0.44127429 0.18670385 11
1.4949574 -0.45363283 -0.19182236 4
1.4832153 -0.45035252 -0.13561434 5
1.4847717 -0.45139122 -0.081330083 6
1.473034 -0.44838458 -0.026876707 7
1.4704157 -0.45011252 0.026841803 8
1.4761056 -0.45241779 0.080911398 9
1.4476651 -0.44397742 0.13247673 10
1.4994344 -0.46014056 -0.24841796 3
1.49716 -0.46001449 -0.19230984 4
1.4778255 -0.45435616 -0.13526571 5
1.4870049 -0.45774651 -0.08153943 6
1.4791038 -0.4558796 -0.027016325 7
1.4631054 -0.4534665 0.026737086 8
1.4765048 -0.45790187 0.081016071 9
1.4461066 -0.44902802 0.13247673 10
1.4865005 -0.46185517 -0.24654076 3
1.4994173 -0.46615535 -0.1927973 4
1.4800352 -0.46069625 -0.13561434 5
1.4739572 -0.45936877 -0.080911398 6
1.4814019 -0.46197268 -0.027086135 7
1.4673179 -0.46011081 0.026841803 8
1.4635441 -0.45920804 0.080388032 9
1.4522128 -0.45620957 0.13317397 10
1.4887297 -0.46796677 -0.24716648 3
1.490289 -0.46874264 -0.19182236 4
1.4803996 -0.46620014 -0.13578865 5
1.4648064 -0.46185169 -0.080492713 6
1.4798617 -0.46688265 -0.027086135 7
1.4734085 -0.46739271 0.026981421 8
1.4562217 -0.46250024 0.08007402 9
1.4544895 -0.46222958 0.1335226 10
1.4965822 -0.475894 -0.24873082 3
1.4810774 -0.47153306 -0.19084741 4
1.4844583 -0.47318017 -0.13631159 5
1.4746016 -0.47060537 -0.081120737 6
1.4667937 -0.46839562 -0.026876707 7
1.4754932 -0.47401312 0.027051231 8
1.4602207 -0.4696691 0.080388032 9
1.4376129 -0.46267438 0.1321281 10
1.4910674 -0.48016512 -0.24810509 3
1.4831178 -0.47817653 -0.19133489 4
1.4713377 -0.47494549 -0.13526571 5
1.469066 -0.47477853 -0.080911398 6
1.4574562 -0.47130743 -0.026737086 7
1.4604347 -0.47508767 0.026806895 8
1.4604716 -0.47538155 0.080492713 9
1.4359075 -0.46794036 0.1321281 10
1.4889884 -0.48581365 -0.19230984 4
1.4564134 -0.47574797 -0.13404553 5
1.4787896 -0.4836286 -0.08153943 6
1.4672053 -0.48012355 -0.026946515 7
1.4569516 -0.47930309 0.026771991 8
1.4607842 -0.48084649 0.080597378 9
1.4343479 -0.47269943 0.1321281 10
1.4873692 -0.49074861 -0.19230984 4
1.4699625 -0.48557442 -0.13544002 5
1.4658002 -0.48476705 -0.080911398 6
1.4656051 -0.48498634 -0.026946515 7
1.4534568 -0.48350069 0.026737086 8
1.455307 -0.4846805 0.080388032 9
1.4365529 -0.4787131 0.13247673 10
1.4781153 -0.49342322 -0.19133489 4
1.4682585 -0.4907026 -0.13544002 5
1.4566081 -0.48709157 -0.080492713 6
1.4714882 -0.49263865 -0.027086135 7
1.4574459 -0.49048477 0.026841803 8
1.4479282 -0.48784438 0.08007402 9
1.4442281 -0.48715913 0.13334829 10
1.4688609 -0.49603927 -0.19035992 4
1.4740864 -0.49837729 -0.13613726 5
1.4623802 -0.49498835 -0.080911398 6
1.4583956 -0.49392337 -0.026876707 7
1.4613171 -0.49775752 0.026946515 8
1.444326 -0.49225131 0.079969354 9
1.4444044 -0.49284086 0.1335226 10
1.4746345 -0.5037303 -0.19133489 4
1.4610267 -0.49965146 -0.13509139 5
1.4644226 -0.5013839 -0.081120737 6
1.4490955 -0.49641889 -0.026737086 7
1.4445324 -0.49739239 0.026667278 8
1.4521273 -0.50029105 0.080492713 9
1.4729559 -0.50861758 -0.19133489 4
1.4518296 -0.50188988 -0.13439415 5
1.4665267 -0.50754374 -0.081330083 6
1.4549998 -0.5038389 -0.026876707 7
1.4372094 -0.50020796 0.026562562 8
1.448486 -0.50469971 0.080388032 9
1.4749198 -0.51506507 -0.19182236 4
1.4538304 -0.50826973 -0.13474278 5
1.4572947 -0.50976628 -0.080911398 6
1.4607815 -0.51155835 -0.027016325 7
1.444886 -0.50854117 0.026737086 8
1.4372967 -0.50643402 0.079864673 9
1.461882 -0.51624423 -0.19035992 4
1.4539257 -0.51400548 -0.1349171 5
1.4478852 -0.51243865 -0.080492713 6
1.4589869 -0.51665437 -0.027016325 7
1.4467798 -0.51517516 0.026806895 8
1.4317575 -0.51010746 0.079655334 9
1.4543719 -0.51959532 -0.18962872 4
1.457751 -0.52108949 -0.13544002 5
1.4460877 -0.51748961 -0.080492713 6
1.4458786 -0.51769942 -0.026806895 7
1.4469453 -0.52064705 0.026841803 8
1.4374844 -0.51780963 0.08007402 9
1.4619766 -0.52778566 -0.19084741 4
1.4484282 -0.52346599 -0.13474278 5
1.44812 -0.52364045 -0.080702052 6
1.4365416 -0.52002078 -0.026667278 7
1.4338436 -0.52159303 0.026632372 8
1.4357593 -0.52257365 0.08007402 9
1.4601256 -0.53288567 -0.19084741 4
1.4410698 -0.52621615 -0.13421984 5
1.4537868 -0.53143507 -0.081120737 6
1.4385653 -0.52615541 -0.026737086 7
1.4302292 -0.52565509 0.026597466 8
1.4376752 -0.52896148 0.080283366 9
1.4676629 -0.54115844 -0.1920661 4
1.4392241 -0.53124326 -0.13421984 5
1.4370279 -0.53071755 -0.080283366 6
1.4442223 -0.53394747 -0.026876707 7
1.4340092 -0.5327335 0.026702182 8
1.4228085 -0.52885509 0.079550661 9
1.4505223 -0.54088575 -0.13544002 5
1.4351666 -0.53573048 -0.080283366 6
1.4461904 -0.54013312 -0.026946515 7
1.435979 -0.53889108 0.026771991 8
1.4430323 -0.54383779 -0.1349171 5
1.43712 -0.5418961 -0.080492713 6
1.433071 -0.54094082 -0.026737086 7
1.4339943 -0.54415059 0.026771991 8
1.4335822 -0.54628527 -0.13421984 5
1.4351242 -0.54715973 -0.080492713 6
1.4310788 -0.54618961 -0.026737086 7
1.4264848 -0.547005 0.026667278 8
1.4260886 -0.54913819 -0.1336969 5
1.4368361 -0.5538528 -0.080702052 6
1.425432 -0.54974264 -0.026667278 7
1.4207413 -0.55078399 0.026597466 8
1.4297335 -0.55628026 -0.13421984 5
1.4237276 -0.55451578 -0.08007402 6
1.4272308 -0.55616701 -0.026737086 7
1.4207691 -0.55622131 0.026632372 8
1.4333458 -0.56345427 -0.13474278 5
1.421881 -0.55923396 -0.08007402 6
1.4364448 -0.56554103 -0.026946515 7
1.4206785 -0.56191283 0.026667278 8
1.4296174 -0.56746918 -0.13456847 5
1.4236324 -0.56566882 -0.080283366 6
1.4196955 -0.56439149 -0.026667278 7
1.4280926 -0.57032913 0.026841803 8
1.4257787 -0.57171458 -0.13439415 5
1.4217488 -0.57038665 -0.080283366 6
1.4102942 -0.5663628 -0.026527658 7
1.4094027 -0.56857747 0.026527658 8
1.4127942 -0.57195359 -0.13334829 5
1.4234512 -0.5768463 -0.080492713 6
1.4157208 -0.57428902 -0.026667278 7
1.3962984 -0.56896615 0.026318228 8
