# .PCD v0.7 - Point Cloud Data file format
VERSION 0.7
FIELDS x y z intensity
SIZE 4 4 4 4
TYPE F F F F
COUNT 1 1 1 1
WIDTH 601
HEIGHT 1
VIEWPOINT 0 0 0 1 0 0 0
POINTS 601
DATA ascii
2.7179599 -0.11201549 -0.14256316 6
2.7056017 -0.12049478 -0.14193512 6
2.6991794 -0.12965089 -0.14162111 6
2.6987104 -0.139072 -0.14162111 6
2.6942201 -0.1482719 -0.14141177 6
2.6816957 -0.15744336 -0.14078373 6
2.698514 -0.16693923 -0.23654069 5
2.6651824 -0.16581114 -0.13994636 6
2.687974 -0.17570798 -0.23566914 5
2.664618 -0.1746483 -0.13994636 6
2.6797795 -0.1765815 -0.046877164 7
2.6794255 -0.18407442 -0.23497188 5
2.6679771 -0.18422365 -0.1401557 6
2.6612251 -0.1842241 -0.046563022 7
2.6648562 -0.19242182 -0.2337517 5
2.6673517 -0.19306996 -0.1401557 6
2.6565766 -0.19322222 -0.04649321 7
2.6601951 -0.20142189 -0.23340309 5
2.6506939 -0.20163307 -0.13931833 6
2.6578801 -0.2026463 -0.046528116 7
2.6674204 -0.21133588 -0.23410031 5
2.6460288 -0.21010579 -0.13910899 6
2.6611433 -0.21224076 -0.046597924 7
2.6627336 -0.21985231 -0.2337517 5
2.6452794 -0.21934089 -0.13910899 6
2.6444438 -0.22020106 -0.046318687 7
2.6500394 -0.22812039 -0.23270583 5
2.6405177 -0.22822931 -0.13889964 6
2.6356902 -0.22873899 -0.046179067 7
2.6372795 -0.23676285 -0.23165996 5
2.6396635 -0.23790577 -0.13889964 6
2.6348758 -0.23793787 -0.046179067 7
2.6363938 -0.24642737 -0.23165996 5
2.6268427 -0.24645959 -0.13827161 6
2.6300042 -0.24721926 -0.046109259 7
2.607672 -0.24971227 0.045725305 8
2.645668 -0.25614703 -0.32636613 4
2.6355176 -0.25562862 -0.23165996 5
2.6180151 -0.25485343 -0.13785292 6
2.6410217 -0.25802371 -0.046318687 7
2.6087744 -0.25901082 0.045760211 8
2.6467326 -0.26557878 -0.32660985 4
2.6266797 -0.26402962 -0.23096271 5
2.6210837 -0.26439136 -0.13806225 6
2.6162305 -0.26482436 -0.045899831 7
2.613822 -0.26872909 0.045864921 8
2.6379395 -0.27353519 -0.32563493 4
2.6138515 -0.27195972 -0.22991684 5
2.6161718 -0.27312428 -0.13785292 6
2.6073825 -0.27266672 -0.045760211 7
2.6009855 -0.27612874 0.045655496 8
2.6409655 -0.282704 -0.3261224 4
2.6089735 -0.28020054 -0.22956821 5
2.6112802 -0.28137037 -0.13764358 6
2.6064639 -0.28131163 -0.045760211 7
2.5861409 -0.28322852 0.045411162 8
2.6379895 -0.29170278 -0.32587865 4
2.6159005 -0.29018456 -0.23026547 5
2.6063123 -0.29004195 -0.13743424 6
2.609441 -0.29085121 -0.045830019 7
2.5850854 -0.2927053 0.045411162 8
2.6191523 -0.29934087 -0.32368499 4
2.6108603 -0.2993165 -0.22991684 5
2.5933266 -0.29822356 -0.1368062 6
2.6043844 -0.2999557 -0.045760211 7
2.5839953 -0.30217811 0.045411162 8
2.6101522 -0.30800804 -0.32271007 4
2.6058426 -0.30796063 -0.22956821 5
2.5922699 -0.3072741 -0.1368062 6
2.5913532 -0.30808276 -0.045550782 7
2.5829246 -0.31119609 0.045411162 8
2.6090612 -0.3171173 -0.32271007 4
2.5889292 -0.31512889 -0.22817372 5
2.6010942 -0.31753108 -0.13732956 6
2.5783527 -0.31566837 -0.04534135 7
2.5679312 -0.31848738 0.045166828 8
2.5667288 -0.31879318 0.13555014 9
2.6119347 -0.32625961 -0.32319754 4
2.579906 -0.32317346 -0.22747649 5
2.5920434 -0.3256129 -0.13691087 6
2.5772917 -0.32421678 -0.04534135 7
2.5589263 -0.32599041 0.045027211 8
2.5716014 -0.32806125 0.13586415 9
2.6098742 -0.33433259 -0.41674146 3
2.6108387 -0.3349193 -0.32319754 4
2.5827723 -0.33223537 -0.22782511 5
2.5770833 -0.33241808 -0.13617818 6
2.5762024 -0.33276156 -0.04534135 7
2.5637796 -0.33525214 0.045131925 8
2.5565782 -0.33521813 0.13513145 9
2.5950418 -0.34118298 -0.41455138 3
2.593909 -0.34195513 -0.32124761 4
2.5815966 -0.3412489 -0.22782511 5
2.5680468 -0.33991387 -0.13575949 6
2.5750251 -0.34175217 -0.04534135 7
2.5606117 -0.34393314 0.04509702 8
2.5494547 -0.34334055 0.13481744 9
2.583986 -0.34936866 -0.41298702 3
2.5907321 -0.35074118 -0.32100388 4
2.5803897 -0.35025829 -0.22782511 5
2.5628257 -0.34878525 -0.13555014 6
2.5619283 -0.34911856 -0.045131925 7
2.5613151 -0.35358945 0.045131925 8
2.5462618 -0.35196427 0.13471277 9
2.5847075 -0.35865778 -0.41329992 3
2.5874631 -0.35996079 -0.32076016 4
2.5673118 -0.35761416 -0.22677925 5
2.5655487 -0.35828152 -0.13575949 6
2.5488114 -0.35639769 -0.044922493 7
2.5502286 -0.360681 0.044957399 8
2.5469954 -0.36113065 0.13481744 9
2.561991 -0.36416912 -0.40985835 3
2.5862553 -0.36853915 -0.32076016 4
2.5660477 -0.36657357 -0.22677925 5
2.5683005 -0.36735278 -0.13596882 6
2.5475519 -0.36529252 -0.044922493 7
2.5410378 -0.36843297 0.044817779 8
2.5417664 -0.36944449 0.13460809 9
2.560704 -0.37310994 -0.40985835 3
2.5849533 -0.37756464 -0.32076016 4
2.5568669 -0.37437385 -0.226082 5
2.5511935 -0.37399805 -0.13513145 6
2.5541749 -0.37534589 -0.045062114 7
2.5278685 -0.37553751 0.044608355 8
2.5286083 -0.37654963 0.13398007 9
2.5593195 -0.38249281 -0.40985835 3
2.5738032 -0.3851167 -0.31954145 4
2.563426 -0.38447887 -0.22677925 5
2.5379553 -0.38156453 -0.13450342 6
2.5488942 -0.38366401 -0.044992302 7
2.5343826 -0.38600448 0.044747971 8
2.5272112 -0.38581482 0.13398007 9
2.5111349 -0.38380909 0.22224714 10
2.5521107 -0.39052778 -0.40891972 3
2.5606017 -0.39274189 -0.31807902 4
2.5541224 -0.39266068 -0.226082 5
2.5464783 -0.3919405 -0.13502678 6
2.5395658 -0.39178404 -0.044852685 7
2.5448749 -0.39669672 0.044957399 8
2.5258491 -0.39463413 0.13398007 9
2.4998691 -0.39146906 0.22137558 10
2.5545654 -0.40049103 -0.40954545 3
2.5592151 -0.40167767 -0.31807902 4
2.5409269 -0.39971614 -0.22503611 5
2.5391059 -0.40033796 -0.13471277 6
2.5342324 -0.40002289 -0.044782877 7
2.5237269 -0.40242866 0.044608355 8
2.5186098 -0.40206343 0.13366605 9
2.572592 -0.41114148 -0.50640708 2
2.502492 -0.4003863 0.22172421 10
2.5473719 -0.40802282 -0.40860689 3
2.5617173 -0.41123784 -0.31856647 4
2.5336864 -0.4071916 -0.2245132 5
2.541708 -0.4093909 -0.1349221 6
2.532892 -0.4084245 -0.044782877 7
2.5065892 -0.40822399 0.044329114 8
2.5152194 -0.41053078 0.13356137 9
2.5478907 -0.41631991 -0.50182766 2
2.4991126 -0.40879753 0.22154988 10
2.5460048 -0.41646802 -0.40860689 3
2.5642574 -0.42037278 -0.31905395 4
2.5283175 -0.4153873 -0.22416456 5
2.5245702 -0.41522413 -0.13408473 6
2.5314507 -0.41726345 -0.044782877 7
2.5051491 -0.41697109 0.044329114 8
2.503921 -0.41766503 0.13303801 9
2.5600514 -0.42702782 -0.50449902 2
2.4977434 -0.41708264 0.22154988 10
2.5484321 -0.42600405 -0.40923262 3
2.5431962 -0.42604142 -0.31661656 4
2.5308561 -0.42442825 -0.2245132 5
2.5112875 -0.42204794 -0.13345671 6
2.529979 -0.4260973 -0.044782877 7
2.5115635 -0.42705396 0.044468731 8
2.4906349 -0.42438993 0.13240999 9
2.5488687 -0.43431267 -0.50259089 2
2.5002005 -0.42646888 0.22189851 10
2.5430353 -0.43423218 -0.40860689 3
2.5260403 -0.43223774 -0.31466666 4
2.5273952 -0.43292361 -0.22433887 5
2.517673 -0.43216294 -0.13387538 6
2.5127101 -0.43221408 -0.044503637 7
2.513998 -0.43650252 0.044538539 8
2.4930735 -0.43376598 0.13261932 9
2.5299294 -0.44017845 -0.49915636 2
2.4810309 -0.43211684 0.22032972 10
2.5376117 -0.44242778 -0.40798113 3
2.5284271 -0.44173595 -0.31515417 4
2.5159786 -0.4404662 -0.22346732 5
2.516149 -0.44094864 -0.13387538 6
2.5072467 -0.44029069 -0.044433825 7
2.4947381 -0.44213471 0.0442244 8
2.4954772 -0.4431642 0.13282867 9
2.5282991 -0.4494482 -0.49915636 2
2.477469 -0.44085833 0.22015539 10
2.5243049 -0.44964713 -0.40610394 3
2.5307784 -0.45125604 -0.31564164 4
2.5124645 -0.44889548 -0.22329301 5
2.5105841 -0.44946384 -0.13366605 6
2.5017579 -0.4483344 -0.044364017 7
2.4832623 -0.44949457 0.044049874 8
2.4899058 -0.4515948 0.13261932 9
2.5286465 -0.45862117 -0.49953794 2
2.4739547 -0.44914776 0.21998109 10
2.5149455 -0.45704308 -0.40485242 3
2.5212953 -0.45910627 -0.31466666 4
2.5108023 -0.45810112 -0.22329301 5
2.5011406 -0.45678934 -0.13324735 6
2.507966 -0.45894063 -0.044503637 7
2.4875774 -0.45924917 0.044154592 8
2.4804583 -0.45883024 0.13220063 9
2.5288789 -0.46824351 -0.49991959 2
2.4722919 -0.45821223 0.21998109 10
2.5132535 -0.46625775 -0.40485242 3
2.4533985 -0.45515347 0.30637956 11
2.5196774 -0.46790436 -0.31466666 4
2.5072291 -0.4664982 -0.22311871 5
2.4994495 -0.46595341 -0.13324735 6
2.5063488 -0.46769226 -0.044503637 7
2.4858775 -0.46836352 0.044154592 8
2.4729536 -0.46637544 0.13188663 9
2.5175831 -0.47524717 -0.4980115 2
2.4745927 -0.46757919 0.22032972 10
2.5154924 -0.47576198 -0.40547815 3
2.4517138 -0.4641425 0.30637956 11
2.5062435 -0.47491881 -0.31320426 4
2.5016706 -0.47450465 -0.22277008 5
2.4899595 -0.47318381 -0.13282867 6
2.4850564 -0.47270143 -0.044154592 7
2.4882383 -0.47735789 0.0442244 8
2.4713106 -0.47500485 0.13188663 9
2.5062695 -0.48217776 -0.49610341 2
2.4592505 -0.47357693 0.21910954 10
2.5139008 -0.48410094 -0.40547815 3
2.4540594 -0.47302157 0.30686703 11
2.5124512 -0.48473144 -0.31417918 4
2.4941306 -0.48209986 -0.22224714 5
2.4922984 -0.48219696 -0.13303801 6
2.4794648 -0.48061195 -0.044084776 7
2.4747815 -0.48373887 0.044014968 8
2.4775622 -0.48473135 0.13230531 9
2.5046568 -0.49048626 -0.49610341 2
2.4498456 -0.4801966 0.21841228 10
2.5005655 -0.49059138 -0.40360096 3
2.4543412 -0.48196745 0.30711079 11
2.5068483 -0.49273285 -0.31369171 4
2.4846983 -0.48882958 -0.22154988 5
2.494519 -0.49166623 -0.13324735 6
2.4778574 -0.48883152 -0.044084776 7
2.459435 -0.48921204 0.043770637 8
2.4738965 -0.49298632 0.13220063 9
2.5029294 -0.49922609 -0.49610341 2
2.4481544 -0.48874521 0.21841228 10
2.4873018 -0.49656051 -0.40172374 3
2.4410501 -0.4877699 0.30564833 11
2.5013075 -0.50026453 -0.31320426 4
2.4868839 -0.49828273 -0.22189851 5
2.4772091 -0.49679393 -0.13240999 6
2.4722147 -0.49669006 -0.044014968 7
2.4635921 -0.49898499 0.043875352 8
2.4643312 -0.50003022 0.13178195 9
2.5089562 -0.50908494 -0.49762988 2
2.4504256 -0.49765399 0.21876092 10
2.4971681 -0.50760072 -0.40360096 3
2.4315512 -0.49470469 0.30467337 11
2.491765 -0.5074082 -0.31222928 4
2.4891226 -0.50732261 -0.22224714 5
2.4676321 -0.50383967 -0.1319913 6
2.4861391 -0.50852251 -0.044294208 7
2.4618351 -0.50758147 0.043875352 8
2.4469228 -0.50539732 0.13094458 9
2.487937 -0.51386857 -0.49381369 2
2.4486735 -0.50620455 0.21876092 10
2.4915125 -0.5155139 -0.40297523 3
2.4336977 -0.50399452 0.30516088 11
2.4744284 -0.51287991 -0.31027937 4
2.479533 -0.51438928 -0.22154988 5
2.4697692 -0.51326305 -0.13220063 6
2.4647717 -0.51312202 -0.04394516 7
2.4620054 -0.51658237 0.043910254 8
2.4431891 -0.51352471 0.1308399 9
2.4784434 -0.5209347 -0.49228725 2
2.4371428 -0.51269811 0.21788934 10
2.4896977 -0.52420777 -0.40297523 3
2.4358084 -0.51330531 0.30564833 11
2.4803927 -0.52315289 -0.31125432 4
2.4660258 -0.5205723 -0.22050403 5
2.4718707 -0.52270746 -0.13240999 6
2.4512277 -0.51923621 -0.043735731 7
2.4464979 -0.52225101 0.043665919 8
2.4472411 -0.52330291 0.13115391 9
2.4842889 -0.53122497 -0.49381369 2
2.425597 -0.51911741 0.21701778 10
2.476263 -0.53041279 -0.40109801 3
2.4242966 -0.51972413 0.30442965 11
2.4785516 -0.5318079 -0.31125432 4
2.4161134 -0.51885206 0.39139909 12
2.4641938 -0.52917713 -0.22050403 5
2.4661257 -0.5304926 -0.13220063 6
2.4533103 -0.52863193 -0.043805543 7
2.4368434 -0.52909052 0.043526303 8
2.4512544 -0.53311551 0.13146794 9
2.4824195 -0.53989351 -0.49381369 2
2.427664 -0.52842873 0.21736643 10
2.4705365 -0.53821242 -0.40047228 3
2.4224677 -0.52818334 0.30442965 11
2.47668 -0.54045635 -0.31125432 4
2.4239368 -0.5293901 0.39296341 12
2.4602911 -0.53777981 -0.22032972 5
2.4564545 -0.53739047 -0.13178195 6
2.4553566 -0.53804839 -0.043875352 7
2.4349818 -0.53759348 0.043526303 8
2.4337773 -0.53821862 0.13063055 9
2.4900086 -0.55110973 -0.49572179 2
2.4257109 -0.537323 0.21736643 10
2.4646902 -0.54640865 -0.39984655 3
2.4051049 -0.53319889 0.30247974 11
2.4631507 -0.54651839 -0.30979189 4
2.406647 -0.53442228 0.39046046 12
2.4603438 -0.54679686 -0.22050403 5
2.4466705 -0.54465431 -0.13136327 6
2.4495599 -0.54574621 -0.043805543 7
2.4310439 -0.5460763 0.043491397 8
2.4240894 -0.54495859 0.13021187 9
2.4277079 -0.54666239 0.21771504 10
2.4666221 -0.55587727 -0.40047228 3
2.4108801 -0.54375744 0.30345467 11
2.4572582 -0.55466843 -0.30930442 4
2.400913 -0.54194981 0.38983473 12
2.462307 -0.55625975 -0.22085266 5
2.4486504 -0.55407304 -0.1315726 6
2.4398386 -0.55252671 -0.043665919 7
2.4467661 -0.55813754 0.043805543 8
2.4241195 -0.55386174 0.13031654 9
2.4141316 -0.55246651 0.21666917 10
2.4647651 -0.56405383 -0.40047228 3
2.4051938 -0.55086285 0.30296722 11
2.4554055 -0.562814 -0.30930442 4
2.3874545 -0.54767722 0.38795751 12
2.4428735 -0.56083906 -0.21928383 5
2.4370666 -0.55995369 -0.13104925 6
2.4339974 -0.56014305 -0.043596111 7
2.4292185 -0.56306261 0.043526303 8
2.4202259 -0.56186849 0.13021187 9
2.4045238 -0.55866545 0.21597193 10
2.4589331 -0.57175922 -0.39984655 3
2.41099 -0.56105494 0.30394217 11
2.4534259 -0.57138151 -0.30930442 4
2.3912997 -0.5573529 0.38889611 12
2.4331398 -0.56755251 -0.21858659 5
2.4448223 -0.57072747 -0.1315726 6
2.4320273 -0.56863582 -0.043596111 7
2.4194524 -0.56970543 0.043386683 8
2.4299133 -0.57306385 0.1308399 9
2.4024601 -0.56747478 0.21597193 10
2.4452865 -0.5780412 -0.39796934 3
2.4012895 -0.56764072 0.30296722 11
2.4552801 -0.58085608 -0.30979189 4
2.3835728 -0.56433129 0.38795751 12
2.4292049 -0.57558292 -0.21841228 5
2.4310541 -0.57691729 -0.13094458 6
2.4339187 -0.5780459 -0.043665919 7
2.4115136 -0.57717294 0.043281965 8
2.4103165 -0.57777601 0.12989786 9
2.4043391 -0.57678699 0.21632054 10
2.4394124 -0.5856511 -0.39734361 3
2.3818214 -0.57226437 0.30077356 11
2.4415541 -0.58706671 -0.30832946 4
2.3930118 -0.57583666 0.38983473 12
2.4290161 -0.58494896 -0.21858659 5
2.4251423 -0.58446389 -0.13073523 6
2.4356716 -0.58790118 -0.043735731 7
2.4153137 -0.58700389 0.043386683 8
2.4005227 -0.5842967 0.12947917 9
2.402209 -0.58559543 0.21632054 10
2.4410875 -0.59552437 -0.39796934 3
2.3855948 -0.58198649 0.30150479 11
2.4317763 -0.59370244 -0.30735451 4
2.369879 -0.5790289 0.38639316 12
2.4366362 -0.59579033 -0.21945816 5
2.4229839 -0.59334856 -0.13073523 6
2.4141824 -0.59163988 -0.043386683 7
2.417237 -0.59596753 0.043456491 8
2.4005108 -0.59273267 0.12958384 9
2.3868179 -0.58979362 0.21510038 10
2.4430397 -0.60413867 -0.39859506 3
2.3894327 -0.59132475 0.30223599 11
2.4297938 -0.60176325 -0.30735451 4
2.4231493 -0.60056651 -0.21841228 5
2.4288614 -0.60288221 -0.13115391 6
2.4044447 -0.5977127 -0.043247063 7
2.4015627 -0.60100335 0.043212157 8
2.4042392 -0.60256499 0.12989786 9
2.382812 -0.59763688 0.21492605 10
2.4294202 -0.60977739 -0.39671785 3
2.3835034 -0.59869468 0.30174851 11
2.4353795 -0.61217695 -0.30832946 4
2.4171739 -0.60804915 -0.21806367 5
2.4267421 -0.61135685 -0.13115391 6
2.4062214 -0.60708058 -0.043316875 7
2.3878214 -0.6064294 0.043002732 8
2.3964205 -0.6090585 0.12958384 9
2.3807113 -0.60595077 0.21492605 10
2.4234486 -0.61727887 -0.39609212 3
2.3717813 -0.60455942 0.30052981 11
2.4293807 -0.61969292 -0.30784199 4
2.4150367 -0.61648297 -0.21806367 5
2.4091129 -0.61586672 -0.13031654 6
2.4080696 -0.61604762 -0.043386683 7
2.3877337 -0.61484301 0.043037634 8
2.386544 -0.61542505 0.12916516 9
2.3824401 -0.61525369 0.21527468 10
2.4290388 -0.62728763 -0.39734361 3
2.3697634 -0.61242127 0.30052981 11
2.4196248 -0.62575758 -0.30686703 4
2.4128699 -0.62490928 -0.21806367 5
2.3993239 -0.62184787 -0.12989786 6
2.4059045 -0.62444967 -0.043386683 7
2.3933122 -0.62519568 0.043177254 8
2.3805168 -0.62274092 0.12895581 9
2.3784592 -0.62264615 0.21510038 10
2.363771 -0.61968279 0.30004236 11
2.4135857 -0.63319236 -0.30637956 4
2.4183819 -0.63535297 -0.21876092 5
2.4048653 -0.63225055 -0.13031654 6
2.3882396 -0.62877107 -0.043107443 7
2.387249 -0.63252163 0.043107443 8
2.3763981 -0.63053447 0.12885113 9
2.3646076 -0.62828976 0.2140545 10
2.3673487 -0.62946033 0.30077356 11
2.4036872 -0.63957173 -0.3054046 4
2.3968971 -0.63866097 -0.21701778 5
2.3986723 -0.6400308 -0.13010719 6
2.3821664 -0.63607204 -0.043037634 7
2.3791218 -0.63970941 0.043002732 8
2.3838258 -0.64142054 0.1293745 9
2.3624001 -0.63653988 0.2140545 10
2.3631091 -0.6376158 0.30052981 11
2.40516 -0.64941227 -0.30589208 4
2.3831129 -0.64390576 -0.21597193 5
2.3964236 -0.64839983 -0.13010719 6
2.3837919 -0.6454286 -0.043107443 7
2.3692696 -0.64549279 0.042863112 8
2.3815725 -0.64973772 0.1293745 9
2.3563201 -0.64373219 0.21370588 10
2.3475778 -0.64178419 0.29882365 11
2.4068227 -0.65843219 -0.30637956 4
2.3846939 -0.65327317 -0.21632054 5
2.3904078 -0.65528703 -0.12989786 6
2.3853815 -0.65480447 -0.043177254 7
2.3689296 -0.65429157 0.042898018 8
2.3600399 -0.65272301 0.12832777 9
2.3541725 -0.65154248 0.21370588 10
2.3357584 -0.64732409 0.29760498 11
2.396858 -0.66470754 -0.3054046 4
2.3823988 -0.66159332 -0.21632054 5
2.37656 -0.66041857 -0.12926982 6
2.3830812 -0.66312701 -0.043177254 7
2.3704824 -0.66363484 0.042967826 8
2.3577471 -0.66095716 0.12832777 9
2.3594413 -0.66232038 0.21440312 10
2.3449516 -0.65869451 0.29906741 11
2.386879 -0.67092139 -0.30442965 4
2.3896642 -0.67260444 -0.2171921 5
2.3741233 -0.66912478 -0.12926982 6
2.3730533 -0.66927022 -0.043037634 7
2.3680341 -0.67231858 0.042967826 8
2.3573472 -0.66972899 0.12843245 9
2.351366 -0.668917 0.2138802 10
2.3463397 -0.66837239 0.29955488 11
2.388222 -0.68075359 -0.30491713 4
2.3815539 -0.67930233 -0.21666917 5
2.383296 -0.68069893 -0.12989786 6
2.3591666 -0.67425263 -0.04282821 7
2.3542607 -0.67685241 0.042758394 8
2.354995 -0.67795366 0.12843245 9
2.3317866 -0.67215401 0.21231139 10
2.3821368 -0.68756855 -0.30442965 4
2.3753402 -0.68650502 -0.21632054 5
2.3810256 -0.68859845 -0.12989786 6
2.36064 -0.68359596 -0.042898018 7
2.342284 -0.68226999 0.042583872 8
2.3622007 -0.6889661 0.12895581 9
2.33337 -0.68099916 0.21266 10
2.3730507 -0.6943782 -0.21632054 5
2.3632739 -0.69241315 -0.12906048 6
2.362077 -0.69295782 -0.042967826 7
2.3456421 -0.69213986 0.042688586 8
2.3406272 -0.69154823 0.12790908 9
2.3386216 -0.69139951 0.21335725 10
2.3706124 -0.70265746 -0.21632054 5
2.353184 -0.69838518 -0.1286418 6
2.3596437 -0.7011987 -0.042967826 7
2.3432119 -0.7003234 0.042688586 8
2.330667 -0.69701731 0.1274904 9
2.3361938 -0.69955868 0.21335725 10
2.368145 -0.71092814 -0.21632054 5
2.3507316 -0.70659518 -0.1286418 6
2.3458157 -0.7055639 -0.042758394 7
2.3427906 -0.70866883 0.042723492 8
2.3320427 -0.7063064 0.12769975 9
2.3222978 -0.70423996 0.21231139 10
2.3580244 -0.7168721 -0.21562332 5
2.3560188 -0.7167117 -0.12906048 6
2.3318613 -0.71025229 -0.042548969 7
2.3269184 -0.71274275 0.042479157 8
2.3333821 -0.71561366 0.12790908 9
2.312331 -0.70959908 0.21161415 10
2.3518252 -0.72351593 -0.21527468 5
2.3535025 -0.7249313 -0.12906048 6
2.3408329 -0.72192347 -0.042758394 7
2.3244164 -0.7208609 0.042479157 8
2.3289628 -0.72316211 0.12780441 9
2.3136449 -0.71884865 0.21196276 10
2.35309 -0.73290598 -0.21562332 5
2.3357041 -0.72838539 -0.12822311 6
2.3344812 -0.72889817 -0.042688586 7
2.325702 -0.73016834 0.042548969 8
2.3188028 -0.72889161 0.12738572 9
2.3187239 -0.72931147 0.21266 10
2.3505175 -0.74111527 -0.21562332 5
2.3255291 -0.73412907 -0.12780441 6
2.3357358 -0.73824787 -0.042758394 7
2.328856 -0.74009895 0.04265368 8
2.3124378 -0.73577017 0.12717639 9
2.3085701 -0.73498333 0.21196276 10
2.3517122 -0.75052708 -0.21597193 5
2.3305621 -0.74467373 -0.12822311 6
2.3217173 -0.74274081 -0.042548969 7
2.3224511 -0.74699908 0.042583872 8
2.3136578 -0.74506205 0.12738572 9
2.2984049 -0.74059296 0.2112655 10
2.3339105 -0.75383252 -0.21457744 5
2.3279486 -0.7528044 -0.12822311 6
2.3115005 -0.74837679 -0.042409346 7
2.306519 -0.75076884 0.042339537 8
2.3110428 -0.75313359 0.12738572 9
2.2958059 -0.74861145 0.2112655 10
2.3426278 -0.76568878 -0.21562332 5
2.3253067 -0.76092583 -0.12822311 6
2.3164754 -0.75893122 -0.042548969 7
2.307683 -0.76006675 0.042409346 8
2.31409 -0.76307249 0.12769975 9
2.3150523 -0.76652694 -0.12780441 6
2.3100157 -0.76575416 -0.042479157 7
2.3012214 -0.76685303 0.042339537 8
2.3000448 -0.767353 0.12707172 9
2.3047872 -0.77206564 -0.12738572 6
2.3149126 -0.77635622 -0.042618778 7
2.298666 -0.77447981 0.042339537 8
2.2900522 -0.77202272 0.12665303 9
2.3059976 -0.78098571 -0.12759508 6
2.2973106 -0.7784906 -0.042339537 7
2.3055494 -0.78532213 0.042514063 8
2.2873435 -0.78001195 0.12665303 9
2.3071742 -0.78992236 -0.12780441 6
2.2945793 -0.78650498 -0.042339537 7
2.2933409 -0.79010838 0.042339537 8
2.2902713 -0.78994519 0.12696704 9
2.3081775 -0.79927814 -0.12801376 6
2.2918198 -0.79450977 -0.042339537 7
2.2773504 -0.79350305 0.042095207 8
2.2893856 -0.79859281 0.12707172 9
2.2901533 -0.80244905 -0.12717639 6
2.2890325 -0.80250484 -0.042339537 7
2.2744269 -0.80184466 0.042095207 8
2.2770264 -0.80365479 0.12654836 9
2.2835732 -0.80910426 -0.12696704 6
2.2898452 -0.81222624 -0.042409346 7
2.2829156 -0.81380767 0.042304631 8
2.264802 -0.80824172 0.12602501 9
2.2844954 -0.81841761 -0.12717639 6
2.268173 -0.81346363 -0.042060301 7
2.2838235 -0.82312775 0.042374443 8
2.2677455 -0.8177802 0.126339 9
2.2853804 -0.82774729 -0.12738572 6
2.269223 -0.82234335 -0.042130109 7
2.2679284 -0.82590675 0.042130109 8
2.2742593 -0.82911146 0.12686236 9
2.2882497 -0.83738047 -0.12769975 6
2.2663386 -0.83025926 -0.042130109 7
2.2575254 -0.83105493 0.041990492 8
2.2788477 -0.83980763 0.12728105 9
2.2671776 -0.83955419 -0.042199921 7
2.256485 -0.83962762 0.042025398 8
2.2679787 -0.84886491 -0.042269729 7
2.2554121 -0.84820294 0.042060301 8
2.257669 -0.85355234 -0.042130109 7
2.2581949 -0.85780782 0.042165015 8
2.2434683 -0.85714579 -0.041920681 7
2.2458525 -0.86210203 0.041990492 8
2.2479243 -0.86785251 -0.042060301 7
2.2335079 -0.86632055 0.041815966 8
2.2523334 -0.8786009 -0.042199921 7
2.2304702 -0.87411171 0.041815966 8
2.2456861 -0.88459921 -0.042130109 7
2.2405751 -0.88665408 0.042060301 8
2.2425845 -0.89243275 -0.042130109 7
2.2374666 -0.89446974 0.042060301 8
2.2215075 -0.89664543 0.041815966 8
2.2239192 -0.90665925 0.041920681 8
