# .PCD v0.7 - Point Cloud Data file format
VERSION 0.7
FIELDS x y z intensity
SIZE 4 4 4 4
TYPE F F F F
COUNT 1 1 1 1
WIDTH 1333
HEIGHT 1
VIEWPOINT 0 0 0 1 0 0 0
POINTS 1333
DATA ascii
1.4905034 0.92307174 -0.34078491 2
1.4849135 0.91889191 -0.27657616 3
1.4976035 0.92602301 -0.21619622 4
1.4780086 0.91319382 -0.15199961 5
1.4732844 0.90991962 -0.09075056 6
1.4805051 0.91366452 -0.030367188 7
1.5005684 0.92171228 -0.34231135 2
1.4882711 0.91344357 -0.27657616 3
1.488983 0.91352272 -0.21449007 4
1.487982 0.91219383 -0.15269686 5
1.4766092 0.90451396 -0.09075056 6
1.4905066 0.91266823 -0.030506806 7
1.4953941 0.91136044 -0.34040326 2
1.4948251 0.91029739 -0.27720189 3
1.483842 0.9029001 -0.21327138 4
1.4928596 0.90802932 -0.15287116 5
1.4865849 0.903503 -0.091169246 6
1.480168 0.89889562 -0.030227568 7
1.486711 0.89967483 0.030332282 8
1.4935266 0.90308714 -0.33925843 2
1.497993 0.90507489 -0.27720189 3
1.495482 0.90284449 -0.21449007 4
1.4857845 0.89663714 -0.15182531 5
1.4897299 0.89830798 -0.091169246 6
1.4798713 0.8916589 -0.030157758 7
1.4692689 0.88212818 0.029913425 8
1.4971457 0.89850956 -0.40311229 1
1.4966692 0.89786929 -0.33925843 2
1.494366 0.89577752 -0.27595043 3
1.4986242 0.89761913 -0.21449007 4
1.4837772 0.88837451 -0.15130237 5
1.4928563 0.89310265 -0.091169246 6
1.4864079 0.88853949 -0.030227568 7
1.4671854 0.87392378 0.029808709 8
1.4985985 0.89228147 -0.4026624 1
1.5048555 0.89565134 -0.34040326 2
1.4906925 0.88651729 -0.27469894 3
1.5051615 0.89441013 -0.21497753 4
1.486869 0.88318998 -0.15130237 5
1.4856598 0.88176948 -0.090541214 6
1.4894997 0.88334662 -0.030227568 7
1.4839996 0.8769359 0.03008795 8
1.4983485 0.88506228 -0.4017626 1
1.5096637 0.89139074 -0.34078491 2
1.4971808 0.88331562 -0.2753247 3
1.4911736 0.87906992 -0.21254015 4
1.5002421 0.88406318 -0.15234824 5
1.4852864 0.87455171 -0.090331867 6
1.4960214 0.88016951 -0.030297378 7
1.4853262 0.87073946 0.030053046 8
1.5064729 0.88278204 -0.40311229 1
1.5042957 0.88115454 -0.33887681 2
1.5036649 0.88007921 -0.27595043 3
1.4908057 0.8718555 -0.21205269 4
1.4998791 0.87680954 -0.15199961 5
1.4883299 0.86936206 -0.090331867 6
1.4887222 0.86889446 -0.03008795 7
1.4952714 0.86957014 0.030192664 8
1.5061755 0.87555969 -0.4022125 1
1.5039675 0.87392509 -0.33811355 2
1.5169775 0.8807767 -0.27782765 3
1.4972744 0.86863816 -0.21254015 4
1.4960363 0.86757094 -0.15130237 5
1.4982681 0.86816651 -0.09075056 6
1.484674 0.85994333 -0.02994833 7
1.4912187 0.86060899 0.030053046 8
1.5124465 0.87250805 -0.40311229 1
1.5070088 0.86867023 -0.33811355 2
1.4993507 0.86390734 -0.27407321 3
1.5070283 0.86762965 -0.2135151 4
1.4990554 0.86234385 -0.15130237 5
1.501139 0.86319292 -0.09075056 6
1.4946026 0.85874015 -0.03008795 7
1.4872723 0.85142404 0.029913425 8
1.5087175 0.8633514 -0.40131268 1
1.5166975 0.86756748 -0.33964002 2
1.5023574 0.85866791 -0.27407321 3
1.5083238 0.86137974 -0.21327138 4
1.4984465 0.85539216 -0.15095374 5
1.4937335 0.85201067 -0.090122528 6
1.4975908 0.85351813 -0.03008795 7
1.4954517 0.84918988 0.030018138 8
1.5066377 0.85519409 -0.39996299 1
1.523132 0.86420512 -0.34040326 2
1.5053453 0.85341883 -0.27407321 3
1.5061395 0.85317451 -0.21254015 4
1.5048904 0.8521201 -0.15130237 5
1.493222 0.84482396 -0.089913182 6
1.5040423 0.85025376 -0.030157758 7
1.4984066 0.84396493 0.030018138 8
1.5079157 0.84897333 -0.3995131 1
1.5124522 0.85117984 -0.33735034 2
1.5083154 0.84815866 -0.27407321 3
1.5039163 0.84499508 -0.21180893 4
1.5113302 0.84881276 -0.151651 5
1.4926779 0.83765268 -0.089703836 6
1.4965361 0.8391301 -0.02994833 7
1.5447021 0.86330497 -0.47415653 0
1.4995979 0.83775371 0.029983234 8
1.5193771 0.84845549 -0.4017626 1
1.492831 0.8332898 0.08959917 9
1.508557 0.84206796 -0.33582386 2
1.5198929 0.84769905 -0.27563757 3
1.5120591 0.84263885 -0.21254015 4
1.4986193 0.83480549 -0.15008219 5
1.4990833 0.83437943 -0.089913182 6
1.4994559 0.83390141 -0.02994833 7
1.5223618 0.84385854 -0.46639192 0
1.4920182 0.82669938 0.029773805 8
1.5240339 0.84409118 -0.4022125 1
1.4957309 0.82807338 0.08959917 9
1.5149226 0.83869839 -0.33658707 2
1.5107423 0.83569622 -0.27344745 3
1.5184661 0.83927584 -0.21302763 4
1.5050113 0.83149719 -0.15043081 5
1.5124781 0.83493263 -0.090541214 6
1.5023578 0.82866186 -0.02994833 7
1.5269905 0.83947116 -0.46690959 0
1.4948951 0.82148582 0.029773805 8
1.5150151 0.83219814 -0.39906317 1
1.5021131 0.82477081 0.089808509 9
1.5212822 0.83529603 -0.33735034 2
1.506723 0.82661676 -0.27219599 3
1.5161642 0.83110797 -0.21229641 4
1.502663 0.82336611 -0.14990787 5
1.5013682 0.82197529 -0.089703836 6
1.5052415 0.82341224 -0.02994833 7
1.5366962 0.83783442 -0.4689801 0
1.4942418 0.8143484 0.029703995 8
1.5179106 0.82690507 -0.39906317 1
1.5118556 0.82360655 0.090227202 9
1.5241889 0.82998025 -0.33735034 2
1.5130695 0.82324076 -0.27282172 3
1.5138241 0.82296574 -0.2115652 4
1.5107796 0.82097 -0.15043081 5
1.5007179 0.81482303 -0.089494489 6
1.5149934 0.82223266 -0.03008795 7
1.5362129 0.83062714 -0.46794486 0
1.5092472 0.81604683 0.02994833 8
1.5206443 0.82186723 -0.39906317 1
1.502421 0.81167835 0.089494489 9
1.5167122 0.81905723 -0.3350606 2
1.5244824 0.82291061 -0.27438608 3
1.5130504 0.81605685 -0.21107772 4
1.5171443 0.81758142 -0.15077944 5
1.5034115 0.80984235 -0.089494489 6
1.5002459 0.80746168 -0.029738901 7
1.5253397 0.81822312 -0.46380374 0
1.5120864 0.81077397 0.02994833 8
1.523504 0.81655377 -0.39906317 1
1.5017244 0.80454224 0.08928515 9
1.515959 0.81216842 -0.33429739 2
1.5290874 0.81851602 -0.27469894 3
1.5193905 0.81264311 -0.2115652 4
1.5093046 0.80691004 -0.14973356 5
1.5097524 0.80647194 -0.089703836 6
1.5030555 0.80221951 -0.029738901 7
1.5247753 0.81107956 -0.46276847 0
1.5043137 0.79985762 0.029738901 8
1.5297866 0.81306034 -0.39996299 1
1.5009954 0.79742223 0.089075804 9
1.5257194 0.81055713 -0.33582386 2
1.5197215 0.80669069 -0.27250886 3
1.5257256 0.80919433 -0.21205269 4
1.5121123 0.80163622 -0.14973356 5
1.5231482 0.80680591 -0.090331867 6
1.5164511 0.80258071 -0.02994833 7
1.5275973 0.80575168 -0.46276847 0
1.498252 0.78993893 0.029564377 8
1.5222716 0.80226356 -0.39726356 1
1.5089324 0.79523355 0.089389823 9
1.5250657 0.80339599 -0.3350606 2
1.5207803 0.80046046 -0.27219599 3
1.5285407 0.80386394 -0.21205269 4
1.511374 0.79449922 -0.14938495 5
1.5047367 0.79033983 -0.089075804 6
1.519104 0.79754788 -0.02994833 7
1.5355359 0.80310076 -0.46432137 0
1.504407 0.78681999 0.029634187 8
1.5180156 0.79360008 -0.39546397 1
1.5028486 0.78533608 0.088866465 9
1.5313408 0.79988587 -0.33582386 2
1.5321819 0.79998392 -0.27376035 3
1.5241578 0.79511839 -0.21107772 4
1.5176719 0.79106015 -0.14973356 5
1.507349 0.78534591 -0.089075804 6
1.5254264 0.79408664 -0.030018138 7
1.5467652 0.80245215 -0.46690959 0
1.5160205 0.78616625 0.029808709 8
1.524237 0.79008961 -0.39636377 1
1.5001249 0.77759105 0.088552445 9
1.5304989 0.79299659 -0.3350606 2
1.5332105 0.79372287 -0.27344745 3
1.5198716 0.78614485 -0.21010277 4
1.527366 0.78968346 -0.15043081 5
1.5100814 0.78007913 -0.089075804 6
1.520944 0.78535426 -0.029878521 7
1.5392494 0.79174566 -0.46380374 0
1.5239542 0.78387821 0.029913425 8
1.5320479 0.78770423 -0.39771348 1
1.5046064 0.77326316 0.088657118 9
1.5297652 0.7858547 -0.33429739 2
1.5118418 0.77631378 0.14868769 10
1.5358344 0.78863382 -0.27344745 3
1.5295351 0.78472459 -0.21107772 4
1.5230211 0.78071207 -0.14973356 5
1.5197703 0.77870989 -0.089494489 6
1.5094359 0.77275056 -0.029599281 7
1.5316775 0.78110313 -0.46069792 0
1.5143456 0.77193063 0.029669091 8
1.5401338 0.78473741 -0.39906317 1
1.5126352 0.7707262 0.088971131 9
1.5289997 0.77872908 -0.33353412 2
1.49146 0.75928122 0.14642164 10
1.5316724 0.77941626 -0.27219599 3
1.5341704 0.78001332 -0.21132146 4
1.5115275 0.76816916 -0.14833906 5
1.5261756 0.77494329 -0.089703836 6
1.5192571 0.77109671 -0.029738901 7
1.5378428 0.77749461 -0.46173319 0
1.5061896 0.7614916 0.029459663 8
1.5340315 0.77523065 -0.39681366 1
1.5188817 0.76724279 0.089180477 9
1.5352138 0.7751565 -0.33429739 2
1.4905441 0.75227463 0.14607303 10
1.5271947 0.7707721 -0.27094454 3
1.5385208 0.77581561 -0.2115652 4
1.5230963 0.76737094 -0.14921063 5
1.518034 0.76448828 -0.089075804 6
1.5255117 0.76758677 -0.029808709 7
1.5473206 0.77585387 -0.46380374 0
1.5159895 0.75981289 0.029599281 8
1.5280161 0.76550788 -0.39456415 1
1.5090498 0.75567579 0.088447772 9
1.5483088 0.77533531 -0.33658707 2
1.5072837 0.75446236 0.14746751 10
1.5334086 0.76720536 -0.27157027 3
1.5341173 0.76688957 -0.21059024 4
1.5346781 0.76650047 -0.15008219 5
1.5135458 0.75561589 -0.088657118 6
1.5317611 0.76404184 -0.029878521 7
1.555344 0.77275658 -0.46535668 0
1.5257959 0.75807589 0.029738901 8
1.5376605 0.76363617 -0.39636377 1
1.5116786 0.75040323 0.088447772 9
1.5370708 0.76267457 -0.33353412 2
1.5136085 0.75070375 0.14781614 10
1.5362108 0.76157886 -0.27157027 3
1.5278914 0.75712323 -0.20937155 4
1.53913 0.76202244 -0.1502565 5
1.5270461 0.75537705 -0.08928515 6
1.5272486 0.75514466 -0.029738901 7
1.5476338 0.76220113 -0.46225086 0
1.528564 0.75247884 0.029738901 8
1.5421975 0.75885594 -0.39681366 1
1.5180031 0.74662095 0.088657118 9
1.5326772 0.75383824 -0.33200768 2
1.5090679 0.74189913 0.1471189 10
1.5388594 0.75621289 -0.27157027 3
1.5324383 0.75239265 -0.20961528 4
1.5292598 0.75050175 -0.14903632 5
1.5225006 0.74652445 -0.088866465 6
1.5192313 0.74426371 -0.029529471 7
1.5485481 0.75594771 -0.46173319 0
1.5203984 0.74187654 0.029529471 8
1.5465887 0.75432187 -0.39726356 1
1.5188046 0.74044263 0.088552445 9
1.5423578 0.75192523 -0.33353412 2
1.5062751 0.73400897 0.14659595 10
1.5343862 0.74737614 -0.27031878 3
1.5368401 0.74790788 -0.20985903 4
1.5318704 0.74515867 -0.14903632 5
1.5394678 0.74818999 -0.089703836 6
1.5290155 0.74244958 -0.029669091 7
1.5546557 0.75222015 -0.46276847 0
1.5193787 0.73482323 0.029459663 8
1.5421942 0.74552643 -0.39546397 1
1.5338386 0.74148721 0.08928515 9
1.5449729 0.74653715 -0.33353412 2
1.5106224 0.72961277 0.14677027 10
1.5352066 0.74115711 -0.27000591 3
1.5519574 0.74857515 -0.2115652 4
1.5272832 0.73634619 -0.14833906 5
1.5276753 0.73587716 -0.088866465 6
1.5350722 0.73911119 -0.029738901 7
1.5572722 0.74678838 -0.46276847 0
1.5254129 0.73151028 0.029529471 8
1.5358716 0.73619616 -0.39321443 1
1.5220083 0.72922426 0.088447772 9
1.551111 0.74283516 -0.33429739 2
1.5185512 0.72691637 0.1472932 10
1.5465649 0.74032623 -0.27157027 3
1.5418954 0.73742956 -0.20985903 4
1.5406307 0.73616409 -0.14938495 5
1.522898 0.72736436 -0.088447772 6
1.544862 0.73719269 -0.029878521 7
1.5562508 0.73996061 -0.46173319 0
1.5333754 0.72875667 0.029634187 8
1.5472331 0.73501182 -0.39546397 1
1.5245446 0.72390664 0.088447772 9
1.5429252 0.73263437 -0.33200768 2
1.5209533 0.72187698 0.1472932 10
1.5491395 0.73492348 -0.27157027 3
1.5390785 0.72949249 -0.20912781 4
1.5466644 0.73275751 -0.14973356 5
1.5326486 0.72546232 -0.088866465 6
1.5365795 0.72666574 -0.029669091 7
1.5570767 0.73370063 -0.46121556 0
1.5413374 0.72595555 0.029738901 8
1.546263 0.72794664 -0.39456415 1
1.5234478 0.71688008 0.088238433 9
1.5454731 0.72724438 -0.33200768 2
1.5126466 0.71147507 0.14624733 10
1.5516956 0.72951108 -0.27157027 3
1.547006 0.72664714 -0.20985903 4
1.5383919 0.72227335 -0.14868769 5
1.5369798 0.72095573 -0.088971131 6
1.5282423 0.71620655 -0.029459663 7
1.550876 0.7241745 -0.45862737 0
1.5293654 0.7138052 0.029459663 8
1.5576247 0.72666371 -0.39681366 1
1.5331813 0.71493453 0.088657118 9
1.548002 0.72184557 -0.33200768 2
1.509703 0.70366573 0.1457244 10
1.5542325 0.72409058 -0.27157027 3
1.5549319 0.7237559 -0.21059024 4
1.5336777 0.71353745 -0.14799045 5
1.5412984 0.71642768 -0.089075804 6
1.5379878 0.7142362 -0.029599281 7
1.5674204 0.72524679 -0.46276847 0
1.528218 0.70678318 0.029389855 8
1.5513077 0.71713322 -0.39456415 1
1.5429195 0.71292967 0.089075804 9
1.5540764 0.71808493 -0.33277091 2
1.5211942 0.70256817 0.14659595 10
1.5495768 0.71534866 -0.27031878 3
1.5212742 0.70196187 0.20571546 11
1.5556464 0.7174921 -0.21034651 4
1.5361593 0.70817918 -0.14799045 5
1.5365335 0.70770144 -0.088657118 6
1.5477376 0.71220803 -0.029738901 7
1.5629183 0.71655023 -0.46069792 0
1.5343115 0.70311087 0.029459663 8
1.5467143 0.70846796 -0.39276454 1
1.5290551 0.70005637 0.08813376 9
1.5637139 0.71592444 -0.33429739 2
1.5272607 0.69891244 0.14694458 10
1.5520642 0.70993561 -0.27031878 3
1.5164939 0.69334525 0.20474051 11
1.5491142 0.70793152 -0.20912781 4
1.5494955 0.70777982 -0.14903632 5
1.5280926 0.69735795 -0.088029087 6
1.5538534 0.70845985 -0.029808709 7
1.5689278 0.71268773 -0.46173319 0
1.5367564 0.69775116 0.029459663 8
1.5527272 0.7046749 -0.39366436 1
1.5314897 0.69471437 0.08813376 9
1.5519004 0.70397305 -0.33124444 2
1.5260617 0.69193184 0.14659595 10
1.5563325 0.70532858 -0.27063167 3
1.517097 0.68722796 0.20449677 11
1.5461502 0.70006454 -0.20839658 4
1.5519568 0.70236635 -0.14903632 5
1.5377966 0.69531214 -0.088447772 6
1.541738 0.69644529 -0.029529471 7
1.5643594 0.70403588 -0.45966265 0
1.5464774 0.69566363 0.029599281 8
1.5551772 0.69925165 -0.39366436 1
1.5337846 0.68963295 0.08813376 9
1.5507668 0.69694245 -0.3304812 2
1.521198 0.68333459 0.1458987 10
1.5641912 0.70231861 -0.27157027 3
1.5231085 0.68355399 0.20498425 11
1.5522072 0.69628775 -0.20888408 4
1.5507632 0.69531405 -0.14868769 5
1.54386 0.69157261 -0.088657118 6
1.536739 0.68805987 -0.029389855 7
1.5685719 0.69935715 -0.46018028 0
1.5396441 0.68645954 0.029424759 8
1.5681676 0.69884968 -0.39636377 1
1.5380071 0.68508708 0.088238433 9
1.5567774 0.69312161 -0.33124444 2
1.5199335 0.67640072 0.14555009 10
1.5556829 0.69230998 -0.26969305 3
1.5308081 0.68092006 0.20571546 11
1.5617634 0.69436204 -0.20985903 4
1.5440762 0.68585378 -0.14781614 5
1.5570976 0.69131142 -0.08928515 6
1.5464425 0.68593568 -0.029529471 7
1.5673484 0.69259042 -0.45914501 0
1.5328844 0.67704242 0.029250234 8
1.5599011 0.68864894 -0.39366436 1
1.5422165 0.68052018 0.088343106 9
1.5626595 0.6895408 -0.33200768 2
1.5294598 0.67457312 0.14624733 10
1.55086 0.68368757 -0.26844159 3
1.524093 0.67156982 0.20449677 11
1.5623604 0.68810713 -0.20961528 4
1.5518128 0.68313742 -0.14833906 5
1.5448748 0.67944044 -0.088447772 6
1.5451661 0.67892414 -0.029459663 7
1.5715259 0.68789017 -0.45966265 0
1.5425667 0.67489326 0.029389855 8
1.5587246 0.68163764 -0.39276454 1
1.5372622 0.67193329 0.087924413 9
1.5686545 0.68565482 -0.33277091 2
1.5318054 0.66922981 0.14624733 10
1.5568578 0.67985052 -0.26906732 3
1.5155116 0.66148138 0.20303436 11
1.5574752 0.67947382 -0.20864034 4
1.5560145 0.67851251 -0.14851339 5
1.5399129 0.67085248 -0.088029087 6
1.5585278 0.67831475 -0.029669091 7
1.5774626 0.68393683 -0.46069792 0
1.5485829 0.67109448 0.029459663 8
1.5575176 0.67464447 -0.39186475 1
1.5376492 0.66603833 0.087819748 9
1.5602287 0.67549455 -0.3304812 2
1.5377893 0.66546082 0.14659595 10
1.5646602 0.67676562 -0.27000591 3
1.5323884 0.66248876 0.20498425 11
1.5561931 0.67245775 -0.20815286 4
1.5565438 0.67228782 -0.14833906 5
1.5495807 0.66863787 -0.088447772 6
1.553424 0.66997463 -0.029529471 7
1.5745149 0.67613977 -0.45914501 0
1.5581493 0.66911197 0.029599281 8
1.570491 0.67408717 -0.39456415 1
1.5491422 0.66460371 0.088343106 9
1.5589682 0.66849709 -0.32971796 2
1.5291151 0.65537989 0.14555009 10
1.572343 0.6739074 -0.27094454 3
1.5364015 0.65818554 0.205228 11
1.55659 0.66651177 -0.20790912 4
1.5515541 0.6637156 -0.14764182 5
1.5554626 0.66506559 -0.088657118 6
1.5483974 0.6614064 -0.029389855 7
1.5749706 0.67015868 -0.45862737 0
1.5475941 0.65819085 0.029354947 8
1.5728346 0.66860062 -0.39456415 1
1.5494998 0.65868115 0.088238433 9
1.568404 0.66639489 -0.33124444 2
1.5312798 0.65030587 0.14555009 10
1.5637758 0.66378331 -0.26906732 3
1.540517 0.65359414 0.20547174 11
1.5680447 0.66494948 -0.20912781 4
1.5537467 0.65856642 -0.14764182 5
1.5614529 0.66118985 -0.088866465 6
1.5542654 0.65782648 -0.029459663 7
1.5755203 0.66390634 -0.45810974 0
1.5442401 0.65072525 0.029250234 8
1.5696551 0.66111225 -0.39321443 1
1.5591525 0.65636843 0.088657118 9
1.5707207 0.66091567 -0.33124444 2
1.5335406 0.64495635 0.14555009 10
1.5641474 0.65782851 -0.26875445 3
1.535356 0.64540452 0.20449677 11
1.5739012 0.66128421 -0.20961528 4
1.553564 0.6524204 0.26687723 12
1.5560359 0.65313911 -0.14764182 5
1.5525863 0.65137243 -0.088238433 6
1.5602405 0.6539433 -0.029529471 7
1.5866266 0.66239977 -0.46069792 0
1.5538843 0.6484108 0.029389855 8
1.5611616 0.65112859 -0.39051503 1
1.5428869 0.64350647 0.087610394 9
1.5765282 0.65721381 -0.33200768 2
1.5411886 0.64216584 0.14607303 10
1.5627868 0.65084606 -0.26812872 3
1.5247711 0.63470078 0.2027906 11
1.5652033 0.65121055 -0.20815286 4
1.5502474 0.64498812 0.26593861 12
1.5618724 0.64950585 -0.14799045 5
1.547473 0.64288354 -0.087819748 6
1.5660939 0.65029985 -0.029599281 7
1.5907145 0.65759569 -0.46121556 0
1.5597215 0.64478332 0.029459663 8
1.5687157 0.64818013 -0.39186475 1
1.552508 0.64116603 0.088029087 9
1.5715536 0.64871067 -0.3304812 2
1.5471041 0.63830233 0.14642164 10
1.5740671 0.64942664 -0.26969305 3
1.5360433 0.63342518 0.20400929 11
1.5691893 0.64677334 -0.20839658 4
1.5360512 0.63280118 0.2631228 12
1.5678148 0.6455667 -0.14833906 5
1.5532901 0.63926893 -0.088029087 6
1.5646555 0.64330792 -0.029529471 7
1.5878634 0.64928907 -0.45966265 0
1.5659994 0.64002967 0.029529471 8
1.5821292 0.646299 -0.39456415 1
1.5494118 0.63293391 0.087715074 9
1.5776678 0.6441561 -0.33124444 2
1.5440093 0.63009906 0.1458987 10
1.5803195 0.64459443 -0.27031878 3
1.5459266 0.63025129 0.20498425 11
1.5734997 0.64149237 -0.20864034 4
1.5256642 0.62168097 0.26093271 12
1.5592109 0.63503253 -0.1472932 5
1.5632436 0.63603973 -0.088447772 6
1.5560001 0.63277519 -0.029320043 7
1.584636 0.64184457 -0.45810974 0
1.5606992 0.63183123 0.029389855 8
1.5806508 0.63958734 -0.39366436 1
1.5626106 0.63228762 0.088343106 9
1.572515 0.63597685 -0.32971796 2
1.540549 0.62273508 0.14537577 10
1.5714592 0.63491082 -0.26844159 3
1.5498484 0.62586576 0.205228 11
1.5719364 0.63478541 -0.20815286 4
1.5240539 0.61513913 0.26030698 12
1.5613081 0.62985879 -0.1472932 5
1.5709019 0.63309163 -0.088761792 6
1.5617995 0.62910646 -0.029389855 7
1.5921348 0.63874364 -0.45966265 0
1.5535054 0.6229313 0.029215328 8
1.5773365 0.6321668 -0.39231464 1
1.5703703 0.62905765 0.088657118 9
1.5819055 0.63367838 -0.33124444 2
1.5426055 0.61762327 0.14537577 10
1.5735562 0.62969571 -0.26844159 3
1.5500723 0.6199851 0.20498425 11
1.588889 0.63518906 -0.21010277 4
1.5353638 0.61347973 0.26187131 12
1.5670887 0.62615597 -0.14764182 5
1.5600078 0.62269616 -0.088029087 6
1.5677007 0.62513262 -0.029459663 7
1.5961503 0.63389474 -0.46018028 0
1.5612465 0.61971766 0.029320043 8
1.5759104 0.62522089 -0.39141485 1
1.5595603 0.61841828 0.087924413 9
1.5804579 0.62670493 -0.3304812 2
1.5540133 0.61590487 0.14624733 10
1.5830903 0.62711024 -0.26969305 3
1.5337702 0.60726255 0.20254686 11
1.5726385 0.62233412 -0.20766538 4
1.5466802 0.61175042 0.26343569 12
1.5729699 0.62214863 -0.14799045 5
1.5584571 0.61577868 -0.087819748 6
1.5773137 0.62259281 -0.029599281 7
1.5983529 0.6283204 -0.46018028 0
1.5652612 0.61499572 0.029354947 8
1.5817112 0.6211403 -0.39231464 1
1.5561321 0.61078101 0.087610394 9
1.5789809 0.61974919 -0.32971796 2
1.5561537 0.61047697 0.14624733 10
1.5815917 0.62013775 -0.26906732 3
1.5395772 0.6033532 0.20303436 11
1.5711043 0.6153931 -0.20717789 4
1.5322515 0.59986621 0.26061985 12
1.5789508 0.6178301 -0.14833906 5
1.5605969 0.61033517 -0.087819748 6
1.568302 0.61271667 -0.029389855 7
1.591643 0.61895585 -0.4575921 0
1.5711261 0.61097729 0.029424759 8
1.5893188 0.6177336 -0.39366436 1
1.5619777 0.60679299 0.087819748 9
1.5812417 0.61395812 -0.32971796 2
1.5509508 0.60188633 0.14555009 10
1.5912205 0.61719453 -0.27031878 3
1.5509273 0.60156584 0.20425305 11
1.5806465 0.61277491 -0.20815286 4
1.5324941 0.59379989 0.26030698 12
1.5662341 0.60655969 -0.14694458 5
1.5702745 0.6074934 -0.088238433 6
1.5629703 0.60435486 -0.029250234 7
1.5973992 0.61478508 -0.45862737 0
1.5714885 0.60449713 0.029389855 8
1.5879344 0.61050522 -0.39276454 1
1.5678148 0.60276997 0.088029087 9
1.5833751 0.60843521 -0.32971796 2
1.5437428 0.5928967 0.14467853 10
1.5786122 0.60597265 -0.26781586 3
1.558682 0.59801012 0.20498425 11
1.5901893 0.6100983 -0.20912781 4
1.5400907 0.59056896 0.26124558 12
1.5757837 0.60394049 -0.14764182 5
1.5761157 0.60343695 -0.088447772 6
1.5688058 0.60032427 -0.029320043 7
1.5976242 0.60879624 -0.45810974 0
1.5660093 0.59643596 0.029250234 8
1.5917715 0.60592896 -0.39321443 1
1.5772716 0.60040933 0.088447772 9
1.587219 0.60387969 -0.33009958 2
1.5512873 0.58989906 0.14520147 10
1.5879991 0.6035412 -0.26906732 3
1.549522 0.5886088 0.20352182 11
1.5866363 0.60270721 -0.20839658 4
1.5475808 0.58756238 0.2621842 12
1.5740525 0.59729755 -0.1472932 5
1.5706377 0.5953756 -0.088029087 6
1.5745281 0.59653521 -0.029389855 7
1.6050569 0.60554022 -0.45966265 0
1.5698497 0.59194469 0.029285138 8
1.5828309 0.59652394 -0.39051503 1
1.5756196 0.59349227 0.088238433 9
1.5928874 0.59999657 -0.33086282 2
1.5644228 0.58896303 0.14624733 10
1.5844451 0.59618521 -0.26812872 3
1.5440334 0.58067167 0.20254686 11
1.5868726 0.5964663 -0.20815286 4
1.5477732 0.58146155 0.26187131 12
1.5798581 0.5932005 -0.14764182 5
1.5530795 0.58314574 0.32246721 13
1.5613841 0.58595306 -0.087401055 6
1.5840904 0.59384346 -0.029529471 7
1.6072654 0.59965372 -0.45966265 0
1.577527 0.58855867 0.029389855 8
1.5867293 0.59167641 -0.39096493 1
1.5627095 0.58240908 0.087401055 9
1.5858771 0.59072745 -0.32895473 2
1.5665709 0.58322555 0.14624733 10
1.5958765 0.59381872 -0.26969305 3
1.5479113 0.57597107 0.2027906 11
1.5833632 0.58884716 -0.20742163 4
1.5497934 0.57605559 0.26187131 12
1.5856543 0.58907014 -0.14799045 5
1.5662495 0.58154935 0.32475692 13
1.567266 0.5816164 -0.087610394 6
1.5786541 0.58552909 -0.029389855 7
1.6057242 0.59270126 -0.45862737 0
1.5759215 0.58138806 0.029320043 8
1.5962006 0.58855385 -0.39276454 1
1.5778503 0.58178771 0.08813376 9
1.5879294 0.58518839 -0.32895473 2
1.5555099 0.57293278 0.14502715 10
1.5997931 0.58892715 -0.27000591 3
1.566779 0.57646251 0.20498425 11
1.587374 0.58372545 -0.20766538 4
1.5499409 0.56996018 0.26155844 12
1.5802207 0.58078188 -0.1472932 5
1.566427 0.57540196 0.3243753 13
1.5767864 0.57889509 -0.088029087 6
1.5769337 0.57863688 -0.029320043 7
1.6077832 0.587093 -0.45862737 0
1.5778407 0.5761593 0.029320043 8
1.5981438 0.58325702 -0.39276454 1
1.5836244 0.57764482 0.088343106 9
1.5936512 0.5809871 -0.32971796 2
1.5575002 0.56749988 0.14502715 10
1.5906013 0.57956082 -0.26812872 3
1.5742778 0.57330185 0.20571546 11
1.5874354 0.57777965 -0.20742163 4
1.5444955 0.56184554 0.26030698 12
1.5784934 0.57390118 -0.14694458 5
1.5535657 0.56483805 0.32132238 13
1.5824521 0.57502687 -0.088238433 6
1.5789438 0.57312912 -0.029320043 7
1.6079047 0.58110112 -0.45810974 0
1.5760807 0.56928974 0.029250234 8
1.5946714 0.57568932 -0.39141485 1
1.5875099 0.57279086 0.088447772 9
1.5955691 0.57569873 -0.32971796 2
1.5593735 0.56233221 0.14502715 10
1.5907565 0.57333481 -0.26781586 3
1.5631961 0.56309336 0.20400929 11
1.606252 0.57828712 -0.20961528 4
1.5538822 0.5591256 0.26155844 12
1.5841374 0.57001221 -0.1472932 5
1.555528 0.55941123 0.32132238 13
1.58069 0.56814957 -0.088029087 6
1.5922272 0.57166803 -0.029529471 7
1.6117421 0.57613552 -0.45862737 0
1.5780584 0.56378424 0.029250234 8
1.58933 0.56749851 -0.38961524 1
1.5782132 0.56321847 0.087819748 9
1.6105124 0.57474506 -0.3323893 2
1.5707101 0.5602318 0.1458987 10
1.5908875 0.56711477 -0.26750296 3
1.5501925 0.55230385 0.20205939 11
1.5951705 0.56801498 -0.20790912 4
1.5614077 0.55568475 0.26249707 12
1.5936258 0.56715071 -0.14799045 5
1.56487 0.55661005 0.32284883 13
1.5713725 0.55861402 -0.087401055 6
1.5942129 0.56610698 -0.029529471 7
1.6173865 0.57179344 -0.45966265 0
1.5875585 0.56093752 0.029389855 8
1.5986513 0.56454319 -0.39141485 1
1.5745195 0.55571145 0.087505728 9
1.5995494 0.56454557 -0.32971796 2
1.5688984 0.55341965 0.14555009 10
1.602172 0.56484324 -0.26906732 3
1.552111 0.54688895 0.20205939 11
1.5915265 0.5604648 -0.20717789 4
1.5577475 0.54826462 0.26155844 12
1.599354 0.56290847 -0.14833906 5
1.5668036 0.55114383 0.32284883 13
1.5808499 0.55577481 -0.087819748 6
1.5848591 0.55656284 -0.029320043 7
1.6120777 0.56359512 -0.4575921 0
1.6008335 0.55934972 0.029599281 8
1.5987724 0.55831641 -0.39096493 1
1.5839921 0.55284566 0.087924413 9
1.5978028 0.55766588 -0.32895473 2
1.5632956 0.54531527 0.14485285 10
1.6115952 0.56184781 -0.27031878 3
1.5615085 0.54408145 0.20303436 11
1.5972226 0.55621189 -0.20766538 4
1.5465927 0.53827816 0.25936839 12
1.586256 0.55208266 -0.14694458 5
1.5724266 0.54696089 0.32361206 13
1.5865531 0.55156523 -0.088029087 6
1.5830144 0.54971492 -0.029250234 7
1.6103836 0.55670166 -0.4565568 0
1.5857658 0.54788077 0.029285138 8
1.6117636 0.55654901 -0.39366436 1
1.5858169 0.54758948 0.087924413 9
1.6071633 0.55464655 -0.3304812 2
1.5651897 0.53985459 0.14485285 10
1.5948712 0.5497815 -0.2671901 3
1.5709056 0.54121345 0.20400929 11
1.6047852 0.55257159 -0.20839658 4
1.5595759 0.53700483 0.26124558 12
1.5844055 0.54524589 -0.14659595 5
1.5631868 0.53763872 0.32132238 13
1.5998017 0.54991889 -0.088657118 6
1.5886106 0.5457629 -0.029320043 7
1.6141452 0.55170131 -0.45707443 0
1.5837893 0.54132593 0.029215328 8
1.6025355 0.54742175 -0.39096493 1
1.5990597 0.54592192 0.088552445 9
1.6090897 0.54903269 -0.3304812 2
1.5651785 0.53374583 0.14467853 10
1.6004248 0.54576522 -0.26781586 3
1.5614181 0.53215843 0.20254686 11
1.6122459 0.54916739 -0.20912781 4
1.5651804 0.53283185 0.26187131 12
1.5900717 0.54099506 -0.14694458 5
1.5649612 0.53245163 0.32132238 13
1.586489 0.53946716 -0.087819748 6
1.5942931 0.54150009 -0.029389855 7
1.6379271 0.55377001 -0.4632861 0
1.5894582 0.5370748 0.029285138 8
1.6007442 0.54057711 -0.39006513 1
1.5952786 0.53842038 0.088238433 9
1.6146219 0.54494894 -0.33124444 2
1.5744916 0.53109938 0.14537577 10
1.6079358 0.54206806 -0.26875445 3
1.5613852 0.52607059 0.20230313 11
1.6047465 0.54036915 -0.20790912 4
1.5670309 0.52736467 0.26187131 12
1.5956335 0.53699052 -0.1472932 5
1.5742537 0.52948868 0.32284883 13
1.5807896 0.53138077 -0.087401055 6
1.6037563 0.53847718 -0.029529471 7
1.5951166 0.53278995 0.029354947 8
1.6063181 0.53622061 -0.39096493 1
1.5895696 0.5303213 0.087819748 9
1.6053399 0.53558272 -0.32895473 2
1.574446 0.52496952 0.14520147 10
1.6154406 0.53832513 -0.26969305 3
1.5632116 0.5206182 0.20230313 11
1.6009725 0.53288305 -0.20717789 4
1.561365 0.51939702 0.26061985 12
1.6050605 0.53393257 -0.14799045 5
1.5798182 0.52522939 0.32361206 13
1.5902164 0.52837825 -0.087819748 6
1.5942388 0.52909684 -0.029320043 7
1.6045623 0.52972662 0.029494567 8
1.6118815 0.53183103 -0.39186475 1
1.5951128 0.52629828 0.088029087 9
1.6034707 0.52874565 -0.32819149 2
1.5705918 0.51759988 0.14467853 10
1.6173097 0.53268325 -0.26969305 3
1.5763328 0.51888198 0.20376556 11
1.6065019 0.52881277 -0.20766538 4
1.561202 0.51359946 0.26030698 12
1.5993435 0.52583778 -0.1472932 5
1.5816418 0.51971191 0.32361206 13
1.5996416 0.5253163 -0.088238433 6
1.5755935 0.51741898 0.38286668 14
1.5883845 0.52131325 -0.029180422 7
1.5949042 0.52067953 0.029285138 8
1.619194 0.52829659 -0.39321443 1
1.6025455 0.52286464 0.088343106 9
1.6089486 0.52464229 -0.32895473 2
1.5704052 0.5117718 0.14450422 10
1.6077979 0.52364624 -0.26781586 3
1.5837078 0.51549464 0.20449677 11
1.6157973 0.52593976 -0.20864034 4
1.5572612 0.50658661 0.25936839 12
1.5972891 0.51929879 -0.14694458 5
1.5721538 0.51082367 0.32132238 13
1.6013744 0.52000988 -0.088238433 6
1.5977128 0.51851183 -0.029320043 7
1.5852042 0.51170164 0.02907571 8
1.6116641 0.51993227 -0.39096493 1
1.6099731 0.51938677 0.088657118 9
1.6144164 0.52050912 -0.32971796 2
1.5796794 0.50900513 0.14520147 10
1.6057647 0.51710105 -0.2671901 3
1.5721809 0.50598329 0.2027906 11
1.619422 0.52118719 -0.20888408 4
1.5664548 0.50383872 0.26061985 12
1.5990024 0.51399946 -0.14694458 5
1.5738389 0.50560772 0.32132238 13
1.5916802 0.51103294 -0.087610394 6
1.6070397 0.51565498 -0.029459663 7
1.6021324 0.51130617 0.029354947 8
1.6096661 0.51340091 -0.39006513 1
1.5869499 0.50615561 0.087296382 9
1.619875 0.51634473 -0.3304812 2
1.5851552 0.50497377 0.14555009 10
1.6112354 0.51297134 -0.26781586 3
1.5719587 0.50016463 0.20254686 11
1.6041167 0.51039666 -0.20669043 4
1.5794117 0.50223333 0.26249707 12
1.6044958 0.50990063 -0.1472932 5
1.5848628 0.50335687 0.32323048 13
1.5971733 0.50696075 -0.087819748 6
1.610647 0.51092714 -0.029494567 7
1.598274 0.50362808 0.029250234 8
1.6115371 0.50749737 -0.39006513 1
1.5811744 0.49793568 0.086877696 9
1.6123929 0.50745755 -0.32857311 2
1.592697 0.50095415 0.14607303 10
1.6244115 0.51061702 -0.26969305 3
1.575675 0.49499506 0.2027906 11
1.6136404 0.50661242 -0.20766538 4
1.5699341 0.49289054 0.26061985 12
1.6177596 0.50759554 -0.14833906 5
1.5904436 0.49871981 0.32399368 13
1.5913974 0.49871388 -0.087401055 6
1.6029673 0.50203246 -0.029320043 7
1.5999354 0.49832478 0.029250234 8
1.6132112 0.50215089 -0.39006513 1
1.6076955 0.50012541 0.088238433 9
1.6141543 0.50182652 -0.32857311 2
1.5792148 0.49066189 0.14467853 10
1.6298684 0.50639993 -0.27031878 3
1.5848912 0.49212143 0.20376556 11
1.6153114 0.50125891 -0.20766538 4
1.5603244 0.483897 0.25874263 12
1.6042973 0.49722636 -0.14694458 5
1.5958394 0.49460495 0.32475692 13
1.6025815 0.49638891 -0.087924413 6
1.6008894 0.4952516 -0.029250234 7
1.5997539 0.49214843 0.029215328 8
1.6335812 0.50224304 -0.39456415 1
1.596067 0.49040529 0.087505728 9
1.6176862 0.49704799 -0.32895473 2
1.5808333 0.4854219 0.14467853 10
1.6165187 0.49607098 -0.26781586 3
1.5960883 0.48949742 0.20498425 11
1.6170514 0.49561694 -0.20766538 4
1.5695592 0.4807612 0.25999412 12
1.6078422 0.4924874 -0.1471189 5
1.5862921 0.48558459 0.32246721 13
1.6062145 0.49137565 -0.088029087 6
1.6102577 0.49199885 -0.029389855 7
1.5899823 0.483073 0.0290059 8
1.6204067 0.49200863 -0.39096493 1
1.6035028 0.48657036 0.087819748 9
1.6269262 0.493678 -0.3304812 2
1.5882384 0.48163497 0.14520147 10
1.6182404 0.49042559 -0.26781586 3
1.5825884 0.47931936 0.20303436 11
1.6244715 0.49169415 -0.20839658 4
1.5787909 0.47756758 0.26124558 12
1.6076444 0.48629549 -0.14694458 5
1.584219 0.47890782 0.321704 13
1.6021844 0.48403272 -0.087715074 6
1.6119655 0.48637459 -0.029389855 7
1.5993199 0.47981963 0.029145518 8
1.6221145 0.4863489 -0.39096493 1
1.6071048 0.48154297 0.087924413 9
1.6324008 0.48912251 -0.33124444 2
1.5899096 0.47608912 0.14520147 10
1.6237274 0.48590612 -0.26844159 3
1.5785464 0.47208542 0.20230313 11
1.6242757 0.4854534 -0.20815286 4
1.5823411 0.47261855 0.26155844 12
1.6150593 0.48239097 -0.14746751 5
1.5896437 0.47449759 0.32246721 13
1.5942943 0.47558358 -0.087191716 6
1.6174864 0.4818863 -0.029459663 7
1.6086545 0.47650537 0.029285138 8
1.6312762 0.4828974 -0.39276454 1
1.5953695 0.47196448 0.087191716 9
1.6190373 0.47896624 -0.32819149 2
1.5934725 0.47110087 0.14537577 10
1.6254134 0.48023638 -0.26844159 3
1.5916077 0.46994552 0.20376556 11
1.6183447 0.47753301 -0.20717789 4
1.5745077 0.46429825 0.25999412 12
1.6186446 0.47731352 -0.14764182 5
1.5950565 0.47005609 0.32323048 13
1.6055243 0.47283632 -0.087715074 6
1.6114848 0.47398055 -0.029320043 7
1.6141465 0.47201002 0.029354947 8
1.6103451 0.47059333 0.087924413 9
1.6206994 0.47331139 -0.32819149 2
1.5817188 0.46162868 0.14415559 10
1.6308726 0.47566548 -0.26906732 3
1.5970501 0.46549746 0.20425305 11
1.6238135 0.47299165 -0.20766538 4
1.5722454 0.45797065 0.25936839 12
1.6107357 0.46887735 -0.14677027 5
1.6167542 0.47001722 -0.088238433 6
1.609207 0.46751863 -0.029250234 7
1.6118605 0.4655453 0.029285138 8
1.6158162 0.46607602 0.08813376 9
1.6261146 0.46873915 -0.32895473 2
1.5814062 0.45555273 0.14398128 10
1.6229502 0.46752021 -0.26750296 3
1.5985849 0.46019924 0.20425305 11
1.6291885 0.46870151 -0.20815286 4
1.5776314 0.4535709 0.25999412 12
1.6142775 0.46380168 -0.14694458 5
1.6221434 0.46575522 -0.088447772 6
1.6127514 0.46244931 -0.029285138 7
1.6038604 0.45717475 0.029110614 8
1.6174331 0.46043321 0.08813376 9
1.6314363 0.46441951 -0.32971796 2
1.5944061 0.45357737 0.14502715 10
1.6264726 0.462392 -0.26781586 3
1.5963624 0.45353162 0.20376556 11
1.6365435 0.46463859 -0.20888408 4
1.583006 0.44913915 0.26061985 12
1.6158067 0.45844555 -0.14694458 5
1.6122296 0.4568235 -0.087819748 6
1.6239766 0.45953971 -0.029459663 7
1.6112213 0.45319813 0.029215328 8
1.6074935 0.45154333 0.087505728 9
1.6406081 0.46084517 -0.33124444 2
1.5978982 0.44854715 0.14520147 10
1.6356844 0.45884618 -0.26906732 3
1.5864675 0.44474113 0.20230313 11
1.6343325 0.45785171 -0.20839658 4
1.5902706 0.44520864 0.26155844 12
1.6250715 0.45495144 -0.14764182 5
1.604197 0.44850367 -0.087296382 6
1.6236448 0.45332995 -0.029424759 7
1.6224281 0.4502444 0.029389855 8
1.608982 0.44621053 0.087505728 9
1.6308551 0.45196998 -0.32895473 2
1.6071343 0.44509411 0.1458987 10
1.6410837 0.45418796 -0.26969305 3
1.5937499 0.44078839 0.20303436 11
1.6282673 0.45002908 -0.20742163 4
1.5841222 0.43782803 0.26030698 12
1.6304905 0.45033726 -0.14799045 5
1.6327077 0.4503364 -0.088761792 6
1.6193557 0.44634947 -0.029320043 7
1.6219835 0.44433296 0.029354947 8
1.6143826 0.44164586 0.087715074 9
1.6286353 0.44523862 -0.32819149 2
1.591381 0.43475547 0.14432991 10
1.6387697 0.44770181 -0.26906732 3
1.6028628 0.43759245 0.20400929 11
1.633581 0.44567156 -0.20790912 4
1.5799235 0.4307366 0.25936839 12
1.6243633 0.44254851 -0.1472932 5
1.6380465 0.44596848 -0.088971131 6
1.6170446 0.43964523 -0.029250234 7
1.6196637 0.43762562 0.029285138 8
1.6197711 0.43704802 0.087924413 9
1.6376846 0.44188145 -0.32971796 2
1.5947374 0.42999488 0.14450422 10
1.6365077 0.44095117 -0.26844159 3
1.6120479 0.43405885 0.20498425 11
1.6351266 0.43996695 -0.20790912 4
1.5814174 0.42521933 0.25936839 12
1.6181258 0.43508965 -0.14659595 5
1.6395934 0.44024751 -0.088971131 6
1.6205008 0.43451545 -0.029285138 7
1.6095878 0.42888045 0.02907571 8
1.6290073 0.43344513 0.088343106 9
1.6430118 0.43717143 -0.3304812 2
1.6097069 0.42800969 0.1457244 10
1.6342189 0.43422106 -0.26781586 3
1.6020417 0.42537206 0.20352182 11
1.6481645 0.43731153 -0.20937155 4
1.5981673 0.42374626 0.26187131 12
1.6215607 0.4299489 -0.14677027 5
1.6333969 0.43247789 -0.088552445 6
1.6278077 0.43038923 -0.029389855 7
1.6168773 0.42478323 0.029180422 8
1.6227828 0.42572927 0.087924413 9
1.6407297 0.43043754 -0.32971796 2
1.6150458 0.42339823 0.14607303 10
1.64719 0.43151787 -0.26969305 3
1.6015962 0.41927493 0.20327808 11
1.6381583 0.42854089 -0.20790912 4
1.5881701 0.415167 0.25999412 12
1.6365449 0.42781281 -0.14799045 5
1.6310318 0.42576429 -0.088343106 6
1.631235 0.42520922 -0.029424759 7
1.6222218 0.42013976 0.029250234 8
1.6184582 0.41856143 0.087610394 9
1.6384209 0.42372414 -0.32895473 2
1.6184429 0.41825697 0.14624733 10
1.6486861 0.42576584 -0.26969305 3
1.6088165 0.41516939 0.20400929 11
1.6377219 0.42232469 -0.20766538 4
1.6049123 0.41356525 0.26249707 12
1.6399573 0.42259592 -0.14816476 5
1.6363765 0.4210633 -0.088552445 6
1.6268991 0.41801924 -0.029320043 7
1.6275537 0.41546333 0.029320043 8
1.6353196 0.41714174 0.088447772 9
1.6417921 0.41848844 -0.32933635 2
1.6160315 0.41162097 0.1458987 10
1.6539909 0.42098227 -0.27031878 3
1.6141034 0.41053081 0.20449677 11
1.6391134 0.41689184 -0.20766538 4
1.6356294 0.41539711 -0.14764182 5
1.6455802 0.41731289 -0.088971131 6
1.6243994 0.41163984 -0.029250234 7
1.625044 0.4090879 0.029250234 8
1.6308833 0.41025439 0.08813376 9
1.6507871 0.41495577 -0.33086282 2
1.6077256 0.40383321 0.14502715 10
1.6515461 0.4145329 -0.26969305 3
1.6173815 0.40565845 0.20474051 11
1.6501142 0.41386822 -0.20888408 4
1.6331326 0.40900236 -0.1472932 5
1.6508301 0.41282308 -0.089180477 6
1.6335158 0.40818956 -0.029389855 7
1.6263918 0.40369636 0.029250234 8
1.6381208 0.40600157 0.088447772 9
1.6148582 0.39993605 0.14555009 10
1.6452415 0.40715608 -0.26844159 3
1.6090825 0.39791042 0.20352182 11
1.653476 0.40858147 -0.20912781 4
1.6344799 0.40358478 -0.1472932 5
1.6483117 0.40638977 -0.088971131 6
1.6407555 0.40392017 -0.029494567 7
1.6297333 0.39849198 0.029285138 8
1.6278867 0.39743832 0.087819748 9
1.6239867 0.3961859 0.14624733 10
1.650491 0.40234664 -0.26906732 3
1.608533 0.391821 0.20327808 11
1.6452484 0.4004595 -0.20790912 4
1.6436224 0.39976072 -0.14799045 5
1.6380754 0.39780518 -0.088343106 6
1.6557593 0.4014886 -0.029738901 7
1.640835 0.39514199 0.029459663 8
1.6331477 0.39268771 0.088029087 9
1.6331087 0.39237684 0.14694458 10
1.655727 0.39750478 -0.26969305 3
1.6118212 0.38666722 0.20352182 11
1.6485664 0.3951779 -0.20815286 4
1.6508207 0.39541286 -0.14851339 5
1.6511085 0.39487326 -0.088971131 6
1.6415907 0.39199051 -0.029459663 7
1.6422044 0.38941157 0.029459663 8
1.6345085 0.38698414 0.088029087 9
1.6247742 0.38437998 0.14607303 10
1.6686388 0.39444971 -0.27157027 3
1.618957 0.38240713 0.20425305 11
1.6499358 0.38942048 -0.20815286 4
1.6405556 0.3869043 -0.14746751 5
1.6524769 0.38910699 -0.088971131 6
1.6351625 0.38442764 -0.029320043 7
1.6357642 0.3818588 0.029320043 8
1.6397398 0.38218257 0.088238433 9
1.6164037 0.3764469 0.14520147 10
1.6623095 0.38683212 -0.27031878 3
1.6338167 0.37990028 0.2059592 11
1.6570858 0.38500687 -0.20888408 4
1.6399555 0.38072437 -0.1472932 5
1.6577164 0.38423872 -0.089180477 6
1.6442873 0.38052046 -0.029459663 7
1.6351383 0.37569836 0.029285138 8
1.6488506 0.37824312 0.088657118 9
1.625476 0.37258241 0.1458987 10
1.6501712 0.37793979 -0.26812872 3
1.6138469 0.369324 0.20327808 11
1.6642251 0.38054726 -0.20961528 4
1.6490438 0.376773 -0.14799045 5
1.6512587 0.37667269 -0.088761792 6
1.6495049 0.37566695 -0.029529471 7
1.6384548 0.37014374 0.029320043 8
1.6384715 0.36984617 0.088029087 9
1.6346052 0.36837468 0.14659595 10
1.6573268 0.37319046 -0.26906732 3
1.6248733 0.36558479 0.20449677 11
1.6577969 0.37299234 -0.20864034 4
1.6523576 0.37116265 -0.14816476 5
1.6409351 0.36799604 -0.08813376 6
1.6586115 0.37165534 -0.029669091 7
1.6455294 0.36601049 0.029424759 8
1.6338398 0.36311117 0.087715074 9
1.6358179 0.36295164 0.14659595 10
1.668198 0.36983061 -0.27063167 3
1.6590244 0.36749396 -0.20864034 4
1.6613609 0.3674024 -0.148862 5
1.6577486 0.36599669 -0.088971131 6
1.644213 0.36270738 -0.029389855 7
1.6525942 0.36183512 0.029529471 8
1.6370485 0.35783264 0.087819748 9
1.6331195 0.35667521 0.14624733 10
1.6752051 0.36555961 -0.27157027 3
1.6602972 0.36170021 -0.20864034 4
1.6528362 0.35977185 -0.14799045 5
1.6628567 0.36134595 -0.089180477 6
1.645469 0.35696614 -0.029389855 7
1.6479826 0.35480121 0.029424759 8
1.653909 0.35547316 0.088657118 9
1.6285106 0.34971696 0.1457244 10
1.6706765 0.35846776 -0.27063167 3
1.675137 0.35881245 -0.21034651 4
1.6540817 0.35400131 -0.14799045 5
1.6680143 0.35637346 -0.089389823 6
1.6545277 0.35288823 -0.029529471 7
1.6452982 0.34821874 0.029354947 8
1.6492774 0.34845871 0.088343106 9
1.6336201 0.34485364 0.14607303 10
1.6564548 0.349372 -0.26812872 3
1.6802644 0.35378128 -0.21083398 4
1.6534185 0.34752539 -0.14781614 5
1.6614295 0.34890726 -0.088971131 6
1.6674925 0.34957203 -0.029738901 7
1.6504195 0.3432875 0.029424759 8
1.6485281 0.34229463 0.088238433 9
1.638775 0.33967292 0.14642164 10
1.6639938 0.34429356 -0.20864034 4
1.6624262 0.34336498 -0.14851339 5
1.658785 0.34200844 -0.088761792 6
1.6647851 0.34294349 -0.029669091 7
1.6595036 0.33883664 0.029564377 8
1.6399864 0.33425617 0.087715074 9
1.64776 0.33554024 0.1471189 10
1.6613537 0.33740258 -0.20815286 4
1.6714251 0.33914426 -0.14921063 5
1.6638837 0.3370094 -0.088971131 6
1.6581911 0.33525309 -0.029529471 7
1.6645976 0.33382776 0.029634187 8
1.6528935 0.3308813 0.088343106 9
1.6352453 0.32705081 0.1458987 10
1.6703085 0.33315405 -0.20912781 4
1.6608748 0.3309719 -0.14816476 5
1.6728855 0.33275747 -0.089389823 6
1.6515055 0.32790631 -0.029389855 7
1.6579046 0.32647014 0.029494567 8
1.659861 0.32655448 0.088657118 9
1.6441972 0.32287678 0.14659595 10
1.6792535 0.32884789 -0.21010277 4
1.6561543 0.32402426 -0.14764182 5
1.6779573 0.32768193 -0.08959917 6
1.6722107 0.32625675 -0.029738901 7
1.6530883 0.31983134 0.029389855 8
1.6629518 0.32113674 0.088761792 9
1.6316197 0.31449619 0.14537577 10
1.6783854 0.32290277 -0.20985903 4
1.6631451 0.31936795 -0.14816476 5
1.6751117 0.32136357 -0.089389823 6
1.6694113 0.31966504 -0.029669091 7
1.662053 0.31555054 0.029529471 8
1.654196 0.31376058 0.088238433 9
1.6795024 0.31704172 -0.20985903 4
1.6700686 0.31495908 -0.14868769 5
1.6683722 0.3140361 -0.088971131 6
1.6783231 0.31560591 -0.029808709 7
1.6670219 0.31077051 0.029599281 8
1.6513541 0.3072533 0.088029087 9
1.672737 0.31002384 -0.20888408 4
1.6789943 0.31057745 -0.14938495 5
1.6733323 0.30922809 -0.089180477 6
1.6636822 0.30684426 -0.029529471 7
1.6700635 0.30530962 0.029634187 8
1.6583111 0.30256215 0.088343106 9
1.6738089 0.30418336 -0.20888408 4
1.6761475 0.30400321 -0.14903632 5
1.686193 0.30552202 -0.089808509 6
1.6726145 0.30245796 -0.029669091 7
1.6691508 0.29912496 0.029599281 8
1.6632892 0.29747534 0.088552445 9
1.6865866 0.30042711 -0.21034651 4
1.6654286 0.2960586 -0.14799045 5
1.6853352 0.29898968 -0.089703836 6
1.6736599 0.29661795 -0.029669091 7
1.6584183 0.29093242 0.029389855 8
1.6623503 0.29132235 0.088447772 9
1.6935431 0.29526666 -0.21107772 4
1.6723406 0.29126853 -0.14851339 5
1.6706263 0.29036999 -0.088866465 6
1.6865066 0.29282609 -0.029878521 7
1.6711985 0.2874648 0.029599281 8
1.6594199 0.28484327 0.088238433 9
1.6847295 0.28797626 -0.20985903 4
1.6870953 0.28777382 -0.14973356 5
1.6676424 0.28415698 -0.088657118 6
1.6875186 0.28693685 -0.029878521 7
1.6800795 0.28295746 0.029738901 8
1.6604042 0.27904862 0.088238433 9
1.6939355 0.28316423 -0.1502565 5
1.6725643 0.27899083 -0.088866465 6
1.6806195 0.27973241 -0.029738901 7
1.6810567 0.27709231 0.029738901 8
1.6692514 0.27454716 0.088657118 9
1.6811497 0.27499768 -0.14903632 5
1.6853547 0.27508235 -0.089494489 6
1.6697435 0.27193516 -0.029529471 7
1.6780653 0.27058551 0.029669091 8
1.6721714 0.26903629 0.088761792 9
1.67423 0.26786816 -0.14833906 5
1.6941938 0.27045664 -0.089913182 6
1.6825314 0.26799268 -0.029738901 7
1.6750491 0.2641038 0.029599281 8
1.6869656 0.26387092 -0.14938495 5
1.6813141 0.26238498 -0.089180477 6
1.6874084 0.26273274 -0.029808709 7
1.6799135 0.25886381 0.029669091 8
1.6918155 0.25858232 -0.14973356 5
1.6782708 0.25591266 -0.088971131 6
1.696178 0.25834039 -0.02994833 7
1.6886722 0.25448391 0.029808709 8
1.7005898 0.25385219 -0.15043081 5
1.6949136 0.25270164 -0.089808509 6
1.6852018 0.25065324 -0.029738901 7
1.6974639 0.2497517 0.02994833 8
1.6895933 0.24648528 -0.14938495 5
1.6997383 0.24735937 -0.090017848 6
1.6820658 0.24448778 -0.029669091 7
1.6804687 0.24156015 0.029634187 8
1.6904434 0.24058554 -0.14938495 5
1.7084588 0.2428453 -0.090436541 6
1.6947886 0.24029869 -0.029878521 7
1.6793623 0.2351224 0.029599281 8
1.699208 0.23548251 -0.15008219 5
1.7014238 0.23548692 -0.090017848 6
1.6996197 0.23463267 -0.02994833 7
1.6861167 0.23007031 0.029703995 8
1.7059431 0.23034911 -0.15060511 5
1.6884197 0.2273837 -0.08928515 6
1.7043921 0.22923109 -0.030018138 7
1.688931 0.22415149 0.029738901 8
1.7185889 0.22595231 -0.151651 5
1.6991047 0.22278649 -0.089808509 6
1.6932851 0.22172365 -0.029808709 7
1.7057778 0.21790963 -0.090122528 6
1.6940488 0.21581119 -0.029808709 7
1.7065278 0.2119552 -0.090122528 6
1.706699 0.21137075 -0.030018138 7
1.6993258 0.20503955 -0.089703836 6
1.7153679 0.20636775 -0.030157758 7
1.6960638 0.19864142 -0.089494489 6
1.7121056 0.19991446 -0.03008795 7
1.7086538 0.19407265 -0.090122528 6
1.7127929 0.19393723 -0.03008795 7
1.717262 0.18898059 -0.090541214 6
1.7055082 0.18708545 -0.02994833 7
1.7258552 0.18383159 -0.090959899 6
1.7141051 0.18197496 -0.03008795 7
1.7145659 0.17657882 -0.090331867 6
1.7266344 0.17751636 -0.030297378 7
1.7111673 0.17049563 -0.090122528 6
1.7197044 0.1652862 -0.090541214 6
1.7341921 0.16057083 -0.091273919 6
1.4181141 1.0570303 -0.21717119 4
1.4059386 1.0475723 -0.1533941 5
1.4217955 1.0520734 -0.21717119 4
1.4110603 1.0365274 -0.21497753 4
1.4083995 1.0341944 -0.15287116 5
1.4186132 1.0193778 -0.21449007 4
1.4110614 1.013577 -0.15199961 5
1.4253953 1.0167248 -0.21497753 4
1.4181026 1.0037018 -0.15199961 5
1.4183372 0.9964546 -0.151651 5
1.4462289 1.010029 -0.279392 3
1.4276496 0.99631321 -0.21375884 4
1.432009 0.99824095 -0.091483258 6
1.4432518 1.0004733 -0.27814052 3
1.4311185 0.99132401 -0.21375884 4
1.4239881 0.98528099 -0.09075056 6
1.4369708 0.9887113 -0.2762633 3
1.4345703 0.9863221 -0.21375884 4
1.4208329 0.9757818 -0.090331867 6
1.4298064 0.97571337 -0.21254015 4
1.4356625 0.97311354 -0.27469894 3
1.4287429 0.96733207 -0.15095374 5
1.4439678 0.97140366 -0.27563757 3
1.4276572 0.95862252 -0.090122528 6
1.444064 0.96416396 -0.27501184 3
1.4399449 0.96068817 -0.21254015 4
1.430995 0.95363277 -0.090122528 6
1.4399794 0.95346373 -0.21205269 4
1.4321488 0.9479183 -0.1502565 5
1.4383222 0.94516057 -0.21132146 4
1.4974281 0.97802365 -0.34765401 2
1.4458098 0.94359124 -0.27344745 3
1.4420693 0.94007367 -0.15060511 5
1.4780146 0.96240389 -0.030786045 7
1.4408935 0.93144262 -0.02994833 7
1.4444762 0.928406 -0.21083398 4
1.44077 0.92424738 -0.029878521 7
1.4526525 0.92793936 -0.3350606 2
1.4560766 0.92869514 -0.21205269 4
1.4456742 0.92028666 -0.029913425 7
1.4542247 0.92181152 -0.33467901 2
1.4438057 0.91203123 -0.029808709 7
1.4552068 0.91426641 -0.27219599 3
1.4479709 0.90866327 -0.14955924 5
1.4617422 0.91127098 -0.27282172 3
1.4522439 0.90499777 -0.21010277 4
1.4535487 0.89913291 -0.20985903 4
1.4460957 0.8931275 -0.089075804 6
1.4583704 0.89509165 -0.21010277 4
1.4460117 0.88577104 -0.029599281 7
1.490519 0.90946001 -0.40311229 1
1.4525126 0.88279486 -0.029669091 7
1.4736801 0.89214075 -0.39771348 1
1.4583378 0.88041997 -0.14903632 5
1.4794002 0.88856304 0.030122854 8
1.467104 0.87978369 -0.27094454 3
1.4610063 0.87543291 -0.20912781 4
1.4482872 0.86266714 0.029424759 8
1.4768311 0.87932092 -0.39681366 1
1.4642048 0.87007248 -0.20912781 4
1.4581794 0.86545926 -0.088866465 6
1.4739214 0.86924613 -0.21010277 4
1.4545075 0.85608697 -0.029459663 7
1.4506754 0.85076642 0.029354947 8
1.4753468 0.86454237 -0.3323893 2
1.4573382 0.85125917 -0.029459663 7
1.4534888 0.84595066 0.029354947 8
1.4648641 0.84983546 -0.14816476 5
1.4786628 0.85233098 -0.27031878 3
1.4752774 0.84319043 -0.20864034 4
1.4691526 0.83866972 -0.088657118 6
1.4782115 0.838036 -0.20864034 4
1.4654561 0.82911474 -0.029389855 7
1.5077212 0.85025138 -0.46380374 0
1.486496 0.83725631 -0.33162606 2
1.4683408 0.82399529 -0.029389855 7
1.50225 0.84026754 -0.46121556 0
1.4791849 0.82465714 -0.14816476 5
1.4689951 0.81461298 0.029320043 8
1.4674891 0.81310833 0.087924413 9
1.4827998 0.82091439 -0.26844159 3
