# .PCD v0.7 - Point Cloud Data file format
VERSION 0.7
FIELDS x y z intensity
SIZE 4 4 4 4
TYPE F F F F
COUNT 1 1 1 1
WIDTH 800
HEIGHT 1
VIEWPOINT 0 0 0 1 0 0 0
POINTS 800
DATA ascii
2.1981816 0.76290816 -0.1219428 6
2.1950321 0.75366908 -0.12162878 6
2.1842816 0.74188906 -0.12089607 6
2.1831987 0.73260796 -0.12068672 6
2.1895344 0.72623974 -0.12089607 6
2.1919305 0.71897542 -0.12089607 6
2.1906266 0.71008843 -0.12068672 6
2.2124472 0.71673363 -0.040594298 7
2.1853619 0.7003814 -0.12026804 6
2.2092218 0.70717794 -0.040489584 7
2.176369 0.68913072 -0.11964 6
2.2097697 0.69885951 -0.040454678 7
2.1789155 0.68241334 -0.19976096 5
2.1863859 0.68391514 -0.1200587 6
2.1988351 0.68696684 -0.040210344 7
2.1717675 0.67185855 -0.1988894 5
2.1811266 0.67392099 -0.11964 6
2.1934586 0.67731088 -0.040070724 7
2.1645718 0.6613642 -0.19801784 5
2.1948106 0.67018348 -0.12026804 6
2.20346 0.67198497 -0.040210344 7
2.1591239 0.65187854 -0.19732061 5
2.1856637 0.65905786 -0.11964 6
2.2019629 0.66313553 -0.040140536 7
2.1728425 0.64775246 -0.19836646 5
2.1879504 0.65142602 -0.11964 6
2.2042646 0.65544462 -0.040140536 7
2.1750903 0.6401633 -0.19836646 5
2.1940436 0.64491063 -0.11984935 6
2.198864 0.64549375 -0.040000916 7
2.1658318 0.62923324 -0.19732061 5
2.1924453 0.63613433 -0.11964 6
2.1934211 0.63558751 -0.039861299 7
2.168015 0.6216687 -0.19732061 5
2.1946523 0.62847781 -0.11964 6
2.1994717 0.62902737 -0.039931107 7
2.2158449 0.6299454 0.040210344 8
2.1701717 0.6140976 -0.19732061 5
2.1814568 0.61646748 -0.11880264 6
2.2055025 0.62243259 -0.040000916 7
2.2026272 0.61788642 0.039931107 8
2.1718881 0.60681093 -0.27688718 4
2.1684642 0.60544628 -0.19697197 5
2.1797473 0.60777658 -0.11859328 6
2.2076621 0.61472964 -0.040000916 7
2.2221155 0.61499494 0.040245246 8
2.1491146 0.59236902 -0.27371857 4
2.1782482 0.59998912 -0.19766922 5
2.189559 0.6022824 -0.11901198 6
2.2020814 0.60490137 -0.039861299 7
2.2336817 0.61064708 0.040419776 8
2.1567113 0.58717823 -0.2744498 4
2.1724319 0.5910511 -0.19697197 5
2.1818032 0.59278291 -0.11848862 6
2.1923914 0.59483796 -0.039651867 7
2.2164917 0.59764075 0.040070724 8
2.1587479 0.57964581 -0.2744498 4
2.1706333 0.58243215 -0.19662334 5
2.1877177 0.58619666 -0.11869796 6
2.1983178 0.58821571 -0.039721675 7
2.2089016 0.58733135 0.039896201 8
2.1607578 0.57210827 -0.2744498 4
2.1803577 0.57688957 -0.19732061 5
2.1820261 0.57651722 -0.11827926 6
2.2099237 0.5834744 -0.039896201 7
2.2127719 0.58051002 0.039931107 8
2.1549606 0.56293237 -0.27347484 4
2.1785023 0.56826878 -0.19697197 5
2.1723301 0.56625491 -0.11765125 6
2.2080765 0.57474869 -0.039826389 7
2.2205927 0.5742839 0.040035821 8
2.1511457 0.5539211 -0.27274361 4
2.1803746 0.56104189 -0.19697197 5
2.1820312 0.56065619 -0.11806992 6
2.2023211 0.56505126 -0.039686773 7
2.2245209 0.56702447 0.040070724 8
2.1511412 0.54592198 -0.27249986 4
2.1668699 0.54951 -0.19557749 5
2.1917193 0.5549987 -0.11848862 6
2.1926482 0.55441844 -0.039477345 7
2.2167897 0.55681968 0.039896201 8
2.1480582 0.53796053 -0.3507261 3
2.162663 0.54081714 -0.27371857 4
2.1726408 0.54290831 -0.19592611 5
2.1897676 0.54637712 -0.11827926 6
2.1983554 0.54811126 -0.039547153 7
2.21086 0.54754198 0.039756581 8
2.2374396 0.55329698 0.1207914 9
2.1536658 0.53178185 -0.35135183 3
2.1702268 0.53506744 -0.2744498 4
2.1745224 0.53532255 -0.19592611 5
2.1876886 0.53815782 -0.11806992 6
2.2041392 0.54138875 -0.039616965 7
2.2108147 0.53934777 0.039721675 8
2.2315955 0.54359221 0.12037271 9
2.1401536 0.52052671 -0.34884888 3
2.1566491 0.52374041 -0.27249986 4
2.1724136 0.52716839 -0.19557749 5
2.1817896 0.52863622 -0.11765125 6
2.2137899 0.53557283 -0.039756581 7
2.2243505 0.5344308 0.039931107 8
2.2393057 0.53719735 0.12068672 9
2.1323524 0.51075172 -0.34728456 3
2.1546025 0.51528716 -0.27201241 4
2.1819918 0.52143377 -0.19627473 5
2.1797361 0.52009058 -0.1174419 6
2.200084 0.52413398 -0.039477345 7
2.2281485 0.52712286 0.039966013 8
2.2469985 0.53075421 0.12100074 9
2.1456578 0.50602627 -0.34916177 3
2.1602528 0.50867242 -0.27249986 4
2.1682827 0.51016384 -0.19488023 5
2.1854267 0.51339263 -0.11765125 6
2.1980064 0.51553833 -0.039407536 7
2.2163415 0.5161674 0.039721675 8
2.2391109 0.52064526 0.12047738 9
2.1320179 0.49495924 -0.34665883 3
2.1620152 0.50112909 -0.27249986 4
2.1622868 0.50079334 -0.19418299 5
2.194989 0.50756127 -0.11806992 6
2.1958957 0.50696242 -0.039337724 7
2.2142317 0.50753367 0.039651867 8
2.2448084 0.51371765 0.12068672 9
2.1298809 0.48663452 -0.3460331 3
2.1714931 0.49534461 -0.27347484 4
2.1679065 0.49412847 -0.19453162 5
2.1811678 0.49635026 -0.11723255 6
2.1976521 0.4992947 -0.039337724 7
2.2120883 0.49892196 0.039582059 8
2.2310007 0.50236815 0.11984935 9
2.1315665 0.47919732 -0.3460331 3
2.1615875 0.48515272 -0.27201241 4
2.1696181 0.48655853 -0.19453162 5
2.1750913 0.48698753 -0.11681387 6
2.2071877 0.49336469 -0.039477345 7
2.2255301 0.49379569 0.039791487 8
2.228754 0.49410295 0.11964 9
2.137084 0.47260639 -0.34665883 3
2.1593909 0.47674894 -0.27152494 4
2.1829772 0.4815568 -0.19557749 5
2.1806788 0.48025164 -0.11702321 6
2.1970935 0.48346466 -0.039267913 7
2.2232475 0.48555988 0.039721675 8
2.2343683 0.48717159 0.11984935 9
2.1386397 0.46551639 -0.34665883 3
2.16096 0.46958596 -0.27152494 4
2.1690679 0.4705551 -0.19418299 5
2.1900671 0.47471043 -0.1174419 6
2.1909499 0.47410116 -0.039128296 7
2.2171087 0.47611633 0.039582059 8
2.2438667 0.48104325 0.12026804 9
2.1116009 0.45268792 -0.41977981 2
2.1402512 0.45804977 -0.34665883 3
2.1664686 0.46286887 -0.27201241 4
2.1667194 0.46252817 -0.19383438 5
2.187804 0.46622959 -0.11723255 6
2.1965034 0.46728203 -0.039198104 7
2.2168005 0.46796173 0.039547153 8
2.2513952 0.47444269 0.12058206 9
2.1150897 0.44571862 -0.42016143 2
2.1302385 0.44813555 -0.34478158 3
2.1719563 0.45612007 -0.27249986 4
2.1722207 0.45577976 -0.19418299 5
2.1815987 0.45695257 -0.11681387 6
2.2059507 0.46124849 -0.039337724 7
2.2203784 0.46062636 0.039582059 8
2.2373912 0.46334234 0.11974468 9
2.1320119 0.44151929 -0.42321438 2
2.2593317 0.46747372 0.20185271 10
2.1356592 0.44149622 -0.34540737 3
2.1657588 0.44693041 -0.27152494 4
2.1698959 0.44738933 -0.19383438 5
2.1792681 0.44852874 -0.11660452 6
2.2075472 0.453547 -0.039337724 7
2.2200134 0.45247522 0.039547153 8
2.2292092 0.45353797 0.11922132 9
2.1277688 0.43289971 -0.42206952 2
2.2492352 0.45720354 0.20080683 10
2.1371872 0.43403912 -0.34540737 3
2.1634147 0.43857944 -0.27103746 4
2.1870658 0.44297674 -0.19522884 5
2.1808207 0.44091839 -0.11660452 6
2.2051966 0.44504666 -0.039267913 7
2.2215793 0.44472256 0.039547153 8
2.2346957 0.44653702 0.11943066 9
2.1215658 0.42393142 -0.42054302 2
2.2430017 0.4477897 0.20010957 10
2.1425636 0.42734849 -0.3460331 3
2.1649325 0.43102548 -0.27103746 4
2.1690581 0.43145227 -0.19348574 5
2.1862643 0.4340826 -0.11681387 6
2.1988904 0.43579185 -0.039128296 7
2.2172315 0.43580747 0.039442439 8
2.2401609 0.43950224 0.11964 9
2.1268861 0.41727862 -0.42130631 2
2.2386858 0.43880713 0.19958666 10
2.132411 0.41758963 -0.34415585 3
2.1703203 0.42422688 -0.27152494 4
2.162729 0.42235115 -0.1927885 5
2.1956074 0.42797637 -0.11723255 6
2.2082498 0.42964065 -0.039267913 7
2.2108855 0.42655045 0.039302818 8
2.2416813 0.43167934 0.11964 9
2.1321855 0.41059375 -0.42206952 2
2.2421603 0.43136686 0.19976096 10
2.1338556 0.41014403 -0.34415585 3
2.1717877 0.41664892 -0.27152494 4
2.1720171 0.41629991 -0.19348574 5
2.185318 0.41805848 -0.11660452 6
2.2018795 0.42042902 -0.039128296 7
2.2143259 0.41920179 0.039337724 8
2.2392492 0.42311054 0.11943066 9
2.1336057 0.40314898 -0.42206952 2
2.2534416 0.42538494 0.20063251 10
2.1352742 0.40269244 -0.34415585 3
2.1615243 0.40686166 -0.27006248 4
2.1773734 0.40945148 -0.19383438 5
2.1749861 0.4082166 -0.11597649 6
2.2033334 0.41274095 -0.039128296 7
2.2236397 0.41293064 0.039477345 8
2.2367849 0.41456407 0.11922132 9
2.1292086 0.39462596 -0.42092466 2
2.2529538 0.4171541 0.20045821 10
2.1405516 0.3959555 -0.34478158 3
2.1590269 0.39859372 -0.269575 4
2.1787894 0.40184897 -0.19383438 5
2.1842551 0.40206775 -0.11639518 6
2.1929603 0.40287879 -0.038918864 7
2.2290027 0.40588206 0.039547153 8
2.1166723 0.38504606 -0.49669194 1
2.2401836 0.40711135 0.119326 9
2.1267099 0.38648963 -0.42016143 2
2.2426338 0.40715125 0.19941233 10
2.1458085 0.3891857 -0.34540737 3
2.1682184 0.39246854 -0.27054995 4
2.1625333 0.39104971 -0.19226557 5
2.1895761 0.39515069 -0.11660452 6
2.186481 0.39380518 -0.038779248 7
2.2205627 0.39634255 0.039372627 8
2.1026554 0.37491897 -0.49309272 1
2.2454538 0.40038097 0.11953534 9
2.1299787 0.37940735 -0.42054302 2
2.2342336 0.39757571 0.19854078 10
2.1374292 0.37996483 -0.34384301 3
2.1695752 0.38489708 -0.27054995 4
2.1599615 0.3828038 -0.19191694 5
2.1948757 0.38820034 -0.11681387 6
2.2035284 0.38933519 -0.039058488 7
2.2139862 0.38759679 0.03923301 8
2.1019676 0.36760893 -0.49264279 1
2.2468379 0.3925398 0.11953534 9
2.1274221 0.37129438 -0.41977981 2
2.2493472 0.39217028 0.19976096 10
2.1367311 0.37253585 -0.34353012 3
2.1708395 0.37770081 -0.27054995 4
2.1671739 0.37628374 -0.19243988 5
2.1843436 0.37887222 -0.11618583 6
2.204874 0.38164049 -0.039058488 7
2.2232091 0.38121846 0.039372627 8
2.1032381 0.36026889 -0.49264279 1
2.2383509 0.38301173 0.11901198 9
2.1325119 0.36490124 -0.42054302 2
2.2506354 0.3847084 0.19976096 10
2.1380188 0.36507443 -0.34353012 3
2.1623602 0.36845416 -0.26933128 4
2.1723378 0.36976412 -0.1927885 5
2.1817145 0.37057665 -0.11597649 6
2.206193 0.37394112 -0.039058488 7
2.2225544 0.373124 0.039337724 8
2.1064045 0.35324779 -0.49309272 1
2.2317948 0.3738755 0.11859328 9
2.1260276 0.35615709 -0.41901657 2
2.2558947 0.37750694 0.20010957 10
2.1451252 0.35858667 -0.34446874 3
2.2595112 0.37730256 0.28127447 11
2.1577594 0.35992345 -0.26860005 4
2.1755803 0.3625069 -0.1929628 5
2.1829948 0.36295822 -0.11597649 6
2.2035391 0.36558476 -0.03898868 7
2.2297623 0.36633763 0.039442439 8
2.1095479 0.34620795 -0.49354258 1
2.2370286 0.36672845 0.11880264 9
2.1233833 0.34809798 -0.41825336 2
2.2395027 0.36673385 0.19854078 10
2.148313 0.35141492 -0.34478158 3
2.2706103 0.37101308 0.28249314 11
2.1707573 0.35430941 -0.27006248 4
2.1728997 0.3542687 -0.19261418 5
2.1921339 0.35662028 -0.11639518 6
2.2008541 0.35724932 -0.038918864 7
2.2172072 0.35633039 0.039198104 8
2.1184402 0.3400771 -0.49534222 1
2.242239 0.35955048 0.11901198 9
2.1245854 0.34068432 -0.41825336 2
2.2427368 0.35922885 0.19871511 10
2.1378236 0.34204072 -0.34290439 3
2.2758119 0.36371195 0.28298062 11
2.1680605 0.34610346 -0.269575 4
2.1583831 0.34417126 -0.19121969 5
2.1973102 0.34959316 -0.11660452 6
2.2060378 0.35019222 -0.03898868 7
2.2144871 0.34796733 0.039128296 8
2.108063 0.33086878 -0.49264279 1
2.247365 0.35273278 0.11922132 9
2.1335199 0.33448178 -0.41977981 2
2.2439771 0.35139742 0.19871511 10
2.1351011 0.33396715 -0.34227866 3
2.2653 0.35392648 0.28151822 11
2.1731782 0.33914503 -0.27006248 4
2.1713829 0.3384777 -0.19226557 5
2.190623 0.34069264 -0.11618583 6
2.2111387 0.3434881 -0.039058488 7
2.2156286 0.34062237 0.039128296 8
2.0975919 0.32210115 -0.48994341 1
2.2367375 0.34306845 0.11859328 9
2.136615 0.32733011 -0.42016143 2
2.2491288 0.34416553 0.19906372 10
2.1420548 0.32778087 -0.34321725 3
2.2586119 0.34521326 0.28054324 11
2.1625168 0.33013853 -0.26860005 4
2.1705813 0.33059552 -0.19209124 5
2.1798937 0.33162355 -0.1155578 6
2.204416 0.33456793 -0.038918864 7
2.2286692 0.33466852 0.039337724 8
2.1064122 0.31593284 -0.491743 1
2.2339711 0.33466735 0.11838394 9
2.1202142 0.31762564 -0.41672686 2
2.2541986 0.33729538 0.19941233 10
2.1470933 0.32088512 -0.34384301 3
2.2637296 0.33791375 0.28103071 11
2.1558025 0.32141745 -0.26762509 4
2.179605 0.32418969 -0.1927885 5
2.1889403 0.32518667 -0.11597649 6
2.2055707 0.32687047 -0.038918864 7
2.2278454 0.32659632 0.039302818 8
2.1190712 0.31027254 -0.49444243 1
2.2430308 0.32802278 0.11880264 9
2.1174791 0.30928451 -0.41596362 2
2.2534482 0.32874289 0.19923802 10
2.1482549 0.31301394 -0.34384301 3
2.2707884 0.33086783 0.28176194 11
2.1628044 0.31474841 -0.26835632 4
2.1669216 0.31457525 -0.19156833 5
2.1940706 0.31773457 -0.11618583 6
2.2027397 0.31859756 -0.038849056 7
2.2191296 0.31701413 0.039128296 8
2.2402077 0.3196263 0.11859328 9
2.1243765 0.30272263 -0.41710848 2
2.2388022 0.31862849 0.19784354 10
2.1395559 0.30412269 -0.34227866 3
2.2759168 0.32310134 0.28224945 11
2.1698399 0.30765471 -0.26908755 4
2.1640611 0.30645007 -0.19121969 5
2.1991217 0.31063205 -0.11639518 6
2.2038386 0.31090602 -0.038849056 7
2.2221491 0.30993018 0.039163202 8
2.2492225 0.31290588 0.11901198 9
2.1254203 0.29530472 -0.41710848 2
2.249768 0.31218135 0.19871511 10
2.1444659 0.29756945 -0.34290439 3
2.2671442 0.31418923 0.28103071 11
2.1767471 0.30127442 -0.26981872 4
2.1651175 0.29889467 -0.19121969 5
2.1882684 0.30170152 -0.11576715 6
2.2049105 0.30321178 -0.038849056 7
2.2152913 0.30109471 0.039023582 8
2.2384262 0.3034423 0.11838394 9
2.1263881 0.28825435 -0.41710848 2
2.2527652 0.30498683 0.1988894 10
2.1454916 0.29008248 -0.34290439 3
2.2623255 0.30547601 0.28029951 11
2.1640146 0.29181677 -0.26811257 4
2.1779439 0.29330918 -0.19226557 5
2.1893084 0.29406062 -0.11576715 6
2.2138834 0.29657483 -0.03898868 7
2.2282233 0.29493386 0.03923301 8
2.2355113 0.2951057 0.11817461 9
2.1234884 0.28031772 -0.41634527 2
2.2577665 0.29764158 0.19923802 10
2.1464911 0.28259099 -0.34290439 3
2.2692823 0.29835498 0.28103071 11
2.1591151 0.28348634 -0.26738134 4
2.2896173 0.30021447 0.36574382 12
2.1750038 0.28518632 -0.19191694 5
2.1903214 0.28641716 -0.11576715 6
2.2030079 0.28729299 -0.038779248 7
2.2312226 0.28740898 0.039267913 8
2.2384586 0.28794503 0.11827926 9
2.1205597 0.27240285 -0.41558203 2
2.2429826 0.28773004 0.19784354 10
2.1513829 0.27559906 -0.34353012 3
2.2703102 0.29043129 0.28103071 11
2.162061 0.27619889 -0.26762509 4
2.2768843 0.29086736 0.36355373 12
2.1680806 0.27658439 -0.19121969 5
2.1952705 0.27927327 -0.11597649 6
2.2039483 0.27998745 -0.038779248 7
2.2182744 0.27826658 0.039023582 8
2.2453957 0.2808727 0.11859328 9
2.1253936 0.26548514 -0.41634527 2
2.24595 0.28014699 0.19801784 10
2.1483648 0.26797473 -0.34290439 3
2.2732306 0.28314579 0.28127447 11
2.1708446 0.27000821 -0.26860005 4
2.2778854 0.28291932 0.36355373 12
2.1690328 0.26901409 -0.19121969 5
2.1961844 0.27199239 -0.11597649 6
2.2049124 0.27229196 -0.038779248 7
2.2132773 0.26979622 0.038918864 8
2.2483454 0.2732735 0.11869796 9
2.1301603 0.25890878 -0.41710848 2
2.2508223 0.27317706 0.19836646 10
2.1414428 0.25952268 -0.3416529 3
2.2623808 0.27377751 0.27981204 11
2.1757154 0.26290566 -0.26908755 4
2.2867036 0.27591217 0.36480519 12
2.1679349 0.26158163 -0.19104539 5
2.1891887 0.26337087 -0.1155578 6
2.2137911 0.26554576 -0.038918864 7
2.2142055 0.26206821 0.038918864 8
2.2354009 0.26378676 0.11796526 9
2.1271515 0.25101289 -0.41634527 2
2.2517622 0.26531795 0.19836646 10
2.1423357 0.25204653 -0.3416529 3
2.2574081 0.26518542 0.27908084 11
2.1628187 0.25368997 -0.26738134 4
2.287653 0.2679278 0.36480519 12
2.1747715 0.25470722 -0.19156833 5
2.1821594 0.25480041 -0.11513911 6
2.2147045 0.25781807 -0.038918864 7
2.2270267 0.2557067 0.039128296 8
2.2343237 0.25575444 0.11786059 9
2.1280148 0.24358565 -0.41634527 2
2.2566338 0.25790918 0.19871511 10
2.1549783 0.24591005 -0.34353012 3
2.2662094 0.25820225 0.28005576 11
2.163691 0.24613923 -0.26738134 4
2.282686 0.25927249 0.36386663 12
2.1776268 0.24733962 -0.19174263 5
2.190974 0.24808103 -0.1155578 6
2.2116168 0.24963656 -0.038849056 7
2.2318802 0.24837415 0.039198104 8
2.241158 0.24861471 0.11817461 9
2.1229982 0.23550709 -0.41520041 2
2.2436583 0.24849568 0.19749491 10
2.1577871 0.23860283 -0.34384301 3
2.2749891 0.25116193 0.28103071 11
2.1684833 0.23902048 -0.26786885 4
2.2776866 0.25065398 0.362928 12
2.1725357 0.23908237 -0.19121969 5
2.1957972 0.2408676 -0.11576715 6
2.1965718 0.24017668 -0.038569819 7
2.224781 0.23972441 0.039058488 8
2.2420123 0.24078949 0.11817461 9
2.1179514 0.22746548 -0.41405553 2
2.2464931 0.24087417 0.19766922 10
2.1428936 0.2293877 -0.34134007 3
2.275852 0.2432186 0.28103071 11
2.1673305 0.23123844 -0.26762509 4
2.2765834 0.24249308 0.36261514 12
2.171376 0.23128678 -0.19104539 5
2.2005968 0.23362249 -0.11597649 6
2.2093287 0.23376967 -0.038779248 7
2.2136707 0.23071375 0.038849056 8
2.2487991 0.2335804 0.11848862 9
2.2473204 0.23303145 0.19766922 10
2.143681 0.22190665 -0.34134007 3
2.2608907 0.23363991 0.27908084 11
2.1740484 0.2242832 -0.26835632 4
2.2813458 0.23495007 0.36324087 12
2.1741517 0.22391041 -0.19121969 5
2.1855042 0.22430868 -0.11513911 6
2.2180884 0.22686954 -0.038918864 7
2.2224214 0.223786 0.03898868 8
2.2416513 0.22493201 0.11806992 9
2.2540674 0.22578053 0.19819216 10
2.1444426 0.21442291 -0.34134007 3
2.2597172 0.22554982 0.27883708 11
2.162966 0.21551153 -0.26689389 4
2.2880492 0.22757116 0.36417946 12
2.1709549 0.21592489 -0.19087107 5
2.1842864 0.21648091 -0.11503445 6
2.2188668 0.21912605 -0.038918864 7
2.2251792 0.2162208 0.039023582 8
2.238447 0.21672136 0.11786059 9
2.2568247 0.21810311 0.19836646 10
2.1491108 0.20731489 -0.34196579 3
2.2624667 0.21785131 0.27908084 11
2.1597531 0.20758067 -0.26640642 4
2.2770317 0.21845162 0.36230227 12
2.1796286 0.20910706 -0.19156833 5
2.1969578 0.20999572 -0.11566247 6
2.2116556 0.21062054 -0.038779248 7
2.2358751 0.2093838 0.039198104 8
2.2431669 0.20927794 0.11806992 9
2.2456696 0.20911501 0.19732061 10
2.1537549 0.20017686 -0.34259152 3
2.2750728 0.21105315 0.28054324 11
2.1683712 0.20077196 -0.26738134 4
2.2640114 0.2092289 0.36011216 12
2.1724095 0.20076351 -0.19087107 5
2.3224871 0.21422528 0.4533622 13
2.1976774 0.20232503 -0.11566247 6
2.2044115 0.20217012 -0.038639627 7
2.2206595 0.20014235 0.038918864 8
2.2498517 0.20198171 0.11838394 9
2.250355 0.20162992 0.19766922 10
2.1465704 0.19195433 -0.34134007 3
2.2817273 0.20363916 0.28127447 11
2.1710362 0.19337727 -0.26762509 4
2.2785013 0.20254962 0.36230227 12
2.1730969 0.19317961 -0.19087107 5
2.3193097 0.20576937 0.45259899 13
2.2023494 0.19500419 -0.11587181 6
2.2090878 0.19482481 -0.038709439 7
2.215368 0.1918724 0.038814154 8
2.252533 0.19429916 0.11848862 9
2.2530301 0.19394591 0.19784354 10
2.1472275 0.18445966 -0.34134007 3
2.2646239 0.19414657 0.27908084 11
2.1736758 0.18596847 -0.26786885 4
2.285099 0.19509844 0.36324087 12
2.1737583 0.18559232 -0.19087107 5
2.1950562 0.18664004 -0.11545313 6
2.2177248 0.18778677 -0.038849056 7
2.2160244 0.18413757 0.038814154 8
2.2412548 0.18544638 0.11786059 9
2.25965 0.1865714 0.19836646 10
2.149827 0.17712697 -0.3416529 3
2.2593527 0.18575288 0.27834961 11
2.162441 0.17740534 -0.26640642 4
2.2857659 0.18712234 0.36324087 12
2.1803498 0.17849256 -0.191394 5
2.1877317 0.1783271 -0.11503445 6
2.2143805 0.17972128 -0.038779248 7
2.2306073 0.17751198 0.039058488 8
2.2379065 0.17730573 0.11765125 9
2.2602875 0.17868309 0.19836646 10
2.1524014 0.16977638 -0.34196579 3
2.2718608 0.17879899 0.27981204 11
2.1590891 0.16954558 -0.26591894 4
2.278528 0.17852458 0.36198941 12
2.1789732 0.17072441 -0.19121969 5
2.1923234 0.1710005 -0.11524379 6
2.2110071 0.17168035 -0.038709439 7
2.2352011 0.17002739 0.039128296 8
2.2444863 0.16994682 0.11796526 9
2.2529507 0.17019121 0.19766922 10
2.1549509 0.16240993 -0.34227866 3
2.2784097 0.17131573 0.28054324 11
2.1636269 0.16230433 -0.26640642 4
2.2850468 0.17101163 0.362928 12
2.1755824 0.16281937 -0.19087107 5
2.1968904 0.16364296 -0.11545313 6
2.2076042 0.16366622 -0.038639627 7
2.2238145 0.16135518 0.038918864 8
2.2470579 0.16225432 0.11806992 9
2.2495565 0.16203901 0.19732061 10
2.2789938 0.16336095 0.28054324 11
2.1681402 0.15503347 -0.26689389 4
2.2718372 0.16205092 0.36073789 12
2.1721897 0.15456201 -0.19052245 5
2.2054172 0.15653841 -0.11587181 6
2.2121515 0.15624146 -0.038709439 7
2.2183793 0.15317991 0.038814154 8
2.253588 0.15482076 0.11838394 9
2.2521231 0.15392925 0.19749491 10
2.2716284 0.1548641 0.27956831 11
2.1726291 0.14773409 -0.26738134 4
2.2802725 0.15465382 0.36198941 12
2.176692 0.14724709 -0.19087107 5
2.1900342 0.14738177 -0.11503445 6
2.2166741 0.14878593 -0.038779248 7
2.2269075 0.14556929 0.03895377 8
2.2401638 0.14604323 0.11765125 9
2.2605996 0.14658311 0.19819216 10
2.2563326 0.14551558 0.27761838 11
2.173156 0.13977051 -0.26738134 4
2.2886837 0.14720087 0.36324087 12
2.181169 0.13990363 -0.19121969 5
2.1865489 0.13948134 -0.11482509 6
2.2171798 0.14104785 -0.038779248 7
2.2293739 0.13830808 0.03898868 8
2.2366731 0.13797615 0.1174419 9
2.2650747 0.1389346 0.19854078 10
2.2686913 0.13875902 0.27908084 11
2.1597378 0.13171783 -0.26567519 4
2.2793248 0.13861082 0.36167651 12
2.1856217 0.13252971 -0.19156833 5
2.1949739 0.13271335 -0.11524379 6
2.2096741 0.13282703 -0.038639627 7
2.2318392 0.13064152 0.039023582 8
2.2391348 0.13028434 0.11754657 9
2.2515996 0.13061532 0.19732061 10
2.2850161 0.13175358 0.28103071 11
2.1661298 0.12451933 -0.26640642 4
2.2758505 0.13042811 0.36105078 12
2.1761034 0.12471163 -0.19069678 5
2.1994116 0.12527722 -0.11545313 6
2.2061312 0.12488744 -0.038569819 7
2.2242951 0.12241003 0.038883962 8
2.2555301 0.12333934 0.11838394 9
2.2480628 0.12253749 0.19697197 10
2.2795155 0.12345393 0.28029951 11
2.1764627 0.11749182 -0.26762509 4
2.2782645 0.12258971 0.36136368 12
2.1725464 0.1169012 -0.19034813 5
2.2038245 0.11781172 -0.11566247 6
2.2065537 0.11718526 -0.038569819 7
2.2207146 0.11443967 0.038814154 8
2.2559268 0.1158595 0.11838394 9
2.2544465 0.11499452 0.19749491 10
2.2720022 0.11509493 0.27932456 11
2.1768594 0.10989429 -0.26762509 4
2.2964141 0.11592977 0.36417946 12
2.1709516 0.10921621 -0.19017383 5
2.1922538 0.10952076 -0.11503445 6
2.2229083 0.11066329 -0.038849056 7
2.2250767 0.10726793 0.038883962 8
2.2563174 0.10798462 0.11838394 9
2.2627947 0.10750192 0.19819216 10
2.2584915 0.10690352 0.27761838 11
2.1692803 0.10230136 -0.26665017 4
2.1892314 0.10247641 -0.19174263 5
2.1926048 0.10225083 -0.11503445 6
2.2272761 0.10308754 -0.038918864 7
2.2314308 0.099767663 0.03898868 8
2.2447088 0.099576272 0.1177559 9
2.2671196 0.10017398 0.19854078 10
2.2707503 0.099540271 0.27908084 11
2.1616912 0.094381601 -0.26567519 4
2.1835876 0.094956845 -0.19121969 5
2.2009301 0.09494029 -0.11545313 6
2.2116394 0.09462887 -0.038639627 7
2.2337635 0.092060722 0.039023582 8
2.2410514 0.091576479 0.11754657 9
2.2594926 0.091936126 0.19784354 10
2.2829847 0.092092723 0.28054324 11
2.1719248 0.087234087 -0.26689389 4
2.1799242 0.087174326 -0.19087107 5
2.2052393 0.087415718 -0.11566247 6
2.2079599 0.086750627 -0.038569819 7
2.2280762 0.084036164 0.038918864 8
2.2493412 0.084053062 0.11796526 9
2.2498443 0.083677605 0.19697197 10
2.2793245 0.083978459 0.28005576 11
2.1761837 0.079797029 -0.26738134 4
2.172251 0.079273216 -0.19017383 5
2.209523 0.079861149 -0.11587181 6
2.2082491 0.079044402 -0.038569819 7
2.2243588 0.076121897 0.038849056 8
2.253613 0.076335505 0.11817461 9
2.2560968 0.076025449 0.19749491 10
2.275636 0.075888686 0.27956831 11
2.1864536 0.072150588 -0.191394 5
2.1938188 0.071626022 -0.11503445 6
2.2284982 0.07198067 -0.038918864 7
2.2266099 0.068418868 0.038883962 8
2.2498732 0.068347648 0.11796526 9
2.2643144 0.068390816 0.19819216 10
2.2679501 0.067708299 0.27859333 11
2.1867034 0.06413684 -0.191394 5
2.1900625 0.063852817 -0.11482509 6
2.2287362 0.064200729 -0.038918864 7
2.23683 0.060917728 0.039058488 8
2.2381186 0.060171053 0.11733723 9
2.2585747 0.059932105 0.19766922 10
2.2681725 0.059790656 0.27859333 11
2.1849222 0.056451384 -0.19121969 5
2.1982684 0.056028411 -0.11524379 6
2.2169523 0.056117456 -0.038709439 7
2.2450345 0.052907873 0.039198104 8
2.2463109 0.052153461 0.1177559 9
2.2607622 0.052094214 0.19784354 10
2.2802842 0.051747717 0.28005576 11
2.1811306 0.048355032 -0.19087107 5
2.2024441 0.048442975 -0.11545313 6
2.2131445 0.047905482 -0.038639627 7
2.2312107 0.044789385 0.03895377 8
2.2504733 0.044390235 0.11796526 9
2.2549617 0.043691386 0.19732061 10
2.2883897 0.043939549 0.28103071 11
2.1792941 0.040703379 -0.19069678 5
2.2066007 0.040442925 -0.11566247 6
2.2212958 0.040324468 -0.038779248 7
2.2213564 0.036835428 0.038779248 8
2.2625964 0.036729321 0.11859328 9
2.2590785 0.03627786 0.19766922 10
2.2746351 0.035732437 0.27932456 11
2.1834016 0.033536956 -0.19104539 5
2.1987345 0.033005886 -0.11524379 6
2.2214231 0.032569863 -0.038779248 7
2.2314689 0.029211504 0.03895377 8
2.2527254 0.028703334 0.11806992 9
2.2651682 0.028466487 0.19819216 10
2.2668064 0.02769574 0.27834961 11
2.1874897 0.02596405 -0.191394 5
2.1988363 0.025330082 -0.11524379 6
2.2295213 0.024905264 -0.038918864 7
2.233557 0.021441715 0.03898868 8
2.2488174 0.020802133 0.11786059 9
2.2652538 0.020559879 0.19819216 10
2.1955361 0.018394312 -0.19209124 5
2.2029057 0.01768709 -0.11545313 6
2.2135975 0.016999187 -0.038639627 7
2.245616 0.013717709 0.039198104 8
2.2468791 0.012942207 0.1177559 9
2.2573421 0.012607429 0.19749491 10
2.1796482 0.010651871 -0.19069678 5
2.1989596 0.009978693 -0.11524379 6
2.2096441 0.0092569515 -0.038569819 7
2.2316525 0.0058417232 0.03895377 8
2.2588942 0.0051256502 0.11838394 9
2.2553799 0.004722984 0.19732061 10
2.1776795 0.0030410904 -0.19052245 5
2.2149591 0.0023189734 -0.11608116 6
2.2136624 0.0015460034 -0.038639627 7
2.2236607 -0.0019405102 0.038814154 8
2.2588983 -0.0027597661 0.11838394 9
2.2533903 -0.0031463283 0.19714628 10
2.20297 -0.0053828824 -0.11545313 6
2.2256525 -0.0062152096 -0.038849056 7
2.2336404 -0.0093563059 0.03898868 8
2.2468932 -0.010196147 0.1177559 9
2.265322 -0.010675156 0.19819216 10
2.1989458 -0.012665158 -0.11524379 6
2.2256196 -0.013595705 -0.038849056 7
2.2375932 -0.01718382 0.039058488 8
2.2508385 -0.018071275 0.11796526 9
2.2652709 -0.01858254 0.19819216 10
2.2068768 -0.020414731 -0.11566247 6
2.2175601 -0.021287704 -0.038709439 7
2.2475176 -0.025106056 0.03923301 8
2.2507617 -0.025928058 0.11796526 9
2.265192 -0.026489696 0.19819216 10
2.2147806 -0.02821983 -0.11608116 6
2.2174723 -0.029028304 -0.038709439 7
2.2314203 -0.032716673 0.03895377 8
2.2526546 -0.033814501 0.11806992 9
2.2611017 -0.03433603 0.19784354 10
2.2106743 -0.035885852 -0.11587181 6
2.2173576 -0.036768548 -0.038709439 7
2.2212958 -0.040324111 0.038779248 8
2.2585135 -0.041788366 0.11838394 9
2.2569838 -0.042154122 0.19749491 10
2.2025483 -0.043444775 -0.11545313 6
2.2292113 -0.044749152 -0.038918864 7
2.235136 -0.048380554 0.039023582 8
2.2543602 -0.049583964 0.11817461 9
2.2667823 -0.050253004 0.19836646 10
2.2023833 -0.051132839 -0.11545313 6
2.2250433 -0.052436054 -0.038849056 7
2.246948 -0.056483854 0.03923301 8
2.2441905 -0.057198409 0.11765125 9
2.2546427 -0.057858571 0.19732061 10
2.2061844 -0.058926929 -0.11566247 6
2.2168508 -0.059986219 -0.038709439 7
2.2447381 -0.064269587 0.039198104 8
2.2499664 -0.065205321 0.11796526 9
2.2099578 -0.066748187 -0.11587181 6
2.2166281 -0.067724116 -0.038709439 7
2.2325082 -0.07171955 0.03898868 8
2.2577097 -0.073318072 0.11838394 9
2.2156999 -0.074663766 -0.11618583 6
2.2243721 -0.075733349 -0.038849056 7
2.2322443 -0.07951203 0.03898868 8
2.2694159 -0.081629269 0.11901198 9
2.2320876 -0.083797477 -0.03898868 7
2.2379475 -0.087538004 0.03909339 8
2.2571428 -0.089077942 0.11838394 9
2.2277853 -0.091424413 -0.038918864 7
2.2416244 -0.095519647 0.039163202 8
2.2488368 -0.096613392 0.11796526 9
2.2274528 -0.099200279 -0.038918864 7
2.2472699 -0.10362009 0.039267913 8
2.2564659 -0.10483347 0.11838394 9
2.2151084 -0.10639929 -0.038709439 7
2.2329137 -0.11077034 0.039023582 8
2.268055 -0.1133073 0.11901198 9
2.2227116 -0.11454246 -0.038849056 7
2.2345102 -0.11867005 0.039058488 8
2.2676668 -0.12082782 0.11901198 9
2.2263131 -0.12213168 -0.038918864 7
2.2380977 -0.12630466 0.039128296 8
2.2512789 -0.12783687 0.11817461 9
2.2338583 -0.13036823 -0.039058488 7
2.2456274 -0.13459484 0.039267913 8
2.2548296 -0.13554135 0.11838394 9
2.2254303 -0.13728276 -0.038918864 7
2.2491603 -0.14229339 0.039337724 8
2.2289283 -0.14531031 -0.03898868 7
2.2466285 -0.15040246 0.039302818 8
2.2381108 -0.1576816 0.039163202 8
2.2375178 -0.16588362 0.039163202 8
2.2449303 -0.17392042 0.039302818 8
2.250289 -0.18223989 0.039407536 8
2.2396762 -0.18925187 0.03923301 8
2.233026 -0.19654265 0.039128296 8
2.2402916 -0.20506531 0.039267913 8
2.2375715 -0.21269491 0.03923301 8
