# .PCD v0.7 - Point Cloud Data file format
VERSION 0.7
FIELDS x y z intensity
SIZE 4 4 4 4
TYPE F F F F
COUNT 1 1 1 1
WIDTH 691
HEIGHT 1
VIEWPOINT 0 0 0 1 0 0 0
POINTS 691
DATA ascii
2.2109053 0.97604746 -0.21143983 5
2.2197754 0.97071826 -0.21196276 5
2.2066953 0.95583814 -0.21039395 5
2.2142565 0.95819432 -0.12644368 6
2.2063565 0.94655788 -0.21004534 5
2.2175875 0.95045972 -0.12644368 6
2.2169824 0.94196761 -0.21074259 5
2.2116997 0.93881065 -0.12592033 6
2.216584 0.93267697 -0.21039395 5
2.2186453 0.93263304 -0.12612967 6
2.2161481 0.92340076 -0.21004534 5
2.2255754 0.92641735 -0.126339 6
2.2064652 0.91034073 -0.20882516 5
2.2286351 0.91903239 -0.126339 6
2.2168489 0.90603429 -0.2095224 5
2.2207351 0.90671808 -0.12571098 6
2.2374718 0.90581483 -0.29638627 4
2.2236922 0.89978468 -0.20987104 5
2.2164798 0.89596611 -0.12529229 6
2.2277217 0.892829 -0.29468012 4
2.2286687 0.89275831 -0.21004534 5
2.2270114 0.8911913 -0.12571098 6
2.238205 0.88797712 -0.29565504 4
2.2225113 0.88130069 -0.20917378 5
2.2412491 0.88782698 -0.126339 6
2.2523775 0.88451195 -0.2971175 4
2.2255743 0.87353671 -0.20917378 5
2.2443349 0.87999755 -0.126339 6
2.2515981 0.87559825 -0.29663 4
2.2286093 0.86576426 -0.20917378 5
2.2360702 0.86821222 -0.12571098 6
2.2509351 0.86630899 -0.29614252 4
2.2353375 0.85940903 -0.2095224 5
2.2279007 0.85610366 -0.12508295 6
2.2593782 0.8609665 -0.38295162 3
2.2465253 0.85561967 -0.2951676 4
2.242048 0.85301852 -0.20987104 5
2.2422256 0.85218906 -0.12571098 6
2.2507174 0.85496819 -0.042025398 7
2.2716117 0.85655874 -0.38451597 3
2.2533617 0.8487789 -0.29565504 4
2.2356889 0.84167653 -0.20899945 5
2.2564027 0.84857571 -0.126339 6
2.2387135 0.84147727 -0.041746158 7
2.2559333 0.84211332 -0.38138729 3
2.2561638 0.84130228 -0.29565504 4
2.2423477 0.83525783 -0.2093481 5
2.255461 0.83969539 -0.12612967 6
2.2435114 0.83435398 -0.04178106 7
2.2495935 0.83081222 -0.37982294 3
2.2628117 0.83479518 -0.29614252 4
2.2451046 0.82781881 -0.2093481 5
2.2471333 0.82767481 -0.12550163 6
2.2501636 0.82789904 -0.041850869 7
2.2487693 0.82159817 -0.37919718 3
2.2545233 0.82280856 -0.29468012 4
2.2517242 0.82134181 -0.20969671 5
2.2462554 0.81845874 -0.12529229 6
2.256798 0.82140791 -0.041920681 7
2.2553394 0.81508577 -0.37982294 3
2.261116 0.81628126 -0.2951676 4
2.262074 0.81618094 -0.21039395 5
2.2490988 0.8106122 -0.12529229 6
2.2502439 0.8101387 -0.041746158 7
2.2656109 0.80986828 -0.3810744 3
2.2639513 0.80838406 -0.2951676 4
2.2536504 0.80426246 -0.2093481 5
2.2594404 0.80543852 -0.12571098 6
2.2492905 0.80093676 -0.041676346 7
2.2609746 0.7993207 -0.37982294 3
2.2705028 0.80179894 -0.29565504 4
2.2526867 0.79506403 -0.20899945 5
2.2660048 0.79887635 -0.12592033 6
2.2520728 0.79307979 -0.041676346 7
2.2569962 0.78994668 -0.46481073 2
2.260021 0.7901212 -0.37919718 3
2.2770362 0.79517674 -0.29614252 4
2.2592099 0.7885105 -0.2093481 5
2.2574642 0.78701603 -0.12529229 6
2.2548273 0.78521425 -0.041676346 7
2.2651687 0.78438556 -0.46595559 2
2.2626288 0.78262174 -0.37919718 3
2.2684033 0.78373146 -0.29468012 4
2.2693455 0.78361493 -0.21004534 5
2.2600617 0.7795251 -0.12529229 6
2.2612 0.77903587 -0.041746158 7
2.2660358 0.77583736 -0.46557397 2
2.2690854 0.77599669 -0.37982294 3
2.2711246 0.77581 -0.29468012 4
2.2796097 0.77826297 -0.21074259 5
2.2627685 0.77163285 -0.12529229 6
2.2620127 0.77049267 -0.041711252 7
2.272449 0.76918197 -0.46633717 2
2.2755234 0.76933622 -0.38044867 3
2.2700574 0.76660663 -0.29419261 4
2.2672105 0.76520324 -0.2093481 5
2.2692335 0.76500505 -0.12550163 6
2.2590029 0.76067805 -0.041606538 7
2.2772603 0.76284558 0.041920681 8
2.2695351 0.75937557 -0.46519238 2
2.2744472 0.76013768 -0.37982294 3
2.2840171 0.76244992 -0.29565504 4
2.2660871 0.7560249 -0.20899945 5
2.2718902 0.75707871 -0.12550163 6
2.2711313 0.75594515 -0.04178106 7
2.260926 0.74860561 0.041571636 8
2.2796276 0.75391501 -0.46671882 2
2.2658327 0.74847561 -0.37794572 3
2.2828946 0.75322795 -0.2951676 4
2.2724967 0.74935752 -0.2093481 5
2.270725 0.74789453 -0.12529229 6
2.273756 0.74801332 -0.04178106 7
2.2654259 0.74133027 0.041606538 8
2.2897098 0.7483933 -0.46824533 2
2.2759428 0.7430144 -0.37919718 3
2.2817357 0.7440232 -0.29468012 4
2.2788873 0.74265552 -0.20969671 5
2.2695236 0.73872674 -0.12508295 6
2.2763536 0.74007118 -0.04178106 7
2.2794161 0.7371102 0.041815966 8
2.2736261 0.73436135 -0.46442911 2
2.2822828 0.73627776 -0.37982294 3
2.2728541 0.73279816 -0.29321766 4
2.2852588 0.73591703 -0.21004534 5
2.2758908 0.73202366 -0.12529229 6
2.2749875 0.73129499 -0.041711252 7
2.2818477 0.72954774 0.041815966 8
2.285084 0.73014295 -0.55382949 1
2.2760487 0.72681814 -0.46442911 2
2.2884758 0.72990638 -0.38044867 3
2.2866201 0.72887373 -0.29468012 4
2.280093 0.7259165 -0.2093481 5
2.2859194 0.72689396 -0.12571098 6
2.2697773 0.72132367 -0.041571636 7
2.2785342 0.72016823 0.041711252 8
2.2856348 0.72197372 -0.5533796 1
2.2840629 0.72104001 -0.46557397 2
2.2871158 0.72112483 -0.37982294 3
2.292937 0.72208047 -0.2951676 4
2.2786863 0.71715564 -0.20899945 5
2.2883174 0.71930897 -0.12571098 6
2.2837284 0.71699071 -0.04178106 7
2.263855 0.70684689 0.04139711 8
2.2825601 0.71225005 -0.55202991 1
2.2959371 0.71598446 -0.46748206 2
2.2858467 0.71196252 -0.37919718 3
2.2954438 0.71407163 -0.2951676 4
2.284981 0.71038067 -0.2093481 5
2.2831848 0.70894712 -0.12529229 6
2.2900369 0.71019971 -0.041850869 7
2.2796845 0.70306599 0.041641444 8
2.2906191 0.70599931 -0.5533796 1
2.2909174 0.70565349 -0.46595559 2
2.2883182 0.70397848 -0.37919718 3
2.2903316 0.70372409 -0.29419261 4
2.2912562 0.70356935 -0.20969671 5
2.278007 0.69863218 -0.12487361 6
2.2923796 0.70260113 -0.041850869 7
2.2877419 0.69725072 0.041746158 8
2.2892194 0.69726437 -0.5524798 1
2.2933664 0.69765294 -0.46595559 2
2.2982001 0.69868511 -0.38044867 3
2.2926528 0.69612455 -0.29419261 4
2.2975113 0.69672281 -0.21004534 5
2.2841344 0.69223207 -0.12508295 6
2.2871625 0.69227713 -0.041711252 7
2.2959065 0.69098902 0.041850869 8
2.3009701 0.69207627 -0.55472928 1
2.2975473 0.69060957 -0.46633717 2
2.3006246 0.69065911 -0.38044867 3
2.2988722 0.68925709 -0.29468012 4
2.2921751 0.68681318 -0.2093481 5
2.2941904 0.68654454 -0.12550163 6
2.2819011 0.68200034 -0.041571636 7
2.2906368 0.68069375 0.041711252 8
2.3089762 0.68570387 -0.55607903 1
2.2980621 0.68202621 -0.46595559 2
2.2916579 0.67925537 -0.37857145 3
2.3012636 0.68122995 -0.29468012 4
2.2869163 0.67654753 -0.20865084 5
2.2965727 0.67853367 -0.12550163 6
2.2957754 0.67742586 -0.04178106 7
2.2853236 0.67044151 0.041571636 8
2.2907856 0.67160845 -0.55113006 1
2.3098493 0.67676091 -0.46786368 2
2.2940152 0.67125118 -0.37857145 3
2.3112493 0.67541951 -0.29565504 4
2.2969141 0.67079407 -0.2093481 5
2.2950926 0.66939396 -0.12529229 6
2.294286 0.6682899 -0.041711252 7
2.3323896 0.67585641 -0.65067112 0
2.2857296 0.66190332 0.041536726 8
2.2931154 0.66360962 -0.55113006 1
2.3084257 0.66760242 -0.46710047 2
2.3039353 0.6654337 -0.37982294 3
2.2983341 0.66294569 -0.29370514 4
2.3030701 0.66387641 -0.20969671 5
2.2897382 0.65916789 -0.12487361 6
2.3081365 0.66359198 -0.041920681 7
2.3068738 0.65974337 -0.64290655 0
2.2976394 0.65666866 0.041711252 8
2.3066611 0.65881163 -0.55382949 1
2.3069661 0.65846205 -0.46633717 2
2.3024447 0.6563037 -0.37919718 3
2.3006341 0.65491945 -0.29370514 4
2.3015409 0.65474331 -0.2093481 5
2.2997098 0.65335488 -0.12529229 6
2.2949347 0.65156543 -0.041641444 7
2.3258953 0.65640956 -0.64756525 0
2.3075023 0.65121871 0.041850869 8
2.3088334 0.65115815 -0.55382949 1
2.3049178 0.64962083 0.12550163 9
2.3054712 0.64934129 -0.46557397 2
2.3122149 0.65080512 -0.38044867 3
2.3047047 0.64782327 -0.29394889 4
2.3038123 0.64670485 -0.2093481 5
2.3057101 0.64680344 -0.12550163 6
2.3068233 0.64624727 -0.041815966 7
2.2982035 0.6399411 0.041641444 8
2.3148468 0.64414018 -0.55472928 1
2.3110204 0.64264083 0.12571098 9
2.3095031 0.64221895 -0.46595559 2
2.3030519 0.63955909 -0.37857145 3
2.3279934 0.64561021 -0.29663 4
2.2944238 0.63586932 -0.20830221 5
2.3098786 0.63928431 -0.12560631 6
2.3013551 0.6360606 -0.041676346 7
2.2965665 0.63085598 0.041571636 8
2.3095646 0.6339919 -0.5529297 1
2.3190277 0.63615441 0.12602501 9
2.3174109 0.6357109 -0.46710047 2
2.3052704 0.63151544 -0.37857145 3
2.3264034 0.63643301 -0.29614252 4
2.308161 0.63100833 -0.2093481 5
2.3005352 0.62806177 -0.12497827 6
2.3151369 0.6311788 -0.041885775 7
2.2948945 0.62178916 0.04150182 8
2.3080013 0.62490803 -0.55202991 1
2.3000269 0.62231809 0.12487361 9
2.3215108 0.62813097 -0.46748206 2
2.3112748 0.62449574 -0.37919718 3
2.3247778 0.62727356 -0.29565504 4
2.3218913 0.62606007 -0.21039395 5
2.3027136 0.62002701 -0.12497827 6
2.3289127 0.62620956 -0.042095207 7
2.3144381 0.61842108 0.041815966 8
2.3101685 0.61684835 -0.55202991 1
2.296396 0.61274034 0.12455959 9
2.3217926 0.61951679 -0.46710047 2
2.3172581 0.61744177 -0.37982294 3
2.3116066 0.6150707 -0.29370514 4
2.3202114 0.61692786 -0.21004534 5
2.3087251 0.61300975 -0.12518762 6
2.3156214 0.6139757 -0.041815966 7
2.3185165 0.61084723 0.041850869 8
2.3160768 0.60977226 -0.5529297 1
2.3081782 0.60726309 0.12508295 9
2.3163459 0.60941201 -0.46557397 2
2.3232207 0.61035258 -0.38044867 3
2.3252604 0.61002088 -0.2951676 4
2.3127148 0.60629821 -0.20917378 5
2.3147149 0.60595912 -0.12539697 6
2.3100119 0.60386527 -0.041676346 7
2.3090219 0.59973353 0.041641444 8
2.325736 0.60364264 -0.55472928 1
2.3160837 0.60070598 0.12539697 9
2.3260608 0.60329366 -0.46710047 2
2.3176877 0.60025865 -0.37919718 3
2.3273757 0.6018998 -0.2951676 4
2.3090301 0.5967266 -0.20865084 5
2.3245518 0.59987122 -0.12581564 6
2.3159781 0.59679776 -0.041746158 7
2.3032491 0.59008849 0.04150182 8
2.3277249 0.59592736 -0.55472928 1
2.3238683 0.59450674 0.12571098 9
2.3299506 0.59606278 -0.46748206 2
2.3158374 0.59159225 -0.37857145 3
2.3332057 0.59516042 -0.29565504 4
2.3225799 0.59201944 -0.20969671 5
2.3187861 0.59018934 -0.12539697 6
2.3237586 0.59059143 -0.041850869 7
2.3169281 0.58498269 0.041711252 8
2.318454 0.58493757 -0.55202991 1
2.3143094 0.58346117 0.12508295 9
2.335825 0.58888543 -0.46824533 2
2.3217196 0.58446872 -0.37919718 3
2.3237176 0.58410919 -0.29419261 4
2.3284969 0.58487862 -0.21004534 5
2.3169575 0.58112037 -0.12518762 6
2.337445 0.58539069 -0.042060301 7
2.3208966 0.57737374 0.041746158 8
2.3280461 0.57872206 -0.55382949 1
2.3124549 0.57441777 0.12487361 9
2.3283386 0.57836336 -0.46633717 2
2.323746 0.57636023 -0.37919718 3
2.3180349 0.57408494 -0.29321766 4
2.3285906 0.5762679 -0.20987104 5
2.3228498 0.57398677 -0.12539697 6
2.3278248 0.5743553 -0.041850869 7
2.3306668 0.57117313 0.041885775 8
2.3338377 0.57151854 -0.55472928 1
2.322206 0.56824052 0.12529229 9
2.3227158 0.56836528 -0.46481073 2
2.3334193 0.57012123 -0.38044867 3
2.3315959 0.56881338 -0.29468012 4
2.3247809 0.56672096 -0.2093481 5
2.336483 0.56870854 -0.12602501 6
2.3298156 0.56622553 -0.041850869 7
2.3209829 0.56021941 0.041676346 8
2.3358185 0.56336778 -0.55472928 1
2.3260193 0.56100434 0.12539697 9
2.3361371 0.56301439 -0.46710047 2
2.327713 0.56012338 -0.37919718 3
2.3374274 0.56159914 -0.2951676 4
2.3248076 0.55813676 -0.20917378 5
2.334569 0.55961961 -0.12581564 6
2.3355703 0.5594275 -0.041920681 7
2.3247736 0.55298179 0.041711252 8
2.3300903 0.55381685 -0.5529297 1
2.3337932 0.55426663 0.12571098 9
2.3380885 0.5548557 -0.46710047 2
2.3257134 0.55149025 -0.37857145 3
2.3431404 0.55475891 -0.29565504 4
2.3267417 0.55001873 -0.20917378 5
2.3247495 0.54911947 -0.12518762 6
2.3491864 0.55402589 -0.042130109 7
2.3227959 0.54395097 0.041641444 8
2.335804 0.54656839 -0.55382949 1
2.3278391 0.54470462 0.12529229 9
2.3418269 0.54754668 -0.46748206 2
2.3436947 0.54755086 0.21056828 10
2.3353188 0.54516542 -0.37982294 3
2.3295965 0.54297096 -0.29370514 4
2.3285527 0.5423004 -0.20917378 5
2.3266523 0.5410006 -0.12518762 6
2.3549066 0.54713833 -0.042199921 7
2.3323805 0.53804481 0.04178106 8
2.3316727 0.53702331 0.12539697 9
2.3418107 0.53892905 -0.46710047 2
2.3358831 0.53713453 0.20969671 10
2.3371141 0.53741759 -0.37982294 3
2.3352537 0.53613162 -0.29419261 4
2.3459678 0.53772944 -0.21056828 5
2.3362207 0.53506619 -0.12560631 6
2.3373079 0.53445661 -0.041850869 7
2.3381445 0.53078479 0.041850869 8
2.3354809 0.52932292 0.12550163 9
2.337841 0.52985781 -0.46595559 2
2.3298786 0.52762574 0.20899945 10
2.3466823 0.53100055 -0.3810744 3
2.3467922 0.53016448 -0.29541129 4
2.336169 0.52690756 -0.2095224 5
2.3380742 0.52690846 -0.12560631 6
2.3352578 0.5254162 -0.04178106 7
2.3341286 0.52131164 0.041746158 8
2.3412135 0.52203614 0.12571098 9
2.3359351 0.52043122 -0.46519238 2
2.3279073 0.51821744 0.20865084 10
2.3408999 0.52067983 -0.37982294 3
2.3505666 0.52239943 -0.29565504 4
2.3360491 0.5183174 -0.2093481 5
2.3516896 0.52092767 -0.12623434 6
2.3448873 0.51899046 -0.041920681 7
2.330164 0.51146752 0.041641444 8
2.3450615 0.5138796 0.12581564 9
2.3549969 0.51605678 -0.46862692 2
2.3297021 0.51008779 0.20865084 10
2.3388438 0.5116604 -0.37919718 3
2.3582835 0.5150519 -0.29638627 4
2.3397908 0.51058406 -0.2095224 5
2.3417847 0.51016408 -0.12560631 6
2.3584976 0.51294285 -0.042130109 7
2.3397539 0.50501758 0.04178106 8
2.3409839 0.50442791 0.12550163 9
2.3644609 0.50948668 -0.47015342 2
2.3392599 0.50362927 0.2093481 10
2.3444777 0.50432563 -0.37982294 3
2.3620079 0.5072329 -0.29663 4
2.3512986 0.50450504 -0.21039395 5
2.3415985 0.50156766 -0.12550163 6
2.3680961 0.50637901 -0.042269729 7
2.3415024 0.49684772 0.04178106 8
2.3348284 0.49500576 0.12508295 9
2.3527801 0.49838379 -0.46748206 2
2.3488002 0.49711123 0.21004534 10
2.3539543 0.49777293 -0.3810744 3
2.3559084 0.49775541 -0.29565504 4
2.3569448 0.49711624 -0.21074259 5
2.347244 0.49421448 -0.12571098 6
2.358021 0.49605384 -0.042060301 7
2.3509672 0.49071512 0.041920681 8
2.3501434 0.49011403 0.12581564 9
2.3563421 0.49097881 -0.46786368 2
2.3367817 0.48647761 0.20882516 10
2.3594601 0.49076805 -0.38170013 3
2.3692071 0.49236527 -0.2971175 4
2.3449242 0.48646387 -0.2095224 5
2.3566926 0.48804852 -0.12612967 6
2.359653 0.48823097 -0.042060301 7
2.3525817 0.4829157 0.041920681 8
2.3557529 0.48271102 0.12602501 9
2.3618038 0.48395085 -0.46862692 2
2.3403342 0.47912481 0.20899945 10
2.349463 0.48056647 -0.37982294 3
2.3748014 0.48488581 -0.29760498 4
2.3446555 0.47787938 -0.2093481 5
2.3661268 0.48182428 -0.12654836 6
2.3613429 0.47999176 -0.042060301 7
2.3483725 0.47351432 0.041815966 8
2.3535075 0.47369611 0.12581564 9
2.3674114 0.47606346 -0.46939012 2
2.3498876 0.47211415 0.20969671 10
2.3473349 0.47117504 -0.37919718 3
2.3764796 0.4765926 -0.29760498 4
2.348263 0.47008249 -0.2095224 5
2.3600426 0.47158384 -0.12612967 6
2.3708479 0.47331274 -0.042199921 7
2.3520534 0.46529245 0.041850869 8
2.3473904 0.46351981 0.12539697 9
2.3709846 0.46817875 -0.46977177 2
2.3495667 0.46352237 0.2095224 10
2.3528416 0.46374181 -0.37982294 3
2.3743148 0.46711332 -0.2971175 4
2.3655298 0.46495616 -0.21091689 5
2.3538349 0.46180421 -0.12571098 6
2.3804164 0.46615648 -0.042339537 7
2.3615153 0.45860481 0.041990492 8
2.3529155 0.45608255 0.12560631 9
2.3648951 0.45840463 -0.46824533 2
2.3609505 0.45721251 0.21039395 10
2.3622034 0.45702744 -0.3810744 3
2.3720326 0.45806909 -0.29663 4
2.3769197 0.45858374 -0.21178845 5
2.359355 0.45433968 -0.12592033 6
2.3702464 0.45558023 -0.042130109 7
2.3709593 0.4518556 0.042130109 8
2.3564556 0.44824031 0.12571098 9
2.3664808 0.4501473 -0.46824533 2
2.3586175 0.44822389 0.21004534 10
2.3676658 0.44951528 -0.38170013 3
2.3814189 0.45126525 -0.29760498 4
2.3569725 0.44620669 -0.20987104 5
2.3648515 0.44684336 -0.12612967 6
2.3718224 0.44730315 -0.042130109 7
2.3607285 0.44137216 0.041920681 8
2.3638959 0.44111046 0.12602501 9
2.3718975 0.44260359 -0.46900854 2
2.3523333 0.43852806 0.2093481 10
2.3653364 0.440525 -0.3810744 3
2.3731441 0.44155061 0.29638627 11
2.3868828 0.44367585 -0.29809242 4
2.3585155 0.43797708 -0.20987104 5
2.3742521 0.44004214 -0.12654836 6
2.3773022 0.43974921 -0.042199921 7
2.3583205 0.43240815 0.041850869 8
2.3751688 0.43506777 0.12654836 9
2.3577693 0.43103129 0.20969671 10
2.3629737 0.43155536 -0.38044867 3
2.3531895 0.42934409 0.29370514 11
2.3961525 0.43718278 -0.29906741 4
2.3659103 0.43081179 -0.21039395 5
2.3679132 0.43032384 -0.12612967 6
2.3787475 0.43186271 -0.042199921 7
2.3656459 0.42564699 0.041955583 8
2.3608723 0.42436275 0.12571098 9
2.3670299 0.42461675 0.21039395 10
2.372169 0.42511132 -0.38170013 3
2.3526464 0.42118895 0.29346141 11
2.3897727 0.42783561 -0.29809242 4
2.3830166 0.42576766 -0.21178845 5
2.3653948 0.42176732 -0.12592033 6
2.388041 0.42537525 -0.042339537 7
2.37886 0.41988593 0.042165015 8
2.3642333 0.4168776 0.12581564 9
2.3762741 0.41814676 0.21109121 10
2.3774569 0.41792592 -0.38232586 3
2.3559849 0.41372874 0.29370514 11
2.3833578 0.41853559 -0.2971175 4
2.3883405 0.41855013 -0.21213706 5
2.3707151 0.4146097 -0.12612967 6
2.385499 0.41676497 -0.042269729 7
2.38221 0.41233549 0.042199921 8
2.369539 0.40971634 0.12602501 9
2.3639042 0.40789232 0.20987104 10
2.3827231 0.41071129 -0.38295162 3
2.369082 0.40793541 0.2951676 11
2.3925576 0.41197771 -0.29809242 4
2.370079 0.40725416 -0.21039395 5
2.3799512 0.40809539 -0.12654836 6
2.382926 0.40817735 -0.042199921 7
2.3758886 0.40185201 0.042060301 8
2.3750334 0.40127984 0.12623434 9
2.3713467 0.39980683 0.21039395 10
2.3764906 0.40024641 -0.38170013 3
2.3725884 0.39916456 0.29541129 11
2.3902769 0.40171152 -0.29760498 4
2.3755555 0.39880997 -0.21074259 5
2.38938 0.40027452 -0.12696704 6
2.3923645 0.40034413 -0.042339537 7
2.3693173 0.39266264 0.041920681 8
2.3843012 0.39429206 0.12665303 9
2.3727279 0.39152619 0.21039395 10
2.3700089 0.39107755 -0.38044867 3
2.3641057 0.38968077 0.29419261 11
2.4033484 0.39571726 -0.29906741 4
2.3847969 0.39180893 -0.21143983 5
2.3828108 0.39105442 -0.12654836 6
2.4016407 0.39328507 -0.042479157 7
2.3785686 0.38567165 0.042060301 8
2.3758051 0.38437137 0.12612967 9
2.3779473 0.3842909 0.21074259 10
2.3830602 0.3846916 -0.38232586 3
2.3674114 0.38174155 0.29443637 11
2.4007955 0.3866936 -0.2985799 4
2.3978858 0.38579676 -0.2124857 5
2.3762732 0.38146752 -0.12612967 6
2.4069483 0.38553134 -0.042548969 7
2.3799005 0.37736589 0.042060301 8
2.3771324 0.37607643 0.12612967 9
2.3891139 0.37754455 0.21161415 10
2.3921936 0.37760219 -0.38357735 3
2.3746121 0.37440342 0.2951676 11
2.3982086 0.37769488 -0.29809242 4
2.3992178 0.37742358 -0.2124857 5
2.3854825 0.37441087 -0.12654836 6
2.3924747 0.37465152 -0.042269729 7
2.3930602 0.37089318 0.042269729 8
2.3823783 0.36838615 0.126339 9
2.3786027 0.36737731 0.21056828 10
2.393497 0.36925006 -0.38357735 3
2.4073606 0.37052861 -0.29906741 4
2.3927076 0.36741841 -0.21178845 5
2.3986199 0.36789781 -0.12717639 6
2.3937676 0.36629841 -0.042269729 7
2.3864315 0.36134058 0.042130109 8
2.3915493 0.3612605 0.1267577 9
2.3819036 0.35895431 0.21074259 10
2.3909276 0.35988632 -0.38295162 3
2.412565 0.36271384 -0.29955488 4
2.3939757 0.35906342 -0.21178845 5
2.4039028 0.35969558 -0.12738572 6
2.3989871 0.35853088 -0.042339537 7
2.3837836 0.35200661 0.042060301 8
2.4007609 0.35365745 0.12717639 9
2.3851132 0.35092711 0.21091689 10
2.3882604 0.35096431 -0.38232586 3
2.4099503 0.35329241 -0.29906741 4
2.399157 0.35128248 -0.21213706 5
2.3932862 0.34956965 -0.1267577 6
2.412158 0.35146624 -0.042548969 7
2.3948936 0.34511009 0.042234823 8
2.3901193 0.3435694 0.12654836 9
2.3942125 0.34373245 0.21161415 10
2.3933816 0.34318686 -0.38295162 3
2.3993781 0.34319204 -0.29760498 4
2.4043136 0.34346864 -0.2124857 5
2.3905373 0.34065038 -0.12654836 6
2.4173298 0.34360629 -0.042618778 7
2.3960838 0.33674759 0.042234823 8
2.391304 0.33522472 0.12654836 9
2.3953979 0.33537236 0.21161415 10
2.4199975 0.33838704 -0.38701892 3
2.4044936 0.33536234 -0.29809242 4
2.4173377 0.33672369 -0.21353155 5
2.3996246 0.33340251 -0.12696704 6
2.4105911 0.33406863 -0.042479157 7
2.409132 0.3300105 0.042444255 8
2.402354 0.32822666 0.12707172 9
2.3965538 0.32700929 0.21161415 10
2.4135177 0.32803693 -0.29906741 4
2.4066527 0.32667613 -0.2124857 5
2.4047322 0.32556063 -0.12717639 6
2.4077795 0.32511625 -0.042409346 7
2.3983762 0.32001159 0.042234823 8
2.403429 0.32025883 0.12707172 9
2.3858304 0.31706628 0.21056828 10
2.4185841 0.32013053 -0.29955488 4
2.4077785 0.31827271 -0.2124857 5
2.4137747 0.31820813 -0.12759508 6
2.4207399 0.31869653 -0.042618778 7
2.3994243 0.31205699 0.042234823 8
2.406513 0.31212473 0.12717639 9
2.4264412 0.31384712 0.2140545 10
2.4235697 0.31261683 -0.30004236 4
2.416779 0.31088337 -0.21318294 5
2.4108543 0.30969355 -0.12738572 6
2.4059694 0.3082124 -0.042339537 7
2.4064505 0.30443296 0.042339537 8
2.403625 0.30322197 0.12696704 9
2.4167676 0.30316615 -0.29906741 4
2.4257047 0.3038584 -0.2138802 5
2.4000297 0.29979023 -0.1267577 6
2.4268744 0.30228314 -0.042688586 7
2.4154375 0.29700655 0.042479157 8
2.4046686 0.29483154 0.12696704 9
2.4178112 0.29472873 -0.29906741 4
2.4227948 0.29490712 -0.21353155 5
2.4129577 0.29285505 -0.12738572 6
2.4160035 0.29236785 -0.042479157 7
2.4204311 0.28904694 0.042548969 8
2.4076662 0.2866714 0.12707172 9
2.4188254 0.28628653 -0.29906741 4
2.4198523 0.28598103 -0.21318294 5
2.4258666 0.28583211 -0.12801376 6
2.409065 0.28300107 -0.042339537 7
2.4134793 0.27967718 0.042409346 8
2.4205565 0.27963993 0.12769975 9
2.4316425 0.27920064 -0.30052981 4
2.4208357 0.27753177 -0.21318294 5
2.4228809 0.27690944 -0.12780441 6
2.4179854 0.27549499 -0.042479157 7
2.4144411 0.27125022 0.042409346 8
2.4195333 0.27096716 0.12759508 9
2.4326022 0.27071145 -0.30052981 4
2.4257503 0.26951918 -0.21353155 5
2.4198625 0.26801112 -0.12759508 6
2.4229078 0.26749238 -0.042548969 7
2.4173613 0.26303744 0.042444255 8
2.4184785 0.26230374 0.1274904 9
2.4335325 0.26221776 -0.30052981 4
2.4306383 0.26147681 -0.2138802 5
2.4168115 0.25913608 -0.12738572 6
2.4317803 0.25988254 -0.042688586 7
2.4262192 0.25543448 0.042583872 8
2.4193795 0.25386059 0.1274904 9
2.4265354 0.25289899 -0.29955488 4
2.4434261 0.25422832 -0.21492605 5
2.4216747 0.25111076 -0.12759508 6
2.4247165 0.25056961 -0.042548969 7
2.4310751 0.24736807 0.04265368 8
2.439254 0.24561989 -0.30101728 4
2.4363692 0.24490108 -0.21422882 5
2.4344602 0.24384972 -0.12822311 6
2.4215963 0.2417075 -0.042479157 7
2.4239633 0.2380991 0.042514063 8
2.4420722 0.2372963 -0.30126104 4
2.4372091 0.23639442 -0.21422882 5
2.4392726 0.23573516 -0.12843245 6
2.4343276 0.23482846 -0.042688586 7
2.4287207 0.23043789 0.042583872 8
2.4606333 0.23086618 -0.30345467 4
2.4459543 0.22862656 -0.21492605 5
2.4360635 0.22727436 -0.12822311 6
2.4351325 0.22632898 -0.042688586 7
2.4275193 0.2217761 0.042548969 8
2.4546368 0.2212301 -0.21562332 5
2.4328637 0.21841171 -0.12801376 6
2.4518032 0.21967952 -0.042967826 7
2.4441776 0.2151269 0.04282821 8
2.4593639 0.21300483 -0.21597193 5
2.4335747 0.21034215 -0.12801376 6
2.4406009 0.21009244 -0.042758394 7
2.4489348 0.20650367 0.042898018 8
2.448179 0.20342815 -0.21492605 5
2.4502528 0.20273934 -0.12885113 6
2.4453409 0.20147474 -0.04282821 7
2.4456544 0.19763127 0.04282821 8
2.4528465 0.19519781 -0.21527468 5
2.4549277 0.19449997 -0.12906048 6
2.4460292 0.19293703 -0.04282821 7
2.4303792 0.18786192 0.042548969 8
2.4574864 0.1869362 -0.21562332 5
2.4555914 0.18593118 -0.12906048 6
2.4546635 0.18499807 -0.042967826 7
2.4620984 0.17864454 -0.21597193 5
2.4522414 0.17707011 -0.12885113 6
2.4632726 0.17700239 -0.043107443 7
2.466682 0.17032531 -0.21632054 5
2.4608147 0.16905716 -0.12926982 6
2.4558954 0.16785678 -0.042967826 7
2.4593091 0.16119206 -0.21562332 5
2.4613898 0.16046563 -0.12926982 6
2.4484847 0.15876606 -0.04282821 7
2.4638338 0.15285373 -0.21597193 5
2.4778829 0.15285593 -0.13010719 6
2.4649911 0.15119702 -0.043107443 7
2.4762859 0.1449503 -0.21701778 5
2.4664381 0.14351001 -0.12947917 6
2.4734893 0.14305404 -0.043247063 7
2.4747877 0.13619544 -0.21684349 5
2.4629352 0.1346809 -0.12926982 6
2.4739735 0.13441959 -0.043247063 7
2.483207 0.12796666 -0.21754073 5
2.4753582 0.12669708 -0.12989786 6
2.4797754 0.11824529 -0.13010719 6
2.4881353 0.11037478 -0.13052589 6
2.4844964 0.10195991 -0.13031654 6
2.4808617 0.092704482 -0.13010719 6
2.4931469 0.084449112 -0.13073523 6
2.5014117 0.075989 -0.13115391 6
2.5116441 0.067524694 -0.13167727 6
