# .PCD v0.7 - Point Cloud Data file format
VERSION 0.7
FIELDS x y z intensity
SIZE 4 4 4 4
TYPE F F F F
COUNT 1 1 1 1
WIDTH 640
HEIGHT 1
VIEWPOINT 0 0 0 1 0 0 0
POINTS 640
DATA ascii
2.4446733 0.39639014 -0.12979318 6
2.4381518 0.38660243 -0.1293745 6
2.4276445 0.37625328 -0.12874646 6
2.4467161 0.37046856 -0.12968852 6
2.4479942 0.36192501 -0.12968852 6
2.4827597 0.36617941 -0.043805543 7
2.453196 0.35394865 -0.12989786 6
2.4780846 0.35665664 -0.043700829 7
2.4465058 0.34426937 -0.12947917 6
2.4793146 0.34800485 -0.043700829 7
2.4437349 0.33518505 -0.12926982 6
2.4745703 0.3385345 -0.043596111 7
2.4488494 0.32718229 -0.12947917 6
2.4598796 0.32778093 -0.043316875 7
2.4499767 0.31863159 -0.12947917 6
2.4530766 0.31816405 -0.043177254 7
2.4153416 0.30641431 -0.21300863 5
2.4510741 0.31007814 -0.12947917 6
2.4621081 0.31059974 -0.043316875 7
2.4322155 0.29993144 -0.21440312 5
2.4402475 0.30005723 -0.12885113 6
2.4711165 0.30297861 -0.043456491 7
2.4273131 0.29072931 -0.2138802 5
2.4333475 0.29058939 -0.12843245 6
2.466202 0.293641 -0.043351781 7
2.4223762 0.28156391 -0.21335725 5
2.4422827 0.28301495 -0.12885113 6
2.4533067 0.28342345 -0.043107443 7
2.4292839 0.27377522 -0.2138802 5
2.4511948 0.27537933 -0.12926982 6
2.4542809 0.27485859 -0.043107443 7
2.4845238 0.27429485 0.043631013 8
2.4143794 0.26356572 -0.2124857 5
2.452141 0.26682189 -0.12926982 6
2.4512031 0.26628581 -0.043037634 7
2.4695134 0.26435095 0.043351781 8
2.4271729 0.25639153 -0.21353155 5
2.4371226 0.25701246 -0.12843245 6
2.4600728 0.25856453 -0.043177254 7
2.4823554 0.25696507 0.043561205 8
2.42801 0.24834064 -0.21353155 5
2.430057 0.24769297 -0.12801376 6
2.4689181 0.25078455 -0.043316875 7
2.4812474 0.24810003 0.043526303 8
2.4288619 0.23986429 -0.21353155 5
2.4348819 0.23960067 -0.12822311 6
2.4578373 0.24099337 -0.043107443 7
2.4840889 0.2396287 0.043561205 8
2.4257176 0.23100612 -0.21318294 5
2.4436569 0.23185503 -0.1286418 6
2.4467189 0.2312827 -0.042898018 7
2.4689813 0.22947499 0.043281965 8
2.4254904 0.22287132 -0.29906741 4
2.4146044 0.22144724 -0.21213706 5
2.4444516 0.223323 -0.1286418 6
2.455477 0.2234661 -0.043037634 7
2.4697671 0.22085577 0.043281965 8
2.4242761 0.21422918 -0.29882365 4
2.4272711 0.21406694 -0.21318294 5
2.441237 0.21443991 -0.12843245 6
2.4602263 0.21524142 -0.043107443 7
2.4725156 0.21240383 0.043316875 8
2.4111636 0.20459008 -0.2971175 4
2.4319742 0.20592843 -0.21353155 5
2.4340098 0.20524514 -0.12801376 6
2.4649479 0.20698869 -0.043177254 7
2.4832065 0.20459454 0.043491397 8
2.3960342 0.19488424 -0.2951676 4
2.4287066 0.19711618 -0.21318294 5
2.4386928 0.19706872 -0.12822311 6
2.4536958 0.19742024 -0.042967826 7
2.4779251 0.1954529 0.043386683 8
2.5028498 0.19653989 0.1315726 9
2.4006581 0.18682902 -0.29565504 4
2.4174612 0.1877111 -0.21213706 5
2.4353833 0.18824872 -0.12801376 6
2.4503825 0.18854658 -0.042898018 7
2.47261 0.18635061 0.043281965 8
2.495554 0.18720382 0.13115391 9
2.4052548 0.1787416 -0.29614252 4
2.4061801 0.17838813 -0.21109121 5
2.4479766 0.18062767 -0.1286418 6
2.4510257 0.17999253 -0.042898018 7
2.4692564 0.17743234 0.043212157 8
2.5101376 0.17948808 0.13188663 9
2.4137847 0.17090593 -0.2971175 4
2.4226878 0.17111136 -0.2124857 5
2.4366381 0.17124194 -0.12801376 6
2.4556289 0.17171405 -0.042967826 7
2.4698606 0.16881129 0.043212157 8
2.5027781 0.17018349 0.13146794 9
2.3945606 0.16114569 -0.29468012 4
2.4272459 0.16291977 -0.21283433 5
2.4332354 0.16246867 -0.12780441 6
2.4602039 0.16340685 -0.043037634 7
2.4744258 0.16044816 0.043281965 8
2.4894049 0.16054688 0.13073523 9
2.3931274 0.15265912 -0.29443637 4
2.4317768 0.15469962 -0.21318294 5
2.4337878 0.15397346 -0.12780441 6
2.4487851 0.1540653 -0.04282821 7
2.4789629 0.15205401 0.043351781 8
2.4819758 0.15137045 0.13031654 9
2.4035532 0.14490239 -0.29565504 4
2.4163914 0.14525314 -0.21178845 5
2.4343104 0.14547753 -0.12780441 6
2.4453151 0.14527865 -0.042758394 7
2.4675002 0.14270766 0.043142349 8
2.4904652 0.14316365 0.13073523 9
2.4119523 0.13780572 -0.38263875 3
2.4119718 0.13696222 -0.29663 4
2.4129055 0.13659278 -0.21143983 5
2.4387915 0.1372042 -0.12801376 6
2.4498007 0.1369658 -0.04282821 7
2.4719768 0.13431109 0.043212157 8
2.4909263 0.13490349 0.13073523 9
2.394666 0.12843283 -0.37982294 3
2.4164 0.1287538 -0.2971175 4
2.4173467 0.12838 -0.21178845 5
2.4312778 0.12827002 -0.12759508 6
2.4542353 0.12905054 -0.042898018 7
2.4724085 0.12611231 0.043212157 8
2.4873927 0.12600616 0.13052589 9
2.3891599 0.12019384 -0.37888432 3
2.4049177 0.12014505 -0.29565504 4
2.4217598 0.12013905 -0.21213706 5
2.4277 0.120009 -0.12738572 6
2.4626598 0.12087434 -0.043037634 7
2.4768288 0.11767036 0.043281965 8
2.4798369 0.11694695 0.13010719 9
2.3796988 0.11139206 -0.37731999 3
2.4013567 0.1115647 -0.2951676 4
2.4181645 0.11192264 -0.21178845 5
2.4281039 0.11153337 -0.12738572 6
2.4470859 0.11155051 -0.042758394 7
2.48122 0.10920145 0.043351781 8
2.4882119 0.10863781 0.13052589 9
2.525955 0.10984525 0.22120127 10
2.3800731 0.10308404 -0.37731999 3
2.4056978 0.10335378 -0.29565504 4
2.4145594 0.10331116 -0.21143983 5
2.4364605 0.10339742 -0.12780441 6
2.4434645 0.10283909 -0.042688586 7
2.4675994 0.09997239 0.043107443 8
2.4885757 0.099952191 0.13052589 9
2.4964612 0.099832512 0.21858659 10
2.3725231 0.094460428 -0.3760685 3
2.4100111 0.095111616 -0.29614252 4
2.4109237 0.094725065 -0.21109121 5
2.4368067 0.09489131 -0.12780441 6
2.4478049 0.094463915 -0.042758394 7
2.4619389 0.091135688 0.043002732 8
2.4968932 0.091556907 0.13094458 9
2.5047584 0.091407605 0.21928383 10
2.3708646 0.086108148 -0.37575564 3
2.4142959 0.0868406 -0.29663 4
2.4152217 0.086452998 -0.21143983 5
2.4371231 0.086384036 -0.12780441 6
2.452117 0.086058542 -0.04282821 7
2.466239 0.082675882 0.04307254 8
2.4852204 0.082442589 0.13031654 9
2.5090454 0.082795762 0.21963248 10
2.3711507 0.077831134 -0.37575564 3
2.4066484 0.078155391 -0.29565504 4
2.4234741 0.0782784 -0.21213706 5
2.4214396 0.077366628 -0.12696704 6
2.4563997 0.077624194 -0.042898018 7
2.47051 0.074185975 0.043142349 8
2.4815004 0.073650256 0.13010719 9
2.5053356 0.073918864 0.21928383 10
2.3733821 0.069612198 -0.3760685 3
2.4029379 0.069638491 -0.2951676 4
2.4277158 0.06993252 -0.2124857 5
2.4296808 0.06914036 -0.12738572 6
2.4486599 0.068826236 -0.042758394 7
2.4687548 0.065509304 0.043107443 8
2.4777493 0.064882532 0.12989786 9
2.5035868 0.065121882 0.21910954 10
2.3775604 0.061428539 -0.37669426 3
2.4031663 0.061250754 -0.2951676 4
2.4120114 0.061054964 -0.21109121 5
2.4339008 0.060758971 -0.12759508 6
2.4408889 0.060080919 -0.042618778 7
2.4669697 0.056845803 0.04307254 8
2.4859476 0.056414947 0.13031654 9
2.4978232 0.0562483 0.21858659 10
2.3718357 0.05299592 -0.37575564 3
2.4073348 0.05294957 -0.29565504 4
2.4082258 0.052547533 -0.21074259 5
2.442085 0.052433543 -0.12801376 6
2.4450824 0.051645231 -0.042688586 7
2.4591556 0.048077118 0.04293292 8
2.494117 0.047889736 0.13073523 9
2.5019884 0.047604062 0.21893522 10
2.3720064 0.044716842 -0.37575564 3
2.4154439 0.044692334 -0.29663 4
2.4163628 0.04428748 -0.21143983 5
2.4302716 0.043693852 -0.12738572 6
2.4532454 0.043250334 -0.04282821 7
2.4673064 0.039621726 0.04307254 8
2.4802897 0.038963087 0.13000253 9
2.387023 0.037497949 -0.46404752 2
2.5061235 0.038932625 0.21928383 10
2.3721478 0.036436092 -0.37575564 3
2.3997064 0.036022734 -0.29468012 4
2.4165027 0.035851888 -0.21143983 5
2.4224212 0.035095137 -0.12696704 6
2.4613793 0.034799065 -0.042967826 7
2.4714284 0.031058572 0.043142349 8
2.4784136 0.030281145 0.12989786 9
2.3439507 0.028638285 -0.45565188 2
2.5062439 0.030183718 0.21928383 10
2.3781862 0.028227493 -0.37669426 3
2.4037874 0.02769107 -0.2951676 4
2.4205973 0.027462214 -0.21178845 5
2.4265232 0.026682371 -0.12717639 6
2.4414899 0.025994658 -0.042618778 7
2.4755208 0.022468304 0.043212157 8
2.4765067 0.021611592 0.12979318 9
2.349926 0.020506965 -0.45679674 2
2.5063341 0.021435635 0.21928383 10
2.3782704 0.019925268 -0.37669426 3
2.5209827 0.020679716 0.30954817 11
2.3998992 0.019268749 -0.29468012 4
2.4047399 0.018887905 -0.21039395 5
2.4305959 0.018242553 -0.12738572 6
2.4375665 0.017442843 -0.042548969 7
2.4576235 -0.0034314918 0.042898018 8
2.474601 -0.0038870971 0.12968852 9
2.3637547 -0.0041255341 -0.4594681 2
2.5024366 -0.0048043393 0.21893522 10
2.3704469 -0.0049646595 -0.37544277 3
2.5131204 -0.0057020988 0.30857319 11
2.39203 -0.0054273531 -0.29370514 4
2.4167604 -0.0063270773 -0.21143983 5
2.4186702 -0.0071763601 -0.1267577 6
2.4576137 -0.0077208462 -0.042898018 7
2.4595983 -0.011590669 0.04293292 8
2.4745746 -0.012093149 0.12968852 9
2.3421326 -0.0118547 -0.45527029 2
2.5043993 -0.013113123 0.21910954 10
2.374368 -0.012846692 -0.3760685 3
2.5150728 -0.014046963 0.30881694 11
2.3919988 -0.013359581 -0.29370514 4
2.4167261 -0.01434131 -0.21143983 5
2.4266219 -0.015247115 -0.12717639 6
2.4455767 -0.015793065 -0.042688586 7
2.471544 -0.019843251 0.043142349 8
2.4785116 -0.020764416 0.12989786 9
2.3460033 -0.020063773 -0.45603353 2
2.4943805 -0.021332743 0.21823798 10
2.3822136 -0.020789264 -0.37731999 3
2.5130272 -0.022369497 0.30857319 11
2.3998778 -0.021781197 -0.29468012 4
2.4047072 -0.022664502 -0.21039395 5
2.4305482 -0.023756556 -0.12738572 6
2.4375083 -0.024250051 -0.042548969 7
2.4634566 -0.028808247 0.043002732 8
2.4884043 -0.029968733 0.13042122 9
2.3498399 -0.02871014 -0.45679674 2
2.4903009 -0.030426281 0.21788934 10
2.3663199 -0.02932455 -0.37481701 3
2.5208683 -0.031679831 0.30954817 11
2.4037516 -0.030627625 -0.2951676 4
2.404608 -0.031478044 -0.21039395 5
2.4304447 -0.032664802 -0.12738572 6
2.445401 -0.033292688 -0.042688586 7
2.4553363 -0.037714224 0.042863112 8
2.4942689 -0.039183103 0.13073523 9
2.3497255 -0.036912434 -0.45679674 2
2.4901729 -0.039553486 0.21788934 10
2.3701465 -0.038060781 -0.37544277 3
2.5147808 -0.040822405 0.30881694 11
2.407593 -0.039502744 -0.29565504 4
2.4044836 -0.039871499 -0.21039395 5
2.4223282 -0.041013192 -0.12696704 6
2.4492614 -0.042324405 -0.042758394 7
2.4551899 -0.04628472 0.042863112 8
2.4761448 -0.047544409 0.12979318 9
2.3554711 -0.04522736 -0.45794162 2
2.5019717 -0.048477143 0.21893522 10
2.3660495 -0.046256691 -0.37481701 3
2.5046992 -0.04940464 0.30759826 11
2.3955321 -0.047669601 -0.29419261 4
2.412298 -0.048424426 -0.21109121 5
2.4181767 -0.049386881 -0.1267577 6
2.4490986 -0.050873663 -0.042758394 7
2.4630103 -0.05503333 0.043002732 8
2.4719801 -0.055665411 0.12958384 9
2.3494105 -0.05331558 -0.45679674 2
2.5057707 -0.057301462 0.21928383 10
2.3777227 -0.054788489 -0.37669426 3
2.5124497 -0.058331668 0.30857319 11
2.3953512 -0.056031272 -0.29419261 4
2.5455642 -0.05954501 0.4032881 12
2.4200814 -0.05703238 -0.21178845 5
2.4219828 -0.057923097 -0.12696704 6
2.4369221 -0.058705945 -0.042548969 7
2.4708104 -0.063405856 0.043142349 8
2.4777606 -0.064449698 0.12989786 9
2.3433225 -0.061362062 -0.45565188 2
2.4955971 -0.065785371 0.21841228 10
2.3795025 -0.062725052 -0.3770071 3
2.5201805 -0.066873565 0.30954817 11
2.399121 -0.064080246 -0.29468012 4
2.5255942 -0.067899458 0.40015942 12
2.3999507 -0.064940758 -0.21004534 5
2.4337566 -0.066280603 -0.12759508 6
2.4367023 -0.06721203 -0.042548969 7
2.4585807 -0.071680546 0.04293292 8
2.4955006 -0.073192872 0.1308399 9
2.3450687 -0.069190361 -0.45603353 2
2.4933739 -0.074001603 0.21823798 10
2.3733454 -0.070853837 -0.3760685 3
2.5199316 -0.07567022 0.30954817 11
2.4028511 -0.072574213 -0.2951676 4
2.5332534 -0.076512806 0.40141091 12
2.3957396 -0.072777934 -0.20969671 5
2.4295175 -0.074652903 -0.12738572 6
2.4444609 -0.075539112 -0.042688586 7
2.450335 -0.07957349 0.0427933 8
2.4812567 -0.081444703 0.13010719 9
2.348737 -0.077505246 -0.45679674 2
2.4851351 -0.082440428 0.21754073 10
2.3652005 -0.078461789 -0.37481701 3
2.5117307 -0.083761543 0.30857319 11
2.4065652 -0.080674976 -0.29565504 4
2.5428424 -0.085687675 0.40297523 12
2.4074185 -0.081544876 -0.21074259 5
2.4212723 -0.082437217 -0.12696704 6
2.448179 -0.084208891 -0.042758394 7
2.4540389 -0.088270023 0.042863112 8
2.4769654 -0.089960426 0.12989786 9
2.5007765 -0.091262259 0.21893522 10
2.36886 -0.086862154 -0.37544277 3
2.5114229 -0.092528619 0.30857319 11
2.3943665 -0.088634349 -0.29419261 4
2.5445013 -0.094636738 0.4032881 12
2.4111168 -0.089675814 -0.21109121 5
2.4169781 -0.090738676 -0.1267577 6
2.4518671 -0.092905559 -0.04282821 7
2.4637067 -0.097229965 0.043037634 8
2.4746404 -0.098526634 0.12979318 9
2.5044241 -0.10015026 0.21928383 10
2.3645952 -0.094971947 -0.37481701 3
2.5110846 -0.10129455 0.30857319 11
2.3940425 -0.09699171 -0.29419261 4
2.5303392 -0.10295597 0.40109801 12
2.4147704 -0.09825363 -0.21143983 5
2.424629 -0.099502534 -0.12717639 6
2.4355438 -0.10080207 -0.042548969 7
2.4733415 -0.10625846 0.043212157 8
2.4762771 -0.10725058 0.12989786 9
2.4921165 -0.10837238 0.21823798 10
2.3701696 -0.10348384 -0.37575564 3
2.5186486 -0.110407 0.30954817 11
2.3976557 -0.10552246 -0.29468012 4
2.5279911 -0.11170068 0.40078515 12
2.4064512 -0.10633037 -0.21074259 5
2.4322481 -0.10832091 -0.12759508 6
2.4351771 -0.10930309 -0.042548969 7
2.4549778 -0.11405616 0.042898018 8
2.4838679 -0.11626728 0.13031654 9
2.4877427 -0.11688381 0.21788934 10
2.3678207 -0.11166359 -0.37544277 3
2.5222137 -0.11938577 0.31003565 11
2.4012384 -0.11407961 -0.2951676 4
2.5335052 -0.1208066 0.40172374 12
2.4020846 -0.11454 -0.21039395 5
2.427865 -0.11661872 -0.12738572 6
2.4387753 -0.11799605 -0.042618778 7
2.4505706 -0.12242539 0.04282821 8
2.4834468 -0.12493689 0.13031654 9
2.4912992 -0.12576784 0.21823798 10
2.3595252 -0.11952839 -0.37419128 3
2.5098863 -0.12758452 0.30857319 11
2.4008257 -0.12246079 -0.2951676 4
2.5370135 -0.12985139 0.40234947 12
2.4096081 -0.12375207 -0.21109121 5
2.4154756 -0.12447613 -0.1267577 6
2.4463365 -0.12692268 -0.042758394 7
2.4561186 -0.13129896 0.04293292 8
2.4750183 -0.13317573 0.12989786 9
2.4967899 -0.1352213 0.21876092 10
2.3649883 -0.12849717 -0.37512988 3
2.5094256 -0.13634489 0.30857319 11
2.4003837 -0.1308405 -0.2951676 4
2.5345724 -0.13859856 0.40203664 12
2.4091616 -0.13216242 -0.21109121 5
2.4150033 -0.13332845 -0.1267577 6
2.4458785 -0.13546121 -0.042758394 7
2.4636068 -0.14075647 0.04307254 8
2.4745135 -0.14224623 0.12989786 9
2.5022697 -0.14427996 0.21928383 10
2.3724139 -0.13720797 -0.37638137 3
2.5128725 -0.1457714 0.30906066 11
2.3919606 -0.1391762 -0.29419261 4
2.5320756 -0.14777222 0.40172374 12
2.4126635 -0.14080332 -0.21143983 5
2.4145231 -0.14175758 -0.1267577 6
2.437381 -0.14395331 -0.042618778 7
2.4670923 -0.14959727 0.043142349 8
2.477989 -0.15112619 0.13010719 9
2.4878304 -0.15216222 0.21806367 10
2.3857222 -0.14633498 -0.37857145 3
2.5222549 -0.15515146 0.31027937 11
2.3954234 -0.14776933 -0.29468012 4
2.5157714 -0.15563415 0.39922079 12
2.4042029 -0.14873216 -0.21074259 5
2.4219871 -0.15068103 -0.12717639 6
2.4368637 -0.15246049 -0.042618778 7
2.4545815 -0.1574401 0.04293292 8
2.4814603 -0.15959904 0.13031654 9
2.4852958 -0.16071685 0.21788934 10
2.5197175 -0.16382606 0.31003565 11
2.3988547 -0.1563883 -0.2951676 4
2.5191839 -0.16423291 0.39984655 12
2.3957164 -0.15660362 -0.21004534 5
2.4294183 -0.15965833 -0.12759508 6
2.4363446 -0.1605406 -0.042618778 7
2.4560409 -0.16571355 0.042967826 8
2.4868662 -0.16866544 0.13063055 9
2.4926708 -0.16993324 0.21858659 10
2.5112381 -0.17163937 0.30906066 11
2.4022837 -0.16461374 -0.29565504 4
2.5264781 -0.17356706 0.40109801 12
2.4031062 -0.16551289 -0.21074259 5
2.4209054 -0.16716336 -0.12717639 6
2.4477389 -0.16987473 -0.04282821 7
2.4614317 -0.17471047 0.04307254 8
2.4683633 -0.17563544 0.12968852 9
2.4960682 -0.17848249 0.21893522 10
2.5027039 -0.1798351 0.30808574 11
2.3937747 -0.1724278 -0.29468012 4
2.5337696 -0.18251188 0.40234947 12
2.4144671 -0.17434192 -0.21178845 5
2.4123392 -0.17503473 -0.1267577 6
2.4471622 -0.17799078 -0.04282821 7
2.4648273 -0.18316829 0.043142349 8
2.4717188 -0.18454799 0.12989786 9
2.4994035 -0.1874924 0.21928383 10
2.5139709 -0.18902642 0.30954817 11
2.3852715 -0.17976815 -0.29370514 4
2.5272081 -0.19090889 0.40141091 12
2.4098704 -0.18246807 -0.21143983 5
2.4197114 -0.18363792 -0.12717639 6
2.4385502 -0.1859238 -0.042688586 7
2.4641392 -0.19220111 0.043142349 8
2.4690342 -0.19345005 0.12979318 9
2.4907887 -0.19559191 0.21858659 10
2.5211768 -0.19886367 0.31052312 11
2.3964703 -0.18944803 -0.2951676 4
2.5127068 -0.19907816 0.39922079 12
2.3972683 -0.19035317 -0.21039395 5
2.4230039 -0.19282226 -0.12738572 6
2.4298792 -0.19422294 -0.042548969 7
2.4495018 -0.19966418 0.042898018 8
2.4743159 -0.20255628 0.13010719 9
2.4801269 -0.20390356 0.21771504 10
2.5204675 -0.20766303 0.31052312 11
2.3957944 -0.19781211 -0.2951676 4
2.3965895 -0.19872005 -0.21039395 5
2.4262619 -0.20203321 -0.12759508 6
2.4451287 -0.20403396 -0.04282821 7
2.4487536 -0.20864069 0.042898018 8
2.485534 -0.21221147 0.13073523 9
2.4893253 -0.21341045 0.21858659 10
2.513756 -0.21638885 0.30979189 11
2.406956 -0.2071953 -0.29663 4
2.3919113 -0.20674138 -0.21004534 5
2.4175828 -0.20981048 -0.12717639 6
2.4404168 -0.21222128 -0.042758394 7
2.4580078 -0.21764179 0.04307254 8
2.4649222 -0.21868759 0.12968852 9
2.492573 -0.22201771 0.21893522 10
2.505116 -0.22401634 0.30881694 11
2.3943925 -0.21411505 -0.2951676 4
2.4110568 -0.21645361 -0.21178845 5
2.4049387 -0.21675065 -0.12654836 6
2.4476662 -0.22103223 -0.042898018 7
2.4612551 -0.22615758 0.043142349 8
2.4681213 -0.22765732 0.12989786 9
2.4957907 -0.23064883 0.21928383 10
2.510289 -0.23287247 0.30954817 11
2.3817711 -0.22136948 -0.29370514 4
2.4102864 -0.22486846 -0.21178845 5
2.4161379 -0.22583975 -0.12717639 6
2.4428978 -0.22920123 -0.04282821 7
2.4604506 -0.23474756 0.043142349 8
2.4752643 -0.23703283 0.13031654 9
2.4929454 -0.23960422 0.21910954 10
2.5094609 -0.24163359 0.30954817 11
2.3888874 -0.23044451 -0.29468012 4
2.3975883 -0.23212858 -0.21074259 5
2.4232457 -0.23546648 -0.12759508 6
2.4341216 -0.23695216 -0.042688586 7
2.4516139 -0.24297512 0.043002732 8
2.4743788 -0.24610354 0.13031654 9
2.4801986 -0.24711956 0.21806367 10
2.5164592 -0.25161964 0.31052312 11
2.3967633 -0.24049632 -0.21074259 5
2.4224091 -0.24392377 -0.12759508 6
2.4411952 -0.24667625 -0.04282821 7
2.4547296 -0.25193968 0.04307254 8
2.4794648 -0.25535306 0.13063055 9
2.4892302 -0.25679782 0.21893522 10
2.5076675 -0.25958458 0.30954817 11
2.4077995 -0.25009611 -0.21178845 5
2.4175696 -0.25196397 -0.12738572 6
2.4403195 -0.25519609 -0.04282821 7
2.4617889 -0.2613512 0.043212157 8
2.4746325 -0.26315147 0.13042122 9
2.4922807 -0.26590803 0.21928383 10
2.4988508 -0.26749122 0.30857319 11
2.4069118 -0.25849938 -0.21178845 5
2.4166753 -0.26040134 -0.12738572 6
2.447412 -0.26414537 -0.042967826 7
2.4569333 -0.26907796 0.043142349 8
2.469728 -0.2713517 0.13021187 9
2.5052004 -0.27613413 0.22050403 10
2.5018961 -0.27621189 0.30906066 11
2.409955 -0.26733884 -0.21213706 5
2.4157987 -0.26841387 -0.12738572 6
2.4345508 -0.27135772 -0.042758394 7
2.463927 -0.27855113 0.043281965 8
2.4628124 -0.27929586 0.12989786 9
2.4884336 -0.28264132 0.21910954 10
2.5127509 -0.28629181 0.31052312 11
2.4090073 -0.2757495 -0.21213706 5
2.4227357 -0.27817774 -0.12780441 6
2.4296157 -0.27939737 -0.042688586 7
2.4549448 -0.28665233 0.043142349 8
2.4816091 -0.2906439 0.13094458 9
2.4854021 -0.2915279 0.21893522 10
2.5156276 -0.29596347 0.31101057 11
2.3961091 -0.28317413 -0.21109121 5
2.4296331 -0.28799602 -0.12822311 6
2.4404898 -0.28971484 -0.042898018 7
2.4439509 -0.29445225 0.042967826 8
2.4805272 -0.29973751 0.13094458 9
2.4942067 -0.30183217 0.21980678 10
2.504673 -0.30398586 0.30979189 11
2.3990614 -0.29201788 -0.21143983 5
2.416718 -0.29502317 -0.12759508 6
2.4433811 -0.29914376 -0.042967826 7
2.4548154 -0.3044582 0.043177254 8
2.4715381 -0.30740827 0.13052589 9
2.497092 -0.31102926 0.22015539 10
2.4138429 -0.3023715 -0.21283433 5
2.41171 -0.30295938 -0.12738572 6
2.442322 -0.30767092 -0.042967826 7
2.4557209 -0.31327829 0.043212157 8
2.4665425 -0.31509629 0.13031654 9
2.4999437 -0.32025018 0.22050403 10
2.4088206 -0.31028646 -0.2124857 5
2.418561 -0.31239942 -0.12780441 6
2.4373221 -0.31525522 -0.042898018 7
2.4625998 -0.32245854 0.043351781 8
2.4694448 -0.32379323 0.13052589 9
2.4889913 -0.32723999 0.21963248 10
2.4254315 -0.32146761 -0.12822311 6
2.4322987 -0.32280982 -0.04282821 7
2.4535892 -0.32955819 0.043212157 8
2.4801757 -0.3340106 0.13115391 9
2.4799941 -0.33442685 0.21893522 10
2.4283104 -0.33004683 -0.12843245 6
2.4271941 -0.33075809 -0.042758394 7
2.4544051 -0.33839399 0.043247063 8
2.4849298 -0.34348649 0.13146794 9
2.4826984 -0.34406123 0.21928383 10
2.4112599 -0.33673492 -0.12759508 6
2.4418683 -0.34144393 -0.043037634 7
2.4511681 -0.34710717 0.043212157 8
2.4698737 -0.35019577 0.13073523 9
2.4913454 -0.35412735 0.22015539 10
2.4100697 -0.34514976 -0.12759508 6
2.4446201 -0.35053322 -0.043107443 7
2.4598987 -0.35666835 0.043386683 8
2.4627066 -0.35795322 0.13042122 9
2.4940374 -0.3633962 0.22050403 10
2.4128642 -0.35371932 -0.12780441 6
2.4315114 -0.35731998 -0.042898018 7
2.456661 -0.364959 0.043351781 8
2.4713194 -0.36801845 0.13094458 9
2.484936 -0.37048942 0.21980678 10
2.4195151 -0.36332598 -0.12822311 6
2.4223394 -0.36461475 -0.042758394 7
2.4553719 -0.37353209 0.043351781 8
2.4739687 -0.3772448 0.13115391 9
2.4777188 -0.37825912 0.21928383 10
2.4261286 -0.37298343 -0.1286418 6
2.4329102 -0.37489539 -0.042967826 7
2.4421978 -0.38025475 0.043142349 8
2.4765837 -0.38649419 0.13136327 9
2.4881947 -0.38875109 0.22032972 10
2.4090278 -0.37896693 -0.12780441 6
2.4434388 -0.38525423 -0.043177254 7
2.4507296 -0.39035007 0.043316875 8
2.4693024 -0.39419216 0.13104925 9
2.48879 -0.39774856 0.22050403 10
2.4136059 -0.38832542 -0.12811844 6
2.4381304 -0.39314434 -0.043107443 7
2.449352 -0.39890233 0.043316875 8
2.463969 -0.40216574 0.1308399 9
2.4893525 -0.40675488 0.22067833 10
2.4327972 -0.40100217 -0.043037634 7
2.4597802 -0.40941966 0.043526303 8
2.4783103 -0.41339305 0.13167727 9
2.4274387 -0.40882754 -0.042967826 7
2.4484062 -0.41675469 0.043351781 8
2.4787476 -0.4228096 0.13178195 9
2.4298654 -0.4184005 -0.043037634 7
2.4469366 -0.42529866 0.043351781 8
2.4792242 -0.43180218 0.13188663 9
2.440207 -0.42895702 -0.043247063 7
2.4533129 -0.4352347 0.043491397 8
2.4757357 -0.44010413 0.13178195 9
2.4426315 -0.43817851 -0.043316875 7
2.4478433 -0.44308341 0.043421589 8
2.4663236 -0.44731766 0.13136327 9
2.433219 -0.44526243 -0.043177254 7
2.4580803 -0.45380348 0.043631013 8
2.4706385 -0.45701379 0.13167727 9
2.4316499 -0.4537532 -0.043177254 7
2.4446905 -0.4601616 0.043421589 8
2.4749162 -0.46674559 0.1319913 9
2.4457667 -0.46522787 -0.043456491 7
2.4410233 -0.46874166 0.043386683 8
2.4713106 -0.47500485 0.13188663 9
2.4531934 -0.47951907 0.043631013 8
2.4696374 -0.48362845 0.13188663 9
2.4593496 -0.48964125 0.043770637 8
2.4600997 -0.49068338 0.13146794 9
2.4595854 -0.49862042 0.043805543 8
2.4740303 -0.50244784 0.13230531 9
2.449996 -0.50558627 0.043665919 8
2.4404776 -0.51206541 0.043526303 8
2.4464979 -0.52225101 0.043665919 8
2.4563849 -0.53333342 0.043875352 8
2.4506032 -0.54104239 0.043805543 8
