# .PCD v0.7 - Point Cloud Data file format
VERSION 0.7
FIELDS x y z intensity
SIZE 4 4 4 4
TYPE F F F F
COUNT 1 1 1 1
WIDTH 365
HEIGHT 1
VIEWPOINT 0 0 0 1 0 0 0
POINTS 365
DATA ascii
3.0958016 0.29809254 -0.27210024 5
3.1695433 0.2979354 0.055568464 8
3.1047587 0.28802115 -0.27279747 5
3.17853 0.28759125 0.055708081 8
3.0864134 0.27599859 -0.38047612 4
3.1253693 0.27783278 -0.16443959 6
3.0834024 0.26488265 -0.37998864 4
3.1086791 0.26650757 -0.27297178 5
3.1322904 0.26743042 -0.16475362 6
3.1601145 0.26869649 -0.055359036 7
3.0671558 0.25378329 -0.48744985 3
3.0882652 0.25444609 -0.38047612 4
3.1036332 0.25516549 -0.27244884 5
3.1391761 0.25698608 -0.16506761 6
3.1610332 0.25766313 -0.055359036 7
3.1833606 0.25445044 0.055742987 8
3.0601461 0.24245045 -0.48619837 3
3.09705 0.24428801 -0.38145107 4
3.1045051 0.24432939 -0.27244884 5
3.1659005 0.24693918 -0.055428844 7
3.1742601 0.24257417 0.055568464 8
3.0609736 0.23176919 -0.48619837 3
3.0919454 0.23302743 -0.38071984 4
3.113286 0.23409085 -0.27314609 5
3.1408937 0.23506273 -0.16506761 6
3.1830649 0.23207477 0.055708081 8
3.0657046 0.22136672 -0.48682413 3
3.0887802 0.22194922 -0.38023239 4
3.1101098 0.22293632 -0.27279747 5
3.1337266 0.22352977 -0.16464894 6
3.1938303 0.22165377 0.055882607 8
3.2139261 0.2219228 0.1688358 9
3.0704 0.21093547 -0.48744985 3
3.0835946 0.2107591 -0.37950116 4
3.1168325 0.21248434 -0.27332041 5
3.1424584 0.21312942 -0.16506761 6
3.1683128 0.21377198 -0.055428844 7
3.2226534 0.21122439 0.1692545 9
3.0750599 0.20047268 -0.48807558 3
3.0961971 0.20076542 -0.38096359 4
3.1115904 0.20121823 -0.27279747 5
3.1471696 0.20241596 -0.16527697 6
3.1650484 0.20245659 -0.055359036 7
3.1933038 0.19922824 0.055847701 8
3.2493527 0.2010157 0.28482497 10
3.0639114 0.18900692 -0.48619837 3
3.1008418 0.19019866 -0.38145107 4
3.1082964 0.19011141 -0.27244884 5
3.147857 0.19142821 -0.16527697 6
3.165736 0.19140793 -0.055359036 7
3.1839986 0.1874917 0.055673175 8
3.0724406 0.17877035 -0.48744985 3
3.1054502 0.17960344 -0.38193855 4
3.1168973 0.17971969 -0.27314609 5
3.1485059 0.18043964 -0.16527697 6
3.1966138 0.1770405 0.055882607 8
3.2246573 0.17802763 0.1692545 9
3.276494 0.17859526 0.4029001 11
3.0941656 0.16811678 -0.38047612 4
3.1194952 0.16894551 -0.27332041 5
3.1431336 0.16912693 -0.16496295 6
3.1829402 0.17071024 -0.055638272 7
3.2051711 0.16685411 0.056022223 8
3.2192755 0.1664632 0.16894048 9
3.2790506 0.16783273 0.40314382 11
3.0907409 0.15765211 -0.37998864 4
3.1280251 0.15845928 -0.27401763 5
3.1456716 0.15880281 -0.16506761 6
3.1755278 0.15919884 -0.055498652 7
3.203737 0.15556712 0.055987321 8
3.2318065 0.15580101 0.16956852 9
3.2617657 0.15667316 0.28569651 10
3.2895305 0.15685755 0.4043625 11
3.0992038 0.14723845 -0.38096359 4
3.1106222 0.14723828 -0.27244884 5
3.1501973 0.14800803 -0.16527697 6
3.1800592 0.14830017 -0.055568464 7
3.2002647 0.14420521 0.055917513 8
3.2423069 0.14496413 0.17009188 9
3.2603023 0.14520012 0.28552222 10
3.1036651 0.13659599 -0.38145107 4
3.1150982 0.13655299 -0.27279747 5
3.1686528 0.137794 -0.16621901 6
3.1805577 0.13719794 -0.055568464 7
3.1947548 0.13278337 0.055812798 8
3.2467844 0.13381064 0.17030121 9
3.2568078 0.13365439 0.28517357 10
3.2885621 0.13380776 0.40411878 11
3.1080899 0.12592123 -0.38193855 4
3.1195374 0.12583821 -0.27314609 5
3.147162 0.12585379 -0.16506761 6
3.1850133 0.12625398 -0.055638272 7
3.1991954 0.12178358 0.055882607 8
3.2332609 0.12194864 0.16956852 9
3.2731824 0.1228823 0.28656808 10
3.2751229 0.12181039 0.40241259 11
3.1045432 0.11492352 -0.38145107 4
3.1319036 0.11539052 -0.27419198 5
3.1435905 0.11472087 -0.16485828 6
3.1934283 0.1154235 -0.055777889 7
3.2115922 0.11102926 0.056092035 8
3.2236862 0.11032083 0.16904517 9
3.2755828 0.1115245 0.28674239 10
3.1009576 0.10395359 -0.38096359 4
3.1342788 0.104523 -0.27436629 5
3.147964 0.10387938 -0.16506761 6
3.1818199 0.10388329 -0.055568464 7
3.219955 0.10006563 0.056231655 8
3.2360296 0.099436127 0.16967319 9
3.265995 0.099784814 0.28587085 10
3.1092381 0.093366086 -0.38193855 4
3.1246672 0.093285076 -0.27349472 5
3.1602859 0.093242891 -0.16569565 6
3.1781654 0.092661656 -0.055498652 7
3.2082911 0.088495143 0.056022223 8
3.24035 0.088247553 0.16988252 9
3.2663233 0.088384449 0.28587085 10
3.1209903 0.082271539 -0.27314609 5
3.1645851 0.0823154 -0.165905 6
3.1864657 0.081771582 -0.055638272 7
3.1985848 0.077055447 0.055847701 8
3.2506218 0.077173784 0.17040588 9
3.2745793 0.077170759 0.28656808 10
3.129226 0.071558125 -0.27384335 5
3.1568663 0.071089245 -0.16548631 6
3.1907301 0.070737556 -0.055708081 7
3.2128294 0.066178776 0.056092035 8
3.2408872 0.065623492 0.16988252 9
3.2788126 0.065818973 0.2869167 10
3.1414087 0.060866889 -0.2748892 5
3.1531014 0.059992462 -0.16527697 6
3.1989548 0.059747912 -0.055847701 7
3.21504 0.054996856 0.056126937 8
3.2410965 0.054310966 0.16988252 9
3.2770305 0.054341037 0.28674239 10
3.1455865 0.049964905 -0.27523783 5
3.1612797 0.049110476 -0.16569565 6
3.1911461 0.048458815 -0.055708081 7
3.221211 0.043854751 0.056231655 8
3.2492547 0.043102209 0.17030121 9
3.2752078 0.042874783 0.28656808 10
3.1298037 0.038787596 -0.27384335 5
3.1734145 0.038218725 -0.16632369 6
3.1912959 0.03732001 -0.055708081 7
3.2193449 0.032590795 0.056196753 8
3.2553771 0.031819176 0.17061524 9
3.2773299 0.031461731 0.28674239 10
3.12992 0.027861472 -0.27384335 5
3.1795204 0.027193118 -0.1666377 6
3.1994052 0.026244843 -0.055847701 7
3.2094407 0.021285815 0.056022223 8
3.2574651 0.020468829 0.17071991 9
3.2734351 0.019996308 0.28639376 10
3.1339827 0.016956568 -0.27419198 5
3.1616206 0.016002527 -0.16569565 6
3.2034767 0.015097724 -0.055917513 7
3.2254927 0.010135119 0.056301463 8
3.2535224 0.0090860063 0.17051056 9
3.2834468 0.0085949702 0.28726533 10
3.1419926 0.0060327849 -0.2748892 5
3.1616571 0.0049654716 -0.16569565 6
3.2035098 0.0039145588 -0.055917513 7
3.2195096 -0.0011238209 0.056196753 8
3.2435484 -0.0016983182 0.1699872 9
3.2894337 -0.002870573 0.28778824 10
3.1459792 -0.0049416963 -0.27523783 5
3.1716416 -0.0060891225 -0.16621901 6
3.1995046 -0.0072594578 -0.055847701 7
3.2354834 -0.012423425 0.056475986 8
3.2515094 -0.01361997 0.17040588 9
3.2774496 -0.014300662 0.28674239 10
3.1696038 -0.017149376 -0.16611435 6
3.1994598 -0.018427767 -0.055847701 7
3.2174237 -0.02358537 0.056161843 8
3.2574334 -0.025015784 0.17071991 9
3.1775134 -0.028284362 -0.16653302 6
3.2073743 -0.029669842 -0.055987321 7
3.2253199 -0.034902681 0.056301463 8
3.2713065 -0.036542363 0.17145261 9
3.1773953 -0.039375778 -0.16653302 6
3.2072513 -0.040865488 -0.055987321 7
3.2271781 -0.046189558 0.056336369 8
3.2611737 -0.047814727 0.17092925 9
3.1712475 -0.050371565 -0.16621901 6
3.2110879 -0.052125551 -0.056057129 7
3.2369943 -0.057632215 0.056510892 8
3.2609868 -0.059198055 0.17092925 9
3.177043 -0.061557043 -0.16653302 6
3.2068877 -0.063255154 -0.055987321 7
3.2447701 -0.069101393 0.056650508 8
3.2647662 -0.070097305 0.1711386 9
3.1847956 -0.072829261 -0.16695172 6
3.202662 -0.073797092 -0.055917513 7
3.2365267 -0.079664223 0.056510892 8
3.2704918 -0.081642568 0.17145261 9
3.1845365 -0.083390027 -0.16695172 6
3.210381 -0.085188195 -0.056057129 7
3.2322311 -0.090848967 0.056441084 8
3.2761757 -0.093228646 0.17176662 9
3.1802335 -0.094387121 -0.16674237 6
3.2140615 -0.096514031 -0.056126937 7
3.2338929 -0.10219416 0.056475986 8
3.2698419 -0.10447273 0.17145261 9
3.2216995 -0.10800062 -0.056266561 7
3.2374935 -0.11418727 0.056545798 8
3.2634692 -0.11567371 0.1711386 9
3.2133095 -0.11894988 -0.056126937 7
3.2550809 -0.12561657 0.05685994 8
3.2710507 -0.12680461 0.17155728 9
3.2168934 -0.12976615 -0.056196753 7
3.2406611 -0.13582392 0.056615606 8
3.2765746 -0.13847493 0.1718713 9
3.2204168 -0.14116956 -0.056266561 7
3.2800617 -0.15009406 0.17208064 9
3.2318888 -0.15297735 -0.056475986 7
3.2495928 -0.15950012 0.056790132 8
3.2313063 -0.16482176 -0.056475986 7
3.2510128 -0.17094733 0.056825034 8
3.252393 -0.18240643 0.05685994 8
3.2634926 -0.228778 0.057104275 8
3.2706516 -0.24075557 0.057243895 8
3.0393376 0.60897565 -0.16245082 6
3.0434048 0.59874749 -0.1625555 6
3.029686 0.58562011 -0.16171812 6
3.0355358 0.57631433 -0.16192746 6
3.033602 0.56498408 -0.16171812 6
3.0728881 0.57119113 -0.054556224 7
3.0335908 0.55403173 -0.16161345 6
3.0768306 0.56082052 -0.05459113 7
3.0493636 0.54537147 -0.16234615 6
3.0689266 0.54831749 -0.054416601 7
3.0394452 0.53265446 -0.16171812 6
3.078795 0.53844434 -0.054556224 7
3.0412855 0.5220437 -0.16171812 6
3.0845978 0.52836847 -0.054626033 7
3.0391502 0.51076162 -0.16150878 6
3.078445 0.51681155 -0.054486416 7
3.0076835 0.49630085 -0.26669657 5
3.0447688 0.50132871 -0.16171812 6
3.0643561 0.50400454 -0.054207176 7
3.0251329 0.48833981 -0.26809105 5
3.0524158 0.49164942 -0.16203214 6
3.0779424 0.49521133 -0.054416601 7
3.020998 0.47631863 -0.26756814 5
3.0403864 0.47828653 -0.16129944 6
3.083688 0.48454687 -0.054486416 7
3.1023128 0.48192701 0.054800555 8
3.0226424 0.46576965 -0.26756814 5
3.038089 0.46706435 -0.16109009 6
3.0893133 0.4743875 -0.054556224 7
3.1078477 0.47223815 0.054870363 8
3.0281105 0.45633805 -0.26791674 5
3.0435712 0.45758161 -0.16129944 6
3.0829592 0.46295312 -0.054416601 7
3.1133528 0.46251643 0.054940179 8
3.0218005 0.44460434 -0.26721951 5
3.0550306 0.44840413 -0.1618228 6
3.0726855 0.45044765 -0.054207176 7
3.115027 0.451103 0.054940179 8
3.0155206 0.43239534 -0.26652226 5
3.0606077 0.43777016 -0.16203214 6
3.078275 0.43974748 -0.054276984 7
3.1087391 0.43856466 0.054800555 8
3.0209579 0.42241901 -0.26687086 5
3.0482705 0.42515194 -0.16129944 6
3.0877883 0.42956492 -0.054416601 7
3.1122322 0.42798355 0.054835461 8
3.0342591 0.41348466 -0.26791674 5
3.0457776 0.41397151 -0.16109009 6
3.0971956 0.41985756 -0.054556224 7
3.117671 0.41764742 0.054905269 8
3.0396342 0.40341407 -0.26826537 5
3.0511644 0.40386063 -0.16129944 6
3.0867469 0.40747571 -0.054346792 7
3.1230757 0.40727851 0.054975081 8
3.0252159 0.39076009 -0.26687086 5
3.0565176 0.39371711 -0.16150878 6
3.0881507 0.39669764 -0.054346792 7
3.1144214 0.39620388 0.054800555 8
3.0231562 0.38137701 -0.37413892 4
3.0264287 0.3812533 -0.26687086 5
3.0656657 0.38510919 -0.16192746 6
3.0893817 0.38699457 -0.054346792 7
3.1157851 0.38533223 0.054800555 8
3.0205281 0.37034085 -0.37365144 4
3.0316966 0.37117165 -0.26721951 5
3.0511308 0.3724716 -0.16109009 6
3.0946836 0.37669069 -0.054416601 7
3.1151261 0.37421447 0.054765653 8
3.1471565 0.37694791 0.16611435 9
3.0218024 0.35979417 -0.37365144 4
3.0330362 0.36005813 -0.26721951 5
3.1059093 0.36706007 -0.05459113 7
3.1283307 0.36472696 0.054975081 8
3.1385336 0.36480615 0.16559097 9
3.015152 0.34833181 -0.37267649 4
3.0382333 0.34992376 -0.26756814 5
3.0952516 0.3548488 -0.054381698 7
3.1296463 0.35325927 0.054975081 8
3.1457419 0.35451856 0.165905 9
3.0202949 0.33824736 -0.37316394 4
3.0354762 0.3388733 -0.26721951 5
3.0588937 0.34040809 -0.16129944 6
3.0924966 0.34359971 -0.05431189 7
3.1268251 0.34244278 0.054905269 8
3.1528566 0.34473839 0.16621901 9
3.0214 0.32822901 -0.37316394 4
3.0679483 0.33111897 -0.16171812 6
3.0975952 0.33377182 -0.054381698 7
3.118001 0.33101708 0.054730747 8
3.1599991 0.33436039 0.16653302 9
3.02845 0.3183035 -0.37389517 4
3.0611398 0.31957895 -0.16129944 6
3.1027191 0.32337239 -0.054451507 7
3.1231716 0.31999514 0.054800555 8
3.1592164 0.32257399 0.16642836 9
3.0236714 0.30659997 -0.37316394 4
3.0428226 0.30747041 -0.26756814 5
3.1158216 0.31319886 -0.054660939 7
3.1322837 0.3093313 0.054940179 8
3.1483974 0.31036782 0.16580033 9
3.1009731 0.30077547 -0.054381698 7
3.1372736 0.29932305 0.055009987 8
3.1514499 0.29956412 0.165905 9
3.0702839 0.28806597 -0.16161345 6
3.098022 0.28957617 -0.05431189 7
3.1263514 0.28727138 0.054800555 8
3.1603816 0.28984365 0.16632369 9
3.0812166 0.27824429 -0.16213681 6
3.1029487 0.27966079 -0.054381698 7
3.1252954 0.27672526 0.054765653 8
3.1613741 0.27880925 0.16632369 9
3.1934581 0.28051552 0.28046718 10
3.0559928 0.26844049 -0.4858855 3
3.0355215 0.26557314 -0.37413892 4
3.1078901 0.26917353 -0.054451507 7
3.1282341 0.26598579 0.054800555 8
3.1583481 0.26743442 0.16611435 9
3.1884148 0.26942146 0.27994424 10
3.0214803 0.25478294 -0.48025388 3
3.1127968 0.25865367 -0.054521319 7
3.1291437 0.25506374 0.054800555 8
3.1552806 0.25608563 0.165905 9
3.1993105 0.2585336 0.28081581 10
3.0604684 0.24516502 -0.26861399 5
3.1096938 0.2474698 -0.054451507 7
3.1360383 0.24405931 0.054905269 8
3.1601808 0.24482848 0.16611435 9
3.1922476 0.24675235 0.28011855 10
3.1610162 0.23379505 0.16611435 9
3.1891153 0.23531373 0.27976993 10
3.1737275 0.22415636 0.16674237 9
3.1899173 0.22418088 0.27976993 10
3.0476522 0.2125793 -0.37511387 4
3.1383853 0.21175273 0.054905269 8
3.1625342 0.21227324 0.16611435 9
3.1986325 0.21357471 0.28046718 10
3.1288092 0.20507352 -0.054730747 7
3.2013116 0.20309329 0.2806415 10
3.1679263 0.19042909 0.16632369 9
3.1980231 0.19167966 0.28029287 10
3.2405338 0.18174218 0.39851278 11
3.2272718 0.16969894 0.3968066 11
3.2038627 0.15781671 0.2806415 10
3.0778825 0.15107121 -0.48807558 3
