# .PCD v0.7 - Point Cloud Data file format
VERSION 0.7
FIELDS x y z intensity
SIZE 4 4 4 4
TYPE F F F F
COUNT 1 1 1 1
WIDTH 1375
HEIGHT 1
VIEWPOINT 0 0 0 1 0 0 0
POINTS 1375
DATA ascii
1.230933 0.53496993 0.070339531 9
1.1397536 0.49534294 -0.2415642 2
1.2225425 0.53106982 0.11661438 10
1.1469653 0.49800065 -0.19804606 3
1.2473856 0.54134411 0.16696103 11
1.1873823 0.5150575 -0.15891764 4
1.169902 0.50723171 -0.11155935 5
1.1857675 0.51361954 -0.06772273 6
1.2039108 0.52097869 -0.022897556 7
1.1265125 0.48561928 -0.32870021 0
1.2084006 0.5206697 0.022967368 8
1.1240028 0.48407221 -0.28253853 1
1.2217858 0.52593148 0.069711499 9
1.1450824 0.49291363 -0.24232745 2
1.2280493 0.52837366 0.116963 10
1.152326 0.49555507 -0.1986718 3
1.2346778 0.53071493 0.16501111 11
1.1654629 0.50072253 -0.15574904 4
1.1753267 0.50471747 -0.11190797 5
1.1838825 0.50790215 -0.067513391 6
1.2167499 0.52149993 -0.023106987 7
1.133531 0.48395938 -0.33025309 0
1.213889 0.51801842 0.023037177 8
1.1292707 0.48167518 -0.28343832 1
1.2144281 0.51774669 0.06918814 9
1.1395723 0.48583344 -0.24080098 2
1.2353848 0.52642715 0.11748594 10
1.1504138 0.48998174 -0.19804606 3
1.2401758 0.52795666 0.16549858 11
1.1690301 0.49742872 -0.15599278 4
1.1807483 0.50217158 -0.1122566 5
1.1856481 0.50376678 -0.067513391 6
1.203837 0.51099843 -0.022827748 7
1.1209787 0.47398114 -0.32611203 0
1.2248998 0.51766992 0.023211701 8
1.1345354 0.47924659 -0.28433815 1
1.2272677 0.51816589 0.069816172 9
1.1376437 0.48032564 -0.24003772 2
1.2262013 0.51746351 0.11644007 10
1.1593976 0.48903358 -0.19929753 3
1.2474986 0.52593815 0.1662298 11
1.1707593 0.49334469 -0.15599278 4
1.1733133 0.49417979 -0.11138504 5
1.1947632 0.50272316 -0.067932077 6
1.2019264 0.50524354 -0.022757938 7
1.1208442 0.46931937 -0.32559437 0
1.2100972 0.50644314 0.022897556 8
1.1451902 0.47904381 -0.28658766 1
1.2272261 0.51310855 0.069711499 9
1.1393133 0.4763518 -0.24003772 2
1.2206469 0.5101068 0.11574282 10
1.1538064 0.48193839 -0.19804606 3
1.2603179 0.5261693 0.16769223 11
1.1724745 0.48925468 -0.15599278 4
1.1731921 0.48931441 -0.11121072 5
1.2038853 0.50162202 -0.06835077 6
1.2036829 0.50104463 -0.022757938 7
1.1278292 0.46762401 -0.32714728 0
1.2081631 0.50068456 0.022827748 8
1.1342529 0.46982291 -0.28343832 1
1.2363911 0.51187783 0.070130184 9
1.140969 0.4723722 -0.24003772 2
1.2261019 0.50736666 0.11609145 10
1.1445295 0.47337767 -0.19616884 3
1.2474707 0.51569998 0.16574231 11
1.1815137 0.48819152 -0.15696773 4
1.1712101 0.48369485 -0.11086211 5
1.1908585 0.4913229 -0.067513391 6
1.2091221 0.4983643 -0.022827748 7
1.1294547 0.46368399 -0.32714728 0
1.2080535 0.49570543 0.022792844 8
1.1250678 0.4614242 -0.28073892 1
1.2306904 0.50474316 0.069711499 9
1.1498773 0.47136492 -0.2415642 2
1.2278653 0.50308394 0.11609145 10
1.1498308 0.47087711 -0.19679457 3
1.2400775 0.50758219 0.16452362 11
1.1685123 0.47805071 -0.15501782 4
1.1802679 0.48262027 -0.11155935 5
1.1851705 0.48414156 -0.067094706 6
1.2218759 0.49888754 -0.023037177 7
1.1292769 0.4590109 -0.32662967 0
1.2171006 0.49470815 0.022932461 8
1.1338135 0.46062496 -0.28253853 1
1.2268933 0.49818963 0.069397487 9
1.1387819 0.46217978 -0.23889288 2
1.236999 0.50179088 0.11678869 10
1.1550469 0.4685469 -0.19742033 3
1.2454334 0.50495857 0.16501111 11
1.1682514 0.47342783 -0.15477408 4
1.185639 0.47999239 -0.11190797 5
1.1941752 0.48320565 -0.067513391 6
1.2050705 0.4871248 -0.022688128 7
1.1254164 0.45309928 -0.32507673 0
1.2225302 0.49194998 0.023002272 8
1.1408385 0.45884562 -0.28388825 1
1.226772 0.4931587 0.069292814 9
1.1384867 0.4576683 -0.23851125 2
1.2275639 0.49322888 0.11574282 10
1.1603417 0.46598417 -0.19804606 3
1.2490308 0.50134724 0.16525485 11
1.1735814 0.47082549 -0.15526156 4
1.1687317 0.46864307 -0.11016486 5
1.1995627 0.48051983 -0.06772273 6
1.2067636 0.48291504 -0.022688128 7
1.1269912 0.44916832 -0.32507673 0
1.218667 0.48545915 0.022897556 8
1.1406226 0.45413995 -0.28343832 1
1.2340527 0.49108967 0.069606826 9
1.1473736 0.45659587 -0.24003772 2
1.2292782 0.48894054 0.11574282 10
1.1546187 0.45901164 -0.19679457 3
1.2563074 0.49918419 0.16598606 11
1.1752179 0.46672574 -0.15526156 4
1.1722124 0.46529531 -0.11033916 5
1.204946 0.47780177 -0.067932077 6
1.2121599 0.48017341 -0.022757938 7
1.1231611 0.44310445 -0.32352382 0
1.2147731 0.47900248 0.022792844 8
1.136762 0.44801173 -0.28208864 1
1.2357595 0.48677871 0.069606826 9
1.1507872 0.45330727 -0.24041936 2
1.2309772 0.48464742 0.11574282 10
1.1525375 0.45353204 -0.19616884 3
1.2488055 0.4911626 0.16476737 11
1.1842295 0.46552646 -0.15623651 4
1.1756836 0.4619295 -0.11051348 5
1.19917 0.47067359 -0.067513391 6
1.2175523 0.4773989 -0.022827748 7
1.1283 0.44058684 -0.32455909 0
1.2164378 0.47475889 0.022792844 8
1.1292415 0.44049969 -0.27983913 1
1.2318686 0.48028591 0.069292814 9
1.1487041 0.4478614 -0.23965611 2
1.2326616 0.48034725 0.11574282 10
1.1577951 0.45093969 -0.19679457 3
1.2431128 0.48392022 0.16379242 11
1.1710473 0.45563117 -0.15428659 4
1.2887467 0.50116599 0.21900828 12
1.177289 0.45782247 -0.11051348 5
1.1933583 0.46359268 -0.067094706 6
1.2229396 0.47459313 -0.022897556 7
1.1370389 0.43943095 -0.32662967 0
1.2180878 0.4705095 0.022792844 8
1.1344079 0.43795967 -0.28073892 1
1.2260844 0.47310659 0.068874128 9
1.1429341 0.44102156 -0.23812963 2
1.2417667 0.47890896 0.11644007 10
1.1593617 0.44689631 -0.19679457 3
1.2466469 0.48029134 0.16403615 11
1.1689258 0.45011371 -0.15379913 4
1.2646782 0.48673201 0.21462812 12
1.1863173 0.45657355 -0.11121072 5
1.2061548 0.46372437 -0.06772273 6
1.2133883 0.46601933 -0.022688128 7
1.1277397 0.43131828 -0.32352382 0
1.2309297 0.47053906 0.023002272 8
1.141391 0.43608344 -0.28208864 1
1.2295943 0.46953604 0.068978801 9
1.1334623 0.43282682 -0.23583993 2
1.2359849 0.47172996 0.11574282 10
1.1646062 0.44425446 -0.19742033 3
1.2557354 0.47876522 0.16501111 11
1.1741997 0.44744462 -0.15428659 4
1.2479095 0.47528332 0.21149944 12
1.1804563 0.44959283 -0.11051348 5
1.2040328 0.45809111 -0.067513391 6
1.2112693 0.46035975 -0.022618318 7
1.1292381 0.42737988 -0.32352382 0
1.2194723 0.46128666 0.022757938 8
1.144729 0.43278593 -0.28253853 1
1.2386987 0.46806589 0.069397487 9
1.1459849 0.43303221 -0.23812963 2
1.2301685 0.4645966 0.11504558 10
1.1587576 0.43739578 -0.19616884 3
1.2629707 0.47648132 0.16574231 11
1.1757545 0.44334286 -0.15428659 4
1.2569549 0.4737106 0.2127509 12
1.1745613 0.44265875 -0.10981624 5
1.2093629 0.45529249 -0.06772273 6
1.2166122 0.45753691 -0.022688128 7
1.1307231 0.42343518 -0.32352382 0
1.2117109 0.45352253 0.022583414 8
1.1352817 0.42469046 -0.27983913 1
1.2440667 0.46513775 0.069606826 9
1.1511676 0.43040419 -0.23889288 2
1.2355155 0.46169481 0.1153942 10
1.156576 0.43196622 -0.1955431 3
1.251608 0.46721053 0.16403615 11
1.1865941 0.44270575 -0.15550528 4
1.2567497 0.46863019 0.21243803 12
1.1835663 0.44134074 -0.11051348 5
1.199715 0.4468849 -0.067094706 6
1.2219502 0.45468235 -0.022757938 7
1.1394404 0.42217064 -0.32559437 0
1.2207878 0.45206749 0.022723034 8
1.1349298 0.42004833 -0.27938923 1
1.2306969 0.45524919 0.068769448 9
1.1618693 0.42978904 -0.24080098 2
1.2408571 0.45876074 0.11574282 10
1.1580769 0.42792609 -0.1955431 3
1.2457825 0.46008813 0.1630612 11
1.1769587 0.43443635 -0.15404287 4
1.2620847 0.46560758 0.21306378 12
1.1813613 0.43582717 -0.11016486 5
1.1937714 0.43993211 -0.066676013 6
1.2197766 0.44903278 -0.022688128 7
1.1372795 0.41686067 -0.32455909 0
1.2261137 0.44917941 0.022792844 8
1.1418787 0.4180944 -0.28073892 1
1.2341543 0.45163655 0.068874128 9
1.1467695 0.41965824 -0.23736641 2
1.2461931 0.4557955 0.11609145 10
1.1595635 0.42388126 -0.1955431 3
1.2511101 0.45709881 0.16354866 11
1.1728739 0.42828289 -0.15331164 4
1.2618465 0.46052226 0.2127509 12
1.1903619 0.43443331 -0.11086211 5
1.1990526 0.43713084 -0.06688536 6
1.2138207 0.44203487 -0.02254851 7
1.127831 0.40893692 -0.32145327 0
1.2333142 0.4469409 0.022897556 8
1.148828 0.41609654 -0.28208864 1
1.2337675 0.44686094 0.068769448 9
1.1445354 0.41431585 -0.23660316 2
1.2365352 0.44737592 0.11504558 10
1.1684669 0.42251769 -0.19679457 3
1.258299 0.45475268 0.16427989 11
1.1761549 0.42506558 -0.15355539 4
1.2540771 0.4529801 0.21118654 12
1.1843752 0.42756909 -0.11016486 5
1.2043287 0.43429798 -0.067094706 6
1.2077551 0.43529481 -0.02240889 7
1.1291806 0.40519539 -0.32145327 0
1.225378 0.43947291 0.022723034 8
1.1538703 0.41359994 -0.28298843 1
1.2427629 0.44546312 0.06918814 9
1.1459028 0.41051891 -0.23660316 2
1.230509 0.44058612 0.11434833 10
1.1661417 0.4173097 -0.19616884 3
1.261669 0.45124626 0.16452362 11
1.1887727 0.42517427 -0.15501782 4
1.2555724 0.44881859 0.21118654 12
1.1782814 0.42095816 -0.10946761 5
1.2095245 0.43164417 -0.067304045 6
1.2091919 0.43128762 -0.02240889 7
1.1323385 0.40209481 -0.32197091 0
1.2192905 0.43273193 0.022583414 8
1.1405427 0.40455928 -0.27938923 1
1.2499577 0.44312468 0.06950216 9
1.1546596 0.40934038 -0.23812963 2
1.2375972 0.43849963 0.11487127 10
1.1563469 0.40948364 -0.19429164 3
1.2519304 0.4430863 0.1630612 11
1.1865065 0.41969836 -0.15453033 4
1.2627189 0.44640809 0.21212517 12
1.1835009 0.41817045 -0.10981624 5
1.203416 0.42497092 -0.06688536 6
1.2182333 0.4297246 -0.02254851 7
1.1392732 0.39986089 -0.32352382 0
1.2170199 0.42714837 0.022513606 8
1.1419477 0.40057635 -0.27938923 1
1.2326492 0.43215066 0.068455435 9
1.1524466 0.40380692 -0.23736641 2
1.2467178 0.43659502 0.11556852 10
1.1578399 0.40524292 -0.19429164 3
1.2497222 0.43740168 0.16257372 11
1.1804694 0.41293204 -0.15355539 4
1.2661338 0.44265038 0.21243803 12
1.1811916 0.41272196 -0.10946761 5
1.1974226 0.417925 -0.066466674 6
1.2272784 0.42810434 -0.022688128 7
1.1424873 0.39651537 -0.32404146 0
1.2355807 0.42858309 0.022827748 8
1.1452497 0.39702567 -0.27983913 1
1.2361118 0.42828402 0.068560109 9
1.1445738 0.39656821 -0.23545831 2
1.2501169 0.43289211 0.11574282 10
1.1667143 0.40378273 -0.1955431 3
1.255069 0.43411636 0.1630612 11
1.1782225 0.40730572 -0.1530679 4
1.2565455 0.43413544 0.21056081 12
1.1939241 0.41249979 -0.11051348 5
1.3138603 0.45368168 0.27018553 13
1.2026502 0.41504544 -0.066676013 6
1.217496 0.41969335 -0.0224787 7
1.1329008 0.38876238 -0.32093561 0
1.2332861 0.4229697 0.022757938 8
1.1484718 0.39365828 -0.28028902 1
1.231931 0.42202443 0.068246089 9
1.144094 0.39193395 -0.23507671 2
1.2421956 0.42529857 0.11487127 10
1.1681165 0.39970845 -0.1955431 3
1.2603333 0.43101704 0.16354866 11
1.1890292 0.40640023 -0.15428659 4
1.2543144 0.42847037 0.20993507 12
1.1821586 0.40382215 -0.1092933 5
1.2987145 0.44338354 0.26675099 13
1.2078724 0.4121345 -0.06688536 6
1.2151681 0.41415042 -0.02240889 7
1.130592 0.38356438 -0.31990036 0
1.2233922 0.41480967 0.02254851 8
1.1572217 0.39214838 -0.28208864 1
1.2428551 0.42092526 0.068769448 9
1.1510334 0.38982743 -0.23622155 2
1.2361237 0.418405 0.11417402 10
1.1657623 0.39436224 -0.19491737 3
1.2655914 0.42788634 0.16403615 11
1.1904405 0.40224755 -0.15428659 4
1.2595456 0.42535311 0.21056081 12
1.1778982 0.39778045 -0.10877036 5
1.2965339 0.43759146 0.26598775 13
1.2130884 0.40919271 -0.067094706 6
1.2166065 0.40990585 -0.02240889 7
1.1337554 0.38023004 -0.32041797 0
1.2229369 0.4099009 0.022513606 8
1.1474965 0.38439286 -0.27938923 1
1.2499986 0.4184868 0.069083467 9
1.1579722 0.38767731 -0.23736641 2
1.2375767 0.41408724 0.11417402 10
1.159638 0.38778493 -0.19366589 3
1.2557806 0.4196915 0.16257372 11
1.1918374 0.39808938 -0.15428659 4
1.2666439 0.42283067 0.21149944 12
1.1830591 0.39492846 -0.10911899 5
1.2906039 0.43057865 0.26446128 13
1.2031413 0.40116489 -0.066466674 6
1.2218242 0.40692118 -0.0224787 7
1.1387434 0.37748563 -0.32145327 0
1.2262583 0.4062587 0.02254851 8
1.1414315 0.37793455 -0.27758962 1
1.2400751 0.4103559 0.068455435 9
1.1555907 0.38239899 -0.23660316 2
1.2465811 0.41226742 0.11487127 10
1.1647359 0.38497424 -0.19429164 3
1.2496984 0.41281459 0.16159877 11
1.1819097 0.39019302 -0.15282416 4
1.2699881 0.41902524 0.2118123 12
1.1957829 0.39454168 -0.11016486 5
1.292099 0.42607063 0.26446128 13
1.2007403 0.39571264 -0.066257328 6
1.2308348 0.40515429 -0.022618318 7
1.1437258 0.37471154 -0.32248855 0
1.2314696 0.40322053 0.022618318 8
1.146448 0.37515974 -0.27848941 1
1.2339065 0.40354165 0.06803675 9
1.1531866 0.37714267 -0.23583993 2
1.2423311 0.40605682 0.11434833 10
1.1623173 0.37967911 -0.19366589 3
1.25868 0.41091427 0.16257372 11
1.17949 0.38483375 -0.15233669 4
1.2639308 0.41213968 0.21056081 12
1.197153 0.39036492 -0.11016486 5
1.3010449 0.42399126 0.26598775 13
1.2097107 0.39399263 -0.066676013 6
1.220832 0.39714411 -0.02240889 7
1.1320332 0.36694691 -0.31886509 0
1.234633 0.39996573 0.022653224 8
1.1513289 0.37275696 -0.27938923 1
1.2389688 0.40089259 0.068246089 9
1.148762 0.3717044 -0.23469506 2
1.2436007 0.40215158 0.11434833 10
1.174782 0.3796708 -0.1955431 3
1.2637428 0.40817791 0.1630612 11
1.1882496 0.38356525 -0.15331164 4
1.2614594 0.40695417 0.20993507 12
1.1832041 0.38170856 -0.10877036 5
1.3061079 0.4211064 0.26675099 13
1.2147444 0.39141563 -0.06688536 6
1.2163631 0.39146855 -0.022304177 7
1.1333073 0.36299285 -0.31886509 0
1.2284034 0.39321533 0.022513606 8
1.154479 0.36932981 -0.27983913 1
1.242263 0.39717385 0.06835077 9
1.1556624 0.36948609 -0.23583993 2
1.2374054 0.39538273 0.11365108 10
1.1610463 0.37076074 -0.19304016 3
1.2727244 0.40617853 0.16403615 11
1.1895812 0.37941539 -0.15331164 4
1.2666365 0.40374789 0.21056081 12
1.182631 0.37697065 -0.10859605 5
1.2926047 0.41177762 0.26369804 13
1.2122972 0.38596082 -0.066676013 6
1.2215334 0.38843247 -0.022373985 7
1.1437768 0.36194864 -0.32145327 0
1.2297684 0.38892528 0.022513606 8
1.1501869 0.36353549 -0.27848941 1
1.2473822 0.39425567 0.068560109 9
1.1532011 0.36426684 -0.23507671 2
1.2463778 0.39346042 0.11434833 10
1.1661011 0.36789399 -0.19366589 3
1.2665616 0.39934534 0.1630612 11
1.1984715 0.37764734 -0.15428659 4
1.2717361 0.40073356 0.21118654 12
1.1915412 0.37523431 -0.1092933 5
1.2902887 0.40608388 0.2629348 13
1.2098264 0.38052908 -0.066466674 6
1.228538 0.38617826 -0.0224787 7
1.1376578 0.35564849 -0.31938273 0
1.2310516 0.38484475 0.022513606 8
1.1476659 0.35855728 -0.27758962 1
1.2373117 0.38632774 0.067932077 9
1.1582139 0.36140907 -0.23583993 2
1.2572539 0.39207274 0.11521988 10
1.1635431 0.36284915 -0.19304016 3
1.2508224 0.38982692 0.16086754 11
1.1864505 0.36953849 -0.15258044 4
1.2768997 0.39746583 0.2118123 12
1.1928438 0.37107244 -0.1092933 5
1.299127 0.40413523 0.26446128 13
1.2110817 0.37651473 -0.066466674 6
1.2317883 0.38248011 -0.022513606 7
1.1499053 0.3552959 -0.32248855 0
1.2362089 0.38172486 0.022583414 8
1.1489105 0.35454869 -0.27758962 1
1.2348355 0.38082939 0.06772273 9
1.1519016 0.35525218 -0.23431346 2
1.2604514 0.38848791 0.1153942 10
1.172354 0.36111107 -0.19429164 3
1.2559699 0.38662732 0.16135503 11
1.1839386 0.36422697 -0.15209295 4
1.2707268 0.39068377 0.21056081 12
1.2016854 0.3694571 -0.10999054 5
1.3080362 0.40190536 0.26598775 13
1.2123888 0.37228468 -0.066466674 6
1.2216448 0.37466097 -0.022304177 7
1.134509 0.34620485 -0.31782979 0
1.241359 0.37857491 0.022653224 8
1.1575974 0.35280889 -0.27938923 1
1.2457104 0.37942606 0.068246089 9
1.1456225 0.34894067 -0.23278698 2
1.2503636 0.38060427 0.11434833 10
1.1773869 0.35816666 -0.19491737 3
1.2630095 0.38397262 0.16208623 11
1.190901 0.36182299 -0.15282416 4
1.2683023 0.38509819 0.20993507 12
1.1915289 0.36178726 -0.10894467 5
1.3094312 0.39733666 0.26598775 13
1.2175034 0.36920923 -0.066676013 6
1.2229452 0.37039402 -0.022304177 7
1.13756 0.3428002 -0.31834742 0
1.2311845 0.37077925 0.022443794 8
1.1625541 0.34988886 -0.28028902 1
1.2431369 0.37414151 0.06803675 9
1.1543537 0.34720173 -0.23431346 2
1.2459601 0.37451765 0.1138254 10
1.167279 0.3506445 -0.19304016 3
1.2681446 0.38070339 0.16257372 11
1.1921564 0.35766459 -0.15282416 4
1.2695724 0.38089049 0.20993507 12
1.1832423 0.35476449 -0.10807312 5
1.2995265 0.38938212 0.26369804 13
1.2187846 0.36495793 -0.066676013 6
1.3087234 0.39164004 0.31538138 14
1.2279984 0.36748278 -0.022373985 7
1.1424532 0.3399289 -0.31938273 0
1.2304907 0.36612383 0.02240889 8
1.1506326 0.34214404 -0.27713972 1
1.2540077 0.37264538 0.068560109 9
1.1687328 0.34708223 -0.23698479 2
1.24726 0.3701658 0.1138254 10
1.1646477 0.3456479 -0.1924144 3
1.2636906 0.37480283 0.1618425 11
1.1990458 0.35540134 -0.15355539 4
1.2765763 0.37813929 0.21087368 12
1.1921151 0.35289502 -0.10877036 5
1.2970452 0.38395691 0.2629348 13
1.2123275 0.35864764 -0.066257328 6
1.31749 0.38950825 0.31718099 14
1.2331089 0.36432809 -0.022443794 7
1.1546947 0.3394075 -0.32248855 0
1.2336799 0.36238962 0.022443794 8
1.1462103 0.33647901 -0.27579001 1
1.243802 0.36489207 0.067932077 9
1.1661094 0.34209952 -0.23622155 2
1.2580403 0.36883003 0.11469696 10
1.1696386 0.34269151 -0.19304016 3
1.2573709 0.36815789 0.16086754 11
1.1869427 0.34731099 -0.15184921 4
1.2797843 0.37423557 0.21118654 12
1.2028403 0.35173553 -0.10964192 5
1.3021467 0.38052809 0.26369804 13
1.2097377 0.35329354 -0.066047981 6
1.3225828 0.38599917 0.31808078 14
1.236293 0.36058113 -0.0224787 7
1.1484511 0.33322117 -0.32041797 0
1.2387784 0.35919574 0.022513606 8
1.1548649 0.33464512 -0.27758962 1
1.2335575 0.35721451 0.067304045 9
1.1578678 0.33529624 -0.23431346 2
1.2593198 0.36443728 0.11469696 10
1.1784182 0.34080148 -0.19429164 3
1.2624626 0.36486858 0.16135503 11
1.1843334 0.34206486 -0.15136175 4
1.2734915 0.36757448 0.20993507 12
1.2021466 0.34698185 -0.10946761 5
1.3072398 0.37706831 0.26446128 13
1.2109635 0.34906888 -0.066047981 6
1.3126868 0.37814322 0.31538138 14
1.2279359 0.35349712 -0.022304177 7
1.145893 0.32814687 -0.31938273 0
1.2477149 0.35706982 0.022653224 8
1.1653941 0.33329129 -0.27983913 1
1.2520802 0.35784629 0.068246089 9
1.1609187 0.33179221 -0.23469506 2
1.2414265 0.35456711 0.11295383 10
1.1758015 0.33560124 -0.19366589 3
1.2732731 0.36318231 0.16257372 11
1.1931564 0.340105 -0.15233669 4
1.2690675 0.36150309 0.20899647 12
1.195686 0.34059983 -0.10877036 5
1.3123244 0.37357822 0.26522452 13
1.2160165 0.34593293 -0.066257328 6
1.3177477 0.37462422 0.31628117 14
1.2253151 0.34811589 -0.022234365 7
1.1358771 0.3209925 -0.31627688 0
1.2297093 0.34727782 0.022304177 8
1.1684257 0.32975078 -0.28028902 1
1.2494773 0.35238892 0.06803675 9
1.1620698 0.32773751 -0.23469506 2
1.2464919 0.35131282 0.11330246 10
1.1693603 0.32935303 -0.1924144 3
1.2726223 0.3581973 0.16232997 11
1.1943363 0.3359383 -0.15233669 4
1.2722232 0.35760581 0.20930934 12
1.1891953 0.33426771 -0.10807312 5
1.3022798 0.36580911 0.2629348 13
1.2210627 0.34276539 -0.066466674 6
1.3265525 0.37212777 0.31808078 14
1.2284484 0.34437612 -0.022269269 7
1.1444341 0.3191013 -0.31834742 0
1.236693 0.34459317 0.02240889 8
1.1564286 0.32201073 -0.27713972 1
1.2641072 0.35199416 0.068769448 9
1.1669896 0.32473201 -0.23545831 2
1.2534695 0.3485606 0.1138254 10
1.1666963 0.32421169 -0.19178867 3
1.2681268 0.35215971 0.16159877 11
1.2088914 0.33548269 -0.15404287 4
1.2772089 0.3544417 0.20993507 12
1.1961145 0.33171216 -0.10859605 5
1.299765 0.36021274 0.26217157 13
1.2184019 0.3374351 -0.066257328 6
1.335356 0.36957446 0.3198804 14
1.2334381 0.34136757 -0.022339081 7
1.1474038 0.31561661 -0.31886509 0
1.2320448 0.33889881 0.022304177 8
1.1405787 0.31352514 -0.2730906 1
1.2499208 0.34334737 0.067932077 9
1.175689 0.32273498 -0.23698479 2
1.2585213 0.34523687 0.11417402 10
1.1753851 0.322431 -0.19304016 3
1.2539718 0.34375423 0.15964885 11
1.1946808 0.32727587 -0.15209295 4
1.2860595 0.3520672 0.21118654 12
1.1953434 0.32700947 -0.10842174 5
1.308527 0.35797307 0.26369804 13
1.2041018 0.32917905 -0.06541995 6
1.3252952 0.36206248 0.31718099 14
1.2384802 0.33811355 -0.02240889 7
1.1596301 0.31484726 -0.32197091 0
1.2428699 0.3372145 0.0224787 8
1.1454278 0.31056201 -0.27399039 1
1.2472563 0.3379373 0.06772273 9
1.1578032 0.3137005 -0.23316859 2
1.2654287 0.34262395 0.11469696 10
1.1765034 0.31832644 -0.19304016 3
1.266662 0.3424834 0.16111128 11
1.1900669 0.32155055 -0.15136175 4
1.2720239 0.34345677 0.20868361 12
1.2041154 0.3251209 -0.10911899 5
1.3097687 0.35340288 0.26369804 13
1.2206706 0.32913387 -0.066257328 6
1.3114978 0.35337839 0.31358176 14
1.2299984 0.33118844 -0.022234365 7
1.1476592 0.30730003 -0.31834742 0
1.2575614 0.33649251 0.022723034 8
1.1521528 0.30807167 -0.27534011 1
1.2561464 0.33564407 0.068141423 9
1.1664779 0.31168452 -0.23469506 2
1.2589171 0.33614901 0.11399971 10
1.179516 0.31472665 -0.19335303 3
1.2716861 0.33908236 0.16159877 11
1.1969364 0.318928 -0.15209295 4
1.2751241 0.33952242 0.20899647 12
1.1936911 0.31783956 -0.10807312 5
1.3185834 0.35084775 0.26522452 13
1.221812 0.32487118 -0.066257328 6
1.3202571 0.35079962 0.31538138 14
1.2292143 0.32637942 -0.022199461 7
1.1337823 0.29934651 -0.31420633 0
1.2413267 0.32750916 0.02240889 8
1.1588738 0.30553925 -0.2766898 1
1.2573105 0.33125696 0.068141423 9
1.1637621 0.30661023 -0.23393184 2
1.244669 0.32769406 0.11260521 10
1.1672347 0.30709004 -0.19116293 3
1.2767013 0.33565098 0.16208623 11
1.2018825 0.3157565 -0.15258044 4
1.2782118 0.3355718 0.20930934 12
1.1909389 0.31265986 -0.1077245 5
1.304608 0.34225765 0.26217157 13
1.2345306 0.32364288 -0.06688536 6
1.3252436 0.34717688 0.31628117 14
1.2322805 0.32259333 -0.022234365 7
1.1497767 0.29927981 -0.31834742 0
1.2347209 0.32116082 0.022269269 8
1.148617 0.29855049 -0.27399039 1
1.2603923 0.32736784 0.068246089 9
1.1667255 0.30303931 -0.23431346 2
1.2515907 0.32484925 0.11312816 10
1.1702116 0.30350938 -0.19147581 3
1.2721007 0.32969803 0.16135503 11
1.2010555 0.31106174 -0.15233669 4
1.2851126 0.33259243 0.21024795 12
1.1958808 0.30949885 -0.10807312 5
1.3019934 0.33671814 0.26140836 13
1.2201829 0.31533396 -0.066047981 6
1.3339946 0.34449819 0.31808078 14
1.2353355 0.31878927 -0.022269269 7
1.3506128 0.3482869 0.37373474 15
1.1526855 0.2957454 -0.31886509 0
1.2455199 0.31933168 0.022443794 8
1.1477644 0.29405528 -0.2735405 1
1.2556666 0.32169965 0.067932077 9
1.1734818 0.30042639 -0.23545831 2
1.2585077 0.32195944 0.11365108 10
1.1731778 0.29991171 -0.19178867 3
1.2636268 0.32279977 0.16013633 11
1.1905936 0.30392113 -0.15087426 4
1.2804666 0.3268629 0.20930934 12
1.2085375 0.30827698 -0.10911899 5
1.3069655 0.33314201 0.26217157 13
1.2174052 0.31008649 -0.065838635 6
1.323858 0.33695516 0.31538138 14
1.2480134 0.31765077 -0.0224787 7
1.3292933 0.33809224 0.36752307 15
1.1574566 0.29266682 -0.31990036 0
1.2485106 0.31569013 0.0224787 8
1.1506227 0.29072461 -0.27399039 1
1.245163 0.31438127 0.067304045 9
1.1669091 0.29440692 -0.23393184 2
1.2634879 0.31853825 0.11399971 10
1.1837432 0.29843381 -0.19335303 3
1.2646904 0.31860733 0.16013633 11
1.1973699 0.3014254 -0.15160547 4
1.2796841 0.32190901 0.20899647 12
1.2115383 0.30454248 -0.1092933 5
1.3156792 0.33072022 0.26369804 13
1.2184267 0.30604798 -0.065838635 6
1.321188 0.33161405 0.31448159 14
1.2277786 0.30794141 -0.022094747 7
1.3454566 0.3372069 0.37166417 15
1.1490486 0.28648981 -0.31731215 0
1.2515453 0.31181377 0.022513606 8
1.1535213 0.28717798 -0.27444029 1
1.2520673 0.31147909 0.067618065 9
1.1564478 0.28769165 -0.23164214 2
1.2529356 0.31146353 0.11295383 10
1.1809434 0.29334837 -0.1927273 3
1.2773548 0.31705981 0.16159877 11
1.1984149 0.29724362 -0.15160547 4
1.2712129 0.31506494 0.20743214 12
1.2009382 0.29764766 -0.10824744 5
1.320637 0.32706916 0.26446128 13
1.2194877 0.30179268 -0.065838635 6
1.3299042 0.32887235 0.31628117 14
1.2366112 0.30557227 -0.022234365 7
1.3391235 0.33065557 0.36959362 15
1.1444132 0.28109497 -0.31575924 0
1.2409738 0.30458289 0.022304177 8
1.1526242 0.28268522 -0.27399039 1
1.2589666 0.30853313 0.067932077 9
1.1650721 0.28552255 -0.23316859 2
1.2520802 0.30661386 0.11277953 10
1.1781226 0.28828493 -0.19210154 3
1.2842383 0.31401378 0.16232997 11
1.2090869 0.2954146 -0.15282416 4
1.2819 0.3129679 0.20899647 12
1.1980989 0.29250833 -0.10789881 5
1.3141413 0.32059637 0.2629348 13
1.2321764 0.30037245 -0.066466674 6
1.3272575 0.32330537 0.31538138 14
1.2376704 0.30125353 -0.022234365 7
1.3365152 0.3250663 0.36855832 15
1.1566535 0.27982432 -0.31886509 0
1.2400858 0.299779 0.022269269 8
1.1517097 0.27820274 -0.2735405 1
1.2678019 0.30601141 0.06835077 9
1.1756041 0.28375745 -0.23507671 2
1.2570168 0.30317542 0.11312816 10
1.1752809 0.28324538 -0.19147581 3
1.2679574 0.30534649 0.16013633 11
1.2159008 0.29258522 -0.15355539 4
1.2906673 0.31033885 0.21024795 12
1.2049241 0.28972203 -0.10842174 5
1.3037988 0.31325561 0.26064509 13
1.2215649 0.29327169 -0.065838635 6
1.3435377 0.32230747 0.3189806 14
1.2387142 0.29693225 -0.022234365 7
1.330127 0.31859866 0.36648777 15
1.1651404 0.27757564 -0.32093561 0
1.2469606 0.29683799 0.022373985 8
1.148882 0.27327862 -0.27264068 1
1.2591466 0.2992745 0.067827404 9
1.1765875 0.27965179 -0.23507671 2
1.2677596 0.30108789 0.11399971 10
1.1781846 0.27959698 -0.19178867 3
1.263221 0.29954425 0.15940511 11
1.1975986 0.2837626 -0.151118 4
1.2878982 0.30492112 0.2096222 12
1.2117444 0.28689104 -0.10894467 5
1.3201686 0.31231809 0.26369804 13
1.2186939 0.28808716 -0.065629296 6
1.3256892 0.31313556 0.31448159 14
1.2533669 0.29582167 -0.0224787 7
1.3387519 0.31572774 0.36855832 15
1.1604599 0.27218369 -0.31938273 0
1.2479891 0.29248375 0.022373985 8
1.1517266 0.26971066 -0.2730906 1
1.250409 0.29282007 0.067304045 9
1.1699098 0.27375403 -0.23355024 2
1.2707428 0.29711461 0.11417402 10
1.1772299 0.27503291 -0.19147581 3
1.2758576 0.29784086 0.16086754 11
1.1985817 0.27958074 -0.151118 4
1.2850548 0.29975143 0.20899647 12
1.2127386 0.2826592 -0.10894467 5
1.3212507 0.3077082 0.26369804 13
1.2196919 0.28383163 -0.065629296 6
1.322978 0.30762306 0.31358176 14
1.2407068 0.2884931 -0.022234365 7
1.3435551 0.31216124 0.36959362 15
1.1519912 0.2659581 -0.31679454 0
1.2567461 0.29014266 0.022513606 8
1.158311 0.26720479 -0.27444029 1
1.2572621 0.2897996 0.067618065 9
1.1670321 0.26878703 -0.23278698 2
1.2601224 0.28999636 0.11312816 10
1.1896856 0.27378649 -0.19335303 3
1.278773 0.29405284 0.16111128 11
1.2053064 0.27693781 -0.15184921 4
1.2880187 0.29570559 0.20930934 12
1.2137178 0.2784245 -0.10894467 5
1.3222638 0.30332476 0.26369804 13
1.2284136 0.28157002 -0.066047981 6
1.3353881 0.30584481 0.31628117 14
1.2300105 0.28148419 -0.022024937 7
1.3446366 0.3074691 0.36959362 15
1.1453317 0.26042342 -0.31472397 0
1.242151 0.28221002 0.022234365 8
1.1668383 0.26488525 -0.2762399 1
1.2680049 0.28761849 0.068141423 9
1.1698314 0.26535004 -0.23316859 2
1.2552478 0.28449449 0.11260521 10
1.1829276 0.26788652 -0.19210154 3
1.2836639 0.29046378 0.16159877 11
1.2082019 0.27316684 -0.15209295 4
1.2794088 0.28903157 0.207745 12
1.199087 0.27088606 -0.10755019 5
1.3118242 0.29611328 0.26140836 13
1.2371823 0.27903831 -0.066466674 6
1.3402497 0.30203873 0.31718099 14
1.2426907 0.27982429 -0.022234365 7
1.3343933 0.30022886 0.36648777 15
1.1556599 0.25853282 -0.31731215 0
1.2353226 0.27612722 0.022094747 8
1.1639521 0.25996074 -0.27534011 1
1.2651025 0.28232083 0.067932077 9
1.1803312 0.26340324 -0.23507671 2
1.264012 0.28184524 0.11330246 10
1.1780714 0.26246667 -0.19116293 3
1.2749816 0.28382477 0.16038008 11
1.2072104 0.26851642 -0.15184921 4
1.2900517 0.2867063 0.20930934 12
1.2058601 0.26799524 -0.10807312 5
1.3051834 0.28983086 0.25988188 13
1.2264496 0.27212194 -0.065838635 6
1.3374907 0.2965146 0.31628117 14
1.2475644 0.27635062 -0.022304177 7
1.3392055 0.29640436 0.36752307 15
1.1603287 0.25532728 -0.31834742 0
1.247997 0.27439013 0.022304177 8
1.1534323 0.25338766 -0.27264068 1
1.2621304 0.27726662 0.06772273 9
1.1793258 0.25886026 -0.23469506 2
1.2688804 0.27828458 0.11365108 10
1.184769 0.25962159 -0.19210154 3
1.2720863 0.278523 0.15989259 11
1.2062012 0.26387629 -0.15160547 4
1.2948549 0.28327072 0.20993507 12
1.2126275 0.26506102 -0.10859605 5
1.3176955 0.28778625 0.26217157 13
1.2234895 0.26698723 -0.065629296 6
1.3309016 0.29018378 0.31448159 14
1.2523817 0.27306366 -0.022373985 7
1.3477314 0.29360691 0.36959362 15
1.1687655 0.25290996 -0.32041797 0
1.2449911 0.26940447 0.022234365 8
1.1656945 0.25203249 -0.27534011 1
1.2513771 0.27032852 0.067094706 9
1.1725461 0.2530849 -0.23316859 2
1.273739 0.27469459 0.11399971 10
1.1836925 0.25527516 -0.19178867 3
1.2788247 0.27555716 0.1606238 11
1.2070696 0.25987518 -0.15160547 4
1.2861795 0.27667287 0.20837073 12
1.2174413 0.26166356 -0.10894467 5
1.3224814 0.28423971 0.2629348 13
1.2243681 0.26292875 -0.065629296 6
1.324235 0.28413373 0.31268197 14
1.2415957 0.266175 -0.022164557 7
1.34497 0.28809103 0.36855832 15
1.1544818 0.24581455 -0.31627688 0
1.2615714 0.26838553 0.022513606 8
1.1799103 0.25079778 -0.27848941 1
1.2600812 0.26783863 0.067513391 9
1.1676176 0.24797247 -0.23202376 2
1.2648982 0.26840109 0.11312816 10
1.1903737 0.25237051 -0.1927273 3
1.2856046 0.27232656 0.16135503 11
1.2099113 0.25607139 -0.15184921 4
1.2793599 0.27076983 0.20711927 12
1.2105052 0.25597638 -0.10824744 5
1.3196239 0.27880967 0.26217157 13
1.2370034 0.26112872 -0.066257328 6
1.332846 0.28111789 0.31448159 14
1.2385582 0.26123112 -0.022094747 7
1.3421375 0.28283229 0.36752307 15
1.1515511 0.24099141 -0.31524161 0
1.246796 0.26092383 0.022234365 8
1.1673832 0.24409145 -0.27534011 1
1.2649184 0.26425561 0.06772273 9
1.1761634 0.24549946 -0.23355024 2
1.2541248 0.26154324 0.11208228 10
1.1815352 0.24640495 -0.19116293 3
1.294274 0.26968116 0.16232997 11
1.2088104 0.25165343 -0.15160547 4
1.2880331 0.26791108 0.20837073 12
1.2035884 0.25012803 -0.10755019 5
1.3147744 0.27323458 0.26102671 13
1.2417737 0.25783756 -0.066466674 6
1.3375871 0.27748778 0.31538138 14
1.2472947 0.25852984 -0.022234365 7
1.3355495 0.27657953 0.3654525 15
1.1636971 0.23950773 -0.31834742 0
1.243782 0.25576428 0.022164557 8
1.1548659 0.23727055 -0.27219078 1
1.2775722 0.26224792 0.06835077 9
1.1808175 0.24238704 -0.23431346 2
1.2608404 0.25858408 0.11260521 10
1.1823879 0.24227993 -0.19116293 3
1.2815943 0.26237434 0.1606238 11
1.2174609 0.24902326 -0.15258044 4
1.2947664 0.26460084 0.20930934 12
1.2083585 0.24672206 -0.10789881 5
1.3118732 0.26785764 0.26026347 13
1.2309245 0.25110579 -0.065838635 6
1.3461853 0.27437472 0.31718099 14
1.2521086 0.2549721 -0.022304177 7
1.3478652 0.27422643 0.36855832 15
1.1607798 0.23447621 -0.31731215 0
1.2525076 0.25300509 0.022304177 8
1.1556871 0.23323756 -0.27219078 1
1.2589012 0.25383869 0.067304045 9
1.1797733 0.23767003 -0.23393184 2
1.2734989 0.25632018 0.11365108 10
1.1852049 0.2383332 -0.19147581 3
1.2747178 0.25633341 0.15964885 11
1.212484 0.24359922 -0.15184921 4
1.297619 0.26046804 0.2096222 12
1.2170264 0.24406931 -0.10859605 5
1.3128461 0.26304787 0.26026347 13
1.2200861 0.24424058 -0.065210611 6
1.3318949 0.2663804 0.31358176 14
1.2490692 0.24981518 -0.022234365 7
1.3526031 0.27027723 0.36959362 15
1.171066 0.23230207 -0.31990036 0
1.255388 0.24880177 0.022339081 8
1.1699156 0.23165004 -0.27534011 1
1.2597795 0.24944361 0.067304045 9
1.1786698 0.23316911 -0.23355024 2
1.2724314 0.25148663 0.11347678 10
1.1879674 0.23457812 -0.19178867 3
1.2795439 0.25242832 0.16013633 11
1.201683 0.23685005 -0.15038678 4
1.2927063 0.2547906 0.20868361 12
1.215916 0.23943493 -0.10842174 5
1.317609 0.25922117 0.26102671 13
1.2287703 0.24152067 -0.065629296 6
1.3251678 0.26022783 0.31178215 14
1.2499336 0.24545385 -0.022234365 7
1.3535384 0.26555377 0.36959362 15
1.166181 0.22710529 -0.31834742 0
1.2601318 0.24540153 0.02240889 8
1.1572872 0.22516367 -0.27219078 1
1.2626032 0.24542542 0.067408718 9
1.1698402 0.22718225 -0.23164214 2
1.2733015 0.24704376 0.11347678 10
1.1945565 0.23176579 -0.1927273 3
1.2842716 0.24893959 0.1606238 11
1.2083083 0.23399632 -0.151118 4
1.2877693 0.24915123 0.207745 12
1.2147882 0.23481128 -0.10824744 5
1.3300269 0.25708622 0.26331642 13
1.2374086 0.23895904 -0.066047981 6
1.3375041 0.25804728 0.31448159 14
1.237038 0.23844022 -0.021990033 7
1.3392811 0.25790459 0.3654525 15
1.155543 0.22105916 -0.31524161 0
1.2550882 0.23987542 0.022304177 8
1.1772078 0.22477721 -0.2766898 1
1.2693377 0.24213961 0.06772273 9
1.1840866 0.22587705 -0.23431346 2
1.2604136 0.24020867 0.1122566 10
1.1875962 0.22611639 -0.19147581 3
1.2929331 0.2459392 0.16159877 11
1.2208191 0.23200044 -0.15258044 4
1.2944535 0.24575961 0.20868361 12
1.2116454 0.230038 -0.10789881 5
1.3193427 0.25024709 0.26102671 13
1.2343105 0.23389477 -0.065838635 6
1.3422263 0.25410154 0.31538138 14
1.2516167 0.23672229 -0.022234365 7
1.3420713 0.25358701 0.36597013 15
1.1658012 0.21880572 -0.31782979 0
1.2500217 0.23438697 0.022199461 8
1.1607463 0.2174376 -0.27264068 1
1.2799911 0.23954399 0.068246089 9
1.1848679 0.22174214 -0.23431346 2
1.2690781 0.23727243 0.11295383 10
1.1844945 0.22124436 -0.19085006 3
1.2820753 0.23923931 0.16013633 11
1.2196699 0.22737402 -0.15233669 4
1.2991873 0.24196325 0.20930934 12
1.2104822 0.22544265 -0.1077245 5
1.3124878 0.24420336 0.25950024 13
1.2233377 0.22739506 -0.065210611 6
1.3392731 0.24870344 0.31448159 14
1.2544016 0.23271632 -0.022269269 7
1.3524458 0.25066131 0.36855832 15
1.1684579 0.21508439 -0.31834742 0
1.2547655 0.23074575 0.022269269 8
1.1614983 0.2133842 -0.27264068 1
1.2631395 0.23182929 0.067304045 9
1.1894966 0.21831332 -0.23507671 2
1.2777375 0.23427863 0.11365108 10
1.1833167 0.21675214 -0.1905372 3
1.2789973 0.23404759 0.15964885 11
1.2087398 0.22097354 -0.15087426 4
1.300024 0.23742642 0.20930934 12
1.2191018 0.22264738 -0.10842174 5
1.3171952 0.24032487 0.26026347 13
1.224124 0.2231237 -0.065210611 6
1.3362986 0.24332841 0.31358176 14
1.2532389 0.22797798 -0.022234365 7
1.3533125 0.24593917 0.36855832 15
1.176806 0.21237704 -0.32041797 0
1.2594994 0.22707368 0.022339081 8
1.1699075 0.21071103 -0.27444029 1
1.2600095 0.22671157 0.067094706 9
1.1825225 0.21276945 -0.23355024 2
1.2844304 0.23087417 0.11417402 10
1.1918432 0.21401705 -0.19178867 3
1.2798064 0.22958191 0.15964885 11
1.2075498 0.21640241 -0.15063052 4
1.293067 0.23149484 0.20805787 12
1.2159489 0.21768859 -0.10807312 5
1.3218911 0.23641708 0.26102671 13
1.2288275 0.21955158 -0.06541995 6
1.333303 0.23797785 0.31268197 14
1.248121 0.22254919 -0.022129651 7
1.3541628 0.24121335 0.36855832 15
1.1623216 0.20557594 -0.31627688 0
1.2681612 0.22406782 0.0224787 8
1.1687169 0.20628695 -0.27399039 1
1.2686611 0.22369891 0.067513391 9
1.1793913 0.20795824 -0.23278698 2
1.2714932 0.22397009 0.11295383 10
1.1984193 0.21088272 -0.1927273 3
1.2884206 0.22648755 0.1606238 11
1.2200289 0.21424627 -0.15209295 4
1.2919215 0.22663875 0.207745 12
1.2147391 0.21309882 -0.10789881 5
1.3343111 0.23383439 0.26331642 13
1.2335212 0.21594936 -0.065629296 6
1.3379647 0.23399401 0.31358176 14
1.242981 0.2171583 -0.022024937 7
1.3511904 0.23582034 0.36752307 15
1.155418 0.20019896 -0.31420633 0
1.261054 0.21827519 0.022339081 8
1.1751907 0.2032019 -0.27534011 1
1.2773066 0.22062978 0.067932077 9
1.1781752 0.20350678 -0.23240536 2
1.2683406 0.21885251 0.11260521 10
1.1894149 0.20502008 -0.19116293 3
1.2892032 0.22198963 0.1606238 11
1.2188131 0.20964944 -0.15184921 4
1.290758 0.22179285 0.20743214 12
1.2154756 0.20885696 -0.10789881 5
1.3235092 0.2271834 0.26102671 13
1.2460786 0.21366778 -0.066257328 6
1.3387734 0.22932184 0.31358176 14
1.2535864 0.21450537 -0.022199461 7
1.3443885 0.22980067 0.3654525 15
1.1656331 0.19778015 -0.31679454 0
1.2480073 0.21153238 0.022094747 8
1.1643643 0.19714677 -0.27264068 1
1.2800004 0.21672593 0.06803675 9
1.1827499 0.20004742 -0.23316859 2
1.2730259 0.21508732 0.11295383 10
1.1842798 0.19988102 -0.19022433 3
1.2860553 0.21682772 0.16013633 11
1.2234164 0.20626685 -0.15233669 4
1.303174 0.2194794 0.20930934 12
1.2201267 0.20527427 -0.10824744 5
1.3165498 0.22126022 0.25950024 13
1.2349988 0.20733248 -0.065629296 6
1.3510576 0.22681652 0.31628117 14
1.2641516 0.21200046 -0.022373985 7
1.3527642 0.22661823 0.36752307 15
1.1681882 0.19423018 -0.31731215 0
1.2605379 0.20935874 0.022304177 8
1.1669343 0.19360372 -0.2730906 1
1.2669197 0.21019211 0.067304045 9
1.1872807 0.19676585 -0.23393184 2
1.2855259 0.21281737 0.11399971 10
1.1888337 0.19659752 -0.19085006 3
1.2808917 0.21159086 0.15940511 11
1.2123424 0.20026718 -0.15087426 4
1.3058437 0.21547855 0.2096222 12
1.228664 0.20252343 -0.10894467 5
1.3211508 0.21753074 0.26026347 13
1.2277964 0.20193963 -0.065210611 6
1.3402649 0.22043769 0.31358176 14
1.2648476 0.20780747 -0.022373985 7
1.3535084 0.2221307 0.36752307 15
1.1726393 0.19097656 -0.31834742 0
1.2592512 0.20485726 0.022269269 8
1.1733403 0.19067034 -0.27444029 1
1.2676458 0.20576811 0.067304045 9
1.1801749 0.19156958 -0.23240536 2
1.2822911 0.20791633 0.11365108 10
1.2011791 0.19454876 -0.1927273 3
1.2913843 0.20892756 0.1606238 11
1.2091148 0.19540039 -0.15038678 4
1.3007375 0.2099749 0.20868361 12
1.2293636 0.19823302 -0.10894467 5
1.3296177 0.21439886 0.26178995 13
1.2363467 0.19913708 -0.065629296 6
1.3333302 0.21452001 0.31178215 14
1.2576679 0.20212153 -0.022234365 7
1.3619053 0.21862917 0.36959362 15
1.1656998 0.18546343 -0.31627688 0
1.2678581 0.20171687 0.02240889 8
1.1836218 0.18810244 -0.2766898 1
1.2644111 0.20071594 0.067094706 9
1.1808691 0.187243 -0.23240536 2
1.2751732 0.20196745 0.11295383 10
1.1999329 0.1898365 -0.1924144 3
1.2940664 0.20472898 0.16086754 11
1.2156717 0.19210897 -0.151118 4
1.2956089 0.20450884 0.207745 12
1.2221758 0.1926996 -0.10824744 5
1.3420306 0.21135697 0.26407966 13
1.2410141 0.1952253 -0.065838635 6
1.3456583 0.21144633 0.31448159 14
1.2465132 0.19586743 -0.022024937 7
1.3473921 0.21147849 0.3654525 15
1.1644313 0.18109605 -0.31575924 0
1.2508051 0.19430561 0.022094747 8
1.1804519 0.18316564 -0.27579001 1
1.2769805 0.19791536 0.06772273 9
1.1815157 0.18311955 -0.23240536 2
1.2660258 0.19599126 0.11208228 10
1.1888752 0.18383528 -0.1905372 3
1.2908845 0.19937825 0.16038008 11
1.2202915 0.18825705 -0.15160547 4
1.3061113 0.20126332 0.20930934 12
1.2228739 0.18821849 -0.10824744 5
1.327237 0.20428152 0.26102671 13
1.2495843 0.19210638 -0.066257328 6
1.3540927 0.20793121 0.31628117 14
1.255129 0.19251037 -0.022164557 7
1.3481582 0.20653826 0.3654525 15
1.1746371 0.17827664 -0.31834742 0
1.2554299 0.1905387 0.022164557 8
1.1772305 0.17845951 -0.27489018 1
1.2776636 0.19345695 0.06772273 9
1.186061 0.17937525 -0.23316859 2
1.278556 0.19313495 0.11312816 10
1.1914942 0.17977156 -0.19085006 3
1.2896096 0.19457512 0.16013633 11
1.2287929 0.18517981 -0.15258044 4
1.3048526 0.19640854 0.20899647 12
1.2235234 0.18394896 -0.10824744 5
1.3260354 0.19912434 0.26064509 13
1.2344787 0.18515483 -0.06541995 6
1.3587002 0.20354454 0.31718099 14
1.2637038 0.18931329 -0.022304177 7
1.3488709 0.20183134 0.3654525 15
1.1713698 0.17401746 -0.31731215 0
1.263967 0.18754815 0.022304177 8
1.1701052 0.17341219 -0.2730906 1
1.2664436 0.18746389 0.067094706 9
1.1905031 0.17622288 -0.23393184 2
1.2850692 0.18999173 0.11365108 10
1.1940074 0.17631572 -0.19116293 3
1.2843564 0.18942825 0.15940511 11
1.2156528 0.1790785 -0.15087426 4
1.3094053 0.19265577 0.2096222 12
1.2241267 0.17989026 -0.10824744 5
1.3305392 0.195528 0.26140836 13
1.2311022 0.18069583 -0.065210611 6
1.3400517 0.19644807 0.31268197 14
1.2682818 0.18570071 -0.022373985 7
1.3610018 0.19903411 0.36855832 15
1.1815591 0.17110762 -0.31990036 0
1.2646139 0.1831352 0.022304177 8
1.1745607 0.16988485 -0.27399039 1
1.2749974 0.18418457 0.067513391 9
1.1814252 0.17045677 -0.23202376 2
1.2837849 0.18499656 0.11347678 10
1.2005112 0.17278276 -0.19210154 3
1.2948339 0.18635809 0.1606238 11
1.2123408 0.17426878 -0.15038678 4
1.3022485 0.18696131 0.20837073 12
1.232636 0.17674761 -0.10894467 5
1.3390206 0.19176295 0.2629348 13
1.243619 0.17787947 -0.065838635 6
1.3369044 0.1909837 0.31178215 14
1.2570449 0.17957535 -0.022164557 7
1.3655136 0.1948275 0.36959362 15
1.1668463 0.16482028 -0.31575924 0
1.2692368 0.1790573 0.022373985 8
1.1809645 0.16639465 -0.27534011 1
1.2756325 0.17973313 0.067513391 9
1.1742367 0.16523717 -0.23049729 2
1.2765307 0.17940469 0.11277953 10
1.201107 0.1685914 -0.19210154 3
1.29944 0.18216187 0.16111128 11
1.2228011 0.17120065 -0.15160547 4
1.2989807 0.18186633 0.207745 12
1.2253526 0.17134045 -0.10824744 5
1.3435706 0.1876311 0.26369804 13
1.2481886 0.17408882 -0.066047981 6
1.3491435 0.18792929 0.31448159 14
1.257664 0.17518663 -0.022164557 7
1.3623582 0.18952768 0.36855832 15
1.1712422 0.16127351 -0.31679454 0
1.2618996 0.17375651 0.022234365 8
1.1795791 0.1622117 -0.27489018 1
1.2762522 0.1752789 0.067513391 9
1.1884215 0.16300504 -0.23316859 2
1.2791231 0.17521833 0.11295383 10
1.1997025 0.16433904 -0.19178867 3
1.3079039 0.17892827 0.16208623 11
1.2312294 0.16821931 -0.15258044 4
1.3074366 0.17839947 0.20899647 12
1.2219951 0.16652375 -0.10789881 5
1.3325138 0.18158437 0.26140836 13
1.2487592 0.16994837 -0.066047981 6
1.3536212 0.1839795 0.31538138 14
1.2622308 0.17133367 -0.022234365 7
1.3553543 0.18373258 0.36648777 15
1.1736852 0.15764549 -0.31731215 0
1.2565525 0.16855331 0.022129651 8
1.1743438 0.15731668 -0.2735405 1
1.2808155 0.17135221 0.06772273 9
1.1889555 0.15906286 -0.23316859 2
1.2856218 0.17176746 0.11347678 10
1.1963527 0.15962747 -0.19116293 3
1.292779 0.17226382 0.16013633 11
1.2278734 0.16339761 -0.15209295 4
1.3100096 0.17409447 0.20930934 12
1.2264907 0.16299517 -0.10824744 5
1.3253548 0.17589839 0.25988188 13
1.2453846 0.16506435 -0.065838635 6
1.3619828 0.18027584 0.31718099 14
1.2628212 0.16692628 -0.022234365 7
1.3636482 0.18001264 0.36855832 15
1.1818906 0.15454981 -0.31938273 0
1.2650646 0.1652015 0.022269269 8
1.1690886 0.15246017 -0.27219078 1
1.2814058 0.16688056 0.06772273 9
1.1972908 0.15592606 -0.23469506 2
1.2802862 0.16650754 0.11295383 10
1.1988617 0.15570454 -0.19147581 3
1.2894353 0.16723976 0.15964885 11
1.2284364 0.1591102 -0.15209295 4
1.3086503 0.16926686 0.20899647 12
1.231004 0.15922374 -0.10859605 5
1.3337489 0.17227726 0.26140836 13
1.2380298 0.15969376 -0.06541995 6
1.3471416 0.17352845 0.31358176 14
1.2713295 0.16353799 -0.022373985 7
1.3642683 0.17525117 0.36855832 15
1.2735686 0.16179293 0.02240889 8
1.1715468 0.14862442 -0.27264068 1
1.2740265 0.16162516 0.067304045 9
1.1802987 0.14952481 -0.23126051 2
1.2887661 0.163038 0.11365108 10
1.2052772 0.15226234 -0.1924144 3
1.2978892 0.16373125 0.1606238 11
1.2191366 0.15358032 -0.15087426 4
1.3052845 0.16443276 0.20837073 12
1.2355058 0.15542397 -0.10894467 5
1.342134 0.16859898 0.2629348 13
1.2385798 0.15537094 -0.06541995 6
1.3400046 0.16785705 0.31178215 14
1.2639281 0.15832725 -0.022234365 7
1.3686758 0.17120533 0.36959362 15
1.2820364 0.15855071 0.02254851 8
1.1739675 0.14497714 -0.2730906 1
1.2785475 0.15766555 0.067513391 9
1.1788648 0.14516477 -0.23087889 2
1.2833951 0.15780857 0.11312816 10
1.2096968 0.14874651 -0.19304016 3
1.3063062 0.16039434 0.16159877 11
1.2235799 0.15002066 -0.15136175 4
1.301929 0.15939564 0.207745 12
1.2281302 0.15014288 -0.10824744 5
1.3426856 0.16414766 0.2629348 13
1.2509834 0.15271579 -0.066047981 6
1.3482915 0.16435535 0.31358176 14
1.256533 0.15294755 -0.022094747 7
1.3577586 0.1650278 0.36648777 15
1.2686841 0.15240474 0.022304177 8
1.178336 0.14134221 -0.27399039 1
1.2870225 0.15415199 0.067932077 9
1.1891112 0.14221425 -0.23278698 2
1.2779764 0.15284227 0.11260521 10
1.19844 0.14311723 -0.19116293 3
1.3068581 0.15583378 0.16159877 11
1.2260673 0.14598303 -0.15160547 4
1.3103238 0.15578257 0.20899647 12
1.2207328 0.14491576 -0.10755019 5
1.3393792 0.15876347 0.26217157 13
1.2555016 0.14859825 -0.066257328 6
1.348857 0.15964758 0.31358176 14
1.2570591 0.14856075 -0.022094747 7
1.3698378 0.16164665 0.36959362 15
1.2632754 0.14706035 0.022199461 8
1.1711034 0.13612272 -0.27219078 1
1.2875788 0.14943345 0.067932077 9
1.1974252 0.13875923 -0.23431346 2
1.2824861 0.14861618 0.11295383 10
1.1950319 0.13826995 -0.1905372 3
1.3034765 0.15058689 0.16111128 11
1.2384261 0.14285338 -0.1530679 4
1.3128484 0.15120526 0.20930934 12
1.2291732 0.14135075 -0.10824744 5
1.3321503 0.1529572 0.26064509 13
1.2520694 0.14354093 -0.066047981 6
1.3649216 0.15647864 0.31718099 14
1.2675289 0.14508913 -0.022269269 7
1.3800176 0.1577213 0.3721818 15
1.2677802 0.14287619 0.022269269 8
1.1638483 0.13095814 -0.27039117 1
1.2841231 0.14449166 0.06772273 9
1.1998532 0.13479744 -0.23469506 2
1.2909422 0.14480206 0.11365108 10
1.2033831 0.13476868 -0.19178867 3
1.2921828 0.14448516 0.15964885 11
1.2231348 0.13676457 -0.151118 4
1.3153313 0.14684044 0.2096222 12
1.2336192 0.13750093 -0.10859605 5
1.3404809 0.14917503 0.26217157 13
1.2327124 0.13696365 -0.065001264 6
1.3538387 0.15042169 0.31448159 14
1.2700151 0.1408845 -0.022304177 7
1.2722228 0.13910687 0.022339081 8
1.1778368 0.12857854 -0.2735405 1
1.2845951 0.14023282 0.06772273 9
1.1866319 0.12932853 -0.23202376 2
1.2914152 0.14052123 0.11365108 10
1.2038234 0.13077705 -0.19178867 3
1.2966019 0.14062706 0.16013633 11
1.2275288 0.13313551 -0.15160547 4
1.3059915 0.14141484 0.20805787 12
1.2380302 0.13383728 -0.10894467 5
1.3409683 0.14472865 0.26217157 13
1.2490458 0.13458706 -0.065838635 6
1.3427048 0.144679 0.31178215 14
1.2625226 0.13581632 -0.022164557 7
1.2786427 0.13551918 0.022443794 8
1.1821325 0.12508176 -0.27444029 1
1.2890493 0.13616718 0.067932077 9
1.1831712 0.12477408 -0.23126051 2
1.2839485 0.13540179 0.11295383 10
1.2121085 0.12761185 -0.19304016 3
1.304958 0.13715686 0.16111128 11
1.227986 0.12885009 -0.15160547 4
1.3045125 0.13664968 0.207745 12
1.2246188 0.12806463 -0.1077245 5
1.3492759 0.14086261 0.26369804 13
1.2574539 0.13105468 -0.066257328 6
1.3548311 0.14120355 0.31448159 14
1.255033 0.13058096 -0.022024937 7
1.2751521 0.13042454 0.022373985 8
1.1903377 0.12154025 -0.2762399 1
1.2895397 0.13144132 0.067932077 9
1.1914333 0.12123137 -0.23278698 2
1.2784898 0.1300896 0.11243091 10
1.204707 0.12237016 -0.19178867 3
1.3094019 0.13277322 0.16159877 11
1.2323999 0.12474795 -0.15209295 4
1.3148315 0.13286076 0.20930934 12
1.2211152 0.12317508 -0.10737588 5
1.3419696 0.1351292 0.26217157 13
1.2619004 0.12684481 -0.066466674 6
1.3553395 0.1362372 0.31448159 14
1.2634621 0.12677844 -0.022164557 7
1.2716415 0.12535793 0.022304177 8
1.1733208 0.11545876 -0.27219078 1
1.3058919 0.1285042 0.068769448 9
1.1957569 0.11745584 -0.23355024 2
1.2888725 0.12637521 0.11330246 10
1.2012154 0.11756871 -0.19116293 3
1.3019769 0.12720132 0.1606238 11
1.2446821 0.12160369 -0.15355539 4
1.3133212 0.12807825 0.20899647 12
1.2274868 0.11949122 -0.10789881 5
1.3424331 0.1304443 0.26217157 13
1.2504078 0.12128193 -0.065838635 6
1.3635653 0.13225751 0.31628117 14
1.2718583 0.12313844 -0.022304177 7
1.280013 0.12189828 0.022443794 8
1.1756371 0.11175133 -0.27264068 1
1.2824513 0.12190465 0.067513391 9
1.2039577 0.11423193 -0.23507671 2
1.2892845 0.12210011 0.11330246 10
1.2114319 0.11451386 -0.1927273 3
1.2984389 0.12251043 0.16013633 11
1.229268 0.11598401 -0.15160547 4
1.317672 0.12409248 0.2096222 12
1.2397782 0.1165385 -0.10894467 5
1.3467675 0.12635897 0.2629348 13
1.2468262 0.11676197 -0.065629296 6
1.360116 0.12737127 0.31538138 14
1.2762417 0.11929198 -0.022373985 7
1.2843928 0.11801914 0.022513606 8
1.2788911 0.11706346 0.067304045 9
1.1925994 0.10916474 -0.23278698 2
1.2936504 0.1181868 0.11365108 10
1.2059032 0.10995866 -0.19178867 3
1.3067458 0.11892328 0.16111128 11
1.2217575 0.11097375 -0.15063052 4
1.3141626 0.11913578 0.20899647 12
1.2381736 0.11224698 -0.10877036 5
1.3471791 0.12189186 0.2629348 13
1.2591414 0.11370473 -0.066257328 6
1.3527887 0.12192338 0.31358176 14
1.2726671 0.11447831 -0.022304177 7
1.2867888 0.11371135 0.02254851 8
1.293219 0.11382405 0.06803675 9
1.1890619 0.10465655 -0.23202376 2
1.2821467 0.11262463 0.11260521 10
1.2180866 0.10678333 -0.19366589 3
1.3150631 0.11505286 0.16208623 11
1.2300477 0.10739928 -0.15160547 4
1.3086667 0.1140336 0.20805787 12
1.2326033 0.10740565 -0.10824744 5
1.3554199 0.11786857 0.26446128 13
1.2555511 0.10896371 -0.066047981 6
1.357089 0.11753711 0.31448159 14
1.2690743 0.10969043 -0.022234365 7
1.2772152 0.10837323 0.022373985 8
1.2916182 0.1091419 0.067932077 9
1.1933324 0.10083674 -0.23278698 2
1.2845173 0.10831548 0.11277953 10
1.2027047 0.10120533 -0.19116293 3
1.3095224 0.10996432 0.16135503 11
1.2383279 0.10376768 -0.15258044 4
1.3129939 0.10979369 0.20868361 12
