# .PCD v0.7 - Point Cloud Data file format
VERSION 0.7
FIELDS x y z intensity
SIZE 4 4 4 4
TYPE F F F F
COUNT 1 1 1 1
WIDTH 1361
HEIGHT 1
VIEWPOINT 0 0 0 1 0 0 0
POINTS 1361
DATA ascii
1.1120777 0.37015462 -0.22782594 2
1.1494427 0.38236868 0.10598138 10
1.1078274 0.36831042 -0.18490556 3
1.1359466 0.37743884 -0.14697444 4
1.1251267 0.37340766 -0.10371533 5
1.139382 0.37769729 -0.062907822 6
1.1522273 0.38173226 -0.021187222 7
1.0842946 0.35754693 -0.30592412 0
1.1452286 0.37741837 0.021047603 8
1.0864958 0.35785234 -0.26409253 1
1.1514871 0.37925813 0.063535862 9
1.1058398 0.36400968 -0.22629949 2
1.156382 0.38042301 0.10650431 10
1.1146722 0.36648586 -0.18584417 3
1.1730238 0.38544407 0.15160547 11
1.1258764 0.3699519 -0.145512 4
1.1263587 0.3696748 -0.10371533 5
1.129241 0.37018362 -0.062279794 6
1.161088 0.38039979 -0.02132684 7
1.092821 0.35634461 -0.30799466 0
1.154079 0.3760972 0.021187222 8
1.0913825 0.35545412 -0.26499236 1
1.1471064 0.37338153 0.063221842 9
1.0995736 0.35790965 -0.22477302 2
1.1519532 0.37473741 0.10598138 10
1.1196387 0.36400864 -0.1864699 3
1.1818475 0.38400543 0.15258044 11
1.1233848 0.36479366 -0.14502454 4
1.1313685 0.36716732 -0.10406395 5
1.134262 0.36766937 -0.062489137 6
1.1433841 0.37018472 -0.020977791 7
1.0867032 0.35015807 -0.30592412 0
1.1572883 0.37267911 0.021222128 8
1.1018916 0.35462764 -0.26724187 1
1.1579094 0.3724331 0.063745201 9
1.0970781 0.35286716 -0.22400977 2
1.1494607 0.36949426 0.10563275 10
1.1209024 0.36009839 -0.1864699 3
1.1680601 0.37502328 0.15063052 11
1.1246514 0.3608698 -0.14502454 4
1.1231573 0.36017415 -0.1031924 5
1.1393428 0.36492598 -0.062698483 6
1.1484785 0.36741018 -0.021047603 7
1.0823964 0.34460413 -0.30437121 0
1.1452432 0.36439261 0.020977791 8
1.1049799 0.35136992 -0.26769176 1
1.1649128 0.37020338 0.06405922 9
1.1020454 0.35022447 -0.22477302 2
1.1507436 0.36547935 0.10563275 10
1.1183869 0.35498855 -0.18584417 3
1.1807151 0.37454477 0.15209295 11
1.1296889 0.35814133 -0.145512 4
1.1149108 0.35324275 -0.10232083 5
1.1444181 0.36215159 -0.062907822 6
1.1459407 0.36219338 -0.020977791 7
1.0780641 0.33908564 -0.3028183 0
1.1388775 0.35799441 0.020838173 8
1.0931855 0.343422 -0.26454243 1
1.1604812 0.36434028 0.063745201 9
1.1107537 0.348728 -0.22629949 2
1.1539133 0.36205703 0.10580707 10
1.1120799 0.34871799 -0.18459269 3
1.172544 0.36745313 0.15087426 11
1.1347209 0.35538262 -0.14599949 4
1.1237428 0.35172909 -0.10301808 5
1.1342375 0.35457927 -0.062279794 6
1.1586509 0.36176732 -0.021187222 7
1.0940001 0.33990574 -0.30695942 0
1.1515788 0.35757443 0.021047603 8
1.0832106 0.33613887 -0.26184303 1
1.1521454 0.35753053 0.063221842 9
1.1119641 0.34484884 -0.22629949 2
1.1570733 0.35861641 0.10598138 10
1.1132903 0.34483424 -0.18459269 3
1.1529599 0.35690114 0.14819314 11
1.1245761 0.34789917 -0.14453706 4
1.1287709 0.34898111 -0.10336671 5
1.1316518 0.34943905 -0.062070452 6
1.1560225 0.35674343 -0.021117412 7
1.0988736 0.33721805 -0.30799466 0
1.147023 0.35199395 0.020942887 8
1.0843191 0.33254516 -0.26184303 1
1.1533865 0.3535063 0.063221842 9
1.1000209 0.33694005 -0.22362815 2
1.1564127 0.35399291 0.10580707 10
1.1219829 0.34345353 -0.18584417 3
1.1579336 0.35423687 0.14868061 11
1.1181301 0.34184676 -0.14356211 4
1.1337931 0.34620273 -0.10371533 5
1.1289836 0.34451872 -0.061861105 6
1.1496093 0.35037431 -0.020977791 7
1.0888937 0.33020818 -0.30488884 0
1.1539859 0.34972814 0.021047603 8
1.0966638 0.33214715 -0.26454243 1
1.1584367 0.35063499 0.063431181 9
1.0973742 0.33215263 -0.22286493 2
1.1556731 0.34957895 0.10563275 10
1.1193932 0.33839148 -0.18521842 3
1.1610634 0.35076657 0.14892435 11
1.1231171 0.33908936 -0.14404957 4
1.1234902 0.3389881 -0.10266946 5
1.134004 0.34172857 -0.062070452 6
1.1431662 0.34405378 -0.020838173 7
1.0863382 0.32529762 -0.30385357 0
1.1437051 0.34225777 0.020838173 8
1.1034179 0.32999185 -0.26589215 1
1.1653942 0.34830576 0.063745201 9
1.1041697 0.33000734 -0.22400977 2
1.1511593 0.34383187 0.10510983 10
1.1129965 0.33222169 -0.18396695 3
1.1584761 0.34557748 0.14843687 11
1.1319035 0.3374351 -0.14502454 4
1.1227572 0.33449513 -0.10249515 5
1.1428472 0.34004611 -0.062489137 6
1.1443599 0.34006208 -0.020838173 7
1.0911723 0.32259873 -0.30488884 0
1.142975 0.33769757 0.020803269 8
1.0933491 0.32282737 -0.26319274 1
1.1685185 0.34480056 0.063849874 9
1.107198 0.32670641 -0.22439139 2
1.1542636 0.34037468 0.10528414 10
1.1103597 0.32721806 -0.18334122 3
1.1577712 0.34097043 0.14819314 11
1.1368831 0.33460259 -0.145512 4
1.1277409 0.33169857 -0.10284378 5
1.1325296 0.33267704 -0.061861105 6
1.1532153 0.3383168 -0.020977791 7
1.0922916 0.31878811 -0.30488884 0
1.1460665 0.33426541 0.020838173 8
1.085115 0.31628206 -0.26094323 1
1.1543745 0.33625138 0.063012503 9
1.1121014 0.32393789 -0.22515462 2
1.1650094 0.33912861 0.10615569 10
1.1152886 0.32444343 -0.18396695 3
1.1570482 0.33637309 0.1479494 11
1.1266063 0.32730994 -0.14404957 4
1.1365455 0.32998183 -0.10354102 5
1.1336837 0.32872251 -0.061861105 6
1.158231 0.33540142 -0.021047603 7
1.1063924 0.31871638 -0.3085123 0
1.1510699 0.33136898 0.020907983 8
1.0955763 0.3151865 -0.26319274 1
1.1554834 0.33242118 0.063012503 9
1.0981309 0.31571394 -0.22210167 2
1.1642712 0.3345094 0.10598138 10
1.1202117 0.32163894 -0.18459269 3
1.1582154 0.33233187 0.1479494 11
1.1277421 0.32337505 -0.14404957 4
1.2000756 0.34411636 0.19773319 12
1.1338596 0.32491505 -0.1031924 5
1.1348243 0.32476291 -0.061861105 6
1.1439559 0.32716021 -0.020768363 7
1.0889161 0.30956936 -0.30333593 0
1.1617799 0.33028388 0.021082507 8
1.0966153 0.3115519 -0.26319274 1
1.1566366 0.32838601 0.063012503 9
1.1011151 0.31241441 -0.22248329 2
1.1558477 0.3277261 0.10510983 10
1.1250728 0.3190003 -0.18521842 3
1.1650405 0.33011296 0.14868061 11
1.1288084 0.31963322 -0.14404957 4
1.1746591 0.33239549 0.19335303 12
1.1177319 0.31607601 -0.10162359 5
1.1320512 0.31991133 -0.061651766 6
1.1450908 0.32316527 -0.020768363 7
1.0880766 0.30543476 -0.3028183 0
1.1494479 0.32244596 0.020838173 8
1.1033255 0.30929989 -0.26454243 1
1.1654117 0.32670477 0.063431181 9
1.1097069 0.31087992 -0.22400977 2
1.1550095 0.32335392 0.10493552 10
1.1147658 0.31187755 -0.18334122 3
1.1757448 0.32871637 0.1498993 11
1.1337409 0.31675959 -0.14453706 4
1.1700474 0.32690337 0.1924144 12
1.1149361 0.31129587 -0.10127497 5
1.1447041 0.31917661 -0.062279794 6
1.1538616 0.32151294 -0.020907983 7
1.0872744 0.30111948 -0.30230066 0
1.140875 0.31596407 0.020663649 8
1.0893199 0.30148128 -0.26094323 1
1.16847 0.32316738 0.063535862 9
1.1107852 0.30700466 -0.22400977 2
1.1580516 0.31985086 0.10510983 10
1.1119856 0.30712754 -0.18271549 3
1.1596066 0.32006195 0.14770564 11
1.1347851 0.31299844 -0.14453706 4
1.1749902 0.32386723 0.19304016 12
1.1275412 0.31057635 -0.10232083 5
1.1342024 0.31219882 -0.061651766 6
1.1588331 0.31854296 -0.020977791 7
1.0939096 0.29884937 -0.30385357 0
1.1478127 0.31336069 0.020768363 8
1.0866575 0.2964606 -0.26004341 1
1.1619389 0.31678092 0.063117169 9
1.109956 0.30260873 -0.22362815 2
1.1610832 0.31633052 0.10528414 10
1.1169159 0.3040874 -0.18334122 3
1.1492791 0.31268305 0.14624323 11
1.1206001 0.30467096 -0.14258714 4
1.1818881 0.32111192 0.19397876 12
1.1286182 0.30663884 -0.10232083 5
1.1314839 0.30699337 -0.061442416 6
1.1638532 0.31533968 -0.021047603 7
1.0968113 0.2955319 -0.30437121 0
1.1566234 0.31143156 0.020907983 8
1.0952129 0.29469123 -0.26184303 1
1.1553226 0.31064883 0.062698483 9
1.1034218 0.2966935 -0.22210167 2
1.1660287 0.31330937 0.10563275 10
1.1217862 0.30121103 -0.18396695 3
1.1599499 0.31124192 0.14746192 11
1.1254916 0.30178538 -0.14307462 4
1.1753696 0.31493908 0.1927273 12
1.1335309 0.30372843 -0.10266946 5
1.1364074 0.30407467 -0.061651766 6
1.1514232 0.30766189 -0.020803269 7
1.0922352 0.29021296 -0.3028183 0
1.1499726 0.30533925 0.020768363 8
1.1000021 0.29186624 -0.26274285 1
1.1640681 0.30886504 0.063117169 9
1.1025532 0.29233661 -0.22172007 2
1.1574857 0.30668551 0.1047612 10
1.1266499 0.29830539 -0.18459269 3
1.1629484 0.30769849 0.14770564 11
1.1322435 0.29957446 -0.14380583 4
1.172588 0.31003001 0.19210154 12
1.1230261 0.29671687 -0.10162359 5
1.137462 0.30010569 -0.061651766 6
1.1466362 0.30231279 -0.020698555 7
1.0931915 0.28658959 -0.3028183 0
1.14711 0.30051082 0.020698555 8
1.100964 0.28821656 -0.26274285 1
1.165086 0.30500281 0.063117169 9
1.1035166 0.28867903 -0.22172007 2
1.1430757 0.29881394 0.10336671 10
1.1161655 0.29157177 -0.18271549 3
1.1697245 0.30534473 0.14843687 11
1.1274683 0.29431418 -0.14307462 4
1.1736097 0.30613953 0.19210154 12
1.1201482 0.29198575 -0.10127497 5
1.1500481 0.29935041 -0.062279794 6
1.1476326 0.29850844 -0.020698555 7
1.0922657 0.2824789 -0.30230066 0
1.1403557 0.29470408 0.020558937 8
1.0943663 0.28261521 -0.26094323 1
1.1738263 0.30313542 0.063535862 9
1.1082697 0.28599885 -0.22248329 2
1.1575649 0.29850504 0.10458689 10
1.1133003 0.28688318 -0.18208973 3
1.1553515 0.29750362 0.14648695 11
1.1361787 0.29235518 -0.14404957 4
1.1784445 0.30323079 0.1927273 12
1.1346176 0.29174292 -0.10249515 5
1.1316893 0.29056832 -0.061233077 6
1.1602379 0.29768312 -0.020907983 7
1.0988607 0.28009668 -0.30385357 0
1.1471397 0.29240286 0.020663649 8
1.0858554 0.27657929 -0.25869372 1
1.163264 0.29607993 0.062907822 9
1.111164 0.28261325 -0.22286493 2
1.1586 0.29446226 0.10458689 10
1.1180747 0.28416261 -0.18271549 3
1.1544077 0.29318231 0.14624323 11
1.1217489 0.28468025 -0.14209966 4
1.1833253 0.3000868 0.19335303 12
1.1259723 0.28533319 -0.10162359 5
1.1326464 0.28681469 -0.061233077 6
1.1690246 0.29559183 -0.021047603 7
1.09791 0.27597991 -0.30333593 0
1.1578507 0.29083234 0.020838173 8
1.0924845 0.27421018 -0.26004341 1
1.1526669 0.28910252 0.062279794 9
1.1063823 0.27749377 -0.22172007 2
1.1711656 0.29352501 0.10563275 10
1.1267246 0.28217733 -0.18396695 3
1.1573497 0.28963307 0.14648695 11
1.1208102 0.28028101 -0.14185593 4
1.1766998 0.2940385 0.19210154 12
1.1385102 0.28449553 -0.10266946 5
1.1336408 0.28285897 -0.061233077 6
1.1506456 0.2866753 -0.020698555 7
1.0932411 0.27075228 -0.301783 0
1.1549767 0.28582785 0.020768363 8
1.1047854 0.27320266 -0.26274285 1
1.1575469 0.28603512 0.062489137 9
1.0997205 0.27174595 -0.22019359 2
1.1625117 0.28704667 0.1047612 10
1.1277025 0.27824339 -0.18396695 3
1.1718454 0.28891745 0.14819314 11
1.1314192 0.27874094 -0.14307462 4
1.1642922 0.2866247 0.18991147 12
1.1278883 0.27766284 -0.10162359 5
1.2010447 0.29544955 0.24041936 13
1.1423794 0.28080681 -0.061651766 6
1.1458131 0.28122678 -0.020593841 7
1.090426 0.26601905 -0.30074775 0
1.1481962 0.27990028 0.020628745 8
1.1000522 0.26796067 -0.26139313 1
1.1663009 0.2838819 0.062907822 9
1.1025698 0.26836956 -0.2205752 2
1.1518909 0.2801621 0.10371533 10
1.128667 0.27430499 -0.18396695 3
1.1670598 0.28341946 0.14746192 11
1.1362435 0.27572635 -0.14356211 4
1.1768042 0.28535151 0.19178867 12
1.1288507 0.27372378 -0.10162359 5
1.1848963 0.28709418 0.23698479 13
1.1472349 0.27775764 -0.061861105 6
1.1506752 0.27816483 -0.020663649 7
1.0988615 0.2640166 -0.3028183 0
1.1452774 0.27495667 0.020558937 8
1.093401 0.262301 -0.25959352 1
1.1750535 0.28167209 0.063326515 9
1.1092274 0.26589295 -0.22172007 2
1.156737 0.27706742 0.10406395 10
1.1142486 0.26668537 -0.181464 3
1.1661111 0.27888301 0.14721818 11
1.137199 0.27175814 -0.14356211 4
1.1816357 0.28215924 0.1924144 12
1.1297994 0.26978141 -0.10162359 5
1.2011683 0.28660178 0.24003772 13
1.1365408 0.27097183 -0.061233077 6
1.1594204 0.27599913 -0.020803269 7
1.0941365 0.2588447 -0.30126539 0
1.1462302 0.2709575 0.020558937 8
1.0905169 0.25758648 -0.25869372 1
1.1643186 0.27501884 0.062698483 9
1.1177919 0.263823 -0.22324654 2
1.157697 0.27302819 0.10406395 10
1.1151727 0.26279399 -0.181464 3
1.1574163 0.27253559 0.14599949 11
1.1304114 0.26596853 -0.14258714 4
1.1844878 0.27869189 0.1927273 12
1.1307342 0.26583627 -0.10162359 5
1.2021613 0.28240743 0.24003772 13
1.1374797 0.26700315 -0.061233077 6
1.1603293 0.27215305 -0.020803269 7
1.1082038 0.25809139 -0.30488884 0
1.1549127 0.26896951 0.020698555 8
1.0913651 0.25396898 -0.25869372 1
1.1613806 0.27004793 0.062489137 9
1.107232 0.25725397 -0.22095683 2
1.1702877 0.27168849 0.10510983 10
1.1275834 0.26177445 -0.18334122 3
1.1563801 0.26824707 0.14575575 11
1.1235517 0.26042578 -0.14161219 4
1.170058 0.2709896 0.19022433 12
1.1335964 0.26233655 -0.10179791 5
1.2030914 0.27841902 0.24003772 13
1.1383587 0.26322991 -0.061233077 6
1.1534784 0.26630145 -0.020663649 7
1.095873 0.25139114 -0.30126539 0
1.1597428 0.26582968 0.020768363 8
1.0979435 0.25146273 -0.26004341 1
1.1662101 0.26688367 0.062698483 9
1.1042515 0.25270462 -0.22019359 2
1.1556442 0.26425344 0.10371533 10
1.1284903 0.25783709 -0.18334122 3
1.1689212 0.2668601 0.14721818 11
1.1302602 0.25782642 -0.14234342 4
1.1690707 0.26646495 0.18991147 12
1.1286324 0.2572479 -0.10127497 5
1.2097985 0.2755259 0.24118258 13
1.1431656 0.26014072 -0.061442416 6
1.1505011 0.26138765 -0.020593841 7
1.0873218 0.24543715 -0.29867718 0
1.1470088 0.25870028 0.020524029 8
1.1045178 0.24891418 -0.26139313 1
1.1710316 0.26368839 0.062907822 9
1.1089575 0.2497108 -0.22095683 2
1.1507282 0.25890556 0.1031924 10
1.1178198 0.25129697 -0.181464 3
1.1679088 0.26234281 0.14697444 11
1.1350272 0.25474867 -0.14283088 4
1.1796311 0.26454407 0.19147581 12
1.1275795 0.25287095 -0.10110066 5
1.2069216 0.2704424 0.24041936 13
1.1479648 0.25702119 -0.061651766 6
1.1572611 0.25867841 -0.020698555 7
1.0919436 0.24247853 -0.29971248 0
1.1420482 0.25339514 0.020419316 8
1.0920621 0.24210437 -0.2582438 1
1.1719447 0.25959992 0.062907822 9
1.111739 0.24626365 -0.22133845 2
1.1594061 0.25660962 0.10388964 10
1.1225476 0.24824631 -0.18208973 3
1.1571871 0.25569543 0.145512 11
1.1456014 0.25292516 -0.14404957 4
1.1766894 0.25957337 0.19085006 12
1.1265095 0.24850389 -0.10092635 5
1.1982719 0.2641151 0.23851125 13
1.1371518 0.25043532 -0.061023727 6
1.1659691 0.25635508 -0.020838173 7
1.0927833 0.23866518 -0.29971248 0
1.1507407 0.25111213 0.020558937 8
1.0967087 0.23912141 -0.25914362 1
1.1650379 0.25380662 0.062489137 9
1.1145102 0.24279904 -0.22172007 2
1.1680821 0.25425574 0.10458689 10
1.1234074 0.24432661 -0.18208973 3
1.1600126 0.25207576 0.14575575 11
1.1328982 0.24597609 -0.14234342 4
1.1853101 0.25713983 0.19210154 12
1.1351584 0.24625996 -0.10162359 5
1.2030239 0.26076278 0.2392745 13
1.1341152 0.2456186 -0.060814388 6
1.1629478 0.25143862 -0.020768363 7
1.1030539 0.23687696 -0.30230066 0
1.1555204 0.2479336 0.020628745 8
1.0937258 0.23447444 -0.2582438 1
1.1659168 0.24973802 0.062489137 9
1.1076722 0.2372621 -0.22019359 2
1.1650658 0.24934368 0.10423827 10
1.1319803 0.24205565 -0.18334122 3
1.1608856 0.24802473 0.14575575 11
1.129867 0.24119195 -0.14185593 4
1.176541 0.25094017 0.1905372 12
1.141857 0.24354254 -0.10214653 5
1.2077671 0.25737992 0.24003772 13
1.1427794 0.24332283 -0.061233077 6
1.1559944 0.24571428 -0.020628745 7
1.0944229 0.23103029 -0.29971248 0
1.156379 0.24389826 0.020628745 8
1.0983514 0.2314586 -0.25914362 1
1.1667814 0.24566695 0.062489137 9
1.1046513 0.23258542 -0.21943036 2
1.1581304 0.24363439 0.10354102 10
1.1328183 0.23810254 -0.18334122 3
1.169515 0.24560314 0.14673071 11
1.1345878 0.2380615 -0.14234342 4
1.1696764 0.24521019 0.18928573 12
1.1251501 0.23587573 -0.10057773 5
1.2125013 0.25396767 0.24080098 13
1.1397119 0.23851375 -0.061023727 6
1.2207929 0.25525904 0.28793734 14
1.1490153 0.24004212 -0.020489125 7
1.089548 0.22603108 -0.29815957 0
1.1513489 0.23864293 0.020524029 8
1.1029689 0.22841433 -0.26004341 1
1.1715436 0.24240167 0.062698483 9
1.1054565 0.22872773 -0.21943036 2
1.1550715 0.23878327 0.1031924 10
1.1220351 0.23175018 -0.181464 3
1.1723094 0.24192014 0.14697444 11
1.1354119 0.23409931 -0.14234342 4
1.1763295 0.24232227 0.19022433 12
1.1259665 0.23194757 -0.10057773 5
1.2018428 0.24735872 0.23851125 13
1.1444503 0.23533826 -0.061233077 6
1.2025876 0.24707514 0.28343832 14
1.1498462 0.23602955 -0.020489125 7
1.099795 0.22415629 -0.30074775 0
1.1462966 0.23342516 0.020419316 8
1.0942115 0.22261998 -0.2577939 1
1.1802115 0.23990239 0.063117169 9
1.110096 0.22564995 -0.22019359 2
1.159803 0.23554318 0.10354102 10
1.1228373 0.22783183 -0.181464 3
1.159528 0.23506594 0.14526826 11
1.1440043 0.23171104 -0.14331836 4
1.1829765 0.2393897 0.19116293 12
1.1306751 0.22880585 -0.10092635 5
1.1950018 0.24160548 0.23698479 13
1.1374339 0.22976035 -0.060814388 6
1.2168144 0.24557409 0.28658766 14
1.1624247 0.23438564 -0.020698555 7
1.0929936 0.21879882 -0.29867718 0
1.1490654 0.22981429 0.02045422 8
1.093071 0.21841751 -0.25734401 1
1.1653322 0.23285674 0.062279794 9
1.1224283 0.22408 -0.22248329 2
1.162572 0.23188268 0.10371533 10
1.1236258 0.22391124 -0.181464 3
1.1603414 0.23101725 0.14526826 11
1.1292307 0.22461784 -0.14136845 4
1.1818265 0.23507978 0.19085006 12
1.1353751 0.22563462 -0.10127497 5
1.2035403 0.23896283 0.23851125 13
1.1303927 0.22423378 -0.060395699 6
1.2061948 0.23905231 0.28388825 14
1.1631955 0.2305304 -0.020698555 7
1.1051241 0.21721745 -0.301783 0
1.1557075 0.22715984 0.020558937 8
1.099526 0.21591778 -0.25869372 1
1.1582984 0.22724918 0.061861105 9
1.1077911 0.21713927 -0.21943036 2
1.1653296 0.22820626 0.10388964 10
1.1321164 0.22170214 -0.18271549 3
1.1649976 0.22793014 0.14575575 11
1.1260728 0.22011052 -0.14088097 4
1.1671299 0.22792438 0.18834713 12
1.1400669 0.22243279 -0.10162359 5
1.20818 0.23572201 0.2392745 13
1.1428921 0.22277698 -0.061023727 6
1.2108065 0.23579578 0.28478804 14
1.1561415 0.22494076 -0.020558937 7
1.0906643 0.21062085 -0.29764193 0
1.1623838 0.22426096 0.020663649 8
1.0964459 0.21134096 -0.2577939 1
1.1668901 0.22491917 0.062279794 9
1.1027216 0.21235047 -0.2182855 2
1.1582539 0.22283523 0.1031924 10
1.1328833 0.21774919 -0.18271549 3
1.1657861 0.22386184 0.14575575 11
1.1346323 0.21767475 -0.14185593 4
1.1659391 0.22368082 0.18803425 12
1.1290575 0.21640094 -0.10057773 5
1.2109237 0.23187214 0.23965611 13
1.1475862 0.21953699 -0.061233077 6
1.2154504 0.23229975 0.28568783 14
1.1490245 0.21960425 -0.020419316 7
1.0875964 0.2060933 -0.29660663 0
1.149368 0.21779867 0.020419316 8
1.1028849 0.208791 -0.25914362 1
1.1676681 0.22084484 0.062279794 9
1.0995978 0.20777117 -0.21752228 2
1.1511934 0.21731219 0.10249515 10
1.1258348 0.21252522 -0.181464 3
1.1743249 0.22146651 0.14673071 11
1.1392497 0.21464576 -0.14234342 4
1.180302 0.22216713 0.19022433 12
1.129806 0.21245818 -0.10057773 5
1.2039682 0.22640423 0.23812963 13
1.1483079 0.21572994 -0.061233077 6
1.2123834 0.22754858 0.28478804 14
1.1576458 0.21706592 -0.020558937 7
1.0978057 0.20406109 -0.29919481 0
1.1462263 0.21285459 0.020349504 8
1.1017267 0.20439211 -0.25869372 1
1.176325 0.21801922 0.062698483 9
1.1080377 0.2053629 -0.21904872 2
1.1636995 0.21546915 0.10354102 10
1.116894 0.20660113 -0.17989966 3
1.1614643 0.21463601 0.14502454 11
1.1361244 0.20974821 -0.14185593 4
1.1830509 0.21819814 0.1905372 12
1.1285815 0.20815198 -0.10040341 5
1.1970669 0.22056718 0.23660316 13
1.141234 0.21007314 -0.060814388 6
1.2285421 0.22592337 0.28838724 14
1.1584338 0.21282119 -0.020558937 7
1.1023124 0.20092086 -0.30023012 0
1.1508971 0.20956841 0.020419316 8
1.0870953 0.19775462 -0.2550945 1
1.1613582 0.21105509 0.061861105 9
1.1184061 0.20324932 -0.22095683 2
1.1644446 0.21140547 0.10354102 10
1.1137211 0.20199582 -0.17927392 3
1.1582998 0.20987284 0.14453706 11
1.1290362 0.20436651 -0.14088097 4
1.1838053 0.21406688 0.1905372 12
1.135183 0.20527452 -0.10092635 5
1.2016935 0.21708561 0.23736641 13
1.1380292 0.20537904 -0.060605045 6
1.2139807 0.21886717 0.28478804 14
1.1591694 0.208777 -0.020558937 7
1.1030071 0.19707155 -0.30023012 0
1.1516216 0.20555 0.020419316 8
1.0992898 0.19601147 -0.2577939 1
1.1581553 0.20629908 0.061651766 9
1.1075118 0.19727805 -0.21866712 2
1.1690985 0.20803785 0.10388964 10
1.1221989 0.19949017 -0.18052539 3
1.1648889 0.20686932 0.14526826 11
1.1297427 0.20042388 -0.14088097 4
1.1650947 0.2064864 0.18740851 12
1.1378545 0.20165868 -0.10110066 5
1.214043 0.21494284 0.23965611 13
1.1387392 0.20140502 -0.060605045 6
1.2070612 0.21327223 0.28298843 14
1.1520141 0.20333879 -0.020419316 7
1.0922709 0.19122101 -0.29712427 0
1.1641508 0.20359604 0.020628745 8
1.101887 0.1925081 -0.2582438 1
1.1667385 0.20362836 0.062070452 9
1.1043255 0.19273555 -0.21790388 2
1.165892 0.20327151 0.10354102 10
1.1306729 0.19692723 -0.18177687 3
1.1734269 0.20416261 0.14624323 11
1.134347 0.19715978 -0.14136845 4
1.1735934 0.20376958 0.18866 12
1.1267734 0.19564027 -0.10005479 5
1.2109174 0.2100324 0.23889288 13
1.1433711 0.19811158 -0.060814388 6
1.2116387 0.20972192 0.28388825 14
1.1487759 0.19863454 -0.020349504 7
1.0948359 0.18773386 -0.29764193 0
1.1490865 0.1968299 0.020349504 8
1.1025521 0.1886614 -0.2582438 1
1.1674422 0.19955468 0.062070452 9
1.1049917 0.1888798 -0.21790388 2
1.1567748 0.19752347 0.10266946 10
1.1118809 0.18965745 -0.17864819 3
1.1721754 0.19973217 0.14599949 11
1.1428562 0.19453108 -0.14234342 4
1.1742976 0.19967143 0.18866 12
1.1333419 0.19270754 -0.10057773 5
1.2000299 0.2038319 0.23660316 13
1.1519322 0.19545543 -0.061233077 6
1.2162062 0.20614222 0.28478804 14
1.1573489 0.19595893 -0.020489125 7
1.2038324 0.20361328 0.32714728 15
1.0973897 0.18423057 -0.29815957 0
1.1497666 0.19281788 0.020349504 8
1.0993601 0.18416739 -0.25734401 1
1.179951 0.19745587 0.062698483 9
1.1133896 0.18631734 -0.21943036 2
1.1613873 0.1941416 0.10301808 10
1.112536 0.18577586 -0.17864819 3
1.1709076 0.19531237 0.14575575 11
1.139612 0.18988827 -0.14185593 4
1.1886272 0.19784227 0.19085006 12
1.1340077 0.18875104 -0.10057773 5
1.200734 0.19964145 0.23660316 13
1.1407859 0.18946952 -0.060605045 6
1.2207632 0.20253436 0.28568783 14
1.1619716 0.19257143 -0.020558937 7
1.2159714 0.20130268 0.33025309 15
1.0999322 0.18071277 -0.29867718 0
1.1543794 0.18945068 0.020419316 8
1.0961503 0.17969798 -0.25644422 1
1.1648315 0.19095728 0.061861105 9
1.1179079 0.18306506 -0.22019359 2
1.1659906 0.19072939 0.10336671 10
1.1229254 0.18348369 -0.18021253 3
1.1637453 0.18994565 0.1447808 11
1.1343579 0.18514906 -0.14112473 4
1.1717302 0.1910384 0.18803425 12
1.1346596 0.18479118 -0.10057773 5
1.2052991 0.19608022 0.23736641 13
1.1414403 0.18548653 -0.060605045 6
1.2098869 0.19660926 0.28298843 14
1.1665514 0.18935816 -0.020628745 7
1.214725 0.19696088 0.32973549 15
1.1119694 0.17890519 -0.301783 0
1.1609242 0.18657373 0.020524029 8
1.0986643 0.17637059 -0.25689411 1
1.1615144 0.18646005 0.061651766 9
1.103001 0.17686987 -0.21714064 2
1.1646492 0.18654691 0.1031924 10
1.1274288 0.18038277 -0.18083826 3
1.1624087 0.1857719 0.14453706 11
1.1290849 0.18044622 -0.1403935 4
1.1821105 0.18870901 0.18959859 12
1.141169 0.18196841 -0.10110066 5
1.2098203 0.19269951 0.23812963 13
1.1420491 0.18170057 -0.060605045 6
1.2105322 0.19259629 0.28298843 14
1.1553235 0.18360524 -0.020419316 7
1.2268194 0.19474852 0.33284131 15
1.0991983 0.17311321 -0.29815957 0
1.1595612 0.18241185 0.020489125 8
1.1050184 0.17363402 -0.2582438 1
1.1621581 0.18240528 0.061651766 9
1.1035814 0.17321143 -0.21714064 2
1.1573881 0.18144907 0.10249515 10
1.1319239 0.17725456 -0.181464 3
1.1728246 0.18345028 0.14575575 11
1.1297081 0.17650358 -0.1403935 4
1.1710516 0.18275368 0.18772139 12
1.1280167 0.17583656 -0.099880479 5
1.2220918 0.19050109 0.24041936 13
1.1465924 0.17852663 -0.060814388 6
1.2111973 0.18836923 0.28298843 14
1.1559573 0.17957152 -0.020419316 7
1.2236738 0.18987222 0.33180603 15
1.0940971 0.16820236 -0.29660663 0
1.1562378 0.17775565 0.020419316 8
1.10947 0.17036754 -0.25914362 1
1.1746328 0.18016393 0.062279794 9
1.1158526 0.17094897 -0.21943036 2
1.1501675 0.1760006 0.10179791 10
1.1286606 0.17250799 -0.18083826 3
1.1773825 0.17995478 0.14624323 11
1.1420914 0.17435628 -0.14185593 4
1.1775408 0.1795584 0.18866 12
1.1286236 0.17189768 -0.099880479 5
1.2072544 0.18365757 0.23736641 13
1.151188 0.17492329 -0.061023727 6
1.2195861 0.18509865 0.28478804 14
1.156577 0.17553563 -0.020419316 7
1.2205092 0.18502022 0.33077076 15
1.1004089 0.1652431 -0.29815957 0
1.1489714 0.1723299 0.020279696 8
1.102378 0.16514535 -0.25734401 1
1.1752545 0.17606285 0.062279794 9
1.1183841 0.16734363 -0.21981198 2
1.1586568 0.17316236 0.10249515 10
1.1214408 0.16740085 -0.17958678 3
1.1623268 0.17329609 0.14429331 11
1.1427227 0.17016938 -0.14185593 4
1.1742527 0.17486468 0.18803425 12
1.1331582 0.16854347 -0.10022911 5
1.2001204 0.17828862 0.23583993 13
1.1438893 0.16973095 -0.060605045 6
1.2279357 0.1819828 0.28658766 14
1.1611389 0.17208338 -0.020489125 7
1.2249695 0.18132474 0.33180603 15
1.0990677 0.16112044 -0.29764193 0
1.1534935 0.16909914 0.020349504 8
1.0913506 0.1597946 -0.2546446 1
1.1679569 0.17080306 0.061861105 9
1.1189615 0.16343844 -0.21981198 2
1.1631973 0.16969231 0.10284378 10
1.1219898 0.16368079 -0.17958678 3
1.1589665 0.16886856 0.14380583 11
1.1314944 0.16466402 -0.1403935 4
1.1865851 0.17246978 0.18991147 12
1.1357113 0.16487293 -0.10040341 5
1.2045906 0.17487223 0.23660316 13
1.1404926 0.16536377 -0.060395699 6
1.2092462 0.17511712 0.28208864 14
1.1656908 0.16860195 -0.020558937 7
1.233243 0.17815277 0.33387658 15
1.1072453 0.1585701 -0.29971248 0
1.1619951 0.1662045 0.020489125 8
1.0996184 0.15708618 -0.25644422 1
1.1645917 0.16616057 0.061651766 9
1.1097795 0.15834011 -0.21790388 2
1.1676985 0.16639647 0.1031924 10
1.1323329 0.1611547 -0.18115114 3
1.1752716 0.16705655 0.14575575 11
1.1242007 0.15959756 -0.13941854 4
1.1676217 0.16555338 0.18678276 12
1.1441425 0.16222434 -0.10110066 5
1.2129692 0.17176712 0.23812963 13
1.145018 0.16194135 -0.060605045 6
1.2098501 0.17089468 0.28208864 14
1.162312 0.1639729 -0.020489125 7
1.2338573 0.17384712 0.33387658 15
1.1001389 0.15363559 -0.29764193 0
1.1665292 0.16269952 0.020558937 8
1.1059502 0.15405361 -0.2577939 1
1.1770338 0.16374582 0.062279794 9
1.1064363 0.15392448 -0.21714064 2
1.1603785 0.16122234 0.10249515 10
1.1368017 0.15774439 -0.18177687 3
1.1699487 0.16213581 0.14502454 11
1.1345826 0.15703283 -0.14063723 4
1.1760194 0.16255876 0.18803425 12
1.1368073 0.15713856 -0.10040341 5
1.2116166 0.16726379 0.23774803 13
1.1534904 0.15903433 -0.061023727 6
1.2181613 0.16773401 0.28388825 14
1.154953 0.1588252 -0.020349504 7
1.2229733 0.16796167 0.33077076 15
1.0930116 0.14875211 -0.29557136 0
1.1571827 0.15728025 0.020384412 8
1.1084123 0.15045454 -0.2582438 1
1.1775982 0.15963589 0.062279794 9
1.1069669 0.15006106 -0.21714064 2
1.1530367 0.15610194 0.10179791 10
1.1295152 0.15271679 -0.18052539 3
1.1764094 0.15884753 0.14575575 11
1.1429931 0.15413231 -0.14161219 4
1.1785375 0.1587166 0.18834713 12
1.127476 0.15184002 -0.099531859 5
1.2083018 0.16250974 0.23698479 13
1.1579976 0.15553838 -0.061233077 6
1.2187394 0.16348109 0.28388825 14
1.1594645 0.15532342 -0.020419316 7
1.2158931 0.16266666 0.32870021 15
1.1011846 0.14595196 -0.29764193 0
1.1517775 0.15245247 0.020279696 8
1.1050669 0.14607351 -0.25734401 1
1.1860685 0.1565707 0.062698483 9
1.1113766 0.14671075 -0.21790388 2
1.1575252 0.15259665 0.10214653 10
1.1222074 0.14774145 -0.17927392 3
1.1671157 0.15344711 0.14453706 11
1.1454923 0.15040024 -0.14185593 4
1.1849601 0.15537189 0.18928573 12
1.1359012 0.14893928 -0.10022911 5
1.2049681 0.157782 0.23622155 13
1.146651 0.14994173 -0.060605045 6
1.2231673 0.15973023 0.28478804 14
1.1639653 0.15179205 -0.020489125 7
1.2202847 0.15892063 0.32973549 15
1.1055192 0.14260119 -0.29867718 0
1.1562691 0.14894171 0.020349504 8
1.0901074 0.14022641 -0.25374478 1
1.1667981 0.14988455 0.061651766 9
1.119671 0.1438307 -0.21943036 2
1.169908 0.15007593 0.1031924 10
1.1266351 0.14432557 -0.17989966 3
1.1597682 0.14836431 0.14356211 11
1.138134 0.14539431 -0.14088097 4
1.1874548 0.15148491 0.18959859 12
1.1364142 0.14497359 -0.10022911 5
1.2094067 0.15407084 0.23698479 13
1.1432049 0.14543383 -0.060395699 6
1.2159846 0.15447749 0.28298843 14
1.1684557 0.14823227 -0.020558937 7
1.2284983 0.15563093 0.33180603 15
1.1040936 0.1385006 -0.29815957 0
1.1627345 0.14565115 0.02045422 8
1.0925239 0.13666196 -0.25419468 1
1.1633505 0.14531532 0.061442416 9
1.1084776 0.1384611 -0.21714064 2
1.1704247 0.14599209 0.1031924 10
1.1369331 0.14161249 -0.181464 3
1.1642188 0.14480475 0.14404957 11
1.1346946 0.14093202 -0.1403935 4
1.1781745 0.14612299 0.18803425 12
1.1408677 0.14149602 -0.10057773 5
1.2177306 0.15081313 0.23851125 13
1.1397413 0.14095293 -0.060186356 6
1.2126484 0.14975397 0.28208864 14
1.157058 0.14268392 -0.020349504 7
1.2367034 0.15228698 0.33387658 15
1.1064879 0.13487974 -0.29867718 0
1.169191 0.14231612 0.020558937 8
1.102667 0.13402286 -0.25644422 1
1.1757469 0.14269766 0.062070452 9
1.1050562 0.1341181 -0.21637741 2
1.1610376 0.14070681 0.10232083 10
1.1393816 0.13788001 -0.18177687 3
1.1666877 0.14097838 0.14429331 11
1.1391212 0.13744563 -0.14088097 4
1.1767163 0.14177291 0.18772139 12
1.1374224 0.13683788 -0.10022911 5
1.2240971 0.1472653 0.23965611 13
1.1481583 0.13792619 -0.060605045 6
1.2209032 0.14644817 0.28388825 14
1.1575489 0.13864441 -0.020349504 7
1.2257185 0.14659238 0.33077076 15
1.1031379 0.13037014 -0.29764193 0
1.1537937 0.13635671 0.020279696 8
1.1089339 0.1308589 -0.2577939 1
1.1762378 0.13859235 0.062070452 9
1.1074902 0.1302966 -0.21675903 2
1.1536303 0.13552088 0.10162359 10
1.1339935 0.13301289 -0.18083826 3
1.1750592 0.13782974 0.14526826 11
1.145509 0.13416097 -0.14161219 4
1.1772039 0.13766535 0.18772139 12
1.1378932 0.1328664 -0.10022911 5
1.2109785 0.141186 0.23698479 13
1.1526238 0.13417919 -0.060814388 6
1.2175603 0.14152262 0.28298843 14
1.1659713 0.1355262 -0.020489125 7
1.2223847 0.14186716 0.32973549 15
1.1035862 0.12651838 -0.29764193 0
1.1542858 0.13212664 0.020279696 8
1.1035978 0.12612946 -0.25644422 1
1.180683 0.13493949 0.062279794 9
1.1176913 0.12754259 -0.21866712 2
1.1639942 0.13262056 0.10249515 10
1.1305255 0.12860741 -0.18021253 3
1.1696392 0.13285019 0.14453706 11
1.1518877 0.13083391 -0.14234342 4
1.181603 0.13400018 0.18834713 12
1.1343905 0.12844551 -0.099880479 5
1.2075621 0.13651718 0.23622155 13
1.1451465 0.12925857 -0.060395699 6
1.2257687 0.13835882 0.28478804 14
1.1624631 0.13100716 -0.020419316 7
1.2228724 0.13759963 0.32973549 15
1.1039997 0.12285829 -0.29764193 0
1.1626674 0.12918112 0.020419316 8
1.1001362 0.1220396 -0.25554439 1
1.1692137 0.12970245 0.061651766 9
1.1220106 0.12426794 -0.21943036 2
1.1664081 0.12897855 0.10266946 10
1.1230919 0.1239909 -0.17896105 3
1.1681001 0.12875351 0.14429331 11
1.1404761 0.12570867 -0.14088097 4
1.1918584 0.13116118 0.18991147 12
1.142732 0.12555364 -0.10057773 5
1.2119114 0.13294043 0.23698479 13
1.1415982 0.12502524 -0.060186356 6
1.2184721 0.13344431 0.28298843 14
1.1668667 0.12758707 -0.020489125 7
1.227163 0.13396323 0.33077076 15
1.1044011 0.11919631 -0.29764193 0
1.1630893 0.1253251 0.020419316 8
1.1044101 0.11880732 -0.25644422 1
1.1656656 0.12539691 0.061442416 9
1.1126565 0.119498 -0.21752228 2
1.1727724 0.12574735 0.1031924 10
1.1313535 0.12110661 -0.18021253 3
1.1724684 0.12530082 0.1447808 11
1.1349653 0.12129289 -0.14014976 4
1.1824658 0.1261605 0.18834713 12
1.1431422 0.12176319 -0.10057773 5
1.2162499 0.1293357 0.23774803 13
1.1459787 0.12166081 -0.060395699 6
1.2111565 0.1285803 0.28118882 14
1.1593291 0.12287353 -0.020349504 7
1.2352848 0.13070583 0.33284131 15
1.1047902 0.11553355 -0.29764193 0
1.1634985 0.1214677 0.020419316 8
1.1125507 0.11595255 -0.2582438 1
1.1779941 0.1227732 0.062070452 9
1.1052357 0.11499517 -0.2159958 2
1.165256 0.12103392 0.10249515 10
1.1415732 0.11837318 -0.18177687 3
1.1728774 0.12141232 0.1447808 11
1.1393102 0.11793756 -0.14063723 4
1.1769829 0.12162913 0.18740851 12
1.1356121 0.11715413 -0.099880479 5
1.2166722 0.125302 0.23774803 13
1.154323 0.11867667 -0.060814388 6
1.2193303 0.12536012 0.28298843 14
1.1557518 0.1186203 -0.020279696 7
1.231868 0.12621522 0.33180603 15
1.1014007 0.11071155 -0.29660663 0
1.1639768 0.11679588 0.020419316 8
1.1130073 0.1114853 -0.2582438 1
1.1745028 0.11764505 0.061861105 9
1.1076419 0.11075316 -0.21637741 2
1.1538372 0.1151683 0.10144928 10
1.1400735 0.11359354 -0.181464 3
1.1792815 0.11729226 0.145512 11
1.1417499 0.11355934 -0.14088097 4
1.1774616 0.11690374 0.18740851 12
1.1340905 0.11239779 -0.099706165 5
1.2093506 0.11964354 0.23622155 13
1.15479 0.11404226 -0.060814388 6
1.2198237 0.12046471 0.28298843 14
1.1601986 0.11437193 -0.020349504 7
1.2208294 0.12013377 0.32870021 15
1.109453 0.10780561 -0.29867718 0
1.1524156 0.11177728 0.020209888 8
1.1017329 0.10666728 -0.25554439 1
1.1788625 0.11413479 0.062070452 9
1.1197281 0.10821228 -0.21866712 2
1.1621456 0.11210688 0.10214653 10
1.1365113 0.10943386 -0.18083826 3
1.1678079 0.1122417 0.14404957 11
1.1500242 0.11053244 -0.14185593 4
1.19554 0.11469653 0.19022433 12
1.1404072 0.10920586 -0.10022911 5
1.205832 0.11525918 0.23545831 13
1.1472089 0.10945366 -0.060395699 6
1.2279762 0.11715956 0.28478804 14
1.1685344 0.11128195 -0.020489125 7
1.2250673 0.11644995 0.32973549 15
1.1078809 0.1039457 -0.29815957 0
1.1607437 0.10870059 0.020349504 8
1.1020806 0.10301291 -0.25554439 1
1.1673218 0.10890616 0.061442416 9
1.1200989 0.10430275 -0.21866712 2
1.1744138 0.1093605 0.1031924 10
1.1309674 0.10511571 -0.17989966 3
1.162244 0.10781863 0.14331836 11
1.1385432 0.10541901 -0.1403935 4
1.17823 0.10888629 0.18740851 12
1.1407814 0.10522521 -0.10022911 5
1.2101369 0.11140897 0.23622155 13
1.1396284 0.10471717 -0.05997701 6
1.2244966 0.11251546 0.28388825 14
1.1728984 0.10756839 -0.020558937 7
1.2370092 0.1132298 0.33284131 15
1.1140268 0.10040437 -0.29971248 0
1.1611344 0.10444577 0.020349504 8
1.0985689 0.098624647 -0.2546446 1
1.1677132 0.10462613 0.061442416 9
1.108741 0.099147744 -0.21637741 2
1.1708378 0.10470067 0.10284378 10
1.13528 0.10132126 -0.18052539 3
1.1824042 0.1053184 0.14575575 11
1.1349672 0.10089403 -0.13990602 4
1.1864917 0.10526565 0.18866 12
1.1451286 0.10139395 -0.10057773 5
1.2144485 0.10731876 0.23698479 13
1.1519419 0.10159255 -0.060605045 6
1.2093711 0.10665737 0.28028902 14
1.1653168 0.10256661 -0.020419316 7
1.2374158 0.10869545 0.33284131 15
1.1066886 0.095654875 -0.29764193 0
1.165494 0.10053326 0.020419316 8
1.1086308 0.095433436 -0.25689411 1
1.1800284 0.10137148 0.062070452 9
1.1032122 0.094772503 -0.21523255 2
1.1672434 0.10006796 0.10249515 10
1.1415484 0.097664975 -0.181464 3
1.1788263 0.10064648 0.14526826 11
1.1373074 0.096901737 -0.14014976 4
1.1652185 0.099075563 0.18521842 12
1.1375346 0.096721679 -0.099880479 5
1.2226405 0.1037425 0.23851125 13
1.1522895 0.097570598 -0.060605045 6
1.2214048 0.10320885 0.28298843 14
1.1537293 0.097286925 -0.020209888 7
1.2262557 0.10318711 0.32973549 15
1.0993146 0.091153428 -0.29557136 0
1.161852 0.096134208 0.020349504 8
1.1128414 0.091883421 -0.2577939 1
1.176394 0.096924603 0.061861105 9
1.1133194 0.091727801 -0.21714064 2
1.1556715 0.095013633 0.10144928 10
1.1261322 0.092387207 -0.17896105 3
1.1811489 0.096693777 0.145512 11
1.1396172 0.09309306 -0.1403935 4
1.1891836 0.096933112 0.18897286 12
1.1358795 0.092588171 -0.099706165 5
1.2151681 0.098837115 0.23698479 13
1.1566044 0.093871139 -0.060814388 6
1.2256424 0.099259019 0.28388825 14
1.1620344 0.093903027 -0.020349504 7
1.2266084 0.098906301 0.32973549 15
1.1111809 0.088232756 -0.29867718 0
1.1542069 0.09144596 0.020209888 8
1.1014993 0.087077104 -0.2550945 1
1.1846732 0.093652271 0.062279794 9
1.1214615 0.088458247 -0.21866712 2
1.1679137 0.091916621 0.10249515 10
1.1244785 0.088301294 -0.17864819 3
1.171584 0.091794595 0.14429331 11
1.1537887 0.090197168 -0.14209966 4
1.1796517 0.09221901 0.18740851 12
1.1381822 0.088777833 -0.099880479 5
1.2037616 0.093681641 0.23469506 13
1.1449776 0.088905253 -0.060186356 6
1.2298672 0.09528143 0.28478804 14
1.166327 0.090358771 -0.020419316 7
1.2307819 0.095136203 0.33077076 15
1.1134084 0.084499374 -0.29919481 0
1.1584917 0.087920852 0.020279696 8
1.0978955 0.083129875 -0.25419468 1
1.1730434 0.088613428 0.061651766 9
1.1256789 0.084837869 -0.21943036 2
1.1722009 0.088138863 0.10284378 10
1.1306745 0.085016459 -0.17958678 3
1.1619844 0.08716619 0.14307462 11
1.1382449 0.08518561 -0.14014976 4
1.1799663 0.088101506 0.18740851 12
1.1464326 0.085395984 -0.10057773 5
1.2118969 0.090272322 0.23622155 13
1.1452661 0.085108109 -0.060186356 6
1.218516 0.090337709 0.28208864 14
1.1746123 0.086876661 -0.020558937 7
1.2349597 0.09112338 0.33180603 15
1.1156094 0.080946214 -0.29971248 0
1.1627803 0.084165394 0.020349504 8
1.1040101 0.079717755 -0.25554439 1
1.1693614 0.084230892 0.061442416 9
1.1063722 0.07969369 -0.21561417 2
1.1704996 0.084108107 0.10266946 10
1.1349051 0.081351325 -0.18021253 3
1.1761419 0.084100351 0.1447808 11
1.1286352 0.08050593 -0.13893107 4
1.182237 0.084121995 0.18772139 12
1.1467094 0.081594035 -0.10057773 5
1.2161214 0.086319141 0.23698479 13
1.1495407 0.081392229 -0.060395699 6
1.2149361 0.085809395 0.28118882 14
1.1689242 0.082354054 -0.02045422 7
1.2352703 0.086812273 0.33180603 15
1.0985397 0.075854585 -0.29505375 0
1.167057 0.080380514 0.020419316 8
1.1101141 0.076264478 -0.25689411 1
1.1816038 0.080968603 0.062070452 9
1.116437 0.076503091 -0.21752228 2
1.1648227 0.079613894 0.10214653 10
1.1332115 0.077254616 -0.17989966 3
1.1823698 0.080398589 0.145512 11
1.1407925 0.077371411 -0.1403935 4
1.190407 0.080527693 0.18897286 12
1.1350603 0.076783642 -0.099531859 5
1.2242504 0.082602471 0.23851125 13
1.1538033 0.077646993 -0.060605045 6
1.219117 0.081828654 0.28208864 14
1.1592283 0.077605627 -0.020279696 7
1.2355658 0.082499512 0.33180603 15
1.1007255 0.072145544 -0.29557136 0
1.1633396 0.076045603 0.020349504 8
1.1103736 0.072388694 -0.25689411 1
1.1818793 0.076843224 0.062070452 9
1.1108198 0.072223097 -0.21637741 2
1.1611171 0.075289823 0.10179791 10
1.1295316 0.073043786 -0.17927392 3
1.1826432 0.076271109 0.145512 11
1.1390746 0.073261663 -0.14014976 4
1.1709675 0.075107716 0.18584417 12
1.1353214 0.072821312 -0.099531859 5
1.2127758 0.077576838 0.23622155 13
1.1540674 0.073618688 -0.060605045 6
1.2271745 0.078067787 0.28388825 14
1.1594923 0.073558941 -0.020279696 7
1.2281342 0.077697851 0.32973549 15
1.1086833 0.068781577 -0.29764193 0
1.1596063 0.071737081 0.020279696 8
1.1047844 0.06815207 -0.25554439 1
1.1861272 0.072962731 0.062279794 9
1.1189034 0.068827569 -0.21790388 2
1.1633614 0.071357973 0.10197222 10
1.1258364 0.068859056 -0.17864819 3
1.1729951 0.071538486 0.14429331 11
1.151212 0.070007771 -0.14161219 4
1.1909401 0.072215118 0.18897286 12
1.1395462 0.069098741 -0.099880479 5
1.2012813 0.072632328 0.23393184 13
1.1503299 0.069349647 -0.060395699 6
1.2352204 0.074251071 0.28568783 14
1.163734 0.069750629 -0.020349504 7
1.228398 0.073410645 0.32973549 15
1.1147022 0.065249495 -0.29919481 0
1.1618459 0.067805611 0.0203146 8
1.0972337 0.063842684 -0.25374478 1
1.1743994 0.068332575 0.061651766 9
1.1230568 0.06514854 -0.21866712 2
1.1695706 0.067642011 0.10249515 10
1.1300139 0.065156385 -0.17927392 3
1.1712558 0.067329302 0.14404957 11
1.1336014 0.065164745 -0.13941854 4
1.1970896 0.06860473 0.18991147 12
1.1477369 0.065575391 -0.10057773 5
1.2132878 0.069108173 0.23622155 13
1.1425889 0.064881146 -0.05997701 6
1.2276775 0.069712847 0.28388825 14
1.1719449 0.06634292 -0.020489125 7
1.2363498 0.069772378 0.33180603 15
1.1110547 0.061339363 -0.29815957 0
1.1680543 0.064281747 0.020419316 8
1.1091144 0.060844466 -0.25644422 1
1.1706309 0.064219177 0.061442416 9
1.1115047 0.060780499 -0.21637741 2
1.1737674 0.06397976 0.10284378 10
1.1381137 0.061837677 -0.18052539 3
1.1794015 0.063873984 0.14502454 11
1.1298469 0.061190214 -0.13893107 4
1.1894205 0.064208396 0.18866 12
1.1439692 0.061555125 -0.10022911 5
1.2213521 0.065504625 0.23774803 13
1.1507753 0.06151798 -0.060395699 6
1.220118 0.065224893 0.28208864 14
1.1601774 0.061818093 -0.020279696 7
1.2365744 0.065671764 0.33180603 15
1.1054641 0.057354566 -0.29660663 0
1.1742522 0.060718562 0.020524029 8
1.10931 0.057165869 -0.25644422 1
1.1748374 0.060337093 0.061651766 9
1.1117002 0.057094507 -0.21637741 2
1.1719834 0.05998601 0.10266946 10
1.1383126 0.058062904 -0.18052539 3
1.1915021 0.060567502 0.14648695 11
1.145914 0.058049623 -0.14088097 4
1.1778001 0.059458829 0.18678276 12
1.1441771 0.057561252 -0.10022911 5
1.2254843 0.061651647 0.23851125 13
1.150973 0.057701763 -0.060395699 6
1.2281235 0.061354678 0.28388825 14
1.1603862 0.05776763 -0.020279696 7
1.2329371 0.061163742 0.33077076 15
1.0998782 0.053023633 -0.29505375 0
1.158478 0.055848651 0.020244792 8
1.1133958 0.053480003 -0.25734401 1
1.1830206 0.056617938 0.062070452 9
1.119746 0.053393822 -0.21790388 2
1.166225 0.055405568 0.10214653 10
1.1345714 0.053703845 -0.17989966 3
1.1758432 0.055657405 0.14453706 11
1.1461096 0.054049525 -0.14088097 4
1.1898397 0.055903118 0.18866 12
1.1384003 0.05328773 -0.099706165 5
1.2178575 0.056794062 0.23698479 13
1.1591573 0.053853318 -0.060814388 6
1.2244468 0.056672454 0.28298843 14
1.1725659 0.054271195 -0.020489125 7
1.2292833 0.056681905 0.32973549 15
1.1058463 0.049442582 -0.29660663 0
1.1606727 0.051691465 0.020279696 8
1.1019034 0.04888092 -0.2546446 1
1.1872016 0.052664787 0.062279794 9
1.1160029 0.049311228 -0.21714064 2
1.170392 0.051510349 0.10249515 10
1.126858 0.049396783 -0.17864819 3
1.1661234 0.050914109 0.14331836 11
1.1463 0.049848713 -0.14088097 4
1.1939745 0.051921919 0.18928573 12
1.1425604 0.049485769 -0.10005479 5
1.2102027 0.052203838 0.23545831 13
1.1473657 0.049293209 -0.060186356 6
1.232425 0.052731466 0.28478804 14
1.1687526 0.050007127 -0.020419316 7
1.2333341 0.052554727 0.33077076 15
1.1195236 0.046139244 -0.30023012 0
1.1648335 0.048006617 0.020349504 8
1.0981652 0.045067012 -0.25374478 1
1.1714134 0.047867671 0.061442416 9
1.1318612 0.046054117 -0.22019359 2
1.1745462 0.047585599 0.10284378 10
1.1309631 0.045819871 -0.17927392 3
1.1762033 0.047446556 0.14453706 11
1.138525 0.045728188 -0.13990602 4
1.1980962 0.047911402 0.18991147 12
1.1486986 0.04573467 -0.10057773 5
1.2182158 0.048502453 0.23698479 13
1.1475228 0.045487821 -0.060186356 6
1.2209097 0.048183471 0.28208864 14
1.1729162 0.046083819 -0.020489125 7
1.2373707 0.048400544 0.33180603 15
1.1196704 0.042426743 -0.30023012 0
1.1689906 0.044090725 0.020419316 8
1.1061052 0.041525565 -0.25554439 1
1.1715734 0.043779187 0.061442416 9
1.1163126 0.041714214 -0.21714064 2
1.1786797 0.043838181 0.1031924 10
1.1390123 0.042163789 -0.18052539 3
1.1803291 0.043487538 0.14502454 11
1.1347103 0.041607935 -0.13941854 4
1.1844376 0.043224368 0.18772139 12
1.1508349 0.041998088 -0.10075203 5
1.2223016 0.044393141 0.23774803 13
1.1516665 0.041625917 -0.060395699 6
1.2171755 0.043780979 0.28118882 14
1.1610795 0.041560907 -0.020279696 7
1.2413933 0.044218224 0.33284131 15
1.1120889 0.038252167 -0.29815957 0
1.171136 0.040078558 0.02045422 8
1.1101388 0.037797142 -0.25644422 1
1.1757114 0.039824281 0.061651766 9
1.1125273 0.037684076 -0.21637741 2
1.1648867 0.039254092 0.10197222 10
1.1450753 0.038386431 -0.181464 3
1.1923777 0.039763819 0.14648695 11
1.1348486 0.037646506 -0.13941854 4
1.176684 0.038829293 0.1864699 12
1.1430094 0.037718069 -0.10005479 5
1.2283357 0.040319145 0.23889288 13
1.1557972 0.037735641 -0.060605045 6
1.2290072 0.039911747 0.28388825 14
1.1612176 0.037507419 -0.020279696 7
1.2338169 0.039636239 0.33077076 15
1.1160775 0.034489591 -0.29919481 0
1.1652724 0.03580628 0.020349504 8
1.1141596 0.034040533 -0.25734401 1
1.1838286 0.035962872 0.062070452 9
1.118539 0.033979479 -0.21752228 2
1.1670082 0.035248037 0.10214653 10
1.1333554 0.034033082 -0.17958678 3
1.1825881 0.035305463 0.14526826 11
1.1468782 0.034039035 -0.14088097 4
1.182736 0.034896124 0.18740851 12
1.1351739 0.03329508 -0.099357553 5
1.218657 0.035743669 0.23698479 13
1.1639074 0.033934545 -0.061023727 6
1.2291391 0.03562114 0.28388825 14
1.1733345 0.033798948 -0.020489125 7
1.2300854 0.035219442 0.32973549 15
1.1084718 0.030188072 -0.29712427 0
1.1653903 0.031738188 0.020349504 8
1.1084274 0.029993279 -0.25599429 1
1.1879399 0.031937357 0.062279794 9
1.114731 0.029774472 -0.21675903 2
1.1711128 0.031075902 0.10249515 10
1.1314979 0.029827096 -0.17927392 3
1.1747665 0.030967688 0.14429331 11
1.1588968 0.030346958 -0.14234342 4
1.1986483 0.03117856 0.18991147 12
1.1392666 0.029434996 -0.099706165 5
1.2148545 0.031175785 0.23622155 13
1.1520443 0.029362755 -0.060395699 6
1.2370539 0.031313401 0.28568783 14
1.1814417 0.029905695 -0.020628745 7
1.2340634 0.031022198 0.33077076 15
1.1182271 0.026548095 -0.29971248 0
1.1615007 0.027372643 0.020279696 8
1.098789 0.025702346 -0.25374478 1
1.1760687 0.027305236 0.061651766 9
1.1246418 0.026111238 -0.21866712 2
1.1751978 0.027079809 0.10284378 10
1.1296203 0.025831791 -0.17896105 3
1.1728876 0.02661697 0.14404957 11
1.1391542 0.02565253 -0.13990602 4
1.1809807 0.026387643 0.18709564 12
1.1513182 0.025524389 -0.10075203 5
1.2188816 0.02702225 0.23698479 13
1.1441528 0.025165753 -0.05997701 6
1.2215694 0.026654666 0.28208864 14
1.1775448 0.025489006 -0.020558937 7
1.2380316 0.026581543 0.33180603 15
1.1144539 0.022371579 -0.29867718 0
1.1655875 0.023398038 0.020349504 8
1.1027687 0.021944474 -0.2546446 1
1.172163 0.023120735 0.061442416 9
1.1149155 0.021796882 -0.21675903 2
1.1772813 0.022810608 0.10301808 10
1.1336572 0.021767441 -0.17958678 3
1.1729733 0.022522353 0.14404957 11
1.1352674 0.021600157 -0.13941854 4
1.1889657 0.022414271 0.18834713 12
1.1494082 0.02146787 -0.10057773 5
1.2228981 0.022626968 0.23774803 13
1.1562189 0.021191364 -0.060605045 6
1.2294526 0.022318965 0.28388825 14
1.1656303 0.021160362 -0.020349504 7
1.2458431 0.022399012 0.33387658 15
1.1164503 0.018903229 -0.29919481 0
1.1736565 0.019666931 0.020489125 8
1.1125778 0.018449213 -0.25689411 1
1.1802212 0.019364873 0.061861105 9
1.1149784 0.018294381 -0.21675903 2
1.1733629 0.019047508 0.10266946 10
1.1416205 0.01833294 -0.18083826 3
1.1829658 0.018790383 0.14526826 11
1.1472417 0.01802212 -0.14088097 4
1.1831081 0.018379582 0.18740851 12
1.1434937 0.017764172 -0.10005479 5
1.2268893 0.018844968 0.23851125 13
1.1562798 0.017558565 -0.060605045 6
1.2256196 0.018398155 0.28298843 14
1.1616954 0.017235227 -0.020279696 7
1.238184 0.018153895 0.33180603 15
1.1126461 0.014954286 -0.29815957 0
1.169719 0.015516626 0.020419316 8
1.118481 0.014641708 -0.2582438 1
1.184276 0.015296856 0.062070452 9
1.1209248 0.014478573 -0.21790388 2
1.1654532 0.014849743 0.10197222 10
1.1337767 0.014248231 -0.17958678 3
1.188979 0.014734995 0.14599949 11
1.1512676 0.014066136 -0.14136845 4
1.1871153 0.014296913 0.18803425 12
1.1375719 0.013700241 -0.099531859 5
1.2151688 0.014423247 0.23622155 13
1.1603283 0.01356924 -0.060814388 6
1.2295736 0.014164401 0.28388825 14
1.1657473 0.013225663 -0.020349504 7
1.2305127 0.013745661 0.32973549 15
1.1126915 0.011070039 -0.29815957 0
1.1577685 0.011316428 0.020209888 8
1.1107309 0.010662801 -0.25644422 1
1.1883144 0.011407588 0.062279794 9
1.1248949 0.010602434 -0.21866712 2
1.1714748 0.010836439 0.10249515 10
1.1298691 0.010254909 -0.17896105 3
1.1790981 0.010495926 0.1447808 11
1.1552798 0.010081714 -0.14185593 4
1.1990081 0.010463316 0.18991147 12
1.1415975 0.0097636087 -0.099880479 5
1.2152117 0.010181105 0.23622155 13
1.1563742 0.0094857812 -0.060605045 6
1.2335128 0.0099038519 0.28478804 14
1.1737833 0.009424286 -0.020489125 7
1.2382789 0.0097259972 0.33180603 15
1.1146551 0.0071981312 -0.29867718 0
1.161799 0.0075025726 0.020279696 8
1.1029652 0.0069306674 -0.2546446 1
1.1763637 0.0071860082 0.061651766 9
1.124925 0.0066754548 -0.21866712 2
1.1754904 0.00677092 0.10284378 10
1.1298969 0.0065082982 -0.17896105 3
1.1711863 0.0065411655 0.14380583 11
1.1473665 0.0062078834 -0.14088097 4
1.1990373 0.0062787575 0.18991147 12
1.1476017 0.0058085797 -0.10040341 5
1.2191654 0.0061707995 0.23698479 13
1.1484103 0.0056122448 -0.060186356 6
1.2218466 0.0057584634 0.28208864 14
1.1778085 0.0053447955 -0.020558937 7
1.2383052 0.0054032085 0.33180603 15
1.1243321 0.0035328679 -0.30126539 0
1.1738161 0.0034829369 0.020489125 8
1.1068802 0.0030911483 -0.25554439 1
1.1723865 0.0032740857 0.061442416 9
1.117088 0.0029241643 -0.21714064 2
1.1814835 0.0028870974 0.10336671 10
