# .PCD v0.7 - Point Cloud Data file format
VERSION 0.7
FIELDS x y z intensity
SIZE 4 4 4 4
TYPE F F F F
COUNT 1 1 1 1
WIDTH 556
HEIGHT 1
VIEWPOINT 0 0 0 1 0 0 0
POINTS 556
DATA ascii
2.2807705 1.0776293 -0.13220063 6
2.3080328 1.0806707 -0.13356137 6
2.3242855 1.078897 -0.13429408 6
2.3169634 1.0661755 -0.13366605 6
2.3115847 1.0539379 -0.13314268 6
2.3190722 1.0471027 -0.13335203 6
2.3077767 1.0328023 -0.22120127 5
2.3265419 1.0402246 -0.13356137 6
2.3059039 1.0223173 -0.22067833 5
2.3374629 1.0353341 -0.13398007 6
2.3222272 1.0198717 -0.22189851 5
2.3299105 1.0227597 -0.13335203 6
2.32377 1.0113695 -0.22172421 5
2.3298037 1.0130272 -0.13314268 6
2.3272862 1.0032513 -0.22172421 5
2.3406627 1.0080489 -0.13356137 6
2.3769343 1.0226865 -0.045166828 7
2.3234448 0.99199146 -0.22102696 5
2.3478415 1.0014402 -0.13377072 6
2.369452 1.0096804 -0.044957399 7
2.3268933 0.98387557 -0.22102696 5
2.3623619 0.99790084 -0.13439874 6
2.3637502 0.9975152 -0.044782877 7
2.3303132 0.9757477 -0.22102696 5
2.3547757 0.98502469 -0.13377072 6
2.3818042 0.99584258 -0.045062114 7
2.3373859 0.96913415 -0.22137558 5
2.3506489 0.97415131 -0.13335203 6
2.3889611 0.98905289 -0.045131925 7
2.347959 0.96440512 -0.22207282 5
2.3614259 0.9689734 -0.13377072 6
2.3886986 0.97919023 -0.045062114 7
2.340694 0.9523623 -0.31027937 4
2.34762 0.95470154 -0.22172421 5
2.3684945 0.96222854 -0.13398007 6
2.3921022 0.97084546 -0.045062114 7
2.347687 0.94566882 -0.31076685 4
2.3435452 0.94352508 -0.22102696 5
2.375545 0.95544499 -0.13418941 6
2.3991873 0.96398121 -0.045131925 7
2.3491297 0.93673331 -0.31052312 4
2.3505259 0.93681467 -0.22137558 5
2.3751543 0.94566983 -0.13398007 6
2.4025381 0.95559996 -0.045131925 7
2.3413067 0.92415398 -0.30906066 4
2.3649023 0.93299055 -0.22242144 5
2.3672922 0.93297863 -0.13335203 6
2.4131355 0.95055962 -0.045271542 7
2.3406603 0.91493994 -0.30857319 4
2.3644326 0.92328089 -0.22207282 5
2.3815362 0.92948073 -0.13398007 6
2.4089863 0.93922538 -0.045131925 7
2.3549485 0.91106087 -0.31003565 4
2.3637643 0.91399843 -0.22172421 5
2.3922188 0.9240399 -0.13439874 6
2.4083567 0.92979175 -0.045062114 7
2.4490135 0.94106954 0.045795113 8
2.3579566 0.903247 -0.31003565 4
2.363219 0.90431702 -0.22137558 5
2.4027324 0.91895533 -0.13481744 6
2.4227958 0.92566091 -0.045271542 7
2.427985 0.92327583 0.04534135 8
2.3685198 0.89782566 -0.31101057 4
2.3736579 0.89929831 -0.22207282 5
2.390981 0.90490854 -0.13398007 6
2.4222713 0.9157843 -0.045201734 7
2.4349365 0.91620284 0.045411162 8
2.3642051 0.88676333 -0.31003565 4
2.3805134 0.89240646 -0.22242144 5
2.4016068 0.89935797 -0.13439874 6
2.432945 0.91012532 -0.04534135 7
2.4531119 0.91327971 0.045690399 8
2.3635635 0.87712449 -0.30954817 4
2.3836138 0.88409191 -0.22242144 5
2.4047313 0.89096981 -0.13439874 6
2.4323566 0.90023834 -0.045271542 7
2.4450262 0.90056366 0.045480974 8
2.37883 0.87429649 -0.40141091 3
2.3777919 0.87297308 -0.31101057 4
2.3866856 0.87576556 -0.22242144 5
2.4115779 0.88394445 -0.13460809 6
2.4279728 0.88899273 -0.045131925 7
2.4425182 0.88997012 0.045376256 8
2.3651588 0.85991323 -0.39859506 3
2.3806741 0.86508256 -0.31101057 4
2.3934736 0.86878926 -0.22277008 5
2.4184043 0.87688214 -0.13481744 6
2.4384274 0.8836621 -0.045271542 7
2.4454558 0.88186604 0.045376256 8
2.3642802 0.85072702 -0.39796934 3
2.3872657 0.85852724 -0.31149808 4
2.3963418 0.86084676 -0.22277008 5
2.4212983 0.86885923 -0.13481744 6
2.4451094 0.87692058 -0.04534135 7
2.4521337 0.87509531 0.045446068 8
2.365227 0.84221989 -0.39765644 3
2.3902478 0.85018939 -0.31149808 4
2.406692 0.85556543 -0.22346732 5
2.4147556 0.85748273 -0.13429408 6
2.4556942 0.87105358 -0.045480974 7
2.4683735 0.87118858 0.045690399 8
2.3718793 0.83527029 -0.39828217 3
2.3857105 0.83920521 -0.31052312 4
2.4134233 0.84848022 -0.22381593 5
2.4328098 0.8543418 -0.13513145 6
2.4511714 0.85983032 -0.04534135 7
2.4732866 0.86322767 0.045725305 8
2.3822424 0.8295849 -0.39953369 3
2.3923752 0.83217609 -0.31101057 4
2.4052248 0.83570606 -0.22277008 5
2.432004 0.84453362 -0.1349221 6
2.4466009 0.848647 -0.045201734 7
2.4725049 0.8532837 0.045655496 8
2.381531 0.81956291 -0.39890796 3
2.4027739 0.82640421 -0.31198555 4
2.4081273 0.82730567 -0.22277008 5
2.4464176 0.8395043 -0.13555014 6
2.4608979 0.84399331 -0.045411162 7
2.466152 0.84098917 0.045480974 8
2.5181181 0.85821843 0.139423 9
2.373157 0.80742657 -0.39703071 3
2.4133046 0.82014757 -0.31296051 4
2.4185464 0.82145697 -0.22346732 5
2.4417675 0.8283934 -0.13513145 6
2.4676163 0.83668274 -0.045480974 7
2.4821908 0.8372798 0.045725305 8
2.5116351 0.84623408 0.13889964 9
2.3870544 0.80333328 -0.39890796 3
2.4084847 0.80960959 -0.31198555 4
2.4251769 0.81427735 -0.22381593 5
2.4407139 0.81902134 -0.1349221 6
2.4818983 0.8318764 -0.045690399 7
2.4888928 0.82987463 0.045795113 8
2.5125327 0.83726972 0.13879497 9
2.3973417 0.79748946 -0.40015942 3
2.4075286 0.799945 -0.31149808 4
2.4354274 0.80874288 -0.2245132 5
2.4435582 0.81049603 -0.1349221 6
2.4732542 0.81986678 -0.045480974 7
2.49353 0.82224339 0.045830019 8
2.5154397 0.82849473 0.13879497 9
2.3999729 0.78953576 -0.40015942 3
2.4139397 0.7931968 -0.31198555 4
2.4306631 0.79775196 -0.22381593 5
2.457619 0.80612391 -0.13555014 6
2.4761009 0.81122905 -0.045480974 7
2.489063 0.81018651 0.045690399 8
2.5260565 0.82174158 0.13921365 9
2.3692994 0.770289 -0.48427325 2
2.3954716 0.77787489 -0.39890796 3
2.4282973 0.78759611 -0.31344795 4
2.4259894 0.78638089 -0.22311871 5
2.4644966 0.79791117 -0.13575949 6
2.4866681 0.80461007 -0.04562059 7
2.4974465 0.80376643 0.045795113 8
2.5365155 0.81536323 0.13963234 9
2.3775809 0.76381588 -0.48541811 2
2.3980381 0.76992631 -0.39890796 3
2.427115 0.77832741 -0.31296051 4
2.4438994 0.78276914 -0.2245132 5
2.4671288 0.78973472 -0.13575949 6
2.4932706 0.79714352 -0.045690399 7
2.5021427 0.79565036 0.045830019 8
2.5315917 0.80452698 0.13921365 9
2.3875856 0.75830382 -0.48694456 2
2.4082429 0.76393938 -0.40015942 3
2.4258983 0.76907408 -0.31247303 4
2.4540794 0.77706569 -0.22521043 5
2.4584444 0.7775051 -0.13513145 6
2.4997144 0.79007584 -0.045760211 7
2.5143058 0.79034615 0.046004545 8
2.5304346 0.79493082 0.13900432 9
2.3844676 0.7486183 -0.4857997 2
2.4183025 0.75831383 -0.40141091 3
2.4284353 0.76102573 -0.31247303 4
2.4528399 0.76773363 -0.22486182 5
2.4686346 0.77173138 -0.13555014 6
2.4908681 0.77820462 -0.045550782 7
2.5169127 0.78200454 0.046004545 8
2.5408239 0.78846139 0.139423 9
2.3888118 0.74128944 -0.48618135 2
2.4245777 0.75145918 -0.40203664 3
2.4424548 0.75606686 -0.31393546 4
2.4555051 0.75916624 -0.22486182 5
2.4864461 0.76825815 -0.13638751 6
2.497391 0.77068377 -0.04562059 7
2.5177157 0.77262676 0.045969639 8
2.543561 0.77958673 0.139423 9
2.3915129 0.73252839 -0.48618135 2
2.4235375 0.74141246 -0.40141091 3
2.4450791 0.74753582 -0.31393546 4
2.4543288 0.74942714 -0.2245132 5
2.4930658 0.76030552 -0.13659686 6
2.5115428 0.76546007 -0.045830019 7
2.5167027 0.76223499 0.045899831 8
2.5578713 0.77372915 0.14005104 9
2.401572 0.7264502 -0.48770785 2
2.5784698 0.77946883 0.23566914 10
2.4223292 0.73180503 -0.40078515 3
2.4516034 0.73971653 -0.31442294 4
2.4645603 0.74315542 -0.22521043 5
2.4842303 0.74814218 -0.13596882 6
2.5143316 0.75625026 -0.045830019 7
2.5231798 0.75459069 0.045969639 8
2.552902 0.76250875 0.13963234 9
2.4116178 0.72030956 -0.4892343 2
2.5830841 0.77103263 0.23584343 10
2.4248683 0.72334671 -0.40078515 3
2.4465606 0.72888654 -0.31344795 4
2.4785964 0.73796099 -0.22625631 5
2.4829979 0.73832685 -0.13575949 6
2.5246239 0.74974543 -0.045969639 7
2.5373054 0.74917668 0.046179067 8
2.5611629 0.75573504 0.13994636 9
2.4028192 0.70855463 -0.48694456 2
2.5838485 0.76144868 0.23566914 10
2.4387481 0.7182256 -0.40266237 3
2.4565821 0.72301072 -0.31442294 4
2.4811573 0.72930396 -0.22625631 5
2.4970584 0.73303103 -0.13638751 6
2.515583 0.73799229 -0.045760211 7
2.5474544 0.74299866 0.046318687 8
2.3984783 0.69909239 -0.57677448 1
2.5674901 0.74835485 0.1401557 9
2.4089248 0.70168245 -0.48770785 2
2.5863593 0.7528767 0.23566914 10
2.4411166 0.71013385 -0.40266237 3
2.4551535 0.71375376 -0.31393546 4
2.4682553 0.71662718 -0.22486182 5
2.5148213 0.72919667 -0.1372249 6
2.5295408 0.7329849 -0.045969639 7
2.5422184 0.73233205 0.046179067 8
2.3989105 0.69059628 -0.57632458 1
2.5739255 0.740493 0.14036505 9
2.4131253 0.6942324 -0.48808944 2
2.5850122 0.74319404 0.23532049 10
2.4396608 0.70094442 -0.40203664 3
2.4728944 0.70955855 -0.31588537 4
2.4782786 0.71063536 -0.22555906 5
2.5133855 0.71975279 -0.13701554 6
2.5282385 0.72305149 -0.045899831 7
2.5389891 0.72181249 0.046074353 8
2.5880225 0.73477733 0.14099309 9
2.419311 0.68687773 -0.48885265 2
2.5933411 0.73579693 0.23584343 10
2.4420924 0.69242465 -0.40203664 3
2.4753563 0.70092154 -0.31588537 4
2.4884126 0.7041508 -0.22625631 5
2.5081949 0.70880181 -0.13659686 6
2.542294 0.7174812 -0.046109259 7
2.5472691 0.71456617 0.046179067 8
2.5905716 0.72573829 0.14099309 9
2.4311464 0.68107593 -0.49076074 2
2.6016493 0.72835195 0.23636638 10
2.4482996 0.68495977 -0.40266237 3
2.4701402 0.69014055 -0.31491041 4
2.4946935 0.69653124 -0.22660492 5
2.5145013 0.70111567 -0.1368062 6
2.5486362 0.70967478 -0.046179067 7
2.5593839 0.7083376 0.046353593 8
2.5757635 0.71190304 0.14005104 9
2.4297245 0.67154002 -0.48999751 2
2.6041758 0.71926659 0.23636638 10
2.4582922 0.67851096 -0.40391383 3
2.4763618 0.68256944 -0.31539789 4
2.508635 0.69099271 -0.22765081 5
2.5207851 0.69339287 -0.13701554 6
2.5472412 0.69971514 -0.046109259 7
2.5734155 0.70255995 0.046563022 8
2.5858173 0.70545954 0.14046971 9
2.4320538 0.66305399 -0.48999751 2
2.6066704 0.71017253 0.23636638 10
2.4644578 0.67096418 -0.40453959 3
2.4786117 0.67435306 -0.31539789 4
2.4994955 0.67909795 -0.22660492 5
2.527045 0.68563598 -0.1372249 6
2.5418277 0.6891706 -0.045969639 7
2.5602846 0.68985951 0.046283782 8
2.5997138 0.69999701 0.14109775 9
2.4380305 0.65600598 -0.49076074 2
2.6090114 0.70152384 0.23636638 10
2.4628537 0.66176337 -0.40391383 3
2.496172 0.67024761 -0.31734779 4
2.4978848 0.66977412 -0.22625631 5
2.5408804 0.68035233 -0.13785292 6
2.5479622 0.68177199 -0.046039447 7
2.5644903 0.68187988 0.046318687 8
2.6098633 0.69296759 0.14151645 9
2.447783 0.64993227 -0.49228725 2
2.6151745 0.69389063 0.23671499 10
2.4650347 0.65359193 -0.40391383 3
2.6403778 0.69959015 0.33538446 11
2.5061719 0.66356432 -0.31832278 4
2.515501 0.66556346 -0.22765081 5
2.5353985 0.66988242 -0.13743424 6
2.5657952 0.67695427 -0.046318687 7
2.5726581 0.67444462 0.046423402 8
2.6006732 0.68081892 0.14088841 9
2.4538352 0.64237881 -0.49305046 2
2.6214359 0.6857655 0.2370636 10
2.4673014 0.6449827 -0.40391383 3
2.6389625 0.68936634 0.33489698 11
2.4931073 0.65080035 -0.31637284 4
2.5139532 0.65577209 -0.22730216 5
2.5338562 0.66002059 -0.1372249 6
2.5720129 0.66900116 -0.046388499 7
2.5827413 0.66746223 0.046563022 8
2.6029165 0.67219156 0.14088841 9
2.4484589 0.63184655 -0.49152401 2
2.6392479 0.68059146 0.2384581 10
2.4810145 0.63932556 -0.40579104 3
2.6490424 0.6821298 0.33587193 11
2.495364 0.64209318 -0.31637284 4
2.5278044 0.64997149 -0.22834805 5
2.5438826 0.65315789 -0.13764358 6
2.5664692 0.658481 -0.046248876 7
2.5868778 0.6593883 0.046597924 8
2.6129892 0.66507149 0.14130709 9
2.4544544 0.62426555 -0.49228725 2
2.6319528 0.6689201 0.23758654 10
2.4869502 0.6320672 -0.40641677 3
2.6628337 0.67627388 0.33733436 11
2.5090234 0.63674623 -0.31783527 4
2.5223327 0.63918549 -0.22765081 5
2.5576513 0.64766186 -0.13827161 6
2.5726297 0.65049809 -0.046318687 7
2.5872245 0.64986658 0.046563022 8
2.6230438 0.6578905 0.14172579 9
2.469841 0.61946541 -0.49495855 2
2.6399543 0.66164213 0.23810948 10
2.4853091 0.6224218 -0.40579104 3
2.6651781 0.66697532 0.33733436 11
2.5247116 0.63135463 -0.31954145 4
2.5167067 0.62888485 -0.22695355 5
2.5598965 0.63872939 -0.13827161 6
2.5787654 0.64248139 -0.046388499 7
2.5855949 0.63986999 0.04649321 8
2.640836 0.65256262 0.14256316 9
2.6461165 0.65337747 0.2384581 10
2.4874663 0.61374438 -0.40579104 3
2.671345 0.65861768 0.33782184 11
2.5269003 0.62253726 -0.31954145 4
2.5382326 0.62486047 -0.22869666 5
2.5582316 0.62883556 -0.13806225 6
2.5926447 0.63633513 -0.046597924 7
2.5994697 0.63368291 0.046702638 8
2.623692 0.63861626 0.14151645 9
2.6541889 0.64554995 0.23898104 10
2.4895937 0.60505706 -0.40579104 3
2.6678407 0.64788282 0.33709061 11
2.5194125 0.61137283 -0.31832278 4
2.5481436 0.61787397 -0.22939391 5
2.5526462 0.6180225 -0.13764358 6
2.5948505 0.62728053 -0.046597924 7
2.611388 0.62693858 0.046877164 8
2.6259048 0.62945575 0.14151645 9
2.6603012 0.63720864 0.23932965 10
2.4993751 0.59820288 -0.40704253 3
2.6739469 0.63949168 0.33757812 11
2.5176697 0.60165119 -0.31783527 4
2.5619121 0.61175132 -0.23043977 5
2.5703306 0.61281323 -0.13848096 6
2.5931334 0.61729336 -0.046528116 7
2.6155066 0.61827993 0.04691207 8
2.6318653 0.62166202 0.14172579 9
2.6547525 0.62608981 0.23863243 10
2.5052934 0.59038025 -0.40766826 3
2.6877563 0.63288313 0.33904055 11
2.535213 0.59649694 -0.31978518 4
2.5523951 0.60006952 -0.22939391 5
2.5841205 0.60657644 -0.13910899 6
2.5912726 0.60777813 -0.046458308 7
2.613647 0.60869652 0.046842258 8
2.6418009 0.61427993 0.14214447 9
2.6549811 0.61636794 0.2384581 10
2.5072374 0.58206844 -0.40766826 3
2.701443 0.62665743 0.34050298 11
2.5371771 0.58808708 -0.31978518 4
2.5505919 0.59025723 -0.22904527 5
2.5861175 0.5980044 -0.13910899 6
2.6050687 0.60142744 -0.046667732 7
2.6196544 0.60046238 0.04691207 8
2.6517167 0.60683739 0.14256316 9
2.6647794 0.60933733 0.23915535 10
2.509254 0.57331353 -0.40766826 3
2.6900671 0.61413169 0.33879682 11
2.5488913 0.58143383 -0.32100388 4
2.5603056 0.5835675 -0.22974254 5
2.5842943 0.58808643 -0.13889964 6
2.6110523 0.59321702 -0.046737548 7
2.6217344 0.59131497 0.04691207 8
2.6499219 0.59669918 0.1423538 9
2.6804969 0.60309249 0.24037553 10
2.5150943 0.56541818 -0.40829399 3
2.6863837 0.60343194 0.33806559 11
2.5412211 0.57035875 -0.31978518 4
2.5778797 0.57811528 -0.23113704 5
2.5863314 0.57906127 -0.13889964 6
2.6170104 0.58497089 -0.046807356 7
2.627687 0.58302534 0.046981879 8
2.6578381 0.58874327 0.14266783 9
2.6884215 0.59502435 0.24089848 10
2.5247679 0.55834091 -0.40954545 3
2.5431964 0.56148529 -0.31978518 4
2.5837734 0.56997097 -0.23148565 5
2.6000402 0.5726077 -0.13952768 6
2.6151299 0.574974 -0.046737548 7
2.6453362 0.57725948 0.047261119 8
2.6676831 0.58116198 0.14308652 9
2.686589 0.5847882 0.24054985 10
2.5382829 0.5520438 -0.4114227 3
2.5529008 0.55428857 -0.32076016 4
2.5779588 0.55925941 -0.23078841 5
2.6137354 0.56606424 -0.1401557 6
2.617121 0.56584251 -0.046737548 7
2.6336482 0.56508726 0.047016785 8
2.6755548 0.57310075 0.14340053 9
2.6886137 0.57540852 0.24054985 10
2.5625851 0.54703331 -0.32173508 4
2.5798955 0.55025655 -0.23078841 5
2.615695 0.55693895 -0.1401557 6
2.6347284 0.56002903 -0.047016785 7
2.6375616 0.55630261 0.047051687 8
2.6873107 0.56581587 0.14392389 9
2.6964548 0.56724972 0.24107277 10
2.5722504 0.53971481 -0.32271007 4
2.5954504 0.54410851 -0.23200859 5
2.6176231 0.54780436 -0.1401557 6
2.6405821 0.55164713 -0.047086593 7
2.6434031 0.54790467 0.047121495 8
2.6853576 0.55562186 0.14371455 9
2.6945162 0.55702651 0.24072415 10
2.5624533 0.52832687 -0.32124761 4
2.5797706 0.53142923 -0.23043977 5
2.6156068 0.53785855 -0.13994636 6
2.6464095 0.54322988 -0.047156405 7
2.6648946 0.54266363 0.047470544 8
2.6833663 0.54544967 0.1435052 9
2.7101121 0.55039382 0.24194433 10
2.5720642 0.5209558 -0.32222256 4
2.5972328 0.52558166 -0.23183426 5
2.6213839 0.52951652 -0.1401557 6
2.6404486 0.53240716 -0.047016785 7
2.6667728 0.53335738 0.047470544 8
2.6890774 0.53733158 0.14371455 9
2.7042012 0.53937078 0.24124709 10
2.581655 0.51352286 -0.32319754 4
2.5873265 0.51418287 -0.23078841 5
2.6310525 0.52191675 -0.1405744 6
2.6421993 0.52364999 -0.047016785 7
2.6685266 0.52451169 0.047470544 8
2.6987765 0.52947909 0.14413324 9
2.719754 0.53260893 0.24246727 10
2.58724 0.50572109 -0.32368499 4
2.5891058 0.50514758 -0.23078841 5
2.6406102 0.51471806 -0.14099309 6
2.6557887 0.51671451 -0.047226213 7
2.6664143 0.51443648 0.047400735 8
2.7064922 0.52118766 0.14444725 9
2.7234619 0.52396393 0.24264158 10
2.5967875 0.49818343 -0.32465994 4
2.5907667 0.49655956 -0.23078841 5
2.6345439 0.50399685 -0.1405744 6
2.6575763 0.50744021 -0.047226213 7
2.6721234 0.50586903 0.047470544 8
2.7082949 0.51173764 0.14444725 9
2.717443 0.51297504 0.24194433 10
2.594609 0.48838082 -0.32417247 4
2.6042323 0.48972163 -0.23183426 5
2.6402133 0.49553365 -0.14078373 6
2.675055 0.5011065 -0.04750545 7
2.6817372 0.49799946 0.047610167 8
2.7100644 0.50228137 0.14444725 9
2.594346 0.47896114 -0.32392874 4
2.6235602 0.48388109 -0.23340309 5
2.6458559 0.48703706 -0.14099309 6
2.6649876 0.48959708 -0.047296021 7
2.6932962 0.49042591 0.04778469 8
2.7157314 0.49353322 0.1446566 9
2.6075878 0.47152868 -0.23183426 5
2.6396773 0.47638002 -0.1405744 6
2.6666799 0.48029339 -0.047296021 7
2.6831801 0.47891393 0.047575258 8
2.7253027 0.48545077 0.14507528 9
2.6131413 0.46311954 -0.23218289 5
2.6511581 0.46890149 -0.14109775 6
2.6762176 0.47237167 -0.047435641 7
2.694684 0.471268 0.047749784 8
2.7309158 0.47662082 0.14528462 9
2.6265204 0.45603952 -0.23322876 5
2.6409707 0.45760024 -0.14046971 6
2.6857321 0.46438918 -0.047575258 7
2.7061679 0.46354628 0.047924306 8
2.7325628 0.46708581 0.14528462 9
2.6320248 0.44753572 -0.23357739 5
2.6464906 0.44904634 -0.14067906 6
2.6991663 0.45701495 -0.04778469 7
2.7117138 0.45475921 0.047994118 8
2.7322068 0.45721418 0.14517996 9
2.6453626 0.44031006 -0.23462325 5
2.6618335 0.44209552 -0.14141177 6
2.6889086 0.44562793 -0.047575258 7
2.7211778 0.44658548 0.048133738 8
2.7377279 0.44832161 0.1453893 9
2.6429508 0.43043214 -0.23427464 5
2.685046 0.43632582 -0.14256316 6
2.6943951 0.43688112 -0.04764507 7
2.720746 0.43676636 0.048098832 8
2.7451928 0.4397094 0.14570332 9
2.6444371 0.42120448 -0.23427464 5
2.6885252 0.42726332 -0.14266783 6
2.7077541 0.42935157 -0.047854498 7
2.7163272 0.42633823 0.047994118 8
2.7585502 0.43197745 0.14633135 9
2.6498287 0.41258341 -0.23462325 5
2.6840794 0.41695681 -0.1423538 6
2.7171409 0.42112148 -0.047994118 7
2.7336113 0.41927844 0.048273355 8
2.6689801 0.40602744 -0.23619205 5
2.6855185 0.40758565 -0.1423538 6
2.7225487 0.41223365 -0.04806393 7
2.737036 0.41003066 0.048308261 8
2.6889007 0.39850107 -0.14245848 6
2.7199442 0.40261668 -0.047994118 7
2.7443166 0.40182042 0.048412975 8
2.7040436 0.39158639 -0.14319119 6
2.7252228 0.39416787 -0.04806393 7
2.7396953 0.39186889 0.048308261 8
2.7112598 0.38345692 -0.1435052 6
2.7265823 0.38465196 -0.04806393 7
2.7410464 0.38230243 0.048308261 8
2.7066467 0.37317148 -0.14319119 6
2.7397943 0.37676719 -0.048273355 7
2.7522717 0.37407923 0.048482787 8
2.7079327 0.36372051 -0.14319119 6
2.7569487 0.36932456 -0.048552595 7
2.7595081 0.36525619 0.048587501 8
2.7171075 0.3553023 -0.14360988 6
2.7463241 0.35814652 -0.048343167 7
2.7746494 0.35740903 0.048831832 8
2.7322001 0.3475793 -0.14434259 6
2.7515247 0.34906307 -0.048412975 7
2.7758799 0.34772345 0.048831832 8
2.7314737 0.33731875 -0.14423791 6
2.7606649 0.34043458 -0.048552595 7
2.7711806 0.33682114 0.048727117 8
2.7266853 0.32706776 -0.14392389 6
2.7658074 0.33127216 -0.048622403 7
2.7788651 0.32300025 -0.048831832 7
2.7680528 0.31195378 -0.048622403 7
2.7691247 0.30229148 -0.048622403 7
2.7860723 0.29430342 -0.048901644 7
2.8029974 0.28620198 -0.04918088 7
2.8158712 0.27808371 -0.049390312 7
2.8048806 0.26711458 -0.04918088 7
2.8057959 0.25732404 -0.04918088 7
