# .PCD v0.7 - Point Cloud Data file format
VERSION 0.7
FIELDS x y z intensity
SIZE 4 4 4 4
TYPE F F F F
COUNT 1 1 1 1
WIDTH 1355
HEIGHT 1
VIEWPOINT 0 0 0 1 0 0 0
POINTS 1355
DATA ascii
1.3121332 0.43318471 -0.024119226 7
1.242505 0.40827492 -0.35044101 0
1.3166119 0.43237039 0.024189034 8
1.2442532 0.40836817 -0.30233422 1
1.3322382 0.43698764 0.07347969 9
1.2554574 0.41180277 -0.25682893 2
1.2689857 0.41574964 -0.21149944 3
1.2848061 0.42043561 -0.16598606 4
1.2782403 0.41804072 -0.11766025 5
1.3061918 0.42667678 -0.07201428 6
1.3174393 0.42984265 -0.024189034 7
1.2402477 0.40274224 -0.34940571 0
1.3105049 0.42530313 0.024049416 8
1.2382563 0.4016172 -0.30053461 1
1.343255 0.43541417 0.074003048 9
1.2568872 0.40741816 -0.25682893 2
1.2629119 0.40888333 -0.21024795 3
1.2862659 0.41594848 -0.16598606 4
1.2834835 0.41480136 -0.11800887 5
1.3000703 0.41966084 -0.071595594 6
1.311319 0.42278653 -0.024049416 7
1.2416461 0.39841017 -0.34940571 0
1.3138857 0.42133695 0.024084322 8
1.2322276 0.39491367 -0.29873499 1
1.325672 0.42486146 0.072956331 9
1.2657806 0.4054234 -0.25835541 2
1.2680943 0.40567651 -0.21087368 3
1.2800747 0.40926293 -0.16501111 4
1.2887194 0.41153106 -0.11835749 5
1.293916 0.41269282 -0.071176901 6
1.3241453 0.42207918 -0.024258846 7
1.244802 0.39487433 -0.34992337 0
1.3152757 0.41697729 0.024084322 8
1.2372458 0.39200273 -0.29963478 1
1.3156497 0.41684383 0.072328299 9
1.2521448 0.39648217 -0.25530246 2
1.2694324 0.40146938 -0.21087368 3
1.2776394 0.40381894 -0.16452362 4
1.290077 0.4072555 -0.11835749 5
1.2990872 0.40960062 -0.071386255 6
1.3102795 0.41287887 -0.023979606 7
1.2424178 0.38958842 -0.34888807 0
1.3185593 0.41321158 0.024119226 8
1.238539 0.38789734 -0.29963478 1
1.3151908 0.41165188 0.072223626 9
1.2497056 0.39115512 -0.25453922 2
1.2745278 0.39843607 -0.21149944 3
1.2828308 0.40054026 -0.16501111 4
1.2800785 0.39919055 -0.11731163 5
1.3004385 0.40529007 -0.071386255 6
1.3078942 0.40711361 -0.023909798 7
1.2401465 0.38388988 -0.34785283 0
1.3142627 0.40683275 0.024014512 8
1.243609 0.38472325 -0.30053461 1
1.3261606 0.41000783 0.072746992 9
1.2530063 0.3871519 -0.25492084 2
1.2646543 0.39026672 -0.2096222 3
1.291809 0.39840028 -0.16598606 4
1.2814642 0.39471948 -0.11731163 5
1.305733 0.40169582 -0.071595594 6
1.3093075 0.40254536 -0.023909798 7
1.2433264 0.38012311 -0.34837046 0
1.3119202 0.40084463 0.023944702 8
1.2338279 0.37674823 -0.2978352 1
1.3333141 0.40712625 0.073060997 9
1.2543502 0.3827754 -0.25492084 2
1.2622297 0.38469836 -0.20899647 3
1.2856644 0.39134967 -0.16501111 4
1.2828342 0.39024422 -0.11731163 5
1.2956613 0.39365157 -0.070967562 6
1.3183582 0.40029678 -0.024049416 7
1.2446457 0.37578103 -0.34837046 0
1.3094136 0.39533561 0.023874892 8
1.2350705 0.37265491 -0.2978352 1
1.3270783 0.40016285 0.072642311 9
1.2594382 0.37952778 -0.25568405 2
1.2672813 0.38165006 -0.2096222 3
1.2755489 0.38365436 -0.16354866 4
1.2918214 0.38805637 -0.11800887 5
1.2931335 0.3882052 -0.070758224 6
1.3235785 0.39684063 -0.024119226 7
1.2551411 0.37441298 -0.35095865 0
1.3165348 0.39247608 0.023979606 8
1.2363638 0.36834112 -0.2978352 1
1.3169132 0.39233863 0.07201428 9
1.2437551 0.37030748 -0.25224951 2
1.3501223 0.40171936 0.12323821 10
1.2686059 0.37722373 -0.2096222 3
1.2730746 0.37806892 -0.1630612 4
1.2892809 0.3826369 -0.11766025 5
1.2944808 0.3836886 -0.070758224 6
1.3095483 0.38790604 -0.023839988 7
1.2453216 0.3667545 -0.34785283 0
1.3197472 0.38867328 0.024014512 8
1.2375785 0.36423883 -0.2978352 1
1.3259391 0.38999394 0.072432972 9
1.2450402 0.36596337 -0.25224951 2
1.3343117 0.39194992 0.12166941 10
1.2774311 0.37524143 -0.21087368 3
1.2781309 0.37496307 -0.16354866 4
1.2848727 0.37645385 -0.11713732 5
1.303413 0.381639 -0.071176901 6
1.3070557 0.38221028 -0.023770178 7
1.2335461 0.3588452 -0.34422934 0
1.3095746 0.38071504 0.023805084 8
1.2463276 0.3620922 -0.29963478 1
1.3310608 0.38670954 0.072642311 9
1.250018 0.36292714 -0.25301275 2
1.3317772 0.38641295 0.12132079 10
1.2673496 0.36748025 -0.20899647 3
1.2832456 0.37160325 -0.16403615 4
1.2765446 0.36942196 -0.11626577 5
1.3085749 0.37819564 -0.071386255 6
1.3121582 0.37898386 -0.023839988 7
1.2366481 0.35507053 -0.34474698 0
1.308908 0.37581804 0.023770178 8
1.240029 0.35580704 -0.2978352 1
1.3381623 0.38371211 0.072956331 9
1.2475023 0.35748011 -0.25224951 2
1.3254563 0.37956804 0.12062354 10
1.2609651 0.36109987 -0.207745 3
1.2844708 0.36734608 -0.16403615 4
1.2854894 0.36715207 -0.116963 5
1.2982986 0.37056479 -0.070758224 6
1.3173195 0.37549725 -0.023909798 7
1.249032 0.35391188 -0.34785283 0
1.3102767 0.37101778 0.023770178 8
1.231949 0.34860694 -0.29558566 1
1.3241191 0.37468848 0.072118953 9
1.2581884 0.35579479 -0.25415757 2
1.3401943 0.3787314 0.12184373 10
1.266082 0.35754976 -0.20837073 3
1.2743453 0.35940245 -0.16257372 4
1.2867632 0.36266288 -0.116963 5
1.2958028 0.3647218 -0.070548877 6
1.3224721 0.37197986 -0.023979606 7
1.2502599 0.34954944 -0.34785283 0
1.3192031 0.36882469 0.023909798 8
1.2368522 0.34556815 -0.29648548 1
1.3215717 0.36898959 0.071909614 9
1.2537498 0.34981748 -0.25301275 2
1.3415082 0.37405124 0.12184373 10
1.2729694 0.35494065 -0.20930934 3
1.2736176 0.35464233 -0.16232997 4
1.2918605 0.35923627 -0.11731163 5
1.2931565 0.35935354 -0.070339531 6
1.3083475 0.36308303 -0.023700368 7
1.2458256 0.34385917 -0.34629989 0
1.316627 0.36315444 0.023839988 8
1.2380508 0.34124887 -0.29648548 1
1.3267028 0.36543459 0.072118953 9
1.2454393 0.34305087 -0.25110465 2
1.3196898 0.3632558 0.11975199 10
1.2742007 0.35049465 -0.20930934 3
1.2844186 0.35282376 -0.16354866 4
1.2853595 0.35284033 -0.11661438 5
1.2982552 0.35589373 -0.070548877 6
1.3057497 0.35745749 -0.023630559 7
1.2395622 0.33747861 -0.34422934 0
1.3140277 0.35750604 0.023770178 8
1.2448759 0.33845928 -0.2978352 1
1.3318251 0.36184892 0.072328299 9
1.2504181 0.3397311 -0.25186789 2
1.3228725 0.35916868 0.1199263 10
1.2696968 0.34449318 -0.20837073 3
1.2856425 0.34833783 -0.16354866 4
1.2769675 0.34574819 -0.11574282 5
1.3072019 0.35344467 -0.070967562 6
1.3147116 0.35498276 -0.023770178 7
1.238867 0.3326484 -0.3437117 0
1.3056108 0.35032618 0.023595655 8
1.2366384 0.33158791 -0.29558566 1
1.3330802 0.35719746 0.072328299 9
1.2534927 0.33587208 -0.25224951 2
1.3221936 0.35403377 0.11975199 10
1.2556257 0.33597454 -0.20586778 3
1.2887684 0.34436071 -0.16379242 4
1.2839414 0.3428309 -0.11626577 5
1.292989 0.34476259 -0.070130184 6
1.312078 0.34936199 -0.023700368 7
1.2493579 0.33079508 -0.34629989 0
1.3184246 0.34883517 0.023805084 8
1.2302526 0.3252764 -0.29378608 1
1.3246638 0.34999189 0.071804941 9
1.2622498 0.3335014 -0.25377598 2
1.3330534 0.35195896 0.12062354 10
1.2644311 0.33360496 -0.20711927 3
1.2726865 0.33530796 -0.16159877 4
1.2889838 0.33936119 -0.11661438 5
1.2903214 0.33923173 -0.069920845 6
1.3171576 0.34579632 -0.023770178 7
1.2448974 0.32496783 -0.34474698 0
1.3196343 0.3442305 0.023805084 8
1.2370375 0.32245493 -0.29513577 1
1.314221 0.34257412 0.071176901 9
1.2539071 0.32661855 -0.25186789 2
1.3342738 0.34730324 0.12062354 10
1.2732346 0.33117852 -0.20837073 3
1.2737913 0.33108598 -0.16159877 4
1.2940174 0.33586106 -0.116963 5
1.2953644 0.33572742 -0.070130184 6
1.3105539 0.33942077 -0.023630559 7
1.2440975 0.32035571 -0.34422934 0
1.3227051 0.34035113 0.023839988 8
1.2456493 0.32029241 -0.29693538 1
1.3250215 0.34070128 0.071700267 9
1.2511805 0.32148123 -0.25110465 2
1.3257692 0.34039956 0.11975199 10
1.2743258 0.32695475 -0.20837073 3
1.2806509 0.32833871 -0.16232997 4
1.2816131 0.32810938 -0.11574282 5
1.3042107 0.33340895 -0.070548877 6
1.3039222 0.33309343 -0.023490939 7
1.2339184 0.31337544 -0.34112352 0
1.3102586 0.33252069 0.023595655 8
1.2467047 0.31615961 -0.29693538 1
1.330016 0.33728704 0.071909614 9
1.2541428 0.31781289 -0.25148627 2
1.3191648 0.33404583 0.11905474 10
1.263913 0.31981936 -0.20649351 3
1.2817892 0.32386607 -0.16232997 4
1.2768987 0.32239398 -0.11521988 5
1.3053093 0.32908183 -0.070548877 6
1.3127761 0.33072135 -0.023630559 7
1.244375 0.31141162 -0.3437117 0
1.3074744 0.32720256 0.023525843 8
1.2345126 0.30871457 -0.29378608 1
1.3350606 0.33361036 0.072118953 9
1.2590538 0.31438467 -0.25224951 2
1.3261222 0.33088571 0.11957768 10
1.26305 0.31514835 -0.20618065 3
1.3463627 0.33568573 0.17037337 11
1.2905608 0.32153422 -0.16330492 4
1.2818835 0.3188965 -0.11556852 5
1.2908869 0.32089773 -0.069711499 6
1.3139226 0.32613653 -0.023630559 7
1.2454008 0.30728367 -0.3437117 0
1.3124919 0.32359368 0.023595655 8
1.2336906 0.30393693 -0.29333615 1
1.3245808 0.32608446 0.071490921 9
1.2562768 0.30926943 -0.25148627 2
1.3252776 0.32601005 0.11940337 10
1.267979 0.31168026 -0.20680638 3
1.3455982 0.33051077 0.17012961 11
1.2839638 0.31513432 -0.16232997 4
1.2984141 0.31844071 -0.116963 5
1.2881194 0.31543928 -0.06950216 6
1.315053 0.32154837 -0.023630559 7
1.2502203 0.30384663 -0.34474698 0
1.309727 0.31806606 0.023525843 8
1.2366378 0.30008852 -0.29378608 1
1.314065 0.31863454 0.070862897 9
1.2497169 0.30303141 -0.2499598 2
1.3380257 0.32419664 0.12044924 10
1.2671393 0.30678776 -0.20649351 3
1.3255199 0.32067743 0.16744849 11
1.2754087 0.30831799 -0.16111128 4
1.2878976 0.31109983 -0.11591713 5
1.2969791 0.31281379 -0.069920845 6
1.3083909 0.31508359 -0.023490939 7
1.2400006 0.29678294 -0.34164116 0
1.3186085 0.31535372 0.023665464 8
1.2452593 0.2975814 -0.29558566 1
1.3268251 0.31682858 0.071490921 9
1.246948 0.29775494 -0.24919657 2
1.3236452 0.3158251 0.11905474 10
1.2720456 0.30327865 -0.20711927 3
1.3362865 0.31834841 0.16866718 11
1.2803394 0.30478379 -0.16159877 4
1.2812225 0.30475774 -0.11521988 5
1.298063 0.30828485 -0.069920845 6
1.3055913 0.30959141 -0.023421129 7
1.2353879 0.29112306 -0.34008822 0
1.3119154 0.30891535 0.023525843 8
1.2519811 0.29457206 -0.29693538 1
1.3318115 0.31310964 0.071700267 9
1.2518021 0.29429936 -0.2499598 2
1.3189206 0.30983612 0.1185318 10
1.2750195 0.29928821 -0.20743214 3
1.3431877 0.31504214 0.16939841 11
1.27753 0.29940704 -0.16111128 4
1.2783989 0.2993747 -0.11487127 5
1.3030208 0.30466157 -0.070130184 6
1.3144532 0.30685079 -0.023560748 7
1.2420424 0.28811827 -0.34164116 0
1.3051934 0.30252814 0.023386225 8
1.2397126 0.28712186 -0.29378608 1
1.3328964 0.30845848 0.071700267 9
1.2547344 0.29037023 -0.25034142 2
1.3199941 0.30523062 0.1185318 10
1.2683578 0.29305661 -0.20618065 3
1.3346081 0.30811852 0.16817972 11
1.2863044 0.29673091 -0.16208623 4
1.2833189 0.29580569 -0.11521988 5
1.2962908 0.29831991 -0.069711499 6
1.3116187 0.30136472 -0.023490939 7
1.2468073 0.28464118 -0.34267643 0
1.3140401 0.2997489 0.023525843 8
1.2331071 0.2810607 -0.29198647 1
1.3281226 0.30247366 0.071386255 9
1.2576544 0.28642488 -0.25072303 2
1.3210516 0.30062076 0.1185318 10
1.2635944 0.28731376 -0.20524204 3
1.3259966 0.30125931 0.16696103 11
1.2737815 0.28916255 -0.16038008 4
1.2843436 0.29132456 -0.11521988 5
1.2895325 0.29202834 -0.069292814 6
1.3204645 0.2985487 -0.023630559 7
1.2477933 0.28028697 -0.34267643 0
1.3150785 0.29515988 0.023525843 8
1.2397851 0.27803418 -0.29333615 1
1.3193741 0.29588282 0.070862897 9
1.2528995 0.28074494 -0.24957818 2
1.3279258 0.29731318 0.11905474 10
1.268445 0.283764 -0.20586778 3
1.3309147 0.29749459 0.16744849 11
1.2747833 0.2847141 -0.16038008 4
1.2892418 0.28770778 -0.11556852 5
1.2944431 0.28839356 -0.06950216 6
1.3058319 0.29069239 -0.023351319 7
1.2412186 0.27426323 -0.34060588 0
1.3199551 0.29166111 0.023595655 8
1.2445062 0.27476129 -0.29423597 1
1.3203989 0.29127517 0.070862897 9
1.2462029 0.27467972 -0.2480517 2
1.3211725 0.29096225 0.11835749 10
1.2732375 0.28040552 -0.20649351 3
1.3454648 0.29606599 0.16915466 11
1.2757204 0.28048548 -0.16038008 4
1.2785619 0.28064242 -0.11452264 5
1.2992941 0.28495479 -0.069711499 6
1.3068388 0.28613204 -0.023351319 7
1.2402335 0.2697348 -0.34008822 0
1.3092406 0.28450364 0.023386225 8
1.2473621 0.27082863 -0.29468587 1
1.329215 0.28835839 0.071281582 9
1.2547814 0.27221081 -0.24957818 2
1.3182358 0.28573564 0.11800887 10
1.2703474 0.27512279 -0.20586778 3
1.3367891 0.2892687 0.16793597 11
1.2844527 0.27770895 -0.16135503 4
1.2756387 0.27533662 -0.11417402 5
1.3041854 0.28126067 -0.069920845 6
1.3078296 0.28156823 -0.023351319 7
1.2412139 0.265187 -0.34008822 0
1.3043592 0.27867806 0.023281511 8
1.2406765 0.26484638 -0.29288626 1
1.3263068 0.2828832 0.071072236 9
1.2557707 0.26760966 -0.24957818 2
1.3231714 0.28173226 0.11835749 10
1.257822 0.26758787 -0.2036777 3
1.3300242 0.28294811 0.16696103 11
1.2854143 0.27322334 -0.16135503 4
1.3815813 0.29341295 0.22370131 12
1.28049 0.27170953 -0.11452264 5
1.2934842 0.27399567 -0.069292814 6
1.3127172 0.27782971 -0.023421129 7
1.2459131 0.26164708 -0.34112352 0
1.3151572 0.27594894 0.023456035 8
1.23401 0.25869703 -0.29108664 1
1.3194672 0.27661222 0.070653543 9
1.2605401 0.26402977 -0.25034142 2
1.3319474 0.27874395 0.11905474 10
1.2664827 0.26481244 -0.20492917 3
1.3291091 0.27766573 0.16671728 11
1.2805773 0.26729366 -0.1606238 4
1.3535916 0.28253385 0.21900828 12
1.2833812 0.26764455 -0.11469696 5
1.2905221 0.26866439 -0.069083467 6
1.3293413 0.27650321 -0.023700368 7
1.2562789 0.25924826 -0.3437117 0
1.3180234 0.27198997 0.023490939 8
1.2386782 0.25539079 -0.29198647 1
1.3125998 0.27039379 0.070234857 9
1.2499166 0.25725311 -0.2480517 2
1.3290094 0.27328995 0.11870612 10
1.2692888 0.26100934 -0.20524204 3
1.335856 0.27445552 0.16744849 11
1.2736785 0.26144868 -0.15964885 4
1.3506994 0.27701315 0.21838254 12
1.2901628 0.2643638 -0.11521988 5
1.2914059 0.26438305 -0.069083467 6
1.3067878 0.26705754 -0.023281511 7
1.2438787 0.25239199 -0.34008822 0
1.3209246 0.26778516 0.023525843 8
1.2414721 0.25145254 -0.29243636 1
1.323277 0.26802161 0.070758224 9
1.2469141 0.25232825 -0.24728847 2
1.3260026 0.2680912 0.11835749 10
1.2760009 0.25775072 -0.20618065 3
1.3348602 0.26939777 0.16720475 11
1.2784753 0.2577855 -0.16013633 4
1.3361195 0.26940861 0.21587959 12
1.2793136 0.25772282 -0.11417402 5
1.3001533 0.2614482 -0.06950216 6
1.2998242 0.26114669 -0.023141891 7
1.2390684 0.24691615 -0.33853534 0
1.3159219 0.26223117 0.023421129 8
1.2461214 0.24809556 -0.29333615 1
1.3261634 0.26379019 0.070862897 9
1.2516385 0.24873981 -0.2480517 2
1.3152047 0.26113379 0.11731163 10
1.2613482 0.2504406 -0.2036777 3
1.3415875 0.26612812 0.16793597 11
1.2871119 0.25508904 -0.16111128 4
1.3428648 0.26589498 0.21681818 12
1.2802055 0.25325528 -0.11417402 5
1.2970943 0.25636107 -0.069292814 6
1.3124993 0.25892976 -0.023351319 7
1.2418187 0.24296008 -0.33905298 0
1.3090241 0.25587153 0.023281511 8
1.239372 0.24203226 -0.29153654 1
1.325161 0.25854561 0.070758224 9
1.256353 0.24512081 -0.24881494 2
1.3239306 0.2580657 0.11800887 10
1.2583798 0.24506034 -0.20305197 3
1.3347598 0.25969303 0.16696103 11
1.2880383 0.25036949 -0.16111128 4
1.3535262 0.26285395 0.21838254 12
1.2849934 0.24954492 -0.11452264 5
1.2941036 0.2508454 -0.069083467 6
1.3193293 0.25525731 -0.023456035 7
1.250248 0.24008074 -0.34112352 0
1.3079451 0.25092414 0.023246605 8
1.2344676 0.23660436 -0.29018685 1
1.3201706 0.25279114 0.070444204 9
1.2572011 0.24073349 -0.24881494 2
1.328737 0.25419173 0.11835749 10
1.2708689 0.24289148 -0.20492917 3
1.3278589 0.25354266 0.16598606 11
1.2772046 0.24364032 -0.15964885 4
1.3486142 0.25701785 0.21744394 12
1.2917281 0.24617657 -0.11504558 5
1.287123 0.24483401 -0.068664782 6
1.3103894 0.24878514 -0.023281511 7
1.2472814 0.235 -0.34008822 0
1.3225696 0.24894601 0.023490939 8
1.2391163 0.23301379 -0.29108664 1
1.3151561 0.2470753 0.070130184 9
1.2503157 0.23489387 -0.24728847 2
1.3276582 0.24918416 0.11818319 10
1.2717091 0.23845349 -0.20492917 3
1.3326379 0.24963729 0.16647354 11
1.2702425 0.23771958 -0.1586739 4
1.3417362 0.25085688 0.21619245 12
1.2925797 0.24166636 -0.11504558 5
1.2918967 0.24107201 -0.068874128 6
1.3073179 0.24347751 -0.023211701 7
1.2328967 0.22783655 -0.33594716 0
1.317531 0.24323902 0.023386225 8
1.2456714 0.22974768 -0.29243636 1
1.3258315 0.2442929 0.070653543 9
1.2472665 0.22981679 -0.24652523 2
1.3187226 0.24274445 0.11731163 10
1.2725337 0.23401323 -0.20492917 3
1.3335012 0.24498364 0.16647354 11
1.2847321 0.23579226 -0.16038008 4
1.3367746 0.24510334 0.21525384 12
1.2698985 0.23284133 -0.11295383 5
1.2966596 0.23727967 -0.069083467 6
1.3042257 0.23819375 -0.023141891 7
1.2374862 0.22422065 -0.3369824 0
1.312469 0.23756962 0.023281511 8
1.2426305 0.22470419 -0.29153654 1
1.3305652 0.24060538 0.070862897 9
1.251925 0.2261599 -0.24728847 2
1.3156403 0.23743235 0.116963 10
1.2616787 0.22746658 -0.20305197 3
1.3343481 0.24032828 0.16647354 11
1.287501 0.23165806 -0.1606238 4
1.3395243 0.24101853 0.21556671 12
1.2765867 0.22946426 -0.11347678 5
1.2974799 0.23275231 -0.069083467 6
1.3089449 0.23457322 -0.023211701 7
1.2420655 0.2205749 -0.3380177 0
1.305374 0.23181766 0.023141891 8
1.2414501 0.22024152 -0.29108664 1
1.3274636 0.23526257 0.070653543 9
1.2604396 0.22315721 -0.24881494 2
1.324309 0.23422612 0.11766025 10
1.2624261 0.2232811 -0.20305197 3
1.3331831 0.23555633 0.1662298 11
1.2882621 0.22738753 -0.1606238 4
1.3520297 0.23839903 0.21744394 12
1.2852285 0.22638953 -0.11417402 5
1.2903763 0.22706415 -0.068664782 6
1.3136948 0.23069474 -0.023281511 7
1.2465966 0.21711747 -0.33905298 0
1.3120855 0.22828761 0.023246605 8
1.2364514 0.21490645 -0.28973696 1
1.3204055 0.22926039 0.070234857 9
1.2592384 0.21864001 -0.24843332 2
1.3250785 0.22983353 0.11766025 10
1.2573584 0.21786214 -0.20211335 3
1.3261732 0.22954664 0.16525485 11
1.2812238 0.22153604 -0.15964885 4
1.3509068 0.23334281 0.21713105 12
1.2820842 0.22122398 -0.1138254 5
1.3697426 0.23634946 0.27018553 13
1.2832882 0.22120109 -0.068246089 6
1.3184338 0.22678532 -0.023351319 7
1.2454796 0.2122228 -0.33853534 0
1.3128743 0.22370647 0.023246605 8
1.2371941 0.2105888 -0.28973696 1
1.3172598 0.22397998 0.070025519 9
1.2426115 0.21106465 -0.24499875 2
1.3259119 0.22497563 0.11766025 10
1.2639916 0.21424167 -0.20305197 3
1.3308808 0.22557913 0.16574231 11
1.2741601 0.21573707 -0.1586739 4
1.340027 0.22664888 0.21525384 12
1.2867777 0.21741082 -0.11417402 5
1.3570484 0.22904067 0.26751423 13
1.2919682 0.21782462 -0.068664782 6
1.3073858 0.22018874 -0.023141891 7
1.2443074 0.20755577 -0.3380177 0
1.3196031 0.21987934 0.023351319 8
1.2418021 0.20669301 -0.29063675 1
1.3219738 0.22003727 0.070234857 9
1.2491508 0.20769152 -0.24614362 2
1.3168617 0.21871342 0.11678869 10
1.2725266 0.21112235 -0.20430344 3
1.3375736 0.22167365 0.16647354 11
1.2827761 0.21236214 -0.15964885 4
1.3369123 0.22132432 0.21462812 12
1.2835974 0.21226858 -0.1138254 5
1.3733358 0.22686173 0.27056718 13
1.3006032 0.21461383 -0.069083467 6
1.3081464 0.21562466 -0.023141891 7
1.2393042 0.20227832 -0.33646476 0
1.3124305 0.21421394 0.023211701 8
1.2501742 0.20382789 -0.29243636 1
1.3247052 0.2157421 0.070339531 9
1.2518058 0.20364602 -0.24652523 2
1.3195838 0.21443522 0.116963 10
1.2654206 0.20563358 -0.20305197 3
1.3461392 0.21850941 0.16744849 11
1.2775946 0.20715483 -0.15891764 4
1.3435266 0.21760404 0.21556671 12
1.2764634 0.20651355 -0.11312816 5
1.3663284 0.22105242 0.2690407 13
1.2973644 0.20966206 -0.068874128 6
1.3167878 0.21233006 -0.023281511 7
1.2399682 0.19816719 -0.33646476 0
1.3092209 0.20900057 0.023141891 8
1.241256 0.19792809 -0.29018685 1
1.3293949 0.21174529 0.070548877 9
1.254413 0.1998022 -0.24690685 2
1.3163524 0.2094323 0.11661438 10
1.2661307 0.20121485 -0.20305197 3
1.3390515 0.21256456 0.16647354 11
1.288113 0.204248 -0.16013633 4
1.3540334 0.21445766 0.21713105 12
1.2771412 0.20227915 -0.11312816 5
1.3709698 0.21689555 0.26980394 13
1.2901971 0.20388602 -0.068455435 6
1.3096198 0.20648682 -0.023141891 7
1.250196 0.1953284 -0.33905298 0
1.3138942 0.20504561 0.023211701 8
1.2342372 0.19239435 -0.28838724 1
1.3202586 0.20556681 0.070025519 9
1.2648023 0.19693215 -0.24881494 2
1.326919 0.20636664 0.11748594 10
1.2590175 0.19558135 -0.20180048 3
1.3280158 0.20606251 0.16501111 11
1.2809716 0.19853392 -0.15916139 4
1.3508694 0.20912576 0.21650532 12
1.2857152 0.19903934 -0.1138254 5
1.3639578 0.21090823 0.26827747 13
1.2909011 0.1993808 -0.068455435 6
1.3142853 0.20252287 -0.023211701 7
1.2585092 0.19212908 -0.34112352 0
1.3205323 0.20136259 0.023316415 8
1.2406809 0.18896483 -0.28973696 1
1.3150445 0.20005549 0.069711499 9
1.2499547 0.19015349 -0.24576201 2
1.3276311 0.20173386 0.11748594 10
1.2635984 0.19177845 -0.20242621 3
1.3306897 0.20172279 0.16525485 11
1.2738059 0.19287282 -0.15818642 4
1.3379191 0.20234166 0.21431525 12
1.290342 0.19514629 -0.11417402 5
1.3724507 0.20731843 0.26980394 13
1.2955388 0.19546971 -0.068664782 6
1.3070745 0.196743 -0.023072081 7
1.2438862 0.18545611 -0.3369824 0
1.3192494 0.19645697 0.023281511 8
1.2432605 0.18491983 -0.29018685 1
1.3196861 0.19605118 0.069920845 9
1.2389592 0.18405847 -0.24347228 2
1.3184735 0.19563584 0.11661438 10
1.2720764 0.18852454 -0.2036777 3
1.3372768 0.19794889 0.16598606 11
1.2783989 0.18900554 -0.1586739 4
1.3288462 0.196227 0.2127509 12
1.2831314 0.1894764 -0.11347678 5
1.380935 0.20367254 0.27133042 13
1.2962133 0.19094591 -0.068664782 6
1.3037964 0.19159806 -0.023002272 7
1.2368792 0.18000044 -0.33491185 0
1.3100326 0.19041285 0.023106987 8
1.2516125 0.18169847 -0.29198647 1
1.3243154 0.19201687 0.070130184 9
1.2473658 0.18085968 -0.24499875 2
1.3191482 0.1910326 0.11661438 10
1.2609965 0.18238667 -0.20180048 3
1.3379596 0.19328001 0.16598606 11
1.2829803 0.18510918 -0.15916139 4
1.3392991 0.19299629 0.21431525 12
1.2719527 0.18329152 -0.11243091 5
1.3660916 0.1966138 0.26827747 13
1.300826 0.18698813 -0.068874128 6
1.3123751 0.1881814 -0.023141891 7
1.2375 0.17568211 -0.33491185 0
1.3067294 0.18527703 0.023037177 8
1.2406621 0.17568868 -0.28928703 1
1.3269551 0.18767294 0.070234857 9
1.2518773 0.1770546 -0.24576201 2
1.3198071 0.1864264 0.11661438 10
1.2577133 0.17743163 -0.20117474 3
1.332729 0.18777786 0.16525485 11
1.2875501 0.1811825 -0.15964885 4
1.3419206 0.18859464 0.21462812 12
1.2765307 0.17940469 -0.11277953 5
1.3551043 0.19020697 0.26598775 13
1.293559 0.18133743 -0.068455435 6
1.3169848 0.18415332 -0.023211701 7
1.2457601 0.17242043 -0.3369824 0
1.3113301 0.18126248 0.023106987 8
1.2374071 0.17082417 -0.28838724 1
1.3196882 0.18194838 0.069816172 9
1.2563776 0.17321961 -0.24652523 2
1.3283447 0.18290564 0.11731163 10
1.2661529 0.17411703 -0.20242621 3
1.3255098 0.1820439 0.16427989 11
1.2744077 0.17479901 -0.15794268 4
1.3543134 0.18551813 0.21650532 12
1.287019 0.17629993 -0.11365108 5
1.3713212 0.1876041 0.2690407 13
1.2902263 0.17627989 -0.068246089 6
1.3136569 0.1790147 -0.023141891 7
1.252098 0.16884507 -0.33853534 0
1.3159182 0.17721801 0.023176797 8
1.2418585 0.16702293 -0.28928703 1
1.3183358 0.17707446 0.069711499 9
1.2491914 0.16778724 -0.24499875 2
1.323051 0.17747338 0.11678869 10
1.266753 0.16969594 -0.20242621 3
1.3340075 0.17846845 0.16525485 11
1.2750102 0.17034969 -0.15794268 4
1.3412466 0.17896043 0.21431525 12
1.2876266 0.17180599 -0.11365108 5
1.3719678 0.18281579 0.2690407 13
1.2947934 0.1723029 -0.068455435 6
1.3947282 0.18535319 0.32482934 14
1.3063445 0.1733754 -0.023002272 7
1.2373563 0.16246174 -0.33439422 0
1.3224771 0.1734031 0.023281511 8
1.2462983 0.16319391 -0.29018685 1
1.3209262 0.17273079 0.069816172 9
1.2439294 0.16266231 -0.24385393 2
1.3137844 0.17156367 0.11591713 10
1.2712553 0.16578366 -0.20305197 3
1.3326539 0.17355473 0.16501111 11
1.2775657 0.16615373 -0.15818642 4
1.3359864 0.17351387 0.21337664 12
1.2743881 0.16551368 -0.11243091 5
1.3764914 0.17853095 0.26980394 13
1.2953869 0.16778181 -0.068455435 6
1.3644444 0.17648353 0.31763089 14
1.2990087 0.16778995 -0.022862652 7
1.2225858 0.15618286 -0.33025309 0
1.3131562 0.16752078 0.023106987 8
1.2468605 0.15884221 -0.29018685 1
1.3254837 0.1686226 0.070025519 9
1.2483848 0.15881439 -0.24461715 2
1.3143752 0.16697694 0.11591713 10
1.2600681 0.15985435 -0.20117474 3
1.3430983 0.17014889 0.1662298 11
1.2860155 0.16269003 -0.15916139 4
1.3385437 0.16909786 0.21368951 12
1.2650745 0.15981652 -0.11155935 5
1.3615239 0.17175889 0.26675099 13
1.2999279 0.16375796 -0.068664782 6
1.365052 0.17172061 0.31763089 14
1.3075231 0.16425116 -0.023002272 7
1.2346261 0.15334378 -0.33335894 0
1.3057951 0.16195112 0.022967368 8
1.2454735 0.15424903 -0.28973696 1
1.3280463 0.16424079 0.070130184 9
1.2508799 0.15469755 -0.24499875 2
1.3149501 0.16238756 0.11591713 10
1.2527763 0.15448755 -0.19992328 3
1.3318628 0.16400485 0.16476737 11
1.2885458 0.15844192 -0.15940511 4
1.3469684 0.16538705 0.21494098 12
1.2814449 0.15734176 -0.11295383 5
1.362115 0.16700616 0.26675099 13
1.2885969 0.15776338 -0.06803675 6
1.3753148 0.16813667 0.3198804 14
1.3120582 0.16017158 -0.023072081 7
1.2389897 0.14949569 -0.33439422 0
1.3103231 0.15787008 0.023037177 8
1.2343954 0.14850424 -0.28703755 1
1.3147305 0.1579362 0.069397487 9
1.2533613 0.15056404 -0.24538037 2
1.3313346 0.15969448 0.11731163 10
1.2611533 0.15105353 -0.20117474 3
1.3343983 0.15959017 0.16501111 11
1.2851489 0.15347198 -0.15891764 4
1.3494989 0.1609184 0.21525384 12
1.2819862 0.15286799 -0.11295383 5
1.3626897 0.16225012 0.26675099 13
1.2851732 0.15279244 -0.067827404 6
1.3816988 0.16402437 0.32123011 14
1.3126094 0.15559031 -0.023072081 7
1.2433416 0.14561902 -0.33542949 0
1.3188106 0.15422522 0.023176797 8
1.2349063 0.14419416 -0.28703755 1
1.3192414 0.15380821 0.069606826 9
1.2499794 0.14573304 -0.24461715 2
1.3219888 0.1538953 0.11644007 10
1.2734461 0.14801848 -0.20305197 3
1.3369191 0.15515977 0.16525485 11
1.2679297 0.14692935 -0.15672398 4
1.3363165 0.15461713 0.21306378 12
1.2904289 0.14930776 -0.11365108 5
1.3710488 0.15839332 0.26827747 13
1.2896669 0.14876404 -0.06803675 6
1.3745192 0.1583081 0.3194305 14
1.3012248 0.14963645 -0.022862652 7
1.2361642 0.14040624 -0.33335894 0
1.3193409 0.14962041 0.023176797 8
1.229593 0.13922517 -0.28568783 1
1.3237395 0.14965126 0.069816172 9
1.2465788 0.14092809 -0.24385393 2
1.3165784 0.14860898 0.11591713 10
1.2798437 0.14423572 -0.20399056 3
1.3335072 0.15004845 0.16476737 11
1.2684348 0.14250223 -0.15672398 4
1.3309588 0.14929064 0.21212517 12
1.2790624 0.14346953 -0.11260521 5
1.3715934 0.1536068 0.26827747 13
1.2901783 0.14426102 -0.06803675 6
1.3789368 0.15394121 0.32033029 14
1.3017393 0.14509368 -0.022862652 7
1.2250781 0.13525032 -0.33025309 0
1.3158293 0.14503694 0.023106987 8
1.2358354 0.13600075 -0.28703755 1
1.3301591 0.14614652 0.070130184 9
1.2509184 0.13744023 -0.24461715 2
1.3130778 0.14403786 0.11556852 10
1.2645816 0.1384941 -0.20148762 3
1.3438387 0.14693747 0.16598606 11
1.272823 0.13894771 -0.15721147 4
1.3373126 0.14575091 0.21306378 12
1.2755456 0.13901906 -0.1122566 5
1.3642622 0.14844784 0.26675099 13
1.2985675 0.14106955 -0.068455435 6
1.3910379 0.15086943 0.32302973 14
1.3101411 0.14186415 -0.023002272 7
1.2313056 0.13158871 -0.33180603 0
1.304397 0.13916969 0.022897556 8
1.2363027 0.1316863 -0.28703755 1
1.328675 0.14129096 0.070025519 9
1.2513905 0.13307254 -0.24461715 2
1.3254602 0.14071515 0.11661438 10
1.2552353 0.13303833 -0.19992328 3
1.3324989 0.14099208 0.16452362 11
1.2811967 0.13533768 -0.15818642 4
1.3456711 0.1419109 0.21431525 12
1.2879114 0.1358197 -0.11330246 5
1.3530573 0.14245105 0.26446128 13
1.2911067 0.13570103 -0.06803675 6
1.391556 0.14601317 0.32302973 14
1.3106282 0.13729031 -0.023002272 7
1.2490519 0.12907672 -0.33646476 0
1.3168098 0.13584718 0.023106987 8
1.2251239 0.12617242 -0.28433815 1
1.321213 0.13583474 0.069606826 9
1.2538004 0.12890401 -0.24499875 2
1.3259432 0.13608785 0.11661438 10
1.2635523 0.12946154 -0.20117474 3
1.3250837 0.13553163 0.16354866 11
1.273762 0.13005836 -0.15721147 4
1.3461584 0.1372124 0.21431525 12
1.2883778 0.13132289 -0.11330246 5
1.361359 0.13852173 0.26598775 13
1.2915725 0.13119367 -0.06803675 6
1.3804244 0.13997489 0.32033029 14
1.3190577 0.13351974 -0.023141891 7
1.2475725 0.12452433 -0.33594716 0
1.317276 0.13124947 0.023106987 8
1.2236178 0.12170198 -0.28388825 1
1.3137292 0.13043299 0.06918814 9
1.2503353 0.12413897 -0.24423553 2
1.3244276 0.13126177 0.11644007 10
1.2639966 0.12504978 -0.20117474 3
1.3334507 0.13168605 0.16452362 11
1.2663062 0.12483197 -0.15623651 4
1.3387655 0.13173908 0.21306378 12
1.2888283 0.12682508 -0.11330246 5
1.3696496 0.13453683 0.26751423 13
1.2880471 0.12629429 -0.067827404 6
1.3731467 0.13439645 0.31853068 14
1.3115548 0.12813707 -0.023002272 7
1.2403078 0.11942836 -0.33387658 0
1.3197166 0.12684211 0.023141891 8
1.235674 0.11854688 -0.28658766 1
1.3221291 0.12660764 0.069606826 9
1.2448982 0.11921196 -0.24309067 2
1.3169442 0.12587981 0.11574282 10
1.2722912 0.12138759 -0.20242621 3
1.3398308 0.12759486 0.16525485 11
1.2726629 0.1209742 -0.15696773 4
1.3372506 0.1268788 0.2127509 12
1.2773622 0.12119658 -0.1122566 5
1.37402 0.13012488 0.26827747 13
1.2964337 0.12254889 -0.068246089 6
1.3774878 0.12996885 0.3194305 14
1.3000488 0.12243281 -0.022792844 7
1.2387935 0.11491995 -0.33335894 0
1.3141779 0.12168122 0.023037177 8
1.2360803 0.11423253 -0.28658766 1
1.3245518 0.12217613 0.069711499 9
1.2531265 0.11558789 -0.24461715 2
1.3134078 0.1209164 0.1153942 10
1.2648388 0.11622238 -0.20117474 3
1.3363144 0.12255553 0.16476737 11
1.2770308 0.11689319 -0.15745521 4
1.3396525 0.12238952 0.21306378 12
1.2718251 0.11619285 -0.11173366 5
1.3588246 0.1239026 0.26522452 13
1.2968535 0.11802302 -0.068246089 6
1.3818146 0.12551193 0.32033029 14
1.3084342 0.11861648 -0.022932461 7
1.3756546 0.12446829 0.37011126 15
1.2314904 0.10990781 -0.3312884 0
1.3066273 0.11638314 0.022897556 8
1.2287072 0.10922714 -0.28478804 1
1.3289491 0.11790448 0.069920845 9
1.2515668 0.11103912 -0.24423553 2
1.3177911 0.11668211 0.11574282 10
1.2534305 0.11076353 -0.19929753 3
1.3347565 0.11771542 0.16452362 11
1.281386 0.11278256 -0.15794268 4
1.3459749 0.11823135 0.21400237 12
1.286116 0.1129733 -0.11295383 5
1.3553373 0.11881539 0.26446128 13
1.289299 0.1127988 -0.067827404 6
1.3900096 0.12136605 0.32212991 14
1.3168089 0.1147431 -0.023072081 7
1.3760806 0.11966524 0.37011126 15
1.2434152 0.10659818 -0.33439422 0
1.3090179 0.1119928 0.022932461 8
1.2271394 0.10477138 -0.28433815 1
1.3194023 0.11241673 0.069397487 9
1.2578151 0.10716933 -0.24538037 2
1.3241459 0.11258876 0.11626577 10
1.2656194 0.10738931 -0.20117474 3
1.3272473 0.11238522 0.16354866 11
1.2699037 0.10730702 -0.15648025 4
1.348348 0.11369793 0.21431525 12
1.2865026 0.10848288 -0.11295383 5
1.3616128 0.11457716 0.26560614 13
1.2817239 0.10763 -0.067408718 6
1.3787733 0.11553653 0.3194305 14
1.321187 0.1104788 -0.023141891 7
1.3841906 0.11550462 0.3721818 15
1.2360784 0.10162429 -0.33232367 0
1.319366 0.10823999 0.023106987 8
1.2255553 0.10032908 -0.28388825 1
1.3138149 0.10732292 0.069083467 9
1.2464412 0.10181931 -0.24309067 2
1.3245308 0.10796558 0.11626577 10
1.2659864 0.10297049 -0.20117474 3
1.3315887 0.10807303 0.16403615 11
1.2702705 0.10287324 -0.15648025 4
1.3349539 0.1078765 0.21212517 12
1.2908454 0.10431213 -0.11330246 5
1.3737459 0.11077058 0.26789585 13
1.2940367 0.10411602 -0.06803675 6
1.3713982 0.11009886 0.31763089 14
1.305618 0.10458917 -0.022862652 7
1.3845853 0.11067183 0.3721818 15
1.2325737 0.097005479 -0.3312884 0
1.3157486 0.10332105 0.023037177 8
1.235612 0.09681125 -0.28613773 1
1.3161727 0.1028915 0.06918814 9
1.2467891 0.09746746 -0.24309067 2
1.3169543 0.102722 0.11556852 10
1.270277 0.098858148 -0.20180048 3
1.3319579 0.10342391 0.16403615 11
1.2706219 0.098438807 -0.15648025 4
1.3294137 0.10276018 0.21118654 12
1.2832557 0.099192291 -0.11260521 5
1.3819541 0.10657812 0.26942232 13
1.2943922 0.099598013 -0.06803675 6
1.3756601 0.10561038 0.31853068 14
1.3019876 0.099725306 -0.022792844 7
1.3772583 0.10524887 0.37011126 15
1.2290519 0.092413552 -0.33025309 0
1.3121132 0.098428085 0.022967368 8
1.2359425 0.092497237 -0.28613773 1
1.3224989 0.098743618 0.06950216 9
1.2471217 0.09311562 -0.24309067 2
1.315318 0.097975999 0.1153942 10
1.2627347 0.093837544 -0.20054901 3
1.3382498 0.099214464 0.16476737 11
1.2749172 0.094295412 -0.15696773 4
1.3376443 0.098700121 0.21243803 12
1.2796202 0.094418719 -0.1122566 5
1.3627379 0.10031258 0.26560614 13
1.2987158 0.095371954 -0.068246089 6
1.3876816 0.10166173 0.32123011 14
1.3063164 0.095471695 -0.022862652 7
1.3699104 0.099879086 0.36804068 15
1.2428554 0.089089341 -0.33387658 0
1.3044703 0.093276508 0.022827748 8
1.2323701 0.087905377 -0.28523794 1
1.3288122 0.094551541 0.069816172 9
1.2435225 0.08848276 -0.24232745 2
1.3136644 0.093242645 0.11521988 10
1.2551726 0.088871412 -0.19929753 3
1.338588 0.094542772 0.16476737 11
1.2811791 0.090262726 -0.15769894 4
1.3419219 0.094307527 0.21306378 12
1.283917 0.090231054 -0.11260521 5
1.3552461 0.095006242 0.26407966 13
1.2910713 0.090280376 -0.067827404 6
1.3958042 0.097359888 0.32302973 14
1.3106314 0.091189079 -0.022932461 7
1.3779595 0.095631234 0.37011126 15
1.2373768 0.084355891 -0.33232367 0
1.3147633 0.089401059 0.023002272 8
1.228781 0.083339013 -0.28433815 1
1.3191707 0.089238197 0.069292814 9
1.251659 0.084671214 -0.24385393 2
1.3219334 0.089193322 0.11591713 10
1.263359 0.085019708 -0.20054901 3
1.3270259 0.089071631 0.16330492 11
1.2715831 0.085127316 -0.15648025 4
1.3461848 0.089885615 0.21368951 12
1.2881999 0.086013921 -0.11295383 5
1.363405 0.090796418 0.26560614 13
1.2873929 0.085508689 -0.067618065 6
1.3766906 0.091198526 0.31853068 14
1.3149325 0.086876884 -0.023002272 7
1.3859955 0.091329046 0.3721818 15
1.2415193 0.080285728 -0.33335894 0
1.3130718 0.084682725 0.022967368 8
1.2290645 0.07904952 -0.28433815 1
1.3115015 0.084121786 0.068874128 9
1.24411 0.079799183 -0.24232745 2
1.3242249 0.08470583 0.11609145 10
1.2675908 0.080860421 -0.20117474 3
1.3372341 0.085069329 0.16452362 11
1.2679102 0.080437057 -0.15599278 4
1.3346617 0.084437318 0.2118123 12
1.2865039 0.081390612 -0.11277953 5
1.3676324 0.086284213 0.26636937 13
1.2956568 0.081516244 -0.06803675 6
1.3692211 0.08590398 0.3167311 14
1.3072445 0.081787199 -0.022862652 7
1.3901621 0.086731344 0.37321708 15
1.234079 0.075479455 -0.3312884 0
1.3153553 0.080220737 0.023002272 8
1.2332231 0.074995048 -0.28523794 1
1.3157604 0.080014326 0.069083467 9
1.244381 0.075455613 -0.24232745 2
1.3225238 0.079962946 0.11591713 10
1.2698373 0.076554351 -0.20148762 3
1.337523 0.080400638 0.16452362 11
1.2681832 0.076010995 -0.15599278 4
1.3309907 0.079775482 0.21118654 12
1.276836 0.076305367 -0.11190797 5
1.3796841 0.082210064 0.26865909 13
1.2959334 0.076992713 -0.06803675 6
1.3772938 0.081585199 0.31853068 14
1.3035164 0.077214926 -0.022792844 7
1.3788712 0.081437156 0.37011126 15
1.2266203 0.070726685 -0.32921785 0
1.303636 0.075167395 0.022792844 8
1.2373561 0.071129046 -0.28613773 1
1.3260015 0.075992629 0.069606826 9
1.2407166 0.070887737 -0.2415642 2
1.312849 0.074779123 0.11504558 10
1.2602232 0.071781576 -0.19992328 3
1.3397642 0.076077625 0.16476737 11
1.2723922 0.072029166 -0.15648025 4
1.33915 0.075573824 0.21243803 12
1.2731161 0.071624361 -0.11155935 5
1.3642677 0.076752469 0.26560614 13
1.2961816 0.072695076 -0.06803675 6
1.3853395 0.077452883 0.32033029 14
1.3037779 0.072663985 -0.022792844 7
1.3714316 0.076195121 0.36804068 15
1.2307061 0.066868544 -0.33025309 0
1.3098806 0.070940472 0.022897556 8
1.2298132 0.06638892 -0.28433815 1
1.32227 0.071149208 0.069397487 9
1.2487866 0.067195177 -0.24309067 2
1.3230375 0.070958309 0.11591713 10
1.2604661 0.067381807 -0.19992328 3
1.3281277 0.070767045 0.16330492 11
1.2825472 0.068113282 -0.15769894 4
1.343351 0.071107335 0.21306378 12
1.2773376 0.067390122 -0.11190797 5
1.3606062 0.071783237 0.2648429 13
1.2924384 0.067960009 -0.067827404 6
1.3817093 0.072412334 0.3194305 14
1.3120112 0.068530634 -0.022932461 7
1.3755476 0.07160797 0.36907598 15
1.2425191 0.062943451 -0.33335894 0
1.3101202 0.066367976 0.022897556 8
1.2222524 0.061702915 -0.28253853 1
1.3185209 0.066332132 0.06918814 9
1.252946 0.062813982 -0.24385393 2
1.3252786 0.066208355 0.11609145 10
1.2626776 0.062860012 -0.20023614 3
1.3283668 0.066130228 0.16330492 11
1.2728641 0.063144438 -0.15648025 4
1.3416181 0.066320486 0.2127509 12
1.285525 0.063322723 -0.11260521 5
1.3608602 0.066794887 0.2648429 13
1.2846993 0.062832557 -0.067408718 6
1.3780726 0.067158215 0.31853068 14
1.3122425 0.063950092 -0.022932461 7
1.3796484 0.066992998 0.37011126 15
1.2350125 0.058242112 -0.3312884 0
1.3163472 0.061846916 0.023002272 8
1.2341499 0.057769708 -0.28523794 1
1.3147542 0.061542738 0.068978801 9
1.2433519 0.057982985 -0.2419458 2
1.3255017 0.061581519 0.11609145 10
1.2707824 0.058817055 -0.20148762 3
1.3325663 0.061444249 0.16379242 11
1.2651548 0.058114063 -0.15550528 4
1.3398679 0.061545961 0.21243803 12
1.2857382 0.058834679 -0.11260521 5
1.3767749 0.062760346 0.26789585 13
1.2928916 0.0587098 -0.067827404 6
1.3744053 0.062170949 0.31763089 14
1.3124578 0.059368771 -0.022932461 7
1.3837335 0.062351592 0.3711465 15
1.2313484 0.053761896 -0.33025309 0
1.3125495 0.057307217 0.022932461 8
1.2401755 0.053931043 -0.28658766 1
1.3229426 0.057298355 0.069397487 9
1.239624 0.053472973 -0.24118258 2
1.319737 0.056698639 0.11556852 10
1.2709703 0.054603525 -0.20148762 3
1.3367293 0.057194304 0.16427989 11
1.2752571 0.054341149 -0.15672398 4
1.3321803 0.056534469 0.21118654 12
1.2779732 0.054010011 -0.11190797 5
1.3730524 0.05802827 0.26713261 13
1.2970703 0.054590326 -0.06803675 6
1.3784978 0.05777574 0.31853068 14
1.3006694 0.054287013 -0.022723034 7
1.3762221 0.057199817 0.36907598 15
1.2199383 0.049210772 -0.32714728 0
1.3147397 0.052805748 0.022967368 8
1.2423034 0.049679231 -0.28703755 1
1.3271259 0.052838631 0.069606826 9
1.2437179 0.049517799 -0.2419458 2
1.3159359 0.052163716 0.11521988 10
1.261284 0.049776848 -0.19992328 3
1.3349372 0.052449614 0.16403615 11
1.2774227 0.0499672 -0.15696773 4
1.3343434 0.051960465 0.21149944 12
1.2781453 0.049772058 -0.11190797 5
1.3614759 0.052778408 0.2648429 13
1.2972529 0.050062645 -0.06803675 6
1.3786911 0.052964479 0.31853068 14
1.3048475 0.049898986 -0.022792844 7
1.3725525 0.052248877 0.36804068 15
1.2355467 0.045521956 -0.3312884 0
1.3009275 0.047702841 0.022723034 8
1.2307845 0.044915736 -0.28433815 1
1.3273022 0.048206691 0.069606826 9
1.2438833 0.045176972 -0.2419458 2
1.3181013 0.047641546 0.1153942 10
1.2575017 0.045231488 -0.19929753 3
1.3331283 0.0477194 0.16379242 11
1.2736216 0.045366187 -0.15648025 4
1.3443874 0.047651928 0.21306378 12
1.2783113 0.045309853 -0.11190797 5
1.3538038 0.04774978 0.26331642 13
1.2894355 0.04525353 -0.067618065 6
1.3827628 0.048287284 0.3194305 14
1.3090105 0.04548369 -0.022862652 7
1.3804493 0.047724076 0.37011126 15
1.2434213 0.041466039 -0.33335894 0
1.3070818 0.043360025 0.022827748 8
1.2270385 0.040490936 -0.28343832 1
1.3194777 0.043310802 0.06918814 9
1.2479577 0.040963218 -0.24270906 2
1.3222421 0.043169905 0.11574282 10
1.2576519 0.040841978 -0.19929753 3
1.3273345 0.04287301 0.1630612 11
1.2698041 0.040792327 -0.15599278 4
1.3425711 0.042896051 0.2127509 12
1.2864271 0.041102212 -0.11260521 5
1.3618112 0.043272875 0.2648429 13
1.2895857 0.040751942 -0.067618065 6
1.3712362 0.043093268 0.3167311 14
1.3131588 0.041038688 -0.022932461 7
1.3844693 0.04302476 0.3711465 15
1.2396964 0.037010398 -0.33232367 0
1.3192182 0.039154034 0.023037177 8
1.2310681 0.036322143 -0.28433815 1
1.3116351 0.038470756 0.068769448 9
1.2402434 0.036376808 -0.24118258 2
1.3263677 0.038671188 0.11609145 10
1.2735833 0.036909159 -0.20180048 3
1.3314446 0.038353451 0.16354866 11
1.2699387 0.03636051 -0.15599278 4
1.3308653 0.037871849 0.21087368 12
1.2865628 0.036611155 -0.11260521 5
1.3737288 0.03885166 0.26713261 13
1.2857273 0.036138851 -0.067408718 6
1.3674823 0.038197305 0.31583127 14
1.3052984 0.036232371 -0.022792844 7
1.3923354 0.038405158 0.37321708 15
1.2282423 0.031948343 -0.32921785 0
1.3173597 0.034036353 0.023002272 8
1.240939 0.031845171 -0.28658766 1
1.3197538 0.033867728 0.06918814 9
1.2384113 0.031564035 -0.24080098 2
1.3185396 0.033376042 0.1153942 10
1.2737156 0.032018986 -0.20180048 3
1.3415046 0.03348881 0.16476737 11
1.2740325 0.031804461 -0.15648025 4
1.3309951 0.032994021 0.21087368 12
1.2787267 0.031475041 -0.11190797 5
1.3777932 0.03367224 0.26789585 13
1.2978364 0.03149214 -0.06803675 6
1.379302 0.033468913 0.31853068 14
1.3054225 0.03144826 -0.022792844 7
1.3770165 0.032931879 0.36907598 15
1.2283415 0.027875416 -0.32921785 0
1.3154663 0.029622888 0.022967368 8
1.2390896 0.02768602 -0.28613773 1
1.3238524 0.029579949 0.069397487 9
1.2463603 0.027631445 -0.24232745 2
1.3106754 0.028828435 0.11469696 10
1.2659152 0.027622292 -0.20054901 3
1.3396236 0.028997343 0.16452362 11
1.2741308 0.027579697 -0.15648025 4
1.3389969 0.028749349 0.21212517 12
1.2748402 0.027149262 -0.11155935 5
1.3621947 0.02877239 0.2648429 13
1.3019273 0.027271481 -0.068246089 6
1.3833021 0.028976038 0.3194305 14
1.3055197 0.027118785 -0.022792844 7
1.3732553 0.028286707 0.36804068 15
1.2361531 0.02395129 -0.3312884 0
1.3115585 0.025183339 0.022897556 8
1.2352778 0.023503002 -0.28523794 1
1.3299383 0.025071874 0.069711499 9
1.2464451 0.023497868 -0.24232745 2
1.3187319 0.024630383 0.1153942 10
1.2620498 0.023351382 -0.19992328 3
1.3278037 0.024336198 0.1630612 11
1.2781889 0.023203705 -0.15696773 4
1.3410641 0.02411099 0.21243803 12
1.2868756 0.023136737 -0.11260521 5
1.3622826 0.024254654 0.2648429 13
1.2900289 0.022743009 -0.067618065 6
1.3833948 0.024147527 0.3194305 14
1.309605 0.022630883 -0.022862652 7
1.3772088 0.023558697 0.36907598 15
1.2400924 0.019697789 -0.33232367 0
1.3096389 0.02057323 0.022862652 8
1.2314553 0.019130656 -0.28433815 1
1.3120445 0.020152947 0.068769448 9
1.2543716 0.019267095 -0.24385393 2
1.31881 0.02002665 0.1153942 10
1.2660738 0.019005427 -0.20054901 3
1.323911 0.019641902 0.16257372 11
1.2663528 0.018566899 -0.15550528 4
1.3450905 0.019487171 0.21306378 12
1.2849565 0.01861597 -0.11243091 5
1.362359 0.01949889 0.2648429 13
1.2861065 0.018183019 -0.067408718 6
1.3756765 0.019209884 0.31763089 14
1.3136749 0.018114163 -0.022932461 7
1.3888726 0.018908622 0.3721818 15
1.2401536 0.015369199 -0.33232367 0
1.3137019 0.016050749 0.022932461 8
1.239309 0.014925502 -0.28613773 1
1.3101097 0.015550133 0.068664782 9
1.2426525 0.01474946 -0.2415642 2
1.3268406 0.015516489 0.11609145 10
1.2681078 0.014608306 -0.20086187 3
1.3279413 0.015065788 0.1630612 11
1.2664099 0.014146656 -0.15550528 4
1.3313235 0.01463941 0.21087368 12
1.2830213 0.014108273 -0.1122566 5
1.3820503 0.014955981 0.26865909 13
1.286162 0.013693828 -0.067408718 6
1.3679407 0.014325767 0.31583127 14
1.309731 0.013487564 -0.022862652 7
1.3889302 0.014060729 0.3721818 15
1.228609 0.010936655 -0.32921785 0
1.3197488 0.011516977 0.023037177 8
1.2451996 0.010649675 -0.28748745 1
1.3181448 0.011043483 0.069083467 9
1.2348436 0.010345582 -0.24003772 2
1.3169252 0.010802787 0.11521988 10
1.2800028 0.010277119 -0.20273907 3
1.3398961 0.010524144 0.16452362 11
1.2704217 0.0097561255 -0.15599278 4
1.3293911 0.0099775894 0.21056081 12
1.2731011 0.0095551116 -0.11138504 5
1.3781675 0.010103141 0.26789585 13
1.2941908 0.0092610251 -0.067827404 6
1.3757771 0.0096047288 0.31763089 14
1.3017716 0.0088614952 -0.022723034 7
1.3851072 0.0091863777 0.3711465 15
1.2286397 0.0066476157 -0.32921785 0
1.3117822 0.0068691461 0.022897556 8
1.2530239 0.006342174 -0.28928703 1
1.3241671 0.0064711622 0.069397487 9
1.2427253 0.0060731587 -0.2415642 2
1.3109778 0.0061785313 0.11469696 10
1.2602774 0.0057190326 -0.1996104 3
1.3379395 0.0058379518 0.16427989 11
1.2744181 0.005338972 -0.15648025 4
1.3353441 0.0053605232 0.21149944 12
1.2731267 0.0051107616 -0.11138504 5
1.3624885 0.0052317022 0.2648429 13
1.3061987 0.0047882185 -0.068455435 6
1.3835971 0.0048298114 0.3194305 14
1.3017946 0.0043170634 -0.022723034 7
1.3812672 0.0043402072 0.37011126 15
1.2325191 0.0023664993 -0.33025309 0
1.3037994 0.002275818 0.022757938 8
1.233551 0.0019373266 -0.28478804 1
1.3241816 0.0018491958 0.069397487 9
1.2486286 0.0017436874 -0.24270906 2
1.314976 0.0016068473 0.11504558 10
1.256339 0.0013153366 -0.19898467 3
1.3300114 0.0011609858 0.16330492 11
1.2823693 0.00089559605 -0.15745521 4
1.3393054 0.00070098223 0.21212517 12
1.2751292 0.00066739292 -0.11155935 5
1.3624984 0.00047598447 0.2648429 13
1.2902294 0.00022556358 -0.067618065 6
1.3836056 -0 0.3194305 14
1.3137999 -0.00022930132 -0.022932461 7
1.3774102 -0.00048080689 0.36907598 15
1.2325199 -0.0019360392 -0.33025309 0
1.3137978 -0.0022930119 0.022932461 8
1.2296529 -0.002360767 -0.28388825 1
1.316191 -0.0027566275 0.068978801 9
1.2564801 -0.0026315693 -0.24423553 2
1.3249357 -0.0030061887 0.11591713 10
1.2662127 -0.0030939477 -0.20054901 3
1.3220669 -0.0034611705 0.16232997 11
1.2783946 -0.0035699604 -0.15696773 4
1.3432503 -0.0039855158 0.2127509 12
1.2850856 -0.0038129371 -0.11243091 5
1.3585653 -0.0042680725 0.26407966 13
1.2902224 -0.004278555 -0.067618065 6
1.3796997 -0.0048160795 0.31853068 14
1.3177905 -0.0048299758 -0.023002272 7
1.3851274 -0.0053185336 0.3711465 15
1.2440965 -0.0062969923 -0.33335894 0
1.3157817 -0.0068894792 0.022967368 8
1.2413293 -0.006716304 -0.28658766 1
1.3121787 -0.0073286649 0.068769448 9
1.2446839 -0.0069516986 -0.2419458 2
1.3229247 -0.0076195835 0.11574282 10
1.2681696 -0.0075255586 -0.20086187 3
1.329987 -0.0081245294 0.16330492 11
1.2664639 -0.0079575321 -0.15550528 4
1.3373022 -0.0086360406 0.2118123 12
1.2830721 -0.0082858335 -0.1122566 5
1.3742478 -0.0091144908 0.26713261 13
1.2901995 -0.0087822452 -0.067618065 6
1.3718797 -0.0095776822 0.3167311 14
1.3057678 -0.0093440386 -0.022792844 7
1.3889641 -0.01018182 0.3721818 15
1.2228174 -0.010457927 -0.32766491 0
1.3177491 -0.011499822 0.023002272 8
1.2374011 -0.01101462 -0.28568783 1
1.3201339 -0.011981484 0.06918814 9
1.2407256 -0.011260777 -0.24118258 2
1.316913 -0.012182115 0.11521988 10
1.2720863 -0.011989485 -0.20148762 3
1.3299506 -0.012767002 0.16330492 11
1.2664285 -0.012378268 -0.15550528 4
1.3273876 -0.013205787 0.21024795 12
1.28702 -0.012804181 -0.11260521 5
1.3742076 -0.013911454 0.26713261 13
1.2941554 -0.013326961 -0.067827404 6
1.3757352 -0.01440719 0.31763089 14
1.2977289 -0.013816805 -0.022653224 7
1.3811932 -0.014946532 0.37011126 15
1.2247051 -0.014749557 -0.32818255 0
1.3117024 -0.016026264 0.022897556 8
1.2373551 -0.015333887 -0.28568783 1
1.3240783 -0.016639734 0.069397487 9
1.2504942 -0.015715001 -0.24309067 2
1.3128781 -0.016728157 0.11487127 10
1.2601852 -0.016276747 -0.1996104 3
1.3378377 -0.017513255 0.16427989 11
1.2782872 -0.016956836 -0.15696773 4
1.3352342 -0.01794534 0.21149944 12
1.2670453 -0.017028891 -0.11086211 5
1.3623723 -0.018547893 0.2648429 13
1.3020891 -0.017954474 -0.068246089 6
1.3834708 -0.01931815 0.3194305 14
1.3056707 -0.018459715 -0.022792844 7
1.3869276 -0.019850645 0.37166417 15
1.3076395 -0.020542042 0.022827748 8
1.233397 -0.019591071 -0.28478804 1
1.3260128 -0.021062165 0.06950216 9
1.2523948 -0.020111468 -0.24347228 2
1.3187883 -0.021407874 0.1153942 10
1.2522203 -0.020545889 -0.19835892 3
1.3318138 -0.022084333 0.16354866 11
1.2742504 -0.021352267 -0.15648025 4
1.3450428 -0.022538517 0.21306378 12
1.2749466 -0.021586517 -0.11155935 5
1.3583733 -0.023236187 0.26407966 13
1.2980248 -0.022430487 -0.06803675 6
1.3833948 -0.024147246 0.3194305 14
1.3096011 -0.022859169 -0.022862652 7
1.404238 -0.024756229 0.37632293 15
1.3155617 -0.025030382 0.022967368 8
1.2352736 -0.023718467 -0.28523794 1
1.3159468 -0.02549723 0.068978801 9
1.2523171 -0.024483021 -0.24347228 2
1.3226894 -0.026089754 0.11574282 10
1.2600453 -0.024854112 -0.1996104 3
1.3297486 -0.026461171 0.16330492 11
1.2702034 -0.02549804 -0.15599278 4
1.3508807 -0.027353423 0.21400237 12
1.2828314 -0.02619951 -0.1122566 5
1.3622144 -0.027820766 0.2648429 13
1.2819684 -0.026405722 -0.067199372 6
1.3755139 -0.028572729 0.31763089 14
1.3135117 -0.027514145 -0.022932461 7
1.3194646 -0.029712433 0.023037177 8
1.2351834 -0.02803023 -0.28523794 1
1.3158498 -0.030090589 0.068978801 9
1.2483034 -0.028545951 -0.24270906 2
1.3285712 -0.030613497 0.11626577 10
1.2658753 -0.02938989 -0.20054901 3
1.3296481 -0.031102695 0.16330492 11
1.2621683 -0.029744646 -0.15501782 4
1.3369534 -0.031740528 0.2118123 12
