# .PCD v0.7 - Point Cloud Data file format
VERSION 0.7
FIELDS x y z intensity
SIZE 4 4 4 4
TYPE F F F F
COUNT 1 1 1 1
WIDTH 1362
HEIGHT 1
VIEWPOINT 0 0 0 1 0 0 0
POINTS 1362
DATA ascii
1.4093356 0.5694086 -0.35092363 1
1.4162912 0.57193214 -0.29689881 2
1.436229 0.5793997 -0.24528927 3
1.4398136 0.58026153 -0.19060367 4
1.4470561 0.58288676 -0.13648589 5
1.4526494 0.58455062 -0.082062788 6
1.4676136 0.58997631 -0.027609706 7
1.4722517 0.58915633 0.027679518 8
1.4113145 0.56448591 -0.35092363 1
1.4109873 0.56406939 -0.29537234 2
1.4382426 0.57438308 -0.24528927 3
1.4362991 0.57302493 -0.18987246 4
1.4416789 0.57488042 -0.13578865 5
1.4621031 0.58243251 -0.082481474 6
1.4622319 0.58189332 -0.027470089 7
1.4650031 0.58033234 0.027504994 8
1.4169003 0.56099051 -0.35182345 1
1.4147733 0.55986273 -0.29575396 2
1.4292167 0.56500149 -0.24341206 3
1.4512146 0.57311285 -0.19157861 4
1.436264 0.56691813 -0.13509139 5
1.4641269 0.5773263 -0.082481474 6
1.4679754 0.578251 -0.027539898 7
1.4577116 0.57156473 0.027330469 8
1.4079636 0.55177444 -0.34912404 1
1.4222028 0.55706924 -0.29689881 2
1.4275011 0.55856913 -0.24278632 3
1.4513575 0.56732059 -0.19133489 4
1.4382343 0.56190079 -0.13509139 5
1.4549699 0.56785464 -0.081853449 6
1.4662585 0.57167083 -0.027470089 7
1.4334906 0.5565899 -0.41203994 0
1.4690189 0.57009053 0.027504994 8
1.4026133 0.54403853 -0.34732443 1
1.4259695 0.55281067 -0.29728043 2
1.4294418 0.5535838 -0.24278632 3
1.4459234 0.5593856 -0.19035992 4
1.4476199 0.55975223 -0.13578865 5
1.4494909 0.55989337 -0.081434757 6
1.4756081 0.56968647 -0.027609706 7
1.4155881 0.54396063 -0.4063459 0
1.4690349 0.56449831 0.027470089 8
1.4062291 0.54008257 -0.34777433 1
1.4187254 0.54431379 -0.29537234 2
1.4349588 0.5502547 -0.24341206 3
1.4422094 0.55245769 -0.18962872 4
1.4495651 0.55469525 -0.13578865 5
1.4550706 0.55651015 -0.081644095 6
1.4663798 0.56024963 -0.027400278 7
1.4119675 0.53720278 -0.40479302 0
1.4747345 0.56078875 0.027539898 8
1.4117491 0.53655487 -0.34867415 1
1.4168519 0.53821212 -0.2946091 2
1.4368709 0.54524201 -0.24341206 3
1.445985 0.54812396 -0.18987246 4
1.4439441 0.54706132 -0.13509139 5
1.46074 0.55284256 -0.081853449 6
1.4683264 0.55512792 -0.027400278 7
1.4102181 0.53090912 -0.40375772 0
1.4654536 0.55141181 0.027330469 8
1.4209094 0.53436786 -0.35047373 1
1.4223976 0.53464419 -0.29537234 2
1.4350666 0.53883457 -0.24278632 3
1.4534657 0.54516429 -0.19060367 4
1.4421136 0.54061925 -0.13474278 5
1.462661 0.54773986 -0.081853449 6
1.4702554 0.5499987 -0.027400278 7
1.4120629 0.52598292 -0.40375772 0
1.4636214 0.54489797 0.027260659 8
1.4081547 0.52396828 -0.34687454 1
1.420575 0.52830678 -0.2946091 2
1.4295318 0.53107071 -0.24153483 3
1.4609429 0.54215962 -0.19133489 4
1.4439918 0.53558236 -0.13474278 5
1.4570725 0.53985554 -0.081434757 6
1.4721664 0.54486281 -0.027400278 7
1.4175158 0.52238703 -0.40479302 0
1.4692675 0.54116756 0.027330469 8
1.4026599 0.51635712 -0.34507492 1
1.4297805 0.52605683 -0.29613557 2
1.4350852 0.52743995 -0.24216059 3
1.4460553 0.53089899 -0.18914123 4
1.4533343 0.53328353 -0.13544002 5
1.4514472 0.53201634 -0.081016071 6
1.4815704 0.54247117 -0.027539898 7
1.4175153 0.51677442 -0.40427536 0
1.4730264 0.53672045 0.027365373 8
1.4081162 0.5127911 -0.34597474 1
1.490092 0.54264408 0.083109505 9
1.418694 0.51636279 -0.29346424 2
1.4369175 0.52242768 -0.24216059 3
1.4459423 0.52542239 -0.18889751 4
1.455187 0.52820754 -0.13544002 5
1.4608063 0.5296694 -0.081434757 6
1.4683206 0.53210497 -0.027260659 7
1.4192214 0.51207054 -0.40427536 0
1.4823226 0.53454649 0.027504994 8
1.4153088 0.5101006 -0.34732443 1
1.4843677 0.53499055 0.08269082 9
1.4259398 0.51365095 -0.2946091 2
1.4423596 0.51899695 -0.24278632 3
1.4495445 0.52129662 -0.18914123 4
1.4456804 0.51933712 -0.13439415 5
1.4625543 0.52482331 -0.081434757 6
1.4663126 0.52588236 -0.027190849 7
1.4118148 0.50411355 -0.40168718 0
1.4765537 0.52693909 0.027365373 8
1.4151572 0.50475007 -0.34687454 1
1.4917772 0.5320785 0.083004832 9
1.4276354 0.50891918 -0.2946091 2
1.4366289 0.51156086 -0.24153483 3
1.4513553 0.51623386 -0.18914123 4
1.4473945 0.51454055 -0.13439415 5
1.4680508 0.52130669 -0.081644095 6
1.4793555 0.5250302 -0.027400278 7
1.4135658 0.49918261 -0.40168718 0
1.4650937 0.51737905 0.027121039 8
1.4168233 0.50005412 -0.34687454 1
1.4973924 0.52819633 0.083214179 9
1.4294028 0.50393367 -0.2946091 2
1.4383177 0.50679362 -0.24153483 3
1.4568042 0.51273662 -0.18962872 4
1.4491818 0.50948465 -0.13439415 5
1.4584656 0.51246333 -0.081016071 6
1.4774055 0.51853824 -0.027330469 7
1.4225084 0.49704084 -0.40375772 0
1.4725546 0.51423919 0.027225753 8
1.4056805 0.49061128 -0.34372523 1
1.4803687 0.51638836 0.082167462 9
1.4310663 0.49919045 -0.2946091 2
1.4419429 0.50242084 -0.24184772 3
1.4473364 0.50373286 -0.18816628 4
1.4508635 0.50467581 -0.13439415 5
1.4564724 0.5060578 -0.080806725 6
1.4792066 0.51337832 -0.027330469 7
1.4242349 0.49207196 -0.40375772 0
1.4762307 0.50974894 0.027260659 8
1.4110689 0.48697263 -0.34462503 1
1.4746099 0.50861239 0.081748769 9
1.4235203 0.49099094 -0.29270101 2
1.443688 0.49738407 -0.24184772 3
1.45284 0.49996987 -0.18865377 4
1.4545 0.50025719 -0.13456847 5
1.4582299 0.50097096 -0.080806725 6
1.4734241 0.50561517 -0.027190849 7
1.420459 0.48522493 -0.40220481 0
1.4874635 0.50782281 0.027435182 8
1.4182934 0.48393163 -0.34597474 1
1.4782664 0.50410765 0.081853449 9
1.4215089 0.48475263 -0.29193777 2
1.4566349 0.49616277 -0.24372493 3
1.4508179 0.49361631 -0.18816628 4
1.4543512 0.49453527 -0.13439415 5
1.4637522 0.49716198 -0.081016071 6
1.4676051 0.49789938 -0.027051231 7
1.4184839 0.47902712 -0.40116954 0
1.4759644 0.49815083 0.027190849 8
1.4144342 0.47710964 -0.34462503 1
1.4838023 0.50022012 0.082062788 9
1.4287735 0.48166877 -0.29308262 2
1.4452533 0.48666269 -0.24153483 3
1.4600582 0.49107993 -0.18914123 4
1.4428488 0.48501208 -0.13317397 5
1.4730523 0.49459204 -0.081434757 6
1.4731259 0.49404544 -0.027121039 7
1.4238119 0.47529647 -0.40220481 0
1.4720031 0.49109811 0.027086135 8
1.4142425 0.47155264 -0.34417513 1
1.4912242 0.49693158 0.082376808 9
1.4323089 0.47729883 -0.29346424 2
1.4356976 0.47787136 -0.23965763 3
1.4617635 0.48598069 -0.18914123 4
1.4520959 0.48248518 -0.13387121 5
1.4633961 0.48567271 -0.080806725 6
1.4786378 0.49015829 -0.027190849 7
1.4217935 0.46911255 -0.40116954 0
1.4775068 0.48720896 0.027155945 8
1.4103273 0.46478358 -0.34282541 1
1.4815673 0.48797458 0.081748769 9
1.4321014 0.47168231 -0.29308262 2
1.4448626 0.47532648 -0.2409091 3
1.4559073 0.4783968 -0.18816628 4
1.4632362 0.48052129 -0.13474278 5
1.4612869 0.47931692 -0.080597378 6
1.4879409 0.48748454 -0.027330469 7
1.4289324 0.46594307 -0.40272245 0
1.4830009 0.48328799 0.027225753 8
1.4156473 0.4610644 -0.34372523 1
1.4794635 0.48156327 0.08153943 9
1.424405 0.46364182 -0.29117453 2
1.4502703 0.47150114 -0.24153483 3
1.4556803 0.47269902 -0.18792254 4
1.4630092 0.47479597 -0.13456847 5
1.4629511 0.47421345 -0.080597378 6
1.4744139 0.47735971 -0.027051231 7
1.423195 0.45858264 -0.4006519 0
1.4808722 0.47688213 0.027155945 8
1.4228129 0.4579114 -0.34507492 1
1.4811352 0.47639635 0.08153943 9
1.4260147 0.45866719 -0.29117453 2
1.4537879 0.46704039 -0.24184772 3
1.4592117 0.46822101 -0.18816628 4
1.4532744 0.46603614 -0.1335226 5
1.4684017 0.47032195 -0.080806725 6
1.4722619 0.47099185 -0.026981421 7
1.4230255 0.45277721 -0.40013427 0
1.4749873 0.46902767 0.027016325 8
1.4226246 0.4521029 -0.34462503 1
1.4961135 0.47545731 0.082272127 9
1.4314288 0.45462576 -0.29193777 2
1.4945301 0.47438058 0.13718314 10
1.4423096 0.45752743 -0.23965763 3
1.4551605 0.46132448 -0.18743508 4
1.451174 0.45950326 -0.13317397 5
1.473924 0.4661417 -0.081016071 6
1.4738972 0.46584946 -0.026981421 7
1.4245188 0.44805676 -0.40013427 0
1.48035 0.46533275 0.027086135 8
1.4203976 0.446215 -0.34372523 1
1.493871 0.46929649 0.082062788 9
1.4366745 0.45105284 -0.29270101 2
1.509402 0.47359678 0.13840331 10
1.4475887 0.45392439 -0.24028336 3
1.4604708 0.45768395 -0.18792254 4
1.4564925 0.455879 -0.1335226 5
1.4640242 0.4576754 -0.080388032 6
1.486886 0.46453747 -0.027190849 7
1.425997 0.44333002 -0.40013427 0
1.4799752 0.45982817 0.027051231 8
1.4162863 0.43976828 -0.34237552 1
1.4897773 0.46230355 0.081748769 9
1.4419124 0.44745025 -0.29346424 2
1.4957404 0.46386784 0.13700882 10
1.4490861 0.44912112 -0.24028336 3
1.4601631 0.45199648 -0.1876788 4
1.4637065 0.45281267 -0.13404553 5
1.4617172 0.45163909 -0.080178693 6
1.484677 0.45816472 -0.027121039 7
1.4349228 0.44061756 -0.40220481 0
1.4853948 0.45583215 0.027121039 8
1.4196756 0.4353942 -0.34282541 1
1.4856534 0.4553442 0.081434757 9
1.4322031 0.43896198 -0.29117453 2
1.514496 0.46389514 0.13857763 10
1.4544225 0.44521758 -0.2409091 3
1.4541386 0.44457486 -0.18670385 4
1.4652779 0.44770163 -0.13404553 5
1.463285 0.44653359 -0.080178693 6
1.4824414 0.45181382 -0.027051231 7
1.4235113 0.43168131 -0.39858136 0
1.4869767 0.4506447 0.027121039 8
1.4249171 0.43156534 -0.34372523 1
1.4929687 0.45189095 0.081748769 9
1.4337268 0.43395963 -0.29117453 2
1.4894071 0.45052996 0.13613726 10
1.4559678 0.44013759 -0.2409091 3
1.4556816 0.43949658 -0.18670385 4
1.4592022 0.44028163 -0.13334829 5
1.4686593 0.4425759 -0.080388032 6
1.48018 0.44548339 -0.026981421 7
1.4250091 0.42671067 -0.39858136 0
1.4866251 0.44487774 0.027086135 8
1.426415 0.42658845 -0.34372523 1
1.4964504 0.44724977 0.081853449 9
1.4314706 0.427829 -0.29041129 2
1.4833347 0.44304702 0.13544002 10
1.449924 0.43279222 -0.23965763 3
1.4610115 0.43554646 -0.18719132 4
1.4569112 0.43404728 -0.13299966 5
1.4778526 0.43972462 -0.080806725 6
1.4817258 0.44031489 -0.026981421 7
1.4283426 0.42228118 -0.39909899 0
1.4824156 0.43798697 0.026981421 8
1.4241573 0.42050332 -0.34282541 1
1.5056651 0.44428405 0.082272127 9
1.4423702 0.42560732 -0.29231939 2
1.4906054 0.43955672 0.13596295 10
1.4457413 0.42605355 -0.23871902 3
1.4701405 0.43268546 -0.18816628 4
1.4603288 0.42952156 -0.13317397 5
1.4717134 0.43231124 -0.080388032 6
1.4832538 0.43513963 -0.026981421 7
1.4298078 0.41729307 -0.39909899 0
1.4858551 0.43336922 0.027016325 8
1.416262 0.41280258 -0.3405759 1
1.4937836 0.43511596 0.08153943 9
1.4363073 0.418374 -0.29079291 2
1.4921303 0.43435189 0.13596295 10
1.4510133 0.42210752 -0.23934476 3
1.4563915 0.42312151 -0.18621638 4
1.4675595 0.42608762 -0.1336969 5
1.4693768 0.42605996 -0.080178693 6
1.4924469 0.43218389 -0.027121039 7
1.4386814 0.41443825 -0.40116954 0
1.4892806 0.42873281 0.027051231 8
1.4176943 0.4078567 -0.3405759 1
1.4894601 0.42850301 0.08122541 9
1.437759 0.41335744 -0.29079291 2
1.5032121 0.43189123 0.13683452 10
1.4524778 0.41704029 -0.23934476 3
1.4559513 0.41748759 -0.18597263 4
1.470953 0.42151138 -0.13387121 5
1.4746954 0.4220269 -0.080388032 6
1.4784909 0.42283392 -0.026841803 7
1.4289701 0.40624377 -0.39806372 0
1.4964647 0.42543188 0.027155945 8
1.4284117 0.40581632 -0.34282541 1
1.4909467 0.42330152 0.08122541 9
1.435416 0.40726408 -0.2900297 2
1.4932095 0.42338079 0.13578865 10
1.4576536 0.41329938 -0.23997049 3
1.4611479 0.41373846 -0.18646011 4
1.4647466 0.414206 -0.13317397 5
1.476087 0.4171339 -0.080388032 6
1.4838067 0.41875699 -0.026911611 7
1.4228694 0.39941469 -0.39599317 0
1.490239 0.41804552 0.027016325 8
1.4335726 0.40187946 -0.34372523 1
1.4942654 0.41889375 0.081330083 9
1.4329774 0.40144289 -0.28926644 2
1.4888494 0.41681501 0.13526571 10
1.4495759 0.40554726 -0.23840615 3
1.4701591 0.41102913 -0.18743508 4
1.4545982 0.40613127 -0.1321281 5
1.4852295 0.41412491 -0.080806725 6
1.4813348 0.41276035 -0.026841803 7
1.4316329 0.39675817 -0.39806372 0
1.480054 0.40989938 0.026806895 8
1.4236284 0.39400482 -0.3410258 1
1.5071957 0.417133 0.081958115 9
1.4456542 0.39982909 -0.29155618 2
1.4959847 0.41346809 0.13578865 10
1.4509126 0.4007383 -0.23840615 3
1.4753411 0.40720755 -0.18792254 4
1.4636199 0.40342337 -0.13282534 5
1.4750408 0.40601745 -0.080178693 6
1.494264 0.41102752 -0.027051231 7
1.4385307 0.39353812 -0.3996166 0
1.4852632 0.40604335 0.026876707 8
1.4211676 0.38825426 -0.34012601 1
1.5009356 0.40976563 0.08153943 9
1.443184 0.39399907 -0.29079291 2
1.4973476 0.40850455 0.13578865 10
1.4522337 0.39592433 -0.23840615 3
1.4652612 0.39892662 -0.18646011 4
1.4687949 0.39961338 -0.13317397 5
1.4648149 0.39798144 -0.079550661 6
1.4956895 0.40580937 -0.027051231 7
1.4380305 0.38801062 -0.39909899 0
1.4905329 0.40189785 0.026946515 8
1.428159 0.38481236 -0.34147573 1
1.4946425 0.40244636 0.081120737 9
1.4331763 0.385896 -0.28850323 2
1.5064602 0.40534639 0.13648589 10
1.4574221 0.39187884 -0.2390319 3
1.52984 0.41106465 0.19450349 11
1.4589761 0.39174995 -0.18548515 4
1.4701807 0.39448422 -0.13317397 5
1.473912 0.39493319 -0.079969354 6
1.48937 0.39851874 -0.026911611 7
1.4319087 0.38100126 -0.39702842 0
1.4957917 0.39772043 0.027016325 8
1.4294937 0.37982443 -0.34147573 1
1.4998295 0.39851305 0.081330083 9
1.4383097 0.38189813 -0.28926644 2
1.5001628 0.39804184 0.13578865 10
1.4664187 0.38881376 -0.24028336 3
1.5139958 0.40114585 0.19230984 11
1.4718482 0.38970432 -0.18694758 4
1.4638444 0.38731104 -0.13247673 5
1.4791434 0.39080724 -0.080178693 6
1.4829496 0.39153528 -0.026771991 7
1.4350984 0.37649116 -0.39754605 0
1.4951683 0.39225021 0.026981421 8
1.4364003 0.37656477 -0.34282541 1
1.5050756 0.39428785 0.08153943 9
1.4396338 0.37687549 -0.28926644 2
1.4938331 0.39078549 0.13509139 10
1.4524115 0.37994966 -0.23778042 3
1.5114768 0.39511847 0.19182236 11
1.476974 0.38582441 -0.18743508 4
1.4613318 0.38119268 -0.1321281 5
1.4842966 0.38690722 -0.080388032 6
1.4881779 0.38736352 -0.026841803 7
1.4344687 0.3712464 -0.39702842 0
1.4829764 0.38352349 0.026737086 8
1.4244988 0.36813566 -0.33967611 1
1.5122441 0.39053029 0.081853449 9
1.4446776 0.37308154 -0.2900297 2
1.4989792 0.38682491 0.13544002 10
1.4499031 0.37389123 -0.23715468 3
1.503235 0.38736433 0.19060367 11
1.4763894 0.38017103 -0.18719132 4
1.4625877 0.37634495 -0.1321281 5
1.4779006 0.3797352 -0.079969354 6
1.4972686 0.38415536 -0.026981421 7
1.4395 0.36719152 -0.39806372 0
1.4901191 0.37982741 0.026841803 8
1.4257752 0.36316061 -0.33967611 1
1.5000494 0.38180026 0.081120737 9
1.4478738 0.36852029 -0.29041129 2
1.4945275 0.38011786 0.1349171 10
1.4550287 0.36980066 -0.23778042 3
1.50073 0.38113698 0.1901162 11
1.4661624 0.37208638 -0.18572889 4
1.467755 0.37221709 -0.13247673 5
1.4753445 0.37359449 -0.079760008 6
1.4986005 0.37892619 -0.026981421 7
1.4445199 0.36310667 -0.39909899 0
1.5011332 0.37705898 0.027016325 8
1.4308144 0.35912994 -0.3405759 1
1.4994355 0.37607622 0.081016071 9
1.4358212 0.36012098 -0.28773996 2
1.5093734 0.37828881 0.13613726 10
1.460143 0.36567879 -0.23840615 3
1.4981998 0.37493265 0.18962872 11
1.4578235 0.36455792 -0.1845102 4
1.4729112 0.36805701 -0.13282534 5
1.4805155 0.36940897 -0.079969354 6
1.4882716 0.37079245 -0.026771991 7
1.4345275 0.3552753 -0.39599317 0
1.498558 0.3708556 0.026946515 8
1.432059 0.35413426 -0.3405759 1
1.506556 0.37227687 0.081330083 9
1.4408816 0.35604841 -0.28850323 2
1.4990791 0.3701517 0.13509139 10
1.4614104 0.36058074 -0.23840615 3
1.5129912 0.37302661 0.19133489 11
1.4667972 0.361366 -0.18548515 4
1.4664483 0.36100933 -0.1321281 5
1.481796 0.36423835 -0.079969354 6
1.4856728 0.36464149 -0.026702182 7
1.4357587 0.35026601 -0.39599317 0
1.4920722 0.36372828 0.026806895 8
1.4408602 0.35097772 -0.34237552 1
1.5117278 0.36796007 0.08153943 9
1.4459307 0.35194483 -0.28926644 2
1.4945542 0.36350444 0.13456847 10
1.4626603 0.35547686 -0.23840615 3
1.5142841 0.3677426 0.19133489 11
1.4757661 0.35811654 -0.18646011 4
1.4638271 0.35494888 -0.13177948 5
1.4908229 0.36094391 -0.080388032 6
1.4908241 0.3603926 -0.026771991 7
1.4369726 0.34525245 -0.39599317 0
1.4933327 0.35851735 0.026806895 8
1.4307066 0.3432188 -0.33967611 1
1.5130028 0.36268193 0.08153943 9
1.4471502 0.34689644 -0.28926644 2
1.5016267 0.35967714 0.13509139 10
1.4504443 0.34715077 -0.23621608 3
1.5078357 0.36060867 0.19035992 11
1.4808687 0.35388535 -0.18694758 4
1.4689331 0.3507621 -0.1321281 5
1.4843028 0.35388461 -0.079969354 6
1.5037451 0.35796535 -0.026981421 7
1.4456891 0.34201303 -0.39806372 0
1.4945751 0.35330278 0.026806895 8
1.4262064 0.3368783 -0.33832639 1
1.5064842 0.35556281 0.081120737 9
1.4521741 0.34274444 -0.2900297 2
1.5067514 0.35534829 0.13544002 10
1.4651062 0.34525689 -0.23840615 3
1.5013564 0.35352278 0.18938497 11
1.4666362 0.34507713 -0.18499769 4
1.4701484 0.34563276 -0.1321281 5
1.4777513 0.34687591 -0.079550661 6
1.5049853 0.35271442 -0.026981421 7
1.4487554 0.337403 -0.39858136 0
1.5035899 0.34989685 0.026946515 8
1.4425585 0.3354283 -0.34192562 1
1.5018797 0.34894633 0.080806725 9
1.4457122 0.3358964 -0.28850323 2
1.5079827 0.35008618 0.13544002 10
1.4663026 0.34014022 -0.23840615 3
1.5083827 0.34962496 0.1901162 11
1.467832 0.33995512 -0.18499769 4
1.4752283 0.34139687 -0.13247673 5
1.4828451 0.34261432 -0.079760008 6
1.4906191 0.34386325 -0.026702182 7
1.4442176 0.33130068 -0.39702842 0
1.5086403 0.34580198 0.027016325 8
1.4398637 0.32977292 -0.3410258 1
1.5088694 0.34530023 0.081120737 9
1.4429905 0.33022404 -0.28773996 2
1.5033085 0.34375155 0.1349171 10
1.471274 0.33615622 -0.2390319 3
1.5172752 0.34638792 0.19109115 11
1.4689511 0.33508605 -0.18499769 4
1.4724671 0.33561772 -0.1321281 5
1.483973 0.33769545 -0.079760008 6
1.4917513 0.33891785 -0.026702182 7
1.4246365 0.32157797 -0.39133441 0
1.4961832 0.33745426 0.026771991 8
1.4448081 0.32560202 -0.34192562 1
1.5081173 0.33959204 0.081016071 9
1.4479653 0.32604724 -0.28850323 2
1.5006118 0.33762684 0.13456847 10
1.4647293 0.32928568 -0.23778042 3
1.5204118 0.34152421 0.19133489 11
1.4817334 0.33256438 -0.18646011 4
1.5188715 0.3406221 0.24654076 12
1.461965 0.32786024 -0.13108224 5
1.4968369 0.33513117 -0.080388032 6
1.4968284 0.33458066 -0.026771991 7
1.4370655 0.3191168 -0.39444023 0
1.4954 0.33179602 0.026737086 8
1.4364233 0.31844741 -0.33967611 1
1.5111849 0.33502167 0.081120737 9
1.4490943 0.32099193 -0.28850323 2
1.5056717 0.33324808 0.1349171 10
1.4581547 0.32246429 -0.23652895 3
1.5119028 0.33407444 0.1901162 11
1.4828851 0.32739046 -0.18646011 4
1.5257795 0.33686063 0.24747935 12
1.4747741 0.32532981 -0.1321281 5
1.4784924 0.32560888 -0.079341315 6
1.4979296 0.32961544 -0.026771991 7
1.4381708 0.31409818 -0.39444023 0
1.5003991 0.32768893 0.026806895 8
1.4336636 0.31285095 -0.33877629 1
1.5084423 0.32889396 0.080911398 9
1.4540424 0.31676707 -0.28926644 2
1.5126663 0.32926115 0.13544002 10
1.4630764 0.31846696 -0.23715468 3
1.5071832 0.32779291 0.18938497 11
1.4781431 0.3212069 -0.18572889 4
1.5346677 0.33320874 0.24873082 12
1.4759008 0.32018021 -0.1321281 5
1.4834678 0.32155073 -0.079550661 6
1.5068887 0.32607672 -0.026911611 7
1.4392046 0.30932692 -0.39444023 0
1.5054443 0.32328889 0.026876707 8
1.4366519 0.30825442 -0.33922619 1
1.5095813 0.32362613 0.080911398 9
1.4474064 0.31029698 -0.28773996 2
1.5118016 0.32382616 0.13526571 10
1.4680424 0.31418574 -0.23778042 3
1.5102596 0.32294458 0.18962872 11
1.4753729 0.31521538 -0.18524142 4
1.5222985 0.32496405 0.24654076 12
1.4808514 0.31611636 -0.13247673 5
1.4845814 0.3163701 -0.079550661 6
1.5001942 0.31914988 -0.026771991 7
1.4402755 0.30430087 -0.39444023 0
1.5104766 0.3188583 0.026946515 8
1.4434397 0.30444384 -0.3405759 1
1.5107019 0.31835434 0.080911398 9
1.4484808 0.30524233 -0.28773996 2
1.5070739 0.31731585 0.13474278 10
1.4691302 0.30905902 -0.23778042 3
1.5191483 0.31930369 0.19060367 11
1.4667505 0.30802384 -0.18402272 4
1.5156904 0.31802526 0.24528927 12
1.4741461 0.30930832 -0.13177948 5
1.4934959 0.31282416 -0.079969354 6
1.4895551 0.31145528 -0.026562562 7
1.4337628 0.29770151 -0.39236969 0
1.4998324 0.31114623 0.026737086 8
1.4464017 0.29979926 -0.3410258 1
1.5118036 0.31308007 0.080911398 9
1.4495373 0.30018532 -0.28773996 2
1.5042702 0.31124547 0.13439415 10
1.4624621 0.30232888 -0.23652895 3
1.5260856 0.31520456 0.19133489 11
1.4794817 0.30530882 -0.18548515 4
1.5167913 0.31273219 0.24528927 12
1.4674115 0.30255103 -0.13108224 5
1.4984913 0.3084138 -0.080178693 6
1.498468 0.30786464 -0.026702182 7
1.4423648 0.29423913 -0.39444023 0
1.5009092 0.30590999 0.026737086 8
1.4359822 0.29241505 -0.33832639 1
1.5168017 0.30859697 0.081120737 9
1.4505764 0.29512328 -0.28773996 2
1.5072999 0.30638987 0.13456847 10
1.4557651 0.29564983 -0.23527746 3
1.5213404 0.30869097 0.19060367 11
1.4844292 0.30093172 -0.18597263 4
1.5314262 0.31018093 0.24747935 12
1.4723641 0.29821828 -0.13143085 5
1.487813 0.30080605 -0.079550661 6
1.5073744 0.30421412 -0.026841803 7
1.4471714 0.28996193 -0.39547554 0
1.5039287 0.30106106 0.026771991 8
1.4369942 0.28740036 -0.33832639 1
1.5100354 0.30173537 0.080702052 9
1.4592985 0.2915971 -0.28926644 2
1.5142215 0.30229706 0.13509139 10
1.4684116 0.29288438 -0.23715468 3
1.5204617 0.30299097 0.19035992 11
1.4737893 0.29342291 -0.1845102 4
1.5266875 0.30367687 0.24654076 12
1.4773043 0.29385397 -0.13177948 5
1.4849356 0.29483387 -0.079341315 6
1.5045038 0.29817334 -0.026771991 7
1.448175 0.28490821 -0.39547554 0
1.5108571 0.29696617 0.026876707 8
1.4379886 0.28238288 -0.33832639 1
1.5110795 0.29646212 0.080702052 9
1.4526014 0.28498918 -0.28773996 2
1.519178 0.29777566 0.13544002 10
1.4694248 0.28775719 -0.23715468 3
1.5156658 0.29653788 0.18962872 11
1.4709083 0.28751463 -0.18402272 4
1.5257993 0.29796758 0.24622789 12
1.4861429 0.29022324 -0.13247673 5
1.4859558 0.28964829 -0.079341315 6
1.4976841 0.29139185 -0.026632372 7
1.445367 0.27911839 -0.39444023 0
1.5118845 0.2916908 0.026876707 8
1.4504466 0.27957493 -0.3410258 1
1.5160277 0.2919406 0.080911398 9
1.4497318 0.27917406 -0.28697675 2
1.5084691 0.29021278 0.13439415 10
1.4820597 0.28486368 -0.2390319 3
1.52254 0.29236802 0.19035992 11
1.4719028 0.28237876 -0.18402272 4
1.5229499 0.29189634 0.24560213 12
1.4793198 0.28353399 -0.13177948 5
1.4908812 0.28521046 -0.079550661 6
1.5026207 0.28691185 -0.026702182 7
1.4425365 0.27335238 -0.39340496 0
1.5050343 0.28492332 0.026737086 8
1.4475842 0.27378625 -0.34012601 1
1.5248876 0.28813049 0.081330083 9
1.4506974 0.27411214 -0.28697675 2
1.5075152 0.28457552 0.13421984 10
1.4694569 0.2771256 -0.23684181 3
1.5255021 0.28741947 0.19060367 11
1.4826338 0.27907476 -0.18524142 4
1.5239595 0.28657809 0.24560213 12
1.4724683 0.27689525 -0.13108224 5
1.4957937 0.28074101 -0.079760008 6
1.5075439 0.28240168 -0.026771991 7
1.4472803 0.26902172 -0.39444023 0
1.5020875 0.27893811 0.026667278 8
1.4446988 0.26802024 -0.33922619 1
1.5258839 0.28280622 0.081330083 9
1.4632275 0.2711935 -0.28926644 2
1.5143766 0.2804001 0.13474278 10
1.4587607 0.26983902 -0.23496459 3
1.5147836 0.27992862 0.18914123 11
1.4875031 0.2746188 -0.18572889 4
1.5307785 0.28233191 0.24654076 12
1.4793038 0.27283809 -0.13160518 5
1.4889076 0.27407134 -0.079341315 6
1.5045871 0.2764146 -0.026702182 7
1.4482105 0.26396844 -0.39444023 0
1.5030521 0.27369279 0.026667278 8
1.4379567 0.2615802 -0.3374266 1
1.5150714 0.27533582 0.080702052 9
1.4603021 0.26538253 -0.28850323 2
1.5133858 0.27475592 0.13456847 10
1.4713558 0.2668601 -0.23684181 3
1.5157515 0.27463967 0.18914123 11
1.4786859 0.26765648 -0.1845102 4
1.5317547 0.27698639 0.24654076 12
1.486129 0.26873589 -0.1321281 5
1.5552465 0.28095487 0.30720252 13
1.4859241 0.26816329 -0.079131976 6
1.5173508 0.27328873 -0.026911611 7
1.449123 0.25891122 -0.39444023 0
1.5158098 0.27055299 0.026876707 8
1.4426979 0.25724366 -0.33832639 1
1.5179423 0.27066031 0.080806725 9
1.4534883 0.25890595 -0.28697675 2
1.522182 0.27086809 0.13526571 10
1.4683886 0.26103133 -0.23621608 3
1.5186555 0.26969373 0.18938497 11
1.4815198 0.2630989 -0.18475394 4
1.5346099 0.27225 0.24685362 12
1.4909816 0.26424241 -0.13247673 5
1.550418 0.27449709 0.30605766 13
1.4907846 0.26367012 -0.079341315 6
1.5024952 0.26547164 -0.026632372 7
1.4461683 0.25343704 -0.39340496 0
1.5206381 0.26621416 0.026946515 8
1.4473821 0.25312981 -0.33922619 1
1.520799 0.26596954 0.080911398 9
1.452405 0.2537463 -0.28659514 2
1.5132583 0.26410571 0.13439415 10
1.4731381 0.25683939 -0.23684181 3
1.52932 0.26635888 0.19060367 11
1.48434 0.25852478 -0.18499769 4
1.5257735 0.26546684 0.24528927 12
1.4800718 0.25724989 -0.13143085 5
1.5667945 0.27204061 0.30911061 13
1.4995223 0.26009065 -0.079760008 6
1.4994266 0.25980523 -0.026562562 7
1.4393848 0.2473316 -0.39133441 0
1.5096872 0.25914127 0.026737086 8
1.4558965 0.24964571 -0.3410258 1
1.5256554 0.26133332 0.081120737 9
1.4551735 0.24926031 -0.28697675 2
1.5101979 0.25841504 0.13404553 10
1.4700875 0.25128683 -0.23621608 3
1.5282379 0.26095214 0.19035992 11
1.4969743 0.25534421 -0.18646011 4
1.5266908 0.26013961 0.24528927 12
1.4848449 0.25300932 -0.13177948 5
1.5599463 0.265526 0.30758414 13
1.5003766 0.25511619 -0.079760008 6
1.5042675 0.25523832 -0.026632372 7
1.4440495 0.24294704 -0.39236969 0
1.5086105 0.25353807 0.026702182 8
1.4471499 0.24294856 -0.33877629 1
1.5226188 0.25534585 0.080911398 9
1.4637796 0.24547842 -0.28850323 2
1.5150208 0.25379986 0.13439415 10
1.4592659 0.24419715 -0.23433885 3
1.5252236 0.25496176 0.18987246 11
1.4861084 0.24815655 -0.18499769 4
1.5314866 0.25545847 0.245915 12
1.4857192 0.2478243 -0.13177948 5
1.5492442 0.2581434 0.30529439 13
1.4933772 0.24856669 -0.079341315 6
1.5090945 0.25064075 -0.026702182 7
1.446795 0.23821837 -0.39288735 0
1.5114596 0.24859464 0.026737086 8
1.4441431 0.23726472 -0.3378765 1
1.519559 0.24938206 0.080702052 9
1.4646275 0.240367 -0.28850323 2
1.51983 0.24915414 0.13474278 10
1.4737552 0.24133748 -0.23652895 3
1.5202271 0.24867441 0.18914123 11
1.4850066 0.24264701 -0.18475394 4
1.5401671 0.25138494 0.24716648 12
1.486575 0.24263768 -0.13177948 5
1.561762 0.25462905 0.30758414 13
1.4902933 0.24270983 -0.079131976 6
1.5178554 0.24665481 -0.026841803 7
1.4533396 0.23408787 -0.39444023 0
1.5083696 0.24268216 0.026667278 8
1.4488106 0.23284033 -0.33877629 1
1.5085883 0.24217646 0.08007402 9
1.453827 0.23338553 -0.28621352 2
1.5285593 0.24510956 0.13544002 10
1.4882424 0.23837821 -0.23871902 3
1.521086 0.2433659 0.18914123 11
1.4740832 0.23558259 -0.18329151 4
1.5293312 0.24413839 0.24528927 12
1.491348 0.23807485 -0.1321281 5
1.5703964 0.25041214 0.30911061 13
1.4950761 0.23813491 -0.079341315 6
1.5108076 0.24009916 -0.026702182 7
1.4522394 0.2287138 -0.3939226 0
1.52106 0.23927961 0.026876707 8
1.453465 0.22838622 -0.33967611 1
1.523236 0.23907788 0.080806725 9
1.4526931 0.22800589 -0.28583187 2
1.5175956 0.23792048 0.13439415 10
1.4851624 0.2325702 -0.23809329 3
1.5336937 0.23989654 0.19060367 11
1.4768579 0.23074166 -0.18353525 4
1.5243189 0.23788439 0.24435066 12
1.4882733 0.23199378 -0.13177948 5
1.5751404 0.24553472 0.30987382 13
1.4998454 0.23352881 -0.079550661 6
1.5037326 0.23359649 -0.026562562 7
1.4473395 0.22250853 -0.39236969 0
1.5100269 0.23214586 0.026667278 8
1.4542532 0.22331162 -0.33967611 1
1.5181389 0.23285054 0.080492713 9
1.4612817 0.22386882 -0.28735834 2
1.5105795 0.23115145 0.1336969 10
1.4820994 0.22652867 -0.23746756 3
1.5305971 0.23394121 0.1901162 11
1.4953156 0.2282809 -0.18572889 4
1.5309983 0.2334557 0.24528927 12
1.4772559 0.22499695 -0.13073361 5
1.5605024 0.23739658 0.30682087 13
1.5125387 0.22983059 -0.080178693 6
1.5084928 0.22894649 -0.026632372 7
1.4519285 0.2180291 -0.39340496 0
1.5029575 0.22542293 0.026527658 8
1.4512074 0.21740288 -0.33877629 1
1.5308337 0.2290584 0.081120737 9
1.4620543 0.21876694 -0.28735834 2
1.5172888 0.22676024 0.13421984 10
1.4789735 0.22077082 -0.23684181 3
1.5275176 0.22774388 0.18962872 11
1.4902519 0.22192194 -0.18499769 4
1.5455208 0.22987738 0.24747935 12
1.4859538 0.22075173 -0.13143085 5
1.5574377 0.2313713 0.30605766 13
1.4975268 0.22220388 -0.079341315 6
1.5132781 0.22400127 -0.026702182 7
1.4584521 0.21354529 -0.39495787 0
1.513628 0.22162409 0.026702182 8
1.448101 0.21177156 -0.3378765 1
1.5276715 0.22313569 0.080911398 9
1.4667317 0.21397324 -0.28812161 2
1.5200812 0.22148517 0.13439415 10
1.4758632 0.2147793 -0.23621608 3
1.5283031 0.22241078 0.18962872 11
1.4753019 0.21443468 -0.18304777 4
1.5463139 0.2244807 0.24747935 12
1.4867153 0.21556376 -0.13143085 5
1.5621611 0.22622454 0.30682087 13
1.4904243 0.21557041 -0.078922629 6
1.5180091 0.21928973 -0.026771991 7
1.4610283 0.20923585 -0.39547554 0
1.5163343 0.21688697 0.026737086 8
1.4487954 0.20696791 -0.3378765 1
1.5165396 0.21637546 0.080283366 9
1.4596224 0.20825468 -0.28659514 2
1.5227419 0.21698998 0.13456847 10
1.4902203 0.2120896 -0.23840615 3
1.5251015 0.21678239 0.18914123 11
1.4799355 0.21009956 -0.18353525 4
1.5333592 0.21741013 0.24528927 12
1.4913675 0.21119075 -0.13177948 5
1.5667521 0.22186588 0.30758414 13
1.4990044 0.21200609 -0.079341315 6
1.5108076 0.21313685 -0.026632372 7
1.454132 0.2028124 -0.39340496 0
1.5170821 0.21159224 0.026737086 8
1.4533691 0.20244741 -0.33877629 1
1.5251983 0.21218155 0.080702052 9
1.4506528 0.20155291 -0.28468704 2
1.5215536 0.21113317 0.13439415 10
1.4929444 0.20689774 -0.23871902 3
1.5337142 0.21254778 0.1901162 11
1.4865589 0.20574839 -0.18426646 4
1.5321519 0.21178623 0.2449764 12
1.484201 0.20489408 -0.13108224 5
1.5753341 0.21719487 0.30911061 13
1.5076859 0.20759991 -0.079760008 6
1.4996561 0.2062276 -0.026422944 7
1.4452598 0.19643469 -0.39081678 0
1.5138844 0.20549284 0.026667278 8
1.4579637 0.19764237 -0.33967611 1
1.5299243 0.20712623 0.080911398 9
1.4591296 0.19754182 -0.28621352 2
1.5143836 0.20475316 0.1336969 10
1.4858272 0.20062742 -0.23746756 3
1.534483 0.2069246 0.1901162 11
1.4892703 0.20056377 -0.1845102 4
1.5348758 0.20643209 0.24528927 12
1.4849072 0.19971159 -0.13108224 5
1.5644079 0.21012606 0.30682087 13
1.5084013 0.20233618 -0.079760008 6
1.5838189 0.21217051 0.36891973 14
1.5122942 0.20232029 -0.026632372 7
1.4574276 0.19290918 -0.3939226 0
1.516575 0.20046878 0.026702182 8
1.4509166 0.19153279 -0.3378765 1
1.5345982 0.20230623 0.081120737 9
1.4598104 0.19244693 -0.28621352 2
1.5190399 0.19998544 0.13404553 10
1.4786842 0.19441071 -0.23621608 3
1.5332278 0.20130891 0.18987246 11
1.493898 0.19587979 -0.18499769 4
1.5395041 0.20158711 0.245915 12
1.4895459 0.19504546 -0.13143085 5
1.557345 0.20364608 0.30529439 13
1.4972157 0.19551751 -0.079131976 6
1.5845499 0.20664023 0.36891973 14
1.516957 0.19755697 -0.026702182 7
1.4676723 0.18905428 -0.39651078 0
1.5172653 0.19517404 0.026702182 8
1.4554421 0.18696317 -0.33877629 1
1.527371 0.19593132 0.080702052 9
1.4682624 0.18834886 -0.28773996 2
1.5276337 0.19569476 0.13474278 10
1.4813132 0.18949822 -0.23652895 3
1.5260447 0.19494912 0.18889751 11
1.4827578 0.18915702 -0.18353525 4
1.5480366 0.19721015 0.24716648 12
1.4902178 0.1898444 -0.13143085 5
1.569732 0.19969486 0.30758414 13
1.4899638 0.18928355 -0.078713283 6
1.5697955 0.19914691 0.3653205 14
1.5255728 0.19326547 -0.026841803 7
1.4664062 0.18369089 -0.39599317 0
1.5219059 0.19037262 0.026771991 8
1.4541521 0.18163967 -0.33832639 1
1.5240817 0.19010524 0.080492713 9
1.4572219 0.18176553 -0.28545028 2
1.5283074 0.19036072 0.13474278 10
1.4878466 0.18505737 -0.23746756 3
1.5345957 0.19060078 0.18987246 11
1.4755291 0.18300237 -0.18256028 4
1.540874 0.1908337 0.245915 12
1.5027353 0.18611032 -0.13247673 5
1.574316 0.19469723 0.30834734 13
1.5025086 0.18554978 -0.079341315 6
1.566613 0.19318867 0.36442071 14
1.5103604 0.18598495 -0.026562562 7
1.4497793 0.17646983 -0.39133441 0
1.5285165 0.18578243 0.026876707 8
1.4528427 0.17632814 -0.3378765 1
1.5306842 0.1855045 0.080806725 9
1.4500515 0.17573257 -0.2839238 2
1.5210508 0.18406694 0.13404553 10
1.4924057 0.18033695 -0.23809329 3
1.5391933 0.18571806 0.19035992 11
1.4840423 0.17880009 -0.18353525 4
1.5336858 0.18451044 0.24466354 12
1.4875507 0.17896014 -0.13108224 5
1.5749861 0.18920024 0.30834734 13
1.5071133 0.18077926 -0.079550661 6
1.5827569 0.18957333 0.36801991 14
1.5110004 0.18071128 -0.026562562 7
1.4484679 0.17118166 -0.39081678 0
1.521212 0.17950946 0.026737086 8
1.4631262 0.17239548 -0.34012601 1
1.5352896 0.18062736 0.081016071 9
1.4584553 0.17158778 -0.28545028 2
1.5216839 0.1787574 0.13404553 10
1.4930261 0.17512599 -0.23809329 3
1.5398322 0.18034373 0.19035992 11
1.4866289 0.17385033 -0.18377897 4
1.5402066 0.17984262 0.24560213 12
1.4881663 0.17376614 -0.13108224 5
1.5678368 0.18279152 0.30682087 13
1.5117028 0.17598027 -0.079760008 6
1.5834091 0.18404691 0.36801991 14
1.5235401 0.17681858 -0.026771991 7
1.4548144 0.16678423 -0.39236969 0
1.5138824 0.17328829 0.026597466 8
1.4617829 0.1670662 -0.33967611 1
1.5359108 0.17526668 0.081016071 9
1.4668479 0.16738574 -0.28697675 2
1.5242783 0.17366979 0.13421984 10
1.4857774 0.16902049 -0.23684181 3
1.5345352 0.17429586 0.18962872 11
1.5049787 0.17067274 -0.18597263 4
1.5427878 0.17468779 0.245915 12
1.4927232 0.16901904 -0.13143085 5
1.5567603 0.17599469 0.30453119 13
1.5043693 0.16980588 -0.079341315 6
1.5879149 0.17895471 0.36891973 14
1.5281224 0.17194688 -0.026841803 7
1.463068 0.16255789 -0.39444023 0
1.5224282 0.16888502 0.026737086 8
1.4546095 0.16110483 -0.3378765 1
1.5285726 0.16902582 0.080597378 9
1.4752287 0.16312717 -0.28850323 2
1.5367573 0.16966012 0.13526571 10
1.4883217 0.16404985 -0.23715468 3
1.5311878 0.16850357 0.18914123 11
1.4897796 0.16368426 -0.18402272 4
1.5551697 0.17059408 0.24779223 12
1.493304 0.16380773 -0.13143085 5
1.5768811 0.17269644 0.30834734 13
1.500982 0.16411978 -0.079131976 6
1.5807809 0.17256594 0.36712012 14
1.5247375 0.16617796 -0.026771991 7
1.4674681 0.15786342 -0.39547554 0
1.5269849 0.16399638 0.026806895 8
1.4571007 0.15623368 -0.33832639 1
1.5311393 0.16390197 0.080702052 9
1.4679806 0.15714112 -0.28697675 2
1.535359 0.16408268 0.13509139 10
1.4888853 0.15885325 -0.23715468 3
1.5317667 0.16315801 0.18914123 11
1.486394 0.15806274 -0.18353525 4
1.5400412 0.16349576 0.24528927 12
1.501792 0.15943509 -0.1321281 5
1.5813791 0.16760524 0.30911061 13
1.5055181 0.15929928 -0.079341315 6
1.5736219 0.16622765 0.3653205 14
1.5173535 0.16001606 -0.026632372 7
1.4641671 0.15234049 -0.39444023 0
1.5295371 0.15887141 0.026841803 8
1.4653907 0.15195079 -0.34012601 1
1.5297153 0.15835097 0.080597378 9
1.4685202 0.15201627 -0.28697675 2
1.5279951 0.15790266 0.13439415 10
1.4913958 0.15385814 -0.23746756 3
1.5422 0.1588273 0.19035992 11
1.4968101 0.15388799 -0.18475394 4
1.5327421 0.15731262 0.24403779 12
1.4983752 0.15378538 -0.13177948 5
1.5819544 0.1620845 0.30911061 13
1.5100389 0.15444912 -0.079550661 6
1.5819471 0.1615258 0.36712012 14
1.5139242 0.15431258 -0.026562562 7
1.4839116 0.14916112 -0.3996166 0
1.5221235 0.15273307 0.026702182 8
1.4659121 0.1468343 -0.34012601 1
1.5362208 0.15360679 0.080911398 9
1.4670883 0.14669423 -0.28659514 2
1.5206068 0.15177678 0.1336969 10
1.4840612 0.14786746 -0.23621608 3
1.5407698 0.15324616 0.1901162 11
1.4993136 0.14885865 -0.18499769 4
1.5450765 0.15312989 0.245915 12
1.4909723 0.14776772 -0.13108224 5
1.578603 0.15617445 0.30834734 13
1.5145439 0.14957005 -0.079760008 6
1.5941373 0.15714945 0.36981952 14
1.5224138 0.1498107 -0.026702182 7
1.5126953 0.14645573 0.026527658 8
1.4605966 0.14115435 -0.33877629 1
1.5427117 0.14881836 0.08122541 9
1.4754083 0.14232589 -0.28812161 2
1.5290602 0.14723213 0.13439415 10
1.4786693 0.14211956 -0.23527746 3
1.5353673 0.14729854 0.18938497 11
1.5037762 0.14400223 -0.18548515 4
1.5515008 0.14829986 0.24685362 12
1.4994124 0.14332099 -0.13177948 5
1.5674121 0.1495447 0.30605766 13
1.5031272 0.14314592 -0.079131976 6
1.5269089 0.14487366 -0.026771991 7
1.5251436 0.14228942 0.026737086 8
1.4552594 0.13551264 -0.3374266 1
1.5312898 0.14232296 0.080597378 9
1.4837155 0.13790125 -0.28964809 2
1.5315487 0.14207816 0.13456847 10
1.4909581 0.13804951 -0.23715468 3
1.5338954 0.14175513 0.18914123 11
1.488456 0.13729459 -0.18353525 4
1.548075 0.14252061 0.24622789 12
1.5038716 0.1384511 -0.1321281 5
1.5718348 0.14443135 0.30682087 13
1.5036176 0.13789918 -0.079131976 6
1.5353711 0.14027019 -0.026911611 7
1.5256311 0.1369644 0.026737086 8
1.4615464 0.13095334 -0.33877629 1
1.5277984 0.13662143 0.080388032 9
1.4744103 0.13184726 -0.28773996 2
1.5379888 0.13726212 0.13509139 10
1.4953662 0.13319437 -0.23778042 3
1.5324035 0.13622452 0.18889751 11
1.4889262 0.13209766 -0.18353525 4
1.5446277 0.13676707 0.24560213 12
1.5083151 0.13355182 -0.13247673 5
1.5801519 0.13963535 0.30834734 13
1.512048 0.13335118 -0.079550661 6
1.5199151 0.13351038 -0.026632372 7
1.5300844 0.13198213 0.026806895 8
1.460053 0.12568466 -0.33832639 1
1.5262762 0.13111623 0.080283366 9
1.4709496 0.12636335 -0.28697675 2
1.5305182 0.13121156 0.13439415 10
1.4977902 0.12814319 -0.23809329 3
1.5486931 0.13222517 0.19084741 11
1.4933341 0.12723619 -0.18402272 4
1.5391908 0.13087349 0.24466354 12
1.500831 0.12761183 -0.13177948 5
1.5806297 0.13411832 0.30834734 13
1.5164846 0.12840897 -0.079760008 6
1.5243572 0.12853971 -0.026702182 7
1.5225644 0.12598035 0.026667278 8
1.4643672 0.12090768 -0.33922619 1
1.5386677 0.12677279 0.080911398 9
1.4811648 0.12203506 -0.28888482 2
1.5269955 0.12554207 0.13404553 10
1.484447 0.12178313 -0.23590319 3
1.5550804 0.12730539 0.19157861 11
1.5056401 0.12299274 -0.18548515 4
1.5494825 0.12630191 0.24622789 12
1.5012673 0.12237178 -0.13177948 5
1.5771748 0.12828135 0.30758414 13
1.520905 0.12343813 -0.079969354 6
1.5247966 0.12321752 -0.026702182 7
1.5190079 0.12034855 0.026597466 8
1.4608949 0.1154885 -0.33832639 1
1.5490348 0.12245625 0.081434757 9
1.4874533 0.11732683 -0.2900297 2
1.531397 0.12052333 0.13439415 10
1.484863 0.11660101 -0.23590319 3
1.5396831 0.12063548 0.18962872 11
1.5021023 0.11742651 -0.18499769 4
1.5538316 0.12147044 0.24685362 12
1.49374 0.11651123 -0.13108224 5
1.573698 0.12247162 0.30682087 13
1.5133616 0.11750954 -0.079550661 6
1.5371591 0.11908823 -0.026911611 7
1.5233866 0.11561365 0.026667278 8
1.4534972 0.11005513 -0.33652678 1
1.5335201 0.11584438 0.080597378 9
1.4858961 0.11198598 -0.28964809 2
1.5397553 0.11577562 0.13509139 10
1.4891812 0.11197291 -0.23652895 3
1.5400748 0.11552861 0.18962872 11
1.494565 0.11185241 -0.18402272 4
1.5601557 0.11648812 0.24779223 12
1.5100327 0.11247998 -0.13247673 5
1.5780114 0.11754362 0.30758414 13
1.5177264 0.11278673 -0.079760008 6
1.533577 0.1134264 -0.026841803 7
1.5357478 0.11116185 0.026876707 8
1.4577599 0.10526112 -0.3374266 1
1.5259469 0.10991629 0.080178693 9
1.4686357 0.10578809 -0.28621352 2
1.5441054 0.11095416 0.13544002 10
1.4935035 0.10705608 -0.23715468 3
1.5404687 0.11015164 0.18962872 11
1.4989065 0.10691751 -0.1845102 4
1.5487305 0.11019981 0.245915 12
1.5103973 0.10747222 -0.13247673 5
1.5940787 0.11314619 0.31063706 13
1.5101417 0.10692427 -0.079341315 6
1.5219951 0.1072289 -0.026632372 7
1.5401163 0.1060748 0.026946515 8
1.4697833 0.10097363 -0.34012601 1
1.5422618 0.10568246 0.081016071 9
1.468996 0.10066196 -0.28621352 2
1.5345445 0.10488383 0.13456847 10
1.5017514 0.10237915 -0.23840615 3
1.5448048 0.10504338 0.1901162 11
1.5032318 0.10195296 -0.18499769 4
1.5431931 0.10439268 0.2449764 12
1.5028119 0.101661 -0.13177948 5
1.5964227 0.10771362 0.31101868 13
1.5184768 0.10218826 -0.079760008 6
1.5223601 0.10191582 -0.026632372 7
1.5324955 0.10017671 0.026806895 8
1.4779053 0.096349224 -0.34192562 1
1.5466075 0.10055706 0.08122541 9
1.4712976 0.095660575 -0.28659514 2
1.5289366 0.099140197 0.13404553 10
1.4863296 0.09611696 -0.23590319 3
1.549124 0.099906221 0.19060367 11
1.4996164 0.096450567 -0.1845102 4
1.5415769 0.098879181 0.24466354 12
1.4952043 0.095904775 -0.13108224 5
1.5267972 0.09739536 -0.080178693 6
1.5266979 0.096854709 -0.026702182 7
1.5228565 0.094208933 0.026632372 8
1.4840677 0.091549344 -0.34327531 1
1.5449555 0.095035486 0.081120737 9
1.4755416 0.090765603 -0.28735834 2
1.5332507 0.094046153 0.13439415 10
1.4827126 0.09068653 -0.23527746 3
1.5415376 0.094015114 0.18962872 11
1.5118326 0.091937914 -0.18597263 4
1.5636019 0.094812237 0.24810509 12
1.503485 0.091166921 -0.13177948 5
1.5111787 0.091104038 -0.079341315 6
1.5350111 0.092003837 -0.026841803 7
1.5351537 0.08959195 0.026841803 8
1.5412744 0.089679256 0.080911398 9
1.4856491 0.086182535 -0.28926644 2
1.5494822 0.089614168 0.13578865 10
1.4987969 0.086420335 -0.23778042 3
1.5418564 0.088633165 0.18962872 11
1.5081806 0.086433239 -0.18548515 4
1.5579913 0.08928787 0.24716648 12
1.5117506 0.086373135 -0.13247673 5
1.5074995 0.085602351 -0.079131976 6
1.5393007 0.08713866 -0.026911611 7
1.5374391 0.084610164 0.026876707 8
1.5375896 0.08408013 0.080702052 9
1.4761393 0.080461457 -0.28735834 2
1.5458065 0.083989047 0.13544002 10
1.4990753 0.081449971 -0.23778042 3
1.5461062 0.083733968 0.1901162 11
1.5044945 0.081217028 -0.18499769 4
1.5563209 0.083743103 0.24685362 12
1.5120429 0.081095211 -0.13247673 5
1.5157527 0.081028886 -0.079550661 6
1.531608 0.081340358 -0.026771991 7
1.5417192 0.079449132 0.026946515 8
1.5458522 0.079121865 0.081120737 9
1.4744372 0.07546661 -0.28697675 2
1.5381175 0.078456104 0.13474278 10
1.4993505 0.076216325 -0.23778042 3
1.5523368 0.078638166 0.19084741 11
1.5067514 0.076065265 -0.18524142 4
1.5467395 0.07781335 0.24528927 12
1.5043571 0.075417981 -0.13177948 5
1.5240054 0.076136366 -0.079969354 6
1.5318826 0.075993873 -0.026771991 7
1.5339975 0.073682867 0.026806895 8
1.5481139 0.073820062 0.08122541 9
1.476665 0.070154108 -0.28735834 2
1.5383947 0.072818428 0.13474278 10
1.4976467 0.070627704 -0.23746756 3
1.5545847 0.073312856 0.19109115 11
1.5129565 0.07108435 -0.18597263 4
1.560814 0.073060624 0.24747935 12
1.5046113 0.070166655 -0.13177948 5
1.5242742 0.070549704 -0.079969354 6
1.5321385 0.070646465 -0.026771991 7
1.528264 0.067794472 0.026702182 8
1.5503575 0.068503439 0.081330083 9
1.482785 0.065259136 -0.28850323 2
1.5386395 0.06744758 0.13474278 10
1.486043 0.064882122 -0.23559032 3
1.5488932 0.067356132 0.19035992 11
1.5131953 0.065803751 -0.18597263 4
1.5551391 0.067355081 0.24654076 12
1.5088282 0.065085478 -0.1321281 5
1.5245111 0.065228887 -0.079969354 6
1.5403674 0.065638006 -0.026911611 7
1.5304785 0.062808491 0.026737086 8
1.5485806 0.063279919 0.08122541 9
1.4928014 0.060740352 -0.29041129 2
1.544827 0.062587164 0.13526571 10
1.4980928 0.060431175 -0.23746756 3
1.5411741 0.061900355 0.18938497 11
1.5094383 0.060625702 -0.18548515 4
1.563249 0.062513724 0.24779223 12
1.5090357 0.060081251 -0.1321281 5
1.5167363 0.05985833 -0.079550661 6
1.5485692 0.060843203 -0.027051231 7
1.542668 0.058184683 0.026946515 8
1.5428046 0.0576513 0.080911398 9
1.4812233 0.055350143 -0.28812161 2
1.550999 0.057685714 0.13578865 10
1.510129 0.055901732 -0.23934476 3
1.5453384 0.056935787 0.18987246 11
1.5036894 0.055137783 -0.18475394 4
1.5516132 0.056623925 0.245915 12
1.519182 0.055440389 -0.13299966 5
1.5209183 0.054972179 -0.079760008 6
1.528788 0.054723047 -0.026702182 7
1.5448602 0.052868132 0.026981421 8
1.5449924 0.052332755 0.081016071 9
1.4853318 0.050311901 -0.28888482 2
1.5432259 0.052003283 0.13509139 10
1.5103148 0.050630376 -0.23934476 3
1.5514798 0.051739279 0.19060367 11
1.5078408 0.050019827 -0.18524142 4
1.5114011 0.049874589 -0.13230242 5
1.533078 0.050053488 -0.080388032 6
1.532967 0.049514953 -0.026771991 7
1.5390391 0.047291316 0.026876707 8
1.5511546 0.04712167 0.081330083 9
1.4855063 0.044867881 -0.28888482 2
1.5374236 0.046435978 0.13456847 10
1.5025845 0.045120519 -0.23809329 3
1.5595877 0.046560563 0.19157861 11
1.5159431 0.044992778 -0.18621638 4
1.5115737 0.044335026 -0.13230242 5
1.5372441 0.044550195 -0.080597378 6
1.5371283 0.04427835 -0.026841803 7
1.5352042 0.041541561 0.026806895 8
1.5553101 0.041542348 0.08153943 9
1.493511 0.039630856 -0.29041129 2
1.5435585 0.040958885 0.13509139 10
1.4987905 0.039509192 -0.23746756 3
1.5498258 0.040583856 0.19035992 11
1.522051 0.039590728 -0.18694758 4
1.5157094 0.038896371 -0.13265103 5
1.5214241 0.03851163 -0.079760008 6
1.5372802 0.038644537 -0.026841803 7
1.533347 0.035867322 0.026771991 8
1.5414685 0.035788864 0.080806725 9
1.4995284 0.034553282 -0.29155618 2
1.5516658 0.035482991 0.13578865 10
1.5028749 0.03410555 -0.23809329 3
1.5440105 0.034769461 0.18962872 11
1.5082879 0.033965025 -0.18524142 4
1.515836 0.033605643 -0.13265103 5
1.5175556 0.033113092 -0.079550661 6
1.549401 0.033538166 -0.027051231 7
1.5374562 0.030862937 0.026841803 8
1.5355883 0.030557338 0.080492713 9
1.493746 0.02946391 -0.29041129 2
1.5557588 0.030415483 0.13613726 10
1.5108796 0.029274302 -0.23934476 3
1.5540409 0.029839262 0.19084741 11
1.5123615 0.029038975 -0.18572889 4
1.5159391 0.028578343 -0.13265103 5
1.5216509 0.028154714 -0.079760008 6
1.5335089 0.028106393 -0.026771991 7
1.5475471 0.025932206 0.027016325 8
1.5436735 0.025328338 0.080911398 9
1.5478827 0.025127187 0.13544002 10
1.5149186 0.024327619 -0.23997049 3
1.5640556 0.024843663 0.1920661 11
1.5164235 0.023821628 -0.18621638 4
1.5200099 0.02361335 -0.13299966 5
1.5297241 0.023229465 -0.080178693 6
1.5295987 0.022693541 -0.026702182 7
1.5436292 0.020476641 0.026946515 8
1.5557351 0.020094857 0.08153943 9
1.5399921 0.019621968 0.13474278 10
1.5070934 0.018939724 -0.23871902 3
1.5700874 0.019458063 0.1927973 11
1.5164975 0.018528497 -0.18621638 4
1.5081295 0.018163018 -0.13195379 5
1.53379 0.017936621 -0.080388032 6
1.5376669 0.017445171 -0.026841803 7
1.5356928 0.015010389 0.026806895 8
1.5637844 0.014739086 0.081958115 9
1.5440358 0.014282722 0.13509139 10
1.5031999 0.013643332 -0.23809329 3
1.5602207 0.013888549 0.19157861 11
1.5244929 0.013303705 -0.18719132 4
1.5161551 0.012702424 -0.13265103 5
1.5298491 0.01254941 -0.080178693 6
1.545717 0.012140755 -0.026981421 7
1.5397352 0.0096751852 0.026876707 8
1.5518429 0.0092088431 0.081330083 9
1.5540395 0.00867943 0.13596295 10
1.5071905 0.0081547284 -0.23871902 3
1.5483494 0.0083774207 0.1901162 11
1.5126196 0.0079208305 -0.18572889 4
1.5201751 0.007429047 -0.13299966 5
1.5258902 0.006924361 -0.079969354 6
1.5497493 0.00676216 -0.027051231 7
1.5537581 0.0040672212 0.027121039 8
1.5458746 0.0035077396 0.081016071 9
1.5580453 0.003262698 0.13631159 10
1.5111605 0.0029015047 -0.23934476 3
1.5185938 0.0023849942 -0.18646011 4
1.5241768 0.0018624822 -0.13334829 5
1.5259051 0.0015975614 -0.079969354 6
1.5417649 0.0010767558 -0.026911611 7
1.5497634 -0.0013524239 0.027051231 8
1.5558636 -0.001900847 0.08153943 9
1.5480847 -0.0024317277 0.13544002 10
1.5131363 -0.0026409235 -0.23965763 3
1.5146227 -0.0029078701 -0.18597263 4
1.5162045 -0.0034401647 -0.13265103 5
1.5338897 -0.0040157223 -0.080388032 6
1.5417593 -0.0043054149 -0.026911611 7
1.5477507 -0.006483241 0.027016325 8
1.5518543 -0.0070421393 0.081330083 9
1.5440847 -0.0072763818 0.13509139 10
1.5111452 -0.0073849075 -0.23934476 3
1.5245301 -0.0079824934 -0.18719132 4
1.5122015 -0.0081818774 -0.13230242 5
1.537864 -0.0088575585 -0.080597378 6
1.5417365 -0.0094180489 -0.026911611 7
1.5397202 -0.011824435 0.026876707 8
1.5658005 -0.012571322 0.082062788 9
1.5520192 -0.012731573 0.13578865 10
1.5051843 -0.012610097 -0.23840615 3
1.528463 -0.013338694 -0.1876788 4
1.5181406 -0.013513599 -0.13282534 5
1.529835 -0.01415175 -0.080178693 6
1.5496926 -0.014876439 -0.027051231 7
1.5436686 -0.017243661 0.026946515 8
1.5577587 -0.017944884 0.081644095 9
1.5599344 -0.018242244 0.13648589 10
1.5090816 -0.017910983 -0.2390319 3
1.5164975 -0.018528434 -0.18621638 4
1.5300376 -0.018960947 -0.13387121 5
1.5257821 -0.019440893 -0.079969354 6
1.5576295 -0.020390486 -0.027190849 7
1.5535964 -0.022778545 0.027121039 8
1.5496984 -0.023262458 0.08122541 9
1.5558767 -0.023626816 0.13613726 10
1.5188856 -0.023330243 -0.24059623 3
1.5184083 -0.023853062 -0.18646011 4
1.5299621 -0.024301661 -0.13387121 5
1.5376869 -0.024961254 -0.080597378 6
1.5375545 -0.025495956 -0.026841803 7
1.5515079 -0.028165173 0.027086135 8
1.5555986 -0.028782615 0.08153943 9
1.5498089 -0.028946077 0.13561434 10
1.518795 -0.028632 -0.24059623 3
1.5222852 -0.029229371 -0.18694758 4
1.519908 -0.029449094 -0.13299966 5
1.541584 -0.030407403 -0.080806725 6
1.5454533 -0.031023404 -0.026981421 7
1.5533996 -0.033624053 0.027121039 8
1.5594821 -0.034300331 0.081748769 9
1.5496984 -0.034355745 0.13561434 10
1.5301124 -0.034723103 -0.18792254 4
1.5197959 -0.034754384 -0.13299966 5
1.5494554 -0.035973784 -0.08122541 6
1.5453357 -0.036417853 -0.026981421 7
