# .PCD v0.7 - Point Cloud Data file format
VERSION 0.7
FIELDS x y z intensity
SIZE 4 4 4 4
TYPE F F F F
COUNT 1 1 1 1
WIDTH 848
HEIGHT 1
VIEWPOINT 0 0 0 1 0 0 0
POINTS 848
DATA ascii
2.091363 0.99305165 -0.20254995 5
2.0944722 0.9864769 -0.20254995 5
2.0834591 0.97241902 -0.20115545 5
2.0741827 0.95928562 -0.19993527 5
2.0757072 0.9512099 -0.19976096 5
2.0790148 0.94395894 -0.19976096 5
2.0768461 0.93424338 -0.19923802 5
2.0940721 0.93365455 -0.28151822 4
2.0764549 0.92536652 -0.1988894 5
2.0809748 0.91912222 -0.27932456 4
2.0687368 0.91328436 -0.19784354 5
2.0737376 0.90685523 -0.19801784 5
2.0798984 0.90177673 -0.27834961 4
2.0805461 0.90119618 -0.19836646 5
2.1004522 0.90938205 -0.11995402 6
2.072089 0.88981175 -0.27688718 4
2.090847 0.89743477 -0.19906372 5
2.077915 0.89102536 -0.11848862 6
2.0824895 0.88568157 -0.27786213 4
2.0756311 0.88233584 -0.19732061 5
2.0920424 0.88845128 -0.11911664 6
2.0892274 0.87994736 -0.27834961 4
2.071353 0.87199336 -0.19662334 5
2.091449 0.87959415 -0.1189073 6
2.0922861 0.87264967 -0.27834961 4
2.0780623 0.86629039 -0.19697197 5
2.088975 0.86998504 -0.11859328 6
2.0957165 0.86636174 -0.35917357 3
2.0806413 0.85927838 -0.2763997 4
2.0847569 0.86055225 -0.19732061 5
2.0883067 0.86116451 -0.11838394 6
2.0987279 0.85904056 -0.35917357 3
2.0799532 0.85050821 -0.27591223 4
2.0840592 0.85176259 -0.19697197 5
2.0912998 0.85387015 -0.11838394 6
2.0888989 0.84651548 -0.35698348 3
2.0865896 0.84473187 -0.2763997 4
2.0759385 0.8399983 -0.19592611 5
2.097971 0.84806138 -0.11859328 6
2.075341 0.83259964 -0.35416767 3
2.0895257 0.83744258 -0.2763997 4
2.0714595 0.82978356 -0.19522884 5
2.0972104 0.83924836 -0.11838394 6
2.0672195 0.82097507 -0.35229045 3
2.0924356 0.83014518 -0.2763997 4
2.0743437 0.82254726 -0.19522884 5
2.0852714 0.82603949 -0.11754657 6
2.073607 0.81556183 -0.35291618 3
2.0803964 0.81739378 -0.2744498 4
2.0846212 0.81821275 -0.19592611 5
2.0879996 0.81911933 -0.11754657 6
2.0801225 0.80975217 -0.35354191 3
2.0869374 0.81156522 -0.27493724 4
2.0836086 0.80985326 -0.19557749 5
2.0945699 0.81327111 -0.1177559 6
2.0992732 0.81425548 -0.039302818 7
2.0792501 0.80106544 -0.35291618 3
2.0823464 0.80142498 -0.27396232 4
2.0752654 0.79828268 -0.19453162 5
2.0973957 0.80595523 -0.1177559 6
2.0909016 0.8026222 -0.03909339 7
2.0709593 0.78957981 -0.35103899 3
2.0851316 0.79415071 -0.27396232 4
2.0705914 0.78819811 -0.19383438 5
2.10393 0.8000493 -0.11796526 6
2.0955598 0.79602933 -0.039128296 7
2.0643785 0.77965194 -0.42893866 2
2.0700059 0.78095174 -0.35041323 3
2.0916064 0.78826696 -0.2744498 4
2.077059 0.78237057 -0.19418299 5
2.0917556 0.78707284 -0.11712788 6
2.1058133 0.79152334 -0.039267913 7
2.0726047 0.77450323 -0.43008351 2
2.080122 0.77648509 -0.35166472 3
2.083185 0.7768001 -0.27298734 4
2.0835109 0.77650756 -0.19453162 5
2.0832596 0.77558577 -0.11649985 6
2.1046779 0.78314155 -0.039198104 7
2.0716126 0.76590157 -0.42932025 2
2.07898 0.76821303 -0.35103899 3
2.0820251 0.76851237 -0.27249986 4
2.0824699 0.76785195 -0.19418299 5
2.0895684 0.7700538 -0.11670919 6
2.0998924 0.77302724 -0.039058488 7
2.0722971 0.75835341 -0.42893866 2
2.0797932 0.76027346 -0.3507261 3
2.088424 0.76260233 -0.27298734 4
2.0776508 0.75784653 -0.19348574 5
2.0959964 0.76412386 -0.11691854 6
2.0950623 0.76295495 -0.038918864 7
2.0750625 0.75075346 -0.42893866 2
2.0714195 0.74861664 -0.34884888 3
2.0910733 0.75530809 -0.27298734 4
2.072787 0.74788415 -0.1927885 5
2.1062989 0.75914472 -0.11733723 6
2.097713 0.75563657 -0.038918864 7
2.0758224 0.74284345 -0.42855701 2
2.0740197 0.74138188 -0.34884888 3
2.0938277 0.74763834 -0.27298734 4
2.0753849 0.74064463 -0.1927885 5
2.0938859 0.74642211 -0.11649985 6
2.1078725 0.75099456 -0.039058488 7
2.0765519 0.73493844 -0.42817542 2
2.0764668 0.73450059 -0.34884888 3
2.081322 0.73540062 -0.27103746 4
2.0817156 0.73472142 -0.19313712 5
2.0888155 0.73681724 -0.11608116 6
2.102937 0.74097341 -0.038918864 7
2.1078727 0.73899257 0.03898868 8
2.0715659 0.72545314 -0.42664891 2
2.0790181 0.7272473 -0.34884888 3
2.0801282 0.72682083 -0.27054995 4
2.0954263 0.73175573 -0.19418299 5
2.0951462 0.73083752 -0.11629051 6
2.1017334 0.73231375 -0.038849056 7
2.0972137 0.72704464 0.038744342 8
2.0751998 0.71900851 -0.50703967 1
2.0666652 0.71564746 -0.42512247 2
2.0815439 0.71998614 -0.34884888 3
2.0864055 0.72085142 -0.27103746 4
2.0753682 0.71663368 -0.19209124 5
2.0976846 0.72351909 -0.11629051 6
2.0929334 0.72106409 -0.038639627 7
2.107305 0.72231472 0.038883962 8
2.0740099 0.71049666 -0.50613987 1
2.0765803 0.71097225 -0.42664891 2
2.0765684 0.71015847 -0.34759742 3
2.0926657 0.71484888 -0.27152494 4
2.0853996 0.71195924 -0.1927885 5
2.1039774 0.7174831 -0.11649985 6
2.0992236 0.71504301 -0.038709439 7
2.0908747 0.70853597 0.038534917 8
2.0709403 0.70137787 -0.50479019 1
2.0846281 0.70560807 -0.4277938 2
2.0715494 0.70037431 -0.34634593 3
2.091387 0.70626897 -0.27103746 4
2.0916479 0.70594931 -0.19313712 5
2.0913286 0.70502961 -0.11566247 6
2.1054971 0.70898777 -0.038779248 7
2.1009197 0.70377427 0.038674533 8
2.0715277 0.69352639 -0.50434029 1
2.0814931 0.69645762 -0.42664891 2
2.073981 0.69314033 -0.34634593 3
2.0787759 0.69393635 -0.26908755 4
2.0978787 0.69990635 -0.19348574 5
2.0937769 0.6977247 -0.11566247 6
2.1078365 0.70200217 -0.038779248 7
2.1070383 0.69806063 0.038744342 8
2.0608666 0.68236482 -0.50119096 1
2.0764558 0.68672234 -0.42512247 2
2.0800197 0.68749827 -0.34697169 3
2.084836 0.68828309 -0.269575 4
2.1040936 0.69382644 -0.19383438 5
2.0960791 0.69077802 -0.11566247 6
2.0988772 0.69088811 -0.038569819 7
2.1056614 0.68945742 0.038674533 8
2.065088 0.67577237 -0.50164086 1
2.0637934 0.67495114 -0.42206952 2
2.0861626 0.68145972 -0.34759742 3
2.094774 0.68346471 -0.27054995 4
2.0988061 0.68437397 -0.19313712 5
2.1022758 0.68469357 -0.11587181 6
2.0935512 0.68144792 -0.038430199 7
2.1022286 0.68062246 0.038569819 8
2.0728798 0.67072082 -0.50299054 1
2.0792136 0.67196864 -0.42474085 2
2.0846512 0.67332411 -0.34697169 3
2.093251 0.675295 -0.27006248 4
2.0898037 0.67337763 -0.19209124 5
2.1007326 0.67649448 -0.11566247 6
2.0997243 0.67536098 -0.038500007 7
2.0912592 0.66901553 0.038325485 8
2.0677836 0.66110766 -0.50119096 1
2.0758202 0.66327775 -0.42359596 2
2.0756974 0.66244012 -0.34509447 3
2.0955956 0.66798353 -0.27006248 4
2.0882285 0.66523486 -0.19174263 5
2.0992749 0.66794568 -0.11545313 6
2.1096921 0.67044944 -0.038639627 7
2.0993023 0.66351902 0.038430199 8
2.0663626 0.65271127 -0.50029117 1
2.0781226 0.65602821 -0.42359596 2
2.0742292 0.65400195 -0.34446874 3
2.0903409 0.6582799 -0.26908755 4
2.090538 0.65794092 -0.19174263 5
2.0939722 0.65821862 -0.11503445 6
2.1120195 0.66308159 -0.038639627 7
2.0689166 0.64637727 -0.58078998 0
2.1054232 0.65737951 0.038500007 8
2.0704885 0.64607519 -0.50074106 1
2.0729034 0.64643174 -0.42206952 2
2.0878155 0.65028262 -0.34634593 3
2.077462 0.64626139 -0.26713762 4
2.1042371 0.65418899 -0.1927885 5
2.0924423 0.64972007 -0.11482509 6
2.1027474 0.65251869 -0.038430199 7
2.0674684 0.63801157 -0.57975465 0
2.1056807 0.64980376 0.038465101 8
2.0744815 0.6397804 -0.50119096 1
2.1090677 0.65004271 0.11566247 9
2.0713947 0.63803566 -0.42130631 2
2.0899603 0.64335603 -0.34634593 3
2.0833883 0.64053583 -0.26762509 4
2.0874619 0.64099091 -0.19104539 5
2.1022227 0.64512193 -0.11524379 6
2.1011889 0.64400226 -0.038360391 7
2.064029 0.62946296 -0.57820177 0
2.0945463 0.63836914 0.038220771 8
2.0804307 0.63367027 -0.50209075 1
2.1094136 0.64209467 0.1155578 9
2.0791335 0.63287759 -0.42245111 2
2.0770738 0.63145959 -0.34384301 3
2.0932093 0.63556695 -0.26860005 4
2.0857627 0.6329084 -0.19069678 5
2.1082845 0.63893884 -0.11545313 6
2.1034241 0.63666332 -0.038360391 7
2.081012 0.62671036 -0.58234286 0
2.0948472 0.63047713 0.038185868 8
2.0677006 0.62191445 -0.49849153 1
2.1192925 0.63702869 0.11597649 9
2.0813296 0.62561768 -0.42245111 2
2.0792651 0.62420589 -0.34384301 3
2.0954154 0.62825584 -0.26860005 4
2.0955937 0.62791079 -0.191394 5
2.0990214 0.6281395 -0.11482509 6
2.113297 0.63160902 -0.038500007 7
2.0776322 0.6177901 -0.58078998 0
2.0989516 0.62373191 0.038220771 8
2.0661228 0.61358291 -0.49759173 1
2.1022472 0.62431091 0.11492977 9
2.0910296 0.62058246 -0.42397761 2
2.0814316 0.61694354 -0.34384301 3
2.0861745 0.6175583 -0.26713762 4
2.0939517 0.61946207 -0.19104539 5
2.0973701 0.61967832 -0.11461575 6
2.11538 0.62459701 -0.038500007 7
2.0871904 0.61271107 -0.58286053 0
2.1086838 0.61902064 0.038360391 8
2.0718858 0.60782564 -0.49849153 1
2.1005807 0.61584455 0.11472043 9
2.0781107 0.60886401 -0.42092466 2
2.0834661 0.61003828 -0.34384301 3
2.0767791 0.60729343 -0.26567519 4
2.0999262 0.61326551 -0.191394 5
2.0955791 0.61160016 -0.11440641 6
2.0983496 0.61161286 -0.038150962 7
2.0688007 0.59986871 -0.5771665 0
2.1108317 0.61165559 0.038360391 8
2.0702515 0.59950501 -0.49759173 1
2.1064482 0.60998684 0.11492977 9
2.0763464 0.6008783 -0.42016143 2
2.0893781 0.60385823 -0.34446874 3
2.0865157 0.60224187 -0.26665017 4
2.0904622 0.6029858 -0.19034813 5
2.1053784 0.60649234 -0.11482509 6
2.1003661 0.60465157 -0.038150962 7
2.0671678 0.59158003 -0.57613122 0
2.1032357 0.60190195 0.038185868 8
2.0759752 0.59370857 -0.49849153 1
2.1162457 0.60482609 0.11534845 9
2.0727677 0.59200877 -0.41901657 2
2.0875704 0.59584141 -0.34384301 3
2.0961373 0.59749651 -0.26762509 4
2.0925541 0.59568548 -0.19034813 5
2.1112201 0.60060084 -0.11503445 6
2.0986166 0.59622365 -0.038081151 7
2.0711813 0.58452463 -0.57664889 0
2.0920591 0.59002149 0.03794153 8
2.0744882 0.58467627 -0.49759173 1
2.1184483 0.59706599 0.11534845 9
2.0824828 0.58653611 -0.42054302 2
2.0822361 0.58568335 -0.34259152 3
2.0944912 0.58873492 -0.26713762 4
2.0947235 0.58801132 -0.19034813 5
2.1058183 0.59033287 -0.11461575 6
2.1046391 0.58960623 -0.038150962 7
2.0824132 0.58024532 -0.57923704 0
2.0940039 0.58308119 0.03794153 8
2.0613966 0.57361388 -0.49399251 1
2.1107957 0.58735996 0.11482509 9
2.0881996 0.5806796 -0.42130631 2
2.0841668 0.57877457 -0.34259152 3
2.0887806 0.57966316 -0.26616266 4
2.1043422 0.58319068 -0.19104539 5
2.0962148 0.58015054 -0.11398773 6
2.1142919 0.58475631 -0.038290579 7
2.078738 0.57179886 -0.57768416 0
2.1036391 0.57825357 0.038081151 8
2.0708036 0.56884003 -0.49579209 1
2.1032033 0.5773443 0.11430173 9
2.0825405 0.5716722 -0.41977981 2
2.0898848 0.572905 -0.34321725 3
2.0793037 0.56922299 -0.26470023 4
2.1024206 0.57515818 -0.19069678 5
2.1019807 0.57424814 -0.11419707 6
2.1047454 0.57421404 -0.038081151 7
2.0676701 0.56099868 -0.57406068 0
2.1095047 0.57195401 0.038150962 8
2.0746579 0.56211722 -0.49624202 1
2.1090617 0.57104367 0.11451109 9
2.0807333 0.56337357 -0.41901657 2
2.1117117 0.57136571 0.191394 10
2.091872 0.56560588 -0.34321725 3
2.0966096 0.56610155 -0.26665017 4
2.0967212 0.5657391 -0.18999951 5
2.1039722 0.56690776 -0.11419707 6
2.1028748 0.56582493 -0.038011342 7
2.0658832 0.5527795 -0.57302535 0
2.0998971 0.56148708 0.03794153 8
2.0822551 0.55638152 -0.49759173 1
2.1129713 0.56419384 0.11461575 9
2.0788937 0.5550946 -0.41825336 2
2.1098435 0.56296307 0.19104539 10
2.0900164 0.55728197 -0.34259152 3
2.0947363 0.55775744 -0.26616266 4
2.0871313 0.55534244 -0.18895365 5
2.1097989 0.56058532 -0.11440641 6
2.1125681 0.56053287 -0.038150962 7
2.0696683 0.54605711 -0.57354301 0
2.0960433 0.55262572 0.03783682 8
2.0653405 0.54414433 -0.49309272 1
2.1129968 0.55630577 0.11451109 9
2.0846157 0.54883361 -0.41901657 2
2.1117954 0.55559635 0.19104539 10
2.0804863 0.54696995 -0.34071434 3
2.0966699 0.55044347 -0.26616266 4
2.0967655 0.55007637 -0.18965089 5
2.1040146 0.55119318 -0.11398773 6
2.1106429 0.55214244 -0.038081151 7
2.0771704 0.54028863 -0.57509595 0
2.1057012 0.54731745 0.037976436 8
2.0709999 0.53791082 -0.49399251 1
2.1128969 0.54879296 0.11440641 9
2.0922196 0.54303372 -0.42016143 2
2.1233647 0.55072188 0.19191694 10
2.0862072 0.54069495 -0.34134007 3
2.0908918 0.54113138 -0.26518771 4
2.1025307 0.543751 -0.18999951 5
2.0981903 0.5418483 -0.11356904 6
2.1163349 0.54613906 -0.038150962 7
2.0790439 0.53303415 -0.57509595 0
2.1055677 0.53983438 0.03794153 8
2.0765476 0.53200793 -0.4948923 1
2.1109297 0.54042506 0.11419707 9
2.0864947 0.53378034 -0.41863495 2
2.1233439 0.54281259 0.19174263 10
2.0918164 0.53475285 -0.34196579 3
2.0849814 0.53223026 -0.26421279 4
2.1044157 0.53640991 -0.18999951 5
2.0999756 0.5348869 -0.11356904 6
2.1104763 0.53677815 -0.038011342 7
2.0751812 0.52471656 -0.57354301 0
2.1055009 0.531991 0.037906628 8
2.0783918 0.52475661 -0.4948923 1
2.1128035 0.53305262 0.11419707 9
2.084446 0.52589816 -0.41787171 2
2.1174049 0.5338195 0.19104539 10
2.097501 0.5284133 -0.34259152 3
2.094527 0.52688557 -0.26518771 4
2.0926573 0.52602798 -0.18877934 5
2.1095788 0.52949768 -0.11398773 6
2.1045783 0.52746278 -0.037871722 7
2.0713763 0.51606894 -0.57199007 0
2.1034636 0.52367342 0.03783682 8
2.0877755 0.51937973 -0.49669194 1
2.1224041 0.52760208 0.11461575 9
2.0862689 0.51861936 -0.41787171 2
2.1115203 0.52450526 0.19034813 10
2.0916643 0.51918441 -0.34134007 3
2.0924995 0.51861745 -0.26470023 4
2.0867448 0.5168035 -0.18808208 5
2.1152916 0.52309102 -0.11419707 6
2.1044652 0.51963329 -0.03783682 7
2.0769176 0.50975579 -0.57302535 0
2.0975103 0.51442188 0.0376972 8
2.0763264 0.50884235 -0.49354258 1
2.1164732 0.51828951 0.11419707 9
2.0880666 0.51133317 -0.41787171 2
2.1210799 0.51902527 0.19104539 10
2.0800319 0.50859612 -0.33914998 3
2.0981541 0.5122512 -0.26518771 4
2.0943427 0.5109334 -0.18860501 5
2.1132238 0.51475817 -0.11398773 6
2.1120954 0.51370233 -0.03794153 7
2.0768068 0.50204837 -0.57250774 0
2.1051242 0.50850612 0.037801914 8
2.0686183 0.49930575 -0.49129307 1
2.1085618 0.50855654 0.11367371 9
2.0936558 0.50496143 -0.41863495 2
2.1112568 0.50881767 0.18999951 10
2.0913968 0.50364524 -0.34071434 3
2.0922091 0.50306827 -0.26421279 4
2.0941763 0.50315464 -0.18843071 5
2.1033547 0.50458348 -0.1133597 6
2.1158204 0.50679189 -0.037976436 7
2.0823052 0.49569112 -0.57354301 0
2.1127231 0.5025425 0.037906628 8
2.0703485 0.49208134 -0.49129307 1
2.1044943 0.49980909 0.1133597 9
2.0877652 0.49583599 -0.41710848 2
2.1168971 0.50236446 0.19034813 10
2.0931423 0.49634126 -0.34071434 3
2.0920208 0.49530414 -0.26396903 4
2.1017368 0.49721712 -0.18895365 5
2.1051035 0.49723774 -0.1133597 6
2.102006 0.49573156 -0.0376972 7
2.0915463 0.49018317 -0.57561362 0
2.1125176 0.49470812 0.037871722 8
2.0834386 0.48751596 -0.49399251 1
2.1140051 0.49427927 0.11377838 9
2.0780129 0.48586386 -0.41481876 2
2.1108775 0.4931584 0.18965089 10
2.0987091 0.48993033 -0.34134007 3
2.1361818 0.498285 0.26933128 11
2.1072698 0.49115217 -0.26567519 4
2.0937567 0.48761842 -0.18808208 5
2.1146078 0.49169531 -0.11377838 6
2.1056719 0.48884284 -0.037732106 7
2.1005912 0.48418742 0.037627388 8
2.0813298 0.47936511 -0.49309272 1
2.1214719 0.48861051 0.11409239 9
2.0873492 0.48036894 -0.41634527 2
2.1106443 0.48534101 0.18947658 10
2.0888553 0.47994685 -0.33946282 3
2.1262999 0.48815966 0.26786885 11
2.1031668 0.48246238 -0.26494396 4
2.0954463 0.48030633 -0.18808208 5
2.1124172 0.48342031 -0.11356904 6
2.1150787 0.48364094 -0.037871722 7
2.098285 0.47633398 0.03755758 8
2.0772064 0.47116771 -0.491743 1
2.1231644 0.48120266 0.11409239 9
2.0890133 0.47307923 -0.41634527 2
2.1064959 0.47665188 0.18895365 10
2.0865819 0.4721458 -0.33883709 3
2.1220982 0.47979301 0.26713762 11
2.108628 0.47636068 -0.26543146 4
2.0951667 0.47255105 -0.18790779 5
2.1023183 0.47377852 -0.112941 6
2.1167541 0.47625443 -0.037871722 7
2.1038384 0.4698779 0.037627388 8
2.0712306 0.46221673 -0.48994341 1
2.1092362 0.4703106 0.11325502 9
2.0905709 0.46614864 -0.41634527 2
2.1119545 0.47052979 0.18930228 10
2.0920737 0.46571833 -0.33946282 3
2.116009 0.47065797 0.26616266 11
2.1005888 0.46684337 -0.26421279 4
2.1006119 0.46646485 -0.1882564 5
2.1000595 0.46557203 -0.11273166 6
2.1223083 0.46972734 -0.03794153 7
2.1054657 0.46253172 0.037627388 8
2.0728316 0.45498344 -0.48994341 1
2.1108651 0.46294454 0.11325502 9
2.0845146 0.45716548 -0.41481876 2
2.1252608 0.46571407 0.19034813 10
2.0975459 0.45925719 -0.34008855 3
2.1253965 0.46496528 0.26713762 11
2.0905695 0.45696512 -0.26275033 4
2.1061203 0.45997918 -0.18860501 5
2.1055746 0.45908999 -0.112941 6
2.1161194 0.46061444 -0.037801914 7
2.1148858 0.45686784 0.037767008 8
2.0839317 0.44980034 -0.49219292 1
2.1163728 0.45641705 0.11346437 9
2.0860975 0.44988784 -0.41481876 2
2.1151879 0.4557741 0.18930228 10
2.102999 0.45276362 -0.34071434 3
2.1231248 0.45670995 0.26665017 11
2.099915 0.45133284 -0.26372528 4
2.0999215 0.4509508 -0.18790779 5
2.1110704 0.45257416 -0.11315035 6
2.1079373 0.45113403 -0.037627388 7
2.1086431 0.44782254 0.037627388 8
2.0873952 0.44292822 -0.49264279 1
2.1238143 0.45026881 0.11377838 9
2.0857348 0.44219553 -0.41443717 2
2.1089687 0.44673783 0.18860501 10
2.0910382 0.44255731 -0.33852422 3
2.1324747 0.45093828 0.26762509 11
2.1053624 0.4448202 -0.26421279 4
2.087837 0.44073781 -0.1866876 5
2.1204545 0.4468492 -0.11356904 6
2.1114562 0.4441843 -0.03766229 7
2.1082358 0.44005007 0.037592482 8
2.07939 0.43364939 -0.49039328 1
2.1233411 0.44281521 0.11367371 9
2.0872655 0.43491271 -0.41443717 2
2.1163673 0.44059113 0.18912795 10
2.0887024 0.43445042 -0.33789849 3
2.1243176 0.44147268 0.26640642 11
2.1127329 0.43868053 -0.26494396 4
2.0932643 0.43425605 -0.18703623 5
2.106355 0.43620598 -0.11273166 6
2.1187921 0.43839493 -0.037767008 7
2.1136017 0.43386012 0.03766229 8
2.0731807 0.42518589 -0.4885937 1
2.1190035 0.43419933 0.1133597 9
2.0945413 0.4288049 -0.41558203 2
2.1198447 0.43359965 0.18930228 10
2.0959375 0.4287096 -0.33883709 3
2.1199353 0.4332338 0.26567519 11
2.1005614 0.4288916 -0.2632378 4
2.102576 0.42853957 -0.18773346 5
2.10779 0.42921808 -0.11273166 6
2.1203096 0.43099675 -0.037767008 7
2.1151032 0.42647907 0.03766229 8
2.0784729 0.41871664 -0.48949349 1
2.1126001 0.42559174 0.112941 9
2.0882528 0.42030764 -0.41405553 2
2.1271307 0.42774537 0.18982521 10
2.0993578 0.42178038 -0.33914998 3
2.1272736 0.42700267 0.26640642 11
2.0942605 0.41999477 -0.26226285 4
2.1039858 0.42156425 -0.18773346 5
2.1092756 0.42185736 -0.11273166 6
2.119766 0.4235718 -0.037732106 7
2.1204288 0.42024174 0.037732106 8
2.0855849 0.41295785 -0.49084321 1
2.1219103 0.41976464 0.1133597 9
2.0858552 0.41225383 -0.41329232 2
2.1129735 0.41723141 0.18843071 10
2.1046209 0.41558215 -0.33977571 3
2.1306257 0.42032966 0.26665017 11
2.1053798 0.41496748 -0.26348156 4
2.1319726 0.41982231 0.34415585 12
2.1015348 0.41344765 -0.18738484 5
2.1106629 0.41486087 -0.11273166 6
2.1133826 0.41462931 -0.037592482 7
2.1082141 0.40979567 0.037487768 8
2.1234345 0.4119851 0.1133597 9
2.0834272 0.40422297 -0.41252908 2
2.1046371 0.40795696 0.18755916 10
2.0944936 0.40561154 -0.33789849 3
2.1360497 0.41327232 0.26713762 11
2.1088355 0.40762523 -0.26372528 4
2.1179805 0.40900844 0.3416529 12
2.0951405 0.40459776 -0.1866876 5
2.120014 0.40863466 -0.11315035 6
2.1188154 0.40763664 -0.03766229 7
2.103739 0.4013105 0.037383057 8
2.1248598 0.40456986 0.1133597 9
2.1002545 0.39988506 -0.41558203 2
2.1177919 0.40284219 0.18860501 10
2.0861938 0.39645341 -0.33633414 3
2.1257777 0.40359139 0.26567519 11
2.1121957 0.40063196 -0.26396903 4
2.1271589 0.40308443 0.34290439 12
2.100455 0.3980242 -0.18703623 5
2.1135774 0.3997477 -0.11273166 6
2.1241555 0.40097946 -0.037732106 7
2.1090581 0.39469975 0.037452865 8
2.1222632 0.39678764 0.11315035 9
2.1016374 0.39255181 -0.41558203 2
2.1231027 0.39617771 0.18895365 10
2.0972745 0.39097932 -0.33789849 3
2.1193674 0.39471522 0.26470023 11
2.1096783 0.39252979 -0.26348156 4
2.1096666 0.39214668 -0.18773346 5
2.1031775 0.39018106 -0.11210363 6
2.1254735 0.39393368 -0.037732106 7
2.114289 0.38842577 0.037522674 8
2.115777 0.38793677 0.11273166 9
2.0875461 0.3823829 -0.41252908 2
2.1205528 0.38804638 0.18860501 10
2.0985596 0.38402176 -0.33789849 3
2.1245699 0.38839939 0.26518771 11
2.0992517 0.3833912 -0.2620191 4
2.1071026 0.3840661 -0.18738484 5
2.1083899 0.38391954 -0.11231297 6
2.1130631 0.38400957 -0.037487768 7
2.121536 0.382108 0.037627388 8
2.1210499 0.38125506 0.112941 9
2.081073 0.3740693 -0.41100258 2
2.1100619 0.3788999 0.18755916 10
2.103776 0.37739214 -0.33852422 3
2.1278672 0.38133052 0.26543146 11
2.1005771 0.37606156 -0.2620191 4
2.1044421 0.37637448 -0.18703623 5
2.1156158 0.37761086 -0.11262699 6
2.1143906 0.37663069 -0.037487768 7
2.1189182 0.37400433 0.03755758 8
2.1223676 0.37384936 0.112941 9
2.093967 0.36884665 -0.41329232 2
2.1152959 0.37222311 0.18790779 10
2.0972984 0.36867774 -0.33727276 3
2.1389608 0.37561768 0.26665017 11
2.1136086 0.37078536 -0.26348156 4
2.097893 0.36765 -0.18633896 5
2.1188881 0.37056816 -0.11273166 6
2.1196325 0.36993489 -0.03755758 7
2.1123292 0.36524227 0.037417959 8
2.1315327 0.36779654 0.1133597 9
2.0952418 0.36153454 -0.41329232 2
2.1126559 0.36415964 0.18755916 10
2.0907853 0.36001512 -0.33602124 3
2.1226518 0.36511981 0.26445648 11
2.1168461 0.3637408 -0.26372528 4
2.1089818 0.36201158 -0.18721053 5
2.1122944 0.36182019 -0.11231297 6
2.1248531 0.36320803 -0.037627388 7
2.1155627 0.35820091 0.037452865 8
2.1209874 0.35835683 0.11273166 9
2.1003628 0.35487217 -0.41405553 2
2.1237369 0.3584412 0.18843071 10
2.0959253 0.35337102 -0.33664703 3
2.1141257 0.35605913 0.2632378 11
2.0985272 0.35305646 -0.2612879 4
2.1141624 0.35530755 -0.18755916 5
2.1096051 0.3537845 -0.11210363 6
2.1300526 0.3564482 -0.0376972 7
2.118773 0.35114041 0.037487768 8
2.122225 0.35095251 0.11273166 9
2.0938408 0.34625861 -0.41252908 2
2.1308727 0.35199946 0.18895365 10
2.102993 0.34701696 -0.3375856 3
2.1271076 0.35061586 0.26470023 11
2.0997469 0.34572852 -0.2612879 4
2.1134241 0.34760165 -0.18738484 5
2.114769 0.34706482 -0.11231297 6
2.1214166 0.34739646 -0.037522674 7
2.1278815 0.34502408 0.037627388 8
2.1234374 0.34354186 0.11273166 9
2.0872846 0.33769283 -0.41100258 2
2.11832 0.34233356 0.18773346 10
2.1080918 0.34030414 -0.33821136 3
2.1302783 0.34350419 0.26494396 11
2.1048605 0.33902767 -0.26177537 4
2.0988874 0.33769083 -0.18599035 5
2.1159678 0.33968019 -0.11231297 6
2.1068201 0.33745849 -0.037243433 7
2.1211727 0.33634102 0.037487768 8
2.1245651 0.33649781 0.11273166 9
2.1039636 0.33285952 -0.41405553 2
2.1135981 0.33400562 0.18721053 10
2.1034133 0.33201888 -0.33727276 3
2.1393077 0.33730316 0.26591894 11
2.1197577 0.33384153 -0.26348156 4
2.1039898 0.33098096 -0.18633896 5
2.1250327 0.33353221 -0.11273166 6
2.1197813 0.3323279 -0.037452865 7
2.1163485 0.32838473 0.037383057 8
2.1336217 0.3303023 0.11315035 9
2.1186895 0.32723346 0.18755916 10
2.0966938 0.32383618 -0.33602124 3
2.1384528 0.32990381 0.26567519 11
2.1149671 0.32590276 -0.26275033 4
2.1011939 0.32302961 -0.18599035 5
2.1142824 0.32466412 -0.11210363 6
2.1327879 0.32674381 -0.03766229 7
2.1214361 0.32159412 0.037452865 8
2.1268623 0.32165837 0.11273166 9
2.1217327 0.32050279 0.18773346 10
2.1056244 0.31769469 -0.33727276 3
2.1043141 0.31674477 -0.2612879 4
2.1140752 0.31783774 -0.18703623 5
2.1094775 0.3163926 -0.11178961 6
2.1260049 0.31811377 -0.037522674 7
2.1225457 0.31418741 0.037452865 8
2.1259966 0.31393996 0.11262699 9
2.1326938 0.31454861 0.18860501 10
2.1047661 0.3100543 -0.33695987 3
2.0995147 0.308532 -0.26055667 4
2.1151719 0.31045574 -0.18703623 5
2.110569 0.30902767 -0.11178961 6
2.1191876 0.3095341 -0.037383057 7
2.1256084 0.3070628 0.037487768 8
2.1251025 0.30623251 0.11252232 9
2.1199744 0.30511588 0.18738484 10
2.1038804 0.30242378 -0.33664703 3
2.1064739 0.30204719 -0.2612879 4
2.1083534 0.30194014 -0.18633896 5
2.1195436 0.30278775 -0.1122083 6
2.1202552 0.30213532 -0.037383057 7
2.1207271 0.29880464 0.037383057 8
2.132092 0.29964599 0.11283633 9
2.1151073 0.29688355 0.1868619 10
2.1088359 0.29562694 -0.33727276 3
2.1114471 0.29524258 -0.26177537 4
2.1015015 0.29347697 -0.18564174 5
2.1245437 0.29593888 -0.11241764 6
2.1252582 0.29528219 -0.037452865 7
2.1177948 0.29085535 0.037313245 8
2.1370826 0.29274431 0.11304568 9
2.124027 0.29057831 0.18755916 10
2.1020262 0.28719375 -0.33602124 3
2.116399 0.28840598 -0.26226285 4
2.1143587 0.28775111 -0.1866876 5
2.1136894 0.28690964 -0.11178961 6
2.1262758 0.2878623 -0.037452865 7
2.1187973 0.2834605 0.037313245 8
2.1281927 0.28396142 0.11252232 9
2.1230533 0.28289855 0.18738484 10
2.1030157 0.279856 -0.33602124 3
2.0996821 0.27866557 -0.26006919 4
2.1074493 0.27932313 -0.18599035 5
2.1146781 0.27952915 -0.11178961 6
2.139163 0.28200606 -0.03766229 7
2.1277058 0.27709624 0.037452865 8
2.1192682 0.27524415 0.11199896 9
2.124028 0.27548644 0.18738484 10
2.1118159 0.27352777 -0.33727276 3
2.0986736 0.27108079 -0.25982547 4
2.1163158 0.27298409 -0.1866876 5
2.1156409 0.27214631 -0.11178961 6
2.1203001 0.2719923 -0.037313245 7
2.1326277 0.27016956 0.037522674 8
2.1281416 0.26884758 0.11241764 9
2.1269536 0.26831934 0.18755916 10
2.1166775 0.26664773 -0.33789849 3
2.1094551 0.26498994 -0.26104417 4
2.1093481 0.26460257 -0.18599035 5
2.124505 0.26575071 -0.1122083 6
2.1172678 0.26409587 -0.037243433 7
2.1256189 0.26174757 0.037383057 8
2.1409616 0.26287723 0.11304568 9
2.1219444 0.2601673 0.18703623 10
2.1058309 0.25781763 -0.33602124 3
2.1162782 0.25834802 -0.26177537 4
2.1063035 0.25675622 -0.18564174 5
2.1293852 0.25881457 -0.11241764 6
2.1221471 0.25718421 -0.037313245 7
2.1146061 0.25290078 0.037173625 8
2.1418662 0.25540271 0.11304568 9
2.1208611 0.25252262 0.1868619 10
2.1008337 0.24976519 -0.33508268 3
2.1171672 0.25095868 -0.26177537 4
2.1111438 0.24987009 -0.18599035 5
2.1183748 0.24997719 -0.11178961 6
2.130976 0.25071004 -0.037452865 7
2.1273947 0.24690054 0.037383057 8
2.1328244 0.24677627 0.11252232 9
2.1121142 0.24288598 -0.26104417 4
2.115962 0.24295427 -0.18633896 5
2.1152658 0.24212633 -0.11158027 6
2.1358118 0.24372292 -0.037522674 7
2.1282434 0.23947349 0.037383057 8
2.123749 0.2382161 0.11199896 9
2.1129494 0.23551227 -0.26104417 4
2.1227376 0.23622826 -0.1868619 5
2.1121278 0.23430121 -0.11137092 6
2.1286993 0.23538636 -0.037383057 7
2.1329608 0.23322135 0.037452865 8
2.1324286 0.23240897 0.11241764 9
2.121573 0.22972728 -0.2620191 4
2.1115844 0.22827289 -0.18581605 5
2.124768 0.22894782 -0.11199896 6
2.12744 0.22848456 -0.037348151 7
2.1297848 0.22535312 0.037383057 8
2.1371996 0.22538339 0.11262699 9
2.1164391 0.22170024 -0.2612879 4
2.1064236 0.22027947 -0.18529311 5
2.1295273 0.22194412 -0.1122083 6
2.1242466 0.22064327 -0.037278343 7
2.1166332 0.21649255 0.037138719 8
2.1379735 0.21792121 0.11262699 9
2.1231251 0.21491033 -0.2620191 4
2.1190732 0.21412757 -0.18633896 5
2.1223404 0.21370837 -0.11178961 6
2.1329625 0.21402596 -0.037417959 7
2.1253362 0.20988935 0.037278343 8
2.1307702 0.20967504 0.1122083 9
2.1159596 0.20672628 -0.26104417 4
2.1158419 0.20634201 -0.18599035 5
2.1151216 0.2055265 -0.11137092 6
2.1336966 0.20657967 -0.037417959 7
2.1360092 0.20341659 0.037452865 8
2.1235359 0.20148183 0.11178961 9
2.1166682 0.19933839 -0.26104417 4
2.1245189 0.19933063 -0.1866876 5
2.1158264 0.19814153 -0.11137092 6
2.1264405 0.19838786 -0.037278343 7
2.1347148 0.19577812 0.037417959 8
2.1321821 0.19479434 0.1122083 9
2.1133971 0.19159061 -0.26055667 4
2.1132958 0.19083774 -0.18564174 5
2.1244953 0.19110154 -0.11178961 6
2.1311035 0.19132102 -0.037348151 7
2.1274505 0.18724981 0.037278343 8
2.1447868 0.18839952 0.11283633 9
2.1239731 0.18470266 -0.26177537 4
2.1099792 0.18311574 -0.18529311 5
2.1311188 0.18419987 -0.11210363 6
2.1317582 0.18388136 -0.037348151 7
2.1240745 0.17985688 0.037208531 8
2.1245739 0.17765872 -0.26177537 4
2.1185474 0.17641015 -0.18599035 5
2.125747 0.17663608 -0.11178961 6
2.136373 0.17676824 -0.037417959 7
2.1266823 0.17260359 0.037243433 8
2.1311176 0.17071748 -0.26250657 4
2.1191206 0.16938426 -0.18599035 5
2.1183865 0.16858144 -0.11137092 6
2.1409638 0.16962512 -0.037487768 7
2.1332529 0.16564289 0.037348151 8
2.1196992 0.16198555 -0.18599035 5
2.118962 0.16118531 -0.11137092 6
2.1315727 0.16139731 -0.037313245 7
2.1398008 0.15863943 0.037452865 8
2.1123033 0.15400638 -0.18529311 5
2.131464 0.15465443 -0.11199896 6
2.1320963 0.15432729 -0.037313245 7
2.1363258 0.15126069 0.037383057 8
2.1207783 0.14718331 -0.18599035 5
2.1359499 0.14786269 -0.1122083 6
2.132622 0.14688335 -0.037313245 7
2.12886 0.14326493 0.037243433 8
2.1212547 0.14015016 -0.18599035 5
2.1244955 0.13961953 -0.11158027 6
2.1371129 0.13969958 -0.037383057 7
2.1313429 0.13595971 0.037278343 8
2.1257079 0.13299401 -0.18633896 5
2.1289566 0.13245027 -0.11178961 6
2.1375875 0.13223824 -0.037383057 7
2.1357965 0.12876022 0.037348151 8
2.1261811 0.12520148 -0.18633896 5
2.1254401 0.12441341 -0.11158027 6
2.1380363 0.12477631 -0.037383057 7
2.1342573 0.12081871 0.037313245 8
2.122647 0.11718759 -0.18599035 5
2.1338589 0.11706052 -0.11199896 6
2.1264987 0.1162835 -0.037173625 7
2.1150844 0.10936738 -0.18529311 5
2.1342545 0.10961068 -0.11199896 6
2.1388743 0.1094747 -0.037383057 7
2.1194155 0.10254489 -0.18564174 5
2.1266265 0.10214876 -0.11158027 6
2.1392255 0.10238075 -0.037383057 7
2.1237411 0.095324233 -0.18599035 5
2.1249745 0.094637409 -0.1114756 6
2.1555517 0.095621221 -0.03766229 7
2.1312943 0.087091446 -0.11178961 6
2.1399033 0.087070175 -0.037383057 7
2.135577 0.079801932 -0.11199896 6
2.132201 0.079302132 -0.037243433 7
2.1398218 0.072854988 -0.1122083 6
2.1364617 0.071994014 -0.037313245 7
2.1280854 0.065018654 -0.11158027 6
2.1446838 0.065152168 -0.037452865 7
2.1242962 0.057852987 -0.11137092 6
2.1409004 0.057557374 -0.037383057 7
2.1324809 0.050255362 -0.11178961 6
2.1530917 0.049989153 -0.037592482 7
2.1406305 0.042971078 -0.1122083 6
2.1407676 0.03549907 -0.1122083 6
2.1408734 0.028399242 -0.1122083 6
2.1329672 0.021220643 -0.11178961 6
2.1370227 0.013800296 -0.11199896 6
