# .PCD v0.7 - Point Cloud Data file format
VERSION 0.7
FIELDS x y z intensity
SIZE 4 4 4 4
TYPE F F F F
COUNT 1 1 1 1
WIDTH 1371
HEIGHT 1
VIEWPOINT 0 0 0 1 0 0 0
POINTS 1371
DATA ascii
1.1882743 0.52285331 -0.06803675 6
1.2100432 0.53192788 -0.023072081 7
1.176785 0.51534778 -0.34422934 0
1.2053816 0.52762103 0.022967368 8
1.1586883 0.50694144 -0.29198647 1
1.1656086 0.50972617 -0.24728847 2
1.1820356 0.51641899 -0.20430344 3
1.1825721 0.51616192 -0.15843016 4
1.1943142 0.52103895 -0.11399971 5
1.1937537 0.52029854 -0.068246089 6
1.2008922 0.52291042 -0.022862652 7
1.1661704 0.50585628 -0.34060588 0
1.2108854 0.52500087 0.023037177 8
1.164027 0.50444323 -0.29288626 1
1.1601745 0.50253385 -0.24576201 2
1.185644 0.51307398 -0.20461631 3
1.1880109 0.51360601 -0.15891764 4
1.1888996 0.51349843 -0.11330246 5
1.1992302 0.51771128 -0.068455435 6
1.20271 0.51871556 -0.022862652 7
1.1626914 0.49929148 -0.33905298 0
1.2053608 0.5176149 0.022897556 8
1.1657807 0.50037718 -0.29288626 1
1.1656175 0.49982539 -0.24652523 2
1.1838847 0.50716943 -0.20399056 3
1.1952713 0.51179975 -0.15964885 4
1.1833576 0.50621045 -0.11260521 5
1.2047926 0.51488239 -0.068664782 6
1.2045133 0.51451445 -0.022862652 7
1.1679825 0.49674231 -0.34008822 0
1.1998887 0.51006401 0.022757938 8
1.1604325 0.49305302 -0.29108664 1
1.237118 0.52563572 0.070444204 9
1.1691619 0.49652117 -0.24690685 2
1.174737 0.49840486 -0.20211335 3
1.1916558 0.50509167 -0.15891764 4
1.1887864 0.50363135 -0.11295383 5
1.195547 0.50600266 -0.06803675 6
1.206302 0.51030642 -0.022862652 7
1.1750506 0.49491152 -0.34164116 0
1.2052593 0.50763488 0.022827748 8
1.1638572 0.48995793 -0.29153654 1
1.2186953 0.51279312 0.069292814 9
1.1726978 0.49319783 -0.24728847 2
1.1782044 0.49527174 -0.20242621 3
1.1878334 0.4988316 -0.15818642 4
1.1978862 0.50256151 -0.11365108 5
1.1935345 0.50049084 -0.067827404 6
1.2117647 0.5076381 -0.022932461 7
1.1820341 0.49324375 -0.34319407 0
1.2107149 0.50496441 0.022897556 8
1.169158 0.48739174 -0.29243636 1
1.2037977 0.50183213 0.06835077 9
1.1725148 0.48855087 -0.24690685 2
1.1872211 0.49419227 -0.2036777 3
1.1895673 0.49468249 -0.15818642 4
1.1958669 0.49705672 -0.11330246 5
1.1952741 0.4963218 -0.067827404 6
1.2097477 0.5020836 -0.022862652 7
1.1766067 0.486164 -0.34112352 0
1.2160794 0.50247377 0.022967368 8
1.1707678 0.48351219 -0.29243636 1
1.2203112 0.50372374 0.06918814 9
1.1615089 0.47921392 -0.24423553 2
1.1925056 0.49175897 -0.20430344 3
1.1948721 0.49224696 -0.1586739 4
1.192067 0.49060473 -0.11277953 5
1.2079961 0.49691394 -0.068455435 6
1.2040944 0.49481764 -0.022723034 7
1.1621214 0.47567353 -0.33646476 0
1.2104228 0.4951967 0.022827748 8
1.1760558 0.4808979 -0.29333615 1
1.2239109 0.5002169 0.069292814 9
1.170361 0.47833082 -0.24576201 2
1.1832418 0.48311338 -0.20242621 3
1.1965833 0.48807275 -0.1586739 4
1.1974626 0.48794463 -0.11312816 5
1.2060239 0.49118716 -0.068246089 6
1.2058142 0.49061179 -0.022723034 7
1.1710192 0.47431225 -0.33853534 0
1.2047299 0.48796651 0.022688128 8
1.1668894 0.47240183 -0.29063675 1
1.2330554 0.49893788 0.069711499 9
1.1721061 0.4740383 -0.24576201 2
1.1850047 0.47877306 -0.20242621 3
1.2074827 0.48761031 -0.15989259 4
1.1954631 0.48227057 -0.11277953 5
1.1967012 0.48228443 -0.067618065 6
1.2112293 0.48789376 -0.022792844 7
1.1798401 0.47309738 -0.34060588 0
1.210223 0.48503458 0.022757938 8
1.161377 0.46522343 -0.28883713 1
1.216249 0.48720402 0.068664782 9
1.1792215 0.47213283 -0.24690685 2
1.1903369 0.47610113 -0.20305197 3
1.1963584 0.4780246 -0.15818642 4
1.2008399 0.47957286 -0.11312816 5
1.1983775 0.47810391 -0.067618065 6
1.2296422 0.49032915 -0.023106987 7
1.1850756 0.47040123 -0.34164116 0
1.215542 0.48249447 0.022827748 8
1.1737815 0.46568173 -0.29153654 1
1.2123725 0.48074663 0.06835077 9
1.1772124 0.46656668 -0.24614362 2
1.1919091 0.47215146 -0.20305197 3
1.1905538 0.47113326 -0.15721147 4
1.2099181 0.47830781 -0.1138254 5
1.1999563 0.47412756 -0.067618065 6
1.214606 0.47942588 -0.022792844 7
1.1722453 0.4608154 -0.33750004 0
1.2209411 0.47971129 0.022897556 8
1.1754 0.46158129 -0.29153654 1
1.219537 0.47891399 0.068664782 9
1.1750981 0.46122536 -0.24538037 2
1.1935501 0.46798772 -0.20305197 3
1.2051294 0.47204271 -0.15891764 4
1.1966552 0.46848255 -0.11243091 5
1.2053239 0.47139117 -0.067827404 6
1.2106016 0.47321162 -0.022688128 7
1.1630446 0.45251742 -0.33439422 0
1.2187978 0.47420993 0.022827748 8
1.1841893 0.46050584 -0.29333615 1
1.2230629 0.47537789 0.068769448 9
1.1767006 0.45712152 -0.24538037 2
1.1877297 0.46116689 -0.20180048 3
1.1992849 0.46517256 -0.15794268 4
1.190852 0.46142286 -0.11173366 5
1.2143303 0.47027698 -0.068246089 6
1.2197061 0.47186869 -0.022827748 7
1.175355 0.45282492 -0.33750004 0
1.2148474 0.46779656 0.022723034 8
1.1748772 0.45217058 -0.29063675 1
1.2302244 0.47347188 0.069083467 9
1.1855396 0.45603597 -0.24690685 2
1.1819564 0.45418417 -0.20054901 3
1.2157276 0.46667427 -0.15989259 4
1.1998163 0.46032631 -0.11243091 5
1.2047747 0.46174631 -0.067618065 6
1.2175293 0.46639097 -0.022757938 7
1.1805389 0.45009556 -0.33853534 0
1.2126552 0.46234033 0.022653224 8
1.1727283 0.44688392 -0.28973696 1
1.2281369 0.46775264 0.068874128 9
1.1944636 0.4546884 -0.24843332 2
1.1945336 0.45447704 -0.20242621 3
1.2005682 0.45629266 -0.15769894 4
1.2051411 0.45754996 -0.11277953 5
1.1988301 0.45491388 -0.067199372 6
1.2228895 0.46355605 -0.022827748 7
1.1785653 0.44440266 -0.33750004 0
1.220035 0.45979652 0.022757938 8
1.1780829 0.44375119 -0.29063675 1
1.2130215 0.45691159 0.067932077 9
1.1850979 0.4461574 -0.24614362 2
1.1962699 0.44988668 -0.20242621 3
1.1985949 0.45028356 -0.15721147 4
1.2105407 0.45453027 -0.11312816 5
1.2043082 0.45171052 -0.067408718 6
1.2170907 0.45626274 -0.022688128 7
1.1764892 0.4389357 -0.33646476 0
1.2215528 0.45574847 0.022757938 8
1.1795479 0.43984234 -0.29063675 1
1.2202234 0.45476732 0.068246089 9
1.1792891 0.43927643 -0.24461715 2
1.2248755 0.45601422 0.11434833 10
1.2014577 0.44729593 -0.20305197 3
1.2112449 0.45045772 -0.1586739 4
1.2046491 0.44752681 -0.11243091 5
1.2132889 0.45049486 -0.067827404 6
1.2111763 0.44923013 -0.02254851 7
1.1779382 0.43503213 -0.33646476 0
1.2193846 0.45009643 0.022688128 8
1.1883893 0.43841991 -0.29243636 1
1.2349209 0.45534217 0.068978801 9
1.1881071 0.43808091 -0.24614362 2
1.2132947 0.4471269 0.11312816 10
1.1955973 0.44036806 -0.20180048 3
1.2090839 0.44485632 -0.15818642 4
1.2023866 0.44215396 -0.11208228 5
1.222353 0.44901192 -0.068246089 6
1.2164917 0.44637698 -0.022618318 7
1.1830788 0.43224329 -0.33750004 0
1.2134346 0.4430939 0.02254851 8
1.1752673 0.42892441 -0.28883713 1
1.2327502 0.44965956 0.068769448 9
1.1914736 0.43460345 -0.24652523 2
1.2204634 0.44493648 0.11365108 10
1.189703 0.43348712 -0.20054901 3
1.2143601 0.44199124 -0.1586739 4
1.2076674 0.43931663 -0.11243091 5
1.2088958 0.4392851 -0.067408718 6
1.2255611 0.44485736 -0.022757938 7
1.1845806 0.42811063 -0.33750004 0
1.2224969 0.44157314 0.022688128 8
1.1767575 0.42481902 -0.28883713 1
1.2229632 0.44149965 0.068141423 9
1.202217 0.43377301 -0.24843332 2
1.2220091 0.4406738 0.11365108 10
1.1986425 0.43201044 -0.20180048 3
1.2084244 0.43506014 -0.15769894 4
1.2129431 0.43644717 -0.11277953 5
1.2029033 0.43236113 -0.066990033 6
1.2402034 0.44552287 -0.023002272 7
1.189706 0.4252739 -0.33853534 0
1.2258376 0.43818957 0.022723034 8
1.1818299 0.42222592 -0.28973696 1
1.220735 0.43588507 0.067932077 9
1.1926297 0.42561489 -0.24614362 2
1.2310464 0.43908256 0.11434833 10
1.2000685 0.4280335 -0.20180048 3
1.1986411 0.42705283 -0.15623651 4
1.2144592 0.43221027 -0.11277953 5
1.208094 0.42970806 -0.067199372 6
1.2210238 0.43382639 -0.022618318 7
1.1765393 0.41617271 -0.33439422 0
1.2254745 0.43324107 0.022688128 8
1.1869713 0.41939667 -0.29063675 1
1.229782 0.43428174 0.06835077 9
1.182927 0.41773552 -0.24385393 2
1.221223 0.43101889 0.11330246 10
1.2090069 0.42647001 -0.20305197 3
1.2113581 0.42682403 -0.15769894 4
1.2083687 0.42553365 -0.11208228 5
1.2133551 0.42681369 -0.067408718 6
1.2149841 0.42691085 -0.0224787 7
1.1779851 0.41206297 -0.33439422 0
1.2194283 0.42632177 0.02254851 8
1.1884282 0.41525051 -0.29063675 1
1.2312906 0.429986 0.06835077 9
1.191792 0.41619247 -0.24538037 2
1.2189574 0.42544109 0.11295383 10
1.1955668 0.41704255 -0.20054901 3
1.2203385 0.42520648 -0.1586739 4
1.1985573 0.41738194 -0.11103641 5
1.2223831 0.42519999 -0.067827404 6
1.2334673 0.4285737 -0.022792844 7
1.1867189 0.41047475 -0.33646476 0
1.2171293 0.42075562 0.0224787 8
1.1861868 0.40982655 -0.28973696 1
1.2384474 0.42764133 0.068664782 9
1.1895261 0.41074854 -0.24461715 2
1.2279688 0.42378312 0.11365108 10
1.1970153 0.41286635 -0.20054901 3
1.2180618 0.41965058 -0.15818642 4
1.2075423 0.41578996 -0.11173366 5
1.2125275 0.41703379 -0.067199372 6
1.2444117 0.42751431 -0.022967368 7
1.1844889 0.40507925 -0.33542949 0
1.2280519 0.41973785 0.022653224 8
1.1820774 0.40379444 -0.28838724 1
1.2304821 0.42008889 0.068141423 9
1.1909527 0.40659347 -0.24461715 2
1.2294408 0.41949379 0.11365108 10
1.2021881 0.40996146 -0.20117474 3
1.2120031 0.41283566 -0.15721147 4
1.2165304 0.41414151 -0.11243091 5
1.2139759 0.41279843 -0.067199372 6
1.2421095 0.42188129 -0.022897556 7
1.1858958 0.40094188 -0.33542949 0
1.2314038 0.41608897 0.022688128 8
1.1871724 0.40091243 -0.28928703 1
1.2281564 0.41451347 0.067932077 9
1.1923648 0.40243348 -0.24461715 2
1.2290096 0.41456315 0.11347678 10
1.203612 0.40576223 -0.20117474 3
1.2096741 0.4073357 -0.15672398 4
1.2179688 0.40989214 -0.11243091 5
1.2154094 0.40855858 -0.067199372 6
1.2322005 0.41372365 -0.022688128 7
1.1927845 0.39863774 -0.3369824 0
1.2366421 0.41305473 0.022757938 8
1.1904131 0.39738333 -0.28973696 1
1.2333847 0.41148886 0.068141423 9
1.1863127 0.39578444 -0.24309067 2
1.2285593 0.40964004 0.11330246 10
1.2125174 0.40405607 -0.20242621 3
1.2186226 0.40561801 -0.15769894 4
1.2156112 0.40438002 -0.11208228 5
1.2206191 0.40557283 -0.067408718 6
1.2260455 0.40690064 -0.02254851 7
1.1923344 0.39386544 -0.33646476 0
1.228582 0.40560132 0.022583414 8
1.1917931 0.39322525 -0.28973696 1
1.2367104 0.40780619 0.068246089 9
1.187687 0.39164069 -0.24309067 2
1.2224125 0.40285486 0.11260521 10
1.2026629 0.3961136 -0.20054901 3
1.2444733 0.40964368 0.16086754 11
1.2162597 0.40012139 -0.15721147 4
1.205659 0.39640081 -0.11103641 5
1.2220275 0.40130928 -0.067408718 6
1.2350587 0.40511176 -0.022688128 7
1.1955384 0.39030081 -0.3369824 0
1.2261882 0.40007004 0.022513606 8
1.189453 0.38785413 -0.28883713 1
1.2438233 0.40534356 0.068560109 9
1.2002466 0.39114255 -0.24538037 2
1.2294948 0.40043613 0.11312816 10
1.1965249 0.38946718 -0.19929753 3
1.236457 0.40222701 0.15964885 11
1.2176491 0.39587307 -0.15721147 4
1.2146149 0.39465222 -0.11173366 5
1.2120223 0.3933422 -0.066780686 6
1.2402697 0.4020316 -0.022757938 7
1.1932166 0.38493866 -0.33594716 0
1.2294804 0.39640069 0.02254851 8
1.1870899 0.38250473 -0.28793734 1
1.2337546 0.39754108 0.067932077 9
1.2016047 0.38695022 -0.24538037 2
1.2327815 0.3967526 0.11330246 10
1.205399 0.3877078 -0.20054901 3
1.2284043 0.3948707 0.15843016 11
1.2113957 0.38940328 -0.15623651 4
1.2159851 0.3904103 -0.11173366 5
1.2171917 0.39032912 -0.066990033 6
1.2435006 0.39852652 -0.022792844 7
1.2055295 0.38450208 -0.33905298 0
1.2384093 0.39475033 0.022688128 8
1.1920654 0.37974936 -0.28883713 1
1.2350662 0.39344788 0.067932077 9
1.1916571 0.37938958 -0.24309067 2
1.2397863 0.3944743 0.1138254 10
1.210443 0.38490587 -0.20117474 3
1.2372745 0.39319956 0.15940511 11
1.2088968 0.38418123 -0.15574904 4
1.224869 0.38878715 -0.11243091 5
1.2146716 0.38508311 -0.066780686 6
1.2333773 0.39077705 -0.022583414 7
1.1957433 0.37701643 -0.33594716 0
1.2397113 0.39064229 0.022688128 8
1.1951768 0.37637925 -0.28928703 1
1.2401742 0.39054957 0.068141423 9
1.1947812 0.37602547 -0.24347228 2
1.2353857 0.38856828 0.11330246 10
1.2154819 0.38207421 -0.20180048 3
1.2423592 0.39028457 0.15989259 11
1.2253817 0.38471618 -0.15769894 4
1.2185476 0.38233697 -0.11173366 5
1.2235653 0.38344225 -0.067199372 6
1.2327582 0.38608685 -0.02254851 7
1.1933632 0.37169152 -0.33491185 0
1.2352723 0.38474476 0.022583414 8
1.2038611 0.3747308 -0.29108664 1
1.2453443 0.38740441 0.06835077 9
1.1942117 0.37127 -0.24309067 2
1.2272211 0.3812975 0.11243091 10
1.2054236 0.37452498 -0.19992328 3
1.2493342 0.38792828 0.1606238 11
1.2152754 0.37712085 -0.15623651 4
1.2160689 0.37690115 -0.11138504 5
1.2362772 0.38292858 -0.067827404 6
1.2321881 0.38119006 -0.022513606 7
1.1982819 0.36886913 -0.33594716 0
1.2289627 0.37807819 0.022443794 8
1.1939858 0.36708984 -0.28838724 1
1.250507 0.38422903 0.068560109 9
1.2066962 0.37076777 -0.24538037 2
1.2265744 0.37664065 0.1122566 10
1.2067237 0.37031466 -0.19992328 3
1.2392933 0.38007352 0.15916139 11
1.227972 0.37636635 -0.15769894 4
1.2173119 0.37286669 -0.11138504 5
1.229967 0.37627342 -0.067408718 6
1.2449855 0.38039339 -0.022723034 7
1.2032589 0.36580759 -0.3369824 0
1.2360151 0.37552965 0.02254851 8
1.1915305 0.36178774 -0.28748745 1
1.2441958 0.37754148 0.068141423 9
1.2079831 0.36655301 -0.24538037 2
1.2412282 0.37640378 0.11347678 10
1.2080089 0.3661004 -0.19992328 3
1.2368128 0.37459409 0.1586739 11
1.2140788 0.36747673 -0.15574904 4
1.2262341 0.37092289 -0.11208228 5
1.2274491 0.37082219 -0.067199372 6
1.2424769 0.37488967 -0.022653224 7
1.2100792 0.36327186 -0.33853534 0
1.2430643 0.37293765 0.022653224 8
1.2021195 0.36042428 -0.28973696 1
1.2340269 0.36975625 0.067513391 9
1.2054942 0.36120686 -0.24461715 2
1.2463516 0.37321272 0.1138254 10
1.2168493 0.36414641 -0.20117474 3
1.2400148 0.37084299 0.15891764 11
1.21155 0.36210048 -0.15526156 4
1.2313396 0.36778036 -0.11243091 5
1.2325637 0.36767808 -0.067408718 6
1.2341958 0.36769524 -0.0224787 7
1.2020789 0.35630035 -0.33594716 0
1.2481931 0.36973181 0.022723034 8
1.2071071 0.35733303 -0.29063675 1
1.2429709 0.36771303 0.067932077 9
1.195452 0.35365531 -0.24232745 2
1.2438256 0.36772981 0.11347678 10
1.214324 0.358778 -0.20054901 3
1.2527248 0.36988539 0.16038008 11
1.2261342 0.36180151 -0.15696773 4
1.2211498 0.36009839 -0.11138504 5
1.2338398 0.36337304 -0.067408718 6
1.2354717 0.36338511 -0.0224787 7
1.1996071 0.35101676 -0.33491185 0
1.2360409 0.36144409 0.0224787 8
1.2064767 0.35257033 -0.29018685 1
1.2519157 0.36561126 0.06835077 9
1.2023329 0.35113102 -0.24347228 2
1.2317134 0.35947871 0.1122566 10
1.2117763 0.35343051 -0.19992328 3
1.2616315 0.3677319 0.16135503 11
1.2292955 0.35807469 -0.15721147 4
1.2650676 0.36825505 0.20868361 12
1.2243121 0.35639131 -0.11155935 5
1.2389362 0.36017928 -0.067618065 6
1.2424939 0.36074263 -0.022583414 7
1.2045369 0.34790015 -0.33594716 0
1.2334526 0.35601786 0.02240889 8
1.2039553 0.3472763 -0.28928703 1
1.2627798 0.3640053 0.068874128 9
1.207324 0.34801978 -0.24423553 2
1.2406188 0.35738271 0.11295383 10
1.2016129 0.34591931 -0.19804606 3
1.251461 0.36003301 0.15989259 11
1.230538 0.35378113 -0.15721147 4
1.245461 0.35783622 0.20524204 12
1.2255487 0.35211515 -0.11155935 5
1.2363465 0.35475037 -0.067408718 6
1.2456677 0.35695437 -0.022618318 7
1.2001108 0.34231383 -0.33439422 0
1.2423186 0.35411853 0.02254851 8
1.1957295 0.3406122 -0.28703755 1
1.2428495 0.35380083 0.06772273 9
1.214136 0.34562701 -0.24538037 2
1.2456299 0.35435733 0.11330246 10
1.2103539 0.34409308 -0.19929753 3
1.248829 0.35479629 0.15940511 11
1.2202467 0.34644583 -0.15574904 4
1.2561427 0.35639969 0.20680638 12
1.2286265 0.34859264 -0.11173366 5
1.2336726 0.34955978 -0.067199372 6
1.2487687 0.35336643 -0.022653224 7
1.2050176 0.33916903 -0.33542949 0
1.2435472 0.34978014 0.02254851 8
1.2006632 0.33749118 -0.28793734 1
1.2402313 0.34837973 0.067513391 9
1.2077749 0.33926275 -0.24385393 2
1.2468593 0.35000676 0.11330246 10
1.2191554 0.34200048 -0.20054901 3
1.2481486 0.34989876 0.15916139 11
1.219537 0.3416484 -0.15550528 4
1.2516724 0.35041544 0.20586778 12
1.2471033 0.34913629 -0.11330246 5
1.2387326 0.34632659 -0.067408718 6
1.2365124 0.34524059 -0.02240889 7
1.2024713 0.33392712 -0.33439422 0
1.2563219 0.34864527 0.022757938 8
1.213101 0.33642295 -0.29063675 1
1.2491387 0.34618232 0.067932077 9
1.2013839 0.3329477 -0.24232745 2
1.2480733 0.34565258 0.11330246 10
1.2355723 0.34195822 -0.20305197 3
1.2589285 0.34818581 0.16038008 11
1.2264622 0.33897609 -0.15623651 4
1.2452716 0.34394076 0.20461631 12
1.23103 0.34000728 -0.11173366 5
1.2399338 0.34200078 -0.067408718 6
1.2377101 0.34092194 -0.02240889 7
1.1999032 0.32870653 -0.33335894 0
1.2421017 0.34003344 0.0224787 8
1.2123883 0.33167246 -0.29018685 1
1.2503395 0.34181958 0.067932077 9
1.2063265 0.32978722 -0.24309067 2
1.2415845 0.33919325 0.11260521 10
1.2196076 0.33296117 -0.20023614 3
1.2658817 0.34535629 0.16111128 11
1.237214 0.33730325 -0.15745521 4
1.2502762 0.34063065 0.20524204 12
1.2322092 0.33570838 -0.11173366 5
1.2488289 0.33976746 -0.067827404 6
1.2427521 0.3376483 -0.0224787 7
1.2047733 0.32552415 -0.33439422 0
1.2432809 0.33569592 0.0224787 8
1.2097757 0.32642272 -0.28928703 1
1.2553226 0.33871222 0.068141423 9
1.2131568 0.32710791 -0.24423553 2
1.2427609 0.33485749 0.11260521 10
1.2207625 0.32870162 -0.20023614 3
1.253661 0.33732519 0.15940511 11
1.2307159 0.33092093 -0.15648025 4
1.2590295 0.33853409 0.20649351 12
1.2333736 0.33140481 -0.11173366 5
1.2461493 0.33437127 -0.067618065 6
1.2515906 0.33559713 -0.022618318 7
1.2059021 0.32131696 -0.33439422 0
1.2443873 0.33157146 0.0224787 8
1.201436 0.31990179 -0.28703755 1
1.2526373 0.33330086 0.067932077 9
1.2199831 0.3243849 -0.24538037 2
1.2477734 0.33154035 0.11295383 10
1.2161185 0.32312942 -0.19929753 3
1.2509356 0.33214679 0.15891764 11
1.2298876 0.32632908 -0.15623651 4
1.2602037 0.33413684 0.20649351 12
1.2383749 0.32811779 -0.11208228 5
1.2395281 0.32819241 -0.067199372 6
1.2527544 0.33122587 -0.022618318 7
1.2106978 0.31829834 -0.33542949 0
1.2532732 0.32925779 0.022618318 8
1.2138544 0.31867591 -0.28973696 1
1.2460655 0.32689929 0.067513391 9
1.2115574 0.31784624 -0.24347228 2
1.256575 0.329422 0.11365108 10
1.2248825 0.32088506 -0.20054901 3
1.255928 0.32878393 0.15940511 11
1.2290989 0.32153127 -0.15599278 4
1.2518066 0.32723752 0.20492917 12
1.2394563 0.324009 -0.11208228 5
1.2425989 0.32436782 -0.067304045 6
1.2422929 0.32382482 -0.02240889 7
1.2043214 0.31213126 -0.33335894 0
1.2544148 0.32488132 0.022618318 8
1.2130728 0.31394824 -0.28928703 1
1.2471991 0.32254738 0.067513391 9
1.2050567 0.31164861 -0.2419458 2
1.2480721 0.32254142 0.11277953 10
1.2259951 0.31660774 -0.20054901 3
1.2589903 0.32489362 0.15964885 11
1.224447 0.31575215 -0.15526156 4
1.2510282 0.32237387 0.20461631 12
1.2251446 0.31570402 -0.11068779 5
1.2379208 0.31853488 -0.066990033 6
1.2395422 0.31849086 -0.022339081 7
1.2054033 0.30792633 -0.33335894 0
1.243916 0.31753269 0.02240889 8
1.2141614 0.30971158 -0.28928703 1
1.2598734 0.32137191 0.068141423 9
1.2137467 0.3093808 -0.24347228 2
1.2395366 0.31572363 0.11190797 10
1.2251786 0.31183875 -0.20023614 3
1.2716596 0.3234337 0.16111128 11
1.2254874 0.31169024 -0.15526156 4
1.2559195 0.31919634 0.20524204 12
1.2262393 0.31142521 -0.11068779 5
1.2467691 0.31617591 -0.067408718 6
1.2483453 0.31634375 -0.0224787 7
1.2101645 0.3048709 -0.33439422 0
1.2410837 0.3124299 0.022339081 8
1.213292 0.30520785 -0.28883713 1
1.2725538 0.32011533 0.068769448 9
1.21667 0.30583245 -0.24385393 2
1.2541034 0.31500936 0.11312816 10
1.22429 0.30729294 -0.19992328 3
1.2611724 0.31631699 0.15964885 11
1.2457688 0.31245357 -0.15769894 4
1.2608032 0.31599054 0.20586778 12
1.2349962 0.30929294 -0.11138504 5
1.2361848 0.30913275 -0.066780686 6
1.2532674 0.31317154 -0.02254851 7
1.2149186 0.30178788 -0.33542949 0
1.2498764 0.31023923 0.0224787 8
1.2067317 0.29930645 -0.28703755 1
1.2581544 0.31182843 0.067932077 9
1.2233942 0.30321327 -0.24499875 2
1.2609431 0.31228536 0.11365108 10
1.2272198 0.30370617 -0.20023614 3
1.2564331 0.31070369 0.15891764 11
1.2295078 0.30381697 -0.15550528 4
1.2714875 0.31395492 0.20743214 12
1.2418177 0.30662888 -0.11190797 5
1.2808938 0.31604102 0.25644732 13
1.233325 0.30407515 -0.06657134 6
1.2621197 0.31070784 -0.022688128 7
1.2197176 0.2984632 -0.33646476 0
1.2548363 0.30682456 0.02254851 8
1.2153412 0.29694271 -0.28883713 1
1.249534 0.3050659 0.067408718 9
1.2130018 0.29614681 -0.24270906 2
1.2620254 0.30788225 0.11365108 10
1.2301915 0.29988861 -0.20054901 3
1.2632964 0.30772513 0.15964885 11
1.2286322 0.29905358 -0.15526156 4
1.2591397 0.30624709 0.20524204 12
1.2428805 0.30229253 -0.11190797 5
1.2819893 0.31156757 0.25644732 13
1.2382606 0.30071053 -0.066780686 6
1.2554231 0.30441505 -0.02254851 7
1.2094836 0.29148829 -0.33335894 0
1.2636762 0.30431551 0.022688128 8
1.2239491 0.29452193 -0.29063675 1
1.2564169 0.3021034 0.06772273 9
1.2140281 0.2919111 -0.24270906 2
1.2514689 0.3006826 0.11260521 10
1.2331517 0.29605344 -0.20086187 3
1.2740144 0.30562919 0.16086754 11
1.2412508 0.29754028 -0.15672398 4
1.254438 0.30046928 0.20430344 12
1.2401048 0.29680789 -0.11155935 5
1.2907063 0.30891892 0.25797379 13
1.2431875 0.29731634 -0.066990033 6
1.2448082 0.29724398 -0.022339081 7
1.2105439 0.28705305 -0.33335894 0
1.2550021 0.29759532 0.022513606 8
1.2211772 0.28934941 -0.28973696 1
1.2613509 0.29863581 0.067932077 9
1.2189111 0.28836316 -0.24347228 2
1.2506237 0.29563507 0.11243091 10
1.2323059 0.29107788 -0.20054901 3
1.2789375 0.30209252 0.16135503 11
1.246146 0.29411736 -0.15721147 4
1.2612469 0.29744914 0.20524204 12
1.2372547 0.29156297 -0.11121072 5
1.2765419 0.30058599 0.25492084 13
1.2481573 0.29367235 -0.067199372 6
1.2536247 0.29472786 -0.0224787 7
1.2115384 0.28282598 -0.33335894 0
1.2502421 0.29163104 0.02240889 8
1.2108423 0.2822172 -0.28703755 1
1.2701663 0.29604414 0.06835077 9
1.2275585 0.28588808 -0.24499875 2
1.2535884 0.29171962 0.11260521 10
1.2275424 0.28543207 -0.1996104 3
1.2684344 0.29470772 0.15989259 11
1.2472156 0.28954771 -0.15721147 4
1.2661262 0.29393789 0.20586778 12
1.2363242 0.28679183 -0.11103641 5
1.2814085 0.29701507 0.25568405 13
1.2375004 0.2866095 -0.06657134 6
1.2585421 0.29125142 -0.02254851 7
1.2162839 0.27946007 -0.33439422 0
1.2570492 0.28882653 0.022513606 8
1.2155702 0.27907273 -0.28793734 1
1.2634051 0.28982267 0.067932077 9
1.228549 0.28160104 -0.24499875 2
1.2662518 0.29001048 0.11365108 10
1.2323333 0.28224209 -0.20023614 3
1.2635996 0.28917098 0.15916139 11
1.2384932 0.28319797 -0.15599278 4
1.2671444 0.28951675 0.20586778 12
1.2450874 0.28424853 -0.11173366 5
1.2823865 0.29276377 0.25568405 13
1.2345494 0.28161609 -0.066361994 6
1.2673501 0.28863302 -0.022688128 7
1.217204 0.2754254 -0.33439422 0
1.263901 0.28576002 0.022618318 8
1.2127351 0.27396929 -0.28703755 1
1.2565664 0.28387126 0.067513391 9
1.2179856 0.27493146 -0.24270906 2
1.2633194 0.28493339 0.11330246 10
1.237165 0.27880755 -0.20086187 3
1.2626647 0.28432199 0.15891764 11
1.2317275 0.27712983 -0.15501782 4
1.2642431 0.28444558 0.20524204 12
1.2460231 0.28011838 -0.11173366 5
1.2872317 0.28914586 0.25644732 13
1.2433201 0.27905422 -0.066780686 6
1.256593 0.28180352 -0.0224787 7
1.2143865 0.27033564 -0.33335894 0
1.2648416 0.28156748 0.022618318 8
1.2250506 0.27248457 -0.28973696 1
1.2653486 0.28121617 0.067932077 9
1.2227709 0.27153024 -0.24347228 2
1.260416 0.27965832 0.11295383 10
1.2457967 0.2764146 -0.20211335 3
1.277167 0.28314111 0.1606238 11
1.2326396 0.27304459 -0.15501782 4
1.2594422 0.27875048 0.20430344 12
1.2392118 0.27404606 -0.11103641 5
1.2920173 0.28572375 0.25721052 13
1.2481389 0.27579239 -0.066990033 6
1.249758 0.27569205 -0.022339081 7
1.207728 0.26465267 -0.3312884 0
1.2580032 0.27543953 0.0224787 8
1.2298018 0.26903927 -0.29063675 1
1.2682736 0.27722433 0.06803675 9
1.2237114 0.26725999 -0.24347228 2
1.255497 0.27420202 0.11243091 10
1.2371043 0.2699582 -0.20054901 3
1.2723289 0.27741283 0.15989259 11
1.2394041 0.27000752 -0.15574904 4
1.2681282 0.27603269 0.2055549 12
1.2440547 0.27056584 -0.11138504 5
1.2892189 0.28015286 0.25644732 13
1.2530451 0.27206251 -0.067199372 6
1.2604839 0.27344793 -0.022513606 7
1.2124672 0.26103723 -0.33232367 0
1.2570492 0.27040657 0.022443794 8
1.2231586 0.26289237 -0.28883713 1
1.2770922 0.27425107 0.068455435 9
1.2246826 0.26277333 -0.24347228 2
1.2545456 0.26918086 0.1122566 10
1.2303593 0.26376614 -0.19929753 3
1.269455 0.27191579 0.15940511 11
1.2442676 0.26629418 -0.15623651 4
1.2729949 0.27220935 0.20618065 12
1.2411412 0.26517144 -0.11103641 5
1.278717 0.27296686 0.25415757 13
1.2423139 0.26496863 -0.06657134 6
1.2693009 0.270493 -0.022653224 7
1.2209759 0.25819054 -0.33439422 0
1.2639015 0.26703662 0.02254851 8
1.2164869 0.25679773 -0.28703755 1
1.262408 0.26649159 0.067618065 9
1.2332765 0.26011714 -0.24499875 2
1.2691709 0.26745585 0.11347678 10
1.2390498 0.26088312 -0.20054901 3
1.2646153 0.2660355 0.1586739 11
1.2335342 0.25949699 -0.15477408 4
1.2758706 0.26817009 0.20649351 12
1.2498585 0.26247561 -0.11173366 5
1.2873478 0.27011392 0.25568405 13
1.2432313 0.26063019 -0.06657134 6
1.2702373 0.26606092 -0.022653224 7
1.229391 0.25571349 -0.33646476 0
1.2686956 0.26365852 0.022618318 8
1.224964 0.25434726 -0.28883713 1
1.2632848 0.26230407 0.067618065 9
1.2225983 0.2536329 -0.24270906 2
1.2720015 0.26365089 0.11365108 10
1.239908 0.25677308 -0.20054901 3
1.2732663 0.26344892 0.15964885 11
1.2363318 0.25580689 -0.15501782 4
1.2690147 0.26233831 0.20524204 12
1.2546244 0.25913575 -0.11208228 5
1.2959274 0.26743022 0.25721052 13
1.2480009 0.25731292 -0.066780686 6
1.3188392 0.27191839 0.31088236 14
1.259361 0.25942665 -0.022443794 7
1.2150909 0.24853848 -0.33232367 0
1.2695628 0.25945017 0.022618318 8
1.2334381 0.2518428 -0.29063675 1
1.2719754 0.25971133 0.06803675 9
1.2195854 0.24879263 -0.2419458 2
1.2572508 0.25624838 0.1122566 10
1.2504309 0.25463048 -0.20211335 3
1.2799686 0.26041272 0.16038008 11
1.2468995 0.25368473 -0.15623651 4
1.2660062 0.25734192 0.20461631 12
1.247667 0.25338736 -0.11138504 5
1.2891109 0.26156995 0.25568405 13
1.2527622 0.2539669 -0.066990033 6
1.3006347 0.2636719 0.30638334 14
1.2602144 0.2552487 -0.022443794 7
1.2121205 0.24374568 -0.3312884 0
1.2664953 0.25445062 0.02254851 8
1.2361771 0.24813496 -0.29108664 1
1.2787042 0.25667131 0.06835077 9
1.2281034 0.24629079 -0.24347228 2
1.2580937 0.25207743 0.1122566 10
1.2435206 0.2489318 -0.20086187 3
1.2808253 0.2561664 0.16038008 11
1.2496805 0.24993743 -0.15648025 4
1.2707267 0.25391668 0.20524204 12
1.2445925 0.24846868 -0.11103641 5
1.2938219 0.25806135 0.25644732 13
1.257515 0.25059208 -0.067199372 6
1.2995907 0.25897676 0.30593342 14
1.2610539 0.25106853 -0.022443794 7
1.2300637 0.24266686 -0.33594716 0
1.2595718 0.24825986 0.02240889 8
1.2198701 0.24021356 -0.28703755 1
1.2796804 0.25175926 0.06835077 9
1.2328506 0.24254614 -0.24423553 2
1.266829 0.24900129 0.11295383 10
1.2386098 0.24323013 -0.19992328 3
1.2720157 0.24955964 0.15916139 11
1.2506309 0.24513747 -0.15648025 4
1.277508 0.25017413 0.20618065 12
1.2533158 0.24543661 -0.11173366 5
1.2870522 0.25180995 0.25492084 13
1.2545047 0.24521478 -0.066990033 6
1.3005755 0.25398448 0.30593342 14
1.2698594 0.24775599 -0.022583414 7
1.2346963 0.23910651 -0.3369824 0
1.2682837 0.24538127 0.02254851 8
1.2245278 0.23669389 -0.28793734 1
1.2687852 0.24501824 0.06772273 9
1.2336898 0.23824087 -0.24423553 2
1.2755157 0.24608773 0.11365108 10
1.2452703 0.240027 -0.20086187 3
1.2709297 0.24474223 0.15891764 11
1.245631 0.23964562 -0.15574904 4
1.2822531 0.24645926 0.20680638 12
1.2580781 0.24181263 -0.11208228 5
1.2879233 0.24731542 0.25492084 13
1.2514299 0.24008191 -0.066780686 6
1.2937987 0.24797606 0.30413383 14
1.2746447 0.24407369 -0.022653224 7
1.2393192 0.23551615 -0.3380177 0
1.2730618 0.24169827 0.022618318 8
1.2253466 0.23241831 -0.28793734 1
1.2696327 0.24058813 0.06772273 9
1.2229402 0.23174018 -0.2419458 2
1.2763671 0.2416335 0.11365108 10
1.2480413 0.23604608 -0.20117474 3
1.2795786 0.2417789 0.15989259 11
1.2503612 0.23603222 -0.15623651 4
1.2733999 0.24015112 0.20524204 12
1.258956 0.23719959 -0.11208228 5
1.3003546 0.2449995 0.25721052 13
1.2561861 0.23645072 -0.066990033 6
1.2946564 0.24345802 0.30413383 14
1.2636969 0.23740779 -0.022443794 7
1.2344764 0.22991137 -0.33646476 0
1.2817613 0.23871778 0.022757938 8
1.2338139 0.22956517 -0.28973696 1
1.2724283 0.23652008 0.067827404 9
1.2276418 0.22797349 -0.24270906 2
1.2654903 0.23477349 0.11260521 10
1.254725 0.23254982 -0.20211335 3
1.2843184 0.23803465 0.16038008 11
1.2433698 0.23022079 -0.15526156 4
1.2761728 0.23606421 0.2055549 12
1.2558578 0.23207971 -0.11173366 5
1.3051051 0.24094497 0.25797379 13
1.2609724 0.23256974 -0.067199372 6
1.2917069 0.23800524 0.30323401 14
1.2625513 0.23263313 -0.02240889 7
1.22767 0.22421221 -0.33439422 0
1.2708243 0.23186442 0.02254851 8
1.2384812 0.22574064 -0.29063675 1
1.2811056 0.23350988 0.068246089 9
1.2284302 0.2236865 -0.24270906 2
1.2663021 0.23035434 0.11260521 10
1.2419244 0.22569646 -0.19992328 3
1.2890886 0.23403466 0.16086754 11
1.2519785 0.22729729 -0.15623651 4
1.2789328 0.23196031 0.20586778 12
1.2566602 0.22769479 -0.11173366 5
1.294347 0.23428936 0.25568405 13
1.273569 0.23029879 -0.067827404 6
1.3001597 0.23510718 0.30503362 14
1.2653234 0.22858034 -0.022443794 7
1.2284067 0.22014013 -0.33439422 0
1.2676495 0.22694442 0.0224787 8
1.2315499 0.22025977 -0.28883713 1
1.2838392 0.22961159 0.06835077 9
1.2330304 0.22030249 -0.24347228 2
1.2709817 0.22685428 0.11295383 10
1.2446108 0.22192326 -0.20023614 3
1.2820402 0.22836636 0.15989259 11
1.256634 0.2238408 -0.15672398 4
1.27775 0.22737209 0.2055549 12
1.2574084 0.22352597 -0.11173366 5
1.2912507 0.22930956 0.25492084 13
1.2585933 0.22328283 -0.066990033 6
1.3047698 0.23147485 0.30593342 14
1.2739506 0.22577861 -0.022583414 7
1.2291299 0.21606502 -0.33439422 0
1.2762731 0.22412319 0.022618318 8
1.2284347 0.2155014 -0.28793734 1
1.2728292 0.22305983 0.06772273 9
1.2376219 0.21688986 -0.24423553 2
1.2795774 0.22401227 0.11365108 10
1.2492315 0.21847562 -0.20086187 3
1.2730132 0.22240517 0.1586739 11
1.2456745 0.21740489 -0.15526156 4
1.28632 0.22426794 0.20680638 12
1.2660325 0.22050257 -0.11243091 5
1.2997407 0.22637348 0.25644732 13
1.2514559 0.21773878 -0.06657134 6
1.3017298 0.22625244 0.30503362 14
1.2865524 0.22338252 -0.022792844 7
1.2337214 0.21221384 -0.33542949 0
1.2770478 0.21966647 0.022618318 8
1.2330205 0.21187174 -0.28883713 1
1.2716315 0.21827847 0.067618065 9
1.2306683 0.21102536 -0.24270906 2
1.2843173 0.21999392 0.11399971 10
1.2500237 0.21389577 -0.20086187 3
1.2816083 0.2193003 0.15964885 11
1.2464259 0.2130556 -0.15526156 4
1.2832007 0.21911116 0.20618065 12
1.2707225 0.21675162 -0.11277953 5
1.308303 0.22292756 0.25797379 13
1.2640592 0.21516164 -0.067199372 6
1.2987082 0.22082555 0.30413383 14
1.2715532 0.21620825 -0.022513606 7
1.2306446 0.20726405 -0.33439422 0
1.2837603 0.21597998 0.022723034 8
1.2357105 0.20767432 -0.28928703 1
1.2802643 0.21516205 0.06803675 9
1.2294614 0.20640285 -0.24232745 2
1.2732875 0.21353258 0.11295383 10
1.2585557 0.21083619 -0.20211335 3
1.2902352 0.21591111 0.1606238 11
1.2511142 0.20914067 -0.15574904 4
1.2742161 0.21300244 0.20461631 12
1.2596802 0.21034661 -0.11173366 5
1.3090733 0.21835901 0.25797379 13
1.2687429 0.21140476 -0.067408718 6
1.299471 0.21629177 0.30413383 14
1.2644097 0.21045595 -0.022373985 7
1.2275482 0.2023395 -0.33335894 0
1.270658 0.20944539 0.0224787 8
1.2460067 0.20515808 -0.29153654 1
1.2849491 0.21133973 0.068246089 9
1.2321116 0.20242912 -0.24270906 2
1.2661611 0.20779572 0.1122566 10
1.2514508 0.20538156 -0.20086187 3
1.2968209 0.21259503 0.16135503 11
1.2557187 0.20563252 -0.15623651 4
1.2808001 0.20950961 0.2055549 12
1.2486089 0.20402013 -0.11068779 5
1.2942897 0.21148427 0.25492084 13
1.2733792 0.20784001 -0.067618065 6
1.3078744 0.21323532 0.30593342 14
1.2730315 0.20732647 -0.022513606 7
1.2301197 0.19857523 -0.33387658 0
1.2713814 0.20500834 0.0224787 8
1.2351717 0.19894782 -0.28883713 1
1.285679 0.20685339 0.068246089 9
1.2347145 0.19865368 -0.24309067 2
1.2806131 0.20580907 0.11347678 10
1.2443585 0.19975917 -0.1996104 3
1.2877547 0.20649573 0.16013633 11
1.2603492 0.20187557 -0.15672398 4
1.289326 0.20628549 0.20680638 12
1.2591155 0.20145197 -0.11155935 5
1.2988973 0.20758502 0.25568405 13
1.2583185 0.20087464 -0.066780686 6
1.3086109 0.20866835 0.30593342 14
1.2796717 0.2038254 -0.022618318 7
1.310697 0.20853254 0.35561737 15
1.2365301 0.19518338 -0.33542949 0
1.2701138 0.20025796 0.022443794 8
1.2377836 0.19493905 -0.28928703 1
1.2785012 0.20112242 0.067827404 9
1.2412186 0.19525746 -0.24423553 2
1.291165 0.20288366 0.11434833 10
1.2528541 0.19664037 -0.20086187 3
1.2884676 0.20199902 0.16013633 11
1.2532015 0.19624612 -0.15574904 4
1.2900381 0.20178454 0.20680638 12
1.2637478 0.19767226 -0.11190797 5
1.3034935 0.20365551 0.25644732 13
1.2590121 0.19648075 -0.066780686 6
1.3016293 0.2028995 0.30413383 14
1.2843273 0.19997223 -0.022688128 7
1.3209615 0.20544012 0.35820559 15
1.2448407 0.19204433 -0.33750004 0
1.280687 0.19734558 0.022618318 8
1.2423086 0.19120978 -0.29018685 1
1.269325 0.19514126 0.067304045 9
1.2418926 0.19092388 -0.24423553 2
1.2879266 0.19777091 0.11399971 10
1.261343 0.19346346 -0.20211335 3
1.2930893 0.1981017 0.1606238 11
1.2499542 0.19127014 -0.15526156 4
1.2868294 0.19668299 0.20618065 12
1.2703388 0.19416252 -0.11243091 5
1.3119596 0.20028904 0.25797379 13
1.267588 0.19328932 -0.067199372 6
1.2984765 0.19776753 0.30323401 14
1.269202 0.19308154 -0.02240889 7
1.3293103 0.201989 0.36027613 15
1.2302214 0.18539509 -0.33335894 0
1.2873005 0.19376655 0.022723034 8
1.2352601 0.1857135 -0.28838724 1
1.2798741 0.19219251 0.067827404 9
1.2386684 0.18600488 -0.24347228 2
1.2767869 0.19150047 0.11295383 10
1.2620106 0.18905963 -0.20211335 3
1.2976993 0.19417454 0.16111128 11
1.2741739 0.19042648 -0.15818642 4
1.279693 0.19102363 0.20492917 12
1.2670676 0.18913899 -0.11208228 5
1.3126507 0.19570848 0.25797379 13
1.2722062 0.1894515 -0.067408718 6
1.3068691 0.19438085 0.30503362 14
1.2738242 0.189238 -0.0224787 7
1.3223635 0.19621307 0.35820559 15
1.2270385 0.18053696 -0.33232367 0
1.2780766 0.18781842 0.02254851 8
1.2359009 0.18140018 -0.28838724 1
1.290418 0.1891719 0.06835077 9
1.2393103 0.18167964 -0.24347228 2
1.273505 0.18646547 0.11260521 10
1.2548447 0.18350957 -0.20086187 3
1.2964051 0.18935631 0.16086754 11
1.263045 0.18425854 -0.15672398 4
1.2842615 0.18712479 0.2055549 12
1.2519794 0.18219794 -0.11068779 5
1.2977835 0.18886372 0.25492084 13
1.2728597 0.18500978 -0.067408718 6
1.3191108 0.1914973 0.30773303 14
1.2823929 0.18593836 -0.022618318 7
1.3153926 0.19048874 0.35613501 15
1.2315165 0.17658707 -0.33335894 0
1.2747656 0.18278858 0.0224787 8
1.2345976 0.17680839 -0.28793734 1
1.2930475 0.18494943 0.068455435 9
1.251629 0.17880167 -0.24576201 2
1.2820696 0.18292196 0.11330246 10
1.2555088 0.17890938 -0.20086187 3
1.2911623 0.18399 0.16013633 11
1.2676111 0.18040763 -0.15721147 4
1.2966412 0.18430836 0.20743214 12
1.2604982 0.17894708 -0.11138504 5
1.3062422 0.18520795 0.25644732 13
1.2735293 0.18034296 -0.067408718 6
1.3159447 0.18611573 0.30683324 14
1.2790741 0.18090107 -0.02254851 7
1.3160497 0.18589567 0.35613501 15
1.2436048 0.17389263 -0.33646476 0
1.2793878 0.1786679 0.02254851 8
1.2352372 0.17228246 -0.28793734 1
1.2877508 0.17960669 0.068141423 9
1.2522454 0.17443185 -0.24576201 2
1.286647 0.17899491 0.11365108 10
1.254169 0.17425355 -0.20054901 3
1.2878956 0.1787104 0.15964885 11
1.2603985 0.17467068 -0.15623651 4
1.2933632 0.17923905 0.20680638 12
1.2650623 0.17509197 -0.11173366 5
1.3029913 0.18010981 0.25568405 13
1.2662369 0.17480414 -0.066990033 6
1.3088646 0.1804561 0.30503362 14
1.2955455 0.17861979 -0.022827748 7
1.3243457 0.182355 0.35820559 15
1.2442043 0.16955024 -0.33646476 0
1.2878989 0.17550461 0.022688128 8
1.2319399 0.16765939 -0.28703755 1
1.2784747 0.17376584 0.067618065 9
1.245065 0.16900362 -0.24423553 2
1.2951614 0.1755728 0.11434833 10
1.258655 0.17062397 -0.20117474 3
1.2963496 0.17550413 0.1606238 11
1.2550693 0.1696924 -0.15550528 4
1.2920237 0.17445862 0.20649351 12
1.2735639 0.17173974 -0.11243091 5
1.3191465 0.17788655 0.258737 13
1.2747272 0.17167072 -0.067408718 6
1.3055931 0.17559488 0.30413383 14
1.2803059 0.17196643 -0.02254851 7
1.332633 0.17875871 0.36027613 15
1.2370996 0.16440506 -0.33439422 0
1.296433 0.17205995 0.022827748 8
1.2402449 0.16438313 -0.28883713 1
1.2869636 0.17057526 0.06803675 9
1.2417262 0.16435833 -0.24347228 2
1.2858604 0.16997172 0.11347678 10
1.2670764 0.16726439 -0.20242621 3
1.2969545 0.17097762 0.1606238 11
1.2773032 0.1681602 -0.15818642 4
1.2847611 0.16914205 0.20524204 12
1.2642493 0.16621779 -0.11155935 5
1.3197595 0.17328106 0.258737 13
1.271358 0.16670036 -0.067199372 6
1.3100624 0.17154336 0.30503362 14
1.280869 0.16772069 -0.02254851 7
1.3255563 0.17333624 0.35820559 15
1.2300025 0.1590942 -0.33232367 0
1.2831142 0.16596392 0.022583414 8
1.2407832 0.16026908 -0.28883713 1
1.3014171 0.1678701 0.068769448 9
1.2442394 0.16027337 -0.24385393 2
1.272613 0.1637031 0.1122566 10
1.2558687 0.16154917 -0.20054901 3
1.30539 0.16768779 0.16159877 11
1.2621022 0.16190261 -0.15623651 4
1.2853436 0.16465664 0.20524204 12
1.2648219 0.16180338 -0.11155935 5
1.316432 0.16840565 0.25797379 13
1.2837908 0.16400167 -0.067827404 6
1.3183565 0.16818416 0.30683324 14
1.285414 0.16375367 -0.022618318 7
1.3261533 0.16870777 0.35820559 15
1.2420235 0.15646347 -0.33542949 0
1.2797176 0.16098572 0.022513606 8
1.2355347 0.15520796 -0.28748745 1
1.3019952 0.16332594 0.068769448 9
1.254504 0.15736851 -0.24576201 2
1.2850106 0.16096817 0.11330246 10
1.2525048 0.15667368 -0.19992328 3
1.3020277 0.16263765 0.16111128 11
1.2784181 0.15946257 -0.15818642 4
1.297672 0.16163358 0.20711927 12
1.2614247 0.15689516 -0.11121072 5
1.3053224 0.16235514 0.25568405 13
1.2764274 0.15853561 -0.067408718 6
1.3228034 0.16406058 0.30773303 14
1.293916 0.16024852 -0.022757938 7
1.3305684 0.16455272 0.35924083 15
1.2464237 0.15237932 -0.33646476 0
1.2862264 0.15724532 0.022618318 8
1.2283312 0.14995047 -0.28568783 1
1.2886794 0.1570887 0.06803675 9
1.2589701 0.1532442 -0.24652523 2
1.2935033 0.15721792 0.11399971 10
1.2609144 0.15303424 -0.20117474 3
1.2927343 0.15689614 0.15989259 11
1.2612309 0.1528493 -0.15599278 4
1.2962672 0.15686519 0.20680638 12
1.2698766 0.15344734 -0.11190797 5
1.3098068 0.15804045 0.25644732 13
1.277 0.15385526 -0.067408718 6
1.3156565 0.15828037 0.30593342 14
1.3024089 0.15668662 -0.022897556 7
1.2507848 0.14848328 -0.33750004 0
1.2907656 0.15300107 0.022688128 8
1.2366136 0.14636272 -0.28748745 1
1.283296 0.15166144 0.06772273 9
1.2497488 0.14769681 -0.24461715 2
1.3039374 0.15387014 0.11487127 10
1.2653646 0.14909387 -0.20180048 3
1.3011867 0.15308507 0.16086754 11
1.2716404 0.14938393 -0.15721147 4
1.2968334 0.15211336 0.20680638 12
1.2783461 0.1497187 -0.11260521 5
1.3220502 0.1548373 0.258737 13
1.2775291 0.14939764 -0.067408718 6
1.31233 0.15323454 0.30503362 14
1.2870845 0.15005907 -0.022618318 7
1.2494015 0.14367692 -0.3369824 0
1.2992383 0.149408 0.022827748 8
1.240989 0.14249007 -0.28838724 1
1.2917546 0.14809057 0.068141423 9
1.2502818 0.14311494 -0.24461715 2
1.2906361 0.14750594 0.11365108 10
1.2737533 0.14535122 -0.20305197 3
1.3036854 0.14876686 0.16111128 11
1.2721541 0.14494383 -0.15721147 4
1.2914684 0.14691611 0.20586778 12
1.2709421 0.14435638 -0.11190797 5
1.3226087 0.14999099 0.258737 13
1.2820373 0.14516336 -0.067618065 6
1.3167555 0.14886171 0.30593342 14
1.2876004 0.14556567 -0.022618318 7
1.2460068 0.139322 -0.33594716 0
1.2917773 0.14421093 0.022688128 8
1.2530751 0.13966949 -0.29108664 1
1.3001786 0.14469001 0.068560109 9
1.2546276 0.13962087 -0.24538037 2
1.289113 0.14323018 0.11347678 10
1.2624234 0.14004235 -0.20117474 3
1.3100905 0.14509867 0.1618425 11
1.28052 0.14159676 -0.15818642 4
1.2958753 0.14306642 0.20649351 12
1.2674288 0.13992588 -0.11155935 5
1.3152677 0.14497502 0.25721052 13
1.2904282 0.14200854 -0.06803675 6
1.324965 0.14557584 0.30773303 14
1.2920517 0.1417314 -0.022688128 7
1.2560887 0.13601129 -0.33853534 0
1.2863085 0.13905641 0.022583414 8
1.2419301 0.13403961 -0.28838724 1
1.3046473 0.14057824 0.068769448 9
1.2590114 0.13566087 -0.24614362 2
1.291586 0.13894284 0.11365108 10
1.2589766 0.1352126 -0.20054901 3
1.2987466 0.1392546 0.16038008 11
1.2849541 0.13754889 -0.1586739 4
1.3002952 0.13896158 0.20711927 12
1.2718716 0.13592397 -0.11190797 5
1.3157657 0.14038265 0.25721052 13
1.2750276 0.13581114 -0.067199372 6
1.3254651 0.14094961 0.30773303 14
1.2965156 0.13764229 -0.022757938 7
1.2488704 0.13082109 -0.33646476 0
1.2907637 0.13498175 0.022653224 8
1.2404523 0.12950157 -0.28793734 1
1.2932111 0.13478138 0.068141423 9
1.2653351 0.13187608 -0.24728847 2
1.3019717 0.13546473 0.11452264 10
1.2633704 0.13122496 -0.20117474 3
1.2972502 0.13451579 0.16013633 11
1.2735791 0.13183662 -0.15721147 4
1.3086319 0.13523372 0.20837073 12
1.2802657 0.13230236 -0.11260521 5
1.3201535 0.13619213 0.25797379 13
1.2794676 0.13176915 -0.067408718 6
1.3143179 0.13512586 0.30503362 14
1.3049451 0.13393272 -0.022897556 7
1.2531635 0.1268497 -0.33750004 0
1.2991853 0.13127977 0.022792844 8
1.2447745 0.12556161 -0.28883713 1
1.2896993 0.12986585 0.067932077 9
1.2579744 0.12667133 -0.24576201 2
1.3044189 0.13111873 0.11469696 10
1.2756139 0.12799779 -0.20305197 3
1.2957367 0.12978853 0.15989259 11
1.2760067 0.12758796 -0.15745521 4
1.2973024 0.12948802 0.20649351 12
1.2886499 0.12862439 -0.11330246 5
1.3245281 0.13197206 0.258737 13
1.2878695 0.12809251 -0.067827404 6
1.3147815 0.13053748 0.30503362 14
1.293465 0.12819313 -0.022688128 7
1.2459079 0.12172346 -0.33542949 0
1.301626 0.1269377 0.022827748 8
1.2432656 0.12102722 -0.28838724 1
1.2980964 0.12613609 0.06835077 9
1.2447305 0.12095053 -0.24309067 2
1.2989194 0.12598725 0.11417402 10
1.2760528 0.12354455 -0.20305197 3
1.3119888 0.12679267 0.1618425 11
1.2685407 0.12237033 -0.15648025 4
1.2997128 0.12514842 0.20680638 12
1.2732252 0.12259795 -0.11190797 5
1.328889 0.12772371 0.25950024 13
1.2843325 0.12321503 -0.067618065 6
1.3229887 0.12668996 0.30683324 14
1.2939047 0.12367758 -0.022688128 7
1.2463253 0.11737335 -0.33542949 0
1.3020611 0.12239306 0.022827748 8
1.2533816 0.11759714 -0.29063675 1
1.3025059 0.12197623 0.068560109 9
1.2568733 0.11770286 -0.24538037 2
1.2834814 0.11996868 0.11277953 10
1.2686089 0.11835582 -0.20180048 3
1.3084705 0.12184376 0.16135503 11
1.2827963 0.11922717 -0.15818642 4
1.3060424 0.12115848 0.207745 12
1.2696778 0.11778501 -0.11155935 5
1.3254172 0.12272189 0.258737 13
1.2887323 0.11909837 -0.067827404 6
1.3311849 0.12278796 0.30863285 14
1.298311 0.11952656 -0.022757938 7
1.2467273 0.11302242 -0.33542949 0
1.2945141 0.11712676 0.022688128 8
1.2576661 0.1135715 -0.29153654 1
1.3108804 0.11814629 0.068978801 9
1.2650977 0.11402001 -0.24690685 2
1.297783 0.11673752 0.11399971 10
1.2611445 0.11321997 -0.20054901 3
1.312842 0.11762955 0.1618425 11
1.2911134 0.11545616 -0.15916139 4
1.3103925 0.11694966 0.20837073 12
1.2780192 0.11406041 -0.1122566 5
1.3219265 0.11774585 0.25797379 13
1.2811826 0.113892 -0.067408718 6
1.3490754 0.1196901 0.31268197 14
1.3066881 0.11569902 -0.022897556 7
1.2548125 0.10934089 -0.33750004 0
1.2969073 0.11278025 0.022723034 8
1.2483476 0.10833856 -0.28928703 1
1.3073052 0.11322534 0.068769448 9
1.265488 0.10960357 -0.24690685 2
1.3041376 0.11272106 0.11452264 10
1.2654681 0.10915684 -0.20117474 3
1.301378 0.11202556 0.16038008 11
1.2835972 0.11026866 -0.15818642 4
1.3127611 0.11254321 0.20868361 12
1.2843648 0.11010879 -0.11277953 5
1.3223294 0.11313166 0.25797379 13
1.2775923 0.10907897 -0.067199372 6
1.3110689 0.11147685 -0.022967368 7
1.262887 0.10560371 -0.33957058 0
1.2992857 0.10841969 0.022757938 8
1.2545444 0.10446514 -0.29063675 1
1.2957501 0.10766862 0.068141423 9
1.2639066 0.10502262 -0.24652523 2
1.3065087 0.10833363 0.11469696 10
1.2815908 0.10604166 -0.2036777 3
1.3076962 0.10797191 0.16111128 11
1.2800175 0.10546227 -0.15769894 4
1.2993648 0.10682739 0.20649351 12
1.286727 0.10578837 -0.11295383 5
1.3305428 0.10915693 0.25950024 13
1.2859277 0.10527141 -0.067618065 6
1.3034778 0.1062495 -0.022827748 7
1.2555453 0.10057799 -0.33750004 0
1.315603 0.10515798 0.023037177 8
1.2626717 0.10070472 -0.29243636 1
1.3060728 0.10393743 0.068664782 9
1.2583941 0.10014315 -0.24538037 2
1.3009204 0.10329892 0.11417402 10
1.2819531 0.10156708 -0.2036777 3
1.3140018 0.10387612 0.1618425 11
1.2843357 0.10130539 -0.15818642 4
1.3056376 0.10275571 0.20743214 12
1.283116 0.10098323 -0.11260521 5
1.3387446 0.10512685 0.26102671 13
1.2942519 0.10140573 -0.06803675 6
1.295866 0.10107712 -0.022688128 7
1.2520363 0.095899299 -0.33646476 0
1.3079865 0.099955179 0.022897556 8
1.2649585 0.096445575 -0.29288626 1
1.3123847 0.10006155 0.068978801 9
1.2626513 0.096047424 -0.24614362 2
1.2972997 0.098455347 0.1138254 10
1.2704813 0.096197635 -0.20180048 3
1.3163358 0.099437952 0.16208623 11
1.2886405 0.097119622 -0.1586739 4
1.3079408 0.098574214 0.207745 12
1.2755134 0.095907032 -0.11190797 5
1.3312725 0.099865325 0.25950024 13
1.3025649 0.097483225 -0.068455435 6
1.308159 0.097672932 -0.022897556 7
1.2523633 0.091528557 -0.33646476 0
1.2923557 0.09445139 0.022618318 8
1.2594407 0.09182483 -0.29153654 1
1.3147181 0.095624395 0.069083467 9
1.2747275 0.092491478 -0.24843332 2
1.2996227 0.094070435 0.11399971 10
1.2707934 0.091983691 -0.20180048 3
1.3186383 0.095215507 0.16232997 11
1.2948955 0.093273312 -0.15940511 4
1.314188 0.094433069 0.20868361 12
1.2798152 0.091738656 -0.1122566 5
1.319847 0.09460818 0.25721052 13
1.2988966 0.092877954 -0.068246089 6
1.3124814 0.093389519 -0.022967368 7
1.2603687 0.087913021 -0.33853534 0
1.304647 0.090772703 0.022827748 8
1.2597535 0.087427668 -0.29153654 1
1.3070738 0.090483144 0.068664782 9
1.2750272 0.088264681 -0.24843332 2
1.3078781 0.090309478 0.11469696 10
1.2730774 0.08768262 -0.20211335 3
1.311041 0.090068087 0.16135503 11
1.2813499 0.087803632 -0.15769894 4
1.3125386 0.089710057 0.20837073 12
1.2920388 0.08830893 -0.11330246 5
1.3280041 0.090534247 0.258737 13
1.287257 0.087530687 -0.067618065 6
1.3127993 0.088807188 -0.022967368 7
1.2722336 0.084278807 -0.34164116 0
1.3129373 0.086745061 0.022967368 8
1.2639401 0.0832863 -0.29243636 1
1.3033959 0.085657753 0.068455435 9
1.2635734 0.083040662 -0.24614362 2
1.3121616 0.086003833 0.11504558 10
1.2871741 0.084140457 -0.20430344 3
1.3113475 0.085490808 0.16135503 11
1.2816486 0.083330013 -0.15769894 4
1.3069302 0.084744729 0.20743214 12
1.290351 0.083669692 -0.11312816 5
1.3322302 0.086151764 0.25950024 13
1.2955271 0.083551221 -0.06803675 6
1.30911 0.083968394 -0.022897556 7
1.2532395 0.078627378 -0.33646476 0
1.3192192 0.082536392 0.023072081 8
1.2661681 0.078995436 -0.29288626 1
1.3096671 0.081479229 0.068769448 9
1.2677743 0.078872927 -0.24690685 2
1.3064882 0.081053182 0.11452264 10
1.28746 0.079646528 -0.20430344 3
1.3215445 0.08152359 0.16257372 11
1.2858944 0.079099752 -0.15818642 4
1.3111614 0.08042369 0.20805787 12
1.2826806 0.078676745 -0.11243091 5
1.3442805 0.08221966 0.26178995 13
1.2958108 0.079028755 -0.06803675 6
1.3054032 0.079155825 -0.022827748 7
1.2535063 0.074252538 -0.33646476 0
1.3095183 0.077341117 0.022897556 8
1.2683815 0.074689418 -0.29333615 1
1.3139312 0.077141538 0.068978801 9
1.268042 0.074447356 -0.24690685 2
1.2968181 0.075909719 0.11365108 10
1.2778698 0.074576788 -0.20273907 3
1.3277662 0.07725624 0.16330492 11
1.2980533 0.07530009 -0.15964885 4
1.309462 0.075732619 0.207745 12
1.2809584 0.074084118 -0.1122566 5
1.3367193 0.077074975 0.26026347 13
1.3080425 0.075192437 -0.068664782 6
1.3136573 0.075055167 -0.022967368 7
1.2614734 0.070306212 -0.33853534 0
1.3017938 0.072326131 0.022757938 8
1.2627972 0.069938466 -0.29198647 1
1.3181809 0.07277444 0.06918814 9
1.2780955 0.070561394 -0.24881494 2
1.3110009 0.072148547 0.11487127 10
1.2741776 0.069899604 -0.20211335 3
1.3200992 0.072187088 0.16232997 11
1.3022726 0.070984319 -0.16013633 4
1.3215531 0.071804583 0.2096222 12
1.285188 0.069828734 -0.11260521 5
1.3330593 0.072195783 0.25950024 13
1.2883536 0.069549099 -0.067618065 6
1.3139113 0.070468843 -0.022967368 7
