# This PCD file was generated using the MATLAB® pcwrite function
# from Computer Vision Toolbox®.
# .PCD v.7 - Point Cloud Data file format
VERSION .7
FIELDS x y z intensity
SIZE 4 4 4 4
TYPE F F F F
COUNT 1 1 1 1
WIDTH 1263
HEIGHT 1
VIEWPOINT 0 0 0 1 0 0 0
POINTS 1263
DATA ascii
4.291517 1.764219 0.227567 56.000000
4.294133 1.749914 0.227443 56.000000
4.299482 1.736732 0.227443 56.000000
4.303862 1.723162 0.227402 56.000000
4.298912 1.705899 0.226947 56.000000
4.308774 1.694529 0.227154 56.000000
4.306505 1.678401 0.226823 56.000000
4.306973 1.663382 0.226616 56.000000
4.307390 1.648376 0.226410 56.000000
4.313361 1.635508 0.226451 56.000000
4.312746 1.620160 0.226203 56.000000
4.313014 1.605180 0.225996 56.000000
4.320731 1.592976 0.226120 56.000000
4.323720 1.579028 0.226037 56.000000
4.323846 1.564057 0.225831 56.000000
4.325802 1.549775 0.225707 56.000000
4.326770 1.535160 0.225541 56.000000
4.320146 1.517907 0.225045 56.000000
4.324783 1.504646 0.225045 56.000000
4.330323 1.491696 0.225086 56.000000
4.333934 1.478081 0.225045 56.000000
4.337502 1.464459 0.225004 56.000000
4.341026 1.450828 0.224962 56.000000
4.344508 1.437190 0.224921 56.000000
4.346998 1.423233 0.224838 56.000000
4.354195 1.410813 0.224962 56.000000
4.361358 1.398362 0.225086 56.000000
4.365627 1.384975 0.225086 56.000000
4.377483 1.373967 0.225417 56.000000
4.952336 1.537564 0.250146 56.000000
4.958941 1.522950 0.250229 56.000000
4.967414 1.508890 0.250394 56.000000
4.973934 1.494217 0.250477 56.000000
4.977536 1.478666 0.250435 56.000000
3.503462 -0.463170 0.181790 56.000000
3.487173 -0.471902 0.181170 56.000000
3.481750 -0.482048 0.181005 56.000000
3.475309 -0.492026 0.180798 56.000000
3.472794 -0.502542 0.180756 56.000000
3.466295 -0.512462 0.180550 56.000000
3.458778 -0.522197 0.180302 56.000000
3.452223 -0.532044 0.180095 56.000000
3.449588 -0.542477 0.180053 56.000000
3.443961 -0.552423 0.179888 56.000000
3.440278 -0.562663 0.179805 56.000000
3.433608 -0.572392 0.179599 56.000000
3.437746 -0.583930 0.179847 56.000000
3.432985 -0.593962 0.179723 56.000000
3.429178 -0.604144 0.179640 56.000000
3.425342 -0.614308 0.179557 56.000000
3.420493 -0.624275 0.179433 56.000000
3.411685 -0.633487 0.179144 56.000000
3.406780 -0.643393 0.179020 56.000000
3.401847 -0.653276 0.178896 56.000000
3.397866 -0.663326 0.178813 56.000000
3.394835 -0.673553 0.178771 56.000000
3.391773 -0.683767 0.178730 56.000000
3.387702 -0.693768 0.178647 56.000000
3.378711 -0.702731 0.178358 56.000000
3.376539 -0.713094 0.178358 56.000000
3.370427 -0.722610 0.178193 56.000000
3.365266 -0.732309 0.178068 56.000000
3.363979 -0.742846 0.178110 56.000000
3.357785 -0.752288 0.177944 56.000000
3.351564 -0.761699 0.177779 56.000000
3.347264 -0.771528 0.177696 56.000000
3.340990 -0.780883 0.177531 56.000000
3.336634 -0.790668 0.177448 56.000000
3.333221 -0.800667 0.177407 56.000000
3.331720 -0.811126 0.177448 56.000000
3.327276 -0.820865 0.177365 56.000000
3.323773 -0.830826 0.177324 56.000000
3.319271 -0.840528 0.177241 56.000000
3.315709 -0.850459 0.177200 56.000000
3.310183 -0.859873 0.177076 56.000000
3.309462 -0.870533 0.177159 56.000000
3.307741 -0.880940 0.177200 56.000000
3.305023 -0.891084 0.177200 56.000000
3.302274 -0.901219 0.177200 56.000000
3.300456 -0.911613 0.177241 56.000000
3.296682 -0.921465 0.177200 56.000000
3.292878 -0.931302 0.177159 56.000000
3.288084 -0.940850 0.177076 56.000000
3.282303 -0.950099 0.176952 56.000000
3.277455 -0.959602 0.176869 56.000000
3.270664 -0.968517 0.176704 56.000000
3.267677 -0.978546 0.176704 56.000000
3.262748 -0.987987 0.176621 56.000000
3.257790 -0.997407 0.176538 56.000000
3.254715 -1.007397 0.176538 56.000000
3.249702 -1.016780 0.176456 56.000000
3.248472 -1.027348 0.176538 56.000000
3.245305 -1.037310 0.176538 56.000000
3.234502 -1.044802 0.176208 56.000000
4.295684 1.936756 0.200999 57.000000
4.278797 1.913371 0.200122 57.000000
4.280992 1.898615 0.199982 57.000000
4.284052 1.884265 0.199877 57.000000
4.283401 1.868316 0.199631 57.000000
4.283608 1.852786 0.199421 57.000000
4.289273 1.839636 0.199421 57.000000
4.289378 1.824121 0.199210 57.000000
4.293112 1.810177 0.199140 57.000000
4.296802 1.796226 0.199070 57.000000
4.298599 1.781505 0.198930 57.000000
4.299422 1.766410 0.198754 57.000000
4.305747 1.753589 0.198790 57.000000
4.308326 1.739248 0.198684 57.000000
4.311786 1.725280 0.198614 57.000000
4.313343 1.710570 0.198474 57.000000
4.311129 1.694405 0.198193 57.000000
4.311651 1.679358 0.198018 57.000000
4.312121 1.664323 0.197843 57.000000
4.312539 1.649301 0.197667 57.000000
4.317579 1.636063 0.197667 57.000000
4.319771 1.621755 0.197562 57.000000
4.322853 1.607798 0.197492 57.000000
4.326827 1.594183 0.197457 57.000000
4.327942 1.579531 0.197316 57.000000
4.329009 1.564887 0.197176 57.000000
4.330966 1.550588 0.197071 57.000000
4.334761 1.536959 0.197036 57.000000
4.338513 1.523322 0.197001 57.000000
4.335614 1.507380 0.196720 57.000000
4.333603 1.491795 0.196475 57.000000
4.335322 1.477525 0.196369 57.000000
4.339834 1.464218 0.196369 57.000000
4.342410 1.450264 0.196299 57.000000
4.346839 1.436934 0.196299 57.000000
4.349328 1.422970 0.196229 57.000000
4.355574 1.410236 0.196299 57.000000
4.362735 1.397781 0.196404 57.000000
4.368909 1.384993 0.196475 57.000000
4.376952 1.372779 0.196615 57.000000
4.386870 1.361121 0.196825 57.000000
4.981478 1.528818 0.218501 57.000000
4.984232 1.512948 0.218431 57.000000
4.979278 1.494776 0.218080 57.000000
3.503641 -0.453197 0.159612 57.000000
3.498271 -0.463418 0.159472 57.000000
3.496833 -0.474149 0.159472 57.000000
3.489423 -0.484050 0.159261 57.000000
3.485942 -0.494472 0.159191 57.000000
3.477486 -0.504160 0.158946 57.000000
3.469991 -0.513947 0.158735 57.000000
3.463457 -0.523843 0.158560 57.000000
3.456896 -0.533703 0.158384 57.000000
3.449319 -0.543373 0.158174 57.000000
3.437768 -0.552366 0.157823 57.000000
3.438030 -0.563233 0.157893 57.000000
3.434314 -0.573449 0.157823 57.000000
3.428598 -0.583312 0.157683 57.000000
3.427777 -0.593999 0.157718 57.000000
3.427907 -0.604860 0.157788 57.000000
3.423084 -0.614843 0.157683 57.000000
3.420199 -0.625162 0.157648 57.000000
3.413352 -0.634738 0.157472 57.000000
3.407461 -0.644464 0.157332 57.000000
3.403505 -0.654537 0.157262 57.000000
3.398538 -0.664400 0.157157 57.000000
3.396484 -0.674824 0.157157 57.000000
3.392438 -0.684845 0.157087 57.000000
3.388363 -0.694848 0.157016 57.000000
3.384259 -0.704832 0.156946 57.000000
3.380125 -0.714798 0.156876 57.000000
3.374008 -0.724325 0.156736 57.000000
3.371770 -0.734673 0.156736 57.000000
3.366573 -0.744367 0.156631 57.000000
3.364273 -0.754692 0.156631 57.000000
3.358044 -0.764122 0.156490 57.000000
3.354710 -0.774196 0.156455 57.000000
3.352319 -0.784484 0.156455 57.000000
3.346007 -0.793842 0.156315 57.000000
3.343556 -0.804104 0.156315 57.000000
3.339131 -0.813884 0.156245 57.000000
3.332738 -0.823166 0.156105 57.000000
3.327288 -0.832659 0.155999 57.000000
3.322781 -0.842371 0.155929 57.000000
3.319213 -0.852313 0.155894 57.000000
3.313681 -0.861737 0.155789 57.000000
3.311022 -0.871899 0.155789 57.000000
3.308331 -0.882053 0.155789 57.000000
3.305609 -0.892199 0.155789 57.000000
3.303820 -0.902600 0.155824 57.000000
3.300073 -0.912465 0.155789 57.000000
3.296295 -0.922316 0.155754 57.000000
3.292489 -0.932152 0.155719 57.000000
3.287692 -0.941698 0.155649 57.000000
3.281908 -0.950945 0.155543 57.000000
3.278975 -0.961010 0.155543 57.000000
3.273137 -0.970213 0.155438 57.000000
3.266315 -0.979102 0.155298 57.000000
3.262340 -0.988828 0.155263 57.000000
3.259291 -0.998832 0.155263 57.000000
3.254302 -1.008235 0.155193 57.000000
3.252147 -1.018513 0.155228 57.000000
3.248054 -1.028184 0.155193 57.000000
3.238222 -1.036011 0.154947 57.000000
3.965173 1.951114 0.161486 58.000000
3.972937 1.939817 0.161543 58.000000
3.992362 1.934157 0.161969 58.000000
4.018998 1.931862 0.162624 58.000000
4.043852 1.928560 0.163221 58.000000
4.075048 1.928118 0.164017 58.000000
4.108994 1.928776 0.164899 58.000000
4.119423 1.918271 0.165042 58.000000
4.136178 1.910655 0.165383 58.000000
4.162012 1.907119 0.166009 58.000000
4.179672 1.899719 0.166378 58.000000
4.259291 1.920170 0.168682 58.000000
4.276112 1.911991 0.169024 58.000000
4.280130 1.898052 0.168967 58.000000
4.281359 1.882899 0.168825 58.000000
4.279786 1.866558 0.168597 58.000000
4.282740 1.852228 0.168512 58.000000
4.282890 1.836716 0.168341 58.000000
4.282986 1.821220 0.168170 58.000000
4.288553 1.808072 0.168170 58.000000
4.292235 1.794135 0.168114 58.000000
4.301413 1.782489 0.168227 58.000000
4.302238 1.767385 0.168085 58.000000
4.306715 1.753800 0.168057 58.000000
4.309295 1.739456 0.167971 58.000000
4.313683 1.725856 0.167943 58.000000
4.309666 1.708928 0.167658 58.000000
4.309306 1.693504 0.167488 58.000000
4.310756 1.678824 0.167374 58.000000
4.314021 1.664871 0.167317 58.000000
4.316308 1.650557 0.167232 58.000000
4.319482 1.636598 0.167175 58.000000
4.322611 1.622636 0.167118 58.000000
4.325695 1.608670 0.167061 58.000000
4.327796 1.594354 0.166976 58.000000
4.329850 1.580041 0.166890 58.000000
4.334677 1.566750 0.166890 58.000000
4.335700 1.552096 0.166777 58.000000
4.337615 1.537784 0.166691 58.000000
4.340425 1.523807 0.166634 58.000000
4.343192 1.509827 0.166578 58.000000
4.344968 1.495519 0.166492 58.000000
4.347643 1.481537 0.166435 58.000000
4.344591 1.465635 0.166208 58.000000
4.344327 1.450715 0.166066 58.000000
4.345910 1.436439 0.165980 58.000000
4.347446 1.422167 0.165895 58.000000
4.354642 1.409746 0.165980 58.000000
4.369418 1.399735 0.166293 58.000000
4.374644 1.386625 0.166322 58.000000
4.976892 1.560788 0.184157 58.000000
4.945379 1.534254 0.183076 58.000000
4.951973 1.519661 0.183133 58.000000
4.958526 1.505042 0.183189 58.000000
4.965991 1.490685 0.183275 58.000000
4.976291 1.477150 0.183445 58.000000
3.490835 -0.440974 0.135857 58.000000
3.498388 -0.452835 0.136113 58.000000
3.500946 -0.464091 0.136227 58.000000
3.498515 -0.474695 0.136198 58.000000
3.494071 -0.485015 0.136113 58.000000
3.488608 -0.495170 0.135999 58.000000
3.481137 -0.505011 0.135828 58.000000
3.467706 -0.513931 0.135487 58.000000
3.456229 -0.523073 0.135203 58.000000
3.445717 -0.532301 0.134947 58.000000
3.439131 -0.542093 0.134804 58.000000
3.430543 -0.551531 0.134605 58.000000
3.426862 -0.561730 0.134548 58.000000
3.422164 -0.571747 0.134463 58.000000
3.420394 -0.582244 0.134463 58.000000
3.420562 -0.593076 0.134520 58.000000
3.417742 -0.603393 0.134492 58.000000
3.415874 -0.613876 0.134492 58.000000
3.410042 -0.623634 0.134378 58.000000
3.409095 -0.634276 0.134406 58.000000
3.403204 -0.643989 0.134292 58.000000
3.398268 -0.653860 0.134207 58.000000
3.393303 -0.663708 0.134122 58.000000
3.389290 -0.673725 0.134065 58.000000
3.383287 -0.683329 0.133951 58.000000
3.383133 -0.694107 0.134008 58.000000
3.380009 -0.704280 0.133980 58.000000
3.376855 -0.714439 0.133951 58.000000
3.372692 -0.724376 0.133894 58.000000
3.372408 -0.735146 0.133951 58.000000
3.364280 -0.744194 0.133780 58.000000
3.359055 -0.753856 0.133695 58.000000
3.355752 -0.763936 0.133667 58.000000
3.358262 -0.775351 0.133809 58.000000
3.351974 -0.784740 0.133695 58.000000
3.348579 -0.794789 0.133667 58.000000
3.343209 -0.804357 0.133581 58.000000
3.338783 -0.814137 0.133524 58.000000
3.334329 -0.823897 0.133468 58.000000
3.328876 -0.833395 0.133382 58.000000
3.325335 -0.843358 0.133354 58.000000
3.321764 -0.853308 0.133325 58.000000
3.315260 -0.862488 0.133212 58.000000
3.309699 -0.871892 0.133126 58.000000
3.304111 -0.881269 0.133041 58.000000
3.300426 -0.891141 0.133012 58.000000
3.294784 -0.900473 0.132927 58.000000
3.292006 -0.910577 0.132927 58.000000
3.288234 -0.920403 0.132899 58.000000
3.287318 -0.931031 0.132956 58.000000
3.282525 -0.940562 0.132899 58.000000
3.276743 -0.949793 0.132813 58.000000
3.271896 -0.959280 0.132756 58.000000
3.268937 -0.969313 0.132756 58.000000
3.264990 -0.979050 0.132728 58.000000
3.260058 -0.988483 0.132671 58.000000
3.259877 -0.999358 0.132756 58.000000
3.256796 -1.009355 0.132756 58.000000
3.253684 -1.019342 0.132756 58.000000
3.273413 -1.036559 0.133439 58.000000
3.948286 1.955083 0.135804 59.000000
3.967723 1.949577 0.136145 59.000000
3.977280 1.939149 0.136236 59.000000
4.005707 1.937828 0.136803 59.000000
4.035064 1.936783 0.137393 59.000000
4.049109 1.928265 0.137597 59.000000
4.080313 1.927798 0.138232 59.000000
4.119698 1.930979 0.139071 59.000000
4.141012 1.925500 0.139457 59.000000
4.145992 1.912368 0.139434 59.000000
4.193654 1.918784 0.140478 59.000000
4.285086 1.944768 0.142611 59.000000
4.288298 1.930380 0.142543 59.000000
4.285985 1.913545 0.142338 59.000000
4.287265 1.898361 0.142225 59.000000
4.286662 1.882384 0.142066 59.000000
4.286001 1.866428 0.141907 59.000000
4.280694 1.848511 0.141635 59.000000
4.280832 1.833007 0.141499 59.000000
4.278154 1.816347 0.141295 59.000000
4.284628 1.803601 0.141318 59.000000
4.291064 1.790833 0.141340 59.000000
4.295614 1.777277 0.141318 59.000000
4.303821 1.765229 0.141386 59.000000
4.306438 1.750886 0.141318 59.000000
4.309008 1.736544 0.141249 59.000000
4.307817 1.720719 0.141091 59.000000
4.305640 1.704549 0.140909 59.000000
4.309919 1.690966 0.140886 59.000000
4.313223 1.677010 0.140841 59.000000
4.312751 1.661611 0.140705 59.000000
4.315960 1.647659 0.140660 59.000000
4.319125 1.633702 0.140614 59.000000
4.319437 1.618688 0.140501 59.000000
4.322508 1.604732 0.140455 59.000000
4.326473 1.591118 0.140433 59.000000
4.331334 1.577837 0.140433 59.000000
4.331453 1.562844 0.140319 59.000000
4.333403 1.548538 0.140251 59.000000
4.337191 1.534902 0.140229 59.000000
4.335276 1.519272 0.140070 59.000000
4.344638 1.507604 0.140183 59.000000
4.349243 1.494268 0.140183 59.000000
4.351914 1.480273 0.140138 59.000000
4.347909 1.464042 0.139934 59.000000
4.350483 1.450063 0.139888 59.000000
4.350165 1.435142 0.139775 59.000000
4.353597 1.421478 0.139752 59.000000
4.357938 1.408115 0.139752 59.000000
4.366046 1.395957 0.139843 59.000000
4.377933 1.384970 0.140024 59.000000
4.387886 1.373325 0.140160 59.000000
4.397808 1.361632 0.140297 59.000000
4.944884 1.514557 0.153183 59.000000
4.953334 1.500539 0.153274 59.000000
4.975152 1.490504 0.153682 59.000000
3.478146 -0.441535 0.115386 59.000000
3.482723 -0.452975 0.115522 59.000000
3.485281 -0.464185 0.115613 59.000000
3.485822 -0.475145 0.115658 59.000000
3.482368 -0.485561 0.115613 59.000000
3.476902 -0.495680 0.115522 59.000000
3.470418 -0.505625 0.115409 59.000000
3.458962 -0.514801 0.115182 59.000000
3.454401 -0.524961 0.115114 59.000000
3.440918 -0.533722 0.114841 59.000000
3.434327 -0.543496 0.114728 59.000000
3.427708 -0.553235 0.114615 59.000000
3.425009 -0.563587 0.114592 59.000000
3.420305 -0.573597 0.114524 59.000000
3.417544 -0.583919 0.114501 59.000000
3.414751 -0.594230 0.114478 59.000000
3.411928 -0.604530 0.114456 59.000000
3.409073 -0.614818 0.114433 59.000000
3.403237 -0.624553 0.114342 59.000000
3.399339 -0.634625 0.114297 59.000000
3.392465 -0.644120 0.114183 59.000000
3.389491 -0.654336 0.114161 59.000000
3.384525 -0.664155 0.114093 59.000000
3.382471 -0.674535 0.114093 59.000000
3.378426 -0.684513 0.114047 59.000000
3.378268 -0.695277 0.114093 59.000000
3.375141 -0.705434 0.114070 59.000000
3.371005 -0.715371 0.114025 59.000000
3.363907 -0.724659 0.113911 59.000000
3.360691 -0.734763 0.113889 59.000000
3.356469 -0.744637 0.113843 59.000000
3.353194 -0.754712 0.113820 59.000000
3.348913 -0.764552 0.113775 59.000000
3.346551 -0.774822 0.113775 59.000000
3.342212 -0.784629 0.113730 59.000000
3.338816 -0.794648 0.113707 59.000000
3.332475 -0.803951 0.113616 59.000000
3.330964 -0.814409 0.113639 59.000000
3.325538 -0.823904 0.113571 59.000000
3.322995 -0.834102 0.113571 59.000000
3.316544 -0.843309 0.113480 59.000000
3.316846 -0.854227 0.113548 59.000000
3.310340 -0.863391 0.113457 59.000000
3.303809 -0.872523 0.113367 59.000000
3.298218 -0.881881 0.113299 59.000000
3.294532 -0.891735 0.113276 59.000000
3.289852 -0.901311 0.113231 59.000000
3.286108 -0.911133 0.113208 59.000000
3.283298 -0.921210 0.113208 59.000000
3.278532 -0.930734 0.113163 59.000000
3.271817 -0.939685 0.113072 59.000000
3.267959 -0.949440 0.113049 59.000000
3.265031 -0.959461 0.113049 59.000000
3.261113 -0.969189 0.113026 59.000000
3.258124 -0.979190 0.113026 59.000000
3.257018 -0.989762 0.113072 59.000000
3.255878 -1.000336 0.113117 59.000000
3.253748 -1.010616 0.113140 59.000000
3.299284 -1.035850 0.114297 59.000000
3.926986 -1.245940 0.129316 59.000000
3.898391 -1.250052 0.128726 59.000000
3.987991 1.979729 0.109748 60.000000
3.992252 1.966601 0.109715 60.000000
4.001861 1.956099 0.109781 60.000000
4.047128 1.947541 0.110395 60.000000
4.076546 1.946310 0.110826 60.000000
4.139999 1.945486 0.111771 60.000000
4.171325 1.944598 0.112235 60.000000
4.194517 1.939761 0.112550 60.000000
4.221353 1.936467 0.112931 60.000000
4.249118 1.933440 0.113329 60.000000
4.276905 1.930261 0.113727 60.000000
4.303799 1.926521 0.114109 60.000000
4.321570 1.918579 0.114324 60.000000
4.315538 1.900077 0.114109 60.000000
4.316765 1.884829 0.114026 60.000000
4.317939 1.869591 0.113943 60.000000
4.319061 1.854364 0.113860 60.000000
4.303568 1.832102 0.113479 60.000000
4.302720 1.816170 0.113363 60.000000
4.305504 1.801803 0.113313 60.000000
4.305470 1.786288 0.113213 60.000000
4.309080 1.772310 0.113180 60.000000
4.308941 1.756819 0.113081 60.000000
4.310603 1.742093 0.113014 60.000000
4.310358 1.726631 0.112915 60.000000
4.314705 1.713030 0.112898 60.000000
4.314357 1.697589 0.112799 60.000000
4.313024 1.681804 0.112683 60.000000
4.313499 1.666763 0.112600 60.000000
4.313923 1.651735 0.112517 60.000000
4.316165 1.637429 0.112467 60.000000
4.317425 1.622773 0.112401 60.000000
4.320509 1.608823 0.112368 60.000000
4.324486 1.595214 0.112351 60.000000
4.324664 1.580225 0.112268 60.000000
4.329491 1.566949 0.112268 60.000000
4.330513 1.552311 0.112202 60.000000
4.333371 1.538349 0.112169 60.000000
4.337126 1.524716 0.112152 60.000000
4.342728 1.511731 0.112169 60.000000
4.348291 1.498726 0.112185 60.000000
4.349083 1.484088 0.112119 60.000000
4.352668 1.470419 0.112102 60.000000
4.353366 1.455790 0.112036 60.000000
4.354014 1.441172 0.111970 60.000000
4.358415 1.427807 0.111970 60.000000
4.360873 1.413813 0.111937 60.000000
4.366142 1.400732 0.111953 60.000000
4.371372 1.387633 0.111970 60.000000
4.968042 1.560112 0.122266 60.000000
4.946067 1.536563 0.121802 60.000000
4.948846 1.520795 0.121768 60.000000
4.964970 1.509091 0.121967 60.000000
4.966703 1.492989 0.121918 60.000000
4.994264 1.484577 0.122316 60.000000
3.474435 -0.426210 0.093964 60.000000
3.473111 -0.436867 0.093964 60.000000
3.473737 -0.447777 0.093997 60.000000
3.473338 -0.458563 0.094014 60.000000
3.470924 -0.469083 0.093997 60.000000
3.469469 -0.479730 0.093997 60.000000
3.466001 -0.490091 0.093964 60.000000
3.460523 -0.500149 0.093898 60.000000
3.452049 -0.509738 0.093782 60.000000
3.449480 -0.520177 0.093765 60.000000
3.443915 -0.530148 0.093699 60.000000
3.437334 -0.539934 0.093616 60.000000
3.434674 -0.550318 0.093599 60.000000
3.431983 -0.560692 0.093583 60.000000
3.428274 -0.570889 0.093550 60.000000
3.424535 -0.581069 0.093516 60.000000
3.420766 -0.591231 0.093483 60.000000
3.414997 -0.601029 0.093417 60.000000
3.412153 -0.611326 0.093400 60.000000
3.406327 -0.621073 0.093334 60.000000
3.401456 -0.630972 0.093284 60.000000
3.397540 -0.641034 0.093251 60.000000
3.393593 -0.651077 0.093218 60.000000
3.388636 -0.660910 0.093168 60.000000
3.385612 -0.671108 0.093152 60.000000
3.381577 -0.681096 0.093118 60.000000
3.379471 -0.691468 0.093118 60.000000
3.375376 -0.701425 0.093085 60.000000
3.370273 -0.711157 0.093036 60.000000
3.363188 -0.720445 0.092953 60.000000
3.363892 -0.731398 0.093002 60.000000
3.353822 -0.739988 0.092870 60.000000
3.348609 -0.749618 0.092820 60.000000
3.343369 -0.759223 0.092770 60.000000
3.339075 -0.769027 0.092737 60.000000
3.335726 -0.779040 0.092721 60.000000
3.333321 -0.789270 0.092721 60.000000
3.326023 -0.798324 0.092638 60.000000
3.324529 -0.808761 0.092654 60.000000
3.321062 -0.818717 0.092638 60.000000
3.314655 -0.827932 0.092571 60.000000
3.310160 -0.837606 0.092538 60.000000
3.307575 -0.847757 0.092538 60.000000
3.305926 -0.858152 0.092555 60.000000
3.301344 -0.867782 0.092522 60.000000
3.299633 -0.878164 0.092538 60.000000
3.297888 -0.888543 0.092555 60.000000
3.293217 -0.898130 0.092522 60.000000
3.290447 -0.908229 0.092522 60.000000
3.287645 -0.918320 0.092522 60.000000
3.281926 -0.927585 0.092472 60.000000
3.279064 -0.937649 0.092472 60.000000
3.274251 -0.947149 0.092439 60.000000
3.270371 -0.956908 0.092422 60.000000
3.267420 -0.966937 0.092422 60.000000
3.264438 -0.976957 0.092422 60.000000
3.263339 -0.987547 0.092455 60.000000
3.261250 -0.997847 0.092472 60.000000
3.312614 -1.024709 0.093417 60.000000
3.924910 -1.227545 0.104111 60.000000
3.921126 -1.239581 0.104111 60.000000
3.917305 -1.251605 0.104111 60.000000
3.992325 1.994348 0.083526 61.000000
4.002904 1.984310 0.083579 61.000000
4.008076 1.971579 0.083569 61.000000
4.037470 1.970675 0.083846 61.000000
4.047997 1.960457 0.083899 61.000000
4.078329 1.959720 0.084186 61.000000
4.147226 1.961590 0.084857 61.000000
4.184004 1.963297 0.085219 61.000000
4.208139 1.958890 0.085432 61.000000
4.262246 1.968184 0.085996 61.000000
4.284629 1.962593 0.086188 61.000000
4.304286 1.955642 0.086347 61.000000
4.302972 1.939141 0.086262 61.000000
4.307075 1.925115 0.086241 61.000000
4.305648 1.908651 0.086156 61.000000
4.303244 1.891811 0.086060 61.000000
4.301695 1.875404 0.085975 61.000000
4.308346 1.862594 0.085985 61.000000
4.301173 1.843853 0.085836 61.000000
4.309570 1.831821 0.085868 61.000000
4.306877 1.815097 0.085773 61.000000
4.310580 1.801104 0.085751 61.000000
4.312390 1.786341 0.085709 61.000000
4.314150 1.771583 0.085666 61.000000
4.314007 1.756077 0.085602 61.000000
4.315665 1.741338 0.085560 61.000000
4.316345 1.726233 0.085506 61.000000
4.317903 1.711509 0.085464 61.000000
4.317548 1.696061 0.085400 61.000000
4.319004 1.681356 0.085357 61.000000
4.320410 1.666658 0.085315 61.000000
4.318965 1.650897 0.085240 61.000000
4.318398 1.635514 0.085176 61.000000
4.322460 1.621907 0.085166 61.000000
4.324603 1.607593 0.085134 61.000000
4.327638 1.593627 0.085112 61.000000
4.331567 1.580000 0.085102 61.000000
4.338275 1.567382 0.085123 61.000000
4.337415 1.552045 0.085059 61.000000
4.342156 1.538730 0.085059 61.000000
4.344969 1.524740 0.085038 61.000000
4.349627 1.511402 0.085038 61.000000
4.355188 1.498376 0.085049 61.000000
4.354085 1.483073 0.084985 61.000000
4.351982 1.467472 0.084910 61.000000
4.356464 1.454113 0.084910 61.000000
4.358056 1.439801 0.084878 61.000000
4.360552 1.425802 0.084857 61.000000
4.364905 1.412417 0.084857 61.000000
4.369218 1.399019 0.084857 61.000000
4.370630 1.384702 0.084825 61.000000
4.374857 1.371287 0.084825 61.000000
4.972165 1.541719 0.091436 61.000000
4.948191 1.517663 0.091117 61.000000
4.954738 1.503056 0.091138 61.000000
4.970819 1.491295 0.091266 61.000000
3.480752 -0.418312 0.073338 61.000000
3.477467 -0.428744 0.073316 61.000000
3.475143 -0.439285 0.073306 61.000000
3.472787 -0.449816 0.073295 61.000000
3.469409 -0.460205 0.073274 61.000000
3.466990 -0.470712 0.073263 61.000000
3.464539 -0.481209 0.073253 61.000000
3.462056 -0.491695 0.073242 61.000000
3.458552 -0.502027 0.073221 61.000000
3.452050 -0.511901 0.073167 61.000000
3.448486 -0.522190 0.073146 61.000000
3.447856 -0.532920 0.073157 61.000000
3.442254 -0.542872 0.073114 61.000000
3.438598 -0.553112 0.073093 61.000000
3.436885 -0.563659 0.073093 61.000000
3.432180 -0.573705 0.073061 61.000000
3.427447 -0.583729 0.073029 61.000000
3.422684 -0.593728 0.072997 61.000000
3.414939 -0.603182 0.072933 61.000000
3.411104 -0.613302 0.072912 61.000000
3.404288 -0.622863 0.072859 61.000000
3.400395 -0.632939 0.072837 61.000000
3.395490 -0.642810 0.072805 61.000000
3.393502 -0.653224 0.072805 61.000000
3.388538 -0.663055 0.072773 61.000000
3.383545 -0.672863 0.072741 61.000000
3.381465 -0.683240 0.072741 61.000000
3.376415 -0.693008 0.072710 61.000000
3.372315 -0.702955 0.072688 61.000000
3.367208 -0.712676 0.072656 61.000000
3.364028 -0.722793 0.072646 61.000000
3.355933 -0.731831 0.072582 61.000000
3.353672 -0.742124 0.072582 61.000000
3.347476 -0.751532 0.072539 61.000000
3.345155 -0.761799 0.072539 61.000000
3.340854 -0.771608 0.072518 61.000000
3.338471 -0.781854 0.072518 61.000000
3.334110 -0.791630 0.072497 61.000000
3.334583 -0.802558 0.072529 61.000000
3.325305 -0.811125 0.072454 61.000000
3.318918 -0.820363 0.072411 61.000000
3.310565 -0.829083 0.072348 61.000000
3.306068 -0.838744 0.072326 61.000000
3.302511 -0.848634 0.072316 61.000000
3.300859 -0.859013 0.072326 61.000000
3.301109 -0.869901 0.072358 61.000000
3.301323 -0.880798 0.072390 61.000000
3.298605 -0.890922 0.072390 61.000000
3.296821 -0.901302 0.072401 61.000000
3.293077 -0.911146 0.072390 61.000000
3.289303 -0.920974 0.072380 61.000000
3.284538 -0.930516 0.072358 61.000000
3.281667 -0.940589 0.072358 61.000000
3.276846 -0.950095 0.072337 61.000000
3.274875 -0.960425 0.072348 61.000000
3.271913 -0.970468 0.072348 61.000000
3.268920 -0.980502 0.072348 61.000000
3.263026 -0.989655 0.072316 61.000000
3.258063 -0.999075 0.072294 61.000000
3.925440 -1.216995 0.079768 61.000000
3.921687 -1.229033 0.079768 61.000000
3.909319 -1.238340 0.079672 61.000000
3.929309 -1.257952 0.079938 61.000000
3.937799 -1.274004 0.080077 61.000000
4.021100 1.993115 0.054913 62.000000
4.038645 1.971037 0.054938 62.000000
4.071672 1.971714 0.055064 62.000000
4.103840 1.971775 0.055185 62.000000
4.154100 1.980264 0.055391 62.000000
4.163771 1.969220 0.055407 62.000000
4.205099 1.973005 0.055571 62.000000
4.267338 1.986263 0.055830 62.000000
4.308818 1.989513 0.055994 62.000000
4.325811 1.981282 0.056044 62.000000
4.345526 1.974207 0.056107 62.000000
4.284098 1.930459 0.055797 62.000000
4.291827 1.918123 0.055805 62.000000
4.295863 1.904136 0.055797 62.000000
4.295276 1.888130 0.055768 62.000000
4.299216 1.874144 0.055759 62.000000
4.299438 1.858564 0.055734 62.000000
4.298686 1.842607 0.055705 62.000000
4.302478 1.828627 0.055696 62.000000
4.301618 1.812700 0.055667 62.000000
4.302546 1.797567 0.055646 62.000000
4.304345 1.782827 0.055629 62.000000
4.307019 1.768473 0.055617 62.000000
4.308720 1.753743 0.055600 62.000000
4.313153 1.740142 0.055596 62.000000
4.314757 1.725415 0.055579 62.000000
4.317242 1.711064 0.055566 62.000000
4.317817 1.695983 0.055546 62.000000
4.319273 1.681277 0.055529 62.000000
4.318812 1.665858 0.055504 62.000000
4.318298 1.650457 0.055479 62.000000
4.317731 1.635076 0.055453 62.000000
4.319918 1.620767 0.055441 62.000000
4.321121 1.606113 0.055424 62.000000
4.324152 1.592157 0.055416 62.000000
4.330894 1.579569 0.055424 62.000000
4.336661 1.566614 0.055428 62.000000
4.341446 1.553302 0.055428 62.000000
4.345249 1.539641 0.055424 62.000000
4.349009 1.525972 0.055420 62.000000
4.351780 1.511965 0.055411 62.000000
4.356399 1.498607 0.055411 62.000000
4.359083 1.484590 0.055403 62.000000
4.363617 1.471210 0.055403 62.000000
4.365264 1.456865 0.055391 62.000000
4.361168 1.440642 0.055353 62.000000
4.362716 1.426323 0.055340 62.000000
4.366120 1.412624 0.055336 62.000000
4.369481 1.398917 0.055332 62.000000
4.375659 1.386109 0.055340 62.000000
4.875121 1.527932 0.057514 62.000000
4.891246 1.516523 0.057565 62.000000
4.941765 1.515587 0.057766 62.000000
4.944478 1.499838 0.057757 62.000000
4.953845 1.486098 0.057778 62.000000
4.961257 1.471747 0.057791 62.000000
3.495059 -0.409479 0.050854 62.000000
3.476908 -0.418171 0.050783 62.000000
3.475609 -0.428836 0.050783 62.000000
3.473284 -0.439372 0.050779 62.000000
3.471920 -0.450026 0.050779 62.000000
3.468541 -0.460412 0.050770 62.000000
3.463148 -0.470514 0.050754 62.000000
3.458717 -0.480723 0.050741 62.000000
3.453266 -0.490770 0.050724 62.000000
3.448775 -0.500931 0.050712 62.000000
3.445243 -0.511216 0.050703 62.000000
3.440693 -0.521335 0.050691 62.000000
3.438089 -0.531735 0.050687 62.000000
3.436441 -0.542281 0.050687 62.000000
3.433774 -0.552662 0.050682 62.000000
3.428115 -0.562547 0.050666 62.000000
3.428346 -0.573391 0.050674 62.000000
3.422627 -0.583235 0.050657 62.000000
3.413925 -0.592537 0.050628 62.000000
3.410121 -0.602660 0.050620 62.000000
3.403335 -0.612234 0.050599 62.000000
3.398490 -0.622133 0.050586 62.000000
3.391650 -0.631642 0.050565 62.000000
3.389696 -0.642044 0.050565 62.000000
3.384764 -0.651873 0.050553 62.000000
3.381767 -0.662063 0.050548 62.000000
3.376778 -0.671850 0.050536 62.000000
3.373720 -0.682008 0.050532 62.000000
3.367694 -0.691551 0.050515 62.000000
3.365556 -0.701880 0.050515 62.000000
3.360452 -0.711581 0.050502 62.000000
3.358253 -0.721887 0.050502 62.000000
3.353092 -0.731548 0.050490 62.000000
3.350832 -0.741831 0.050490 62.000000
3.345613 -0.751451 0.050477 62.000000
3.343292 -0.761712 0.050477 62.000000
3.339965 -0.771740 0.050473 62.000000
3.336607 -0.781755 0.050469 62.000000
3.333220 -0.791757 0.050465 62.000000
3.330776 -0.801980 0.050465 62.000000
3.324414 -0.811247 0.050448 62.000000
3.318997 -0.820722 0.050435 62.000000
3.314523 -0.830415 0.050427 62.000000
3.309052 -0.839842 0.050414 62.000000
3.306460 -0.849991 0.050414 62.000000
3.303836 -0.860131 0.050414 62.000000
3.301182 -0.870263 0.050414 62.000000
3.299463 -0.880644 0.050418 62.000000
3.295780 -0.890502 0.050414 62.000000
3.292068 -0.900345 0.050410 62.000000
3.287363 -0.909908 0.050402 62.000000
3.281667 -0.919180 0.050389 62.000000
3.275945 -0.928426 0.050377 62.000000
3.275004 -0.939023 0.050385 62.000000
3.271147 -0.948788 0.050381 62.000000
3.270140 -0.959382 0.050389 62.000000
3.267181 -0.969410 0.050389 62.000000
3.267065 -0.980291 0.050402 62.000000
3.264999 -0.990600 0.050406 62.000000
3.895810 -1.194973 0.053183 62.000000
3.923645 -1.216691 0.053321 62.000000
3.921803 -1.229320 0.053330 62.000000
3.924686 -1.243460 0.053359 62.000000
3.930377 -1.258544 0.053401 62.000000
3.937914 -1.274289 0.053451 62.000000
3.950145 -1.291647 0.053522 62.000000
4.033000 1.982544 0.026801 63.000000
4.063327 1.982004 0.026744 63.000000
4.101789 1.985220 0.026669 63.000000
4.151124 1.993416 0.026568 63.000000
4.140972 1.972925 0.026606 63.000000
4.195820 1.983301 0.026493 63.000000
4.259824 1.997606 0.026359 63.000000
4.292211 1.948904 0.026340 63.000000
4.276289 1.925866 0.026390 63.000000
4.287655 1.915185 0.026378 63.000000
4.291682 1.901212 0.026382 63.000000
4.293833 1.886426 0.026390 63.000000
4.294100 1.870846 0.026403 63.000000
4.291558 1.854092 0.026422 63.000000
4.296308 1.840523 0.026424 63.000000
4.292731 1.823421 0.026445 63.000000
4.290011 1.806747 0.026464 63.000000
4.289998 1.791264 0.026476 63.000000
4.290854 1.776181 0.026487 63.000000
4.298133 1.763768 0.026483 63.000000
4.301672 1.749819 0.026487 63.000000
4.303310 1.735117 0.026495 63.000000
4.310470 1.722649 0.026491 63.000000
4.312016 1.707942 0.026499 63.000000
4.312582 1.692877 0.026510 63.000000
4.312164 1.677462 0.026522 63.000000
4.311693 1.662065 0.026535 63.000000
4.312101 1.647044 0.026545 63.000000
4.312458 1.632036 0.026556 63.000000
4.316508 1.618446 0.026558 63.000000
4.320516 1.604847 0.026560 63.000000
4.324481 1.591239 0.026562 63.000000
4.330282 1.578307 0.026560 63.000000
4.336985 1.565694 0.026556 63.000000
4.343651 1.553055 0.026552 63.000000
4.346510 1.539053 0.026556 63.000000
4.348381 1.524718 0.026562 63.000000
4.350204 1.510385 0.026568 63.000000
4.351981 1.496056 0.026575 63.000000
4.350871 1.480763 0.026587 63.000000
4.352550 1.466449 0.026594 63.000000
4.354183 1.452139 0.026600 63.000000
4.358618 1.438773 0.026600 63.000000
4.363962 1.425705 0.026598 63.000000
4.368315 1.412310 0.026598 63.000000
4.371675 1.398597 0.026600 63.000000
4.377852 1.385782 0.026596 63.000000
4.878277 1.527876 0.025507 63.000000
4.905865 1.520011 0.025456 63.000000
4.925801 1.509645 0.025423 63.000000
4.935194 1.495977 0.025412 63.000000
4.958917 1.486576 0.025370 63.000000
3.511082 -0.401373 0.028812 63.000000
3.486991 -0.409468 0.028860 63.000000
3.484725 -0.420045 0.028862 63.000000
3.478458 -0.430122 0.028872 63.000000
3.474145 -0.440415 0.028879 63.000000
3.465836 -0.450172 0.028893 63.000000
3.460473 -0.460277 0.028902 63.000000
3.451118 -0.469815 0.028918 63.000000
3.444708 -0.479713 0.028929 63.000000
3.441240 -0.489997 0.028933 63.000000
3.437741 -0.500265 0.028937 63.000000
3.435201 -0.510663 0.028939 63.000000
3.434607 -0.521349 0.028937 63.000000
3.431014 -0.531579 0.028941 63.000000
3.430355 -0.542258 0.028939 63.000000
3.426701 -0.552462 0.028943 63.000000
3.421042 -0.562325 0.028952 63.000000
3.413383 -0.571829 0.028964 63.000000
3.411613 -0.582298 0.028964 63.000000
3.405869 -0.592078 0.028973 63.000000
3.398128 -0.601481 0.028985 63.000000
3.395283 -0.611726 0.028987 63.000000
3.390439 -0.621600 0.028994 63.000000
3.383600 -0.631084 0.029004 63.000000
3.380666 -0.641275 0.029006 63.000000
3.377701 -0.651455 0.029008 63.000000
3.375686 -0.661815 0.029008 63.000000
3.371678 -0.671778 0.029013 63.000000
3.369601 -0.682119 0.029013 63.000000
3.364554 -0.691850 0.029019 63.000000
3.362416 -0.702169 0.029019 63.000000
3.357311 -0.711860 0.029025 63.000000
3.354133 -0.721947 0.029027 63.000000
3.347994 -0.731382 0.029036 63.000000
3.344758 -0.741434 0.029038 63.000000
3.339541 -0.751034 0.029044 63.000000
3.337221 -0.761277 0.029044 63.000000
3.331947 -0.770836 0.029050 63.000000
3.330540 -0.781283 0.029048 63.000000
3.329100 -0.791728 0.029046 63.000000
3.322767 -0.801002 0.029054 63.000000
3.320293 -0.811192 0.029054 63.000000
3.317789 -0.821375 0.029054 63.000000
3.311373 -0.830578 0.029063 63.000000
3.307840 -0.840487 0.029065 63.000000
3.305246 -0.850632 0.029065 63.000000
3.302621 -0.860768 0.029065 63.000000
3.299965 -0.870896 0.029065 63.000000
3.298244 -0.881274 0.029063 63.000000
3.292628 -0.890607 0.029069 63.000000
3.287951 -0.900177 0.029073 63.000000
3.282282 -0.909460 0.029080 63.000000
3.275625 -0.918447 0.029088 63.000000
3.268943 -0.927401 0.029096 63.000000
3.264160 -0.936875 0.029101 63.000000
3.260310 -0.946606 0.029103 63.000000
3.258350 -0.956886 0.029101 63.000000
3.256358 -0.967162 0.029098 63.000000
3.255291 -0.977723 0.029094 63.000000
3.490555 -1.059981 0.028573 63.000000
3.895520 -1.195880 0.027678 63.000000
3.903295 -1.211379 0.027653 63.000000
3.915781 -1.228433 0.027618 63.000000
3.918668 -1.242554 0.027603 63.000000
3.940551 -1.262803 0.027547 63.000000
3.938561 -1.275502 0.027542 63.000000
4.032109 1.999867 0.000954 64.000000
4.049891 1.993225 0.000852 64.000000
4.087440 1.996141 0.000577 64.000000
4.183267 1.995442 -0.000099 64.000000
4.375580 1.972934 -0.001395 64.000000
4.350573 1.945628 -0.001128 64.000000
4.319954 1.916063 -0.000813 64.000000
4.317573 1.899179 -0.000743 64.000000
4.316046 1.882727 -0.000680 64.000000
4.319966 1.868684 -0.000664 64.000000
4.307297 1.847542 -0.000507 64.000000
4.307423 1.831972 -0.000460 64.000000
4.302886 1.814477 -0.000374 64.000000
4.293670 1.795100 -0.000248 64.000000
4.289919 1.778092 -0.000169 64.000000
4.292579 1.763783 -0.000146 64.000000
4.296117 1.749851 -0.000130 64.000000
4.299611 1.735914 -0.000114 64.000000
4.305845 1.723086 -0.000122 64.000000
4.312970 1.710605 -0.000138 64.000000
4.315406 1.696268 -0.000114 64.000000
4.316862 1.681570 -0.000083 64.000000
4.321068 1.667958 -0.000075 64.000000
4.319626 1.652194 -0.000020 64.000000
4.322804 1.638226 -0.000004 64.000000
4.328746 1.625307 -0.000012 64.000000
4.330900 1.610974 0.000011 64.000000
4.333007 1.596643 0.000035 64.000000
4.338825 1.583685 0.000027 64.000000
4.345544 1.571045 0.000011 64.000000
4.349401 1.557369 0.000019 64.000000
4.354159 1.544018 0.000019 64.000000
4.356045 1.529659 0.000043 64.000000
4.357883 1.515303 0.000066 64.000000
4.354002 1.498999 0.000137 64.000000
4.355741 1.484667 0.000160 64.000000
4.354589 1.469380 0.000208 64.000000
4.359077 1.456013 0.000208 64.000000
4.361624 1.442005 0.000223 64.000000
4.367929 1.429239 0.000208 64.000000
4.371342 1.415524 0.000215 64.000000
4.374712 1.401801 0.000223 64.000000
4.380898 1.388977 0.000208 64.000000
4.385139 1.375530 0.000208 64.000000
4.926115 1.528490 -0.004206 64.000000
4.926957 1.512197 -0.004175 64.000000
4.935400 1.498235 -0.004206 64.000000
4.947636 1.485385 -0.004269 64.000000
4.952170 1.470199 -0.004269 64.000000
3.491358 -0.396938 0.008706 64.000000
3.486151 -0.407182 0.008737 64.000000
3.481907 -0.417517 0.008761 64.000000
3.477632 -0.427830 0.008784 64.000000
3.470351 -0.437744 0.008831 64.000000
3.462050 -0.447490 0.008886 64.000000
3.455704 -0.457451 0.008925 64.000000
3.447348 -0.467109 0.008980 64.000000
3.441937 -0.477132 0.009012 64.000000
3.436497 -0.487127 0.009043 64.000000
3.434986 -0.497668 0.009043 64.000000
3.430476 -0.507764 0.009067 64.000000
3.431868 -0.518735 0.009043 64.000000
3.429272 -0.529109 0.009051 64.000000
3.422694 -0.538848 0.009090 64.000000
3.420038 -0.549187 0.009098 64.000000
3.417350 -0.559515 0.009106 64.000000
3.410686 -0.569172 0.009145 64.000000
3.406952 -0.579297 0.009161 64.000000
3.403188 -0.589405 0.009177 64.000000
3.398410 -0.599321 0.009200 64.000000
3.393603 -0.609214 0.009224 64.000000
3.389750 -0.619262 0.009240 64.000000
3.382919 -0.628743 0.009279 64.000000
3.380974 -0.639119 0.009279 64.000000
3.376052 -0.648922 0.009302 64.000000
3.374045 -0.659276 0.009302 64.000000
3.372007 -0.669624 0.009302 64.000000
3.368956 -0.679768 0.009310 64.000000
3.364896 -0.689699 0.009326 64.000000
3.360806 -0.699611 0.009342 64.000000
3.357666 -0.709711 0.009350 64.000000
3.352540 -0.719378 0.009373 64.000000
3.347386 -0.729021 0.009397 64.000000
3.342204 -0.738639 0.009420 64.000000
3.336996 -0.748232 0.009444 64.000000
3.331759 -0.757800 0.009467 64.000000
3.329419 -0.768018 0.009467 64.000000
3.326073 -0.778001 0.009475 64.000000
3.321725 -0.787739 0.009491 64.000000
3.320265 -0.798160 0.009483 64.000000
3.316829 -0.808106 0.009491 64.000000
3.313363 -0.818038 0.009499 64.000000
3.309868 -0.827956 0.009507 64.000000
3.306343 -0.837861 0.009514 64.000000
3.301820 -0.847503 0.009530 64.000000
3.303075 -0.858636 0.009499 64.000000
3.298491 -0.868256 0.009514 64.000000
3.296778 -0.878630 0.009507 64.000000
3.293102 -0.888479 0.009514 64.000000
3.288431 -0.898051 0.009530 64.000000
3.281806 -0.907068 0.009562 64.000000
3.275156 -0.916054 0.009593 64.000000
3.269444 -0.925279 0.009617 64.000000
3.264667 -0.934754 0.009632 64.000000
3.260824 -0.944487 0.009640 64.000000
3.258870 -0.954769 0.009632 64.000000
3.255926 -0.964762 0.009632 64.000000
3.254866 -0.975321 0.009617 64.000000
3.872890 -1.173705 0.004519 64.000000
3.896995 -1.194085 0.004292 64.000000
3.905729 -1.209885 0.004190 64.000000
3.912495 -1.225152 0.004103 64.000000
3.903952 -1.235640 0.004142 64.000000
3.922046 -1.254625 0.003962 64.000000
0.756249 -0.812415 0.027586 64.000000
0.758502 -0.819874 0.027531 64.000000
0.749222 -0.814830 0.027610 64.000000
0.734590 -0.803824 0.027751 64.000000
0.731449 -0.805333 0.027759 64.000000
4.406012 1.987411 -0.032774 65.000000
4.366451 1.953471 -0.032059 65.000000
4.370595 1.939254 -0.032030 65.000000
4.350898 1.914562 -0.031629 65.000000
4.343920 1.895607 -0.031429 65.000000
4.313925 1.866787 -0.030871 65.000000
4.327902 1.857091 -0.031000 65.000000
4.306896 1.832454 -0.030585 65.000000
4.289465 1.809518 -0.030227 65.000000
4.293151 1.795578 -0.030198 65.000000
4.285708 1.777038 -0.029998 65.000000
4.287441 1.762361 -0.029941 65.000000
4.286345 1.746558 -0.029840 65.000000
4.293538 1.734149 -0.029869 65.000000
4.283057 1.714652 -0.029626 65.000000
4.291086 1.702610 -0.029669 65.000000
4.289775 1.686876 -0.029568 65.000000
4.318222 1.682782 -0.029926 65.000000
4.324297 1.669886 -0.029941 65.000000
4.311656 1.649823 -0.029669 65.000000
4.323242 1.639068 -0.029769 65.000000
4.335739 1.628609 -0.029883 65.000000
4.340715 1.615300 -0.029883 65.000000
4.323133 1.593676 -0.029540 65.000000
4.339273 1.584520 -0.029712 65.000000
4.330950 1.566440 -0.029511 65.000000
4.340442 1.554831 -0.029583 65.000000
4.351789 1.543847 -0.029683 65.000000
4.349901 1.528169 -0.029583 65.000000
4.351736 1.513831 -0.029540 65.000000
4.356359 1.500473 -0.029540 65.000000
4.357157 1.485811 -0.029483 65.000000
4.358852 1.471477 -0.029440 65.000000
4.369985 1.460315 -0.029540 65.000000
4.370647 1.445646 -0.029483 65.000000
4.376012 1.432541 -0.029497 65.000000
4.382289 1.419725 -0.029526 65.000000
4.391385 1.407799 -0.029597 65.000000
4.440480 1.408526 -0.030270 65.000000
4.705235 1.476610 -0.034177 65.000000
4.781365 1.484397 -0.035250 65.000000
4.795455 1.472656 -0.035393 65.000000
4.850659 1.473334 -0.036152 65.000000
4.889631 1.468799 -0.036667 65.000000
4.919995 1.461477 -0.037053 65.000000
3.497350 -0.386459 -0.013955 65.000000
3.493167 -0.396848 -0.013912 65.000000
3.485974 -0.406867 -0.013826 65.000000
3.484710 -0.417560 -0.013826 65.000000
3.477458 -0.427516 -0.013740 65.000000
3.473153 -0.437807 -0.013697 65.000000
3.464852 -0.447563 -0.013597 65.000000
3.458507 -0.457535 -0.013526 65.000000
3.450151 -0.467203 -0.013425 65.000000
3.444740 -0.477237 -0.013368 65.000000
3.444249 -0.487943 -0.013383 65.000000
3.441746 -0.498364 -0.013368 65.000000
3.439212 -0.508775 -0.013354 65.000000
3.437635 -0.519323 -0.013354 65.000000
3.436026 -0.529868 -0.013354 65.000000
3.426482 -0.539162 -0.013239 65.000000
3.420863 -0.549038 -0.013182 65.000000
3.417189 -0.559207 -0.013154 65.000000
3.411512 -0.569030 -0.013096 65.000000
3.406793 -0.578991 -0.013053 65.000000
3.404016 -0.589269 -0.013039 65.000000
3.400222 -0.599362 -0.013010 65.000000
3.395415 -0.609261 -0.012967 65.000000
3.393530 -0.619675 -0.012967 65.000000
3.387680 -0.629353 -0.012910 65.000000
3.383769 -0.639371 -0.012882 65.000000
3.381791 -0.649750 -0.012882 65.000000
3.376838 -0.659546 -0.012839 65.000000
3.373818 -0.669708 -0.012824 65.000000
3.369787 -0.679660 -0.012796 65.000000
3.363768 -0.689192 -0.012738 65.000000
3.358701 -0.698898 -0.012696 65.000000
3.354584 -0.708785 -0.012667 65.000000
3.350439 -0.718654 -0.012638 65.000000
3.345287 -0.728291 -0.012595 65.000000
3.343037 -0.738551 -0.012595 65.000000
3.339780 -0.748585 -0.012581 65.000000
3.335518 -0.758384 -0.012552 65.000000
3.333175 -0.768614 -0.012552 65.000000
3.328854 -0.778381 -0.012524 65.000000
3.323532 -0.787897 -0.012481 65.000000
3.319155 -0.797623 -0.012452 65.000000
3.313777 -0.807092 -0.012409 65.000000
3.309344 -0.816775 -0.012381 65.000000
3.304883 -0.826439 -0.012352 65.000000
3.305239 -0.837311 -0.012395 65.000000
3.300718 -0.846950 -0.012366 65.000000
3.301007 -0.857827 -0.012409 65.000000
3.298360 -0.867951 -0.012409 65.000000
3.293749 -0.877551 -0.012381 65.000000
3.290076 -0.887391 -0.012366 65.000000
3.286374 -0.897218 -0.012352 65.000000
3.281678 -0.906763 -0.012323 65.000000
3.275029 -0.915749 -0.012266 65.000000
3.270280 -0.925248 -0.012238 65.000000
3.265503 -0.934726 -0.012209 65.000000
3.261660 -0.944462 -0.012195 65.000000
3.256828 -0.953902 -0.012166 65.000000
3.257721 -0.965025 -0.012223 65.000000
3.894562 -1.166762 -0.021783 65.000000
3.891921 -1.178995 -0.021797 65.000000
3.906450 -1.196495 -0.022069 65.000000
3.905626 -1.209362 -0.022112 65.000000
3.905714 -1.222534 -0.022170 65.000000
3.909572 -1.236924 -0.022284 65.000000
3.919091 -1.253178 -0.022484 65.000000
0.784169 -0.832791 0.020034 65.000000
0.742680 -0.793566 0.020850 65.000000
0.737519 -0.792911 0.020907 65.000000
0.733048 -0.792967 0.020950 65.000000
0.725201 -0.789319 0.021065 65.000000
4.387425 1.993246 -0.062755 66.000000
4.386228 1.976490 -0.062590 66.000000
4.367627 1.952007 -0.062034 66.000000
4.373595 1.938599 -0.062034 66.000000
4.357557 1.915514 -0.061540 66.000000
4.327671 1.886551 -0.060737 66.000000
4.299485 1.858584 -0.059975 66.000000
4.302410 1.844203 -0.059913 66.000000
4.282285 1.820043 -0.059336 66.000000
4.273108 1.800683 -0.059007 66.000000
4.259240 1.779469 -0.058574 66.000000
4.256366 1.762950 -0.058389 66.000000
4.259905 1.749124 -0.058348 66.000000
4.243028 1.726999 -0.057854 66.000000
4.239035 1.710232 -0.057648 66.000000
4.233122 1.692763 -0.057401 66.000000
4.221566 1.673136 -0.057030 66.000000
4.218304 1.656886 -0.056845 66.000000
4.213120 1.639946 -0.056618 66.000000
4.226526 1.630252 -0.056803 66.000000
4.206293 1.607638 -0.056247 66.000000
4.230840 1.602163 -0.056680 66.000000
4.237607 1.589878 -0.056721 66.000000
4.239654 1.575824 -0.056659 66.000000
4.251974 1.565574 -0.056824 66.000000
4.266149 1.555948 -0.057030 66.000000
4.285007 1.547949 -0.057339 66.000000
4.297266 1.537491 -0.057504 66.000000
4.302905 1.524634 -0.057524 66.000000
4.310393 1.512419 -0.057586 66.000000
4.326345 1.503126 -0.057833 66.000000
4.333772 1.490822 -0.057895 66.000000
4.355361 1.483322 -0.058265 66.000000
4.363680 1.471231 -0.058348 66.000000
4.365328 1.456887 -0.058286 66.000000
4.383068 1.447879 -0.058574 66.000000
4.418848 1.444680 -0.059254 66.000000
4.397577 1.422804 -0.058698 66.000000
4.412395 1.412660 -0.058924 66.000000
4.473893 1.417237 -0.060160 66.000000
4.452462 1.395429 -0.059604 66.000000
4.485370 1.390647 -0.060222 66.000000
4.489615 1.376880 -0.060222 66.000000
4.741608 1.438284 -0.065556 66.000000
4.974866 1.492406 -0.070477 66.000000
3.483061 -0.375611 -0.035654 66.000000
3.478911 -0.385965 -0.035592 66.000000
3.479697 -0.396863 -0.035633 66.000000
3.475485 -0.407188 -0.035572 66.000000
3.471241 -0.417490 -0.035510 66.000000
3.472921 -0.428505 -0.035572 66.000000
3.464647 -0.438280 -0.035427 66.000000
3.463285 -0.448908 -0.035427 66.000000
3.457927 -0.459005 -0.035345 66.000000
3.450559 -0.468805 -0.035221 66.000000
3.446134 -0.478976 -0.035160 66.000000
3.442668 -0.489265 -0.035118 66.000000
3.440161 -0.499681 -0.035098 66.000000
3.438612 -0.510233 -0.035098 66.000000
3.435054 -0.520481 -0.035057 66.000000
3.432453 -0.530864 -0.035036 66.000000
3.421920 -0.539991 -0.034851 66.000000
3.414324 -0.549534 -0.034727 66.000000
3.405716 -0.558874 -0.034583 66.000000
3.400041 -0.568661 -0.034501 66.000000
3.394338 -0.578418 -0.034418 66.000000
3.392547 -0.588829 -0.034418 66.000000
3.391709 -0.599408 -0.034439 66.000000
3.390838 -0.609988 -0.034459 66.000000
3.385017 -0.619668 -0.034377 66.000000
3.385066 -0.630416 -0.034418 66.000000
3.379187 -0.640055 -0.034336 66.000000
3.375243 -0.650041 -0.034295 66.000000
3.371271 -0.660009 -0.034254 66.000000
3.362366 -0.668984 -0.034109 66.000000
3.358338 -0.678900 -0.034068 66.000000
3.350363 -0.687994 -0.033945 66.000000
3.346279 -0.697862 -0.033903 66.000000
3.344122 -0.708125 -0.033903 66.000000
3.342911 -0.718591 -0.033924 66.000000
3.336784 -0.727992 -0.033842 66.000000
3.335511 -0.738441 -0.033862 66.000000
3.334205 -0.748890 -0.033883 66.000000
3.332867 -0.759338 -0.033903 66.000000
3.328573 -0.769109 -0.033862 66.000000
3.328145 -0.779774 -0.033903 66.000000
3.319900 -0.788595 -0.033780 66.000000
3.314549 -0.798075 -0.033718 66.000000
3.310143 -0.807766 -0.033677 66.000000
3.304737 -0.817198 -0.033615 66.000000
3.302214 -0.827333 -0.033615 66.000000
3.299660 -0.837460 -0.033615 66.000000
3.298044 -0.847828 -0.033636 66.000000
3.295427 -0.857942 -0.033636 66.000000
3.290846 -0.867539 -0.033595 66.000000
3.289135 -0.877889 -0.033615 66.000000
3.283531 -0.887194 -0.033553 66.000000
3.276936 -0.896209 -0.033471 66.000000
3.271280 -0.905458 -0.033409 66.000000
3.263673 -0.914142 -0.033306 66.000000
3.259891 -0.923878 -0.033286 66.000000
3.256080 -0.933600 -0.033265 66.000000
3.253201 -0.943585 -0.033265 66.000000
3.250290 -0.953561 -0.033265 66.000000
3.896267 -1.155989 -0.047207 66.000000
3.893660 -1.168224 -0.047227 66.000000
3.901538 -1.183646 -0.047475 66.000000
3.902668 -1.197076 -0.047577 66.000000
3.905662 -1.211116 -0.047722 66.000000
3.901928 -1.223092 -0.047722 66.000000
3.907688 -1.238076 -0.047928 66.000000
0.741557 -0.779343 0.014347 66.000000
0.750845 -0.793959 0.013997 66.000000
0.733336 -0.780237 0.014450 66.000000
0.728890 -0.780292 0.014512 66.000000
0.725812 -0.781792 0.014532 66.000000
0.714593 -0.774467 0.014800 66.000000
4.300490 1.967699 -0.089717 67.000000
4.263729 1.935068 -0.088462 67.000000
4.244125 1.910483 -0.087715 67.000000
