# This PCD file was generated using the MATLAB® pcwrite function
# from Computer Vision Toolbox®.
# .PCD v.7 - Point Cloud Data file format
VERSION .7
FIELDS x y z intensity
SIZE 4 4 4 4
TYPE F F F F
COUNT 1 1 1 1
WIDTH 1251
HEIGHT 1
VIEWPOINT 0 0 0 1 0 0 0
POINTS 1251
DATA ascii
3.364884 -0.218182 0.029151 63.000000
3.367192 -0.228707 0.029145 63.000000
3.374454 -0.239600 0.029128 63.000000
4.089237 1.997018 0.000561 64.000000
4.125044 1.998846 0.000302 64.000000
4.185975 1.996733 -0.000122 64.000000
4.257896 1.999044 -0.000641 64.000000
4.376791 1.989658 -0.001457 64.000000
4.378315 1.974166 -0.001418 64.000000
4.313142 1.928900 -0.000806 64.000000
4.313554 1.913227 -0.000758 64.000000
4.294687 1.889119 -0.000546 64.000000
4.315129 1.882328 -0.000672 64.000000
4.313541 1.865906 -0.000609 64.000000
4.304540 1.846360 -0.000484 64.000000
4.298220 1.828061 -0.000381 64.000000
4.301044 1.813700 -0.000358 64.000000
4.301974 1.798569 -0.000319 64.000000
4.303777 1.783832 -0.000287 64.000000
4.312929 1.772139 -0.000319 64.000000
4.307231 1.754375 -0.000224 64.000000
4.310739 1.740404 -0.000209 64.000000
4.316987 1.727542 -0.000217 64.000000
4.320407 1.713552 -0.000201 64.000000
4.327505 1.701021 -0.000217 64.000000
4.329908 1.686648 -0.000193 64.000000
4.332263 1.672276 -0.000169 64.000000
4.331769 1.656835 -0.000122 64.000000
4.330286 1.641059 -0.000067 64.000000
4.330618 1.626010 -0.000028 64.000000
4.332775 1.611671 -0.000004 64.000000
4.339576 1.599061 -0.000020 64.000000
4.338825 1.583685 0.000027 64.000000
4.338960 1.568667 0.000066 64.000000
4.339986 1.554000 0.000098 64.000000
4.341906 1.539676 0.000121 64.000000
4.341891 1.524693 0.000160 64.000000
4.349382 1.512350 0.000137 64.000000
4.354002 1.498999 0.000137 64.000000
4.358580 1.485634 0.000137 64.000000
4.363117 1.472255 0.000137 64.000000
4.366665 1.458546 0.000145 64.000000
4.370170 1.444828 0.000153 64.000000
4.373631 1.431103 0.000160 64.000000
4.378002 1.417678 0.000160 64.000000
4.382330 1.404240 0.000160 64.000000
4.390431 1.391997 0.000129 64.000000
4.396589 1.379119 0.000113 64.000000
4.918474 1.526121 -0.004143 64.000000
4.921221 1.510438 -0.004128 64.000000
4.940185 1.499686 -0.004246 64.000000
4.935185 1.481650 -0.004167 64.000000
4.953129 1.470483 -0.004277 64.000000
3.317832 0.399984 0.010056 64.000000
3.337914 0.392012 0.009907 64.000000
3.337113 0.381543 0.009923 64.000000
3.338268 0.371303 0.009923 64.000000
3.338398 0.360953 0.009931 64.000000
3.341478 0.350917 0.009915 64.000000
3.342539 0.340664 0.009915 64.000000
3.345559 0.330604 0.009899 64.000000
3.347553 0.320433 0.009891 64.000000
3.349516 0.310253 0.009884 64.000000
3.349456 0.299887 0.009891 64.000000
3.349364 0.289524 0.009899 64.000000
3.350236 0.279247 0.009899 64.000000
3.349084 0.268808 0.009915 64.000000
3.350890 0.258608 0.009907 64.000000
3.349673 0.248180 0.009923 64.000000
3.351416 0.237972 0.009915 64.000000
3.349137 0.227487 0.009939 64.000000
3.350817 0.217275 0.009931 64.000000
3.352466 0.207055 0.009923 64.000000
3.351089 0.196653 0.009939 64.000000
3.349680 0.186260 0.009954 64.000000
3.349237 0.175931 0.009962 64.000000
3.351758 0.165753 0.009946 64.000000
3.350253 0.155377 0.009962 64.000000
3.351713 0.145140 0.009954 64.000000
3.352143 0.134857 0.009954 64.000000
3.354539 0.124646 0.009939 64.000000
3.354906 0.114353 0.009939 64.000000
3.355241 0.104060 0.009939 64.000000
3.356544 0.093794 0.009931 64.000000
3.358815 0.083544 0.009915 64.000000
3.359056 0.073239 0.009915 64.000000
3.359265 0.062934 0.009915 64.000000
3.359442 0.052627 0.009915 64.000000
3.358588 0.042308 0.009923 64.000000
3.358702 0.032004 0.009923 64.000000
3.359784 0.021705 0.009915 64.000000
3.358835 0.011395 0.009923 64.000000
3.357854 0.001090 0.009931 64.000000
3.357842 -0.009212 0.009931 64.000000
3.358798 -0.019520 0.009923 64.000000
3.358722 -0.029824 0.009923 64.000000
3.359614 -0.040141 0.009915 64.000000
3.360475 -0.050463 0.009907 64.000000
3.359305 -0.060754 0.009915 64.000000
3.361102 -0.071103 0.009899 64.000000
3.361868 -0.081439 0.009891 64.000000
3.361602 -0.091753 0.009891 64.000000
3.364303 -0.102158 0.009868 64.000000
3.363974 -0.112479 0.009868 64.000000
3.363613 -0.122799 0.009868 64.000000
3.364220 -0.133158 0.009860 64.000000
3.362796 -0.143435 0.009868 64.000000
3.362340 -0.153751 0.009868 64.000000
3.362852 -0.164115 0.009860 64.000000
3.362332 -0.174432 0.009860 64.000000
3.362780 -0.184802 0.009852 64.000000
3.363195 -0.195176 0.009844 64.000000
3.363579 -0.205554 0.009836 64.000000
3.364928 -0.216002 0.009821 64.000000
3.365247 -0.226391 0.009813 64.000000
4.373497 1.988917 -0.032359 65.000000
4.367729 1.970146 -0.032173 65.000000
4.355498 1.948572 -0.031887 65.000000
4.347745 1.929118 -0.031672 65.000000
4.336254 1.908120 -0.031400 65.000000
4.320092 1.885211 -0.031057 65.000000
4.310255 1.865199 -0.030814 65.000000
4.303092 1.846447 -0.030613 65.000000
4.298615 1.828932 -0.030456 65.000000
4.293150 1.811072 -0.030284 65.000000
4.294997 1.796350 -0.030227 65.000000
4.296793 1.781633 -0.030170 65.000000
4.297614 1.766542 -0.030098 65.000000
4.308570 1.755612 -0.030184 65.000000
4.316717 1.743508 -0.030227 65.000000
4.299767 1.721340 -0.029883 65.000000
4.296662 1.704822 -0.029755 65.000000
4.306525 1.693461 -0.029826 65.000000
4.315427 1.681693 -0.029883 65.000000
4.335491 1.674207 -0.030112 65.000000
4.310722 1.649466 -0.029654 65.000000
4.311088 1.634461 -0.029583 65.000000
4.313273 1.620173 -0.029540 65.000000
4.336967 1.613905 -0.029826 65.000000
4.329701 1.596097 -0.029640 65.000000
4.328002 1.580406 -0.029540 65.000000
4.330950 1.566440 -0.029511 65.000000
4.334794 1.552808 -0.029497 65.000000
4.337653 1.538834 -0.029468 65.000000
4.341410 1.525187 -0.029454 65.000000
4.346069 1.511861 -0.029454 65.000000
4.352578 1.499171 -0.029483 65.000000
4.358103 1.486133 -0.029497 65.000000
4.359800 1.471797 -0.029454 65.000000
4.367140 1.459365 -0.029497 65.000000
4.370647 1.445646 -0.029483 65.000000
4.376012 1.432541 -0.029497 65.000000
4.384192 1.420341 -0.029554 65.000000
4.395194 1.409020 -0.029654 65.000000
4.531027 1.437239 -0.031629 65.000000
4.747213 1.489780 -0.034806 65.000000
4.801419 1.490621 -0.035551 65.000000
4.889130 1.501415 -0.036796 65.000000
4.856400 1.475078 -0.036238 65.000000
4.910699 1.475126 -0.036982 65.000000
3.353077 0.414914 -0.011951 65.000000
3.339444 0.402831 -0.011737 65.000000
3.341657 0.392700 -0.011751 65.000000
3.340859 0.382219 -0.011722 65.000000
3.342016 0.371968 -0.011722 65.000000
3.343142 0.361713 -0.011722 65.000000
3.343241 0.351350 -0.011708 65.000000
3.342314 0.340889 -0.011679 65.000000
3.342349 0.330535 -0.011665 65.000000
3.345338 0.320470 -0.011694 65.000000
3.342323 0.309836 -0.011637 65.000000
3.347241 0.299937 -0.011694 65.000000
3.348146 0.289667 -0.011694 65.000000
3.350015 0.279476 -0.011708 65.000000
3.350857 0.269197 -0.011708 65.000000
3.352664 0.258993 -0.011722 65.000000
3.353443 0.248706 -0.011722 65.000000
3.354190 0.238416 -0.011722 65.000000
3.352910 0.227989 -0.011694 65.000000
3.353594 0.217701 -0.011694 65.000000
3.353248 0.207350 -0.011679 65.000000
3.353868 0.197062 -0.011679 65.000000
3.353459 0.186716 -0.011665 65.000000
3.356013 0.176531 -0.011694 65.000000
3.357538 0.166284 -0.011708 65.000000
3.359031 0.156028 -0.011722 65.000000
3.360492 0.145766 -0.011737 65.000000
3.360924 0.135455 -0.011737 65.000000
3.361324 0.125143 -0.011737 65.000000
3.360693 0.114796 -0.011722 65.000000
3.362028 0.104516 -0.011737 65.000000
3.361334 0.094173 -0.011722 65.000000
3.359607 0.083811 -0.011694 65.000000
3.358849 0.073481 -0.011679 65.000000
3.359059 0.063176 -0.011679 65.000000
3.358237 0.052855 -0.011665 65.000000
3.359383 0.042564 -0.011679 65.000000
3.359498 0.032258 -0.011679 65.000000
3.360581 0.021957 -0.011694 65.000000
3.361633 0.011650 -0.011708 65.000000
3.362652 0.001337 -0.011722 65.000000
3.362641 -0.008979 -0.011722 65.000000
3.362597 -0.019296 -0.011722 65.000000
3.362522 -0.029612 -0.011722 65.000000
3.360416 -0.039904 -0.011694 65.000000
3.362277 -0.050243 -0.011722 65.000000
3.362107 -0.060559 -0.011722 65.000000
3.361906 -0.070873 -0.011722 65.000000
3.361672 -0.081187 -0.011722 65.000000
3.362407 -0.091527 -0.011737 65.000000
3.362110 -0.101843 -0.011737 65.000000
3.361782 -0.112157 -0.011737 65.000000
3.360423 -0.122434 -0.011722 65.000000
3.361031 -0.132782 -0.011737 65.000000
3.360607 -0.143093 -0.011737 65.000000
3.360153 -0.153403 -0.011737 65.000000
3.360665 -0.163760 -0.011751 65.000000
3.361145 -0.174121 -0.011765 65.000000
3.361593 -0.184487 -0.011780 65.000000
3.363008 -0.194915 -0.011808 65.000000
3.364390 -0.205354 -0.011837 65.000000
3.364743 -0.215739 -0.011851 65.000000
3.331143 -0.223845 -0.011379 65.000000
4.379233 1.989524 -0.062569 66.000000
4.376202 1.971971 -0.062364 66.000000
4.348460 1.943439 -0.061602 66.000000
4.337036 1.922390 -0.061210 66.000000
4.321863 1.899820 -0.060737 66.000000
4.292846 1.871367 -0.059954 66.000000
4.310497 1.863346 -0.060222 66.000000
4.292302 1.839869 -0.059686 66.000000
4.274924 1.816913 -0.059172 66.000000
4.267580 1.798353 -0.058883 66.000000
4.278612 1.787565 -0.059007 66.000000
4.265603 1.766777 -0.058595 66.000000
4.261755 1.749883 -0.058389 66.000000
4.243954 1.727376 -0.057874 66.000000
4.242743 1.711728 -0.057730 66.000000
4.241477 1.696104 -0.057586 66.000000
4.227142 1.675346 -0.057153 66.000000
4.215513 1.655789 -0.056783 66.000000
4.201940 1.635593 -0.056371 66.000000
4.231190 1.632051 -0.056906 66.000000
4.226838 1.615492 -0.056700 66.000000
4.237384 1.604642 -0.056824 66.000000
4.222631 1.584257 -0.056391 66.000000
4.235905 1.574431 -0.056577 66.000000
4.241653 1.561773 -0.056597 66.000000
4.262392 1.554578 -0.056947 66.000000
4.268082 1.541833 -0.056968 66.000000
4.306679 1.540859 -0.057709 66.000000
4.315156 1.528975 -0.057792 66.000000
4.311336 1.512750 -0.057606 66.000000
4.329178 1.504110 -0.057895 66.000000
4.333772 1.490822 -0.057895 66.000000
4.361039 1.485256 -0.058389 66.000000
4.350417 1.466758 -0.058060 66.000000
4.355845 1.453721 -0.058080 66.000000
4.372625 1.444428 -0.058348 66.000000
4.400793 1.438775 -0.058863 66.000000
4.394723 1.421881 -0.058636 66.000000
4.416203 1.413880 -0.059007 66.000000
4.452925 1.410593 -0.059707 66.000000
4.447692 1.393934 -0.059501 66.000000
4.486324 1.390944 -0.060242 66.000000
4.509687 1.383038 -0.060654 66.000000
4.787530 1.452217 -0.066544 66.000000
4.812073 1.443557 -0.066976 66.000000
3.337020 0.411412 -0.032750 66.000000
3.338267 0.401172 -0.032750 66.000000
3.341468 0.391161 -0.032791 66.000000
3.341659 0.380795 -0.032771 66.000000
3.342811 0.370541 -0.032771 66.000000
3.341944 0.360069 -0.032730 66.000000
3.340050 0.349502 -0.032668 66.000000
3.339117 0.339051 -0.032627 66.000000
3.337157 0.328511 -0.032565 66.000000
3.338149 0.318271 -0.032565 66.000000
3.341101 0.308212 -0.032606 66.000000
3.343027 0.298049 -0.032627 66.000000
3.347910 0.288135 -0.032709 66.000000
3.349774 0.277945 -0.032730 66.000000
3.351608 0.267747 -0.032750 66.000000
3.351417 0.257386 -0.032730 66.000000
3.350196 0.246956 -0.032688 66.000000
3.347946 0.236465 -0.032627 66.000000
3.346661 0.226057 -0.032585 66.000000
3.346341 0.215724 -0.032565 66.000000
3.344991 0.205334 -0.032524 66.000000
3.345606 0.195071 -0.032524 66.000000
3.347187 0.184861 -0.032544 66.000000
3.347738 0.174591 -0.032544 66.000000
3.349257 0.164369 -0.032565 66.000000
3.349745 0.154093 -0.032565 66.000000
3.352200 0.143901 -0.032606 66.000000
3.351626 0.133576 -0.032585 66.000000
3.352021 0.123293 -0.032585 66.000000
3.351384 0.112974 -0.032565 66.000000
3.351715 0.102692 -0.032565 66.000000
3.350015 0.092353 -0.032524 66.000000
3.350283 0.082075 -0.032524 66.000000
3.349519 0.071775 -0.032503 66.000000
3.349724 0.061498 -0.032503 66.000000
3.346897 0.051175 -0.032441 66.000000
3.347039 0.040907 -0.032441 66.000000
3.350148 0.030666 -0.032503 66.000000
3.350226 0.020387 -0.032503 66.000000
3.351273 0.010112 -0.032524 66.000000
3.353287 -0.000169 -0.032565 66.000000
3.353271 -0.010457 -0.032565 66.000000
3.350224 -0.020727 -0.032503 66.000000
3.350144 -0.031005 -0.032503 66.000000
3.349034 -0.041271 -0.032482 66.000000
3.346892 -0.051515 -0.032441 66.000000
3.346718 -0.061782 -0.032441 66.000000
3.345514 -0.072028 -0.032421 66.000000
3.346276 -0.082316 -0.032441 66.000000
3.348007 -0.092637 -0.032482 66.000000
3.348706 -0.102939 -0.032503 66.000000
3.349374 -0.113246 -0.032524 66.000000
3.351009 -0.123595 -0.032565 66.000000
3.353611 -0.133994 -0.032627 66.000000
3.353184 -0.144282 -0.032627 66.000000
3.354723 -0.154661 -0.032668 66.000000
3.355231 -0.165001 -0.032688 66.000000
3.355708 -0.175346 -0.032709 66.000000
3.355154 -0.185641 -0.032709 66.000000
3.356565 -0.196049 -0.032750 66.000000
3.357944 -0.206469 -0.032791 66.000000
3.341331 -0.215741 -0.032462 66.000000
4.305944 1.970196 -0.089878 67.000000
4.270100 1.937962 -0.088649 67.000000
4.244125 1.910483 -0.087715 67.000000
4.277347 1.909686 -0.088516 67.000000
4.269476 1.890480 -0.088115 67.000000
4.264274 1.872546 -0.087795 67.000000
4.248005 1.849871 -0.087154 67.000000
4.259166 1.839208 -0.087314 67.000000
4.255600 1.822196 -0.087047 67.000000
4.256570 1.807177 -0.086914 67.000000
4.290653 1.806139 -0.087742 67.000000
4.253742 1.775246 -0.086513 67.000000
4.240696 1.754539 -0.085979 67.000000
4.226639 1.733550 -0.085419 67.000000
4.244901 1.725849 -0.085792 67.000000
4.201040 1.693002 -0.084377 67.000000
4.197860 1.676766 -0.084137 67.000000
4.202985 1.663879 -0.084137 67.000000
4.201556 1.648419 -0.083950 67.000000
4.212183 1.637696 -0.084110 67.000000
4.189207 1.613977 -0.083309 67.000000
4.202543 1.604328 -0.083550 67.000000
4.215859 1.594612 -0.083790 67.000000
4.215116 1.579564 -0.083630 67.000000
4.238683 1.573588 -0.084164 67.000000
4.244429 1.560922 -0.084190 67.000000
4.247319 1.547208 -0.084137 67.000000
4.262388 1.537905 -0.084431 67.000000
4.278382 1.528860 -0.084751 67.000000
4.294360 1.519732 -0.085072 67.000000
4.307492 1.509527 -0.085312 67.000000
4.319657 1.498929 -0.085525 67.000000
4.338415 1.490545 -0.085926 67.000000
4.335397 1.474651 -0.085712 67.000000
4.345585 1.463258 -0.085873 67.000000
4.376605 1.458777 -0.086620 67.000000
4.383908 1.446283 -0.086700 67.000000
4.378822 1.429721 -0.086433 67.000000
4.408869 1.424586 -0.087154 67.000000
4.409410 1.409834 -0.087047 67.000000
4.425151 1.399921 -0.087368 67.000000
4.437057 1.388728 -0.087581 67.000000
4.457529 1.380139 -0.088035 67.000000
4.518131 1.383743 -0.089611 67.000000
4.525225 1.370745 -0.089691 67.000000
4.516004 1.352836 -0.089317 67.000000
4.554636 1.349204 -0.090278 67.000000
4.567387 1.337755 -0.090518 67.000000
4.572430 1.324015 -0.090545 67.000000
4.591846 1.314386 -0.090972 67.000000
3.308636 0.416708 -0.052470 67.000000
3.333710 0.409488 -0.053111 67.000000
3.339913 0.399854 -0.053245 67.000000
3.342117 0.389722 -0.053271 67.000000
3.344290 0.379580 -0.053298 67.000000
3.342458 0.368988 -0.053218 67.000000
3.342581 0.358624 -0.053191 67.000000
3.339689 0.347952 -0.053084 67.000000
3.336762 0.337301 -0.052978 67.000000
3.335792 0.326866 -0.052924 67.000000
3.336779 0.316631 -0.052924 67.000000
3.338730 0.306484 -0.052951 67.000000
3.341646 0.296417 -0.053004 67.000000
3.344532 0.286335 -0.053058 67.000000
3.347387 0.276238 -0.053111 67.000000
3.347222 0.265887 -0.053084 67.000000
3.347025 0.255540 -0.053058 67.000000
3.345799 0.245124 -0.053004 67.000000
3.344541 0.234717 -0.052951 67.000000
3.343251 0.224321 -0.052898 67.000000
3.342926 0.213998 -0.052871 67.000000
3.343567 0.203741 -0.052871 67.000000
3.346172 0.193599 -0.052924 67.000000
3.345752 0.183277 -0.052898 67.000000
3.345300 0.172959 -0.052871 67.000000
3.344817 0.162647 -0.052844 67.000000
3.342304 0.152247 -0.052764 67.000000
3.344753 0.142077 -0.052817 67.000000
3.344174 0.131775 -0.052791 67.000000
3.343564 0.121478 -0.052764 67.000000
3.343921 0.111220 -0.052764 67.000000
3.345246 0.100991 -0.052791 67.000000
3.344540 0.090700 -0.052764 67.000000
3.345802 0.080463 -0.052791 67.000000
3.344034 0.070155 -0.052737 67.000000
3.345233 0.059914 -0.052764 67.000000
3.343402 0.049620 -0.052711 67.000000
3.343539 0.039362 -0.052711 67.000000
3.344644 0.029113 -0.052737 67.000000
3.346716 0.018864 -0.052791 67.000000
3.345759 0.008593 -0.052764 67.000000
3.346769 -0.001671 -0.052791 67.000000
3.348747 -0.011946 -0.052844 67.000000
3.340698 -0.022169 -0.052631 67.000000
3.344613 -0.032456 -0.052737 67.000000
3.343498 -0.042704 -0.052711 67.000000
3.341352 -0.052931 -0.052657 67.000000
3.339175 -0.063144 -0.052604 67.000000
3.339965 -0.073410 -0.052631 67.000000
3.339724 -0.083657 -0.052631 67.000000
3.342449 -0.093986 -0.052711 67.000000
3.343145 -0.104271 -0.052737 67.000000
3.347804 -0.114696 -0.052871 67.000000
3.349435 -0.125040 -0.052924 67.000000
3.352032 -0.135436 -0.053004 67.000000
3.352599 -0.145762 -0.053031 67.000000
3.355132 -0.156185 -0.053111 67.000000
3.354637 -0.166478 -0.053111 67.000000
3.355109 -0.176821 -0.053138 67.000000
3.355549 -0.187169 -0.053165 67.000000
3.356954 -0.197580 -0.053218 67.000000
3.343362 -0.207079 -0.052871 67.000000
4.484118 1.988828 -0.122608 68.000000
4.447195 1.956158 -0.121083 68.000000
4.438516 1.936115 -0.120563 68.000000
4.427921 1.915350 -0.119979 68.000000
4.378658 1.878130 -0.118032 68.000000
4.323690 1.838886 -0.115889 68.000000
4.243655 1.789517 -0.112871 68.000000
4.264803 1.783039 -0.113423 68.000000
4.249015 1.761150 -0.112676 68.000000
4.202622 1.726847 -0.110858 68.000000
4.231043 1.723365 -0.111670 68.000000
4.250214 1.715985 -0.112157 68.000000
4.260099 1.704793 -0.112319 68.000000
4.228143 1.676985 -0.111021 68.000000
4.228616 1.662179 -0.110858 68.000000
4.271883 1.664062 -0.112189 68.000000
4.252723 1.641596 -0.111345 68.000000
4.248404 1.624973 -0.111021 68.000000
4.250565 1.610870 -0.110923 68.000000
4.263909 1.600981 -0.111215 68.000000
4.288474 1.595205 -0.111897 68.000000
4.278341 1.576515 -0.111378 68.000000
4.272830 1.559615 -0.111021 68.000000
4.318015 1.561101 -0.112416 68.000000
4.307727 1.542459 -0.111897 68.000000
4.307728 1.527566 -0.111735 68.000000
4.305793 1.512027 -0.111508 68.000000
4.324573 1.503730 -0.111994 68.000000
4.332002 1.491431 -0.112092 68.000000
4.327096 1.474911 -0.111767 68.000000
4.336336 1.463225 -0.111930 68.000000
4.367351 1.458774 -0.112838 68.000000
4.348080 1.437531 -0.112027 68.000000
4.353419 1.424495 -0.112059 68.000000
4.368229 1.414517 -0.112416 68.000000
4.407768 1.412384 -0.113617 68.000000
4.404458 1.396440 -0.113358 68.000000
4.432565 1.390393 -0.114169 68.000000
4.534184 1.406977 -0.117480 68.000000
4.524146 1.388664 -0.116993 68.000000
4.565686 1.386092 -0.118259 68.000000
4.561301 1.369494 -0.117967 68.000000
4.547275 1.350093 -0.117350 68.000000
4.577291 1.343731 -0.118226 68.000000
4.578512 1.328847 -0.118129 68.000000
4.578724 1.313692 -0.117999 68.000000
4.590425 1.301818 -0.118259 68.000000
3.334501 0.422760 -0.072461 68.000000
3.335783 0.412528 -0.072461 68.000000
3.337032 0.402292 -0.072461 68.000000
3.338251 0.392052 -0.072461 68.000000
3.339438 0.381808 -0.072461 68.000000
3.338607 0.371341 -0.072396 68.000000
3.337743 0.360882 -0.072331 68.000000
3.335852 0.350329 -0.072234 68.000000
3.333928 0.339790 -0.072137 68.000000
3.332966 0.329364 -0.072072 68.000000
3.335950 0.319327 -0.072137 68.000000
3.337910 0.309182 -0.072169 68.000000
3.338843 0.298940 -0.072169 68.000000
3.341736 0.288867 -0.072234 68.000000
3.342606 0.278613 -0.072234 68.000000
3.343445 0.268357 -0.072234 68.000000
3.342260 0.257945 -0.072169 68.000000
3.341042 0.247543 -0.072104 68.000000
3.340788 0.237221 -0.072072 68.000000
3.338509 0.226769 -0.071974 68.000000
3.341184 0.216654 -0.072039 68.000000
3.339838 0.206280 -0.071974 68.000000
3.340455 0.196032 -0.071974 68.000000
3.341040 0.185783 -0.071974 68.000000
3.340596 0.175480 -0.071942 68.000000
3.340121 0.165181 -0.071910 68.000000
3.339613 0.154887 -0.071877 68.000000
3.339074 0.144598 -0.071845 68.000000
3.337505 0.134273 -0.071780 68.000000
3.337901 0.124033 -0.071780 68.000000
3.337267 0.113758 -0.071747 68.000000
3.338599 0.103550 -0.071780 68.000000
3.337902 0.093279 -0.071747 68.000000
3.339172 0.083063 -0.071780 68.000000
3.337413 0.072775 -0.071715 68.000000
3.339619 0.062572 -0.071780 68.000000
3.335798 0.052265 -0.071650 68.000000
3.335942 0.042031 -0.071650 68.000000
3.337055 0.031805 -0.071682 68.000000
3.338136 0.021573 -0.071715 68.000000
3.339186 0.011335 -0.071747 68.000000
3.343203 0.001090 -0.071877 68.000000
3.343191 -0.009167 -0.071877 68.000000
3.342147 -0.019417 -0.071845 68.000000
3.342072 -0.029671 -0.071845 68.000000
3.338967 -0.039887 -0.071747 68.000000
3.337830 -0.050115 -0.071715 68.000000
3.336661 -0.060337 -0.071682 68.000000
3.336460 -0.070573 -0.071682 68.000000
3.339226 -0.080883 -0.071780 68.000000
3.340960 -0.091182 -0.071845 68.000000
3.339665 -0.101401 -0.071812 68.000000
3.347330 -0.111917 -0.072072 68.000000
3.348968 -0.122259 -0.072137 68.000000
3.351573 -0.132653 -0.072234 68.000000
3.352149 -0.142977 -0.072267 68.000000
3.354690 -0.153399 -0.072364 68.000000
3.354203 -0.163690 -0.072364 68.000000
3.354684 -0.174032 -0.072396 68.000000
3.355132 -0.184379 -0.072429 68.000000
3.357544 -0.194846 -0.072526 68.000000
3.351942 -0.204839 -0.072364 68.000000
4.289237 1.980645 -0.146354 69.000000
4.288025 1.964148 -0.146045 69.000000
4.290392 1.949330 -0.145890 69.000000
4.290886 1.933696 -0.145657 69.000000
4.294061 1.919299 -0.145541 69.000000
4.299929 1.906116 -0.145541 69.000000
4.303012 1.891709 -0.145425 69.000000
4.300552 1.874905 -0.145076 69.000000
4.309953 1.863288 -0.145231 69.000000
4.311057 1.848089 -0.145037 69.000000
4.308429 1.831336 -0.144689 69.000000
4.289165 1.807634 -0.143643 69.000000
4.290080 1.792541 -0.143449 69.000000
4.278018 1.772106 -0.142713 69.000000
4.242762 1.742275 -0.141009 69.000000
4.206438 1.712300 -0.139266 69.000000
4.218158 1.702004 -0.139537 69.000000
4.212226 1.684603 -0.139072 69.000000
4.216445 1.671304 -0.139033 69.000000
4.224344 1.659456 -0.139149 69.000000
4.246177 1.653012 -0.139847 69.000000
4.252160 1.640336 -0.139885 69.000000
4.247838 1.623716 -0.139498 69.000000
4.266818 1.615984 -0.140079 69.000000
4.267077 1.601131 -0.139885 69.000000
4.271033 1.587684 -0.139847 69.000000
4.270257 1.572502 -0.139614 69.000000
4.286327 1.563502 -0.140079 69.000000
4.279826 1.546271 -0.139614 69.000000
4.285491 1.533470 -0.139653 69.000000
4.287349 1.519314 -0.139537 69.000000
4.302362 1.509792 -0.139963 69.000000
4.310750 1.497897 -0.140118 69.000000
4.316269 1.484990 -0.140157 69.000000
4.325535 1.473351 -0.140350 69.000000
4.335716 1.461989 -0.140583 69.000000
4.339233 1.448364 -0.140544 69.000000
4.347451 1.436298 -0.140699 69.000000
4.350888 1.422643 -0.140660 69.000000
4.360936 1.411133 -0.140893 69.000000
4.365245 1.397747 -0.140893 69.000000
4.376181 1.386461 -0.141164 69.000000
4.387089 1.375120 -0.141435 69.000000
4.404649 1.365796 -0.141977 69.000000
4.464229 1.369267 -0.144224 69.000000
4.546820 1.379344 -0.147400 69.000000
4.553902 1.366250 -0.147517 69.000000
4.561904 1.353408 -0.147671 69.000000
4.567953 1.339969 -0.147749 69.000000
4.569163 1.325113 -0.147633 69.000000
4.622196 1.325130 -0.149608 69.000000
3.337652 0.391055 -0.093479 69.000000
3.336851 0.380587 -0.093401 69.000000
3.336016 0.370128 -0.093324 69.000000
3.335149 0.359677 -0.093247 69.000000
3.334249 0.349235 -0.093169 69.000000
3.331328 0.338601 -0.093014 69.000000
3.332351 0.328379 -0.093014 69.000000
3.333343 0.318154 -0.093014 69.000000
3.334304 0.307925 -0.093014 69.000000
3.335233 0.297695 -0.093014 69.000000
3.336130 0.287461 -0.093014 69.000000
3.336997 0.277224 -0.093014 69.000000
3.339823 0.267144 -0.093092 69.000000
3.339631 0.256820 -0.093053 69.000000
3.340403 0.246573 -0.093053 69.000000
3.340147 0.236253 -0.093014 69.000000
3.342850 0.226139 -0.093092 69.000000
3.341534 0.215754 -0.093014 69.000000
3.342180 0.205501 -0.093014 69.000000
3.341797 0.195189 -0.092975 69.000000
3.342381 0.184935 -0.092975 69.000000
3.340936 0.174576 -0.092898 69.000000
3.341456 0.164325 -0.092898 69.000000
3.340946 0.154027 -0.092859 69.000000
3.340405 0.143734 -0.092820 69.000000
3.338833 0.133405 -0.092743 69.000000
3.339227 0.123161 -0.092743 69.000000
3.337592 0.112849 -0.092666 69.000000
3.337922 0.102609 -0.092666 69.000000
3.338221 0.092368 -0.092666 69.000000
3.340487 0.082175 -0.092743 69.000000
3.338725 0.071883 -0.092666 69.000000
3.338930 0.061640 -0.092666 69.000000
3.338104 0.051380 -0.092627 69.000000
3.339245 0.041151 -0.092666 69.000000
3.339356 0.030906 -0.092666 69.000000
3.339435 0.020661 -0.092666 69.000000
3.341481 0.010422 -0.092743 69.000000
3.342497 0.000170 -0.092782 69.000000
3.345479 -0.010094 -0.092898 69.000000
3.345432 -0.020358 -0.092898 69.000000
3.348352 -0.030649 -0.093014 69.000000
3.347243 -0.040909 -0.092975 69.000000
3.345103 -0.051147 -0.092898 69.000000
3.344931 -0.061410 -0.092898 69.000000
3.344727 -0.071671 -0.092898 69.000000
3.345490 -0.081957 -0.092937 69.000000
3.347220 -0.092276 -0.093014 69.000000
3.346921 -0.102545 -0.093014 69.000000
3.346591 -0.112812 -0.093014 69.000000
3.349225 -0.123190 -0.093130 69.000000
3.350828 -0.133544 -0.093208 69.000000
3.353398 -0.143953 -0.093324 69.000000
3.352940 -0.154240 -0.093324 69.000000
3.353449 -0.164575 -0.093363 69.000000
3.354924 -0.174967 -0.093440 69.000000
3.355370 -0.185314 -0.093479 69.000000
3.350795 -0.195374 -0.093324 69.000000
4.296431 1.997988 -0.174963 70.000000
4.288934 1.978520 -0.174293 70.000000
4.284083 1.960363 -0.173757 70.000000
4.295535 1.949688 -0.174025 70.000000
4.296031 1.934039 -0.173757 70.000000
4.285525 1.913517 -0.172953 70.000000
4.289549 1.899552 -0.172863 70.000000
4.292613 1.885177 -0.172730 70.000000
4.296544 1.871201 -0.172640 70.000000
4.303182 1.858406 -0.172685 70.000000
4.324474 1.851882 -0.173444 70.000000
4.313584 1.831577 -0.172640 70.000000
4.298007 1.809418 -0.171613 70.000000
4.295241 1.792759 -0.171211 70.000000
4.321028 1.787978 -0.172194 70.000000
4.328342 1.775471 -0.172283 70.000000
4.287499 1.743365 -0.170050 70.000000
4.303946 1.734686 -0.170586 70.000000
4.325018 1.727775 -0.171345 70.000000
4.323797 1.711923 -0.171032 70.000000
4.280672 1.679670 -0.168710 70.000000
4.278356 1.663632 -0.168352 70.000000
4.306744 1.659481 -0.169469 70.000000
4.325814 1.651606 -0.170139 70.000000
4.282274 1.619942 -0.167816 70.000000
4.286289 1.606446 -0.167772 70.000000
4.301498 1.597114 -0.168263 70.000000
4.327942 1.591844 -0.169290 70.000000
4.318727 1.573427 -0.168620 70.000000
4.342327 1.566954 -0.169514 70.000000
4.319833 1.543872 -0.168218 70.000000
4.301948 1.522610 -0.167146 70.000000
4.321683 1.514693 -0.167861 70.000000
4.329141 1.502410 -0.167995 70.000000
4.324282 1.485874 -0.167548 70.000000
4.332603 1.473887 -0.167727 70.000000
4.346572 1.463777 -0.168174 70.000000
4.369997 1.456756 -0.169067 70.000000
4.371599 1.442402 -0.168933 70.000000
4.366508 1.425882 -0.168486 70.000000
4.365158 1.410635 -0.168218 70.000000
4.358999 1.393889 -0.167727 70.000000
4.360397 1.379605 -0.167593 70.000000
4.360796 1.365027 -0.167414 70.000000
4.366872 1.352233 -0.167504 70.000000
4.371000 1.338829 -0.167504 70.000000
4.374131 1.325123 -0.167459 70.000000
4.377219 1.311410 -0.167414 70.000000
4.385053 1.299110 -0.167593 70.000000
4.399563 1.288741 -0.168084 70.000000
4.390063 1.271346 -0.167459 70.000000
4.468853 1.279323 -0.170943 70.000000
4.406432 1.246834 -0.167861 70.000000
3.303823 0.334304 -0.111582 70.000000
3.322729 0.325924 -0.112386 70.000000
3.323714 0.315728 -0.112386 70.000000
3.326656 0.305713 -0.112476 70.000000
3.327579 0.295505 -0.112476 70.000000
3.329465 0.285380 -0.112520 70.000000
3.331320 0.275247 -0.112565 70.000000
3.334141 0.265184 -0.112654 70.000000
3.334939 0.254953 -0.112654 70.000000
3.335705 0.244721 -0.112654 70.000000
3.334447 0.234345 -0.112565 70.000000
3.335150 0.224114 -0.112565 70.000000
3.334825 0.213817 -0.112520 70.000000
3.333471 0.203463 -0.112431 70.000000
3.334080 0.193235 -0.112431 70.000000
3.335654 0.183060 -0.112476 70.000000
3.336200 0.172826 -0.112476 70.000000
3.337713 0.162639 -0.112520 70.000000
3.339194 0.152443 -0.112565 70.000000
3.338648 0.142156 -0.112520 70.000000
3.338070 0.131873 -0.112476 70.000000
3.337461 0.121594 -0.112431 70.000000
3.336819 0.111321 -0.112386 70.000000
3.337145 0.101084 -0.112386 70.000000
3.336441 0.090818 -0.112342 70.000000
3.336704 0.080581 -0.112342 70.000000
3.337934 0.070365 -0.112386 70.000000
3.337136 0.060106 -0.112342 70.000000
3.338303 0.049882 -0.112386 70.000000
3.338440 0.039640 -0.112386 70.000000
3.338546 0.029398 -0.112386 70.000000
3.337622 0.019150 -0.112342 70.000000
3.339663 0.008915 -0.112431 70.000000
3.342672 -0.001331 -0.112565 70.000000
3.344650 -0.011593 -0.112654 70.000000
3.344599 -0.021855 -0.112654 70.000000
3.346514 -0.032134 -0.112744 70.000000
3.345400 -0.042389 -0.112699 70.000000
3.344256 -0.052636 -0.112654 70.000000
3.342081 -0.062859 -0.112565 70.000000
3.340873 -0.073090 -0.112520 70.000000
3.339635 -0.083315 -0.112476 70.000000
3.340362 -0.093588 -0.112520 70.000000
3.340059 -0.103836 -0.112520 70.000000
3.341722 -0.114150 -0.112610 70.000000
3.343353 -0.124476 -0.112699 70.000000
3.345949 -0.134853 -0.112833 70.000000
3.349512 -0.145290 -0.113012 70.000000
3.348053 -0.155520 -0.112967 70.000000
3.349555 -0.165889 -0.113056 70.000000
3.349031 -0.176165 -0.113056 70.000000
3.360444 -0.187104 -0.113592 70.000000
4.295485 1.996467 -0.205455 71.000000
4.277105 1.971983 -0.204074 71.000000
4.281318 1.958020 -0.203972 71.000000
4.291852 1.946940 -0.204228 71.000000
4.294163 1.932124 -0.204023 71.000000
4.274537 1.907538 -0.202592 71.000000
4.273977 1.891584 -0.202234 71.000000
4.304449 1.889307 -0.203614 71.000000
4.285503 1.865324 -0.202234 71.000000
4.290289 1.851772 -0.202183 71.000000
4.293196 1.837421 -0.202030 71.000000
4.288701 1.819947 -0.201468 71.000000
4.272174 1.797480 -0.200241 71.000000
4.270295 1.781287 -0.199832 71.000000
4.305270 1.780398 -0.201468 71.000000
4.282069 1.755431 -0.199883 71.000000
4.280033 1.739275 -0.199474 71.000000
4.284423 1.725763 -0.199423 71.000000
4.294334 1.714463 -0.199678 71.000000
4.281931 1.694294 -0.198707 71.000000
4.283391 1.679690 -0.198503 71.000000
4.307139 1.673780 -0.199525 71.000000
4.288957 1.651580 -0.198247 71.000000
4.285607 1.635208 -0.197787 71.000000
4.287801 1.620992 -0.197634 71.000000
4.302106 1.611335 -0.198145 71.000000
4.299539 1.595347 -0.197736 71.000000
4.325971 1.590079 -0.198912 71.000000
4.328952 1.576116 -0.198810 71.000000
4.341282 1.565540 -0.199218 71.000000
4.342303 1.550869 -0.199014 71.000000
4.353631 1.539872 -0.199372 71.000000
4.334773 1.518249 -0.198094 71.000000
4.336580 1.503961 -0.197941 71.000000
4.355341 1.495518 -0.198707 71.000000
4.356127 1.480862 -0.198503 71.000000
4.388097 1.476735 -0.199985 71.000000
4.425766 1.474321 -0.201774 71.000000
4.523211 1.491406 -0.206784 71.000000
4.574283 1.492715 -0.209288 71.000000
4.674820 1.509695 -0.214451 71.000000
4.710821 1.505385 -0.216138 71.000000
4.759216 1.504785 -0.218489 71.000000
4.787638 1.497636 -0.219767 71.000000
4.803658 1.486486 -0.220380 71.000000
4.382151 1.282624 -0.196714 71.000000
4.391820 1.270841 -0.197020 71.000000
4.398579 1.258186 -0.197174 71.000000
4.406262 1.245773 -0.197378 71.000000
4.450459 1.243547 -0.199525 71.000000
4.469655 1.234144 -0.200343 71.000000
4.472456 1.220163 -0.200292 71.000000
3.391167 0.289750 -0.137215 71.000000
3.332323 0.274406 -0.134148 71.000000
3.327175 0.263706 -0.133841 71.000000
3.328965 0.253573 -0.133892 71.000000
3.330723 0.243432 -0.133943 71.000000
3.330458 0.233143 -0.133892 71.000000
3.330161 0.222857 -0.133841 71.000000
3.329832 0.212575 -0.133790 71.000000
3.329472 0.202297 -0.133739 71.000000
3.332071 0.192197 -0.133841 71.000000
3.332645 0.181974 -0.133841 71.000000
3.335182 0.171852 -0.133943 71.000000
3.337689 0.161716 -0.134046 71.000000
3.340165 0.151567 -0.134148 71.000000
3.340614 0.141319 -0.134148 71.000000
3.340034 0.131030 -0.134097 71.000000
3.339422 0.120746 -0.134046 71.000000
3.339777 0.110500 -0.134046 71.000000
3.339102 0.100223 -0.133995 71.000000
3.338395 0.089951 -0.133943 71.000000
3.338655 0.079708 -0.133943 71.000000
3.339883 0.069486 -0.133995 71.000000
3.340080 0.059239 -0.133995 71.000000
3.341245 0.049007 -0.134046 71.000000
3.342378 0.038768 -0.134097 71.000000
3.342481 0.028513 -0.134097 71.000000
3.343552 0.018264 -0.134148 71.000000
3.343592 0.008006 -0.134148 71.000000
3.344600 -0.002252 -0.134199 71.000000
3.343578 -0.012510 -0.134148 71.000000
3.344523 -0.022774 -0.134199 71.000000
3.345436 -0.033044 -0.134250 71.000000
3.346317 -0.043320 -0.134301 71.000000
3.344172 -0.053555 -0.134199 71.000000
3.342993 -0.063796 -0.134148 71.000000
3.343780 -0.074074 -0.134199 71.000000
3.342539 -0.084307 -0.134148 71.000000
3.343262 -0.094589 -0.134199 71.000000
3.343955 -0.104877 -0.134250 71.000000
3.343617 -0.115136 -0.134250 71.000000
3.344246 -0.125430 -0.134301 71.000000
3.344844 -0.135730 -0.134352 71.000000
3.346407 -0.146077 -0.134455 71.000000
3.343948 -0.156251 -0.134352 71.000000
3.345448 -0.166608 -0.134455 71.000000
3.353897 -0.177342 -0.134915 71.000000
4.254385 1.998300 -0.231469 72.000000
4.249634 1.980181 -0.230784 72.000000
4.249345 1.964203 -0.230385 72.000000
4.268058 1.956979 -0.231184 72.000000
4.240413 1.928591 -0.229073 72.000000
4.239938 1.912700 -0.228674 72.000000
4.243052 1.898461 -0.228503 72.000000
4.253420 1.887458 -0.228788 72.000000
4.254621 1.872390 -0.228503 72.000000
4.254855 1.856934 -0.228160 72.000000
4.256866 1.842286 -0.227932 72.000000
4.263416 1.829611 -0.227989 72.000000
4.261659 1.813397 -0.227533 72.000000
4.260763 1.797599 -0.227134 72.000000
4.260731 1.782208 -0.226791 72.000000
4.266178 1.769128 -0.226791 72.000000
4.266045 1.753755 -0.226449 72.000000
4.258460 1.735388 -0.225651 72.000000
4.257284 1.719699 -0.225251 72.000000
4.272736 1.710709 -0.225879 72.000000
4.269612 1.694280 -0.225365 72.000000
4.268285 1.678617 -0.224966 72.000000
4.271554 1.664790 -0.224852 72.000000
4.279436 1.652755 -0.225023 72.000000
4.277026 1.636766 -0.224567 72.000000
4.282961 1.623990 -0.224624 72.000000
4.290728 1.611895 -0.224795 72.000000
4.309689 1.603943 -0.225651 72.000000
4.285548 1.580015 -0.223882 72.000000
4.292251 1.567544 -0.223996 72.000000
4.298918 1.555047 -0.224110 72.000000
4.326228 1.549927 -0.225479 72.000000
4.348841 1.542985 -0.226563 72.000000
4.346960 1.527321 -0.226164 72.000000
4.398777 1.530368 -0.229016 72.000000
4.474252 1.541235 -0.233294 72.000000
4.503530 1.535874 -0.234777 72.000000
4.524302 1.527475 -0.235747 72.000000
4.576316 1.529399 -0.238599 72.000000
4.611320 1.525378 -0.240424 72.000000
4.659627 1.525502 -0.243048 72.000000
4.736474 1.534569 -0.247383 72.000000
4.893283 1.568763 -0.256510 72.000000
4.940900 1.567317 -0.259077 72.000000
4.969501 1.559620 -0.260503 72.000000
4.978077 1.545550 -0.260731 72.000000
3.318871 0.226021 -0.152980 72.000000
3.322538 0.216031 -0.153151 72.000000
3.321192 0.205714 -0.153037 72.000000
3.325794 0.195757 -0.153265 72.000000
3.327376 0.185608 -0.153322 72.000000
3.331918 0.175607 -0.153550 72.000000
3.335432 0.165532 -0.153722 72.000000
3.338916 0.155436 -0.153893 72.000000
3.339377 0.145192 -0.153893 72.000000
3.338809 0.134906 -0.153836 72.000000
3.338210 0.124625 -0.153779 72.000000
3.337579 0.114349 -0.153722 72.000000
3.334920 0.104017 -0.153550 72.000000
3.334226 0.093757 -0.153493 72.000000
3.333499 0.083503 -0.153436 72.000000
3.332742 0.073254 -0.153379 72.000000
3.335945 0.063084 -0.153550 72.000000
3.338120 0.052881 -0.153664 72.000000
3.339265 0.042651 -0.153722 72.000000
3.339380 0.032407 -0.153722 72.000000
3.341460 0.022174 -0.153836 72.000000
3.341512 0.011922 -0.153836 72.000000
3.342532 0.001671 -0.153893 72.000000
3.342521 -0.008584 -0.153893 72.000000
3.343477 -0.018845 -0.153950 72.000000
3.342406 -0.029093 -0.153893 72.000000
3.343299 -0.039359 -0.153950 72.000000
3.342164 -0.049601 -0.153893 72.000000
3.341996 -0.059855 -0.153893 72.000000
3.339801 -0.070065 -0.153779 72.000000
3.338572 -0.080286 -0.153722 72.000000
3.338310 -0.090529 -0.153722 72.000000
3.339014 -0.100801 -0.153779 72.000000
3.337692 -0.111010 -0.153722 72.000000
3.338333 -0.121286 -0.153779 72.000000
3.339940 -0.131607 -0.153893 72.000000
3.341516 -0.141939 -0.154007 72.000000
3.342062 -0.152235 -0.154064 72.000000
3.343573 -0.162586 -0.154178 72.000000
3.346050 -0.172998 -0.154349 72.000000
4.250518 1.995403 -0.260707 73.000000
4.255715 1.981932 -0.260644 73.000000
4.260870 1.968448 -0.260581 73.000000
4.256909 1.950794 -0.259884 73.000000
4.251971 1.932770 -0.259124 73.000000
4.246963 1.914795 -0.258365 73.000000
4.258284 1.904200 -0.258745 73.000000
4.256807 1.887891 -0.258238 73.000000
4.263492 1.875224 -0.258301 73.000000
4.262822 1.859342 -0.257858 73.000000
4.265758 1.845067 -0.257668 73.000000
4.266812 1.830005 -0.257352 73.000000
4.265059 1.813782 -0.256845 73.000000
4.263247 1.797587 -0.256339 73.000000
4.270583 1.785269 -0.256465 73.000000
4.267743 1.768720 -0.255895 73.000000
4.274072 1.755998 -0.255959 73.000000
4.272969 1.740242 -0.255516 73.000000
4.261630 1.720402 -0.254376 73.000000
4.262255 1.705466 -0.254059 73.000000
4.262828 1.690542 -0.253743 73.000000
4.267994 1.677456 -0.253743 73.000000
4.269401 1.662906 -0.253490 73.000000
4.276345 1.650518 -0.253616 73.000000
4.286049 1.639173 -0.253933 73.000000
4.287325 1.624601 -0.253680 73.000000
4.286683 1.609336 -0.253300 73.000000
4.321534 1.607308 -0.255326 73.000000
4.320826 1.591972 -0.254946 73.000000
4.322876 1.577682 -0.254756 73.000000
4.324881 1.563395 -0.254566 73.000000
4.340932 1.554155 -0.255326 73.000000
4.345680 1.540830 -0.255326 73.000000
4.340028 1.523854 -0.254629 73.000000
4.355995 1.514464 -0.255389 73.000000
4.373832 1.505639 -0.256275 73.000000
4.447392 1.515709 -0.260897 73.000000
4.608999 1.555006 -0.271407 73.000000
4.638360 1.549076 -0.273053 73.000000
4.685732 1.548930 -0.275902 73.000000
4.719867 1.544165 -0.277865 73.000000
4.853713 1.571475 -0.286476 73.000000
4.955455 1.587628 -0.292934 73.000000
4.963157 1.573322 -0.293124 73.000000
4.931774 1.546741 -0.290718 73.000000
4.157762 0.256280 -0.227088 73.000000
4.160521 0.243639 -0.227215 73.000000
3.339164 0.185340 -0.174981 73.000000
3.306828 0.173374 -0.172892 73.000000
3.334258 0.164553 -0.174602 73.000000
3.338735 0.154507 -0.174855 73.000000
3.341187 0.144349 -0.174981 73.000000
3.341614 0.134098 -0.174981 73.000000
3.338021 0.123698 -0.174728 73.000000
3.336390 0.113389 -0.174602 73.000000
3.333729 0.103060 -0.174412 73.000000
3.331037 0.092749 -0.174222 73.000000
3.328313 0.082455 -0.174032 73.000000
3.328550 0.072244 -0.174032 73.000000
3.331750 0.062087 -0.174222 73.000000
3.334918 0.051911 -0.174412 73.000000
3.335062 0.041679 -0.174412 73.000000
3.338168 0.031475 -0.174602 73.000000
3.342240 0.021259 -0.174855 73.000000
3.340294 0.010998 -0.174728 73.000000
3.341310 0.000751 -0.174791 73.000000
3.341296 -0.009500 -0.174791 73.000000
3.341252 -0.019751 -0.174791 73.000000
3.341175 -0.030002 -0.174791 73.000000
3.341068 -0.040252 -0.174791 73.000000
3.340928 -0.050502 -0.174791 73.000000
3.340758 -0.060752 -0.174791 73.000000
3.338560 -0.070958 -0.174665 73.000000
3.338327 -0.081201 -0.174665 73.000000
3.337064 -0.091415 -0.174602 73.000000
3.336768 -0.101652 -0.174602 73.000000
3.333448 -0.111788 -0.174412 73.000000
3.335084 -0.122088 -0.174538 73.000000
3.334694 -0.132319 -0.174538 73.000000
3.335269 -0.142592 -0.174602 73.000000
3.335813 -0.152869 -0.174665 73.000000
3.343303 -0.163494 -0.175171 73.000000
4.279517 1.990121 -0.291093 74.000000
4.280168 1.974475 -0.290677 74.000000
4.281670 1.959258 -0.290330 74.000000
4.283119 1.944051 -0.289983 74.000000
4.281786 1.927625 -0.289428 74.000000
4.282214 1.912039 -0.289011 74.000000
4.288060 1.898892 -0.289011 74.000000
4.285645 1.882117 -0.288386 74.000000
4.289570 1.868163 -0.288248 74.000000
4.309019 1.860928 -0.289289 74.000000
4.342218 1.859483 -0.291371 74.000000
4.307501 1.828994 -0.288317 74.000000
4.300220 1.810350 -0.287345 74.000000
4.324166 1.804835 -0.288734 74.000000
4.328761 1.791178 -0.288664 74.000000
4.326852 1.774860 -0.288109 74.000000
4.322113 1.757443 -0.287345 74.000000
4.327484 1.744175 -0.287345 74.000000
4.341152 1.734221 -0.287970 74.000000
4.339032 1.717956 -0.287415 74.000000
4.354497 1.708645 -0.288178 74.000000
4.354140 1.693108 -0.287762 74.000000
4.356522 1.678666 -0.287554 74.000000
4.350468 1.661021 -0.286721 74.000000
4.358342 1.648726 -0.286929 74.000000
4.340961 1.626942 -0.285263 74.000000
4.346868 1.613964 -0.285333 74.000000
4.337755 1.595454 -0.284291 74.000000
4.349191 1.584529 -0.284777 74.000000
4.349339 1.569485 -0.284430 74.000000
4.352255 1.555462 -0.284291 74.000000
4.352305 1.540438 -0.283944 74.000000
4.377722 1.534339 -0.285471 74.000000
4.415393 1.532351 -0.287901 74.000000
4.393658 1.509719 -0.285957 74.000000
4.490821 1.527726 -0.292759 74.000000
4.606098 1.551201 -0.300880 74.000000
4.655314 1.551894 -0.304142 74.000000
4.749102 1.566994 -0.310667 74.000000
4.759577 1.554275 -0.311083 74.000000
4.794698 1.549484 -0.313304 74.000000
4.830785 1.544796 -0.315594 74.000000
4.859279 1.537494 -0.317330 74.000000
4.942990 1.547320 -0.323091 74.000000
4.167941 0.241660 -0.253196 74.000000
3.404667 0.186856 -0.199960 74.000000
3.387292 0.175479 -0.198711 74.000000
4.206468 0.192137 -0.255695 74.000000
4.141257 0.176422 -0.251114 74.000000
4.141778 0.163716 -0.251114 74.000000
4.144255 0.151081 -0.251253 74.000000
3.337105 0.111331 -0.195032 74.000000
3.329454 0.100850 -0.194477 74.000000
3.326756 0.090553 -0.194269 74.000000
3.326021 0.080322 -0.194199 74.000000
3.324257 0.070075 -0.194061 74.000000
3.327449 0.059930 -0.194269 74.000000
3.329612 0.049752 -0.194408 74.000000
3.329749 0.039536 -0.194408 74.000000
3.331849 0.029338 -0.194547 74.000000
3.334916 0.019134 -0.194755 74.000000
3.336955 0.008908 -0.194894 74.000000
3.335969 -0.001330 -0.194824 74.000000
3.336946 -0.011567 -0.194894 74.000000
3.335898 -0.021799 -0.194824 74.000000
3.333820 -0.032014 -0.194685 74.000000
3.333706 -0.042242 -0.194685 74.000000
3.333561 -0.052469 -0.194685 74.000000
3.333384 -0.062696 -0.194685 74.000000
3.330184 -0.072858 -0.194477 74.000000
3.331939 -0.083124 -0.194616 74.000000
3.329674 -0.093290 -0.194477 74.000000
3.331367 -0.103566 -0.194616 74.000000
3.331033 -0.113786 -0.194616 74.000000
3.330668 -0.124005 -0.194616 74.000000
3.329276 -0.134183 -0.194547 74.000000
3.330842 -0.144483 -0.194685 74.000000
3.336362 -0.154978 -0.195102 74.000000
4.257881 1.995791 -0.320325 75.000000
4.276641 1.988607 -0.321386 75.000000
4.267331 1.968374 -0.320097 75.000000
4.270630 1.954027 -0.319869 75.000000
4.290223 1.947101 -0.321007 75.000000
4.285266 1.929015 -0.320097 75.000000
4.277509 1.909758 -0.318959 75.000000
4.276054 1.893394 -0.318352 75.000000
4.280931 1.879865 -0.318277 75.000000
4.276622 1.862341 -0.317442 75.000000
4.297876 1.855936 -0.318732 75.000000
4.289802 1.836851 -0.317594 75.000000
4.300006 1.825631 -0.317973 75.000000
4.297317 1.808946 -0.317291 75.000000
4.297325 1.793448 -0.316836 75.000000
4.306492 1.781781 -0.317139 75.000000
4.317473 1.770832 -0.317594 75.000000
4.311802 1.753069 -0.316684 75.000000
4.302365 1.733865 -0.315470 75.000000
4.326181 1.728060 -0.316987 75.000000
4.302725 1.703394 -0.314636 75.000000
4.297721 1.686177 -0.313802 75.000000
4.293581 1.669368 -0.313043 75.000000
4.333107 1.669460 -0.315849 75.000000
4.299087 1.641212 -0.312664 75.000000
4.304101 1.628015 -0.312664 75.000000
4.300673 1.611651 -0.311981 75.000000
4.335508 1.609562 -0.314408 75.000000
4.315160 1.586954 -0.312360 75.000000
4.310640 1.570293 -0.311602 75.000000
4.335133 1.564172 -0.313195 75.000000
4.350239 1.554559 -0.314029 75.000000
4.386004 1.552190 -0.316532 75.000000
4.399214 1.541697 -0.317215 75.000000
4.434065 1.538661 -0.319642 75.000000
4.457623 1.531535 -0.321159 75.000000
4.489675 1.527171 -0.323359 75.000000
4.538750 1.528356 -0.326923 75.000000
4.569902 1.523259 -0.329047 75.000000
4.616215 1.522987 -0.332385 75.000000
4.760191 1.554348 -0.343534 75.000000
4.930967 1.593430 -0.356808 75.000000
4.932984 1.577382 -0.356580 75.000000
4.933997 1.561037 -0.356277 75.000000
4.941618 1.546786 -0.356504 75.000000
4.188095 0.255497 -0.281793 75.000000
4.130128 0.239228 -0.277318 75.000000
3.408032 0.186710 -0.222252 75.000000
4.129168 0.201059 -0.277091 75.000000
4.157655 0.189670 -0.279214 75.000000
4.156225 0.176828 -0.279063 75.000000
4.151766 0.163879 -0.278684 75.000000
4.153246 0.151177 -0.278759 75.000000
3.989258 0.132908 -0.266244 75.000000
3.445050 0.082884 -0.224755 75.000000
3.442298 0.072251 -0.224527 75.000000
3.317884 0.059414 -0.215046 75.000000
3.325030 0.049341 -0.215577 75.000000
3.326163 0.039152 -0.215653 75.000000
3.330256 0.028983 -0.215956 75.000000
3.332323 0.018778 -0.216108 75.000000
3.335356 0.008563 -0.216336 75.000000
3.335367 -0.001670 -0.216336 75.000000
3.334349 -0.011899 -0.216260 75.000000
3.331305 -0.022110 -0.216032 75.000000
3.330225 -0.032321 -0.215956 75.000000
3.326122 -0.042488 -0.215653 75.000000
3.324979 -0.052677 -0.215577 75.000000
3.324801 -0.062878 -0.215577 75.000000
3.326587 -0.073121 -0.215729 75.000000
3.328340 -0.083375 -0.215881 75.000000
3.331059 -0.093669 -0.216108 75.000000
3.333746 -0.103981 -0.216336 75.000000
3.333411 -0.114208 -0.216336 75.000000
3.334042 -0.124471 -0.216412 75.000000
3.333644 -0.134699 -0.216412 75.000000
3.338196 -0.145141 -0.216791 75.000000
0.700715 -0.728894 -0.039532 75.000000
4.234853 1.988233 -0.345517 76.000000
4.246355 1.977754 -0.346006 76.000000
4.246973 1.962211 -0.345517 76.000000
4.243005 1.944607 -0.344619 76.000000
4.227173 1.921686 -0.342661 76.000000
4.241227 1.912394 -0.343395 76.000000
4.250714 1.900999 -0.343722 76.000000
4.244681 1.882699 -0.342661 76.000000
4.253174 1.870871 -0.342906 76.000000
4.248844 1.853433 -0.342008 76.000000
4.256340 1.841180 -0.342171 76.000000
4.261053 1.827720 -0.342090 76.000000
4.265723 1.814249 -0.342008 76.000000
4.264840 1.798444 -0.341437 76.000000
4.270337 1.785351 -0.341437 76.000000
4.273032 1.771098 -0.341192 76.000000
4.275680 1.756844 -0.340948 76.000000
4.281972 1.744094 -0.341029 76.000000
4.280833 1.728338 -0.340458 76.000000
4.282414 1.713717 -0.340132 76.000000
4.282092 1.698367 -0.339642 76.000000
4.281716 1.683036 -0.339153 76.000000
4.285002 1.669168 -0.338989 76.000000
4.287313 1.654938 -0.338745 76.000000
4.292370 1.641777 -0.338745 76.000000
4.296455 1.628248 -0.338663 76.000000
4.305163 1.616459 -0.338989 76.000000
4.305430 1.601507 -0.338582 76.000000
4.311259 1.588635 -0.338663 76.000000
4.321731 1.577450 -0.339153 76.000000
4.327487 1.564522 -0.339234 76.000000
4.343528 1.555267 -0.340213 76.000000
4.344521 1.540603 -0.339887 76.000000
4.367095 1.533537 -0.341437 76.000000
4.376487 1.521767 -0.341845 76.000000
4.395272 1.513196 -0.343069 76.000000
4.411215 1.503560 -0.344048 76.000000
4.470584 1.508487 -0.348780 76.000000
4.575405 1.528210 -0.357429 76.000000
4.721080 1.560745 -0.369586 76.000000
4.777002 1.562978 -0.373992 76.000000
4.803585 1.555371 -0.375868 76.000000
4.837759 1.550048 -0.378398 76.000000
4.872897 1.544829 -0.381009 76.000000
4.907096 1.539112 -0.383538 76.000000
4.187016 0.258309 -0.305945 76.000000
3.454104 0.192030 -0.245731 76.000000
4.157631 0.192540 -0.303253 76.000000
4.175130 0.180511 -0.304640 76.000000
4.167697 0.167383 -0.303987 76.000000
4.155243 0.154120 -0.302926 76.000000
3.489256 0.086744 -0.248261 76.000000
3.479541 0.075825 -0.247445 76.000000
4.107767 0.064091 -0.298847 76.000000
4.287331 0.053686 -0.313533 76.000000
4.275516 0.040422 -0.312554 76.000000
4.276616 0.027311 -0.312636 76.000000
3.396628 0.011510 -0.240591 76.000000
3.330867 0.001090 -0.235206 76.000000
3.330855 -0.009129 -0.235206 76.000000
3.329815 -0.019341 -0.235125 76.000000
3.327746 -0.029539 -0.234961 76.000000
3.326644 -0.039736 -0.234880 76.000000
3.321523 -0.049865 -0.234472 76.000000
