# This PCD file was generated using the MATLAB® pcwrite function
# from Computer Vision Toolbox®.
# .PCD v.7 - Point Cloud Data file format
VERSION .7
FIELDS x y z intensity
SIZE 4 4 4 4
TYPE F F F F
COUNT 1 1 1 1
WIDTH 1285
HEIGHT 1
VIEWPOINT 0 0 0 1 0 0 0
POINTS 1285
DATA ascii
3.369614 0.248978 0.630983 34.000000
3.334019 0.236061 0.624539 34.000000
3.355404 0.298230 0.607490 35.000000
3.358268 0.288103 0.607826 35.000000
3.366013 0.278370 0.609001 35.000000
3.364886 0.267885 0.608665 35.000000
3.364709 0.257484 0.608497 35.000000
3.371382 0.247596 0.609505 35.000000
3.377042 0.237599 0.610345 35.000000
3.375788 0.227104 0.610009 35.000000
3.379420 0.216937 0.610513 35.000000
3.386957 0.206991 0.611689 35.000000
3.415132 0.198208 0.616392 35.000000
3.330805 0.310277 0.583787 36.000000
3.335672 0.300410 0.584436 36.000000
3.341493 0.290601 0.585248 36.000000
3.343352 0.280430 0.585410 36.000000
3.347148 0.270409 0.585897 36.000000
3.357800 0.260899 0.587520 36.000000
3.365472 0.251108 0.588656 36.000000
3.377054 0.241553 0.590441 36.000000
3.381717 0.231459 0.591090 36.000000
3.388319 0.221467 0.592064 36.000000
3.397846 0.211620 0.593525 36.000000
3.407345 0.201716 0.594985 36.000000
3.415829 0.191701 0.596284 36.000000
3.414431 0.181117 0.595959 36.000000
3.474102 0.173575 0.605697 36.000000
3.336270 0.308691 0.563751 37.000000
3.338186 0.298542 0.563907 37.000000
3.342038 0.288554 0.564376 37.000000
3.345860 0.278545 0.564845 37.000000
3.350637 0.268594 0.565470 37.000000
3.356370 0.258692 0.566251 37.000000
3.366998 0.249121 0.567814 37.000000
3.377599 0.239488 0.569377 37.000000
3.382260 0.229391 0.570002 37.000000
3.392804 0.219650 0.571564 37.000000
3.399377 0.209604 0.572502 37.000000
3.406906 0.199578 0.573596 37.000000
3.411447 0.189343 0.574221 37.000000
3.417930 0.179186 0.575158 37.000000
3.425370 0.169039 0.576252 37.000000
3.429819 0.158711 0.576877 37.000000
3.434237 0.148358 0.577502 37.000000
3.441584 0.138098 0.578596 37.000000
3.513059 0.130164 0.589847 37.000000
3.354233 0.320395 0.545774 38.000000
3.325666 0.307369 0.541268 38.000000
3.329548 0.297429 0.541718 38.000000
3.333400 0.287468 0.542169 38.000000
3.339192 0.277650 0.542920 38.000000
3.343970 0.267720 0.543521 38.000000
3.350690 0.257916 0.544422 38.000000
3.360339 0.248292 0.545774 38.000000
3.369961 0.238611 0.547126 38.000000
3.376595 0.228672 0.548028 38.000000
3.385174 0.218823 0.549230 38.000000
3.395697 0.209045 0.550732 38.000000
3.400270 0.198857 0.551333 38.000000
3.403825 0.188589 0.551783 38.000000
3.412286 0.178559 0.552985 38.000000
3.414793 0.168187 0.553286 38.000000
3.419243 0.157893 0.553887 38.000000
3.421687 0.147488 0.554187 38.000000
3.432002 0.137386 0.555689 38.000000
3.439323 0.127112 0.556741 38.000000
3.447602 0.116829 0.557943 38.000000
3.443991 0.106129 0.557342 38.000000
3.472960 0.096361 0.561698 38.000000
3.320842 0.315695 0.520523 39.000000
3.319825 0.305324 0.520234 39.000000
3.323703 0.295401 0.520667 39.000000
3.330508 0.285712 0.521534 39.000000
3.335314 0.275820 0.522111 39.000000
3.341076 0.265981 0.522833 39.000000
3.346810 0.256109 0.523555 39.000000
3.356461 0.246495 0.524854 39.000000
3.366085 0.236824 0.526153 39.000000
3.372720 0.226897 0.527019 39.000000
3.380312 0.216994 0.528030 39.000000
3.385900 0.206926 0.528751 39.000000
3.390471 0.196768 0.529329 39.000000
3.395998 0.186639 0.530051 39.000000
3.400507 0.176425 0.530628 39.000000
3.409928 0.166429 0.531927 39.000000
3.419319 0.156377 0.533226 39.000000
3.424725 0.146098 0.533948 39.000000
3.432079 0.135867 0.534959 39.000000
3.441379 0.125665 0.536258 39.000000
3.457572 0.115641 0.538568 39.000000
3.458899 0.105063 0.538712 39.000000
3.473053 0.094833 0.540733 39.000000
3.481242 0.084372 0.541888 39.000000
3.487420 0.073819 0.542754 39.000000
3.491588 0.063192 0.543331 39.000000
3.496712 0.052556 0.544053 39.000000
3.307554 0.317778 0.498597 40.000000
3.314430 0.308177 0.499428 40.000000
3.317333 0.298184 0.499705 40.000000
3.321192 0.288261 0.500121 40.000000
3.325022 0.278317 0.500536 40.000000
3.331783 0.268590 0.501367 40.000000
3.335554 0.258596 0.501782 40.000000
3.347196 0.249166 0.503306 40.000000
3.352884 0.239247 0.503998 40.000000
3.361507 0.229496 0.505106 40.000000
3.365160 0.219374 0.505521 40.000000
3.375702 0.209660 0.506906 40.000000
3.384238 0.199766 0.508014 40.000000
3.391757 0.189767 0.508983 40.000000
3.397269 0.179621 0.509676 40.000000
3.412641 0.169931 0.511753 40.000000
3.422050 0.159873 0.512999 40.000000
3.437366 0.150016 0.515077 40.000000
3.443748 0.139709 0.515908 40.000000
3.459005 0.129695 0.517985 40.000000
3.469285 0.119419 0.519370 40.000000
3.476564 0.108990 0.520339 40.000000
3.476882 0.098324 0.520339 40.000000
3.490038 0.087976 0.522139 40.000000
3.490291 0.077269 0.522139 40.000000
3.498434 0.066709 0.523247 40.000000
3.503573 0.056053 0.523939 40.000000
3.517592 0.045479 0.525878 40.000000
3.517715 0.034686 0.525878 40.000000
3.519786 0.023907 0.526155 40.000000
3.505978 0.013061 0.524216 40.000000
3.307412 0.327664 0.478123 41.000000
3.309388 0.317610 0.478255 41.000000
3.316269 0.308005 0.479050 41.000000
3.318185 0.297918 0.479182 41.000000
3.323034 0.288078 0.479712 41.000000
3.326865 0.278130 0.480109 41.000000
3.334619 0.268478 0.481036 41.000000
3.339380 0.258551 0.481566 41.000000
3.348065 0.248892 0.482625 41.000000
3.352768 0.238901 0.483155 41.000000
3.361396 0.229152 0.484214 41.000000
3.366040 0.219095 0.484744 41.000000
3.376589 0.209380 0.486068 41.000000
3.383152 0.199369 0.486863 41.000000
3.393645 0.189540 0.488187 41.000000
3.406088 0.179753 0.489776 41.000000
3.418503 0.169891 0.491365 41.000000
3.433860 0.160094 0.493352 41.000000
3.444238 0.149988 0.494676 41.000000
3.456566 0.139900 0.496265 41.000000
3.467875 0.129701 0.497722 41.000000
3.476181 0.119333 0.498782 41.000000
3.480494 0.108791 0.499311 41.000000
3.485765 0.098251 0.499973 41.000000
3.490014 0.087656 0.500503 41.000000
3.496212 0.077079 0.501298 41.000000
3.499405 0.066408 0.501695 41.000000
3.508512 0.055813 0.502887 41.000000
3.519569 0.045187 0.504344 41.000000
3.526629 0.034456 0.505271 41.000000
3.538612 0.023715 0.506860 41.000000
3.544616 0.012879 0.507654 41.000000
3.553559 0.002009 0.508846 41.000000
3.557513 -0.008904 0.509376 41.000000
3.561434 -0.019841 0.509906 41.000000
3.324942 0.337610 0.460511 42.000000
3.297334 0.324586 0.456841 42.000000
3.304239 0.315034 0.457600 42.000000
3.313092 0.305625 0.458613 42.000000
3.315990 0.295636 0.458866 42.000000
3.323800 0.286057 0.459751 42.000000
3.325650 0.275941 0.459878 42.000000
3.334392 0.266369 0.460890 42.000000
3.338160 0.256367 0.461270 42.000000
3.344867 0.246562 0.462029 42.000000
3.349565 0.236579 0.462535 42.000000
3.355224 0.226637 0.463168 42.000000
3.361843 0.216725 0.463927 42.000000
3.374373 0.207141 0.465446 42.000000
3.382915 0.197251 0.466458 42.000000
3.395389 0.187529 0.467977 42.000000
3.405855 0.177629 0.469242 42.000000
3.417282 0.167715 0.470634 42.000000
3.424717 0.157550 0.471520 42.000000
3.438068 0.147597 0.473165 42.000000
3.444451 0.137286 0.473925 42.000000
3.451795 0.126974 0.474810 42.000000
3.459108 0.116618 0.475696 42.000000
3.464407 0.106158 0.476329 42.000000
3.468683 0.095639 0.476835 42.000000
3.474910 0.085143 0.477594 42.000000
3.481105 0.074610 0.478354 42.000000
3.488261 0.064058 0.479239 42.000000
3.496375 0.053478 0.480252 42.000000
3.510409 0.042922 0.482023 42.000000
3.521435 0.032253 0.483415 42.000000
3.526478 0.021480 0.484048 42.000000
3.542398 0.010711 0.486073 42.000000
3.553326 -0.000156 0.487465 42.000000
3.560252 -0.011079 0.488351 42.000000
3.565161 -0.022031 0.488983 42.000000
3.572021 -0.033033 0.489869 42.000000
3.577854 -0.044064 0.490628 42.000000
3.582661 -0.055116 0.491261 42.000000
3.609253 -0.066599 0.494678 42.000000
3.752570 0.415725 0.491162 43.000000
3.366038 0.351889 0.443828 43.000000
3.286114 0.333317 0.433976 43.000000
3.293049 0.323818 0.434697 43.000000
3.299957 0.314281 0.435418 43.000000
3.306836 0.304704 0.436139 43.000000
3.311711 0.294911 0.436619 43.000000
3.317545 0.285176 0.437220 43.000000
3.321373 0.275244 0.437580 43.000000
3.331108 0.265766 0.438662 43.000000
3.336857 0.255926 0.439262 43.000000
3.342576 0.246054 0.439863 43.000000
3.350247 0.236289 0.440704 43.000000
3.357890 0.226480 0.441545 43.000000
3.364513 0.216562 0.442266 43.000000
3.375070 0.206849 0.443467 43.000000
3.385600 0.197074 0.444669 43.000000
3.395110 0.187181 0.445750 43.000000
3.402608 0.177128 0.446591 43.000000
3.409084 0.166981 0.447312 43.000000
3.421481 0.157072 0.448753 43.000000
3.426906 0.146788 0.449354 43.000000
3.434284 0.136553 0.450195 43.000000
3.442623 0.126310 0.451156 43.000000
3.451924 0.116050 0.452237 43.000000
3.458218 0.105643 0.452958 43.000000
3.465472 0.095226 0.453799 43.000000
3.471703 0.084741 0.454520 43.000000
3.480879 0.074284 0.455601 43.000000
3.486053 0.063696 0.456202 43.000000
3.493181 0.053109 0.457043 43.000000
3.503254 0.042516 0.458244 43.000000
3.514288 0.031870 0.459566 43.000000
3.526282 0.021164 0.461007 43.000000
3.538244 0.010384 0.462449 43.000000
3.551165 -0.000469 0.464011 43.000000
3.559088 -0.011386 0.464972 43.000000
3.567971 -0.022358 0.466053 43.000000
3.576821 -0.033385 0.467134 43.000000
3.583650 -0.044442 0.467975 43.000000
3.589453 -0.055527 0.468696 43.000000
3.594229 -0.066629 0.469297 43.000000
3.601947 -0.077825 0.470258 43.000000
3.606654 -0.088996 0.470858 43.000000
3.623235 -0.100523 0.472901 43.000000
3.417423 0.359467 0.430737 44.000000
3.274216 0.334299 0.414007 44.000000
3.285113 0.325228 0.415153 44.000000
3.290051 0.315526 0.415611 44.000000
3.294960 0.305796 0.416069 44.000000
3.300830 0.296128 0.416642 44.000000
3.304692 0.286256 0.416986 44.000000
3.311495 0.276610 0.417674 44.000000
3.321240 0.267163 0.418705 44.000000
3.329968 0.257583 0.419622 44.000000
3.334706 0.247658 0.420080 44.000000
3.344368 0.238058 0.421111 44.000000
3.354003 0.228401 0.422143 44.000000
3.363610 0.218687 0.423174 44.000000
3.367239 0.208550 0.423518 44.000000
3.379764 0.198914 0.424893 44.000000
3.389286 0.189039 0.425924 44.000000
3.396794 0.179004 0.426726 44.000000
3.402288 0.168826 0.427299 44.000000
3.411721 0.158800 0.428331 44.000000
3.421125 0.148718 0.429362 44.000000
3.431491 0.138619 0.430508 44.000000
3.439842 0.128384 0.431424 44.000000
3.449155 0.118133 0.432456 44.000000
3.458438 0.107826 0.433487 44.000000
3.467690 0.097464 0.434518 44.000000
3.473931 0.086972 0.435206 44.000000
3.480141 0.076442 0.435894 44.000000
3.483339 0.065820 0.436237 44.000000
3.495444 0.055318 0.437612 44.000000
3.501557 0.044668 0.438300 44.000000
3.512605 0.034027 0.439560 44.000000
3.520640 0.023301 0.440477 44.000000
3.534602 0.012544 0.442081 44.000000
3.545552 0.001702 0.443342 44.000000
3.555474 -0.009205 0.444488 44.000000
3.565363 -0.020172 0.445634 44.000000
3.573231 -0.031182 0.446550 44.000000
3.583052 -0.042265 0.447696 44.000000
3.591846 -0.053393 0.448728 44.000000
3.599611 -0.064558 0.449644 44.000000
3.608335 -0.075792 0.450676 44.000000
3.615037 -0.087031 0.451478 44.000000
3.622697 -0.098340 0.452395 44.000000
3.629329 -0.109666 0.453197 44.000000
3.633940 -0.120967 0.453770 44.000000
3.638515 -0.132297 0.454343 44.000000
3.654967 -0.144130 0.456291 44.000000
4.302732 1.894266 0.546837 45.000000
4.302146 1.878272 0.546079 45.000000
4.302414 1.862695 0.545429 45.000000
4.304455 1.847919 0.544996 45.000000
4.308274 1.833926 0.544779 45.000000
4.312048 1.819926 0.544562 45.000000
4.318529 1.807072 0.544671 45.000000
4.324971 1.794196 0.544779 45.000000
4.331375 1.781296 0.544887 45.000000
4.337739 1.768375 0.544996 45.000000
4.346831 1.756548 0.545429 45.000000
4.349432 1.742095 0.545104 45.000000
4.344592 1.724709 0.543912 45.000000
4.352638 1.712464 0.544237 45.000000
4.346756 1.694769 0.542937 45.000000
4.335243 1.674978 0.540987 45.000000
4.347789 1.664513 0.541854 45.000000
4.353805 1.651518 0.541962 45.000000
4.356059 1.637105 0.541637 45.000000
4.354540 1.621305 0.540878 45.000000
4.355762 1.606562 0.540445 45.000000
4.350399 1.589440 0.539253 45.000000
4.355255 1.576085 0.539253 45.000000
4.356327 1.561375 0.538820 45.000000
4.384596 1.526115 0.540445 45.000000
4.387378 1.512008 0.540228 45.000000
4.380705 1.494689 0.538928 45.000000
4.400165 1.471249 0.540120 45.000000
4.404658 1.457742 0.540120 45.000000
4.418557 1.447316 0.541203 45.000000
3.475046 0.376580 0.415413 45.000000
3.281418 0.345437 0.394069 45.000000
3.284441 0.335570 0.394286 45.000000
3.282487 0.325198 0.393961 45.000000
3.286438 0.315410 0.394286 45.000000
3.289370 0.305510 0.394502 45.000000
3.297222 0.296038 0.395261 45.000000
3.300096 0.286093 0.395478 45.000000
3.307893 0.276546 0.396236 45.000000
3.316653 0.267033 0.397103 45.000000
3.326377 0.257546 0.398078 45.000000
3.333100 0.247781 0.398728 45.000000
3.343760 0.238260 0.399811 45.000000
3.352410 0.228540 0.400678 45.000000
3.360040 0.218705 0.401437 45.000000
3.368633 0.208887 0.402303 45.000000
3.377197 0.199018 0.403170 45.000000
3.385732 0.189099 0.404037 45.000000
3.394238 0.179129 0.404904 45.000000
3.401722 0.169059 0.405662 45.000000
3.410169 0.158992 0.406529 45.000000
3.422559 0.149046 0.407829 45.000000
3.430946 0.138866 0.408696 45.000000
3.440297 0.128673 0.409671 45.000000
3.448624 0.118390 0.410538 45.000000
3.460894 0.108180 0.411838 45.000000
3.468166 0.097757 0.412596 45.000000
3.477394 0.087340 0.413571 45.000000
3.485596 0.076846 0.414438 45.000000
3.492773 0.066283 0.415197 45.000000
3.499918 0.055677 0.415955 45.000000
3.507031 0.045028 0.416713 45.000000
3.510135 0.034297 0.417039 45.000000
3.524141 0.023619 0.418555 45.000000
3.534137 0.012842 0.419639 45.000000
3.543107 0.002004 0.420614 45.000000
3.554032 -0.008895 0.421806 45.000000
3.563929 -0.019855 0.422889 45.000000
3.574786 -0.030884 0.424081 45.000000
3.584615 -0.041969 0.425164 45.000000
3.595403 -0.053129 0.426356 45.000000
3.604169 -0.064320 0.427331 45.000000
3.613894 -0.075586 0.428415 45.000000
3.624577 -0.086936 0.429607 45.000000
3.632243 -0.098272 0.430473 45.000000
3.639874 -0.109655 0.431340 45.000000
3.646475 -0.121053 0.432099 45.000000
3.649067 -0.132348 0.432424 45.000000
3.658577 -0.143935 0.433507 45.000000
3.587600 -0.152160 0.425815 45.000000
4.307099 1.909117 0.518922 46.000000
4.308383 1.893893 0.518411 46.000000
4.311437 1.879473 0.518104 46.000000
4.310791 1.863473 0.517388 46.000000
4.311917 1.848279 0.516877 46.000000
4.311159 1.832317 0.516161 46.000000
4.310343 1.816378 0.515445 46.000000
4.314060 1.802378 0.515240 46.000000
4.317731 1.788373 0.515036 46.000000
4.323197 1.775118 0.515036 46.000000
4.331387 1.762971 0.515343 46.000000
4.336775 1.749675 0.515343 46.000000
4.342123 1.736361 0.515343 46.000000
4.341881 1.720832 0.514729 46.000000
4.338808 1.704230 0.513809 46.000000
4.340308 1.689467 0.513400 46.000000
4.343614 1.675427 0.513195 46.000000
4.345017 1.660672 0.512786 46.000000
4.348231 1.646629 0.512581 46.000000
4.350469 1.632233 0.512275 46.000000
4.352658 1.617838 0.511968 46.000000
4.357601 1.604476 0.511968 46.000000
4.359700 1.590077 0.511661 46.000000
4.356138 1.573652 0.510741 46.000000
4.389042 1.570336 0.513809 46.000000
4.373212 1.549552 0.511559 46.000000
4.385455 1.538763 0.512377 46.000000
4.386396 1.523995 0.511968 46.000000
4.391051 1.510531 0.511968 46.000000
4.393782 1.496411 0.511763 46.000000
4.394581 1.481652 0.511354 46.000000
4.390615 1.465328 0.510434 46.000000
4.394145 1.451539 0.510331 46.000000
4.390068 1.435268 0.509411 46.000000
4.394451 1.421793 0.509411 46.000000
4.399739 1.408607 0.509513 46.000000
4.404040 1.395103 0.509513 46.000000
4.409249 1.381882 0.509616 46.000000
4.413467 1.368348 0.509616 46.000000
4.416694 1.354510 0.509513 46.000000
4.424636 1.342108 0.509922 46.000000
3.291579 0.354637 0.374924 46.000000
3.273854 0.342567 0.372981 46.000000
3.275879 0.332622 0.373083 46.000000
3.278864 0.322766 0.373287 46.000000
3.281819 0.312894 0.373492 46.000000
3.286726 0.303190 0.373901 46.000000
3.293585 0.293636 0.374515 46.000000
3.297444 0.283786 0.374821 46.000000
3.304247 0.274162 0.375435 46.000000
3.312014 0.264579 0.376151 46.000000
3.317769 0.254798 0.376662 46.000000
3.328456 0.245351 0.377685 46.000000
3.336139 0.235629 0.378401 46.000000
3.344786 0.225930 0.379219 46.000000
3.353405 0.216181 0.380037 46.000000
3.361995 0.206380 0.380855 46.000000
3.370557 0.196529 0.381674 46.000000
3.380083 0.186682 0.382594 46.000000
3.388587 0.176726 0.383412 46.000000
3.398056 0.166769 0.384333 46.000000
3.404513 0.156618 0.384946 46.000000
3.416904 0.146686 0.386174 46.000000
3.426283 0.136560 0.387094 46.000000
3.434639 0.126341 0.387912 46.000000
3.443958 0.116106 0.388833 46.000000
3.456229 0.105906 0.390060 46.000000
3.466482 0.095578 0.391083 46.000000
3.473720 0.085113 0.391799 46.000000
3.481921 0.074627 0.392617 46.000000
3.488101 0.064055 0.393230 46.000000
3.497233 0.053491 0.394151 46.000000
3.501359 0.042811 0.394560 46.000000
3.512416 0.032170 0.395685 46.000000
3.515482 0.021412 0.395992 46.000000
3.527468 0.010664 0.397219 46.000000
3.536438 -0.000157 0.398139 46.000000
3.545373 -0.011034 0.399060 46.000000
3.553281 -0.021959 0.399878 46.000000
3.566128 -0.032979 0.401208 46.000000
3.571978 -0.043992 0.401821 46.000000
3.584756 -0.055148 0.403151 46.000000
3.594516 -0.066328 0.404173 46.000000
3.607225 -0.077633 0.405503 46.000000
3.618903 -0.088991 0.406730 46.000000
3.629551 -0.100395 0.407855 46.000000
3.636186 -0.111743 0.408571 46.000000
3.644774 -0.123199 0.409492 46.000000
3.648355 -0.134527 0.409901 46.000000
3.651901 -0.145878 0.410310 46.000000
4.309608 1.893361 0.488738 47.000000
4.307185 1.876551 0.487874 47.000000
4.306526 1.860563 0.487202 47.000000
4.303065 1.843420 0.486242 47.000000
4.298624 1.825926 0.485186 47.000000
4.298702 1.810410 0.484610 47.000000
4.301481 1.796062 0.484322 47.000000
4.306971 1.782857 0.484322 47.000000
4.312420 1.769635 0.484322 47.000000
4.320595 1.757522 0.484610 47.000000
4.327813 1.745003 0.484802 47.000000
4.331298 1.730978 0.484610 47.000000
4.333812 1.716582 0.484322 47.000000
4.332573 1.700730 0.483649 47.000000
4.330349 1.684541 0.482881 47.000000
4.332711 1.670173 0.482593 47.000000
4.335025 1.655806 0.482305 47.000000
4.341947 1.643204 0.482497 47.000000
4.345104 1.629176 0.482305 47.000000
4.346350 1.614450 0.481921 47.000000
4.352216 1.601452 0.482017 47.000000
4.348693 1.585023 0.481153 47.000000
4.353535 1.571674 0.481153 47.000000
4.355525 1.557304 0.480865 47.000000
4.364974 1.545596 0.481345 47.000000
4.377208 1.534834 0.482113 47.000000
4.378136 1.520091 0.481729 47.000000
4.382779 1.506652 0.481729 47.000000
4.378901 1.490310 0.480865 47.000000
4.392884 1.480049 0.481825 47.000000
4.393627 1.465304 0.481441 47.000000
4.386761 1.448071 0.480289 47.000000
4.390236 1.434297 0.480193 47.000000
4.392722 1.420208 0.480001 47.000000
4.394215 1.405814 0.479713 47.000000
4.395660 1.391424 0.479425 47.000000
4.390410 1.374955 0.478464 47.000000
4.398411 1.362658 0.478848 47.000000
4.590991 1.406951 0.497860 47.000000
4.557186 1.381300 0.494020 47.000000
4.621466 1.385333 0.500069 47.000000
3.465719 0.383247 0.371019 47.000000
3.251136 0.349352 0.350086 47.000000
3.256152 0.339791 0.350470 47.000000
3.263121 0.330404 0.351047 47.000000
3.266100 0.320586 0.351239 47.000000
3.274005 0.311226 0.351911 47.000000
3.283865 0.302004 0.352775 47.000000
3.290725 0.292458 0.353351 47.000000
3.299540 0.283044 0.354119 47.000000
3.304361 0.273250 0.354503 47.000000
3.314113 0.263825 0.355367 47.000000
3.319869 0.254038 0.355847 47.000000
3.329567 0.244510 0.356712 47.000000
3.333280 0.234505 0.357000 47.000000
3.341929 0.224815 0.357768 47.000000
3.349556 0.215009 0.358440 47.000000
3.360135 0.205343 0.359400 47.000000
3.365718 0.195323 0.359880 47.000000
3.374252 0.185436 0.360648 47.000000
3.380769 0.175395 0.361225 47.000000
3.388251 0.165364 0.361897 47.000000
3.395702 0.155289 0.362569 47.000000
3.406107 0.145298 0.363529 47.000000
3.418472 0.135324 0.364681 47.000000
3.425834 0.125092 0.365353 47.000000
3.438139 0.114984 0.366506 47.000000
3.448425 0.104741 0.367466 47.000000
3.457685 0.094409 0.368330 47.000000
3.466914 0.084020 0.369194 47.000000
3.477107 0.073597 0.370154 47.000000
3.463384 0.062673 0.368810 47.000000
3.490432 0.052460 0.371403 47.000000
3.496548 0.041824 0.371979 47.000000
3.505618 0.031180 0.372843 47.000000
3.513660 0.020473 0.373611 47.000000
3.523660 0.009724 0.374571 47.000000
3.530641 -0.001086 0.375243 47.000000
3.538584 -0.011942 0.376012 47.000000
3.546494 -0.022847 0.376780 47.000000
3.556360 -0.033819 0.377740 47.000000
3.564202 -0.044827 0.378508 47.000000
3.574996 -0.055929 0.379564 47.000000
3.585755 -0.067098 0.380621 47.000000
3.598469 -0.078376 0.381869 47.000000
3.605177 -0.089587 0.382541 47.000000
3.615830 -0.100949 0.383597 47.000000
3.622468 -0.112255 0.384269 47.000000
3.628076 -0.123570 0.384845 47.000000
3.633647 -0.134920 0.385421 47.000000
3.652114 -0.146821 0.387246 47.000000
4.281809 1.900939 0.459453 48.000000
4.287621 1.887793 0.459453 48.000000
4.293392 1.874630 0.459453 48.000000
4.290897 1.857890 0.458641 48.000000
4.292916 1.843146 0.458280 48.000000
4.296718 1.829187 0.458099 48.000000
4.297721 1.814061 0.457648 48.000000
4.299591 1.799330 0.457287 48.000000
4.306011 1.786512 0.457377 48.000000
4.309629 1.772536 0.457196 48.000000
4.310436 1.757427 0.456745 48.000000
4.313037 1.743076 0.456474 48.000000
4.322062 1.731316 0.456835 48.000000
4.322725 1.716212 0.456384 48.000000
4.330750 1.704035 0.456655 48.000000
4.334102 1.690017 0.456474 48.000000
4.333692 1.674560 0.455932 48.000000
4.336949 1.660545 0.455752 48.000000
4.339230 1.646172 0.455481 48.000000
4.340530 1.631451 0.455120 48.000000
4.340848 1.616391 0.454668 48.000000
4.345787 1.603065 0.454668 48.000000
4.354426 1.591091 0.455029 48.000000
4.356477 1.576709 0.454759 48.000000
4.359419 1.562664 0.454578 48.000000
4.361377 1.548283 0.454307 48.000000
4.362348 1.533575 0.453946 48.000000
4.364210 1.519203 0.453675 48.000000
4.364142 1.504185 0.453224 48.000000
4.366851 1.490146 0.453043 48.000000
4.376121 1.478335 0.453495 48.000000
4.374968 1.463008 0.452953 48.000000
4.379436 1.449579 0.452953 48.000000
4.381023 1.435207 0.452682 48.000000
4.382563 1.420839 0.452411 48.000000
4.381211 1.405563 0.451869 48.000000
4.381706 1.390910 0.451508 48.000000
4.383101 1.376566 0.451237 48.000000
4.391109 1.364294 0.451599 48.000000
4.400986 1.352570 0.452140 48.000000
4.413692 1.341666 0.452953 48.000000
4.999618 1.502875 0.508027 48.000000
3.253406 0.363038 0.331520 48.000000
3.242622 0.351771 0.330436 48.000000
3.244677 0.341925 0.330526 48.000000
3.254627 0.332878 0.331339 48.000000
3.261580 0.323479 0.331881 48.000000
3.269497 0.314135 0.332513 48.000000
3.281353 0.305113 0.333506 48.000000
3.291202 0.295844 0.334318 48.000000
3.299039 0.286346 0.334950 48.000000
3.307842 0.276885 0.335673 48.000000
3.314632 0.267213 0.336214 48.000000
3.321394 0.257503 0.336756 48.000000
3.328128 0.247753 0.337298 48.000000
3.331852 0.237753 0.337569 48.000000
3.341509 0.228138 0.338381 48.000000
3.348156 0.218272 0.338923 48.000000
3.355768 0.208428 0.339555 48.000000
3.361363 0.198424 0.340006 48.000000
3.367922 0.188442 0.340548 48.000000
3.374452 0.178422 0.341090 48.000000
3.380951 0.168364 0.341631 48.000000
3.389411 0.158359 0.342354 48.000000
3.402815 0.148520 0.343527 48.000000
3.414201 0.138520 0.344521 48.000000
3.422572 0.128341 0.345243 48.000000
3.436884 0.118315 0.346507 48.000000
3.443204 0.107955 0.347049 48.000000
3.454469 0.097697 0.348042 48.000000
3.460727 0.087247 0.348583 48.000000
3.473922 0.076912 0.349757 48.000000
3.478124 0.066328 0.350118 48.000000
3.486278 0.055782 0.350841 48.000000
3.496391 0.045211 0.351743 48.000000
3.504480 0.034560 0.352466 48.000000
3.514529 0.023873 0.353369 48.000000
3.523549 0.013121 0.354181 48.000000
3.531540 0.002313 0.354903 48.000000
3.537506 -0.008538 0.355445 48.000000
3.546426 -0.019443 0.356258 48.000000
3.554317 -0.030394 0.356980 48.000000
3.563169 -0.041405 0.357792 48.000000
3.569000 -0.052426 0.358334 48.000000
3.581767 -0.063609 0.359508 48.000000
3.592508 -0.074830 0.360501 48.000000
3.600226 -0.086044 0.361223 48.000000
3.610897 -0.097388 0.362216 48.000000
3.616554 -0.108647 0.362758 48.000000
3.622175 -0.119941 0.363300 48.000000
3.625771 -0.131199 0.363661 48.000000
3.639284 -0.142873 0.364925 48.000000
4.277897 1.896352 0.430250 49.000000
4.280958 1.882016 0.429998 49.000000
4.281231 1.866484 0.429493 49.000000
4.284194 1.852155 0.429240 49.000000
4.290771 1.839395 0.429324 49.000000
4.296394 1.826222 0.429324 49.000000
4.302896 1.813419 0.429408 49.000000
4.308439 1.800210 0.429408 49.000000
4.312100 1.786221 0.429240 49.000000
4.312029 1.770712 0.428735 49.000000
4.313749 1.755972 0.428398 49.000000
4.316344 1.741611 0.428145 49.000000
4.324443 1.729471 0.428398 49.000000
4.329728 1.716195 0.428398 49.000000
4.334973 1.702904 0.428398 49.000000
4.336463 1.688151 0.428061 49.000000
4.339762 1.674121 0.427893 49.000000
4.339293 1.658665 0.427388 49.000000
4.336906 1.642522 0.426714 49.000000
4.338193 1.627809 0.426377 49.000000
4.343167 1.614492 0.426377 49.000000
4.343424 1.599438 0.425956 49.000000
4.349247 1.586447 0.426040 49.000000
4.357842 1.574450 0.426377 49.000000
4.362652 1.561073 0.426377 49.000000
4.364603 1.546683 0.426125 49.000000
4.366507 1.532296 0.425872 49.000000
4.366481 1.517257 0.425451 49.000000
4.366404 1.502233 0.425030 49.000000
4.368163 1.487867 0.424777 49.000000
4.373651 1.474777 0.424862 49.000000
4.377210 1.461036 0.424777 49.000000
4.379779 1.446975 0.424609 49.000000
4.381356 1.432603 0.424356 49.000000
4.382886 1.418234 0.424104 49.000000
4.383421 1.403566 0.423767 49.000000
4.385807 1.389509 0.423599 49.000000
4.387197 1.375153 0.423346 49.000000
4.391395 1.361687 0.423346 49.000000
4.984301 1.528736 0.475381 49.000000
4.983246 1.511702 0.474876 49.000000
3.242528 0.359766 0.310519 49.000000
3.244607 0.349923 0.310603 49.000000
3.251611 0.340589 0.311108 49.000000
3.256606 0.331014 0.311445 49.000000
3.263556 0.321607 0.311950 49.000000
3.272464 0.312350 0.312624 49.000000
3.281344 0.303041 0.313297 49.000000
3.290199 0.293680 0.313971 49.000000
3.299026 0.284268 0.314644 49.000000
3.306834 0.274722 0.315234 49.000000
3.316601 0.265290 0.315992 49.000000
3.325348 0.255723 0.316665 49.000000
3.332079 0.245960 0.317170 49.000000
3.337788 0.236087 0.317591 49.000000
3.343467 0.226181 0.318012 49.000000
3.351106 0.216371 0.318602 49.000000
3.358716 0.206516 0.319191 49.000000
3.364308 0.196501 0.319612 49.000000
3.368875 0.186398 0.319949 49.000000
3.375401 0.176373 0.320454 49.000000
3.380903 0.166261 0.320875 49.000000
3.391351 0.156345 0.321717 49.000000
3.398783 0.146239 0.322307 49.000000
3.408177 0.136168 0.323064 49.000000
3.416545 0.126004 0.323738 49.000000
3.432849 0.116059 0.325085 49.000000
3.443149 0.105831 0.325927 49.000000
3.454414 0.095569 0.326853 49.000000
3.468637 0.085312 0.328032 49.000000
3.475857 0.074819 0.328622 49.000000
3.485036 0.064320 0.329379 49.000000
3.494184 0.053765 0.330137 49.000000
3.505293 0.043178 0.331063 49.000000
3.515373 0.032515 0.331905 49.000000
3.524424 0.021784 0.332663 49.000000
3.533442 0.010998 0.333421 49.000000
3.542427 0.000157 0.334179 49.000000
3.551379 -0.010739 0.334936 49.000000
3.557308 -0.021672 0.335442 49.000000
3.565196 -0.032659 0.336115 49.000000
3.573050 -0.043695 0.336789 49.000000
3.584855 -0.054841 0.337799 49.000000
3.590648 -0.065949 0.338304 49.000000
3.598398 -0.077137 0.338978 49.000000
3.607110 -0.088397 0.339736 49.000000
3.614790 -0.099683 0.340409 49.000000
3.618451 -0.110895 0.340746 49.000000
3.627057 -0.122299 0.341504 49.000000
3.654546 -0.134455 0.343862 49.000000
4.276759 1.912280 0.400360 50.000000
4.277137 1.896724 0.399893 50.000000
4.276548 1.880783 0.399349 50.000000
4.282299 1.867654 0.399349 50.000000
4.285263 1.853320 0.399115 50.000000
4.288180 1.838985 0.398882 50.000000
4.295637 1.826601 0.399038 50.000000
4.299383 1.812639 0.398882 50.000000
4.304004 1.799055 0.398804 50.000000
4.308582 1.785461 0.398727 50.000000
4.307585 1.769581 0.398182 50.000000
4.308377 1.754477 0.397794 50.000000
4.305419 1.737892 0.397094 50.000000
4.312582 1.725415 0.397249 50.000000
4.320635 1.713279 0.397482 50.000000
4.324944 1.699651 0.397405 50.000000
4.329208 1.686012 0.397327 50.000000
4.329710 1.670928 0.396938 50.000000
4.328298 1.655143 0.396394 50.000000
4.325897 1.639030 0.395772 50.000000
4.326239 1.623998 0.395383 50.000000
4.327463 1.609327 0.395072 50.000000
4.330509 1.595354 0.394916 50.000000
4.337256 1.582744 0.395072 50.000000
4.343967 1.570108 0.395227 50.000000
4.348763 1.556774 0.395227 50.000000
4.353519 1.543425 0.395227 50.000000
4.354471 1.528740 0.394916 50.000000
4.355374 1.514063 0.394605 50.000000
4.363769 1.501992 0.394916 50.000000
4.368357 1.488597 0.394916 50.000000
4.375737 1.476145 0.395150 50.000000
4.376463 1.461450 0.394838 50.000000
4.378086 1.447077 0.394605 50.000000
4.375872 1.431468 0.394061 50.000000
4.376450 1.416808 0.393750 50.000000
4.377927 1.402462 0.393517 50.000000
4.382209 1.389024 0.393517 50.000000
4.387402 1.375871 0.393594 50.000000
4.392554 1.362700 0.393672 50.000000
4.397667 1.349510 0.393750 50.000000
4.985619 1.513268 0.441341 50.000000
3.242086 0.370007 0.289469 50.000000
3.237261 0.359398 0.289003 50.000000
3.239340 0.349571 0.289081 50.000000
3.245355 0.340152 0.289469 50.000000
3.247375 0.330295 0.289547 50.000000
3.255318 0.321016 0.290092 50.000000
3.263235 0.311692 0.290636 50.000000
3.274103 0.302598 0.291414 50.000000
3.279981 0.292995 0.291802 50.000000
3.289804 0.283703 0.292502 50.000000
3.299600 0.274353 0.293202 50.000000
3.309371 0.264946 0.293902 50.000000
3.313150 0.255022 0.294135 50.000000
3.321871 0.245445 0.294757 50.000000
3.329569 0.235746 0.295302 50.000000
3.335250 0.225867 0.295691 50.000000
3.341897 0.216020 0.296157 50.000000
3.352495 0.206380 0.296935 50.000000
3.359084 0.196444 0.297401 50.000000
3.367634 0.186580 0.298023 50.000000
3.372173 0.176456 0.298334 50.000000
3.381660 0.166552 0.299034 50.000000
3.389127 0.156499 0.299579 50.000000
3.395567 0.146359 0.300045 50.000000
3.403970 0.136260 0.300667 50.000000
3.414335 0.126186 0.301445 50.000000
3.422677 0.115981 0.302067 50.000000
3.436968 0.105912 0.303156 50.000000
3.453222 0.095811 0.304400 50.000000
3.465459 0.085513 0.305333 50.000000
3.474676 0.075075 0.306033 50.000000
3.484858 0.064601 0.306811 50.000000
3.493015 0.054033 0.307433 50.000000
3.504130 0.043454 0.308288 50.000000
3.512222 0.032778 0.308910 50.000000
3.523273 0.022073 0.309766 50.000000
3.533293 0.011296 0.310543 50.000000
3.541287 0.000458 0.311165 50.000000
3.553236 -0.010440 0.312099 50.000000
3.558172 -0.021371 0.312487 50.000000
3.568058 -0.032376 0.313265 50.000000
3.576914 -0.043431 0.313965 50.000000
3.585736 -0.054540 0.314665 50.000000
3.591533 -0.065649 0.315131 50.000000
3.601282 -0.076879 0.315909 50.000000
3.606012 -0.088049 0.316298 50.000000
3.611705 -0.099275 0.316764 50.000000
3.614373 -0.110446 0.316998 50.000000
3.618999 -0.121701 0.317386 50.000000
3.625583 -0.133059 0.317931 50.000000
4.283383 1.912382 0.372118 51.000000
4.273727 1.892363 0.370900 51.000000
4.280426 1.879644 0.370972 51.000000
4.283429 1.865307 0.370757 51.000000
4.274482 1.845827 0.369610 51.000000
4.278291 1.831918 0.369467 51.000000
4.282973 1.818394 0.369395 51.000000
4.285774 1.804084 0.369180 51.000000
4.292210 1.791311 0.369251 51.000000
4.293999 1.776608 0.368965 51.000000
4.296661 1.762290 0.368750 51.000000
4.299276 1.747972 0.368535 51.000000
4.307393 1.735893 0.368750 51.000000
4.306215 1.720078 0.368248 51.000000
4.307763 1.705390 0.367961 51.000000
4.312047 1.691801 0.367890 51.000000
4.313498 1.677117 0.367603 51.000000
4.313970 1.662081 0.367245 51.000000
4.316254 1.647771 0.367030 51.000000
4.317557 1.633108 0.366743 51.000000
4.319746 1.618804 0.366528 51.000000
4.320952 1.604154 0.366241 51.000000
4.324917 1.590545 0.366170 51.000000
4.326965 1.576244 0.365955 51.000000
4.330842 1.562623 0.365883 51.000000
4.333738 1.548657 0.365740 51.000000
4.338469 1.535354 0.365740 51.000000
4.343158 1.522037 0.365740 51.000000
4.346865 1.508378 0.365668 51.000000
4.346756 1.493413 0.365310 51.000000
4.343764 1.477499 0.364736 51.000000
4.335989 1.460024 0.363804 51.000000
4.339501 1.446399 0.363733 51.000000
4.350549 1.435268 0.364235 51.000000
4.353983 1.421604 0.364163 51.000000
4.364967 1.410388 0.364665 51.000000
4.367374 1.396382 0.364521 51.000000
4.371637 1.382977 0.364521 51.000000
4.377763 1.370154 0.364665 51.000000
4.945010 1.531206 0.407022 51.000000
4.959220 1.518951 0.407739 51.000000
4.966721 1.504598 0.407954 51.000000
4.982779 1.492790 0.408814 51.000000
3.225920 0.366103 0.268338 51.000000
3.227028 0.356204 0.268338 51.000000
3.229097 0.346409 0.268410 51.000000
3.234113 0.336915 0.268696 51.000000
3.238108 0.327294 0.268911 51.000000
3.243068 0.317748 0.269198 51.000000
3.252964 0.308648 0.269843 51.000000
3.262834 0.299491 0.270488 51.000000
3.270692 0.290098 0.270990 51.000000
3.283492 0.281088 0.271850 51.000000
3.293285 0.271754 0.272495 51.000000
3.299074 0.262046 0.272853 51.000000
3.305830 0.252381 0.273283 51.000000
3.312557 0.242677 0.273713 51.000000
3.317266 0.232794 0.274000 51.000000
3.325926 0.223152 0.274573 51.000000
3.330576 0.213204 0.274860 51.000000
3.341170 0.203595 0.275577 51.000000
3.351737 0.193923 0.276294 51.000000
3.360283 0.184078 0.276867 51.000000
3.367805 0.174131 0.277369 51.000000
3.380278 0.164383 0.278229 51.000000
3.381763 0.154058 0.278300 51.000000
3.393181 0.144151 0.279089 51.000000
3.402577 0.134097 0.279734 51.000000
3.411943 0.123986 0.280379 51.000000
3.421279 0.113820 0.281024 51.000000
3.431582 0.103627 0.281741 51.000000
3.443848 0.093427 0.282601 51.000000
3.452096 0.083056 0.283174 51.000000
3.465298 0.072741 0.284106 51.000000
3.473483 0.062255 0.284679 51.000000
3.483631 0.051750 0.285396 51.000000
3.493747 0.041183 0.286113 51.000000
3.498844 0.030509 0.286471 51.000000
3.513882 0.019864 0.287546 51.000000
3.521906 0.009107 0.288119 51.000000
3.531891 -0.001700 0.288836 51.000000
3.542841 -0.012571 0.289624 51.000000
3.550765 -0.023490 0.290198 51.000000
3.560650 -0.034477 0.290915 51.000000
3.568506 -0.045500 0.291488 51.000000
3.577326 -0.056587 0.292133 51.000000
3.581125 -0.067636 0.292420 51.000000
3.590872 -0.078838 0.293136 51.000000
3.596596 -0.090002 0.293566 51.000000
3.601288 -0.101174 0.293925 51.000000
3.603952 -0.112314 0.294140 51.000000
3.638480 -0.124554 0.296648 51.000000
4.287190 1.918196 0.345450 52.000000
4.289407 1.903416 0.345186 52.000000
4.275131 1.881410 0.343736 52.000000
4.285456 1.870280 0.344065 52.000000
4.289342 1.856331 0.343933 52.000000
4.295017 1.843163 0.343933 52.000000
4.287796 1.824511 0.343011 52.000000
4.291535 1.810573 0.342879 52.000000
4.294308 1.796243 0.342681 52.000000
4.297033 1.781914 0.342483 52.000000
4.295095 1.765689 0.341956 52.000000
4.296796 1.750998 0.341692 52.000000
4.296596 1.735567 0.341296 52.000000
4.300974 1.722006 0.341231 52.000000
4.301599 1.706964 0.340901 52.000000
4.306816 1.693759 0.340901 52.000000
4.309202 1.679451 0.340703 52.000000
4.311542 1.665145 0.340505 52.000000
4.313834 1.650841 0.340308 52.000000
4.315146 1.636184 0.340044 52.000000
4.315475 1.621184 0.339714 52.000000
4.319493 1.607589 0.339648 52.000000
4.321595 1.593295 0.339451 52.000000
4.323651 1.579003 0.339253 52.000000
4.325660 1.564713 0.339055 52.000000
4.329501 1.551098 0.338989 52.000000
4.335179 1.538142 0.339055 52.000000
4.337995 1.524173 0.338923 52.000000
4.341708 1.510530 0.338857 52.000000
4.344435 1.496553 0.338725 52.000000
4.344283 1.481608 0.338396 52.000000
4.345026 1.466997 0.338132 52.000000
4.342882 1.451448 0.337671 52.000000
4.347314 1.438117 0.337671 52.000000
4.349809 1.424152 0.337539 52.000000
4.356056 1.411415 0.337671 52.000000
4.361316 1.398349 0.337736 52.000000
4.366537 1.385264 0.337802 52.000000
4.369814 1.371562 0.337736 52.000000
4.381626 1.360515 0.338264 52.000000
4.384825 1.346773 0.338198 52.000000
4.983786 1.513859 0.379270 52.000000
3.217897 0.368521 0.249132 52.000000
3.220996 0.358867 0.249264 52.000000
3.225058 0.349305 0.249462 52.000000
3.231076 0.339929 0.249792 52.000000
3.232104 0.330015 0.249792 52.000000
3.240052 0.320783 0.250253 52.000000
3.249961 0.311695 0.250847 52.000000
3.262825 0.302825 0.251638 52.000000
3.270696 0.293435 0.252099 52.000000
3.282516 0.284343 0.252824 52.000000
3.289340 0.274767 0.253220 52.000000
3.300113 0.265471 0.253879 52.000000
3.301907 0.255422 0.253945 52.000000
3.311631 0.245953 0.254538 52.000000
3.319338 0.236285 0.255000 52.000000
3.320047 0.226100 0.255000 52.000000
3.327695 0.216364 0.255461 52.000000
3.338303 0.206767 0.256121 52.000000
3.346890 0.196991 0.256648 52.000000
3.357442 0.187274 0.257307 52.000000
3.369958 0.177599 0.258098 52.000000
3.381450 0.167799 0.258824 52.000000
3.390919 0.157839 0.259417 52.000000
3.398366 0.147736 0.259878 52.000000
3.408774 0.137709 0.260538 52.000000
3.418154 0.127582 0.261131 52.000000
3.423516 0.117264 0.261461 52.000000
3.431838 0.107006 0.261988 52.000000
3.442125 0.096754 0.262647 52.000000
3.447393 0.086316 0.262977 52.000000
3.453627 0.075869 0.263372 52.000000
3.461825 0.065421 0.263900 52.000000
3.470989 0.054939 0.264493 52.000000
3.472139 0.044302 0.264559 52.000000
3.484232 0.033762 0.265350 52.000000
3.495295 0.023141 0.266075 52.000000
3.508321 0.012460 0.266932 52.000000
3.519319 0.001698 0.267658 52.000000
3.534275 -0.009143 0.268646 52.000000
3.537223 -0.020004 0.268844 52.000000
3.550117 -0.030973 0.269701 52.000000
3.557987 -0.041961 0.270229 52.000000
3.567818 -0.053028 0.270888 52.000000
3.574623 -0.064102 0.271349 52.000000
3.582390 -0.075238 0.271877 52.000000
3.590122 -0.086423 0.272404 52.000000
3.593830 -0.097547 0.272668 52.000000
3.597503 -0.108694 0.272932 52.000000
3.604134 -0.119965 0.273393 52.000000
4.283514 1.916374 0.315674 53.000000
4.282985 1.900390 0.315257 53.000000
4.283313 1.884829 0.314899 53.000000
4.286331 1.870482 0.314720 53.000000
4.287468 1.855341 0.314422 53.000000
4.289471 1.840604 0.314183 53.000000
4.293261 1.826654 0.314064 53.000000
4.297925 1.813086 0.314004 53.000000
4.301625 1.799121 0.313885 53.000000
4.305280 1.785151 0.313765 53.000000
4.311660 1.772314 0.313825 53.000000
4.308757 1.755688 0.313288 53.000000
4.305793 1.739097 0.312751 53.000000
4.307401 1.724395 0.312513 53.000000
4.308959 1.709700 0.312274 53.000000
4.311398 1.695376 0.312095 53.000000
4.311928 1.680329 0.311797 53.000000
4.316132 1.666733 0.311737 53.000000
4.317495 1.652057 0.311499 53.000000
4.317876 1.637034 0.311200 53.000000
4.320075 1.622727 0.311021 53.000000
4.320355 1.607725 0.310723 53.000000
4.321521 1.593082 0.310484 53.000000
4.323575 1.578789 0.310305 53.000000
4.325582 1.564499 0.310127 53.000000
4.331301 1.551557 0.310186 53.000000
4.331337 1.536594 0.309888 53.000000
4.335089 1.522967 0.309828 53.000000
4.338798 1.509332 0.309769 53.000000
4.345296 1.496664 0.309888 53.000000
4.345143 1.481715 0.309590 53.000000
4.352506 1.469335 0.309769 53.000000
4.352259 1.454393 0.309470 53.000000
4.350067 1.438840 0.309053 53.000000
4.357306 1.426419 0.309232 53.000000
4.358813 1.412122 0.309053 53.000000
4.361224 1.398133 0.308933 53.000000
4.368347 1.385652 0.309112 53.000000
4.374483 1.372841 0.309232 53.000000
4.836285 1.501443 0.337866 53.000000
4.397138 1.350368 0.310127 53.000000
4.982949 1.513505 0.346456 53.000000
4.990437 1.499072 0.346635 53.000000
3.218096 0.378194 0.228877 53.000000
3.220233 0.368433 0.228936 53.000000
3.226309 0.359103 0.229235 53.000000
3.230372 0.349525 0.229414 53.000000
3.240364 0.340551 0.229950 53.000000
3.242387 0.330709 0.230010 53.000000
3.250340 0.321447 0.230428 53.000000
3.258267 0.312139 0.230845 53.000000
3.265173 0.302693 0.231203 53.000000
3.271057 0.293119 0.231501 53.000000
3.281886 0.283942 0.232098 53.000000
3.288711 0.274369 0.232456 53.000000
3.295507 0.264757 0.232814 53.000000
3.303271 0.255183 0.233231 53.000000
3.312997 0.245711 0.233768 53.000000
3.320706 0.236040 0.234186 53.000000
3.325398 0.226121 0.234425 53.000000
3.332053 0.216306 0.234782 53.000000
3.338679 0.206451 0.235140 53.000000
3.347268 0.196674 0.235618 53.000000
3.355829 0.186847 0.236095 53.000000
3.366355 0.177074 0.236691 53.000000
3.377850 0.167287 0.237348 53.000000
3.389316 0.157432 0.238004 53.000000
3.397761 0.147378 0.238481 53.000000
3.408171 0.137354 0.239078 53.000000
3.418552 0.127267 0.239674 53.000000
3.426908 0.117050 0.240151 53.000000
3.433237 0.106722 0.240509 53.000000
3.442529 0.096439 0.241046 53.000000
3.450792 0.086075 0.241523 53.000000
3.455031 0.075575 0.241762 53.000000
3.462233 0.065105 0.242180 53.000000
3.469404 0.054592 0.242597 53.000000
3.472549 0.043985 0.242776 53.000000
3.484646 0.033445 0.243492 53.000000
3.494714 0.022818 0.244089 53.000000
3.501755 0.012120 0.244506 53.000000
3.515751 0.001381 0.245341 53.000000
3.525721 -0.009433 0.245938 53.000000
3.535657 -0.020309 0.246534 53.000000
3.548554 -0.031271 0.247310 53.000000
3.553433 -0.042218 0.247608 53.000000
3.561271 -0.053240 0.248085 53.000000
3.569076 -0.064310 0.248563 53.000000
3.576845 -0.075429 0.249040 53.000000
3.583583 -0.086572 0.249458 53.000000
3.595274 -0.097893 0.250173 53.000000
3.597950 -0.109013 0.250352 53.000000
3.567669 -0.119049 0.248563 53.000000
4.279384 1.912561 0.285910 54.000000
4.278841 1.896590 0.285536 54.000000
4.285554 1.883855 0.285590 54.000000
4.284906 1.867905 0.285216 54.000000
4.282367 1.851183 0.284736 54.000000
4.286191 1.837249 0.284629 54.000000
4.289051 1.822919 0.284469 54.000000
4.293703 1.809364 0.284415 54.000000
4.295548 1.794642 0.284202 54.000000
4.303802 1.782602 0.284362 54.000000
4.310174 1.769769 0.284415 54.000000
4.312809 1.755408 0.284255 54.000000
4.309840 1.738805 0.283775 54.000000
4.311445 1.724091 0.283561 54.000000
4.308360 1.707543 0.283081 54.000000
4.308002 1.692127 0.282760 54.000000
4.315964 1.679989 0.282921 54.000000
4.314577 1.664223 0.282547 54.000000
4.314999 1.649196 0.282280 54.000000
4.315369 1.634181 0.282013 54.000000
4.316622 1.619531 0.281800 54.000000
4.315955 1.604192 0.281479 54.000000
4.318982 1.590253 0.281372 54.000000
4.320088 1.575626 0.281159 54.000000
4.322084 1.561347 0.280999 54.000000
4.324974 1.547407 0.280892 54.000000
4.328760 1.533797 0.280839 54.000000
4.333445 1.520509 0.280839 54.000000
4.339976 1.507863 0.280945 54.000000
4.348358 1.495841 0.281159 54.000000
4.359544 1.484747 0.281533 54.000000
4.361240 1.470408 0.281372 54.000000
4.363836 1.456388 0.281266 54.000000
4.362595 1.441114 0.280945 54.000000
4.365097 1.427102 0.280839 54.000000
4.364705 1.412166 0.280572 54.000000
4.366164 1.397855 0.280412 54.000000
4.368528 1.383850 0.280305 54.000000
4.369894 1.369545 0.280145 54.000000
4.932979 1.529465 0.311426 54.000000
4.949104 1.517838 0.312067 54.000000
4.969982 1.507576 0.312974 54.000000
4.972671 1.491747 0.312868 54.000000
4.993228 1.464581 0.313508 54.000000
3.197416 0.384229 0.207492 54.000000
3.201555 0.374766 0.207652 54.000000
3.207651 0.365508 0.207919 54.000000
3.215704 0.356437 0.208293 54.000000
3.225718 0.347533 0.208773 54.000000
3.233721 0.338363 0.209147 54.000000
3.237724 0.328744 0.209307 54.000000
3.244680 0.319397 0.209627 54.000000
3.247633 0.309630 0.209734 54.000000
3.256522 0.300400 0.210161 54.000000
3.279310 0.292361 0.211336 54.000000
3.271238 0.281527 0.210855 54.000000
3.275071 0.271738 0.211015 54.000000
3.284848 0.262406 0.211496 54.000000
3.294599 0.253016 0.211976 54.000000
3.303326 0.243495 0.212403 54.000000
3.310034 0.233783 0.212724 54.000000
3.317710 0.224098 0.213097 54.000000
3.328347 0.214562 0.213631 54.000000
3.330983 0.204473 0.213738 54.000000
3.340566 0.194776 0.214218 54.000000
3.349124 0.184968 0.214645 54.000000
3.356657 0.175057 0.215019 54.000000
3.368149 0.165298 0.215606 54.000000
3.378615 0.155424 0.216140 54.000000
3.387058 0.145401 0.216567 54.000000
3.398463 0.135448 0.217154 54.000000
3.407844 0.125352 0.217635 54.000000
3.416197 0.115167 0.218062 54.000000
3.425517 0.104962 0.218542 54.000000
3.435804 0.094728 0.219076 54.000000
3.444065 0.084384 0.219503 54.000000
3.453293 0.074010 0.219984 54.000000
3.461491 0.063563 0.220411 54.000000
3.471654 0.053097 0.220944 54.000000
3.478790 0.042532 0.221318 54.000000
3.486893 0.031933 0.221745 54.000000
3.495961 0.021291 0.222226 54.000000
3.503999 0.010591 0.222653 54.000000
3.511005 -0.000159 0.223026 54.000000
3.525966 -0.010976 0.223827 54.000000
3.532906 -0.021836 0.224201 54.000000
3.542807 -0.032766 0.224734 54.000000
3.551677 -0.043744 0.225215 54.000000
3.558515 -0.054747 0.225589 54.000000
3.565319 -0.065793 0.225962 54.000000
3.573087 -0.076902 0.226389 54.000000
3.580821 -0.088059 0.226816 54.000000
3.583528 -0.099127 0.226977 54.000000
3.592190 -0.110395 0.227457 54.000000
4.271398 1.907028 0.256035 55.000000
4.279968 1.895128 0.256176 55.000000
4.277532 1.878372 0.255752 55.000000
4.292431 1.869230 0.256223 55.000000
4.275222 1.846147 0.255046 55.000000
4.264339 1.825940 0.254198 55.000000
4.272679 1.814021 0.254339 55.000000
4.284668 1.803618 0.254669 55.000000
4.287416 1.789310 0.254528 55.000000
4.291040 1.775383 0.254433 55.000000
4.293694 1.761072 0.254292 55.000000
4.297226 1.747138 0.254198 55.000000
4.297935 1.732078 0.253962 55.000000
4.291170 1.714064 0.253350 55.000000
4.295480 1.700523 0.253303 55.000000
4.301607 1.687702 0.253350 55.000000
4.303972 1.673410 0.253209 55.000000
4.308153 1.659839 0.253161 55.000000
4.309493 1.645188 0.252973 55.000000
4.313586 1.631605 0.252926 55.000000
4.312960 1.616259 0.252643 55.000000
4.311343 1.600584 0.252314 55.000000
4.314359 1.586659 0.252219 55.000000
4.328591 1.576837 0.252690 55.000000
4.327771 1.561514 0.252408 55.000000
4.327838 1.546548 0.252172 55.000000
4.334446 1.533930 0.252266 55.000000
4.338189 1.520294 0.252219 55.000000
4.345664 1.507961 0.252361 55.000000
4.351214 1.494946 0.252408 55.000000
4.355780 1.481590 0.252408 55.000000
4.357465 1.467262 0.252266 55.000000
4.360999 1.453571 0.252219 55.000000
4.360695 1.438619 0.251984 55.000000
4.360341 1.423682 0.251748 55.000000
4.359936 1.408761 0.251513 55.000000
4.357578 1.393247 0.251183 55.000000
4.352309 1.376857 0.250712 55.000000
4.366045 1.366483 0.251183 55.000000
4.361629 1.350421 0.250759 55.000000
4.938769 1.512682 0.279023 55.000000
4.959638 1.502450 0.279824 55.000000
4.960396 1.486079 0.279635 55.000000
3.197568 0.382763 0.187307 55.000000
3.196743 0.372719 0.187212 55.000000
3.203827 0.363588 0.187495 55.000000
3.208898 0.354197 0.187683 55.000000
3.209970 0.344350 0.187683 55.000000
3.216972 0.335124 0.187966 55.000000
3.223948 0.325857 0.188249 55.000000
3.229903 0.316454 0.188484 55.000000
3.236825 0.307111 0.188767 55.000000
3.245709 0.297913 0.189144 55.000000
3.253573 0.288574 0.189474 55.000000
3.263400 0.279360 0.189897 55.000000
3.272205 0.270007 0.190274 55.000000
3.282975 0.260761 0.190745 55.000000
3.287744 0.250994 0.190934 55.000000
3.296468 0.241492 0.191311 55.000000
3.304168 0.231870 0.191640 55.000000
3.310844 0.222135 0.191923 55.000000
3.314500 0.212169 0.192064 55.000000
3.323112 0.202488 0.192441 55.000000
3.330698 0.192698 0.192771 55.000000
3.340250 0.182974 0.193195 55.000000
3.351768 0.173296 0.193713 55.000000
3.360265 0.163403 0.194090 55.000000
3.367736 0.153414 0.194420 55.000000
3.378170 0.143508 0.194891 55.000000
3.388576 0.133540 0.195362 55.000000
3.395957 0.123400 0.195692 55.000000
3.405305 0.113283 0.196116 55.000000
3.413624 0.103079 0.196492 55.000000
3.425906 0.092935 0.197058 55.000000
3.436161 0.082667 0.197529 55.000000
3.445386 0.072317 0.197953 55.000000
3.455579 0.061928 0.198424 55.000000
3.463743 0.051448 0.198801 55.000000
3.472874 0.040930 0.199225 55.000000
3.484969 0.030384 0.199790 55.000000
3.493037 0.019739 0.200167 55.000000
3.511061 0.009075 0.201015 55.000000
3.508076 -0.001696 0.200873 55.000000
3.518043 -0.012491 0.201344 55.000000
