# This PCD file was generated using the MATLAB® pcwrite function
# from Computer Vision Toolbox®.
# .PCD v.7 - Point Cloud Data file format
VERSION .7
FIELDS x y z
SIZE 4 4 4
TYPE F F F
COUNT 1 1 1
WIDTH 1767
HEIGHT 1
VIEWPOINT 0 0 0 1 0 0 0
POINTS 1767
DATA ascii
3.203513 0.516199 0.547031
3.201914 0.526025 0.547031
3.198337 0.535520 0.546719
3.198626 0.545662 0.547031
3.194991 0.555134 0.546719
3.195218 0.565278 0.547031
3.193469 0.575078 0.547031
3.192661 0.585051 0.547187
3.194735 0.595566 0.547812
3.196774 0.606100 0.548437
3.200719 0.617026 0.549375
3.203658 0.627792 0.550156
3.207529 0.638775 0.551094
3.206522 0.648808 0.551250
3.210322 0.659835 0.552188
3.211183 0.670286 0.552656
3.212010 0.680749 0.553125
3.207975 0.690184 0.552813
3.206808 0.700234 0.552969
3.200787 0.709215 0.552344
3.199560 0.719248 0.552500
3.198301 0.729280 0.552656
3.225263 0.238295 0.525193
3.191002 0.245605 0.520086
3.188263 0.255236 0.519785
3.190420 0.265262 0.520236
3.190577 0.275134 0.520386
3.190702 0.285010 0.520536
3.189813 0.294797 0.520536
3.191846 0.304864 0.520987
3.191880 0.314753 0.521137
3.192866 0.324744 0.521438
3.189888 0.334332 0.521137
3.189830 0.344223 0.521288
3.198585 0.355099 0.522790
3.197481 0.364911 0.522790
3.199292 0.375065 0.523241
3.198126 0.384878 0.523241
3.194968 0.394445 0.522940
3.197666 0.404743 0.523541
3.194448 0.414297 0.523241
3.196102 0.424486 0.523691
3.194785 0.434289 0.523691
3.196375 0.444498 0.524142
3.197933 0.454720 0.524593
3.202393 0.465383 0.525494
3.198016 0.474769 0.525043
3.198500 0.484875 0.525344
3.191135 0.493778 0.524442
3.190582 0.503720 0.524593
3.183165 0.512563 0.523691
3.181577 0.522326 0.523691
3.178010 0.531758 0.523391
3.178313 0.541838 0.523691
3.176635 0.551586 0.523691
3.180769 0.562363 0.524593
3.177083 0.571768 0.524292
3.179204 0.582226 0.524893
3.181290 0.592701 0.525494
3.181399 0.602827 0.525794
3.181477 0.612959 0.526095
3.184432 0.623667 0.526846
3.188321 0.634593 0.527747
3.190235 0.645156 0.528348
3.195020 0.656333 0.529400
3.193959 0.666335 0.529550
3.191900 0.676130 0.529550
3.192710 0.686544 0.530001
3.187691 0.695703 0.529550
3.183611 0.705051 0.529250
3.177575 0.713948 0.528649
3.174406 0.723473 0.528498
3.180144 0.164917 0.498437
3.180611 0.174727 0.498581
3.192902 0.185234 0.500458
3.193306 0.195090 0.500602
3.190717 0.204758 0.500313
3.189087 0.214480 0.500169
3.189401 0.224332 0.500313
3.185737 0.233898 0.499880
3.187964 0.243898 0.500313
3.189174 0.253835 0.500602
3.186408 0.263454 0.500313
3.184599 0.273144 0.500169
3.184731 0.283001 0.500313
3.187790 0.293134 0.500891
3.183920 0.302631 0.500458
3.186916 0.312785 0.501035
3.183972 0.322361 0.500746
3.183952 0.332231 0.500891
3.188821 0.342634 0.501757
3.186771 0.352306 0.501612
3.188625 0.362418 0.502045
3.184550 0.371853 0.501612
3.187324 0.382094 0.502190
3.185154 0.391750 0.502045
3.186882 0.401893 0.502479
3.186616 0.411795 0.502623
3.190242 0.422220 0.503345
3.188932 0.432006 0.503345
3.190532 0.442196 0.503778
3.190140 0.452122 0.503922
3.191675 0.462333 0.504355
3.188284 0.471833 0.504066
3.187800 0.481760 0.504211
3.182395 0.490933 0.503633
3.175987 0.499923 0.502912
3.173462 0.509507 0.502767
3.175789 0.519882 0.503345
3.171252 0.529133 0.502912
3.172540 0.539358 0.503345
3.175745 0.549935 0.504066
3.176966 0.560192 0.504499
3.176206 0.570111 0.504644
3.177362 0.580387 0.505077
3.177512 0.590495 0.505366
3.179575 0.600977 0.505943
3.179659 0.611103 0.506232
3.178741 0.621046 0.506376
3.176820 0.630795 0.506376
3.179720 0.641519 0.507098
3.173859 0.650475 0.506521
3.174755 0.660815 0.506954
3.177553 0.671577 0.507675
3.171608 0.680490 0.507098
3.170472 0.690428 0.507242
3.169305 0.700366 0.507387
3.167141 0.710086 0.507387
3.163018 0.719360 0.507098
3.166581 0.730397 0.507964
3.188440 0.129437 0.480179
3.187038 0.139176 0.480041
3.183628 0.148815 0.479625
3.184146 0.158631 0.479764
3.187600 0.168607 0.480318
3.186079 0.178330 0.480179
3.187495 0.188220 0.480456
3.186902 0.197998 0.480456
3.187268 0.207839 0.480595
3.185627 0.217549 0.480456
3.185933 0.227392 0.480595
3.183245 0.237018 0.480318
3.180528 0.246631 0.480041
3.178769 0.256308 0.479902
3.176980 0.265977 0.479764
3.179110 0.275979 0.480179
3.180221 0.285907 0.480456
3.181301 0.295845 0.480733
3.183336 0.305887 0.481149
3.184354 0.315847 0.481426
3.181399 0.325414 0.481149
3.181371 0.335276 0.481287
3.181312 0.345142 0.481426
3.180238 0.354900 0.481426
3.179134 0.364655 0.481426
3.178000 0.374407 0.481426
3.177820 0.384274 0.481564
3.176626 0.394021 0.481564
3.180315 0.404388 0.482257
3.180042 0.414271 0.482395
3.180719 0.424286 0.482672
3.180384 0.434176 0.482810
3.180998 0.444205 0.483087
3.179621 0.453962 0.483087
3.179193 0.463857 0.483226
3.177755 0.473609 0.483226
3.178245 0.483653 0.483503
3.173810 0.492946 0.483087
3.172283 0.502681 0.483087
3.172682 0.512727 0.483364
3.169139 0.522136 0.483087
3.169476 0.532184 0.483364
3.168804 0.542072 0.483503
3.164199 0.551282 0.483087
3.169319 0.562196 0.484057
3.169529 0.572268 0.484334
3.171655 0.582703 0.484888
3.171799 0.592794 0.485165
3.170939 0.602707 0.485303
3.170047 0.612620 0.485442
3.168153 0.622343 0.485442
3.164286 0.631673 0.485165
3.162333 0.641377 0.485165
3.159381 0.650877 0.485026
3.155430 0.660162 0.484749
3.159203 0.671072 0.485580
3.157129 0.680761 0.485580
3.158896 0.691289 0.486134
3.163528 0.702478 0.487103
3.165223 0.713049 0.487657
3.166883 0.723638 0.488211
3.169472 0.734466 0.488904
3.168168 0.744413 0.489042
3.169354 0.128307 0.457861
3.187761 0.138847 0.460377
3.178409 0.148212 0.459185
3.176949 0.157914 0.459053
3.177439 0.167712 0.459185
3.178889 0.177570 0.459450
3.179319 0.187380 0.459582
3.180708 0.197255 0.459847
3.181077 0.207077 0.459980
3.179437 0.216768 0.459847
3.175792 0.226310 0.459450
3.176071 0.236126 0.459582
3.175331 0.245869 0.459582
3.174562 0.255609 0.459582
3.175738 0.265513 0.459847
3.178859 0.275596 0.460377
3.181947 0.285702 0.460907
3.184017 0.295737 0.461304
3.184081 0.305599 0.461436
3.187074 0.315756 0.461966
3.183132 0.325231 0.461569
3.181134 0.334891 0.461436
3.179106 0.344543 0.461304
3.177049 0.354185 0.461172
3.175947 0.363930 0.461172
3.175800 0.373788 0.461304
3.176606 0.383767 0.461569
3.176398 0.393632 0.461701
3.177142 0.403625 0.461966
3.177854 0.413626 0.462231
3.177553 0.423505 0.462363
3.176239 0.433251 0.462363
3.173913 0.442857 0.462231
3.173521 0.452732 0.462363
3.174078 0.462752 0.462628
3.173624 0.472634 0.462761
3.176079 0.482963 0.463290
3.174582 0.492705 0.463290
3.173056 0.502442 0.463290
3.170521 0.512017 0.463158
3.171869 0.522224 0.463555
3.170252 0.531953 0.463555
3.168605 0.541677 0.463555
3.166928 0.551395 0.463555
3.165222 0.561109 0.463555
3.167387 0.571520 0.464085
3.168544 0.581772 0.464482
3.171616 0.592399 0.465144
3.171731 0.602497 0.465409
3.173760 0.612976 0.465939
3.169920 0.622328 0.465674
3.170912 0.632632 0.466071
3.165070 0.641570 0.465542
3.161145 0.650878 0.465277
3.158163 0.660370 0.465144
3.156122 0.670056 0.465144
3.156959 0.680362 0.465542
3.158730 0.690891 0.466071
3.161434 0.701652 0.466734
3.165068 0.712653 0.467528
3.168665 0.723684 0.468323
3.166430 0.733402 0.468323
3.165130 0.743339 0.468455
3.167656 0.754194 0.469117
3.192845 0.146857 0.441909
3.165628 0.155336 0.438492
3.167118 0.165150 0.438745
3.166596 0.174866 0.438745
3.164065 0.184465 0.438492
3.163484 0.194171 0.438492
3.161883 0.203812 0.438365
3.161243 0.213511 0.438365
3.159584 0.223139 0.438239
3.161852 0.233050 0.438618
3.163100 0.242902 0.438872
3.163329 0.252684 0.438998
3.164516 0.262552 0.439251
3.169625 0.272770 0.440010
3.171738 0.282758 0.440390
3.171843 0.292579 0.440517
3.171918 0.302403 0.440643
3.173937 0.312424 0.441023
3.171977 0.322060 0.440896
3.169000 0.331583 0.440643
3.163037 0.340772 0.440010
3.163949 0.350694 0.440263
3.160887 0.360174 0.440010
3.160752 0.369985 0.440137
3.160587 0.379799 0.440263
3.161376 0.389737 0.440517
3.160165 0.399434 0.440517
3.158925 0.409127 0.440517
3.158638 0.418947 0.440643
3.158321 0.428769 0.440770
3.156991 0.438457 0.440770
3.155630 0.448140 0.440770
3.157186 0.458247 0.441149
3.157727 0.468223 0.441402
3.160199 0.478503 0.441909
3.161657 0.488651 0.442288
3.162103 0.498658 0.442541
3.159579 0.508199 0.442415
3.159962 0.518211 0.442668
3.156401 0.527576 0.442415
3.154768 0.537257 0.442415
3.151150 0.546594 0.442162
3.150435 0.556432 0.442288
3.148713 0.566094 0.442288
3.149889 0.576288 0.442668
3.151031 0.586494 0.443047
3.152141 0.596712 0.443427
3.155166 0.607318 0.444060
3.156208 0.617567 0.444439
3.153326 0.627053 0.444313
3.153332 0.637118 0.444566
3.151362 0.646789 0.444566
3.149363 0.656454 0.444566
3.147334 0.666113 0.444566
3.150125 0.676809 0.445199
3.150941 0.687104 0.445578
3.149787 0.696982 0.445705
3.152473 0.707730 0.446338
3.151254 0.717618 0.446464
3.147104 0.726836 0.446211
3.152586 0.738298 0.447223
3.147411 0.747279 0.446844
3.142210 0.756235 0.446464
3.179044 0.155635 0.419440
3.168638 0.164868 0.418238
3.165143 0.174423 0.417878
3.161620 0.183959 0.417518
3.160050 0.193597 0.417397
3.158451 0.203227 0.417277
3.155831 0.212781 0.417037
3.152193 0.222252 0.416677
3.152486 0.231995 0.416797
3.153739 0.241818 0.417037
3.152982 0.251492 0.417037
3.157143 0.261576 0.417638
3.157315 0.271346 0.417758
3.159434 0.281296 0.418118
3.158556 0.290988 0.418118
3.159625 0.300866 0.418359
3.160663 0.310753 0.418599
3.160682 0.320549 0.418719
3.158696 0.330141 0.418599
3.156682 0.339723 0.418479
3.153651 0.349187 0.418238
3.151579 0.358748 0.418118
3.150463 0.368415 0.418118
3.149318 0.378079 0.418118
3.147158 0.387618 0.417998
3.143984 0.397022 0.417758
3.141767 0.406538 0.417638
3.143457 0.416567 0.417998
3.145116 0.426610 0.418359
3.144775 0.436394 0.418479
3.144404 0.446180 0.418599
3.144986 0.456110 0.418839
3.146518 0.466195 0.419200
3.148998 0.476441 0.419680
3.145560 0.485796 0.419440
3.150919 0.496529 0.420281
3.150361 0.506351 0.420401
3.146833 0.515692 0.420161
3.147195 0.525672 0.420401
3.146546 0.535492 0.420521
3.145866 0.545313 0.420641
3.145156 0.555134 0.420761
3.145392 0.565133 0.421002
3.146573 0.575317 0.421362
3.144793 0.584968 0.421362
3.142984 0.594613 0.421362
3.149918 0.605944 0.422443
3.145121 0.615032 0.422083
3.146141 0.625260 0.422443
3.144207 0.634909 0.422443
3.139328 0.643953 0.422083
3.140253 0.654190 0.422443
3.138231 0.663821 0.422443
3.137150 0.673654 0.422563
3.137978 0.683911 0.422924
3.135865 0.693535 0.422924
3.135660 0.703588 0.423164
3.137358 0.714087 0.423645
3.137087 0.724156 0.423885
3.136784 0.734231 0.424125
3.135482 0.744080 0.424245
3.133185 0.753696 0.424245
3.128929 0.762834 0.424005
3.162669 0.166746 0.399683
3.163135 0.176503 0.399798
3.154644 0.185743 0.398881
3.154060 0.195420 0.398881
3.151463 0.204967 0.398652
3.148837 0.214501 0.398422
3.145191 0.223950 0.398079
3.146471 0.233744 0.398308
3.146729 0.243473 0.398422
3.145967 0.253126 0.398422
3.147156 0.262941 0.398652
3.150293 0.272936 0.399110
3.148452 0.282512 0.398995
3.148559 0.292261 0.399110
3.149626 0.302108 0.399339
3.149673 0.311867 0.399454
3.149689 0.321629 0.399568
3.150664 0.331498 0.399798
3.146669 0.340843 0.399454
3.144621 0.350386 0.399339
3.144518 0.360144 0.399454
3.140439 0.369443 0.399110
3.136332 0.378719 0.398766
3.132197 0.387974 0.398422
3.130992 0.397582 0.398422
3.130743 0.407314 0.398537
3.134402 0.417571 0.399110
3.135075 0.427453 0.399339
3.139652 0.437890 0.400027
3.139278 0.447660 0.400141
3.140839 0.457718 0.400485
3.141385 0.467644 0.400714
3.141900 0.477577 0.400943
3.141402 0.487366 0.401058
3.138911 0.496846 0.400943
3.136391 0.506316 0.400829
3.134823 0.515936 0.400829
3.137144 0.526207 0.401287
3.136494 0.535996 0.401402
3.138750 0.546296 0.401860
3.137059 0.555923 0.401860
3.138272 0.566073 0.402204
3.133589 0.575161 0.401860
3.134740 0.585318 0.402204
3.133905 0.595118 0.402319
3.132065 0.604730 0.402319
3.134094 0.615100 0.402777
3.134141 0.625100 0.403006
3.131235 0.634516 0.402891
3.130246 0.644319 0.403006
3.130200 0.654325 0.403235
3.130121 0.664337 0.403464
3.130982 0.674564 0.403808
3.130839 0.684590 0.404037
3.126784 0.693763 0.403808
3.125610 0.703570 0.403923
3.127311 0.714039 0.404381
3.126074 0.723854 0.404496
3.126740 0.734121 0.404840
3.124473 0.743711 0.404840
3.124108 0.753758 0.405069
3.121781 0.763339 0.405069
3.122317 0.773629 0.405412
3.121856 0.783687 0.405642
3.156448 0.176319 0.379009
3.146960 0.185476 0.378034
3.146377 0.195130 0.378034
3.145763 0.204782 0.378034
3.143136 0.214297 0.377817
3.139489 0.223728 0.377492
3.139780 0.233432 0.377600
3.140040 0.243140 0.377709
3.140270 0.252852 0.377817
3.140470 0.262568 0.377925
3.142621 0.272459 0.378251
3.141770 0.282099 0.378251
3.142870 0.291920 0.378467
3.142949 0.301656 0.378576
3.142998 0.311395 0.378684
3.142028 0.321036 0.378684
3.141028 0.330674 0.378684
3.139999 0.340309 0.378684
3.137952 0.349831 0.378576
3.136864 0.359456 0.378576
3.132784 0.368730 0.378251
3.130651 0.378220 0.378142
3.125530 0.387335 0.377709
3.126299 0.397172 0.377925
3.123095 0.406505 0.377709
3.125774 0.416610 0.378142
3.128422 0.426735 0.378576
3.134974 0.437429 0.379442
3.137554 0.447606 0.379876
3.137150 0.457373 0.379984
3.136715 0.467141 0.380092
3.140182 0.477509 0.380634
3.139684 0.487293 0.380742
3.138175 0.496923 0.380742
3.138598 0.506866 0.380959
3.138009 0.516654 0.381068
3.137390 0.526443 0.381176
3.134780 0.535898 0.381068
3.137039 0.546195 0.381501
3.136327 0.555990 0.381609
3.134607 0.565609 0.381609
3.129923 0.574685 0.381284
3.129122 0.584468 0.381393
3.128291 0.594250 0.381501
3.125477 0.603657 0.381393
3.130439 0.614582 0.382151
3.129514 0.624378 0.382259
3.130507 0.634568 0.382584
3.129519 0.644370 0.382693
3.128500 0.654171 0.382801
3.128423 0.664179 0.383018
3.126371 0.673774 0.383018
3.124289 0.683362 0.383018
3.120237 0.692514 0.382801
3.117128 0.701865 0.382693
3.114960 0.711425 0.382693
3.117605 0.722099 0.383234
3.115375 0.731660 0.383234
3.116017 0.741905 0.383559
3.116626 0.752161 0.383885
3.116235 0.762191 0.384101
3.115811 0.772226 0.384318
3.116320 0.782508 0.384643
3.115832 0.792554 0.384860
3.134208 0.182720 0.357333
3.134625 0.192396 0.357435
3.133028 0.201948 0.357333
3.132394 0.211559 0.357333
3.130738 0.221098 0.357231
3.131037 0.230775 0.357333
3.131305 0.240456 0.357435
3.130553 0.250062 0.357435
3.131754 0.259830 0.357640
3.130942 0.269437 0.357640
3.130100 0.279041 0.357640
3.131211 0.288826 0.357844
3.133281 0.298714 0.358151
3.132349 0.308326 0.358151
3.132379 0.318035 0.358253
3.130399 0.327540 0.358151
3.130368 0.337249 0.358253
3.128330 0.346741 0.358151
3.126263 0.356224 0.358049
3.124168 0.365698 0.357947
3.124019 0.375400 0.358049
3.122852 0.384983 0.358049
3.122643 0.394687 0.358151
3.122404 0.404393 0.358253
3.125093 0.414494 0.358663
3.124793 0.424213 0.358765
3.126432 0.434209 0.359072
3.129025 0.444359 0.359481
3.130600 0.454385 0.359787
3.129191 0.463988 0.359787
3.130704 0.474033 0.360094
3.132184 0.484092 0.360401
3.130684 0.493699 0.360401
3.130137 0.503460 0.360503
3.128577 0.513060 0.360503
3.128951 0.522984 0.360708
3.125371 0.532247 0.360503
3.124703 0.542003 0.360606
3.121066 0.551241 0.360401
3.118381 0.560638 0.360299
3.116647 0.570202 0.360299
3.114883 0.579761 0.360299
3.114067 0.589500 0.360401
3.117127 0.599992 0.360912
3.118201 0.610125 0.361219
3.123144 0.621048 0.361935
3.125124 0.631415 0.362344
3.127069 0.641800 0.362753
3.126060 0.651594 0.362856
3.126965 0.661800 0.363162
3.123948 0.671181 0.363060
3.120902 0.680550 0.362958
3.112972 0.688831 0.362344
3.109873 0.698161 0.362242
3.102867 0.706593 0.361731
3.105531 0.717229 0.362242
3.103316 0.726754 0.362242
3.105911 0.737420 0.362753
3.102667 0.746713 0.362651
3.103261 0.756936 0.362958
3.102855 0.766931 0.363162
3.104347 0.777413 0.363572
3.103876 0.787423 0.363776
3.101445 0.796942 0.363776
3.163999 0.183547 0.340388
3.148519 0.192337 0.338948
3.125067 0.200521 0.336740
3.123445 0.210041 0.336644
3.125764 0.219833 0.336932
3.124082 0.229348 0.336836
3.123364 0.238932 0.336836
3.125593 0.248751 0.337124
3.125807 0.258422 0.337220
3.124008 0.267925 0.337124
3.126145 0.277773 0.337412
3.124287 0.287271 0.337316
3.127355 0.297233 0.337700
3.127419 0.306924 0.337796
3.127453 0.316618 0.337892
3.125477 0.326108 0.337796
3.125451 0.335802 0.337892
3.122427 0.345169 0.337700
3.121354 0.354747 0.337700
3.120251 0.364322 0.337700
3.119118 0.373893 0.337700
3.117957 0.383460 0.337700
3.115778 0.392899 0.337604
3.116532 0.402713 0.337796
3.117255 0.412534 0.337988
3.115975 0.422096 0.337988
3.116637 0.431927 0.338180
3.119239 0.442047 0.338564
3.118854 0.451758 0.338660
3.120407 0.461762 0.338948
3.121928 0.471781 0.339236
3.122433 0.481661 0.339428
3.120941 0.491238 0.339428
3.120402 0.500969 0.339524
3.120815 0.510862 0.339716
3.118251 0.520270 0.339620
3.114677 0.529500 0.339428
3.114019 0.539223 0.339524
3.111370 0.548601 0.339428
3.109672 0.558144 0.339428
3.109903 0.568040 0.339620
3.106189 0.577214 0.339428
3.105381 0.586926 0.339524
3.108453 0.597392 0.340004
3.112467 0.608073 0.340580
3.113515 0.618201 0.340868
3.115507 0.628540 0.341253
3.118439 0.639096 0.341733
3.120361 0.649473 0.342117
3.117380 0.658837 0.342021
3.114371 0.668188 0.341925
3.114252 0.678164 0.342117
3.108269 0.686855 0.341733
3.103234 0.695733 0.341445
3.102055 0.705472 0.341541
3.099876 0.714985 0.341541
3.096699 0.724265 0.341445
3.094462 0.733763 0.341445
3.091229 0.743020 0.341349
3.089901 0.752736 0.341445
3.090477 0.762929 0.341733
3.091984 0.773374 0.342117
3.091526 0.783346 0.342309
3.091036 0.793323 0.342501
3.090514 0.803304 0.342693
3.127143 0.194307 0.318789
3.115600 0.203191 0.317796
3.118937 0.213019 0.318157
3.119262 0.222657 0.318248
3.119557 0.232300 0.318338
3.120816 0.242022 0.318519
3.122044 0.251755 0.318699
3.122249 0.261415 0.318789
3.120440 0.270907 0.318699
3.119595 0.280479 0.318699
3.118720 0.290049 0.318699
3.118806 0.299710 0.318789
3.118863 0.309375 0.318880
3.117899 0.318942 0.318880
3.118887 0.328714 0.319060
3.120834 0.338602 0.319331
3.117801 0.347955 0.319151
3.118698 0.357745 0.319331
3.120553 0.367660 0.319602
3.117433 0.376994 0.319421
3.117250 0.386678 0.319512
3.117037 0.396365 0.319602
3.117782 0.406183 0.319783
3.115534 0.415615 0.319692
3.117204 0.425574 0.319963
3.118843 0.435548 0.320234
3.117492 0.445114 0.320234
3.114141 0.454390 0.320053
3.114702 0.464235 0.320234
3.112279 0.473639 0.320144
3.109827 0.483032 0.320053
3.107347 0.492415 0.319963
3.107788 0.502263 0.320144
3.106232 0.511795 0.320144
3.104647 0.521323 0.320144
3.104015 0.531013 0.320234
3.103353 0.540704 0.320324
3.101679 0.550222 0.320324
3.101937 0.560089 0.320505
3.100204 0.569603 0.320505
3.100400 0.579477 0.320685
3.098608 0.588986 0.320685
3.100698 0.599244 0.321047
3.103731 0.609712 0.321498
3.105753 0.620010 0.321859
3.105788 0.629930 0.322040
3.107743 0.640258 0.322401
3.111613 0.651011 0.322942
3.109601 0.660554 0.322942
3.113402 0.671349 0.323484
3.111328 0.680897 0.323484
3.111169 0.690871 0.323665
3.108063 0.700194 0.323574
3.102987 0.709061 0.323304
3.102738 0.719027 0.323484
3.100517 0.728543 0.323484
3.095361 0.737360 0.323213
3.091148 0.746386 0.323033
3.089811 0.756103 0.323123
3.091343 0.766536 0.323484
3.093807 0.777228 0.323936
3.089478 0.786225 0.323755
3.090909 0.796693 0.324116
3.090377 0.806674 0.324297
3.087888 0.816152 0.324297
3.126375 0.201887 0.299573
3.115799 0.210806 0.298731
3.117126 0.220505 0.298899
3.116435 0.230067 0.298899
3.117701 0.239780 0.299067
3.119931 0.249581 0.299320
3.121136 0.259317 0.299488
3.120326 0.268891 0.299488
3.120479 0.278551 0.299573
3.118617 0.288032 0.299488
3.118711 0.297693 0.299573
3.119766 0.307455 0.299741
3.119800 0.317125 0.299825
3.119803 0.326799 0.299909
3.117795 0.336262 0.299825
3.114768 0.345606 0.299657
3.115673 0.355386 0.299825
3.115558 0.365059 0.299909
3.112445 0.374378 0.299741
3.112270 0.384047 0.299825
3.112066 0.393718 0.299909
3.114796 0.403776 0.300246
3.110579 0.412937 0.299994
3.112260 0.422881 0.300246
3.113909 0.432838 0.300499
3.111580 0.442249 0.300415
3.110209 0.451793 0.300415
3.113736 0.462064 0.300836
3.108363 0.471018 0.300499
3.104934 0.480248 0.300330
3.106399 0.490237 0.300583
3.104880 0.499765 0.300583
3.103332 0.509288 0.300583
3.101755 0.518807 0.300583
3.103096 0.528822 0.300836
3.102440 0.538510 0.300920
3.100774 0.548026 0.300920
3.101039 0.557889 0.301088
3.101274 0.567759 0.301257
3.099517 0.577271 0.301257
3.097731 0.586777 0.301257
3.097874 0.596655 0.301425
3.097984 0.606539 0.301593
3.099041 0.616623 0.301846
3.098111 0.626325 0.301930
3.100080 0.636629 0.302267
3.102014 0.646950 0.302604
3.104888 0.657495 0.303025
3.104805 0.667436 0.303193
3.107611 0.678020 0.303614
3.105516 0.687551 0.303614
3.109226 0.698385 0.304119
3.101239 0.706593 0.303614
3.104882 0.717449 0.304119
3.104606 0.727426 0.304288
3.099452 0.736257 0.304035
3.093303 0.744830 0.303698
3.094876 0.755261 0.304035
3.091577 0.764513 0.303951
3.092117 0.774721 0.304204
3.088759 0.783959 0.304119
3.092130 0.794919 0.304625
3.089677 0.804402 0.304625
3.091049 0.814892 0.304961
3.088534 0.824372 0.304961
3.124377 0.211562 0.279205
3.107802 0.220018 0.277961
3.107112 0.229551 0.277961
3.107387 0.239159 0.278038
3.106639 0.248692 0.278038
3.107848 0.258387 0.278194
3.105054 0.267749 0.278038
3.107198 0.277540 0.278272
3.109309 0.287347 0.278505
3.110398 0.297075 0.278660
3.107488 0.306420 0.278505
3.107525 0.316053 0.278583
3.108524 0.325794 0.278738
3.107510 0.335329 0.278738
3.106466 0.344861 0.278738
3.106384 0.354503 0.278816
3.107262 0.364264 0.278971
3.106130 0.373795 0.278971
3.105958 0.383445 0.279049
3.106745 0.393223 0.279205
3.103547 0.402496 0.279049
3.103286 0.412147 0.279127
3.101019 0.421531 0.279049
3.102673 0.431456 0.279283
3.100348 0.440832 0.279205
3.097994 0.450198 0.279127
3.097585 0.459847 0.279205
3.102073 0.470245 0.279671
3.096675 0.479150 0.279360
3.090267 0.487870 0.278971
3.095646 0.498459 0.279516
3.095086 0.508116 0.279594
3.091546 0.517280 0.279438
3.092892 0.527265 0.279671
3.093225 0.537093 0.279827
3.092544 0.546754 0.279905
3.091833 0.556415 0.279982
3.093054 0.566438 0.280216
3.091301 0.575924 0.280216
3.089520 0.585406 0.280216
3.089667 0.595259 0.280371
3.087826 0.604735 0.280371
3.087912 0.614595 0.280527
3.086989 0.624263 0.280605
3.087989 0.634333 0.280838
3.087980 0.644212 0.280993
3.089890 0.654509 0.281304
3.090792 0.664615 0.281538
3.091660 0.674732 0.281771
3.092496 0.684861 0.282004
3.096216 0.695658 0.282471
3.095040 0.705375 0.282549
3.096746 0.715766 0.282860
3.095506 0.725491 0.282937
3.096176 0.735676 0.283171
3.090028 0.744237 0.282860
3.088698 0.753950 0.282937
3.086370 0.763423 0.282937
3.083047 0.772646 0.282860
3.081628 0.782346 0.282937
3.080179 0.792045 0.283015
3.076770 0.801240 0.282937
3.077189 0.811438 0.283171
3.075648 0.821133 0.283248
3.069265 0.829524 0.282937
3.116285 0.218619 0.259522
3.100678 0.227080 0.258447
3.099967 0.236592 0.258447
3.101215 0.246260 0.258591
3.099451 0.255691 0.258519
3.102627 0.265540 0.258806
3.101798 0.275058 0.258806
3.099946 0.284481 0.258734
3.101044 0.294179 0.258877
3.100127 0.303692 0.258877
3.098189 0.313101 0.258806
3.098206 0.322708 0.258877
3.098192 0.332319 0.258949
3.096167 0.341712 0.258877
3.096095 0.351323 0.258949
3.095003 0.360820 0.258949
3.095862 0.370551 0.259092
3.096690 0.380291 0.259236
3.096499 0.389915 0.259307
3.095288 0.399413 0.259307
3.093059 0.408776 0.259236
3.092779 0.418398 0.259307
3.093457 0.428158 0.259451
3.093116 0.437787 0.259522
3.090771 0.447132 0.259451
3.090371 0.456758 0.259522
3.088956 0.466237 0.259522
3.090468 0.476168 0.259737
3.084066 0.484871 0.259379
3.087488 0.495122 0.259737
3.080049 0.503624 0.259307
3.081440 0.513564 0.259522
3.080834 0.523183 0.259594
3.083145 0.533314 0.259881
3.084441 0.543290 0.260096
3.084723 0.553104 0.260239
3.084974 0.562924 0.260382
3.086174 0.572933 0.260597
3.084402 0.582398 0.260597
3.085539 0.592424 0.260812
3.084686 0.602079 0.260884
3.082824 0.611539 0.260884
3.083867 0.621587 0.261099
3.080968 0.630845 0.261027
3.080971 0.640701 0.261171
3.078015 0.649944 0.261099
3.077957 0.659803 0.261243
3.078842 0.669880 0.261458
3.077746 0.679538 0.261529
3.078567 0.689632 0.261744
3.078382 0.699517 0.261888
3.079137 0.709631 0.262103
3.079859 0.719756 0.262318
3.080547 0.729893 0.262533
3.080233 0.739807 0.262676
3.076980 0.749017 0.262604
3.073699 0.758214 0.262533
3.074261 0.768367 0.262748
3.071889 0.777795 0.262748
3.069489 0.787216 0.262748
3.068024 0.796881 0.262819
3.066530 0.806543 0.262891
3.065005 0.816205 0.262963
3.062486 0.825604 0.262963
3.062825 0.835785 0.263178
3.063538 0.218166 0.238057
3.104648 0.230653 0.240826
3.103926 0.240177 0.240826
3.099196 0.249380 0.240562
3.098417 0.258887 0.240562
3.096613 0.268305 0.240496
3.097764 0.277982 0.240628
3.093915 0.287209 0.240430
3.094013 0.296795 0.240496
3.090109 0.305992 0.240298
3.085185 0.315067 0.240035
3.084203 0.324530 0.240035
3.086169 0.334312 0.240233
3.085129 0.343779 0.240233
3.087034 0.353582 0.240430
3.085935 0.363051 0.240430
3.087779 0.372875 0.240628
3.087610 0.382468 0.240694
3.087413 0.392065 0.240760
3.085206 0.401406 0.240694
3.082970 0.410738 0.240628
3.084662 0.420598 0.240826
3.085334 0.430335 0.240958
3.086963 0.440220 0.241155
3.084610 0.449545 0.241090
3.084203 0.459153 0.241155
3.083767 0.468762 0.241221
3.085272 0.478679 0.241419
3.083789 0.488142 0.241419
3.082277 0.497601 0.241419
3.080736 0.507055 0.241419
3.078182 0.516339 0.241353
3.074616 0.525445 0.241221
3.075939 0.535388 0.241419
3.075264 0.544996 0.241485
3.074560 0.554605 0.241551
3.073825 0.564214 0.241617
3.075023 0.574191 0.241815
3.075207 0.583993 0.241947
3.076341 0.593992 0.242144
3.075483 0.603619 0.242210
3.075574 0.613441 0.242342
3.077590 0.623665 0.242606
3.076639 0.633305 0.242672
3.076635 0.643149 0.242804
3.074648 0.652585 0.242804
3.072631 0.662014 0.242804
3.072535 0.671864 0.242935
3.071434 0.681503 0.243001
3.069329 0.690922 0.243001
3.070113 0.701001 0.243199
3.069892 0.710866 0.243331
3.068668 0.720509 0.243397
3.069356 0.730612 0.243595
3.071950 0.741194 0.243924
3.070631 0.750852 0.243990
3.070250 0.760748 0.244122
3.071774 0.771134 0.244386
3.069393 0.780554 0.244386
3.066984 0.789968 0.244386
3.066477 0.799876 0.244518
3.065938 0.809789 0.244650
3.063440 0.819192 0.244650
3.060912 0.828586 0.244650
3.061243 0.838763 0.244847
3.056732 0.847618 0.244715
3.073083 0.227945 0.219392
3.098247 0.239368 0.220943
3.095508 0.248713 0.220823
3.093735 0.258125 0.220764
3.090940 0.267444 0.220644
3.092093 0.277103 0.220764
3.088247 0.286312 0.220585
3.087353 0.295786 0.220585
3.085438 0.305158 0.220525
3.083494 0.314521 0.220465
3.083508 0.324084 0.220525
3.084484 0.333757 0.220644
3.082453 0.343108 0.220585
3.082378 0.352677 0.220644
3.081281 0.362132 0.220644
3.082138 0.371822 0.220764
3.081973 0.381399 0.220823
3.080789 0.390852 0.220823
3.079575 0.400302 0.220823
3.080312 0.410012 0.220943
3.082006 0.419864 0.221122
3.081692 0.429455 0.221181
3.083325 0.439330 0.221360
3.083939 0.449074 0.221479
3.083534 0.458680 0.221539
3.085073 0.468588 0.221718
3.087566 0.478662 0.221957
3.086083 0.488132 0.221957
3.084571 0.497598 0.221957
3.082045 0.506897 0.221897
3.080475 0.516350 0.221897
3.077893 0.525630 0.221837
3.074299 0.534729 0.221718
3.073627 0.544332 0.221778
3.071942 0.553759 0.221778
3.068265 0.562821 0.221658
3.068487 0.572598 0.221778
3.070638 0.582753 0.222016
3.072757 0.592927 0.222255
3.072882 0.602735 0.222374
3.073956 0.612745 0.222553
3.075975 0.622965 0.222792
3.075027 0.632600 0.222852
3.075026 0.642439 0.222971
3.074017 0.652077 0.223030
3.072978 0.661715 0.223090
3.068983 0.670714 0.222971
3.066911 0.680126 0.222971
3.064810 0.689532 0.222971
3.064626 0.699376 0.223090
3.063439 0.708999 0.223150
3.063193 0.718850 0.223269
3.061944 0.728476 0.223329
3.065517 0.739270 0.223687
3.067114 0.749618 0.223925
3.066737 0.759504 0.224045
3.068266 0.769881 0.224283
3.070727 0.780519 0.224581
3.068318 0.789937 0.224581
3.068778 0.800101 0.224760
3.066308 0.809513 0.224760
3.064775 0.819174 0.224820
3.059357 0.827791 0.224641
3.057765 0.837436 0.224701
3.055182 0.846813 0.224701
3.050647 0.855644 0.224581
3.090494 0.237317 0.201033
3.084774 0.246399 0.200766
3.084004 0.255862 0.200766
3.082209 0.265237 0.200713
3.080386 0.274603 0.200659
3.079530 0.284052 0.200659
3.080631 0.293688 0.200766
3.079716 0.303138 0.200766
3.079765 0.312686 0.200819
3.078791 0.322133 0.200819
3.077788 0.331577 0.200819
3.076757 0.341018 0.200819
3.077680 0.350683 0.200926
3.075598 0.360007 0.200873
3.075471 0.369560 0.200926
3.074322 0.378994 0.200926
3.073145 0.388424 0.200926
3.070949 0.397722 0.200873
3.070704 0.407273 0.200926
3.069440 0.416692 0.200926
3.068147 0.426107 0.200926
3.067814 0.435658 0.200980
3.068439 0.445355 0.201086
3.068046 0.454914 0.201140
3.067624 0.464474 0.201193
3.070132 0.474494 0.201407
3.075566 0.485000 0.201780
3.076035 0.494751 0.201887
3.073518 0.504024 0.201834
3.073926 0.513780 0.201941
3.071352 0.523041 0.201887
3.070716 0.532632 0.201941
3.068084 0.541877 0.201887
3.067390 0.551464 0.201941
3.064702 0.560692 0.201887
3.062967 0.570092 0.201887
3.063166 0.579858 0.201994
3.063334 0.589630 0.202101
3.062490 0.599218 0.202154
3.062596 0.609000 0.202261
3.063650 0.618987 0.202421
3.063693 0.628785 0.202528
3.063704 0.638589 0.202634
3.065638 0.648813 0.202848
3.063633 0.658215 0.202848
3.061599 0.667611 0.202848
3.060512 0.677216 0.202901
3.059394 0.686822 0.202955
3.058246 0.696426 0.203008
3.057068 0.706030 0.203062
3.056832 0.715862 0.203168
3.055593 0.725467 0.203222
3.058207 0.736007 0.203489
3.056905 0.745623 0.203542
3.058480 0.755957 0.203755
3.059052 0.766065 0.203916
3.059592 0.776183 0.204076
3.058163 0.785815 0.204129
3.055738 0.795193 0.204129
3.056180 0.805328 0.204289
3.054660 0.814958 0.204343
3.052145 0.824326 0.204343
3.050565 0.833949 0.204396
3.047030 0.843038 0.204343
3.043468 0.852113 0.204289
3.039878 0.861174 0.204236
3.079082 0.254003 0.181136
3.072317 0.262935 0.180853
3.071496 0.272359 0.180853
3.070646 0.281781 0.180853
3.070762 0.291295 0.180900
3.068860 0.300617 0.180853
3.067923 0.310031 0.180853
3.068944 0.319649 0.180947
3.068942 0.329170 0.180994
3.066925 0.338474 0.180947
3.068850 0.348221 0.181089
3.068759 0.357750 0.181136
3.068639 0.367282 0.181183
3.067497 0.376695 0.181183
3.066327 0.386104 0.181183
3.065128 0.395510 0.181183
3.061920 0.404649 0.181089
3.059675 0.413907 0.181041
3.057401 0.423154 0.180994
3.055099 0.432392 0.180947
3.055735 0.442050 0.181041
3.055353 0.451569 0.181089
3.054941 0.461090 0.181136
3.059435 0.471375 0.181418
3.060934 0.481226 0.181560
3.061416 0.490931 0.181654
3.061867 0.500644 0.181748
3.062287 0.510365 0.181842
3.060707 0.519757 0.181842
3.061066 0.529486 0.181937
3.060411 0.539049 0.181984
3.059726 0.548612 0.182031
3.056063 0.557637 0.181937
3.055320 0.567193 0.181984
3.054547 0.576750 0.182031
3.053744 0.586307 0.182078
3.052912 0.595865 0.182125
3.051069 0.605228 0.182125
3.051156 0.614981 0.182219
3.050234 0.624540 0.182266
3.051237 0.634506 0.182408
3.053185 0.644691 0.182596
3.055099 0.654894 0.182784
3.053076 0.664264 0.182784
3.054924 0.674490 0.182973
3.052841 0.683859 0.182973
3.053650 0.693887 0.183114
3.051507 0.703252 0.183114
3.052253 0.713294 0.183255
3.051022 0.722886 0.183303
3.051704 0.732943 0.183444
3.049441 0.742302 0.183444
3.049088 0.752134 0.183538
3.049674 0.762212 0.183679
3.049257 0.772056 0.183774
3.046874 0.781407 0.183774
3.046396 0.791254 0.183868
3.045886 0.801106 0.183962
3.044379 0.810704 0.184009
3.042842 0.820301 0.184056
3.042238 0.830159 0.184151
3.040640 0.839754 0.184198
3.036125 0.848541 0.184103
3.034469 0.858124 0.184151
3.027981 0.866329 0.183962
3.079594 0.257321 0.163430
3.070826 0.266081 0.163099
3.067010 0.275234 0.162975
3.065156 0.284550 0.162933
3.067252 0.294238 0.163058
3.065341 0.303548 0.163016
3.063401 0.312850 0.162975
3.063421 0.322351 0.163016
3.064404 0.331963 0.163099
3.062378 0.341252 0.163058
3.064295 0.350986 0.163182
3.068166 0.360967 0.163388
3.064068 0.370020 0.163264
3.060935 0.379174 0.163182
3.059757 0.388563 0.163182
3.056569 0.397691 0.163099
3.053354 0.406804 0.163016
3.050111 0.415900 0.162933
3.048821 0.425256 0.162933
3.050469 0.435030 0.163058
3.049120 0.444386 0.163058
3.050708 0.454179 0.163182
3.052263 0.463986 0.163306
3.053788 0.473806 0.163430
3.055280 0.483640 0.163554
3.055755 0.493329 0.163636
3.055213 0.502864 0.163678
3.053656 0.512235 0.163678
3.053055 0.521769 0.163719
3.053409 0.531475 0.163802
3.054715 0.541362 0.163926
3.054024 0.550908 0.163967
3.051336 0.560095 0.163926
3.049603 0.569454 0.163926
3.047842 0.578807 0.163926
3.046052 0.588155 0.163926
3.044233 0.597498 0.163926
3.042386 0.606834 0.163926
3.040510 0.616165 0.163926
3.040562 0.625893 0.164009
3.039606 0.635422 0.164050
3.041552 0.645573 0.164215
3.041511 0.655321 0.164298
3.043391 0.665502 0.164464
3.045237 0.675700 0.164629
3.043149 0.685039 0.164629
3.044930 0.695261 0.164794
3.042783 0.704599 0.164794
3.043525 0.714615 0.164918
3.043262 0.724411 0.165001
3.044911 0.734680 0.165166
3.041672 0.743782 0.165125
3.043255 0.754070 0.165291
3.042866 0.763888 0.165373
3.043413 0.773958 0.165497
3.040057 0.783042 0.165456
3.039574 0.792869 0.165539
3.039059 0.802700 0.165621
3.037548 0.812278 0.165663
3.036006 0.821854 0.165704
3.035398 0.831692 0.165787
3.033795 0.841267 0.165828
3.031199 0.850570 0.165828
3.030498 0.860411 0.165911
3.028805 0.869980 0.165952
3.036677 0.882331 0.166407
3.066698 0.264813 0.143653
3.055917 0.273331 0.143303
3.057054 0.282889 0.143373
3.059156 0.292552 0.143478
3.059239 0.302034 0.143513
3.056309 0.311216 0.143443
3.058322 0.320903 0.143548
3.059310 0.330499 0.143618
3.058282 0.339883 0.143618
3.056232 0.349151 0.143583
3.056139 0.358642 0.143618
3.055024 0.368017 0.143618
3.056856 0.377755 0.143723
3.048743 0.386253 0.143478
3.048534 0.395733 0.143513
3.045325 0.404821 0.143443
3.044068 0.414162 0.143443
3.044763 0.423774 0.143513
3.044438 0.433254 0.143548
3.044084 0.442736 0.143583
3.045677 0.452513 0.143688
3.046250 0.462155 0.143759
3.045806 0.471651 0.143794
3.047306 0.481461 0.143899
3.048774 0.491284 0.144004
3.047253 0.500635 0.144004
3.046688 0.510147 0.144039
3.047079 0.519827 0.144109
3.046455 0.529344 0.144144
3.044816 0.538688 0.144144
3.046100 0.548558 0.144250
3.044403 0.557901 0.144250
3.043659 0.567421 0.144285
3.043868 0.577128 0.144355
3.043064 0.586653 0.144390
3.042231 0.596179 0.144425
3.040388 0.605509 0.144425
3.038516 0.614834 0.144425
3.036615 0.624153 0.144425
3.034686 0.633467 0.144425
3.035661 0.643395 0.144530
3.036604 0.653336 0.144635
3.034585 0.662649 0.144635
3.036441 0.672820 0.144776
3.035338 0.682351 0.144811
3.038102 0.692771 0.144986
3.036936 0.702313 0.145021
3.036713 0.712083 0.145091
3.036459 0.721859 0.145161
3.036173 0.731639 0.145232
3.033914 0.740950 0.145232
3.035507 0.751215 0.145372
3.036097 0.761253 0.145477
3.034715 0.770810 0.145512
3.034272 0.780614 0.145582
3.033797 0.790423 0.145653
3.031358 0.799727 0.145653
3.029856 0.809281 0.145688
3.028323 0.818834 0.145723
3.027725 0.828648 0.145793
3.025168 0.837933 0.145793
3.024508 0.847749 0.145863
3.022855 0.857297 0.145898
3.022131 0.867118 0.145968
3.020417 0.876664 0.146003
3.019631 0.886489 0.146073
3.055422 0.263463 0.123000
3.046635 0.272123 0.122772
3.049767 0.281837 0.122886
3.053863 0.291668 0.123028
3.052954 0.301036 0.123028
3.052016 0.310401 0.123028
3.051049 0.319763 0.123028
3.050054 0.329122 0.123028
3.049030 0.338478 0.123028
3.048970 0.347944 0.123057
3.046896 0.357180 0.123028
3.045785 0.366526 0.123028
3.044647 0.375868 0.123028
3.043479 0.385208 0.123028
3.044266 0.394800 0.123085
3.045022 0.404402 0.123142
3.043767 0.413742 0.123142
3.042483 0.423078 0.123142
3.040181 0.432269 0.123114
3.039830 0.441738 0.123142
3.040438 0.451356 0.123199
3.039039 0.460682 0.123199
3.039587 0.470309 0.123256
3.039117 0.479788 0.123284
3.039604 0.489428 0.123341
3.039075 0.498913 0.123370
3.037530 0.508235 0.123370
3.038912 0.518056 0.123455
3.037309 0.527376 0.123455
3.036661 0.536866 0.123483
3.036967 0.546535 0.123540
3.036259 0.556029 0.123569
3.037487 0.565892 0.123654
3.040647 0.576139 0.123796
3.041810 0.586032 0.123882
3.039997 0.595362 0.123882
3.038157 0.604686 0.123882
3.036287 0.614004 0.123882
3.033410 0.623115 0.123853
3.029527 0.632010 0.123796
3.025618 0.640887 0.123739
3.024615 0.650376 0.123768
3.019675 0.659013 0.123682
3.019591 0.668706 0.123739
3.020451 0.678625 0.123825
3.022254 0.688777 0.123938
3.022074 0.698497 0.123995
3.024783 0.708906 0.124138
3.027456 0.719339 0.124280
3.026206 0.728858 0.124308
3.026869 0.738850 0.124394
3.028470 0.749093 0.124507
3.028096 0.758867 0.124564
3.025754 0.768154 0.124564
3.026287 0.778180 0.124650
3.025820 0.787965 0.124706
3.022422 0.796989 0.124678
3.020928 0.806516 0.124706
3.019405 0.816041 0.124735
3.018815 0.825829 0.124792
3.020121 0.836154 0.124906
3.021391 0.846495 0.125019
3.021665 0.856578 0.125105
3.020945 0.866396 0.125162
3.021152 0.876496 0.125247
3.018449 0.885761 0.125247
3.018592 0.895871 0.125332
3.051202 0.270552 0.105335
3.037415 0.278719 0.105040
3.042517 0.288605 0.105177
3.039628 0.297743 0.105131
3.039695 0.307167 0.105154
3.036749 0.316284 0.105109
3.033777 0.325385 0.105063
3.032764 0.334691 0.105063
3.032716 0.344107 0.105086
3.029660 0.353177 0.105040
3.029555 0.362590 0.105063
3.030413 0.372127 0.105109
3.031241 0.381673 0.105154
3.030056 0.390971 0.105154
3.031815 0.400659 0.105222
3.030571 0.409959 0.105222
3.032270 0.419667 0.105290
3.030968 0.428968 0.105290
3.031617 0.438551 0.105335
3.031246 0.447997 0.105358
3.032823 0.457743 0.105426
3.033381 0.467351 0.105472
3.033907 0.476966 0.105517
3.032430 0.486272 0.105517
3.033883 0.496058 0.105585
3.032347 0.505363 0.105585
3.030782 0.514664 0.105585
3.029189 0.523960 0.105585
3.027568 0.533251 0.105585
3.025917 0.542537 0.105585
3.024239 0.551818 0.105585
3.025480 0.561642 0.105653
3.027672 0.571665 0.105744
3.027867 0.581329 0.105789
3.029013 0.591191 0.105857
3.028166 0.600676 0.105880
3.030228 0.610755 0.105971
3.029320 0.620250 0.105993
3.024467 0.628929 0.105925
3.022523 0.638205 0.105925
3.020550 0.647475 0.105925
3.015619 0.656100 0.105857
3.014569 0.665564 0.105880
3.017390 0.675904 0.105993
3.018226 0.685824 0.106061
3.017082 0.695305 0.106084
3.022722 0.706381 0.106266
3.026377 0.717037 0.106402
3.025135 0.726552 0.106424
3.024834 0.736303 0.106470
3.026443 0.746539 0.106561
3.025109 0.756063 0.106583
3.020837 0.764849 0.106538
3.018476 0.774113 0.106538
3.017055 0.783622 0.106561
3.014636 0.792874 0.106561
3.014121 0.802635 0.106606
3.012610 0.812139 0.106629
3.014926 0.822695 0.106742
3.018169 0.833540 0.106878
3.018486 0.843604 0.106946
3.020693 0.854222 0.107060
3.020941 0.864312 0.107128
3.022117 0.874689 0.107218
3.019419 0.883957 0.107218
3.016693 0.893216 0.107218
3.010108 0.901318 0.107128
3.039535 0.292122 0.086553
3.031659 0.300757 0.086437
3.031717 0.310158 0.086453
3.030751 0.319458 0.086453
3.026775 0.328432 0.086404
3.025753 0.337717 0.086404
3.025696 0.347112 0.086420
3.025610 0.356509 0.086437
3.024502 0.365790 0.086437
3.021381 0.374822 0.086404
3.023192 0.384467 0.086453
3.022990 0.393869 0.086470
3.021767 0.403142 0.086470
3.023489 0.412815 0.086520
3.026169 0.422641 0.086586
3.031787 0.432910 0.086702
3.027477 0.441777 0.086652
3.028085 0.451357 0.086685
3.032617 0.461545 0.086785
3.032175 0.471000 0.086802
3.031703 0.480457 0.086818
3.027254 0.489278 0.086768
3.030671 0.499374 0.086851
3.026167 0.508174 0.086802
3.024593 0.517456 0.086802
3.022992 0.526733 0.086802
3.024315 0.536528 0.086851
3.021671 0.545626 0.086835
3.018016 0.554533 0.086802
3.022198 0.564890 0.086901
3.020450 0.574159 0.086901
3.021620 0.583991 0.086951
3.025701 0.594413 0.087050
3.024844 0.603888 0.087067
3.024937 0.613562 0.087100
3.026958 0.623645 0.087166
3.024051 0.632725 0.087150
3.025030 0.642622 0.087199
3.022067 0.651689 0.087183
3.018100 0.660531 0.087150
3.016059 0.669787 0.087150
3.020819 0.680573 0.087266
3.019691 0.690059 0.087282
3.020482 0.699997 0.087332
3.021241 0.709945 0.087382
3.025858 0.720830 0.087498
3.023632 0.730110 0.087498
3.022349 0.739620 0.087514
3.021036 0.749129 0.087531
3.019694 0.758638 0.087548
3.015414 0.767406 0.087514
3.013045 0.776653 0.087514
3.013551 0.786650 0.087564
3.013057 0.796402 0.087597
3.009634 0.805384 0.087581
3.010044 0.815397 0.087631
3.011386 0.825684 0.087697
3.019437 0.837856 0.087879
3.018778 0.847655 0.087912
3.019049 0.857732 0.087962
3.016403 0.866990 0.087962
3.016610 0.877076 0.088012
3.011027 0.885482 0.087962
3.010213 0.895285 0.087995
3.008410 0.904803 0.088012
3.029148 0.298536 0.068419
3.022249 0.307222 0.068355
3.025270 0.316908 0.068398
3.020307 0.325760 0.068355
3.016312 0.334694 0.068323
3.019245 0.344399 0.068366
3.021154 0.354009 0.068398
3.012111 0.362322 0.068313
3.011977 0.371684 0.068323
3.014791 0.381424 0.068366
3.012615 0.390543 0.068355
3.009420 0.399521 0.068334
3.011153 0.409155 0.068366
3.015826 0.419217 0.068430
3.014526 0.428467 0.068430
3.016166 0.438145 0.068462
3.017775 0.447836 0.068494
3.019353 0.457541 0.068526
3.019911 0.467108 0.068547
3.015501 0.475903 0.068515
3.015014 0.485311 0.068526
3.019431 0.495530 0.068589
3.017897 0.504791 0.068589
3.018306 0.514383 0.068611
3.017698 0.523812 0.068621
3.019031 0.533589 0.068653
3.013443 0.542141 0.068611
3.014717 0.551924 0.068643
3.015959 0.561719 0.068675
3.017169 0.571527 0.068707
3.014419 0.580592 0.068696
3.018512 0.590989 0.068760
3.020607 0.601027 0.068802
3.021689 0.610886 0.068834
3.023719 0.620957 0.068877
3.022779 0.630435 0.068888
3.022787 0.640120 0.068909
3.020809 0.649391 0.068909
3.020756 0.659081 0.068930
3.019696 0.668562 0.068941
3.020558 0.678480 0.068973
3.021387 0.688410 0.069005
3.022184 0.698351 0.069037
3.020027 0.707620 0.069037
3.021734 0.717806 0.069079
3.019517 0.727073 0.069079
3.016301 0.736096 0.069069
3.014028 0.745347 0.069069
3.013667 0.755076 0.069090
3.010367 0.764072 0.069079
3.008978 0.773553 0.069090
3.010461 0.783788 0.069132
3.009976 0.793530 0.069154
3.008494 0.803018 0.069164
3.007947 0.812766 0.069186
3.008332 0.822781 0.069218
3.007722 0.832540 0.069239
3.008042 0.842573 0.069271
3.008329 0.852615 0.069303
3.007622 0.862391 0.069324
3.005922 0.871893 0.069335
3.005152 0.881674 0.069356
3.003392 0.891173 0.069367
3.001601 0.900671 0.069377
2.998824 0.909875 0.069377
2.994106 0.918485 0.069356
2.988528 0.294151 0.048693
3.012483 0.305847 0.048797
3.007552 0.314671 0.048781
3.011544 0.324432 0.048802
3.006559 0.333229 0.048785
3.006516 0.342565 0.048789
3.007437 0.352020 0.048797
3.004357 0.361006 0.048789
3.002243 0.370099 0.048785
3.005062 0.379810 0.048802
3.001899 0.388771 0.048793
3.002675 0.398242 0.048802
3.004411 0.407856 0.048814
3.006117 0.417484 0.048827
3.003832 0.426564 0.048823
3.002510 0.435778 0.048823
3.002148 0.445134 0.048827
3.001757 0.454492 0.048831
3.003313 0.464158 0.048843
3.001875 0.473370 0.048843
2.999421 0.482418 0.048839
3.003848 0.492590 0.048864
3.004295 0.502133 0.048873
3.003726 0.511516 0.048877
3.001157 0.520558 0.048873
3.004470 0.530633 0.048894
3.000859 0.539494 0.048885
3.002141 0.549238 0.048898
3.002408 0.558812 0.048906
3.003627 0.568579 0.048919
3.007760 0.578926 0.048944
3.011858 0.589304 0.048969
3.010036 0.598542 0.048969
3.013086 0.608764 0.048990
3.014143 0.618609 0.049003
3.010273 0.627445 0.048994
3.006377 0.636263 0.048986
3.004411 0.645483 0.048986
2.998509 0.653845 0.048969
2.997465 0.663257 0.048973
2.995416 0.672450 0.048973
2.997239 0.682526 0.048990
3.000002 0.692844 0.049011
2.997863 0.702044 0.049011
2.997640 0.711700 0.049019
2.994471 0.720660 0.049015
3.009732 0.734111 0.049091
2.991934 0.739500 0.049024
2.992561 0.749405 0.049036
2.995094 0.759812 0.049057
2.995655 0.769745 0.049070
2.998117 0.780191 0.049091
2.998611 0.790150 0.049103
2.999071 0.800120 0.049116
2.996602 0.809317 0.049116
2.995070 0.818771 0.049120
2.995435 0.828756 0.049133
2.993841 0.838212 0.049137
2.991255 0.847393 0.049137
2.992486 0.857668 0.049153
2.990802 0.867124 0.049158
2.991965 0.877421 0.049174
2.992135 0.887450 0.049187
2.987483 0.896051 0.049179
2.986634 0.905792 0.049187
2.983841 0.914951 0.049187
2.980065 0.923805 0.049183
3.003650 0.313351 0.029888
3.001680 0.322457 0.029890
2.999683 0.331555 0.029892
2.998652 0.340756 0.029892
2.996599 0.349838 0.029894
2.996505 0.359149 0.029892
2.994396 0.368218 0.029894
2.997221 0.377905 0.029886
2.996047 0.387098 0.029886
2.996828 0.396551 0.029882
2.997579 0.406013 0.029878
2.999291 0.415620 0.029871
2.997012 0.424679 0.029873
2.995695 0.433872 0.029873
2.994349 0.443061 0.029873
2.992976 0.452245 0.029873
2.992563 0.461578 0.029871
2.993108 0.471069 0.029867
2.992636 0.480408 0.029865
2.996082 0.490397 0.029855
2.999495 0.500411 0.029844
2.998931 0.509779 0.029842
2.997353 0.518977 0.029842
2.996732 0.528344 0.029840
2.994112 0.537359 0.029842
2.993433 0.546722 0.029840
2.993708 0.556269 0.029836
2.994935 0.566009 0.029829
2.996130 0.575762 0.029823
2.997294 0.585528 0.029817
2.996464 0.594916 0.029815
2.992665 0.603710 0.029819
2.990798 0.612888 0.029819
2.992820 0.622878 0.029811
2.986982 0.631228 0.029819
2.980143 0.639338 0.029829
2.980121 0.648905 0.029825
2.982998 0.659125 0.029815
2.977059 0.667397 0.029823
2.977923 0.677194 0.029817
2.980703 0.687452 0.029806
2.983448 0.697734 0.029796
2.979347 0.706422 0.029800
2.982027 0.716729 0.029790
2.979814 0.725875 0.029790
2.982427 0.736213 0.029779
2.981124 0.745603 0.029777
2.982700 0.755729 0.029769
2.982304 0.765374 0.029764
2.981878 0.775024 0.029760
2.982387 0.784933 0.029754
2.985762 0.795627 0.029741
2.979445 0.803740 0.029750
2.977930 0.813141 0.029748
2.981204 0.823873 0.029735
2.982514 0.834094 0.029727
2.987638 0.845422 0.029710
2.987914 0.855411 0.029704
2.990077 0.865966 0.029693
2.989326 0.875698 0.029689
2.990460 0.886003 0.029681
2.986770 0.894886 0.029683
2.985924 0.904626 0.029679
2.983135 0.913782 0.029679
2.979362 0.922634 0.029681
2.974609 0.931172 0.029685
2.973449 0.303176 0.012829
2.992396 0.314379 0.012672
2.997383 0.324201 0.012625
2.995380 0.333285 0.012632
2.995337 0.342587 0.012625
2.997252 0.352124 0.012601
2.994171 0.361079 0.012617
2.995034 0.370508 0.012601
2.996860 0.380071 0.012578
2.998655 0.389649 0.012554
2.996454 0.398715 0.012562
2.999180 0.408445 0.012530
2.997913 0.417644 0.012530
2.995627 0.426699 0.012538
2.992325 0.435600 0.012554
2.990975 0.444778 0.012554
2.988607 0.453803 0.012562
2.991154 0.463581 0.012530
2.989717 0.472755 0.012530
2.991215 0.482402 0.012507
2.991694 0.491900 0.012491
2.993130 0.501571 0.012468
2.993549 0.511087 0.012452
2.994922 0.520782 0.012428
2.992326 0.529793 0.012436
2.992655 0.539325 0.012420
2.990986 0.548504 0.012420
2.993222 0.558410 0.012389
2.994442 0.568148 0.012365
2.992685 0.577332 0.012365
2.992862 0.586895 0.012350
2.992028 0.596269 0.012342
2.984304 0.604258 0.012389
2.981456 0.613209 0.012397
2.978582 0.622149 0.012405
2.972746 0.630456 0.012436
2.969820 0.639364 0.012444
2.971753 0.649324 0.012413
2.975605 0.659735 0.012365
2.971616 0.668423 0.012381
2.974426 0.678647 0.012342
2.977201 0.688894 0.012303
2.981889 0.699621 0.012248
2.976810 0.708073 0.012271
2.978512 0.718138 0.012240
2.980181 0.728221 0.012208
2.980845 0.738080 0.012185
2.977597 0.746979 0.012193
2.981107 0.757586 0.012146
2.978768 0.766729 0.012146
2.975434 0.775612 0.012153
2.975941 0.785501 0.012130
2.973518 0.794628 0.012130
2.972031 0.804007 0.012122
2.971480 0.813649 0.012106
2.980534 0.825962 0.012012
2.973172 0.833754 0.012051
2.976372 0.844507 0.012004
2.977612 0.854737 0.011973
2.979778 0.865260 0.011933
2.980948 0.875524 0.011902
2.981124 0.885518 0.011879
2.979351 0.894947 0.011871
2.975634 0.903793 0.011879
2.974759 0.913505 0.011863
2.972898 0.922923 0.011855
2.969098 0.931740 0.011863
3.007123 0.316065 -0.006871
2.995204 0.324108 -0.006713
2.996183 0.333516 -0.006742
2.997133 0.342934 -0.006771
2.996066 0.352128 -0.006771
2.994972 0.361318 -0.006771
2.995834 0.370750 -0.006799
