# This PCD file was generated using the MATLAB® pcwrite function
# from Computer Vision Toolbox®.
# .PCD v.7 - Point Cloud Data file format
VERSION .7
FIELDS x y z
SIZE 4 4 4
TYPE F F F
COUNT 1 1 1
WIDTH 1738
HEIGHT 1
VIEWPOINT 0 0 0 1 0 0 0
POINTS 1738
DATA ascii
2.018931 -0.128080 0.366315
2.014390 -0.121585 0.365503
2.010813 -0.115177 0.364854
2.006231 -0.108737 0.364043
2.000643 -0.102276 0.363069
1.999961 -0.096090 0.362907
1.998275 -0.089864 0.362582
1.998542 -0.083733 0.362582
1.997803 -0.077562 0.362420
1.997046 -0.071397 0.362258
1.994297 -0.065171 0.361771
1.994487 -0.059052 0.361771
1.994659 -0.052933 0.361771
1.996785 -0.046861 0.362095
1.992973 -0.040652 0.361446
1.992102 -0.034519 0.361284
1.988252 -0.028349 0.360635
1.986356 -0.022226 0.360310
1.983455 -0.016106 0.359823
1.984482 -0.010026 0.359986
1.983516 -0.003935 0.359823
1.981546 0.002149 0.359499
1.980543 0.008225 0.359336
1.979522 0.014295 0.359174
1.975522 0.020329 0.358525
1.975450 0.026390 0.358525
1.973387 0.032419 0.358200
1.971305 0.038436 0.357876
1.969205 0.044440 0.357551
1.970045 0.050506 0.357713
1.968895 0.056522 0.357551
1.965753 0.062470 0.357064
1.967525 0.068568 0.357389
1.966319 0.074567 0.357227
1.964109 0.080520 0.356902
1.963853 0.086545 0.356902
1.963578 0.092570 0.356902
1.961314 0.098496 0.356577
1.958046 0.104357 0.356090
1.956732 0.110309 0.355928
1.955399 0.116253 0.355766
1.953063 0.122130 0.355441
1.952680 0.128121 0.355441
1.950308 0.133977 0.355117
1.945951 0.139680 0.354468
1.943545 0.145503 0.354143
1.943090 0.151465 0.354143
1.939665 0.157188 0.353656
1.936224 0.162892 0.353169
1.940631 0.169257 0.353981
1.939119 0.175122 0.353818
1.936608 0.180888 0.353494
1.937026 0.186923 0.353656
1.938407 0.193059 0.353981
1.936824 0.198905 0.353818
1.937186 0.204949 0.353981
1.934586 0.210679 0.353656
1.932950 0.216504 0.353494
1.929336 0.222096 0.353007
1.927665 0.227899 0.352845
1.924998 0.233576 0.352520
1.923293 0.239359 0.352358
1.920592 0.245010 0.352033
1.918853 0.250774 0.351871
1.918074 0.256660 0.351871
1.918255 0.262676 0.352033
1.915486 0.268288 0.351709
1.916608 0.274441 0.352033
1.914780 0.280178 0.351871
1.917816 0.286632 0.352520
1.916927 0.292515 0.352520
2.045244 -0.322029 0.361235
2.047199 -0.315904 0.361392
2.063784 -0.311986 0.363892
2.060823 -0.305074 0.363267
2.059795 -0.298467 0.362954
2.059723 -0.292007 0.362798
2.057674 -0.285279 0.362329
2.057561 -0.278832 0.362173
2.055469 -0.272129 0.361704
2.054335 -0.265568 0.361392
2.052200 -0.258892 0.360923
2.050044 -0.252233 0.360454
2.048847 -0.245706 0.360142
2.043705 -0.238731 0.359204
2.043446 -0.232348 0.359048
2.041204 -0.225751 0.358579
2.038941 -0.219171 0.358110
2.036657 -0.212606 0.357641
2.030421 -0.205659 0.356548
2.029077 -0.199235 0.356235
2.026728 -0.192728 0.355766
2.025343 -0.186328 0.355454
2.023938 -0.179938 0.355141
2.022512 -0.173558 0.354829
2.022051 -0.167271 0.354672
2.021570 -0.160988 0.354516
2.021069 -0.154710 0.354360
2.021534 -0.148508 0.354360
2.020995 -0.142236 0.354204
2.016495 -0.135703 0.353422
2.015916 -0.129452 0.353266
2.014332 -0.123146 0.352954
2.012728 -0.116850 0.352641
2.009132 -0.110457 0.352016
2.005516 -0.104087 0.351391
2.003853 -0.097837 0.351078
2.003157 -0.091644 0.350922
2.003429 -0.085498 0.350922
2.003682 -0.079351 0.350922
2.003916 -0.073203 0.350922
2.002156 -0.066989 0.350610
2.000378 -0.060785 0.350297
1.997593 -0.054566 0.349828
1.996764 -0.048414 0.349672
1.992953 -0.042203 0.349047
1.993073 -0.036088 0.349047
1.987249 -0.029883 0.348109
1.985356 -0.023762 0.347797
1.986407 -0.017680 0.347953
1.981513 -0.011556 0.347172
1.981539 -0.005477 0.347172
1.981547 0.000602 0.347172
1.979560 0.006675 0.346859
1.976568 0.012730 0.346391
1.975531 0.018785 0.346234
1.975464 0.024846 0.346234
1.973404 0.030876 0.345922
1.972312 0.036911 0.345766
1.970215 0.042920 0.345453
1.970074 0.048964 0.345453
1.969914 0.055008 0.345453
1.964800 0.060899 0.344672
1.966578 0.066994 0.344984
1.965376 0.072990 0.344828
1.963169 0.078941 0.344515
1.960944 0.084878 0.344203
1.959688 0.090848 0.344047
1.958414 0.096811 0.343890
1.956135 0.102716 0.343578
1.953838 0.108608 0.343265
1.951523 0.114486 0.342953
1.947220 0.120230 0.342328
1.948813 0.126331 0.342640
1.945460 0.132109 0.342171
1.941104 0.137798 0.341546
1.941657 0.143825 0.341703
1.939237 0.149630 0.341390
1.935816 0.155342 0.340921
1.934346 0.161199 0.340765
1.936794 0.167387 0.341234
1.936271 0.173328 0.341234
1.933764 0.179086 0.340921
1.933205 0.185018 0.340921
1.935577 0.191239 0.341390
1.932033 0.196876 0.340921
1.933385 0.203009 0.341234
1.932753 0.208939 0.341234
1.932103 0.214868 0.341234
1.928491 0.220459 0.340765
1.925843 0.226144 0.340453
1.923179 0.231816 0.340140
1.923439 0.237836 0.340296
1.920740 0.243488 0.339984
1.919005 0.249252 0.339828
1.916273 0.254878 0.339515
1.916461 0.260889 0.339671
1.914673 0.266632 0.339515
1.915802 0.272783 0.339828
1.914956 0.278659 0.339828
1.914092 0.284533 0.339828
1.914186 0.290552 0.339984
2.071520 -0.320171 0.352284
2.061739 -0.312188 0.350631
2.051930 -0.304268 0.348979
2.051875 -0.297829 0.348829
2.051800 -0.291394 0.348678
2.052685 -0.285098 0.348678
2.048651 -0.278135 0.347927
2.047534 -0.271589 0.347627
2.045417 -0.264925 0.347176
2.045239 -0.258525 0.347026
2.042098 -0.251766 0.346425
2.040897 -0.245264 0.346125
2.036730 -0.238428 0.345373
2.039417 -0.232401 0.345674
2.038155 -0.225926 0.345373
2.033923 -0.219143 0.344622
2.033603 -0.212800 0.344472
2.032279 -0.206360 0.344172
2.030935 -0.199931 0.343871
2.026617 -0.193231 0.343120
2.023263 -0.186650 0.342519
2.020872 -0.180179 0.342068
2.017475 -0.173640 0.341468
2.017998 -0.167450 0.341468
2.016531 -0.161101 0.341167
2.013073 -0.154611 0.340566
2.011566 -0.148289 0.340266
2.012011 -0.142117 0.340266
2.006519 -0.135545 0.339364
2.005939 -0.129325 0.339214
2.003366 -0.122989 0.338763
2.004721 -0.116900 0.338914
2.002109 -0.110586 0.338463
2.001451 -0.104392 0.338313
2.000774 -0.098203 0.338163
2.000079 -0.092019 0.338012
2.000352 -0.085882 0.338012
1.997642 -0.079627 0.337562
1.997877 -0.073498 0.337562
1.993152 -0.067203 0.336811
1.991373 -0.061027 0.336510
1.986609 -0.054782 0.335759
1.986768 -0.048687 0.335759
1.983943 -0.042529 0.335308
1.981099 -0.036388 0.334858
1.977247 -0.030250 0.334257
1.977330 -0.024184 0.334257
1.975418 -0.018100 0.333956
1.975464 -0.012039 0.333956
1.975492 -0.005978 0.333956
1.975501 0.000082 0.333956
1.972525 0.006133 0.333506
1.969531 0.012166 0.333055
1.970473 0.018218 0.333205
1.969419 0.024251 0.333055
1.967359 0.030262 0.332754
1.966268 0.036279 0.332604
1.965159 0.042290 0.332454
1.963044 0.048270 0.332154
1.962886 0.054292 0.332154
1.962710 0.060314 0.332154
1.962516 0.066335 0.332154
1.959339 0.072246 0.331703
1.959109 0.078256 0.331703
1.955896 0.084138 0.331252
1.955629 0.090139 0.331252
1.946456 0.095699 0.329900
1.952077 0.101981 0.330802
1.948794 0.107805 0.330351
1.947467 0.113726 0.330201
1.945135 0.119578 0.329900
1.944759 0.125545 0.329900
1.941406 0.131310 0.329450
1.940007 0.137196 0.329299
1.937606 0.143001 0.328999
1.934200 0.148717 0.328548
1.931764 0.154492 0.328248
1.930296 0.160336 0.328097
1.929795 0.166257 0.328097
1.926322 0.171913 0.327647
1.926769 0.177913 0.327797
1.925230 0.183729 0.327647
1.924658 0.189635 0.327647
1.924067 0.195539 0.327647
1.927391 0.201854 0.328248
1.925780 0.207660 0.328097
1.925133 0.213567 0.328097
1.924469 0.219472 0.328097
1.921823 0.225145 0.327797
1.917197 0.230567 0.327196
1.919424 0.236811 0.327647
1.918689 0.242699 0.327647
1.914994 0.248202 0.327196
1.914223 0.254076 0.327196
1.916373 0.260348 0.327647
1.913607 0.265953 0.327346
1.914740 0.272102 0.327647
1.916831 0.278402 0.328097
1.915968 0.284281 0.328097
1.915087 0.290158 0.328097
1.914188 0.296032 0.328097
2.049597 -0.305159 0.336180
2.050524 -0.298870 0.336180
2.045553 -0.291742 0.335314
2.048399 -0.285738 0.335603
2.047305 -0.279186 0.335314
2.049133 -0.273033 0.335458
2.045054 -0.266110 0.334737
2.043897 -0.259586 0.334448
2.042720 -0.253072 0.334159
2.042504 -0.246686 0.334015
2.037354 -0.239728 0.333149
2.040047 -0.233700 0.333437
2.039771 -0.227331 0.333293
2.036523 -0.220648 0.332716
2.034238 -0.214090 0.332283
2.032916 -0.207648 0.331994
2.031574 -0.201217 0.331705
2.024302 -0.194231 0.330550
2.021932 -0.187747 0.330117
2.019542 -0.181279 0.329684
2.016145 -0.174743 0.329107
2.011741 -0.168148 0.328385
2.012247 -0.161975 0.328385
2.010761 -0.155649 0.328096
2.008269 -0.149261 0.327663
2.006743 -0.142960 0.327374
2.007172 -0.136802 0.327374
2.004620 -0.130453 0.326941
2.000073 -0.123999 0.326220
2.003407 -0.118035 0.326653
2.001784 -0.111779 0.326364
2.000141 -0.105534 0.326075
1.999467 -0.099348 0.325931
2.000751 -0.093259 0.326075
1.997073 -0.086951 0.325498
1.996342 -0.080784 0.325353
1.997569 -0.074695 0.325498
1.992844 -0.068399 0.324776
1.989088 -0.062164 0.324199
1.984324 -0.055925 0.323477
1.983497 -0.049812 0.323332
1.978694 -0.043621 0.322611
1.977829 -0.037532 0.322466
1.973977 -0.031403 0.321889
1.974064 -0.025347 0.321889
1.973143 -0.019281 0.321745
1.971214 -0.013215 0.321456
1.971245 -0.007168 0.321456
1.971258 -0.001120 0.321456
1.968284 0.004918 0.321023
1.967270 0.010951 0.320878
1.968216 0.016996 0.321023
1.967166 0.023022 0.320878
1.965107 0.029026 0.320590
1.965009 0.035055 0.320590
1.965881 0.041105 0.320734
1.964756 0.047112 0.320590
1.960646 0.053030 0.320012
1.961463 0.059075 0.320157
1.961273 0.065092 0.320157
1.957108 0.070963 0.319579
1.955893 0.076928 0.319435
1.954659 0.082886 0.319291
1.950442 0.088700 0.318713
1.949172 0.094635 0.318569
1.947884 0.100563 0.318424
1.947567 0.106538 0.318424
1.946243 0.112455 0.318280
1.943913 0.118304 0.317991
1.942554 0.124204 0.317847
1.939202 0.129963 0.317414
1.939781 0.135981 0.317558
1.939355 0.141932 0.317558
1.932004 0.147350 0.316548
1.932529 0.153355 0.316692
1.930077 0.159120 0.316403
1.929580 0.165040 0.316403
1.926108 0.170696 0.315970
1.926560 0.176695 0.316115
1.925024 0.182511 0.315970
1.921501 0.188125 0.315537
1.919930 0.193919 0.315393
1.922278 0.200118 0.315826
1.921655 0.206014 0.315826
1.921014 0.211909 0.315826
1.920355 0.217801 0.315826
1.919678 0.223692 0.315826
1.918000 0.229462 0.315682
1.916305 0.235224 0.315537
1.916556 0.241226 0.315682
1.914826 0.246978 0.315537
1.911116 0.252461 0.315104
1.912294 0.258589 0.315393
1.910511 0.264319 0.315249
1.910671 0.270318 0.315393
1.912771 0.276605 0.315826
1.911913 0.282472 0.315826
1.911037 0.288337 0.315826
1.911122 0.294349 0.315970
1.912164 0.300520 0.316259
2.048817 -0.302058 0.323556
2.052674 -0.296197 0.323972
2.050632 -0.289481 0.323556
2.051510 -0.283188 0.323556
2.051388 -0.276760 0.323418
2.049282 -0.270075 0.323003
2.047154 -0.263406 0.322587
2.044022 -0.256629 0.322033
2.043817 -0.250235 0.321895
2.041625 -0.243610 0.321479
2.039412 -0.237001 0.321064
2.040129 -0.230743 0.321064
2.037875 -0.224156 0.320648
2.034614 -0.217480 0.320094
2.034287 -0.211134 0.319956
2.034925 -0.204892 0.319956
2.032587 -0.198358 0.319540
2.027271 -0.191558 0.318710
2.025876 -0.185157 0.318433
2.024462 -0.178765 0.318156
2.022040 -0.172299 0.317740
2.016638 -0.165605 0.316909
2.018123 -0.159496 0.317048
2.014653 -0.153002 0.316494
2.012150 -0.146602 0.316078
2.005675 -0.139942 0.315109
2.007083 -0.133854 0.315248
2.003531 -0.127442 0.314694
2.001935 -0.121174 0.314417
2.002298 -0.115032 0.314417
2.002641 -0.108888 0.314417
1.998021 -0.102487 0.313724
1.997337 -0.096309 0.313586
1.996633 -0.090135 0.313447
1.998879 -0.084094 0.313724
1.998138 -0.077922 0.313586
1.995399 -0.071683 0.313170
1.992640 -0.065461 0.312755
1.987882 -0.059197 0.312062
1.985084 -0.053017 0.311647
1.987218 -0.046975 0.311924
1.979431 -0.040710 0.310816
1.978557 -0.034619 0.310678
1.973702 -0.028475 0.309985
1.972790 -0.022408 0.309847
1.969878 -0.016329 0.309431
1.971900 -0.010297 0.309708
1.967961 -0.004236 0.309154
1.967965 0.001802 0.309154
1.965969 0.007833 0.308877
1.963955 0.013851 0.308600
1.963903 0.019876 0.308600
1.963833 0.025902 0.308600
1.961764 0.031895 0.308323
1.961657 0.037914 0.308323
1.963512 0.043975 0.308600
1.964357 0.050023 0.308739
1.965185 0.056077 0.308877
1.964014 0.062076 0.308739
1.963814 0.068101 0.308739
1.958647 0.073941 0.308046
1.957422 0.079910 0.307908
1.955188 0.085830 0.307631
1.952937 0.091736 0.307354
1.950668 0.097629 0.307077
1.949371 0.103561 0.306939
1.949044 0.109541 0.306939
1.947710 0.115462 0.306800
1.949323 0.121559 0.307077
1.946965 0.127411 0.306800
1.944589 0.133250 0.306523
1.944170 0.139215 0.306523
1.943734 0.145179 0.306523
1.937355 0.150684 0.305692
1.933922 0.156389 0.305277
1.932446 0.162240 0.305138
1.932926 0.168253 0.305277
1.928455 0.173829 0.304723
1.928899 0.179836 0.304861
1.928338 0.185753 0.304861
1.926774 0.191571 0.304723
1.924206 0.197280 0.304446
1.925562 0.203389 0.304723
1.924929 0.209296 0.304723
1.922309 0.214982 0.304446
1.918689 0.220541 0.304031
1.918003 0.226426 0.304031
1.915333 0.232072 0.303754
1.912646 0.237704 0.303477
1.910925 0.243446 0.303338
1.910169 0.249308 0.303338
1.908414 0.255037 0.303200
1.906641 0.260757 0.303061
1.906813 0.266742 0.303200
1.908927 0.273009 0.303615
1.908081 0.278864 0.303615
1.908196 0.284863 0.303754
1.907313 0.290716 0.303754
1.906412 0.296566 0.303754
1.904515 0.302258 0.303615
1.900645 0.307627 0.303200
2.049436 -0.296239 0.310732
2.046410 -0.289394 0.310202
2.049252 -0.283386 0.310467
2.049129 -0.276965 0.310335
2.048004 -0.270417 0.310070
2.045875 -0.263752 0.309672
2.044708 -0.257226 0.309408
2.042536 -0.250589 0.309010
2.037390 -0.243614 0.308216
2.035174 -0.237018 0.307818
2.036877 -0.230885 0.307951
2.034620 -0.224309 0.307553
2.033327 -0.217854 0.307289
2.030043 -0.211204 0.306759
2.032654 -0.205174 0.307024
2.031301 -0.198744 0.306759
2.029927 -0.192323 0.306494
2.028533 -0.185913 0.306229
2.030082 -0.179777 0.306362
2.026673 -0.173209 0.305832
2.023244 -0.166664 0.305302
2.021770 -0.160299 0.305037
2.019287 -0.153869 0.304640
2.017772 -0.147529 0.304375
2.013272 -0.140990 0.303713
2.013695 -0.134813 0.303713
2.008164 -0.128254 0.302918
2.007559 -0.122033 0.302786
2.002976 -0.115586 0.302124
2.006290 -0.109604 0.302521
2.004637 -0.103345 0.302256
2.003955 -0.097147 0.302124
2.002263 -0.090908 0.301859
2.005503 -0.084891 0.302256
2.002783 -0.078620 0.301859
2.002024 -0.072440 0.301727
2.000256 -0.066231 0.301462
2.000450 -0.060094 0.301462
1.995671 -0.053822 0.300800
1.988890 -0.047532 0.299873
1.989026 -0.041430 0.299873
1.986171 -0.035274 0.299475
1.982306 -0.029121 0.298946
1.977430 -0.022981 0.298283
1.977491 -0.016914 0.298283
1.974560 -0.010831 0.297886
1.969628 -0.004760 0.297224
1.971616 0.001284 0.297489
1.968629 0.007322 0.297092
1.965624 0.013342 0.296694
1.965574 0.019373 0.296694
1.964514 0.025390 0.296562
1.963436 0.031402 0.296429
1.963330 0.037425 0.296429
1.962215 0.043427 0.296297
1.965045 0.049521 0.296694
1.963893 0.055521 0.296562
1.963714 0.061546 0.296562
1.961535 0.067503 0.296297
1.960328 0.073483 0.296165
1.960093 0.079497 0.296165
1.956869 0.085381 0.295767
1.952638 0.091200 0.295238
1.952348 0.097191 0.295238
1.951051 0.103128 0.295105
1.950726 0.109113 0.295105
1.948403 0.114981 0.294840
1.950019 0.121080 0.295105
1.949639 0.127062 0.295105
1.949240 0.133043 0.295105
1.947834 0.138952 0.294973
1.948387 0.145001 0.295105
1.942992 0.150596 0.294443
1.942520 0.156556 0.294443
1.938080 0.162185 0.293913
1.938561 0.168216 0.294046
1.935074 0.173897 0.293648
1.934531 0.179833 0.293648
1.934957 0.185861 0.293781
1.932405 0.191602 0.293516
1.931808 0.197529 0.293516
1.931193 0.203455 0.293516
1.930560 0.209379 0.293516
1.927938 0.215082 0.293251
1.923330 0.220544 0.292721
1.922644 0.226444 0.292721
1.918988 0.231985 0.292324
1.916300 0.237628 0.292059
1.914579 0.243381 0.291927
1.912840 0.249126 0.291794
1.908137 0.254470 0.291265
1.905383 0.260055 0.291000
1.905558 0.266037 0.291132
1.904733 0.271882 0.291132
1.902909 0.277581 0.291000
1.903029 0.283564 0.291132
1.902150 0.289401 0.291132
1.903212 0.295539 0.291397
1.902296 0.301376 0.291397
1.899406 0.306895 0.291132
1.898455 0.312721 0.291132
2.068456 -0.300599 0.300811
2.049726 -0.291462 0.298280
2.036855 -0.283262 0.296508
2.037714 -0.277011 0.296508
2.035605 -0.270367 0.296128
2.031506 -0.263484 0.295496
2.031321 -0.257126 0.295369
2.026193 -0.250164 0.294610
2.025966 -0.243829 0.294483
2.022763 -0.237151 0.293977
2.026438 -0.231281 0.294357
2.023195 -0.224625 0.293851
2.022888 -0.218311 0.293724
2.020588 -0.211794 0.293344
2.026163 -0.206095 0.293977
2.022837 -0.199489 0.293471
2.024427 -0.193376 0.293598
2.021060 -0.186800 0.293091
2.021623 -0.180599 0.293091
2.013273 -0.173630 0.291952
2.011819 -0.167289 0.291699
2.009357 -0.160879 0.291320
2.009841 -0.154714 0.291320
2.007338 -0.148328 0.290940
2.003826 -0.141889 0.290434
2.004252 -0.135741 0.290434
2.001689 -0.129400 0.290054
2.001086 -0.123198 0.289928
1.999474 -0.116942 0.289675
1.998833 -0.110753 0.289548
1.995201 -0.104413 0.289042
1.992540 -0.098146 0.288662
1.990850 -0.091941 0.288409
1.997069 -0.086088 0.289168
1.998315 -0.080000 0.289295
1.995577 -0.073760 0.288915
1.992820 -0.067537 0.288536
1.993017 -0.061423 0.288536
1.987247 -0.055144 0.287776
1.985423 -0.048998 0.287523
1.986556 -0.042928 0.287650
1.983703 -0.036779 0.287270
1.978847 -0.030617 0.286638
1.977940 -0.024534 0.286511
1.978998 -0.018474 0.286638
1.976069 -0.012385 0.286258
1.973122 -0.006313 0.285878
1.971148 -0.000260 0.285625
1.969156 0.005781 0.285372
1.965161 0.011798 0.284866
1.962140 0.017799 0.284486
1.959101 0.023782 0.284107
1.958027 0.029777 0.283980
1.954951 0.035729 0.283600
1.954832 0.041727 0.283600
1.952711 0.047675 0.283347
1.952556 0.053666 0.283347
1.953374 0.059686 0.283474
1.951198 0.065612 0.283221
1.951979 0.071634 0.283347
1.950759 0.077583 0.283221
1.952494 0.083653 0.283474
1.950246 0.089551 0.283221
1.949962 0.095534 0.283221
1.945698 0.101309 0.282715
1.946368 0.107333 0.282841
1.944049 0.113188 0.282588
1.945673 0.119273 0.282841
1.945298 0.125242 0.282841
1.945894 0.131276 0.282968
1.942514 0.137036 0.282588
1.943074 0.143068 0.282715
1.941636 0.148952 0.282588
1.937215 0.154592 0.282082
1.927835 0.159795 0.280943
1.934253 0.166305 0.281829
1.932746 0.172150 0.281702
1.932209 0.178079 0.281702
1.930666 0.183912 0.281576
1.929106 0.189737 0.281449
1.929501 0.195755 0.281576
1.928892 0.201674 0.281576
1.926291 0.207378 0.281323
1.923674 0.213068 0.281070
1.923011 0.218968 0.281070
1.919375 0.224521 0.280690
1.915722 0.230053 0.280310
1.914023 0.235808 0.280184
1.910338 0.241305 0.279804
1.906638 0.246782 0.279424
1.904888 0.252500 0.279298
1.903122 0.258209 0.279171
1.899373 0.263637 0.278792
1.900520 0.269742 0.279045
1.896738 0.275144 0.278665
1.893923 0.280670 0.278412
1.894033 0.286628 0.278539
1.893145 0.292438 0.278539
1.891259 0.298090 0.278412
1.893274 0.304364 0.278792
1.893310 0.310331 0.278918
2.031487 -0.283030 0.282484
2.030378 -0.276529 0.282244
2.029249 -0.270038 0.282003
2.026130 -0.263301 0.281523
2.023973 -0.256711 0.281162
2.019825 -0.249894 0.280562
2.016639 -0.243223 0.280081
2.014418 -0.236689 0.279721
2.016121 -0.230620 0.279841
2.014845 -0.224215 0.279601
2.016511 -0.218138 0.279721
2.015196 -0.211744 0.279480
2.017811 -0.205761 0.279721
2.018433 -0.199570 0.279721
2.016071 -0.193094 0.279360
2.012699 -0.186544 0.278880
2.012274 -0.180280 0.278760
2.002926 -0.173256 0.277558
2.001469 -0.166946 0.277318
1.999003 -0.160568 0.276958
2.001466 -0.154586 0.277198
1.996981 -0.148081 0.276597
1.999406 -0.142093 0.276837
1.998842 -0.135892 0.276717
1.999250 -0.129759 0.276717
1.996666 -0.123442 0.276357
1.996044 -0.117258 0.276237
1.994412 -0.111025 0.275996
1.992760 -0.104803 0.275756
1.990098 -0.098543 0.275396
1.987415 -0.092300 0.275035
1.988681 -0.086245 0.275155
1.983976 -0.079947 0.274555
1.985204 -0.073896 0.274675
1.984429 -0.067772 0.274555
1.983636 -0.061653 0.274435
1.981831 -0.055512 0.274194
1.980007 -0.049384 0.273954
1.979157 -0.043288 0.273834
1.978287 -0.037197 0.273714
1.976407 -0.031098 0.273474
1.971530 -0.024974 0.272873
1.969612 -0.018908 0.272633
1.968668 -0.012859 0.272512
1.966712 -0.006814 0.272272
1.965731 -0.000780 0.272152
1.960760 0.005235 0.271551
1.962721 0.011263 0.271792
1.957713 0.017238 0.271191
1.953681 0.023194 0.270710
1.953600 0.029188 0.270710
1.951516 0.035144 0.270470
1.948422 0.041067 0.270110
1.949279 0.047069 0.270230
1.947141 0.052994 0.269990
1.947961 0.058998 0.270110
1.943802 0.064839 0.269629
1.946570 0.070913 0.269990
1.945352 0.076844 0.269869
1.943123 0.082727 0.269629
1.942860 0.088688 0.269629
1.942579 0.094648 0.269629
1.939305 0.100451 0.269269
1.938988 0.106401 0.269269
1.936670 0.112233 0.269029
1.935326 0.118113 0.268908
1.935945 0.124114 0.269029
1.935555 0.130053 0.269029
1.934157 0.135920 0.268908
1.932741 0.141780 0.268788
1.931307 0.147633 0.268668
1.929855 0.153478 0.268548
1.927397 0.159233 0.268308
1.928877 0.165316 0.268548
1.928361 0.171233 0.268548
1.924861 0.176874 0.268188
1.923321 0.182684 0.268067
1.923739 0.188682 0.268188
1.922164 0.194482 0.268067
1.921558 0.200378 0.268067
1.919947 0.206166 0.267947
1.918319 0.211946 0.267827
1.914701 0.217492 0.267467
1.913039 0.223250 0.267347
1.912345 0.229118 0.267347
1.911633 0.234984 0.267347
1.908933 0.240598 0.267106
1.908186 0.246453 0.267106
1.906437 0.252176 0.266986
1.903687 0.257756 0.266746
1.900920 0.263321 0.266506
1.900104 0.269152 0.266506
1.897304 0.274695 0.266265
1.894488 0.280222 0.266025
1.893620 0.286033 0.266025
1.892733 0.291841 0.266025
1.890848 0.297492 0.265905
1.890907 0.303450 0.266025
1.888987 0.309088 0.265905
1.889009 0.315046 0.266025
2.035094 -0.281272 0.271342
2.029057 -0.274092 0.270540
2.032842 -0.268258 0.270883
2.028730 -0.261382 0.270310
2.027551 -0.254908 0.270081
2.020436 -0.247715 0.269165
2.020200 -0.241396 0.269050
2.021918 -0.235313 0.269165
2.020656 -0.228884 0.268935
2.021349 -0.222683 0.268935
2.021035 -0.216375 0.268821
2.021689 -0.210173 0.268821
2.024301 -0.204170 0.269050
2.022941 -0.197764 0.268821
2.018593 -0.191086 0.268248
2.016202 -0.184619 0.267904
2.011812 -0.177992 0.267331
2.005420 -0.171223 0.266529
2.008906 -0.165316 0.266873
2.002472 -0.158599 0.266071
1.999977 -0.152227 0.265727
1.995481 -0.145726 0.265154
1.995919 -0.139603 0.265154
1.997329 -0.133546 0.265268
1.995747 -0.127290 0.265039
1.998111 -0.121288 0.265268
1.995498 -0.114984 0.264925
1.993858 -0.108752 0.264695
1.992198 -0.102531 0.264466
1.988534 -0.096224 0.264008
1.986835 -0.090032 0.263779
1.987102 -0.083936 0.263779
1.984373 -0.077721 0.263435
1.983609 -0.071596 0.263320
1.980841 -0.065410 0.262977
1.981032 -0.059333 0.262977
1.980212 -0.053227 0.262862
1.975400 -0.047031 0.262289
1.975535 -0.040970 0.262289
1.975652 -0.034909 0.262289
1.971776 -0.028787 0.261831
1.969869 -0.022714 0.261602
1.965955 -0.016634 0.261143
1.967984 -0.010615 0.261372
1.964034 -0.004565 0.260914
1.964038 0.001460 0.260914
1.962038 0.007479 0.260685
1.960019 0.013486 0.260456
1.957982 0.019481 0.260226
1.953939 0.025439 0.259768
1.954845 0.031448 0.259883
1.954740 0.037446 0.259883
1.951636 0.043378 0.259539
1.951494 0.049365 0.259539
1.951333 0.055352 0.259539
1.948175 0.061247 0.259195
1.945000 0.067122 0.258851
1.943792 0.073052 0.258737
1.944551 0.079055 0.258851
1.941322 0.084892 0.258508
1.940060 0.090802 0.258393
1.937788 0.096656 0.258164
1.934506 0.102445 0.257820
1.934183 0.108379 0.257820
1.934833 0.114371 0.257935
1.933481 0.120245 0.257820
1.932112 0.126112 0.257705
1.930725 0.131972 0.257591
1.929320 0.137825 0.257476
1.928888 0.143743 0.257476
1.927447 0.149584 0.257362
1.924999 0.155338 0.257133
1.923523 0.161161 0.257018
1.923020 0.167061 0.257018
1.923488 0.173048 0.257133
1.919980 0.178674 0.256789
1.917445 0.184375 0.256560
1.916871 0.190257 0.256560
1.914301 0.195936 0.256330
1.911715 0.201601 0.256101
1.910100 0.207358 0.255987
1.907480 0.212998 0.255757
1.903857 0.218511 0.255414
1.903177 0.224351 0.255414
1.904453 0.230426 0.255643
1.901765 0.236024 0.255414
1.903003 0.242107 0.255643
1.903236 0.248072 0.255757
1.903451 0.254041 0.255872
1.900694 0.259612 0.255643
1.900872 0.265579 0.255757
1.901032 0.271549 0.255872
1.897241 0.276951 0.255528
1.894417 0.282479 0.255299
1.893542 0.288290 0.255299
1.891667 0.293946 0.255184
1.889775 0.299593 0.255070
1.888847 0.305389 0.255070
1.885940 0.310861 0.254841
1.883998 0.316481 0.254726
2.014006 -0.284806 0.256144
2.032595 -0.281080 0.258094
2.041329 -0.275909 0.258961
2.040195 -0.269385 0.258744
2.034111 -0.262233 0.257986
2.035892 -0.256115 0.258094
2.036668 -0.249868 0.258094
2.034464 -0.243264 0.257769
2.029276 -0.236330 0.257119
2.030979 -0.230215 0.257228
2.034640 -0.224311 0.257553
2.030377 -0.217537 0.257011
2.031034 -0.211307 0.257011
2.031673 -0.205075 0.257011
2.028335 -0.198453 0.256578
2.024976 -0.191853 0.256144
2.022585 -0.185367 0.255819
2.018193 -0.178722 0.255277
2.013780 -0.172105 0.254736
2.008354 -0.165435 0.254086
2.007861 -0.159194 0.253977
2.003384 -0.152655 0.253435
2.001860 -0.146362 0.253219
1.997341 -0.139872 0.252677
2.000736 -0.133943 0.253002
1.999154 -0.127677 0.252785
1.997551 -0.121422 0.252569
1.997915 -0.115293 0.252569
1.999251 -0.109218 0.252677
1.997592 -0.102981 0.252460
1.993926 -0.096659 0.252027
1.993220 -0.090495 0.251919
1.993489 -0.084380 0.251919
1.992745 -0.078224 0.251810
1.990988 -0.072038 0.251594
1.986232 -0.065764 0.251052
1.985431 -0.059640 0.250944
1.984611 -0.053522 0.250835
1.980791 -0.047337 0.250402
1.979933 -0.041239 0.250293
1.980050 -0.035164 0.250293
1.976172 -0.029030 0.249860
1.974264 -0.022944 0.249643
1.972337 -0.016869 0.249427
1.971385 -0.010813 0.249318
1.969421 -0.004759 0.249102
1.968432 0.001282 0.248993
1.968419 0.007322 0.248993
1.965405 0.013341 0.248668
1.963367 0.019351 0.248452
1.962304 0.025362 0.248343
1.961223 0.031367 0.248235
1.961118 0.037383 0.248235
1.959006 0.043356 0.248018
1.956876 0.049316 0.247801
1.955722 0.055292 0.247693
1.953556 0.061230 0.247476
1.951372 0.067155 0.247260
1.948176 0.073030 0.246935
1.947943 0.079007 0.246935
1.944712 0.084853 0.246610
1.941463 0.090681 0.246285
1.939190 0.096538 0.246068
1.935907 0.102330 0.245743
1.935584 0.108269 0.245743
1.935242 0.114207 0.245743
1.934883 0.120143 0.245743
1.932521 0.125950 0.245526
1.933117 0.131946 0.245635
1.932703 0.137876 0.245635
1.932271 0.143805 0.245635
1.931821 0.149732 0.245635
1.930362 0.155579 0.245526
1.928885 0.161417 0.245418
1.929371 0.167420 0.245526
1.925878 0.173072 0.245201
1.923358 0.178796 0.244984
1.919832 0.184412 0.244659
1.918267 0.190203 0.244551
1.915697 0.195885 0.244334
1.913110 0.201554 0.244118
1.913471 0.207529 0.244226
1.909861 0.213068 0.243901
1.908211 0.218814 0.243793
1.907530 0.224667 0.243793
1.909793 0.230875 0.244118
1.910062 0.236856 0.244226
1.911299 0.242965 0.244443
1.910545 0.248828 0.244443
1.907801 0.254425 0.244226
1.905042 0.260009 0.244009
1.906204 0.266127 0.244226
1.904395 0.271833 0.244118
1.902568 0.277531 0.244009
1.898758 0.282928 0.243684
1.897881 0.288752 0.243684
1.895021 0.294269 0.243468
1.893128 0.299926 0.243359
1.891217 0.305574 0.243251
1.891252 0.311536 0.243359
1.886365 0.316679 0.242926
1.886365 0.322632 0.243034
2.030728 -0.282411 0.245345
2.046371 -0.278187 0.246880
2.039325 -0.270861 0.246061
2.035214 -0.263964 0.245550
2.035028 -0.257594 0.245448
2.032846 -0.250985 0.245141
2.032619 -0.244628 0.245039
2.029408 -0.237928 0.244630
2.033094 -0.232039 0.244936
2.030830 -0.225472 0.244630
2.026567 -0.218707 0.244118
2.027228 -0.212489 0.244118
2.028860 -0.206369 0.244220
2.027504 -0.199949 0.244016
2.022166 -0.193161 0.243402
2.019778 -0.186682 0.243095
2.015387 -0.180043 0.242584
2.010974 -0.173433 0.242073
2.006540 -0.166851 0.241561
2.005059 -0.160536 0.241357
2.001575 -0.154079 0.240948
2.000054 -0.147791 0.240743
1.996529 -0.141374 0.240334
1.996953 -0.135248 0.240334
1.995374 -0.128993 0.240130
1.994767 -0.122810 0.240027
1.993148 -0.116574 0.239823
1.995483 -0.110568 0.240027
1.992833 -0.104290 0.239721
1.990163 -0.098029 0.239414
1.987473 -0.091786 0.239107
1.986751 -0.085645 0.239005
1.984023 -0.079431 0.238698
1.981275 -0.073234 0.238391
1.981490 -0.067155 0.238391
1.980693 -0.061045 0.238289
1.980871 -0.054968 0.238289
1.977052 -0.048793 0.237880
1.975203 -0.042685 0.237675
1.976320 -0.036643 0.237777
1.974433 -0.030550 0.237573
1.972529 -0.024468 0.237368
1.969610 -0.018389 0.237061
1.969657 -0.012346 0.237061
1.969686 -0.006303 0.237061
1.969696 -0.000260 0.237061
1.966703 0.005774 0.236755
1.963692 0.011789 0.236448
1.964641 0.017822 0.236550
1.962588 0.023825 0.236346
1.959522 0.029800 0.236039
1.957432 0.035775 0.235834
1.957313 0.041780 0.235834
1.952203 0.047663 0.235323
1.950059 0.053597 0.235118
1.947897 0.059518 0.234914
1.946711 0.065460 0.234811
1.945507 0.071396 0.234709
1.944285 0.077324 0.234607
1.943045 0.083246 0.234505
1.940793 0.089115 0.234300
1.938523 0.094971 0.234096
1.937229 0.100866 0.233993
1.936911 0.106809 0.233993
1.936574 0.112751 0.233993
1.935226 0.118631 0.233891
1.932867 0.124439 0.233686
1.932477 0.130368 0.233686
1.931075 0.136226 0.233584
1.931640 0.142223 0.233686
1.928219 0.147920 0.233380
1.927756 0.153835 0.233380
1.925293 0.159584 0.233175
1.922812 0.165319 0.232971
1.920314 0.171040 0.232766
1.917799 0.176748 0.232561
1.913287 0.182253 0.232152
1.912719 0.188122 0.232152
1.911143 0.193889 0.232050
1.909550 0.199647 0.231948
1.909917 0.205611 0.232050
1.907300 0.211251 0.231846
1.906643 0.217101 0.231846
1.905968 0.222950 0.231846
1.906263 0.228915 0.231948
1.906539 0.234884 0.232050
1.906796 0.240857 0.232152
1.905062 0.246578 0.232050
1.903310 0.252290 0.231948
1.901541 0.257995 0.231846
1.896800 0.263279 0.231437
1.898938 0.269517 0.231743
1.897117 0.275199 0.231641
1.895280 0.280872 0.231539
1.893426 0.286536 0.231437
1.890572 0.292040 0.231232
1.890650 0.297993 0.231334
1.890709 0.303951 0.231437
1.889767 0.309750 0.231437
1.886846 0.315218 0.231232
1.885870 0.321005 0.231232
1.887816 0.327300 0.231539
2.014087 -0.280971 0.230830
2.004090 -0.273317 0.229774
2.039455 -0.271749 0.233135
2.033369 -0.264596 0.232462
2.035159 -0.258481 0.232558
2.032978 -0.251871 0.232270
2.027812 -0.244920 0.231694
2.026577 -0.238466 0.231502
2.024332 -0.231909 0.231214
2.020087 -0.225149 0.230734
2.017799 -0.218630 0.230446
2.019451 -0.212543 0.230542
2.020093 -0.206346 0.230542
2.015764 -0.199660 0.230062
2.014385 -0.193286 0.229870
2.014969 -0.187105 0.229870
2.010576 -0.180480 0.229390
2.007153 -0.173969 0.229006
2.004702 -0.167563 0.228718
2.001237 -0.161095 0.228334
1.997752 -0.154650 0.227950
1.998217 -0.148520 0.227950
1.994692 -0.142108 0.227565
1.996112 -0.136055 0.227661
1.995527 -0.129866 0.227565
1.996909 -0.123804 0.227661
1.994298 -0.117503 0.227373
1.992662 -0.111275 0.227181
1.989018 -0.104953 0.226797
1.985354 -0.098655 0.226413
1.979681 -0.092289 0.225837
1.974983 -0.086002 0.225357
1.977226 -0.080021 0.225549
1.972489 -0.073772 0.225069
1.972706 -0.067720 0.225069
1.972904 -0.061668 0.225069
1.973084 -0.055614 0.225069
1.970261 -0.049488 0.224781
1.970403 -0.043443 0.224781
1.970527 -0.037397 0.224781
1.967647 -0.031306 0.224493
1.967734 -0.025269 0.224493
1.965811 -0.019214 0.224301
1.964865 -0.013177 0.224205
1.963901 -0.007145 0.224109
1.962919 -0.001120 0.224013
1.959927 0.004893 0.223725
1.958907 0.010899 0.223629
1.959860 0.016918 0.223725
1.956813 0.022894 0.223437
1.952752 0.028837 0.223053
1.950664 0.034791 0.222861
1.947563 0.040711 0.222572
1.945438 0.046637 0.222380
1.943296 0.052550 0.222188
1.943126 0.058512 0.222188
1.942937 0.064473 0.222188
1.940741 0.070360 0.221996
1.940516 0.076314 0.221996
1.939278 0.082224 0.221900
1.939017 0.088174 0.221900
1.938737 0.094122 0.221900
1.935457 0.099914 0.221612
1.934148 0.105796 0.221516
1.931827 0.111614 0.221324
1.931475 0.117540 0.221324
1.929119 0.123337 0.221132
1.927738 0.129187 0.221036
1.925347 0.134961 0.220844
1.923931 0.140794 0.220748
1.922498 0.146619 0.220652
1.921047 0.152437 0.220556
1.920570 0.158330 0.220556
1.920075 0.164222 0.220556
1.917579 0.169935 0.220364
1.915067 0.175634 0.220172
1.912537 0.181319 0.219980
1.913953 0.187381 0.220172
1.913369 0.193252 0.220172
1.912767 0.199122 0.220172
1.911158 0.204882 0.220076
1.908541 0.210525 0.219884
1.907887 0.216380 0.219884
1.906225 0.222116 0.219788
1.906523 0.228082 0.219884
1.907790 0.234174 0.220076
1.905088 0.239776 0.219884
1.902369 0.245364 0.219692
1.900620 0.251068 0.219596
1.898855 0.256764 0.219500
1.899044 0.262725 0.219596
1.897243 0.268410 0.219500
1.894441 0.273943 0.219308
1.893592 0.279754 0.219308
1.890756 0.285264 0.219116
1.888888 0.290911 0.219020
1.887987 0.296705 0.219020
1.887068 0.302496 0.219020
1.887113 0.308445 0.219116
1.885176 0.314069 0.219020
1.886166 0.320186 0.219212
1.885175 0.325971 0.219212
1.886127 0.332099 0.219404
2.015264 -0.265573 0.219025
2.035823 -0.261942 0.220830
2.033653 -0.255321 0.220559
2.033438 -0.248959 0.220469
2.036170 -0.242956 0.220650
2.032949 -0.236246 0.220289
2.030695 -0.229671 0.220018
2.028421 -0.223111 0.219747
2.026125 -0.216568 0.219476
2.023808 -0.210040 0.219205
2.020480 -0.203429 0.218844
2.019112 -0.197035 0.218663
2.019707 -0.190839 0.218663
2.016316 -0.184277 0.218302
2.012904 -0.177738 0.217941
2.011455 -0.171391 0.217761
2.008002 -0.164891 0.217399
2.004527 -0.158414 0.217038
2.003017 -0.152111 0.216858
2.002481 -0.145892 0.216767
1.999939 -0.139538 0.216497
1.997377 -0.133202 0.216226
1.999764 -0.127201 0.216406
1.997163 -0.120883 0.216135
1.994541 -0.114582 0.215865
1.995878 -0.108517 0.215955
1.989239 -0.102032 0.215323
1.984569 -0.095686 0.214871
1.981869 -0.089460 0.214601
1.979149 -0.083252 0.214330
1.973424 -0.076944 0.213788
1.973651 -0.070889 0.213788
1.973859 -0.064833 0.213788
1.971063 -0.058687 0.213517
1.971233 -0.052639 0.213517
1.968399 -0.046519 0.213246
1.974506 -0.040606 0.213788
1.969643 -0.034458 0.213337
1.968743 -0.028400 0.213246
1.968821 -0.022360 0.213246
1.966889 -0.016302 0.213066
1.963942 -0.010250 0.212795
1.962968 -0.004222 0.212705
1.962972 0.001800 0.212705
1.958974 0.007809 0.212343
1.953961 0.013787 0.211892
1.955901 0.019800 0.212073
1.953840 0.025776 0.211892
1.950764 0.031723 0.211621
1.947670 0.037652 0.211350
1.946550 0.043605 0.211260
1.942424 0.049478 0.210899
1.941268 0.055409 0.210809
1.941089 0.061365 0.210809
1.937905 0.067218 0.210538
1.940676 0.073274 0.210809
1.937456 0.079107 0.210538
1.937205 0.085051 0.210538
1.934945 0.090901 0.210357
1.936646 0.096936 0.210538
1.933356 0.102720 0.210267
1.931043 0.108540 0.210086
1.929707 0.114406 0.209996
1.926365 0.120141 0.209725
1.924000 0.125922 0.209545
1.920623 0.131622 0.209274
1.921204 0.137584 0.209364
1.920773 0.143477 0.209364
1.919330 0.149293 0.209274
1.917871 0.155101 0.209183
1.917386 0.160984 0.209183
1.916883 0.166866 0.209183
1.916362 0.172746 0.209183
1.912848 0.178349 0.208913
1.907335 0.183742 0.208461
1.909735 0.189887 0.208732
1.908153 0.195644 0.208642
1.907544 0.201497 0.208642
1.904936 0.207134 0.208461
1.903302 0.212868 0.208371
1.904619 0.218932 0.208551
1.901960 0.224542 0.208371
1.900274 0.230257 0.208281
1.901535 0.236330 0.208461
1.899813 0.242038 0.208371
1.898074 0.247737 0.208281
1.893356 0.253033 0.207919
1.896518 0.259378 0.208281
1.896700 0.265333 0.208371
1.894891 0.271010 0.208281
1.893065 0.276679 0.208190
1.891222 0.282339 0.208100
1.888378 0.287841 0.207919
1.889454 0.293938 0.208100
1.888543 0.299734 0.208100
1.887615 0.305526 0.208100
1.886669 0.311316 0.208100
1.888651 0.317596 0.208371
1.883741 0.322719 0.208010
1.889611 0.329691 0.208642
1.888590 0.335486 0.208642
2.004475 -0.271981 0.205774
2.003324 -0.265568 0.205606
2.024881 -0.262111 0.207374
2.036550 -0.257273 0.208300
2.035352 -0.250780 0.208132
2.036112 -0.244535 0.208132
2.034873 -0.238055 0.207964
2.031634 -0.231359 0.207627
2.029363 -0.224795 0.207374
2.030043 -0.218568 0.207374
2.025749 -0.211820 0.206953
2.022424 -0.205201 0.206616
2.022052 -0.198898 0.206532
2.020669 -0.192504 0.206364
2.016289 -0.185845 0.205943
2.016850 -0.179658 0.205943
2.015406 -0.173299 0.205774
2.012949 -0.166867 0.205522
2.010471 -0.160453 0.205269
2.009961 -0.154207 0.205185
2.009431 -0.147967 0.205101
2.004905 -0.141450 0.204680
2.008312 -0.135500 0.204932
2.004741 -0.129081 0.204596
2.002144 -0.122746 0.204343
1.999527 -0.116429 0.204090
1.996890 -0.110129 0.203838
1.992243 -0.103742 0.203417
1.989566 -0.097482 0.203164
1.988860 -0.091332 0.203080
1.985149 -0.085058 0.202743
1.981418 -0.078808 0.202406
1.979659 -0.072656 0.202238
1.980868 -0.066616 0.202322
1.977080 -0.060415 0.201985
1.978252 -0.054377 0.202070
1.978409 -0.048308 0.202070
1.975559 -0.042173 0.201817
1.973687 -0.036076 0.201649
1.969803 -0.029959 0.201312
1.970882 -0.023928 0.201396
1.969950 -0.017872 0.201312
1.966010 -0.011803 0.200975
1.964044 -0.005765 0.200807
1.962059 0.000261 0.200638
1.962049 0.006280 0.200638
1.958035 0.012275 0.200301
1.957988 0.018282 0.200301
1.955930 0.024265 0.200133
1.952857 0.030220 0.199880
1.950763 0.036175 0.199712
1.948650 0.042117 0.199544
1.947516 0.048070 0.199459
1.948355 0.054072 0.199544
1.947184 0.060019 0.199459
1.944999 0.065926 0.199291
1.941800 0.071783 0.199038
1.944558 0.077859 0.199291
1.943314 0.083781 0.199207
1.939067 0.089560 0.198870
1.938783 0.095508 0.198870
1.937486 0.101404 0.198786
1.932191 0.107073 0.198365
1.928869 0.112827 0.198112
1.927519 0.118683 0.198028
1.927146 0.124596 0.198028
1.925760 0.130440 0.197944
1.923363 0.136208 0.197775
1.921942 0.142035 0.197691
1.922491 0.148007 0.197775
1.923021 0.153983 0.197860
1.922540 0.159882 0.197860
1.924026 0.165951 0.198028
1.921523 0.171676 0.197860
1.919995 0.177479 0.197775
1.917457 0.183179 0.197607
1.915895 0.188963 0.197523
1.915306 0.194840 0.197523
1.914699 0.200715 0.197523
1.913084 0.206482 0.197439
1.910460 0.212131 0.197270
1.909801 0.217991 0.197270
1.908133 0.223733 0.197186
1.906448 0.229467 0.197102
1.906724 0.235437 0.197186
1.904016 0.241036 0.197018
1.902279 0.246748 0.196933
1.900525 0.252452 0.196849
1.898755 0.258148 0.196765
1.897954 0.263972 0.196765
1.896148 0.269653 0.196681
1.893340 0.275183 0.196512
1.892487 0.280990 0.196512
1.890630 0.286646 0.196428
1.891712 0.292749 0.196597
1.890805 0.298552 0.196597
1.888896 0.304193 0.196512
1.888937 0.310148 0.196597
1.887977 0.315942 0.196597
1.886999 0.321732 0.196597
1.887966 0.327861 0.196765
1.887933 0.333825 0.196849
1.885919 0.339439 0.196765
2.017194 -0.267570 0.193665
2.031848 -0.263170 0.194754
2.027700 -0.256311 0.194365
2.031445 -0.250455 0.194599
2.026265 -0.243508 0.194132
2.027993 -0.237407 0.194210
2.025740 -0.230846 0.193976
2.024457 -0.224410 0.193821
2.022162 -0.217878 0.193588
2.015880 -0.210949 0.193043
2.016517 -0.204763 0.193043
2.016144 -0.198478 0.192965
2.012774 -0.191914 0.192654
2.010374 -0.185464 0.192421
2.009941 -0.179207 0.192343
2.010481 -0.173039 0.192343
2.006035 -0.166459 0.191955
2.005542 -0.160225 0.191877
2.004036 -0.153919 0.191721
2.003505 -0.147697 0.191644
1.997981 -0.141129 0.191177
1.997410 -0.134932 0.191099
1.996820 -0.128739 0.191021
1.994220 -0.122430 0.190788
1.991600 -0.116137 0.190555
1.989956 -0.109917 0.190399
1.989289 -0.103760 0.190322
1.985615 -0.097461 0.190010
1.986900 -0.091415 0.190088
1.982191 -0.085106 0.189699
1.981447 -0.078985 0.189622
1.981679 -0.072905 0.189622
1.981894 -0.066825 0.189622
1.982090 -0.060745 0.189622
1.978280 -0.054554 0.189311
1.973455 -0.048364 0.188922
1.976584 -0.042372 0.189155
1.971721 -0.036217 0.188766
1.969829 -0.030138 0.188611
1.968915 -0.024083 0.188533
1.967983 -0.018033 0.188455
1.966035 -0.011983 0.188300
1.962075 -0.005940 0.187989
1.963081 0.000079 0.188066
1.960080 0.006092 0.187833
1.956065 0.012080 0.187522
1.956018 0.018081 0.187522
1.952963 0.024045 0.187289
1.949889 0.029990 0.187055
1.948791 0.035953 0.186978
1.946679 0.041888 0.186822
1.945544 0.047836 0.186744
1.946385 0.053832 0.186822
1.946211 0.059803 0.186822
1.946018 0.065774 0.186822
1.943814 0.071670 0.186667
1.942589 0.077593 0.186589
1.938358 0.083381 0.186278
1.936101 0.089235 0.186122
1.938805 0.095322 0.186356
1.935517 0.101113 0.186122
1.932211 0.106885 0.185889
1.928889 0.112637 0.185656
1.926544 0.118431 0.185500
1.925177 0.124277 0.185422
1.924786 0.130183 0.185422
1.924378 0.136087 0.185422
1.923951 0.141991 0.185422
1.923506 0.147893 0.185422
1.924037 0.153873 0.185500
1.922563 0.159692 0.185422
1.921071 0.165504 0.185345
1.920554 0.171397 0.185345
1.920019 0.177288 0.185345
1.916489 0.182893 0.185111
1.914926 0.188674 0.185034
1.911363 0.194245 0.184800
1.909766 0.200004 0.184723
1.909144 0.205862 0.184723
1.907512 0.211608 0.184645
1.906854 0.217460 0.184645
1.907168 0.223425 0.184723
1.903504 0.228917 0.184489
1.902793 0.234756 0.184489
1.900086 0.240342 0.184334
1.898351 0.246042 0.184256
1.897587 0.251865 0.184256
1.895818 0.257551 0.184178
1.895019 0.263366 0.184178
1.892228 0.268898 0.184023
1.892380 0.274845 0.184100
1.888570 0.280210 0.183867
1.888687 0.286152 0.183945
1.887800 0.291945 0.183945
1.887880 0.297891 0.184023
1.884005 0.303206 0.183789
1.884049 0.309146 0.183867
1.882109 0.314760 0.183789
1.882117 0.320701 0.183867
1.880142 0.326303 0.183789
1.882077 0.332591 0.184023
1.880067 0.338186 0.183945
1.877059 0.343593 0.183789
2.045208 -0.260112 0.183192
2.009370 -0.249313 0.180540
2.012106 -0.243385 0.180684
2.009871 -0.236863 0.180469
2.009598 -0.230582 0.180397
2.009304 -0.224306 0.180325
2.008000 -0.217926 0.180182
2.004691 -0.211349 0.179895
2.004337 -0.205096 0.179824
2.003965 -0.198848 0.179752
2.004565 -0.192699 0.179752
2.002167 -0.186273 0.179537
2.003723 -0.180218 0.179609
2.004267 -0.174070 0.179609
2.000815 -0.167590 0.179322
1.994360 -0.160893 0.178820
1.998822 -0.155080 0.179107
1.995310 -0.148653 0.178820
1.987797 -0.141967 0.178247
1.987228 -0.135800 0.178175
1.988631 -0.129767 0.178247
1.986033 -0.123482 0.178032
1.986402 -0.117388 0.178032
1.985757 -0.111238 0.177960
1.984097 -0.105041 0.177817
1.982417 -0.098855 0.177674
1.981715 -0.092727 0.177602
1.980994 -0.086603 0.177530
1.980253 -0.080486 0.177458
1.976504 -0.074262 0.177172
1.974729 -0.068131 0.177028
1.970941 -0.061949 0.176742
1.970124 -0.055874 0.176670
1.967295 -0.049756 0.176455
1.965444 -0.043677 0.176312
1.962577 -0.037591 0.176097
1.960689 -0.031539 0.175953
1.960776 -0.025523 0.175953
1.959848 -0.019498 0.175882
1.956906 -0.013467 0.175667
1.955941 -0.007460 0.175595
1.954957 -0.001459 0.175523
1.951960 0.004530 0.175308
1.947948 0.010495 0.175022
1.947906 0.016471 0.175022
1.945852 0.022423 0.174878
1.943779 0.028362 0.174735
1.943683 0.034325 0.174735
1.941574 0.040246 0.174592
1.940444 0.046178 0.174520
1.940294 0.052131 0.174520
1.941121 0.058114 0.174592
1.939937 0.064035 0.174520
1.937738 0.069914 0.174377
1.935521 0.075779 0.174233
1.934283 0.081674 0.174162
1.934023 0.087608 0.174162
1.933746 0.093541 0.174162
1.932453 0.099421 0.174090
1.929152 0.105185 0.173875
1.927824 0.111045 0.173803
1.927474 0.116959 0.173803
1.926111 0.122808 0.173732
1.925725 0.128716 0.173732
1.926316 0.134694 0.173803
1.924899 0.140530 0.173732
1.922470 0.146282 0.173588
1.923006 0.152259 0.173660
1.920542 0.157993 0.173517
1.919055 0.163799 0.173445
1.917549 0.169598 0.173373
1.917020 0.175480 0.173373
1.913494 0.181077 0.173158
1.910944 0.186751 0.173015
1.908378 0.192411 0.172872
1.907778 0.198265 0.172872
1.905178 0.203904 0.172728
1.905535 0.209858 0.172800
1.903891 0.215590 0.172728
1.901239 0.221198 0.172585
1.899561 0.226911 0.172513
1.898856 0.232738 0.172513
1.897143 0.238438 0.172441
1.895414 0.244129 0.172370
1.893667 0.249812 0.172298
1.890915 0.255352 0.172155
1.891111 0.261289 0.172226
1.889313 0.266950 0.172155
1.889472 0.272888 0.172226
1.885666 0.278245 0.172011
1.884803 0.284029 0.172011
1.883923 0.289810 0.172011
1.883025 0.295588 0.172011
1.879155 0.300889 0.171796
1.880192 0.306975 0.171940
1.877273 0.312414 0.171796
1.877289 0.318339 0.171868
1.874338 0.323756 0.171725
1.875301 0.329852 0.171868
1.872316 0.335251 0.171725
1.872260 0.341173 0.171796
1.869244 0.346550 0.171653
2.013493 -0.246859 0.169165
2.014241 -0.240681 0.169165
2.011997 -0.234152 0.168967
2.012706 -0.227979 0.168967
2.009429 -0.221363 0.168703
2.011090 -0.215304 0.168769
2.006779 -0.208615 0.168440
2.004431 -0.202155 0.168242
2.005042 -0.196004 0.168242
2.007621 -0.190041 0.168374
2.005214 -0.183606 0.168176
2.006761 -0.177542 0.168242
2.005308 -0.171214 0.168110
2.004830 -0.164978 0.168044
2.002342 -0.158589 0.167846
1.999835 -0.152216 0.167648
1.997307 -0.145860 0.167451
1.993764 -0.139451 0.167187
1.992191 -0.133199 0.167055
1.986616 -0.126702 0.166660
1.985999 -0.120546 0.166594
1.984367 -0.114336 0.166462
1.982716 -0.108138 0.166330
1.982042 -0.102002 0.166264
1.980353 -0.095824 0.166132
1.978644 -0.089656 0.166000
1.976915 -0.083500 0.165868
1.976165 -0.077395 0.165803
1.974399 -0.071258 0.165671
1.973611 -0.065167 0.165605
1.970810 -0.059021 0.165407
1.968987 -0.052919 0.165275
1.968142 -0.046854 0.165209
1.969274 -0.040837 0.165275
1.966397 -0.034740 0.165077
1.966495 -0.028707 0.165077
1.963580 -0.022638 0.164880
1.962643 -0.016604 0.164814
1.958693 -0.010559 0.164550
1.957718 -0.004547 0.164484
1.955728 0.001459 0.164352
1.951723 0.007446 0.164088
1.948697 0.013415 0.163891
1.947649 0.019384 0.163825
1.944587 0.025322 0.163627
1.945498 0.031304 0.163693
1.945393 0.037272 0.163693
1.944272 0.043219 0.163627
1.943133 0.049159 0.163561
1.941975 0.055092 0.163495
1.941797 0.061050 0.163495
1.941601 0.067007 0.163495
1.940389 0.072927 0.163429
1.938162 0.078799 0.163297
1.934920 0.084616 0.163100
1.931661 0.090414 0.162902
1.931375 0.096340 0.162902
1.929077 0.102160 0.162770
1.926762 0.107968 0.162638
1.925426 0.113820 0.162572
1.924071 0.119665 0.162506
1.923695 0.125568 0.162506
1.923301 0.131469 0.162506
1.922889 0.137369 0.162506
1.922458 0.143268 0.162506
1.920020 0.149012 0.162374
1.920548 0.154981 0.162440
1.918075 0.160707 0.162308
1.916579 0.166505 0.162243
1.914071 0.172207 0.162111
1.913534 0.178078 0.162111
1.910992 0.183758 0.161979
1.907440 0.189327 0.161781
1.906850 0.195178 0.161781
1.905250 0.200923 0.161715
1.903633 0.206660 0.161649
1.902990 0.212499 0.161649
1.902329 0.218337 0.161649
1.899668 0.223939 0.161517
1.898972 0.229766 0.161517
1.898258 0.235591 0.161517
1.896536 0.241289 0.161451
1.892819 0.246721 0.161254
1.893042 0.252658 0.161320
1.889292 0.258061 0.161122
1.891456 0.264269 0.161320
1.889648 0.269930 0.161254
1.887824 0.275583 0.161188
1.884009 0.280933 0.160990
1.884124 0.286862 0.161056
1.881263 0.292336 0.160924
1.880358 0.298106 0.160924
1.876479 0.303397 0.160726
1.876524 0.309315 0.160792
1.873598 0.314741 0.160660
1.870656 0.320152 0.160528
1.870648 0.326060 0.160594
1.868656 0.331624 0.160528
1.869594 0.337709 0.160660
1.869531 0.343623 0.160726
1.872392 0.350088 0.160990
1.880132 0.357503 0.161583
2.005566 -0.252648 0.156038
2.030110 -0.249419 0.157470
2.015008 -0.241288 0.156515
2.012764 -0.234757 0.156336
2.012483 -0.228468 0.156277
2.012182 -0.222183 0.156217
2.011862 -0.215902 0.156157
2.009537 -0.209418 0.155978
2.009176 -0.203151 0.155919
2.009790 -0.196986 0.155919
2.011379 -0.190914 0.155978
2.009967 -0.184559 0.155859
2.010524 -0.178392 0.155859
2.010067 -0.172137 0.155799
2.009591 -0.165888 0.155740
2.007105 -0.159484 0.155561
2.005594 -0.153173 0.155442
2.003068 -0.146800 0.155263
1.997535 -0.140233 0.154905
1.994968 -0.133903 0.154726
1.990388 -0.127462 0.154427
1.990770 -0.121355 0.154427
1.988143 -0.115073 0.154248
1.988487 -0.108973 0.154248
1.985821 -0.102717 0.154069
1.983136 -0.096478 0.153891
1.982425 -0.090347 0.153831
1.980699 -0.084180 0.153712
1.979950 -0.078063 0.153652
1.976190 -0.071842 0.153413
1.975404 -0.065746 0.153354
1.969609 -0.059503 0.152996
1.970780 -0.053487 0.153055
1.969937 -0.047417 0.152996
1.970074 -0.041373 0.152996
1.967197 -0.035274 0.152817
1.968294 -0.029254 0.152876
1.963384 -0.023155 0.152578
1.962448 -0.017123 0.152518
1.958498 -0.011078 0.152280
1.958523 -0.005070 0.152280
1.955534 0.000938 0.152101
1.953526 0.006931 0.151982
1.950501 0.012905 0.151803
