# This PCD file was generated using the MATLAB® pcwrite function
# from Computer Vision Toolbox®.
# .PCD v.7 - Point Cloud Data file format
VERSION .7
FIELDS x y z intensity
SIZE 4 4 4 4
TYPE F F F F
COUNT 1 1 1 1
WIDTH 1287
HEIGHT 1
VIEWPOINT 0 0 0 1 0 0 0
POINTS 1287
DATA ascii
2.441137 6.736228 0.125064 2.000000
1.122617 3.096130 -0.760335 5.000000
2.958179 8.154087 0.454590 1.000000
1.224589 3.375525 -0.697979 7.000000
3.183514 8.770452 0.816301 60.000000
1.335833 3.678159 -0.619793 7.000000
3.191858 8.783866 1.147522 14.000000
1.477993 4.065173 -0.531107 6.000000
3.196169 8.786176 1.480809 21.000000
1.638752 4.504881 -0.419393 3.000000
3.203595 8.801806 1.820700 55.000000
1.852093 5.085832 -0.283661 1.000000
3.219654 8.836329 2.171227 42.000000
2.110923 5.790279 -0.107577 2.000000
3.224602 8.840303 2.521415 51.000000
1.052118 2.873495 -0.819939 13.000000
2.464638 6.727665 0.125064 2.000000
1.128724 3.079385 -0.757185 6.000000
2.971457 8.106727 0.452497 1.000000
1.241772 3.385976 -0.701032 7.000000
3.245683 8.845326 0.824319 58.000000
1.345942 3.666056 -0.618542 7.000000
3.245770 8.836025 1.155809 14.000000
1.490805 4.056262 -0.530619 5.000000
3.251181 8.845985 1.492698 22.000000
1.653093 4.495392 -0.419045 3.000000
3.263448 8.869799 1.837109 52.000000
1.868457 5.075587 -0.283452 1.000000
3.274728 8.890867 2.187424 31.000000
2.127349 5.775741 -0.107437 2.000000
3.283955 8.911136 2.544709 49.000000
1.061472 2.867993 -0.819421 13.000000
2.486936 6.719455 0.125064 2.000000
1.140959 3.081107 -0.758535 6.000000
2.987241 8.062595 0.450613 1.000000
1.245395 3.359530 -0.696453 7.000000
3.307721 8.918004 0.832163 50.000000
1.360152 3.667129 -0.619481 8.000000
3.307512 8.912684 1.167265 13.000000
1.497339 4.032686 -0.528182 7.000000
3.310934 8.912354 1.505838 22.000000
1.667383 4.485861 -0.418696 3.000000
3.322254 8.938060 1.853519 52.000000
1.875532 5.043155 -0.281986 1.000000
3.328657 8.945710 2.203620 38.000000
2.143307 5.757037 -0.107228 2.000000
3.345388 8.981082 2.568003 51.000000
1.067594 2.855410 -0.816833 9.000000
2.510371 6.710734 0.125064 2.000000
1.151707 3.077106 -0.758535 7.000000
3.006963 8.029673 0.449357 1.000000
1.257905 3.359060 -0.697216 7.000000
3.365240 8.981615 0.839135 61.000000
1.372250 3.660509 -0.619168 8.000000
3.371371 8.988441 1.178720 14.000000
1.514198 4.034868 -0.529157 5.000000
3.369102 8.972866 1.518040 18.000000
1.679449 4.472846 -0.417999 3.000000
3.387267 9.016461 1.872218 52.000000
1.891721 5.032837 -0.281777 1.000000
3.395531 9.028886 2.227015 33.000000
2.152124 5.719574 -0.106669 2.000000
3.405307 9.045284 2.589743 48.000000
1.076188 2.848052 -0.815798 9.000000
2.533782 6.701930 0.125064 2.000000
1.168647 3.089471 -0.762584 6.000000
3.051939 8.063959 0.451869 1.000000
1.268232 3.350976 -0.696453 8.000000
3.426199 9.048074 0.846457 59.000000
1.383620 3.652002 -0.618542 8.000000
3.435795 9.063861 1.190176 14.000000
1.528270 4.029559 -0.529157 6.000000
3.436148 9.055242 1.533997 23.000000
1.689399 4.452053 -0.416604 3.000000
3.448687 9.083505 1.888628 47.000000
1.903600 5.011268 -0.280939 1.000000
3.460261 9.104414 2.248611 38.000000
2.174921 5.719503 -0.106809 2.000000
3.464333 9.105568 2.610449 44.000000
1.087502 2.847887 -0.816833 12.000000
2.557163 6.693044 0.125064 2.000000
1.171073 3.063530 -0.757185 6.000000
3.062948 8.008485 0.449357 1.000000
1.280624 3.348362 -0.696835 8.000000
3.488383 9.116073 0.853952 66.000000
1.388590 3.626858 -0.615100 8.000000
3.496529 9.127814 1.200169 15.000000
1.542328 4.024199 -0.529157 6.000000
3.502389 9.133569 1.549327 19.000000
1.703501 4.442408 -0.416256 3.000000
3.510610 9.150229 1.905037 52.000000
1.926808 5.019509 -0.281777 1.000000
3.524158 9.175964 2.269306 33.000000
2.187698 5.693211 -0.106460 2.000000
3.532148 9.187183 2.637366 48.000000
1.098828 2.847678 -0.817868 13.000000
2.566105 6.646768 0.124366 2.000000
1.181057 3.057606 -0.756735 6.000000
3.083686 7.979113 0.448310 1.000000
1.294428 3.349365 -0.697979 7.000000
3.543893 9.165164 0.859704 31.000000
1.404091 3.629358 -0.616352 8.000000
3.562051 9.202561 1.211625 14.000000
1.550630 4.003983 -0.527207 6.000000
3.563510 9.196808 1.562155 24.000000
1.714678 4.425289 -0.415210 3.000000
3.573756 9.218462 1.921828 40.000000
1.934205 4.986684 -0.280311 1.000000
3.588596 9.247176 2.290002 38.000000
2.207559 5.685539 -0.106460 2.000000
3.597072 9.259434 2.661695 46.000000
1.105954 2.836626 -0.815798 9.000000
2.584933 6.626591 0.124156 2.000000
1.192432 3.055279 -0.757185 4.000000
3.608271 9.245199 0.520115 1.000000
1.298256 3.324710 -0.693782 5.000000
3.601967 9.219546 0.865979 5.000000
1.416034 3.622595 -0.616039 8.000000
3.624517 9.267718 1.221862 14.000000
1.561705 3.991151 -0.526232 6.000000
3.627822 9.271399 1.576860 20.000000
1.737379 4.437829 -0.416953 3.000000
3.646008 9.308300 1.943199 47.000000
1.951601 4.979901 -0.280311 1.000000
3.650021 9.308977 2.308448 33.000000
2.210341 5.637230 -0.105692 2.000000
3.665858 9.344567 2.689647 46.000000
1.113724 2.827356 -0.814245 7.000000
2.602494 6.606820 0.123947 2.000000
1.201842 3.049495 -0.756735 5.000000
3.694734 9.370043 0.527861 1.000000
1.309132 3.318331 -0.693400 3.000000
3.664853 9.284752 0.873301 3.000000
1.431666 3.627066 -0.617603 8.000000
3.694602 9.355351 1.235024 14.000000
1.573471 3.982258 -0.525744 5.000000
3.693572 9.343183 1.591252 16.000000
1.744065 4.409505 -0.414861 3.000000
3.707903 9.374662 1.959608 38.000000
1.971043 4.980831 -0.280730 1.000000
3.714591 9.381981 2.329593 31.000000
2.232949 5.636917 -0.105831 2.000000
3.729064 9.408939 2.711906 42.000000
1.121667 2.820056 -0.813209 7.000000
2.624060 6.593980 0.123877 2.000000
1.215364 3.052524 -0.758535 3.000000
3.136120 7.872719 0.444123 1.000000
1.316497 3.304852 -0.691492 3.000000
3.733974 9.368792 0.882365 1.000000
1.436269 3.601863 -0.614162 7.000000
3.761076 9.427210 1.246236 15.000000
1.585890 3.973055 -0.525257 6.000000
3.761327 9.418288 1.606269 20.000000
1.751289 4.385194 -0.413118 3.000000
3.777030 9.452817 1.978689 42.000000
1.985453 4.966502 -0.280311 1.000000
3.786395 9.466665 2.353888 29.000000
2.257071 5.640227 -0.106041 2.000000
3.796349 9.481952 2.736753 48.000000
1.130063 2.812539 -0.812174 7.000000
2.641096 6.569936 0.123598 2.000000
1.218012 3.028375 -0.753586 4.000000
3.834620 9.529306 0.538328 1.000000
1.332422 3.311165 -0.693782 3.000000
3.804606 9.449960 0.891255 3.000000
1.442928 3.582169 -0.611659 8.000000
3.826607 9.495037 1.256961 15.000000
1.602719 3.974859 -0.526232 6.000000
3.832613 9.500361 1.622538 20.000000
1.771060 4.390140 -0.414164 3.000000
3.845272 9.526962 1.997007 36.000000
2.002777 4.959541 -0.280311 1.000000
3.857380 9.547344 2.377283 29.000000
2.273747 5.624899 -0.105901 2.000000
3.865638 9.558189 2.762635 30.000000
1.142780 2.815737 -0.814245 7.000000
2.657997 6.545854 0.123319 2.000000
1.231509 3.031327 -0.755386 4.000000
3.191005 7.850633 0.444123 1.000000
1.339537 3.295581 -0.691492 3.000000
3.877351 9.534437 0.900493 1.000000
1.460634 3.589919 -0.613849 8.000000
3.895655 9.569874 1.268660 16.000000
1.609097 3.950854 -0.523794 5.000000
3.904507 9.582053 1.638808 20.000000
1.781859 4.372861 -0.413118 3.000000
3.917788 9.609833 2.017233 40.000000
2.008008 4.922930 -0.278637 1.000000
3.923811 9.615017 2.397528 27.000000
2.282787 5.591009 -0.105413 2.000000
2.258881 5.529701 1.600537 54.000000
1.150403 2.806369 -0.812692 6.000000
2.686899 6.551338 0.123598 2.000000
1.237645 3.016192 -0.752686 4.000000
3.976909 9.687064 0.548795 1.000000
1.348051 3.283620 -0.689965 3.000000
3.951484 9.620367 0.909906 1.000000
1.475409 3.590280 -0.614788 8.000000
3.976595 9.671882 1.284016 15.000000
1.620612 3.939706 -0.523063 7.000000
3.980034 9.670660 1.656328 21.000000
1.797114 4.366614 -0.413118 3.000000
3.991677 9.694128 2.037840 27.000000
2.026701 4.919585 -0.278846 1.000000
2.299111 5.578064 1.392897 45.000000
2.294667 5.564519 -0.105063 2.000000
2.278905 5.523569 1.601055 89.000000
1.160931 2.804121 -0.813209 7.000000
2.691387 6.497579 0.122760 2.000000
1.252642 3.022656 -0.755386 6.000000
4.087189 9.857622 0.559262 2.000000
1.357999 3.275269 -0.689202 3.000000
4.023215 9.698531 0.918622 4.000000
1.483390 3.574160 -0.612910 7.000000
4.048388 9.749611 1.296202 16.000000
1.633594 3.932192 -0.522820 5.000000
4.052436 9.749735 1.672285 12.000000
1.809287 4.352955 -0.412421 3.000000
2.333876 5.612305 1.181489 42.000000
2.046932 4.919856 -0.279265 1.000000
2.317820 5.568204 1.392447 94.000000
2.315611 5.560168 -0.105133 2.000000
2.292973 5.503097 1.597431 96.000000
1.164751 2.785793 -0.809068 7.000000
2.714046 6.488147 0.122760 2.000000
1.263938 3.020062 -0.755836 10.000000
3.245269 7.750466 0.440355 1.000000
1.372458 3.277751 -0.690729 5.000000
4.057038 9.684430 0.918622 3.000000
1.489748 3.554386 -0.610407 8.000000
4.125388 9.837934 1.309852 16.000000
1.645771 3.922806 -0.522332 6.000000
2.371589 5.650069 0.970520 45.000000
1.824470 4.346613 -0.412421 3.000000
2.348133 5.591453 1.178818 71.000000
2.056357 4.894267 -0.278218 1.000000
2.328180 5.538523 1.387048 82.000000
2.336557 5.555738 -0.105203 2.000000
2.304677 5.477253 1.592255 99.000000
1.177473 2.788829 -0.811139 7.000000
2.727342 6.456527 0.122341 2.000000
1.271439 3.008451 -0.754036 19.000000
4.231948 10.013542 0.569729 2.000000
1.385419 3.276558 -0.691492 3.000000
4.086164 9.659199 0.917576 1.000000
1.503687 3.552802 -0.611033 7.000000
2.412689 5.697762 0.759734 38.000000
1.662553 3.924348 -0.523307 6.000000
2.390311 5.642174 0.970520 95.000000
1.838077 4.336548 -0.412072 3.000000
2.366102 5.579608 1.178055 89.000000
2.071865 4.883383 -0.278009 1.000000
2.352069 5.541125 1.389748 89.000000
2.350281 5.536914 -0.104994 2.000000
2.320558 5.464247 1.590702 98.000000
1.187202 2.784702 -0.811139 7.000000
2.753445 6.458484 0.122551 2.000000
1.272998 2.984501 -0.749087 15.000000
1.395307 3.268090 -0.690729 3.000000
2.444992 5.723896 0.544549 49.000000
1.513908 3.544163 -0.610407 8.000000
2.430009 5.686080 0.759246 84.000000
1.670876 3.907861 -0.521845 5.000000
2.405332 5.622898 0.968642 90.000000
1.850065 4.322781 -0.411375 3.000000
2.379184 5.559097 1.175383 92.000000
2.086477 4.872813 -0.277799 1.000000
2.358919 5.506425 1.382999 80.000000
2.371169 5.532352 -0.105063 2.000000
2.345710 5.470316 1.594843 100.000000
1.197956 2.784299 -0.812174 9.000000
2.753836 6.397403 0.121573 2.000000
1.285720 2.985409 -0.750437 11.000000
2.483997 5.765009 0.328984 54.000000
1.401475 3.252627 -0.688439 3.000000
2.470271 5.730393 0.545944 85.000000
1.529398 3.546113 -0.611659 7.000000
2.443552 5.662982 0.757296 80.000000
1.678213 3.887424 -0.519895 4.000000
2.421810 5.607214 0.967391 100.000000
1.861231 4.309305 -0.410678 3.000000
2.390788 5.532736 1.171567 79.000000
2.106645 4.872833 -0.278218 1.000000
2.377351 5.496370 1.382549 89.000000
2.390465 5.524043 -0.105063 2.000000
2.359420 5.449685 1.591220 100.000000
1.203049 2.769469 -0.809068 7.000000
2.523479 5.806382 0.110509 52.000000
1.301573 2.993412 -0.753586 7.000000
2.504104 5.756303 0.328984 86.000000
1.411253 3.244115 -0.687676 6.000000
2.479918 5.697989 0.543678 81.000000
1.543345 3.544375 -0.612285 7.000000
2.464891 5.658057 0.757784 84.000000
1.690186 3.877903 -0.519407 5.000000
2.434264 5.582429 0.964575 95.000000
1.876263 4.302782 -0.410678 3.000000
2.420294 5.547749 1.176528 95.000000
2.118847 4.854467 -0.277590 1.000000
2.392624 5.479108 1.380300 80.000000
2.408133 5.511999 -0.104994 2.000000
2.371464 5.425485 1.586561 96.000000
1.208054 2.754637 -0.805963 7.000000
2.535699 5.779225 0.110160 95.000000
1.313580 2.992420 -0.754486 7.000000
2.527396 5.754841 0.329403 88.000000
1.423359 3.240966 -0.688057 11.000000
2.491780 5.671056 0.541934 82.000000
1.549348 3.524499 -0.609782 7.000000
2.482228 5.643967 0.757052 77.000000
1.706909 3.879248 -0.520382 5.000000
2.451346 5.568475 0.963636 97.000000
1.881637 4.274324 -0.408586 3.000000
2.427773 5.512316 1.170804 79.000000
2.129335 4.832420 -0.276753 1.000000
2.410951 5.468939 1.379850 84.000000
2.425744 5.499901 -0.104924 2.000000
2.394286 5.426012 1.589149 96.000000
1.219227 2.753936 -0.806998 7.000000
2.556665 5.772167 0.110194 100.000000
1.312965 2.962873 -0.748187 6.000000
2.540994 5.731377 0.328565 90.000000
1.436256 3.239568 -0.688820 13.000000
2.514790 5.669609 0.542632 82.000000
1.556835 3.508235 -0.607904 7.000000
2.493860 5.617124 0.754615 75.000000
1.722051 3.876894 -0.520870 6.000000
2.471573 5.561688 0.963949 100.000000
1.899783 4.275012 -0.409283 3.000000
2.446204 5.502014 1.170422 89.000000
2.142943 4.817659 -0.276334 1.000000
2.433987 5.469392 1.382099 85.000000
2.438422 5.476784 -0.104645 2.000000
2.404564 5.398210 1.583455 96.000000
1.233561 2.760246 -0.810104 9.000000
2.569454 5.746778 0.109880 100.000000
1.324890 2.961830 -0.749087 6.000000
2.551830 5.704688 0.327518 86.000000
1.445951 3.230951 -0.688057 12.000000
2.532938 5.657158 0.542283 81.000000
1.562610 3.488358 -0.605401 7.000000
2.507769 5.595705 0.752909 78.000000
1.730701 3.859992 -0.519407 5.000000
2.488385 5.549858 0.963324 100.000000
1.913063 4.264719 -0.408935 3.000000
2.464589 5.491651 1.170041 92.000000
2.145022 4.777352 -0.274450 1.000000
2.444279 5.441309 1.377150 84.000000
2.456569 5.468669 -0.104645 2.000000
2.423245 5.391967 1.583973 96.000000
1.243984 2.757684 -0.810621 9.000000
2.588498 5.738225 0.109880 100.000000
1.332301 2.952091 -0.747737 6.000000
2.568439 5.688465 0.327100 90.000000
1.455604 3.222305 -0.687294 12.000000
2.549390 5.641019 0.541586 78.000000
1.582305 3.501157 -0.608530 7.000000
2.527945 5.590976 0.753396 78.000000
1.738584 3.843379 -0.517945 4.000000
2.502857 5.530339 0.961446 100.000000
1.927937 4.258016 -0.408935 3.000000
2.481976 5.481660 1.169659 89.000000
2.167447 4.784767 -0.275287 1.000000
2.458289 5.424298 1.374901 78.000000
2.460778 5.427279 -0.104016 2.000000
2.438861 5.376439 1.581902 92.000000
1.249121 2.744753 -0.808033 9.000000
2.610166 5.732796 0.109950 99.000000
1.349867 2.963383 -0.751786 6.000000
2.588281 5.679464 0.327100 91.000000
1.460582 3.204955 -0.684623 11.000000
2.561466 5.618033 0.540191 75.000000
1.596156 3.499208 -0.609156 7.000000
2.547448 5.582117 0.753396 78.000000
1.748691 3.830064 -0.516970 5.000000
2.514758 5.505398 0.958631 99.000000
1.942789 4.251260 -0.408935 3.000000
2.499465 5.469391 1.168896 89.000000
2.182474 4.773540 -0.275078 1.000000
2.475586 5.412140 1.374001 78.000000
2.479710 5.418656 -0.104016 2.000000
2.453592 5.359110 1.579314 100.000000
1.252718 2.726113 -0.803892 9.000000
2.620978 5.703662 0.109566 100.000000
1.356134 2.949800 -0.749537 6.000000
2.608089 5.670395 0.327100 88.000000
1.472318 3.199580 -0.684623 8.000000
2.577045 5.597746 0.539145 81.000000
1.605664 3.486157 -0.607904 7.000000
2.562764 5.564176 0.752178 75.000000
1.767033 3.834754 -0.518432 5.000000
2.535616 5.500174 0.959256 97.000000
1.955947 4.240834 -0.408586 3.000000
2.514558 5.449498 1.166606 86.000000
2.196608 4.758254 -0.274659 1.000000
2.494590 5.401261 1.373551 80.000000
2.495256 5.402704 -0.103877 2.000000
2.467420 5.339991 1.576208 96.000000
1.265478 2.728733 -0.805963 7.000000
2.635973 5.681320 0.109322 97.000000
1.361192 2.932437 -0.746388 6.000000
2.626186 5.657632 0.326890 88.000000
1.482652 3.192641 -0.684241 7.000000
2.596565 5.588718 0.539145 77.000000
1.612828 3.469783 -0.606027 7.000000
2.578120 5.543945 0.750715 75.000000
1.777726 3.821053 -0.517457 5.000000
2.553129 5.487709 0.958631 99.000000
1.965695 4.223142 -0.407540 3.000000
2.530251 5.433568 1.165080 86.000000
2.203079 4.728834 -0.273403 1.000000
2.515074 5.396053 1.374451 80.000000
2.522547 5.412086 -0.104226 2.000000
2.489312 5.338349 1.578279 99.000000
1.277452 2.729549 -0.807515 9.000000
2.653952 5.670735 0.109287 95.000000
1.370082 2.926142 -0.745938 6.000000
2.640837 5.637578 0.326262 88.000000
1.493787 3.187446 -0.684241 7.000000
2.617750 5.583228 0.539494 85.000000
1.620971 3.457262 -0.604776 7.000000
2.592276 5.526379 0.749497 78.000000
1.783642 3.800760 -0.515507 4.000000
2.572271 5.478763 0.958631 97.000000
1.982120 4.219862 -0.407889 3.000000
2.544919 5.418039 1.163553 81.000000
2.223846 4.732347 -0.274031 1.000000
2.526320 5.373575 1.370852 84.000000
2.532914 5.385152 -0.103877 2.000000
2.501350 5.315643 1.574137 96.000000
1.285671 2.723551 -0.806998 9.000000
2.673732 5.661436 0.109287 85.000000
1.381953 2.924866 -0.746837 6.000000
2.650253 5.606660 0.325006 86.000000
1.501831 3.177150 -0.683096 6.000000
2.636252 5.574515 0.539494 75.000000
1.633030 3.451582 -0.604776 7.000000
2.608150 5.510121 0.748522 78.000000
1.796899 3.794510 -0.515507 4.000000
2.582924 5.451898 0.955502 90.000000
1.996102 4.213265 -0.407889 3.000000
2.561289 5.403801 1.162408 84.000000
2.231796 4.706509 -0.272984 1.000000
2.541722 5.357681 1.369052 84.000000
2.545691 5.363634 -0.103632 4.000000
2.520720 5.308624 1.574655 96.000000
1.291017 2.710325 -0.804410 9.000000
2.694337 5.653874 0.109322 87.000000
1.391316 2.918265 -0.746388 6.000000
2.669810 5.597374 0.325006 84.000000
1.509532 3.164800 -0.681570 6.000000
2.647113 5.547298 0.537751 81.000000
1.651876 3.460122 -0.607279 7.000000
2.628225 5.502774 0.748765 77.000000
1.811846 3.791797 -0.515995 3.000000
2.596826 5.432156 0.953625 99.000000
1.997047 4.177512 -0.405100 3.000000
2.580985 5.396598 1.162790 89.000000
2.249936 4.702292 -0.273194 1.000000
2.559566 5.347019 1.368602 85.000000
2.553170 5.331268 -0.103179 2.000000
2.532559 5.285854 1.570514 94.000000
1.297122 2.698838 -0.802339 9.000000
2.704523 5.624611 0.108938 99.000000
1.404874 2.920415 -0.748187 6.000000
2.691063 5.591620 0.325216 88.000000
1.520569 3.159512 -0.681570 6.000000
2.662138 5.529049 0.536879 72.000000
1.657087 3.440097 -0.604776 7.000000
2.649140 5.497143 0.749253 77.000000
1.828517 3.792603 -0.516970 4.000000
2.616631 5.424837 0.953938 92.000000
2.022871 4.193844 -0.407366 4.000000
2.592979 5.373411 1.159737 81.000000
2.261123 4.683620 -0.272566 1.000000
2.573132 5.327522 1.365903 89.000000
2.570026 5.318722 -0.103109 4.000000
2.550150 5.275245 1.569996 91.000000
1.309907 2.701246 -0.804410 9.000000
2.718031 5.602542 0.108694 76.000000
1.413357 2.911987 -0.747287 7.000000
2.708822 5.578599 0.325006 84.000000
1.533305 3.157717 -0.682333 5.000000
2.680553 5.517931 0.536705 81.000000
1.662176 3.420079 -0.602273 7.000000
2.660501 5.471795 0.747059 78.000000
1.836535 3.775485 -0.515507 3.000000
2.633821 5.412118 0.953312 100.000000
2.029650 4.170634 -0.405797 3.000000
2.606566 5.353736 1.157447 81.000000
2.272212 4.664924 -0.271938 1.000000
2.592565 5.320260 1.366353 91.000000
2.592080 5.316909 -0.103248 2.000000
2.567703 5.264574 1.569479 92.000000
1.321027 2.700128 -0.805445 9.000000
2.736691 5.591225 0.108659 83.000000
1.418370 2.896535 -0.744588 7.000000
2.723791 5.562411 0.324588 84.000000
1.542591 3.148819 -0.681570 3.000000
2.699796 5.508541 0.536705 77.000000
1.677582 3.421351 -0.603524 7.000000
2.672593 5.448216 0.745109 84.000000
1.843801 3.758681 -0.514045 3.000000
2.650012 5.399808 0.952686 95.000000
2.044195 4.163524 -0.405797 3.000000
2.621777 5.337555 1.155921 81.000000
2.281434 4.642625 -0.271100 1.000000
2.602457 5.295893 1.362304 87.000000
2.606167 5.301106 -0.103109 4.000000
2.584296 5.254295 1.568961 96.000000
1.328262 2.692268 -0.804410 9.000000
2.755219 5.582118 0.108659 99.000000
1.429694 2.895310 -0.745488 7.000000
2.735149 5.539020 0.323750 82.000000
1.551285 3.140166 -0.680807 6.000000
2.716285 5.495985 0.536356 78.000000
1.687168 3.412227 -0.602898 7.000000
2.690644 5.439324 0.745109 82.000000
1.856254 3.752547 -0.514045 3.000000
2.665277 5.385679 0.951747 97.000000
2.045615 4.131724 -0.403357 4.000000
2.640333 5.330592 1.156303 84.000000
2.303913 4.649350 -0.271938 1.000000
2.613084 5.273264 1.358704 87.000000
2.614852 5.274518 -0.102760 2.000000
2.603421 5.249159 1.569996 99.000000
1.333742 2.680930 -0.802339 9.000000
2.772823 5.571161 0.108624 100.000000
1.437550 2.887064 -0.744588 7.000000
2.750904 5.522289 0.323332 86.000000
1.559063 3.129733 -0.679662 7.000000
2.727384 5.472682 0.534962 81.000000
1.701118 3.411917 -0.603837 8.000000
2.708666 5.430372 0.745109 80.000000
1.864022 3.735387 -0.512583 4.000000
2.681413 5.371040 0.950809 100.000000
2.065368 4.135253 -0.404403 3.000000
2.660628 5.327075 1.157447 81.000000
2.312175 4.627392 -0.271100 1.000000
2.633219 5.267596 1.359604 91.000000
2.629671 5.258204 -0.102620 2.000000
2.617405 5.231401 1.567408 92.000000
1.343560 2.676023 -0.802339 10.000000
2.786871 5.550725 0.108414 100.000000
1.446743 2.880288 -0.744138 9.000000
2.771958 5.516221 0.323541 88.000000
1.570524 3.123997 -0.679662 8.000000
2.740261 5.448409 0.533567 81.000000
1.703846 3.386249 -0.600396 7.000000
2.725821 5.417337 0.744622 82.000000
1.878836 3.732403 -0.513070 5.000000
2.694813 5.351063 0.948932 100.000000
2.077996 4.124460 -0.404054 3.000000
2.675716 5.308523 1.155539 84.000000
2.329119 4.618886 -0.271100 1.000000
2.653385 5.259650 1.360054 91.000000
2.658816 5.270417 -0.103039 4.000000
2.626077 5.203261 1.561714 89.000000
1.352892 2.671317 -0.802339 9.000000
2.802676 5.531555 0.108240 95.000000
1.452886 2.866275 -0.741889 7.000000
2.790350 5.502463 0.323332 90.000000
1.585858 3.127251 -0.681570 8.000000
2.761068 5.442364 0.533916 77.000000
1.721021 3.390849 -0.602273 7.000000
2.740265 5.396691 0.743159 82.000000
1.899695 3.739651 -0.515020 4.000000
2.717991 5.348192 0.950183 100.000000
2.091292 4.113265 -0.403705 4.000000
2.684441 5.279901 1.151342 89.000000
2.336174 4.592926 -0.270054 1.000000
2.676148 5.259039 1.362304 89.000000
2.663599 5.232125 -0.102481 4.000000
2.644252 5.191880 1.561196 92.000000
1.366191 2.673221 -0.804410 9.000000
2.821059 5.519957 0.108205 78.000000
1.461994 2.859451 -0.741439 9.000000
2.800446 5.474906 0.322285 86.000000
1.595522 3.117922 -0.680807 8.000000
2.777363 5.425114 0.533219 82.000000
1.734338 3.386277 -0.602586 8.000000
2.756373 5.381791 0.742428 85.000000
1.900065 3.708263 -0.511608 5.000000
2.731233 5.328126 0.948306 100.000000
2.105639 4.105939 -0.403705 3.000000
2.705568 5.273519 1.152105 89.000000
2.352991 4.584333 -0.270054 1.000000
2.682942 5.224927 1.356005 87.000000
2.686415 5.231689 -0.102655 4.000000
2.664126 5.186055 1.562232 92.000000
1.369275 2.658612 -0.801304 9.000000
2.837513 5.507018 0.108135 78.000000
1.471469 2.854587 -0.741439 9.000000
2.814924 5.458489 0.321866 88.000000
1.599010 3.100680 -0.678135 8.000000
2.798051 5.423442 0.533916 78.000000
1.744967 3.380812 -0.602586 8.000000
2.771471 5.367330 0.741697 84.000000
1.906886 3.691360 -0.510145 4.000000
2.746167 5.313775 0.947367 99.000000
2.120356 4.102844 -0.404054 3.000000
2.718514 5.258018 1.150578 89.000000
2.372890 4.587560 -0.270682 1.000000
2.697551 5.213011 1.355105 91.000000
2.689039 5.194339 -0.102097 4.000000
2.683976 5.182337 1.563785 96.000000
1.376765 2.650387 -0.800269 9.000000
2.859487 5.502402 0.108240 83.000000
1.484122 2.854619 -0.742788 7.000000
2.835802 5.452175 0.322076 88.000000
1.605293 3.086371 -0.676227 8.000000
2.811444 5.403039 0.532870 82.000000
1.754022 3.369443 -0.601647 8.000000
2.792022 5.361145 0.742184 82.000000
1.928930 3.702287 -0.512583 5.000000
2.754657 5.284887 0.943926 100.000000
2.127299 4.081283 -0.402660 4.000000
2.740484 5.255459 1.152105 86.000000
2.385191 4.572167 -0.270263 1.000000
2.713028 5.198380 1.353755 91.000000
2.710857 5.192010 -0.102236 4.000000
2.691312 5.152390 1.557573 91.000000
1.382423 2.638720 -0.798198 10.000000
2.869395 5.474675 0.107891 95.000000
1.496791 2.854600 -0.744138 9.000000
2.852962 5.438704 0.321866 90.000000
1.617881 3.084226 -0.676990 8.000000
2.821030 5.375550 0.531127 82.000000
1.763016 3.358054 -0.600708 8.000000
2.808875 5.347851 0.741697 82.000000
1.941842 3.695530 -0.512583 4.000000
2.775842 5.280487 0.944864 100.000000
2.137821 4.066779 -0.401962 4.000000
2.754242 5.237173 1.150197 92.000000
2.412297 4.585024 -0.271519 1.000000
2.732062 5.190604 1.354205 85.000000
2.735485 5.194902 -0.102481 2.000000
2.706581 5.137836 1.556020 96.000000
1.395236 2.640711 -0.800269 11.000000
2.886617 5.461091 0.107821 85.000000
1.501281 2.839021 -0.741439 9.000000
2.868195 5.421650 0.321447 91.000000
1.628638 3.078559 -0.676990 8.000000
2.841640 5.369193 0.531476 82.000000
1.767333 3.337913 -0.598205 8.000000
2.821951 5.327487 0.740234 82.000000
1.952870 3.685222 -0.512095 5.000000
2.793333 5.269019 0.944551 100.000000
2.154804 4.064572 -0.402485 4.000000
2.766989 5.217120 1.147907 92.000000
2.411436 4.544819 -0.269635 1.000000
2.755647 5.191362 1.356905 92.000000
2.740473 5.160595 -0.101992 2.000000
2.723592 5.126652 1.555503 96.000000
1.402627 2.632415 -0.799233 10.000000
2.905664 5.450980 0.107821 85.000000
1.503847 2.820007 -0.737839 9.000000
2.884278 5.408586 0.321238 88.000000
1.636600 3.067660 -0.675846 8.000000
2.860366 5.359240 0.531476 78.000000
1.782696 3.338693 -0.599457 8.000000
2.836786 5.310603 0.739260 82.000000
1.963852 3.674881 -0.511608 5.000000
2.811723 5.261469 0.944864 100.000000
2.156769 4.034184 -0.400219 3.000000
2.785182 5.207430 1.147907 92.000000
2.423518 4.529329 -0.269216 1.000000
2.760877 5.157658 1.350606 89.000000
2.770782 5.176162 -0.102481 2.000000
2.737843 5.112483 1.553950 96.000000
1.413636 2.630906 -0.800269 10.000000
2.919937 5.434268 0.107681 83.000000
1.519648 2.827020 -0.740989 7.000000
2.898408 5.389689 0.320715 93.000000
1.648229 3.063657 -0.676227 8.000000
2.877168 5.345713 0.531127 82.000000
1.795631 3.336242 -0.600083 8.000000
2.853441 5.299417 0.739016 85.000000
1.970379 3.657863 -0.510145 5.000000
2.823514 5.239448 0.942674 100.000000
2.185019 4.052938 -0.402834 4.000000
2.800571 5.194710 1.147144 89.000000
2.438524 4.521268 -0.269216 1.000000
2.772415 5.138184 1.347907 79.000000
2.779334 5.148862 -0.102131 2.000000
2.760261 5.111394 1.556538 96.000000
1.418674 2.619409 -0.798198 11.000000
2.939840 5.425802 0.107716 78.000000
1.526720 2.816559 -0.739639 6.000000
2.920062 5.384806 0.321029 91.000000
1.652765 3.047819 -0.673937 8.000000
2.891076 5.329139 0.530430 82.000000
1.809150 3.333426 -0.600708 8.000000
2.875712 5.296402 0.739991 87.000000
1.986924 3.657940 -0.511120 5.000000
2.836125 5.219147 0.940797 100.000000
2.183228 4.017659 -0.400045 4.000000
2.820564 5.188352 1.147907 99.000000
2.461926 4.526764 -0.270054 1.000000
2.798714 5.143881 1.351956 96.000000
2.791555 5.128590 -0.101922 2.000000
2.773468 5.093244 1.553950 92.000000
1.424104 2.607659 -0.796127 10.000000
2.954928 5.408487 0.107577 87.000000
1.542151 2.821472 -0.742338 6.000000
2.936923 5.371076 0.320819 91.000000
1.669045 3.052367 -0.676227 8.000000
2.907749 5.315518 0.530081 85.000000
1.813187 3.313228 -0.598205 8.000000
2.892275 5.282850 0.739503 85.000000
1.997774 3.647499 -0.510633 6.000000
2.856223 5.212681 0.941423 100.000000
2.180962 3.980310 -0.397082 4.000000
2.831106 5.164702 1.144854 86.000000
2.479632 4.521646 -0.270263 1.000000
2.810091 5.122122 1.348807 84.000000
2.809439 5.118815 -0.101922 2.000000
2.783791 5.069985 1.549809 92.000000
1.433197 2.602673 -0.796127 10.000000
2.966071 5.384126 0.107297 92.000000
1.541643 2.797298 -0.737390 9.000000
2.953727 5.357293 0.320610 91.000000
1.677794 3.043083 -0.675464 8.000000
2.924363 5.301846 0.529733 83.000000
1.824741 3.306879 -0.598205 8.000000
2.903025 5.258819 0.737553 85.000000
2.010495 3.640503 -0.510633 5.000000
2.878222 5.209595 0.942674 100.000000
2.206403 3.993601 -0.399173 4.000000
2.848169 5.153069 1.144472 82.000000
2.478005 4.481501 -0.268379 1.000000
2.827952 5.112282 1.348807 84.000000
2.827291 5.108976 -0.101922 2.000000
2.801472 5.060236 1.549809 95.000000
1.442274 2.597653 -0.796127 11.000000
2.986788 5.377237 0.107367 87.000000
1.552346 2.793603 -0.737839 9.000000
2.962704 5.329494 0.319563 91.000000
1.686498 3.033777 -0.674701 8.000000
2.942851 5.291606 0.529733 82.000000
1.830511 3.290132 -0.596328 8.000000
2.917501 5.241715 0.736578 85.000000
2.011601 3.612652 -0.507708 6.000000
2.888700 5.185711 0.940171 100.000000
2.224210 3.992836 -0.399871 4.000000
2.864227 5.139667 1.143709 88.000000
2.493633 4.472824 -0.268379 1.000000
2.841035 5.093869 1.346557 84.000000
2.841209 5.092092 -0.101782 2.000000
2.818176 5.048740 1.549291 60.000000
1.455107 2.599346 -0.798198 9.000000
3.004564 5.365033 0.107332 85.000000
1.565897 2.794968 -0.739639 9.000000
2.981288 5.319120 0.319563 91.000000
1.693237 3.021021 -0.673174 8.000000
2.961305 5.281301 0.529733 81.000000
1.849717 3.297504 -0.598831 8.000000
2.934807 5.229769 0.736335 82.000000
2.020314 3.598683 -0.506733 5.000000
2.906785 5.175595 0.940171 100.000000
2.234924 3.977710 -0.399173 4.000000
2.876379 5.119369 1.141420 75.000000
2.511189 4.467574 -0.268588 1.000000
2.854980 5.077126 1.344757 34.000000
2.849161 5.064715 -0.101433 2.000000
2.876525 5.111264 1.571549 19.000000
1.459875 2.585585 -0.795610 7.000000
3.019337 5.347549 0.107193 73.000000
1.575644 2.789485 -0.739639 9.000000
3.000821 5.310419 0.319668 91.000000
1.706230 3.018213 -0.673937 8.000000
2.972795 5.256538 0.528338 81.000000
1.856926 3.282106 -0.597267 7.000000
2.953046 5.219492 0.736335 82.000000
2.038727 3.601976 -0.508195 5.000000
2.921913 5.160260 0.939233 99.000000
2.253707 3.978552 -0.400045 4.000000
2.912547 5.139536 1.148289 22.000000
2.531486 4.465290 -0.269007 1.000000
2.930289 5.166639 1.371302 15.000000
2.860905 5.044302 -0.101224 2.000000
2.941064 5.183523 1.596914 21.000000
1.466025 2.575436 -0.794057 9.000000
3.036942 5.332970 0.107123 83.000000
1.581999 2.776918 -0.737839 9.000000
3.015384 5.292971 0.319249 91.000000
1.715784 3.010533 -0.673556 8.000000
2.989154 5.242667 0.527989 78.000000
1.863477 3.267026 -0.595703 8.000000
2.974123 5.212083 0.736822 42.000000
2.051918 3.594478 -0.508195 5.000000
2.962433 5.189486 0.946429 21.000000
2.259676 3.956820 -0.398650 4.000000
2.976242 5.209458 1.166225 17.000000
2.541112 4.446022 -0.268379 1.000000
2.996670 5.240965 1.393797 19.000000
2.888420 5.051644 -0.101573 2.000000
3.004219 5.252041 1.621243 20.000000
1.475006 2.570302 -0.794057 10.000000
3.052618 5.319401 0.107053 85.000000
1.587317 2.764897 -0.736040 9.000000
3.034837 5.284144 0.319354 84.000000
1.729217 3.009632 -0.674701 10.000000
3.018354 5.251204 0.529907 20.000000
1.874300 3.260828 -0.595703 8.000000
3.032953 5.274467 0.747059 15.000000
2.061846 3.584213 -0.507708 5.000000
3.037674 5.278418 0.964575 19.000000
2.274469 3.950634 -0.398825 4.000000
3.042480 5.284630 1.185306 17.000000
2.563815 4.451417 -0.269216 1.000000
3.073379 5.333999 1.421241 18.000000
2.902043 5.034601 -0.101433 2.000000
3.078508 5.338587 1.651266 20.000000
1.487391 2.572086 -0.796127 9.000000
3.072167 5.310444 0.107088 59.000000
1.588174 2.744159 -0.731991 7.000000
3.097298 5.349569 0.323960 16.000000
1.735254 2.997084 -0.673174 10.000000
3.097666 5.348058 0.540714 15.000000
1.893595 3.267939 -0.598205 8.000000
3.101125 5.349717 0.759246 14.000000
2.070361 3.570125 -0.506733 5.000000
3.105645 5.353214 0.980218 19.000000
2.284245 3.935777 -0.398127 4.000000
3.117082 5.370762 1.207058 17.000000
2.555268 4.400987 -0.266704 1.000000
3.134068 5.395697 1.440587 18.000000
2.921610 5.027897 -0.101503 2.000000
3.150522 5.419668 1.679736 20.000000
1.500700 2.573292 -0.798198 9.000000
3.117887 5.346327 0.108030 9.000000
1.605599 2.752065 -0.735590 6.000000
3.162261 5.418076 0.328775 16.000000
1.744247 2.987314 -0.672411 8.000000
3.173523 5.433010 0.550476 15.000000
1.899580 3.250744 -0.596328 8.000000
3.180869 5.443411 0.774114 14.000000
2.084815 3.566303 -0.507220 6.000000
3.177167 5.432715 0.996801 19.000000
2.296961 3.926061 -0.397953 4.000000
3.200214 5.467742 1.231481 16.000000
2.579456 4.405380 -0.267541 1.000000
3.206025 5.473294 1.464431 18.000000
2.924989 4.993514 -0.101015 2.000000
3.230955 5.513642 1.712347 22.000000
1.495967 2.544724 -0.790951 9.000000
3.210448 5.458971 0.110544 2.000000
1.614688 2.744481 -0.735140 9.000000
3.239897 5.506846 0.334845 14.000000
1.754663 2.981207 -0.672411 8.000000
3.247057 5.514611 0.559888 16.000000
1.910916 3.244093 -0.596328 8.000000
3.256230 5.525778 0.787520 13.000000
2.101281 3.565845 -0.508195 7.000000
3.253291 5.518589 1.014634 15.000000
2.295471 3.892277 -0.395338 4.000000
3.272152 5.546157 1.251707 18.000000
2.582635 4.375710 -0.266285 1.000000
3.285572 5.566682 1.492325 20.000000
2.936304 4.972941 -0.100805 2.000000
3.299309 5.585497 1.738229 22.000000
1.504397 2.539749 -0.790951 10.000000
3.265231 5.510227 0.111800 2.000000
1.625768 2.742464 -0.736040 9.000000
3.324344 5.607745 0.341649 15.000000
1.762536 2.971995 -0.671648 8.000000
3.319205 5.594629 0.569127 16.000000
1.913599 3.224148 -0.593825 8.000000
3.333317 5.613950 0.801657 11.000000
2.109040 3.552031 -0.507220 5.000000
3.325039 5.597784 1.031216 17.000000
2.315491 3.896632 -0.396559 4.000000
3.345701 5.628093 1.272696 20.000000
2.605297 4.380855 -0.267123 1.000000
3.359792 5.649552 1.517520 18.000000
2.942555 4.945990 -0.100456 2.000000
3.375116 5.670812 1.768252 21.000000
1.514791 2.538064 -0.791986 10.000000
3.381900 5.664196 0.115151 5.000000
1.636852 2.740404 -0.736940 9.000000
3.395121 5.681832 0.346883 14.000000
1.776411 2.972875 -0.673174 8.000000
3.400100 5.687909 0.579760 16.000000
1.922251 3.214394 -0.593200 8.000000
3.408988 5.698261 0.815306 11.000000
2.119388 3.541240 -0.506733 5.000000
3.411533 5.698000 1.051865 17.000000
2.329079 3.888526 -0.396559 4.000000
3.418823 5.707916 1.293303 21.000000
2.615705 4.365337 -0.266704 1.000000
3.438608 5.736405 1.544064 12.000000
2.970085 4.952839 -0.100805 2.000000
1.528067 2.539116 -0.794057 10.000000
3.420209 5.683197 0.115779 2.000000
1.638366 2.721318 -0.733340 9.000000
3.475729 5.770890 0.353058 13.000000
1.787296 2.966344 -0.673174 8.000000
3.486749 5.784618 0.590916 17.000000
1.935039 3.209019 -0.593512 8.000000
3.485235 5.779825 0.828712 11.000000
2.125585 3.523621 -0.505270 7.000000
3.494681 5.790917 1.071263 15.000000
2.342637 3.880373 -0.396559 4.000000
3.492500 5.782734 1.313148 2.000000
2.627555 4.348884 -0.266285 1.000000
2.993563 4.952708 -0.101015 2.000000
1.536922 2.533766 -0.794057 10.000000
3.447242 5.680879 0.115989 2.000000
1.642261 2.705300 -0.730641 9.000000
3.552854 5.852625 0.358815 14.000000
1.792544 2.951697 -0.671266 7.000000
3.576233 5.886497 0.602595 17.000000
1.944176 3.198869 -0.592887 8.000000
3.564150 5.861997 0.842361 6.000000
2.134358 3.509023 -0.504295 5.000000
9.233732 15.180853 2.814256 87.000000
2.352026 3.865364 -0.395861 4.000000
2.646876 4.346508 -0.266704 1.000000
3.000429 4.925152 -0.100665 2.000000
1.537695 2.515200 -0.789916 10.000000
3.491094 5.710364 0.116826 2.000000
1.655291 2.706489 -0.732441 9.000000
3.642061 5.952629 0.365724 11.000000
1.797711 2.937050 -0.669358 8.000000
5.104336 8.336054 0.855172 1.000000
1.961995 3.204197 -0.595077 8.000000
6.665271 10.881001 1.566752 2.000000
2.148059 3.505311 -0.504783 5.000000
9.277371 15.133374 2.811440 97.000000
2.366545 3.858829 -0.396036 4.000000
2.661276 4.337706 -0.266704 1.000000
3.011323 4.904424 -0.100456 2.000000
1.554133 2.523246 -0.794057 9.000000
3.496318 5.674309 0.116338 2.000000
1.677000 2.720601 -0.737839 9.000000
4.132342 6.703910 0.412721 1.000000
1.811563 2.937756 -0.670884 8.000000
5.111028 8.285168 0.851686 3.000000
1.962795 3.180518 -0.591948 8.000000
6.703215 10.857668 1.566752 2.000000
2.162365 3.501171 -0.505270 4.000000
9.331655 15.109251 2.812692 97.000000
2.366762 3.830619 -0.393944 3.000000
2.672197 4.321597 -0.266285 1.000000
3.017052 4.877404 -0.100107 2.000000
1.560893 2.514523 -0.793022 10.000000
3.523554 5.676274 0.116617 2.000000
1.674703 2.696814 -0.732891 7.000000
4.172583 6.716588 0.414396 1.000000
1.821806 2.931415 -0.670884 8.000000
5.131505 8.253739 0.850291 1.000000
1.978545 3.182380 -0.593512 8.000000
6.739186 10.835377 1.566752 2.000000
2.171867 3.490609 -0.504783 5.000000
9.382255 15.073230 2.812066 97.000000
2.382227 3.825716 -0.394293 4.000000
2.686514 4.312711 -0.266285 1.000000
3.038292 4.873631 -0.100247 2.000000
1.565563 2.502508 -0.790951 11.000000
3.535847 5.649762 0.116338 2.000000
1.679405 2.682400 -0.730641 9.000000
4.180209 6.674168 0.412721 1.000000
1.832029 2.925037 -0.670884 8.000000
5.159229 8.234087 0.850117 3.000000
1.991244 3.176781 -0.593825 8.000000
6.778852 10.810605 1.566752 2.000000
2.178318 3.472535 -0.503320 5.000000
9.434283 15.033722 2.811128 97.000000
2.398350 3.820335 -0.394641 3.000000
2.691682 4.285922 -0.265239 1.000000
3.049748 4.852304 -0.100037 2.000000
1.574724 2.496753 -0.790951 11.000000
3.555548 5.637384 0.116338 2.000000
1.692918 2.683113 -0.732441 9.000000
4.203475 6.659538 0.412721 1.000000
1.835399 2.906683 -0.668213 10.000000
5.186179 8.210070 0.849594 1.000000
1.998652 3.162782 -0.592574 8.000000
2.188304 3.461555 -0.502833 4.000000
9.475093 14.982330 2.807686 87.000000
2.410607 3.810255 -0.394467 4.000000
2.711645 4.282778 -0.265657 1.000000
3.060249 4.831492 -0.099828 2.000000
1.579286 2.484719 -0.788880 12.000000
3.567602 5.610816 0.116058 2.000000
1.702740 2.676891 -0.732441 9.000000
4.226698 6.644824 0.412721 1.000000
1.844481 2.898602 -0.667832 9.000000
5.210525 8.185195 0.848897 3.000000
2.007559 3.152453 -0.591948 8.000000
6.802709 10.678110 1.554565 2.000000
2.200976 3.453512 -0.502833 5.000000
9.519899 14.937506 2.805496 96.000000
2.426032 3.805179 -0.394816 4.000000
2.717983 4.259817 -0.264820 1.000000
3.066333 4.803926 -0.099479 2.000000
1.583780 2.472685 -0.786810 12.000000
3.571087 5.575380 0.115570 2.000000
1.711608 2.671229 -0.732441 9.000000
4.249869 6.630028 0.412721 1.000000
1.854586 2.892147 -0.667832 7.000000
5.226158 8.146832 0.846805 1.000000
2.019070 3.147441 -0.592261 7.000000
6.891685 10.739027 1.566752 2.000000
2.220994 3.459558 -0.504783 5.000000
9.564514 14.892547 2.803306 96.000000
2.427455 3.778249 -0.392898 4.000000
2.736415 4.257500 -0.265239 1.000000
3.080921 4.789829 -0.099409 2.000000
7.766022 12.069008 3.845534 11.000000
1.598256 2.477159 -0.789916 11.000000
3.590529 5.562880 0.115570 2.000000
1.718809 2.661963 -0.731541 9.000000
4.272985 6.615154 0.412721 1.000000
1.865232 2.887630 -0.668213 10.000000
5.263957 8.146192 0.848548 1.000000
2.012886 3.113830 -0.587255 7.000000
6.821332 10.548215 1.542378 2.000000
2.233058 3.451784 -0.504783 4.000000
9.619664 14.864041 2.804245 86.000000
2.445384 3.778540 -0.393770 4.000000
9.595211 14.820602 3.431891 4.000000
2.742573 4.234512 -0.264401 1.000000
7.883782 12.167833 3.347272 70.000000
3.106322 4.792471 -0.099688 2.000000
7.815459 12.053174 3.849157 73.000000
1.606894 2.471564 -0.789916 12.000000
3.609924 5.550314 0.115570 2.000000
1.723837 2.649415 -0.729741 9.000000
4.296052 6.600197 0.412721 1.000000
1.880656 2.889328 -0.670121 8.000000
5.279316 8.107731 0.846457 3.000000
2.034525 3.123337 -0.590384 7.000000
6.888458 10.570907 1.549203 2.000000
2.238590 3.433990 -0.503320 5.000000
8.041050 12.330242 2.331500 33.000000
2.457470 3.768313 -0.393595 4.000000
7.982043 12.235093 2.839620 76.000000
2.755155 4.221567 -0.264192 1.000000
7.921944 12.133715 3.345472 68.000000
3.123033 4.781598 -0.099688 2.000000
7.859601 12.029051 3.850192 90.000000
1.617628 2.469173 -0.790951 11.000000
3.629278 5.537678 0.115570 2.000000
1.733076 2.643381 -0.729741 9.000000
4.296012 6.552510 0.410628 1.000000
1.882116 2.869612 -0.667068 7.000000
5.309769 8.092586 0.846805 1.000000
2.046498 3.117868 -0.590697 8.000000
8.167424 12.438452 1.827065 3.000000
2.248383 3.422837 -0.502833 4.000000
8.078638 12.298557 2.330561 59.000000
2.474984 3.766373 -0.394293 3.000000
8.024707 12.207153 2.839620 73.000000
2.785238 4.235287 -0.265657 1.000000
7.956750 12.094593 3.342323 70.000000
3.130079 4.757851 -0.099409 2.000000
7.896265 11.998078 3.848639 85.000000
1.617722 2.450613 -0.786810 11.000000
3.647620 5.525613 0.115570 2.000000
1.743981 2.640871 -0.730641 9.000000
8.356983 12.650006 0.794565 3.000000
1.892122 2.863025 -0.667068 7.000000
8.259706 12.493260 1.310299 4.000000
2.053559 3.106121 -0.589758 7.000000
8.193294 12.388121 1.823653 3.000000
2.255340 3.408739 -0.501858 5.000000
8.116072 12.262045 2.328997 59.000000
2.468316 3.727809 -0.391155 3.000000
8.060799 12.173933 2.838093 65.000000
2.786033 4.206045 -0.264401 1.000000
7.994665 12.064891 3.341423 70.000000
3.153296 4.756897 -0.099618 2.000000
7.931689 11.960785 3.845534 85.000000
1.625841 2.445235 -0.786810 11.000000
3.665780 5.511181 0.115535 2.000000
1.755347 2.638012 -0.731541 9.000000
8.378958 12.587503 0.792471 3.000000
1.901605 2.856735 -0.667068 7.000000
8.303295 12.469120 1.310648 6.000000
2.062197 3.095646 -0.589132 7.000000
8.247499 12.375962 1.826090 3.000000
2.269427 3.404150 -0.502346 5.000000
8.161014 12.236929 2.329623 59.000000
2.487949 3.729114 -0.392201 4.000000
8.095620 12.134287 2.835422 78.000000
2.814002 4.216230 -0.265657 1.000000
8.036728 12.036912 3.341423 70.000000
3.154333 4.722580 -0.099130 2.000000
7.962657 11.916964 3.840357 85.000000
1.634791 2.439260 -0.786810 12.000000
3.691674 5.508319 0.115744 2.000000
1.760205 2.625394 -0.729741 9.000000
8.411724 12.541590 0.791424 3.000000
1.909874 2.846486 -0.666305 9.000000
8.338951 12.423712 1.309079 4.000000
2.072429 3.086426 -0.588819 8.000000
8.275159 12.324023 1.822678 3.000000
2.276867 3.389616 -0.501371 6.000000
8.201478 12.205086 2.328997 59.000000
2.502064 3.722059 -0.392375 4.000000
8.135655 12.098019 2.833895 78.000000
2.795992 4.156172 -0.262517 1.000000
8.078617 12.004139 3.340523 73.000000
3.170800 4.711539 -0.099130 2.000000
8.011756 11.900314 3.843981 90.000000
1.645459 2.436740 -0.787845 11.000000
3.711837 5.494752 0.115744 2.000000
1.763268 2.609238 -0.727042 9.000000
8.457685 12.515462 0.791634 3.000000
1.924198 2.846307 -0.667832 9.000000
8.394543 12.412685 1.310997 4.000000
2.079869 3.074265 -0.587881 7.000000
8.320271 12.293612 1.822678 3.000000
2.291502 3.384535 -0.501858 6.000000
8.238492 12.168205 2.327432 59.000000
2.512805 3.710004 -0.392027 4.000000
8.173434 12.063044 2.832369 81.000000
2.814964 4.153001 -0.262936 1.000000
8.110625 11.961352 3.336474 78.000000
3.187226 4.700443 -0.099130 2.000000
8.045658 11.861083 3.840357 97.000000
1.660474 2.440565 -0.790951 12.000000
3.718791 5.465878 0.115395 2.000000
1.771910 2.603377 -0.727042 10.000000
8.494579 12.475954 0.791006 3.000000
1.925279 2.826593 -0.664779 7.000000
8.433330 12.376722 1.310299 4.000000
2.090052 3.067352 -0.587881 7.000000
8.372176 12.282354 1.825115 3.000000
2.289292 3.357238 -0.498933 5.000000
8.275350 12.131217 2.325868 59.000000
2.527988 3.704501 -0.392375 4.000000
8.210074 12.031005 2.831224 84.000000
2.830974 4.146942 -0.263145 1.000000
8.139254 11.918299 3.331975 70.000000
3.192335 4.672777 -0.098781 2.000000
8.088106 11.834519 3.840875 92.000000
1.657638 2.419110 -0.785775 12.000000
3.737849 5.452863 0.115395 2.000000
1.783192 2.600389 -0.727942 9.000000
8.538068 12.446233 0.791006 3.000000
1.936863 2.823431 -0.665542 9.000000
8.456291 12.322402 1.307510 4.000000
2.100747 3.060037 -0.587881 7.000000
8.412743 12.249788 1.824628 3.000000
2.309991 3.362315 -0.500883 5.000000
8.306458 12.085974 2.322739 59.000000
2.536386 3.689089 -0.391678 4.000000
8.255350 12.007133 2.832369 81.000000
2.849959 4.143618 -0.263564 1.000000
8.186334 11.897840 3.334224 73.000000
3.215427 4.671491 -0.098990 2.000000
8.119504 11.791895 3.836216 90.000000
1.664299 2.409837 -0.784739 12.000000
3.743225 5.420037 0.114976 2.000000
1.798903 2.603769 -0.730641 10.000000
8.586007 12.422924 0.791424 3.000000
1.951666 2.822771 -0.667068 7.000000
8.490063 12.274940 1.305767 4.000000
2.109700 3.049068 -0.587255 7.000000
8.462232 12.230141 1.826090 3.000000
2.319455 3.350966 -0.500396 6.000000
8.354217 12.065027 2.324304 59.000000
2.539038 3.665471 -0.390109 3.000000
8.291484 11.965493 2.829698 84.000000
2.867402 4.136427 -0.263773 1.000000
8.227662 11.864555 3.333325 73.000000
3.236273 4.666810 -0.099130 2.000000
8.156215 11.757131 3.834146 92.000000
1.679320 2.413529 -0.787845 10.000000
3.776773 5.425976 0.115395 2.000000
1.799527 2.584364 -0.727042 9.000000
8.624756 12.386318 0.791006 3.000000
1.957017 2.809499 -0.665542 7.000000
8.543113 12.259940 1.307336 4.000000
2.113553 3.031962 -0.585378 7.000000
8.484288 12.166478 1.821216 3.000000
2.331721 3.342443 -0.500396 5.000000
8.391763 12.029309 2.323052 53.000000
2.560940 3.669657 -0.391504 3.000000
8.328697 11.930043 2.828171 91.000000
2.872675 4.113293 -0.262936 1.000000
8.270146 11.837358 3.333775 78.000000
3.238801 4.635813 -0.098711 2.000000
8.194983 11.725427 3.833110 90.000000
1.685517 2.404488 -0.786810 11.000000
3.794744 5.413423 0.115395 2.000000
1.805849 2.575192 -0.726142 9.000000
8.658762 12.343058 0.790168 3.000000
1.971324 2.809078 -0.667068 7.000000
8.593873 12.241456 1.308556 4.000000
2.121326 3.021702 -0.584752 7.000000
8.506336 12.112282 1.817316 6.000000
2.340508 3.331444 -0.499908 6.000000
8.439384 12.008021 2.324616 59.000000
2.573733 3.660695 -0.391504 3.000000
8.365958 11.899145 2.827408 84.000000
2.874809 4.087408 -0.261889 1.000000
8.297023 11.792334 3.328826 73.000000
3.268774 4.644103 -0.099130 2.000000
8.241426 11.704645 3.835698 83.000000
1.695710 2.402041 -0.787845 10.000000
3.809002 5.393611 0.115256 2.000000
1.817075 2.572056 -0.727042 10.000000
8.687965 12.293184 0.788912 3.000000
1.973831 2.792905 -0.664779 7.000000
8.627510 12.203135 1.307510 4.000000
2.136422 3.020732 -0.586004 7.000000
8.552007 12.087375 1.818047 6.000000
2.342948 3.310292 -0.497958 6.000000
8.473249 11.967211 2.322426 59.000000
2.588160 3.655393 -0.391852 3.000000
8.407446 11.869868 2.827408 84.000000
2.893679 4.083866 -0.262308 1.000000
8.333620 11.756948 3.327026 73.000000
3.271086 4.613089 -0.098711 2.000000
8.269941 11.658471 3.830004 90.000000
1.706323 2.399257 -0.788880 9.000000
3.818534 5.367246 0.114976 2.000000
1.828303 2.568873 -0.727942 9.000000
8.740088 12.275801 0.789750 3.000000
1.982428 2.784399 -0.664397 6.000000
8.653876 12.150224 1.305070 4.000000
2.158417 3.029343 -0.589132 7.000000
8.595298 12.059067 1.818291 6.000000
2.366014 3.318256 -0.500396 5.000000
8.500062 11.916651 2.318359 59.000000
2.589335 3.630115 -0.390109 3.000000
8.446546 11.837254 2.826645 91.000000
2.910237 4.076992 -0.262517 1.000000
8.376877 11.730955 3.327926 73.000000
3.275544 4.585371 -0.098362 2.000000
8.303844 11.620104 3.826898 90.000000
1.703436 2.377582 -0.783704 9.000000
3.832588 5.347382 0.114837 2.000000
1.846342 2.575145 -0.731541 9.000000
8.776091 12.240259 0.789331 3.000000
1.993279 2.779058 -0.664779 7.000000
8.695078 12.118321 1.304896 4.000000
2.157458 3.005743 -0.586004 7.000000
8.632706 12.022543 1.817316 6.000000
2.374689 3.307167 -0.499908 6.000000
8.538383 11.886792 2.318046 59.000000
2.605478 3.625909 -0.390632 4.000000
8.483228 11.801323 2.825118 91.000000
2.929116 4.073294 -0.262936 1.000000
8.414597 11.701528 3.327476 78.000000
3.302409 4.590718 -0.098711 2.000000
8.342336 11.592501 3.826898 92.000000
1.711312 2.371920 -0.783704 11.000000
3.840935 5.321672 0.114558 2.000000
1.838902 2.546889 -0.725242 9.000000
8.821313 12.217565 0.789750 3.000000
1.997887 2.766066 -0.663252 7.000000
8.734046 12.087807 1.304721 4.000000
2.160472 2.988966 -0.584126 7.000000
8.662061 11.979369 1.815122 6.000000
2.387970 3.302491 -0.500396 6.000000
8.574279 11.853613 2.317107 59.000000
2.609313 3.605950 -0.389412 3.000000
8.513109 11.760402 2.822065 84.000000
2.937921 4.057088 -0.262517 1.000000
8.453352 11.673560 3.327476 78.000000
3.301192 4.557069 -0.098222 2.000000
8.377329 11.560082 3.825346 94.000000
1.723710 2.372484 -0.785775 10.000000
3.846804 5.292731 0.114209 2.000000
1.849629 2.543929 -0.726142 9.000000
8.852155 12.170547 0.788703 3.000000
2.012822 2.767365 -0.665160 6.000000
8.791663 12.082945 1.307336 4.000000
2.170371 2.981786 -0.584126 7.000000
8.699399 11.947371 1.814635 9.000000
2.392471 3.284507 -0.498933 7.000000
8.624907 11.836384 2.319611 66.000000
2.623602 3.600498 -0.389760 3.000000
8.553221 11.733690 2.822447 89.000000
2.951359 4.047322 -0.262517 1.000000
8.488304 11.636112 3.325227 73.000000
3.328868 4.561670 -0.098571 2.000000
8.417634 11.530767 3.825346 94.000000
1.734262 2.369571 -0.786810 9.000000
3.900696 5.327673 0.115256 2.000000
1.858498 2.537457 -0.726142 9.000000
8.894582 12.139574 0.788703 3.000000
