# This PCD file was generated using the MATLAB® pcwrite function
# from Computer Vision Toolbox®.
# .PCD v.7 - Point Cloud Data file format
VERSION .7
FIELDS x y z intensity
SIZE 4 4 4 4
TYPE F F F F
COUNT 1 1 1 1
WIDTH 1276
HEIGHT 1
VIEWPOINT 0 0 0 1 0 0 0
POINTS 1276
DATA ascii
1.325265 6.686966 1.079711 36.000000
0.996603 5.028614 -0.448503 1.000000
1.329756 6.703471 1.328412 96.000000
1.135767 5.720334 -0.305642 1.000000
1.323763 6.661097 1.567909 25.000000
1.249169 6.279993 -0.111765 14.000000
1.314219 6.601017 1.803451 31.000000
0.627363 3.131119 -0.855656 9.000000
1.260604 6.285865 0.111905 15.000000
0.678056 3.377993 -0.795427 7.000000
1.262046 6.281683 0.335788 12.000000
0.744413 3.705225 -0.734615 8.000000
1.350797 6.717357 0.599457 43.000000
0.817351 4.060927 -0.656086 6.000000
1.350930 6.705906 0.839924 24.000000
0.901269 4.469799 -0.559868 3.000000
1.359152 6.734579 1.088158 52.000000
1.012661 5.013208 -0.447458 1.000000
1.353923 6.702638 1.329176 54.000000
1.148605 5.681097 -0.303758 1.000000
1.344303 6.643065 1.564759 23.000000
1.311175 6.473544 -0.115291 2.000000
1.335719 6.588815 1.801381 29.000000
0.635745 3.113656 -0.851515 9.000000
1.291341 6.324530 0.112673 17.000000
0.690232 3.377515 -0.795877 7.000000
1.294371 6.328115 0.338509 10.000000
0.755627 3.690931 -0.732325 8.000000
1.380206 6.735784 0.601549 43.000000
0.828260 4.038553 -0.652958 6.000000
1.384299 6.749766 0.846017 21.000000
0.918065 4.472459 -0.560599 3.000000
1.388216 6.756883 1.092538 91.000000
1.023732 4.978418 -0.444669 1.000000
1.376503 6.688015 1.327267 29.000000
1.175060 5.704235 -0.305223 1.000000
1.365493 6.622825 1.561160 21.000000
1.338608 6.492430 -0.115709 2.000000
1.352465 6.553841 1.793098 27.000000
0.647396 3.115201 -0.852550 10.000000
1.320212 6.347164 0.113161 15.000000
0.702606 3.374962 -0.795877 6.000000
1.402341 6.736135 0.360595 21.000000
0.770908 3.699803 -0.734615 8.000000
1.411440 6.767982 0.604861 40.000000
0.840739 4.027902 -0.651706 6.000000
1.421208 6.802941 0.853329 25.000000
0.934856 4.471007 -0.560843 3.000000
1.407348 6.730728 1.089097 23.000000
1.041105 4.974814 -0.444669 3.000000
1.401046 6.688934 1.328412 29.000000
1.184311 5.649275 -0.302502 1.000000
1.386603 6.608482 1.558911 19.000000
1.354283 6.454447 -0.115116 4.000000
1.371362 6.530174 1.787922 25.000000
0.656666 3.105362 -0.850479 9.000000
1.361110 6.436661 0.114837 17.000000
0.711374 3.361175 -0.793177 6.000000
1.444473 6.819124 0.365305 27.000000
0.782188 3.689408 -0.733088 8.000000
1.445807 6.813688 0.609393 48.000000
0.854091 4.025092 -0.651706 6.000000
1.449944 6.827318 0.856985 30.000000
0.949677 4.467883 -0.560843 3.000000
1.431244 6.727706 1.089410 21.000000
1.060953 4.982842 -0.445714 3.000000
1.416677 6.653528 1.322306 29.000000
1.197209 5.617969 -0.301036 1.000000
1.409325 6.607659 1.559811 19.000000
1.370124 6.418390 -0.114558 26.000000
1.394957 6.529125 1.788957 27.000000
0.668585 3.110722 -0.852550 9.000000
1.468938 6.828731 0.121923 31.000000
0.721052 3.349145 -0.790928 6.000000
1.477525 6.856993 0.367608 25.000000
0.794006 3.684874 -0.732707 7.000000
1.477633 6.851705 0.613228 52.000000
0.868137 4.022086 -0.651706 6.000000
1.482991 6.864902 0.862348 30.000000
0.961910 4.449018 -0.558893 2.000000
1.450961 6.705292 1.086594 18.000000
1.070730 4.948139 -0.442925 3.000000
1.436571 6.633192 1.319253 24.000000
1.216811 5.613756 -0.301036 1.000000
1.426183 6.574132 1.553062 21.000000
1.396765 6.433110 -0.114907 7.000000
1.415684 6.514778 1.786369 23.000000
0.678614 3.104594 -0.851515 9.000000
1.501742 6.864584 0.122656 31.000000
0.733155 3.348512 -0.791378 5.000000
1.508290 6.883010 0.369283 24.000000
0.803081 3.664820 -0.729272 8.000000
1.512640 6.897104 0.617760 52.000000
0.879206 4.005526 -0.649516 5.000000
1.513758 6.890706 0.866247 30.000000
0.975730 4.437878 -0.557918 3.000000
1.470114 6.680894 1.083465 18.000000
1.090566 4.956047 -0.443971 3.000000
1.456759 6.614716 1.316582 21.000000
1.237261 5.613375 -0.301246 1.000000
1.446605 6.557696 1.550363 19.000000
1.419642 6.430149 -0.114942 2.000000
1.437168 6.504137 1.784816 27.000000
0.688609 3.098435 -0.850479 9.000000
1.536116 6.906147 0.123493 31.000000
0.742298 3.334519 -0.788678 6.000000
1.541521 6.924760 0.371795 24.000000
0.814162 3.654329 -0.727746 8.000000
1.542779 6.919006 0.620200 45.000000
0.895333 4.012072 -0.651080 6.000000
1.539102 6.891191 0.866979 10.000000
0.992083 4.438320 -0.558405 3.000000
1.489674 6.664416 1.081588 18.000000
1.099156 4.913324 -0.440485 3.000000
1.481128 6.615337 1.317727 23.000000
1.254229 5.597328 -0.300618 1.000000
1.469482 6.552608 1.550363 21.000000
1.438331 6.413698 -0.114732 2.000000
1.456192 6.488025 1.781710 40.000000
0.694310 3.073400 -0.844268 9.000000
1.564733 6.926374 0.123947 21.000000
0.754641 3.337741 -0.790028 6.000000
1.574942 6.960245 0.373993 22.000000
0.830379 3.666784 -0.730798 8.000000
1.576168 6.954385 0.623861 47.000000
0.906887 4.001375 -0.649829 7.000000
1.556235 6.860882 0.863810 10.000000
1.008115 4.440813 -0.559137 3.000000
1.510301 6.647618 1.079711 18.000000
1.116302 4.909457 -0.440485 3.000000
1.497833 6.587418 1.313148 23.000000
1.271012 5.585347 -0.300199 1.000000
1.485580 6.522996 1.544514 48.000000
0.707091 3.082379 -0.847374 9.000000
1.595168 6.948155 0.124436 5.000000
0.763670 3.323691 -0.787329 6.000000
1.609969 7.001420 0.376505 22.000000
0.839015 3.648703 -0.727746 6.000000
1.610837 6.999602 0.628393 49.000000
0.914199 3.969309 -0.645136 6.000000
1.573485 6.826394 0.860154 9.000000
1.019591 4.419858 -0.556943 3.000000
1.531721 6.634606 1.078459 18.000000
1.132577 4.905727 -0.440485 3.000000
1.517281 6.566846 1.310095 31.000000
1.488489 6.426877 -0.115151 2.000000
1.518024 6.549216 1.801381 25.000000
0.718285 3.081773 -0.847891 7.000000
1.635766 7.012651 0.125692 2.000000
0.776151 3.324801 -0.788229 6.000000
1.643942 7.036600 0.378703 25.000000
0.852194 3.647664 -0.728127 7.000000
1.647510 7.046318 0.633099 56.000000
0.926696 3.960325 -0.644197 6.000000
1.596853 6.818926 0.859910 10.000000
1.029125 4.391147 -0.553774 2.000000
1.553061 6.621528 1.077208 18.000000
1.150601 4.905624 -0.440834 3.000000
1.538401 6.553864 1.308568 31.000000
1.499005 6.371032 -0.114243 2.000000
1.555490 6.605931 1.818463 27.000000
0.728149 3.075487 -0.846856 7.000000
1.665766 7.030249 0.126111 2.000000
0.786854 3.318279 -0.787329 6.000000
1.677720 7.069684 0.380796 24.000000
0.861296 3.629385 -0.725074 7.000000
1.683144 7.087048 0.637283 52.000000
0.945997 3.980127 -0.647952 6.000000
1.644535 6.913733 0.872585 7.000000
1.044446 4.387528 -0.553774 3.000000
1.573878 6.606458 1.075644 55.000000
1.168643 4.905454 -0.441182 3.000000
1.593598 6.684045 1.335663 2.000000
0.450559 1.888328 -0.101741 1.000000
1.511011 6.322972 -0.113476 2.000000
1.697613 7.098361 1.955637 2.000000
0.737523 3.067292 -0.845303 7.000000
1.705269 7.086606 0.127228 2.000000
0.795695 3.304145 -0.784629 6.000000
1.713613 7.110386 0.383309 19.000000
0.869358 3.607271 -0.721258 7.000000
1.717216 7.119866 0.640769 48.000000
0.956641 3.963359 -0.645762 7.000000
1.722256 7.129855 0.900615 20.000000
1.056958 4.372278 -0.552312 3.000000
1.179201 4.874233 -0.438742 3.000000
1.690832 6.983743 1.396722 2.000000
0.459970 1.898390 -0.102369 53.000000
1.531186 6.309886 -0.113336 2.000000
1.680440 6.919681 1.908014 2.000000
0.745551 3.051431 -0.841680 7.000000
1.752128 7.165777 0.128764 2.000000
0.807799 3.301206 -0.784629 6.000000
1.752966 7.158375 0.386239 17.000000
0.886310 3.619316 -0.724311 8.000000
1.752784 7.152227 0.644255 58.000000
0.967867 3.946397 -0.643571 6.000000
1.762104 7.179402 0.907683 17.000000
1.074869 4.376086 -0.553287 3.000000
1.668737 6.788772 1.107243 2.000000
1.197057 4.869879 -0.438742 3.000000
1.708450 6.945088 1.390234 2.000000
0.463583 1.883116 -0.101636 73.000000
1.549517 6.284816 -0.112987 2.000000
1.749290 7.089783 1.956672 5.000000
0.758058 3.056311 -0.843750 7.000000
1.790621 7.213959 0.129741 2.000000
0.820257 3.302149 -0.785529 7.000000
1.791914 7.208422 0.389275 20.000000
0.894675 3.599052 -0.720876 8.000000
1.793133 7.207936 0.649833 58.000000
0.977818 3.927659 -0.641069 6.000000
1.796747 7.211733 0.912558 16.000000
1.091099 4.376160 -0.553774 3.000000
1.713464 6.867237 1.121009 2.000000
1.215012 4.869537 -0.439091 3.000000
1.736961 6.956225 1.393669 5.000000
0.465796 1.864047 -0.100694 71.000000
1.568532 6.267730 -0.112777 2.000000
1.777784 7.098625 1.960813 5.000000
0.768723 3.053646 -0.843750 7.000000
1.815790 7.207665 0.129741 2.000000
0.827968 3.284148 -0.781930 7.000000
1.825087 7.239237 0.391264 17.000000
0.911556 3.613040 -0.724311 7.000000
1.829011 7.244132 0.653668 56.000000
0.994910 3.937629 -0.643259 7.000000
1.832617 7.247756 0.917920 16.000000
1.099550 4.345382 -0.550362 3.000000
1.767727 6.985993 1.141346 5.000000
1.229070 4.853677 -0.438045 3.000000
1.773770 6.999601 1.403591 2.000000
0.470827 1.856602 -0.100380 77.000000
1.599144 6.301260 -0.113476 2.000000
1.796557 7.073967 1.955637 5.000000
0.777464 3.043457 -0.841680 9.000000
1.859477 7.279103 0.131137 2.000000
0.839336 3.283273 -0.782380 10.000000
1.859753 7.269586 0.393252 16.000000
0.920753 3.596522 -0.721640 8.000000
1.868134 7.291744 0.658549 60.000000
1.001590 3.909431 -0.639191 6.000000
1.867490 7.283942 0.923282 16.000000
1.116420 4.351326 -0.551581 3.000000
1.813228 7.062052 1.154799 2.000000
1.244023 4.841638 -0.437348 3.000000
1.812608 7.054528 1.415803 5.000000
0.477975 1.858899 -0.100590 74.000000
1.818345 7.056428 1.952531 5.000000
0.785131 3.031511 -0.839091 9.000000
1.890897 7.295797 0.131556 5.000000
0.850793 3.280323 -0.782380 10.000000
1.901172 7.324912 0.396602 16.000000
0.928730 3.578247 -0.718587 8.000000
1.903822 7.329863 0.662558 63.000000
1.018211 3.917382 -0.641069 6.000000
1.907894 7.335014 0.930594 13.000000
1.125602 4.324350 -0.548656 4.000000
1.848821 7.097734 1.161682 2.000000
1.870895 7.177342 1.441753 7.000000
0.483453 1.853354 -0.100380 76.000000
0.499853 1.913489 -0.034521 1.000000
1.839547 7.036955 1.948907 7.000000
0.795709 3.028752 -0.839091 13.000000
1.914317 7.281416 0.131417 2.000000
0.862237 3.277333 -0.782380 10.000000
1.942495 7.378106 0.399847 17.000000
0.940216 3.571186 -0.717823 8.000000
1.940562 7.365559 0.666393 63.000000
1.031375 3.911894 -0.640756 7.000000
1.949693 7.389730 0.938394 13.000000
1.143225 4.329991 -0.549874 3.000000
1.890235 7.154263 1.172007 5.000000
0.505384 1.912805 -0.173091 1.000000
1.872854 7.083457 1.424198 2.000000
0.489920 1.851655 -0.100380 74.000000
0.482970 1.822814 -0.032915 10.000000
1.857665 7.006215 1.942178 2.000000
0.804782 3.020356 -0.837538 13.000000
1.944877 7.294011 0.131766 2.000000
0.870659 3.263006 -0.779680 10.000000
1.981367 7.425657 0.402778 16.000000
0.949634 3.556502 -0.715534 8.000000
1.980664 7.412636 0.671273 56.000000
1.039412 3.887279 -0.637314 7.000000
1.984707 7.417399 0.942781 13.000000
1.152684 4.304881 -0.547193 4.000000
1.934900 7.226190 1.184835 2.000000
0.495557 1.849445 -0.167513 18.000000
1.908750 7.118596 1.432594 5.000000
0.493275 1.838360 -0.099752 77.000000
0.489531 1.823134 -0.032950 39.000000
1.867352 6.949643 1.928202 7.000000
0.817841 3.026853 -0.840127 13.000000
1.969052 7.287522 0.131766 2.000000
0.879441 3.252576 -0.777881 10.000000
2.018228 7.459182 0.404976 16.000000
0.967175 3.572116 -0.719350 8.000000
2.022681 7.465291 0.676677 62.000000
1.052298 3.883810 -0.637314 7.000000
2.022801 7.460590 0.949119 13.000000
1.165913 4.297203 -0.546706 3.000000
1.957008 7.207953 1.182958 5.000000
0.496263 1.826554 -0.165596 50.000000
1.928744 7.098965 1.429923 5.000000
0.496224 1.825150 -0.099124 79.000000
1.906716 7.008205 1.676785 7.000000
0.496416 1.823344 -0.032985 73.000000
2.048512 7.519033 2.088152 39.000000
0.825324 3.014808 -0.837538 13.000000
1.994481 7.280604 0.131766 2.000000
0.890787 3.249487 -0.777881 10.000000
2.056936 7.498317 0.407488 16.000000
0.974861 3.553742 -0.716297 8.000000
2.064829 7.521946 0.682429 70.000000
1.065323 3.878209 -0.637001 7.000000
2.064618 7.510906 0.956431 13.000000
1.173010 4.264397 -0.543050 3.000000
1.979007 7.189651 1.181080 2.000000
0.507605 1.844108 -0.167339 76.000000
1.945694 7.063797 1.424198 7.000000
0.502592 1.823407 -0.099124 79.000000
0.497990 1.804251 -0.032671 83.000000
2.092234 7.575149 2.105752 68.000000
0.833774 3.004463 -0.835468 14.000000
2.004899 7.219648 0.130788 2.000000
0.903168 3.250113 -0.778781 11.000000
2.098082 7.544971 0.410419 16.000000
0.986735 3.548425 -0.715915 8.000000
2.101754 7.553082 0.685916 56.000000
1.079914 3.878272 -0.637627 7.000000
2.108409 7.566756 0.964474 12.000000
1.195351 4.287047 -0.546462 3.000000
1.999846 7.167478 1.178577 2.000000
0.506543 1.815458 -0.164899 80.000000
1.965062 7.038053 1.420382 5.000000
0.508954 1.821641 -0.099124 79.000000
2.124549 7.599045 1.821654 42.000000
0.501053 1.790947 -0.032461 85.000000
2.129599 7.606866 2.116622 78.000000
0.842165 2.994096 -0.833397 13.000000
2.018170 7.170258 0.130020 2.000000
0.913979 3.245065 -0.778331 12.000000
2.142822 7.602963 0.413977 15.000000
0.996983 3.537402 -0.714389 7.000000
2.128649 7.547617 0.686090 16.000000
1.090762 3.864973 -0.636063 6.000000
2.146672 7.601380 0.969836 12.000000
1.208150 4.275207 -0.545487 3.000000
1.998516 7.067312 1.163247 5.000000
0.510167 1.804093 -0.164027 86.000000
2.157997 7.626212 1.540592 60.000000
0.514766 1.817932 -0.099020 81.000000
2.169127 7.655329 1.836950 47.000000
0.506755 1.787264 -0.032427 81.000000
2.169851 7.647706 2.130081 70.000000
0.852612 2.991137 -0.833397 13.000000
0.919953 3.223115 -0.773832 11.000000
2.184708 7.649209 0.416908 16.000000
1.008247 3.530124 -0.713626 7.000000
2.168121 7.586118 0.690273 6.000000
1.101532 3.851646 -0.634498 7.000000
2.189034 7.649187 0.976905 13.000000
1.220333 4.261422 -0.544268 2.000000
2.193493 7.654664 1.261175 12.000000
0.515912 1.800386 -0.163853 80.000000
2.198135 7.665812 1.550132 74.000000
0.517252 1.802685 -0.098287 77.000000
2.213043 7.707649 1.851347 47.000000
0.511334 1.779718 -0.032322 85.000000
2.214150 7.701354 2.147163 73.000000
0.863583 2.989999 -0.833915 13.000000
0.931199 3.219884 -0.773832 12.000000
2.224719 7.687581 0.419420 16.000000
1.020017 3.524698 -0.713244 8.000000
2.215092 7.649313 0.696723 2.000000
1.114421 3.845880 -0.634185 7.000000
2.231752 7.696789 0.983973 12.000000
2.237276 7.705769 1.270874 27.000000
0.522749 1.800487 -0.164027 84.000000
2.244049 7.724078 1.563489 69.000000
0.520196 1.789362 -0.097659 76.000000
2.251912 7.741043 1.861245 47.000000
0.517543 1.777923 -0.032322 85.000000
2.256681 7.747368 2.162174 76.000000
0.874016 2.986966 -0.833915 13.000000
0.518650 1.771350 0.032217 2.000000
0.940789 3.211004 -0.772482 11.000000
2.265028 7.725766 0.421933 15.000000
1.027344 3.504160 -0.709810 7.000000
2.274311 7.752419 0.706833 2.000000
1.127282 3.840071 -0.633873 7.000000
2.275951 7.747995 0.991529 11.000000
0.526780 1.792156 -0.229358 6.000000
2.276421 7.739605 1.277757 27.000000
0.527344 1.792917 -0.163504 80.000000
2.287629 7.772699 1.574938 69.000000
0.526439 1.787535 -0.097659 76.000000
2.294342 7.785474 1.873842 44.000000
0.519222 1.760761 -0.032043 85.000000
2.305582 7.813557 2.182880 68.000000
0.881142 2.972784 -0.830809 9.000000
0.523693 1.765695 0.032147 20.000000
0.954763 3.217042 -0.774731 11.000000
2.311316 7.782909 0.425491 15.000000
1.038453 3.496788 -0.709046 7.000000
2.316113 7.794091 0.711365 66.000000
1.140678 3.836113 -0.633873 7.000000
2.322799 7.806594 1.000060 12.000000
0.534165 1.794111 -0.229846 48.000000
2.321470 7.792192 1.287769 27.000000
0.529048 1.775790 -0.162110 80.000000
2.335501 7.834278 1.589057 83.000000
0.532675 1.785686 -0.097659 77.000000
2.340454 7.840908 1.889139 49.000000
0.523076 1.751273 -0.031903 83.000000
2.347225 7.853587 2.196338 70.000000
0.892626 2.973391 -0.831844 9.000000
0.525251 1.748534 0.031868 61.000000
0.964864 3.209957 -0.773832 11.000000
2.355151 7.830260 0.428527 11.000000
1.051783 3.496902 -0.709810 7.000000
2.358811 7.837469 0.716072 62.000000
1.151783 3.824543 -0.632621 7.000000
2.366643 7.853559 1.007128 12.000000
0.541571 1.796037 -0.230333 73.000000
2.368059 7.848341 1.298406 25.000000
0.532942 1.766302 -0.161412 80.000000
2.378153 7.876823 1.599361 71.000000
0.540061 1.787640 -0.097868 77.000000
2.386420 7.894248 1.903986 47.000000
0.530344 1.753265 -0.031973 85.000000
2.389178 7.893420 2.209797 72.000000
0.900189 2.961015 -0.829256 9.000000
0.532515 1.750517 0.031938 87.000000
0.972659 3.195383 -0.771132 12.000000
2.388869 7.843009 0.429678 1.000000
1.065126 3.496966 -0.710573 7.000000
2.407063 7.897798 0.722347 62.000000
1.161669 3.809162 -0.630744 7.000000
2.410264 7.898413 1.013953 12.000000
0.544359 1.782744 -0.228871 70.000000
2.416219 7.908037 1.309669 28.000000
0.540268 1.768242 -0.161761 80.000000
2.421130 7.919168 1.609665 66.000000
0.541039 1.768555 -0.096926 81.000000
2.432784 7.947362 1.918833 44.000000
0.534118 1.743755 -0.031833 90.000000
2.438230 7.955219 2.229467 65.000000
0.913361 2.967087 -0.831844 9.000000
0.533325 1.731447 0.031624 86.000000
0.981512 3.184519 -0.769333 12.000000
2.442128 7.918599 0.434284 1.000000
1.075011 3.485722 -0.709046 7.000000
2.452244 7.946461 0.727576 52.000000
1.173794 3.801308 -0.630118 7.000000
2.452469 7.937369 1.020047 12.000000
0.548233 1.773247 -0.227896 74.000000
2.460156 7.952394 1.318430 28.000000
0.545849 1.764442 -0.161587 84.000000
2.467915 7.972558 1.622258 63.000000
0.543073 1.753301 -0.096193 79.000000
2.475512 7.987216 1.930530 45.000000
0.541385 1.745700 -0.031903 87.000000
2.487740 8.016772 2.249138 67.000000
0.922563 2.960191 -0.830809 9.000000
0.539365 1.729575 0.031624 86.000000
0.996104 3.192235 -0.772032 12.000000
2.460047 7.883764 0.432818 1.000000
1.084832 3.474452 -0.707520 7.000000
2.502544 8.010119 0.734200 64.000000
1.188824 3.802844 -0.631057 7.000000
2.505053 8.008330 1.030284 13.000000
0.552925 1.767630 -0.227408 74.000000
2.504219 8.000748 1.327816 25.000000
0.550813 1.758723 -0.161238 84.000000
2.519803 8.040705 1.637905 71.000000
0.549190 1.751394 -0.096193 77.000000
2.522395 8.044044 1.946277 45.000000
0.541185 1.724815 -0.031554 87.000000
2.532827 8.067460 2.265702 67.000000
0.928890 2.946061 -0.827703 9.000000
0.547504 1.735405 0.031763 82.000000
1.004337 3.181482 -0.770232 12.000000
1.093984 3.463347 -0.705993 7.000000
2.546508 8.056870 0.739255 68.000000
1.210957 3.829016 -0.636063 1.000000
2.552560 8.066218 1.038814 12.000000
0.557586 1.762001 -0.226921 74.000000
2.549816 8.052662 1.337828 26.000000
0.552429 1.743592 -0.160018 78.000000
2.563067 8.084704 1.648590 60.000000
0.554994 1.749563 -0.096193 83.000000
2.569678 8.100649 1.962023 40.000000
0.545692 1.719199 -0.031484 83.000000
2.579450 8.121616 2.283302 67.000000
0.938067 2.941124 -0.827186 14.000000
0.547175 1.714530 0.031414 84.000000
1.014883 3.178133 -0.770232 12.000000
0.563520 1.763617 0.097031 1.000000
1.103673 3.452028 -0.704467 7.000000
2.588981 8.097723 0.743787 56.000000
0.562770 1.759152 -0.292533 1.000000
2.599869 8.121989 1.047101 12.000000
0.561916 1.754373 -0.226190 81.000000
2.603229 8.122721 1.350968 26.000000
0.556079 1.734064 -0.159321 80.000000
2.612869 8.143006 1.662328 63.000000
0.561708 1.749517 -0.096298 81.000000
2.619979 8.160282 1.978670 45.000000
0.550467 1.713476 -0.031414 83.000000
2.624340 8.164060 2.297796 65.000000
0.947058 2.932151 -0.825633 9.000000
0.549767 1.701096 0.031205 84.000000
1.024725 3.168830 -0.768883 13.000000
0.559527 1.729236 0.095251 11.000000
1.118739 3.455430 -0.705993 7.000000
2.642583 8.162104 0.750585 62.000000
0.572258 1.766474 -0.294097 33.000000
2.645533 8.161505 1.053439 12.000000
0.569568 1.756078 -0.226677 79.000000
2.655542 8.182645 1.362544 22.000000
0.561815 1.730119 -0.159146 82.000000
2.663322 8.196858 1.675303 71.000000
0.565029 1.737950 -0.095775 83.000000
2.672161 8.219195 1.995316 42.000000
0.557980 1.715250 -0.031484 83.000000
2.673975 8.215006 2.314878 62.000000
0.957198 2.926825 -0.825115 4.000000
0.555998 1.699069 0.031205 86.000000
1.033908 3.157645 -0.767083 14.000000
0.560265 1.710092 0.094309 52.000000
1.130784 3.449441 -0.705612 6.000000
2.694822 8.220520 0.756860 60.000000
0.573188 1.747471 -0.291281 71.000000
2.696474 8.215883 1.061726 12.000000
0.571046 1.738891 -0.224727 81.000000
2.701550 8.221649 1.370679 27.000000
0.566908 1.724263 -0.158798 86.000000
2.711751 8.242990 1.686752 57.000000
0.567649 1.724484 -0.095147 86.000000
2.719940 8.263026 2.008363 45.000000
0.564263 1.713194 -0.031484 85.000000
2.731879 8.289552 2.338689 59.000000
0.971564 2.934299 -0.828221 4.000000
0.560964 1.693224 0.031135 82.000000
1.043634 3.148285 -0.765733 13.000000
0.563386 1.698548 0.093786 92.000000
1.137234 3.426641 -0.701796 7.000000
2.746270 8.274881 0.762787 60.000000
0.580833 1.749108 -0.291907 80.000000
2.750360 8.277527 1.070988 12.000000
0.573657 1.725484 -0.223265 79.000000
2.754111 8.279171 1.381942 27.000000
0.573854 1.724064 -0.158972 80.000000
2.768618 8.313091 1.703161 65.000000
0.571439 1.714813 -0.094728 83.000000
2.771769 8.317709 2.024110 47.000000
0.565479 1.695938 -0.031205 85.000000
2.785474 8.349121 2.358359 59.000000
0.970969 2.901921 -0.819939 4.000000
0.568819 1.699038 0.031275 84.000000
1.056614 3.154230 -0.767983 13.000000
0.568422 1.696869 0.093786 82.000000
1.150517 3.432558 -0.703704 7.000000
2.795061 8.334216 0.769062 60.000000
0.585697 1.745402 -0.291594 76.000000
2.799096 8.336593 1.079762 12.000000
0.580340 1.727437 -0.223752 79.000000
2.800055 8.334628 1.392580 23.000000
0.575157 1.711022 -0.157926 80.000000
2.818309 8.379272 1.718426 63.000000
0.579073 1.720682 -0.095147 86.000000
2.821520 8.379140 2.041206 42.000000
0.567955 1.686672 -0.031065 85.000000
2.829975 8.399403 2.374924 66.000000
0.982331 2.902174 -0.820974 5.000000
0.568040 1.678201 0.030926 84.000000
1.067069 3.150709 -0.767983 14.000000
0.574983 1.696766 0.093891 90.000000
1.156817 3.411788 -0.700269 6.000000
2.843338 8.381013 0.774292 48.000000
0.587040 1.730356 -0.289404 78.000000
2.854162 8.408094 1.090243 13.000000
0.584788 1.721743 -0.223265 79.000000
2.852011 8.392135 1.403843 23.000000
0.579202 1.703345 -0.157403 82.000000
2.865039 8.425642 1.729874 63.000000
0.583490 1.714970 -0.094937 83.000000
2.874409 8.443529 2.059202 38.000000
0.573839 1.684679 -0.031065 85.000000
2.882338 8.457129 2.394076 57.000000
0.991949 2.898900 -0.820974 6.000000
0.572598 1.672424 0.030856 84.000000
1.073009 3.132216 -0.764384 13.000000
0.581550 1.696638 0.093995 87.000000
1.173814 3.422586 -0.703322 3.000000
2.898906 8.452578 0.781787 20.000000
0.590512 1.720822 -0.288152 78.000000
2.903476 8.456284 1.097799 13.000000
0.592085 1.723446 -0.223752 77.000000
2.910829 8.468060 1.418235 24.000000
0.585144 1.701313 -0.157403 82.000000
2.918902 8.481915 1.743613 65.000000
0.585870 1.701489 -0.094309 79.000000
2.929246 8.507146 2.077198 38.000000
0.578413 1.678885 -0.030995 85.000000
2.936393 8.518245 2.414264 59.000000
1.009522 2.915325 -0.826668 5.000000
0.578725 1.670314 0.030856 82.000000
1.081927 3.120897 -0.762584 14.000000
0.583838 1.683173 0.093367 89.000000
0.616027 1.774973 -0.365208 1.000000
2.954693 8.513420 0.788411 3.000000
0.595519 1.714914 -0.287527 78.000000
2.956604 8.509338 1.106086 13.000000
0.593182 1.706264 -0.221802 81.000000
2.963910 8.520771 1.428873 24.000000
0.590721 1.697276 -0.157229 80.000000
2.976440 8.547175 1.759259 55.000000
0.590130 1.693673 -0.093995 81.000000
2.982205 8.558920 2.092495 35.000000
0.584563 1.676753 -0.030995 85.000000
2.991771 8.576741 2.433934 59.000000
1.014452 2.895197 -0.822009 4.000000
0.584843 1.668182 0.030856 82.000000
1.095938 3.124267 -0.764384 10.000000
0.588387 1.677356 0.093158 82.000000
0.607916 1.732057 -0.356813 18.000000
0.604041 1.720057 0.159495 1.000000
0.601800 1.712720 -0.287527 80.000000
3.013452 8.571481 1.115592 12.000000
0.596798 1.696588 -0.220827 79.000000
3.017235 8.577456 1.440136 24.000000
0.595981 1.693324 -0.157055 86.000000
3.034300 8.616361 1.775669 60.000000
0.595375 1.689718 -0.093891 83.000000
3.040766 8.625125 2.111391 42.000000
0.587753 1.667159 -0.030856 90.000000
3.051898 8.651871 2.458263 51.000000
1.015517 2.866146 -0.814762 4.000000
0.589035 1.662464 0.030786 82.000000
1.098480 3.098574 -0.758985 3.000000
0.591568 1.667762 0.092739 82.000000
0.605422 1.705873 -0.351852 50.000000
0.588707 1.657857 0.153917 7.000000
0.606154 1.706992 -0.286901 78.000000
3.070436 8.641874 1.126073 13.000000
0.601090 1.690859 -0.220340 79.000000
3.072973 8.639456 1.452338 21.000000
0.597880 1.679971 -0.156009 84.000000
3.088527 8.678387 1.790552 57.000000
0.602315 1.691498 -0.094100 79.000000
3.096823 8.692092 2.130286 40.000000
0.592226 1.661330 -0.030786 90.000000
3.101548 8.695753 2.473793 54.000000
1.029575 2.875494 -0.818386 5.000000
0.592137 1.652867 0.030646 86.000000
1.117181 3.116734 -0.764384 3.000000
0.597386 1.665687 0.092739 84.000000
0.613063 1.709400 -0.352997 71.000000
0.588817 1.640894 0.152523 43.000000
0.606770 1.689992 -0.284398 80.000000
3.132124 8.718910 1.137529 14.000000
0.606988 1.688751 -0.220340 81.000000
3.127180 8.695595 1.463601 21.000000
0.603448 1.677979 -0.156009 86.000000
3.142733 8.734055 1.804290 47.000000
0.606862 1.685627 -0.093891 83.000000
3.154886 8.758233 2.149183 40.000000
0.596666 1.655490 -0.030716 90.000000
3.159405 8.761200 2.495533 47.000000
1.037634 2.866432 -0.816833 7.000000
0.595861 1.645150 0.030542 89.000000
1.123404 3.099991 -0.761234 6.000000
0.601835 1.659836 0.092530 87.000000
0.617019 1.701712 -0.351852 79.000000
0.595221 1.640701 0.152697 91.000000
0.609968 1.680437 -0.283146 78.000000
3.185582 8.771362 1.145816 13.000000
0.611524 1.682890 -0.219852 79.000000
3.192606 8.781164 1.479870 21.000000
0.607258 1.670245 -0.155486 90.000000
3.199374 8.794987 1.819173 60.000000
0.605912 1.664730 -0.092844 83.000000
3.215440 8.829567 2.169428 42.000000
0.602441 1.653397 -0.030716 90.000000
3.218424 8.828164 2.517792 54.000000
1.052946 2.877306 -0.820974 13.000000
0.602287 1.644938 0.030577 86.000000
1.128856 3.081412 -0.757635 6.000000
0.602127 1.642723 0.091693 84.000000
0.624307 1.703234 -0.352615 77.000000
0.603688 1.646096 0.153394 93.000000
0.615830 1.678297 -0.283146 80.000000
3.240811 8.827272 1.154590 14.000000
0.616026 1.677019 -0.219365 77.000000
3.247774 8.836715 1.491134 22.000000
0.612398 1.666245 -0.155312 86.000000
3.260549 8.866682 1.836346 52.000000
0.610340 1.658856 -0.092635 88.000000
3.271152 8.885953 2.186074 31.000000
0.608209 1.651284 -0.030716 90.000000
3.279279 8.898446 2.541085 49.000000
1.062981 2.873614 -0.820974 13.000000
0.607332 1.640950 0.030542 89.000000
1.141636 3.082935 -0.758985 6.000000
0.605081 1.633120 0.091274 78.000000
0.624791 1.686318 -0.349562 79.000000
0.607354 1.638374 0.152871 89.000000
0.620312 1.672433 -0.282521 80.000000
3.301987 8.897796 1.165315 11.000000
0.617730 1.663692 -0.217902 81.000000
3.306119 8.899392 1.503648 22.000000
0.618211 1.664097 -0.155312 86.000000
3.322938 8.939899 1.853900 54.000000
0.614735 1.652972 -0.092425 83.000000
3.327298 8.942058 2.202721 33.000000
0.610480 1.639781 -0.030542 93.000000
3.343365 8.975651 2.566450 54.000000
1.066917 2.853600 -0.816315 10.000000
0.609551 1.629455 0.030367 92.000000
1.149657 3.071631 -0.757185 1.000000
0.611479 1.632869 0.091379 90.000000
0.627920 1.676772 -0.348036 77.000000
0.608875 1.625049 0.151825 85.000000
0.628919 1.677656 -0.283772 80.000000
3.366491 8.975430 1.177014 3.000000
0.623534 1.661526 -0.217902 79.000000
3.365630 8.963619 1.516476 22.000000
0.619113 1.648872 -0.154091 92.000000
3.385886 9.012786 1.871455 52.000000
0.619096 1.647076 -0.092216 88.000000
3.390729 9.016117 2.223866 33.000000
0.607750 1.615181 -0.030123 95.000000
3.401223 9.034436 2.586638 46.000000
1.076871 2.849859 -0.816315 9.000000
0.614529 1.625447 0.030332 96.000000
0.633620 1.675058 -0.413460 1.000000
0.619296 1.636328 0.091693 84.000000
0.633769 1.674570 -0.348036 77.000000
0.611720 1.615461 0.151128 85.000000
0.629173 1.660673 -0.281269 78.000000
0.632849 1.668620 -0.219121 87.000000
3.431242 9.042314 1.531806 23.000000
0.622038 1.639250 -0.153394 90.000000
3.445202 9.074327 1.886719 45.000000
0.629096 1.656108 -0.092844 88.000000
3.455415 9.091662 2.245461 36.000000
0.616228 1.620526 -0.030262 95.000000
3.460898 9.096539 2.607861 42.000000
1.089570 2.853301 -0.818386 13.000000
0.618772 1.619556 0.030262 98.000000
0.639463 1.672837 -0.413460 43.000000
0.624719 1.634265 0.091693 80.000000
0.638208 1.668680 -0.347272 81.000000
0.617356 1.613316 0.151128 87.000000
0.632140 1.651087 -0.280018 80.000000
0.618496 1.614607 0.212296 1.000000
0.633697 1.653425 -0.217415 79.000000
3.495847 9.121268 1.547137 19.000000
0.627756 1.637069 -0.153394 90.000000
3.505688 9.137399 1.902366 52.000000
0.629147 1.638985 -0.092007 86.000000
3.520665 9.166867 2.267057 33.000000
0.618730 1.611007 -0.030123 97.000000
3.529851 9.185997 2.636849 48.000000
1.096742 2.842271 -0.816315 13.000000
0.622700 1.613764 0.030193 96.000000
0.638690 1.654345 -0.409411 74.000000
0.624662 1.617170 0.090855 84.000000
0.642614 1.662779 -0.346509 81.000000
0.622984 1.611151 0.151128 87.000000
0.637612 1.648982 -0.280018 80.000000
0.618117 1.597736 0.210347 20.000000
0.634878 1.640207 -0.215953 81.000000
3.558338 9.188219 1.560591 23.000000
0.636346 1.642299 -0.154091 92.000000
3.570015 9.213595 1.920684 40.000000
0.630248 1.625716 -0.091379 83.000000
3.578526 9.226000 2.284603 33.000000
0.627243 1.616294 -0.030262 93.000000
3.594062 9.256458 2.660660 44.000000
1.108966 2.845819 -0.818386 9.000000
0.623971 1.600402 0.029983 96.000000
0.645878 1.655737 -0.410311 77.000000
0.625947 1.603816 0.090227 84.000000
0.645269 1.653324 -0.344983 81.000000
0.628323 1.609076 0.151128 89.000000
0.643364 1.646746 -0.280018 80.000000
0.621523 1.590022 0.209615 78.000000
0.639153 1.634284 -0.215465 79.000000
3.628542 9.273239 1.577173 20.000000
0.639611 1.634613 -0.153568 88.000000
3.640090 9.297968 1.940909 45.000000
0.635918 1.623507 -0.091379 79.000000
3.646975 9.305985 2.307548 33.000000
0.625582 1.595478 -0.029913 95.000000
3.662331 9.335576 2.687060 46.000000
1.114646 2.831145 -0.815280 9.000000
0.633217 1.607517 0.030158 100.000000
0.650224 1.649846 -0.409411 77.000000
0.631541 1.601622 0.090227 82.000000
0.646715 1.640103 -0.342693 77.000000
0.629549 1.595753 0.150082 87.000000
0.647658 1.640815 -0.279392 78.000000
0.627069 1.587843 0.209615 92.000000
0.643394 1.628350 -0.214978 81.000000
3.684131 9.319300 1.587184 20.000000
0.641651 1.623106 -0.152697 92.000000
3.709347 9.378313 1.960372 40.000000
0.643051 1.624991 -0.091588 83.000000
3.713873 9.380168 2.329143 29.000000
0.629674 1.589566 -0.029844 95.000000
3.726217 9.401754 2.709836 42.000000
1.118811 2.812876 -0.811139 9.000000
0.633649 1.592291 0.029913 96.000000
0.657421 1.651187 -0.410311 77.000000
0.638606 1.603118 0.090437 82.000000
0.653163 1.639659 -0.343075 71.000000
0.632164 1.586143 0.149385 89.000000
0.650455 1.631205 -0.278141 78.000000
0.632608 1.585644 0.209615 84.000000
0.649074 1.626095 -0.214978 77.000000
3.760595 9.416454 1.605956 20.000000
0.642878 1.609755 -0.151651 94.000000
3.774844 9.447347 1.977545 45.000000
0.645754 1.615319 -0.091169 83.000000
3.784224 9.461236 2.352538 29.000000
0.632247 1.579932 -0.029704 100.000000
3.793477 9.474778 2.734682 44.000000
1.127182 2.805369 -0.810104 9.000000
0.639203 1.590069 0.029913 98.000000
0.659545 1.639843 -0.408061 85.000000
0.645689 1.604585 0.090646 82.000000
0.655950 1.630084 -0.341548 75.000000
0.636209 1.580230 0.149036 91.000000
0.654668 1.625260 -0.277515 80.000000
0.636655 1.579744 0.209128 86.000000
0.657716 1.631183 -0.215953 81.000000
3.826700 9.485705 1.620036 12.000000
0.649985 1.611196 -0.152000 94.000000
3.841598 9.517859 1.995099 36.000000
0.644658 1.596387 -0.090227 81.000000
3.856650 9.545537 2.376833 29.000000
0.639257 1.581424 -0.029774 91.000000
3.861292 9.547443 2.759529 34.000000
1.131156 2.787097 -0.805963 2.000000
0.642493 1.582270 0.029809 100.000000
0.661597 1.628503 -0.405812 80.000000
0.646775 1.591219 0.090018 82.000000
0.662376 1.629603 -0.341930 77.000000
0.643223 1.581690 0.149385 89.000000
0.660337 1.622965 -0.277515 78.000000
0.639920 1.571996 0.208397 88.000000
0.654421 1.606816 -0.213028 77.000000
0.654852 1.607073 -0.151825 88.000000
3.915565 9.604380 2.016088 40.000000
0.648718 1.590428 -0.090018 81.000000
3.924547 9.616821 2.397978 27.000000
0.647797 1.586588 -0.029913 95.000000
2.261073 5.535066 1.602090 47.000000
0.679251 1.657009 -0.479851 4.000000
0.648012 1.580018 0.029809 100.000000
0.665798 1.622578 -0.404912 80.000000
0.647774 1.577866 0.089390 87.000000
0.664333 1.618200 -0.340022 75.000000
0.648740 1.579436 0.149385 91.000000
0.664497 1.616996 -0.276889 80.000000
0.644649 1.567917 0.208153 86.000000
0.657005 1.597178 -0.212053 77.000000
0.659700 1.602934 -0.151651 92.000000
3.985697 9.679605 2.034787 31.000000
0.655026 1.590001 -0.090123 83.000000
2.293170 5.563650 1.389298 36.000000
0.644184 1.562132 -0.029495 93.000000
2.278905 5.523569 1.601055 82.000000
0.675424 1.631424 -0.473121 48.000000
0.652759 1.575898 0.029774 98.000000
0.673696 1.625645 -0.406262 85.000000
0.651473 1.572020 0.089180 87.000000
0.666968 1.608617 -0.338495 73.000000
0.649669 1.566119 0.148339 89.000000
0.670138 1.614667 -0.276889 80.000000
0.650879 1.567491 0.208397 88.000000
0.662577 1.594875 -0.212053 79.000000
0.642661 1.546936 0.265313 2.000000
0.660703 1.589583 -0.150605 94.000000
2.334630 5.614118 1.181871 42.000000
0.662107 1.591393 -0.090332 83.000000
2.317071 5.566406 1.391997 80.000000
0.646286 1.552603 -0.029355 97.000000
2.291267 5.501715 1.596914 92.000000
0.675898 1.616580 -0.469498 68.000000
0.654124 1.564501 0.029599 100.000000
0.677579 1.619806 -0.405362 85.000000
0.658499 1.573421 0.089390 87.000000
0.674097 1.609901 -0.339258 73.000000
0.652051 1.556492 0.147642 97.000000
0.673961 1.608792 -0.276263 80.000000
0.653771 1.559832 0.207665 93.000000
0.669397 1.596330 -0.212540 77.000000
0.647292 1.542863 0.265000 19.000000
0.665477 1.585430 -0.150431 99.000000
2.346397 5.590052 1.178436 71.000000
0.666607 1.587347 -0.090227 81.000000
2.330235 5.546114 1.388848 85.000000
0.657126 1.563242 -0.029599 100.000000
2.303719 5.477656 1.592255 98.000000
0.683509 1.619669 -0.471051 78.000000
0.656470 1.554839 0.029460 100.000000
0.677921 1.604865 -0.402213 83.000000
0.663712 1.571229 0.089390 94.000000
0.679432 1.607657 -0.339258 73.000000
0.659538 1.559826 0.148165 94.000000
0.674186 1.593694 -0.274073 86.000000
0.654570 1.546571 0.206203 93.000000
0.674965 1.593984 -0.212540 79.000000
0.649324 1.533431 0.263749 68.000000
0.669953 1.581380 -0.150256 94.000000
2.362067 5.572789 1.176528 92.000000
0.666685 1.572139 -0.089494 86.000000
2.342726 5.521802 1.384799 84.000000
0.661525 1.559214 -0.029564 95.000000
2.323382 5.473542 1.593290 99.000000
0.690672 1.620828 -0.472086 88.000000
0.662405 1.554493 0.029495 100.000000
0.680183 1.595438 -0.400413 83.000000
0.666059 1.561554 0.088971 92.000000
0.685809 1.607082 -0.339640 81.000000
0.664196 1.555682 0.147990 89.000000
0.680243 1.593266 -0.274386 82.000000
0.656576 1.537090 0.205228 93.000000
0.675566 1.580785 -0.211078 81.000000
0.653896 1.529339 0.263436 95.000000
0.673902 1.575368 -0.149908 92.000000
2.379761 5.563121 1.176147 89.000000
0.670323 1.566248 -0.089285 88.000000
2.363327 5.519377 1.386148 92.000000
0.666177 1.555056 -0.029529 100.000000
2.340950 5.461848 1.592255 96.000000
0.693754 1.613204 -0.470533 80.000000
0.669409 1.555845 0.029564 100.000000
0.684207 1.589474 -0.399513 85.000000
0.665186 1.544544 0.088134 96.000000
0.684923 1.590373 -0.336587 79.000000
0.667775 1.549811 0.147642 97.000000
0.688147 1.596324 -0.275325 86.000000
0.663509 1.538435 0.205715 96.000000
0.676361 1.567481 -0.209615 81.000000
0.656099 1.519793 0.262184 90.000000
0.679123 1.573124 -0.149908 97.000000
2.399164 5.554781 1.176147 89.000000
0.675787 1.563898 -0.089285 88.000000
2.374074 5.491417 1.381199 80.000000
0.667631 1.543545 -0.029355 100.000000
2.360768 5.455417 1.592772 96.000000
0.695534 1.601912 -0.467945 88.000000
0.672445 1.547997 0.029460 100.000000
0.692857 1.594225 -0.401313 80.000000
0.672166 1.545876 0.088343 98.000000
0.687339 1.580771 -0.335061 81.000000
0.670001 1.540163 0.146945 97.000000
0.691349 1.588479 -0.274386 82.000000
0.667291 1.532469 0.205228 93.000000
0.683415 1.568750 -0.210103 81.000000
0.657454 1.508439 0.260620 100.000000
0.682221 1.565265 -0.149385 99.000000
2.418540 5.546372 1.176147 86.000000
0.681242 1.561529 -0.089285 91.000000
2.394007 5.484883 1.381649 85.000000
0.671415 1.537540 -0.029285 100.000000
2.368970 5.422359 1.585526 92.000000
0.698019 1.592398 -0.465874 88.000000
0.673026 1.534652 0.029250 100.000000
0.696852 1.588228 -0.400413 85.000000
0.679163 1.547178 0.088552 94.000000
0.694430 1.581957 -0.335824 81.000000
0.670566 1.526869 0.145899 97.000000
0.692917 1.577013 -0.272822 86.000000
0.672636 1.530130 0.205228 96.000000
0.691284 1.571807 -0.210834 84.000000
0.662715 1.506135 0.260620 93.000000
0.683137 1.551813 -0.148339 99.000000
2.421274 5.500162 1.168133 40.000000
0.685078 1.555486 -0.089076 91.000000
2.411565 5.472927 1.380750 85.000000
0.673552 1.527868 -0.029146 100.000000
2.390221 5.419360 1.587078 100.000000
0.703851 1.589828 -0.465874 92.000000
0.676760 1.528636 0.029180 100.000000
0.697656 1.575095 -0.397713 80.000000
0.684560 1.544798 0.088552 94.000000
0.700224 1.579401 -0.335824 79.000000
0.677774 1.528044 0.146247 100.000000
0.692283 1.560018 -0.270319 93.000000
0.671532 1.513257 0.203278 96.000000
0.692739 1.560312 -0.209615 81.000000
0.667166 1.502007 0.260307 97.000000
0.687741 1.547598 -0.148165 97.000000
0.687527 1.545666 -0.088657 91.000000
2.433987 5.469392 1.382099 89.000000
0.678881 1.525507 -0.029146 100.000000
2.403624 5.398628 1.583455 94.000000
0.712549 1.594417 -0.467945 92.000000
0.683991 1.529797 0.029250 100.000000
0.697059 1.558296 -0.394114 83.000000
0.685055 1.531460 0.087924 96.000000
0.705733 1.576948 -0.335824 77.000000
0.683104 1.525669 0.146247 97.000000
0.699339 1.561198 -0.270945 95.000000
0.673826 1.503540 0.202303 96.000000
0.693580 1.546895 -0.208153 81.000000
0.672405 1.499669 0.260307 97.000000
0.694770 1.548824 -0.148513 97.000000
0.675230 1.504562 0.320559 3.000000
0.689647 1.535968 -0.088238 96.000000
2.445077 5.443087 1.377600 84.000000
0.684201 1.523128 -0.029146 93.000000
2.425621 5.397254 1.585526 96.000000
0.716522 1.588398 -0.466910 88.000000
0.685771 1.520229 0.029111 100.000000
0.705430 1.563081 -0.395914 83.000000
0.685465 1.518138 0.087296 96.000000
0.708001 1.567318 -0.334297 81.000000
0.686784 1.519644 0.145899 100.000000
0.699631 1.548070 -0.269067 91.000000
0.680443 1.504915 0.202791 93.000000
0.696252 1.539160 -0.207422 84.000000
0.674379 1.490114 0.259056 97.000000
0.701815 1.550020 -0.148862 94.000000
0.680215 1.502315 0.320559 25.000000
0.694737 1.533672 -0.088238 94.000000
2.457484 5.422523 1.374451 78.000000
0.686210 1.513446 -0.029006 93.000000
2.436467 5.371161 1.580349 92.000000
0.716984 1.575463 -0.463804 92.000000
0.692730 1.521466 0.029180 100.000000
0.710881 1.560609 -0.395914 80.000000
0.693245 1.521188 0.087610 100.000000
0.709937 1.557815 -0.332771 84.000000
0.690166 1.513733 0.145550 100.000000
0.708310 1.552807 -0.270319 95.000000
0.688165 1.507948 0.203522 90.000000
0.702444 1.538526 -0.207665 81.000000
0.673831 1.475173 0.256865 100.000000
0.701157 1.534998 -0.147642 99.000000
0.677295 1.482075 0.316743 65.000000
0.700086 1.531238 -0.088238 94.000000
2.476396 5.413912 1.374451 85.000000
0.691489 1.511041 -0.029006 100.000000
2.457613 5.367893 1.581902 100.000000
0.720866 1.569440 -0.462768 92.000000
0.693862 1.509953 0.029006 100.000000
0.717953 1.561659 -0.396814 83.000000
0.697716 1.516944 0.087506 98.000000
0.713730 1.551761 -0.332008 84.000000
0.690449 1.500454 0.144504 97.000000
0.707117 1.535970 -0.267816 95.000000
0.690933 1.500128 0.202791 93.000000
0.706979 1.534262 -0.207422 84.000000
0.680630 1.476400 0.257491 100.000000
0.699838 1.518066 -0.146247 99.000000
0.679998 1.474353 0.315598 93.000000
0.707100 1.532412 -0.088448 88.000000
2.493647 5.401696 1.373551 85.000000
0.695922 1.506803 -0.028971 100.000000
2.465800 5.336484 1.575173 99.000000
0.724715 1.563408 -0.461733 92.000000
0.697446 1.503894 0.028936 100.000000
0.716837 1.545002 -0.393214 80.000000
0.703007 1.514499 0.087506 91.000000
0.720796 1.552821 -0.332771 81.000000
0.695683 1.498035 0.144504 100.000000
0.709144 1.526327 -0.266564 93.000000
0.692819 1.490506 0.201816 96.000000
0.714005 1.535385 -0.207909 87.000000
0.687445 1.477598 0.258117 100.000000
0.707653 1.521033 -0.146770 94.000000
0.681826 1.464851 0.314072 99.000000
0.709072 1.522692 -0.088029 91.000000
2.512484 5.392960 1.373551 85.000000
0.700332 1.502552 -0.028936 97.000000
2.484414 5.327844 1.575173 94.000000
0.728532 1.557369 -0.460698 88.000000
0.700148 1.496017 0.028831 100.000000
0.720574 1.538960 -0.392315 76.000000
0.705748 1.506610 0.087192 100.000000
0.724546 1.546740 -0.332008 81.000000
0.702598 1.499206 0.144853 100.000000
0.716145 1.527419 -0.267190 95.000000
0.694646 1.480890 0.200841 96.000000
0.714300 1.522101 -0.206447 87.000000
0.694278 1.478765 0.258743 100.000000
0.714652 1.522161 -0.147119 94.000000
0.686101 1.460685 0.313690 96.000000
0.709286 1.509362 -0.087401 94.000000
2.525491 5.371812 1.370402 82.000000
0.708978 1.507336 -0.029076 97.000000
2.507108 5.327879 1.577761 99.000000
0.737261 1.561805 -0.462768 88.000000
0.701951 1.486330 0.028692 100.000000
0.725942 1.536435 -0.392315 90.000000
0.705881 1.493304 0.086564 100.000000
0.724906 1.533552 -0.329718 84.000000
0.709531 1.500346 0.145201 100.000000
0.723163 1.528481 -0.267816 98.000000
0.702358 1.483839 0.201572 100.000000
0.716211 1.512422 -0.205472 91.000000
0.690979 1.458481 0.255614 100.000000
0.721668 1.523257 -0.147468 100.000000
0.692877 1.461830 0.314453 96.000000
0.716263 1.510486 -0.087610 94.000000
2.538381 5.350637 1.367252 47.000000
0.705660 1.486787 -0.028727 97.000000
2.520720 5.308624 1.574655 100.000000
0.736063 1.545269 -0.458627 92.000000
0.711436 1.492897 0.028866 100.000000
0.731300 1.533892 -0.392315 85.000000
0.711949 1.492633 0.086668 98.000000
0.729410 1.529240 -0.329336 90.000000
0.708757 1.485273 0.143981 100.000000
0.725940 1.520600 -0.266877 100.000000
0.706678 1.479587 0.201328 93.000000
0.724910 1.517077 -0.206447 87.000000
0.695213 1.454278 0.255301 100.000000
0.716668 1.499159 -0.145376 98.000000
0.698823 1.461173 0.314835 99.000000
0.721531 1.507977 -0.087610 96.000000
0.709118 1.480708 -0.028657 95.000000
2.535063 5.291081 1.572067 91.000000
0.736431 1.532243 -0.455522 92.000000
0.710576 1.477790 0.028622 100.000000
0.734961 1.527818 -0.391415 87.000000
0.717155 1.490139 0.086668 98.000000
0.732189 1.521378 -0.328191 89.000000
0.710480 1.475610 0.143284 100.000000
0.726958 1.509158 -0.265313 98.000000
0.711838 1.477111 0.201328 98.000000
0.728476 1.510962 -0.205959 87.000000
0.701144 1.453621 0.255614 100.000000
0.716704 1.485880 -0.144330 98.000000
0.698799 1.448116 0.312545 99.000000
0.726790 1.505449 -0.087610 96.000000
0.714283 1.478223 -0.028657 93.000000
2.547628 5.270027 1.568444 99.000000
0.743461 1.533140 -0.456557 96.000000
0.715731 1.475300 0.028622 100.000000
0.730078 1.504205 -0.386016 87.000000
0.723225 1.489423 0.086773 100.000000
0.737495 1.518812 -0.328191 91.000000
0.714756 1.471329 0.143110 100.000000
0.728767 1.499505 -0.264061 95.000000
0.713518 1.467476 0.200353 96.000000
0.737219 1.515550 -0.206934 87.000000
0.707942 1.454718 0.256240 100.000000
0.723630 1.486953 -0.144679 100.000000
0.699553 1.436842 0.310637 100.000000
0.725044 1.488538 -0.086773 96.000000
0.719438 1.475721 -0.028657 95.000000
2.566856 5.262837 1.568961 94.000000
0.748808 1.530535 -0.456557 96.000000
0.719118 1.469201 0.028552 100.000000
0.737038 1.505148 -0.386916 83.000000
0.722889 1.476254 0.086145 100.000000
0.742793 1.516228 -0.328191 89.000000
0.720764 1.470614 0.143284 100.000000
0.734866 1.498725 -0.264374 100.000000
0.714265 1.456066 0.199135 100.000000
0.735508 1.498711 -0.204984 91.000000
0.711021 1.448815 0.255614 100.000000
0.730571 1.487995 -0.145027 100.000000
0.704565 1.434391 0.310637 100.000000
0.726712 1.478828 -0.086354 99.000000
0.724327 1.473327 -0.028657 97.000000
2.586001 5.257763 1.569996 96.000000
0.755856 1.531377 -0.457592 96.000000
0.722216 1.463221 0.028482 100.000000
0.740300 1.499201 -0.386016 83.000000
0.723615 1.464768 0.085622 98.000000
0.746341 1.510107 -0.327428 89.000000
0.726777 1.469875 0.143458 100.000000
0.741584 1.499822 -0.265000 100.000000
0.718209 1.451910 0.198891 98.000000
0.736952 1.489147 -0.204009 94.000000
0.710816 1.435703 0.253737 100.000000
0.734877 1.483650 -0.144853 100.000000
0.710189 1.433806 0.311019 100.000000
0.735159 1.483569 -0.086773 99.000000
0.724135 1.460041 -0.028447 95.000000
2.602620 5.245243 1.568961 91.000000
0.754044 1.515026 -0.453451 96.000000
0.732667 1.471432 0.028692 100.000000
0.750742 1.507074 -0.388715 87.000000
0.729359 1.464149 0.085726 100.000000
0.744339 1.493566 -0.324375 93.000000
0.726313 1.456758 0.142412 100.000000
0.746814 1.497224 -0.265000 100.000000
0.725932 1.454723 0.199622 100.000000
0.742146 1.486565 -0.204009 94.000000
0.712043 1.426268 0.252485 100.000000
0.735342 1.472293 -0.143981 98.000000
0.716944 1.434831 0.311782 100.000000
0.738548 1.477420 -0.086564 99.000000
0.723607 1.446900 -0.028238 100.000000
2.614812 5.226218 1.565855 96.000000
0.755861 1.505479 -0.451380 100.000000
0.729467 1.452910 0.028378 100.000000
0.753986 1.501093 -0.387816 87.000000
0.736259 1.465163 0.085936 100.000000
0.751312 1.494467 -0.325139 93.000000
0.726917 1.445315 0.141541 100.000000
0.747337 1.485916 -0.263436 95.000000
0.732537 1.455854 0.200109 100.000000
0.747072 1.484096 -0.204009 91.000000
0.718794 1.427303 0.253111 100.000000
0.736891 1.462600 -0.143284 98.000000
0.714632 1.418419 0.308729 100.000000
0.745241 1.478530 -0.086773 100.000000
0.730454 1.447937 -0.028308 93.000000
2.627818 5.206710 1.562749 94.000000
0.762594 1.506411 -0.452416 96.000000
0.733631 1.448571 0.028343 100.000000
0.750414 1.481068 -0.383317 80.000000
0.742272 1.464365 0.086040 98.000000
0.756263 1.491968 -0.325139 93.000000
0.736212 1.451781 0.142412 100.000000
0.747157 1.472728 -0.261558 93.000000
0.729529 1.437356 0.197916 98.000000
0.752247 1.481479 -0.204009 91.000000
0.726457 1.430068 0.254050 100.000000
0.742895 1.461794 -0.143458 100.000000
0.716021 1.408915 0.307203 100.000000
0.744966 1.465238 -0.086145 99.000000
0.735504 1.445378 -0.028308 95.000000
2.645099 5.195785 1.562232 71.000000
0.767231 1.501886 -0.451898 100.000000
0.739593 1.447782 0.028378 100.000000
0.753806 1.474969 -0.382417 83.000000
0.741014 1.449317 0.085308 100.000000
0.763515 1.492681 -0.325902 93.000000
0.739713 1.445525 0.142064 100.000000
0.750749 1.466463 -0.260933 98.000000
0.730922 1.427734 0.196941 98.000000
0.752890 1.470010 -0.202791 97.000000
0.730544 1.425766 0.253737 100.000000
0.748901 1.460966 -0.143633 100.000000
0.722971 1.409775 0.307966 100.000000
0.749420 1.460720 -0.086040 100.000000
0.742370 1.446360 -0.028378 100.000000
0.771583 1.497482 -0.451380 100.000000
0.738480 1.432620 0.028133 100.000000
0.757420 1.468733 -0.381517 85.000000
0.742659 1.439491 0.084889 100.000000
0.759720 1.472559 -0.322086 93.000000
0.749323 1.451787 0.142935 100.000000
0.757677 1.467344 -0.261558 95.000000
0.740706 1.433863 0.198160 100.000000
0.758272 1.467241 -0.202791 97.000000
0.733042 1.417815 0.252798 100.000000
0.753996 1.458343 -0.143633 100.000000
0.729692 1.410730 0.308729 100.000000
0.753596 1.456322 -0.085936 100.000000
0.740310 1.429424 -0.028098 97.000000
0.735875 1.420254 0.428604 1.000000
0.773243 1.487922 -0.449310 100.000000
0.749934 1.442453 0.028378 100.000000
0.764341 1.469538 -0.382417 85.000000
0.751366 1.443978 0.085308 100.000000
0.763042 1.466416 -0.321322 91.000000
0.745187 1.431489 0.141192 100.000000
0.762794 1.464690 -0.261558 98.000000
0.741120 1.422467 0.196941 98.000000
0.762472 1.462824 -0.202547 94.000000
0.732507 1.404738 0.250921 100.000000
0.753555 1.445102 -0.142587 98.000000
