# This PCD file was generated using the MATLAB® pcwrite function
# from Computer Vision Toolbox®.
# .PCD v.7 - Point Cloud Data file format
VERSION .7
FIELDS x y z intensity
SIZE 4 4 4 4
TYPE F F F F
COUNT 1 1 1 1
WIDTH 1275
HEIGHT 1
VIEWPOINT 0 0 0 1 0 0 0
POINTS 1275
DATA ascii
1.802895 2.325117 -0.788363 10.000000
1.141059 1.471045 0.032496 96.000000
1.921021 2.475675 -0.723443 9.000000
1.170799 1.508297 0.100066 80.000000
1.034094 1.332184 -0.327810 100.000000
1.196312 1.540610 0.170651 93.000000
1.047005 1.347847 -0.270319 100.000000
1.209520 1.556496 0.242033 75.000000
1.057500 1.360378 -0.211565 94.000000
1.234455 1.587443 0.318501 79.000000
1.084864 1.395077 -0.154614 100.000000
1.260909 1.620875 0.399172 83.000000
1.107630 1.423326 -0.094519 96.000000
1.116851 1.434141 -0.031728 93.000000
1.803865 2.309675 -0.785257 9.000000
1.151112 1.473356 0.032636 96.000000
1.933251 2.473561 -0.724792 7.000000
1.173596 1.501055 0.099857 82.000000
1.033900 1.322381 -0.326283 100.000000
1.191863 1.523870 0.169256 79.000000
1.057790 1.351964 -0.271883 100.000000
1.222286 1.561644 0.243495 76.000000
1.062243 1.356678 -0.211565 94.000000
1.238771 1.581568 0.318188 77.000000
1.079900 1.378733 -0.153220 100.000000
1.273824 1.625736 0.401462 81.000000
1.112592 1.419451 -0.094519 91.000000
1.121850 1.430234 -0.031728 93.000000
28.696386 36.571564 12.455926 16.000000
1.799973 2.288180 -0.780081 11.000000
1.148828 1.459900 0.032427 98.000000
1.931026 2.453016 -0.720743 1.000000
1.181300 1.500087 0.100066 78.000000
1.043368 1.324933 -0.327810 100.000000
1.193476 1.515005 0.168734 80.000000
1.057612 1.342057 -0.270632 100.000000
1.227729 1.557368 0.243495 75.000000
1.075577 1.363873 -0.213271 97.000000
1.243061 1.575684 0.317875 79.000000
1.085940 1.376520 -0.153394 100.000000
1.269760 1.608951 0.398409 63.000000
1.122490 1.421830 -0.094937 96.000000
1.126835 1.426310 -0.031728 93.000000
1.812748 2.287940 -0.782151 10.000000
1.152675 1.454313 0.032392 100.000000
1.036378 1.307115 -0.385116 1.000000
1.186529 1.495955 0.100066 82.000000
1.045547 1.318207 -0.327047 100.000000
1.208665 1.523316 0.170128 89.000000
1.058606 1.333715 -0.269693 100.000000
1.233158 1.553073 0.243495 83.000000
1.082801 1.363219 -0.213759 100.000000
1.252240 1.575975 0.318813 77.000000
1.088259 1.369600 -0.153045 100.000000
1.266817 1.593751 0.395738 27.000000
1.122474 1.411649 -0.094519 91.000000
1.139278 1.431757 -0.031938 93.000000
28.881222 36.282669 12.425902 16.000000
1.823134 2.284618 -0.783186 9.000000
1.163982 1.458095 0.032566 96.000000
1.025126 1.283694 -0.379267 16.000000
1.191744 1.491804 0.100066 82.000000
1.055043 1.320684 -0.328573 100.000000
1.210243 1.514418 0.169605 77.000000
1.063255 1.330012 -0.269693 100.000000
1.228653 1.536356 0.241545 73.000000
1.082592 1.353231 -0.212784 97.000000
1.260202 1.574679 0.319439 77.000000
1.104237 1.379794 -0.154614 100.000000
1.124898 1.404605 -0.094309 99.000000
1.146770 1.430892 -0.032008 95.000000
29.010105 36.184654 12.426938 16.000000
1.838358 2.287275 -0.786292 9.000000
1.169064 1.454023 0.032566 90.000000
1.035708 1.287700 -0.381517 58.000000
1.196944 1.487634 0.100066 80.000000
1.054724 1.310875 -0.327047 100.000000
1.223017 1.519498 0.170651 84.000000
1.070369 1.329369 -0.270319 100.000000
1.241480 1.541334 0.243007 83.000000
1.082327 1.343261 -0.211809 97.000000
1.263212 1.567194 0.318813 77.000000
1.105296 1.371277 -0.154091 100.000000
1.132302 1.403779 -0.094519 96.000000
1.141710 1.414431 -0.031728 95.000000
29.144724 36.093697 12.430562 16.000000
1.887658 2.331896 -0.803892 1.000000
1.181684 1.459258 0.032776 94.000000
1.042649 1.287106 -0.382417 94.000000
1.202129 1.483447 0.100066 82.000000
1.056821 1.304135 -0.326283 100.000000
1.228314 1.515219 0.170651 93.000000
1.082468 1.334831 -0.272196 100.000000
1.249354 1.540074 0.243495 78.000000
1.092013 1.345640 -0.212784 100.000000
1.266185 1.559708 0.318188 77.000000
1.108820 1.365864 -0.153917 100.000000
1.142233 1.406018 -0.094937 96.000000
1.149163 1.413541 -0.031798 91.000000
29.236420 35.949776 12.416068 16.000000
1.324488 1.624560 -0.561637 6.000000
1.181715 1.448926 0.032636 94.000000
1.047135 1.283458 -0.382417 100.000000
1.214617 1.488738 0.100694 82.000000
1.066333 1.306522 -0.327810 100.000000
1.223515 1.498575 0.169256 83.000000
1.079623 1.321864 -0.270319 100.000000
1.257235 1.538778 0.243982 80.000000
1.101728 1.347968 -0.213759 100.000000
1.276350 1.561619 0.319439 74.000000
1.108536 1.355815 -0.153220 100.000000
1.149663 1.405115 -0.095147 96.000000
1.156377 1.412817 -0.031868 86.000000
29.353033 35.849621 12.415032 16.000000
1.337505 1.628886 -0.564743 12.000000
1.181437 1.438818 0.032496 94.000000
1.039017 1.264920 -0.377918 95.000000
1.219807 1.484489 0.100694 80.000000
1.073380 1.305825 -0.328573 100.000000
1.231270 1.497373 0.169605 77.000000
1.084001 1.318277 -0.270319 100.000000
1.261069 1.533067 0.243739 86.000000
1.108714 1.347373 -0.214246 97.000000
1.284304 1.560204 0.320065 74.000000
1.120862 1.361166 -0.154266 100.000000
1.154316 1.401295 -0.095147 94.000000
1.166390 1.414944 -0.032008 93.000000
29.475512 35.743984 12.413997 16.000000
1.342900 1.624442 -0.564743 9.000000
1.189001 1.437767 0.032566 98.000000
1.039700 1.256780 -0.376568 98.000000
1.219888 1.474068 0.100276 80.000000
1.080208 1.305283 -0.329336 100.000000
1.242581 1.500956 0.170477 89.000000
1.091116 1.317527 -0.270945 100.000000
1.262613 1.524071 0.243007 73.000000
1.108345 1.337381 -0.213271 97.000000
1.289743 1.555711 0.320065 74.000000
1.126641 1.358975 -0.154440 98.000000
1.151549 1.388034 -0.094519 96.000000
1.168767 1.407787 -0.031938 91.000000
29.608751 35.651272 12.417621 32.000000
1.400478 1.682099 -0.586484 8.000000
1.194012 1.433608 0.032566 96.000000
1.049069 1.259133 -0.378368 100.000000
1.219911 1.463663 0.099857 80.000000
1.079730 1.295472 -0.327810 100.000000
1.246537 1.495078 0.170302 79.000000
1.095708 1.313711 -0.270945 100.000000
1.270470 1.522702 0.243495 76.000000
1.110462 1.330456 -0.212784 100.000000
1.287569 1.542103 0.318188 74.000000
1.140316 1.365740 -0.155660 100.000000
1.161510 1.390136 -0.094937 96.000000
1.173674 1.403698 -0.031938 93.000000
29.726830 35.540283 12.415032 32.000000
1.873052 2.233799 -0.781116 11.000000
1.204150 1.435559 0.032706 96.000000
1.058469 1.261434 -0.380167 100.000000
1.232717 1.468575 0.100485 78.000000
1.081721 1.288688 -0.327047 100.000000
1.254310 1.493770 0.170651 83.000000
1.105369 1.315929 -0.272196 100.000000
1.275777 1.518258 0.243495 78.000000
1.117654 1.329611 -0.213271 97.000000
1.292944 1.537598 0.318188 77.000000
1.135055 1.349353 -0.154266 100.000000
1.171499 1.392186 -0.095356 94.000000
1.175991 1.396533 -0.031868 88.000000
29.844479 35.428925 12.412445 49.000000
1.876240 2.221016 -0.779045 10.000000
1.210444 1.432874 0.032741 100.000000
1.064123 1.259221 -0.380617 95.000000
1.240414 1.467314 0.100694 80.000000
1.091508 1.290711 -0.328573 100.000000
1.249482 1.476994 0.169256 79.000000
1.105081 1.305837 -0.270945 100.000000
1.286198 1.519857 0.244470 86.000000
1.127419 1.331761 -0.214246 100.000000
1.305963 1.542121 0.320065 74.000000
1.137181 1.342343 -0.153917 100.000000
1.179176 1.390930 -0.095565 94.000000
1.183444 1.395471 -0.031938 93.000000
29.969223 35.325993 12.412962 65.000000
1.888988 2.220339 -0.781116 11.000000
1.209208 1.420814 0.032566 94.000000
1.064942 1.250860 -0.379267 100.000000
1.250708 1.469058 0.101113 76.000000
1.098552 1.289882 -0.329336 100.000000
1.266259 1.486273 0.170825 80.000000
1.105788 1.297461 -0.270006 98.000000
1.286608 1.509090 0.243495 80.000000
1.140022 1.336683 -0.215709 100.000000
1.311338 1.537552 0.320065 74.000000
1.147033 1.344428 -0.154614 100.000000
1.176244 1.377692 -0.094937 88.000000
11.271481 13.197212 4.006828 7.000000
1.193503 1.397414 -0.032078 93.000000
30.097363 35.227047 12.415032 65.000000
1.904269 2.222534 -0.784222 11.000000
1.221719 1.425908 0.032776 96.000000
1.066548 1.244362 -0.378368 98.000000
1.250628 1.458618 0.100694 78.000000
1.103048 1.286040 -0.329336 100.000000
1.275332 1.486379 0.171348 84.000000
1.113944 1.298284 -0.270945 100.000000
1.289020 1.501803 0.243007 80.000000
1.131516 1.317834 -0.213271 97.000000
1.319272 1.535962 0.320691 70.000000
1.158211 1.347972 -0.155486 100.000000
1.178202 1.370754 -0.094728 94.000000
11.307563 13.150894 4.004129 29.000000
1.200982 1.396271 -0.032147 93.000000
30.217636 35.118835 12.413997 98.000000
1.909105 2.213281 -0.783186 11.000000
1.231914 1.427691 0.032915 96.000000
1.073431 1.243582 -0.379267 100.000000
1.250491 1.448197 0.100276 80.000000
1.104741 1.279403 -0.328573 100.000000
1.282859 1.485158 0.171697 79.000000
1.121052 1.297377 -0.271570 100.000000
1.294255 1.497294 0.243007 75.000000
1.138707 1.316879 -0.213759 100.000000
1.323333 1.529854 0.320378 72.000000
1.163978 1.345630 -0.155660 100.000000
1.185594 1.369653 -0.094937 91.000000
11.352120 13.109872 4.003679 21.000000
1.197993 1.383001 -0.031938 95.000000
30.338764 35.011688 12.413480 100.000000
1.914285 2.203687 -0.782151 12.000000
1.234267 1.420363 0.032845 96.000000
1.081601 1.244240 -0.380617 100.000000
1.260781 1.449852 0.100694 76.000000
1.106623 1.272576 -0.327810 100.000000
1.284112 1.476161 0.171174 80.000000
1.124277 1.291967 -0.271257 98.000000
1.307293 1.501751 0.244470 82.000000
1.145903 1.315891 -0.214246 100.000000
1.328665 1.525225 0.320378 72.000000
1.164742 1.337052 -0.155137 100.000000
1.195617 1.371529 -0.095356 91.000000
11.410625 13.084850 4.008178 50.000000
1.200185 1.375797 -0.031868 91.000000
30.451897 34.895390 12.409856 100.000000
1.914334 2.188267 -0.779045 11.000000
1.233950 1.410026 0.032706 98.000000
1.089788 1.244856 -0.381967 100.000000
1.271097 1.451452 0.101113 76.000000
1.113646 1.271659 -0.328573 100.000000
1.285318 1.467174 0.170651 93.000000
1.131384 1.291006 -0.271883 100.000000
1.315145 1.500163 0.244957 82.000000
1.153108 1.314867 -0.214734 100.000000
1.335283 1.522064 0.320691 74.000000
1.161518 1.323993 -0.154091 96.000000
1.205668 1.373350 -0.095775 94.000000
1.210259 1.377609 -0.032008 95.000000
30.568424 34.783070 12.407785 100.000000
1.921961 2.181572 -0.779045 11.000000
1.236220 1.402710 0.032636 92.000000
1.087684 1.233735 -0.379717 95.000000
1.276157 1.447006 0.101113 76.000000
1.123273 1.273654 -0.330100 100.000000
1.287796 1.459690 0.170302 79.000000
1.129348 1.279643 -0.270319 100.000000
1.315119 1.489611 0.243982 88.000000
1.162946 1.316786 -0.215709 100.000000
1.340588 1.517393 0.320691 70.000000
1.175367 1.330382 -0.155312 100.000000
1.202517 1.360156 -0.095147 88.000000
11.501690 13.004875 4.008178 72.000000
1.220361 1.379366 -0.032147 93.000000
30.699892 34.687737 12.411926 100.000000
1.939821 2.186411 -0.783186 11.000000
1.249074 1.407360 0.032845 90.000000
1.093278 1.231388 -0.380167 72.000000
1.278296 1.439779 0.100904 80.000000
1.132925 1.275597 -0.331626 100.000000
1.298177 1.461144 0.171000 83.000000
1.141682 1.284552 -0.272196 100.000000
1.322947 1.487979 0.244470 82.000000
1.159621 1.303819 -0.214246 100.000000
1.350864 1.518843 0.321942 70.000000
1.183977 1.330736 -0.155834 98.000000
1.204602 1.352966 -0.094937 94.000000
11.543131 12.960279 4.006828 25.000000
1.227588 1.378299 -0.032217 93.000000
30.810886 34.581413 12.410374 100.000000
1.944867 2.176744 -0.782151 11.000000
1.253733 1.403210 0.032845 96.000000
1.114237 1.246645 -0.386016 9.000000
1.277988 1.429353 0.100485 78.000000
1.126901 1.259928 -0.328573 100.000000
1.305927 1.459573 0.171348 83.000000
1.148570 1.283702 -0.272822 100.000000
1.333170 1.489500 0.245445 80.000000
1.161289 1.297008 -0.213759 97.000000
1.353522 1.511175 0.321316 70.000000
1.191274 1.329563 -0.156183 96.000000
1.219746 1.360862 -0.095775 94.000000
26.399694 29.443594 9.129864 14.000000
1.228385 1.369539 -0.032112 95.000000
30.936584 34.479401 12.412445 100.000000
1.944324 2.161664 -0.779045 12.000000
1.263974 1.404772 0.032985 94.000000
2.093756 2.326169 -0.722543 10.000000
1.288316 1.430820 0.100904 76.000000
1.133701 1.259102 -0.329336 100.000000
1.310758 1.455235 0.171348 81.000000
1.153043 1.279686 -0.272822 100.000000
1.338362 1.484837 0.245445 86.000000
1.167139 1.294421 -0.214003 91.000000
1.353495 1.500575 0.320065 70.000000
1.190338 1.319688 -0.155486 94.000000
1.221813 1.353631 -0.095565 99.000000
1.230478 1.362275 -0.032043 95.000000
31.052874 34.366890 12.410892 100.000000
1.951856 2.154866 -0.779045 11.000000
1.263499 1.394423 0.032845 94.000000
2.099246 2.315958 -0.721643 10.000000
1.295985 1.429274 0.101113 78.000000
1.140725 1.258046 -0.330100 100.000000
1.310476 1.444747 0.170651 83.000000
1.154848 1.272727 -0.272196 100.000000
1.346204 1.483097 0.245932 80.000000
1.178322 1.297687 -0.215221 100.000000
1.364038 1.501690 0.321316 70.000000
1.192259 1.312575 -0.155137 92.000000
1.231904 1.355270 -0.095984 91.000000
1.240608 1.363889 -0.032182 93.000000
31.160936 34.245434 12.406233 81.000000
1.961970 2.150893 -0.780081 12.000000
1.268359 1.390004 0.032845 94.000000
2.107317 2.308617 -0.721643 10.000000
1.300966 1.424741 0.101113 76.000000
1.145110 1.254056 -0.330100 98.000000
1.318199 1.443106 0.171000 83.000000
1.152621 1.261397 -0.270632 98.000000
1.343337 1.469597 0.244470 80.000000
1.193562 1.305286 -0.217171 100.000000
1.374605 1.502749 0.322568 70.000000
1.196833 1.308405 -0.155137 94.000000
1.228536 1.342122 -0.095356 94.000000
1.248062 1.362499 -0.032252 88.000000
31.297264 34.154964 12.412962 65.000000
1.974694 2.149722 -0.782151 11.000000
1.273202 1.385569 0.032845 90.000000
2.112726 2.298377 -0.720743 10.000000
1.305932 1.420191 0.101113 82.000000
1.156125 1.257277 -0.332008 81.000000
1.328623 1.444362 0.171697 81.000000
1.162368 1.263180 -0.271883 98.000000
1.352493 1.469280 0.245201 79.000000
1.187353 1.289429 -0.215221 100.000000
1.378504 1.496489 0.322255 45.000000
1.206792 1.310081 -0.155834 90.000000
11.827187 12.834969 3.392584 4.000000
1.235921 1.340762 -0.095565 96.000000
1.252811 1.358134 -0.032252 86.000000
31.416290 34.045513 12.412962 32.000000
1.984810 2.145653 -0.783186 12.000000
1.280748 1.384051 0.032915 92.000000
2.120735 2.290989 -0.720743 10.000000
1.308167 1.412693 0.100904 82.000000
1.333657 1.439715 0.171697 81.000000
1.173484 1.266360 -0.273447 100.000000
1.364360 1.471830 0.246420 82.000000
1.187798 1.280910 -0.214490 94.000000
1.379689 1.487323 0.321316 10.000000
1.211359 1.305860 -0.155834 92.000000
1.246028 1.342295 -0.095984 94.000000
1.257544 1.353753 -0.032252 86.000000
31.546764 33.948383 12.417621 16.000000
1.984387 2.130229 -0.780081 11.000000
1.293751 1.388350 0.033125 94.000000
2.128720 2.283571 -0.720743 10.000000
1.315815 1.411039 0.101113 80.000000
2.311004 2.478248 -0.658673 9.000000
1.338674 1.435051 0.171697 81.000000
1.179245 1.263700 -0.273760 98.000000
1.368136 1.465606 0.246176 79.000000
1.196326 1.281109 -0.215221 97.000000
11.925817 12.766518 2.767013 18.000000
1.215909 1.301624 -0.155834 92.000000
1.253434 1.340855 -0.096193 94.000000
1.259530 1.346434 -0.032182 95.000000
1.986524 2.117654 -0.778010 12.000000
1.295853 1.380909 0.033055 88.000000
2.144680 2.284652 -0.723443 10.000000
1.326201 1.412261 0.101532 84.000000
2.325016 2.475892 -0.660199 9.000000
1.335491 1.421656 0.170651 81.000000
1.183648 1.259576 -0.273760 98.000000
1.381401 1.469500 0.247639 86.000000
1.206230 1.282710 -0.216196 100.000000
11.981131 12.736322 2.769516 18.000000
1.217715 1.294469 -0.155486 92.000000
1.260845 1.339381 -0.096403 91.000000
1.266964 1.344941 -0.032252 95.000000
2.000537 2.117728 -0.780598 13.000000
1.295171 1.370563 0.032915 94.000000
2.147287 2.271488 -0.721643 10.000000
1.333868 1.410525 0.101741 82.000000
2.339041 2.473466 -0.661726 9.000000
1.351399 1.428565 0.172045 77.000000
1.181249 1.248263 -0.272196 100.000000
1.379699 1.457461 0.246420 80.000000
1.216161 1.284256 -0.217171 100.000000
12.030948 12.700162 2.770767 18.000000
1.224966 1.293104 -0.155834 94.000000
1.260016 1.329173 -0.095984 94.000000
1.274404 1.343411 -0.032322 95.000000
31.732992 33.439594 12.352398 16.000000
2.006586 2.109333 -0.780081 13.000000
1.305462 1.371829 0.033055 94.000000
2.157891 2.266801 -0.722543 10.000000
1.330519 1.397183 0.101113 80.000000
2.347660 2.465286 -0.661726 10.000000
1.364623 1.432495 0.173091 93.000000
1.188325 1.246992 -0.272822 80.000000
1.386147 1.454073 0.246664 89.000000
1.211046 1.269947 -0.215465 94.000000
12.065664 12.648080 2.768577 18.000000
1.232223 1.291703 -0.156183 90.000000
1.261890 1.321878 -0.095775 88.000000
1.287374 1.347630 -0.032531 93.000000
31.849518 33.328629 12.352398 16.000000
2.025963 2.114872 -0.784739 13.000000
1.307476 1.364375 0.032985 98.000000
2.165789 2.259255 -0.722543 10.000000
1.335388 1.392530 0.101113 80.000000
2.342662 2.442907 -0.657909 10.000000
1.366857 1.424847 0.172743 81.000000
1.391214 1.449226 0.246664 82.000000
1.214097 1.264280 -0.215221 100.000000
12.111114 12.607307 2.768890 18.000000
1.239486 1.290267 -0.156532 97.000000
1.272033 1.323224 -0.096193 94.000000
1.283751 1.334482 -0.032322 93.000000
31.965672 33.217243 12.352398 16.000000
2.018580 2.092492 -0.779045 13.000000
1.323338 1.371316 0.033264 92.000000
2.170956 2.248877 -0.721643 10.000000
1.348565 1.396480 0.101741 76.000000
2.356631 2.440363 -0.659436 10.000000
1.363515 1.411470 0.171697 83.000000
2.557355 2.646369 -0.582875 8.000000
1.401784 1.450070 0.247639 78.000000
1.224022 1.265743 -0.216196 97.000000
12.156419 12.566378 2.769203 18.000000
1.238440 1.280205 -0.155834 94.000000
1.279423 1.321645 -0.096403 94.000000
1.285619 1.327120 -0.032252 93.000000
2.019141 2.078505 -0.776457 13.000000
1.316968 1.355215 0.032985 90.000000
2.181510 2.244079 -0.722543 10.000000
1.353431 1.391765 0.101741 74.000000
2.369241 2.436345 -0.660581 10.000000
1.369824 1.408129 0.171871 85.000000
2.563822 2.634594 -0.582249 7.000000
1.408221 1.446591 0.247882 79.000000
1.233973 1.267151 -0.217171 100.000000
12.207104 12.530938 2.770767 18.000000
1.242902 1.275874 -0.155834 90.000000
1.286816 1.320032 -0.096612 94.000000
1.290244 1.322624 -0.032252 93.000000
2.034490 2.079730 -0.779563 13.000000
1.324488 1.353468 0.033055 92.000000
2.183876 2.230881 -0.720743 10.000000
1.363627 1.392978 0.102160 76.000000
2.380479 2.430865 -0.661344 11.000000
1.383096 1.411878 0.172917 85.000000
2.567471 2.619987 -0.580998 7.000000
1.414652 1.443083 0.248126 82.000000
1.240947 1.265887 -0.217659 97.000000
12.249972 12.491803 2.771080 18.000000
1.250138 1.274373 -0.156183 92.000000
1.283022 1.306981 -0.095984 94.000000
1.303029 1.326900 -0.032461 93.000000
2.049508 2.081231 -0.782669 13.000000
1.331776 1.351917 0.033125 96.000000
2.183055 2.215298 -0.718044 10.000000
1.365436 1.385603 0.101950 78.000000
2.389904 2.424356 -0.661726 9.000000
1.391968 1.411540 0.173440 79.000000
2.583082 2.618490 -0.582562 8.000000
1.419430 1.438384 0.248126 82.000000
1.236772 1.253288 -0.216196 72.000000
12.301047 12.460949 2.773271 18.000000
1.262757 1.278726 -0.157229 92.000000
1.290157 1.305560 -0.096193 99.000000
1.310234 1.325415 -0.032531 93.000000
2.053679 2.071679 -0.781634 13.000000
1.341884 1.353174 0.033264 94.000000
2.201369 2.219115 -0.721643 10.000000
1.367451 1.377992 0.101741 78.000000
2.389634 2.408055 -0.659436 9.000000
1.403659 1.413987 0.174311 85.000000
2.583399 2.601500 -0.580685 8.000000
1.421394 1.430852 0.247639 80.000000
12.324963 12.398329 2.768890 18.000000
1.267213 1.274310 -0.157229 94.000000
1.297296 1.304106 -0.096403 96.000000
1.312031 1.317999 -0.032461 88.000000
2.058527 2.061404 -0.780598 13.000000
1.349425 1.351311 0.033334 92.000000
2.217366 2.219689 -0.724342 10.000000
1.375076 1.376037 0.101950 78.000000
2.398443 2.399281 -0.659436 10.000000
1.396152 1.396153 0.172743 79.000000
2.602696 2.601789 -0.582875 7.000000
1.436207 1.435706 0.249345 79.000000
2.847641 2.845654 -0.494302 4.000000
12.376554 12.363605 2.770767 18.000000
1.264604 1.262840 -0.156357 86.000000
1.304894 1.302165 -0.096612 94.000000
1.312377 1.309174 -0.032357 93.000000
2.061602 2.050119 -0.779045 11.000000
1.351532 1.343537 0.033264 92.000000
2.225486 2.211548 -0.724342 11.000000
1.385537 1.376860 0.102369 82.000000
2.415162 2.399196 -0.661726 9.000000
1.405258 1.395483 0.173266 89.000000
2.603351 2.584339 -0.580998 7.000000
1.442869 1.431831 0.249588 82.000000
2.858050 2.835198 -0.494302 4.000000
12.429450 12.330069 2.772958 18.000000
1.273248 1.262627 -0.156880 92.000000
1.315106 1.303226 -0.097031 91.000000
1.319779 1.307400 -0.032427 93.000000
2.074243 2.048340 -0.781116 13.000000
1.355981 1.339047 0.033264 90.000000
2.216166 2.187726 -0.718944 10.000000
1.393179 1.374820 0.102578 82.000000
2.422123 2.389372 -0.661344 10.000000
1.408703 1.389170 0.173091 81.000000
2.609094 2.572917 -0.580372 7.000000
1.446195 1.425645 0.249345 79.000000
2.881577 2.839638 -0.496739 4.000000
12.476640 12.290762 2.773896 19.000000
1.279068 1.259573 -0.157055 84.000000
1.319421 1.298857 -0.097031 94.000000
1.330038 1.308394 -0.032566 95.000000
2.089298 2.049568 -0.784222 13.000000
1.363502 1.337106 0.033334 96.000000
2.223789 2.179977 -0.718944 10.000000
1.395116 1.367154 0.102369 82.000000
2.431435 2.382702 -0.661726 10.000000
1.418994 1.390068 0.173789 79.000000
2.636408 2.581760 -0.584439 8.000000
1.448325 1.417811 0.248857 79.000000
2.877283 2.815679 -0.494302 5.000000
12.523706 12.251276 2.774835 19.000000
1.288935 1.260897 -0.157752 46.000000
1.318234 1.288658 -0.096612 91.000000
1.340318 1.309333 -0.032706 95.000000
2.096441 2.042262 -0.784222 13.000000
1.368160 1.332339 0.033334 86.000000
2.236970 2.177639 -0.720743 10.000000
1.397017 1.359489 0.102160 76.000000
2.431296 2.365984 -0.659436 9.000000
1.429550 1.390664 0.174486 84.000000
2.638322 2.565656 -0.582875 7.000000
1.458960 1.418281 0.249832 79.000000
2.884248 2.802850 -0.493815 6.000000
12.563559 12.204736 2.774209 19.000000
1.328457 1.289614 -0.097031 91.000000
1.339139 1.299077 -0.032566 95.000000
2.095225 2.026873 -0.781116 13.000000
1.381428 1.335895 0.033544 88.000000
2.247360 2.172526 -0.721643 10.000000
1.407499 1.360156 0.102578 78.000000
2.439540 2.357483 -0.659436 9.000000
1.432963 1.384281 0.174311 80.000000
2.644421 2.553686 -0.582249 7.000000
1.469614 1.418695 0.250807 77.000000
2.902584 2.801036 -0.495277 4.000000
12.600401 12.155316 2.772958 18.000000
3.188161 3.074475 -0.387494 4.000000
1.332950 1.284969 -0.097031 91.000000
1.340786 1.291620 -0.032496 91.000000
2.097067 2.013827 -0.779045 13.000000
1.377429 1.322754 0.033334 90.000000
2.257741 2.167368 -0.722543 10.000000
1.415121 1.358000 0.102788 80.000000
2.453832 2.353962 -0.660962 10.000000
1.435151 1.376261 0.173963 78.000000
2.648058 2.538509 -0.580998 7.000000
1.474558 1.413556 0.250807 79.000000
2.920943 2.799128 -0.496739 5.000000
12.605658 12.075740 2.764823 9.000000
3.198874 3.063326 -0.387494 3.000000
12.579295 12.042056 3.384952 3.000000
1.343422 1.285599 -0.097450 88.000000
12.442590 11.902868 3.975335 14.000000
1.348176 1.289696 -0.032566 93.000000
12.325646 11.786879 4.569709 23.000000
2.109676 2.011828 -0.781116 13.000000
1.382268 1.317697 0.033334 94.000000
2.260028 2.153699 -0.720743 10.000000
1.425636 1.358563 0.103207 82.000000
2.464876 2.348091 -0.661726 9.000000
1.445718 1.376739 0.174660 78.000000
2.662627 2.534698 -0.582249 7.000000
1.473976 1.402668 0.249832 75.000000
2.934060 2.791140 -0.497227 5.000000
3.203774 3.046649 -0.386797 4.000000
12.554372 11.934499 3.367016 81.000000
1.336319 1.269895 -0.096612 77.000000
12.462872 11.839227 3.968586 59.000000
1.358469 1.290491 -0.032706 93.000000
12.358308 11.735804 4.566604 77.000000
2.122297 2.009764 -0.783186 13.000000
1.392438 1.318605 0.033474 94.000000
2.264327 2.143514 -0.719843 10.000000
1.427467 1.350834 0.102997 82.000000
2.478763 2.344869 -0.663252 9.000000
1.460649 1.381266 0.175880 84.000000
2.669582 2.524498 -0.581936 8.000000
1.477177 1.396409 0.249588 56.000000
2.937528 2.775940 -0.496252 4.000000
3.223078 3.043657 -0.387843 3.000000
12.602443 11.900892 3.369305 85.000000
1.333262 1.258601 -0.096089 23.000000
12.503479 11.799174 3.969036 73.000000
1.365874 1.288487 -0.032776 91.000000
12.410447 11.703196 4.570745 74.000000
2.128949 2.002716 -0.783186 13.000000
1.405772 1.321957 0.033683 92.000000
2.274635 2.138267 -0.720743 11.000000
1.423442 1.337636 0.102369 82.000000
2.483663 2.333947 -0.662489 9.000000
1.460863 1.372324 0.175357 78.000000
2.682697 2.519221 -0.582875 7.000000
1.479148 1.388527 0.249101 19.000000
2.935621 2.754802 -0.494302 4.000000
3.233684 3.032387 -0.387843 3.000000
12.653934 11.866226 3.371977 89.000000
12.547432 11.758124 3.969936 70.000000
1.364526 1.278242 -0.032636 84.000000
12.454045 11.662440 4.571780 74.000000
2.129215 1.988307 -0.780598 13.000000
1.410378 1.317042 0.033683 88.000000
2.284934 2.132973 -0.721643 11.000000
1.442704 1.346286 0.103416 78.000000
2.483587 2.316794 -0.660199 9.000000
1.465884 1.366959 0.175357 80.000000
2.700581 2.517453 -0.584752 8.000000
2.953931 2.752660 -0.495765 4.000000
12.709441 11.839308 2.751057 9.000000
3.244249 3.021081 -0.387843 3.000000
12.704523 11.826459 3.373885 93.000000
3.617306 3.366117 -0.258958 1.000000
12.596153 11.717362 3.971736 72.000000
1.373373 1.277557 -0.032741 96.000000
12.497500 11.621537 4.572815 77.000000
2.131894 1.976922 -0.779045 13.000000
1.409330 1.306426 0.033544 92.000000
2.304171 2.135180 -0.725242 10.000000
1.447395 1.341241 0.103416 82.000000
2.494540 2.310778 -0.660962 9.000000
1.464799 1.356420 0.174660 78.000000
2.702105 2.501301 -0.583188 8.000000
12.984715 12.015563 2.172199 4.000000
2.963522 2.742331 -0.495765 5.000000
12.678184 11.727805 2.735413 9.000000
3.263552 3.017854 -0.388889 3.000000
12.747172 11.783368 3.374266 85.000000
3.652503 3.375158 -0.260633 3.000000
12.646387 11.686111 3.975335 72.000000
1.376355 1.271399 -0.032706 91.000000
12.537994 11.577838 4.572815 77.000000
2.146963 1.977694 -0.782151 13.000000
1.413654 1.301745 0.033544 86.000000
2.302636 2.119610 -0.722543 10.000000
1.457712 1.341845 0.103835 82.000000
2.505079 2.305152 -0.661726 9.000000
1.472222 1.354252 0.175009 80.000000
2.706022 2.488316 -0.582249 7.000000
13.024491 11.972435 2.172199 4.000000
2.969677 2.729801 -0.495277 5.000000
12.789729 11.752529 2.751057 9.000000
3.261803 2.996233 -0.387494 4.000000
12.789075 11.743686 3.375030 100.000000
3.646019 3.346821 -0.259377 1.000000
12.693682 11.652020 3.978034 76.000000
1.380563 1.266828 -0.032706 69.000000
12.583440 11.542722 4.575403 89.000000
2.156359 1.973173 -0.783186 13.000000
1.423865 1.302449 0.033683 89.000000
2.301024 2.104071 -0.719843 10.000000
1.456491 1.331358 0.103416 80.000000
2.512709 2.296832 -0.661726 9.000000
1.488472 1.360114 0.176403 80.000000
2.711342 2.476664 -0.581623 7.000000
13.064119 11.929180 2.172199 4.000000
2.979187 2.719419 -0.495277 5.000000
12.620554 11.516075 2.706004 8.000000
3.286439 2.998828 -0.389238 3.000000
12.835196 11.707828 3.376938 89.000000
3.657098 3.334711 -0.259377 1.000000
12.734282 11.607635 3.978034 76.000000
12.635077 11.509136 4.579544 71.000000
2.161804 1.964334 -0.782669 13.000000
1.432844 1.301504 0.033788 84.000000
2.311239 2.098647 -0.720743 10.000000
1.455214 1.320897 0.102997 78.000000
2.520710 2.288048 -0.661726 9.000000
1.493210 1.354911 0.176403 78.000000
2.728749 2.475148 -0.583501 7.000000
8.991036 8.152577 1.490219 2.000000
2.985720 2.706338 -0.494790 5.000000
3.293935 2.984662 -0.388889 3.000000
3.680559 3.332650 -0.260214 1.000000
4.153292 3.758060 -0.097768 2.000000
2.164346 1.952893 -0.781116 13.000000
1.437378 1.296495 0.033788 84.000000
2.324341 2.095786 -0.722543 10.000000
1.474652 1.329181 0.104044 82.000000
2.520328 2.270909 -0.659436 9.000000
1.492009 1.344356 0.175706 80.000000
2.743244 2.470895 -0.584752 7.000000
9.019442 8.121140 1.490219 2.000000
2.995148 2.695900 -0.494790 4.000000
3.298926 2.967240 -0.388192 4.000000
12.226649 10.993489 3.196051 3.000000
3.698692 3.324477 -0.260633 1.000000
4.166386 3.743538 -0.097768 2.000000
12.018065 10.794558 4.328490 5.000000
2.171488 1.944948 -0.781116 12.000000
1.442121 1.291218 0.033788 84.000000
2.343622 2.097650 -0.726142 10.000000
1.479513 1.323767 0.104044 82.000000
2.543268 2.274744 -0.663252 9.000000
1.496927 1.338878 0.175706 80.000000
2.741973 2.451608 -0.582562 8.000000
9.049144 8.088030 1.490219 2.000000
3.005010 2.684903 -0.494790 4.000000
11.826058 10.562584 2.511399 7.000000
3.317209 2.961765 -0.389063 4.000000
11.899224 10.620468 3.100265 6.000000
3.716813 3.316218 -0.261052 1.000000
11.792736 10.521728 3.648706 6.000000
4.180078 3.728243 -0.097768 2.000000
11.708596 10.439318 4.203222 5.000000
2.167052 1.926707 -0.776975 13.000000
1.440865 1.280609 0.033648 84.000000
2.336727 2.076102 -0.721643 10.000000
1.490328 1.323641 0.104463 82.000000
2.548653 2.262799 -0.662489 9.000000
1.504804 1.336027 0.176055 80.000000
2.743554 2.434985 -0.580998 7.000000
9.078726 8.054811 1.490219 2.000000
3.017801 2.676504 -0.495277 5.000000
11.634112 10.314731 2.462592 7.000000
3.317605 2.940337 -0.387843 3.000000
11.576580 10.256510 3.006387 5.000000
3.716982 3.291978 -0.260214 1.000000
11.497149 10.182554 3.545679 5.000000
4.196708 3.715550 -0.097838 2.000000
11.411159 10.099292 4.083129 7.000000
2.191481 1.934091 -0.783186 11.000000
1.450047 1.279289 0.033753 30.000000
2.341398 2.064947 -0.720743 10.000000
1.486181 1.310245 0.103835 82.000000
2.562820 2.258636 -0.664015 9.000000
1.518659 1.338407 0.177100 80.000000
2.758389 2.430137 -0.582249 7.000000
3.033550 2.670673 -0.496252 4.000000
11.321875 9.964032 2.388755 6.000000
3.343320 2.941315 -0.389586 4.000000
11.294181 9.932667 2.923576 5.000000
3.735021 3.283608 -0.260633 1.000000
11.209477 9.854706 3.445800 5.000000
4.222317 3.710700 -0.098117 2.000000
11.149121 9.794746 3.976496 7.000000
2.201904 1.931017 -0.784739 13.000000
2.350804 2.060150 -0.721643 10.000000
1.490062 1.305830 0.103835 80.000000
2.563604 2.245846 -0.662489 9.000000
1.522856 1.333630 0.177100 80.000000
2.768982 2.424062 -0.582875 7.000000
9.133348 7.992823 1.490219 2.000000
3.044914 2.663743 -0.496739 4.000000
11.042147 9.659860 2.323678 6.000000
3.340032 2.920892 -0.388192 3.000000
11.025033 9.638097 2.846489 7.000000
3.747756 3.275140 -0.260842 1.000000
10.948327 9.564310 3.356270 7.000000
4.221259 3.687634 -0.097838 2.000000
10.881294 9.502395 3.870898 7.000000
2.201345 1.916977 -0.782151 13.000000
4.920745 4.285088 0.113894 2.000000
2.366442 2.060019 -0.724342 11.000000
1.497624 1.303242 0.104044 78.000000
2.568464 2.234309 -0.661726 9.000000
1.524495 1.325691 0.176752 78.000000
2.794893 2.430420 -0.586629 7.000000
3.050732 2.651029 -0.496252 5.000000
10.789469 9.372534 2.263607 6.000000
3.359235 2.917052 -0.389238 3.000000
10.775283 9.356911 2.773981 7.000000
3.761611 3.265315 -0.261052 3.000000
10.698863 9.284002 3.270339 7.000000
4.234106 3.672876 -0.097838 2.000000
10.631250 9.218820 3.770476 6.000000
2.201846 1.904611 -0.780081 12.000000
4.923573 4.257420 0.113615 2.000000
2.379517 2.056843 -0.726142 10.000000
1.511231 1.305842 0.104672 78.000000
2.575860 2.225779 -0.661726 9.000000
1.531898 1.323233 0.177100 78.000000
2.794389 2.412902 -0.584752 7.000000
3.059968 2.640363 -0.496252 4.000000
10.546894 9.097408 2.206039 6.000000
3.351290 2.889697 -0.387146 3.000000
10.522402 9.073089 2.700711 7.000000
3.782063 3.259987 -0.261680 1.000000
10.458092 9.011265 3.187106 7.000000
4.255991 3.665905 -0.098048 2.000000
10.385211 8.942163 3.672125 6.000000
2.217607 1.904078 -0.783186 13.000000
4.911096 4.216758 0.112987 2.000000
2.374850 2.038373 -0.722543 10.000000
1.521844 1.305761 0.105091 58.000000
2.589962 2.221434 -0.663252 9.000000
1.536738 1.317610 0.177100 80.000000
2.791215 2.392361 -0.582249 7.000000
9.215166 7.898353 1.490219 2.000000
3.078211 2.637414 -0.497714 4.000000
10.344534 8.860085 2.157232 6.000000
3.376491 2.890938 -0.388889 3.000000
10.263247 8.784246 2.625914 6.000000
3.800057 3.251298 -0.262098 1.000000
10.212628 8.734749 3.102525 7.000000
4.277880 3.658823 -0.098257 2.000000
10.171152 8.696201 3.585679 8.000000
2.227180 1.898833 -0.784222 12.000000
4.978263 4.242833 0.114174 2.000000
2.379340 2.027125 -0.721643 10.000000
2.603678 2.217473 -0.664779 9.000000
1.547397 1.317404 0.177798 80.000000
2.802558 2.385163 -0.582875 7.000000
9.244051 7.864526 1.490219 2.000000
3.081350 2.621508 -0.496739 5.000000
10.116580 8.603801 2.103418 5.000000
3.374419 2.868809 -0.387494 3.000000
10.057482 8.547492 2.565618 6.000000
3.777897 3.209563 -0.259796 1.000000
9.996489 8.492652 3.028291 9.000000
4.290627 3.643867 -0.098257 2.000000
9.945192 8.443098 3.495610 8.000000
2.239361 1.896431 -0.786292 13.000000
4.992307 4.226299 0.114174 2.000000
2.391998 2.024261 -0.723443 10.000000
5.898669 4.991828 0.404976 1.000000
2.602024 2.201219 -0.662489 9.000000
1.557842 1.317411 0.178495 76.000000
2.822519 2.386060 -0.585378 7.000000
3.077897 2.601027 -0.494790 4.000000
9.885508 8.350945 2.049605 5.000000
3.399135 2.870458 -0.389238 4.000000
9.856239 8.320333 2.507230 8.000000
3.794626 3.202169 -0.260214 1.000000
9.784818 8.257110 2.955857 10.000000
4.308800 3.634778 -0.098397 2.000000
9.745701 8.218286 3.415894 10.000000
2.238246 1.882776 -0.783704 13.000000
5.024660 4.225166 0.114593 2.000000
2.395715 2.013809 -0.722543 10.000000
5.934408 4.986625 0.406232 1.000000
2.609310 2.192577 -0.662489 9.000000
1.559151 1.309675 0.178146 78.000000
2.833442 2.379227 -0.586004 7.000000
9.349223 7.847713 1.498749 2.000000
3.102165 2.603026 -0.497227 4.000000
9.678498 8.118350 2.000797 5.000000
3.408634 2.859172 -0.389238 3.000000
9.667148 8.105954 2.452277 10.000000
3.817469 3.199833 -0.261052 1.000000
9.598487 8.042678 2.891071 8.000000
4.296933 3.599172 -0.097838 2.000000
9.543265 7.990739 3.335142 11.000000
2.243322 1.873713 -0.783186 13.000000
5.020957 4.192222 0.114174 2.000000
2.411706 2.012927 -0.725242 10.000000
2.612426 2.179682 -0.661344 9.000000
1.557592 1.299120 0.177449 78.000000
2.838695 2.366793 -0.585378 7.000000
9.350638 7.793422 1.494606 4.000000
3.114281 2.594723 -0.497714 3.000000
9.469989 7.887304 1.951990 5.000000
3.415532 2.844707 -0.388889 3.000000
9.447947 7.866146 2.389692 9.000000
3.822474 3.181378 -0.260633 1.000000
9.401797 7.822168 2.823586 8.000000
4.312546 3.586706 -0.097908 2.000000
9.363128 7.784474 3.262673 11.000000
2.251336 1.867105 -0.783704 13.000000
5.010930 4.154248 0.113615 2.000000
2.415717 2.002009 -0.724342 9.000000
5.953696 4.932332 0.405185 1.000000
2.629089 2.178065 -0.663634 7.000000
1.562118 1.293675 0.177449 54.000000
2.831724 2.344272 -0.582249 7.000000
3.126379 2.586367 -0.498202 3.000000
9.342193 7.725790 1.920077 5.000000
3.428512 2.835305 -0.389238 3.000000
9.275610 7.668002 2.339318 8.000000
3.842793 3.175648 -0.261261 1.000000
9.239739 7.632921 2.766898 7.000000
4.334291 3.579272 -0.098117 2.000000
9.169754 7.569723 3.186063 10.000000
2.256348 1.858007 -0.783186 13.000000
5.050102 4.157067 0.114174 2.000000
2.419681 1.991088 -0.723443 10.000000
5.986301 4.924209 0.406232 1.000000
2.641224 2.172617 -0.664779 9.000000
2.845994 2.339391 -0.583501 7.000000
3.135389 2.575437 -0.498202 3.000000
9.133997 7.500085 1.871895 4.000000
3.441468 2.825849 -0.389586 3.000000
9.092905 7.463680 2.286655 9.000000
3.866208 3.172350 -0.262098 1.000000
9.059906 7.431310 2.705261 11.000000
4.352944 3.569191 -0.098257 2.000000
9.010857 7.385811 3.121875 10.000000
2.265810 1.852566 -0.784222 13.000000
5.080066 4.152067 0.114523 2.000000
2.432653 1.987561 -0.725242 9.000000
5.984889 4.888123 0.404976 1.000000
2.638147 2.154691 -0.662107 7.000000
7.303046 5.962589 0.824842 1.000000
2.864856 2.338185 -0.585691 7.000000
3.125900 2.549422 -0.495277 4.000000
8.979463 7.320863 1.834976 4.000000
3.451802 2.813216 -0.389586 3.000000
8.936280 7.283061 2.240861 10.000000
3.861773 3.146220 -0.261052 1.000000
8.874249 7.227352 2.642275 11.000000
4.368477 3.556501 -0.098327 2.000000
8.861275 7.211642 3.061312 12.000000
2.266586 1.839378 -0.782151 12.000000
5.079003 4.121706 0.114174 2.000000
2.436549 1.976603 -0.724342 9.000000
6.020532 4.882297 0.406232 1.000000
2.652129 2.149951 -0.663634 7.000000
7.315562 5.928257 0.823796 1.000000
2.878010 2.331400 -0.586629 7.000000
8.741281 7.081079 1.381267 2.000000
3.144036 2.545989 -0.496739 4.000000
8.805362 7.127902 1.794304 4.000000
3.439918 2.783604 -0.387146 3.000000
8.773644 7.097151 2.193540 11.000000
3.895020 3.149628 -0.262517 1.000000
8.740031 7.064923 2.594585 11.000000
4.380865 3.541231 -0.098327 2.000000
8.688052 7.020392 2.992983 12.000000
2.269983 1.829032 -0.781116 12.000000
5.094074 4.103065 0.114174 2.000000
2.446814 1.970102 -0.725242 9.000000
6.060168 4.877731 0.407697 1.000000
2.656557 2.138220 -0.662870 7.000000
7.336212 5.902683 0.823796 1.000000
2.886132 2.321339 -0.586629 7.000000
8.661974 6.964413 1.364693 6.000000
3.165724 2.544398 -0.498689 3.000000
8.655879 6.954533 1.758636 4.000000
3.474464 2.791545 -0.389935 3.000000
8.620802 6.923881 2.149273 11.000000
3.915337 3.143514 -0.263145 1.000000
8.585306 6.890437 2.541497 12.000000
4.390694 3.522649 -0.098257 2.000000
8.526850 6.838629 2.928797 13.000000
2.288423 1.830751 -0.785257 12.000000
5.139601 4.110236 0.114872 2.000000
2.447587 1.956683 -0.723443 9.000000
6.055315 4.839089 0.406232 1.000000
2.664005 2.128933 -0.662870 9.000000
7.366113 5.884498 0.824842 1.000000
2.891129 2.308785 -0.586004 7.000000
8.506271 6.790470 1.336419 6.000000
3.187000 2.543237 -0.500639 4.000000
8.510236 6.788773 1.724221 4.000000
3.481072 2.776916 -0.389586 3.000000
8.460723 6.746860 2.103478 12.000000
3.910669 3.117377 -0.262098 1.000000
8.435563 6.721982 2.490208 12.000000
4.406093 3.509792 -0.098327 2.000000
8.393501 6.683668 2.874962 13.000000
2.300850 1.827559 -0.787328 11.000000
5.160178 4.097247 0.115011 2.000000
2.457455 1.950550 -0.724342 9.000000
6.149549 4.881065 0.411465 1.000000
2.686800 2.131823 -0.666687 7.000000
7.392849 5.863708 0.825539 1.000000
2.902267 2.301133 -0.586629 7.000000
8.352574 6.620168 1.308633 6.000000
3.174074 2.514840 -0.497227 3.000000
8.374774 6.635390 1.692308 8.000000
3.493869 2.767221 -0.389935 3.000000
8.328763 6.594198 2.064935 14.000000
3.908996 3.093794 -0.261261 1.000000
8.278643 6.549816 2.437120 12.000000
4.408299 3.487715 -0.098117 2.000000
8.255002 6.528771 2.820092 14.000000
2.307215 1.819515 -0.787328 11.000000
5.180019 4.085064 0.115151 2.000000
2.470031 1.947216 -0.726142 9.000000
6.166546 4.859574 0.411465 1.000000
2.678803 2.110283 -0.662870 7.000000
7.422666 5.845260 0.826585 1.000000
2.909882 2.291497 -0.586629 7.000000
8.221619 6.472108 1.284747 9.000000
3.188637 2.509210 -0.498202 3.000000
8.225551 6.470548 1.657580 8.000000
3.528566 2.774712 -0.392724 3.000000
8.183914 6.435476 2.023721 14.000000
3.934937 3.093156 -0.262308 1.000000
8.140960 6.397108 2.390330 12.000000
4.423593 3.474776 -0.098187 2.000000
8.122761 6.378223 2.767293 14.000000
2.307153 1.807090 -0.785257 12.000000
5.197397 4.069422 0.115221 2.000000
2.473744 1.936180 -0.725242 9.000000
6.122862 4.792318 0.407488 1.000000
2.688878 2.103808 -0.663634 7.000000
7.442010 5.820611 0.826585 1.000000
2.927199 2.288626 -0.588507 7.000000
8.098705 6.329683 1.262079 7.000000
3.216148 2.512729 -0.501127 3.000000
8.081963 6.314320 1.624416 8.000000
3.512622 2.743376 -0.389935 4.000000
8.063954 6.295725 1.988612 14.000000
3.955157 3.086773 -0.262936 1.000000
8.009592 6.248785 2.345340 14.000000
4.444549 3.467471 -0.098397 2.000000
7.976296 6.220569 2.710353 17.000000
2.310397 1.796653 -0.784222 11.000000
5.210862 4.052166 0.115221 2.000000
2.498613 1.942319 -0.730641 9.000000
6.199483 4.817484 0.411465 1.000000
2.702408 2.099226 -0.665160 7.000000
7.452839 5.787268 0.825539 1.000000
2.911370 2.260733 -0.583813 7.000000
7.969114 6.185936 1.238680 5.000000
3.221326 2.499617 -0.500639 3.000000
7.941624 6.160156 1.591877 8.000000
3.512731 2.723772 -0.388889 3.000000
7.923435 6.143833 1.948923 15.000000
3.955900 3.066300 -0.262308 1.000000
7.893173 6.115957 2.305298 15.000000
4.440817 3.439688 -0.098048 2.000000
7.851324 6.079146 2.660660 17.000000
2.319401 1.791343 -0.785257 10.000000
5.202815 4.016844 0.114732 2.000000
2.489951 1.921679 -0.726142 9.000000
6.159335 4.751893 0.407697 1.000000
2.712464 2.092651 -0.665923 7.000000
7.490921 5.777124 0.827631 1.000000
2.923936 2.254175 -0.584752 7.000000
7.838142 6.040539 1.215037 5.000000
3.217450 2.478666 -0.498689 4.000000
7.831611 6.031157 1.565596 8.000000
3.528533 2.716354 -0.389586 3.000000
7.801713 6.005957 1.913814 15.000000
3.963413 3.050037 -0.262098 1.000000
7.777004 5.982619 2.265257 15.000000
4.500354 3.460735 -0.099095 2.000000
7.742308 5.951628 2.616661 19.000000
2.332083 1.787531 -0.787328 10.000000
5.239025 4.015688 0.115221 2.000000
2.496643 1.912976 -0.726142 9.000000
2.720115 2.082696 -0.665923 7.000000
7.540524 5.771425 0.830769 1.000000
2.946299 2.254246 -0.587568 7.000000
7.706251 5.896138 1.191395 5.000000
3.226083 2.467419 -0.498689 3.000000
7.723938 5.905397 1.539941 7.000000
3.547491 2.711281 -0.390632 3.000000
7.687947 5.873629 1.880614 19.000000
3.984090 3.042763 -0.262727 1.000000
7.665673 5.852375 2.226566 13.000000
4.502869 3.437725 -0.098885 2.000000
7.632501 5.824942 2.572661 18.000000
2.338308 1.779380 -0.787328 10.000000
5.231425 3.979511 0.114732 2.000000
2.500536 1.901453 -0.725242 9.000000
6.189177 4.706362 0.407488 1.000000
2.719553 2.067248 -0.664015 7.000000
7.546347 5.734222 0.829200 7.000000
2.951003 2.241558 -0.586942 7.000000
7.613979 5.781422 1.173846 4.000000
3.238267 2.457980 -0.499177 4.000000
7.599746 5.768524 1.511157 7.000000
3.572805 2.710925 -0.392375 3.000000
7.569190 5.741162 1.846650 16.000000
3.980363 3.017978 -0.261784 3.000000
7.535408 5.711401 2.182925 15.000000
4.495717 3.407492 -0.098466 2.000000
7.526525 5.702597 2.530215 18.000000
2.344506 1.771206 -0.787328 12.000000
5.266932 3.979015 0.115221 2.000000
2.516159 1.900196 -0.727942 9.000000
6.266140 4.730458 0.411465 1.000000
2.725186 2.056559 -0.663634 7.000000
7.510648 5.665846 0.823099 1.000000
2.959998 2.232949 -0.587255 7.000000
7.507897 5.661721 1.154590 6.000000
3.246401 2.447227 -0.499177 4.000000
7.490474 5.644476 1.485502 7.000000
3.572697 2.691245 -0.391329 3.000000
7.470573 5.627442 1.818028 20.000000
4.004709 3.015574 -0.262727 1.000000
7.432865 5.594966 2.147833 16.000000
4.497995 3.384566 -0.098257 2.000000
7.407437 5.571777 2.483628 18.000000
2.344185 1.758785 -0.785257 11.000000
5.251993 3.939010 0.114593 2.000000
2.529013 1.896078 -0.729741 9.000000
6.240245 4.678501 0.408744 1.000000
2.725706 2.042802 -0.662107 7.000000
7.385886 5.533397 0.807411 1.000000
2.967774 2.222604 -0.587255 7.000000
7.411611 5.548631 1.136797 4.000000
3.258102 2.438259 -0.499664 4.000000
7.382626 5.524921 1.460472 7.000000
3.575221 2.674608 -0.390632 3.000000
7.351815 5.497861 1.784446 20.000000
4.037606 3.018319 -0.264192 1.000000
7.324345 5.473334 2.110941 16.000000
4.547640 3.398359 -0.099095 2.000000
7.295865 5.450067 2.440146 19.000000
2.362705 1.759823 -0.789398 11.000000
5.293894 3.943072 0.115221 2.000000
2.519655 1.876043 -0.725242 9.000000
6.298196 4.687693 0.411465 1.000000
2.754873 2.049681 -0.667450 7.000000
7.248484 5.391058 0.790328 1.000000
2.986223 2.221003 -0.589445 7.000000
7.292969 5.422163 1.115836 6.000000
3.272543 2.432177 -0.500639 3.000000
7.268670 5.400163 1.434191 7.000000
3.587735 2.664487 -0.390981 3.000000
7.250221 5.384489 1.755443 20.000000
4.031557 2.993007 -0.263145 1.000000
7.232911 5.367722 2.079448 16.000000
4.559475 3.382463 -0.099095 2.000000
7.198467 5.338260 2.401323 21.000000
2.365116 1.750094 -0.788363 10.000000
5.323015 3.937390 0.115570 2.000000
2.519595 1.863042 -0.723443 9.000000
6.313706 4.666783 0.411465 1.000000
2.754983 2.036349 -0.665923 7.000000
7.143599 5.278277 0.777081 1.000000
2.990394 2.208740 -0.588819 7.000000
7.187943 5.307159 1.097068 4.000000
3.271007 2.414240 -0.499177 4.000000
7.186398 5.302144 1.414481 7.000000
3.612585 2.664401 -0.392724 3.000000
7.151115 5.274185 1.727203 21.000000
4.031815 2.972508 -0.262517 1.000000
7.131449 5.255838 2.045255 17.000000
4.580326 3.374442 -0.099304 2.000000
7.102576 5.230730 2.363535 21.000000
2.374628 1.743701 -0.789398 11.000000
5.333504 3.916417 0.115500 2.000000
2.544935 1.868073 -0.728841 9.000000
6.329957 4.644717 0.411465 1.000000
2.762428 2.026238 -0.665923 7.000000
7.076136 5.188436 0.767668 16.000000
2.995283 2.195430 -0.588194 7.000000
7.102354 5.205759 1.081225 5.000000
3.279414 2.402808 -0.499177 4.000000
7.082152 5.187148 1.390390 6.000000
3.618648 2.649422 -0.392375 3.000000
7.053161 5.162138 1.698963 21.000000
4.052354 2.964788 -0.263145 1.000000
7.021684 5.135332 2.008363 17.000000
4.592078 3.358431 -0.099304 2.000000
7.017860 5.130661 2.329371 21.000000
2.380701 1.735401 -0.789398 11.000000
5.367216 3.910976 0.115919 2.000000
2.551765 1.858733 -0.728841 9.000000
6.346939 4.621484 0.411465 1.000000
2.775832 2.021205 -0.667450 7.000000
7.003992 5.098048 0.757906 14.000000
3.009318 2.189609 -0.589445 6.000000
6.997774 5.089781 1.062457 6.000000
3.304254 2.402446 -0.501614 3.000000
6.984468 5.076376 1.367550 6.000000
3.608535 2.622717 -0.390283 3.000000
6.966311 5.061322 1.673777 22.000000
4.085300 2.967059 -0.264611 1.000000
6.926024 5.028359 1.975970 17.000000
4.584935 3.327484 -0.098885 2.000000
6.911520 5.014152 2.287960 22.000000
2.367963 1.713490 -0.783186 11.000000
5.380836 3.892215 0.115919 2.000000
2.561396 1.852098 -0.729741 9.000000
6.363031 4.599302 0.411465 1.000000
2.782871 2.011504 -0.667450 7.000000
6.911931 4.994219 0.746053 14.000000
3.005733 2.170994 -0.587255 7.000000
6.918932 4.995603 1.047833 5.000000
3.309401 2.388573 -0.501127 4.000000
6.878796 4.962967 1.343459 6.000000
3.620900 2.612435 -0.390632 4.000000
6.875657 4.958883 1.647827 24.000000
4.085913 2.945771 -0.263983 1.000000
6.848679 4.935788 1.948976 17.000000
4.606256 3.318475 -0.099095 2.000000
6.816112 4.908709 2.250690 22.000000
2.392758 1.718738 -0.789398 10.000000
5.374898 3.859412 0.115500 2.000000
2.564678 1.840874 -0.728841 9.000000
6.379048 4.577061 0.411465 1.000000
2.786685 1.999488 -0.666687 7.000000
6.827325 4.896902 0.735071 20.000000
3.022924 2.167397 -0.589132 7.000000
6.836293 4.899721 1.032721 5.000000
3.327401 2.383942 -0.502589 3.000000
6.799716 4.869918 1.324687 6.000000
3.652673 2.616024 -0.393072 3.000000
6.781183 4.854850 1.621113 22.000000
4.092923 2.929165 -0.263773 1.000000
6.758089 4.834754 1.918383 18.000000
4.627572 3.309353 -0.099304 2.000000
6.738912 4.817476 2.219632 22.000000
2.398743 1.710376 -0.789398 10.000000
5.407877 3.854555 0.115919 2.000000
2.571089 1.831910 -0.728841 9.000000
2.806440 1.998860 -0.669740 8.000000
6.738879 4.797930 0.723741 22.000000
3.036910 2.161413 -0.590384 7.000000
6.733661 4.790669 1.014684 6.000000
3.335702 2.372314 -0.502589 3.000000
6.703975 4.766031 1.302786 9.000000
3.652039 2.596330 -0.392027 3.000000
6.682867 4.749264 1.593637 23.000000
4.096609 2.910234 -0.263355 1.000000
6.673237 4.738921 1.889589 18.000000
4.678231 3.320959 -0.100142 2.000000
6.658006 4.724609 2.187539 21.000000
2.414159 1.708689 -0.792504 10.000000
5.421300 3.835653 0.115919 2.000000
2.577467 1.822925 -0.728841 9.000000
6.410053 4.533538 0.411465 1.000000
2.803782 1.982252 -0.667450 7.000000
6.664472 4.709981 0.713980 18.000000
3.046049 2.151939 -0.590697 6.000000
6.659535 4.703013 1.001035 6.000000
3.337064 2.356659 -0.501614 3.000000
6.639056 4.686810 1.287143 9.000000
3.680614 2.597352 -0.394118 3.000000
6.612772 4.664802 1.573029 23.000000
4.132859 2.914331 -0.265029 1.000000
6.586990 4.644889 1.860795 18.000000
4.669604 3.291603 -0.099723 2.000000
6.572571 4.631287 2.154410 23.000000
2.416651 1.698451 -0.791469 10.000000
5.407809 3.799263 0.115360 2.000000
2.586688 1.816607 -0.729741 9.000000
6.425053 4.512254 0.411465 1.000000
2.807127 1.970687 -0.666687 7.000000
6.575677 4.614609 0.702824 22.000000
3.058020 2.145229 -0.591635 7.000000
6.580828 4.614797 0.986898 7.000000
3.344861 2.345580 -0.501614 4.000000
6.547803 4.589934 1.266494 9.000000
3.689208 2.585132 -0.394118 3.000000
6.538157 4.579769 1.551659 23.000000
4.149045 2.905193 -0.265448 1.000000
6.509769 4.558191 1.834701 18.000000
4.660834 3.262341 -0.099304 2.000000
