# This PCD file was generated using the MATLAB® pcwrite function
# from Computer Vision Toolbox®.
# .PCD v.7 - Point Cloud Data file format
VERSION .7
FIELDS x y z intensity
SIZE 4 4 4 4
TYPE F F F F
COUNT 1 1 1 1
WIDTH 1267
HEIGHT 1
VIEWPOINT 0 0 0 1 0 0 0
POINTS 1267
DATA ascii
3.532826 -0.580661 0.556179 39.000000
3.513460 -0.588560 0.553581 39.000000
3.592959 -0.318168 0.538342 40.000000
3.594925 -0.329461 0.538757 40.000000
3.588968 -0.340020 0.538065 40.000000
3.589879 -0.351223 0.538342 40.000000
3.586814 -0.362035 0.538065 40.000000
3.589626 -0.373449 0.538619 40.000000
3.588464 -0.384460 0.538619 40.000000
3.586283 -0.395359 0.538480 40.000000
3.580133 -0.405800 0.537788 40.000000
3.576904 -0.416552 0.537511 40.000000
3.567742 -0.426581 0.536403 40.000000
3.567400 -0.437645 0.536541 40.000000
3.564075 -0.448340 0.536264 40.000000
3.560719 -0.459018 0.535987 40.000000
3.559294 -0.469940 0.535987 40.000000
3.556854 -0.480725 0.535849 40.000000
3.555362 -0.491635 0.535849 40.000000
3.551876 -0.502262 0.535572 40.000000
3.552279 -0.513441 0.535849 40.000000
3.553626 -0.524772 0.536264 40.000000
3.553957 -0.535968 0.536541 40.000000
3.550339 -0.546567 0.536264 40.000000
3.550602 -0.557764 0.536541 40.000000
3.546918 -0.568341 0.536264 40.000000
3.541249 -0.578580 0.535710 40.000000
3.536526 -0.588953 0.535295 40.000000
3.532750 -0.599468 0.535018 40.000000
3.529918 -0.610134 0.534880 40.000000
3.529005 -0.621133 0.535018 40.000000
3.532932 -0.633007 0.535849 40.000000
3.532922 -0.644199 0.536126 40.000000
3.544560 -0.657568 0.538065 40.000000
3.667087 -0.691984 0.555790 40.000000
3.593957 -0.307452 0.515997 41.000000
3.590035 -0.318214 0.515600 41.000000
3.590029 -0.329317 0.515733 41.000000
3.584068 -0.339861 0.515070 41.000000
3.578076 -0.350372 0.514408 41.000000
3.579943 -0.361647 0.514805 41.000000
3.581774 -0.372937 0.515203 41.000000
3.580613 -0.383924 0.515203 41.000000
3.581389 -0.395125 0.515468 41.000000
3.579175 -0.405998 0.515335 41.000000
3.574959 -0.416633 0.514938 41.000000
3.570711 -0.427245 0.514541 41.000000
3.567416 -0.437956 0.514276 41.000000
3.564089 -0.448651 0.514011 41.000000
3.559747 -0.459203 0.513614 41.000000
3.557338 -0.469992 0.513481 41.000000
3.555880 -0.480903 0.513481 41.000000
3.555369 -0.491946 0.513614 41.000000
3.554825 -0.502990 0.513746 41.000000
3.557189 -0.514462 0.514276 41.000000
3.558535 -0.525808 0.514673 41.000000
3.558866 -0.537019 0.514938 41.000000
3.556221 -0.547784 0.514805 41.000000
3.555503 -0.558846 0.514938 41.000000
3.551815 -0.569437 0.514673 41.000000
3.546138 -0.579691 0.514143 41.000000
3.542388 -0.590242 0.513878 41.000000
3.539583 -0.600941 0.513746 41.000000
3.537723 -0.611797 0.513746 41.000000
3.536805 -0.622820 0.513878 41.000000
3.539756 -0.634543 0.514541 41.000000
3.538768 -0.645578 0.514673 41.000000
3.546516 -0.658241 0.515997 41.000000
3.544479 -0.669119 0.515997 41.000000
3.542410 -0.679990 0.515997 41.000000
3.537389 -0.690285 0.515600 41.000000
3.528449 -0.699784 0.514673 41.000000
3.522398 -0.709822 0.514143 41.000000
3.585615 -0.297849 0.493159 42.000000
3.582707 -0.308678 0.492906 42.000000
3.577791 -0.319316 0.492400 42.000000
3.577783 -0.330382 0.492527 42.000000
3.575765 -0.341263 0.492400 42.000000
3.574701 -0.352232 0.492400 42.000000
3.573603 -0.363197 0.492400 42.000000
3.575432 -0.374469 0.492780 42.000000
3.574266 -0.385436 0.492780 42.000000
3.575039 -0.396619 0.493033 42.000000
3.574791 -0.407697 0.493159 42.000000
3.571553 -0.418432 0.492906 42.000000
3.568282 -0.429151 0.492653 42.000000
3.566949 -0.440096 0.492653 42.000000
3.561646 -0.450540 0.492147 42.000000
3.559263 -0.461337 0.492020 42.000000
3.553897 -0.471733 0.491514 42.000000
3.554399 -0.482901 0.491767 42.000000
3.555849 -0.494213 0.492147 42.000000
3.557262 -0.505538 0.492527 42.000000
3.557657 -0.516734 0.492780 42.000000
3.557037 -0.527792 0.492906 42.000000
3.557362 -0.538999 0.493159 42.000000
3.555692 -0.549910 0.493159 42.000000
3.559867 -0.561744 0.493919 42.000000
3.552251 -0.571717 0.493159 42.000000
3.549501 -0.582452 0.493033 42.000000
3.542806 -0.592522 0.492400 42.000000
3.541949 -0.603555 0.492527 42.000000
3.538126 -0.614079 0.492274 42.000000
3.537202 -0.625104 0.492400 42.000000
3.536244 -0.636128 0.492527 42.000000
3.537203 -0.647510 0.492906 42.000000
3.536175 -0.658540 0.493033 42.000000
3.535113 -0.669571 0.493159 42.000000
3.532068 -0.680225 0.493033 42.000000
3.528991 -0.690868 0.492906 42.000000
3.522963 -0.700918 0.492400 42.000000
3.515934 -0.710741 0.491767 42.000000
3.513737 -0.721524 0.491767 42.000000
3.510536 -0.732098 0.491641 42.000000
3.509244 -0.743070 0.491767 42.000000
3.505978 -0.753625 0.491641 42.000000
3.500742 -0.763743 0.491261 42.000000
3.590306 -0.287457 0.470138 43.000000
3.585450 -0.298143 0.469657 43.000000
3.582540 -0.308971 0.469417 43.000000
3.580586 -0.319873 0.469297 43.000000
3.578599 -0.330766 0.469176 43.000000
3.577568 -0.341743 0.469176 43.000000
3.574527 -0.352523 0.468936 43.000000
3.574416 -0.363588 0.469056 43.000000
3.575258 -0.374759 0.469297 43.000000
3.571131 -0.385407 0.468936 43.000000
3.572892 -0.396689 0.469297 43.000000
3.571658 -0.407649 0.469297 43.000000
3.570390 -0.418604 0.469297 43.000000
3.568104 -0.429438 0.469176 43.000000
3.564799 -0.440140 0.468936 43.000000
3.563432 -0.451075 0.468936 43.000000
3.561046 -0.461878 0.468816 43.000000
3.558629 -0.472670 0.468696 43.000000
3.559129 -0.483853 0.468936 43.000000
3.557628 -0.494769 0.468936 43.000000
3.559042 -0.506100 0.469297 43.000000
3.557472 -0.517017 0.469297 43.000000
3.557834 -0.528219 0.469537 43.000000
3.557178 -0.539281 0.469657 43.000000
3.555507 -0.550191 0.469657 43.000000
3.553802 -0.561097 0.469657 43.000000
3.551084 -0.571840 0.469537 43.000000
3.542455 -0.581608 0.468696 43.000000
3.545550 -0.593291 0.469297 43.000000
3.542734 -0.603999 0.469176 43.000000
3.537930 -0.614357 0.468816 43.000000
3.536028 -0.625208 0.468816 43.000000
3.531163 -0.635527 0.468456 43.000000
3.531149 -0.646714 0.468696 43.000000
3.530124 -0.657726 0.468816 43.000000
3.527115 -0.668369 0.468696 43.000000
3.522123 -0.678624 0.468336 43.000000
3.519050 -0.689236 0.468215 43.000000
3.513998 -0.699449 0.467855 43.000000
3.508916 -0.709637 0.467495 43.000000
3.508667 -0.720798 0.467735 43.000000
3.506439 -0.731559 0.467735 43.000000
3.505150 -0.742518 0.467855 43.000000
3.502855 -0.753269 0.467855 43.000000
3.501498 -0.764223 0.467975 43.000000
3.501075 -0.775391 0.468215 43.000000
3.500617 -0.786563 0.468456 43.000000
3.499156 -0.797519 0.468576 43.000000
3.499594 -0.808920 0.468936 43.000000
3.497096 -0.819653 0.468936 43.000000
3.517748 -0.835879 0.471819 43.000000
3.585907 -0.284930 0.449301 44.000000
3.586996 -0.296094 0.449530 44.000000
3.586071 -0.307098 0.449530 44.000000
3.586102 -0.318186 0.449644 44.000000
3.583130 -0.329004 0.449415 44.000000
3.586060 -0.340373 0.449874 44.000000
3.581044 -0.350984 0.449415 44.000000
3.575008 -0.361467 0.448842 44.000000
3.571907 -0.372227 0.448613 44.000000
3.569760 -0.383078 0.448498 44.000000
3.564619 -0.393590 0.448040 44.000000
3.563394 -0.404524 0.448040 44.000000
3.561150 -0.415339 0.447926 44.000000
3.559859 -0.426263 0.447926 44.000000
3.559520 -0.437304 0.448040 44.000000
3.560133 -0.448471 0.448269 44.000000
3.559726 -0.459519 0.448384 44.000000
3.560269 -0.470699 0.448613 44.000000
3.559792 -0.481753 0.448728 44.000000
3.560265 -0.492945 0.448957 44.000000
3.557753 -0.503726 0.448842 44.000000
3.557174 -0.514781 0.448957 44.000000
3.554595 -0.525547 0.448842 44.000000
3.550019 -0.536004 0.448498 44.000000
3.550322 -0.547196 0.448728 44.000000
3.548626 -0.558085 0.448728 44.000000
3.547878 -0.569127 0.448842 44.000000
3.545135 -0.579849 0.448728 44.000000
3.543339 -0.590722 0.448728 44.000000
3.539551 -0.601257 0.448498 44.000000
3.535733 -0.611774 0.448269 44.000000
3.532861 -0.622446 0.448155 44.000000
3.529957 -0.633106 0.448040 44.000000
3.527021 -0.643754 0.447926 44.000000
3.525029 -0.654572 0.447926 44.000000
3.520076 -0.664829 0.447582 44.000000
3.515093 -0.675063 0.447238 44.000000
3.512031 -0.685653 0.447123 44.000000
3.507962 -0.696037 0.446894 44.000000
3.504836 -0.706599 0.446780 44.000000
3.502652 -0.717349 0.446780 44.000000
3.502380 -0.728497 0.447009 44.000000
3.502072 -0.739650 0.447238 44.000000
3.500757 -0.750599 0.447353 44.000000
3.502321 -0.762182 0.447811 44.000000
3.500936 -0.773138 0.447926 44.000000
3.498548 -0.783875 0.447926 44.000000
3.497095 -0.794825 0.448040 44.000000
3.497544 -0.806220 0.448384 44.000000
3.496988 -0.817400 0.448613 44.000000
3.494464 -0.828125 0.448613 44.000000
3.490941 -0.838609 0.448498 44.000000
3.490282 -0.849786 0.448728 44.000000
3.486694 -0.860252 0.448613 44.000000
3.484039 -0.870945 0.448613 44.000000
3.472684 -0.879432 0.447582 44.000000
4.308192 1.896669 0.547488 45.000000
4.310346 1.881852 0.547054 45.000000
4.313362 1.867434 0.546729 45.000000
4.310849 1.850663 0.545754 45.000000
4.311933 1.835483 0.545212 45.000000
4.314796 1.821086 0.544887 45.000000
4.320363 1.807840 0.544887 45.000000
4.327726 1.795338 0.545104 45.000000
4.331375 1.781296 0.544887 45.000000
4.334057 1.766874 0.544562 45.000000
4.334849 1.751707 0.544020 45.000000
4.332819 1.735443 0.543154 45.000000
4.335351 1.721042 0.542829 45.000000
4.340611 1.707733 0.542829 45.000000
4.339346 1.691881 0.542070 45.000000
4.319479 1.668889 0.539145 45.000000
4.334791 1.659538 0.540337 45.000000
4.335215 1.644468 0.539795 45.000000
4.338378 1.630461 0.539578 45.000000
4.348950 1.619224 0.540228 45.000000
4.354830 1.606218 0.540337 45.000000
4.363472 1.594214 0.540770 45.000000
4.367408 1.580482 0.540662 45.000000
4.371300 1.566740 0.540553 45.000000
4.391168 1.528402 0.541203 45.000000
4.382678 1.510389 0.539687 45.000000
4.392937 1.498862 0.540337 45.000000
4.398280 1.470618 0.539903 45.000000
4.392389 1.453683 0.538711 45.000000
4.393994 1.439272 0.538386 45.000000
3.557450 -0.260393 0.423214 45.000000
3.595292 -0.274259 0.427440 45.000000
3.592451 -0.285130 0.427223 45.000000
3.590569 -0.296069 0.427115 45.000000
3.589644 -0.307083 0.427115 45.000000
3.582743 -0.317567 0.426465 45.000000
3.581752 -0.328557 0.426465 45.000000
3.580727 -0.339544 0.426465 45.000000
3.577690 -0.350334 0.426248 45.000000
3.571653 -0.360809 0.425706 45.000000
3.570529 -0.371765 0.425706 45.000000
3.567395 -0.382505 0.425490 45.000000
3.560276 -0.392793 0.424839 45.000000
3.561030 -0.403938 0.425056 45.000000
3.558786 -0.414746 0.424948 45.000000
3.557497 -0.425663 0.424948 45.000000
3.556175 -0.436575 0.424948 45.000000
3.556791 -0.447731 0.425164 45.000000
3.557373 -0.458896 0.425381 45.000000
3.556933 -0.469938 0.425490 45.000000
3.557445 -0.481115 0.425706 45.000000
3.556937 -0.492163 0.425815 45.000000
3.553442 -0.502795 0.425598 45.000000
3.551883 -0.513694 0.425598 45.000000
3.549307 -0.524443 0.425490 45.000000
3.547681 -0.535330 0.425490 45.000000
3.546022 -0.546212 0.425490 45.000000
3.545311 -0.557243 0.425598 45.000000
3.543585 -0.568117 0.425598 45.000000
3.541826 -0.578986 0.425598 45.000000
3.540033 -0.589849 0.425598 45.000000
3.538206 -0.600707 0.425598 45.000000
3.535367 -0.611390 0.425490 45.000000
3.534454 -0.622406 0.425598 45.000000
3.533506 -0.633422 0.425706 45.000000
3.531546 -0.644260 0.425706 45.000000
3.528576 -0.654910 0.425598 45.000000
3.525573 -0.665547 0.425490 45.000000
3.520586 -0.675798 0.425164 45.000000
3.515569 -0.686024 0.424839 45.000000
3.510522 -0.696226 0.424514 45.000000
3.506421 -0.706600 0.424298 45.000000
3.506184 -0.717753 0.424514 45.000000
3.504939 -0.728709 0.424623 45.000000
3.506577 -0.740281 0.425056 45.000000
3.506234 -0.751452 0.425273 45.000000
3.505854 -0.762628 0.425490 45.000000
3.504469 -0.773595 0.425598 45.000000
3.501109 -0.784126 0.425490 45.000000
3.497718 -0.794643 0.425381 45.000000
3.496232 -0.805593 0.425490 45.000000
3.493744 -0.816316 0.425490 45.000000
3.494125 -0.827718 0.425815 45.000000
3.491569 -0.838434 0.425815 45.000000
3.491878 -0.849848 0.426140 45.000000
3.489254 -0.860557 0.426140 45.000000
3.487562 -0.871499 0.426248 45.000000
3.481981 -0.881462 0.425923 45.000000
4.309827 1.910327 0.519229 46.000000
4.308383 1.893893 0.518411 46.000000
4.312349 1.879871 0.518206 46.000000
4.310791 1.863473 0.517388 46.000000
4.308260 1.846711 0.516468 46.000000
4.310243 1.831928 0.516059 46.000000
4.309427 1.815991 0.515343 46.000000
4.314060 1.802378 0.515240 46.000000
4.326002 1.791800 0.515956 46.000000
4.322278 1.774740 0.514934 46.000000
4.325859 1.760721 0.514729 46.000000
4.328473 1.746324 0.514422 46.000000
4.324574 1.729342 0.513400 46.000000
4.331709 1.716800 0.513604 46.000000
4.331400 1.701319 0.512990 46.000000
4.332892 1.686579 0.512581 46.000000
4.336190 1.672562 0.512377 46.000000
4.339442 1.658540 0.512172 46.000000
4.341719 1.644162 0.511865 46.000000
4.344881 1.630135 0.511661 46.000000
4.349861 1.616798 0.511661 46.000000
4.356668 1.604133 0.511865 46.000000
4.359700 1.590077 0.511661 46.000000
4.364558 1.576694 0.511661 46.000000
4.365628 1.561956 0.511252 46.000000
4.367587 1.547558 0.510945 46.000000
4.371375 1.533822 0.510843 46.000000
4.377940 1.521056 0.511047 46.000000
4.382586 1.507618 0.511047 46.000000
4.392840 1.496090 0.511661 46.000000
4.398352 1.482924 0.511763 46.000000
4.398163 1.467848 0.511252 46.000000
4.397923 1.452787 0.510741 46.000000
4.396686 1.437432 0.510127 46.000000
4.401075 1.423937 0.510127 46.000000
4.404476 1.410124 0.510025 46.000000
4.406885 1.396004 0.509820 46.000000
4.413045 1.383072 0.510025 46.000000
4.421068 1.370706 0.510434 46.000000
4.436665 1.360636 0.511661 46.000000
4.444626 1.348174 0.512070 46.000000
3.596288 -0.265431 0.405298 46.000000
3.591490 -0.276159 0.404889 46.000000
3.588642 -0.287018 0.404685 46.000000
3.586754 -0.297944 0.404583 46.000000
3.582850 -0.308691 0.404276 46.000000
3.579904 -0.319505 0.404071 46.000000
3.577916 -0.330395 0.403969 46.000000
3.575896 -0.341276 0.403867 46.000000
3.572852 -0.352050 0.403662 46.000000
3.570765 -0.362909 0.403560 46.000000
3.567656 -0.373655 0.403355 46.000000
3.563526 -0.384279 0.403048 46.000000
3.559364 -0.394882 0.402742 46.000000
3.558136 -0.405800 0.402742 46.000000
3.555886 -0.416598 0.402639 46.000000
3.553604 -0.427387 0.402537 46.000000
3.551288 -0.438166 0.402435 46.000000
3.550914 -0.449183 0.402537 46.000000
3.548533 -0.459948 0.402435 46.000000
3.548091 -0.470963 0.402537 46.000000
3.547616 -0.481980 0.402639 46.000000
3.547105 -0.492998 0.402742 46.000000
3.542622 -0.503459 0.402435 46.000000
3.544014 -0.514754 0.402742 46.000000
3.540450 -0.525332 0.402537 46.000000
3.539805 -0.536341 0.402639 46.000000
3.538143 -0.547198 0.402639 46.000000
3.536447 -0.558051 0.402639 46.000000
3.533736 -0.568740 0.402537 46.000000
3.531975 -0.579578 0.402537 46.000000
3.529199 -0.590248 0.402435 46.000000
3.527372 -0.601072 0.402435 46.000000
3.526491 -0.612061 0.402537 46.000000
3.525576 -0.623051 0.402639 46.000000
3.521690 -0.633512 0.402435 46.000000
3.524623 -0.645208 0.402946 46.000000
3.523604 -0.656201 0.403048 46.000000
3.518642 -0.666453 0.402742 46.000000
3.514628 -0.676869 0.402537 46.000000
3.506677 -0.686502 0.401923 46.000000
3.506506 -0.697645 0.402128 46.000000
3.502399 -0.708006 0.401923 46.000000
3.500210 -0.718748 0.401923 46.000000
3.502858 -0.730498 0.402435 46.000000
3.506439 -0.742477 0.403048 46.000000
3.507063 -0.753858 0.403355 46.000000
3.504733 -0.764614 0.403355 46.000000
3.503342 -0.775577 0.403457 46.000000
3.499005 -0.785886 0.403253 46.000000
3.494638 -0.796175 0.403048 46.000000
3.490240 -0.806445 0.402844 46.000000
3.489687 -0.817603 0.403048 46.000000
3.488130 -0.828535 0.403151 46.000000
3.488473 -0.839931 0.403457 46.000000
3.486846 -0.850865 0.403560 46.000000
3.486151 -0.862036 0.403764 46.000000
3.481560 -0.872244 0.403560 46.000000
3.501044 -0.888547 0.405912 46.000000
4.290473 1.884949 0.486722 47.000000
4.301710 1.874164 0.487298 47.000000
4.301958 1.858588 0.486722 47.000000
4.301236 1.842635 0.486050 47.000000
4.299540 1.826316 0.485282 47.000000
4.296868 1.809637 0.484418 47.000000
4.299644 1.795295 0.484130 47.000000
4.302373 1.780952 0.483841 47.000000
4.301371 1.765098 0.483169 47.000000
4.305844 1.751518 0.483073 47.000000
4.309351 1.737554 0.482881 47.000000
4.314662 1.724325 0.482881 47.000000
4.319006 1.710713 0.482785 47.000000
4.319602 1.695635 0.482305 47.000000
4.324784 1.682374 0.482305 47.000000
4.332711 1.670173 0.482593 47.000000
4.341534 1.658294 0.482977 47.000000
4.346601 1.644967 0.482977 47.000000
4.351627 1.631624 0.482977 47.000000
4.353814 1.617225 0.482689 47.000000
4.351282 1.601108 0.481921 47.000000
4.351498 1.586046 0.481441 47.000000
4.356344 1.572688 0.481441 47.000000
4.359274 1.558645 0.481249 47.000000
4.363097 1.544931 0.481153 47.000000
4.367816 1.531538 0.481153 47.000000
4.375315 1.519111 0.481441 47.000000
4.376190 1.504385 0.481057 47.000000
4.377958 1.489989 0.480769 47.000000
4.387225 1.478141 0.481249 47.000000
4.385130 1.462468 0.480577 47.000000
4.382980 1.446822 0.479905 47.000000
4.384560 1.432441 0.479617 47.000000
4.384199 1.417450 0.479136 47.000000
4.387579 1.403689 0.479040 47.000000
4.394711 1.391124 0.479329 47.000000
4.394209 1.376146 0.478848 47.000000
4.402214 1.363837 0.479233 47.000000
4.557685 1.396735 0.494500 47.000000
4.570521 1.385346 0.495364 47.000000
4.630047 1.387908 0.500933 47.000000
4.992134 1.479864 0.536940 47.000000
3.588303 -0.254710 0.381677 47.000000
3.591475 -0.266011 0.382061 47.000000
3.588657 -0.276875 0.381869 47.000000
3.584815 -0.287646 0.381581 47.000000
3.584907 -0.298725 0.381677 47.000000
3.582982 -0.309637 0.381581 47.000000
3.580032 -0.320451 0.381389 47.000000
3.578041 -0.331341 0.381293 47.000000
3.576017 -0.342222 0.381197 47.000000
3.573960 -0.353094 0.381101 47.000000
3.570879 -0.363856 0.380909 47.000000
3.567766 -0.374603 0.380717 47.000000
3.565610 -0.385440 0.380621 47.000000
3.561443 -0.396048 0.380332 47.000000
3.559222 -0.406860 0.380236 47.000000
3.555980 -0.417546 0.380044 47.000000
3.554682 -0.428454 0.380044 47.000000
3.550387 -0.438992 0.379756 47.000000
3.548036 -0.449757 0.379660 47.000000
3.544665 -0.460385 0.379468 47.000000
3.543236 -0.471257 0.379468 47.000000
3.541774 -0.482126 0.379468 47.000000
3.540278 -0.492989 0.379468 47.000000
3.537763 -0.503708 0.379372 47.000000
3.537186 -0.514703 0.379468 47.000000
3.532637 -0.525114 0.379180 47.000000
3.531993 -0.536099 0.379276 47.000000
3.530332 -0.546932 0.379276 47.000000
3.528637 -0.557761 0.379276 47.000000
3.525927 -0.568426 0.379180 47.000000
3.525149 -0.579401 0.379276 47.000000
3.524336 -0.590378 0.379372 47.000000
3.521527 -0.601020 0.379276 47.000000
3.520648 -0.611992 0.379372 47.000000
3.520714 -0.623136 0.379564 47.000000
3.520745 -0.634287 0.379756 47.000000
3.516824 -0.644727 0.379564 47.000000
3.516787 -0.655878 0.379756 47.000000
3.512802 -0.666294 0.379564 47.000000
3.506831 -0.676315 0.379180 47.000000
3.501809 -0.686497 0.378892 47.000000
3.498710 -0.697043 0.378796 47.000000
3.498507 -0.708168 0.378988 47.000000
3.500218 -0.719699 0.379372 47.000000
3.501891 -0.731247 0.379756 47.000000
3.503526 -0.742811 0.380140 47.000000
3.505124 -0.754393 0.380524 47.000000
3.504738 -0.765567 0.380717 47.000000
3.501401 -0.776101 0.380621 47.000000
3.497061 -0.786403 0.380428 47.000000
3.493661 -0.796907 0.380332 47.000000
3.490230 -0.807398 0.380236 47.000000
3.486767 -0.817875 0.380140 47.000000
3.486179 -0.829028 0.380332 47.000000
3.484587 -0.839953 0.380428 47.000000
3.482960 -0.850875 0.380524 47.000000
3.481300 -0.861796 0.380621 47.000000
3.490226 -0.875374 0.381773 47.000000
4.300926 1.909420 0.461349 48.000000
4.304941 1.895414 0.461169 48.000000
4.301608 1.878215 0.460266 48.000000
4.307349 1.865009 0.460266 48.000000
4.313966 1.852178 0.460356 48.000000
4.310464 1.835035 0.459453 48.000000
4.308733 1.818706 0.458731 48.000000
4.297753 1.798562 0.457106 48.000000
4.307851 1.787275 0.457557 48.000000
4.302260 1.769507 0.456474 48.000000
4.302135 1.754045 0.455932 48.000000
4.304726 1.739720 0.455661 48.000000
4.307269 1.725394 0.455391 48.000000
4.313468 1.712539 0.455481 48.000000
4.315921 1.698204 0.455210 48.000000
4.320183 1.684593 0.455120 48.000000
4.323472 1.670614 0.454939 48.000000
4.326717 1.656630 0.454759 48.000000
4.328986 1.642289 0.454488 48.000000
4.334936 1.629350 0.454578 48.000000
4.339914 1.616043 0.454578 48.000000
4.343917 1.602376 0.454488 48.000000
4.347878 1.588700 0.454397 48.000000
4.349922 1.574338 0.454127 48.000000
4.351918 1.559978 0.453856 48.000000
4.351991 1.544954 0.453404 48.000000
4.352012 1.529945 0.452953 48.000000
4.355744 1.516259 0.452863 48.000000
4.354726 1.500942 0.452321 48.000000
4.357425 1.486932 0.452140 48.000000
4.363853 1.474194 0.452321 48.000000
4.366467 1.460168 0.452140 48.000000
4.371871 1.447078 0.452231 48.000000
4.376290 1.433658 0.452231 48.000000
4.379721 1.419918 0.452140 48.000000
4.378366 1.404651 0.451599 48.000000
4.380756 1.390609 0.451418 48.000000
4.386902 1.377759 0.451599 48.000000
4.393011 1.364884 0.451779 48.000000
4.426691 1.360463 0.454578 48.000000
4.530902 1.377263 0.464058 48.000000
4.988172 1.499437 0.506943 48.000000
3.588243 -0.240218 0.360772 48.000000
3.588483 -0.251295 0.360862 48.000000
3.593654 -0.262741 0.361404 48.000000
3.587866 -0.273385 0.360952 48.000000
3.585025 -0.284233 0.360772 48.000000
3.583144 -0.295148 0.360682 48.000000
3.581229 -0.306055 0.360591 48.000000
3.579281 -0.316952 0.360501 48.000000
3.577300 -0.327840 0.360411 48.000000
3.576277 -0.338814 0.360411 48.000000
3.574230 -0.349687 0.360320 48.000000
3.571159 -0.360450 0.360140 48.000000
3.568055 -0.371198 0.359959 48.000000
3.564919 -0.381930 0.359779 48.000000
3.561751 -0.392646 0.359598 48.000000
3.559540 -0.403459 0.359508 48.000000
3.555318 -0.414031 0.359237 48.000000
3.554031 -0.424937 0.359237 48.000000
3.549745 -0.435474 0.358966 48.000000
3.547404 -0.446237 0.358876 48.000000
3.546018 -0.457119 0.358876 48.000000
3.545587 -0.468126 0.358966 48.000000
3.544134 -0.479002 0.358966 48.000000
3.541661 -0.489736 0.358876 48.000000
3.538170 -0.500320 0.358695 48.000000
3.536618 -0.511172 0.358695 48.000000
3.532078 -0.521583 0.358424 48.000000
3.531446 -0.532565 0.358515 48.000000
3.528811 -0.543245 0.358424 48.000000
3.529095 -0.554379 0.358605 48.000000
3.525411 -0.564888 0.358424 48.000000
3.525627 -0.576022 0.358605 48.000000
3.524826 -0.587000 0.358695 48.000000
3.522026 -0.597644 0.358605 48.000000
3.519195 -0.608277 0.358515 48.000000
3.518293 -0.619244 0.358605 48.000000
3.517357 -0.630211 0.358695 48.000000
3.514427 -0.640820 0.358605 48.000000
3.512444 -0.651599 0.358605 48.000000
3.510429 -0.662372 0.358605 48.000000
3.506424 -0.672763 0.358424 48.000000
3.504344 -0.683517 0.358424 48.000000
3.503207 -0.694459 0.358515 48.000000
3.501060 -0.705204 0.358515 48.000000
3.502783 -0.716741 0.358876 48.000000
3.504467 -0.728296 0.359237 48.000000
3.505140 -0.739662 0.359508 48.000000
3.506749 -0.751248 0.359869 48.000000
3.506374 -0.762427 0.360050 48.000000
3.503046 -0.772966 0.359959 48.000000
3.498714 -0.783274 0.359779 48.000000
3.496294 -0.794004 0.359779 48.000000
3.491901 -0.804279 0.359598 48.000000
3.488448 -0.814761 0.359508 48.000000
3.485932 -0.825460 0.359508 48.000000
3.483383 -0.836151 0.359508 48.000000
3.480801 -0.846834 0.359508 48.000000
3.477220 -0.857270 0.359418 48.000000
3.545102 -0.885576 0.366008 48.000000
4.301583 1.906849 0.432440 49.000000
4.308325 1.894044 0.432524 49.000000
4.315942 1.881614 0.432692 49.000000
4.324439 1.869550 0.432945 49.000000
4.331070 1.856666 0.433029 49.000000
4.324824 1.838304 0.431934 49.000000
4.312078 1.817288 0.430250 49.000000
4.310277 1.800978 0.429577 49.000000
4.311180 1.785839 0.429156 49.000000
4.313873 1.771469 0.428903 49.000000
4.310058 1.754470 0.428061 49.000000
4.311724 1.739748 0.427724 49.000000
4.315190 1.725771 0.427556 49.000000
4.318612 1.711790 0.427388 49.000000
4.323843 1.698533 0.427388 49.000000
4.326248 1.684175 0.427135 49.000000
4.326746 1.669102 0.426714 49.000000
4.328124 1.654397 0.426377 49.000000
4.332247 1.640758 0.426293 49.000000
4.335394 1.626759 0.426125 49.000000
4.341299 1.613798 0.426209 49.000000
4.348100 1.601160 0.426377 49.000000
4.350183 1.586788 0.426125 49.000000
4.352219 1.572419 0.425872 49.000000
4.351393 1.557045 0.425367 49.000000
4.350514 1.541692 0.424862 49.000000
4.352403 1.527347 0.424609 49.000000
4.353303 1.512679 0.424272 49.000000
4.355097 1.498344 0.424020 49.000000
4.357787 1.484334 0.423851 49.000000
4.360432 1.470320 0.423683 49.000000
4.363976 1.456620 0.423599 49.000000
4.371264 1.444163 0.423851 49.000000
4.373779 1.430126 0.423683 49.000000
4.378146 1.416700 0.423683 49.000000
4.381523 1.402958 0.423599 49.000000
4.385807 1.389509 0.423599 49.000000
4.389098 1.375749 0.423514 49.000000
4.402816 1.365228 0.424356 49.000000
4.986207 1.529320 0.475550 49.000000
4.992782 1.514593 0.475718 49.000000
4.999314 1.499841 0.475887 49.000000
3.563925 -0.229776 0.336620 49.000000
3.591040 -0.242593 0.338978 49.000000
3.589285 -0.253539 0.338894 49.000000
3.589484 -0.264622 0.338978 49.000000
3.588655 -0.275634 0.338978 49.000000
3.587793 -0.286642 0.338978 49.000000
3.586896 -0.297648 0.338978 49.000000
3.583981 -0.308480 0.338810 49.000000
3.582025 -0.319385 0.338725 49.000000
3.580036 -0.330282 0.338641 49.000000
3.578014 -0.341169 0.338557 49.000000
3.574967 -0.351949 0.338389 49.000000
3.572879 -0.362814 0.338304 49.000000
3.569767 -0.373566 0.338136 49.000000
3.567614 -0.384410 0.338052 49.000000
3.563446 -0.395024 0.337799 49.000000
3.560238 -0.405728 0.337631 49.000000
3.556997 -0.416417 0.337462 49.000000
3.553724 -0.427090 0.337294 49.000000
3.551408 -0.437868 0.337210 49.000000
3.550048 -0.448762 0.337210 49.000000
3.548654 -0.459651 0.337210 49.000000
3.547227 -0.470536 0.337210 49.000000
3.543792 -0.481148 0.337041 49.000000
3.543287 -0.492156 0.337126 49.000000
3.541760 -0.503024 0.337126 49.000000
3.540200 -0.513887 0.337126 49.000000
3.538607 -0.524746 0.337126 49.000000
3.536980 -0.535600 0.337126 49.000000
3.536305 -0.546601 0.337210 49.000000
3.534611 -0.557448 0.337210 49.000000
3.532885 -0.568289 0.337210 49.000000
3.530141 -0.578964 0.337126 49.000000
3.526383 -0.589463 0.336957 49.000000
3.524558 -0.600279 0.336957 49.000000
3.521718 -0.610919 0.336873 49.000000
3.518846 -0.621547 0.336789 49.000000
3.516922 -0.632340 0.336789 49.000000
3.514966 -0.643126 0.336789 49.000000
3.511997 -0.653725 0.336705 49.000000
3.510953 -0.664682 0.336789 49.000000
3.510854 -0.675827 0.336957 49.000000
3.508765 -0.686595 0.336957 49.000000
3.507619 -0.697551 0.337041 49.000000
3.507416 -0.708704 0.337210 49.000000
3.506201 -0.719661 0.337294 49.000000
3.505928 -0.730822 0.337462 49.000000
3.504644 -0.741781 0.337547 49.000000
3.504300 -0.752948 0.337715 49.000000
3.502947 -0.763908 0.337799 49.000000
3.501560 -0.774867 0.337883 49.000000
3.499166 -0.785606 0.337883 49.000000
3.497711 -0.796559 0.337968 49.000000
3.494280 -0.807062 0.337883 49.000000
3.492758 -0.818005 0.337968 49.000000
3.490232 -0.828717 0.337968 49.000000
3.487673 -0.839421 0.337968 49.000000
3.485081 -0.850117 0.337968 49.000000
3.521149 -0.870374 0.341336 49.000000
4.294961 1.920420 0.401915 50.000000
4.296276 1.905213 0.401526 50.000000
4.300275 1.891221 0.401371 50.000000
4.311540 1.880411 0.401837 50.000000
4.318204 1.867570 0.401915 50.000000
4.313835 1.849990 0.401060 50.000000
4.300224 1.828552 0.399427 50.000000
4.299383 1.812639 0.398882 50.000000
4.301245 1.797902 0.398571 50.000000
4.305820 1.784316 0.398493 50.000000
4.310351 1.770718 0.398416 50.000000
4.312070 1.755981 0.398105 50.000000
4.310966 1.740131 0.397560 50.000000
4.313508 1.725786 0.397327 50.000000
4.316001 1.711441 0.397094 50.000000
4.323088 1.698922 0.397249 50.000000
4.324564 1.684203 0.396938 50.000000
4.325060 1.669132 0.396549 50.000000
4.325504 1.654075 0.396160 50.000000
4.329627 1.640443 0.396083 50.000000
4.333705 1.626802 0.396005 50.000000
4.336807 1.612803 0.395849 50.000000
4.339864 1.598801 0.395694 50.000000
4.342875 1.584795 0.395538 50.000000
4.343967 1.570108 0.395227 50.000000
4.347825 1.556438 0.395150 50.000000
4.348821 1.541759 0.394838 50.000000
4.346005 1.525767 0.394216 50.000000
4.347841 1.511444 0.393983 50.000000
4.353400 1.498422 0.394061 50.000000
4.355145 1.484094 0.393828 50.000000
4.357789 1.470088 0.393672 50.000000
4.360387 1.456080 0.393517 50.000000
4.363887 1.442383 0.393439 50.000000
4.366397 1.428368 0.393283 50.000000
4.368862 1.414351 0.393128 50.000000
4.373180 1.400941 0.393128 50.000000
4.376507 1.387216 0.393050 50.000000
4.380743 1.373783 0.393050 50.000000
4.386841 1.360927 0.393205 50.000000
4.393855 1.348340 0.393439 50.000000
4.981802 1.512110 0.441030 50.000000
4.990238 1.497965 0.441341 50.000000
3.581726 -0.230610 0.314898 50.000000
3.583985 -0.241798 0.315131 50.000000
3.582232 -0.252723 0.315054 50.000000
3.579451 -0.263565 0.314898 50.000000
3.579620 -0.274622 0.314976 50.000000
3.579754 -0.285682 0.315054 50.000000
3.578861 -0.296663 0.315054 50.000000
3.578928 -0.307727 0.315131 50.000000
3.577966 -0.318705 0.315131 50.000000
3.575979 -0.329589 0.315054 50.000000
3.575943 -0.340653 0.315131 50.000000
3.573889 -0.351525 0.315054 50.000000
3.569818 -0.362186 0.314820 50.000000
3.566707 -0.372930 0.314665 50.000000
3.564555 -0.383764 0.314587 50.000000
3.561379 -0.394478 0.314431 50.000000
3.557180 -0.405065 0.314198 50.000000
3.552950 -0.415629 0.313965 50.000000
3.549679 -0.426290 0.313809 50.000000
3.547365 -0.437056 0.313732 50.000000
3.544029 -0.447688 0.313576 50.000000
3.541650 -0.458430 0.313498 50.000000
3.539238 -0.469163 0.313421 50.000000
3.535807 -0.479751 0.313265 50.000000
3.534318 -0.490597 0.313265 50.000000
3.533783 -0.501577 0.313343 50.000000
3.532228 -0.512417 0.313343 50.000000
3.532612 -0.523543 0.313498 50.000000
3.536903 -0.535273 0.313965 50.000000
3.532289 -0.545665 0.313732 50.000000
3.532568 -0.556810 0.313887 50.000000
3.527890 -0.567170 0.313654 50.000000
3.525149 -0.577830 0.313576 50.000000
3.522377 -0.588478 0.313498 50.000000
3.520555 -0.599282 0.313498 50.000000
3.515752 -0.609569 0.313265 50.000000
3.512884 -0.620179 0.313187 50.000000
3.509983 -0.630778 0.313109 50.000000
3.509993 -0.641902 0.313265 50.000000
3.505067 -0.652120 0.313032 50.000000
3.503050 -0.662871 0.313032 50.000000
3.503937 -0.674180 0.313265 50.000000
3.503808 -0.685309 0.313421 50.000000
3.502667 -0.696249 0.313498 50.000000
3.499538 -0.706795 0.313421 50.000000
3.499306 -0.717929 0.313576 50.000000
3.496111 -0.728458 0.313498 50.000000
3.493860 -0.739180 0.313498 50.000000
3.496449 -0.750942 0.313887 50.000000
3.494129 -0.761665 0.313887 50.000000
3.492749 -0.772597 0.313965 50.000000
3.489390 -0.783091 0.313887 50.000000
3.492804 -0.795119 0.314354 50.000000
3.491319 -0.806055 0.314431 50.000000
3.487859 -0.816536 0.314354 50.000000
3.485337 -0.827232 0.314354 50.000000
3.483752 -0.838155 0.314431 50.000000
3.529596 -0.860642 0.318320 50.000000
4.266080 1.904652 0.370757 51.000000
4.287406 1.898424 0.371975 51.000000
4.286818 1.882452 0.371473 51.000000
4.283429 1.865307 0.370757 51.000000
4.283638 1.849783 0.370327 51.000000
4.286543 1.835454 0.370112 51.000000
4.284810 1.819174 0.369538 51.000000
4.283017 1.802922 0.368965 51.000000
4.289448 1.790158 0.369036 51.000000
4.296763 1.777753 0.369180 51.000000
4.302197 1.764562 0.369180 51.000000
4.304819 1.750227 0.368965 51.000000
4.307393 1.735893 0.368750 51.000000
4.308994 1.721189 0.368463 51.000000
4.311472 1.706859 0.368248 51.000000
4.317617 1.693988 0.368320 51.000000
4.319076 1.679287 0.368033 51.000000
4.322346 1.665311 0.367890 51.000000
4.327435 1.652042 0.367890 51.000000
4.325020 1.635933 0.367316 51.000000
4.323481 1.620205 0.366815 51.000000
4.328432 1.606933 0.366815 51.000000
4.328661 1.591923 0.366456 51.000000
4.329776 1.577269 0.366170 51.000000
4.333657 1.563640 0.366098 51.000000
4.336555 1.549665 0.365955 51.000000
4.339409 1.535687 0.365811 51.000000
4.341276 1.521377 0.365596 51.000000
4.344038 1.507396 0.365453 51.000000
4.342984 1.492116 0.365023 51.000000
4.342820 1.477178 0.364665 51.000000
4.342605 1.462254 0.364306 51.000000
4.346125 1.448609 0.364235 51.000000
4.345813 1.433705 0.363876 51.000000
4.350191 1.420365 0.363876 51.000000
4.359273 1.408547 0.364235 51.000000
4.365474 1.395774 0.364378 51.000000
4.367834 1.381772 0.364235 51.000000
4.372053 1.368365 0.364235 51.000000
4.916428 1.522349 0.404872 51.000000
4.938241 1.512520 0.406162 51.000000
4.959085 1.502282 0.407381 51.000000
4.975135 1.490499 0.408241 51.000000
3.586864 -0.222076 0.293280 51.000000
3.583180 -0.232886 0.293065 51.000000
3.579463 -0.243676 0.292850 51.000000
3.575714 -0.254445 0.292635 51.000000
3.574916 -0.265414 0.292635 51.000000
3.572096 -0.276227 0.292491 51.000000
3.570238 -0.287106 0.292420 51.000000
3.570334 -0.298140 0.292491 51.000000
3.571390 -0.309264 0.292635 51.000000
3.571418 -0.320308 0.292706 51.000000
3.571412 -0.331355 0.292778 51.000000
3.569385 -0.342216 0.292706 51.000000
3.570304 -0.353361 0.292850 51.000000
3.568211 -0.364212 0.292778 51.000000
3.565093 -0.374949 0.292635 51.000000
3.562934 -0.385778 0.292563 51.000000
3.560742 -0.396597 0.292491 51.000000
3.555545 -0.407067 0.292205 51.000000
3.551307 -0.417624 0.291990 51.000000
3.550009 -0.428518 0.291990 51.000000
3.545708 -0.439040 0.291775 51.000000
3.542365 -0.449666 0.291631 51.000000
3.539980 -0.460403 0.291560 51.000000
3.536573 -0.470999 0.291416 51.000000
3.534123 -0.481712 0.291345 51.000000
3.532629 -0.492552 0.291345 51.000000
3.526164 -0.502686 0.290986 51.000000
3.529540 -0.514219 0.291345 51.000000
3.526959 -0.524899 0.291273 51.000000
3.528291 -0.536165 0.291488 51.000000
3.523672 -0.546530 0.291273 51.000000
3.524935 -0.557804 0.291488 51.000000
3.522222 -0.568457 0.291416 51.000000
3.521446 -0.579422 0.291488 51.000000
3.517684 -0.589894 0.291345 51.000000
3.513891 -0.600348 0.291201 51.000000
3.511050 -0.610955 0.291130 51.000000
3.510141 -0.621898 0.291201 51.000000
3.505272 -0.632134 0.290986 51.000000
3.504297 -0.643064 0.291058 51.000000
3.503288 -0.653995 0.291130 51.000000
3.501265 -0.664740 0.291130 51.000000
3.499209 -0.675478 0.291130 51.000000
3.500057 -0.686786 0.291345 51.000000
3.498912 -0.697715 0.291416 51.000000
3.494800 -0.708051 0.291273 51.000000
3.493588 -0.718971 0.291345 51.000000
3.491366 -0.729685 0.291345 51.000000
3.486183 -0.739773 0.291130 51.000000
3.483897 -0.750465 0.291130 51.000000
3.487425 -0.762426 0.291560 51.000000
3.481174 -0.772259 0.291273 51.000000
3.484628 -0.784248 0.291703 51.000000
3.483178 -0.795156 0.291775 51.000000
3.483637 -0.806513 0.291990 51.000000
3.477262 -0.816286 0.291703 51.000000
3.475712 -0.827181 0.291775 51.000000
3.499340 -0.844147 0.293710 51.000000
4.278081 1.914123 0.344791 52.000000
4.283934 1.900989 0.344791 52.000000
4.285179 1.885829 0.344461 52.000000
4.268993 1.863100 0.342879 52.000000
4.291174 1.857124 0.344065 52.000000
4.294100 1.842770 0.343868 52.000000
4.294224 1.827244 0.343472 52.000000
4.299810 1.814061 0.343472 52.000000
4.297070 1.797398 0.342879 52.000000
4.304407 1.784970 0.343011 52.000000
4.306171 1.770239 0.342747 52.000000
4.309734 1.756267 0.342615 52.000000
4.311400 1.741543 0.342351 52.000000
4.313944 1.727196 0.342153 52.000000
4.315512 1.712481 0.341890 52.000000
4.317960 1.698138 0.341692 52.000000
4.320360 1.683797 0.341494 52.000000
4.322712 1.669456 0.341296 52.000000
4.324086 1.654761 0.341033 52.000000
4.324477 1.639719 0.340703 52.000000
4.323882 1.624340 0.340308 52.000000
4.325104 1.609676 0.340044 52.000000
4.328149 1.595709 0.339912 52.000000
4.330213 1.581397 0.339714 52.000000
4.332229 1.567087 0.339516 52.000000
4.334198 1.552780 0.339319 52.000000
4.335179 1.538142 0.339055 52.000000
4.337053 1.523843 0.338857 52.000000
4.341708 1.510530 0.338857 52.000000
4.345378 1.496878 0.338791 52.000000
4.354673 1.485149 0.339121 52.000000
4.358263 1.471463 0.339055 52.000000
4.350453 1.453976 0.338198 52.000000
4.360578 1.442501 0.338594 52.000000
4.361189 1.427875 0.338330 52.000000
4.357955 1.412030 0.337802 52.000000
4.356565 1.396827 0.337407 52.000000
4.365586 1.384962 0.337736 52.000000
4.370767 1.371861 0.337802 52.000000
4.374002 1.358149 0.337736 52.000000
4.383872 1.346480 0.338132 52.000000
4.970418 1.509802 0.378347 52.000000
4.988407 1.498562 0.379270 52.000000
3.589147 -0.207741 0.272668 52.000000
3.588492 -0.218751 0.272668 52.000000
3.584817 -0.229567 0.272470 52.000000
3.581109 -0.240363 0.272272 52.000000
3.577369 -0.251138 0.272075 52.000000
3.572601 -0.261819 0.271811 52.000000
3.567801 -0.272473 0.271547 52.000000
3.565954 -0.283338 0.271481 52.000000
3.565068 -0.294277 0.271481 52.000000
3.564148 -0.305213 0.271481 52.000000
3.565183 -0.316323 0.271613 52.000000
3.565189 -0.327351 0.271679 52.000000
3.566155 -0.338477 0.271811 52.000000
3.564107 -0.349318 0.271745 52.000000
3.565004 -0.360453 0.271877 52.000000
3.562889 -0.371284 0.271811 52.000000
3.559749 -0.382000 0.271679 52.000000
3.555585 -0.392590 0.271481 52.000000
3.556346 -0.403722 0.271613 52.000000
3.553109 -0.414399 0.271481 52.000000
3.548849 -0.424941 0.271283 52.000000
3.547528 -0.435827 0.271283 52.000000
3.543205 -0.446333 0.271086 52.000000
3.540829 -0.457074 0.271020 52.000000
3.539410 -0.467934 0.271020 52.000000
3.535980 -0.478523 0.270888 52.000000
3.534496 -0.489369 0.270888 52.000000
3.538905 -0.501051 0.271283 52.000000
3.531426 -0.511047 0.270888 52.000000
3.529842 -0.521879 0.270888 52.000000
3.529211 -0.532855 0.270954 52.000000
3.529531 -0.543984 0.271086 52.000000
3.525875 -0.554500 0.270954 52.000000
3.526127 -0.565631 0.271086 52.000000
3.524375 -0.576446 0.271086 52.000000
3.522590 -0.587256 0.271086 52.000000
3.519788 -0.597893 0.271020 52.000000
3.520887 -0.609200 0.271218 52.000000
3.517036 -0.619652 0.271086 52.000000
3.515118 -0.630440 0.271086 52.000000
3.510223 -0.640682 0.270888 52.000000
3.507260 -0.651266 0.270822 52.000000
3.503285 -0.661652 0.270690 52.000000
3.500258 -0.672209 0.270624 52.000000
3.499159 -0.683136 0.270690 52.000000
3.498025 -0.694062 0.270756 52.000000
3.496857 -0.704988 0.270822 52.000000
3.497611 -0.716315 0.271020 52.000000
3.494420 -0.726838 0.270954 52.000000
3.491197 -0.737349 0.270888 52.000000
3.487943 -0.747847 0.270822 52.000000
3.487582 -0.758969 0.270954 52.000000
3.483289 -0.769234 0.270822 52.000000
3.481886 -0.780136 0.270888 52.000000
3.479476 -0.790814 0.270888 52.000000
3.479950 -0.802159 0.271086 52.000000
3.475530 -0.812377 0.270954 52.000000
3.473992 -0.823266 0.271020 52.000000
4.279869 1.914744 0.315436 53.000000
4.293023 1.904842 0.315913 53.000000
4.297019 1.890859 0.315794 53.000000
4.298225 1.875671 0.315495 53.000000
4.297546 1.859701 0.315078 53.000000
4.301397 1.845720 0.314959 53.000000
4.302446 1.830561 0.314660 53.000000
4.303443 1.815413 0.314362 53.000000
4.304388 1.800277 0.314064 53.000000
4.307125 1.785916 0.313885 53.000000
4.309813 1.771555 0.313706 53.000000
4.312455 1.757195 0.313527 53.000000
4.315049 1.742835 0.313348 53.000000
4.316669 1.728104 0.313109 53.000000
4.320094 1.714117 0.312990 53.000000
4.319758 1.698663 0.312632 53.000000
4.322159 1.684315 0.312453 53.000000
4.326375 1.670688 0.312393 53.000000
4.327751 1.655980 0.312155 53.000000
4.328144 1.640926 0.311857 53.000000
4.331289 1.626938 0.311737 53.000000
4.328775 1.610857 0.311260 53.000000
4.335570 1.598260 0.311379 53.000000
4.337640 1.583924 0.311200 53.000000
4.334970 1.567893 0.310723 53.000000
4.338820 1.554250 0.310663 53.000000
4.340745 1.539930 0.310484 53.000000
4.342623 1.525613 0.310305 53.000000
4.346341 1.511955 0.310246 53.000000
4.351902 1.498939 0.310305 53.000000
4.353646 1.484614 0.310127 53.000000
4.358181 1.471250 0.310127 53.000000
4.359834 1.456924 0.309948 53.000000
4.358596 1.441661 0.309590 53.000000
4.362050 1.427971 0.309530 53.000000
4.364511 1.413967 0.309411 53.000000
4.365977 1.399656 0.309232 53.000000
4.370250 1.386255 0.309232 53.000000
4.371625 1.371944 0.309053 53.000000
4.875372 1.513574 0.340312 53.000000
4.384733 1.346560 0.309351 53.000000
4.978173 1.512055 0.346158 53.000000
4.987569 1.498211 0.346456 53.000000
3.591201 -0.197114 0.250173 53.000000
3.590580 -0.208131 0.250173 53.000000
3.588928 -0.219085 0.250114 53.000000
3.586246 -0.229966 0.249994 53.000000
3.582536 -0.240767 0.249815 53.000000
3.578793 -0.251546 0.249637 53.000000
3.573027 -0.262159 0.249338 53.000000
3.568225 -0.272815 0.249100 53.000000
3.564386 -0.283523 0.248921 53.000000
3.563499 -0.294457 0.248921 53.000000
3.562579 -0.305388 0.248921 53.000000
3.562620 -0.316405 0.248980 53.000000
3.564614 -0.327608 0.249159 53.000000
3.565580 -0.338731 0.249279 53.000000
3.564524 -0.349669 0.249279 53.000000
3.563434 -0.360603 0.249279 53.000000
3.562311 -0.371534 0.249279 53.000000
3.559170 -0.382248 0.249159 53.000000
3.555996 -0.392946 0.249040 53.000000
3.553782 -0.403741 0.248980 53.000000
3.550543 -0.414410 0.248861 53.000000
3.547273 -0.425063 0.248742 53.000000
3.544961 -0.435822 0.248682 53.000000
3.544598 -0.446821 0.248742 53.000000
3.540241 -0.457310 0.248563 53.000000
3.538821 -0.468169 0.248563 53.000000
3.537368 -0.479024 0.248563 53.000000
3.535882 -0.489874 0.248563 53.000000
3.536339 -0.501000 0.248682 53.000000
3.535773 -0.511990 0.248742 53.000000
3.534186 -0.522835 0.248742 53.000000
3.533552 -0.533824 0.248801 53.000000
3.532884 -0.544815 0.248861 53.000000
3.529224 -0.555341 0.248742 53.000000
3.527503 -0.566166 0.248742 53.000000
3.525750 -0.576985 0.248742 53.000000
3.523963 -0.587799 0.248742 53.000000
3.523127 -0.598775 0.248801 53.000000
3.523241 -0.609922 0.248921 53.000000
3.519387 -0.620381 0.248801 53.000000
3.517467 -0.631176 0.248801 53.000000
3.513550 -0.641605 0.248682 53.000000
3.509603 -0.652017 0.248563 53.000000
3.504643 -0.662225 0.248384 53.000000
3.502595 -0.672974 0.248384 53.000000
3.501493 -0.683908 0.248443 53.000000
3.501337 -0.695036 0.248563 53.000000
3.499188 -0.705775 0.248563 53.000000
3.501896 -0.717509 0.248861 53.000000
3.499678 -0.728249 0.248861 53.000000
3.495474 -0.738570 0.248742 53.000000
3.491240 -0.748872 0.248622 53.000000
3.487951 -0.759366 0.248563 53.000000
3.483655 -0.769633 0.248443 53.000000
3.480303 -0.780099 0.248384 53.000000
3.477894 -0.790772 0.248384 53.000000
3.475451 -0.801439 0.248384 53.000000
3.472976 -0.812097 0.248384 53.000000
3.412192 -0.808926 0.244804 53.000000
4.279384 1.912561 0.285910 54.000000
4.293447 1.903065 0.286390 54.000000
4.294695 1.887874 0.286123 54.000000
4.297721 1.873492 0.285963 54.000000
4.300699 1.859109 0.285803 54.000000
4.299040 1.842758 0.285376 54.000000
4.303754 1.829170 0.285323 54.000000
4.301064 1.812467 0.284842 54.000000
4.304762 1.798493 0.284736 54.000000
4.305646 1.783366 0.284469 54.000000
4.306479 1.768252 0.284202 54.000000
4.304485 1.752019 0.283775 54.000000
4.309840 1.738805 0.283775 54.000000
4.316081 1.725945 0.283828 54.000000
4.310216 1.708279 0.283187 54.000000
4.316367 1.695413 0.283241 54.000000
4.323409 1.682887 0.283348 54.000000
4.322961 1.667458 0.283027 54.000000
4.325259 1.653118 0.282867 54.000000
4.328442 1.639133 0.282760 54.000000
4.329711 1.624443 0.282547 54.000000
4.330931 1.609760 0.282333 54.000000
4.332101 1.595085 0.282120 54.000000
4.334160 1.580760 0.281960 54.000000
4.333354 1.565419 0.281639 54.000000
4.333436 1.550435 0.281372 54.000000
4.336289 1.536466 0.281266 54.000000
4.340041 1.522824 0.281212 54.000000
4.339976 1.507863 0.280945 54.000000
4.342693 1.493891 0.280839 54.000000
4.344420 1.479595 0.280678 54.000000
4.348939 1.466259 0.280678 54.000000
4.350575 1.451962 0.280518 54.000000
4.353113 1.437981 0.280412 54.000000
4.355606 1.423998 0.280305 54.000000
4.358054 1.410014 0.280198 54.000000
4.359507 1.395723 0.280038 54.000000
4.365672 1.382945 0.280145 54.000000
4.370847 1.369843 0.280198 54.000000
4.968268 1.540409 0.313401 54.000000
4.971061 1.524574 0.313295 54.000000
4.974759 1.509026 0.313241 54.000000
4.980322 1.494043 0.313295 54.000000
3.582417 -0.198189 0.227137 54.000000
3.579798 -0.209062 0.227030 54.000000
3.580137 -0.220105 0.227083 54.000000
3.575459 -0.230831 0.226870 54.000000
3.572741 -0.241664 0.226763 54.000000
3.569990 -0.252484 0.226656 54.000000
3.565216 -0.263141 0.226443 54.000000
3.561404 -0.273849 0.226283 54.000000
3.559552 -0.284694 0.226229 54.000000
3.558662 -0.295613 0.226229 54.000000
3.557738 -0.306530 0.226229 54.000000
3.557776 -0.317532 0.226283 54.000000
3.557779 -0.328537 0.226336 54.000000
3.558743 -0.339641 0.226443 54.000000
3.556690 -0.350459 0.226389 54.000000
3.555598 -0.361369 0.226389 54.000000
3.554473 -0.372276 0.226389 54.000000
3.553314 -0.383179 0.226389 54.000000
3.549144 -0.393749 0.226229 54.000000
3.546927 -0.404523 0.226176 54.000000
3.541702 -0.414938 0.225962 54.000000
3.536447 -0.425325 0.225749 54.000000
3.533143 -0.435929 0.225642 54.000000
3.530798 -0.446641 0.225589 54.000000
3.525450 -0.456958 0.225375 54.000000
3.525022 -0.467903 0.225428 54.000000
3.525549 -0.478984 0.225535 54.000000
3.525052 -0.489936 0.225589 54.000000
3.525509 -0.501029 0.225695 54.000000
3.525932 -0.512130 0.225802 54.000000
3.524344 -0.522945 0.225802 54.000000
3.522723 -0.533755 0.225802 54.000000
3.520082 -0.544407 0.225749 54.000000
3.519382 -0.555360 0.225802 54.000000
3.515690 -0.565837 0.225695 54.000000
3.515908 -0.576944 0.225802 54.000000
3.517076 -0.588221 0.225962 54.000000
3.514271 -0.598841 0.225909 54.000000
3.511433 -0.609449 0.225855 54.000000
3.510530 -0.620393 0.225909 54.000000
3.507627 -0.630984 0.225855 54.000000
3.503711 -0.641383 0.225749 54.000000
3.498781 -0.651581 0.225589 54.000000
3.493822 -0.661754 0.225428 54.000000
3.489814 -0.672093 0.225322 54.000000
3.490676 -0.683371 0.225482 54.000000
3.486604 -0.693688 0.225375 54.000000
3.489353 -0.705370 0.225642 54.000000
3.489130 -0.716474 0.225749 54.000000
3.486915 -0.727175 0.225749 54.000000
3.484668 -0.737869 0.225749 54.000000
3.482387 -0.748556 0.225749 54.000000
3.480074 -0.759237 0.225749 54.000000
3.476754 -0.769694 0.225695 54.000000
3.475350 -0.780576 0.225749 54.000000
3.470018 -0.790569 0.225589 54.000000
3.465631 -0.800762 0.225482 54.000000
3.389265 -0.794087 0.221425 54.000000
4.275045 1.908657 0.256223 55.000000
4.279968 1.895128 0.256176 55.000000
4.286676 1.882390 0.256223 55.000000
4.293347 1.869629 0.256270 55.000000
4.294478 1.854467 0.256035 55.000000
4.291884 1.837743 0.255611 55.000000
4.295663 1.823786 0.255517 55.000000
4.288351 1.805169 0.254857 55.000000
4.289260 1.790079 0.254622 55.000000
4.291040 1.775383 0.254433 55.000000
4.289074 1.759176 0.254056 55.000000
4.298151 1.747515 0.254245 55.000000
4.304419 1.734694 0.254292 55.000000
4.293025 1.714806 0.253444 55.000000
4.298266 1.701627 0.253444 55.000000
4.309975 1.690988 0.253774 55.000000
4.311419 1.676308 0.253585 55.000000
4.314677 1.662354 0.253491 55.000000
4.316958 1.648040 0.253350 55.000000
4.321993 1.634788 0.253350 55.000000
4.324183 1.620468 0.253209 55.000000
4.326325 1.606150 0.253067 55.000000
4.330295 1.592525 0.253020 55.000000
4.325776 1.575811 0.252549 55.000000
4.325892 1.560836 0.252314 55.000000
4.329720 1.547220 0.252266 55.000000
4.329738 1.532262 0.252031 55.000000
4.332534 1.518310 0.251937 55.000000
4.336228 1.504683 0.251890 55.000000
4.339879 1.491048 0.251842 55.000000
4.343487 1.477405 0.251795 55.000000
4.346107 1.463434 0.251701 55.000000
4.347733 1.449145 0.251560 55.000000
4.351210 1.435487 0.251513 55.000000
4.350846 1.420579 0.251277 55.000000
4.354234 1.406917 0.251230 55.000000
4.355675 1.392638 0.251089 55.000000
4.359927 1.379269 0.251089 55.000000
4.366045 1.366483 0.251183 55.000000
4.373079 1.353969 0.251324 55.000000
4.968375 1.521757 0.280483 55.000000
4.967285 1.504768 0.280201 55.000000
4.967094 1.488088 0.279965 55.000000
4.988874 1.477953 0.280813 55.000000
3.580027 -0.188597 0.204500 55.000000
3.578434 -0.199524 0.204453 55.000000
3.575810 -0.210385 0.204359 55.000000
3.571160 -0.221109 0.204171 55.000000
