# This PCD file was generated using the MATLAB® pcwrite function
# from Computer Vision Toolbox®.
# .PCD v.7 - Point Cloud Data file format
VERSION .7
FIELDS x y z intensity
SIZE 4 4 4 4
TYPE F F F F
COUNT 1 1 1 1
WIDTH 1289
HEIGHT 1
VIEWPOINT 0 0 0 1 0 0 0
POINTS 1289
DATA ascii
1.622659 0.503138 0.333860 34.000000
1.622312 0.497580 0.333511 34.000000
1.625715 0.493172 0.333860 34.000000
1.630993 0.489315 0.334556 34.000000
1.631543 0.484029 0.334382 34.000000
1.633020 0.479021 0.334382 34.000000
1.636374 0.474557 0.334731 34.000000
1.639715 0.470078 0.335079 34.000000
1.641149 0.465045 0.335079 34.000000
1.641620 0.459742 0.334905 34.000000
1.645870 0.455492 0.335427 34.000000
1.648209 0.450701 0.335601 34.000000
1.646732 0.444871 0.335079 34.000000
1.648090 0.439817 0.335079 34.000000
1.648479 0.434507 0.334905 34.000000
1.649804 0.429448 0.334905 34.000000
1.652068 0.424629 0.335079 34.000000
1.652408 0.419316 0.334905 34.000000
1.655597 0.414724 0.335253 34.000000
1.659729 0.410352 0.335776 34.000000
1.660981 0.405259 0.335776 34.000000
1.663173 0.400391 0.335950 34.000000
1.667268 0.395970 0.336472 34.000000
1.668475 0.390853 0.336472 34.000000
1.671585 0.386176 0.336821 34.000000
1.671802 0.380827 0.336646 34.000000
1.672962 0.375697 0.336646 34.000000
1.676030 0.370988 0.336995 34.000000
1.675236 0.365424 0.336646 34.000000
1.677312 0.360490 0.336821 34.000000
1.678410 0.355343 0.336821 34.000000
1.681420 0.350594 0.337169 34.000000
1.682488 0.345434 0.337169 34.000000
1.684505 0.340466 0.337343 34.000000
1.686507 0.335489 0.337517 34.000000
1.687529 0.330313 0.337517 34.000000
1.685633 0.324575 0.336995 34.000000
1.689524 0.319952 0.337517 34.000000
1.690497 0.314767 0.337517 34.000000
1.692424 0.309757 0.337691 34.000000
1.694335 0.304738 0.337865 34.000000
1.695262 0.299538 0.337865 34.000000
1.698113 0.294673 0.338214 34.000000
1.698039 0.289296 0.338040 34.000000
1.701832 0.284573 0.338562 34.000000
1.702697 0.279351 0.338562 34.000000
1.706463 0.274596 0.339085 34.000000
1.706324 0.269205 0.338910 34.000000
1.709088 0.264270 0.339259 34.000000
1.709891 0.259026 0.339259 34.000000
1.712626 0.254068 0.339607 34.000000
1.715346 0.249096 0.339955 34.000000
1.719027 0.244249 0.340478 34.000000
1.720744 0.239109 0.340652 34.000000
1.724396 0.234227 0.341175 34.000000
1.728035 0.229325 0.341697 34.000000
1.729707 0.224149 0.341871 34.000000
1.735271 0.219460 0.342742 34.000000
1.737891 0.214377 0.343090 34.000000
1.739518 0.209162 0.343265 34.000000
1.741129 0.203939 0.343439 34.000000
1.743704 0.198820 0.343787 34.000000
1.744305 0.193469 0.343787 34.000000
1.741954 0.187800 0.343265 34.000000
1.748398 0.183071 0.344310 34.000000
1.746992 0.177507 0.343961 34.000000
1.743608 0.171759 0.343265 34.000000
1.749028 0.166878 0.344135 34.000000
1.753454 0.161874 0.344832 34.000000
1.755904 0.156669 0.345180 34.000000
1.758339 0.151451 0.345529 34.000000
1.760758 0.146219 0.345877 34.000000
1.762179 0.140895 0.346051 34.000000
1.763585 0.135564 0.346225 34.000000
1.766939 0.130371 0.346748 34.000000
1.767331 0.124949 0.346748 34.000000
1.770653 0.119727 0.347270 34.000000
1.771012 0.114294 0.347270 34.000000
1.774303 0.109042 0.347793 34.000000
1.777578 0.103770 0.348315 34.000000
1.768056 0.097771 0.346574 34.000000
1.767364 0.092294 0.346400 34.000000
1.556129 0.688553 0.323447 35.000000
1.557331 0.683379 0.323279 35.000000
1.558517 0.678204 0.323111 35.000000
1.558781 0.672637 0.322775 35.000000
1.560837 0.667851 0.322775 35.000000
1.560157 0.661903 0.322271 35.000000
1.562180 0.657113 0.322271 35.000000
1.561460 0.651177 0.321767 35.000000
1.563450 0.646383 0.321767 35.000000
1.567250 0.642333 0.322103 35.000000
1.567387 0.636778 0.321767 35.000000
1.569333 0.631966 0.321767 35.000000
1.571265 0.627149 0.321767 35.000000
1.573182 0.622325 0.321767 35.000000
1.576918 0.618217 0.322103 35.000000
1.576970 0.612661 0.321767 35.000000
1.581602 0.608884 0.322271 35.000000
1.581621 0.603325 0.321935 35.000000
1.585308 0.599168 0.322271 35.000000
1.584370 0.593263 0.321767 35.000000
1.591727 0.590460 0.322775 35.000000
1.590755 0.584552 0.322271 35.000000
1.594394 0.580344 0.322607 35.000000
1.594312 0.574780 0.322271 35.000000
1.596996 0.570218 0.322439 35.000000
1.600597 0.565975 0.322775 35.000000
1.598605 0.559756 0.322103 35.000000
1.600314 0.554849 0.322103 35.000000
1.602009 0.549936 0.322103 35.000000
1.602756 0.544701 0.321935 35.000000
1.604419 0.539781 0.321935 35.000000
1.607938 0.535481 0.322271 35.000000
1.609573 0.530545 0.322271 35.000000
1.612130 0.525911 0.322439 35.000000
1.615612 0.521569 0.322775 35.000000
1.613449 0.515408 0.322103 35.000000
1.615963 0.510753 0.322271 35.000000
1.621285 0.506973 0.322943 35.000000
1.621891 0.501704 0.322775 35.000000
1.622480 0.496437 0.322607 35.000000
1.624939 0.491743 0.322775 35.000000
1.627384 0.487039 0.322943 35.000000
1.630761 0.482604 0.323279 35.000000
1.630342 0.477044 0.322943 35.000000
1.637478 0.473688 0.323951 35.000000
1.636081 0.467847 0.323447 35.000000
1.637509 0.462825 0.323447 35.000000
1.639870 0.458065 0.323615 35.000000
1.642218 0.453295 0.323783 35.000000
1.642650 0.447994 0.323615 35.000000
1.644968 0.443210 0.323783 35.000000
1.646320 0.438161 0.323783 35.000000
1.647657 0.433108 0.323783 35.000000
1.648978 0.428051 0.323783 35.000000
1.650283 0.422990 0.323783 35.000000
1.652529 0.418167 0.323951 35.000000
1.654760 0.413335 0.324119 35.000000
1.659848 0.409203 0.324791 35.000000
1.664927 0.405043 0.325463 35.000000
1.662328 0.399011 0.324791 35.000000
1.666421 0.394592 0.325295 35.000000
1.667624 0.389478 0.325295 35.000000
1.664969 0.383472 0.324623 35.000000
1.669983 0.379238 0.325295 35.000000
1.672100 0.374329 0.325463 35.000000
1.675166 0.369623 0.325798 35.000000
1.674365 0.364062 0.325463 35.000000
1.676438 0.359131 0.325630 35.000000
1.678496 0.354190 0.325798 35.000000
1.680540 0.349240 0.325966 35.000000
1.681604 0.344082 0.325966 35.000000
1.683618 0.339117 0.326134 35.000000
1.682717 0.333565 0.325798 35.000000
1.683732 0.328401 0.325798 35.000000
1.682796 0.322861 0.325463 35.000000
1.686684 0.318247 0.325966 35.000000
1.686683 0.312891 0.325798 35.000000
1.687635 0.307715 0.325798 35.000000
1.688571 0.302536 0.325798 35.000000
1.690462 0.297525 0.325966 35.000000
1.693310 0.292675 0.326302 35.000000
1.694200 0.287478 0.326302 35.000000
1.690212 0.281466 0.325463 35.000000
1.697877 0.277397 0.326638 35.000000
1.699694 0.272343 0.326806 35.000000
1.700521 0.267127 0.326806 35.000000
1.703281 0.262210 0.327142 35.000000
1.703103 0.256836 0.326974 35.000000
1.703883 0.251609 0.326974 35.000000
1.707573 0.246806 0.327478 35.000000
1.711251 0.241982 0.327982 35.000000
1.715891 0.237273 0.328654 35.000000
1.717587 0.232141 0.328822 35.000000
1.720246 0.227129 0.329158 35.000000
1.727778 0.222738 0.330334 35.000000
1.731387 0.217807 0.330838 35.000000
1.734004 0.212735 0.331174 35.000000
1.735627 0.207532 0.331342 35.000000
1.737235 0.202321 0.331510 35.000000
1.741765 0.197437 0.332181 35.000000
1.740403 0.191875 0.331845 35.000000
1.740003 0.186429 0.331678 35.000000
1.741548 0.181193 0.331845 35.000000
1.743076 0.175949 0.332013 35.000000
1.742627 0.170503 0.331845 35.000000
1.746085 0.165437 0.332349 35.000000
1.747566 0.160170 0.332517 35.000000
1.750013 0.154983 0.332853 35.000000
1.752445 0.149783 0.333189 35.000000
1.751914 0.144324 0.333021 35.000000
1.754314 0.139106 0.333357 35.000000
1.755715 0.133798 0.333525 35.000000
1.753168 0.128194 0.333021 35.000000
1.755520 0.122953 0.333357 35.000000
1.755889 0.117567 0.333357 35.000000
1.756241 0.112179 0.333357 35.000000
1.756577 0.106791 0.333357 35.000000
1.793308 0.103527 0.339572 35.000000
1.788696 0.097753 0.338732 35.000000
1.552737 0.690477 0.313083 36.000000
1.554848 0.685710 0.313083 36.000000
1.555136 0.680147 0.312758 36.000000
1.557215 0.675373 0.312758 36.000000
1.559280 0.670592 0.312758 36.000000
1.559514 0.665032 0.312434 36.000000
1.559729 0.659477 0.312109 36.000000
1.561745 0.654689 0.312109 36.000000
1.563746 0.649895 0.312109 36.000000
1.565733 0.645094 0.312109 36.000000
1.565877 0.639542 0.311785 36.000000
1.568746 0.635105 0.311947 36.000000
1.568856 0.629556 0.311622 36.000000
1.568028 0.623647 0.311135 36.000000
1.569934 0.618834 0.311135 36.000000
1.571825 0.614014 0.311135 36.000000
1.574622 0.609545 0.311298 36.000000
1.575563 0.604358 0.311135 36.000000
1.579255 0.600221 0.311460 36.000000
1.582013 0.595721 0.311622 36.000000
1.585683 0.591553 0.311947 36.000000
1.589342 0.587368 0.312271 36.000000
1.592990 0.583166 0.312596 36.000000
1.594771 0.578276 0.312596 36.000000
1.596538 0.573381 0.312596 36.000000
1.598290 0.568480 0.312596 36.000000
1.601888 0.564228 0.312921 36.000000
1.601748 0.558663 0.312596 36.000000
1.601588 0.553103 0.312271 36.000000
1.603278 0.548187 0.312271 36.000000
1.604952 0.543265 0.312271 36.000000
1.606611 0.538339 0.312271 36.000000
1.608255 0.533407 0.312271 36.000000
1.609884 0.528471 0.312271 36.000000
1.611498 0.523529 0.312271 36.000000
1.614036 0.518884 0.312434 36.000000
1.615620 0.513930 0.312434 36.000000
1.620955 0.510153 0.313083 36.000000
1.619686 0.504300 0.312596 36.000000
1.622168 0.499618 0.312758 36.000000
1.623693 0.494639 0.312758 36.000000
1.627093 0.490223 0.313083 36.000000
1.625752 0.484386 0.312596 36.000000
1.626284 0.479117 0.312434 36.000000
1.629641 0.474676 0.312758 36.000000
1.630141 0.469402 0.312596 36.000000
1.628726 0.463590 0.312109 36.000000
1.631091 0.458858 0.312271 36.000000
1.634393 0.454379 0.312596 36.000000
1.635779 0.449362 0.312596 36.000000
1.640007 0.445115 0.313083 36.000000
1.641365 0.440082 0.313083 36.000000
1.643662 0.435296 0.313245 36.000000
1.645944 0.430500 0.313407 36.000000
1.650124 0.426187 0.313894 36.000000
1.653336 0.421609 0.314219 36.000000
1.653665 0.416294 0.314057 36.000000
1.654934 0.411219 0.314057 36.000000
1.658105 0.406608 0.314381 36.000000
1.659345 0.401519 0.314381 36.000000
1.660569 0.396427 0.314381 36.000000
1.662738 0.391556 0.314544 36.000000
1.662970 0.386230 0.314381 36.000000
1.665109 0.381346 0.314544 36.000000
1.665308 0.376019 0.314381 36.000000
1.667418 0.371122 0.314544 36.000000
1.667584 0.365794 0.314381 36.000000
1.669663 0.360884 0.314544 36.000000
1.671728 0.355965 0.314706 36.000000
1.674744 0.351238 0.315030 36.000000
1.674847 0.345899 0.314868 36.000000
1.677835 0.341151 0.315193 36.000000
1.679841 0.336195 0.315355 36.000000
1.679896 0.330850 0.315193 36.000000
1.679935 0.325507 0.315030 36.000000
1.682864 0.320720 0.315355 36.000000
1.684810 0.315737 0.315517 36.000000
1.685771 0.310566 0.315517 36.000000
1.684774 0.305043 0.315193 36.000000
1.688616 0.300389 0.315680 36.000000
1.690502 0.295376 0.315842 36.000000
1.691400 0.290188 0.315842 36.000000
1.693256 0.285161 0.316004 36.000000
1.695096 0.280125 0.316166 36.000000
1.697896 0.275238 0.316491 36.000000
1.697758 0.269873 0.316329 36.000000
1.701503 0.265117 0.316816 36.000000
1.704260 0.260192 0.317140 36.000000
1.707002 0.255253 0.317465 36.000000
1.706800 0.249872 0.317302 36.000000
1.712443 0.245331 0.318114 36.000000
1.715142 0.240349 0.318439 36.000000
1.718805 0.235486 0.318925 36.000000
1.718541 0.230081 0.318763 36.000000
1.724131 0.225444 0.319575 36.000000
1.725794 0.220278 0.319737 36.000000
1.727441 0.215103 0.319899 36.000000
1.729072 0.209921 0.320061 36.000000
1.731668 0.204846 0.320386 36.000000
1.732288 0.199532 0.320386 36.000000
1.732892 0.194216 0.320386 36.000000
1.734461 0.189005 0.320548 36.000000
1.738958 0.184096 0.321198 36.000000
1.740496 0.178860 0.321360 36.000000
1.743001 0.173714 0.321684 36.000000
1.744508 0.168460 0.321847 36.000000
1.747964 0.163381 0.322334 36.000000
1.750423 0.158194 0.322658 36.000000
1.751883 0.152908 0.322820 36.000000
1.751360 0.147450 0.322658 36.000000
1.753772 0.142235 0.322983 36.000000
1.753216 0.136778 0.322820 36.000000
1.751659 0.131252 0.322496 36.000000
1.752054 0.125877 0.322496 36.000000
1.751447 0.120434 0.322334 36.000000
1.750824 0.114996 0.322171 36.000000
1.750183 0.109563 0.322009 36.000000
1.789913 0.106513 0.328501 36.000000
1.800083 0.101570 0.330124 36.000000
1.798416 0.095943 0.329799 36.000000
1.546436 0.691798 0.301700 37.000000
1.547648 0.686650 0.301543 37.000000
1.550652 0.682296 0.301700 37.000000
1.551832 0.677141 0.301543 37.000000
1.552996 0.671984 0.301387 37.000000
1.555958 0.667606 0.301543 37.000000
1.557090 0.662443 0.301387 37.000000
1.559115 0.657663 0.301387 37.000000
1.561125 0.652876 0.301387 37.000000
1.563121 0.648084 0.301387 37.000000
1.566015 0.643660 0.301543 37.000000
1.567068 0.638480 0.301387 37.000000
1.569935 0.634039 0.301543 37.000000
1.570956 0.628853 0.301387 37.000000
1.571960 0.623666 0.301231 37.000000
1.573866 0.618841 0.301231 37.000000
1.573916 0.613292 0.300918 37.000000
1.575790 0.608461 0.300918 37.000000
1.575805 0.602918 0.300606 37.000000
1.579494 0.598781 0.300918 37.000000
1.582248 0.594279 0.301075 37.000000
1.584064 0.589422 0.301075 37.000000
1.587719 0.585242 0.301387 37.000000
1.592291 0.581384 0.301856 37.000000
1.592209 0.575825 0.301543 37.000000
1.594898 0.571270 0.301700 37.000000
1.597574 0.566704 0.301856 37.000000
1.597441 0.561146 0.301543 37.000000
1.598222 0.555918 0.301387 37.000000
1.598052 0.550370 0.301075 37.000000
1.599733 0.545464 0.301075 37.000000
1.600463 0.540238 0.300918 37.000000
1.603050 0.535638 0.301075 37.000000
1.603748 0.530408 0.300918 37.000000
1.606307 0.525792 0.301075 37.000000
1.609792 0.521470 0.301387 37.000000
1.611384 0.516528 0.301387 37.000000
1.613902 0.511881 0.301543 37.000000
1.617350 0.507518 0.301856 37.000000
1.618900 0.502554 0.301856 37.000000
1.620434 0.497585 0.301856 37.000000
1.620062 0.492037 0.301543 37.000000
1.623456 0.487632 0.301856 37.000000
1.623051 0.482087 0.301543 37.000000
1.625470 0.477384 0.301700 37.000000
1.625030 0.471844 0.301387 37.000000
1.625520 0.466584 0.301231 37.000000
1.625044 0.461056 0.300918 37.000000
1.628353 0.456601 0.301231 37.000000
1.630698 0.451867 0.301387 37.000000
1.633982 0.447383 0.301700 37.000000
1.637254 0.442884 0.302012 37.000000
1.640513 0.438368 0.302325 37.000000
1.643761 0.433837 0.302637 37.000000
1.646996 0.429289 0.302950 37.000000
1.650218 0.424726 0.303262 37.000000
1.653428 0.420148 0.303575 37.000000
1.652793 0.414593 0.303262 37.000000
1.653098 0.409283 0.303106 37.000000
1.655306 0.404444 0.303262 37.000000
1.657499 0.399595 0.303418 37.000000
1.658717 0.394508 0.303418 37.000000
1.660882 0.389642 0.303575 37.000000
1.663031 0.384767 0.303731 37.000000
1.662278 0.379225 0.303418 37.000000
1.664397 0.374339 0.303575 37.000000
1.667467 0.369658 0.303887 37.000000
1.667628 0.364330 0.303731 37.000000
1.670669 0.359628 0.304044 37.000000
1.672731 0.354705 0.304200 37.000000
1.673811 0.349572 0.304200 37.000000
1.674876 0.344435 0.304200 37.000000
1.677861 0.339686 0.304512 37.000000
1.679864 0.334730 0.304669 37.000000
1.680883 0.329575 0.304669 37.000000
1.681886 0.324416 0.304669 37.000000
1.686755 0.319990 0.305294 37.000000
1.688700 0.314995 0.305450 37.000000
1.689659 0.309812 0.305450 37.000000
1.690601 0.304627 0.305450 37.000000
1.689582 0.299095 0.305137 37.000000
1.694385 0.294586 0.305762 37.000000
1.694307 0.289220 0.305606 37.000000
1.695186 0.284021 0.305606 37.000000
1.696050 0.278819 0.305606 37.000000
1.694947 0.273300 0.305294 37.000000
1.694801 0.267945 0.305137 37.000000
1.699520 0.263348 0.305762 37.000000
1.701296 0.258281 0.305919 37.000000
1.705989 0.253640 0.306544 37.000000
1.706759 0.248405 0.306544 37.000000
1.714358 0.244141 0.307638 37.000000
1.717056 0.239152 0.307950 37.000000
1.718760 0.234016 0.308106 37.000000
1.721428 0.229002 0.308419 37.000000
1.726041 0.224228 0.309044 37.000000
1.725741 0.218807 0.308888 37.000000
1.728364 0.213754 0.309200 37.000000
1.729993 0.208568 0.309356 37.000000
1.730624 0.203260 0.309356 37.000000
1.730258 0.197837 0.309200 37.000000
1.735766 0.193073 0.309981 37.000000
1.738314 0.187959 0.310294 37.000000
1.741829 0.182934 0.310763 37.000000
1.744348 0.177789 0.311075 37.000000
1.745868 0.172533 0.311232 37.000000
1.749339 0.167458 0.311700 37.000000
1.751811 0.162272 0.312013 37.000000
1.753285 0.156985 0.312169 37.000000
1.753758 0.151605 0.312169 37.000000
1.751262 0.145978 0.311700 37.000000
1.753671 0.140762 0.312013 37.000000
1.753110 0.135306 0.311857 37.000000
1.752531 0.129854 0.311700 37.000000
1.752922 0.124477 0.311700 37.000000
1.752310 0.119031 0.311544 37.000000
1.751681 0.113591 0.311388 37.000000
1.790469 0.110583 0.317482 37.000000
1.790800 0.105089 0.317482 37.000000
1.793087 0.099704 0.317795 37.000000
1.823779 0.078968 0.322482 37.000000
1.540577 0.694247 0.290541 38.000000
1.540895 0.688710 0.290241 38.000000
1.543001 0.683980 0.290241 38.000000
1.545092 0.679243 0.290241 38.000000
1.547168 0.674499 0.290241 38.000000
1.549230 0.669749 0.290241 38.000000
1.551278 0.664993 0.290241 38.000000
1.554221 0.660618 0.290391 38.000000
1.558062 0.656615 0.290691 38.000000
1.560069 0.651832 0.290691 38.000000
1.561148 0.646664 0.290541 38.000000
1.564039 0.642247 0.290691 38.000000
1.566918 0.637818 0.290842 38.000000
1.568867 0.633008 0.290842 38.000000
1.569884 0.627825 0.290691 38.000000
1.571803 0.623005 0.290691 38.000000
1.572787 0.617819 0.290541 38.000000
1.571911 0.611914 0.290090 38.000000
1.573781 0.607088 0.290090 38.000000
1.574713 0.601904 0.289940 38.000000
1.578401 0.597771 0.290241 38.000000
1.580227 0.592925 0.290241 38.000000
1.581112 0.587730 0.290090 38.000000
1.585691 0.583902 0.290541 38.000000
1.590261 0.580051 0.290992 38.000000
1.590174 0.574497 0.290691 38.000000
1.591929 0.569616 0.290691 38.000000
1.598328 0.566382 0.291442 38.000000
1.598192 0.560820 0.291142 38.000000
1.598972 0.555590 0.290992 38.000000
1.598799 0.550038 0.290691 38.000000
1.601415 0.545449 0.290842 38.000000
1.603081 0.540534 0.290842 38.000000
1.601918 0.534673 0.290391 38.000000
1.602612 0.529446 0.290241 38.000000
1.604229 0.524526 0.290241 38.000000
1.605831 0.519602 0.290241 38.000000
1.607417 0.514673 0.290241 38.000000
1.608989 0.509739 0.290241 38.000000
1.613375 0.505688 0.290691 38.000000
1.613030 0.500150 0.290391 38.000000
1.612667 0.494619 0.290090 38.000000
1.616069 0.490243 0.290391 38.000000
1.618512 0.485567 0.290541 38.000000
1.619994 0.480600 0.290541 38.000000
1.621461 0.475627 0.290541 38.000000
1.621014 0.470099 0.290241 38.000000
1.622448 0.465124 0.290241 38.000000
1.622917 0.459874 0.290090 38.000000
1.626224 0.455427 0.290391 38.000000
1.628566 0.450699 0.290541 38.000000
1.632802 0.446484 0.290992 38.000000
1.634164 0.441472 0.290992 38.000000
1.637421 0.436967 0.291292 38.000000
1.640666 0.432446 0.291593 38.000000
1.643898 0.427909 0.291893 38.000000
1.647118 0.423356 0.292194 38.000000
1.653201 0.419518 0.292945 38.000000
1.653521 0.414203 0.292794 38.000000
1.649985 0.407941 0.292043 38.000000
1.650269 0.402642 0.291893 38.000000
1.648613 0.396883 0.291442 38.000000
1.653670 0.392738 0.292043 38.000000
1.654867 0.387662 0.292043 38.000000
1.656049 0.382583 0.292043 38.000000
1.657215 0.377501 0.292043 38.000000
1.660294 0.372849 0.292344 38.000000
1.662396 0.367967 0.292494 38.000000
1.664482 0.363076 0.292644 38.000000
1.665589 0.357968 0.292644 38.000000
1.669580 0.353471 0.293095 38.000000
1.669689 0.348145 0.292945 38.000000
1.669781 0.342822 0.292794 38.000000
1.673732 0.338286 0.293245 38.000000
1.675732 0.333342 0.293395 38.000000
1.676746 0.328200 0.293395 38.000000
1.680658 0.323616 0.293846 38.000000
1.681643 0.318458 0.293846 38.000000
1.685527 0.313841 0.294297 38.000000
1.688427 0.309025 0.294597 38.000000
1.689367 0.303843 0.294597 38.000000
1.691265 0.298831 0.294747 38.000000
1.696070 0.294318 0.295348 38.000000
1.695016 0.288780 0.295048 38.000000
1.695894 0.283579 0.295048 38.000000
1.696756 0.278375 0.295048 38.000000
1.698578 0.273325 0.295198 38.000000
1.696479 0.267650 0.294747 38.000000
1.698269 0.262595 0.294898 38.000000
1.702977 0.257977 0.295499 38.000000
1.702782 0.252606 0.295348 38.000000
1.704528 0.247523 0.295499 38.000000
1.711152 0.243128 0.296400 38.000000
1.709931 0.237604 0.296099 38.000000
1.716530 0.233157 0.297001 38.000000
1.720177 0.228280 0.297451 38.000000
1.721850 0.223129 0.297602 38.000000
1.721546 0.217721 0.297451 38.000000
1.723187 0.212560 0.297602 38.000000
1.724812 0.207391 0.297752 38.000000
1.726422 0.202213 0.297902 38.000000
1.726052 0.196803 0.297752 38.000000
1.730578 0.191944 0.298353 38.000000
1.734108 0.186952 0.298803 38.000000
1.735656 0.181734 0.298954 38.000000
1.738173 0.176609 0.299254 38.000000
1.743626 0.171761 0.300005 38.000000
1.745129 0.166505 0.300155 38.000000
1.745631 0.161150 0.300155 38.000000
1.749072 0.156058 0.300606 38.000000
1.749542 0.150691 0.300606 38.000000
1.746055 0.144995 0.300005 38.000000
1.747478 0.139717 0.300155 38.000000
1.749869 0.134507 0.300456 38.000000
1.751260 0.129210 0.300606 38.000000
1.751648 0.123837 0.300606 38.000000
1.752020 0.118463 0.300606 38.000000
1.776053 0.114620 0.304212 38.000000
1.778370 0.109293 0.304512 38.000000
1.772775 0.103489 0.303611 38.000000
1.537522 0.697301 0.280170 39.000000
1.538752 0.692174 0.280026 39.000000
1.540868 0.687450 0.280026 39.000000
1.542065 0.682318 0.279881 39.000000
1.545057 0.677983 0.280026 39.000000
1.546223 0.672844 0.279881 39.000000
1.548280 0.668097 0.279881 39.000000
1.551232 0.663733 0.280026 39.000000
1.555082 0.659745 0.280314 39.000000
1.558011 0.655356 0.280459 39.000000
1.559101 0.650191 0.280314 39.000000
1.561088 0.645405 0.280314 39.000000
1.563061 0.640612 0.280314 39.000000
1.564103 0.635441 0.280170 39.000000
1.567880 0.631380 0.280459 39.000000
1.570728 0.626934 0.280603 39.000000
1.571725 0.621748 0.280459 39.000000
1.572704 0.616561 0.280314 39.000000
1.574588 0.611733 0.280314 39.000000
1.576457 0.606899 0.280314 39.000000
1.577387 0.601707 0.280170 39.000000
1.582002 0.597916 0.280603 39.000000
1.582903 0.592712 0.280459 39.000000
1.584714 0.587853 0.280459 39.000000
1.587438 0.583330 0.280603 39.000000
1.590150 0.578797 0.280747 39.000000
1.591918 0.573915 0.280747 39.000000
1.590876 0.568029 0.280314 39.000000
1.595410 0.564137 0.280747 39.000000
1.595266 0.558584 0.280459 39.000000
1.596037 0.553362 0.280314 39.000000
1.595856 0.547819 0.280026 39.000000
1.599402 0.543559 0.280314 39.000000
1.602938 0.539282 0.280603 39.000000
1.600830 0.533108 0.280026 39.000000
1.604337 0.528815 0.280314 39.000000
1.605952 0.523891 0.280314 39.000000
1.609435 0.519571 0.280603 39.000000
1.609136 0.514027 0.280314 39.000000
1.610706 0.509088 0.280314 39.000000
1.612260 0.504144 0.280314 39.000000
1.612854 0.498902 0.280170 39.000000
1.613431 0.493661 0.280026 39.000000
1.616832 0.489284 0.280314 39.000000
1.619273 0.484605 0.280459 39.000000
1.619804 0.479354 0.280314 39.000000
1.621267 0.474382 0.280314 39.000000
1.623665 0.469681 0.280459 39.000000
1.625098 0.464698 0.280459 39.000000
1.628420 0.460250 0.280747 39.000000
1.630777 0.455518 0.280892 39.000000
1.632167 0.450513 0.280892 39.000000
1.634496 0.445765 0.281036 39.000000
1.636811 0.441006 0.281180 39.000000
1.639113 0.436237 0.281325 39.000000
1.643314 0.431963 0.281758 39.000000
1.646547 0.427418 0.282047 39.000000
1.644975 0.421626 0.281614 39.000000
1.646261 0.416577 0.281614 39.000000
1.650411 0.412246 0.282047 39.000000
1.648786 0.406468 0.281614 39.000000
1.650025 0.401407 0.281614 39.000000
1.648363 0.395649 0.281180 39.000000
1.649569 0.390590 0.281180 39.000000
1.653650 0.386204 0.281614 39.000000
1.654827 0.381129 0.281614 39.000000
1.655988 0.376050 0.281614 39.000000
1.656169 0.370751 0.281469 39.000000
1.662129 0.366738 0.282191 39.000000
1.665180 0.362058 0.282480 39.000000
1.667250 0.357156 0.282624 39.000000
1.669306 0.352244 0.282768 39.000000
1.671348 0.347323 0.282913 39.000000
1.673375 0.342393 0.283057 39.000000
1.675387 0.337453 0.283201 39.000000
1.677385 0.332505 0.283346 39.000000
1.678398 0.327357 0.283346 39.000000
1.679394 0.322206 0.283346 39.000000
1.681347 0.317237 0.283490 39.000000
1.684258 0.312439 0.283779 39.000000
1.685208 0.307270 0.283779 39.000000
1.685169 0.301924 0.283635 39.000000
1.687062 0.296924 0.283779 39.000000
1.690890 0.292255 0.284212 39.000000
1.693730 0.287398 0.284501 39.000000
1.694603 0.282201 0.284501 39.000000
1.699367 0.277641 0.285078 39.000000
1.701188 0.272583 0.285222 39.000000
1.701038 0.267209 0.285078 39.000000
1.701850 0.261989 0.285078 39.000000
1.703624 0.256915 0.285222 39.000000
1.705383 0.251832 0.285367 39.000000
1.704190 0.246314 0.285078 39.000000
1.708856 0.241642 0.285656 39.000000
1.711549 0.236670 0.285944 39.000000
1.713248 0.231551 0.286089 39.000000
1.715912 0.226554 0.286377 39.000000
1.719543 0.221670 0.286810 39.000000
1.720215 0.216394 0.286810 39.000000
1.720871 0.211115 0.286810 39.000000
1.722493 0.205953 0.286955 39.000000
1.723117 0.200667 0.286955 39.000000
1.722741 0.195268 0.286810 39.000000
1.726282 0.190309 0.287243 39.000000
1.731777 0.185542 0.287965 39.000000
1.730370 0.180022 0.287677 39.000000
1.732883 0.174913 0.287965 39.000000
1.735381 0.169790 0.288254 39.000000
1.738849 0.164747 0.288687 39.000000
1.739346 0.159411 0.288687 39.000000
1.741798 0.154250 0.288976 39.000000
1.745221 0.149160 0.289409 39.000000
1.743698 0.143642 0.289120 39.000000
1.745117 0.138370 0.289264 39.000000
1.748493 0.133243 0.289697 39.000000
1.748894 0.127878 0.289697 39.000000
1.750265 0.122582 0.289842 39.000000
1.774327 0.118814 0.293306 39.000000
1.757896 0.112286 0.290852 39.000000
1.758233 0.106893 0.290852 39.000000
1.536738 0.700060 0.270103 40.000000
1.536170 0.694121 0.269687 40.000000
1.537389 0.689000 0.269549 40.000000
1.539495 0.684281 0.269549 40.000000
1.544307 0.680751 0.269964 40.000000
1.545480 0.675614 0.269826 40.000000
1.547546 0.670869 0.269826 40.000000
1.548687 0.665728 0.269687 40.000000
1.552544 0.661749 0.269964 40.000000
1.555480 0.657367 0.270103 40.000000
1.556576 0.652210 0.269964 40.000000
1.558569 0.647431 0.269964 40.000000
1.560548 0.642647 0.269964 40.000000
1.560678 0.637109 0.269687 40.000000
1.564462 0.633059 0.269964 40.000000
1.566397 0.628256 0.269964 40.000000
1.566476 0.622717 0.269687 40.000000
1.564692 0.616459 0.269133 40.000000
1.570267 0.613094 0.269687 40.000000
1.572141 0.608274 0.269687 40.000000
1.572150 0.602740 0.269410 40.000000
1.574917 0.598265 0.269549 40.000000
1.578600 0.594126 0.269826 40.000000
1.578559 0.588590 0.269549 40.000000
1.581286 0.584087 0.269687 40.000000
1.584001 0.579572 0.269826 40.000000
1.584840 0.574373 0.269687 40.000000
1.585663 0.569174 0.269549 40.000000
1.589268 0.564969 0.269826 40.000000
1.591928 0.560419 0.269964 40.000000
1.592705 0.555207 0.269826 40.000000
1.594401 0.550318 0.269826 40.000000
1.597019 0.545743 0.269964 40.000000
1.599624 0.541158 0.270103 40.000000
1.601277 0.536248 0.270103 40.000000
1.601974 0.531022 0.269964 40.000000
1.605478 0.526720 0.270241 40.000000
1.608029 0.522098 0.270379 40.000000
1.607737 0.516557 0.270103 40.000000
1.609314 0.511622 0.270103 40.000000
1.609931 0.506386 0.269964 40.000000
1.610531 0.501151 0.269826 40.000000
1.610168 0.495626 0.269549 40.000000
1.614524 0.491547 0.269964 40.000000
1.616024 0.486592 0.269964 40.000000
1.616560 0.481349 0.269826 40.000000
1.617079 0.476109 0.269687 40.000000
1.620434 0.471698 0.269964 40.000000
1.621873 0.466724 0.269964 40.000000
1.623298 0.461746 0.269964 40.000000
1.626614 0.457298 0.270241 40.000000
1.626100 0.451777 0.269964 40.000000
1.627479 0.446786 0.269964 40.000000
1.630754 0.442308 0.270241 40.000000
1.633060 0.437558 0.270379 40.000000
1.636310 0.433052 0.270656 40.000000
1.638589 0.428279 0.270795 40.000000
1.640854 0.423497 0.270933 40.000000
1.644066 0.418949 0.271210 40.000000
1.643422 0.413421 0.270933 40.000000
1.645644 0.408615 0.271072 40.000000
1.645928 0.403329 0.270933 40.000000
1.647158 0.398278 0.270933 40.000000
1.648372 0.393222 0.270933 40.000000
1.650535 0.388390 0.271072 40.000000
1.652683 0.383547 0.271210 40.000000
1.655783 0.378916 0.271487 40.000000
1.656938 0.373834 0.271487 40.000000
1.662911 0.369821 0.272180 40.000000
1.664038 0.364717 0.272180 40.000000
1.666118 0.359819 0.272318 40.000000
1.670120 0.355322 0.272734 40.000000
1.672172 0.350398 0.272872 40.000000
1.672269 0.345067 0.272734 40.000000
1.674290 0.340132 0.272872 40.000000
1.675326 0.334993 0.272872 40.000000
1.676346 0.329852 0.272872 40.000000
1.675405 0.324332 0.272595 40.000000
1.677365 0.319375 0.272734 40.000000
1.682231 0.314954 0.273288 40.000000
1.681242 0.309434 0.273011 40.000000
1.682183 0.304275 0.273011 40.000000
1.685059 0.299458 0.273288 40.000000
1.687921 0.294626 0.273565 40.000000
1.690770 0.289780 0.273842 40.000000
1.693604 0.284918 0.274118 40.000000
1.696425 0.280042 0.274395 40.000000
1.698254 0.274994 0.274534 40.000000
1.701046 0.270092 0.274811 40.000000
1.702845 0.265024 0.274949 40.000000
1.703650 0.259798 0.274949 40.000000
1.706398 0.254861 0.275226 40.000000
1.705212 0.249340 0.274949 40.000000
1.708911 0.244526 0.275365 40.000000
1.708672 0.239145 0.275226 40.000000
1.709397 0.233902 0.275226 40.000000
1.713052 0.229048 0.275642 40.000000
1.713747 0.223792 0.275642 40.000000
1.716390 0.218782 0.275919 40.000000
1.716071 0.213394 0.275780 40.000000
1.719667 0.208483 0.276196 40.000000
1.721282 0.203322 0.276334 40.000000
1.721898 0.198040 0.276334 40.000000
1.724466 0.192976 0.276611 40.000000
1.726034 0.187791 0.276750 40.000000
1.726602 0.182494 0.276750 40.000000
1.729125 0.177397 0.277027 40.000000
1.731632 0.172286 0.277304 40.000000
1.734124 0.167162 0.277581 40.000000
1.734629 0.161841 0.277581 40.000000
1.737090 0.156695 0.277857 40.000000
1.739536 0.151535 0.278134 40.000000
1.739993 0.146198 0.278134 40.000000
1.741420 0.140938 0.278273 40.000000
1.743819 0.135747 0.278550 40.000000
1.745215 0.130470 0.278688 40.000000
1.745607 0.125115 0.278688 40.000000
1.782542 0.122242 0.283812 40.000000
1.752272 0.114786 0.279519 40.000000
1.752616 0.109410 0.279519 40.000000
1.531615 0.702799 0.259217 41.000000
1.534666 0.698507 0.259349 41.000000
1.536802 0.693796 0.259349 41.000000
1.538923 0.689078 0.259349 41.000000
1.541030 0.684353 0.259349 41.000000
1.545844 0.680820 0.259746 41.000000
1.547017 0.675678 0.259614 41.000000
1.549992 0.671322 0.259746 41.000000
1.552044 0.666563 0.259746 41.000000
1.554082 0.661799 0.259746 41.000000
1.556105 0.657028 0.259746 41.000000
1.558114 0.652251 0.259746 41.000000
1.559192 0.647088 0.259614 41.000000
1.562086 0.642678 0.259746 41.000000
1.562215 0.637134 0.259482 41.000000
1.565081 0.632710 0.259614 41.000000
1.566095 0.627537 0.259482 41.000000
1.568934 0.623095 0.259614 41.000000
1.569916 0.617915 0.259482 41.000000
1.571804 0.613096 0.259482 41.000000
1.572753 0.607914 0.259349 41.000000
1.574611 0.603086 0.259349 41.000000
1.574600 0.597549 0.259084 41.000000
1.577354 0.593064 0.259217 41.000000
1.579166 0.588222 0.259217 41.000000
1.580033 0.583032 0.259084 41.000000
1.580883 0.577841 0.258952 41.000000
1.582649 0.572989 0.258952 41.000000
1.582533 0.567462 0.258687 41.000000
1.586135 0.563267 0.258952 41.000000
1.587855 0.558398 0.258952 41.000000
1.591433 0.554175 0.259217 41.000000
1.594063 0.549613 0.259349 41.000000
1.595742 0.544720 0.259349 41.000000
1.597405 0.539822 0.259349 41.000000
1.599054 0.534919 0.259349 41.000000
1.601629 0.530322 0.259482 41.000000
1.604190 0.525714 0.259614 41.000000
1.605796 0.520790 0.259614 41.000000
1.606442 0.515558 0.259482 41.000000
1.606126 0.510028 0.259217 41.000000
1.608629 0.505395 0.259349 41.000000
1.611119 0.500751 0.259482 41.000000
1.612648 0.495806 0.259482 41.000000
1.616058 0.491432 0.259746 41.000000
1.619456 0.487042 0.260011 41.000000
1.620943 0.482072 0.260011 41.000000
1.621463 0.476817 0.259879 41.000000
1.621967 0.471564 0.259746 41.000000
1.623406 0.466585 0.259746 41.000000
1.623876 0.461332 0.259614 41.000000
1.624330 0.456080 0.259482 41.000000
1.624766 0.450830 0.259349 41.000000
1.625185 0.445581 0.259217 41.000000
1.627502 0.440852 0.259349 41.000000
1.629804 0.436113 0.259482 41.000000
1.631134 0.431111 0.259482 41.000000
1.637245 0.427355 0.260144 41.000000
1.640468 0.422824 0.260409 41.000000
1.642718 0.418034 0.260541 41.000000
1.644954 0.413233 0.260673 41.000000
1.647177 0.408423 0.260806 41.000000
1.648422 0.403367 0.260806 41.000000
1.648688 0.398076 0.260673 41.000000
1.650866 0.393245 0.260806 41.000000
1.653994 0.388632 0.261071 41.000000
1.654213 0.383332 0.260938 41.000000
1.655381 0.378255 0.260938 41.000000
1.659435 0.373827 0.261336 41.000000
1.662510 0.369164 0.261601 41.000000
1.664603 0.364273 0.261733 41.000000
1.668619 0.359791 0.262130 41.000000
1.670685 0.354876 0.262263 41.000000
1.672736 0.349951 0.262395 41.000000
1.672831 0.344618 0.262263 41.000000
1.674852 0.339681 0.262395 41.000000
1.676858 0.334735 0.262528 41.000000
1.677877 0.329589 0.262528 41.000000
1.676934 0.324064 0.262263 41.000000
1.679868 0.319287 0.262528 41.000000
1.680840 0.314132 0.262528 41.000000
1.682770 0.309153 0.262660 41.000000
1.684686 0.304164 0.262792 41.000000
1.687564 0.299340 0.263057 41.000000
1.687497 0.293991 0.262925 41.000000
1.689368 0.288980 0.263057 41.000000
1.694157 0.284451 0.263587 41.000000
1.698934 0.279896 0.264117 41.000000
1.700763 0.274840 0.264249 41.000000
1.701599 0.269621 0.264249 41.000000
1.704377 0.264703 0.264514 41.000000
1.709101 0.260068 0.265044 41.000000
1.709890 0.254824 0.265044 41.000000
1.711645 0.249720 0.265176 41.000000
1.713384 0.244607 0.265309 41.000000
1.714127 0.239349 0.265309 41.000000
1.713871 0.233955 0.265176 41.000000
1.715563 0.228827 0.265309 41.000000
1.716257 0.223563 0.265309 41.000000
1.717918 0.218421 0.265441 41.000000
1.717597 0.213028 0.265309 41.000000
1.721194 0.208114 0.265706 41.000000
1.722809 0.202948 0.265838 41.000000
1.725393 0.197887 0.266103 41.000000
1.726977 0.192702 0.266236 41.000000
1.732487 0.187936 0.266898 41.000000
1.733056 0.182620 0.266898 41.000000
1.735580 0.177504 0.267163 41.000000
1.738089 0.172373 0.267427 41.000000
1.740583 0.167229 0.267692 41.000000
1.740101 0.161797 0.267560 41.000000
1.742564 0.156635 0.267825 41.000000
1.744024 0.151373 0.267957 41.000000
1.744480 0.146022 0.267957 41.000000
1.745908 0.140749 0.268090 41.000000
1.749296 0.135621 0.268487 41.000000
1.747727 0.130107 0.268222 41.000000
1.774812 0.126643 0.271798 41.000000
1.728079 0.112666 0.265441 41.000000
1.528525 0.705490 0.248927 42.000000
1.531584 0.701210 0.249054 42.000000
1.533728 0.696508 0.249054 42.000000
1.534953 0.691392 0.248927 42.000000
1.537067 0.686680 0.248927 42.000000
1.539167 0.681961 0.248927 42.000000
1.539436 0.676437 0.248674 42.000000
1.542413 0.672107 0.248801 42.000000
1.546289 0.668159 0.249054 42.000000
1.543773 0.661458 0.248421 42.000000
1.548533 0.657883 0.248801 42.000000
1.550545 0.653129 0.248801 42.000000
1.553456 0.648751 0.248927 42.000000
1.555439 0.643982 0.248927 42.000000
1.555573 0.638454 0.248674 42.000000
1.558443 0.634052 0.248801 42.000000
1.559461 0.628897 0.248674 42.000000
1.559541 0.623373 0.248421 42.000000
1.563290 0.619316 0.248674 42.000000
1.565183 0.614517 0.248674 42.000000
1.565212 0.608993 0.248421 42.000000
1.567999 0.604545 0.248547 42.000000
1.569846 0.599731 0.248547 42.000000
1.571678 0.594912 0.248547 42.000000
1.573496 0.590088 0.248547 42.000000
1.575299 0.585258 0.248547 42.000000
1.576156 0.580079 0.248421 42.000000
1.576997 0.574901 0.248294 42.000000
1.577820 0.569723 0.248168 42.000000
1.579561 0.564879 0.248168 42.000000
1.582221 0.560362 0.248294 42.000000
1.584869 0.555834 0.248421 42.000000
1.588441 0.551620 0.248674 42.000000
1.591064 0.547067 0.248801 42.000000
1.593673 0.542503 0.248927 42.000000
1.596270 0.537928 0.249054 42.000000
1.597913 0.533028 0.249054 42.000000
1.599541 0.528123 0.249054 42.000000
1.600211 0.522905 0.248927 42.000000
1.602751 0.518299 0.249054 42.000000
1.602444 0.512774 0.248801 42.000000
1.603064 0.507556 0.248674 42.000000
1.604614 0.502635 0.248674 42.000000
1.606149 0.497710 0.248674 42.000000
1.607668 0.492780 0.248674 42.000000
1.610121 0.488134 0.248801 42.000000
1.613512 0.483762 0.249054 42.000000
1.615939 0.479091 0.249180 42.000000
1.615498 0.473573 0.248927 42.000000
1.615038 0.468062 0.248674 42.000000
1.616466 0.463105 0.248674 42.000000
1.617879 0.458143 0.248674 42.000000
1.619277 0.453178 0.248674 42.000000
1.618748 0.447678 0.248421 42.000000
1.619157 0.442448 0.248294 42.000000
1.620507 0.437479 0.248294 42.000000
1.623758 0.433017 0.248547 42.000000
1.626038 0.428286 0.248674 42.000000
1.632144 0.424545 0.249307 42.000000
1.637282 0.420524 0.249813 42.000000
1.638564 0.415498 0.249813 42.000000
1.640794 0.410711 0.249939 42.000000
1.643972 0.406151 0.250193 42.000000
1.647137 0.401576 0.250446 42.000000
1.647397 0.396288 0.250319 42.000000
1.650536 0.391691 0.250572 42.000000
1.652695 0.386852 0.250699 42.000000
1.652908 0.381556 0.250572 42.000000
1.655038 0.376704 0.250699 42.000000
1.658121 0.372059 0.250952 42.000000
1.660224 0.367185 0.251078 42.000000
1.662311 0.362301 0.251205 42.000000
1.665355 0.357616 0.251458 42.000000
1.668385 0.352916 0.251711 42.000000
1.666547 0.347189 0.251331 42.000000
1.669547 0.342473 0.251585 42.000000
1.673507 0.337939 0.251964 42.000000
1.673563 0.332610 0.251838 42.000000
1.673602 0.327283 0.251711 42.000000
1.675572 0.322335 0.251838 42.000000
1.678503 0.317562 0.252091 42.000000
1.681419 0.312774 0.252344 42.000000
1.683347 0.307793 0.252470 42.000000
1.684283 0.302627 0.252470 42.000000
1.685204 0.297458 0.252470 42.000000
1.687086 0.292456 0.252597 42.000000
1.687975 0.287279 0.252597 42.000000
1.689827 0.282263 0.252723 42.000000
1.693621 0.277559 0.253103 42.000000
1.695444 0.272519 0.253230 42.000000
1.696272 0.267316 0.253230 42.000000
1.700025 0.262566 0.253609 42.000000
1.703765 0.257795 0.253989 42.000000
1.705529 0.252712 0.254115 42.000000
1.708260 0.247764 0.254369 42.000000
1.710976 0.242801 0.254622 42.000000
1.711713 0.237551 0.254622 42.000000
1.713417 0.232432 0.254748 42.000000
1.715105 0.227304 0.254875 42.000000
1.714811 0.221914 0.254748 42.000000
1.715483 0.216652 0.254748 42.000000
1.715156 0.211266 0.254622 42.000000
1.717765 0.206240 0.254875 42.000000
1.720361 0.201200 0.255128 42.000000
1.723926 0.196259 0.255507 42.000000
1.725506 0.191078 0.255634 42.000000
1.728057 0.185996 0.255887 42.000000
1.728619 0.180694 0.255887 42.000000
1.732126 0.175690 0.256267 42.000000
1.733644 0.170473 0.256393 42.000000
1.734159 0.165153 0.256393 42.000000
1.733670 0.159741 0.256267 42.000000
1.737116 0.154686 0.256646 42.000000
1.736594 0.149271 0.256520 42.000000
1.737044 0.143942 0.256520 42.000000
1.739455 0.138771 0.256773 42.000000
1.740861 0.133509 0.256899 42.000000
1.742252 0.128241 0.257026 42.000000
1.724827 0.121635 0.254748 42.000000
1.725192 0.116343 0.254748 42.000000
1.525068 0.708964 0.237793 43.000000
1.527236 0.704281 0.237793 43.000000
1.528486 0.699179 0.237673 43.000000
1.532432 0.695308 0.237913 43.000000
1.534558 0.690603 0.237913 43.000000
1.537576 0.686297 0.238033 43.000000
1.537859 0.680772 0.237793 43.000000
1.537214 0.674852 0.237433 43.000000
1.540187 0.670529 0.237553 43.000000
1.542237 0.665801 0.237553 43.000000
1.544273 0.661066 0.237553 43.000000
1.546293 0.656325 0.237553 43.000000
1.548300 0.651578 0.237553 43.000000
1.549375 0.646442 0.237433 43.000000
1.551351 0.641686 0.237433 43.000000
1.554231 0.637300 0.237553 43.000000
1.557098 0.632904 0.237673 43.000000
1.558112 0.627752 0.237553 43.000000
1.559109 0.622600 0.237433 43.000000
1.561935 0.618180 0.237553 43.000000
1.564748 0.613748 0.237673 43.000000
1.566623 0.608944 0.237673 43.000000
1.570337 0.604850 0.237913 43.000000
1.574967 0.601094 0.238273 43.000000
1.577732 0.596611 0.238394 43.000000
1.580484 0.592116 0.238514 43.000000
1.581363 0.586919 0.238394 43.000000
1.582224 0.581721 0.238273 43.000000
1.583069 0.576524 0.238153 43.000000
1.582963 0.570989 0.237913 43.000000
1.583773 0.565795 0.237793 43.000000
1.583630 0.560270 0.237553 43.000000
1.585341 0.555409 0.237553 43.000000
1.588913 0.551195 0.237793 43.000000
1.588719 0.545671 0.237553 43.000000
1.590386 0.540795 0.237553 43.000000
1.593919 0.536547 0.237793 43.000000
1.595557 0.531655 0.237793 43.000000
1.596238 0.526446 0.237673 43.000000
1.597846 0.521546 0.237673 43.000000
1.600383 0.516947 0.237793 43.000000
1.600071 0.511429 0.237553 43.000000
1.601632 0.506518 0.237553 43.000000
1.604126 0.501899 0.237673 43.000000
1.607555 0.497563 0.237913 43.000000
1.609073 0.492629 0.237913 43.000000
1.608677 0.487113 0.237673 43.000000
1.612066 0.482747 0.237913 43.000000
1.616394 0.478646 0.238273 43.000000
1.617855 0.473685 0.238273 43.000000
1.616441 0.467889 0.237913 43.000000
1.617869 0.462928 0.237913 43.000000
1.619281 0.457962 0.237913 43.000000
1.619723 0.452724 0.237793 43.000000
1.620147 0.447488 0.237673 43.000000
1.623428 0.443039 0.237913 43.000000
1.623821 0.437797 0.237793 43.000000
1.626115 0.433070 0.237913 43.000000
1.627436 0.428079 0.237913 43.000000
1.635467 0.424836 0.238754 43.000000
1.637724 0.420064 0.238874 43.000000
1.639967 0.415282 0.238994 43.000000
1.642197 0.410490 0.239114 43.000000
1.643448 0.405449 0.239114 43.000000
1.646613 0.400877 0.239355 43.000000
1.648800 0.396055 0.239475 43.000000
1.651940 0.391454 0.239715 43.000000
1.653133 0.386384 0.239715 43.000000
1.653343 0.381087 0.239595 43.000000
1.654505 0.376013 0.239595 43.000000
1.659525 0.371806 0.240076 43.000000
1.658719 0.366284 0.239835 43.000000
1.661775 0.361616 0.240076 43.000000
1.663847 0.356725 0.240196 43.000000
1.664934 0.351619 0.240196 43.000000
1.665033 0.346307 0.240076 43.000000
1.666087 0.341197 0.240076 43.000000
1.670045 0.336674 0.240436 43.000000
1.672044 0.331743 0.240556 43.000000
1.672080 0.326421 0.240436 43.000000
1.674048 0.321477 0.240556 43.000000
1.675027 0.316340 0.240556 43.000000
1.677941 0.311563 0.240796 43.000000
1.680842 0.306772 0.241037 43.000000
1.682752 0.301789 0.241157 43.000000
1.683670 0.296625 0.241157 43.000000
1.684572 0.291458 0.241157 43.000000
1.686437 0.286456 0.241277 43.000000
1.689266 0.281608 0.241517 43.000000
1.690122 0.276424 0.241517 43.000000
1.692923 0.271554 0.241757 43.000000
1.692767 0.266204 0.241637 43.000000
1.695538 0.261313 0.241878 43.000000
1.699276 0.256556 0.242238 43.000000
1.700056 0.251342 0.242238 43.000000
1.702784 0.246411 0.242478 43.000000
1.703532 0.241186 0.242478 43.000000
1.705247 0.236095 0.242598 43.000000
1.707930 0.231130 0.242839 43.000000
1.708632 0.225889 0.242839 43.000000
1.710301 0.220773 0.242959 43.000000
1.709985 0.215401 0.242839 43.000000
1.711623 0.210275 0.242959 43.000000
1.714232 0.205260 0.243199 43.000000
1.714853 0.200000 0.243199 43.000000
1.719404 0.195189 0.243680 43.000000
1.721968 0.190132 0.243920 43.000000
1.721557 0.184742 0.243800 43.000000
1.724090 0.179666 0.244040 43.000000
1.724633 0.174376 0.244040 43.000000
1.729112 0.169474 0.244521 43.000000
1.728635 0.164074 0.244400 43.000000
1.728142 0.158678 0.244280 43.000000
1.729609 0.153464 0.244400 43.000000
1.733039 0.148413 0.244761 43.000000
1.733487 0.143095 0.244761 43.000000
1.735897 0.137935 0.245001 43.000000
1.738291 0.132761 0.245241 43.000000
1.719879 0.126036 0.242959 43.000000
1.521126 0.715302 0.228256 44.000000
1.522412 0.710212 0.228141 44.000000
1.524584 0.705538 0.228141 44.000000
1.527645 0.701271 0.228256 44.000000
1.529789 0.696581 0.228256 44.000000
1.531919 0.691885 0.228256 44.000000
1.534034 0.687182 0.228256 44.000000
1.534319 0.681667 0.228027 44.000000
1.533675 0.675756 0.227683 44.000000
1.536652 0.671445 0.227797 44.000000
1.540528 0.667516 0.228027 44.000000
1.540743 0.662004 0.227797 44.000000
1.543681 0.657662 0.227912 44.000000
1.546606 0.653309 0.228027 44.000000
1.549520 0.648944 0.228141 44.000000
1.549668 0.643427 0.227912 44.000000
1.552554 0.639047 0.228027 44.000000
1.554507 0.634281 0.228027 44.000000
1.552761 0.628021 0.227568 44.000000
1.555603 0.623624 0.227683 44.000000
1.559355 0.619581 0.227912 44.000000
1.561249 0.614794 0.227912 44.000000
1.563128 0.610001 0.227912 44.000000
1.567772 0.606275 0.228256 44.000000
1.570553 0.601817 0.228370 44.000000
1.574250 0.597700 0.228600 44.000000
1.576076 0.592868 0.228600 44.000000
1.579750 0.588722 0.228829 44.000000
1.579684 0.583186 0.228600 44.000000
1.581466 0.578337 0.228600 44.000000
1.583233 0.573482 0.228600 44.000000
1.582179 0.567618 0.228256 44.000000
1.581104 0.561765 0.227912 44.000000
1.582820 0.556912 0.227912 44.000000
1.584521 0.552053 0.227912 44.000000
1.586207 0.547189 0.227912 44.000000
1.587879 0.542320 0.227912 44.000000
1.590476 0.537764 0.228027 44.000000
1.592119 0.532882 0.228027 44.000000
1.593746 0.527995 0.228027 44.000000
1.596303 0.523411 0.228141 44.000000
1.598846 0.518818 0.228256 44.000000
1.600430 0.513910 0.228256 44.000000
1.601999 0.508997 0.228256 44.000000
1.606397 0.504972 0.228600 44.000000
1.606990 0.499747 0.228485 44.000000
1.609465 0.495106 0.228600 44.000000
1.610977 0.490166 0.228600 44.000000
1.612473 0.485221 0.228600 44.000000
1.613001 0.479989 0.228485 44.000000
1.613513 0.474758 0.228370 44.000000
1.614008 0.469529 0.228256 44.000000
1.617351 0.465123 0.228485 44.000000
1.616859 0.459617 0.228256 44.000000
1.618261 0.454654 0.228256 44.000000
1.619648 0.449687 0.228256 44.000000
1.622937 0.445241 0.228485 44.000000
1.624295 0.440259 0.228485 44.000000
1.626598 0.435530 0.228600 44.000000
1.627927 0.430538 0.228600 44.000000
1.632124 0.426293 0.228943 44.000000
1.634386 0.421531 0.229058 44.000000
1.637597 0.417004 0.229287 44.000000
1.640796 0.412461 0.229516 44.000000
1.643018 0.407663 0.229631 44.000000
1.644261 0.402621 0.229631 44.000000
1.648386 0.398272 0.229975 44.000000
1.651533 0.393673 0.230204 44.000000
1.653700 0.388831 0.230318 44.000000
1.652950 0.383308 0.230089 44.000000
1.655086 0.378456 0.230204 44.000000
1.655270 0.373158 0.230089 44.000000
1.659317 0.368723 0.230433 44.000000
1.658500 0.363207 0.230204 44.000000
1.659606 0.358117 0.230204 44.000000
1.661669 0.353229 0.230318 44.000000
1.663717 0.348333 0.230433 44.000000
1.666724 0.343627 0.230662 44.000000
1.668744 0.338708 0.230777 44.000000
1.670750 0.333781 0.230891 44.000000
1.670791 0.328463 0.230777 44.000000
1.673742 0.323711 0.231006 44.000000
1.677655 0.319130 0.231350 44.000000
1.678626 0.313981 0.231350 44.000000
1.679582 0.308830 0.231350 44.000000
1.681499 0.303852 0.231464 44.000000
1.682423 0.298691 0.231464 44.000000
1.683332 0.293528 0.231464 44.000000
1.684224 0.288363 0.231464 44.000000
1.685101 0.283194 0.231464 44.000000
1.684982 0.277862 0.231350 44.000000
1.685826 0.272691 0.231350 44.000000
1.687636 0.267673 0.231464 44.000000
1.690413 0.262798 0.231693 44.000000
1.691211 0.257610 0.231693 44.000000
1.692976 0.252567 0.231808 44.000000
1.695709 0.247657 0.232037 44.000000
1.697445 0.242594 0.232152 44.000000
1.699165 0.237522 0.232266 44.000000
1.700870 0.232441 0.232381 44.000000
1.703545 0.227484 0.232610 44.000000
1.703249 0.222128 0.232496 44.000000
1.703923 0.216902 0.232496 44.000000
1.706552 0.211917 0.232725 44.000000
1.710153 0.207036 0.233069 44.000000
1.710780 0.201789 0.233069 44.000000
1.715339 0.196990 0.233527 44.000000
1.716923 0.191836 0.233641 44.000000
1.718491 0.186674 0.233756 44.000000
1.720044 0.181505 0.233871 44.000000
1.721581 0.176327 0.233985 44.000000
1.723102 0.171142 0.234100 44.000000
1.723619 0.165855 0.234100 44.000000
1.725109 0.160658 0.234214 44.000000
1.726583 0.155453 0.234329 44.000000
1.728042 0.150241 0.234444 44.000000
1.728495 0.144938 0.234444 44.000000
1.730912 0.139793 0.234673 44.000000
1.730342 0.134406 0.234558 44.000000
1.753532 0.130781 0.237194 44.000000
1.742034 0.124558 0.235819 44.000000
1.520133 0.720243 0.217790 45.000000
1.525035 0.716844 0.218115 45.000000
1.527227 0.712162 0.218115 45.000000
1.526698 0.706222 0.217790 45.000000
1.528857 0.701534 0.217790 45.000000
1.531907 0.697252 0.217898 45.000000
1.533133 0.692140 0.217790 45.000000
1.535249 0.687433 0.217790 45.000000
