# This PCD file was generated using the MATLAB® pcwrite function
# from Computer Vision Toolbox®.
# .PCD v.7 - Point Cloud Data file format
VERSION .7
FIELDS x y z intensity
SIZE 4 4 4 4
TYPE F F F F
COUNT 1 1 1 1
WIDTH 1242
HEIGHT 1
VIEWPOINT 0 0 0 1 0 0 0
POINTS 1242
DATA ascii
1.684918 0.948580 -0.214944 84.000000
1.712063 0.956937 -0.218580 84.000000
1.701982 0.944472 -0.216632 84.000000
1.728327 0.952150 -0.220138 84.000000
2.253649 1.223192 -0.297519 84.000000
2.261757 1.218622 -0.298168 84.000000
2.277729 1.218218 -0.299985 84.000000
2.284959 1.213083 -0.300505 84.000000
2.307973 1.216228 -0.303361 84.000000
2.339816 1.223835 -0.307516 84.000000
2.362924 1.226693 -0.310372 84.000000
2.363150 1.217623 -0.309853 84.000000
2.383651 1.218937 -0.312320 84.000000
2.381189 1.208480 -0.311411 84.000000
1.681599 0.847337 -0.208323 84.000000
1.677094 0.838631 -0.207284 84.000000
1.681436 0.834362 -0.207544 84.000000
1.683098 0.828762 -0.207414 84.000000
1.683850 0.822725 -0.207154 84.000000
1.686366 0.817555 -0.207154 84.000000
1.688866 0.812377 -0.207154 84.000000
1.691351 0.807192 -0.207154 84.000000
1.693819 0.802000 -0.207154 84.000000
1.697170 0.797220 -0.207284 84.000000
1.697809 0.791173 -0.207024 84.000000
1.698428 0.785130 -0.206765 84.000000
1.700829 0.779915 -0.206765 84.000000
1.704116 0.775103 -0.206894 84.000000
1.706486 0.769872 -0.206894 84.000000
1.705219 0.763015 -0.206375 84.000000
1.709365 0.758583 -0.206635 84.000000
1.710776 0.752936 -0.206505 84.000000
1.712169 0.747288 -0.206375 84.000000
1.713544 0.741638 -0.206245 84.000000
1.713988 0.735597 -0.205986 84.000000
1.714412 0.729560 -0.205726 84.000000
1.715728 0.723912 -0.205596 84.000000
1.719771 0.719409 -0.205856 84.000000
1.718305 0.712612 -0.205336 84.000000
1.719566 0.706960 -0.205207 84.000000
1.721727 0.701682 -0.205207 84.000000
1.721113 0.695284 -0.204817 84.000000
1.723238 0.690000 -0.204817 84.000000
1.725347 0.684710 -0.204817 84.000000
1.728362 0.679776 -0.204947 84.000000
1.729516 0.674111 -0.204817 84.000000
1.731576 0.668801 -0.204817 84.000000
1.734546 0.663840 -0.204947 84.000000
1.738429 0.659217 -0.205207 84.000000
1.740443 0.653880 -0.205207 84.000000
1.744300 0.649228 -0.205466 84.000000
1.748144 0.644559 -0.205726 84.000000
1.748250 0.638513 -0.205466 84.000000
1.751134 0.633483 -0.205596 84.000000
1.773609 0.635453 -0.208452 84.000000
1.750315 0.621072 -0.204947 84.000000
1.754083 0.616355 -0.205207 84.000000
1.756902 0.611296 -0.205336 84.000000
1.789703 0.604282 -0.209102 84.000000
0.921826 -1.994621 -0.249480 84.000000
0.898950 -1.993076 -0.248052 84.000000
2.182369 1.420047 -0.319239 85.000000
2.174233 1.405281 -0.317198 85.000000
2.179368 1.399139 -0.317334 85.000000
2.178638 1.389251 -0.316518 85.000000
2.182053 1.382030 -0.316381 85.000000
2.183767 1.373747 -0.315973 85.000000
2.186291 1.365991 -0.315701 85.000000
2.190471 1.359277 -0.315701 85.000000
2.196318 1.353590 -0.315973 85.000000
2.205531 1.349948 -0.316790 85.000000
2.209662 1.343175 -0.316790 85.000000
2.218014 1.338949 -0.317470 85.000000
2.225510 1.334175 -0.318014 85.000000
2.232147 1.328861 -0.318422 85.000000
2.237066 1.322510 -0.318558 85.000000
2.241967 1.316142 -0.318695 85.000000
2.251987 1.312750 -0.319647 85.000000
2.258576 1.307323 -0.320055 85.000000
2.146609 1.233760 -0.301687 85.000000
1.670211 0.953246 -0.225765 85.000000
1.709333 0.968624 -0.231479 85.000000
1.693299 0.952692 -0.228486 85.000000
1.698809 0.948941 -0.228894 85.000000
1.706911 0.946607 -0.229710 85.000000
1.740185 0.958083 -0.234473 85.000000
2.211731 1.208753 -0.307810 85.000000
2.236330 1.213297 -0.311075 85.000000
2.253999 1.213945 -0.313252 85.000000
2.261208 1.208892 -0.313796 85.000000
2.271908 1.205663 -0.314885 85.000000
2.287868 1.205149 -0.316790 85.000000
2.289799 1.197207 -0.316518 85.000000
2.311929 1.199756 -0.319375 85.000000
2.350831 1.210798 -0.324817 85.000000
2.371296 1.212145 -0.327402 85.000000
2.367052 1.200831 -0.326178 85.000000
1.691086 0.851518 -0.221683 85.000000
1.682168 0.840571 -0.219914 85.000000
1.690065 0.838046 -0.220730 85.000000
1.705074 0.838978 -0.222635 85.000000
1.704969 0.832439 -0.222227 85.000000
1.719998 0.833249 -0.224132 85.000000
1.692185 0.813382 -0.219506 85.000000
1.693778 0.807760 -0.219370 85.000000
1.695353 0.802136 -0.219234 85.000000
1.697806 0.796931 -0.219234 85.000000
1.697548 0.790465 -0.218825 85.000000
1.698166 0.784423 -0.218553 85.000000
1.702366 0.780034 -0.218825 85.000000
1.704751 0.774808 -0.218825 85.000000
1.706217 0.769167 -0.218689 85.000000
1.706760 0.763120 -0.218417 85.000000
1.708187 0.757479 -0.218281 85.000000
1.710503 0.752235 -0.218281 85.000000
1.711895 0.746588 -0.218145 85.000000
1.714177 0.741332 -0.218145 85.000000
1.716443 0.736070 -0.218145 85.000000
1.716870 0.730025 -0.217873 85.000000
1.718189 0.724370 -0.217737 85.000000
1.718575 0.718331 -0.217465 85.000000
1.722601 0.713814 -0.217737 85.000000
1.722033 0.707397 -0.217329 85.000000
1.725113 0.702484 -0.217465 85.000000
1.725423 0.696446 -0.217193 85.000000
1.727551 0.691150 -0.217193 85.000000
1.729663 0.685846 -0.217193 85.000000
1.732682 0.680899 -0.217329 85.000000
1.732916 0.674861 -0.217057 85.000000
1.734978 0.669541 -0.217057 85.000000
1.737024 0.664215 -0.217057 85.000000
1.737201 0.658182 -0.216785 85.000000
1.741067 0.653545 -0.217057 85.000000
1.743993 0.648545 -0.217193 85.000000
1.745044 0.642849 -0.217057 85.000000
1.745147 0.636814 -0.216785 85.000000
1.751751 0.633140 -0.217465 85.000000
1.749954 0.626428 -0.216921 85.000000
1.751868 0.621056 -0.216921 85.000000
1.756570 0.616662 -0.217329 85.000000
1.002499 -1.991083 -0.267808 85.000000
0.995058 -1.991490 -0.267399 85.000000
0.987623 -1.991870 -0.266991 85.000000
0.978010 -1.987779 -0.265903 85.000000
0.968866 -1.984538 -0.264950 85.000000
0.964931 -1.991959 -0.265631 85.000000
2.168600 1.410032 -0.332460 86.000000
2.172916 1.403372 -0.332460 86.000000
2.177211 1.396699 -0.332460 86.000000
2.181486 1.390013 -0.332460 86.000000
2.183231 1.381725 -0.332034 86.000000
2.189136 1.376075 -0.332318 86.000000
2.191668 1.368303 -0.332034 86.000000
2.192491 1.359486 -0.331467 86.000000
2.197495 1.353272 -0.331609 86.000000
2.204169 1.348074 -0.332034 86.000000
2.210832 1.342847 -0.332460 86.000000
2.214942 1.336058 -0.332460 86.000000
2.224125 1.332309 -0.333312 86.000000
2.232455 1.328010 -0.334022 86.000000
2.233962 1.319644 -0.333596 86.000000
2.241416 1.314788 -0.334164 86.000000
2.247149 1.308902 -0.334447 86.000000
2.225450 1.287130 -0.330189 86.000000
2.046566 1.175269 -0.299957 86.000000
1.664098 0.948770 -0.236226 86.000000
1.687673 0.955368 -0.239633 86.000000
1.695773 0.953097 -0.240485 86.000000
1.687453 0.941617 -0.238639 86.000000
1.680810 0.931157 -0.237078 86.000000
1.689730 0.929336 -0.238072 86.000000
2.173840 1.187046 -0.316705 86.000000
2.219239 1.203021 -0.323518 86.000000
2.213332 1.191045 -0.321957 86.000000
2.228325 1.190314 -0.323802 86.000000
2.238088 1.186719 -0.324796 86.000000
2.253105 1.185842 -0.326641 86.000000
2.261119 1.181217 -0.327350 86.000000
2.267368 1.175642 -0.327776 86.000000
2.270964 1.168680 -0.327776 86.000000
2.298339 1.173867 -0.331609 86.000000
2.328415 1.180241 -0.335867 86.000000
1.671506 0.840705 -0.229839 86.000000
1.682048 0.839553 -0.231117 86.000000
1.695259 0.839663 -0.232820 86.000000
1.705821 0.838389 -0.234097 86.000000
1.703048 0.830547 -0.233246 86.000000
1.704697 0.824887 -0.233104 86.000000
1.724173 0.827797 -0.235801 86.000000
2.333446 1.111670 -0.332176 86.000000
2.337740 1.104929 -0.332318 86.000000
1.718276 0.805587 -0.233671 86.000000
1.712662 0.796553 -0.232394 86.000000
1.696224 0.782583 -0.229413 86.000000
1.701317 0.778611 -0.229839 86.000000
1.703698 0.773388 -0.229839 86.000000
1.706063 0.768158 -0.229839 86.000000
1.704796 0.761305 -0.229271 86.000000
1.707124 0.756071 -0.229271 86.000000
1.706717 0.749635 -0.228846 86.000000
1.710824 0.745186 -0.229129 86.000000
1.712193 0.739541 -0.228988 86.000000
1.713544 0.733895 -0.228846 86.000000
1.713966 0.727860 -0.228562 86.000000
1.715278 0.722214 -0.228420 86.000000
1.715659 0.716185 -0.228136 86.000000
1.718763 0.711297 -0.228278 86.000000
1.722768 0.706773 -0.228562 86.000000
1.722178 0.700365 -0.228136 86.000000
1.722483 0.694337 -0.227852 86.000000
1.726443 0.689784 -0.228136 86.000000
1.728551 0.684484 -0.228136 86.000000
1.730643 0.679178 -0.228136 86.000000
1.732718 0.673865 -0.228136 86.000000
1.734778 0.668546 -0.228136 86.000000
1.736821 0.663221 -0.228136 86.000000
1.736996 0.657188 -0.227852 86.000000
1.739004 0.651856 -0.227852 86.000000
1.742851 0.647208 -0.228136 86.000000
1.742042 0.640832 -0.227710 86.000000
1.742140 0.634806 -0.227426 86.000000
1.758975 0.634838 -0.229697 86.000000
1.756254 0.627772 -0.228988 86.000000
1.758172 0.622381 -0.228988 86.000000
1.761007 0.617311 -0.229129 86.000000
1.757282 0.609957 -0.228278 86.000000
2.178126 1.423615 -0.351273 87.000000
2.165898 1.406148 -0.348310 87.000000
2.172695 1.401105 -0.348754 87.000000
2.179481 1.396034 -0.349199 87.000000
2.184587 1.389872 -0.349347 87.000000
2.188841 1.383164 -0.349347 87.000000
2.196424 1.378546 -0.349940 87.000000
2.198126 1.370231 -0.349495 87.000000
2.198957 1.361397 -0.348903 87.000000
2.198070 1.351534 -0.348014 87.000000
2.214019 1.352005 -0.350088 87.000000
2.218157 1.345206 -0.350088 87.000000
2.221426 1.337884 -0.349940 87.000000
2.228066 1.332586 -0.350384 87.000000
2.233844 1.326755 -0.350681 87.000000
2.237052 1.319393 -0.350532 87.000000
2.239383 1.311523 -0.350236 87.000000
2.247670 1.307134 -0.350977 87.000000
1.667734 0.962691 -0.249935 87.000000
1.659529 0.951170 -0.248009 87.000000
1.670173 0.950482 -0.249343 87.000000
1.675663 0.946814 -0.249787 87.000000
1.669076 0.936341 -0.248157 87.000000
1.671940 0.931216 -0.248157 87.000000
1.682576 0.930394 -0.249491 87.000000
2.059812 1.131044 -0.313494 87.000000
2.189146 1.193415 -0.334976 87.000000
2.207580 1.194702 -0.337495 87.000000
2.216460 1.190734 -0.338384 87.000000
2.217486 1.182531 -0.337939 87.000000
2.221103 1.175723 -0.337939 87.000000
2.233453 1.173507 -0.339421 87.000000
2.247562 1.172142 -0.341199 87.000000
2.254660 1.167061 -0.341791 87.000000
2.262627 1.162400 -0.342532 87.000000
2.289085 1.167143 -0.346384 87.000000
2.292655 1.160115 -0.346384 87.000000
1.717452 0.862120 -0.249343 87.000000
1.718319 0.855964 -0.249046 87.000000
1.721823 0.851127 -0.249195 87.000000
1.728865 0.848021 -0.249935 87.000000
1.712790 0.833613 -0.246824 87.000000
1.736706 0.838689 -0.250380 87.000000
1.736596 0.832073 -0.249935 87.000000
2.339186 1.112428 -0.349495 87.000000
2.345271 1.106514 -0.349940 87.000000
2.340595 1.095536 -0.348606 87.000000
2.350223 1.091269 -0.349643 87.000000
2.321229 1.069144 -0.344310 87.000000
2.238161 1.022525 -0.330087 87.000000
2.218773 1.005438 -0.326383 87.000000
1.994581 0.896350 -0.289048 87.000000
1.877211 0.836616 -0.269344 87.000000
1.707948 0.754793 -0.241194 87.000000
1.703917 0.746767 -0.240157 87.000000
1.707106 0.741930 -0.240305 87.000000
1.709375 0.736690 -0.240305 87.000000
1.710717 0.731053 -0.240157 87.000000
1.712042 0.725415 -0.240009 87.000000
1.712436 0.719391 -0.239713 87.000000
1.712810 0.713373 -0.239416 87.000000
1.717732 0.709249 -0.239861 87.000000
1.719900 0.703975 -0.239861 87.000000
1.722968 0.699068 -0.240009 87.000000
1.724187 0.693409 -0.239861 87.000000
1.728143 0.688849 -0.240157 87.000000
1.727490 0.682452 -0.239713 87.000000
1.735099 0.679316 -0.240602 87.000000
1.735332 0.673273 -0.240305 87.000000
1.738312 0.668302 -0.240453 87.000000
1.740354 0.662965 -0.240453 87.000000
1.740530 0.656923 -0.240157 87.000000
1.739759 0.650539 -0.239713 87.000000
1.743601 0.645887 -0.240009 87.000000
1.741861 0.639170 -0.239416 87.000000
1.754965 0.637884 -0.241194 87.000000
1.755983 0.632161 -0.241046 87.000000
1.757915 0.626771 -0.241046 87.000000
1.760762 0.621704 -0.241194 87.000000
2.219837 1.444385 -0.372782 88.000000
2.177770 1.407551 -0.364186 88.000000
2.182910 1.401397 -0.364340 88.000000
2.187199 1.394693 -0.364340 88.000000
2.191468 1.387976 -0.364340 88.000000
2.199062 1.383349 -0.364954 88.000000
2.200781 1.375027 -0.364493 88.000000
2.204149 1.367748 -0.364340 88.000000
2.207494 1.360461 -0.364186 88.000000
2.215029 1.355744 -0.364800 88.000000
2.217489 1.347916 -0.364493 88.000000
2.219922 1.340086 -0.364186 88.000000
2.224023 1.333269 -0.364186 88.000000
2.229801 1.327450 -0.364493 88.000000
2.231311 1.319095 -0.364033 88.000000
2.237052 1.313243 -0.364340 88.000000
2.247048 1.309855 -0.365414 88.000000
1.675257 0.956344 -0.261032 88.000000
1.700542 0.963855 -0.265023 88.000000
1.715053 0.958217 -0.266558 88.000000
1.714527 0.951035 -0.265944 88.000000
2.216174 1.220032 -0.354362 88.000000
2.215570 1.210860 -0.353595 88.000000
2.214931 1.201703 -0.352827 88.000000
2.223828 1.197711 -0.353748 88.000000
2.230107 1.192279 -0.354209 88.000000
2.223278 1.179878 -0.352367 88.000000
2.236506 1.178113 -0.354055 88.000000
2.238359 1.170331 -0.353748 88.000000
2.248080 1.166641 -0.354823 88.000000
2.252527 1.160191 -0.354976 88.000000
2.102065 1.074636 -0.328113 88.000000
1.834950 0.924092 -0.280527 88.000000
1.747592 0.873451 -0.264870 88.000000
1.752921 0.869401 -0.265330 88.000000
1.752919 0.862711 -0.264870 88.000000
1.726247 0.843037 -0.259804 88.000000
1.751877 0.842265 -0.263335 88.000000
2.081865 0.992823 -0.319670 88.000000
2.318087 1.096614 -0.359735 88.000000
2.337545 1.097047 -0.362498 88.000000
2.318500 1.079453 -0.358660 88.000000
2.305650 1.064885 -0.355897 88.000000
2.228935 1.021213 -0.342235 88.000000
2.174471 0.988232 -0.332411 88.000000
2.182899 0.983990 -0.333332 88.000000
2.155229 0.963591 -0.328113 88.000000
2.141912 0.949772 -0.325350 88.000000
2.103197 0.924919 -0.318289 88.000000
2.087000 0.910177 -0.315065 88.000000
1.983644 0.857932 -0.297105 88.000000
1.859096 0.797385 -0.275615 88.000000
1.746020 0.742630 -0.256120 88.000000
1.731897 0.730369 -0.253357 88.000000
1.716803 0.717820 -0.250440 88.000000
1.714432 0.710661 -0.249673 88.000000
1.719347 0.706523 -0.250133 88.000000
1.722422 0.701617 -0.250287 88.000000
1.723650 0.695960 -0.250133 88.000000
1.726694 0.691035 -0.250287 88.000000
1.730644 0.686462 -0.250594 88.000000
1.730902 0.680427 -0.250287 88.000000
1.732060 0.674755 -0.250133 88.000000
1.736888 0.670504 -0.250594 88.000000
1.736168 0.664115 -0.250133 88.000000
1.738197 0.658785 -0.250133 88.000000
1.737434 0.652409 -0.249673 88.000000
1.739428 0.647076 -0.249673 88.000000
1.741405 0.641736 -0.249673 88.000000
1.752650 0.639773 -0.251208 88.000000
1.754604 0.634393 -0.251208 88.000000
1.758403 0.629672 -0.251515 88.000000
1.754738 0.622296 -0.250594 88.000000
1.756639 0.616910 -0.250594 88.000000
2.179837 1.417862 -0.381969 89.000000
2.185005 1.411703 -0.382129 89.000000
2.189326 1.404993 -0.382129 89.000000
2.192794 1.397739 -0.381969 89.000000
2.195404 1.389949 -0.381649 89.000000
2.201329 1.384258 -0.381969 89.000000
2.203053 1.375930 -0.381490 89.000000
2.203069 1.366563 -0.380691 89.000000
2.207252 1.359798 -0.380691 89.000000
2.212255 1.353535 -0.380851 89.000000
2.215554 1.346229 -0.380691 89.000000
2.218828 1.338915 -0.380531 89.000000
2.220385 1.330580 -0.380052 89.000000
2.223608 1.323257 -0.379893 89.000000
2.225958 1.315425 -0.379573 89.000000
2.227428 1.307091 -0.379094 89.000000
2.161482 1.259508 -0.365998 89.000000
1.967086 1.138204 -0.328946 89.000000
1.715471 0.985659 -0.281352 89.000000
1.696191 0.967677 -0.277200 89.000000
1.729218 0.979492 -0.282790 89.000000
2.128269 1.188238 -0.355617 89.000000
2.254518 1.249641 -0.378296 89.000000
2.241907 1.233678 -0.375261 89.000000
2.237884 1.222536 -0.373824 89.000000
2.248567 1.219429 -0.375101 89.000000
2.240127 1.205975 -0.372865 89.000000
2.240334 1.197236 -0.372227 89.000000
2.242252 1.189433 -0.371907 89.000000
2.245891 1.182548 -0.371907 89.000000
2.239884 1.170624 -0.370150 89.000000
2.256610 1.170563 -0.372546 89.000000
2.266335 1.166796 -0.373664 89.000000
2.278695 1.164328 -0.375261 89.000000
2.026911 1.027895 -0.328946 89.000000
1.734630 0.873056 -0.275443 89.000000
1.721403 0.859794 -0.272568 89.000000
1.783299 0.883869 -0.283269 89.000000
1.754109 0.862716 -0.277519 89.000000
1.732792 0.845645 -0.273207 89.000000
1.759370 0.851936 -0.277519 89.000000
1.772654 0.851663 -0.279436 89.000000
2.244915 1.069978 -0.363602 89.000000
2.374920 1.122989 -0.386281 89.000000
2.383717 1.118213 -0.387239 89.000000
2.362969 1.099652 -0.382927 89.000000
2.210370 1.020427 -0.355138 89.000000
2.172201 0.994741 -0.347791 89.000000
2.136592 0.970524 -0.340924 89.000000
2.158462 0.972477 -0.344278 89.000000
2.152421 0.961824 -0.342680 89.000000
2.133700 0.945620 -0.338847 89.000000
2.125746 0.934305 -0.336931 89.000000
2.102357 0.916345 -0.332299 89.000000
1.973758 0.853123 -0.309142 89.000000
1.883810 0.807415 -0.292851 89.000000
1.799961 0.764968 -0.277679 89.000000
1.808668 0.762124 -0.278797 89.000000
1.787313 0.746683 -0.274644 89.000000
1.762232 0.729869 -0.269853 89.000000
1.756244 0.721086 -0.268416 89.000000
1.752047 0.713091 -0.267298 89.000000
1.729507 0.697746 -0.262986 89.000000
1.729806 0.691704 -0.262666 89.000000
1.729167 0.685303 -0.262187 89.000000
1.729423 0.679273 -0.261868 89.000000
1.732419 0.674322 -0.262028 89.000000
1.735401 0.669359 -0.262187 89.000000
1.737446 0.664032 -0.262187 89.000000
1.736705 0.657650 -0.261708 89.000000
1.736866 0.651626 -0.261389 89.000000
1.737932 0.645950 -0.261229 89.000000
1.756581 0.646751 -0.264104 89.000000
1.752992 0.639331 -0.263145 89.000000
1.746589 0.630933 -0.261708 89.000000
1.750375 0.626236 -0.262028 89.000000
1.749497 0.619875 -0.261548 89.000000
1.728055 0.594440 -0.256917 89.000000
1.728936 0.588818 -0.256757 89.000000
1.746468 0.576903 -0.258833 89.000000
2.185517 1.420495 -0.399693 90.000000
2.192349 1.415388 -0.400191 90.000000
2.196681 1.408656 -0.400191 90.000000
2.203488 1.403499 -0.400689 90.000000
2.206950 1.396205 -0.400523 90.000000
2.208719 1.387853 -0.400025 90.000000
2.211293 1.380026 -0.399693 90.000000
2.212164 1.371157 -0.399029 90.000000
2.213001 1.362295 -0.398366 90.000000
2.216329 1.354985 -0.398200 90.000000
2.217947 1.346643 -0.397702 90.000000
2.221224 1.339323 -0.397536 90.000000
2.223630 1.331489 -0.397205 90.000000
2.224315 1.322644 -0.396541 90.000000
2.228362 1.315814 -0.396541 90.000000
2.232388 1.308971 -0.396541 90.000000
1.930475 1.123937 -0.336980 90.000000
1.731597 1.001002 -0.297660 90.000000
1.710716 0.981935 -0.293014 90.000000
1.711150 0.975217 -0.292516 90.000000
1.714134 0.969962 -0.292516 90.000000
1.712803 0.962283 -0.291687 90.000000
2.273761 1.268419 -0.399195 90.000000
2.280229 1.262871 -0.399693 90.000000
2.265948 1.245889 -0.396209 90.000000
2.253314 1.229952 -0.393057 90.000000
2.262279 1.225853 -0.394052 90.000000
2.249530 1.210028 -0.390900 90.000000
2.244533 1.198475 -0.389241 90.000000
2.252556 1.193893 -0.390070 90.000000
2.259698 1.188814 -0.390734 90.000000
2.252846 1.176396 -0.388743 90.000000
2.262573 1.172656 -0.389905 90.000000
2.298604 1.182405 -0.396043 90.000000
2.133599 1.089230 -0.364189 90.000000
2.304056 1.167387 -0.395711 90.000000
1.679495 0.844360 -0.277419 90.000000
1.679430 0.837883 -0.276921 90.000000
1.717340 0.850235 -0.283557 90.000000
1.719940 0.844962 -0.283557 90.000000
1.717206 0.837088 -0.282562 90.000000
1.720654 0.832245 -0.282728 90.000000
1.838794 0.875534 -0.303798 90.000000
2.302419 1.087740 -0.389573 90.000000
2.346817 1.099928 -0.397205 90.000000
2.034546 0.945911 -0.338639 90.000000
2.117131 0.976436 -0.353405 90.000000
2.124600 0.971988 -0.354234 90.000000
2.123082 0.963427 -0.353405 90.000000
2.131423 0.959338 -0.354400 90.000000
2.140659 0.955609 -0.355562 90.000000
2.139974 0.947440 -0.354898 90.000000
2.140162 0.939680 -0.354400 90.000000
2.158405 0.939805 -0.357221 90.000000
1.808214 0.780668 -0.292516 90.000000
2.233024 0.956053 -0.369830 90.000000
1.794817 0.761848 -0.289198 90.000000
1.777151 0.747919 -0.285548 90.000000
1.762147 0.735245 -0.282396 90.000000
1.774417 0.733983 -0.284221 90.000000
1.762976 0.722921 -0.281732 90.000000
1.767012 0.718252 -0.282064 90.000000
1.767378 0.712090 -0.281732 90.000000
2.445372 0.976707 -0.404173 90.000000
2.484115 0.983361 -0.410643 90.000000
2.489874 0.976816 -0.411141 90.000000
1.745654 0.678552 -0.276257 90.000000
1.717363 0.661489 -0.270782 90.000000
1.730439 0.660439 -0.272773 90.000000
1.733379 0.655476 -0.272939 90.000000
1.731688 0.648771 -0.272276 90.000000
1.741991 0.646545 -0.273769 90.000000
1.746743 0.642219 -0.274267 90.000000
1.745925 0.635844 -0.273769 90.000000
1.734008 0.619476 -0.270948 90.000000
1.741478 0.616128 -0.271944 90.000000
1.735909 0.602197 -0.270285 90.000000
2.194075 1.414907 -0.416715 91.000000
2.200064 1.409232 -0.417058 91.000000
2.204378 1.402476 -0.417058 91.000000
2.208670 1.395706 -0.417058 91.000000
2.211273 1.387875 -0.416715 91.000000
2.213013 1.379520 -0.416199 91.000000
2.216398 1.372205 -0.416027 91.000000
2.218920 1.364366 -0.415683 91.000000
2.222255 1.357039 -0.415511 91.000000
2.223881 1.348681 -0.414995 91.000000
2.225477 1.340326 -0.414480 91.000000
2.227043 1.331974 -0.413964 91.000000
2.229426 1.324128 -0.413620 91.000000
2.229236 1.314778 -0.412760 91.000000
2.160174 1.265086 -0.397974 91.000000
1.737515 1.010150 -0.311838 91.000000
1.705638 0.984602 -0.304789 91.000000
1.737700 0.996037 -0.310634 91.000000
1.726631 0.975654 -0.307196 91.000000
1.696121 0.951534 -0.300491 91.000000
2.284920 1.273110 -0.417574 91.000000
2.291401 1.267526 -0.418090 91.000000
2.290099 1.257642 -0.417058 91.000000
2.285300 1.245891 -0.415339 91.000000
2.279583 1.233712 -0.413448 91.000000
2.268609 1.218781 -0.410525 91.000000
2.274944 1.213207 -0.411041 91.000000
2.273433 1.203454 -0.410009 91.000000
2.262293 1.188677 -0.407087 91.000000
2.279901 1.189026 -0.409837 91.000000
2.301906 1.191544 -0.413448 91.000000
2.323071 1.193487 -0.416887 91.000000
2.317070 1.181428 -0.414995 91.000000
2.332108 1.180101 -0.417230 91.000000
1.772501 0.882995 -0.306680 91.000000
1.753131 0.866627 -0.302382 91.000000
1.727488 0.847345 -0.296880 91.000000
1.738049 0.845926 -0.298427 91.000000
1.738862 0.839731 -0.298084 91.000000
1.800936 0.862948 -0.309603 91.000000
1.795570 0.853608 -0.308055 91.000000
2.105485 0.993251 -0.367371 91.000000
2.208430 1.033603 -0.386627 91.000000
2.131193 0.989449 -0.371153 91.000000
2.123483 0.977955 -0.369090 91.000000
2.126474 0.971436 -0.369090 91.000000
2.126753 0.963687 -0.368574 91.000000
2.132395 0.958370 -0.369090 91.000000
2.141622 0.954634 -0.370294 91.000000
2.138235 0.945268 -0.369090 91.000000
2.184422 0.957711 -0.377343 91.000000
2.212640 0.962015 -0.382157 91.000000
2.320494 1.000514 -0.402101 91.000000
2.396909 1.024791 -0.416027 91.000000
2.364676 1.002422 -0.409322 91.000000
1.780274 0.747940 -0.298084 91.000000
1.768014 0.736405 -0.295333 91.000000
1.771176 0.731354 -0.295505 91.000000
1.769765 0.724422 -0.294817 91.000000
1.779280 0.721956 -0.296192 91.000000
1.782400 0.716862 -0.296364 91.000000
2.462505 0.982099 -0.423764 91.000000
2.486574 0.982878 -0.427718 91.000000
2.490495 0.975604 -0.427890 91.000000
2.495313 0.968673 -0.428234 91.000000
2.501031 0.962075 -0.428750 91.000000
2.509493 0.956505 -0.429781 91.000000
2.518865 0.951240 -0.430985 91.000000
2.330815 0.871969 -0.395395 91.000000
1.751640 0.648871 -0.287080 91.000000
1.775813 0.651652 -0.291206 91.000000
2.196011 1.419869 -0.432443 92.000000
2.202842 1.414719 -0.432975 92.000000
2.205512 1.406897 -0.432620 92.000000
2.208986 1.399597 -0.432443 92.000000
2.211603 1.391766 -0.432088 92.000000
2.213359 1.383411 -0.431555 92.000000
2.217592 1.376614 -0.431555 92.000000
2.220968 1.369288 -0.431378 92.000000
2.223479 1.361440 -0.431023 92.000000
2.227645 1.354612 -0.431023 92.000000
2.229263 1.346247 -0.430491 92.000000
2.231694 1.338389 -0.430136 92.000000
2.235790 1.331536 -0.430136 92.000000
2.241559 1.325672 -0.430491 92.000000
2.089429 1.227159 -0.397844 92.000000
1.952024 1.138509 -0.368391 92.000000
1.763835 1.021642 -0.328470 92.000000
1.727706 0.993679 -0.320308 92.000000
1.776910 1.014700 -0.329889 92.000000
1.756892 0.996151 -0.325098 92.000000
2.190921 1.224216 -0.413458 92.000000
2.297102 1.274253 -0.434572 92.000000
2.298414 1.265776 -0.434039 92.000000
2.297968 1.256360 -0.433152 92.000000
2.302677 1.249773 -0.433330 92.000000
2.310833 1.245035 -0.434217 92.000000
2.317246 1.239331 -0.434749 92.000000
2.328862 1.236365 -0.436346 92.000000
2.328290 1.226923 -0.435459 92.000000
2.339021 1.223420 -0.436878 92.000000
2.340143 1.214879 -0.436346 92.000000
2.357860 1.214900 -0.439185 92.000000
2.334407 1.193782 -0.433684 92.000000
2.380192 1.207974 -0.442201 92.000000
2.301248 1.159089 -0.425523 92.000000
2.187505 1.085092 -0.401215 92.000000
1.826956 0.899487 -0.328115 92.000000
1.842975 0.900350 -0.330776 92.000000
1.822738 0.876670 -0.325631 92.000000
1.793435 0.855834 -0.319243 92.000000
2.072194 0.973098 -0.373714 92.000000
2.072493 0.965491 -0.373181 92.000000
2.119230 0.979335 -0.381875 92.000000
2.134752 0.978564 -0.384359 92.000000
2.133264 0.969975 -0.383472 92.000000
2.147895 0.968680 -0.385779 92.000000
2.119407 0.948037 -0.379569 92.000000
2.159197 0.957874 -0.386843 92.000000
2.178343 0.958371 -0.390037 92.000000
2.378858 1.037774 -0.428894 92.000000
2.374803 1.027348 -0.427474 92.000000
2.424983 1.040210 -0.436701 92.000000
2.403707 1.022377 -0.431910 92.000000
2.076696 0.875947 -0.367326 92.000000
1.765158 0.738362 -0.305936 92.000000
1.773780 0.735578 -0.307178 92.000000
1.767835 0.726770 -0.305581 92.000000
1.793757 0.730985 -0.310194 92.000000
1.774086 0.716645 -0.305936 92.000000
1.789984 0.716677 -0.308598 92.000000
2.468332 0.979026 -0.439717 92.000000
2.492393 0.979720 -0.443798 92.000000
2.501807 0.974567 -0.445040 92.000000
2.501112 0.965471 -0.444330 92.000000
2.528885 0.967275 -0.449121 92.000000
2.529079 0.958467 -0.448588 92.000000
2.506207 0.941028 -0.443620 92.000000
1.768287 0.658139 -0.301146 92.000000
1.757498 0.641884 -0.298307 92.000000
1.763162 0.637826 -0.299016 92.000000
1.757697 0.629763 -0.297597 92.000000
1.767970 0.627324 -0.299194 92.000000
2.213001 1.429785 -0.452988 93.000000
2.200830 1.412373 -0.449316 93.000000
2.204323 1.405086 -0.449132 93.000000
2.206132 1.396739 -0.448581 93.000000
2.211239 1.390488 -0.448765 93.000000
2.211325 1.381094 -0.447847 93.000000
2.214716 1.373785 -0.447663 93.000000
2.218084 1.366469 -0.447480 93.000000
2.221427 1.359144 -0.447296 93.000000
2.226426 1.352833 -0.447480 93.000000
2.228883 1.344981 -0.447112 93.000000
2.232156 1.337631 -0.446929 93.000000
2.235404 1.330274 -0.446745 93.000000
2.223394 1.313910 -0.443257 93.000000
2.123125 1.245905 -0.420673 93.000000
2.142227 1.248292 -0.423978 93.000000
1.715482 0.992678 -0.331072 93.000000
1.759436 1.010908 -0.339885 93.000000
1.837460 1.040776 -0.355308 93.000000
2.259261 1.261345 -0.444175 93.000000
2.316430 1.283946 -0.455558 93.000000
2.315190 1.273990 -0.454457 93.000000
2.324265 1.269708 -0.455558 93.000000
2.326421 1.261634 -0.455191 93.000000
2.331146 1.254957 -0.455375 93.000000
2.340187 1.250578 -0.456477 93.000000
2.348355 1.245695 -0.457395 93.000000
2.353906 1.239401 -0.457762 93.000000
2.366410 1.236725 -0.459598 93.000000
2.369320 1.229006 -0.459414 93.000000
2.378324 1.224431 -0.460516 93.000000
2.380318 1.216234 -0.460149 93.000000
2.390176 1.212037 -0.461434 93.000000
2.169078 1.091608 -0.414430 93.000000
2.222548 1.109975 -0.424896 93.000000
1.841016 0.912462 -0.344659 93.000000
1.839396 0.904641 -0.343741 93.000000
1.899590 0.927005 -0.355676 93.000000
1.844912 0.893337 -0.343741 93.000000
1.869798 0.898311 -0.348331 93.000000
1.922241 0.916247 -0.358613 93.000000
1.965035 0.929249 -0.366876 93.000000
2.034627 0.954517 -0.380646 93.000000
2.016155 0.938319 -0.376240 93.000000
1.842300 0.850578 -0.339885 93.000000
1.866352 0.854741 -0.344292 93.000000
1.919089 0.871769 -0.354574 93.000000
1.882317 0.848117 -0.346495 93.000000
2.061725 0.921314 -0.382666 93.000000
2.256877 1.000185 -0.421958 93.000000
2.340933 1.028841 -0.438483 93.000000
2.410767 1.050707 -0.452070 93.000000
2.406760 1.040187 -0.450601 93.000000
2.396386 1.026993 -0.447847 93.000000
1.811429 0.769839 -0.328502 93.000000
1.786648 0.739976 -0.322075 93.000000
1.777997 0.730013 -0.319872 93.000000
1.798439 0.731962 -0.323544 93.000000
1.796118 0.724603 -0.322626 93.000000
1.807461 0.722737 -0.324462 93.000000
2.443018 0.968043 -0.451703 93.000000
2.495389 0.979939 -0.461618 93.000000
2.496551 0.971566 -0.461250 93.000000
2.496768 0.962841 -0.460699 93.000000
2.517158 0.961841 -0.464188 93.000000
2.565146 0.971162 -0.473185 93.000000
2.568114 0.963288 -0.473185 93.000000
1.797379 0.655509 -0.318220 93.000000
1.747604 0.631300 -0.307937 93.000000
1.760640 0.629906 -0.310141 93.000000
1.751444 0.620565 -0.307937 93.000000
1.742897 0.575724 -0.303714 93.000000
2.193106 1.415338 -0.464352 94.000000
2.197438 1.408603 -0.464352 94.000000
2.200921 1.401327 -0.464163 94.000000
2.205210 1.394568 -0.464163 94.000000
2.209478 1.387796 -0.464163 94.000000
2.220389 1.385170 -0.465679 94.000000
2.213778 1.371626 -0.463216 94.000000
2.217140 1.364314 -0.463026 94.000000
2.221315 1.357505 -0.463026 94.000000
2.222952 1.349155 -0.462458 94.000000
2.227921 1.342836 -0.462648 94.000000
2.229503 1.334481 -0.462079 94.000000
2.230211 1.325628 -0.461321 94.000000
2.115051 1.248388 -0.434611 94.000000
2.150211 1.260268 -0.441620 94.000000
1.729790 1.006650 -0.346901 94.000000
1.758372 1.016081 -0.352584 94.000000
2.171938 1.246291 -0.443893 94.000000
1.756043 1.000411 -0.350690 94.000000
2.269273 1.283717 -0.463784 94.000000
2.173900 1.220958 -0.441809 94.000000
1.799476 1.003339 -0.358267 94.000000
2.333899 1.282737 -0.474582 94.000000
2.324895 1.268514 -0.471741 94.000000
2.331366 1.262779 -0.472309 94.000000
2.335229 1.255620 -0.472309 94.000000
2.344267 1.251225 -0.473446 94.000000
2.348095 1.244027 -0.473446 94.000000
2.352770 1.237274 -0.473635 94.000000
2.363518 1.233686 -0.475150 94.000000
2.375137 1.230495 -0.476855 94.000000
2.379774 1.223652 -0.477045 94.000000
2.380019 1.214559 -0.476287 94.000000
2.394245 1.212577 -0.478560 94.000000
1.732996 0.870896 -0.334966 94.000000
1.776954 0.886179 -0.343870 94.000000
1.769105 0.875495 -0.341597 94.000000
1.799984 0.883918 -0.347659 94.000000
1.826588 0.883119 -0.352205 94.000000
1.968496 0.936902 -0.381379 94.000000
1.995332 0.942182 -0.386493 94.000000
2.025775 0.948974 -0.392366 94.000000
2.026897 0.941926 -0.391987 94.000000
2.026210 0.934058 -0.391229 94.000000
2.001387 0.915175 -0.385357 94.000000
1.970208 0.893612 -0.378158 94.000000
2.319057 1.034800 -0.450713 94.000000
2.393150 1.059083 -0.465679 94.000000
2.398186 1.052525 -0.466057 94.000000
2.401404 1.045162 -0.466057 94.000000
2.399190 1.035455 -0.464921 94.000000
1.780547 0.748986 -0.333451 94.000000
1.785555 0.744654 -0.334019 94.000000
1.768777 0.731290 -0.330041 94.000000
1.789182 0.733312 -0.333830 94.000000
1.795062 0.729298 -0.334587 94.000000
1.806398 0.727457 -0.336482 94.000000
2.292878 0.907166 -0.436505 94.000000
2.487606 0.975428 -0.476287 94.000000
2.497909 0.970638 -0.477803 94.000000
2.494461 0.960499 -0.476477 94.000000
2.526751 0.964046 -0.482539 94.000000
2.538881 0.959763 -0.484433 94.000000
2.558364 0.958171 -0.487843 94.000000
2.568655 0.953051 -0.489358 94.000000
1.733042 0.630809 -0.316591 94.000000
2.171246 1.400170 -0.475052 95.000000
2.193695 1.405148 -0.479348 95.000000
2.196342 1.397358 -0.478958 95.000000
2.203105 1.392186 -0.479544 95.000000
2.203213 1.382812 -0.478567 95.000000
2.211606 1.378642 -0.479544 95.000000
2.214158 1.370817 -0.479153 95.000000
2.215012 1.361961 -0.478372 95.000000
2.216669 1.353625 -0.477786 95.000000
2.219974 1.346309 -0.477591 95.000000
2.223253 1.338985 -0.477396 95.000000
2.225668 1.331151 -0.477005 95.000000
2.167359 1.287227 -0.462556 95.000000
2.060662 1.215254 -0.436976 95.000000
1.857093 1.087401 -0.389137 95.000000
1.734977 1.008672 -0.360239 95.000000
1.806840 1.043101 -0.376055 95.000000
1.810032 1.037553 -0.376055 95.000000
2.278152 1.287721 -0.481691 95.000000
2.210267 1.240375 -0.465289 95.000000
2.337614 1.283763 -0.491650 95.000000
2.329489 1.270008 -0.488916 95.000000
2.331650 1.261921 -0.488526 95.000000
2.337238 1.255690 -0.488916 95.000000
2.344540 1.250362 -0.489697 95.000000
2.345765 1.241785 -0.489111 95.000000
2.349564 1.234582 -0.489111 95.000000
2.362904 1.232361 -0.491259 95.000000
2.370157 1.226911 -0.492040 95.000000
2.373910 1.219634 -0.492040 95.000000
2.359296 1.202981 -0.487940 95.000000
2.391847 1.210363 -0.494383 95.000000
1.772534 0.889812 -0.355552 95.000000
1.770050 0.875003 -0.353795 95.000000
1.785930 0.876055 -0.356724 95.000000
1.946198 0.925323 -0.389723 95.000000
1.995141 0.941129 -0.399877 95.000000
2.004235 0.937917 -0.401244 95.000000
2.030227 0.942513 -0.406320 95.000000
2.031327 0.935458 -0.405930 95.000000
2.031512 0.927998 -0.405344 95.000000
2.141808 0.962606 -0.428190 95.000000
2.375813 1.059164 -0.478567 95.000000
2.387123 1.055443 -0.480325 95.000000
2.391248 1.048509 -0.480520 95.000000
2.394453 1.041167 -0.480520 95.000000
2.373325 1.023321 -0.475248 95.000000
2.420609 1.017412 -0.483449 95.000000
1.805559 0.739099 -0.349109 95.000000
1.829623 0.742419 -0.353795 95.000000
1.824615 0.733870 -0.352233 95.000000
2.156466 0.852230 -0.422332 95.000000
2.471327 0.968086 -0.489111 95.000000
2.498966 0.970093 -0.494383 95.000000
2.493694 0.959249 -0.492626 95.000000
2.527779 0.963484 -0.499265 95.000000
2.527053 0.954337 -0.498484 95.000000
2.165084 1.400424 -0.489879 96.000000
2.180912 1.401183 -0.492694 96.000000
2.195938 1.401331 -0.495308 96.000000
2.201882 1.395636 -0.495710 96.000000
2.203666 1.387309 -0.495107 96.000000
2.210404 1.382099 -0.495710 96.000000
2.214634 1.375311 -0.495710 96.000000
2.218843 1.368510 -0.495710 96.000000
2.223031 1.361696 -0.495710 96.000000
2.220501 1.350800 -0.494101 96.000000
2.223796 1.343475 -0.493900 96.000000
2.226227 1.335639 -0.493498 96.000000
2.034184 1.212069 -0.446647 96.000000
2.089334 1.236226 -0.458913 96.000000
2.055945 1.207994 -0.450065 96.000000
1.795584 1.047791 -0.387329 96.000000
1.879335 1.088888 -0.406432 96.000000
2.285609 1.296053 -0.499933 96.000000
2.252797 1.152586 -0.480026 96.000000
2.196827 1.107032 -0.465548 96.000000
1.832322 0.909513 -0.380492 96.000000
1.830708 0.901726 -0.379487 96.000000
1.876602 0.917157 -0.389340 96.000000
1.828272 0.886633 -0.377677 96.000000
1.928292 0.920501 -0.399193 96.000000
1.968299 0.932170 -0.407638 96.000000
2.000415 0.939858 -0.414274 96.000000
2.044141 0.952731 -0.423523 96.000000
2.026599 0.937011 -0.418898 96.000000
1.992949 0.914065 -0.410654 96.000000
2.233870 1.016127 -0.464342 96.000000
2.320034 1.046695 -0.483042 96.000000
2.369739 1.060356 -0.493498 96.000000
2.372086 1.052684 -0.493297 96.000000
2.377995 1.046584 -0.493900 96.000000
2.365929 1.032629 -0.490482 96.000000
2.348405 1.016426 -0.485857 96.000000
2.346828 0.990204 -0.483444 96.000000
2.250430 0.941461 -0.461326 96.000000
1.802609 0.747878 -0.361189 96.000000
1.837105 0.748990 -0.367825 96.000000
1.814866 0.733454 -0.362395 96.000000
1.825294 0.731156 -0.364205 96.000000
1.829350 0.726275 -0.364607 96.000000
2.310246 0.908675 -0.470173 96.000000
2.169512 1.291076 -0.493881 97.000000
1.793412 1.052491 -0.399825 97.000000
1.770424 1.031718 -0.393417 97.000000
2.168610 1.091373 -0.473416 97.000000
1.829674 0.913845 -0.392590 97.000000
1.899100 0.941236 -0.408301 97.000000
1.851930 0.910802 -0.396518 97.000000
1.821376 0.881946 -0.388042 97.000000
1.953062 0.930931 -0.417603 97.000000
1.969177 0.931206 -0.420704 97.000000
1.928618 0.904806 -0.410574 97.000000
2.036064 0.947581 -0.434967 97.000000
2.305475 1.064314 -0.496982 97.000000
2.317931 1.010262 -0.494708 97.000000
2.215934 0.957748 -0.470522 97.000000
2.247885 0.955225 -0.476517 97.000000
2.267937 0.955540 -0.480445 97.000000
1.809495 0.755944 -0.374813 97.000000
1.790094 0.728567 -0.368818 97.000000
1.809561 0.730023 -0.372745 97.000000
1.812701 0.724831 -0.372952 97.000000
2.164110 0.849902 -0.451711 97.000000
2.197453 0.786083 -0.453571 97.000000
2.061697 1.225430 -0.481566 98.000000
1.753902 1.027905 -0.402148 98.000000
1.751136 1.019078 -0.400661 98.000000
1.824637 0.902990 -0.402785 98.000000
1.851956 0.909453 -0.408731 98.000000
1.847825 0.893392 -0.406395 98.000000
1.874344 0.899134 -0.412128 98.000000
1.967086 0.936231 -0.433788 98.000000
2.005292 0.946887 -0.442282 98.000000
2.034733 0.953171 -0.448652 98.000000
2.237316 0.957432 -0.489211 98.000000
1.778402 0.748083 -0.379639 98.000000
1.788376 0.739398 -0.380913 98.000000
1.823185 0.747256 -0.388558 98.000000
1.745806 0.709275 -0.369871 98.000000
1.803263 0.726194 -0.382824 98.000000
2.138274 0.838392 -0.459482 98.000000
2.065988 1.226959 -0.498274 99.000000
1.867226 1.101051 -0.445619 99.000000
1.754421 1.027209 -0.415469 99.000000
1.734501 1.001286 -0.408696 99.000000
1.750260 1.003246 -0.411973 99.000000
2.139827 1.090956 -0.498055 99.000000
1.820729 0.900092 -0.415032 99.000000
1.803337 0.884606 -0.410006 99.000000
1.863937 0.907289 -0.424426 99.000000
1.922256 0.921167 -0.437535 99.000000
2.038732 0.969379 -0.465720 99.000000
2.028461 0.956868 -0.462443 99.000000
2.031387 0.950640 -0.462443 99.000000
1.885090 0.792049 -0.418090 99.000000
1.788468 0.732091 -0.392965 99.000000
1.799745 0.730275 -0.395150 99.000000
1.803788 0.725479 -0.395587 99.000000
1.830474 0.729713 -0.401486 99.000000
1.893058 0.741272 -0.415469 99.000000
1.746797 1.033365 -0.426153 100.000000
1.821414 1.069922 -0.445172 100.000000
2.059452 1.053328 -0.491267 100.000000
2.011384 1.021003 -0.478065 100.000000
1.926732 0.919347 -0.450319 100.000000
2.011490 0.952170 -0.471128 100.000000
2.056758 0.965859 -0.481869 100.000000
2.144953 0.881537 -0.492609 100.000000
1.855219 0.742750 -0.418992 100.000000
1.832117 0.727005 -0.412727 100.000000
1.820668 1.075152 -0.458753 101.000000
2.018413 1.030502 -0.494561 101.000000
2.031116 1.029142 -0.497086 101.000000
1.892456 0.929910 -0.457376 101.000000
1.894425 0.923673 -0.457146 101.000000
1.914775 0.926331 -0.461737 101.000000
1.903567 0.913716 -0.458064 101.000000
2.019729 0.961835 -0.487675 101.000000
2.022671 0.955634 -0.487675 101.000000
1.873960 0.761925 -0.437176 101.000000
1.818509 0.732899 -0.422486 101.000000
1.830692 0.731286 -0.425011 101.000000
1.860983 0.736767 -0.432126 101.000000
1.754986 1.043062 -0.453902 102.000000
1.844384 1.088573 -0.478121 102.000000
1.867844 0.953097 -0.467305 102.000000
1.821554 0.915422 -0.453196 102.000000
1.850655 0.915872 -0.459545 102.000000
1.847503 0.900240 -0.457194 102.000000
1.925722 0.923792 -0.476711 102.000000
2.044476 0.830687 -0.493876 102.000000
1.854565 0.740260 -0.443085 102.000000
1.884843 0.745657 -0.450375 102.000000
1.876700 0.729147 -0.447083 102.000000
1.667741 0.997514 -0.442978 103.000000
1.712497 1.017197 -0.455040 103.000000
1.779620 0.907480 -0.456488 103.000000
1.817021 0.919564 -0.466138 103.000000
1.807145 0.893757 -0.461072 103.000000
1.833395 0.899766 -0.467585 103.000000
1.930841 0.763320 -0.476029 103.000000
1.723770 1.034493 -0.471496 104.000000
1.802717 1.074304 -0.493942 104.000000
1.866418 0.955129 -0.493448 104.000000
1.862076 0.712926 -0.467302 104.000000
0.712045 -0.370918 -0.164156 104.000000
0.717763 -0.376714 -0.166130 104.000000
0.722597 -0.382094 -0.167856 104.000000
0.700909 -0.373345 -0.161936 104.000000
0.703173 -0.377331 -0.162923 104.000000
1.735205 1.032304 -0.486002 105.000000
0.704454 -0.359952 -0.165912 105.000000
0.723129 -0.372309 -0.171713 105.000000
0.722842 -0.374972 -0.171965 105.000000
0.721689 -0.377188 -0.171965 105.000000
0.717104 -0.377595 -0.170957 105.000000
0.710814 -0.377070 -0.169443 105.000000
0.709654 -0.379249 -0.169443 105.000000
0.700821 -0.377292 -0.167173 105.000000
0.718785 -0.365415 -0.174756 106.000000
0.720241 -0.368939 -0.175530 106.000000
0.724258 -0.373803 -0.177077 106.000000
0.720536 -0.374687 -0.176303 106.000000
0.721095 -0.377792 -0.176819 106.000000
0.715659 -0.377750 -0.175530 106.000000
0.709377 -0.377224 -0.173983 106.000000
0.704809 -0.377575 -0.172952 106.000000
0.726989 -0.367686 -0.182079 107.000000
0.730158 -0.372099 -0.183397 107.000000
0.723002 -0.371261 -0.181552 107.000000
0.727861 -0.376572 -0.183397 107.000000
0.718998 -0.374801 -0.181025 107.000000
0.717845 -0.377005 -0.181025 107.000000
0.709858 -0.375606 -0.178917 107.000000
0.712110 -0.379592 -0.179971 107.000000
0.704989 -0.378589 -0.178126 107.000000
0.712454 -0.357489 -0.181830 108.000000
0.743994 -0.376237 -0.192042 108.000000
0.746267 -0.380272 -0.193117 108.000000
0.751090 -0.385647 -0.194999 108.000000
0.752468 -0.389281 -0.195805 108.000000
0.761513 -0.396944 -0.199030 108.000000
0.751770 -0.394789 -0.196342 108.000000
0.745451 -0.394384 -0.194730 108.000000
0.749333 -0.399394 -0.196342 108.000000
0.737081 -0.395752 -0.192849 108.000000
0.728244 -0.393877 -0.190430 108.000000
0.728722 -0.397034 -0.190967 108.000000
0.722438 -0.396480 -0.189355 108.000000
0.711111 -0.393088 -0.186130 108.000000
0.704856 -0.392449 -0.184517 108.000000
0.742925 -0.371208 -0.196201 109.000000
0.752087 -0.378680 -0.199493 109.000000
0.740633 -0.375759 -0.196201 109.000000
0.735197 -0.375839 -0.194830 109.000000
0.736605 -0.379415 -0.195652 109.000000
0.732024 -0.379899 -0.194555 109.000000
0.737670 -0.385711 -0.196750 109.000000
0.726276 -0.382590 -0.193458 109.000000
0.727647 -0.386170 -0.194281 109.000000
0.724763 -0.387492 -0.193732 109.000000
0.711293 -0.356137 -0.191368 110.000000
0.717912 -0.362205 -0.193889 110.000000
0.724501 -0.368318 -0.196411 110.000000
0.725077 -0.371413 -0.196971 110.000000
0.718814 -0.370997 -0.195290 110.000000
0.723636 -0.376298 -0.197251 110.000000
0.715674 -0.374955 -0.195010 110.000000
0.713671 -0.376701 -0.194730 110.000000
0.703527 -0.345093 -0.192578 111.000000
0.708483 -0.350214 -0.194576 111.000000
0.707798 -0.358014 -0.195433 111.000000
0.710968 -0.362353 -0.196861 111.000000
0.711560 -0.365406 -0.197432 111.000000
0.705324 -0.364952 -0.195719 111.000000
0.709304 -0.369765 -0.197432 111.000000
0.705619 -0.370606 -0.196575 111.000000
0.701088 -0.370981 -0.195433 111.000000
0.702273 -0.333815 -0.195275 112.000000
0.715041 -0.342604 -0.199927 112.000000
0.726902 -0.351056 -0.204287 112.000000
0.718084 -0.349505 -0.201671 112.000000
0.758212 -0.371992 -0.215624 112.000000
0.751925 -0.371765 -0.213880 112.000000
0.748213 -0.372787 -0.213008 112.000000
0.745357 -0.374219 -0.212427 112.000000
0.753590 -0.381269 -0.215624 112.000000
0.734529 -0.374428 -0.209520 112.000000
0.752087 -0.386324 -0.215915 112.000000
0.731368 -0.378487 -0.209229 112.000000
0.723421 -0.377181 -0.206903 112.000000
0.721414 -0.378952 -0.206613 112.000000
0.718558 -0.380266 -0.206031 112.000000
0.701359 -0.373893 -0.200508 112.000000
0.729688 -0.391931 -0.210683 112.000000
0.740254 -0.400559 -0.214752 112.000000
0.718875 -0.391810 -0.207776 112.000000
0.702584 -0.385703 -0.202543 112.000000
0.716457 -0.396213 -0.207776 112.000000
0.733038 -0.343888 -0.210026 113.000000
0.732843 -0.346544 -0.210323 113.000000
0.735224 -0.350437 -0.211508 113.000000
0.729842 -0.350620 -0.210026 113.000000
0.733060 -0.354941 -0.211508 113.000000
0.734542 -0.358446 -0.212396 113.000000
0.737724 -0.362808 -0.213877 113.000000
0.724629 -0.359126 -0.209730 113.000000
0.727795 -0.363483 -0.211211 113.000000
0.723265 -0.363995 -0.210026 113.000000
0.716183 -0.363185 -0.207953 113.000000
0.714215 -0.364946 -0.207657 113.000000
0.713941 -0.367573 -0.207953 113.000000
0.710267 -0.368441 -0.207064 113.000000
0.706595 -0.369290 -0.206176 113.000000
0.700098 -0.371378 -0.204695 113.000000
0.705841 -0.326734 -0.204807 114.000000
0.728169 -0.339773 -0.212949 114.000000
0.727986 -0.342410 -0.213250 114.000000
0.721762 -0.342194 -0.211441 114.000000
0.718988 -0.343585 -0.210838 114.000000
0.719649 -0.346616 -0.211441 114.000000
0.718582 -0.348822 -0.211441 114.000000
0.728645 -0.356467 -0.215361 114.000000
0.705308 -0.347749 -0.207521 114.000000
0.702309 -0.351644 -0.207220 114.000000
0.702807 -0.318687 -0.207393 115.000000
0.706028 -0.325376 -0.209233 115.000000
0.741306 -0.344330 -0.222114 115.000000
0.722995 -0.338555 -0.215980 115.000000
0.721091 -0.340367 -0.215674 115.000000
0.714883 -0.340131 -0.213834 115.000000
0.709542 -0.340271 -0.212300 115.000000
0.704207 -0.340382 -0.210767 115.000000
0.706585 -0.344203 -0.211993 115.000000
0.701250 -0.344278 -0.210460 115.000000
0.709252 -0.326529 -0.214910 116.000000
0.734945 -0.341143 -0.224577 116.000000
0.743355 -0.347839 -0.228007 116.000000
0.735414 -0.346866 -0.225512 116.000000
0.730917 -0.347484 -0.224265 116.000000
0.725566 -0.347666 -0.222706 116.000000
0.721076 -0.348232 -0.221458 116.000000
0.725127 -0.352945 -0.223329 116.000000
0.703371 -0.347675 -0.216157 116.000000
0.718780 -0.313275 -0.221032 117.000000
0.718683 -0.315860 -0.221350 117.000000
0.723778 -0.320756 -0.223572 117.000000
0.719328 -0.321426 -0.222302 117.000000
0.721796 -0.325191 -0.223572 117.000000
0.725974 -0.329760 -0.225477 117.000000
0.730993 -0.334752 -0.227699 117.000000
0.736849 -0.340176 -0.230239 117.000000
0.726347 -0.338030 -0.226747 117.000000
0.727023 -0.341063 -0.227382 117.000000
0.725973 -0.343292 -0.227382 117.000000
0.713791 -0.340208 -0.223255 117.000000
0.706762 -0.339519 -0.221032 117.000000
0.708277 -0.342926 -0.221985 117.000000
0.701257 -0.342184 -0.219763 117.000000
0.700204 -0.344334 -0.219763 117.000000
0.703392 -0.348588 -0.221350 117.000000
0.721595 -0.310274 -0.226288 118.000000
0.711954 -0.308725 -0.223060 118.000000
0.728351 -0.318484 -0.229515 118.000000
0.725638 -0.319954 -0.228870 118.000000
0.720328 -0.320258 -0.227256 118.000000
0.724525 -0.324787 -0.229192 118.000000
0.720075 -0.325451 -0.227901 118.000000
0.716488 -0.326482 -0.226933 118.000000
0.731828 -0.336178 -0.233066 118.000000
0.727357 -0.336832 -0.231775 118.000000
0.718600 -0.335463 -0.228870 118.000000
0.709858 -0.334042 -0.225965 118.000000
0.708830 -0.336219 -0.225965 118.000000
0.707795 -0.338392 -0.225965 118.000000
0.703342 -0.338920 -0.224674 118.000000
0.711314 -0.304156 -0.226841 119.000000
0.710377 -0.306337 -0.226841 119.000000
0.715503 -0.311143 -0.229137 119.000000
0.722336 -0.316740 -0.232087 119.000000
0.714445 -0.315908 -0.229464 119.000000
0.719516 -0.320782 -0.231760 119.000000
0.724564 -0.325691 -0.234055 119.000000
0.715812 -0.324414 -0.231104 119.000000
0.728571 -0.332870 -0.236350 119.000000
0.720677 -0.331952 -0.233727 119.000000
0.713653 -0.331385 -0.231432 119.000000
0.710921 -0.332774 -0.230776 119.000000
0.708187 -0.334150 -0.230120 119.000000
0.713988 -0.339557 -0.232743 119.000000
0.708680 -0.339710 -0.231104 119.000000
0.702527 -0.339425 -0.229137 119.000000
0.721251 -0.329544 -0.238128 120.000000
0.717669 -0.330568 -0.237129 120.000000
0.718360 -0.333565 -0.237795 120.000000
0.719041 -0.336570 -0.238461 120.000000
0.718857 -0.339178 -0.238794 120.000000
0.716962 -0.340975 -0.238461 120.000000
0.709964 -0.340311 -0.236131 120.000000
0.708507 -0.301061 -0.234688 121.000000
0.724877 -0.310656 -0.241450 121.000000
0.723057 -0.312505 -0.241112 121.000000
0.716057 -0.312086 -0.238745 121.000000
0.722849 -0.317694 -0.241788 121.000000
0.719290 -0.318765 -0.240774 121.000000
0.717450 -0.320585 -0.240436 121.000000
0.718179 -0.323559 -0.241112 121.000000
0.722322 -0.328099 -0.243140 121.000000
0.729867 -0.334236 -0.246521 121.000000
0.724567 -0.334499 -0.244831 121.000000
0.722684 -0.336323 -0.244493 121.000000
0.715686 -0.335738 -0.242126 121.000000
0.715504 -0.338335 -0.242464 121.000000
0.711065 -0.338907 -0.241112 121.000000
0.710022 -0.341087 -0.241112 121.000000
0.726711 -0.309687 -0.246657 122.000000
0.706768 -0.303764 -0.239107 122.000000
0.709281 -0.307424 -0.240480 122.000000
0.708334 -0.309598 -0.240480 122.000000
0.707381 -0.311770 -0.240480 122.000000
0.707280 -0.314320 -0.240823 122.000000
0.704598 -0.315721 -0.240137 122.000000
0.704482 -0.318267 -0.240480 122.000000
0.700937 -0.319261 -0.239450 122.000000
