# This PCD file was generated using the MATLAB® pcwrite function
# from Computer Vision Toolbox®.
# .PCD v.7 - Point Cloud Data file format
VERSION .7
FIELDS x y z intensity
SIZE 4 4 4 4
TYPE F F F F
COUNT 1 1 1 1
WIDTH 1249
HEIGHT 1
VIEWPOINT 0 0 0 1 0 0 0
POINTS 1249
DATA ascii
4.290084 1.965091 0.086252 61.000000
4.314301 1.960191 0.086465 61.000000
4.292943 1.934623 0.086145 61.000000
4.302511 1.923075 0.086188 61.000000
4.302905 1.907435 0.086124 61.000000
4.305991 1.893018 0.086092 61.000000
4.303528 1.876203 0.085996 61.000000
4.302839 1.860214 0.085922 61.000000
4.312202 1.848580 0.085964 61.000000
4.307730 1.831039 0.085847 61.000000
4.312406 1.817426 0.085836 61.000000
4.309657 1.800719 0.085741 61.000000
4.309618 1.785193 0.085677 61.000000
4.312300 1.770823 0.085645 61.000000
4.314934 1.756454 0.085613 61.000000
4.311956 1.739841 0.085517 61.000000
4.313560 1.725119 0.085474 61.000000
4.314184 1.710035 0.085421 61.000000
4.311033 1.693502 0.085325 61.000000
4.327391 1.684620 0.085453 61.000000
4.321343 1.667018 0.085325 61.000000
4.325503 1.653396 0.085315 61.000000
4.328685 1.639409 0.085293 61.000000
4.330885 1.625067 0.085262 61.000000
4.333039 1.610728 0.085230 61.000000
4.335145 1.596390 0.085198 61.000000
4.335325 1.581370 0.085144 61.000000
4.336394 1.566703 0.085102 61.000000
4.337415 1.552045 0.085059 61.000000
4.339328 1.537729 0.085027 61.000000
4.341195 1.523415 0.084995 61.000000
4.343959 1.509433 0.084974 61.000000
4.347624 1.495774 0.084963 61.000000
4.344620 1.479850 0.084878 61.000000
4.346297 1.465556 0.084846 61.000000
4.349824 1.451898 0.084836 61.000000
4.350460 1.437292 0.084793 61.000000
4.356750 1.424559 0.084814 61.000000
4.359197 1.410571 0.084793 61.000000
4.364457 1.397495 0.084804 61.000000
4.366817 1.383495 0.084782 61.000000
4.365315 1.368297 0.084719 61.000000
4.976941 1.543199 0.091490 61.000000
4.942455 1.515904 0.091053 61.000000
4.954738 1.503056 0.091138 61.000000
4.971777 1.491582 0.091277 61.000000
3.569945 -1.364364 0.076702 61.000000
3.563877 -1.374590 0.076681 61.000000
3.558711 -1.385155 0.076670 61.000000
3.551653 -1.394969 0.076638 61.000000
3.543638 -1.404385 0.076595 61.000000
3.535599 -1.413765 0.076553 61.000000
3.527536 -1.423108 0.076510 61.000000
3.521301 -1.433170 0.076489 61.000000
3.513188 -1.442447 0.076446 61.000000
3.506898 -1.452453 0.076425 61.000000
3.498735 -1.461663 0.076383 61.000000
3.495156 -1.472778 0.076393 61.000000
3.487860 -1.482321 0.076361 61.000000
3.479620 -1.491438 0.076319 61.000000
3.472274 -1.500916 0.076287 61.000000
3.464904 -1.510363 0.076255 61.000000
3.460253 -1.520986 0.076255 61.000000
3.452828 -1.530379 0.076223 61.000000
3.448117 -1.540964 0.076223 61.000000
3.441550 -1.550714 0.076202 61.000000
3.430404 -1.558370 0.076127 61.000000
3.421061 -1.566804 0.076074 61.000000
3.419869 -1.578970 0.076116 61.000000
3.415009 -1.589454 0.076116 61.000000
3.402875 -1.596525 0.076031 61.000000
3.401577 -1.608668 0.076074 61.000000
3.393917 -1.617805 0.076042 61.000000
3.385333 -1.626477 0.075999 61.000000
3.378527 -1.635984 0.075978 61.000000
3.371695 -1.645464 0.075957 61.000000
3.362145 -1.653594 0.075903 61.000000
3.348993 -1.659904 0.075808 61.000000
3.343884 -1.670170 0.075808 61.000000
3.336065 -1.679072 0.075776 61.000000
3.330006 -1.688847 0.075765 61.000000
3.325700 -1.699510 0.075776 61.000000
3.321359 -1.710163 0.075786 61.000000
3.316984 -1.720806 0.075797 61.000000
3.312576 -1.731437 0.075808 61.000000
3.305479 -1.740660 0.075786 61.000000
3.300123 -1.750793 0.075786 61.000000
3.295618 -1.761381 0.075797 61.000000
3.289318 -1.771009 0.075786 61.000000
3.287385 -1.783000 0.075829 61.000000
3.280144 -1.792118 0.075808 61.000000
3.274631 -1.802173 0.075808 61.000000
3.265588 -1.810271 0.075765 61.000000
3.257400 -1.818818 0.075733 61.000000
3.250062 -1.827823 0.075712 61.000000
3.241828 -1.836306 0.075680 61.000000
3.236180 -1.846244 0.075680 61.000000
3.227032 -1.854170 0.075637 61.000000
3.224790 -1.866066 0.075680 61.000000
3.219050 -1.875950 0.075680 61.000000
3.184822 -1.869112 0.075329 61.000000
4.053023 1.978056 0.055005 62.000000
4.108572 1.989587 0.055236 62.000000
4.155215 1.996464 0.055424 62.000000
4.165834 1.985859 0.055445 62.000000
4.186370 1.979911 0.055512 62.000000
4.218678 1.979378 0.055633 62.000000
4.239235 1.973179 0.055701 62.000000
4.277043 1.974838 0.055847 62.000000
4.317629 1.977534 0.056006 62.000000
4.335511 1.969656 0.056061 62.000000
4.285922 1.931281 0.055805 62.000000
4.284523 1.914858 0.055772 62.000000
4.292206 1.902515 0.055780 62.000000
4.294361 1.887727 0.055763 62.000000
4.295549 1.872545 0.055742 62.000000
4.293931 1.856183 0.055709 62.000000
4.293172 1.840242 0.055680 62.000000
4.293275 1.824715 0.055654 62.000000
4.293324 1.809204 0.055629 62.000000
4.298855 1.796024 0.055629 62.000000
4.301573 1.781679 0.055617 62.000000
4.305169 1.767714 0.055608 62.000000
4.306868 1.752989 0.055592 62.000000
4.308516 1.738271 0.055575 62.000000
4.309186 1.723187 0.055554 62.000000
4.312593 1.709222 0.055546 62.000000
4.311302 1.693423 0.055516 62.000000
4.312749 1.678737 0.055499 62.000000
4.317879 1.665498 0.055499 62.000000
4.319232 1.650814 0.055483 62.000000
4.326147 1.638264 0.055491 62.000000
4.333025 1.625686 0.055499 62.000000
4.338930 1.612734 0.055504 62.000000
4.343857 1.599414 0.055504 62.000000
4.345925 1.585052 0.055491 62.000000
4.341363 1.568313 0.055449 62.000000
4.340505 1.552965 0.055424 62.000000
4.340537 1.537971 0.055403 62.000000
4.339573 1.522660 0.055378 62.000000
4.342335 1.508683 0.055370 62.000000
4.347888 1.495679 0.055374 62.000000
4.351510 1.482010 0.055370 62.000000
4.350351 1.466736 0.055344 62.000000
4.353882 1.453065 0.055340 62.000000
4.353572 1.438132 0.055319 62.000000
4.359865 1.425391 0.055328 62.000000
4.361363 1.411084 0.055315 62.000000
4.365672 1.397697 0.055315 62.000000
4.371846 1.384901 0.055324 62.000000
4.927601 1.544385 0.057745 62.000000
4.934227 1.529852 0.057753 62.000000
4.930293 1.512067 0.057715 62.000000
4.935865 1.497225 0.057720 62.000000
4.933731 1.480063 0.057690 62.000000
4.953588 1.469471 0.057757 62.000000
3.563478 -1.362190 0.052094 62.000000
3.557416 -1.372396 0.052086 62.000000
3.553189 -1.383304 0.052086 62.000000
3.546136 -1.393102 0.052073 62.000000
3.539056 -1.402869 0.052060 62.000000
3.529164 -1.411493 0.052035 62.000000
3.518326 -1.419695 0.052006 62.000000
3.510249 -1.428974 0.051989 62.000000
3.502148 -1.438218 0.051973 62.000000
3.497719 -1.448955 0.051973 62.000000
3.494180 -1.460065 0.051977 62.000000
3.488762 -1.470390 0.051973 62.000000
3.478713 -1.478740 0.051947 62.000000
3.473241 -1.489011 0.051943 62.000000
3.464067 -1.497676 0.051922 62.000000
3.460372 -1.508696 0.051926 62.000000
3.452981 -1.518098 0.051914 62.000000
3.445565 -1.527469 0.051901 62.000000
3.439949 -1.537625 0.051897 62.000000
3.428833 -1.545296 0.051868 62.000000
3.426808 -1.557049 0.051880 62.000000
3.416559 -1.565057 0.051855 62.000000
3.411742 -1.575531 0.051855 62.000000
3.404172 -1.584725 0.051843 62.000000
3.397484 -1.594312 0.051834 62.000000
3.387152 -1.602163 0.051809 62.000000
3.382221 -1.612547 0.051809 62.000000
3.374554 -1.621617 0.051797 62.000000
3.365063 -1.629783 0.051776 62.000000
3.359148 -1.639661 0.051771 62.000000
3.350513 -1.648193 0.051755 62.000000
3.340064 -1.655801 0.051730 62.000000
3.335863 -1.666487 0.051734 62.000000
3.328055 -1.675365 0.051721 62.000000
3.323792 -1.686019 0.051725 62.000000
3.320384 -1.697119 0.051734 62.000000
3.316051 -1.707755 0.051738 62.000000
3.309908 -1.717460 0.051734 62.000000
3.303737 -1.727144 0.051730 62.000000
3.296653 -1.736339 0.051721 62.000000
3.289544 -1.745508 0.051713 62.000000
3.284173 -1.755592 0.051713 62.000000
3.277891 -1.765185 0.051709 62.000000
3.271581 -1.774757 0.051704 62.000000
3.268754 -1.786224 0.051717 62.000000
3.264135 -1.796726 0.051721 62.000000
3.260356 -1.807701 0.051730 62.000000
3.252176 -1.816233 0.051717 62.000000
3.244845 -1.825222 0.051709 62.000000
3.239230 -1.835168 0.051709 62.000000
3.233584 -1.845097 0.051709 62.000000
3.227908 -1.855009 0.051709 62.000000
3.224799 -1.866406 0.051721 62.000000
3.188818 -1.858669 0.051575 62.000000
4.006080 1.969302 0.026864 63.000000
4.082199 1.991216 0.026700 63.000000
4.121589 1.994810 0.026623 63.000000
4.186105 1.994442 0.026501 63.000000
4.216612 1.993135 0.026445 63.000000
4.258013 1.996756 0.026363 63.000000
4.287690 1.994656 0.026309 63.000000
4.325565 1.996165 0.026235 63.000000
4.336215 1.984967 0.026225 63.000000
4.268539 1.938149 0.026395 63.000000
4.267172 1.921757 0.026411 63.000000
4.270308 1.907432 0.026418 63.000000
4.276141 1.894322 0.026418 63.000000
4.281017 1.880792 0.026420 63.000000
4.284017 1.866450 0.026426 63.000000
4.286051 1.851711 0.026434 63.000000
4.288035 1.836977 0.026443 63.000000
4.285368 1.820292 0.026462 63.000000
4.288168 1.805971 0.026468 63.000000
4.289075 1.790879 0.026478 63.000000
4.292702 1.776946 0.026483 63.000000
4.295358 1.762628 0.026489 63.000000
4.297967 1.748311 0.026495 63.000000
4.301455 1.734368 0.026499 63.000000
4.304899 1.720421 0.026503 63.000000
4.306439 1.705732 0.026512 63.000000
4.307929 1.691049 0.026520 63.000000
4.310301 1.676736 0.026527 63.000000
4.312625 1.662425 0.026533 63.000000
4.315837 1.648472 0.026537 63.000000
4.321810 1.635577 0.026535 63.000000
4.328680 1.623013 0.026531 63.000000
4.334576 1.610074 0.026529 63.000000
4.338557 1.596422 0.026531 63.000000
4.340616 1.582076 0.026537 63.000000
4.340747 1.567053 0.026547 63.000000
4.338002 1.551033 0.026564 63.000000
4.337084 1.535713 0.026577 63.000000
4.339888 1.521738 0.026581 63.000000
4.344536 1.508416 0.026581 63.000000
4.348198 1.494755 0.026583 63.000000
4.352764 1.481407 0.026583 63.000000
4.355393 1.467407 0.026587 63.000000
4.358926 1.453722 0.026589 63.000000
4.367163 1.441597 0.026581 63.000000
4.363011 1.425394 0.026600 63.000000
4.367363 1.412002 0.026600 63.000000
4.366913 1.397072 0.026610 63.000000
4.386432 1.388500 0.026577 63.000000
4.904041 1.535952 0.025450 63.000000
4.923057 1.525342 0.025419 63.000000
4.930582 1.511111 0.025412 63.000000
4.935194 1.495977 0.025412 63.000000
4.956044 1.485714 0.025377 63.000000
3.557008 -1.348230 0.028246 63.000000
3.552855 -1.359136 0.028246 63.000000
3.548668 -1.370030 0.028246 63.000000
3.541653 -1.379823 0.028252 63.000000
3.535541 -1.389951 0.028257 63.000000
3.524753 -1.398212 0.028271 63.000000
3.512090 -1.405677 0.028290 63.000000
3.503124 -1.414575 0.028300 63.000000
3.497841 -1.424939 0.028303 63.000000
3.493453 -1.435663 0.028303 63.000000
3.490880 -1.447140 0.028298 63.000000
3.490115 -1.459385 0.028290 63.000000
3.484699 -1.469697 0.028292 63.000000
3.472811 -1.477252 0.028309 63.000000
3.465506 -1.486717 0.028315 63.000000
3.459092 -1.496549 0.028319 63.000000
3.452651 -1.506355 0.028324 63.000000
3.445267 -1.515733 0.028330 63.000000
3.438772 -1.525485 0.028334 63.000000
3.431337 -1.534804 0.028340 63.000000
3.423877 -1.544092 0.028347 63.000000
3.416393 -1.553348 0.028353 63.000000
3.409792 -1.562989 0.028357 63.000000
3.403165 -1.572604 0.028361 63.000000
3.395605 -1.581772 0.028368 63.000000
3.388926 -1.591332 0.028372 63.000000
3.381315 -1.600439 0.028378 63.000000
3.373681 -1.609515 0.028384 63.000000
3.366024 -1.618558 0.028391 63.000000
3.358342 -1.627570 0.028397 63.000000
3.352434 -1.637427 0.028399 63.000000
3.348292 -1.648146 0.028397 63.000000
3.339636 -1.656634 0.028405 63.000000
3.332749 -1.665978 0.028409 63.000000
3.328515 -1.676645 0.028407 63.000000
3.325139 -1.687753 0.028403 63.000000
3.319946 -1.697947 0.028403 63.000000
3.313832 -1.707666 0.028405 63.000000
3.306802 -1.716904 0.028409 63.000000
3.298860 -1.725651 0.028416 63.000000
3.294435 -1.736230 0.028414 63.000000
3.285559 -1.744454 0.028422 63.000000
3.274901 -1.751698 0.028435 63.000000
3.269511 -1.761737 0.028435 63.000000
3.261454 -1.770329 0.028441 63.000000
3.258640 -1.781765 0.028435 63.000000
3.251406 -1.790790 0.028439 63.000000
3.247646 -1.801726 0.028435 63.000000
3.238610 -1.809731 0.028443 63.000000
3.233914 -1.820149 0.028441 63.000000
3.226575 -1.829076 0.028445 63.000000
3.221817 -1.839462 0.028443 63.000000
3.214424 -1.848341 0.028447 63.000000
3.208738 -1.858194 0.028447 63.000000
0.725295 -0.806893 0.033941 63.000000
0.714812 -0.800174 0.033966 63.000000
0.701053 -0.789662 0.034001 63.000000
4.053480 1.994990 0.000820 64.000000
4.349478 1.977249 -0.001222 64.000000
4.358259 1.965129 -0.001245 64.000000
4.314968 1.929716 -0.000821 64.000000
4.290699 1.903097 -0.000562 64.000000
4.301095 1.891936 -0.000601 64.000000
4.323379 1.885924 -0.000743 64.000000
4.325473 1.871064 -0.000711 64.000000
4.310054 1.848724 -0.000531 64.000000
4.296380 1.827278 -0.000366 64.000000
4.299201 1.812924 -0.000342 64.000000
4.305665 1.800111 -0.000350 64.000000
4.298234 1.781536 -0.000240 64.000000
4.297204 1.765682 -0.000185 64.000000
4.299822 1.751359 -0.000162 64.000000
4.303320 1.737411 -0.000146 64.000000
4.303059 1.721972 -0.000099 64.000000
4.308322 1.708763 -0.000099 64.000000
4.311683 1.694806 -0.000083 64.000000
4.312202 1.679756 -0.000044 64.000000
4.317336 1.666519 -0.000044 64.000000
4.317758 1.651480 -0.000004 64.000000
4.319999 1.637164 0.000019 64.000000
4.327810 1.624956 -0.000004 64.000000
4.332775 1.611671 -0.000004 64.000000
4.334884 1.597334 0.000019 64.000000
4.340703 1.584370 0.000011 64.000000
4.344603 1.570706 0.000019 64.000000
4.344694 1.555685 0.000058 64.000000
4.345676 1.541012 0.000090 64.000000
4.348496 1.527010 0.000106 64.000000
4.352216 1.513334 0.000113 64.000000
4.353056 1.498673 0.000145 64.000000
4.355741 1.484667 0.000160 64.000000
4.356484 1.470019 0.000192 64.000000
4.359077 1.456013 0.000208 64.000000
4.364473 1.442946 0.000200 64.000000
4.367929 1.429239 0.000208 64.000000
4.379904 1.418294 0.000145 64.000000
4.377569 1.402716 0.000200 64.000000
4.386618 1.390789 0.000160 64.000000
4.389910 1.377025 0.000168 64.000000
4.887910 1.516645 -0.003892 64.000000
4.926957 1.512197 -0.004175 64.000000
4.954539 1.504040 -0.004363 64.000000
4.939974 1.483087 -0.004206 64.000000
4.934914 1.465080 -0.004128 64.000000
3.563657 -1.335953 0.006412 64.000000
3.559542 -1.346880 0.006412 64.000000
3.553524 -1.357080 0.006428 64.000000
3.546546 -1.366896 0.006451 64.000000
3.537676 -1.375956 0.006491 64.000000
3.527853 -1.384609 0.006538 64.000000
3.519871 -1.393952 0.006569 64.000000
3.510007 -1.402517 0.006616 64.000000
3.501051 -1.411408 0.006656 64.000000
3.497630 -1.422519 0.006648 64.000000
3.496025 -1.434383 0.006624 64.000000
3.492531 -1.445484 0.006616 64.000000
3.489003 -1.456578 0.006609 64.000000
3.483596 -1.466887 0.006616 64.000000
3.474478 -1.475611 0.006656 64.000000
3.467177 -1.485082 0.006679 64.000000
3.459851 -1.494522 0.006703 64.000000
3.452500 -1.503931 0.006726 64.000000
3.447870 -1.514516 0.006726 64.000000
3.442293 -1.524681 0.006734 64.000000
3.436686 -1.534827 0.006742 64.000000
3.429226 -1.544131 0.006766 64.000000
3.421741 -1.553403 0.006789 64.000000
3.413323 -1.562228 0.006821 64.000000
3.404883 -1.571015 0.006852 64.000000
3.395514 -1.579344 0.006891 64.000000
3.389748 -1.589329 0.006899 64.000000
3.383048 -1.598866 0.006915 64.000000
3.377224 -1.608807 0.006923 64.000000
3.371371 -1.618728 0.006931 64.000000
3.364589 -1.628192 0.006946 64.000000
3.358679 -1.638068 0.006954 64.000000
3.350946 -1.647040 0.006978 64.000000
3.345877 -1.657313 0.006978 64.000000
3.339882 -1.667123 0.006986 64.000000
3.336538 -1.678261 0.006970 64.000000
3.326915 -1.686228 0.007009 64.000000
3.320835 -1.695972 0.007017 64.000000
3.312950 -1.704779 0.007041 64.000000
3.308591 -1.715395 0.007033 64.000000
3.303313 -1.725538 0.007033 64.000000
3.294465 -1.733800 0.007064 64.000000
3.286480 -1.742493 0.007088 64.000000
3.282001 -1.753039 0.007080 64.000000
3.275726 -1.762626 0.007088 64.000000
3.265029 -1.769806 0.007135 64.000000
3.256952 -1.778376 0.007158 64.000000
3.254985 -1.790289 0.007127 64.000000
3.251226 -1.801237 0.007111 64.000000
3.241319 -1.808765 0.007150 64.000000
3.237498 -1.819681 0.007135 64.000000
3.226680 -1.826648 0.007182 64.000000
3.218455 -1.835052 0.007205 64.000000
3.211076 -1.843921 0.007221 64.000000
3.231368 -1.868790 0.006986 64.000000
0.713990 -0.786069 0.027963 64.000000
0.758422 -0.840266 0.027414 64.000000
0.761843 -0.849294 0.027343 64.000000
0.753252 -0.844903 0.027414 64.000000
0.759930 -0.857698 0.027304 64.000000
0.707129 -0.802938 0.027900 64.000000
4.380779 1.992228 -0.032474 65.000000
4.364083 1.968502 -0.032116 65.000000
4.358236 1.949796 -0.031930 65.000000
4.346831 1.928712 -0.031658 65.000000
4.342660 1.910938 -0.031500 65.000000
4.332006 1.890409 -0.031243 65.000000
4.325855 1.871948 -0.031057 65.000000
4.306767 1.848024 -0.030670 65.000000
4.305976 1.832063 -0.030570 65.000000
4.306049 1.816512 -0.030484 65.000000
4.274702 1.787863 -0.029912 65.000000
4.303258 1.784313 -0.030270 65.000000
4.294840 1.765401 -0.030055 65.000000
4.298384 1.751462 -0.030026 65.000000
4.305591 1.739016 -0.030055 65.000000
4.298838 1.720968 -0.029869 65.000000
4.287368 1.701135 -0.029611 65.000000
4.292567 1.687973 -0.029611 65.000000
4.303315 1.676974 -0.029697 65.000000
4.308440 1.663764 -0.029697 65.000000
4.297648 1.644464 -0.029454 65.000000
4.299868 1.630208 -0.029411 65.000000
4.310465 1.619118 -0.029497 65.000000
4.320098 1.607629 -0.029568 65.000000
4.321257 1.592985 -0.029511 65.000000
4.331759 1.581777 -0.029597 65.000000
4.327189 1.565080 -0.029454 65.000000
4.336677 1.553483 -0.029526 65.000000
4.347077 1.542176 -0.029611 65.000000
4.349901 1.528169 -0.029583 65.000000
4.351736 1.513831 -0.029540 65.000000
4.352578 1.499171 -0.029483 65.000000
4.354317 1.484843 -0.029440 65.000000
4.355062 1.470198 -0.029382 65.000000
4.358604 1.456513 -0.029368 65.000000
4.364002 1.443448 -0.029382 65.000000
4.370310 1.430675 -0.029411 65.000000
4.380386 1.419109 -0.029497 65.000000
4.391385 1.407799 -0.029597 65.000000
4.531027 1.437239 -0.031629 65.000000
4.639406 1.455957 -0.033189 65.000000
4.746986 1.473727 -0.034735 65.000000
4.843248 1.487329 -0.036109 65.000000
4.839178 1.469848 -0.035980 65.000000
4.877182 1.465060 -0.036481 65.000000
4.989967 1.482256 -0.038098 65.000000
3.570466 -1.325618 -0.018105 65.000000
3.564509 -1.335864 -0.018077 65.000000
3.560394 -1.346793 -0.018077 65.000000
3.554377 -1.356996 -0.018048 65.000000
3.549264 -1.367535 -0.018034 65.000000
3.541324 -1.376968 -0.017976 65.000000
3.534291 -1.386730 -0.017933 65.000000
3.526301 -1.396094 -0.017876 65.000000
3.518288 -1.405422 -0.017819 65.000000
3.512105 -1.415461 -0.017790 65.000000
3.505893 -1.425476 -0.017762 65.000000
3.500578 -1.435846 -0.017747 65.000000
3.494309 -1.445814 -0.017719 65.000000
3.486166 -1.454987 -0.017662 65.000000
3.480764 -1.465287 -0.017647 65.000000
3.470730 -1.473614 -0.017561 65.000000
3.465274 -1.483862 -0.017547 65.000000
3.455197 -1.492107 -0.017461 65.000000
3.449687 -1.502301 -0.017447 65.000000
3.444146 -1.512475 -0.017433 65.000000
3.440404 -1.523439 -0.017447 65.000000
3.441192 -1.536434 -0.017533 65.000000
3.434638 -1.546163 -0.017504 65.000000
3.423505 -1.553800 -0.017404 65.000000
3.416904 -1.563463 -0.017375 65.000000
3.405736 -1.571006 -0.017275 65.000000
3.395460 -1.578917 -0.017189 65.000000
3.391505 -1.589751 -0.017204 65.000000
3.383900 -1.598867 -0.017161 65.000000
3.378076 -1.608811 -0.017146 65.000000
3.373125 -1.619168 -0.017146 65.000000
3.367241 -1.629073 -0.017132 65.000000
3.359531 -1.638081 -0.017089 65.000000
3.353593 -1.647939 -0.017075 65.000000
3.345833 -1.656888 -0.017032 65.000000
3.338945 -1.666252 -0.017003 65.000000
3.331137 -1.675140 -0.016960 65.000000
3.326874 -1.685804 -0.016975 65.000000
3.319015 -1.694639 -0.016932 65.000000
3.310244 -1.702983 -0.016874 65.000000
3.306779 -1.714051 -0.016903 65.000000
3.298846 -1.722800 -0.016860 65.000000
3.293545 -1.732912 -0.016860 65.000000
3.287330 -1.742540 -0.016846 65.000000
3.281086 -1.752146 -0.016832 65.000000
3.273054 -1.760783 -0.016789 65.000000
3.265878 -1.769863 -0.016760 65.000000
3.259555 -1.779395 -0.016746 65.000000
3.255833 -1.790351 -0.016774 65.000000
3.250325 -1.800331 -0.016774 65.000000
3.248279 -1.812243 -0.016832 65.000000
3.242704 -1.822200 -0.016832 65.000000
3.237098 -1.832140 -0.016832 65.000000
3.229725 -1.841072 -0.016803 65.000000
3.233599 -1.856450 -0.016960 65.000000
0.729655 -0.789294 0.021022 65.000000
0.777271 -0.846034 0.019963 65.000000
0.778716 -0.852846 0.019877 65.000000
0.755945 -0.833011 0.020306 65.000000
0.749369 -0.830869 0.020392 65.000000
0.738811 -0.824227 0.020564 65.000000
0.730295 -0.819768 0.020692 65.000000
0.723801 -0.817512 0.020778 65.000000
0.711386 -0.808465 0.020993 65.000000
4.377413 1.988697 -0.062528 66.000000
4.366176 1.967452 -0.062137 66.000000
4.357587 1.947519 -0.061808 66.000000
4.349832 1.928063 -0.061499 66.000000
4.341083 1.908270 -0.061169 66.000000
4.335919 1.890148 -0.060922 66.000000
4.313250 1.864536 -0.060284 66.000000
4.297815 1.842233 -0.059810 66.000000
4.289645 1.823172 -0.059501 66.000000
4.278636 1.803013 -0.059130 66.000000
4.274000 1.785637 -0.058904 66.000000
4.264679 1.766394 -0.058574 66.000000
4.261755 1.749883 -0.058389 66.000000
4.254139 1.731522 -0.058101 66.000000
4.236253 1.709109 -0.057586 66.000000
4.249831 1.699446 -0.057771 66.000000
4.232719 1.677557 -0.057277 66.000000
4.204346 1.651402 -0.056536 66.000000
4.203803 1.636319 -0.056412 66.000000
4.220929 1.628093 -0.056680 66.000000
4.217499 1.611922 -0.056494 66.000000
4.220555 1.598267 -0.056453 66.000000
4.182381 1.569152 -0.055506 66.000000
4.253710 1.581050 -0.056968 66.000000
4.269799 1.572139 -0.057215 66.000000
4.283055 1.562116 -0.057401 66.000000
4.292529 1.550667 -0.057504 66.000000
4.302914 1.539512 -0.057627 66.000000
4.308559 1.526637 -0.057648 66.000000
4.299072 1.508445 -0.057339 66.000000
4.323512 1.502141 -0.057771 66.000000
4.332827 1.490496 -0.057874 66.000000
4.341165 1.478486 -0.057957 66.000000
4.351365 1.467077 -0.058080 66.000000
4.352052 1.452454 -0.057998 66.000000
4.380220 1.446938 -0.058513 66.000000
4.396041 1.437222 -0.058760 66.000000
4.390918 1.420650 -0.058554 66.000000
4.407634 1.411136 -0.058821 66.000000
4.440535 1.406667 -0.059439 66.000000
4.452462 1.395429 -0.059604 66.000000
4.514972 1.399828 -0.060860 66.000000
4.524980 1.387729 -0.060984 66.000000
4.746392 1.439735 -0.065659 66.000000
3.561083 -1.323841 -0.041750 66.000000
3.554196 -1.333707 -0.041688 66.000000
3.548218 -1.343897 -0.041647 66.000000
3.542210 -1.354062 -0.041605 66.000000
3.537107 -1.364563 -0.041585 66.000000
3.531972 -1.375046 -0.041564 66.000000
3.526806 -1.385510 -0.041544 66.000000
3.526256 -1.397797 -0.041626 66.000000
3.520095 -1.407866 -0.041585 66.000000
3.512977 -1.417537 -0.041523 66.000000
3.507686 -1.427931 -0.041502 66.000000
3.495889 -1.435648 -0.041338 66.000000
3.488698 -1.445219 -0.041276 66.000000
3.478712 -1.453603 -0.041152 66.000000
3.470551 -1.462716 -0.041070 66.000000
3.461446 -1.471402 -0.040967 66.000000
3.454159 -1.480833 -0.040905 66.000000
3.445928 -1.489836 -0.040823 66.000000
3.438592 -1.499203 -0.040761 66.000000
3.430315 -1.508136 -0.040679 66.000000
3.423844 -1.517843 -0.040637 66.000000
3.422822 -1.529972 -0.040720 66.000000
3.410820 -1.537180 -0.040555 66.000000
3.407908 -1.548464 -0.040596 66.000000
3.403142 -1.558912 -0.040596 66.000000
3.395620 -1.568088 -0.040535 66.000000
3.388074 -1.577233 -0.040473 66.000000
3.381409 -1.586771 -0.040432 66.000000
3.375621 -1.596710 -0.040411 66.000000
3.370706 -1.607058 -0.040411 66.000000
3.363958 -1.616526 -0.040370 66.000000
3.358083 -1.626403 -0.040349 66.000000
3.350382 -1.635383 -0.040287 66.000000
3.342657 -1.644330 -0.040226 66.000000
3.334909 -1.653246 -0.040164 66.000000
3.326244 -1.661682 -0.040081 66.000000
3.319344 -1.670980 -0.040040 66.000000
3.314202 -1.681156 -0.040040 66.000000
3.307248 -1.690406 -0.039999 66.000000
3.300268 -1.699629 -0.039958 66.000000
3.295038 -1.709746 -0.039958 66.000000
3.287119 -1.718458 -0.039896 66.000000
3.281832 -1.728535 -0.039896 66.000000
3.274747 -1.737658 -0.039855 66.000000
3.272046 -1.749110 -0.039917 66.000000
3.258741 -1.754875 -0.039731 66.000000
3.255979 -1.766295 -0.039793 66.000000
3.253176 -1.777714 -0.039855 66.000000
3.250335 -1.789132 -0.039917 66.000000
3.247454 -1.800549 -0.039978 66.000000
3.245406 -1.812454 -0.040061 66.000000
3.242445 -1.823872 -0.040123 66.000000
3.239444 -1.835289 -0.040184 66.000000
3.212088 -1.832834 -0.039670 66.000000
0.738742 -0.795709 0.014141 66.000000
0.766141 -0.830292 0.013235 66.000000
0.766294 -0.835585 0.013153 66.000000
0.746209 -0.818726 0.013688 66.000000
0.747723 -0.825456 0.013564 66.000000
0.731803 -0.812890 0.013976 66.000000
0.731973 -0.818110 0.013894 66.000000
0.723478 -0.813630 0.014079 66.000000
0.726940 -0.822586 0.013894 66.000000
4.304126 1.969363 -0.089824 67.000000
4.240974 1.924734 -0.087795 67.000000
4.227719 1.903093 -0.087234 67.000000
4.260919 1.902346 -0.088035 67.000000
4.258509 1.885620 -0.087795 67.000000
4.261528 1.871340 -0.087715 67.000000
4.256253 1.853465 -0.087394 67.000000
4.276601 1.846742 -0.087822 67.000000
4.270302 1.828495 -0.087475 67.000000
4.266691 1.811476 -0.087208 67.000000
4.270386 1.797602 -0.087154 67.000000
4.256510 1.776402 -0.086593 67.000000
4.242544 1.755304 -0.086033 67.000000
4.236812 1.737725 -0.085712 67.000000
4.239345 1.723588 -0.085632 67.000000
4.218655 1.700105 -0.084885 67.000000
4.218281 1.684928 -0.084724 67.000000
4.201126 1.663142 -0.084084 67.000000
4.193182 1.645131 -0.083710 67.000000
4.195415 1.631171 -0.083630 67.000000
4.190139 1.614336 -0.083336 67.000000
4.196940 1.602187 -0.083389 67.000000
4.207445 1.591427 -0.083550 67.000000
4.221667 1.582021 -0.083817 67.000000
4.225564 1.568714 -0.083790 67.000000
4.246305 1.561612 -0.084244 67.000000
4.263285 1.553029 -0.084591 67.000000
4.273671 1.541979 -0.084751 67.000000
4.272734 1.526840 -0.084591 67.000000
4.290590 1.518397 -0.084965 67.000000
4.293342 1.504565 -0.084911 67.000000
4.310214 1.495649 -0.085258 67.000000
4.302493 1.478193 -0.084911 67.000000
4.324041 1.470785 -0.085392 67.000000
4.339901 1.461343 -0.085712 67.000000
4.355743 1.451817 -0.086033 67.000000
4.385806 1.446910 -0.086754 67.000000
4.375021 1.428479 -0.086326 67.000000
4.403162 1.422740 -0.086994 67.000000
4.407506 1.409225 -0.086994 67.000000
4.423245 1.399317 -0.087314 67.000000
4.439918 1.389625 -0.087661 67.000000
4.448935 1.377476 -0.087795 67.000000
4.513352 1.382278 -0.089477 67.000000
4.524268 1.370455 -0.089664 67.000000
4.518876 1.353697 -0.089397 67.000000
4.579554 1.356592 -0.090972 67.000000
4.548201 1.332131 -0.089984 67.000000
4.565709 1.322067 -0.090358 67.000000
4.577431 1.310256 -0.090572 67.000000
3.563088 -1.313864 -0.064833 67.000000
3.555292 -1.323395 -0.064726 67.000000
3.550280 -1.333945 -0.064699 67.000000
3.538692 -1.341998 -0.064486 67.000000
3.533624 -1.352491 -0.064459 67.000000
3.524796 -1.361526 -0.064325 67.000000
3.520602 -1.372333 -0.064325 67.000000
3.518236 -1.383859 -0.064379 67.000000
3.507469 -1.392067 -0.064192 67.000000
3.505966 -1.403935 -0.064272 67.000000
3.504423 -1.415807 -0.064352 67.000000
3.496360 -1.425044 -0.064245 67.000000
3.492896 -1.436144 -0.064272 67.000000
3.479239 -1.443026 -0.064005 67.000000
3.475717 -1.454079 -0.064032 67.000000
3.467555 -1.463182 -0.063925 67.000000
3.458450 -1.471858 -0.063791 67.000000
3.449325 -1.480491 -0.063658 67.000000
3.440179 -1.489083 -0.063524 67.000000
3.429180 -1.496833 -0.063337 67.000000
3.419997 -1.505334 -0.063204 67.000000
3.412621 -1.514604 -0.063124 67.000000
3.407045 -1.524658 -0.063097 67.000000
3.400529 -1.534282 -0.063044 67.000000
3.393076 -1.543467 -0.062964 67.000000
3.388324 -1.553869 -0.062964 67.000000
3.383541 -1.564257 -0.062964 67.000000
3.378726 -1.574630 -0.062964 67.000000
3.374784 -1.585413 -0.062990 67.000000
3.370808 -1.596187 -0.063017 67.000000
3.364091 -1.605661 -0.062964 67.000000
3.356446 -1.614675 -0.062884 67.000000
3.349677 -1.624093 -0.062830 67.000000
3.341984 -1.633046 -0.062750 67.000000
3.336061 -1.642850 -0.062723 67.000000
3.331005 -1.653077 -0.062723 67.000000
3.323235 -1.661948 -0.062643 67.000000
3.318121 -1.672136 -0.062643 67.000000
3.310301 -1.680951 -0.062563 67.000000
3.302458 -1.689734 -0.062483 67.000000
3.291927 -1.697111 -0.062323 67.000000
3.281381 -1.704439 -0.062163 67.000000
3.277908 -1.715425 -0.062216 67.000000
3.265554 -1.721746 -0.062002 67.000000
3.262906 -1.733162 -0.062083 67.000000
3.257573 -1.743165 -0.062083 67.000000
3.249570 -1.751728 -0.062002 67.000000
3.247694 -1.763597 -0.062109 67.000000
3.244900 -1.774990 -0.062189 67.000000
3.241191 -1.785902 -0.062243 67.000000
3.236570 -1.796322 -0.062269 67.000000
3.237153 -1.809656 -0.062456 67.000000
3.232457 -1.820069 -0.062483 67.000000
3.187721 -1.807799 -0.061282 67.000000
0.780404 -0.831769 0.006137 67.000000
0.780579 -0.837081 0.006030 67.000000
0.777327 -0.838739 0.006057 67.000000
0.767970 -0.833774 0.006324 67.000000
0.764057 -0.834653 0.006377 67.000000
0.752737 -0.827390 0.006724 67.000000
0.745497 -0.824510 0.006911 67.000000
0.731592 -0.814164 0.007365 67.000000
0.736424 -0.824599 0.007071 67.000000
0.719275 -0.810422 0.007659 67.000000
4.469783 1.998905 -0.122316 68.000000
4.465843 1.980728 -0.121959 68.000000
4.473729 1.967822 -0.122024 68.000000
4.482493 1.955286 -0.122121 68.000000
4.491223 1.942714 -0.122219 68.000000
4.466847 1.915932 -0.121147 68.000000
4.330129 1.841622 -0.116117 68.000000
4.239971 1.787964 -0.112741 68.000000
4.244514 1.774563 -0.112708 68.000000
4.240704 1.757708 -0.112384 68.000000
4.227585 1.737097 -0.111735 68.000000
4.225489 1.721104 -0.111475 68.000000
4.228896 1.707384 -0.111410 68.000000
4.244322 1.698485 -0.111767 68.000000
4.225355 1.675881 -0.110923 68.000000
4.223965 1.660352 -0.110696 68.000000
4.262569 1.660437 -0.111865 68.000000
4.240601 1.636920 -0.110923 68.000000
4.248404 1.624973 -0.111021 68.000000
4.247760 1.609808 -0.110826 68.000000
4.284496 1.608705 -0.111930 68.000000
4.279106 1.591723 -0.111572 68.000000
4.273652 1.574788 -0.111215 68.000000
4.280341 1.562355 -0.111280 68.000000
4.312375 1.559063 -0.112222 68.000000
4.295493 1.538082 -0.111475 68.000000
4.303018 1.525898 -0.111572 68.000000
4.300134 1.510041 -0.111313 68.000000
4.347232 1.511603 -0.112773 68.000000
4.339562 1.494032 -0.112351 68.000000
4.323311 1.473622 -0.111637 68.000000
4.334442 1.462587 -0.111865 68.000000
4.342701 1.450548 -0.111994 68.000000
4.344284 1.436277 -0.111897 68.000000
4.351520 1.423874 -0.111994 68.000000
4.359671 1.411748 -0.112124 68.000000
4.386827 1.405680 -0.112903 68.000000
4.404458 1.396440 -0.113358 68.000000
4.528892 1.420583 -0.117447 68.000000
4.501726 1.396914 -0.116376 68.000000
4.534657 1.391888 -0.117350 68.000000
4.537949 1.377679 -0.117317 68.000000
4.540239 1.363176 -0.117253 68.000000
4.537693 1.347251 -0.117025 68.000000
4.553314 1.336698 -0.117415 68.000000
4.551634 1.321053 -0.117220 68.000000
4.560469 1.308459 -0.117382 68.000000
4.578886 1.298549 -0.117869 68.000000
3.565333 -1.311685 -0.086678 68.000000
3.553798 -1.319831 -0.086418 68.000000
3.548796 -1.330377 -0.086386 68.000000
3.546567 -1.341966 -0.086450 68.000000
3.535898 -1.350342 -0.086223 68.000000
3.525211 -1.358666 -0.085996 68.000000
3.518232 -1.368387 -0.085899 68.000000
3.510297 -1.377712 -0.085769 68.000000
3.506053 -1.388475 -0.085769 68.000000
3.503633 -1.399968 -0.085834 68.000000
3.499321 -1.410710 -0.085834 68.000000
3.496828 -1.422193 -0.085899 68.000000
3.489675 -1.431775 -0.085801 68.000000
3.483419 -1.441710 -0.085736 68.000000
3.473447 -1.450078 -0.085542 68.000000
3.462534 -1.458010 -0.085314 68.000000
3.454365 -1.467062 -0.085185 68.000000
3.451686 -1.478441 -0.085250 68.000000
3.440712 -1.486247 -0.085022 68.000000
3.433387 -1.495598 -0.084925 68.000000
3.425123 -1.504515 -0.084795 68.000000
3.418664 -1.514206 -0.084730 68.000000
3.411264 -1.523464 -0.084633 68.000000
3.401107 -1.531458 -0.084438 68.000000
3.395483 -1.541472 -0.084406 68.000000
3.388920 -1.551050 -0.084341 68.000000
3.384146 -1.561440 -0.084341 68.000000
3.379339 -1.571815 -0.084341 68.000000
3.374501 -1.582175 -0.084341 68.000000
3.372342 -1.593802 -0.084438 68.000000
3.367436 -1.604141 -0.084438 68.000000
3.359796 -1.613166 -0.084341 68.000000
3.353032 -1.622595 -0.084276 68.000000
3.347140 -1.632436 -0.084243 68.000000
3.339426 -1.641373 -0.084146 68.000000
3.336165 -1.652499 -0.084211 68.000000
3.329292 -1.661833 -0.084146 68.000000
3.322392 -1.671140 -0.084081 68.000000
3.316358 -1.680873 -0.084049 68.000000
3.305846 -1.688311 -0.083854 68.000000
3.294431 -1.695242 -0.083627 68.000000
3.285666 -1.703500 -0.083497 68.000000
3.276881 -1.711720 -0.083367 68.000000
3.268961 -1.720368 -0.083270 68.000000
3.263668 -1.730389 -0.083270 68.000000
3.257462 -1.739922 -0.083237 68.000000
3.252109 -1.749908 -0.083237 68.000000
3.246725 -1.759877 -0.083237 68.000000
3.242187 -1.770309 -0.083270 68.000000
3.235865 -1.779765 -0.083237 68.000000
3.230390 -1.789684 -0.083237 68.000000
3.227502 -1.801049 -0.083335 68.000000
3.223703 -1.811922 -0.083399 68.000000
3.211172 -1.817862 -0.083140 68.000000
0.802615 -0.851778 -0.001315 68.000000
0.789079 -0.842553 -0.000795 68.000000
0.776287 -0.833986 -0.000308 68.000000
0.776436 -0.839301 -0.000438 68.000000
0.767776 -0.835051 -0.000146 68.000000
0.757803 -0.829279 0.000211 68.000000
0.755926 -0.832341 0.000178 68.000000
0.759389 -0.841340 -0.000114 68.000000
0.745472 -0.831006 0.000438 68.000000
0.742254 -0.832542 0.000471 68.000000
0.745655 -0.841554 0.000178 68.000000
4.320990 1.995305 -0.147710 69.000000
4.313464 1.975798 -0.147129 69.000000
4.331332 1.967927 -0.147633 69.000000
4.330061 1.951346 -0.147323 69.000000
4.322342 1.931937 -0.146742 69.000000
4.320941 1.915428 -0.146432 69.000000
4.309416 1.894524 -0.145696 69.000000
4.312460 1.880096 -0.145580 69.000000
4.314539 1.865271 -0.145425 69.000000
4.289932 1.839035 -0.144146 69.000000
4.284518 1.821175 -0.143682 69.000000
4.287323 1.806858 -0.143565 69.000000
4.301144 1.797163 -0.143914 69.000000
4.292789 1.778224 -0.143333 69.000000
4.260325 1.749485 -0.141745 69.000000
4.220321 1.717950 -0.139847 69.000000
4.231132 1.707237 -0.140079 69.000000
4.219649 1.687571 -0.139382 69.000000
4.216445 1.671304 -0.139033 69.000000
4.230854 1.662013 -0.139421 69.000000
4.225690 1.645038 -0.138994 69.000000
4.231649 1.632426 -0.139033 69.000000
4.245039 1.622646 -0.139382 69.000000
4.256538 1.612092 -0.139653 69.000000
4.261464 1.599025 -0.139653 69.000000
4.278526 1.590469 -0.140157 69.000000
4.274008 1.573883 -0.139769 69.000000
4.286327 1.563502 -0.140079 69.000000
4.289224 1.549665 -0.140002 69.000000
4.293958 1.536499 -0.140002 69.000000
4.296768 1.522651 -0.139924 69.000000
4.324049 1.517400 -0.140854 69.000000
4.329628 1.504455 -0.140893 69.000000
4.322884 1.487265 -0.140428 69.000000
4.325535 1.473351 -0.140350 69.000000
4.337610 1.462627 -0.140660 69.000000
4.338285 1.448048 -0.140505 69.000000
4.343656 1.435044 -0.140544 69.000000
4.348038 1.421712 -0.140544 69.000000
4.355232 1.409288 -0.140660 69.000000
4.359535 1.395920 -0.140660 69.000000
4.366655 1.383443 -0.140776 69.000000
4.388042 1.375418 -0.141474 69.000000
4.414194 1.368755 -0.142365 69.000000
4.443211 1.362822 -0.143372 69.000000
4.571682 1.386884 -0.148407 69.000000
4.592187 1.377732 -0.149066 69.000000
4.611721 1.368183 -0.149686 69.000000
4.619731 1.355153 -0.149841 69.000000
4.629626 1.342643 -0.150073 69.000000
4.666383 1.337794 -0.151390 69.000000
3.529717 -1.361411 -0.109865 69.000000
3.523661 -1.371508 -0.109787 69.000000
3.516647 -1.381216 -0.109671 69.000000
3.509606 -1.390894 -0.109555 69.000000
3.505322 -1.401654 -0.109555 69.000000
3.500079 -1.412028 -0.109516 69.000000
3.493880 -1.422006 -0.109438 69.000000
3.486727 -1.431579 -0.109322 69.000000
3.480473 -1.441505 -0.109245 69.000000
3.469580 -1.449479 -0.108974 69.000000
3.464196 -1.459729 -0.108935 69.000000
3.456023 -1.468786 -0.108780 69.000000
3.449664 -1.478595 -0.108702 69.000000
3.443277 -1.488378 -0.108625 69.000000
3.439610 -1.499334 -0.108664 69.000000
3.429506 -1.507466 -0.108431 69.000000
3.422124 -1.516766 -0.108315 69.000000
3.418367 -1.527665 -0.108354 69.000000
3.408198 -1.535682 -0.108121 69.000000
3.401651 -1.545304 -0.108044 69.000000
3.393260 -1.554068 -0.107889 69.000000
3.389384 -1.564891 -0.107928 69.000000
3.382755 -1.574438 -0.107850 69.000000
3.377004 -1.584384 -0.107812 69.000000
3.373031 -1.595165 -0.107850 69.000000
3.366317 -1.604645 -0.107773 69.000000
3.360478 -1.614533 -0.107734 69.000000
3.353710 -1.623964 -0.107657 69.000000
3.347814 -1.633807 -0.107618 69.000000
3.342786 -1.644070 -0.107618 69.000000
3.338621 -1.654762 -0.107657 69.000000
3.330847 -1.663657 -0.107540 69.000000
3.325727 -1.673868 -0.107540 69.000000
3.319685 -1.683611 -0.107502 69.000000
3.312725 -1.692878 -0.107424 69.000000
3.302186 -1.700288 -0.107192 69.000000
3.293406 -1.708570 -0.107037 69.000000
3.284606 -1.716815 -0.106882 69.000000
3.275787 -1.725021 -0.106727 69.000000
3.266066 -1.732721 -0.106533 69.000000
3.259854 -1.742262 -0.106494 69.000000
3.254493 -1.752254 -0.106494 69.000000
3.249102 -1.762231 -0.106494 69.000000
3.246311 -1.773628 -0.106611 69.000000
3.240854 -1.783579 -0.106611 69.000000
3.233619 -1.792545 -0.106533 69.000000
3.228977 -1.802944 -0.106572 69.000000
3.226043 -1.814312 -0.106688 69.000000
0.720038 -0.746584 -0.003416 69.000000
0.779518 -0.818297 -0.007019 69.000000
0.786618 -0.830846 -0.007561 69.000000
0.779959 -0.828888 -0.007329 69.000000
0.778776 -0.832737 -0.007406 69.000000
0.773498 -0.832194 -0.007251 69.000000
0.770263 -0.833829 -0.007213 69.000000
0.758244 -0.825880 -0.006670 69.000000
0.751667 -0.823772 -0.006438 69.000000
0.738400 -0.814227 -0.005818 69.000000
0.748604 -0.830596 -0.006554 69.000000
0.728059 -0.812786 -0.005508 69.000000
0.721577 -0.810536 -0.005276 69.000000
4.308890 1.987728 -0.175275 70.000000
4.308609 1.971588 -0.174963 70.000000
4.309180 1.955883 -0.174695 70.000000
4.312428 1.941423 -0.174561 70.000000
4.312891 1.925739 -0.174293 70.000000
4.310557 1.908857 -0.173891 70.000000
4.308162 1.892007 -0.173489 70.000000
4.309367 1.876786 -0.173266 70.000000
4.305016 1.859199 -0.172774 70.000000
4.310700 1.845982 -0.172774 70.000000
4.317262 1.833139 -0.172819 70.000000
4.309976 1.814458 -0.172194 70.000000
4.303538 1.796223 -0.171613 70.000000
4.333028 1.792944 -0.172774 70.000000
4.335736 1.778505 -0.172640 70.000000
4.300455 1.748634 -0.170675 70.000000
4.283562 1.726468 -0.169603 70.000000
4.335223 1.731852 -0.171836 70.000000
4.322868 1.711555 -0.170988 70.000000
4.281601 1.680035 -0.168754 70.000000
4.301632 1.672686 -0.169469 70.000000
4.323523 1.665947 -0.170273 70.000000
4.337013 1.655883 -0.170675 70.000000
4.286946 1.621710 -0.168040 70.000000
4.275999 1.602589 -0.167280 70.000000
4.292134 1.593636 -0.167816 70.000000
4.322317 1.589774 -0.169022 70.000000
4.293384 1.564192 -0.167414 70.000000
4.304740 1.553387 -0.167727 70.000000
4.308545 1.539837 -0.167682 70.000000
4.316074 1.527611 -0.167816 70.000000
4.320740 1.514362 -0.167816 70.000000
4.336691 1.505031 -0.168352 70.000000
4.330895 1.488147 -0.167861 70.000000
4.341115 1.476784 -0.168129 70.000000
4.351306 1.465372 -0.168397 70.000000
4.358624 1.452964 -0.168531 70.000000
4.364959 1.440211 -0.168620 70.000000
4.364608 1.425262 -0.168397 70.000000
4.363257 1.410021 -0.168129 70.000000
4.358999 1.393889 -0.167727 70.000000
4.359445 1.379303 -0.167548 70.000000
4.364609 1.366221 -0.167593 70.000000
4.368781 1.352824 -0.167593 70.000000
4.370045 1.338536 -0.167459 70.000000
4.378911 1.326571 -0.167682 70.000000
4.384874 1.313704 -0.167772 70.000000
4.387926 1.299962 -0.167727 70.000000
4.387100 1.285089 -0.167504 70.000000
4.397739 1.273569 -0.167816 70.000000
4.412190 1.263097 -0.168308 70.000000
4.426618 1.252547 -0.168799 70.000000
3.500471 -1.413907 -0.131905 70.000000
3.494267 -1.423886 -0.131816 70.000000
3.486186 -1.433081 -0.131637 70.000000
3.478081 -1.442239 -0.131459 70.000000
3.472719 -1.452518 -0.131414 70.000000
3.464564 -1.461612 -0.131235 70.000000
3.455467 -1.470279 -0.131012 70.000000
3.445432 -1.478510 -0.130744 70.000000
3.438129 -1.487884 -0.130610 70.000000
3.430801 -1.497226 -0.130476 70.000000
3.425277 -1.507343 -0.130431 70.000000
3.418810 -1.517034 -0.130342 70.000000
3.412316 -1.526700 -0.130253 70.000000
3.404884 -1.535929 -0.130119 70.000000
3.398337 -1.545541 -0.130029 70.000000
3.391763 -1.555127 -0.129940 70.000000
3.384255 -1.564269 -0.129806 70.000000
3.376724 -1.573379 -0.129672 70.000000
3.371881 -1.583731 -0.129672 70.000000
3.363394 -1.592359 -0.129493 70.000000
3.356690 -1.601810 -0.129404 70.000000
3.352660 -1.612533 -0.129449 70.000000
3.349495 -1.623683 -0.129538 70.000000
3.343600 -1.633513 -0.129493 70.000000
3.335884 -1.642439 -0.129359 70.000000
3.331724 -1.653110 -0.129404 70.000000
3.329318 -1.664664 -0.129538 70.000000
3.321518 -1.673522 -0.129404 70.000000
3.315478 -1.683252 -0.129359 70.000000
3.308519 -1.692506 -0.129270 70.000000
3.301535 -1.701733 -0.129181 70.000000
3.293638 -1.710474 -0.129047 70.000000
3.284835 -1.718718 -0.128868 70.000000
3.274243 -1.725993 -0.128600 70.000000
3.268933 -1.736030 -0.128600 70.000000
3.265353 -1.746993 -0.128689 70.000000
3.258219 -1.756055 -0.128600 70.000000
3.254572 -1.766996 -0.128689 70.000000
3.252642 -1.778890 -0.128868 70.000000
3.247169 -1.788860 -0.128868 70.000000
3.241666 -1.798814 -0.128868 70.000000
3.251829 -1.817523 -0.129672 70.000000
0.770735 -0.805583 -0.012961 70.000000
0.784788 -0.825313 -0.014033 70.000000
0.782938 -0.828442 -0.014077 70.000000
0.775604 -0.825745 -0.013765 70.000000
0.766247 -0.820820 -0.013318 70.000000
0.752850 -0.811453 -0.012603 70.000000
0.743582 -0.806417 -0.012157 70.000000
0.735703 -0.802805 -0.011799 70.000000
0.732564 -0.804320 -0.011755 70.000000
0.726068 -0.802121 -0.011487 70.000000
0.719594 -0.799890 -0.011219 70.000000
0.708477 -0.792415 -0.010638 70.000000
4.266733 1.999037 -0.204177 71.000000
4.290051 1.993940 -0.205148 71.000000
4.290707 1.978258 -0.204841 71.000000
4.281318 1.958020 -0.203972 71.000000
4.289124 1.945702 -0.204074 71.000000
4.297805 1.933764 -0.204228 71.000000
4.281832 1.910796 -0.203001 71.000000
4.277629 1.893202 -0.202439 71.000000
4.286161 1.881274 -0.202592 71.000000
4.282756 1.864128 -0.202081 71.000000
4.281120 1.847812 -0.201672 71.000000
4.284933 1.833882 -0.201570 71.000000
4.313520 1.830487 -0.202848 71.000000
4.285980 1.803293 -0.201008 71.000000
4.280433 1.785519 -0.200394 71.000000
4.297887 1.777343 -0.201059 71.000000
4.296852 1.761495 -0.200701 71.000000
4.274482 1.737018 -0.199167 71.000000
4.274234 1.721656 -0.198861 71.000000
4.298044 1.715945 -0.199883 71.000000
4.279146 1.693191 -0.198554 71.000000
4.282461 1.679325 -0.198452 71.000000
4.302485 1.671971 -0.199270 71.000000
4.298276 1.655172 -0.198758 71.000000
4.285607 1.635208 -0.197787 71.000000
4.284999 1.619932 -0.197481 71.000000
4.299300 1.610283 -0.197992 71.000000
4.297667 1.594652 -0.197634 71.000000
4.321285 1.588355 -0.198656 71.000000
4.329891 1.576458 -0.198861 71.000000
4.335646 1.563506 -0.198912 71.000000
4.337601 1.549188 -0.198758 71.000000
4.344216 1.536540 -0.198861 71.000000
4.331946 1.517258 -0.197941 71.000000
4.330919 1.501996 -0.197634 71.000000
4.373286 1.501685 -0.199678 71.000000
4.344781 1.477002 -0.197889 71.000000
4.407026 1.483111 -0.201008 71.000000
4.479770 1.492326 -0.204688 71.000000
4.558301 1.502986 -0.208675 71.000000
4.643585 1.515349 -0.213020 71.000000
4.688125 1.513995 -0.215167 71.000000
4.755528 1.519683 -0.218540 71.000000
4.783973 1.512619 -0.219818 71.000000
4.816230 1.506588 -0.221301 71.000000
4.823691 1.492691 -0.221454 71.000000
4.414737 1.292171 -0.198452 71.000000
4.397576 1.272508 -0.197327 71.000000
4.403380 1.259561 -0.197429 71.000000
4.407223 1.246045 -0.197429 71.000000
4.440841 1.240857 -0.199014 71.000000
4.496607 1.241594 -0.201774 71.000000
4.510029 1.230423 -0.202285 71.000000
3.462176 -1.461623 -0.155361 71.000000
3.448486 -1.468329 -0.154850 71.000000
3.443047 -1.478508 -0.154799 71.000000
3.433912 -1.487081 -0.154543 71.000000
3.426588 -1.496411 -0.154390 71.000000
3.420152 -1.506112 -0.154288 71.000000
3.410038 -1.514168 -0.153981 71.000000
3.407200 -1.525438 -0.154083 71.000000
3.399773 -1.534652 -0.153930 71.000000
3.392321 -1.543835 -0.153776 71.000000
3.385753 -1.553403 -0.153674 71.000000
3.380065 -1.563364 -0.153623 71.000000
3.373442 -1.572883 -0.153521 71.000000
3.365889 -1.581952 -0.153368 71.000000
3.362825 -1.593125 -0.153470 71.000000
3.355217 -1.602145 -0.153316 71.000000
3.349386 -1.611998 -0.153265 71.000000
3.348020 -1.624009 -0.153470 71.000000
3.338535 -1.632081 -0.153214 71.000000
3.335304 -1.643198 -0.153316 71.000000
3.329353 -1.652979 -0.153265 71.000000
3.323372 -1.662739 -0.153214 71.000000
3.317364 -1.672478 -0.153163 71.000000
3.312217 -1.682647 -0.153163 71.000000
3.305261 -1.691891 -0.153061 71.000000
3.297391 -1.700651 -0.152907 71.000000
3.291272 -1.710299 -0.152856 71.000000
3.285124 -1.719926 -0.152805 71.000000
3.278065 -1.729065 -0.152703 71.000000
3.268335 -1.736772 -0.152447 71.000000
3.267394 -1.749146 -0.152703 71.000000
3.262012 -1.759162 -0.152703 71.000000
3.253967 -1.767733 -0.152550 71.000000
3.248528 -1.777707 -0.152550 71.000000
3.242184 -1.787183 -0.152499 71.000000
0.733550 -0.763233 -0.017195 71.000000
0.794742 -0.831849 -0.021898 71.000000
0.788055 -0.829943 -0.021591 71.000000
0.782761 -0.829454 -0.021386 71.000000
0.766533 -0.817297 -0.020364 71.000000
0.763341 -0.818915 -0.020313 71.000000
0.757427 -0.817593 -0.020057 71.000000
0.761010 -0.826519 -0.020517 71.000000
0.740922 -0.809712 -0.019188 71.000000
0.736416 -0.809767 -0.019035 71.000000
0.727224 -0.804620 -0.018524 71.000000
0.712057 -0.792745 -0.017553 71.000000
0.711619 -0.797158 -0.017706 71.000000
4.248962 1.995754 -0.231127 72.000000
4.238774 1.975123 -0.230100 72.000000
4.238469 1.959179 -0.229701 72.000000
4.244460 1.946166 -0.229701 72.000000
4.247684 1.931896 -0.229529 72.000000
4.238118 1.911880 -0.228560 72.000000
4.237584 1.896016 -0.228160 72.000000
4.243381 1.883006 -0.228160 72.000000
4.245482 1.868371 -0.227932 72.000000
4.252110 1.855736 -0.227989 72.000000
4.260531 1.843871 -0.228160 72.000000
4.266169 1.830791 -0.228160 72.000000
4.270846 1.817304 -0.228103 72.000000
4.274562 1.803417 -0.227989 72.000000
4.272706 1.787214 -0.227533 72.000000
4.273557 1.772186 -0.227248 72.000000
4.265121 1.753376 -0.226392 72.000000
4.263083 1.737270 -0.225936 72.000000
4.260987 1.721193 -0.225479 72.000000
4.267174 1.708484 -0.225536 72.000000
4.264971 1.692440 -0.225080 72.000000
4.264568 1.677156 -0.224738 72.000000
4.265973 1.662616 -0.224510 72.000000
4.281299 1.653474 -0.225137 72.000000
4.280756 1.638192 -0.224795 72.000000
4.282028 1.623636 -0.224567 72.000000
4.286989 1.610491 -0.224567 72.000000
4.303139 1.601507 -0.225251 72.000000
4.291169 1.582086 -0.224225 72.000000
4.290375 1.566860 -0.223882 72.000000
4.302673 1.556405 -0.224339 72.000000
4.323408 1.548917 -0.225308 72.000000
4.342254 1.540650 -0.226164 72.000000
4.348844 1.527982 -0.226278 72.000000
4.401606 1.531352 -0.229187 72.000000
4.415723 1.521090 -0.229758 72.000000
4.446829 1.516552 -0.231355 72.000000
4.528087 1.528752 -0.235975 72.000000
4.546960 1.519596 -0.236831 72.000000
4.578143 1.514412 -0.238428 72.000000
4.648241 1.521777 -0.242364 72.000000
4.743122 1.536721 -0.247783 72.000000
4.844794 1.553229 -0.253601 72.000000
4.937093 1.566111 -0.258849 72.000000
4.941875 1.550957 -0.258849 72.000000
4.925632 1.529280 -0.257594 72.000000
3.425282 -1.503875 -0.176652 72.000000
3.418827 -1.513568 -0.176538 72.000000
3.410521 -1.522421 -0.176310 72.000000
3.406745 -1.533287 -0.176367 72.000000
3.400207 -1.542906 -0.176253 72.000000
3.393641 -1.552499 -0.176139 72.000000
3.388863 -1.562903 -0.176139 72.000000
3.384052 -1.573293 -0.176139 72.000000
3.373786 -1.581124 -0.175796 72.000000
3.366211 -1.590187 -0.175625 72.000000
3.361317 -1.600507 -0.175625 72.000000
