# This PCD file was generated using the MATLAB® pcwrite function
# from Computer Vision Toolbox®.
# .PCD v.7 - Point Cloud Data file format
VERSION .7
FIELDS x y z intensity
SIZE 4 4 4 4
TYPE F F F F
COUNT 1 1 1 1
WIDTH 1289
HEIGHT 1
VIEWPOINT 0 0 0 1 0 0 0
POINTS 1289
DATA ascii
1.981423 0.766305 0.331034 40.000000
1.983764 0.760222 0.331034 40.000000
1.982383 0.752728 0.330481 40.000000
1.981902 0.745598 0.330065 40.000000
1.982323 0.738824 0.329788 40.000000
1.984581 0.732739 0.329788 40.000000
1.985889 0.726307 0.329650 40.000000
1.989971 0.720885 0.329927 40.000000
1.992173 0.714776 0.329927 40.000000
1.993423 0.708330 0.329788 40.000000
1.997456 0.702867 0.330065 40.000000
1.998667 0.696410 0.329927 40.000000
2.002667 0.690920 0.330204 40.000000
2.004777 0.684773 0.330204 40.000000
2.004054 0.677669 0.329788 40.000000
2.002366 0.670262 0.329234 40.000000
2.002532 0.663494 0.328957 40.000000
2.004559 0.657347 0.328957 40.000000
2.007508 0.651499 0.329096 40.000000
2.010440 0.645639 0.329234 40.000000
2.013356 0.639768 0.329373 40.000000
2.012474 0.632698 0.328957 40.000000
2.014406 0.626521 0.328957 40.000000
2.017265 0.620629 0.329096 40.000000
2.021055 0.615013 0.329373 40.000000
2.022933 0.608809 0.329373 40.000000
2.023841 0.602318 0.329234 40.000000
2.026630 0.596385 0.329373 40.000000
2.027499 0.589889 0.329234 40.000000
2.028347 0.583392 0.329096 40.000000
2.033939 0.578248 0.329650 40.000000
2.035703 0.572005 0.329650 40.000000
2.038403 0.566021 0.329788 40.000000
2.038219 0.559242 0.329511 40.000000
2.040881 0.553245 0.329650 40.000000
2.043526 0.547237 0.329788 40.000000
2.045195 0.540964 0.329788 40.000000
2.047804 0.534937 0.329927 40.000000
2.051353 0.529146 0.330204 40.000000
2.052967 0.522850 0.330204 40.000000
2.053601 0.516308 0.330065 40.000000
2.055175 0.510005 0.330065 40.000000
2.055768 0.503463 0.329927 40.000000
2.055377 0.496689 0.329650 40.000000
2.056892 0.490381 0.329650 40.000000
2.058387 0.484068 0.329650 40.000000
2.057932 0.477304 0.329373 40.000000
2.059387 0.470988 0.329373 40.000000
2.060822 0.464668 0.329373 40.000000
2.063205 0.458558 0.329511 40.000000
2.066537 0.452648 0.329788 40.000000
2.067916 0.446306 0.329788 40.000000
2.069276 0.439960 0.329788 40.000000
2.070616 0.433609 0.329788 40.000000
2.071936 0.427255 0.329788 40.000000
2.073237 0.420896 0.329788 40.000000
2.075490 0.414727 0.329927 40.000000
2.078696 0.408739 0.330204 40.000000
2.079941 0.402359 0.330204 40.000000
2.081165 0.395976 0.330204 40.000000
2.082370 0.389590 0.330204 40.000000
2.086478 0.383735 0.330619 40.000000
2.087646 0.377332 0.330619 40.000000
2.085868 0.370407 0.330204 40.000000
2.100655 0.366381 0.332142 40.000000
2.098840 0.359435 0.331727 40.000000
0.704999 -0.485124 0.153639 40.000000
1.915983 0.973335 0.321194 41.000000
1.924271 0.970128 0.321988 41.000000
1.929012 0.965107 0.322253 41.000000
1.932851 0.959625 0.322386 41.000000
1.934008 0.952815 0.322121 41.000000
1.938703 0.947747 0.322386 41.000000
1.940710 0.941362 0.322253 41.000000
1.942695 0.934974 0.322121 41.000000
1.944660 0.928583 0.321988 41.000000
1.945708 0.921764 0.321723 41.000000
1.948527 0.915790 0.321723 41.000000
1.950429 0.909389 0.321591 41.000000
1.952310 0.902985 0.321459 41.000000
1.951467 0.895338 0.320929 41.000000
1.955107 0.889758 0.321061 41.000000
1.947889 0.879271 0.319605 41.000000
1.953292 0.874506 0.320002 41.000000
1.951436 0.866498 0.319340 41.000000
1.954085 0.860507 0.319340 41.000000
1.955808 0.854112 0.319207 41.000000
1.957509 0.847714 0.319075 41.000000
1.960101 0.841704 0.319075 41.000000
1.964498 0.836463 0.319340 41.000000
1.966141 0.830047 0.319207 41.000000
1.969593 0.824393 0.319340 41.000000
1.971198 0.817967 0.319207 41.000000
1.974615 0.812293 0.319340 41.000000
1.975262 0.805483 0.319075 41.000000
1.976804 0.799047 0.318942 41.000000
1.980167 0.793347 0.319075 41.000000
1.979828 0.786172 0.318678 41.000000
1.980385 0.779368 0.318413 41.000000
1.983691 0.773649 0.318545 41.000000
1.984205 0.766845 0.318280 41.000000
1.985623 0.760400 0.318148 41.000000
1.987947 0.754304 0.318148 41.000000
1.988396 0.747505 0.317883 41.000000
1.988822 0.740709 0.317618 41.000000
1.989225 0.733918 0.317353 41.000000
1.991467 0.727812 0.317353 41.000000
1.995555 0.722373 0.317618 41.000000
1.997762 0.716248 0.317618 41.000000
1.999950 0.710115 0.317618 41.000000
2.002119 0.703976 0.317618 41.000000
2.003333 0.697505 0.317486 41.000000
2.006401 0.691678 0.317618 41.000000
2.006637 0.684879 0.317353 41.000000
2.006851 0.678086 0.317088 41.000000
2.008922 0.671925 0.317088 41.000000
2.008151 0.664825 0.316691 41.000000
2.009239 0.658352 0.316559 41.000000
2.012192 0.652491 0.316691 41.000000
2.015128 0.646617 0.316824 41.000000
2.018047 0.640731 0.316956 41.000000
2.018112 0.633943 0.316691 41.000000
2.020994 0.628043 0.316824 41.000000
2.023859 0.622131 0.316956 41.000000
2.025758 0.615918 0.316956 41.000000
2.027638 0.609701 0.316956 41.000000
2.029499 0.603477 0.316956 41.000000
2.031341 0.597248 0.316956 41.000000
2.031260 0.590460 0.316691 41.000000
2.033062 0.584225 0.316691 41.000000
2.036752 0.578527 0.316956 41.000000
2.036608 0.571740 0.316691 41.000000
2.039308 0.565754 0.316824 41.000000
2.040078 0.559233 0.316691 41.000000
2.041784 0.552971 0.316691 41.000000
2.046344 0.547472 0.317088 41.000000
2.047056 0.540939 0.316956 41.000000
2.047746 0.534406 0.316824 41.000000
2.049376 0.528121 0.316824 41.000000
2.052908 0.522319 0.317088 41.000000
2.054501 0.516019 0.317088 41.000000
2.057037 0.509951 0.317221 41.000000
2.056666 0.503167 0.316956 41.000000
2.058200 0.496855 0.316956 41.000000
2.057786 0.490079 0.316691 41.000000
2.060245 0.483990 0.316824 41.000000
2.061720 0.477667 0.316824 41.000000
2.064142 0.471561 0.316956 41.000000
2.065579 0.465226 0.316956 41.000000
2.066029 0.458672 0.316824 41.000000
2.070331 0.452966 0.317221 41.000000
2.070742 0.446404 0.317088 41.000000
2.074041 0.440460 0.317353 41.000000
2.073442 0.433689 0.317088 41.000000
2.076705 0.427726 0.317353 41.000000
2.078007 0.421352 0.317353 41.000000
2.079290 0.414975 0.317353 41.000000
2.081526 0.408785 0.317486 41.000000
2.082771 0.402397 0.317486 41.000000
2.083021 0.395820 0.317353 41.000000
2.085200 0.389610 0.317486 41.000000
2.087361 0.383389 0.317618 41.000000
2.084625 0.376280 0.317088 41.000000
2.084794 0.369710 0.316956 41.000000
2.085918 0.363312 0.316956 41.000000
0.701464 -0.474027 0.147182 41.000000
1.910779 0.976267 0.307897 42.000000
1.918188 0.972644 0.308530 42.000000
1.920277 0.966308 0.308403 42.000000
1.925895 0.961743 0.308783 42.000000
1.927948 0.955389 0.308656 42.000000
1.930870 0.949469 0.308656 42.000000
1.933774 0.943541 0.308656 42.000000
1.935766 0.937172 0.308530 42.000000
1.937738 0.930799 0.308403 42.000000
1.937003 0.923142 0.307897 42.000000
1.939826 0.917195 0.307897 42.000000
1.940835 0.910396 0.307644 42.000000
1.942720 0.904019 0.307518 42.000000
1.943683 0.897223 0.307264 42.000000
1.947328 0.891668 0.307391 42.000000
1.948249 0.884869 0.307138 42.000000
1.950050 0.878480 0.307011 42.000000
1.948208 0.870469 0.306379 42.000000
1.950869 0.864488 0.306379 42.000000
1.949880 0.856902 0.305872 42.000000
1.950681 0.850123 0.305619 42.000000
1.952370 0.843741 0.305493 42.000000
1.955861 0.838138 0.305619 42.000000
1.958423 0.832133 0.305619 42.000000
1.960053 0.825736 0.305493 42.000000
1.962577 0.819718 0.305493 42.000000
1.965999 0.814073 0.305619 42.000000
1.968487 0.808038 0.305619 42.000000
1.968201 0.800873 0.305240 42.000000
1.970648 0.794830 0.305240 42.000000
1.973078 0.788781 0.305240 42.000000
1.973644 0.781993 0.304987 42.000000
1.974187 0.775208 0.304734 42.000000
1.977481 0.769508 0.304860 42.000000
1.977981 0.762723 0.304607 42.000000
1.980312 0.756651 0.304607 42.000000
1.982624 0.750572 0.304607 42.000000
1.984917 0.744486 0.304607 42.000000
1.983473 0.737010 0.304101 42.000000
1.984794 0.730579 0.303974 42.000000
1.987026 0.724486 0.303974 42.000000
1.988306 0.718050 0.303848 42.000000
1.991434 0.712280 0.303974 42.000000
1.992675 0.705836 0.303848 42.000000
1.992959 0.699062 0.303595 42.000000
1.996968 0.693596 0.303848 42.000000
2.000025 0.687789 0.303974 42.000000
2.001186 0.681330 0.303848 42.000000
2.001387 0.674553 0.303595 42.000000
2.004388 0.668724 0.303721 42.000000
2.003605 0.661638 0.303342 42.000000
2.002797 0.654562 0.302962 42.000000
2.007627 0.649331 0.303342 42.000000
2.010554 0.643471 0.303468 42.000000
2.011573 0.637000 0.303342 42.000000
2.011625 0.630233 0.303088 42.000000
2.014497 0.624352 0.303215 42.000000
2.017351 0.618459 0.303342 42.000000
2.019239 0.612267 0.303342 42.000000
2.022058 0.606355 0.303468 42.000000
2.022958 0.599866 0.303342 42.000000
2.025740 0.593936 0.303468 42.000000
2.025648 0.587166 0.303215 42.000000
2.027440 0.580948 0.303215 42.000000
2.030167 0.574996 0.303342 42.000000
2.031921 0.568765 0.303342 42.000000
2.033657 0.562528 0.303342 42.000000
2.035373 0.556287 0.303342 42.000000
2.036112 0.549781 0.303215 42.000000
2.040665 0.544299 0.303595 42.000000
2.040406 0.537530 0.303342 42.000000
2.039166 0.530518 0.302962 42.000000
2.041745 0.524506 0.303088 42.000000
2.045267 0.518728 0.303342 42.000000
2.043962 0.511727 0.302962 42.000000
2.044560 0.505216 0.302835 42.000000
2.048028 0.499411 0.303088 42.000000
2.055336 0.494519 0.303848 42.000000
2.054914 0.487752 0.303595 42.000000
2.054469 0.480993 0.303342 42.000000
2.058835 0.475358 0.303721 42.000000
2.060283 0.469039 0.303721 42.000000
2.059777 0.462281 0.303468 42.000000
2.060217 0.455745 0.303342 42.000000
2.060636 0.449211 0.303215 42.000000
2.071703 0.444972 0.304480 42.000000
2.064324 0.436764 0.303342 42.000000
2.063712 0.430024 0.303088 42.000000
2.067937 0.424289 0.303468 42.000000
2.070201 0.418139 0.303595 42.000000
2.073420 0.412173 0.303848 42.000000
2.073701 0.405620 0.303721 42.000000
2.077858 0.399819 0.304101 42.000000
2.079075 0.393442 0.304101 42.000000
2.080272 0.387062 0.304101 42.000000
2.086329 0.381571 0.304734 42.000000
2.066011 0.371304 0.301950 42.000000
2.067141 0.364964 0.301950 42.000000
1.914783 0.985177 0.294858 43.000000
1.918681 0.979750 0.294978 43.000000
1.921678 0.973859 0.294978 43.000000
1.924656 0.967959 0.294978 43.000000
1.927617 0.962050 0.294978 43.000000
1.930559 0.956131 0.294978 43.000000
1.931702 0.949327 0.294738 43.000000
1.932821 0.942525 0.294498 43.000000
1.933024 0.935292 0.294137 43.000000
1.934095 0.928497 0.293897 43.000000
1.934246 0.921277 0.293536 43.000000
1.935269 0.914489 0.293296 43.000000
1.936268 0.907704 0.293056 43.000000
1.937243 0.900921 0.292816 43.000000
1.939097 0.894557 0.292695 43.000000
1.943637 0.889431 0.292936 43.000000
1.944549 0.882642 0.292695 43.000000
1.947248 0.876672 0.292695 43.000000
1.948116 0.869883 0.292455 43.000000
1.950776 0.863902 0.292455 43.000000
1.947965 0.855515 0.291734 43.000000
1.950580 0.849535 0.291734 43.000000
1.952266 0.843153 0.291614 43.000000
1.954844 0.837159 0.291614 43.000000
1.952835 0.829215 0.291014 43.000000
1.958114 0.824377 0.291374 43.000000
1.959718 0.817983 0.291254 43.000000
1.962218 0.811967 0.291254 43.000000
1.962864 0.805188 0.291014 43.000000
1.966244 0.799537 0.291134 43.000000
1.969608 0.793873 0.291254 43.000000
1.972035 0.787826 0.291254 43.000000
1.970751 0.780308 0.290773 43.000000
1.973136 0.774259 0.290773 43.000000
1.976427 0.768562 0.290893 43.000000
1.976923 0.761780 0.290653 43.000000
1.978324 0.755356 0.290533 43.000000
1.983417 0.750339 0.290893 43.000000
1.982921 0.743203 0.290533 43.000000
1.983331 0.736424 0.290293 43.000000
1.984650 0.729993 0.290173 43.000000
1.986880 0.723900 0.290173 43.000000
1.989091 0.717801 0.290173 43.000000
1.990349 0.711361 0.290052 43.000000
1.993458 0.705583 0.290173 43.000000
1.993740 0.698806 0.289932 43.000000
1.994937 0.692360 0.289812 43.000000
1.999868 0.687206 0.290173 43.000000
2.000087 0.680427 0.289932 43.000000
2.001225 0.673970 0.289812 43.000000
2.003283 0.667827 0.289812 43.000000
2.002495 0.660743 0.289452 43.000000
2.002625 0.653979 0.289211 43.000000
2.002733 0.647220 0.288971 43.000000
2.005655 0.641376 0.289091 43.000000
2.005721 0.634620 0.288851 43.000000
2.007658 0.628463 0.288851 43.000000
2.008629 0.622007 0.288731 43.000000
2.012425 0.616424 0.288971 43.000000
2.014307 0.610247 0.288971 43.000000
2.017121 0.604350 0.289091 43.000000
2.019917 0.598441 0.289211 43.000000
2.022696 0.592521 0.289332 43.000000
2.023551 0.586036 0.289211 43.000000
2.024385 0.579551 0.289091 43.000000
2.028064 0.573879 0.289332 43.000000
2.030771 0.567922 0.289452 43.000000
2.032504 0.561689 0.289452 43.000000
2.033260 0.555189 0.289332 43.000000
2.033037 0.548430 0.289091 43.000000
2.037587 0.542959 0.289452 43.000000
2.035404 0.535692 0.288971 43.000000
2.034156 0.528695 0.288611 43.000000
2.034806 0.522204 0.288491 43.000000
2.037361 0.516203 0.288611 43.000000
2.039898 0.510192 0.288731 43.000000
2.042418 0.504169 0.288851 43.000000
2.047812 0.498843 0.289332 43.000000
2.051264 0.493023 0.289572 43.000000
2.051801 0.486498 0.289452 43.000000
2.056183 0.480881 0.289812 43.000000
2.058616 0.474794 0.289932 43.000000
2.060063 0.468476 0.289932 43.000000
2.059553 0.461718 0.289692 43.000000
2.059022 0.454968 0.289452 43.000000
2.062348 0.449072 0.289692 43.000000
2.063716 0.442743 0.289692 43.000000
2.063122 0.435998 0.289452 43.000000
2.064450 0.429666 0.289452 43.000000
2.065758 0.423331 0.289452 43.000000
2.068021 0.417188 0.289572 43.000000
2.072212 0.411423 0.289932 43.000000
2.072490 0.404872 0.289812 43.000000
2.078596 0.399452 0.290413 43.000000
2.077861 0.392703 0.290173 43.000000
2.084912 0.387418 0.290893 43.000000
2.046054 0.373684 0.285968 43.000000
2.049145 0.367757 0.286208 43.000000
1.915016 0.987808 0.282915 44.000000
1.916269 0.981024 0.282686 44.000000
1.918383 0.974691 0.282572 44.000000
1.921365 0.968801 0.282572 44.000000
1.924328 0.962901 0.282572 44.000000
1.926383 0.956552 0.282457 44.000000
1.927526 0.949760 0.282228 44.000000
1.927753 0.942534 0.281884 44.000000
1.928847 0.935750 0.281655 44.000000
1.930814 0.929397 0.281540 44.000000
1.932759 0.923041 0.281426 44.000000
1.933786 0.916258 0.281196 44.000000
1.936588 0.910321 0.281196 44.000000
1.936670 0.903117 0.280853 44.000000
1.938530 0.896755 0.280738 44.000000
1.942175 0.891217 0.280853 44.000000
1.943091 0.884432 0.280624 44.000000
1.943079 0.877242 0.280280 44.000000
1.945761 0.871276 0.280280 44.000000
1.947517 0.864900 0.280165 44.000000
1.943795 0.856121 0.279363 44.000000
1.946413 0.850154 0.279363 44.000000
1.949012 0.844178 0.279363 44.000000
1.951593 0.838195 0.279363 44.000000
1.949584 0.830260 0.278790 44.000000
1.953037 0.824661 0.278905 44.000000
1.955558 0.818665 0.278905 44.000000
1.958061 0.812662 0.278905 44.000000
1.957788 0.805518 0.278561 44.000000
1.963010 0.800632 0.278905 44.000000
1.963615 0.793862 0.278675 44.000000
1.966963 0.788203 0.278790 44.000000
1.966602 0.781066 0.278446 44.000000
1.969914 0.775392 0.278561 44.000000
1.973209 0.769706 0.278675 44.000000
1.973707 0.762933 0.278446 44.000000
1.975111 0.756519 0.278332 44.000000
1.979280 0.751160 0.278561 44.000000
1.980646 0.744735 0.278446 44.000000
1.982921 0.738655 0.278446 44.000000
1.982381 0.731538 0.278103 44.000000
1.986483 0.726134 0.278332 44.000000
1.987767 0.719698 0.278217 44.000000
1.990901 0.713931 0.278332 44.000000
1.992146 0.707488 0.278217 44.000000
1.996181 0.702031 0.278446 44.000000
1.997388 0.695577 0.278332 44.000000
1.998573 0.689123 0.278217 44.000000
2.000678 0.682988 0.278217 44.000000
2.002764 0.676847 0.278217 44.000000
2.002946 0.670070 0.277988 44.000000
2.003106 0.663298 0.277759 44.000000
2.002299 0.656223 0.277415 44.000000
2.001467 0.649159 0.277071 44.000000
2.002504 0.642713 0.276957 44.000000
2.004466 0.636566 0.276957 44.000000
2.002618 0.629224 0.276498 44.000000
2.003590 0.622783 0.276384 44.000000
2.007391 0.617216 0.276613 44.000000
2.010226 0.611343 0.276727 44.000000
2.014946 0.606030 0.277071 44.000000
2.015843 0.599562 0.276957 44.000000
2.021486 0.594494 0.277415 44.000000
2.023301 0.588289 0.277415 44.000000
2.026051 0.582353 0.277530 44.000000
2.029739 0.576677 0.277759 44.000000
2.030543 0.570179 0.277644 44.000000
2.031325 0.563681 0.277530 44.000000
2.034961 0.557971 0.277759 44.000000
2.033786 0.550947 0.277415 44.000000
2.034507 0.544449 0.277300 44.000000
2.035208 0.537951 0.277186 44.000000
2.035887 0.531455 0.277071 44.000000
2.037508 0.525206 0.277071 44.000000
2.039109 0.518953 0.277071 44.000000
2.041656 0.512936 0.277186 44.000000
2.044184 0.506908 0.277300 44.000000
2.046695 0.500870 0.277415 44.000000
2.051119 0.495286 0.277759 44.000000
2.053596 0.489221 0.277873 44.000000
2.055087 0.482918 0.277873 44.000000
2.058494 0.477059 0.278103 44.000000
2.058011 0.470299 0.277873 44.000000
2.059444 0.463983 0.277873 44.000000
2.059888 0.457448 0.277759 44.000000
2.061282 0.451126 0.277759 44.000000
2.062656 0.444800 0.277759 44.000000
2.064011 0.438470 0.277759 44.000000
2.063402 0.431730 0.277530 44.000000
2.067636 0.425997 0.277873 44.000000
2.069907 0.419849 0.277988 44.000000
2.072159 0.413690 0.278103 44.000000
2.072444 0.407140 0.277988 44.000000
2.077585 0.401532 0.278446 44.000000
2.078807 0.395156 0.278446 44.000000
2.086846 0.390050 0.279248 44.000000
2.059695 0.378456 0.275925 44.000000
2.058891 0.371783 0.275696 44.000000
1.909876 0.992451 0.269037 45.000000
1.912911 0.986586 0.269037 45.000000
1.916814 0.981166 0.269146 45.000000
1.919815 0.975281 0.269146 45.000000
1.922799 0.969386 0.269146 45.000000
1.924874 0.963038 0.269037 45.000000
1.928710 0.957570 0.269146 45.000000
1.929855 0.950770 0.268929 45.000000
1.931870 0.944408 0.268821 45.000000
1.934758 0.938477 0.268821 45.000000
1.937628 0.932537 0.268821 45.000000
1.937789 0.925303 0.268496 45.000000
1.939720 0.918928 0.268387 45.000000
1.941630 0.912550 0.268279 45.000000
1.940817 0.904909 0.267846 45.000000
1.943584 0.898951 0.267846 45.000000
1.945429 0.892569 0.267737 45.000000
1.946348 0.885773 0.267521 45.000000
1.945432 0.878162 0.267087 45.000000
1.947210 0.871784 0.266979 45.000000
1.948966 0.865402 0.266870 45.000000
1.948883 0.858218 0.266545 45.000000
1.951506 0.852234 0.266545 45.000000
1.954112 0.846243 0.266545 45.000000
1.951218 0.837892 0.265895 45.000000
1.956523 0.833069 0.266220 45.000000
1.961818 0.828222 0.266545 45.000000
1.961598 0.821049 0.266220 45.000000
1.965026 0.815408 0.266329 45.000000
1.966599 0.808997 0.266220 45.000000
1.969072 0.802960 0.266220 45.000000
1.972448 0.797287 0.266329 45.000000
1.974884 0.791232 0.266329 45.000000
1.976379 0.784803 0.266220 45.000000
1.978777 0.778736 0.266220 45.000000
1.981157 0.772661 0.266220 45.000000
1.983518 0.766580 0.266220 45.000000
1.984932 0.760135 0.266112 45.000000
1.987255 0.754042 0.266112 45.000000
1.987698 0.747242 0.265895 45.000000
1.987186 0.740100 0.265570 45.000000
1.988514 0.733656 0.265462 45.000000
1.990756 0.727552 0.265462 45.000000
1.993913 0.721779 0.265570 45.000000
1.996118 0.715659 0.265570 45.000000
1.997368 0.709199 0.265462 45.000000
2.001410 0.703727 0.265679 45.000000
2.004498 0.697910 0.265787 45.000000
2.006630 0.691757 0.265787 45.000000
2.009684 0.685918 0.265895 45.000000
2.009895 0.679114 0.265679 45.000000
2.010083 0.672314 0.265462 45.000000
2.010249 0.665519 0.265245 45.000000
2.011337 0.659039 0.265137 45.000000
2.011457 0.652253 0.264920 45.000000
2.011556 0.645471 0.264704 45.000000
2.012579 0.638996 0.264595 45.000000
2.015479 0.633116 0.264704 45.000000
2.016462 0.626635 0.264595 45.000000
2.019325 0.620738 0.264704 45.000000
2.022171 0.614829 0.264812 45.000000
2.024048 0.608622 0.264812 45.000000
2.026859 0.602692 0.264920 45.000000
2.030606 0.597032 0.265137 45.000000
2.031473 0.590522 0.265029 45.000000
2.033275 0.584287 0.265029 45.000000
2.036015 0.578317 0.265137 45.000000
2.035865 0.571531 0.264920 45.000000
2.036651 0.565017 0.264812 45.000000
2.038375 0.558766 0.264812 45.000000
2.038160 0.551990 0.264595 45.000000
2.038884 0.545478 0.264487 45.000000
2.040548 0.539220 0.264487 45.000000
2.043154 0.533208 0.264595 45.000000
2.043818 0.526689 0.264487 45.000000
2.043497 0.519927 0.264270 45.000000
2.048940 0.514623 0.264704 45.000000
2.050509 0.508334 0.264704 45.000000
2.051093 0.501805 0.264595 45.000000
2.055522 0.496209 0.264920 45.000000
2.058969 0.490361 0.265137 45.000000
2.060464 0.484042 0.265137 45.000000
2.061939 0.477718 0.265137 45.000000
2.064364 0.471611 0.265245 45.000000
2.065801 0.465276 0.265245 45.000000
2.067219 0.458936 0.265245 45.000000
2.069588 0.452804 0.265354 45.000000
2.070968 0.446452 0.265354 45.000000
2.072328 0.440096 0.265354 45.000000
2.073668 0.433737 0.265354 45.000000
2.075963 0.427573 0.265462 45.000000
2.078239 0.421399 0.265570 45.000000
2.080497 0.415216 0.265679 45.000000
2.081761 0.408831 0.265679 45.000000
2.084958 0.402819 0.265895 45.000000
2.086184 0.396421 0.265895 45.000000
2.080550 0.388742 0.265137 45.000000
2.080755 0.382177 0.265029 45.000000
1.901743 0.993828 0.255164 46.000000
1.903900 0.987530 0.255061 46.000000
1.906921 0.981685 0.255061 46.000000
1.911695 0.976735 0.255266 46.000000
1.915570 0.971316 0.255368 46.000000
1.914987 0.963645 0.254959 46.000000
1.917044 0.957321 0.254857 46.000000
1.921755 0.952319 0.255061 46.000000
1.922882 0.945540 0.254857 46.000000
1.925774 0.939636 0.254857 46.000000
1.929543 0.934157 0.254959 46.000000
1.932400 0.928233 0.254959 46.000000
1.932545 0.921016 0.254652 46.000000
1.935361 0.915083 0.254652 46.000000
1.938160 0.909141 0.254652 46.000000
1.940038 0.902770 0.254550 46.000000
1.940089 0.895563 0.254243 46.000000
1.941923 0.889192 0.254141 46.000000
1.941020 0.881584 0.253732 46.000000
1.941901 0.874808 0.253527 46.000000
1.944576 0.868846 0.253527 46.000000
1.945414 0.862069 0.253323 46.000000
1.948049 0.856097 0.253323 46.000000
1.952490 0.850912 0.253527 46.000000
1.954179 0.844523 0.253425 46.000000
1.955846 0.838131 0.253323 46.000000
1.961155 0.833294 0.253629 46.000000
1.962785 0.826887 0.253527 46.000000
1.966231 0.821245 0.253629 46.000000
1.968741 0.815209 0.253629 46.000000
1.971233 0.809165 0.253629 46.000000
1.970942 0.801989 0.253323 46.000000
1.973393 0.795938 0.253323 46.000000
1.975826 0.789880 0.253323 46.000000
1.975466 0.782715 0.253016 46.000000
1.977858 0.776650 0.253016 46.000000
1.980231 0.770579 0.253016 46.000000
1.979802 0.763426 0.252709 46.000000
1.981205 0.756993 0.252607 46.000000
1.980728 0.749854 0.252300 46.000000
1.981156 0.743075 0.252095 46.000000
1.980629 0.735953 0.251789 46.000000
1.981944 0.729529 0.251686 46.000000
1.984173 0.723445 0.251686 46.000000
1.983577 0.716341 0.251379 46.000000
1.985765 0.710252 0.251379 46.000000
1.988872 0.704488 0.251482 46.000000
1.991024 0.698383 0.251482 46.000000
1.995976 0.693251 0.251789 46.000000
1.998094 0.687124 0.251789 46.000000
2.001134 0.681312 0.251891 46.000000
2.005100 0.675805 0.252095 46.000000
2.006221 0.669335 0.251993 46.000000
2.009209 0.663489 0.252095 46.000000
2.011235 0.657322 0.252095 46.000000
2.012296 0.650842 0.251993 46.000000
2.012388 0.644059 0.251789 46.000000
2.012459 0.637281 0.251584 46.000000
2.014404 0.631104 0.251584 46.000000
2.015381 0.624626 0.251482 46.000000
2.020141 0.619315 0.251789 46.000000
2.020127 0.612537 0.251584 46.000000
2.021997 0.606336 0.251584 46.000000
2.023848 0.600130 0.251584 46.000000
2.025679 0.593918 0.251584 46.000000
2.029403 0.588255 0.251789 46.000000
2.029285 0.581478 0.251584 46.000000
2.031060 0.575249 0.251584 46.000000
2.029942 0.568210 0.251277 46.000000
2.030716 0.561714 0.251175 46.000000
2.034349 0.556007 0.251379 46.000000
2.034125 0.549244 0.251175 46.000000
2.032917 0.542231 0.250868 46.000000
2.036495 0.536499 0.251073 46.000000
2.036206 0.529747 0.250868 46.000000
2.037822 0.523497 0.250868 46.000000
2.036525 0.516509 0.250561 46.000000
2.042925 0.511467 0.251073 46.000000
2.044485 0.505197 0.251073 46.000000
2.045058 0.498687 0.250970 46.000000
2.045612 0.492177 0.250868 46.000000
2.051951 0.487049 0.251379 46.000000
2.052467 0.480524 0.251277 46.000000
2.055870 0.474673 0.251482 46.000000
2.057317 0.468363 0.251482 46.000000
2.058744 0.462049 0.251482 46.000000
2.059181 0.455516 0.251379 46.000000
2.062512 0.449621 0.251584 46.000000
2.062910 0.443082 0.251482 46.000000
2.066206 0.437163 0.251686 46.000000
2.067537 0.430822 0.251686 46.000000
2.069824 0.424677 0.251789 46.000000
2.071117 0.418325 0.251789 46.000000
2.074342 0.412357 0.251993 46.000000
2.078526 0.406564 0.252300 46.000000
2.077809 0.399809 0.252095 46.000000
2.081958 0.393988 0.252402 46.000000
2.084135 0.387781 0.252504 46.000000
1.885264 0.991608 0.240144 47.000000
1.895354 0.989509 0.240912 47.000000
1.899265 0.984148 0.241008 47.000000
1.903160 0.978772 0.241104 47.000000
1.907926 0.973834 0.241296 47.000000
1.910017 0.967526 0.241200 47.000000
1.912088 0.961214 0.241104 47.000000
1.915028 0.955343 0.241104 47.000000
1.918841 0.949906 0.241200 47.000000
1.921747 0.944014 0.241200 47.000000
1.923739 0.937678 0.241104 47.000000
1.926607 0.931771 0.241104 47.000000
1.930354 0.926287 0.241200 47.000000
1.929592 0.918647 0.240816 47.000000
1.933302 0.913149 0.240912 47.000000
1.935193 0.906790 0.240816 47.000000
1.938868 0.901269 0.240912 47.000000
1.938913 0.894064 0.240624 47.000000
1.939837 0.887283 0.240432 47.000000
1.938925 0.879680 0.240048 47.000000
1.940707 0.873318 0.239952 47.000000
1.942469 0.866954 0.239856 47.000000
1.944209 0.860587 0.239760 47.000000
1.947752 0.855019 0.239856 47.000000
1.950366 0.849039 0.239856 47.000000
1.954789 0.843842 0.240048 47.000000
1.957368 0.837841 0.240048 47.000000
1.960846 0.832221 0.240144 47.000000
1.963390 0.826201 0.240144 47.000000
1.967752 0.820941 0.240336 47.000000
1.967502 0.813758 0.240048 47.000000
1.969990 0.807718 0.240048 47.000000
1.969693 0.800544 0.239760 47.000000
1.973063 0.794870 0.239856 47.000000
1.971795 0.787334 0.239472 47.000000
1.970500 0.779814 0.239088 47.000000
1.971030 0.773037 0.238896 47.000000
1.973393 0.766986 0.238896 47.000000
1.972950 0.759854 0.238608 47.000000
1.970623 0.752020 0.238128 47.000000
1.977576 0.747734 0.238608 47.000000
1.977065 0.740614 0.238320 47.000000
1.978395 0.734198 0.238224 47.000000
1.980638 0.728125 0.238224 47.000000
1.983797 0.722386 0.238320 47.000000
1.984132 0.715620 0.238128 47.000000
1.985381 0.709194 0.238032 47.000000
1.986609 0.702767 0.237936 47.000000
1.989695 0.696999 0.238032 47.000000
1.991824 0.690891 0.238032 47.000000
1.993934 0.684777 0.238032 47.000000
1.998852 0.679619 0.238320 47.000000
1.998098 0.672530 0.238032 47.000000
2.002985 0.667342 0.238320 47.000000
2.005023 0.661194 0.238320 47.000000
2.007042 0.655039 0.238320 47.000000
2.006201 0.647959 0.238032 47.000000
2.010075 0.642408 0.238224 47.000000
2.009190 0.635337 0.237936 47.000000
2.013030 0.629765 0.238128 47.000000
2.014952 0.623586 0.238128 47.000000
2.018759 0.617985 0.238320 47.000000
2.017788 0.610922 0.238032 47.000000
2.019653 0.604729 0.238032 47.000000
2.024361 0.599379 0.238320 47.000000
2.026191 0.593165 0.238320 47.000000
2.025133 0.586115 0.238032 47.000000
2.025008 0.579350 0.237840 47.000000
2.029649 0.573949 0.238128 47.000000
2.021815 0.565035 0.237167 47.000000
2.026417 0.559626 0.237455 47.000000
2.028124 0.553406 0.237455 47.000000
2.030774 0.547441 0.237551 47.000000
2.028597 0.540182 0.237167 47.000000
2.033132 0.534716 0.237455 47.000000
2.034763 0.528476 0.237455 47.000000
2.034446 0.521736 0.237263 47.000000
2.034108 0.515002 0.237071 47.000000
2.037610 0.509243 0.237263 47.000000
2.038196 0.502750 0.237167 47.000000
2.039729 0.496495 0.237167 47.000000
2.041242 0.490235 0.237167 47.000000
2.045642 0.484660 0.237455 47.000000
2.047119 0.478382 0.237455 47.000000
2.048578 0.472099 0.237455 47.000000
2.050016 0.465812 0.237455 47.000000
2.055321 0.460393 0.237840 47.000000
2.057695 0.454300 0.237936 47.000000
2.058107 0.447773 0.237840 47.000000
2.059471 0.441456 0.237840 47.000000
2.062763 0.435548 0.238032 47.000000
2.066038 0.429624 0.238224 47.000000
2.066372 0.423084 0.238128 47.000000
2.069611 0.417136 0.238320 47.000000
2.069905 0.410591 0.238224 47.000000
2.071155 0.404238 0.238224 47.000000
2.050882 0.393742 0.236111 47.000000
2.056970 0.388374 0.236591 47.000000
1.895295 1.030178 0.230310 48.000000
1.894579 0.999877 0.228956 48.000000
1.895873 0.993136 0.228775 48.000000
1.899794 0.987774 0.228866 48.000000
1.902816 0.981941 0.228866 48.000000
1.906706 0.976552 0.228956 48.000000
1.907917 0.969796 0.228775 48.000000
1.909994 0.963490 0.228685 48.000000
1.912941 0.957626 0.228685 48.000000
1.914086 0.950867 0.228504 48.000000
1.916994 0.944990 0.228504 48.000000
1.919884 0.939105 0.228504 48.000000
1.922756 0.933210 0.228504 48.000000
1.924713 0.926875 0.228414 48.000000
1.924851 0.919679 0.228143 48.000000
1.932164 0.915900 0.228595 48.000000
1.935866 0.910391 0.228685 48.000000
1.939553 0.904868 0.228775 48.000000
1.940512 0.898078 0.228595 48.000000
1.942353 0.891705 0.228504 48.000000
1.941453 0.884093 0.228143 48.000000
1.943248 0.877723 0.228053 48.000000
1.945932 0.871757 0.228053 48.000000
1.947687 0.865379 0.227963 48.000000
1.948509 0.858598 0.227782 48.000000
1.949309 0.851819 0.227602 48.000000
1.951913 0.845835 0.227602 48.000000
1.954499 0.839842 0.227602 48.000000
1.958899 0.834622 0.227782 48.000000
1.961450 0.828608 0.227782 48.000000
1.965821 0.823355 0.227963 48.000000
1.966498 0.816557 0.227782 48.000000
1.968073 0.810142 0.227692 48.000000
1.969626 0.803724 0.227602 48.000000
1.972083 0.797678 0.227602 48.000000
1.970823 0.790143 0.227240 48.000000
1.968609 0.782257 0.226789 48.000000
1.969146 0.775485 0.226608 48.000000
1.970588 0.769078 0.226518 48.000000
1.970151 0.761953 0.226247 48.000000
1.972479 0.755905 0.226247 48.000000
1.976651 0.750556 0.226428 48.000000
1.977080 0.743788 0.226247 48.000000
1.979353 0.737718 0.226247 48.000000
1.981607 0.731642 0.226247 48.000000
1.985713 0.726243 0.226428 48.000000
1.984186 0.718792 0.226067 48.000000
1.985444 0.712366 0.225976 48.000000
1.987620 0.706271 0.225976 48.000000
1.988838 0.699840 0.225886 48.000000
1.991916 0.694062 0.225976 48.000000
1.994036 0.687948 0.225976 48.000000
1.997080 0.682148 0.226067 48.000000
1.992558 0.673789 0.225435 48.000000
1.999339 0.669250 0.225886 48.000000
2.001383 0.663113 0.225886 48.000000
2.002461 0.656660 0.225796 48.000000
2.003519 0.650207 0.225706 48.000000
2.005504 0.644057 0.225706 48.000000
2.005572 0.637299 0.225525 48.000000
2.009418 0.631739 0.225706 48.000000
2.010396 0.625276 0.225615 48.000000
2.016113 0.620275 0.225976 48.000000
2.015148 0.613218 0.225706 48.000000
2.018927 0.607606 0.225886 48.000000
2.021736 0.601693 0.225976 48.000000
2.024529 0.595768 0.226067 48.000000
2.025390 0.589276 0.225976 48.000000
2.027189 0.583060 0.225976 48.000000
2.028968 0.576838 0.225976 48.000000
2.027851 0.569804 0.225706 48.000000
2.029590 0.563579 0.225706 48.000000
2.034191 0.558139 0.225976 48.000000
2.033010 0.551116 0.225706 48.000000
2.030842 0.543847 0.225344 48.000000
2.033464 0.537868 0.225435 48.000000
2.035105 0.531627 0.225435 48.000000
2.033833 0.524637 0.225164 48.000000
2.035433 0.518394 0.225164 48.000000
2.037014 0.512147 0.225164 48.000000
2.039542 0.506135 0.225254 48.000000
2.040118 0.499639 0.225164 48.000000
2.041641 0.493377 0.225164 48.000000
2.041207 0.486651 0.224983 48.000000
2.047539 0.481523 0.225435 48.000000
2.048036 0.475015 0.225344 48.000000
2.051425 0.469172 0.225525 48.000000
2.051884 0.462658 0.225435 48.000000
2.057183 0.457223 0.225796 48.000000
2.054684 0.450059 0.225435 48.000000
2.058976 0.444382 0.225706 48.000000
2.063252 0.438683 0.225976 48.000000
2.064588 0.432351 0.225976 48.000000
2.064929 0.425814 0.225886 48.000000
2.067202 0.419674 0.225976 48.000000
2.067503 0.413136 0.225886 48.000000
2.056056 0.404300 0.224712 48.000000
2.051419 0.396858 0.224171 48.000000
2.053606 0.390748 0.224261 48.000000
0.705048 -0.463149 0.111224 48.000000
1.903387 1.017662 0.217225 49.000000
1.894176 1.005280 0.216047 49.000000
1.899015 1.000393 0.216215 49.000000
1.902075 0.994562 0.216215 49.000000
1.906002 0.989181 0.216299 49.000000
1.909028 0.983329 0.216299 49.000000
1.912035 0.977467 0.216299 49.000000
1.913248 0.970695 0.216131 49.000000
1.917107 0.965269 0.216215 49.000000
1.918276 0.958492 0.216047 49.000000
1.919422 0.951717 0.215878 49.000000
1.923227 0.946264 0.215962 49.000000
1.923435 0.939048 0.215710 49.000000
1.927204 0.933577 0.215794 49.000000
1.928262 0.926797 0.215626 49.000000
1.930197 0.920448 0.215541 49.000000
1.934814 0.915374 0.215710 49.000000
1.940319 0.910703 0.215962 49.000000
1.941297 0.903905 0.215794 49.000000
1.944966 0.898363 0.215878 49.000000
1.947713 0.892392 0.215878 49.000000
1.948627 0.885588 0.215710 49.000000
1.948609 0.878377 0.215457 49.000000
1.950385 0.871988 0.215373 49.000000
1.952140 0.865597 0.215289 49.000000
1.955699 0.860005 0.215373 49.000000
1.953761 0.852010 0.214952 49.000000
1.955451 0.845616 0.214868 49.000000
1.958036 0.839613 0.214868 49.000000
1.960603 0.833602 0.214868 49.000000
1.962233 0.827196 0.214784 49.000000
1.966600 0.821940 0.214952 49.000000
1.969113 0.815903 0.214952 49.000000
1.970685 0.809480 0.214868 49.000000
1.971313 0.802679 0.214699 49.000000
1.974691 0.797000 0.214784 49.000000
1.973426 0.789458 0.214447 49.000000
1.973985 0.782666 0.214278 49.000000
1.975450 0.776242 0.214194 49.000000
1.976893 0.769816 0.214110 49.000000
1.977386 0.763030 0.213942 49.000000
1.979718 0.756960 0.213942 49.000000
1.982031 0.750883 0.213942 49.000000
1.982460 0.744099 0.213773 49.000000
1.983799 0.737666 0.213689 49.000000
1.988858 0.732609 0.213942 49.000000
1.991096 0.726504 0.213942 49.000000
1.991441 0.719715 0.213773 49.000000
1.994578 0.713937 0.213857 49.000000
1.994881 0.707149 0.213689 49.000000
1.997041 0.701026 0.213689 49.000000
2.000124 0.695223 0.213773 49.000000
2.002247 0.689083 0.213773 49.000000
2.003408 0.682616 0.213689 49.000000
2.001716 0.675193 0.213352 49.000000
2.005669 0.669679 0.213521 49.000000
2.004875 0.662585 0.213268 49.000000
2.007846 0.656741 0.213352 49.000000
2.007955 0.649965 0.213184 49.000000
2.009940 0.643801 0.213184 49.000000
2.010005 0.637030 0.213015 49.000000
2.014803 0.631754 0.213268 49.000000
2.016732 0.625570 0.213268 49.000000
2.019594 0.619672 0.213352 49.000000
2.019579 0.612895 0.213184 49.000000
2.021450 0.606696 0.213184 49.000000
2.024256 0.600774 0.213268 49.000000
2.027046 0.594842 0.213352 49.000000
2.025991 0.587788 0.213100 49.000000
2.028742 0.581844 0.213184 49.000000
2.030518 0.575617 0.213184 49.000000
2.032274 0.569385 0.213184 49.000000
2.032091 0.562616 0.213015 49.000000
2.038613 0.557692 0.213436 49.000000
2.038391 0.550916 0.213268 49.000000
2.038146 0.544146 0.213100 49.000000
2.040769 0.538144 0.213184 49.000000
2.045304 0.532633 0.213436 49.000000
2.044033 0.525612 0.213184 49.000000
2.043704 0.518849 0.213015 49.000000
2.046253 0.512818 0.213100 49.000000
2.048784 0.506777 0.213184 49.000000
2.047425 0.499781 0.212931 49.000000
2.049917 0.493730 0.213015 49.000000
2.053361 0.487899 0.213184 49.000000
2.053878 0.481370 0.213100 49.000000
2.054374 0.474842 0.213015 49.000000
2.057765 0.468980 0.213184 49.000000
2.062111 0.463319 0.213436 49.000000
2.063522 0.456991 0.213436 49.000000
2.065888 0.450870 0.213521 49.000000
2.066288 0.444320 0.213436 49.000000
2.067641 0.437979 0.213436 49.000000
2.071901 0.432244 0.213689 49.000000
2.070289 0.425284 0.213436 49.000000
2.068654 0.418339 0.213184 49.000000
2.066996 0.411407 0.212931 49.000000
2.059447 0.403342 0.212173 49.000000
2.065567 0.397963 0.212594 49.000000
0.700163 -0.455107 0.105408 49.000000
1.889490 1.010092 0.202064 50.000000
1.893461 1.004758 0.202142 50.000000
1.898298 0.999874 0.202297 50.000000
1.900473 0.993583 0.202219 50.000000
1.906167 0.989126 0.202453 50.000000
1.910079 0.983730 0.202530 50.000000
1.912201 0.977411 0.202453 50.000000
1.914301 0.971089 0.202375 50.000000
1.915491 0.964315 0.202219 50.000000
1.916656 0.957542 0.202064 50.000000
1.916013 0.949885 0.201753 50.000000
1.919812 0.944443 0.201830 50.000000
1.923597 0.938986 0.201908 50.000000
1.925571 0.932645 0.201830 50.000000
1.924829 0.925005 0.201519 50.000000
1.925858 0.918237 0.201364 50.000000
1.927765 0.911898 0.201286 50.000000
1.933261 0.907250 0.201519 50.000000
1.933324 0.900052 0.201286 50.000000
1.938792 0.895371 0.201519 50.000000
1.936092 0.886926 0.201053 50.000000
1.942434 0.882633 0.201364 50.000000
1.939680 0.874211 0.200897 50.000000
1.944173 0.869070 0.201053 50.000000
1.944096 0.861888 0.200820 50.000000
1.946731 0.855920 0.200820 50.000000
1.945692 0.848349 0.200509 50.000000
1.948286 0.842375 0.200509 50.000000
1.950861 0.836394 0.200509 50.000000
1.953418 0.830405 0.200509 50.000000
1.955038 0.824021 0.200431 50.000000
1.958476 0.818403 0.200509 50.000000
1.960978 0.812391 0.200509 50.000000
1.961617 0.805613 0.200353 50.000000
1.964079 0.799591 0.200353 50.000000
1.967448 0.793935 0.200431 50.000000
1.965246 0.786043 0.200042 50.000000
1.965795 0.779275 0.199886 50.000000
1.970032 0.773970 0.200042 50.000000
1.971468 0.767560 0.199964 50.000000
1.971954 0.760790 0.199809 50.000000
1.974279 0.754737 0.199809 50.000000
1.975653 0.748323 0.199731 50.000000
1.976072 0.741557 0.199575 50.000000
1.976469 0.734796 0.199420 50.000000
1.980585 0.729419 0.199575 50.000000
1.980941 0.722655 0.199420 50.000000
1.983148 0.716574 0.199420 50.000000
1.984399 0.710150 0.199342 50.000000
1.987508 0.704392 0.199420 50.000000
1.989660 0.698291 0.199420 50.000000
1.993676 0.692839 0.199575 50.000000
1.995792 0.686719 0.199575 50.000000
1.996002 0.679950 0.199420 50.000000
1.998079 0.673823 0.199420 50.000000
1.998246 0.667058 0.199264 50.000000
2.001229 0.661237 0.199342 50.000000
2.003248 0.655094 0.199342 50.000000
2.005249 0.648945 0.199342 50.000000
2.007230 0.642790 0.199342 50.000000
2.007292 0.636026 0.199187 50.000000
2.008283 0.629567 0.199109 50.000000
2.010205 0.623402 0.199109 50.000000
2.013061 0.617525 0.199187 50.000000
2.012084 0.610477 0.198953 50.000000
2.013948 0.604301 0.198953 50.000000
2.015792 0.598120 0.198953 50.000000
2.017618 0.591932 0.198953 50.000000
2.015594 0.584628 0.198642 50.000000
2.021212 0.579541 0.198953 50.000000
2.024899 0.573882 0.199109 50.000000
2.025690 0.567398 0.199031 50.000000
2.029342 0.561713 0.199187 50.000000
2.033941 0.556274 0.199420 50.000000
2.034676 0.549771 0.199342 50.000000
2.033463 0.542754 0.199109 50.000000
2.035119 0.536513 0.199109 50.000000
2.037720 0.530518 0.199187 50.000000
2.036441 0.523519 0.198953 50.000000
2.039970 0.517759 0.199109 50.000000
2.041549 0.511498 0.199109 50.000000
2.044077 0.505472 0.199187 50.000000
2.042712 0.498489 0.198953 50.000000
2.047140 0.492920 0.199187 50.000000
2.051552 0.487329 0.199420 50.000000
2.051096 0.480578 0.199264 50.000000
2.055475 0.474957 0.199498 50.000000
2.056923 0.468648 0.199498 50.000000
2.058351 0.462336 0.199498 50.000000
2.058786 0.455803 0.199420 50.000000
2.062123 0.449910 0.199575 50.000000
2.061544 0.443162 0.199420 50.000000
2.062894 0.436835 0.199420 50.000000
2.064224 0.430504 0.199420 50.000000
2.064559 0.423968 0.199342 50.000000
2.063896 0.417237 0.199187 50.000000
2.090588 0.415966 0.201208 50.000000
2.092833 0.409742 0.201286 50.000000
0.706377 -0.453630 0.100427 50.000000
1.879187 1.010183 0.188353 51.000000
1.885796 1.006293 0.188639 51.000000
1.892399 1.002372 0.188926 51.000000
1.895465 0.996562 0.188926 51.000000
1.900282 0.991666 0.189069 51.000000
1.905086 0.986749 0.189213 51.000000
1.909878 0.981813 0.189356 51.000000
1.910216 0.974588 0.189141 51.000000
1.912308 0.968271 0.189069 51.000000
1.913487 0.961503 0.188926 51.000000
1.914644 0.954737 0.188783 51.000000
1.912201 0.946202 0.188353 51.000000
1.915095 0.940331 0.188353 51.000000
1.916178 0.933576 0.188209 51.000000
1.918136 0.927258 0.188138 51.000000
1.918274 0.920074 0.187923 51.000000
1.921088 0.914184 0.187923 51.000000
1.923883 0.908286 0.187923 51.000000
1.925758 0.901956 0.187851 51.000000
1.926707 0.895202 0.187708 51.000000
1.928539 0.888869 0.187636 51.000000
1.932164 0.883363 0.187708 51.000000
1.933049 0.876606 0.187564 51.000000
1.933001 0.869443 0.187349 51.000000
1.936570 0.863915 0.187421 51.000000
1.938299 0.857566 0.187349 51.000000
1.941834 0.852016 0.187421 51.000000
1.942610 0.845258 0.187277 51.000000
1.946110 0.839690 0.187349 51.000000
1.947760 0.833322 0.187277 51.000000
1.949389 0.826953 0.187206 51.000000
1.949160 0.819807 0.186991 51.000000
1.955347 0.815360 0.187277 51.000000
1.955996 0.808594 0.187134 51.000000
1.954777 0.801075 0.186847 51.000000
1.956301 0.794698 0.186776 51.000000
1.958730 0.788692 0.186776 51.000000
1.958362 0.781569 0.186561 51.000000
1.961678 0.775924 0.186632 51.000000
1.961264 0.768809 0.186417 51.000000
1.966402 0.763873 0.186632 51.000000
1.963153 0.755684 0.186202 51.000000
1.968257 0.750725 0.186417 51.000000
1.968685 0.743977 0.186274 51.000000
1.970025 0.737583 0.186202 51.000000
1.971343 0.731188 0.186131 51.000000
1.973577 0.725137 0.186131 51.000000
1.975793 0.719079 0.186131 51.000000
1.976113 0.712336 0.185987 51.000000
1.977350 0.705934 0.185916 51.000000
1.980447 0.700198 0.185987 51.000000
1.982586 0.694118 0.185987 51.000000
1.987532 0.689014 0.186202 51.000000
1.986807 0.681940 0.185987 51.000000
1.988890 0.675842 0.185987 51.000000
1.990009 0.669418 0.185916 51.000000
1.990161 0.662678 0.185772 51.000000
1.994079 0.657195 0.185916 51.000000
1.996086 0.651074 0.185916 51.000000
1.997125 0.644640 0.185844 51.000000
1.999093 0.638510 0.185844 51.000000
2.001043 0.632374 0.185844 51.000000
2.002974 0.626232 0.185844 51.000000
2.003932 0.619789 0.185772 51.000000
2.005825 0.613638 0.185772 51.000000
2.004834 0.606613 0.185557 51.000000
1.998087 0.597881 0.184912 51.000000
2.002781 0.592599 0.185127 51.000000
2.004590 0.586452 0.185127 51.000000
2.007337 0.580577 0.185199 51.000000
2.011027 0.574965 0.185342 51.000000
2.013741 0.569064 0.185414 51.000000
2.017398 0.563421 0.185557 51.000000
2.021040 0.557761 0.185701 51.000000
2.025628 0.552347 0.185916 51.000000
2.026350 0.545870 0.185844 51.000000
2.027052 0.539393 0.185772 51.000000
2.028697 0.533172 0.185772 51.000000
2.033219 0.527699 0.185987 51.000000
2.032897 0.520962 0.185844 51.000000
2.035452 0.514968 0.185916 51.000000
2.037990 0.508963 0.185987 51.000000
2.039542 0.502708 0.185987 51.000000
2.042043 0.496685 0.186059 51.000000
2.044528 0.490651 0.186131 51.000000
2.044082 0.483915 0.185987 51.000000
2.046528 0.477869 0.186059 51.000000
2.049928 0.472037 0.186202 51.000000
2.048450 0.465082 0.185987 51.000000
2.049867 0.458795 0.185987 51.000000
2.051265 0.452504 0.185987 51.000000
2.053618 0.446421 0.186059 51.000000
2.053027 0.439700 0.185916 51.000000
2.056318 0.433812 0.186059 51.000000
2.056663 0.427298 0.185987 51.000000
2.062850 0.421988 0.186346 51.000000
2.075867 0.418027 0.187206 51.000000
2.090836 0.414378 0.188209 51.000000
1.878518 1.013199 0.176153 52.000000
1.887777 1.010724 0.176614 52.000000
1.895276 1.007267 0.176944 52.000000
1.895709 1.000052 0.176746 52.000000
1.899652 0.994694 0.176812 52.000000
1.904466 0.989781 0.176944 52.000000
1.907494 0.983933 0.176944 52.000000
1.910504 0.978077 0.176944 52.000000
1.911716 0.971308 0.176812 52.000000
1.913795 0.964989 0.176746 52.000000
1.914069 0.957775 0.176548 52.000000
1.915211 0.951012 0.176417 52.000000
1.917224 0.944691 0.176351 52.000000
1.919217 0.938367 0.176285 52.000000
1.921188 0.932039 0.176219 52.000000
1.921341 0.924844 0.176021 52.000000
1.922368 0.918086 0.175889 52.000000
1.923372 0.911330 0.175757 52.000000
1.924352 0.904577 0.175625 52.000000
1.926214 0.898248 0.175560 52.000000
1.928960 0.892334 0.175560 52.000000
1.928967 0.885165 0.175362 52.000000
1.931674 0.879243 0.175362 52.000000
1.934363 0.873312 0.175362 52.000000
1.939765 0.868596 0.175560 52.000000
1.940597 0.861831 0.175428 52.000000
1.944145 0.856275 0.175494 52.000000
1.943105 0.848711 0.175230 52.000000
1.947531 0.843538 0.175362 52.000000
1.955612 0.839919 0.175757 52.000000
1.949915 0.830401 0.175164 52.000000
1.950615 0.823639 0.175032 52.000000
1.954053 0.818036 0.175098 52.000000
1.954710 0.811273 0.174966 52.000000
1.955344 0.804514 0.174834 52.000000
1.951334 0.795877 0.174373 52.000000
1.958393 0.791754 0.174702 52.000000
1.959886 0.785372 0.174637 52.000000
1.960431 0.778619 0.174505 52.000000
1.965597 0.773696 0.174702 52.000000
1.965172 0.766576 0.174505 52.000000
1.968446 0.760902 0.174571 52.000000
1.969839 0.754503 0.174505 52.000000
1.970278 0.747749 0.174373 52.000000
1.970694 0.741000 0.174241 52.000000
1.972023 0.734602 0.174175 52.000000
1.974268 0.728549 0.174175 52.000000
1.975556 0.722146 0.174109 52.000000
1.974947 0.715065 0.173911 52.000000
1.976192 0.708666 0.173845 52.000000
1.977417 0.702266 0.173780 52.000000
1.979562 0.696196 0.173780 52.000000
1.983573 0.690775 0.173911 52.000000
1.986627 0.685011 0.173977 52.000000
1.987775 0.678591 0.173911 52.000000
1.987956 0.671852 0.173780 52.000000
1.987169 0.664801 0.173582 52.000000
1.991094 0.659328 0.173714 52.000000
1.994056 0.653526 0.173780 52.000000
1.995102 0.647098 0.173714 52.000000
1.997078 0.640974 0.173714 52.000000
1.999035 0.634844 0.173714 52.000000
2.000021 0.628410 0.173648 52.000000
2.000986 0.621975 0.173582 52.000000
2.004793 0.616419 0.173714 52.000000
2.004765 0.609686 0.173582 52.000000
2.004715 0.602959 0.173450 52.000000
2.007512 0.597089 0.173516 52.000000
2.009334 0.590928 0.173516 52.000000
2.010179 0.584482 0.173450 52.000000
2.011004 0.578037 0.173384 52.000000
2.015648 0.572681 0.173582 52.000000
2.020278 0.567302 0.173780 52.000000
2.022970 0.561368 0.173845 52.000000
2.024683 0.555159 0.173845 52.000000
2.025414 0.548684 0.173780 52.000000
2.028051 0.542725 0.173845 52.000000
2.029707 0.536501 0.173845 52.000000
2.032309 0.530523 0.173911 52.000000
2.033927 0.524285 0.173911 52.000000
2.036493 0.518288 0.173977 52.000000
2.037106 0.511795 0.173911 52.000000
2.037698 0.505304 0.173845 52.000000
2.039238 0.499050 0.173845 52.000000
2.039790 0.492557 0.173780 52.000000
2.041291 0.486297 0.173780 52.000000
2.042773 0.480032 0.173780 52.000000
2.047153 0.474437 0.173977 52.000000
2.045681 0.467489 0.173780 52.000000
2.045158 0.460773 0.173648 52.000000
2.049484 0.455144 0.173845 52.000000
2.050871 0.448854 0.173845 52.000000
2.048337 0.441721 0.173582 52.000000
2.051635 0.435848 0.173714 52.000000
2.058823 0.430774 0.174109 52.000000
2.070886 0.426665 0.174834 52.000000
2.062405 0.418331 0.174175 52.000000
2.090102 0.417262 0.175955 52.000000
1.902176 1.040493 0.164807 53.000000
1.892199 1.027509 0.163913 53.000000
1.894464 1.021226 0.163853 53.000000
1.898468 1.015880 0.163913 53.000000
1.901576 1.010050 0.163913 53.000000
1.903783 1.003746 0.163853 53.000000
1.905084 0.996975 0.163734 53.000000
1.908134 0.991126 0.163734 53.000000
1.911166 0.985267 0.163734 53.000000
1.912402 0.978490 0.163614 53.000000
1.914505 0.972167 0.163555 53.000000
1.917478 0.966289 0.163555 53.000000
1.918648 0.959509 0.163435 53.000000
1.920689 0.953174 0.163376 53.000000
1.923604 0.947277 0.163376 53.000000
1.926501 0.941371 0.163376 53.000000
1.927583 0.934586 0.163256 53.000000
1.927743 0.927370 0.163077 53.000000
1.929678 0.921021 0.163018 53.000000
1.930690 0.914243 0.162898 53.000000
1.929871 0.906618 0.162660 53.000000
1.931739 0.900271 0.162600 53.000000
1.933586 0.893922 0.162540 53.000000
1.935412 0.887570 0.162481 53.000000
1.938126 0.881628 0.162481 53.000000
1.939001 0.874857 0.162362 53.000000
1.943499 0.869719 0.162481 53.000000
1.944333 0.862943 0.162362 53.000000
1.947885 0.857376 0.162421 53.000000
1.949591 0.850996 0.162362 53.000000
1.949444 0.843822 0.162183 53.000000
1.951107 0.837444 0.162123 53.000000
1.953667 0.831454 0.162123 53.000000
1.955289 0.825068 0.162063 53.000000
1.957811 0.819066 0.162063 53.000000
1.960314 0.813055 0.162063 53.000000
1.961876 0.806658 0.162004 53.000000
1.963417 0.800259 0.161944 53.000000
1.964012 0.793484 0.161825 53.000000
1.968291 0.788196 0.161944 53.000000
