# This PCD file was generated using the MATLAB® pcwrite function
# from Computer Vision Toolbox®.
# .PCD v.7 - Point Cloud Data file format
VERSION .7
FIELDS x y z intensity
SIZE 4 4 4 4
TYPE F F F F
COUNT 1 1 1 1
WIDTH 1265
HEIGHT 1
VIEWPOINT 0 0 0 1 0 0 0
POINTS 1265
DATA ascii
2.091700 0.627766 0.059263 61.000000
2.092657 0.621061 0.059253 61.000000
2.098391 0.615764 0.059295 61.000000
2.100270 0.609323 0.059295 61.000000
2.098285 0.601775 0.059253 61.000000
2.103970 0.596425 0.059295 61.000000
2.105789 0.589967 0.059295 61.000000
2.107589 0.583504 0.059295 61.000000
2.109370 0.577035 0.059295 61.000000
2.110165 0.570300 0.059285 61.000000
2.110938 0.563566 0.059274 61.000000
2.112657 0.557087 0.059274 61.000000
2.114357 0.550603 0.059274 61.000000
2.117973 0.544611 0.059295 61.000000
2.119634 0.538110 0.059295 61.000000
2.124185 0.532334 0.059327 61.000000
2.123866 0.525334 0.059306 61.000000
2.127411 0.519290 0.059327 61.000000
2.128022 0.512527 0.059316 61.000000
2.131530 0.506458 0.059338 61.000000
2.135995 0.500600 0.059370 61.000000
2.133623 0.493144 0.059327 61.000000
2.132201 0.485930 0.059295 61.000000
2.136609 0.480043 0.059327 61.000000
2.138072 0.473486 0.059327 61.000000
2.139514 0.466924 0.059327 61.000000
2.143870 0.460988 0.059359 61.000000
2.143317 0.453995 0.059338 61.000000
2.144700 0.447417 0.059338 61.000000
2.148022 0.441237 0.059359 61.000000
2.149365 0.434645 0.059359 61.000000
2.150689 0.428049 0.059359 61.000000
2.151010 0.421257 0.059348 61.000000
2.153275 0.414844 0.059359 61.000000
2.155520 0.408422 0.059370 61.000000
2.156763 0.401807 0.059370 61.000000
2.159952 0.395548 0.059391 61.000000
2.162140 0.389097 0.059402 61.000000
2.163323 0.382462 0.059402 61.000000
2.166457 0.376165 0.059423 61.000000
2.165629 0.369181 0.059402 61.000000
2.168724 0.362864 0.059423 61.000000
2.168841 0.356047 0.059412 61.000000
2.170910 0.349551 0.059423 61.000000
2.171972 0.342889 0.059423 61.000000
2.173014 0.336224 0.059423 61.000000
2.173047 0.329406 0.059412 61.000000
2.176025 0.323030 0.059434 61.000000
2.173048 0.315779 0.059391 61.000000
2.175986 0.309391 0.059412 61.000000
2.175935 0.302577 0.059402 61.000000
2.174871 0.295630 0.059380 61.000000
2.176759 0.289088 0.059391 61.000000
2.171686 0.281638 0.059327 61.000000
2.163611 0.273846 0.059231 61.000000
2.164441 0.267206 0.059231 61.000000
4.453450 -1.876697 0.087465 61.000000
4.434498 -1.900835 0.087380 61.000000
4.420385 -1.910859 0.087284 61.000000
4.416335 -1.925211 0.087306 61.000000
0.712629 -0.463218 0.045061 61.000000
0.705349 -0.461567 0.044987 61.000000
0.701426 -0.462078 0.044955 61.000000
0.700005 -0.464227 0.044955 61.000000
1.962536 0.965048 0.045275 62.000000
1.965487 0.959022 0.045275 62.000000
1.973137 0.947811 0.045283 62.000000
2.029536 0.914305 0.045438 62.000000
2.028710 0.891562 0.045396 62.000000
2.031436 0.885334 0.045396 62.000000
2.032307 0.878304 0.045388 62.000000
2.035911 0.872459 0.045392 62.000000
2.036738 0.865426 0.045384 62.000000
2.038462 0.858785 0.045379 62.000000
2.039242 0.851756 0.045371 62.000000
2.040921 0.845113 0.045367 62.000000
2.042579 0.838467 0.045363 62.000000
2.043290 0.831443 0.045354 62.000000
2.044904 0.824796 0.045350 62.000000
2.047425 0.818518 0.045350 62.000000
2.047137 0.811128 0.045337 62.000000
2.049616 0.804843 0.045337 62.000000
2.050212 0.797826 0.045329 62.000000
2.051717 0.791172 0.045325 62.000000
2.051332 0.783802 0.045312 62.000000
2.053727 0.777505 0.045312 62.000000
2.056103 0.771201 0.045312 62.000000
2.056585 0.764192 0.045304 62.000000
2.057981 0.757534 0.045300 62.000000
2.060296 0.751216 0.045300 62.000000
2.059769 0.743872 0.045287 62.000000
2.062042 0.737549 0.045287 62.000000
2.065238 0.731554 0.045291 62.000000
2.068416 0.725546 0.045296 62.000000
2.068743 0.718540 0.045287 62.000000
2.069992 0.711864 0.045283 62.000000
2.075952 0.706800 0.045300 62.000000
2.075268 0.699469 0.045287 62.000000
2.075507 0.692466 0.045279 62.000000
2.076673 0.685781 0.045275 62.000000
2.078767 0.679407 0.045275 62.000000
2.077987 0.672102 0.045262 62.000000
2.081944 0.666334 0.045270 62.000000
2.083025 0.659641 0.045266 62.000000
2.084085 0.652948 0.045262 62.000000
2.086078 0.646552 0.045262 62.000000
2.088052 0.640149 0.045262 62.000000
2.088093 0.633159 0.045254 62.000000
2.089067 0.626462 0.045250 62.000000
2.090980 0.620050 0.045250 62.000000
2.092872 0.613632 0.045250 62.000000
2.094745 0.607208 0.045250 62.000000
2.096598 0.600779 0.045250 62.000000
2.100355 0.594889 0.045258 62.000000
2.101207 0.588173 0.045254 62.000000
2.104930 0.582257 0.045262 62.000000
2.106706 0.575797 0.045262 62.000000
2.108463 0.569331 0.045262 62.000000
2.109233 0.562601 0.045258 62.000000
2.109982 0.555873 0.045254 62.000000
2.108775 0.548641 0.045241 62.000000
2.110448 0.542169 0.045241 62.000000
2.111132 0.535445 0.045237 62.000000
2.113735 0.529209 0.045241 62.000000
2.114378 0.522482 0.045237 62.000000
2.113056 0.515281 0.045224 62.000000
2.118516 0.509732 0.045241 62.000000
2.122016 0.503693 0.045250 62.000000
2.122577 0.496952 0.045245 62.000000
2.126041 0.490888 0.045254 62.000000
2.130462 0.485029 0.045266 62.000000
2.130964 0.478272 0.045262 62.000000
2.132421 0.471732 0.045262 62.000000
2.134836 0.465401 0.045266 62.000000
2.137231 0.459059 0.045270 62.000000
2.138629 0.452500 0.045270 62.000000
2.138050 0.445528 0.045262 62.000000
2.142345 0.439570 0.045275 62.000000
2.143684 0.432996 0.045275 62.000000
2.145002 0.426417 0.045275 62.000000
2.146300 0.419834 0.045275 62.000000
2.147578 0.413247 0.045275 62.000000
2.151783 0.407215 0.045287 62.000000
2.154006 0.400795 0.045291 62.000000
2.155225 0.394184 0.045291 62.000000
2.158393 0.387924 0.045300 62.000000
2.158588 0.381127 0.045296 62.000000
2.160732 0.374674 0.045300 62.000000
2.161872 0.368043 0.045300 62.000000
2.163977 0.361573 0.045304 62.000000
2.164089 0.354771 0.045300 62.000000
2.164180 0.347971 0.045296 62.000000
2.166225 0.341486 0.045300 62.000000
2.167263 0.334838 0.045300 62.000000
2.168280 0.328187 0.045300 62.000000
2.170266 0.321680 0.045304 62.000000
2.172232 0.315164 0.045308 62.000000
2.171209 0.308217 0.045300 62.000000
2.169173 0.301142 0.045287 62.000000
2.175041 0.295158 0.045308 62.000000
2.172962 0.288089 0.045296 62.000000
2.155985 0.279107 0.045220 62.000000
2.160800 0.272994 0.045237 62.000000
4.512320 -1.852941 0.056547 62.000000
4.429717 -1.915053 0.056329 62.000000
4.412820 -1.923840 0.056279 62.000000
4.405066 -1.936564 0.056270 62.000000
0.700564 -0.456165 0.039616 62.000000
1.950971 0.965833 0.031654 63.000000
1.950336 0.958078 0.031662 63.000000
1.957978 0.946964 0.031658 63.000000
2.039806 0.925516 0.031522 63.000000
2.016241 0.892518 0.031595 63.000000
2.024462 0.888743 0.031582 63.000000
2.026263 0.882128 0.031584 63.000000
2.029877 0.876305 0.031582 63.000000
2.032556 0.870073 0.031582 63.000000
2.029694 0.861486 0.031595 63.000000
2.036014 0.856808 0.031587 63.000000
2.037710 0.850172 0.031589 63.000000
2.040309 0.843917 0.031589 63.000000
2.039188 0.836134 0.031597 63.000000
2.041744 0.829874 0.031597 63.000000
2.042425 0.822857 0.031601 63.000000
2.043083 0.815845 0.031605 63.000000
2.042788 0.808467 0.031612 63.000000
2.045259 0.802196 0.031612 63.000000
2.045846 0.795192 0.031616 63.000000
2.048276 0.788912 0.031616 63.000000
2.048819 0.781910 0.031620 63.000000
2.051208 0.775621 0.031620 63.000000
2.054514 0.769675 0.031618 63.000000
2.055928 0.763020 0.031620 63.000000
2.058260 0.756709 0.031620 63.000000
2.060571 0.750391 0.031620 63.000000
2.062864 0.744066 0.031620 63.000000
2.064195 0.737396 0.031622 63.000000
2.064563 0.730392 0.031626 63.000000
2.065850 0.723724 0.031628 63.000000
2.068061 0.717382 0.031628 63.000000
2.066470 0.709733 0.031637 63.000000
2.067691 0.703067 0.031639 63.000000
2.067943 0.696081 0.031643 63.000000
2.071966 0.690367 0.031639 63.000000
2.073125 0.683693 0.031641 63.000000
2.074262 0.677019 0.031643 63.000000
2.076329 0.670652 0.031643 63.000000
2.080282 0.664889 0.031639 63.000000
2.082312 0.658503 0.031639 63.000000
2.084322 0.652112 0.031639 63.000000
2.085358 0.645418 0.031641 63.000000
2.088284 0.639310 0.031639 63.000000
2.087365 0.632030 0.031645 63.000000
2.089294 0.625623 0.031645 63.000000
2.091204 0.619210 0.031645 63.000000
2.094053 0.613073 0.031643 63.000000
2.094003 0.606088 0.031647 63.000000
2.096814 0.599937 0.031645 63.000000
2.099607 0.593774 0.031643 63.000000
2.103345 0.587869 0.031639 63.000000
2.104175 0.581146 0.031641 63.000000
2.106912 0.574952 0.031639 63.000000
2.107701 0.568224 0.031641 63.000000
2.107502 0.561240 0.031645 63.000000
2.108247 0.554516 0.031647 63.000000
2.108003 0.547542 0.031652 63.000000
2.107736 0.540574 0.031656 63.000000
2.108415 0.533859 0.031658 63.000000
2.110043 0.527388 0.031658 63.000000
2.108739 0.520192 0.031664 63.000000
2.111296 0.513957 0.031662 63.000000
2.112863 0.507477 0.031662 63.000000
2.116356 0.501455 0.031658 63.000000
2.119832 0.495416 0.031654 63.000000
2.123290 0.489360 0.031649 63.000000
2.126732 0.483288 0.031645 63.000000
2.128204 0.476761 0.031645 63.000000
2.129657 0.470229 0.031645 63.000000
2.131090 0.463694 0.031645 63.000000
2.135435 0.457784 0.031639 63.000000
2.135851 0.451023 0.031641 63.000000
2.138204 0.444672 0.031639 63.000000
2.138578 0.437909 0.031641 63.000000
2.141872 0.431742 0.031637 63.000000
2.145148 0.425559 0.031633 63.000000
2.146444 0.418976 0.031633 63.000000
2.147719 0.412389 0.031633 63.000000
2.148974 0.405798 0.031633 63.000000
2.150209 0.399203 0.031633 63.000000
2.151424 0.392604 0.031633 63.000000
2.152618 0.386002 0.031633 63.000000
2.153792 0.379396 0.031633 63.000000
2.154946 0.372787 0.031633 63.000000
2.156080 0.366174 0.031633 63.000000
2.157193 0.359557 0.031633 63.000000
2.157299 0.352775 0.031635 63.000000
2.158371 0.346155 0.031635 63.000000
2.162386 0.339999 0.031628 63.000000
2.164407 0.333516 0.031626 63.000000
2.165421 0.326874 0.031626 63.000000
2.169381 0.320670 0.031620 63.000000
2.171344 0.314156 0.031618 63.000000
2.171307 0.307353 0.031620 63.000000
2.173231 0.300827 0.031618 63.000000
2.173152 0.294024 0.031620 63.000000
2.161157 0.285645 0.031647 63.000000
2.165990 0.279528 0.031639 63.000000
4.519340 -1.856890 0.025980 63.000000
4.513622 -1.870747 0.025980 63.000000
4.488484 -1.876490 0.026024 63.000000
4.463354 -1.882097 0.026068 63.000000
4.451117 -1.893044 0.026083 63.000000
4.426567 -1.914764 0.026112 63.000000
4.406004 -1.921942 0.026145 63.000000
0.704545 -0.462808 0.034448 63.000000
2.009753 0.906880 0.018986 64.000000
2.020742 0.904382 0.018916 64.000000
2.004309 0.889669 0.019081 64.000000
2.016184 0.887540 0.019002 64.000000
2.019814 0.881750 0.018994 64.000000
2.020674 0.874755 0.019010 64.000000
2.026105 0.869734 0.018986 64.000000
2.026003 0.862340 0.019010 64.000000
2.028639 0.856121 0.019010 64.000000
2.031256 0.849893 0.019010 64.000000
2.033854 0.843657 0.019010 64.000000
2.032733 0.835894 0.019041 64.000000
2.033435 0.828900 0.019057 64.000000
2.034114 0.821909 0.019073 64.000000
2.036626 0.815665 0.019073 64.000000
2.035400 0.807939 0.019104 64.000000
2.039731 0.802422 0.019088 64.000000
2.040319 0.795435 0.019104 64.000000
2.041817 0.788811 0.019112 64.000000
2.043294 0.782186 0.019120 64.000000
2.047554 0.776622 0.019104 64.000000
2.055545 0.772444 0.019057 64.000000
2.057905 0.766134 0.019057 64.000000
2.060246 0.759817 0.019057 64.000000
2.061627 0.753150 0.019065 64.000000
2.062988 0.746482 0.019073 64.000000
2.064327 0.739812 0.019081 64.000000
2.064702 0.732808 0.019096 64.000000
2.064110 0.725477 0.019120 64.000000
2.068215 0.719797 0.019104 64.000000
2.064740 0.711497 0.019151 64.000000
2.065020 0.704514 0.019167 64.000000
2.067172 0.698175 0.019167 64.000000
2.069304 0.691830 0.019167 64.000000
2.070467 0.685165 0.019175 64.000000
2.071609 0.678499 0.019183 64.000000
2.072729 0.671832 0.019190 64.000000
2.077638 0.666385 0.019167 64.000000
2.079672 0.660007 0.019167 64.000000
2.083596 0.654222 0.019151 64.000000
2.082728 0.646938 0.019175 64.000000
2.086615 0.641132 0.019159 64.000000
2.086658 0.634147 0.019175 64.000000
2.088594 0.627742 0.019175 64.000000
2.090510 0.621331 0.019175 64.000000
2.094325 0.615478 0.019159 64.000000
2.094283 0.608492 0.019175 64.000000
2.095179 0.601789 0.019183 64.000000
2.097015 0.595358 0.019183 64.000000
2.099795 0.589191 0.019175 64.000000
2.099665 0.582213 0.019190 64.000000
2.102406 0.576032 0.019183 64.000000
2.102232 0.569058 0.019198 64.000000
2.104934 0.562864 0.019190 64.000000
2.105685 0.556148 0.019198 64.000000
2.103510 0.548678 0.019230 64.000000
2.105183 0.542222 0.019230 64.000000
2.103929 0.535023 0.019253 64.000000
2.109441 0.529537 0.019222 64.000000
2.111055 0.523063 0.019222 64.000000
2.109736 0.515873 0.019245 64.000000
2.114225 0.510100 0.019222 64.000000
2.115780 0.503612 0.019222 64.000000
2.119262 0.497574 0.019206 64.000000
2.121753 0.491295 0.019198 64.000000
2.124226 0.485005 0.019190 64.000000
2.124728 0.478267 0.019198 64.000000
2.126185 0.471746 0.019198 64.000000
2.127623 0.465221 0.019198 64.000000
2.130995 0.459111 0.019183 64.000000
2.132394 0.452571 0.019183 64.000000
2.135730 0.446435 0.019167 64.000000
2.137089 0.439881 0.019167 64.000000
2.141369 0.433917 0.019143 64.000000
2.142691 0.427345 0.019143 64.000000
2.145954 0.421153 0.019128 64.000000
2.146254 0.414379 0.019136 64.000000
2.147516 0.407792 0.019136 64.000000
2.150723 0.401568 0.019120 64.000000
2.148994 0.394428 0.019143 64.000000
2.150194 0.387833 0.019143 64.000000
2.150389 0.381060 0.019151 64.000000
2.151548 0.374461 0.019151 64.000000
2.150715 0.367523 0.019167 64.000000
2.154791 0.361417 0.019143 64.000000
2.157863 0.355128 0.019128 64.000000
2.158943 0.348507 0.019128 64.000000
2.162965 0.342349 0.019104 64.000000
2.164005 0.335711 0.019104 64.000000
2.165025 0.329071 0.019104 64.000000
2.168992 0.322867 0.019081 64.000000
2.171951 0.316498 0.019065 64.000000
2.170932 0.309552 0.019081 64.000000
2.173852 0.303166 0.019065 64.000000
2.175763 0.296629 0.019057 64.000000
2.155846 0.287191 0.019222 64.000000
2.158700 0.280833 0.019206 64.000000
4.448136 -1.889478 -0.001654 64.000000
4.420855 -1.909990 -0.001520 64.000000
4.408558 -1.920747 -0.001465 64.000000
1.982095 0.923729 0.005108 65.000000
2.001258 0.925193 0.004850 65.000000
2.006897 0.912896 0.004850 65.000000
2.009689 0.906735 0.004850 65.000000
2.004246 0.896891 0.004979 65.000000
2.016128 0.894792 0.004836 65.000000
2.020694 0.889408 0.004807 65.000000
2.020664 0.882004 0.004850 65.000000
2.022443 0.875404 0.004864 65.000000
2.026038 0.869589 0.004850 65.000000
2.025936 0.862195 0.004893 65.000000
2.027650 0.855587 0.004907 65.000000
2.028421 0.848591 0.004936 65.000000
2.031015 0.842364 0.004936 65.000000
2.032665 0.835749 0.004950 65.000000
2.033367 0.828754 0.004979 65.000000
2.034973 0.822138 0.004993 65.000000
2.036557 0.815519 0.005007 65.000000
2.038120 0.808898 0.005022 65.000000
2.040592 0.802642 0.005022 65.000000
2.042114 0.796015 0.005036 65.000000
2.045479 0.790106 0.005022 65.000000
2.046026 0.783112 0.005050 65.000000
2.050288 0.777540 0.005022 65.000000
2.053600 0.771598 0.005007 65.000000
2.055958 0.765294 0.005007 65.000000
2.057358 0.758637 0.005022 65.000000
2.059675 0.752321 0.005022 65.000000
2.061974 0.745999 0.005022 65.000000
2.061429 0.738658 0.005065 65.000000
2.061801 0.731662 0.005093 65.000000
2.063092 0.725001 0.005108 65.000000
2.064362 0.718340 0.005122 65.000000
2.064666 0.711352 0.005151 65.000000
2.063999 0.704046 0.005193 65.000000
2.065202 0.697391 0.005208 65.000000
2.067332 0.691052 0.005208 65.000000
2.070391 0.685020 0.005193 65.000000
2.071533 0.678354 0.005208 65.000000
2.074556 0.672304 0.005193 65.000000
2.076609 0.665936 0.005193 65.000000
2.081501 0.660468 0.005151 65.000000
2.083518 0.654079 0.005151 65.000000
2.085515 0.647684 0.005151 65.000000
2.089404 0.641870 0.005122 65.000000
2.092320 0.635747 0.005108 65.000000
2.093303 0.629037 0.005122 65.000000
2.096181 0.622897 0.005108 65.000000
2.098082 0.616463 0.005108 65.000000
2.098043 0.609466 0.005136 65.000000
2.097020 0.602199 0.005179 65.000000
2.099819 0.596035 0.005165 65.000000
2.100676 0.589320 0.005179 65.000000
2.102473 0.582873 0.005179 65.000000
2.103287 0.576156 0.005193 65.000000
2.105045 0.569700 0.005193 65.000000
2.105817 0.562981 0.005208 65.000000
2.107534 0.556518 0.005208 65.000000
2.107297 0.549545 0.005236 65.000000
2.112846 0.544074 0.005179 65.000000
2.115474 0.537836 0.005165 65.000000
2.115175 0.530857 0.005193 65.000000
2.116794 0.524365 0.005193 65.000000
2.118392 0.517868 0.005193 65.000000
2.118999 0.511132 0.005208 65.000000
2.121530 0.504860 0.005193 65.000000
2.123069 0.498349 0.005193 65.000000
2.124588 0.491833 0.005193 65.000000
2.126087 0.485313 0.005193 65.000000
2.124639 0.478130 0.005236 65.000000
2.128048 0.472042 0.005208 65.000000
2.130463 0.465724 0.005193 65.000000
2.130905 0.458975 0.005208 65.000000
2.130347 0.452021 0.005236 65.000000
2.134660 0.446096 0.005193 65.000000
2.136998 0.439746 0.005179 65.000000
2.140297 0.433585 0.005151 65.000000
2.139656 0.426626 0.005179 65.000000
2.143898 0.420636 0.005136 65.000000
2.148124 0.414625 0.005093 65.000000
2.149386 0.408033 0.005093 65.000000
2.149645 0.401253 0.005108 65.000000
2.151849 0.394837 0.005093 65.000000
2.153050 0.388233 0.005093 65.000000
2.155216 0.381800 0.005079 65.000000
2.155392 0.375015 0.005093 65.000000
2.158504 0.368737 0.005065 65.000000
2.159625 0.362113 0.005065 65.000000
2.160725 0.355486 0.005065 65.000000
2.161806 0.348855 0.005065 65.000000
2.163854 0.342377 0.005050 65.000000
2.165882 0.335890 0.005036 65.000000
2.167891 0.329393 0.005022 65.000000
2.168891 0.322741 0.005022 65.000000
2.169871 0.316085 0.005022 65.000000
2.171821 0.309568 0.005007 65.000000
2.171770 0.302765 0.005022 65.000000
2.167735 0.295427 0.005093 65.000000
2.149798 0.286271 0.005365 65.000000
4.402490 -1.901304 -0.032230 65.000000
4.398980 -1.931901 -0.032359 65.000000
2.502115 -1.135502 -0.002921 65.000000
0.701020 -0.455323 0.024442 65.000000
1.955618 0.939391 -0.008182 66.000000
1.972190 0.932504 -0.008429 66.000000
1.982407 0.922495 -0.008532 66.000000
1.993544 0.905452 -0.008594 66.000000
2.012719 0.906726 -0.008965 66.000000
2.012753 0.899323 -0.008903 66.000000
2.019159 0.894764 -0.008985 66.000000
2.018234 0.886956 -0.008903 66.000000
2.021862 0.881159 -0.008924 66.000000
2.022720 0.874159 -0.008882 66.000000
2.018041 0.864797 -0.008718 66.000000
2.023445 0.859775 -0.008779 66.000000
2.024231 0.852787 -0.008738 66.000000
2.024993 0.845801 -0.008697 66.000000
2.024807 0.838437 -0.008635 66.000000
2.025520 0.831461 -0.008594 66.000000
2.028062 0.825243 -0.008594 66.000000
2.029657 0.818643 -0.008574 66.000000
2.032159 0.812412 -0.008574 66.000000
2.034642 0.806174 -0.008574 66.000000
2.038966 0.800659 -0.008615 66.000000
2.038618 0.793312 -0.008553 66.000000
2.041043 0.787054 -0.008553 66.000000
2.043447 0.780788 -0.008553 66.000000
2.047703 0.775223 -0.008594 66.000000
2.050072 0.768938 -0.008594 66.000000
2.049610 0.761599 -0.008532 66.000000
2.049122 0.754271 -0.008471 66.000000
2.051427 0.747981 -0.008471 66.000000
2.050891 0.740664 -0.008409 66.000000
2.053154 0.734369 -0.008409 66.000000
2.053512 0.727398 -0.008368 66.000000
2.052904 0.720101 -0.008306 66.000000
2.054159 0.713472 -0.008285 66.000000
2.055393 0.706841 -0.008265 66.000000
2.057552 0.700532 -0.008265 66.000000
2.059692 0.694216 -0.008265 66.000000
2.059915 0.687260 -0.008223 66.000000
2.062014 0.680937 -0.008223 66.000000
2.064093 0.674608 -0.008223 66.000000
2.066153 0.668272 -0.008223 66.000000
2.071050 0.662845 -0.008285 66.000000
2.074027 0.656790 -0.008306 66.000000
2.076986 0.650723 -0.008326 66.000000
2.080883 0.644940 -0.008368 66.000000
2.084763 0.639140 -0.008409 66.000000
2.086715 0.632741 -0.008409 66.000000
2.082900 0.624612 -0.008285 66.000000
2.091516 0.620209 -0.008429 66.000000
2.086694 0.611819 -0.008285 66.000000
2.089521 0.605693 -0.008306 66.000000
2.090408 0.599004 -0.008285 66.000000
2.092236 0.592588 -0.008285 66.000000
2.094044 0.586166 -0.008285 66.000000
2.096796 0.580006 -0.008306 66.000000
2.100495 0.574098 -0.008347 66.000000
2.104177 0.568172 -0.008388 66.000000
2.103012 0.560941 -0.008326 66.000000
2.104723 0.554486 -0.008326 66.000000
2.107382 0.548278 -0.008347 66.000000
2.110990 0.542308 -0.008388 66.000000
2.110706 0.535337 -0.008347 66.000000
2.113308 0.529102 -0.008368 66.000000
2.113951 0.522376 -0.008347 66.000000
2.115544 0.515888 -0.008347 66.000000
2.114201 0.508693 -0.008285 66.000000
2.115751 0.502205 -0.008285 66.000000
2.117282 0.495711 -0.008285 66.000000
2.116845 0.488763 -0.008244 66.000000
2.119309 0.482488 -0.008265 66.000000
2.120779 0.475984 -0.008265 66.000000
2.119301 0.468827 -0.008203 66.000000
2.121706 0.462536 -0.008223 66.000000
2.123115 0.456025 -0.008223 66.000000
2.123526 0.449302 -0.008203 66.000000
2.124895 0.442785 -0.008203 66.000000
2.130161 0.437068 -0.008285 66.000000
2.131491 0.430531 -0.008285 66.000000
2.129861 0.423404 -0.008223 66.000000
2.131150 0.416868 -0.008223 66.000000
2.138309 0.411462 -0.008347 66.000000
2.130720 0.403225 -0.008162 66.000000
2.143742 0.398883 -0.008409 66.000000
2.145939 0.392484 -0.008429 66.000000
2.149101 0.386253 -0.008471 66.000000
2.151261 0.379832 -0.008491 66.000000
2.152416 0.373230 -0.008491 66.000000
2.154536 0.366793 -0.008512 66.000000
2.156637 0.360346 -0.008532 66.000000
2.157733 0.353728 -0.008532 66.000000
2.156834 0.346788 -0.008491 66.000000
2.159863 0.340481 -0.008532 66.000000
2.159909 0.333701 -0.008512 66.000000
2.160923 0.327073 -0.008512 66.000000
2.161916 0.320441 -0.008512 66.000000
2.166847 0.314382 -0.008594 66.000000
2.164831 0.307311 -0.008532 66.000000
2.168735 0.301081 -0.008594 66.000000
2.171630 0.294695 -0.008635 66.000000
4.421092 -1.927445 -0.062837 66.000000
2.477403 -1.116627 -0.019467 66.000000
1.991009 0.902929 -0.021792 67.000000
1.995593 0.897637 -0.021845 67.000000
1.999250 0.891918 -0.021872 67.000000
2.003805 0.886590 -0.021925 67.000000
2.007431 0.880841 -0.021952 67.000000
2.012873 0.875876 -0.022032 67.000000
2.018304 0.870886 -0.022112 67.000000
2.020966 0.864690 -0.022112 67.000000
2.019009 0.856531 -0.021979 67.000000
2.021627 0.850333 -0.021979 67.000000
2.021459 0.842971 -0.021898 67.000000
2.023113 0.836383 -0.021872 67.000000
2.023819 0.829413 -0.021818 67.000000
2.024503 0.822447 -0.021765 67.000000
2.027943 0.816605 -0.021792 67.000000
2.028583 0.809638 -0.021738 67.000000
2.029198 0.802674 -0.021685 67.000000
2.033512 0.797176 -0.021738 67.000000
2.035949 0.790933 -0.021738 67.000000
2.037433 0.784323 -0.021712 67.000000
2.038896 0.777712 -0.021685 67.000000
2.033793 0.768622 -0.021471 67.000000
2.038013 0.763081 -0.021525 67.000000
2.041282 0.757173 -0.021551 67.000000
2.038904 0.749181 -0.021418 67.000000
2.044011 0.743949 -0.021498 67.000000
2.043463 0.736656 -0.021418 67.000000
2.047596 0.731057 -0.021471 67.000000
2.049829 0.724771 -0.021471 67.000000
2.049213 0.717486 -0.021391 67.000000
2.052349 0.711524 -0.021418 67.000000
2.056413 0.705874 -0.021471 67.000000
2.057623 0.699240 -0.021445 67.000000
2.057863 0.692285 -0.021391 67.000000
2.060926 0.686285 -0.021418 67.000000
2.061123 0.679332 -0.021364 67.000000
2.064148 0.673316 -0.021391 67.000000
2.066204 0.666980 -0.021391 67.000000
2.069193 0.660943 -0.021418 67.000000
2.073117 0.655195 -0.021471 67.000000
2.074163 0.648533 -0.021445 67.000000
2.075188 0.641870 -0.021418 67.000000
2.073325 0.634329 -0.021311 67.000000
2.072391 0.627095 -0.021231 67.000000
2.075263 0.621021 -0.021258 67.000000
2.081950 0.616072 -0.021391 67.000000
2.084790 0.609963 -0.021418 67.000000
2.083771 0.602729 -0.021338 67.000000
2.087532 0.596884 -0.021391 67.000000
2.091277 0.591022 -0.021445 67.000000
2.091155 0.584064 -0.021391 67.000000
2.093901 0.577912 -0.021418 67.000000
2.097593 0.572013 -0.021471 67.000000
2.098372 0.565314 -0.021445 67.000000
2.098165 0.558358 -0.021391 67.000000
2.100835 0.552173 -0.021418 67.000000
2.104454 0.546229 -0.021471 67.000000
2.103215 0.539024 -0.021391 67.000000
2.108735 0.533552 -0.021498 67.000000
2.111332 0.527322 -0.021525 67.000000
2.108087 0.519643 -0.021391 67.000000
2.110643 0.513410 -0.021418 67.000000
2.111236 0.506699 -0.021391 67.000000
2.112781 0.500219 -0.021391 67.000000
2.114305 0.493735 -0.021391 67.000000
2.114836 0.487021 -0.021364 67.000000
2.108523 0.478756 -0.021151 67.000000
2.115834 0.473598 -0.021311 67.000000
2.119229 0.467536 -0.021364 67.000000
2.121630 0.461245 -0.021391 67.000000
2.122058 0.454524 -0.021364 67.000000
2.122464 0.447804 -0.021338 67.000000
2.122849 0.441087 -0.021311 67.000000
2.122234 0.434170 -0.021258 67.000000
2.125516 0.428053 -0.021311 67.000000
2.126819 0.421530 -0.021311 67.000000
2.130065 0.415387 -0.021364 67.000000
2.131329 0.408850 -0.021364 67.000000
2.136502 0.403052 -0.021471 67.000000
2.138711 0.396679 -0.021498 67.000000
2.142869 0.390655 -0.021578 67.000000
2.145041 0.384255 -0.021605 67.000000
2.147194 0.377847 -0.021631 67.000000
2.147358 0.371087 -0.021605 67.000000
2.151443 0.365000 -0.021685 67.000000
2.153538 0.358562 -0.021712 67.000000
2.155615 0.352115 -0.021738 67.000000
2.153724 0.345024 -0.021658 67.000000
2.156747 0.338727 -0.021712 67.000000
2.157777 0.332108 -0.021712 67.000000
2.156808 0.325188 -0.021658 67.000000
2.157796 0.318569 -0.021658 67.000000
2.158763 0.311947 -0.021658 67.000000
2.151792 0.304199 -0.021445 67.000000
2.190341 0.302818 -0.022459 67.000000
2.520196 -1.137415 -0.037251 67.000000
1.996873 0.908459 -0.034551 68.000000
1.999651 0.902328 -0.034551 68.000000
2.002410 0.896189 -0.034551 68.000000
2.005150 0.890042 -0.034551 68.000000
2.007871 0.883886 -0.034551 68.000000
2.011489 0.878121 -0.034583 68.000000
2.012339 0.871152 -0.034519 68.000000
2.014084 0.864581 -0.034486 68.000000
2.016726 0.858398 -0.034486 68.000000
2.018430 0.851818 -0.034454 68.000000
2.019189 0.844851 -0.034389 68.000000
2.019925 0.837887 -0.034324 68.000000
2.021561 0.831307 -0.034291 68.000000
2.021325 0.823970 -0.034194 68.000000
2.022916 0.817391 -0.034162 68.000000
2.025414 0.811181 -0.034162 68.000000
2.026035 0.804227 -0.034097 68.000000
2.026633 0.797277 -0.034032 68.000000
2.028138 0.790693 -0.033999 68.000000
2.032419 0.785186 -0.034064 68.000000
2.032951 0.778233 -0.033999 68.000000
2.034395 0.771639 -0.033967 68.000000
2.035816 0.765043 -0.033934 68.000000
2.036280 0.758097 -0.033869 68.000000
2.037659 0.751501 -0.033837 68.000000
2.039955 0.745246 -0.033837 68.000000
2.042231 0.738984 -0.033837 68.000000
2.044489 0.732715 -0.033837 68.000000
2.047669 0.726773 -0.033869 68.000000
2.048003 0.719825 -0.033804 68.000000
2.051146 0.713867 -0.033837 68.000000
2.053327 0.707571 -0.033837 68.000000
2.055488 0.701268 -0.033837 68.000000
2.056682 0.694639 -0.033804 68.000000
2.058804 0.688326 -0.033804 68.000000
2.060906 0.682006 -0.033804 68.000000
2.062989 0.675680 -0.033804 68.000000
2.063150 0.668733 -0.033740 68.000000
2.067096 0.663009 -0.033804 68.000000
2.069120 0.656665 -0.033804 68.000000
2.071125 0.650313 -0.033804 68.000000
2.070246 0.643068 -0.033707 68.000000
2.072209 0.636714 -0.033707 68.000000
2.074153 0.630353 -0.033707 68.000000
2.075120 0.623700 -0.033675 68.000000
2.077982 0.617615 -0.033707 68.000000
2.081785 0.611799 -0.033772 68.000000
2.080772 0.604575 -0.033675 68.000000
2.083578 0.598463 -0.033707 68.000000
2.085404 0.592068 -0.033707 68.000000
2.087211 0.585668 -0.033707 68.000000
2.088035 0.578995 -0.033675 68.000000
2.088837 0.572322 -0.033642 68.000000
2.090583 0.565911 -0.033642 68.000000
2.091344 0.559237 -0.033610 68.000000
2.094016 0.553073 -0.033642 68.000000
2.097638 0.547150 -0.033707 68.000000
2.099306 0.540712 -0.033707 68.000000
2.102893 0.534760 -0.033772 68.000000
2.104524 0.528306 -0.033772 68.000000
2.107105 0.522087 -0.033804 68.000000
2.108697 0.515620 -0.033804 68.000000
2.108325 0.508680 -0.033740 68.000000
2.108903 0.501979 -0.033707 68.000000
2.108487 0.495050 -0.033642 68.000000
2.109022 0.488354 -0.033610 68.000000
2.110511 0.481882 -0.033610 68.000000
2.111979 0.475404 -0.033610 68.000000
2.115380 0.469355 -0.033675 68.000000
2.118762 0.463289 -0.033740 68.000000
2.119197 0.456576 -0.033707 68.000000
2.120588 0.450072 -0.033707 68.000000
2.121958 0.443564 -0.033707 68.000000
2.124288 0.437253 -0.033740 68.000000
2.125620 0.430734 -0.033740 68.000000
2.128892 0.424601 -0.033804 68.000000
2.130184 0.418067 -0.033804 68.000000
2.130476 0.411341 -0.033772 68.000000
2.135656 0.405547 -0.033902 68.000000
2.136890 0.398993 -0.033902 68.000000
2.140070 0.392795 -0.033967 68.000000
2.143232 0.386581 -0.034032 68.000000
2.146377 0.380351 -0.034097 68.000000
2.146549 0.373594 -0.034064 68.000000
2.148670 0.367174 -0.034097 68.000000
2.151758 0.360910 -0.034162 68.000000
2.153841 0.354469 -0.034194 68.000000
2.154919 0.347859 -0.034194 68.000000
2.156963 0.341402 -0.034226 68.000000
2.158000 0.334783 -0.034226 68.000000
2.159018 0.328161 -0.034226 68.000000
2.161003 0.321682 -0.034259 68.000000
2.156045 0.314189 -0.034064 68.000000
2.189653 0.312212 -0.035135 68.000000
2.179711 0.303980 -0.034778 68.000000
2.483710 -1.127205 -0.051883 68.000000
1.997664 0.915267 -0.048390 69.000000
1.997733 0.907894 -0.048273 69.000000
1.999598 0.901351 -0.048235 69.000000
2.002354 0.895212 -0.048235 69.000000
2.003264 0.888255 -0.048157 69.000000
2.005980 0.882104 -0.048157 69.000000
2.007761 0.875547 -0.048118 69.000000
2.008603 0.868590 -0.048041 69.000000
2.010340 0.862030 -0.048002 69.000000
2.013895 0.856249 -0.048041 69.000000
2.016512 0.850066 -0.048041 69.000000
2.019111 0.843876 -0.048041 69.000000
2.020767 0.837295 -0.048002 69.000000
2.021477 0.830333 -0.047925 69.000000
2.022164 0.823373 -0.047847 69.000000
2.023754 0.816792 -0.047808 69.000000
2.026251 0.810579 -0.047808 69.000000
2.026870 0.803623 -0.047731 69.000000
2.028396 0.797035 -0.047692 69.000000
2.032694 0.791533 -0.047770 69.000000
2.031383 0.783855 -0.047615 69.000000
2.032845 0.777263 -0.047576 69.000000
2.036155 0.771376 -0.047615 69.000000
2.037576 0.764775 -0.047576 69.000000
2.038040 0.757824 -0.047499 69.000000
2.039417 0.751222 -0.047460 69.000000
2.041712 0.744962 -0.047460 69.000000
2.043988 0.738694 -0.047460 69.000000
2.046245 0.732420 -0.047460 69.000000
2.049424 0.726473 -0.047499 69.000000
2.052586 0.720512 -0.047537 69.000000
2.052899 0.713556 -0.047460 69.000000
2.056969 0.707904 -0.047537 69.000000
2.059131 0.701590 -0.047537 69.000000
2.062220 0.695589 -0.047576 69.000000
2.062449 0.688626 -0.047499 69.000000
2.064552 0.682296 -0.047499 69.000000
2.065686 0.675648 -0.047460 69.000000
2.067749 0.669307 -0.047460 69.000000
2.070744 0.663265 -0.047499 69.000000
2.073722 0.657211 -0.047537 69.000000
2.073821 0.650248 -0.047460 69.000000
2.073898 0.643291 -0.047382 69.000000
2.075861 0.636925 -0.047382 69.000000
2.077806 0.630553 -0.047382 69.000000
2.079731 0.624176 -0.047382 69.000000
2.081636 0.617792 -0.047382 69.000000
2.082562 0.611122 -0.047344 69.000000
2.083468 0.604452 -0.047305 69.000000
2.085312 0.598057 -0.047305 69.000000
2.086176 0.591384 -0.047266 69.000000
2.087981 0.584981 -0.047266 69.000000
2.088802 0.578306 -0.047227 69.000000
2.088639 0.571368 -0.047150 69.000000
2.089417 0.564697 -0.047111 69.000000
2.091140 0.558284 -0.047111 69.000000
2.094775 0.552375 -0.047189 69.000000
2.095493 0.545694 -0.047150 69.000000
2.097157 0.539262 -0.047150 69.000000
2.101708 0.533563 -0.047266 69.000000
2.103335 0.527113 -0.047266 69.000000
2.103972 0.520417 -0.047227 69.000000
2.106529 0.514197 -0.047266 69.000000
2.110040 0.508199 -0.047344 69.000000
2.109645 0.501262 -0.047266 69.000000
2.109227 0.494331 -0.047189 69.000000
2.109760 0.487633 -0.047150 69.000000
2.113195 0.481602 -0.047227 69.000000
2.114662 0.475117 -0.047227 69.000000
2.116110 0.468627 -0.047227 69.000000
2.120467 0.462771 -0.047344 69.000000
2.121876 0.456263 -0.047344 69.000000
2.125221 0.450165 -0.047421 69.000000
2.128549 0.444051 -0.047499 69.000000
2.131859 0.437920 -0.047576 69.000000
2.135151 0.431773 -0.047654 69.000000
2.137446 0.425416 -0.047692 69.000000
2.138741 0.418856 -0.047692 69.000000
2.140016 0.412292 -0.047692 69.000000
2.142253 0.405911 -0.047731 69.000000
2.143488 0.399337 -0.047731 69.000000
2.143720 0.392579 -0.047692 69.000000
2.144915 0.386000 -0.047692 69.000000
2.148057 0.379765 -0.047770 69.000000
2.147243 0.372832 -0.047692 69.000000
2.148376 0.366242 -0.047692 69.000000
2.150476 0.359814 -0.047731 69.000000
2.153541 0.353539 -0.047808 69.000000
2.153629 0.346771 -0.047770 69.000000
2.155670 0.340318 -0.047808 69.000000
2.158679 0.334008 -0.047886 69.000000
2.160681 0.327533 -0.047925 69.000000
2.158711 0.320463 -0.047808 69.000000
2.151773 0.312691 -0.047499 69.000000
2.147775 0.305385 -0.047305 69.000000
2.477161 -1.116055 -0.068533 69.000000
2.450982 -1.113315 -0.067564 69.000000
1.992160 0.918773 -0.061200 70.000000
1.995877 0.913073 -0.061244 70.000000
1.999579 0.907358 -0.061289 70.000000
2.000531 0.900399 -0.061200 70.000000
2.003284 0.894257 -0.061200 70.000000
2.006019 0.888107 -0.061200 70.000000
2.006904 0.881145 -0.061110 70.000000
2.008682 0.874585 -0.061066 70.000000
2.009522 0.867626 -0.060976 70.000000
2.010338 0.860670 -0.060887 70.000000
2.011130 0.853717 -0.060798 70.000000
2.012819 0.847155 -0.060753 70.000000
2.016330 0.841361 -0.060798 70.000000
2.016133 0.834025 -0.060664 70.000000
2.018682 0.827835 -0.060664 70.000000
2.020287 0.821262 -0.060619 70.000000
2.021870 0.814686 -0.060574 70.000000
2.024360 0.808480 -0.060574 70.000000
2.026831 0.802265 -0.060574 70.000000
2.028353 0.795678 -0.060530 70.000000
2.030785 0.789451 -0.060530 70.000000
2.033197 0.783217 -0.060530 70.000000
2.035590 0.776976 -0.060530 70.000000
2.037965 0.770727 -0.060530 70.000000
2.040319 0.764471 -0.060530 70.000000
2.041719 0.757860 -0.060485 70.000000
2.044972 0.751938 -0.060530 70.000000
2.045392 0.744976 -0.060440 70.000000
2.046728 0.738358 -0.060396 70.000000
2.048043 0.731739 -0.060351 70.000000
2.050278 0.725452 -0.060351 70.000000
2.050609 0.718498 -0.060262 70.000000
2.053747 0.712531 -0.060306 70.000000
2.054979 0.705902 -0.060262 70.000000
2.057135 0.699594 -0.060262 70.000000
2.059272 0.693280 -0.060262 70.000000
2.059493 0.686327 -0.060172 70.000000
2.061589 0.680005 -0.060172 70.000000
2.063666 0.673677 -0.060172 70.000000
2.064772 0.667035 -0.060128 70.000000
2.067760 0.661002 -0.060172 70.000000
2.068826 0.654353 -0.060128 70.000000
2.070824 0.648003 -0.060128 70.000000
2.071848 0.641351 -0.060083 70.000000
2.071896 0.634407 -0.059994 70.000000
2.073832 0.628047 -0.059994 70.000000
2.074792 0.621395 -0.059949 70.000000
2.076689 0.615027 -0.059949 70.000000
2.077607 0.608372 -0.059904 70.000000
2.079464 0.601995 -0.059904 70.000000
2.082262 0.595887 -0.059949 70.000000
2.082158 0.588952 -0.059860 70.000000
2.084917 0.582831 -0.059904 70.000000
2.086695 0.576431 -0.059904 70.000000
2.089417 0.570290 -0.059949 70.000000
2.090193 0.563617 -0.059904 70.000000
2.091912 0.557202 -0.059904 70.000000
2.095544 0.551290 -0.059994 70.000000
2.097225 0.544858 -0.059994 70.000000
2.095984 0.537676 -0.059860 70.000000
2.100529 0.531979 -0.059994 70.000000
2.101182 0.525290 -0.059949 70.000000
2.101814 0.518602 -0.059904 70.000000
2.103395 0.512151 -0.059904 70.000000
2.106899 0.506163 -0.059994 70.000000
2.105526 0.499005 -0.059860 70.000000
2.105101 0.492088 -0.059770 70.000000
2.108548 0.486076 -0.059860 70.000000
2.111978 0.480048 -0.059949 70.000000
2.111491 0.473129 -0.059860 70.000000
2.113908 0.466865 -0.059904 70.000000
2.117282 0.460802 -0.059994 70.000000
2.120640 0.454724 -0.060083 70.000000
2.122025 0.448215 -0.060083 70.000000
2.124368 0.441907 -0.060128 70.000000
2.127671 0.435788 -0.060217 70.000000
2.129977 0.429456 -0.060262 70.000000
2.132265 0.423114 -0.060306 70.000000
2.133553 0.416571 -0.060306 70.000000
2.134821 0.410023 -0.060306 70.000000
2.136069 0.403471 -0.060306 70.000000
2.137296 0.396916 -0.060306 70.000000
2.138504 0.390357 -0.060306 70.000000
2.138708 0.383618 -0.060262 70.000000
2.141843 0.377402 -0.060351 70.000000
2.143975 0.370999 -0.060396 70.000000
2.143133 0.364085 -0.060306 70.000000
2.146211 0.357837 -0.060396 70.000000
2.148284 0.351413 -0.060440 70.000000
2.149353 0.344820 -0.060440 70.000000
2.152374 0.338535 -0.060530 70.000000
2.153403 0.331930 -0.060530 70.000000
2.154411 0.325322 -0.060530 70.000000
2.147493 0.317540 -0.060172 70.000000
2.125717 0.307655 -0.059145 70.000000
2.126651 0.301132 -0.059145 70.000000
2.481230 -1.110238 -0.084649 70.000000
2.469616 -1.114149 -0.084247 70.000000
2.454364 -1.116345 -0.083666 70.000000
2.449111 -1.123038 -0.083577 70.000000
1.983619 0.921265 -0.074956 71.000000
1.989157 0.916430 -0.075109 71.000000
1.993775 0.911154 -0.075211 71.000000
1.996561 0.905033 -0.075211 71.000000
1.999329 0.898903 -0.075211 71.000000
2.001165 0.892358 -0.075160 71.000000
2.005720 0.887023 -0.075262 71.000000
2.008432 0.880866 -0.075262 71.000000
2.008378 0.873503 -0.075109 71.000000
2.010131 0.866941 -0.075058 71.000000
2.012782 0.860770 -0.075058 71.000000
2.013575 0.853810 -0.074956 71.000000
2.013423 0.846466 -0.074802 71.000000
2.016011 0.840285 -0.074802 71.000000
2.020425 0.834860 -0.074905 71.000000
2.021129 0.827899 -0.074802 71.000000
2.020884 0.820566 -0.074649 71.000000
2.024318 0.814736 -0.074700 71.000000
2.024953 0.807780 -0.074598 71.000000
2.026493 0.801196 -0.074547 71.000000
2.028012 0.794611 -0.074496 71.000000
2.029510 0.788023 -0.074445 71.000000
2.031918 0.781793 -0.074445 71.000000
2.034307 0.775555 -0.074445 71.000000
2.036676 0.769310 -0.074445 71.000000
2.039962 0.763409 -0.074496 71.000000
2.042295 0.757147 -0.074496 71.000000
2.045545 0.751222 -0.074547 71.000000
2.045964 0.744259 -0.074445 71.000000
2.048237 0.737979 -0.074445 71.000000
2.051432 0.732028 -0.074496 71.000000
2.050844 0.724731 -0.074342 71.000000
2.053058 0.718435 -0.074342 71.000000
2.055252 0.712133 -0.074342 71.000000
2.056483 0.705500 -0.074291 71.000000
2.059583 0.699509 -0.074342 71.000000
2.059827 0.692550 -0.074240 71.000000
2.062889 0.686543 -0.074291 71.000000
2.063089 0.679585 -0.074189 71.000000
2.065164 0.673252 -0.074189 71.000000
2.068170 0.667220 -0.074240 71.000000
2.069256 0.660568 -0.074189 71.000000
2.069369 0.653614 -0.074087 71.000000
2.071364 0.647262 -0.074087 71.000000
2.072386 0.640609 -0.074036 71.000000
2.073387 0.633955 -0.073985 71.000000
2.074367 0.627301 -0.073933 71.000000
2.076281 0.620934 -0.073933 71.000000
2.077219 0.614278 -0.073882 71.000000
2.077177 0.607341 -0.073780 71.000000
2.080949 0.601521 -0.073882 71.000000
2.083745 0.595408 -0.073933 71.000000
2.085562 0.589013 -0.073933 71.000000
2.088321 0.582881 -0.073985 71.000000
2.091062 0.576737 -0.074036 71.000000
2.092821 0.570319 -0.074036 71.000000
2.096489 0.564416 -0.074138 71.000000
2.097246 0.557724 -0.074087 71.000000
2.100879 0.551796 -0.074189 71.000000
2.100629 0.544845 -0.074087 71.000000
2.101323 0.538150 -0.074036 71.000000
2.102964 0.531700 -0.074036 71.000000
2.103617 0.525004 -0.073985 71.000000
2.105218 0.518548 -0.073985 71.000000
2.104858 0.511614 -0.073882 71.000000
2.107389 0.505387 -0.073933 71.000000
2.107958 0.498689 -0.073882 71.000000
2.109478 0.492219 -0.073882 71.000000
2.110978 0.485745 -0.073882 71.000000
2.114406 0.479709 -0.073985 71.000000
2.115868 0.473220 -0.073985 71.000000
2.116334 0.466511 -0.073933 71.000000
2.118731 0.460229 -0.073985 71.000000
2.121110 0.453936 -0.074036 71.000000
2.123470 0.447633 -0.074087 71.000000
2.126788 0.441523 -0.074189 71.000000
2.128133 0.434996 -0.074189 71.000000
2.129457 0.428465 -0.074189 71.000000
2.130762 0.421930 -0.074189 71.000000
2.135967 0.416157 -0.074394 71.000000
2.135272 0.409225 -0.074291 71.000000
2.136518 0.402672 -0.074291 71.000000
2.137743 0.396115 -0.074291 71.000000
2.138948 0.389555 -0.074291 71.000000
2.139150 0.382814 -0.074240 71.000000
2.142282 0.376597 -0.074342 71.000000
2.143427 0.370023 -0.074342 71.000000
2.146521 0.363780 -0.074445 71.000000
2.148612 0.357357 -0.074496 71.000000
2.147727 0.350441 -0.074394 71.000000
2.150764 0.344166 -0.074496 71.000000
2.151810 0.337566 -0.074496 71.000000
2.151849 0.330811 -0.074445 71.000000
2.139029 0.322118 -0.073729 71.000000
2.165693 0.319356 -0.075058 71.000000
2.160733 0.311851 -0.074751 71.000000
2.473686 -1.107842 -0.101741 71.000000
2.467544 -1.114194 -0.101587 71.000000
2.450675 -1.124735 -0.101025 71.000000
2.477129 -1.146075 -0.102712 71.000000
1.068021 -1.930328 -0.075927 71.000000
1.080382 -1.966849 -0.077869 71.000000
1.063336 -1.949993 -0.076694 71.000000
1.054969 -1.948856 -0.076438 71.000000
1.055609 -1.964396 -0.077154 71.000000
1.052871 -1.973792 -0.077512 71.000000
1.054763 -1.992013 -0.078381 71.000000
0.993990 -1.963877 -0.075671 71.000000
0.990204 -1.971378 -0.075927 71.000000
1.968077 0.910403 -0.086812 72.000000
1.984475 0.910600 -0.087668 72.000000
1.998166 0.909464 -0.088352 72.000000
2.000947 0.903330 -0.088352 72.000000
2.002798 0.896779 -0.088295 72.000000
2.005540 0.890630 -0.088295 72.000000
2.008263 0.884473 -0.088295 72.000000
2.007306 0.876711 -0.088067 72.000000
2.008154 0.869756 -0.087953 72.000000
2.010813 0.863591 -0.087953 72.000000
2.011615 0.856637 -0.087839 72.000000
2.010554 0.848910 -0.087611 72.000000
2.014070 0.843123 -0.087668 72.000000
2.016647 0.836940 -0.087668 72.000000
2.017359 0.829990 -0.087554 72.000000
2.019895 0.823797 -0.087554 72.000000
2.021487 0.817222 -0.087497 72.000000
2.023985 0.811017 -0.087497 72.000000
2.026464 0.804803 -0.087497 72.000000
2.027994 0.798217 -0.087440 72.000000
2.030433 0.791992 -0.087440 72.000000
2.032854 0.785759 -0.087440 72.000000
2.034322 0.779162 -0.087382 72.000000
2.037637 0.773270 -0.087440 72.000000
2.039999 0.767016 -0.087440 72.000000
2.042343 0.760753 -0.087440 72.000000
2.044667 0.754484 -0.087440 72.000000
2.045097 0.747523 -0.087325 72.000000
2.047381 0.741245 -0.087325 72.000000
2.047765 0.734287 -0.087211 72.000000
2.049067 0.727668 -0.087154 72.000000
2.049406 0.720717 -0.087040 72.000000
2.051608 0.714426 -0.087040 72.000000
2.051902 0.707478 -0.086926 72.000000
2.055007 0.701502 -0.086983 72.000000
2.055258 0.694556 -0.086869 72.000000
2.057379 0.688247 -0.086869 72.000000
2.058533 0.681618 -0.086812 72.000000
2.062512 0.675920 -0.086926 72.000000
2.064576 0.669590 -0.086926 72.000000
2.065670 0.662948 -0.086869 72.000000
2.066743 0.656306 -0.086812 72.000000
2.069699 0.650261 -0.086869 72.000000
2.070731 0.643612 -0.086812 72.000000
2.069832 0.636377 -0.086641 72.000000
2.072730 0.630314 -0.086698 72.000000
2.073698 0.623665 -0.086641 72.000000
2.073688 0.616732 -0.086527 72.000000
2.076528 0.610648 -0.086584 72.000000
2.080309 0.604831 -0.086698 72.000000
2.084074 0.598997 -0.086812 72.000000
2.083021 0.591783 -0.086641 72.000000
2.086749 0.585928 -0.086755 72.000000
2.089499 0.579790 -0.086812 72.000000
2.092231 0.573640 -0.086869 72.000000
2.094945 0.567479 -0.086926 72.000000
2.095711 0.560792 -0.086869 72.000000
2.099353 0.554869 -0.086983 72.000000
2.100079 0.548174 -0.086926 72.000000
2.099817 0.541231 -0.086812 72.000000
2.101468 0.534786 -0.086812 72.000000
2.102130 0.528094 -0.086755 72.000000
2.104709 0.521882 -0.086812 72.000000
2.104361 0.514948 -0.086698 72.000000
2.104960 0.508256 -0.086641 72.000000
2.106510 0.501796 -0.086641 72.000000
2.108039 0.495331 -0.086641 72.000000
2.109549 0.488861 -0.086641 72.000000
2.112012 0.482609 -0.086698 72.000000
2.115431 0.476565 -0.086812 72.000000
2.115908 0.469856 -0.086755 72.000000
2.116364 0.463150 -0.086698 72.000000
2.118752 0.456865 -0.086755 72.000000
2.121120 0.450569 -0.086812 72.000000
2.122492 0.444059 -0.086812 72.000000
2.123845 0.437546 -0.086812 72.000000
2.124198 0.430830 -0.086755 72.000000
2.125510 0.424311 -0.086755 72.000000
2.125822 0.417596 -0.086698 72.000000
2.126113 0.410883 -0.086641 72.000000
2.127364 0.404358 -0.086641 72.000000
2.129576 0.398013 -0.086698 72.000000
2.131769 0.391657 -0.086755 72.000000
2.133943 0.385292 -0.086812 72.000000
2.137081 0.379091 -0.086926 72.000000
2.140201 0.372875 -0.087040 72.000000
2.143304 0.366642 -0.087154 72.000000
2.145403 0.360230 -0.087211 72.000000
2.148468 0.353970 -0.087325 72.000000
2.149544 0.347377 -0.087325 72.000000
2.151586 0.340936 -0.087382 72.000000
2.154595 0.334639 -0.087497 72.000000
2.131922 0.324435 -0.086128 72.000000
2.190184 0.326398 -0.089436 72.000000
2.186236 0.318959 -0.089151 72.000000
2.181273 0.311407 -0.088809 72.000000
2.486222 -1.109479 -0.118470 72.000000
2.490088 -1.120381 -0.118926 72.000000
2.471186 -1.120998 -0.117957 72.000000
2.498599 -1.142705 -0.119896 72.000000
0.700854 -0.451368 -0.010548 72.000000
1.030052 -1.882046 -0.085500 72.000000
1.024749 -1.886075 -0.085557 72.000000
1.019431 -1.890089 -0.085614 72.000000
1.012216 -1.890566 -0.085443 72.000000
1.006411 -1.893663 -0.085443 72.000000
1.001062 -1.897625 -0.085500 72.000000
0.997086 -1.904226 -0.085728 72.000000
0.992159 -1.909048 -0.085842 72.000000
0.988126 -1.915633 -0.086071 72.000000
0.982699 -1.919544 -0.086128 72.000000
0.978160 -1.925221 -0.086299 72.000000
0.973147 -1.929997 -0.086413 72.000000
0.967668 -1.933866 -0.086470 72.000000
0.961730 -1.936826 -0.086470 72.000000
0.956665 -1.941559 -0.086584 72.000000
0.950266 -1.943588 -0.086527 72.000000
0.943863 -1.945595 -0.086470 72.000000
0.937890 -1.948482 -0.086470 72.000000
0.931048 -1.949548 -0.086356 72.000000
0.924636 -1.951493 -0.086299 72.000000
0.918220 -1.953416 -0.086242 72.000000
0.913908 -1.959844 -0.086470 72.000000
0.913753 -1.975328 -0.087268 72.000000
0.904777 -1.971769 -0.086869 72.000000
0.895419 -1.967264 -0.086413 72.000000
0.889789 -1.970912 -0.086470 72.000000
0.882923 -1.971810 -0.086356 72.000000
0.877275 -1.975422 -0.086413 72.000000
0.872416 -1.980846 -0.086584 72.000000
0.867133 -1.985343 -0.086698 72.000000
0.861830 -1.989827 -0.086812 72.000000
0.856902 -1.995214 -0.086983 72.000000
0.851558 -1.999671 -0.087097 72.000000
2.003348 0.888707 -0.101855 73.000000
2.008806 0.883762 -0.102045 73.000000
2.006934 0.875600 -0.101728 73.000000
2.006863 0.868250 -0.101538 73.000000
2.008600 0.861696 -0.101475 73.000000
2.009397 0.854749 -0.101348 73.000000
2.011090 0.848192 -0.101285 73.000000
2.013683 0.842018 -0.101285 73.000000
2.016257 0.835837 -0.101285 73.000000
2.017889 0.829268 -0.101222 73.000000
2.018574 0.822320 -0.101095 73.000000
2.022013 0.816497 -0.101158 73.000000
2.024509 0.810290 -0.101158 73.000000
2.026057 0.803707 -0.101095 73.000000
2.028514 0.797487 -0.101095 73.000000
2.030951 0.791260 -0.101095 73.000000
2.033369 0.785026 -0.101095 73.000000
2.034835 0.778427 -0.101032 73.000000
2.036281 0.771827 -0.100968 73.000000
2.039573 0.765927 -0.101032 73.000000
2.040043 0.758970 -0.100905 73.000000
2.040489 0.752018 -0.100778 73.000000
2.039036 0.744386 -0.100525 73.000000
2.042249 0.738466 -0.100589 73.000000
2.040746 0.730852 -0.100335 73.000000
2.042979 0.724588 -0.100335 73.000000
2.045192 0.718316 -0.100335 73.000000
2.047387 0.712039 -0.100335 73.000000
2.047674 0.705104 -0.100209 73.000000
2.049828 0.698819 -0.100209 73.000000
2.052908 0.692846 -0.100272 73.000000
2.055970 0.686860 -0.100335 73.000000
2.058068 0.680550 -0.100335 73.000000
2.062043 0.674853 -0.100462 73.000000
2.065053 0.668831 -0.100525 73.000000
2.067096 0.662492 -0.100525 73.000000
2.071021 0.656750 -0.100652 73.000000
2.071121 0.649796 -0.100525 73.000000
2.072152 0.643143 -0.100462 73.000000
2.072207 0.636197 -0.100335 73.000000
2.074149 0.629837 -0.100335 73.000000
2.076072 0.623471 -0.100335 73.000000
2.077018 0.616814 -0.100272 73.000000
2.078901 0.610439 -0.100272 73.000000
2.081722 0.604337 -0.100335 73.000000
2.084526 0.598222 -0.100399 73.000000
2.085391 0.591552 -0.100335 73.000000
2.087196 0.585151 -0.100335 73.000000
2.088982 0.578745 -0.100335 73.000000
2.090747 0.572334 -0.100335 73.000000
2.093457 0.566177 -0.100399 73.000000
2.093256 0.559237 -0.100272 73.000000
2.094961 0.552812 -0.100272 73.000000
2.096648 0.546382 -0.100272 73.000000
