# This PCD file was generated using the MATLAB® pcwrite function
# from Computer Vision Toolbox®.
# .PCD v.7 - Point Cloud Data file format
VERSION .7
FIELDS x y z intensity
SIZE 4 4 4 4
TYPE F F F F
COUNT 1 1 1 1
WIDTH 1247
HEIGHT 1
VIEWPOINT 0 0 0 1 0 0 0
POINTS 1247
DATA ascii
2.284794 0.175346 -0.010695 66.000000
2.285321 0.168336 -0.010695 66.000000
2.288819 0.161535 -0.010756 66.000000
2.284316 0.154175 -0.010653 66.000000
2.287771 0.147360 -0.010715 66.000000
2.293202 0.140647 -0.010818 66.000000
2.293623 0.133611 -0.010818 66.000000
2.291027 0.126408 -0.010756 66.000000
2.294399 0.119535 -0.010818 66.000000
2.292758 0.112397 -0.010777 66.000000
2.292094 0.105316 -0.010756 66.000000
2.291407 0.098241 -0.010736 66.000000
2.289700 0.091131 -0.010695 66.000000
2.284973 0.083921 -0.010592 66.000000
2.290216 0.077079 -0.010695 66.000000
2.288443 0.069991 -0.010653 66.000000
2.288647 0.062970 -0.010653 66.000000
2.290828 0.055998 -0.010695 66.000000
2.290989 0.048969 -0.010695 66.000000
2.294127 0.041996 -0.010756 66.000000
2.300244 0.035050 -0.010880 66.000000
2.297341 0.027955 -0.010818 66.000000
2.302415 0.020954 -0.010921 66.000000
2.300469 0.013877 -0.010880 66.000000
2.303500 0.006829 -0.010942 66.000000
2.301510 -0.000238 -0.010901 66.000000
2.576439 -0.008125 -0.016564 66.000000
2.603396 -0.016193 -0.017120 66.000000
2.615331 -0.024290 -0.017367 66.000000
2.615244 -0.032313 -0.017367 66.000000
2.620131 -0.040413 -0.017470 66.000000
2.632990 -0.048690 -0.017738 66.000000
2.641824 -0.056960 -0.017923 66.000000
2.649633 -0.065260 -0.018088 66.000000
2.653418 -0.073499 -0.018170 66.000000
2.661174 -0.081884 -0.018335 66.000000
2.659911 -0.090015 -0.018314 66.000000
2.676608 -0.098799 -0.018664 66.000000
2.685283 -0.107369 -0.018850 66.000000
2.687937 -0.115735 -0.018911 66.000000
4.473200 -1.869036 -0.063352 66.000000
4.435592 -1.901463 -0.062899 66.000000
4.405876 -1.904749 -0.062364 66.000000
4.407344 -1.921453 -0.062528 66.000000
4.397767 -1.933356 -0.062446 66.000000
4.376276 -1.939952 -0.062096 66.000000
4.364827 -1.950922 -0.061972 66.000000
4.361556 -1.965536 -0.062034 66.000000
4.356415 -1.979321 -0.062055 66.000000
4.353959 -1.994343 -0.062137 66.000000
2.216262 0.611754 -0.024809 67.000000
2.219093 0.605215 -0.024836 67.000000
2.220939 0.598404 -0.024836 67.000000
2.224696 0.592103 -0.024889 67.000000
2.224569 0.584766 -0.024836 67.000000
2.226352 0.577938 -0.024836 67.000000
2.228115 0.571105 -0.024836 67.000000
2.226950 0.563529 -0.024755 67.000000
2.228668 0.556694 -0.024755 67.000000
2.227454 0.549135 -0.024675 67.000000
2.229128 0.542299 -0.024675 67.000000
2.229810 0.535224 -0.024649 67.000000
2.225605 0.526995 -0.024488 67.000000
2.229159 0.520620 -0.024542 67.000000
2.226849 0.512879 -0.024435 67.000000
2.227437 0.505823 -0.024408 67.000000
2.227028 0.498549 -0.024355 67.000000
2.225619 0.491067 -0.024275 67.000000
2.228092 0.484449 -0.024302 67.000000
2.229568 0.477612 -0.024302 67.000000
2.231022 0.470769 -0.024302 67.000000
2.234413 0.464330 -0.024355 67.000000
2.237786 0.457874 -0.024408 67.000000
2.240160 0.451205 -0.024435 67.000000
2.240553 0.444135 -0.024408 67.000000
2.239943 0.436875 -0.024355 67.000000
2.241273 0.430001 -0.024355 67.000000
2.239635 0.422565 -0.024275 67.000000
2.242887 0.416058 -0.024328 67.000000
2.242186 0.408815 -0.024275 67.000000
2.239494 0.401227 -0.024168 67.000000
2.240714 0.394355 -0.024168 67.000000
2.241914 0.387479 -0.024168 67.000000
2.243092 0.380599 -0.024168 67.000000
2.245235 0.373880 -0.024195 67.000000
2.246371 0.366990 -0.024195 67.000000
2.249461 0.360414 -0.024248 67.000000
2.248581 0.353199 -0.024195 67.000000
2.250642 0.346452 -0.024221 67.000000
2.251694 0.339545 -0.024221 67.000000
2.250747 0.332343 -0.024168 67.000000
2.252746 0.325579 -0.024195 67.000000
2.250765 0.318245 -0.024115 67.000000
2.252721 0.311476 -0.024141 67.000000
2.252675 0.304429 -0.024115 67.000000
2.252608 0.297385 -0.024088 67.000000
2.250535 0.290088 -0.024008 67.000000
2.255382 0.283683 -0.024115 67.000000
2.252273 0.276273 -0.024008 67.000000
2.256087 0.269719 -0.024088 67.000000
2.258890 0.263029 -0.024141 67.000000
2.257700 0.255871 -0.024088 67.000000
2.261455 0.249274 -0.024168 67.000000
2.262209 0.242334 -0.024168 67.000000
2.263936 0.235497 -0.024195 67.000000
2.264648 0.228550 -0.024195 67.000000
2.268323 0.221895 -0.024275 67.000000
2.269988 0.215029 -0.024302 67.000000
2.273623 0.208339 -0.024382 67.000000
2.276243 0.201540 -0.024435 67.000000
2.279839 0.194813 -0.024515 67.000000
2.270464 0.186992 -0.024248 67.000000
2.280991 0.180820 -0.024515 67.000000
2.281535 0.173821 -0.024515 67.000000
2.283055 0.166894 -0.024542 67.000000
2.280565 0.159678 -0.024462 67.000000
2.280046 0.152613 -0.024435 67.000000
2.281502 0.145682 -0.024462 67.000000
2.281938 0.138682 -0.024462 67.000000
2.281354 0.131622 -0.024435 67.000000
2.280749 0.124567 -0.024408 67.000000
2.286112 0.117829 -0.024542 67.000000
2.284466 0.110717 -0.024488 67.000000
2.285794 0.103754 -0.024515 67.000000
2.286101 0.096741 -0.024515 67.000000
2.286387 0.089727 -0.024515 67.000000
2.283655 0.082602 -0.024435 67.000000
2.283898 0.075595 -0.024435 67.000000
2.284119 0.068588 -0.024435 67.000000
2.284318 0.061580 -0.024435 67.000000
2.284497 0.054571 -0.024435 67.000000
2.287652 0.047626 -0.024515 67.000000
2.289786 0.040644 -0.024569 67.000000
2.291899 0.033649 -0.024622 67.000000
2.292991 0.026630 -0.024649 67.000000
2.296061 0.019622 -0.024729 67.000000
2.297110 0.012584 -0.024755 67.000000
2.297137 0.005536 -0.024755 67.000000
2.526062 -0.001546 -0.030870 67.000000
2.600019 -0.009534 -0.032846 67.000000
2.604975 -0.017542 -0.032979 67.000000
2.613905 -0.025618 -0.033219 67.000000
2.616813 -0.033675 -0.033300 67.000000
2.626693 -0.041858 -0.033567 67.000000
2.634548 -0.050065 -0.033780 67.000000
2.646375 -0.058407 -0.034101 67.000000
2.645184 -0.066501 -0.034074 67.000000
2.656958 -0.074949 -0.034394 67.000000
2.654718 -0.083038 -0.034341 67.000000
2.664441 -0.091521 -0.034608 67.000000
2.682129 -0.100360 -0.035088 67.000000
2.677813 -0.108428 -0.034982 67.000000
4.441185 -1.873665 -0.092147 67.000000
4.434199 -1.902851 -0.092281 67.000000
4.385386 -1.929899 -0.091373 67.000000
4.366651 -1.937670 -0.090999 67.000000
4.344259 -1.943713 -0.090518 67.000000
4.349211 -1.961962 -0.090839 67.000000
4.342262 -1.974883 -0.090812 67.000000
4.337091 -1.988612 -0.090839 67.000000
2.217142 0.622051 -0.038089 68.000000
2.219040 0.615246 -0.038089 68.000000
2.220917 0.608435 -0.038089 68.000000
2.222773 0.601618 -0.038089 68.000000
2.222677 0.594281 -0.038024 68.000000
2.223524 0.587204 -0.037992 68.000000
2.225315 0.580380 -0.037992 68.000000
2.226117 0.573301 -0.037959 68.000000
2.225928 0.565977 -0.037894 68.000000
2.226684 0.558903 -0.037862 68.000000
2.226448 0.551589 -0.037797 68.000000
2.228129 0.544756 -0.037797 68.000000
2.226875 0.537216 -0.037699 68.000000
2.226568 0.529919 -0.037634 68.000000
2.225264 0.522402 -0.037537 68.000000
2.226856 0.515573 -0.037537 68.000000
2.225504 0.508072 -0.037440 68.000000
2.224126 0.500585 -0.037342 68.000000
2.223700 0.493328 -0.037277 68.000000
2.222273 0.485864 -0.037180 68.000000
2.224731 0.479254 -0.037213 68.000000
2.226191 0.472426 -0.037213 68.000000
2.227629 0.465594 -0.037213 68.000000
2.231985 0.459361 -0.037310 68.000000
2.234363 0.452709 -0.037342 68.000000
2.237702 0.446242 -0.037407 68.000000
2.239061 0.439374 -0.037407 68.000000
2.241379 0.432692 -0.037440 68.000000
2.242696 0.425814 -0.037440 68.000000
2.245957 0.419297 -0.037505 68.000000
2.245267 0.412045 -0.037440 68.000000
2.244553 0.404800 -0.037375 68.000000
2.242832 0.397391 -0.037277 68.000000
2.247979 0.391191 -0.037407 68.000000
2.246213 0.383789 -0.037310 68.000000
2.244423 0.376402 -0.037213 68.000000
2.247540 0.369838 -0.037277 68.000000
2.246690 0.362623 -0.037213 68.000000
2.245817 0.355417 -0.037148 68.000000
2.243934 0.348068 -0.037050 68.000000
2.244991 0.341182 -0.037050 68.000000
2.246027 0.334292 -0.037050 68.000000
2.247042 0.327400 -0.037050 68.000000
2.244078 0.319943 -0.036920 68.000000
2.248019 0.313469 -0.037018 68.000000
2.248970 0.306571 -0.037018 68.000000
2.249900 0.299669 -0.037018 68.000000
2.249818 0.292637 -0.036985 68.000000
2.253680 0.286109 -0.037083 68.000000
2.253555 0.279071 -0.037050 68.000000
2.254400 0.272156 -0.037050 68.000000
2.255225 0.265239 -0.037050 68.000000
2.258014 0.258545 -0.037115 68.000000
2.258797 0.251616 -0.037115 68.000000
2.260552 0.244792 -0.037148 68.000000
2.262286 0.237960 -0.037180 68.000000
2.262011 0.230917 -0.037148 68.000000
2.264698 0.224172 -0.037213 68.000000
2.268360 0.217508 -0.037310 68.000000
2.269017 0.210548 -0.037310 68.000000
2.274630 0.204029 -0.037472 68.000000
2.279228 0.197393 -0.037602 68.000000
2.277831 0.190234 -0.037537 68.000000
2.279400 0.183324 -0.037570 68.000000
2.279952 0.176330 -0.037570 68.000000
2.280482 0.169335 -0.037570 68.000000
2.279994 0.162267 -0.037537 68.000000
2.279484 0.155204 -0.037505 68.000000
2.279949 0.148210 -0.037505 68.000000
2.280393 0.141214 -0.037505 68.000000
2.282811 0.134334 -0.037570 68.000000
2.282215 0.127275 -0.037537 68.000000
2.283592 0.120324 -0.037570 68.000000
2.284949 0.113367 -0.037602 68.000000
2.285286 0.106356 -0.037602 68.000000
2.285602 0.099345 -0.037602 68.000000
2.286895 0.092372 -0.037634 68.000000
2.285169 0.085282 -0.037570 68.000000
2.288417 0.078372 -0.037667 68.000000
2.285650 0.071259 -0.037570 68.000000
2.286857 0.064274 -0.037602 68.000000
2.289042 0.057306 -0.037667 68.000000
2.292204 0.050348 -0.037764 68.000000
2.293347 0.043333 -0.037797 68.000000
2.296468 0.036343 -0.037894 68.000000
2.296568 0.029298 -0.037894 68.000000
2.301644 0.022298 -0.038056 68.000000
2.299703 0.015224 -0.037992 68.000000
2.301738 0.008175 -0.038056 68.000000
2.517638 0.001108 -0.045067 68.000000
2.596588 -0.006860 -0.047631 68.000000
2.617543 -0.014955 -0.048313 68.000000
2.623482 -0.023041 -0.048508 68.000000
2.627396 -0.031139 -0.048638 68.000000
2.631286 -0.039261 -0.048767 68.000000
2.638148 -0.047462 -0.048995 68.000000
2.643985 -0.055685 -0.049189 68.000000
2.652795 -0.064017 -0.049481 68.000000
2.658580 -0.072321 -0.049676 68.000000
2.661343 -0.080569 -0.049774 68.000000
2.669074 -0.089004 -0.050033 68.000000
2.675780 -0.097449 -0.050260 68.000000
2.681461 -0.105897 -0.050455 68.000000
4.429099 -1.897449 -0.119784 68.000000
4.390803 -1.913006 -0.118843 68.000000
4.295426 -1.950365 -0.116506 68.000000
2.216929 0.628424 -0.052534 69.000000
2.217884 0.621350 -0.052496 69.000000
2.217854 0.614010 -0.052418 69.000000
2.220691 0.607466 -0.052457 69.000000
2.222544 0.600651 -0.052457 69.000000
2.224376 0.593829 -0.052457 69.000000
2.226188 0.587002 -0.052457 69.000000
2.225077 0.579414 -0.052341 69.000000
2.225876 0.572337 -0.052302 69.000000
2.225685 0.565014 -0.052224 69.000000
2.224500 0.557454 -0.052108 69.000000
2.224259 0.550148 -0.052031 69.000000
2.223995 0.542848 -0.051953 69.000000
2.225650 0.536022 -0.051953 69.000000
2.222423 0.528037 -0.051760 69.000000
2.224033 0.521216 -0.051760 69.000000
2.223674 0.513941 -0.051682 69.000000
2.224266 0.506894 -0.051643 69.000000
2.224836 0.499849 -0.051605 69.000000
2.222456 0.492158 -0.051450 69.000000
2.223955 0.485337 -0.051450 69.000000
2.223480 0.478092 -0.051372 69.000000
2.223959 0.471061 -0.051334 69.000000
2.225394 0.464236 -0.051334 69.000000
2.228765 0.457808 -0.051411 69.000000
2.233097 0.451562 -0.051527 69.000000
2.234472 0.444709 -0.051527 69.000000
2.233865 0.437468 -0.051450 69.000000
2.237159 0.430990 -0.051527 69.000000
2.241416 0.424682 -0.051643 69.000000
2.242708 0.417803 -0.051643 69.000000
2.244963 0.411101 -0.051682 69.000000
2.245230 0.404034 -0.051643 69.000000
2.249411 0.397666 -0.051760 69.000000
2.248651 0.390421 -0.051682 69.000000
2.249838 0.383521 -0.051682 69.000000
2.250019 0.376452 -0.051643 69.000000
2.251163 0.369547 -0.051643 69.000000
2.250313 0.362321 -0.051566 69.000000
2.247466 0.354793 -0.051411 69.000000
2.245581 0.347438 -0.051295 69.000000
2.249601 0.340996 -0.051411 69.000000
2.249648 0.333946 -0.051372 69.000000
2.250662 0.327043 -0.051372 69.000000
2.248687 0.319715 -0.051256 69.000000
2.251636 0.313090 -0.051334 69.000000
2.252586 0.306180 -0.051334 69.000000
2.252524 0.299137 -0.051295 69.000000
2.253432 0.292225 -0.051295 69.000000
2.257292 0.285686 -0.051411 69.000000
2.258157 0.278759 -0.051411 69.000000
2.258010 0.271711 -0.051372 69.000000
2.258833 0.264782 -0.051372 69.000000
2.261620 0.258077 -0.051450 69.000000
2.264388 0.251357 -0.051527 69.000000
2.264155 0.244302 -0.051488 69.000000
2.265887 0.237458 -0.051527 69.000000
2.267599 0.230607 -0.051566 69.000000
2.267302 0.223551 -0.051527 69.000000
2.268972 0.216688 -0.051566 69.000000
2.271616 0.209910 -0.051643 69.000000
2.272249 0.202940 -0.051643 69.000000
2.272861 0.195968 -0.051643 69.000000
2.276439 0.189241 -0.051760 69.000000
2.275017 0.182097 -0.051682 69.000000
2.276561 0.175193 -0.051721 69.000000
2.278084 0.168282 -0.051760 69.000000
2.278590 0.161292 -0.051760 69.000000
2.276083 0.154098 -0.051643 69.000000
2.276545 0.147115 -0.051643 69.000000
2.276986 0.140130 -0.051643 69.000000
2.279400 0.133260 -0.051721 69.000000
2.278800 0.126211 -0.051682 69.000000
2.282171 0.119375 -0.051798 69.000000
2.284522 0.112471 -0.051876 69.000000
2.287851 0.105599 -0.051992 69.000000
2.288164 0.098580 -0.051992 69.000000
2.289454 0.091599 -0.052031 69.000000
2.291722 0.084648 -0.052108 69.000000
2.289973 0.077550 -0.052031 69.000000
2.291199 0.070554 -0.052070 69.000000
2.292404 0.063552 -0.052108 69.000000
2.294586 0.056568 -0.052186 69.000000
2.296747 0.049571 -0.052263 69.000000
2.297887 0.042542 -0.052302 69.000000
2.301004 0.035538 -0.052418 69.000000
2.303101 0.028503 -0.052496 69.000000
2.309173 0.021492 -0.052728 69.000000
2.306230 0.014389 -0.052612 69.000000
2.506112 0.007914 -0.060359 69.000000
2.635028 0.000216 -0.065356 69.000000
2.637015 -0.007874 -0.065434 69.000000
2.639976 -0.015983 -0.065550 69.000000
2.636917 -0.024054 -0.065434 69.000000
2.642826 -0.032218 -0.065666 69.000000
2.639717 -0.040280 -0.065550 69.000000
2.642578 -0.048433 -0.065666 69.000000
2.649410 -0.056691 -0.065937 69.000000
2.654218 -0.064942 -0.066131 69.000000
2.657003 -0.073168 -0.066247 69.000000
2.663758 -0.081534 -0.066518 69.000000
2.662497 -0.089672 -0.066480 69.000000
2.672194 -0.098209 -0.066867 69.000000
2.648916 -0.105489 -0.065976 69.000000
4.390893 -1.930171 -0.149143 69.000000
2.209034 0.632191 -0.065845 70.000000
2.209041 0.624866 -0.065755 70.000000
2.210948 0.618086 -0.065755 70.000000
2.212833 0.611300 -0.065755 70.000000
2.214699 0.604508 -0.065755 70.000000
2.217507 0.597971 -0.065800 70.000000
2.219331 0.591165 -0.065800 70.000000
2.222101 0.584608 -0.065845 70.000000
2.224851 0.578039 -0.065889 70.000000
2.222743 0.570217 -0.065711 70.000000
2.221577 0.562659 -0.065577 70.000000
2.220385 0.555113 -0.065443 70.000000
2.217228 0.547101 -0.065219 70.000000
2.217926 0.540060 -0.065175 70.000000
2.215687 0.532318 -0.064996 70.000000
2.214394 0.524827 -0.064862 70.000000
2.215021 0.517803 -0.064818 70.000000
2.216599 0.511005 -0.064818 70.000000
2.218156 0.504202 -0.064818 70.000000
2.216768 0.496739 -0.064684 70.000000
2.217306 0.489720 -0.064639 70.000000
2.219774 0.483127 -0.064684 70.000000
2.220269 0.476105 -0.064639 70.000000
2.219765 0.468878 -0.064550 70.000000
2.222171 0.462269 -0.064594 70.000000
2.223579 0.455450 -0.064594 70.000000
2.223986 0.448428 -0.064550 70.000000
2.225352 0.441603 -0.064550 70.000000
2.225715 0.434582 -0.064505 70.000000
2.228019 0.427940 -0.064550 70.000000
2.232266 0.421659 -0.064684 70.000000
2.232568 0.414626 -0.064639 70.000000
2.235795 0.408134 -0.064728 70.000000
2.238019 0.401449 -0.064773 70.000000
2.240224 0.394755 -0.064818 70.000000
2.241425 0.387880 -0.064818 70.000000
2.243589 0.381169 -0.064862 70.000000
2.246719 0.374613 -0.064952 70.000000
2.247857 0.367719 -0.064952 70.000000
2.246016 0.360345 -0.064818 70.000000
2.247111 0.353453 -0.064818 70.000000
2.246210 0.346252 -0.064728 70.000000
2.247262 0.339360 -0.064728 70.000000
2.248292 0.332463 -0.064728 70.000000
2.251279 0.325851 -0.064818 70.000000
2.252268 0.318942 -0.064818 70.000000
2.252247 0.311894 -0.064773 70.000000
2.255173 0.305251 -0.064862 70.000000
2.256099 0.298331 -0.064862 70.000000
2.255022 0.291151 -0.064773 70.000000
2.256896 0.284357 -0.064818 70.000000
2.258749 0.277553 -0.064862 70.000000
2.257606 0.270384 -0.064773 70.000000
2.257432 0.263341 -0.064728 70.000000
2.260215 0.256640 -0.064818 70.000000
2.260992 0.249704 -0.064818 70.000000
2.259761 0.242553 -0.064728 70.000000
2.262481 0.235827 -0.064818 70.000000
2.262200 0.228784 -0.064773 70.000000
2.261897 0.221744 -0.064728 70.000000
2.262567 0.214804 -0.064728 70.000000
2.266200 0.208136 -0.064862 70.000000
2.265833 0.201094 -0.064818 70.000000
2.268430 0.194313 -0.064907 70.000000
2.270011 0.187435 -0.064952 70.000000
2.270575 0.180469 -0.064952 70.000000
2.272114 0.173579 -0.064996 70.000000
2.274629 0.166754 -0.065086 70.000000
2.275129 0.159774 -0.065086 70.000000
2.271622 0.152525 -0.064907 70.000000
2.271082 0.145491 -0.064862 70.000000
2.271518 0.138523 -0.064862 70.000000
2.270935 0.131495 -0.064818 70.000000
2.272325 0.124583 -0.064862 70.000000
2.274692 0.117714 -0.064952 70.000000
2.279034 0.110930 -0.065130 70.000000
2.281359 0.104029 -0.065219 70.000000
2.282666 0.097072 -0.065264 70.000000
2.285947 0.090187 -0.065398 70.000000
2.288210 0.083246 -0.065487 70.000000
2.287456 0.076192 -0.065443 70.000000
2.285682 0.069113 -0.065353 70.000000
2.287881 0.062155 -0.065443 70.000000
2.287062 0.055112 -0.065398 70.000000
2.289218 0.048137 -0.065487 70.000000
2.292351 0.041168 -0.065621 70.000000
2.293466 0.034150 -0.065666 70.000000
2.296556 0.027150 -0.065800 70.000000
2.300625 0.020139 -0.065979 70.000000
2.465508 0.014046 -0.073349 70.000000
2.633371 0.006949 -0.080852 70.000000
2.632381 -0.001130 -0.080808 70.000000
2.640357 -0.009233 -0.081165 70.000000
2.648308 -0.017385 -0.081522 70.000000
2.650240 -0.025528 -0.081612 70.000000
2.650150 -0.033659 -0.081612 70.000000
2.652032 -0.041821 -0.081701 70.000000
2.656885 -0.050050 -0.081924 70.000000
2.654721 -0.058158 -0.081835 70.000000
2.660523 -0.066451 -0.082103 70.000000
2.663302 -0.074696 -0.082237 70.000000
2.664059 -0.082898 -0.082282 70.000000
2.666787 -0.091173 -0.082416 70.000000
2.703433 -0.100725 -0.084068 70.000000
4.444855 -1.923432 -0.179653 70.000000
4.458161 -1.945449 -0.180591 70.000000
4.449429 -1.957910 -0.180457 70.000000
4.479015 -1.987350 -0.182199 70.000000
2.196078 0.627571 -0.079914 71.000000
2.199915 0.621375 -0.080016 71.000000
2.201811 0.614623 -0.080016 71.000000
2.206574 0.608663 -0.080170 71.000000
2.204577 0.600838 -0.079965 71.000000
2.210267 0.595112 -0.080170 71.000000
2.214013 0.588843 -0.080272 71.000000
2.214843 0.581793 -0.080221 71.000000
2.217584 0.575247 -0.080272 71.000000
2.219338 0.568441 -0.080272 71.000000
2.214295 0.559912 -0.079914 71.000000
2.217940 0.553601 -0.080016 71.000000
2.217689 0.546315 -0.079914 71.000000
2.215473 0.538563 -0.079710 71.000000
2.214202 0.531063 -0.079556 71.000000
2.212906 0.523576 -0.079403 71.000000
2.211585 0.516102 -0.079250 71.000000
2.214131 0.509539 -0.079301 71.000000
2.215683 0.502744 -0.079301 71.000000
2.218190 0.496162 -0.079352 71.000000
2.217751 0.488924 -0.079250 71.000000
2.222168 0.482755 -0.079403 71.000000
2.221686 0.475516 -0.079301 71.000000
2.220203 0.468078 -0.079147 71.000000
2.223584 0.461672 -0.079250 71.000000
2.224012 0.454647 -0.079198 71.000000
2.224417 0.447624 -0.079147 71.000000
2.224800 0.440603 -0.079096 71.000000
2.226142 0.433776 -0.079096 71.000000
2.227462 0.426944 -0.079096 71.000000
2.229743 0.420294 -0.079147 71.000000
2.231022 0.413451 -0.079147 71.000000
2.234244 0.406963 -0.079250 71.000000
2.234499 0.399930 -0.079198 71.000000
2.237683 0.393420 -0.079301 71.000000
2.237895 0.386382 -0.079250 71.000000
2.239070 0.379515 -0.079250 71.000000
2.240224 0.372644 -0.079250 71.000000
2.244313 0.366253 -0.079403 71.000000
2.245427 0.359366 -0.079403 71.000000
2.246519 0.352475 -0.079403 71.000000
2.248576 0.345734 -0.079454 71.000000
2.248639 0.338684 -0.079403 71.000000
2.248680 0.331638 -0.079352 71.000000
2.249686 0.324737 -0.079352 71.000000
2.251661 0.317974 -0.079403 71.000000
2.250647 0.310790 -0.079301 71.000000
2.250601 0.303750 -0.079250 71.000000
2.252512 0.296975 -0.079301 71.000000
2.253412 0.290063 -0.079301 71.000000
2.254292 0.283148 -0.079301 71.000000
2.257132 0.276475 -0.079403 71.000000
2.256978 0.269430 -0.079352 71.000000
2.255810 0.262272 -0.079250 71.000000
2.255612 0.255238 -0.079198 71.000000
2.257377 0.248426 -0.079250 71.000000
2.257136 0.241393 -0.079198 71.000000
2.257866 0.234467 -0.079198 71.000000
2.256587 0.227337 -0.079096 71.000000
2.258268 0.220511 -0.079147 71.000000
2.259928 0.213676 -0.079198 71.000000
2.261567 0.206833 -0.079250 71.000000
2.262191 0.199894 -0.079250 71.000000
2.266774 0.193294 -0.079454 71.000000
2.268352 0.186421 -0.079505 71.000000
2.266922 0.179302 -0.079403 71.000000
2.267461 0.172347 -0.079403 71.000000
2.267979 0.165389 -0.079403 71.000000
2.266484 0.158290 -0.079301 71.000000
2.266959 0.151336 -0.079301 71.000000
2.266416 0.144316 -0.079250 71.000000
2.266848 0.137362 -0.079250 71.000000
2.265265 0.130292 -0.079147 71.000000
2.266651 0.123396 -0.079198 71.000000
2.268016 0.116493 -0.079250 71.000000
2.272353 0.109729 -0.079454 71.000000
2.275672 0.102894 -0.079607 71.000000
2.279968 0.096082 -0.079812 71.000000
2.281250 0.089126 -0.079863 71.000000
2.282511 0.082164 -0.079914 71.000000
2.282752 0.075160 -0.079914 71.000000
2.283970 0.068187 -0.079965 71.000000
2.285167 0.061207 -0.080016 71.000000
2.285344 0.054196 -0.080016 71.000000
2.285499 0.047184 -0.080016 71.000000
2.287630 0.040208 -0.080118 71.000000
2.288741 0.033205 -0.080170 71.000000
2.286835 0.026159 -0.080067 71.000000
2.318862 0.019427 -0.081703 71.000000
2.628500 0.014111 -0.097549 71.000000
2.639516 0.006077 -0.098111 71.000000
2.646513 -0.002024 -0.098469 71.000000
2.648492 -0.010150 -0.098571 71.000000
2.651444 -0.018295 -0.098725 71.000000
2.654372 -0.026458 -0.098878 71.000000
2.656276 -0.034626 -0.098980 71.000000
2.661150 -0.042854 -0.099236 71.000000
2.661005 -0.051018 -0.099236 71.000000
2.663832 -0.059247 -0.099389 71.000000
2.663638 -0.067419 -0.099389 71.000000
2.665415 -0.075646 -0.099491 71.000000
2.664172 -0.083792 -0.099440 71.000000
2.647933 -0.091421 -0.098622 71.000000
4.503039 -1.966107 -0.214502 71.000000
4.498815 -1.980717 -0.214604 71.000000
0.981227 -1.895241 -0.072247 71.000000
0.969925 -1.887586 -0.071633 71.000000
0.976847 -1.915457 -0.073065 71.000000
0.998505 -1.972785 -0.076183 71.000000
0.989755 -1.970486 -0.075876 71.000000
0.991287 -1.988704 -0.076745 71.000000
0.985181 -1.991736 -0.076745 71.000000
0.980828 -1.998334 -0.076949 71.000000
2.201110 0.610695 -0.093429 72.000000
2.202974 0.603939 -0.093429 72.000000
2.208671 0.598220 -0.093657 72.000000
2.212425 0.591956 -0.093771 72.000000
2.215196 0.585420 -0.093828 72.000000
2.215050 0.578118 -0.093714 72.000000
2.218747 0.571817 -0.093828 72.000000
2.217587 0.564270 -0.093657 72.000000
2.219308 0.557464 -0.093657 72.000000
2.219070 0.550173 -0.093543 72.000000
2.219777 0.543126 -0.093486 72.000000
2.216580 0.535144 -0.093201 72.000000
2.217240 0.528110 -0.093144 72.000000
2.216906 0.520850 -0.093030 72.000000
2.217521 0.513821 -0.092973 72.000000
2.219087 0.507016 -0.092973 72.000000
2.220632 0.500205 -0.092973 72.000000
2.220206 0.492958 -0.092858 72.000000
2.222684 0.486357 -0.092916 72.000000
2.225142 0.479746 -0.092973 72.000000
2.226603 0.472917 -0.092973 72.000000
2.227066 0.465880 -0.092916 72.000000
2.226529 0.458643 -0.092801 72.000000
2.227925 0.451810 -0.092801 72.000000
2.229301 0.444973 -0.092801 72.000000
2.227716 0.437555 -0.092630 72.000000
2.231009 0.431097 -0.092744 72.000000
2.232321 0.424250 -0.092744 72.000000
2.234594 0.417582 -0.092801 72.000000
2.235864 0.410725 -0.092801 72.000000
2.236131 0.403686 -0.092744 72.000000
2.238342 0.396998 -0.092801 72.000000
2.239550 0.390129 -0.092801 72.000000
2.240736 0.383256 -0.092801 72.000000
2.240917 0.376215 -0.092744 72.000000
2.243046 0.369500 -0.092801 72.000000
2.244169 0.362617 -0.092801 72.000000
2.246257 0.355886 -0.092858 72.000000
2.246351 0.348840 -0.092801 72.000000
2.249385 0.342246 -0.092916 72.000000
2.245487 0.334610 -0.092630 72.000000
2.246503 0.327719 -0.092630 72.000000
2.248486 0.320966 -0.092687 72.000000
2.248471 0.313929 -0.092630 72.000000
2.249424 0.307029 -0.092630 72.000000
2.250355 0.300127 -0.092630 72.000000
2.252256 0.293350 -0.092687 72.000000
2.252155 0.286313 -0.092630 72.000000
2.253022 0.279402 -0.092630 72.000000
2.253869 0.272489 -0.092630 72.000000
2.255686 0.265689 -0.092687 72.000000
2.252523 0.258314 -0.092459 72.000000
2.254297 0.251513 -0.092516 72.000000
2.257043 0.244810 -0.092630 72.000000
2.256791 0.237780 -0.092573 72.000000
2.256516 0.230754 -0.092516 72.000000
2.261188 0.224222 -0.092744 72.000000
2.262859 0.217379 -0.092801 72.000000
2.265503 0.210619 -0.092916 72.000000
2.266139 0.203668 -0.092916 72.000000
2.269737 0.196972 -0.093087 72.000000
2.270331 0.190008 -0.093087 72.000000
2.271898 0.183121 -0.093144 72.000000
2.269463 0.175920 -0.092973 72.000000
2.272979 0.169178 -0.093144 72.000000
2.270500 0.161992 -0.092973 72.000000
2.269990 0.154958 -0.092916 72.000000
2.270455 0.147993 -0.092916 72.000000
2.269902 0.140965 -0.092858 72.000000
2.269327 0.133942 -0.092801 72.000000
2.269727 0.126979 -0.092801 72.000000
2.272100 0.120120 -0.092916 72.000000
2.274452 0.113247 -0.093030 72.000000
2.276783 0.106360 -0.093144 72.000000
2.279094 0.099461 -0.093258 72.000000
2.282381 0.092588 -0.093429 72.000000
2.283652 0.085622 -0.093486 72.000000
2.284902 0.078650 -0.093543 72.000000
2.288126 0.071732 -0.093714 72.000000
2.289333 0.064739 -0.093771 72.000000
2.288523 0.057691 -0.093714 72.000000
2.288689 0.050669 -0.093714 72.000000
2.290830 0.043684 -0.093828 72.000000
2.287959 0.036610 -0.093657 72.000000
2.293052 0.029652 -0.093942 72.000000
2.575659 0.025261 -0.110085 72.000000
2.627639 0.017685 -0.113051 72.000000
2.634669 0.009646 -0.113450 72.000000
2.641675 0.001564 -0.113850 72.000000
2.644662 -0.006550 -0.114021 72.000000
2.650620 -0.014699 -0.114363 72.000000
2.656552 -0.022885 -0.114705 72.000000
2.658466 -0.031059 -0.114819 72.000000
2.665346 -0.039321 -0.115219 72.000000
2.663216 -0.047462 -0.115105 72.000000
2.668049 -0.055739 -0.115390 72.000000
2.671858 -0.064021 -0.115618 72.000000
2.679633 -0.072438 -0.116074 72.000000
2.674408 -0.080506 -0.115789 72.000000
2.673151 -0.088677 -0.115732 72.000000
2.613004 -0.094682 -0.112310 72.000000
0.982678 -1.934124 -0.086869 72.000000
0.976290 -1.936239 -0.086812 72.000000
0.969899 -1.938331 -0.086755 72.000000
0.963061 -1.939509 -0.086641 72.000000
0.957106 -1.942455 -0.086641 72.000000
0.956399 -1.956148 -0.087325 72.000000
0.945605 -1.949189 -0.086698 72.000000
0.940485 -1.953881 -0.086812 72.000000
0.934916 -1.957658 -0.086869 72.000000
0.928906 -1.960517 -0.086869 72.000000
0.918644 -1.954320 -0.086299 72.000000
0.914330 -1.960750 -0.086527 72.000000
0.909148 -1.965358 -0.086641 72.000000
0.901034 -1.963600 -0.086356 72.000000
0.895832 -1.968173 -0.086470 72.000000
0.890200 -1.971822 -0.086527 72.000000
0.883739 -1.973633 -0.086470 72.000000
0.877679 -1.976335 -0.086470 72.000000
0.872014 -1.979932 -0.086527 72.000000
0.866734 -1.984428 -0.086641 72.000000
0.861038 -1.987994 -0.086698 72.000000
0.855722 -1.992462 -0.086812 72.000000
2.218337 0.578071 -0.108249 73.000000
2.221066 0.571511 -0.108313 73.000000
2.219907 0.563957 -0.108123 73.000000
2.220659 0.556902 -0.108059 73.000000
2.221388 0.549847 -0.107996 73.000000
2.221126 0.542556 -0.107870 73.000000
2.219869 0.535038 -0.107680 73.000000
2.219558 0.527763 -0.107553 73.000000
2.221167 0.520951 -0.107553 73.000000
2.221782 0.513910 -0.107490 73.000000
2.221402 0.506647 -0.107363 73.000000
2.224894 0.500267 -0.107490 73.000000
2.225444 0.493223 -0.107426 73.000000
2.225971 0.486181 -0.107363 73.000000
2.227452 0.479349 -0.107363 73.000000
2.226960 0.472100 -0.107236 73.000000
2.228398 0.465265 -0.107236 73.000000
2.228837 0.458225 -0.107173 73.000000
2.230232 0.451385 -0.107173 73.000000
2.231607 0.444541 -0.107173 73.000000
2.231981 0.437501 -0.107110 73.000000
2.227432 0.429518 -0.106730 73.000000
2.232662 0.423426 -0.106983 73.000000
2.231007 0.416026 -0.106793 73.000000
2.235218 0.409718 -0.106983 73.000000
2.236465 0.402859 -0.106983 73.000000
2.237690 0.395996 -0.106983 73.000000
2.239877 0.389299 -0.107046 73.000000
2.240077 0.382258 -0.106983 73.000000
2.240255 0.375219 -0.106920 73.000000
2.244350 0.368829 -0.107110 73.000000
2.245471 0.361942 -0.107110 73.000000
2.246571 0.355051 -0.107110 73.000000
2.245677 0.347852 -0.106983 73.000000
2.248708 0.341260 -0.107110 73.000000
2.246783 0.333920 -0.106920 73.000000
2.247796 0.327025 -0.106920 73.000000
2.245825 0.319706 -0.106730 73.000000
2.247784 0.312952 -0.106793 73.000000
2.246755 0.305785 -0.106667 73.000000
2.248672 0.299022 -0.106730 73.000000
2.252548 0.292507 -0.106920 73.000000
2.251455 0.285344 -0.106793 73.000000
2.252320 0.278436 -0.106793 73.000000
2.253163 0.271524 -0.106793 73.000000
2.253986 0.264610 -0.106793 73.000000
2.251812 0.257355 -0.106603 73.000000
2.254575 0.250665 -0.106730 73.000000
2.256326 0.243854 -0.106793 73.000000
2.259048 0.237139 -0.106920 73.000000
2.259765 0.230207 -0.106920 73.000000
2.263440 0.223567 -0.107110 73.000000
2.265109 0.216716 -0.107173 73.000000
2.265763 0.209766 -0.107173 73.000000
2.266396 0.202814 -0.107173 73.000000
2.268002 0.195946 -0.107236 73.000000
2.268593 0.188986 -0.107236 73.000000
2.268167 0.181946 -0.107173 73.000000
2.269709 0.175063 -0.107236 73.000000
2.270236 0.168099 -0.107236 73.000000
2.272732 0.161274 -0.107363 73.000000
2.273216 0.154301 -0.107363 73.000000
2.274674 0.147390 -0.107426 73.000000
2.276112 0.140472 -0.107490 73.000000
2.274540 0.133372 -0.107363 73.000000
2.272945 0.126283 -0.107236 73.000000
2.276312 0.119465 -0.107426 73.000000
2.276668 0.112481 -0.107426 73.000000
2.277002 0.105496 -0.107426 73.000000
2.277315 0.098510 -0.107426 73.000000
2.280598 0.091642 -0.107616 73.000000
2.281866 0.084682 -0.107680 73.000000
2.282115 0.077681 -0.107680 73.000000
2.284338 0.070740 -0.107806 73.000000
2.286539 0.063787 -0.107933 73.000000
2.288719 0.056821 -0.108059 73.000000
2.287885 0.049778 -0.107996 73.000000
2.290023 0.042795 -0.108123 73.000000
2.290143 0.035769 -0.108123 73.000000
2.442924 0.030633 -0.117810 73.000000
2.631619 0.024895 -0.129776 73.000000
2.637671 0.016859 -0.130156 73.000000
2.645694 0.008792 -0.130662 73.000000
2.644710 0.000675 -0.130599 73.000000
2.652684 -0.007463 -0.131105 73.000000
2.655642 -0.015619 -0.131295 73.000000
2.658576 -0.023794 -0.131485 73.000000
2.659488 -0.031962 -0.131549 73.000000
2.663369 -0.040182 -0.131802 73.000000
2.661238 -0.048316 -0.131675 73.000000
2.671055 -0.056694 -0.132308 73.000000
2.677852 -0.065059 -0.132752 73.000000
2.679635 -0.073329 -0.132878 73.000000
2.672415 -0.081336 -0.132435 73.000000
2.615299 -0.087622 -0.128826 73.000000
0.984300 -1.924583 -0.099955 73.000000
0.980197 -1.931154 -0.100209 73.000000
0.973818 -1.933261 -0.100145 73.000000
0.966991 -1.934454 -0.100019 73.000000
0.960608 -1.936517 -0.099955 73.000000
0.955984 -1.942142 -0.100145 73.000000
0.949583 -1.944169 -0.100082 73.000000
0.943179 -1.946175 -0.100019 73.000000
0.938068 -1.950858 -0.100145 73.000000
0.931649 -1.952826 -0.100082 73.000000
0.923520 -1.951164 -0.099765 73.000000
0.919225 -1.957602 -0.100019 73.000000
0.913637 -1.961318 -0.100082 73.000000
0.906778 -1.962300 -0.099955 73.000000
0.901169 -1.965980 -0.100019 73.000000
0.894720 -1.967827 -0.099955 73.000000
0.889499 -1.972382 -0.100082 73.000000
0.883851 -1.976013 -0.100145 73.000000
0.877380 -1.977803 -0.100082 73.000000
0.872112 -1.982312 -0.100209 73.000000
0.865627 -1.984064 -0.100145 73.000000
0.860328 -1.988542 -0.100272 73.000000
0.854617 -1.992090 -0.100335 73.000000
2.217423 0.532736 -0.121390 74.000000
2.218077 0.525700 -0.121321 74.000000
2.221622 0.519347 -0.121460 74.000000
2.224177 0.512753 -0.121529 74.000000
2.223794 0.505485 -0.121390 74.000000
2.226308 0.498878 -0.121460 74.000000
2.226854 0.491830 -0.121390 74.000000
2.222504 0.483722 -0.120974 74.000000
2.223977 0.476901 -0.120974 74.000000
2.225430 0.470076 -0.120974 74.000000
2.226861 0.463246 -0.120974 74.000000
2.225340 0.455811 -0.120766 74.000000
2.223795 0.448390 -0.120557 74.000000
2.225160 0.441565 -0.120557 74.000000
2.226504 0.434736 -0.120557 74.000000
2.225868 0.427527 -0.120418 74.000000
2.227169 0.420696 -0.120418 74.000000
2.230411 0.414226 -0.120557 74.000000
2.228727 0.406843 -0.120349 74.000000
2.228983 0.399827 -0.120280 74.000000
2.230199 0.392987 -0.120280 74.000000
2.232378 0.386313 -0.120349 74.000000
2.235519 0.379797 -0.120488 74.000000
2.237658 0.373101 -0.120557 74.000000
2.237807 0.366073 -0.120488 74.000000
2.239905 0.359364 -0.120557 74.000000
2.242968 0.352800 -0.120696 74.000000
2.244040 0.345917 -0.120696 74.000000
2.245090 0.339031 -0.120696 74.000000
2.247107 0.332288 -0.120766 74.000000
2.246141 0.325106 -0.120627 74.000000
2.249103 0.318494 -0.120766 74.000000
2.250070 0.311592 -0.120766 74.000000
2.249038 0.304419 -0.120627 74.000000
2.251939 0.297780 -0.120766 74.000000
2.249874 0.290486 -0.120557 74.000000
2.249765 0.283457 -0.120488 74.000000
2.249634 0.276432 -0.120418 74.000000
2.249481 0.269410 -0.120349 74.000000
2.250297 0.262507 -0.120349 74.000000
2.250101 0.255490 -0.120280 74.000000
2.251865 0.248695 -0.120349 74.000000
2.255593 0.242105 -0.120557 74.000000
2.256325 0.235184 -0.120557 74.000000
2.259022 0.228461 -0.120696 74.000000
2.260705 0.221627 -0.120766 74.000000
2.262367 0.214785 -0.120835 74.000000
2.265002 0.208026 -0.120974 74.000000
2.263642 0.200899 -0.120835 74.000000
2.265242 0.194039 -0.120904 74.000000
2.264832 0.187006 -0.120835 74.000000
2.265395 0.180057 -0.120835 74.000000
2.263948 0.172954 -0.120696 74.000000
2.265463 0.166080 -0.120766 74.000000
2.268947 0.159339 -0.120974 74.000000
2.270420 0.152444 -0.121043 74.000000
2.272868 0.145606 -0.121182 74.000000
2.276292 0.138815 -0.121390 74.000000
2.273719 0.131657 -0.121182 74.000000
2.274112 0.124681 -0.121182 74.000000
2.276477 0.117807 -0.121321 74.000000
2.275831 0.110774 -0.121251 74.000000
2.276160 0.103791 -0.121251 74.000000
2.274474 0.096722 -0.121113 74.000000
2.276754 0.089823 -0.121251 74.000000
2.276022 0.082801 -0.121182 74.000000
2.278260 0.075884 -0.121321 74.000000
2.278481 0.068894 -0.121321 74.000000
2.280677 0.061958 -0.121460 74.000000
2.278861 0.054913 -0.121321 74.000000
2.277024 0.047879 -0.121182 74.000000
2.280153 0.040947 -0.121390 74.000000
2.308197 0.034372 -0.123334 74.000000
2.637472 0.031237 -0.146238 74.000000
2.642543 0.023189 -0.146585 74.000000
2.646592 0.015105 -0.146863 74.000000
2.649619 0.006994 -0.147071 74.000000
2.651623 -0.001135 -0.147210 74.000000
2.653602 -0.009277 -0.147349 74.000000
2.659547 -0.017457 -0.147765 74.000000
2.663471 -0.025654 -0.148043 74.000000
2.667370 -0.033875 -0.148321 74.000000
2.672240 -0.042136 -0.148668 74.000000
2.675091 -0.050390 -0.148876 74.000000
2.680908 -0.058728 -0.149292 74.000000
2.685701 -0.067076 -0.149639 74.000000
2.685483 -0.075315 -0.149639 74.000000
2.681251 -0.083430 -0.149362 74.000000
2.644093 -0.090400 -0.146794 74.000000
4.611629 -1.995585 -0.312332 74.000000
4.542394 -1.982198 -0.307543 74.000000
0.995171 -1.920250 -0.113200 74.000000
0.989275 -1.923294 -0.113200 74.000000
0.985638 -1.930763 -0.113547 74.000000
0.979259 -1.932888 -0.113478 74.000000
0.973324 -1.935883 -0.113478 74.000000
0.967826 -1.939752 -0.113547 74.000000
0.962313 -1.943606 -0.113616 74.000000
0.958106 -1.950131 -0.113894 74.000000
0.951244 -1.951268 -0.113755 74.000000
0.946557 -1.956871 -0.113964 74.000000
0.940980 -1.960665 -0.114033 74.000000
0.934103 -1.961741 -0.113894 74.000000
0.928080 -1.964598 -0.113894 74.000000
0.922472 -1.968339 -0.113964 74.000000
0.917691 -1.973874 -0.114172 74.000000
0.911213 -1.975774 -0.114102 74.000000
0.905562 -1.979467 -0.114172 74.000000
0.901547 -1.986778 -0.114519 74.000000
0.893809 -1.985896 -0.114241 74.000000
0.892187 -1.998649 -0.115005 74.000000
0.868176 -1.993971 -0.114033 74.000000
2.226309 0.498388 -0.136163 75.000000
2.225880 0.491125 -0.136012 75.000000
2.223480 0.483444 -0.135708 75.000000
2.223002 0.476202 -0.135557 75.000000
2.221526 0.468760 -0.135329 75.000000
2.222954 0.461942 -0.135329 75.000000
2.221431 0.454519 -0.135102 75.000000
2.221837 0.447504 -0.135026 75.000000
2.224178 0.440880 -0.135102 75.000000
2.222584 0.433480 -0.134874 75.000000
2.223903 0.426660 -0.134874 75.000000
2.225202 0.419835 -0.134874 75.000000
2.224519 0.412641 -0.134722 75.000000
2.224793 0.405635 -0.134646 75.000000
2.226027 0.398808 -0.134646 75.000000
2.227241 0.391976 -0.134646 75.000000
2.229415 0.385312 -0.134722 75.000000
2.230587 0.378470 -0.134722 75.000000
2.233704 0.371954 -0.134874 75.000000
2.234835 0.365099 -0.134874 75.000000
2.234960 0.358083 -0.134798 75.000000
2.239988 0.351845 -0.135102 75.000000
2.242042 0.345124 -0.135177 75.000000
2.244076 0.338393 -0.135253 75.000000
2.246090 0.331652 -0.135329 75.000000
2.246110 0.324617 -0.135253 75.000000
2.247096 0.317724 -0.135253 75.000000
2.249048 0.310966 -0.135329 75.000000
2.249991 0.304065 -0.135329 75.000000
2.249925 0.297029 -0.135253 75.000000
2.249837 0.289997 -0.135177 75.000000
2.249727 0.282968 -0.135102 75.000000
2.248605 0.275821 -0.134950 75.000000
2.248451 0.268802 -0.134874 75.000000
2.250255 0.262019 -0.134950 75.000000
2.249067 0.254888 -0.134798 75.000000
2.250829 0.248097 -0.134874 75.000000
2.252571 0.241297 -0.134950 75.000000
2.255284 0.234592 -0.135102 75.000000
2.257977 0.227873 -0.135253 75.000000
2.259658 0.221043 -0.135329 75.000000
2.260326 0.214109 -0.135329 75.000000
2.260972 0.207173 -0.135329 75.000000
2.263583 0.200413 -0.135481 75.000000
2.262201 0.193296 -0.135329 75.000000
2.258808 0.186026 -0.135026 75.000000
2.257380 0.178936 -0.134874 75.000000
2.257919 0.172010 -0.134874 75.000000
2.256447 0.164936 -0.134722 75.000000
2.256942 0.158012 -0.134722 75.000000
2.260401 0.151288 -0.134950 75.000000
2.264835 0.144609 -0.135253 75.000000
2.262282 0.137477 -0.135026 75.000000
2.266675 0.130768 -0.135329 75.000000
2.267066 0.123813 -0.135329 75.000000
2.272413 0.117116 -0.135708 75.000000
2.270770 0.110046 -0.135557 75.000000
2.272093 0.103125 -0.135632 75.000000
2.272399 0.096154 -0.135632 75.000000
2.276669 0.089340 -0.135936 75.000000
2.274939 0.082282 -0.135784 75.000000
2.275181 0.075302 -0.135784 75.000000
2.275401 0.068322 -0.135784 75.000000
2.276597 0.061368 -0.135860 75.000000
2.274781 0.054334 -0.135708 75.000000
2.273940 0.047334 -0.135632 75.000000
2.281053 0.040485 -0.136163 75.000000
2.635103 0.038862 -0.163090 75.000000
2.645180 0.030898 -0.163848 75.000000
2.647257 0.022801 -0.164000 75.000000
2.650306 0.014697 -0.164228 75.000000
2.654327 0.006578 -0.164531 75.000000
2.659320 -0.001566 -0.164910 75.000000
2.662294 -0.009735 -0.165138 75.000000
2.667237 -0.017934 -0.165517 75.000000
2.672155 -0.026163 -0.165896 75.000000
2.675053 -0.034399 -0.166124 75.000000
2.678923 -0.042667 -0.166427 75.000000
2.683764 -0.050978 -0.166806 75.000000
2.688580 -0.059319 -0.167186 75.000000
2.689382 -0.067592 -0.167261 75.000000
2.691155 -0.075898 -0.167413 75.000000
1.035392 -1.926021 -0.128958 75.000000
1.029009 -1.928309 -0.128882 75.000000
1.022153 -1.929695 -0.128730 75.000000
0.998113 -1.898412 -0.125772 75.000000
1.001981 -1.920024 -0.127365 75.000000
0.994709 -1.920433 -0.127137 75.000000
0.990182 -1.926135 -0.127365 75.000000
0.984268 -1.929164 -0.127365 75.000000
0.980148 -1.935732 -0.127668 75.000000
0.973757 -1.937839 -0.127593 75.000000
0.968698 -1.942602 -0.127744 75.000000
0.963176 -1.946458 -0.127820 75.000000
0.957640 -1.950299 -0.127896 75.000000
0.952526 -1.955020 -0.128048 75.000000
0.946524 -1.957933 -0.128048 75.000000
0.940944 -1.961727 -0.128123 75.000000
0.934921 -1.964604 -0.128123 75.000000
0.928463 -1.966562 -0.128048 75.000000
0.923696 -1.972109 -0.128275 75.000000
0.918483 -1.976742 -0.128427 75.000000
0.912832 -1.980456 -0.128503 75.000000
0.907582 -1.985060 -0.128654 75.000000
0.903136 -1.991467 -0.128958 75.000000
0.899070 -1.998774 -0.129337 75.000000
2.219464 0.463892 -0.148149 76.000000
2.221853 0.457281 -0.148231 76.000000
2.218361 0.449475 -0.147823 76.000000
2.222662 0.443250 -0.148067 76.000000
2.222055 0.436047 -0.147904 76.000000
2.226319 0.429793 -0.148149 76.000000
2.225668 0.422589 -0.147986 76.000000
2.228914 0.416124 -0.148149 76.000000
2.229200 0.409104 -0.148067 76.000000
2.233387 0.402793 -0.148312 76.000000
2.232650 0.395592 -0.148149 76.000000
2.236799 0.389252 -0.148394 76.000000
2.239947 0.382722 -0.148557 76.000000
2.241111 0.375848 -0.148557 76.000000
2.240286 0.368648 -0.148394 76.000000
2.242391 0.361932 -0.148475 76.000000
2.241522 0.354740 -0.148312 76.000000
2.242599 0.347861 -0.148312 76.000000
2.243656 0.340979 -0.148312 76.000000
2.244692 0.334094 -0.148312 76.000000
2.245706 0.327206 -0.148312 76.000000
2.246700 0.320315 -0.148312 76.000000
2.246684 0.313283 -0.148231 76.000000
2.248623 0.306523 -0.148312 76.000000
2.249552 0.299623 -0.148312 76.000000
2.249473 0.292592 -0.148231 76.000000
2.250360 0.285690 -0.148231 76.000000
2.250237 0.278662 -0.148149 76.000000
2.250091 0.271638 -0.148067 76.000000
2.250914 0.264734 -0.148067 76.000000
2.249735 0.257601 -0.147904 76.000000
2.251505 0.250808 -0.147986 76.000000
2.253255 0.244006 -0.148067 76.000000
2.255976 0.237299 -0.148231 76.000000
2.257685 0.230478 -0.148312 76.000000
2.260365 0.223745 -0.148475 76.000000
2.262033 0.216904 -0.148557 76.000000
2.262688 0.209963 -0.148557 76.000000
2.261336 0.202844 -0.148394 76.000000
2.262940 0.195990 -0.148475 76.000000
2.261544 0.188882 -0.148312 76.000000
2.259133 0.181705 -0.148067 76.000000
2.259680 0.174773 -0.148067 76.000000
2.261199 0.167913 -0.148149 76.000000
2.262698 0.161045 -0.148231 76.000000
2.264176 0.154170 -0.148312 76.000000
2.264638 0.147222 -0.148312 76.000000
2.265079 0.140274 -0.148312 76.000000
2.268484 0.133498 -0.148557 76.000000
2.269878 0.126593 -0.148639 76.000000
2.275232 0.119888 -0.149047 76.000000
2.273598 0.112810 -0.148883 76.000000
2.277916 0.106017 -0.149210 76.000000
2.276239 0.098942 -0.149047 76.000000
2.279520 0.092078 -0.149291 76.000000
2.279791 0.085084 -0.149291 76.000000
2.281038 0.078123 -0.149373 76.000000
2.281267 0.071124 -0.149373 76.000000
2.281474 0.064125 -0.149373 76.000000
2.277675 0.057028 -0.149047 76.000000
2.277839 0.050039 -0.149047 76.000000
2.474292 0.046661 -0.165120 76.000000
2.638854 0.041588 -0.178582 76.000000
2.640962 0.033517 -0.178745 76.000000
2.647032 0.025469 -0.179235 76.000000
2.647098 0.017348 -0.179235 76.000000
2.653119 0.009245 -0.179725 76.000000
2.656125 0.001105 -0.179969 76.000000
2.659106 -0.007053 -0.180214 76.000000
2.664055 -0.015242 -0.180622 76.000000
2.669975 -0.023470 -0.181112 76.000000
2.675870 -0.031735 -0.181601 76.000000
2.678750 -0.039990 -0.181846 76.000000
2.684593 -0.048318 -0.182335 76.000000
2.687422 -0.056619 -0.182580 76.000000
2.690224 -0.064937 -0.182825 76.000000
2.693002 -0.073272 -0.183070 76.000000
2.618049 -0.079239 -0.176950 76.000000
1.005224 -1.920599 -0.139990 76.000000
0.999327 -1.923674 -0.139990 76.000000
0.992508 -1.924959 -0.139827 76.000000
0.987051 -1.928882 -0.139908 76.000000
0.982031 -1.933679 -0.140072 76.000000
0.976093 -1.936683 -0.140072 76.000000
0.971038 -1.941452 -0.140235 76.000000
0.964192 -1.942636 -0.140072 76.000000
0.960427 -1.950056 -0.140480 76.000000
0.954440 -1.952994 -0.140480 76.000000
0.948443 -1.955913 -0.140480 76.000000
0.943301 -1.960610 -0.140643 76.000000
0.937711 -1.964394 -0.140724 76.000000
0.931680 -1.967262 -0.140724 76.000000
0.926487 -1.971916 -0.140887 76.000000
0.921694 -1.977460 -0.141132 76.000000
0.916876 -1.982993 -0.141377 76.000000
0.910373 -1.984890 -0.141295 76.000000
0.907165 -1.994026 -0.141867 76.000000
2.206608 0.425903 -0.160624 77.000000
2.228456 0.423029 -0.162469 77.000000
2.230723 0.416373 -0.162556 77.000000
2.234929 0.410066 -0.162820 77.000000
2.238137 0.403560 -0.162996 77.000000
2.238384 0.396518 -0.162908 77.000000
2.239590 0.389649 -0.162908 77.000000
2.241757 0.382944 -0.162996 77.000000
2.243904 0.376229 -0.163084 77.000000
2.243081 0.369020 -0.162908 77.000000
2.244203 0.362137 -0.162908 77.000000
2.245303 0.355250 -0.162908 77.000000
2.246383 0.348360 -0.162908 77.000000
2.245471 0.341167 -0.162732 77.000000
2.246507 0.334277 -0.162732 77.000000
2.244565 0.326953 -0.162469 77.000000
2.245558 0.320065 -0.162469 77.000000
2.244556 0.312899 -0.162293 77.000000
2.246492 0.306146 -0.162381 77.000000
2.248408 0.299384 -0.162469 77.000000
2.246353 0.292100 -0.162205 77.000000
2.247238 0.285206 -0.162205 77.000000
2.248103 0.278311 -0.162205 77.000000
2.250924 0.271651 -0.162381 77.000000
2.250757 0.264627 -0.162293 77.000000
2.250569 0.257608 -0.162205 77.000000
2.251349 0.250702 -0.162205 77.000000
2.254088 0.244008 -0.162381 77.000000
2.255817 0.237195 -0.162469 77.000000
2.256534 0.230273 -0.162469 77.000000
2.258221 0.223447 -0.162556 77.000000
2.262862 0.216898 -0.162908 77.000000
2.262525 0.209862 -0.162820 77.000000
2.262166 0.202831 -0.162732 77.000000
2.264763 0.196062 -0.162908 77.000000
2.264361 0.189030 -0.162820 77.000000
2.263937 0.182002 -0.162732 77.000000
2.264485 0.175056 -0.162732 77.000000
2.266998 0.168255 -0.162908 77.000000
2.268497 0.161369 -0.162996 77.000000
2.269975 0.154476 -0.163084 77.000000
2.272427 0.147640 -0.163259 77.000000
2.271875 0.140607 -0.163171 77.000000
2.276273 0.133869 -0.163523 77.000000
2.275679 0.126830 -0.163435 77.000000
2.277052 0.119900 -0.163523 77.000000
2.278404 0.112962 -0.163611 77.000000
2.278740 0.105972 -0.163611 77.000000
2.279054 0.098980 -0.163611 77.000000
2.280342 0.092028 -0.163699 77.000000
2.281610 0.085068 -0.163786 77.000000
2.282855 0.078102 -0.163874 77.000000
2.282089 0.071067 -0.163786 77.000000
2.284287 0.064121 -0.163962 77.000000
2.282481 0.057063 -0.163786 77.000000
2.299576 0.050429 -0.165280 77.000000
2.634362 0.049629 -0.194798 77.000000
2.647450 0.041749 -0.195940 77.000000
2.651550 0.033677 -0.196291 77.000000
2.655626 0.025579 -0.196643 77.000000
2.656687 0.017438 -0.196731 77.000000
2.661709 0.009304 -0.197170 77.000000
2.665710 0.001139 -0.197521 77.000000
2.668689 -0.007047 -0.197785 77.000000
2.671643 -0.015252 -0.198048 77.000000
2.677561 -0.023502 -0.198575 77.000000
2.699389 -0.031979 -0.200508 77.000000
2.686330 -0.040065 -0.199366 77.000000
2.710098 -0.048740 -0.201475 77.000000
2.697985 -0.056801 -0.200420 77.000000
2.696802 -0.065054 -0.200332 77.000000
2.686632 -0.073055 -0.199454 77.000000
1.013740 -1.922747 -0.154123 77.000000
1.007375 -1.924965 -0.154035 77.000000
1.000547 -1.926278 -0.153859 77.000000
0.994632 -1.929339 -0.153859 77.000000
0.989162 -1.933268 -0.153947 77.000000
0.983677 -1.937182 -0.154035 77.000000
0.978177 -1.941080 -0.154123 77.000000
0.970881 -1.941399 -0.153859 77.000000
0.964921 -1.944369 -0.153859 77.000000
0.961150 -1.951789 -0.154298 77.000000
0.954284 -1.952938 -0.154123 77.000000
0.949156 -1.957649 -0.154298 77.000000
0.943578 -1.961450 -0.154386 77.000000
0.938413 -1.966134 -0.154562 77.000000
0.932377 -1.969003 -0.154562 77.000000
0.925062 -1.969150 -0.154298 77.000000
0.920278 -1.974687 -0.154562 77.000000
0.913797 -1.976597 -0.154474 77.000000
0.907729 -1.979391 -0.154474 77.000000
0.904126 -1.987608 -0.155001 77.000000
0.898843 -1.992188 -0.155177 77.000000
0.888659 -1.985843 -0.154298 77.000000
2.243982 0.403323 -0.177445 78.000000
2.235405 0.394704 -0.176506 78.000000
2.242491 0.388866 -0.177070 78.000000
2.243673 0.381984 -0.177070 78.000000
2.244835 0.375099 -0.177070 78.000000
