# This PCD file was generated using the MATLAB® pcwrite function
# from Computer Vision Toolbox®.
# .PCD v.7 - Point Cloud Data file format
VERSION .7
FIELDS x y z intensity
SIZE 4 4 4 4
TYPE F F F F
COUNT 1 1 1 1
WIDTH 1288
HEIGHT 1
VIEWPOINT 0 0 0 1 0 0 0
POINTS 1288
DATA ascii
1.713598 0.290478 0.117401 55.000000
1.720392 0.286207 0.117683 55.000000
1.724220 0.281413 0.117825 55.000000
1.724089 0.275963 0.117778 55.000000
1.725914 0.270828 0.117825 55.000000
1.732660 0.266446 0.118107 55.000000
1.731494 0.260830 0.118013 55.000000
1.719441 0.253614 0.117401 55.000000
1.403769 0.785498 0.102104 56.000000
1.414037 0.785549 0.102476 56.000000
1.417315 0.781689 0.102517 56.000000
1.417953 0.776378 0.102435 56.000000
1.419450 0.771548 0.102393 56.000000
1.421811 0.767189 0.102393 56.000000
1.424158 0.762824 0.102393 56.000000
1.426491 0.758451 0.102393 56.000000
1.427927 0.753605 0.102352 56.000000
1.428462 0.748295 0.102269 56.000000
1.432525 0.744829 0.102352 56.000000
1.434803 0.740431 0.102352 56.000000
1.436178 0.735571 0.102311 56.000000
1.437537 0.730709 0.102269 56.000000
1.442449 0.727643 0.102393 56.000000
1.442887 0.722321 0.102311 56.000000
1.446887 0.718779 0.102393 56.000000
1.449982 0.714778 0.102435 56.000000
1.456657 0.712518 0.102642 56.000000
1.457937 0.707610 0.102600 56.000000
1.461002 0.703566 0.102642 56.000000
1.463153 0.699081 0.102642 56.000000
1.465291 0.694589 0.102642 56.000000
1.466511 0.689665 0.102600 56.000000
1.469525 0.685585 0.102642 56.000000
1.472529 0.681492 0.102683 56.000000
1.473704 0.676555 0.102642 56.000000
1.477592 0.672857 0.102724 56.000000
1.479650 0.668321 0.102724 56.000000
1.482605 0.664186 0.102766 56.000000
1.488289 0.661255 0.102931 56.000000
1.489397 0.656283 0.102890 56.000000
1.492319 0.652110 0.102931 56.000000
1.496147 0.648322 0.103014 56.000000
1.499047 0.644123 0.103055 56.000000
1.500096 0.639130 0.103014 56.000000
1.504812 0.635689 0.103138 56.000000
1.505834 0.630684 0.103096 56.000000
1.508684 0.626444 0.103138 56.000000
1.510599 0.621812 0.103138 56.000000
1.515276 0.618305 0.103262 56.000000
1.515313 0.612905 0.103179 56.000000
1.516258 0.607882 0.103138 56.000000
1.519974 0.603964 0.103220 56.000000
1.522749 0.599664 0.103262 56.000000
1.523651 0.594627 0.103220 56.000000
1.528264 0.591029 0.103344 56.000000
1.531004 0.586694 0.103386 56.000000
1.535599 0.583056 0.103510 56.000000
1.537381 0.578342 0.103510 56.000000
1.543830 0.575364 0.103717 56.000000
1.546526 0.570970 0.103758 56.000000
1.549209 0.566566 0.103799 56.000000
1.553759 0.562829 0.103923 56.000000
1.555478 0.558059 0.103923 56.000000
1.559066 0.553952 0.104006 56.000000
1.560759 0.549167 0.104006 56.000000
1.562436 0.544376 0.104006 56.000000
1.565988 0.540230 0.104089 56.000000
1.568584 0.535745 0.104130 56.000000
1.574954 0.532527 0.104337 56.000000
1.578476 0.528326 0.104420 56.000000
1.578192 0.522854 0.104337 56.000000
1.582637 0.518941 0.104461 56.000000
1.585173 0.514391 0.104502 56.000000
1.587695 0.509830 0.104544 56.000000
1.591156 0.505561 0.104626 56.000000
1.592700 0.500677 0.104626 56.000000
1.596137 0.496380 0.104709 56.000000
1.598608 0.491774 0.104750 56.000000
1.600109 0.486867 0.104750 56.000000
1.602552 0.482243 0.104792 56.000000
1.604024 0.477324 0.104792 56.000000
1.609316 0.473526 0.104957 56.000000
1.611720 0.468865 0.104999 56.000000
1.616032 0.464745 0.105123 56.000000
1.618412 0.460057 0.105164 56.000000
1.621740 0.455629 0.105247 56.000000
1.625056 0.451185 0.105329 56.000000
1.628360 0.446724 0.105412 56.000000
1.630687 0.441987 0.105453 56.000000
1.633001 0.437240 0.105495 56.000000
1.634335 0.432228 0.105495 56.000000
1.636620 0.427464 0.105536 56.000000
1.638891 0.422690 0.105578 56.000000
1.641149 0.417905 0.105619 56.000000
1.644362 0.413354 0.105702 56.000000
1.648532 0.409027 0.105826 56.000000
1.652691 0.404679 0.105950 56.000000
1.654896 0.399840 0.105991 56.000000
1.658059 0.395223 0.106074 56.000000
1.660236 0.390363 0.106115 56.000000
1.664347 0.385942 0.106239 56.000000
1.665523 0.380834 0.106239 56.000000
1.670583 0.376599 0.106405 56.000000
1.673681 0.371904 0.106487 56.000000
1.675791 0.366981 0.106529 56.000000
1.675932 0.361628 0.106487 56.000000
1.678988 0.356899 0.106570 56.000000
1.681053 0.351950 0.106611 56.000000
1.683104 0.346992 0.106653 56.000000
1.685140 0.342025 0.106694 56.000000
1.687161 0.337048 0.106735 56.000000
1.690148 0.332255 0.106818 56.000000
1.692141 0.327257 0.106859 56.000000
1.696082 0.322622 0.106984 56.000000
1.700010 0.317966 0.107108 56.000000
1.702943 0.313109 0.107190 56.000000
1.704879 0.308060 0.107232 56.000000
1.708768 0.303350 0.107356 56.000000
1.709691 0.298106 0.107356 56.000000
1.713552 0.293363 0.107480 56.000000
1.717400 0.288600 0.107604 56.000000
1.718278 0.283329 0.107604 56.000000
1.720125 0.278215 0.107645 56.000000
1.721958 0.273093 0.107687 56.000000
1.724762 0.268114 0.107769 56.000000
1.731504 0.263720 0.108017 56.000000
1.724398 0.257233 0.107687 56.000000
1.725179 0.251941 0.107687 56.000000
1.403005 0.789761 0.092130 57.000000
1.415019 0.790814 0.092516 57.000000
1.415690 0.785500 0.092445 57.000000
1.416342 0.780189 0.092375 57.000000
1.420483 0.776798 0.092445 57.000000
1.422860 0.772437 0.092445 57.000000
1.425223 0.768068 0.092445 57.000000
1.427572 0.763691 0.092445 57.000000
1.429909 0.759308 0.092445 57.000000
1.430463 0.753986 0.092375 57.000000
1.431884 0.749131 0.092340 57.000000
1.436837 0.746116 0.092445 57.000000
1.438231 0.741246 0.092410 57.000000
1.439608 0.736375 0.092375 57.000000
1.441860 0.731955 0.092375 57.000000
1.445884 0.728427 0.092445 57.000000
1.447218 0.723541 0.092410 57.000000
1.450327 0.719542 0.092445 57.000000
1.457011 0.717295 0.092621 57.000000
1.459205 0.712821 0.092621 57.000000
1.458687 0.707034 0.092516 57.000000
1.462650 0.703421 0.092586 57.000000
1.466606 0.699791 0.092656 57.000000
1.468746 0.695288 0.092656 57.000000
1.469063 0.689930 0.092586 57.000000
1.475702 0.687529 0.092761 57.000000
1.475083 0.681741 0.092656 57.000000
1.477167 0.677212 0.092656 57.000000
1.481058 0.673504 0.092726 57.000000
1.486762 0.670600 0.092866 57.000000
1.486987 0.665220 0.092796 57.000000
1.490848 0.661465 0.092866 57.000000
1.492871 0.656888 0.092866 57.000000
1.494879 0.652304 0.092866 57.000000
1.497790 0.648112 0.092901 57.000000
1.500690 0.643907 0.092936 57.000000
1.500819 0.638518 0.092866 57.000000
1.503692 0.634299 0.092901 57.000000
1.505631 0.629683 0.092901 57.000000
1.508479 0.625443 0.092936 57.000000
1.511315 0.621192 0.092971 57.000000
1.516916 0.618060 0.093112 57.000000
1.517879 0.613029 0.093077 57.000000
1.519752 0.608370 0.093077 57.000000
1.522540 0.604073 0.093112 57.000000
1.525317 0.599764 0.093147 57.000000
1.527150 0.595082 0.093147 57.000000
1.529900 0.590753 0.093182 57.000000
1.533573 0.586771 0.093252 57.000000
1.536300 0.582417 0.093287 57.000000
1.539015 0.578052 0.093322 57.000000
1.542655 0.574024 0.093392 57.000000
1.547222 0.570325 0.093498 57.000000
1.549904 0.565918 0.093533 57.000000
1.552572 0.561500 0.093568 57.000000
1.556170 0.557408 0.093638 57.000000
1.559756 0.553299 0.093708 57.000000
1.563332 0.549173 0.093778 57.000000
1.565954 0.544702 0.093813 57.000000
1.570453 0.540871 0.093918 57.000000
1.574942 0.537017 0.094024 57.000000
1.578477 0.532822 0.094094 57.000000
1.582948 0.528926 0.094199 57.000000
1.586461 0.524695 0.094269 57.000000
1.589963 0.520446 0.094339 57.000000
1.591552 0.515566 0.094339 57.000000
1.594078 0.510985 0.094374 57.000000
1.595638 0.506092 0.094374 57.000000
1.596230 0.500896 0.094339 57.000000
1.597759 0.495996 0.094339 57.000000
1.599273 0.491092 0.094339 57.000000
1.600772 0.486183 0.094339 57.000000
1.605128 0.482132 0.094445 57.000000
1.608516 0.477774 0.094515 57.000000
1.613810 0.473962 0.094655 57.000000
1.618136 0.469844 0.094760 57.000000
1.622451 0.465704 0.094865 57.000000
1.626757 0.461542 0.094971 57.000000
1.630090 0.457088 0.095041 57.000000
1.632448 0.452352 0.095076 57.000000
1.635756 0.447869 0.095146 57.000000
1.637122 0.442848 0.095146 57.000000
1.638473 0.437823 0.095146 57.000000
1.639809 0.432794 0.095146 57.000000
1.642096 0.428013 0.095181 57.000000
1.642433 0.422725 0.095146 57.000000
1.644691 0.417930 0.095181 57.000000
1.646935 0.413125 0.095216 57.000000
1.650135 0.408550 0.095286 57.000000
1.654293 0.404197 0.095392 57.000000
1.658440 0.399821 0.095497 57.000000
1.661604 0.395193 0.095567 57.000000
1.664755 0.390550 0.095637 57.000000
1.668866 0.386116 0.095742 57.000000
1.671992 0.381438 0.095812 57.000000
1.675104 0.376745 0.095883 57.000000
1.677228 0.371820 0.095918 57.000000
1.678361 0.366673 0.095918 57.000000
1.679478 0.361522 0.095918 57.000000
1.682534 0.356782 0.095988 57.000000
1.682643 0.351414 0.095953 57.000000
1.686650 0.346853 0.096058 57.000000
1.686726 0.341479 0.096023 57.000000
1.689726 0.336693 0.096093 57.000000
1.690751 0.331507 0.096093 57.000000
1.692742 0.326508 0.096128 57.000000
1.695699 0.321685 0.096198 57.000000
1.698643 0.316847 0.096268 57.000000
1.702556 0.312174 0.096374 57.000000
1.705473 0.307303 0.096444 57.000000
1.708376 0.302418 0.096514 57.000000
1.710281 0.297346 0.096549 57.000000
1.714140 0.292601 0.096654 57.000000
1.717001 0.287671 0.096724 57.000000
1.718862 0.282564 0.096759 57.000000
1.720708 0.277448 0.096795 57.000000
1.723525 0.272479 0.096865 57.000000
1.724353 0.267190 0.096865 57.000000
1.734057 0.263247 0.097180 57.000000
1.734857 0.257926 0.097180 57.000000
1.297696 0.794103 0.079024 58.000000
1.300126 0.790118 0.079024 58.000000
1.300663 0.779555 0.078882 58.000000
1.399408 0.792748 0.081498 58.000000
1.411416 0.793844 0.081811 58.000000
1.414717 0.789997 0.081840 58.000000
1.416260 0.785168 0.081811 58.000000
1.417787 0.780338 0.081783 58.000000
1.421051 0.776464 0.081811 58.000000
1.423427 0.772100 0.081811 58.000000
1.424029 0.766781 0.081754 58.000000
1.425493 0.761937 0.081726 58.000000
1.426941 0.757092 0.081698 58.000000
1.427488 0.751778 0.081641 58.000000
1.429788 0.747395 0.081641 58.000000
1.432961 0.743466 0.081669 58.000000
1.436124 0.739524 0.081698 58.000000
1.435716 0.733749 0.081612 58.000000
1.437961 0.729341 0.081612 58.000000
1.441084 0.725376 0.081641 58.000000
1.442409 0.720504 0.081612 58.000000
1.446403 0.716964 0.081669 58.000000
1.450390 0.713406 0.081726 58.000000
1.453470 0.709391 0.081754 58.000000
1.457439 0.705801 0.081811 58.000000
1.462300 0.702625 0.081897 58.000000
1.466253 0.698997 0.081954 58.000000
1.468390 0.694495 0.081954 58.000000
1.468705 0.689137 0.081897 58.000000
1.473530 0.685894 0.081982 58.000000
1.472905 0.680112 0.081897 58.000000
1.476802 0.676423 0.081954 58.000000
1.477051 0.671062 0.081897 58.000000
1.484570 0.668993 0.082067 58.000000
1.489353 0.665659 0.082153 58.000000
1.491388 0.661087 0.082153 58.000000
1.494324 0.656911 0.082181 58.000000
1.498165 0.653122 0.082238 58.000000
1.500162 0.648523 0.082238 58.000000
1.502144 0.643917 0.082238 58.000000
1.504113 0.639306 0.082238 58.000000
1.506067 0.634688 0.082238 58.000000
1.508007 0.630065 0.082238 58.000000
1.510857 0.625818 0.082266 58.000000
1.513694 0.621560 0.082295 58.000000
1.519297 0.618421 0.082409 58.000000
1.522114 0.614131 0.082437 58.000000
1.525847 0.610202 0.082494 58.000000
1.526783 0.605149 0.082466 58.000000
1.530493 0.601193 0.082522 58.000000
1.530467 0.595769 0.082466 58.000000
1.534153 0.591791 0.082522 58.000000
1.535027 0.586724 0.082494 58.000000
1.538689 0.582721 0.082551 58.000000
1.532984 0.575186 0.082323 58.000000
1.543173 0.573617 0.082579 58.000000
1.543050 0.568189 0.082522 58.000000
1.549481 0.565166 0.082665 58.000000
1.551207 0.560409 0.082665 58.000000
1.553860 0.555985 0.082693 58.000000
1.558385 0.552217 0.082778 58.000000
1.561958 0.548096 0.082835 58.000000
1.566465 0.544286 0.082921 58.000000
1.570018 0.540129 0.082978 58.000000
1.572613 0.535632 0.083006 58.000000
1.576144 0.531444 0.083063 58.000000
1.581559 0.527873 0.083177 58.000000
1.583171 0.523018 0.083177 58.000000
1.586668 0.518780 0.083234 58.000000
1.589203 0.514218 0.083262 58.000000
1.590773 0.509340 0.083262 58.000000
1.592329 0.504457 0.083262 58.000000
1.593869 0.499569 0.083262 58.000000
1.597303 0.495270 0.083319 58.000000
1.599771 0.490660 0.083347 58.000000
1.602225 0.486040 0.083376 58.000000
1.604666 0.481410 0.083404 58.000000
1.609010 0.477338 0.083490 58.000000
1.612385 0.472963 0.083546 58.000000
1.617669 0.469128 0.083660 58.000000
1.621983 0.464990 0.083746 58.000000
1.624363 0.460285 0.083774 58.000000
1.628655 0.456108 0.083859 58.000000
1.630047 0.451109 0.083859 58.000000
1.632387 0.446370 0.083888 58.000000
1.635679 0.441882 0.083945 58.000000
1.637993 0.437120 0.083973 58.000000
1.640293 0.432347 0.084002 58.000000
1.642579 0.427565 0.084030 58.000000
1.643883 0.422524 0.084030 58.000000
1.645171 0.417478 0.084030 58.000000
1.646444 0.412429 0.084030 58.000000
1.651583 0.408336 0.084144 58.000000
1.654770 0.403742 0.084201 58.000000
1.656973 0.398897 0.084229 58.000000
1.662079 0.394737 0.084343 58.000000
1.664255 0.389864 0.084371 58.000000
1.667391 0.385207 0.084428 58.000000
1.670514 0.380534 0.084485 58.000000
1.673625 0.375845 0.084542 58.000000
1.674770 0.370709 0.084542 58.000000
1.678829 0.366209 0.084627 58.000000
1.679945 0.361057 0.084627 58.000000
1.681044 0.355901 0.084627 58.000000
1.682128 0.350742 0.084627 58.000000
1.686134 0.346183 0.084713 58.000000
1.686208 0.340810 0.084684 58.000000
1.688226 0.335831 0.084713 58.000000
1.690230 0.330842 0.084741 58.000000
1.692218 0.325844 0.084770 58.000000
1.695174 0.321023 0.084827 58.000000
1.698116 0.316188 0.084883 58.000000
1.702028 0.311517 0.084969 58.000000
1.706911 0.307002 0.085083 58.000000
1.711782 0.302461 0.085196 58.000000
1.716641 0.297892 0.085310 58.000000
1.721488 0.293297 0.085424 58.000000
1.724352 0.288344 0.085481 58.000000
1.728187 0.283539 0.085566 58.000000
1.730036 0.278394 0.085595 58.000000
1.733844 0.273553 0.085680 58.000000
1.742578 0.269457 0.085907 58.000000
1.766127 0.267558 0.086562 58.000000
1.296978 0.797538 0.070374 59.000000
1.298566 0.793034 0.070352 59.000000
1.302379 0.778993 0.070261 59.000000
1.392623 0.792947 0.072189 59.000000
1.404619 0.794090 0.072439 59.000000
1.407048 0.789777 0.072439 59.000000
1.409465 0.785456 0.072439 59.000000
1.409244 0.779675 0.072371 59.000000
1.410754 0.774865 0.072348 59.000000
1.412247 0.770054 0.072325 59.000000
1.414603 0.765718 0.072325 59.000000
1.416065 0.760901 0.072303 59.000000
1.416629 0.755610 0.072257 59.000000
1.419824 0.751729 0.072280 59.000000
1.423008 0.747835 0.072303 59.000000
1.424410 0.743003 0.072280 59.000000
1.427570 0.739090 0.072303 59.000000
1.429831 0.734707 0.072303 59.000000
1.432078 0.730317 0.072303 59.000000
1.431637 0.724563 0.072235 59.000000
1.433853 0.720168 0.072235 59.000000
1.435161 0.715319 0.072212 59.000000
1.438245 0.711356 0.072235 59.000000
1.443112 0.708264 0.072303 59.000000
1.445278 0.703833 0.072303 59.000000
1.450130 0.700702 0.072371 59.000000
1.457680 0.698847 0.072507 59.000000
1.459818 0.694372 0.072507 59.000000
1.463749 0.690745 0.072552 59.000000
1.466766 0.686675 0.072575 59.000000
1.469772 0.682594 0.072598 59.000000
1.471860 0.678081 0.072598 59.000000
1.473024 0.673146 0.072575 59.000000
1.475993 0.669037 0.072598 59.000000
1.479861 0.665327 0.072643 59.000000
1.482808 0.661192 0.072666 59.000000
1.486658 0.657449 0.072711 59.000000
1.489583 0.653287 0.072734 59.000000
1.491580 0.648714 0.072734 59.000000
1.494481 0.644532 0.072756 59.000000
1.496452 0.639944 0.072756 59.000000
1.498408 0.635350 0.072756 59.000000
1.499429 0.630361 0.072734 59.000000
1.502278 0.626144 0.072756 59.000000
1.507887 0.623062 0.072847 59.000000
1.509791 0.618432 0.072847 59.000000
1.515386 0.615305 0.072938 59.000000
1.519121 0.611400 0.072983 59.000000
1.521918 0.607108 0.073006 59.000000
1.525632 0.603173 0.073051 59.000000
1.530267 0.599585 0.073119 59.000000
1.530236 0.594163 0.073074 59.000000
1.534850 0.590544 0.073142 59.000000
1.534787 0.585119 0.073097 59.000000
1.537510 0.580761 0.073119 59.000000
1.539284 0.576042 0.073119 59.000000
1.542918 0.572013 0.073165 59.000000
1.537160 0.564514 0.072983 59.000000
1.547338 0.562877 0.073187 59.000000
1.549058 0.558128 0.073187 59.000000
1.553587 0.554382 0.073256 59.000000
1.555281 0.549613 0.073256 59.000000
1.557903 0.545170 0.073278 59.000000
1.563346 0.541700 0.073369 59.000000
1.566891 0.537551 0.073414 59.000000
1.570426 0.533386 0.073460 59.000000
1.573950 0.529204 0.073505 59.000000
1.579359 0.525638 0.073596 59.000000
1.580964 0.520790 0.073596 59.000000
1.585406 0.516869 0.073664 59.000000
1.589838 0.512926 0.073732 59.000000
1.592356 0.508350 0.073755 59.000000
1.592955 0.503161 0.073732 59.000000
1.594491 0.498271 0.073732 59.000000
1.596967 0.493673 0.073755 59.000000
1.597518 0.488478 0.073732 59.000000
1.599010 0.483575 0.073732 59.000000
1.600486 0.478667 0.073732 59.000000
1.604822 0.474607 0.073800 59.000000
1.607230 0.469963 0.073823 59.000000
1.610585 0.465586 0.073868 59.000000
1.615850 0.461744 0.073959 59.000000
1.618221 0.457057 0.073982 59.000000
1.620578 0.452360 0.074004 59.000000
1.624849 0.448185 0.074072 59.000000
1.630074 0.444252 0.074163 59.000000
1.632394 0.439510 0.074186 59.000000
1.634701 0.434757 0.074208 59.000000
1.636027 0.429740 0.074208 59.000000
1.639273 0.425222 0.074254 59.000000
1.641538 0.420440 0.074276 59.000000
1.642820 0.415401 0.074276 59.000000
1.645057 0.410602 0.074299 59.000000
1.648250 0.406033 0.074344 59.000000
1.651430 0.401448 0.074390 59.000000
1.653626 0.396613 0.074413 59.000000
1.656781 0.392000 0.074458 59.000000
1.659922 0.387371 0.074503 59.000000
1.663051 0.382726 0.074549 59.000000
1.667142 0.378288 0.074617 59.000000
1.671221 0.373828 0.074685 59.000000
1.672360 0.368699 0.074685 59.000000
1.676414 0.364205 0.074753 59.000000
1.677523 0.359060 0.074753 59.000000
1.680573 0.354326 0.074798 59.000000
1.682631 0.349372 0.074821 59.000000
1.684675 0.344409 0.074844 59.000000
1.687683 0.339635 0.074889 59.000000
1.688717 0.334456 0.074889 59.000000
1.689735 0.329273 0.074889 59.000000
1.692701 0.324465 0.074934 59.000000
1.694671 0.319456 0.074957 59.000000
1.696626 0.314439 0.074980 59.000000
1.701516 0.309951 0.075070 59.000000
1.706395 0.305437 0.075161 59.000000
1.712247 0.301069 0.075275 59.000000
1.717103 0.296498 0.075365 59.000000
1.720961 0.291732 0.075433 59.000000
1.727764 0.287439 0.075570 59.000000
1.729625 0.282298 0.075592 59.000000
1.734431 0.277625 0.075683 59.000000
1.737249 0.272614 0.075728 59.000000
1.737090 0.267130 0.075706 59.000000
1.753717 0.264193 0.076069 59.000000
1.389522 0.794731 0.062462 60.000000
1.401521 0.795889 0.062645 60.000000
1.403957 0.791585 0.062645 60.000000
1.405506 0.786786 0.062628 60.000000
1.407039 0.781986 0.062612 60.000000
1.412058 0.779112 0.062661 60.000000
1.412688 0.773817 0.062628 60.000000
1.412419 0.768048 0.062578 60.000000
1.413888 0.763237 0.062562 60.000000
1.416223 0.758896 0.062562 60.000000
1.417662 0.754078 0.062545 60.000000
1.421738 0.750658 0.062578 60.000000
1.424034 0.746293 0.062578 60.000000
1.428091 0.742842 0.062612 60.000000
1.431252 0.738915 0.062628 60.000000
1.433513 0.734520 0.062628 60.000000
1.435759 0.730119 0.062628 60.000000
1.437100 0.725261 0.062612 60.000000
1.439318 0.720849 0.062612 60.000000
1.439731 0.715541 0.062578 60.000000
1.441920 0.711120 0.062578 60.000000
1.447688 0.708449 0.062645 60.000000
1.450755 0.704440 0.062661 60.000000
1.456514 0.701719 0.062728 60.000000
1.459562 0.697678 0.062744 60.000000
1.468022 0.696191 0.062860 60.000000
1.466530 0.689984 0.062794 60.000000
1.470453 0.686326 0.062827 60.000000
1.472552 0.681812 0.062827 60.000000
1.475546 0.677707 0.062844 60.000000
1.477618 0.673177 0.062844 60.000000
1.479676 0.668641 0.062844 60.000000
1.480808 0.663690 0.062827 60.000000
1.488321 0.661576 0.062927 60.000000
1.486683 0.655396 0.062860 60.000000
1.489603 0.651232 0.062877 60.000000
1.492511 0.647056 0.062893 60.000000
1.495408 0.642868 0.062910 60.000000
1.497374 0.638278 0.062910 60.000000
1.499325 0.633681 0.062910 60.000000
1.502184 0.629464 0.062927 60.000000
1.507803 0.626384 0.062993 60.000000
1.510642 0.622135 0.063009 60.000000
1.513470 0.617875 0.063026 60.000000
1.518140 0.614352 0.063076 60.000000
1.521874 0.610434 0.063109 60.000000
1.524669 0.606131 0.063125 60.000000
1.526521 0.601451 0.063125 60.000000
1.533949 0.598943 0.063225 60.000000
1.536712 0.594594 0.063242 60.000000
1.539463 0.590234 0.063258 60.000000
1.541266 0.585508 0.063258 60.000000
1.542120 0.580425 0.063242 60.000000
1.545767 0.576389 0.063275 60.000000
1.549405 0.572335 0.063308 60.000000
1.550214 0.567236 0.063291 60.000000
1.551007 0.562137 0.063275 60.000000
1.555548 0.558388 0.063324 60.000000
1.554427 0.552610 0.063275 60.000000
1.558001 0.548501 0.063308 60.000000
1.561566 0.544376 0.063341 60.000000
1.565119 0.540234 0.063374 60.000000
1.567716 0.535752 0.063391 60.000000
1.572194 0.531899 0.063441 60.000000
1.577612 0.528341 0.063507 60.000000
1.579225 0.523498 0.063507 60.000000
1.585575 0.520206 0.063590 60.000000
1.587164 0.515339 0.063590 60.000000
1.591594 0.511383 0.063639 60.000000
1.592202 0.506195 0.063623 60.000000
1.593747 0.501308 0.063623 60.000000
1.595278 0.496416 0.063623 60.000000
1.596793 0.491519 0.063623 60.000000
1.597337 0.486328 0.063606 60.000000
1.598822 0.481425 0.063606 60.000000
1.601249 0.476802 0.063623 60.000000
1.602705 0.471887 0.063623 60.000000
1.607986 0.468083 0.063689 60.000000
1.612297 0.463975 0.063739 60.000000
1.613713 0.459027 0.063739 60.000000
1.617039 0.454614 0.063772 60.000000
1.619390 0.449917 0.063789 60.000000
1.622692 0.445475 0.063822 60.000000
1.625981 0.441017 0.063855 60.000000
1.628292 0.436284 0.063872 60.000000
1.632524 0.432052 0.063921 60.000000
1.634809 0.427294 0.063938 60.000000
1.638049 0.422775 0.063971 60.000000
1.642245 0.418486 0.064021 60.000000
1.645461 0.413932 0.064054 60.000000
1.650605 0.409843 0.064120 60.000000
1.654769 0.405489 0.064170 60.000000
1.653089 0.399708 0.064120 60.000000
1.654308 0.394634 0.064120 60.000000
1.656484 0.389785 0.064137 60.000000
1.660594 0.385378 0.064187 60.000000
1.662744 0.380504 0.064203 60.000000
1.664879 0.375620 0.064220 60.000000
1.668952 0.371160 0.064270 60.000000
1.670083 0.366038 0.064270 60.000000
1.672175 0.361122 0.064286 60.000000
1.677188 0.356820 0.064352 60.000000
1.677296 0.351469 0.064336 60.000000
1.680325 0.346724 0.064369 60.000000
1.682361 0.341765 0.064386 60.000000
1.685363 0.336993 0.064419 60.000000
1.687370 0.332013 0.064435 60.000000
1.690344 0.327214 0.064468 60.000000
1.693305 0.322399 0.064502 60.000000
1.695269 0.317386 0.064518 60.000000
1.699185 0.312724 0.064568 60.000000
1.706040 0.308574 0.064667 60.000000
1.709933 0.303861 0.064717 60.000000
1.716767 0.299641 0.064817 60.000000
1.717679 0.294373 0.064817 60.000000
1.722518 0.289762 0.064883 60.000000
1.728332 0.285287 0.064966 60.000000
1.732160 0.280461 0.065016 60.000000
1.747827 0.277488 0.065264 60.000000
1.731873 0.269521 0.064982 60.000000
1.734668 0.264507 0.065016 60.000000
1.404391 0.807326 0.053259 61.000000
1.396439 0.797068 0.053131 61.000000
1.401488 0.794259 0.053163 61.000000
1.402175 0.788975 0.053142 61.000000
1.406335 0.785644 0.053163 61.000000
1.406115 0.779872 0.053131 61.000000
1.412005 0.777483 0.053174 61.000000
1.413506 0.772668 0.053163 61.000000
1.415870 0.768327 0.053163 61.000000
1.417340 0.763506 0.053152 61.000000
1.419676 0.759154 0.053152 61.000000
1.421115 0.754326 0.053142 61.000000
1.426077 0.751361 0.053174 61.000000
1.427489 0.746519 0.053163 61.000000
1.432435 0.743517 0.053195 61.000000
1.434710 0.739119 0.053195 61.000000
1.438751 0.735624 0.053216 61.000000
1.439218 0.730302 0.053195 61.000000
1.442345 0.726332 0.053206 61.000000
1.444566 0.721904 0.053206 61.000000
1.445878 0.717025 0.053195 61.000000
1.447174 0.712144 0.053184 61.000000
1.448453 0.707262 0.053174 61.000000
1.453316 0.704123 0.053206 61.000000
1.457272 0.700527 0.053227 61.000000
1.459415 0.696052 0.053227 61.000000
1.464255 0.692854 0.053259 61.000000
1.467279 0.688783 0.053269 61.000000
1.473918 0.686388 0.053323 61.000000
1.473294 0.680605 0.053291 61.000000
1.477193 0.676915 0.053312 61.000000
1.479263 0.672380 0.053312 61.000000
1.479495 0.667017 0.053291 61.000000
1.478796 0.661251 0.053259 61.000000
1.483560 0.657926 0.053291 61.000000
1.484656 0.652969 0.053280 61.000000
1.487569 0.648811 0.053291 61.000000
1.490471 0.644641 0.053301 61.000000
1.493361 0.640459 0.053312 61.000000
1.495318 0.635874 0.053312 61.000000
1.500027 0.632449 0.053344 61.000000
1.502883 0.628229 0.053355 61.000000
1.507574 0.624763 0.053386 61.000000
1.510409 0.620515 0.053397 61.000000
1.513232 0.616255 0.053408 61.000000
1.516970 0.612358 0.053429 61.000000
1.520699 0.608443 0.053450 61.000000
1.525347 0.604880 0.053482 61.000000
1.528126 0.600563 0.053493 61.000000
1.531825 0.596597 0.053514 61.000000
1.536447 0.592974 0.053546 61.000000
1.540127 0.588972 0.053567 61.000000
1.541927 0.584244 0.053567 61.000000
1.544649 0.579862 0.053578 61.000000
1.547358 0.575469 0.053589 61.000000
1.549116 0.570719 0.053589 61.000000
1.549920 0.565621 0.053578 61.000000
1.554469 0.561882 0.053610 61.000000
1.559011 0.558121 0.053642 61.000000
1.558830 0.552667 0.053621 61.000000
1.562406 0.548544 0.053642 61.000000
1.564081 0.543748 0.053642 61.000000
1.568579 0.539923 0.053674 61.000000
1.574014 0.536397 0.053717 61.000000
1.574705 0.531247 0.053706 61.000000
1.579173 0.527362 0.053738 61.000000
1.581733 0.522829 0.053748 61.000000
1.585230 0.518595 0.053770 61.000000
1.589668 0.514652 0.053802 61.000000
1.591240 0.509773 0.053802 61.000000
1.593749 0.505191 0.053812 61.000000
1.594337 0.500000 0.053802 61.000000
1.596819 0.495402 0.053812 61.000000
1.598331 0.490501 0.053812 61.000000
1.600786 0.485885 0.053823 61.000000
1.602269 0.480972 0.053823 61.000000
1.603737 0.476054 0.053823 61.000000
1.606149 0.471413 0.053834 61.000000
1.607588 0.466483 0.053834 61.000000
1.611895 0.462375 0.053866 61.000000
1.613306 0.457428 0.053866 61.000000
1.617591 0.453285 0.053898 61.000000
1.619938 0.448587 0.053908 61.000000
1.623235 0.444142 0.053929 61.000000
1.627486 0.439942 0.053961 61.000000
1.628828 0.434947 0.053961 61.000000
1.633056 0.430712 0.053993 61.000000
1.634370 0.425700 0.053993 61.000000
1.636636 0.420932 0.054004 61.000000
1.640828 0.416647 0.054036 61.000000
1.644038 0.412097 0.054057 61.000000
1.648207 0.407771 0.054089 61.000000
1.653336 0.403660 0.054132 61.000000
1.651650 0.397884 0.054100 61.000000
1.657728 0.393970 0.054153 61.000000
1.660876 0.389338 0.054174 61.000000
1.663037 0.384466 0.054185 61.000000
1.664209 0.379362 0.054185 61.000000
1.665365 0.374254 0.054185 61.000000
1.666505 0.369143 0.054185 61.000000
1.665676 0.363603 0.054164 61.000000
1.671672 0.359541 0.054217 61.000000
1.672767 0.354411 0.054217 61.000000
1.678741 0.350297 0.054270 61.000000
1.681767 0.345547 0.054291 61.000000
1.683799 0.340584 0.054302 61.000000
1.686797 0.335807 0.054323 61.000000
1.689782 0.331014 0.054345 61.000000
1.692754 0.326206 0.054366 61.000000
1.694729 0.321197 0.054377 61.000000
1.696690 0.316180 0.054387 61.000000
1.699619 0.311333 0.054409 61.000000
1.703519 0.306648 0.054440 61.000000
1.706421 0.301768 0.054462 61.000000
1.711279 0.297215 0.054504 61.000000
1.711197 0.291795 0.054494 61.000000
1.718002 0.287533 0.054558 61.000000
1.716903 0.281937 0.054536 61.000000
1.721709 0.277304 0.054579 61.000000
1.712674 0.270463 0.054472 61.000000
1.713496 0.265207 0.054472 61.000000
0.702439 -0.601747 0.045860 61.000000
1.354583 0.845845 0.042803 62.000000
1.388787 0.843702 0.042921 62.000000
1.387089 0.836854 0.042900 62.000000
1.398796 0.809176 0.042883 62.000000
1.388266 0.797407 0.042820 62.000000
1.388969 0.792153 0.042812 62.000000
1.394873 0.789859 0.042828 62.000000
1.395547 0.784596 0.042820 62.000000
1.400566 0.781773 0.042833 62.000000
1.403833 0.777958 0.042837 62.000000
1.407965 0.774612 0.042845 62.000000
1.411212 0.770768 0.042849 62.000000
1.415328 0.767389 0.042858 62.000000
1.415915 0.762094 0.042849 62.000000
1.418247 0.757747 0.042849 62.000000
1.418798 0.752455 0.042841 62.000000
1.421100 0.748098 0.042841 62.000000
1.422502 0.743272 0.042837 62.000000
1.427438 0.740286 0.042849 62.000000
1.429703 0.735903 0.042849 62.000000
1.430173 0.730603 0.042841 62.000000
1.434191 0.727117 0.042849 62.000000
1.436416 0.722713 0.042849 62.000000
1.436837 0.717409 0.042841 62.000000
1.440823 0.713886 0.042849 62.000000
1.443006 0.709462 0.042849 62.000000
1.445176 0.705032 0.042849 62.000000
1.447332 0.700595 0.042849 62.000000
1.449475 0.696151 0.042849 62.000000
1.453409 0.692562 0.042858 62.000000
1.459143 0.689810 0.042874 62.000000
1.463968 0.686604 0.042887 62.000000
1.466068 0.682110 0.042887 62.000000
1.469969 0.678447 0.042895 62.000000
1.472953 0.674351 0.042900 62.000000
1.475015 0.669829 0.042900 62.000000
1.476151 0.664889 0.042895 62.000000
1.476358 0.659541 0.042887 62.000000
1.482946 0.657035 0.042908 62.000000
1.484039 0.652080 0.042904 62.000000
1.486949 0.647924 0.042908 62.000000
1.490766 0.644152 0.042916 62.000000
1.494573 0.640364 0.042925 62.000000
1.495610 0.635384 0.042921 62.000000
1.498474 0.631181 0.042925 62.000000
1.503172 0.627738 0.042937 62.000000
1.506014 0.623506 0.042941 62.000000
1.506995 0.618503 0.042937 62.000000
1.509812 0.614254 0.042941 62.000000
1.513544 0.610367 0.042950 62.000000
1.515409 0.605721 0.042950 62.000000
1.517260 0.601069 0.042950 62.000000
1.521889 0.597508 0.042962 62.000000
1.525579 0.593562 0.042971 62.000000
1.528326 0.589238 0.042975 62.000000
1.530126 0.584547 0.042975 62.000000
1.532848 0.580204 0.042979 62.000000
1.535557 0.575850 0.042983 62.000000
1.538254 0.571485 0.042988 62.000000
1.540938 0.567108 0.042992 62.000000
1.543610 0.562721 0.042996 62.000000
1.546270 0.558322 0.043000 62.000000
1.549858 0.554250 0.043009 62.000000
1.552494 0.549826 0.043013 62.000000
1.556061 0.545723 0.043021 62.000000
1.559617 0.541603 0.043029 62.000000
1.563162 0.537466 0.043038 62.000000
1.564804 0.532668 0.043038 62.000000
1.569273 0.528823 0.043050 62.000000
1.573734 0.524956 0.043063 62.000000
1.577236 0.520753 0.043071 62.000000
1.578826 0.515912 0.043071 62.000000
1.581353 0.511374 0.043076 62.000000
1.584819 0.507130 0.043084 62.000000
1.587321 0.502567 0.043088 62.000000
1.588855 0.497695 0.043088 62.000000
1.592285 0.493411 0.043096 62.000000
1.594747 0.488816 0.043101 62.000000
1.597196 0.484212 0.043105 62.000000
1.598674 0.479309 0.043105 62.000000
1.602054 0.474971 0.043113 62.000000
1.603504 0.470054 0.043113 62.000000
1.605899 0.465411 0.043117 62.000000
1.610203 0.461309 0.043130 62.000000
1.613535 0.456912 0.043138 62.000000
1.616855 0.452499 0.043147 62.000000
1.618236 0.447537 0.043147 62.000000
1.622495 0.443361 0.043159 62.000000
1.625778 0.438903 0.043168 62.000000
1.629049 0.434429 0.043176 62.000000
1.633275 0.430194 0.043189 62.000000
1.634588 0.425181 0.043189 62.000000
1.635884 0.420164 0.043189 62.000000
1.637166 0.415143 0.043189 62.000000
1.641342 0.410848 0.043201 62.000000
1.644536 0.406291 0.043210 62.000000
1.647717 0.401717 0.043218 62.000000
1.649914 0.396894 0.043222 62.000000
1.653070 0.392293 0.043231 62.000000
1.655240 0.387448 0.043235 62.000000
1.655446 0.382143 0.043231 62.000000
1.658561 0.377506 0.043239 62.000000
1.662638 0.373074 0.043251 62.000000
1.663775 0.367971 0.043251 62.000000
1.665873 0.363078 0.043256 62.000000
1.668934 0.358386 0.043264 62.000000
1.671983 0.353678 0.043272 62.000000
1.676975 0.349364 0.043289 62.000000
1.680978 0.344821 0.043302 62.000000
1.682028 0.339662 0.043302 62.000000
1.685024 0.334890 0.043310 62.000000
1.688987 0.330295 0.043323 62.000000
1.690975 0.325301 0.043327 62.000000
1.692947 0.320298 0.043331 62.000000
1.693922 0.315103 0.043331 62.000000
1.696848 0.310264 0.043339 62.000000
1.699760 0.305411 0.043348 62.000000
1.702659 0.300543 0.043356 62.000000
1.706528 0.295831 0.043369 62.000000
1.709400 0.290930 0.043377 62.000000
1.710284 0.285684 0.043377 62.000000
1.716087 0.281246 0.043398 62.000000
1.717929 0.276138 0.043402 62.000000
1.718768 0.270867 0.043402 62.000000
0.732045 -0.616388 0.040122 62.000000
0.734730 -0.622508 0.040148 62.000000
0.710741 -0.605954 0.040026 62.000000
0.718749 -0.616592 0.040081 62.000000
1.338864 0.840749 0.032902 63.000000
1.355855 0.845645 0.032866 63.000000
1.377194 0.847277 0.032826 63.000000
1.381492 0.844092 0.032822 63.000000
1.387494 0.841927 0.032814 63.000000
1.387487 0.830313 0.032826 63.000000
1.407076 0.818763 0.032803 63.000000
1.378423 0.796410 0.032879 63.000000
1.382594 0.793174 0.032875 63.000000
1.386758 0.789919 0.032870 63.000000
1.390045 0.786154 0.032868 63.000000
1.394193 0.782866 0.032864 63.000000
1.397462 0.779073 0.032862 63.000000
1.400720 0.775267 0.032860 63.000000
1.406596 0.772894 0.032852 63.000000
1.408960 0.768575 0.032852 63.000000
1.411312 0.764249 0.032852 63.000000
1.413650 0.759916 0.032852 63.000000
1.415093 0.755104 0.032854 63.000000
1.415636 0.749821 0.032858 63.000000
1.415275 0.744077 0.032864 63.000000
1.418438 0.740194 0.032862 63.000000
1.421589 0.736300 0.032860 63.000000
1.422953 0.731477 0.032862 63.000000
1.426971 0.728018 0.032858 63.000000
1.429198 0.723637 0.032858 63.000000
1.434091 0.720598 0.032852 63.000000
1.436295 0.716195 0.032852 63.000000
1.436693 0.710896 0.032856 63.000000
1.440662 0.707368 0.032852 63.000000
1.443724 0.703384 0.032850 63.000000
1.444975 0.698515 0.032852 63.000000
1.449816 0.695378 0.032845 63.000000
1.451942 0.690927 0.032845 63.000000
1.456767 0.687752 0.032839 63.000000
1.456154 0.682005 0.032845 63.000000
1.460053 0.678378 0.032841 63.000000
1.463035 0.674315 0.032839 63.000000
1.466006 0.670240 0.032837 63.000000
1.467145 0.665325 0.032839 63.000000
1.467356 0.659999 0.032843 63.000000
1.470287 0.655902 0.032841 63.000000
1.475949 0.653010 0.032833 63.000000
1.477946 0.648478 0.032833 63.000000
1.482678 0.645140 0.032826 63.000000
1.487404 0.641779 0.032820 63.000000
1.491204 0.638000 0.032816 63.000000
1.492234 0.633031 0.032818 63.000000
1.496012 0.629227 0.032814 63.000000
1.500704 0.625791 0.032808 63.000000
1.502617 0.621184 0.032808 63.000000
1.504516 0.616571 0.032808 63.000000
1.506400 0.611952 0.032808 63.000000
1.511052 0.608450 0.032801 63.000000
1.511984 0.603440 0.032803 63.000000
1.514757 0.599167 0.032801 63.000000
1.518450 0.595248 0.032797 63.000000
1.521201 0.590950 0.032795 63.000000
1.523007 0.586280 0.032795 63.000000
1.524798 0.581605 0.032795 63.000000
1.528446 0.577632 0.032791 63.000000
1.531147 0.573292 0.032789 63.000000
1.532899 0.568592 0.032789 63.000000
1.534636 0.563886 0.032789 63.000000
1.537298 0.559518 0.032787 63.000000
1.540888 0.555478 0.032782 63.000000
1.543527 0.551085 0.032780 63.000000
1.547095 0.547015 0.032776 63.000000
1.550653 0.542929 0.032772 63.000000
1.554201 0.538825 0.032768 63.000000
1.559629 0.535356 0.032759 63.000000
1.562211 0.530891 0.032757 63.000000
1.563832 0.526096 0.032757 63.000000
1.567336 0.521928 0.032753 63.000000
1.571779 0.518059 0.032747 63.000000
1.573361 0.513234 0.032747 63.000000
1.576831 0.509020 0.032743 63.000000
1.580290 0.504790 0.032739 63.000000
1.582784 0.500242 0.032736 63.000000
1.583357 0.495084 0.032739 63.000000
1.586779 0.490817 0.032734 63.000000
1.591145 0.486826 0.032728 63.000000
1.590718 0.481361 0.032732 63.000000
1.594103 0.477054 0.032728 63.000000
1.598435 0.473014 0.032722 63.000000
1.599878 0.468108 0.032722 63.000000
1.601307 0.463197 0.032722 63.000000
1.605604 0.459109 0.032715 63.000000
1.607967 0.454454 0.032713 63.000000
1.612243 0.450327 0.032707 63.000000
1.614581 0.445646 0.032705 63.000000
1.619799 0.441745 0.032697 63.000000
1.620181 0.436513 0.032699 63.000000
1.624411 0.432314 0.032692 63.000000
1.628631 0.428093 0.032686 63.000000
1.631872 0.423598 0.032682 63.000000
1.633164 0.418590 0.032682 63.000000
1.634440 0.413577 0.032682 63.000000
1.637641 0.409047 0.032678 63.000000
1.640830 0.404501 0.032674 63.000000
1.643035 0.399702 0.032671 63.000000
1.645226 0.394893 0.032669 63.000000
1.649348 0.390537 0.032663 63.000000
1.652486 0.385931 0.032659 63.000000
1.655611 0.381310 0.032655 63.000000
1.658723 0.376673 0.032651 63.000000
1.660846 0.371801 0.032648 63.000000
1.661979 0.366704 0.032648 63.000000
1.665050 0.362030 0.032644 63.000000
1.668109 0.357340 0.032640 63.000000
1.671154 0.352635 0.032636 63.000000
1.675165 0.348119 0.032630 63.000000
1.678184 0.343380 0.032625 63.000000
1.682170 0.338824 0.032619 63.000000
1.686144 0.334247 0.032613 63.000000
1.690105 0.329649 0.032607 63.000000
1.692091 0.324651 0.032604 63.000000
1.694061 0.319645 0.032602 63.000000
1.695034 0.314446 0.032602 63.000000
1.698942 0.309784 0.032596 63.000000
1.698900 0.304393 0.032598 63.000000
1.701795 0.299528 0.032594 63.000000
1.701721 0.294134 0.032596 63.000000
1.705573 0.289416 0.032590 63.000000
1.705466 0.284017 0.032592 63.000000
1.722118 0.281374 0.032558 63.000000
1.690393 0.270846 0.032628 63.000000
0.779876 -0.649560 0.034087 63.000000
0.772510 -0.647459 0.034102 63.000000
0.777406 -0.655621 0.034083 63.000000
0.752495 -0.638618 0.034146 63.000000
0.728457 -0.622117 0.034207 63.000000
1.402444 0.818674 0.023549 64.000000
1.380715 0.800344 0.023769 64.000000
1.383164 0.796104 0.023769 64.000000
1.385600 0.791857 0.023769 64.000000
1.388893 0.788095 0.023761 64.000000
1.391304 0.783830 0.023761 64.000000
1.394576 0.780046 0.023754 64.000000
1.400461 0.777703 0.023722 64.000000
1.403716 0.773885 0.023714 64.000000
1.407839 0.770533 0.023699 64.000000
1.411954 0.767164 0.023683 64.000000
1.412540 0.761881 0.023699 64.000000
1.418398 0.759429 0.023667 64.000000
1.415422 0.752262 0.023714 64.000000
1.417723 0.747916 0.023714 64.000000
1.420011 0.743563 0.023714 64.000000
1.422285 0.739203 0.023714 64.000000
1.425435 0.735293 0.023706 64.000000
1.426794 0.730462 0.023714 64.000000
1.429920 0.726533 0.023706 64.000000
1.438395 0.725290 0.023652 64.000000
1.434351 0.717746 0.023706 64.000000
1.436547 0.713342 0.023706 64.000000
1.441420 0.710255 0.023683 64.000000
1.444491 0.706268 0.023675 64.000000
1.444851 0.700962 0.023691 64.000000
1.446094 0.696093 0.023699 64.000000
1.450930 0.692944 0.023675 64.000000
1.453953 0.688917 0.023667 64.000000
1.455155 0.684028 0.023675 64.000000
1.457247 0.679560 0.023675 64.000000
1.459324 0.675086 0.023675 64.000000
1.463207 0.671439 0.023659 64.000000
1.463439 0.666119 0.023675 64.000000
1.465476 0.661626 0.023675 64.000000
1.469325 0.657943 0.023659 64.000000
1.472251 0.653838 0.023652 64.000000
1.476996 0.650525 0.023628 64.000000
1.480818 0.646790 0.023612 64.000000
1.483713 0.642640 0.023604 64.000000
1.491193 0.640449 0.023557 64.000000
1.492230 0.635480 0.023565 64.000000
1.495094 0.631287 0.023557 64.000000
1.501637 0.628625 0.023518 64.000000
1.504483 0.624398 0.023510 64.000000
1.506391 0.619779 0.023510 64.000000
1.507359 0.614778 0.023518 64.000000
1.511093 0.610898 0.023502 64.000000
1.512032 0.605888 0.023510 64.000000
1.516672 0.602352 0.023487 64.000000
1.517582 0.597330 0.023494 64.000000
1.519408 0.592672 0.023494 64.000000
1.520286 0.587648 0.023502 64.000000
1.523950 0.583695 0.023487 64.000000
1.523863 0.578308 0.023502 64.000000
1.526567 0.573982 0.023494 64.000000
1.528320 0.569295 0.023494 64.000000
1.531936 0.565295 0.023479 64.000000
1.535542 0.561278 0.023463 64.000000
1.537257 0.556564 0.023463 64.000000
1.539899 0.552182 0.023455 64.000000
1.543471 0.548123 0.023439 64.000000
1.547032 0.544047 0.023424 64.000000
1.549639 0.539627 0.023416 64.000000
1.554124 0.535846 0.023392 64.000000
1.556707 0.531398 0.023384 64.000000
1.560225 0.527258 0.023369 64.000000
1.562784 0.522786 0.023361 64.000000
1.566279 0.518616 0.023345 64.000000
1.569764 0.514430 0.023329 64.000000
1.572286 0.509919 0.023322 64.000000
1.575748 0.505703 0.023306 64.000000
1.578245 0.501168 0.023298 64.000000
1.579776 0.496324 0.023298 64.000000
1.581291 0.491475 0.023298 64.000000
1.585659 0.487501 0.023275 64.000000
1.587147 0.482634 0.023275 64.000000
1.590536 0.478337 0.023259 64.000000
1.592955 0.473739 0.023251 64.000000
1.594401 0.468850 0.023251 64.000000
1.595832 0.463956 0.023251 64.000000
1.600131 0.459884 0.023227 64.000000
1.605383 0.456063 0.023196 64.000000
1.608701 0.451675 0.023180 64.000000
1.610079 0.446738 0.023180 64.000000
1.614336 0.442587 0.023157 64.000000
1.615686 0.437632 0.023157 64.000000
1.617987 0.432931 0.023149 64.000000
1.621241 0.428475 0.023133 64.000000
1.623516 0.423751 0.023125 64.000000
1.625777 0.419017 0.023117 64.000000
1.629963 0.414765 0.023094 64.000000
1.632197 0.410005 0.023086 64.000000
1.635389 0.405476 0.023070 64.000000
1.639540 0.401168 0.023047 64.000000
1.641735 0.396370 0.023039 64.000000
1.646835 0.392255 0.023007 64.000000
1.649004 0.387429 0.023000 64.000000
1.653108 0.383043 0.022976 64.000000
1.656226 0.378414 0.022960 64.000000
1.659330 0.373769 0.022945 64.000000
1.659493 0.368460 0.022953 64.000000
1.661592 0.363581 0.022945 64.000000
1.663678 0.358691 0.022937 64.000000
1.668683 0.354414 0.022905 64.000000
1.671721 0.349701 0.022890 64.000000
1.674745 0.344973 0.022874 64.000000
1.679716 0.340625 0.022843 64.000000
1.681734 0.335665 0.022835 64.000000
1.683737 0.330696 0.022827 64.000000
1.687689 0.326096 0.022803 64.000000
1.690647 0.321289 0.022788 64.000000
1.692608 0.316284 0.022780 64.000000
1.695537 0.311449 0.022764 64.000000
1.697469 0.306423 0.022756 64.000000
1.698401 0.301214 0.022756 64.000000
1.699317 0.296002 0.022756 64.000000
1.701203 0.290955 0.022748 64.000000
1.704060 0.286064 0.022733 64.000000
1.718745 0.283101 0.022623 64.000000
1.705784 0.275603 0.022733 64.000000
1.703658 0.269901 0.022756 64.000000
0.805370 -0.659475 0.028128 64.000000
0.811824 -0.668947 0.028042 64.000000
0.838992 -0.695721 0.027743 64.000000
0.852196 -0.711121 0.027586 64.000000
0.837003 -0.702787 0.027720 64.000000
0.836369 -0.706644 0.027704 64.000000
0.833436 -0.708558 0.027712 64.000000
0.811520 -0.694190 0.027916 64.000000
0.713983 -0.614377 0.028906 64.000000
1.396554 0.820664 0.013222 65.000000
1.378336 0.804286 0.013566 65.000000
1.380797 0.800053 0.013566 65.000000
1.382378 0.795315 0.013580 65.000000
1.386548 0.792061 0.013551 65.000000
1.390711 0.788790 0.013523 65.000000
1.393125 0.784520 0.013523 65.000000
1.398144 0.781705 0.013480 65.000000
1.403158 0.778867 0.013437 65.000000
1.407293 0.775524 0.013408 65.000000
1.410543 0.771682 0.013394 65.000000
1.413783 0.767828 0.013379 65.000000
1.417012 0.763961 0.013365 65.000000
1.418467 0.759139 0.013379 65.000000
1.420790 0.754783 0.013379 65.000000
1.422214 0.749955 0.013394 65.000000
1.422736 0.744661 0.013422 65.000000
1.424127 0.739832 0.013437 65.000000
1.429056 0.736833 0.013394 65.000000
1.432200 0.732901 0.013379 65.000000
1.434442 0.728503 0.013379 65.000000
1.436670 0.724099 0.013379 65.000000
1.437991 0.719241 0.013394 65.000000
1.440191 0.714826 0.013394 65.000000
1.443274 0.710846 0.013379 65.000000
1.446346 0.706853 0.013365 65.000000
1.448508 0.702413 0.013365 65.000000
1.448854 0.697099 0.013394 65.000000
1.450986 0.692650 0.013394 65.000000
1.454912 0.689051 0.013365 65.000000
1.455209 0.683734 0.013394 65.000000
1.458206 0.679689 0.013379 65.000000
1.459377 0.674792 0.013394 65.000000
1.461440 0.670312 0.013394 65.000000
1.466220 0.667067 0.013351 65.000000
1.466437 0.661743 0.013379 65.000000
1.470286 0.658058 0.013351 65.000000
1.473212 0.653949 0.013337 65.000000
1.476126 0.649829 0.013322 65.000000
1.479946 0.646097 0.013294 65.000000
1.486510 0.643539 0.013222 65.000000
1.491234 0.640158 0.013179 65.000000
1.493191 0.635580 0.013179 65.000000
1.495134 0.630996 0.013179 65.000000
1.499830 0.627563 0.013136 65.000000
1.504519 0.624107 0.013093 65.000000
1.506427 0.619489 0.013093 65.000000
1.510172 0.615618 0.013065 65.000000
1.516690 0.612854 0.012993 65.000000
1.512065 0.605597 0.013093 65.000000
1.515774 0.601693 0.013065 65.000000
1.517613 0.597040 0.013065 65.000000
1.523165 0.593833 0.013007 65.000000
1.524979 0.589157 0.013007 65.000000
1.527713 0.584833 0.012993 65.000000
1.529500 0.580144 0.012993 65.000000
1.531273 0.575448 0.012993 65.000000
1.534906 0.571445 0.012964 65.000000
1.538528 0.567425 0.012936 65.000000
1.544019 0.564074 0.012879 65.000000
1.544802 0.558994 0.012893 65.000000
1.546509 0.554252 0.012893 65.000000
1.549145 0.549839 0.012879 65.000000
1.550824 0.545084 0.012879 65.000000
1.554378 0.540980 0.012850 65.000000
1.556976 0.536534 0.012836 65.000000
1.561454 0.532723 0.012793 65.000000
1.562134 0.527610 0.012807 65.000000
1.564693 0.523132 0.012793 65.000000
1.569139 0.519271 0.012750 65.000000
1.572625 0.515077 0.012721 65.000000
1.575149 0.510557 0.012707 65.000000
1.577661 0.506028 0.012693 65.000000
1.578252 0.500883 0.012707 65.000000
1.579782 0.496038 0.012707 65.000000
1.583206 0.491782 0.012678 65.000000
1.585663 0.487216 0.012664 65.000000
1.588107 0.482640 0.012650 65.000000
1.590538 0.478053 0.012635 65.000000
1.594873 0.474025 0.012592 65.000000
1.596320 0.469130 0.012592 65.000000
1.599672 0.464787 0.012564 65.000000
1.603013 0.460429 0.012535 65.000000
1.606341 0.456055 0.012506 65.000000
1.608696 0.451394 0.012492 65.000000
1.610073 0.446457 0.012492 65.000000
1.611435 0.441515 0.012492 65.000000
1.612782 0.436569 0.012492 65.000000
1.614114 0.431619 0.012492 65.000000
1.618331 0.427430 0.012449 65.000000
1.619635 0.422463 0.012449 65.000000
1.622860 0.417991 0.012421 65.000000
1.626073 0.413502 0.012392 65.000000
1.631213 0.409485 0.012335 65.000000
1.635374 0.405199 0.012292 65.000000
1.641466 0.401366 0.012220 65.000000
1.646578 0.397266 0.012163 65.000000
1.648762 0.392443 0.012149 65.000000
1.650931 0.387612 0.012134 65.000000
1.655035 0.383221 0.012091 65.000000
1.657178 0.378364 0.012077 65.000000
1.659307 0.373497 0.012063 65.000000
1.658492 0.367972 0.012091 65.000000
1.660590 0.363095 0.012077 65.000000
1.663651 0.358420 0.012049 65.000000
1.667678 0.353936 0.012006 65.000000
1.668756 0.348818 0.012006 65.000000
1.671777 0.344100 0.011977 65.000000
1.675765 0.339564 0.011934 65.000000
1.679740 0.335007 0.011891 65.000000
1.681741 0.330045 0.011877 65.000000
1.685692 0.325452 0.011834 65.000000
1.688647 0.320651 0.011805 65.000000
1.689623 0.315469 0.011805 65.000000
1.693533 0.310825 0.011762 65.000000
1.695463 0.305805 0.011748 65.000000
1.698362 0.300950 0.011719 65.000000
1.700263 0.295909 0.011705 65.000000
1.703134 0.291028 0.011676 65.000000
1.704019 0.285802 0.011676 65.000000
1.717714 0.282680 0.011490 65.000000
1.715612 0.276932 0.011533 65.000000
1.709540 0.270574 0.011633 65.000000
1.709374 0.265175 0.011648 65.000000
1.693931 0.246840 0.011905 65.000000
0.806752 -0.652969 0.021551 65.000000
0.825671 -0.672498 0.021165 65.000000
0.852982 -0.699124 0.020621 65.000000
0.812275 -0.669914 0.021336 65.000000
0.805601 -0.668570 0.021422 65.000000
0.797408 -0.665908 0.021537 65.000000
0.770873 -0.647758 0.021995 65.000000
0.778041 -0.657871 0.021823 65.000000
0.756987 -0.644049 0.022181 65.000000
0.724635 -0.620346 0.022753 65.000000
1.355214 0.828999 0.003783 66.000000
1.364329 0.806078 0.003865 66.000000
1.368520 0.802901 0.003824 66.000000
1.370976 0.798699 0.003824 66.000000
1.373420 0.794489 0.003824 66.000000
1.377585 0.791268 0.003783 66.000000
1.382611 0.788525 0.003721 66.000000
1.382414 0.782800 0.003783 66.000000
1.388295 0.780516 0.003700 66.000000
1.390683 0.776253 0.003700 66.000000
1.398304 0.774892 0.003577 66.000000
1.401551 0.771081 0.003556 66.000000
1.403910 0.766777 0.003556 66.000000
1.408013 0.763420 0.003515 66.000000
1.410349 0.759097 0.003515 66.000000
1.412671 0.754766 0.003515 66.000000
1.414980 0.750429 0.003515 66.000000
1.417276 0.746084 0.003515 66.000000
1.416900 0.740343 0.003577 66.000000
1.420939 0.736913 0.003535 66.000000
1.421416 0.731635 0.003577 66.000000
1.425434 0.728181 0.003535 66.000000
1.428553 0.724256 0.003515 66.000000
1.433447 0.721219 0.003453 66.000000
