# This PCD file was generated using the MATLAB® pcwrite function
# from Computer Vision Toolbox®.
# .PCD v.7 - Point Cloud Data file format
VERSION .7
FIELDS x y z intensity
SIZE 4 4 4 4
TYPE F F F F
COUNT 1 1 1 1
WIDTH 1268
HEIGHT 1
VIEWPOINT 0 0 0 1 0 0 0
POINTS 1268
DATA ascii
3.587928 -1.209908 0.517203 42.000000
3.585138 -1.221230 0.517330 42.000000
3.585127 -1.233513 0.517836 42.000000
3.582263 -1.244832 0.517962 42.000000
3.583107 -1.257458 0.518595 42.000000
3.578297 -1.268114 0.518468 42.000000
3.573456 -1.278752 0.518342 42.000000
3.565784 -1.288361 0.517836 42.000000
3.564610 -1.300314 0.518215 42.000000
3.566189 -1.313301 0.518975 42.000000
3.514722 -1.306612 0.512521 42.000000
3.666129 -0.918754 0.491642 43.000000
3.662331 -0.929754 0.491522 43.000000
3.660423 -0.941232 0.491642 43.000000
3.654635 -0.951708 0.491282 43.000000
3.649778 -0.962410 0.491041 43.000000
3.642972 -0.972580 0.490561 43.000000
3.637095 -0.982976 0.490200 43.000000
3.630232 -0.993083 0.489720 43.000000
3.625254 -1.003686 0.489480 43.000000
3.623114 -1.015071 0.489600 43.000000
3.619027 -1.025912 0.489480 43.000000
3.616817 -1.037283 0.489600 43.000000
3.615525 -1.048927 0.489840 43.000000
3.618006 -1.061690 0.490561 43.000000
3.615684 -1.073067 0.490681 43.000000
3.614276 -1.084725 0.490921 43.000000
3.607131 -1.094656 0.490441 43.000000
3.601857 -1.105136 0.490200 43.000000
3.598450 -1.116181 0.490200 43.000000
3.592167 -1.126325 0.489840 43.000000
3.591533 -1.138240 0.490200 43.000000
3.592752 -1.150765 0.490801 43.000000
3.593928 -1.163310 0.491402 43.000000
3.590342 -1.174330 0.491402 43.000000
3.588608 -1.185962 0.491642 43.000000
3.586836 -1.197594 0.491882 43.000000
3.579382 -1.207325 0.491402 43.000000
3.578480 -1.219260 0.491762 43.000000
3.577539 -1.231202 0.492123 43.000000
3.573745 -1.242172 0.492123 43.000000
3.575538 -1.255101 0.492843 43.000000
3.570735 -1.265733 0.492723 43.000000
3.565900 -1.276348 0.492603 43.000000
3.560100 -1.286608 0.492363 43.000000
3.552405 -1.296164 0.491882 43.000000
3.543754 -1.305342 0.491282 43.000000
3.536940 -1.315171 0.490921 43.000000
3.531959 -1.325667 0.490801 43.000000
3.527875 -1.336497 0.490801 43.000000
3.524686 -1.347668 0.490921 43.000000
3.521461 -1.358833 0.491041 43.000000
3.525603 -1.372869 0.492123 43.000000
3.665111 -0.904333 0.469812 44.000000
3.662319 -0.915573 0.469812 44.000000
3.659493 -0.926804 0.469812 44.000000
3.654708 -0.937533 0.469583 44.000000
3.650853 -0.948491 0.469469 44.000000
3.646005 -0.959181 0.469239 44.000000
3.642085 -0.970106 0.469125 44.000000
3.636214 -0.980498 0.468781 44.000000
3.635106 -0.992173 0.469010 44.000000
3.631087 -1.003056 0.468896 44.000000
3.626079 -1.013656 0.468666 44.000000
3.621997 -1.024505 0.468552 44.000000
3.621701 -1.036433 0.468896 44.000000
3.616596 -1.046987 0.468666 44.000000
3.616227 -1.058916 0.469010 44.000000
3.612009 -1.069723 0.468896 44.000000
3.611565 -1.081655 0.469239 44.000000
3.609180 -1.093018 0.469354 44.000000
3.614358 -1.106706 0.470385 44.000000
3.602405 -1.115143 0.469354 44.000000
3.601811 -1.127081 0.469698 44.000000
3.594548 -1.136926 0.469239 44.000000
3.586312 -1.146435 0.468666 44.000000
3.584669 -1.158044 0.468896 44.000000
3.582043 -1.169344 0.469010 44.000000
3.577496 -1.180017 0.468896 44.000000
3.576686 -1.191930 0.469239 44.000000
3.576777 -1.204167 0.469698 44.000000
3.574947 -1.215775 0.469927 44.000000
3.574019 -1.227706 0.470271 44.000000
3.571174 -1.238991 0.470385 44.000000
3.569231 -1.250599 0.470614 44.000000
3.565377 -1.261543 0.470614 44.000000
3.561490 -1.272476 0.470614 44.000000
3.554766 -1.282384 0.470271 44.000000
3.551749 -1.293624 0.470385 44.000000
3.546831 -1.304171 0.470271 44.000000
3.544675 -1.315739 0.470500 44.000000
3.541552 -1.326956 0.470614 44.000000
3.537464 -1.337815 0.470614 44.000000
3.533344 -1.348662 0.470614 44.000000
3.529189 -1.359496 0.470614 44.000000
3.526853 -1.371037 0.470844 44.000000
3.524480 -1.382577 0.471073 44.000000
3.524839 -1.395213 0.471646 44.000000
3.519620 -1.405652 0.471531 44.000000
3.504235 -1.411985 0.470156 44.000000
3.498967 -1.422354 0.470041 44.000000
4.306372 1.895868 0.547271 45.000000
4.310346 1.881852 0.547054 45.000000
4.313362 1.867434 0.546729 45.000000
4.316330 1.853016 0.546404 45.000000
4.319251 1.838597 0.546079 45.000000
4.322124 1.824178 0.545754 45.000000
4.324949 1.809758 0.545429 45.000000
4.327726 1.795338 0.545104 45.000000
4.331375 1.781296 0.544887 45.000000
4.330375 1.765373 0.544129 45.000000
4.331162 1.750217 0.543587 45.000000
4.330051 1.734334 0.542829 45.000000
4.330731 1.719208 0.542287 45.000000
4.335986 1.705914 0.542287 45.000000
4.343051 1.693325 0.542504 45.000000
4.351935 1.681426 0.542937 45.000000
4.351503 1.665934 0.542287 45.000000
4.356593 1.652576 0.542287 45.000000
4.360712 1.638853 0.542179 45.000000
4.361993 1.624079 0.541745 45.000000
4.359493 1.607938 0.540878 45.000000
4.361605 1.593532 0.540553 45.000000
4.366473 1.580144 0.540553 45.000000
4.371300 1.566740 0.540553 45.000000
4.391168 1.528402 0.541203 45.000000
4.390197 1.512980 0.540553 45.000000
4.388232 1.497257 0.539795 45.000000
4.385080 1.466206 0.538386 45.000000
4.382007 1.450248 0.537520 45.000000
4.382657 1.435560 0.537086 45.000000
3.677330 -0.895003 0.446942 45.000000
3.670706 -0.905329 0.446509 45.000000
3.665982 -0.916104 0.446292 45.000000
3.663154 -0.927346 0.446292 45.000000
3.657403 -0.937839 0.445967 45.000000
3.653547 -0.948806 0.445859 45.000000
3.648696 -0.959504 0.445642 45.000000
3.643813 -0.970182 0.445425 45.000000
3.637940 -0.980580 0.445100 45.000000
3.636833 -0.992260 0.445317 45.000000
3.633772 -1.003413 0.445317 45.000000
3.630676 -1.014557 0.445317 45.000000
3.627546 -1.025691 0.445317 45.000000
3.627250 -1.037635 0.445642 45.000000
3.621185 -1.047929 0.445317 45.000000
3.618906 -1.059314 0.445425 45.000000
3.617546 -1.070976 0.445642 45.000000
3.617100 -1.082925 0.445967 45.000000
3.613761 -1.094017 0.445967 45.000000
3.613239 -1.105972 0.446292 45.000000
3.609829 -1.117052 0.446292 45.000000
3.606385 -1.128121 0.446292 45.000000
3.607646 -1.140679 0.446834 45.000000
3.598448 -1.149926 0.446184 45.000000
3.595849 -1.161266 0.446292 45.000000
3.589435 -1.171367 0.445967 45.000000
3.588656 -1.183308 0.446292 45.000000
3.583123 -1.193683 0.446075 45.000000
3.582270 -1.205622 0.446400 45.000000
3.577613 -1.216287 0.446292 45.000000
3.574805 -1.227580 0.446400 45.000000
3.572901 -1.239193 0.446617 45.000000
3.569082 -1.250149 0.446617 45.000000
3.564292 -1.260761 0.446509 45.000000
3.561344 -1.272025 0.446617 45.000000
3.557425 -1.282945 0.446617 45.000000
3.551604 -1.293172 0.446400 45.000000
3.548553 -1.304406 0.446509 45.000000
3.546398 -1.315978 0.446725 45.000000
3.542344 -1.326852 0.446725 45.000000
3.540116 -1.338417 0.446942 45.000000
3.536922 -1.349626 0.447050 45.000000
3.531837 -1.360114 0.446942 45.000000
3.533207 -1.373104 0.447592 45.000000
3.528053 -1.383574 0.447484 45.000000
3.525640 -1.395123 0.447701 45.000000
3.523190 -1.406671 0.447917 45.000000
3.517013 -1.416730 0.447701 45.000000
3.512650 -1.427513 0.447701 45.000000
3.505495 -1.437152 0.447376 45.000000
3.502906 -1.448660 0.447592 45.000000
3.499363 -1.459782 0.447701 45.000000
3.496701 -1.471283 0.447917 45.000000
3.492170 -1.482003 0.447917 45.000000
4.303461 1.907505 0.518513 46.000000
4.304740 1.892291 0.518002 46.000000
4.318732 1.882654 0.518922 46.000000
4.309878 1.863078 0.517286 46.000000
4.309174 1.847103 0.516570 46.000000
4.310243 1.831928 0.516059 46.000000
4.306677 1.814832 0.515036 46.000000
4.317731 1.803912 0.515650 46.000000
4.319569 1.789134 0.515240 46.000000
4.325038 1.775874 0.515240 46.000000
4.329545 1.762221 0.515138 46.000000
4.332163 1.747813 0.514831 46.000000
4.331039 1.731928 0.514116 46.000000
4.336333 1.718633 0.514116 46.000000
4.337882 1.703866 0.513706 46.000000
4.355139 1.695241 0.515036 46.000000
4.346398 1.676501 0.513502 46.000000
4.343159 1.659961 0.512581 46.000000
4.346371 1.645924 0.512377 46.000000
4.353262 1.633281 0.512581 46.000000
4.357320 1.619571 0.512479 46.000000
4.360402 1.605508 0.512275 46.000000
4.362504 1.591100 0.511968 46.000000
4.364558 1.576694 0.511661 46.000000
4.367501 1.562626 0.511456 46.000000
4.371337 1.548887 0.511354 46.000000
4.371375 1.533822 0.510843 46.000000
4.375121 1.520077 0.510741 46.000000
4.381645 1.507294 0.510945 46.000000
4.388132 1.494486 0.511150 46.000000
4.394581 1.481652 0.511354 46.000000
4.396276 1.467218 0.511047 46.000000
4.397923 1.452787 0.510741 46.000000
4.399523 1.438360 0.510434 46.000000
4.401075 1.423937 0.510127 46.000000
4.409213 1.411641 0.510536 46.000000
4.412575 1.397807 0.510434 46.000000
4.416842 1.384263 0.510434 46.000000
4.421068 1.370706 0.510434 46.000000
4.425253 1.357136 0.510434 46.000000
4.433203 1.344708 0.510843 46.000000
3.684803 -0.887179 0.424219 46.000000
3.667567 -0.894944 0.422685 46.000000
3.667702 -0.906908 0.422991 46.000000
3.664902 -0.918156 0.422991 46.000000
3.661104 -0.929151 0.422889 46.000000
3.655345 -0.939636 0.422582 46.000000
3.652446 -0.950846 0.422582 46.000000
3.645663 -0.961033 0.422173 46.000000
3.638853 -0.971188 0.421764 46.000000
3.634896 -0.982088 0.421662 46.000000
3.629947 -0.992710 0.421457 46.000000
3.624967 -1.003312 0.421253 46.000000
3.620914 -1.014160 0.421151 46.000000
3.618742 -1.025535 0.421253 46.000000
3.615579 -1.036632 0.421253 46.000000
3.613337 -1.047997 0.421355 46.000000
3.611060 -1.059358 0.421457 46.000000
3.611607 -1.071563 0.421866 46.000000
3.607350 -1.082352 0.421764 46.000000
3.606868 -1.094280 0.422071 46.000000
3.600641 -1.104466 0.421764 46.000000
3.598186 -1.115802 0.421866 46.000000
3.601390 -1.128918 0.422582 46.000000
3.596013 -1.139361 0.422378 46.000000
3.597238 -1.151904 0.422889 46.000000
3.594633 -1.163241 0.422991 46.000000
3.591993 -1.174573 0.423094 46.000000
3.587428 -1.185275 0.422991 46.000000
3.583775 -1.196276 0.422991 46.000000
3.575375 -1.205676 0.422480 46.000000
3.569776 -1.215998 0.422276 46.000000
3.566028 -1.226945 0.422276 46.000000
3.562247 -1.237879 0.422276 46.000000
3.559371 -1.249132 0.422378 46.000000
3.554585 -1.259713 0.422276 46.000000
3.553513 -1.271618 0.422582 46.000000
3.549595 -1.282514 0.422582 46.000000
3.546578 -1.293739 0.422685 46.000000
3.543526 -1.304957 0.422787 46.000000
3.538573 -1.315476 0.422685 46.000000
3.533589 -1.325976 0.422582 46.000000
3.524853 -1.335050 0.422071 46.000000
3.525387 -1.347633 0.422582 46.000000
3.521236 -1.358443 0.422582 46.000000
3.520760 -1.370682 0.422991 46.000000
3.523019 -1.384023 0.423707 46.000000
3.519681 -1.395191 0.423810 46.000000
3.516308 -1.406352 0.423912 46.000000
3.511977 -1.417134 0.423912 46.000000
3.504848 -1.426777 0.423605 46.000000
3.500455 -1.437523 0.423605 46.000000
3.496028 -1.448255 0.423605 46.000000
3.491568 -1.458974 0.423605 46.000000
3.489826 -1.470838 0.423912 46.000000
3.480719 -1.479592 0.423400 46.000000
3.453306 -1.480467 0.420844 46.000000
4.284094 1.882145 0.486050 47.000000
4.290761 1.869390 0.486146 47.000000
4.291908 1.854243 0.485666 47.000000
4.295747 1.840282 0.485474 47.000000
4.290380 1.822422 0.484322 47.000000
4.295950 1.809250 0.484322 47.000000
4.299644 1.795295 0.484130 47.000000
4.301454 1.780571 0.483745 47.000000
4.306896 1.767366 0.483745 47.000000
4.312298 1.754145 0.483745 47.000000
4.316736 1.740534 0.483649 47.000000
4.320207 1.726543 0.483457 47.000000
4.321783 1.711813 0.483073 47.000000
4.325161 1.697819 0.482881 47.000000
4.327567 1.683458 0.482593 47.000000
4.332711 1.670173 0.482593 47.000000
4.336885 1.656517 0.482497 47.000000
4.337293 1.641441 0.482017 47.000000
4.339512 1.627078 0.481729 47.000000
4.341684 1.612716 0.481441 47.000000
4.349414 1.600421 0.481729 47.000000
4.352433 1.586387 0.481537 47.000000
4.355408 1.572350 0.481345 47.000000
4.361148 1.559316 0.481441 47.000000
4.365911 1.545929 0.481441 47.000000
4.366877 1.531209 0.481057 47.000000
4.366853 1.516170 0.480577 47.000000
4.373366 1.503414 0.480769 47.000000
4.375132 1.489026 0.480481 47.000000
4.384395 1.477187 0.480961 47.000000
4.385130 1.462468 0.480577 47.000000
4.384871 1.447447 0.480097 47.000000
4.387398 1.433369 0.479905 47.000000
4.387987 1.418676 0.479521 47.000000
4.392319 1.405207 0.479521 47.000000
4.399456 1.392627 0.479809 47.000000
4.402758 1.378825 0.479713 47.000000
4.413622 1.367375 0.480385 47.000000
4.510104 1.382140 0.489699 47.000000
4.589571 1.391125 0.497284 47.000000
4.569983 1.369887 0.494884 47.000000
4.990225 1.479298 0.536748 47.000000
3.707954 -0.881691 0.402321 47.000000
3.666522 -0.883745 0.398480 47.000000
3.664760 -0.895226 0.398576 47.000000
3.661996 -0.906465 0.398576 47.000000
3.658232 -0.917454 0.398480 47.000000
3.656365 -0.928918 0.398576 47.000000
3.655427 -0.940626 0.398768 47.000000
3.647707 -0.950583 0.398288 47.000000
3.638036 -0.959994 0.397616 47.000000
3.635073 -0.971151 0.397616 47.000000
3.630155 -0.981779 0.397424 47.000000
3.623285 -0.991862 0.397040 47.000000
3.619266 -1.002708 0.396944 47.000000
3.612339 -1.012733 0.396560 47.000000
3.610172 -1.024082 0.396656 47.000000
3.605100 -1.034605 0.396464 47.000000
3.601909 -1.045660 0.396464 47.000000
3.601549 -1.057546 0.396752 47.000000
3.599242 -1.068874 0.396848 47.000000
3.596899 -1.080197 0.396944 47.000000
3.594521 -1.091516 0.397040 47.000000
3.589252 -1.101955 0.396848 47.000000
3.588706 -1.113846 0.397136 47.000000
3.588122 -1.125743 0.397424 47.000000
3.584651 -1.136746 0.397424 47.000000
3.584939 -1.148952 0.397808 47.000000
3.579503 -1.159333 0.397616 47.000000
3.568361 -1.167835 0.396848 47.000000
3.574212 -1.181899 0.397808 47.000000
3.565849 -1.191283 0.397328 47.000000
3.562177 -1.202217 0.397328 47.000000
3.558472 -1.213140 0.397328 47.000000
3.553792 -1.223728 0.397232 47.000000
3.551901 -1.235278 0.397424 47.000000
3.550913 -1.247158 0.397712 47.000000
3.546131 -1.257714 0.397616 47.000000
3.543193 -1.268923 0.397712 47.000000
3.538347 -1.279449 0.397616 47.000000
3.540016 -1.292345 0.398192 47.000000
3.536035 -1.303200 0.398192 47.000000
3.532953 -1.314389 0.398288 47.000000
3.527972 -1.324872 0.398192 47.000000
3.523891 -1.335689 0.398192 47.000000
3.519776 -1.346494 0.398192 47.000000
3.516557 -1.357644 0.398288 47.000000
3.512376 -1.368427 0.398288 47.000000
3.508161 -1.379196 0.398288 47.000000
3.508540 -1.391786 0.398768 47.000000
3.507026 -1.403652 0.399056 47.000000
3.502703 -1.414405 0.399056 47.000000
3.499269 -1.425520 0.399152 47.000000
3.492117 -1.435115 0.398864 47.000000
3.491376 -1.447345 0.399248 47.000000
3.485082 -1.457282 0.399056 47.000000
3.482430 -1.468740 0.399248 47.000000
3.472411 -1.477081 0.398672 47.000000
4.292733 1.905785 0.460537 48.000000
4.295825 1.891403 0.460266 48.000000
4.289741 1.873037 0.459092 48.000000
4.300037 1.861845 0.459544 48.000000
4.301153 1.846680 0.459092 48.000000
4.298550 1.829967 0.458280 48.000000
4.304144 1.816771 0.458280 48.000000
4.301429 1.800099 0.457467 48.000000
4.305091 1.786131 0.457287 48.000000
4.305945 1.771022 0.456835 48.000000
4.307669 1.756300 0.456474 48.000000
4.308419 1.741211 0.456023 48.000000
4.319289 1.730206 0.456564 48.000000
4.313468 1.712539 0.455481 48.000000
4.317775 1.698933 0.455391 48.000000
4.322039 1.685317 0.455300 48.000000
4.323472 1.670614 0.454939 48.000000
4.330438 1.658054 0.455120 48.000000
4.332711 1.643701 0.454849 48.000000
4.335868 1.629700 0.454668 48.000000
4.338048 1.615349 0.454397 48.000000
4.342049 1.601688 0.454307 48.000000
4.349749 1.589384 0.454578 48.000000
4.354604 1.576031 0.454578 48.000000
4.357544 1.561993 0.454397 48.000000
4.359499 1.547618 0.454127 48.000000
4.358589 1.532255 0.453585 48.000000
4.360448 1.517894 0.453314 48.000000
4.359434 1.502564 0.452772 48.000000
4.362138 1.488539 0.452592 48.000000
4.364797 1.474513 0.452411 48.000000
4.368356 1.460799 0.452321 48.000000
4.370926 1.446765 0.452140 48.000000
4.375344 1.433348 0.452140 48.000000
4.377826 1.419304 0.451960 48.000000
4.379314 1.404955 0.451689 48.000000
4.384553 1.391814 0.451779 48.000000
4.389753 1.378654 0.451869 48.000000
4.391109 1.364294 0.451599 48.000000
4.402890 1.353154 0.452321 48.000000
4.455621 1.354400 0.456925 48.000000
3.671988 -0.869581 0.376843 48.000000
3.669302 -0.880842 0.376843 48.000000
3.664648 -0.891624 0.376662 48.000000
3.659961 -0.902385 0.376481 48.000000
3.657175 -0.913610 0.376481 48.000000
3.655321 -0.925070 0.376572 48.000000
3.652465 -0.936280 0.376572 48.000000
3.649576 -0.947481 0.376572 48.000000
3.644726 -0.958167 0.376391 48.000000
3.641769 -0.969344 0.376391 48.000000
3.635893 -0.979734 0.376120 48.000000
3.633831 -0.991146 0.376211 48.000000
3.626933 -1.001229 0.375849 48.000000
3.623845 -1.012352 0.375849 48.000000
3.616889 -1.022380 0.375488 48.000000
3.610862 -1.032649 0.375217 48.000000
3.606721 -1.043445 0.375127 48.000000
3.604458 -1.054785 0.375217 48.000000
3.601205 -1.065839 0.375217 48.000000
3.600780 -1.077740 0.375488 48.000000
3.598410 -1.089070 0.375579 48.000000
3.596956 -1.100688 0.375759 48.000000
3.595465 -1.112308 0.375940 48.000000
3.590135 -1.122738 0.375759 48.000000
3.587623 -1.134048 0.375849 48.000000
3.589819 -1.146869 0.376391 48.000000
3.581545 -1.156346 0.375940 48.000000
3.577981 -1.167329 0.375940 48.000000
3.564925 -1.175179 0.375037 48.000000
3.568861 -1.188631 0.375759 48.000000
3.565197 -1.199574 0.375759 48.000000
3.558672 -1.209544 0.375488 48.000000
3.560596 -1.222398 0.376030 48.000000
3.556828 -1.233316 0.376030 48.000000
3.553028 -1.244223 0.376030 48.000000
3.552949 -1.256447 0.376391 48.000000
3.553767 -1.269017 0.376843 48.000000
3.546110 -1.278562 0.376481 48.000000
3.544042 -1.290117 0.376662 48.000000
3.538198 -1.300296 0.376481 48.000000
3.531391 -1.310105 0.376211 48.000000
3.525490 -1.320234 0.376030 48.000000
3.521423 -1.331044 0.376030 48.000000
3.518253 -1.342196 0.376120 48.000000
3.515978 -1.353700 0.376301 48.000000
3.512736 -1.364841 0.376391 48.000000
3.510386 -1.376340 0.376572 48.000000
3.507999 -1.387836 0.376752 48.000000
3.502800 -1.398222 0.376662 48.000000
3.501265 -1.410079 0.376933 48.000000
3.496000 -1.420439 0.376843 48.000000
3.499918 -1.434560 0.377655 48.000000
3.491820 -1.443768 0.377294 48.000000
3.489212 -1.455241 0.377475 48.000000
3.488402 -1.467485 0.377836 48.000000
4.292473 1.902812 0.431598 49.000000
4.297379 1.889233 0.431513 49.000000
4.302241 1.875641 0.431429 49.000000
4.304316 1.860852 0.431092 49.000000
4.310005 1.847638 0.431092 49.000000
4.311068 1.832458 0.430671 49.000000
4.313915 1.818062 0.430419 49.000000
4.316714 1.803667 0.430166 49.000000
4.320385 1.789652 0.429998 49.000000
4.319403 1.773740 0.429408 49.000000
4.318364 1.757850 0.428819 49.000000
4.316344 1.741611 0.428145 49.000000
4.316116 1.726141 0.427640 49.000000
4.317686 1.711423 0.427303 49.000000
4.320133 1.697076 0.427051 49.000000
4.321605 1.682368 0.426714 49.000000
4.321168 1.666950 0.426209 49.000000
4.325331 1.653330 0.426125 49.000000
4.328519 1.639346 0.425956 49.000000
4.332595 1.625709 0.425872 49.000000
4.337563 1.612409 0.425872 49.000000
4.344359 1.599782 0.426040 49.000000
4.350183 1.586788 0.426125 49.000000
4.354094 1.573096 0.426040 49.000000
4.357961 1.559395 0.425956 49.000000
4.358028 1.544354 0.425535 49.000000
4.359925 1.529987 0.425283 49.000000
4.358951 1.514641 0.424777 49.000000
4.361692 1.500613 0.424609 49.000000
4.363446 1.486261 0.424356 49.000000
4.367985 1.472867 0.424356 49.000000
4.369648 1.458513 0.424104 49.000000
4.370317 1.443850 0.423767 49.000000
4.369991 1.428887 0.423346 49.000000
4.372458 1.414860 0.423178 49.000000
4.377727 1.401743 0.423262 49.000000
4.385807 1.389509 0.423599 49.000000
4.390049 1.376047 0.423599 49.000000
4.394250 1.362572 0.423599 49.000000
4.991828 1.514304 0.475634 49.000000
3.690673 -0.864380 0.355144 49.000000
3.680248 -0.873856 0.354471 49.000000
3.673674 -0.884210 0.354134 49.000000
3.667072 -0.894531 0.353797 49.000000
3.662376 -0.905299 0.353629 49.000000
3.656682 -0.915804 0.353376 49.000000
3.654820 -0.927264 0.353460 49.000000
3.650028 -0.937976 0.353292 49.000000
3.648098 -0.949421 0.353376 49.000000
3.645168 -0.960609 0.353376 49.000000
3.647017 -0.973072 0.353797 49.000000
3.642091 -0.983737 0.353629 49.000000
3.639055 -0.994906 0.353629 49.000000
3.634065 -1.005534 0.353460 49.000000
3.630004 -1.016410 0.353376 49.000000
3.626868 -1.027541 0.353376 49.000000
3.620826 -1.037840 0.353124 49.000000
3.616667 -1.048666 0.353039 49.000000
3.613433 -1.059757 0.353039 49.000000
3.610165 -1.070837 0.353039 49.000000
3.606863 -1.081908 0.353039 49.000000
3.605433 -1.093547 0.353208 49.000000
3.603967 -1.105188 0.353376 49.000000
3.600559 -1.116240 0.353376 49.000000
3.598068 -1.127579 0.353460 49.000000
3.595542 -1.138913 0.353545 49.000000
3.593929 -1.150547 0.353713 49.000000
3.586590 -1.160340 0.353376 49.000000
3.582066 -1.171028 0.353292 49.000000
3.576564 -1.181387 0.353124 49.000000
3.570087 -1.191408 0.352871 49.000000
3.565471 -1.202037 0.352787 49.000000
3.559880 -1.212327 0.352618 49.000000
3.557086 -1.223567 0.352703 49.000000
3.555198 -1.235129 0.352871 49.000000
3.554213 -1.247020 0.353124 49.000000
3.553188 -1.258917 0.353376 49.000000
3.554938 -1.271827 0.353881 49.000000
3.549145 -1.282050 0.353713 49.000000
3.546131 -1.293274 0.353797 49.000000
3.540277 -1.303458 0.353629 49.000000
3.535327 -1.313966 0.353545 49.000000
3.532212 -1.325157 0.353629 49.000000
3.527198 -1.335634 0.353545 49.000000
3.523084 -1.346449 0.353545 49.000000
3.519866 -1.357610 0.353629 49.000000
3.518470 -1.369487 0.353881 49.000000
3.515180 -1.380639 0.353966 49.000000
3.513706 -1.392519 0.354218 49.000000
3.508492 -1.402922 0.354134 49.000000
3.504172 -1.413680 0.354134 49.000000
3.499818 -1.424424 0.354134 49.000000
3.496353 -1.435533 0.354218 49.000000
3.494694 -1.447397 0.354471 49.000000
3.494834 -1.460033 0.354892 49.000000
3.537168 -1.490486 0.359186 49.000000
4.286770 1.916757 0.401215 50.000000
4.289896 1.902384 0.400982 50.000000
4.292975 1.888009 0.400748 50.000000
4.300575 1.875627 0.400904 50.000000
4.301733 1.860445 0.400515 50.000000
4.300091 1.844095 0.399893 50.000000
4.307563 1.831674 0.400049 50.000000
4.313163 1.818450 0.400049 50.000000
4.317801 1.804824 0.399971 50.000000
4.320555 1.790424 0.399738 50.000000
4.316806 1.773371 0.398960 50.000000
4.312994 1.756358 0.398182 50.000000
4.310041 1.739758 0.397482 50.000000
4.305177 1.722452 0.396627 50.000000
4.307661 1.708133 0.396394 50.000000
4.310098 1.693815 0.396160 50.000000
4.311558 1.679137 0.395849 50.000000
4.312969 1.664465 0.395538 50.000000
4.313399 1.649444 0.395150 50.000000
4.320304 1.636910 0.395305 50.000000
4.323439 1.622947 0.395150 50.000000
4.331201 1.610718 0.395383 50.000000
4.337058 1.597767 0.395461 50.000000
4.341939 1.584453 0.395461 50.000000
4.345842 1.570786 0.395383 50.000000
4.345948 1.555765 0.394994 50.000000
4.344122 1.540092 0.394450 50.000000
4.349768 1.527088 0.394527 50.000000
4.352549 1.513081 0.394372 50.000000
4.359056 1.500370 0.394527 50.000000
4.367413 1.488276 0.394838 50.000000
4.369124 1.473913 0.394605 50.000000
4.367952 1.458607 0.394139 50.000000
4.364834 1.442696 0.393517 50.000000
4.363554 1.427438 0.393050 50.000000
4.366016 1.413429 0.392894 50.000000
4.369383 1.399724 0.392817 50.000000
4.374607 1.386613 0.392894 50.000000
4.378840 1.373186 0.392894 50.000000
4.383985 1.360041 0.392972 50.000000
4.388136 1.346584 0.392972 50.000000
4.977033 1.510661 0.440641 50.000000
4.981644 1.495385 0.440641 50.000000
3.913734 -0.890894 0.348025 50.000000
3.723494 -0.859632 0.333017 50.000000
3.675214 -0.860375 0.329362 50.000000
3.668677 -0.870726 0.329051 50.000000
3.661141 -0.880812 0.328662 50.000000
3.651642 -0.890388 0.328118 50.000000
3.645989 -0.900869 0.327884 50.000000
3.641274 -0.911567 0.327729 50.000000
3.638460 -0.922734 0.327729 50.000000
3.634646 -0.933644 0.327651 50.000000
3.632730 -0.945042 0.327729 50.000000
3.628849 -0.955928 0.327651 50.000000
3.629753 -0.968084 0.327962 50.000000
3.628691 -0.979735 0.328118 50.000000
3.623744 -0.990338 0.327962 50.000000
3.625494 -1.002779 0.328351 50.000000
3.617599 -1.012554 0.327962 50.000000
3.613517 -1.023376 0.327884 50.000000
3.608443 -1.033909 0.327729 50.000000
3.606212 -1.045252 0.327807 50.000000
3.605858 -1.057152 0.328040 50.000000
3.607377 -1.069626 0.328429 50.000000
3.604079 -1.080688 0.328429 50.000000
3.602654 -1.092319 0.328584 50.000000
3.600240 -1.103658 0.328662 50.000000
3.599694 -1.115584 0.328895 50.000000
3.596254 -1.126622 0.328895 50.000000
3.593731 -1.137951 0.328973 50.000000
3.586425 -1.147756 0.328662 50.000000
3.588578 -1.160593 0.329129 50.000000
3.573629 -1.167882 0.328196 50.000000
3.570976 -1.179153 0.328273 50.000000
3.557884 -1.186949 0.327496 50.000000
3.552336 -1.197222 0.327340 50.000000
3.551477 -1.209079 0.327573 50.000000
3.549637 -1.220617 0.327729 50.000000
3.546817 -1.231828 0.327807 50.000000
3.544903 -1.243364 0.327962 50.000000
3.543891 -1.255232 0.328196 50.000000
3.540962 -1.266434 0.328273 50.000000
3.539874 -1.278307 0.328507 50.000000
3.537808 -1.289844 0.328662 50.000000
3.533835 -1.300692 0.328662 50.000000
3.531697 -1.312222 0.328818 50.000000
3.527654 -1.323051 0.328818 50.000000
3.523579 -1.333867 0.328818 50.000000
3.520401 -1.345027 0.328895 50.000000
3.519049 -1.356897 0.329129 50.000000
3.516728 -1.368409 0.329284 50.000000
3.516225 -1.380649 0.329595 50.000000
3.512900 -1.391798 0.329673 50.000000
3.507687 -1.402198 0.329595 50.000000
3.502444 -1.412580 0.329517 50.000000
3.499017 -1.423695 0.329595 50.000000
3.493711 -1.434044 0.329517 50.000000
3.487453 -1.443994 0.329362 50.000000
3.492206 -1.458527 0.330140 50.000000
4.244224 1.894887 0.369036 51.000000
4.289230 1.899232 0.372118 51.000000
4.293210 1.885261 0.371975 51.000000
4.292573 1.869292 0.371473 51.000000
4.294625 1.854531 0.371187 51.000000
4.292044 1.837811 0.370542 51.000000
4.293990 1.823074 0.370255 51.000000
4.299562 1.809892 0.370255 51.000000
4.296812 1.793233 0.369610 51.000000
4.296763 1.777753 0.369180 51.000000
4.300352 1.763805 0.369036 51.000000
4.296504 1.746844 0.368320 51.000000
4.299993 1.732909 0.368176 51.000000
4.299732 1.717487 0.367746 51.000000
4.303126 1.703553 0.367603 51.000000
4.305547 1.689249 0.367388 51.000000
4.306062 1.674224 0.367030 51.000000
4.310247 1.660646 0.366958 51.000000
4.311595 1.645991 0.366671 51.000000
4.316625 1.632755 0.366671 51.000000
4.318812 1.618454 0.366456 51.000000
4.322822 1.604849 0.366385 51.000000
4.325853 1.590890 0.366241 51.000000
4.326965 1.576244 0.365955 51.000000
4.327090 1.561268 0.365596 51.000000
4.329042 1.546978 0.365381 51.000000
4.332827 1.533356 0.365310 51.000000
4.336570 1.519726 0.365238 51.000000
4.344038 1.507396 0.365453 51.000000
4.335438 1.489521 0.364450 51.000000
4.333377 1.473963 0.363948 51.000000
4.335989 1.460024 0.363804 51.000000
4.337609 1.445768 0.363589 51.000000
4.342024 1.432454 0.363589 51.000000
4.346399 1.419126 0.363589 51.000000
4.361171 1.409161 0.364378 51.000000
4.361674 1.394558 0.364091 51.000000
4.364981 1.380869 0.364019 51.000000
4.367293 1.366875 0.363876 51.000000
4.992646 1.545968 0.410606 51.000000
4.966850 1.521290 0.408312 51.000000
4.962903 1.503440 0.407667 51.000000
4.972269 1.489639 0.408026 51.000000
4.015000 -0.903432 0.330764 51.000000
3.739914 -0.853677 0.310696 51.000000
3.656618 -0.846501 0.304747 51.000000
3.646235 -0.855894 0.304174 51.000000
3.642621 -0.866846 0.304102 51.000000
3.637036 -0.877317 0.303887 51.000000
3.635296 -0.888708 0.303959 51.000000
3.627711 -0.898659 0.303600 51.000000
3.624937 -0.909784 0.303600 51.000000
3.620195 -0.920410 0.303457 51.000000
3.616388 -0.931264 0.303385 51.000000
3.611584 -0.941852 0.303242 51.000000
3.608677 -0.952927 0.303242 51.000000
3.604773 -0.963737 0.303170 51.000000
3.602762 -0.975052 0.303242 51.000000
3.600716 -0.986364 0.303314 51.000000
3.600557 -0.998204 0.303529 51.000000
3.595556 -1.008708 0.303385 51.000000
3.594364 -1.020278 0.303529 51.000000
3.594093 -1.032126 0.303744 51.000000
3.590910 -1.043147 0.303744 51.000000
3.588650 -1.054440 0.303815 51.000000
3.592091 -1.067432 0.304317 51.000000
3.593576 -1.079881 0.304675 51.000000
3.590246 -1.090901 0.304675 51.000000
3.589743 -1.102788 0.304890 51.000000
3.587295 -1.114092 0.304962 51.000000
3.582909 -1.124794 0.304890 51.000000
3.570884 -1.133068 0.304245 51.000000
3.574040 -1.146148 0.304747 51.000000
3.560068 -1.153728 0.303959 51.000000
3.560304 -1.165886 0.304245 51.000000
3.553869 -1.175864 0.304030 51.000000
3.548353 -1.186130 0.303887 51.000000
3.538082 -1.194779 0.303385 51.000000
3.541008 -1.207880 0.303887 51.000000
3.538229 -1.219062 0.303959 51.000000
3.538241 -1.231222 0.304245 51.000000
3.533506 -1.241741 0.304174 51.000000
3.530620 -1.252909 0.304245 51.000000
3.529576 -1.264743 0.304460 51.000000
3.527555 -1.276244 0.304604 51.000000
3.525497 -1.287744 0.304747 51.000000
3.523402 -1.299244 0.304890 51.000000
3.519399 -1.310047 0.304890 51.000000
3.517231 -1.321540 0.305034 51.000000
3.512228 -1.331971 0.304962 51.000000
3.509988 -1.343452 0.305105 51.000000
3.506780 -1.354573 0.305177 51.000000
3.506326 -1.366774 0.305464 51.000000
3.502116 -1.377524 0.305464 51.000000
3.498801 -1.388630 0.305536 51.000000
3.495450 -1.399728 0.305607 51.000000
3.489289 -1.409699 0.305464 51.000000
3.487719 -1.421526 0.305679 51.000000
3.487032 -1.433735 0.305966 51.000000
3.470638 -1.439463 0.305034 51.000000
4.267150 1.909236 0.343999 52.000000
4.271163 1.895326 0.343868 52.000000
4.269651 1.879000 0.343340 52.000000
4.276310 1.866291 0.343406 52.000000
4.288427 1.855935 0.343868 52.000000
4.284013 1.838444 0.343142 52.000000
4.288715 1.824902 0.343076 52.000000
4.294293 1.811735 0.343076 52.000000
4.297070 1.797398 0.342879 52.000000
4.302564 1.784206 0.342879 52.000000
4.302479 1.768723 0.342483 52.000000
4.315279 1.758525 0.343011 52.000000
4.313251 1.742290 0.342483 52.000000
4.315797 1.727937 0.342285 52.000000
4.319222 1.713952 0.342153 52.000000
4.317031 1.697773 0.341626 52.000000
4.314781 1.681624 0.341099 52.000000
4.316196 1.666942 0.340835 52.000000
4.317562 1.652266 0.340571 52.000000
4.318878 1.637598 0.340308 52.000000
4.319211 1.622587 0.339978 52.000000
4.320428 1.607937 0.339714 52.000000
4.322532 1.593640 0.339516 52.000000
4.321776 1.578319 0.339121 52.000000
4.323783 1.564035 0.338923 52.000000
4.327621 1.550426 0.338857 52.000000
4.330477 1.536475 0.338725 52.000000
4.335170 1.523182 0.338725 52.000000
4.335111 1.508236 0.338396 52.000000
4.338774 1.494604 0.338330 52.000000
4.348061 1.482895 0.338659 52.000000
4.343135 1.466359 0.338000 52.000000
4.352346 1.454608 0.338330 52.000000
4.357736 1.441562 0.338396 52.000000
4.357396 1.426634 0.338066 52.000000
4.359854 1.412645 0.337934 52.000000
4.358466 1.397436 0.337539 52.000000
4.364635 1.384661 0.337671 52.000000
4.366958 1.370666 0.337539 52.000000
4.371142 1.357262 0.337539 52.000000
4.378148 1.344724 0.337736 52.000000
4.979012 1.512410 0.378940 52.000000
4.123390 -0.910810 0.314135 52.000000
4.022241 -0.901390 0.307477 52.000000
3.656551 -0.831120 0.282886 52.000000
3.652039 -0.841886 0.282755 52.000000
3.643610 -0.851722 0.282359 52.000000
3.640009 -0.862666 0.282293 52.000000
3.635405 -0.873362 0.282161 52.000000
3.630769 -0.884039 0.282029 52.000000
3.629977 -0.895652 0.282161 52.000000
3.630116 -0.907511 0.282359 52.000000
3.623446 -0.917663 0.282095 52.000000
3.621580 -0.929024 0.282161 52.000000
3.615816 -0.939377 0.281963 52.000000
3.614847 -0.950974 0.282095 52.000000
3.609020 -0.961288 0.281897 52.000000
3.604127 -0.971836 0.281766 52.000000
3.600166 -0.982625 0.281700 52.000000
3.600019 -0.994464 0.281897 52.000000
3.595030 -1.004966 0.281766 52.000000
3.595770 -1.017078 0.282029 52.000000
3.594551 -1.028655 0.282161 52.000000
3.595212 -1.040789 0.282425 52.000000
3.594874 -1.052656 0.282623 52.000000
3.593541 -1.064247 0.282755 52.000000
3.583569 -1.073261 0.282293 52.000000
3.585989 -1.085987 0.282689 52.000000
3.581686 -1.096691 0.282623 52.000000
3.580211 -1.108265 0.282755 52.000000
3.573937 -1.118349 0.282557 52.000000
3.567636 -1.128405 0.282359 52.000000
3.565107 -1.139649 0.282425 52.000000
3.566341 -1.152117 0.282755 52.000000
3.558996 -1.161813 0.282491 52.000000
3.564890 -1.175855 0.283150 52.000000
3.551800 -1.183629 0.282491 52.000000
3.549098 -1.194838 0.282557 52.000000
3.539748 -1.203792 0.282161 52.000000
3.540756 -1.216268 0.282491 52.000000
3.540778 -1.228435 0.282755 52.000000
3.537934 -1.239622 0.282820 52.000000
3.530352 -1.249138 0.282557 52.000000
3.529322 -1.260971 0.282755 52.000000
3.526375 -1.272132 0.282820 52.000000
3.521518 -1.282603 0.282755 52.000000
3.518503 -1.293746 0.282820 52.000000
3.515453 -1.304882 0.282886 52.000000
3.510499 -1.315310 0.282820 52.000000
3.511113 -1.327840 0.283150 52.000000
3.508887 -1.339318 0.283282 52.000000
3.506623 -1.350795 0.283414 52.000000
3.504323 -1.362271 0.283546 52.000000
3.500127 -1.373015 0.283546 52.000000
3.493115 -1.382644 0.283348 52.000000
3.487003 -1.392614 0.283216 52.000000
3.481789 -1.402932 0.283150 52.000000
3.477468 -1.413607 0.283150 52.000000
3.467577 -1.421996 0.282755 52.000000
4.280780 1.915151 0.315495 53.000000
4.286635 1.902009 0.315495 53.000000
4.286055 1.886035 0.315078 53.000000
4.289076 1.871679 0.314899 53.000000
4.292049 1.857323 0.314720 53.000000
4.295893 1.843359 0.314601 53.000000
4.299691 1.829389 0.314481 53.000000
4.306202 1.816577 0.314541 53.000000
4.310834 1.802972 0.314481 53.000000
4.318190 1.790503 0.314601 53.000000
4.318123 1.774970 0.314243 53.000000
4.323548 1.761714 0.314243 53.000000
4.324305 1.746572 0.313944 53.000000
4.325936 1.731813 0.313706 53.000000
4.320094 1.714117 0.312990 53.000000
4.322546 1.699759 0.312811 53.000000
4.321229 1.683953 0.312393 53.000000
4.320787 1.668531 0.312035 53.000000
4.324022 1.654554 0.311916 53.000000
4.322544 1.638803 0.311499 53.000000
4.321944 1.623429 0.311141 53.000000
4.323162 1.608769 0.310902 53.000000
4.324331 1.594118 0.310663 53.000000
4.327326 1.580158 0.310544 53.000000
4.331214 1.566536 0.310484 53.000000
4.335060 1.552904 0.310425 53.000000
4.336982 1.538596 0.310246 53.000000
4.339798 1.524621 0.310127 53.000000
4.341627 1.510316 0.309948 53.000000
4.343408 1.496014 0.309769 53.000000
4.347033 1.482359 0.309709 53.000000
4.351560 1.469016 0.309709 53.000000
4.354153 1.455026 0.309590 53.000000
4.358596 1.441661 0.309590 53.000000
4.362999 1.428282 0.309590 53.000000
4.364511 1.413967 0.309411 53.000000
4.366928 1.399961 0.309291 53.000000
4.369299 1.385953 0.309172 53.000000
4.373530 1.372542 0.309172 53.000000
4.884906 1.516533 0.340908 53.000000
4.385687 1.346853 0.309411 53.000000
4.980083 1.512635 0.346277 53.000000
4.985657 1.497636 0.346337 53.000000
4.999797 1.485175 0.346934 53.000000
4.140459 -0.901498 0.288472 53.000000
4.054824 -0.895884 0.283401 53.000000
3.661472 -0.820727 0.259480 53.000000
3.658937 -0.831957 0.259480 53.000000
3.656368 -0.843178 0.259480 53.000000
3.649876 -0.853482 0.259241 53.000000
3.646269 -0.864446 0.259181 53.000000
3.642629 -0.875395 0.259122 53.000000
3.639926 -0.886566 0.259122 53.000000
3.637189 -0.897729 0.259122 53.000000
3.637323 -0.909610 0.259301 53.000000
3.635483 -0.921011 0.259360 53.000000
3.634574 -0.932656 0.259480 53.000000
3.631695 -0.943802 0.259480 53.000000
3.628783 -0.954940 0.259480 53.000000
3.625836 -0.966068 0.259480 53.000000
3.622855 -0.977188 0.259480 53.000000
3.616951 -0.987509 0.259301 53.000000
3.611018 -0.997803 0.259122 53.000000
3.607940 -1.008877 0.259122 53.000000
3.604827 -1.019941 0.259122 53.000000
3.602641 -1.031270 0.259181 53.000000
3.601378 -1.042874 0.259301 53.000000
3.601035 -1.054760 0.259480 53.000000
3.595868 -1.065235 0.259360 53.000000
3.588758 -1.075116 0.259122 53.000000
3.581622 -1.084963 0.258883 53.000000
3.580185 -1.096531 0.259002 53.000000
3.577758 -1.107805 0.259062 53.000000
3.574342 -1.118777 0.259062 53.000000
3.572796 -1.130340 0.259181 53.000000
3.573115 -1.142512 0.259420 53.000000
3.569593 -1.153469 0.259420 53.000000
3.564139 -1.163795 0.259301 53.000000
3.560552 -1.174724 0.259301 53.000000
3.555984 -1.185326 0.259241 53.000000
3.549493 -1.195274 0.259062 53.000000
3.545810 -1.206158 0.259062 53.000000
3.540204 -1.216382 0.258943 53.000000
3.543057 -1.229529 0.259360 53.000000
3.540210 -1.240723 0.259420 53.000000
3.541092 -1.253245 0.259718 53.000000
3.538170 -1.264439 0.259778 53.000000
3.533335 -1.274949 0.259718 53.000000
3.529408 -1.285783 0.259718 53.000000
3.523572 -1.295915 0.259599 53.000000
3.520516 -1.307067 0.259659 53.000000
3.514620 -1.317161 0.259539 53.000000
3.513363 -1.328997 0.259718 53.000000
3.512999 -1.341194 0.259957 53.000000
3.509799 -1.352325 0.260016 53.000000
3.507495 -1.363810 0.260136 53.000000
3.502365 -1.374200 0.260076 53.000000
3.496276 -1.384203 0.259957 53.000000
3.492940 -1.395294 0.260016 53.000000
3.486791 -1.405257 0.259897 53.000000
3.480614 -1.415195 0.259778 53.000000
4.288500 1.916636 0.286444 54.000000
4.283406 1.898613 0.285803 54.000000
4.291953 1.886669 0.285963 54.000000
4.294975 1.872295 0.285803 54.000000
4.297949 1.857920 0.285643 54.000000
4.298122 1.842365 0.285323 54.000000
4.306511 1.830342 0.285483 54.000000
4.310266 1.816345 0.285376 54.000000
4.309369 1.800418 0.285002 54.000000
4.317639 1.788335 0.285163 54.000000
4.315716 1.772045 0.284736 54.000000
4.321132 1.758796 0.284736 54.000000
4.323730 1.744410 0.284575 54.000000
4.317008 1.726316 0.283881 54.000000
4.324141 1.713799 0.283988 54.000000
4.319155 1.696508 0.283401 54.000000
4.312243 1.678539 0.282707 54.000000
4.317372 1.665302 0.282707 54.000000
4.319662 1.650979 0.282547 54.000000
4.322839 1.637011 0.282440 54.000000
4.323167 1.621987 0.282173 54.000000
4.324378 1.607324 0.281960 54.000000
4.326478 1.593014 0.281800 54.000000
4.328531 1.578706 0.281639 54.000000
4.330537 1.564401 0.281479 54.000000
4.334375 1.550771 0.281426 54.000000
4.336289 1.536466 0.281266 54.000000
4.338156 1.522163 0.281106 54.000000
4.340919 1.508191 0.280999 54.000000
4.343637 1.494216 0.280892 54.000000
4.350091 1.481527 0.280999 54.000000
4.345154 1.464983 0.280465 54.000000
4.347734 1.451013 0.280358 54.000000
4.352165 1.437667 0.280358 54.000000
4.356555 1.424308 0.280358 54.000000
4.361855 1.411243 0.280412 54.000000
4.365212 1.397550 0.280358 54.000000
4.369480 1.384151 0.280358 54.000000
4.371800 1.370142 0.280251 54.000000
4.947285 1.533902 0.312227 54.000000
4.960560 1.521353 0.312708 54.000000
4.973804 1.508736 0.313188 54.000000
4.981278 1.494330 0.313348 54.000000
4.998285 1.482734 0.314042 54.000000
4.999936 1.466549 0.313882 54.000000
3.803014 -0.829654 0.243418 54.000000
3.671752 -0.812841 0.236372 54.000000
3.665344 -0.823227 0.236158 54.000000
3.657933 -0.833360 0.235891 54.000000
3.652440 -0.843904 0.235731 54.000000
3.646917 -0.854423 0.235571 54.000000
3.641364 -0.864915 0.235411 54.000000
3.637722 -0.875849 0.235357 54.000000
3.633078 -0.886532 0.235251 54.000000
3.628402 -0.897195 0.235144 54.000000
3.627570 -0.908808 0.235251 54.000000
3.626700 -0.920424 0.235357 54.000000
3.626761 -0.932291 0.235518 54.000000
3.624850 -0.943665 0.235571 54.000000
3.628697 -0.956563 0.235945 54.000000
3.625745 -0.967691 0.235945 54.000000
3.623723 -0.979070 0.235998 54.000000
3.618776 -0.989656 0.235891 54.000000
3.609948 -0.999156 0.235571 54.000000
3.603981 -1.009419 0.235411 54.000000
3.602789 -1.021016 0.235518 54.000000
3.598680 -1.031789 0.235464 54.000000
3.593579 -1.042269 0.235357 54.000000
3.589406 -1.053008 0.235304 54.000000
3.583287 -1.063163 0.235144 54.000000
3.579051 -1.073864 0.235091 54.000000
3.573829 -1.084260 0.234984 54.000000
3.568576 -1.094634 0.234877 54.000000
3.568063 -1.106464 0.235037 54.000000
3.566557 -1.118003 0.235144 54.000000
3.566918 -1.130146 0.235357 54.000000
3.564385 -1.141388 0.235411 54.000000
3.561817 -1.152625 0.235464 54.000000
3.557315 -1.163237 0.235411 54.000000
3.552781 -1.173832 0.235357 54.000000
3.548216 -1.184410 0.235304 54.000000
3.542673 -1.194652 0.235197 54.000000
3.538991 -1.205516 0.235197 54.000000
3.537164 -1.217017 0.235304 54.000000
3.533414 -1.227863 0.235304 54.000000
3.536226 -1.241012 0.235678 54.000000
3.532402 -1.251855 0.235678 54.000000
3.530425 -1.263359 0.235785 54.000000
3.526533 -1.274184 0.235785 54.000000
3.523545 -1.285339 0.235838 54.000000
3.515837 -1.294764 0.235624 54.000000
3.510912 -1.305196 0.235571 54.000000
3.510631 -1.317364 0.235785 54.000000
3.502837 -1.326714 0.235571 54.000000
3.500616 -1.338167 0.235678 54.000000
3.496494 -1.348901 0.235678 54.000000
3.496062 -1.361070 0.235891 54.000000
3.493729 -1.372519 0.235998 54.000000
3.490430 -1.383600 0.236051 54.000000
3.488023 -1.395043 0.236158 54.000000
3.486505 -1.406858 0.236318 54.000000
3.479397 -1.416419 0.236158 54.000000
4.282341 1.911917 0.256600 55.000000
4.285448 1.897556 0.256459 55.000000
4.285762 1.881988 0.256176 55.000000
4.287853 1.867235 0.255988 55.000000
4.292644 1.853675 0.255941 55.000000
4.288211 1.836169 0.255423 55.000000
4.292905 1.822614 0.255375 55.000000
4.287430 1.804781 0.254810 55.000000
4.283730 1.787770 0.254339 55.000000
4.289194 1.774619 0.254339 55.000000
4.297390 1.762590 0.254480 55.000000
4.300002 1.748268 0.254339 55.000000
4.299787 1.732826 0.254056 55.000000
4.326416 1.728153 0.255140 55.000000
4.310338 1.706410 0.254056 55.000000
4.309975 1.690988 0.253774 55.000000
4.308626 1.675221 0.253444 55.000000
4.310017 1.660557 0.253256 55.000000
4.315092 1.647327 0.253256 55.000000
4.321993 1.634788 0.253350 55.000000
4.325118 1.620819 0.253256 55.000000
4.326325 1.606150 0.253067 55.000000
4.325608 1.590800 0.252785 55.000000
4.324837 1.575469 0.252502 55.000000
4.324013 1.560157 0.252219 55.000000
4.326898 1.546211 0.252125 55.000000
4.332563 1.533263 0.252172 55.000000
4.335361 1.519302 0.252078 55.000000
4.341889 1.506650 0.252172 55.000000
4.345547 1.492997 0.252125 55.000000
4.351998 1.480302 0.252219 55.000000
4.340427 1.461520 0.251419 55.000000
4.343943 1.447881 0.251371 55.000000
4.347416 1.434234 0.251324 55.000000
4.349897 1.420269 0.251230 55.000000
4.354234 1.406917 0.251230 55.000000
4.355675 1.392638 0.251089 55.000000
4.367546 1.381681 0.251466 55.000000
4.366045 1.366483 0.251183 55.000000
4.362584 1.350717 0.250806 55.000000
4.962645 1.520001 0.280201 55.000000
4.962505 1.503319 0.279965 55.000000
4.969007 1.488661 0.280059 55.000000
4.993663 1.479373 0.281048 55.000000
4.412806 -0.950244 0.248309 55.000000
3.671105 -0.802520 0.212650 55.000000
3.661799 -0.812267 0.212320 55.000000
3.656366 -0.822840 0.212179 55.000000
3.648955 -0.832944 0.211943 55.000000
3.643463 -0.843460 0.211802 55.000000
3.635023 -0.853266 0.211519 55.000000
3.632388 -0.864414 0.211519 55.000000
3.624863 -0.874385 0.211284 55.000000
3.621193 -0.885264 0.211237 55.000000
3.616521 -0.895890 0.211142 55.000000
3.615693 -0.907467 0.211237 55.000000
3.611924 -0.918310 0.211190 55.000000
3.610057 -0.929635 0.211237 55.000000
3.607188 -0.940707 0.211237 55.000000
3.607182 -0.952533 0.211378 55.000000
3.604243 -0.963595 0.211378 55.000000
3.604163 -0.975430 0.211519 55.000000
3.599226 -0.985956 0.211425 55.000000
3.593296 -0.996194 0.211284 55.000000
3.591185 -1.007483 0.211331 55.000000
3.589038 -1.018768 0.211378 55.000000
3.585896 -1.029774 0.211378 55.000000
3.584638 -1.041327 0.211472 55.000000
3.579510 -1.051758 0.211378 55.000000
3.573393 -1.061882 0.211237 55.000000
3.567249 -1.071978 0.211095 55.000000
3.562987 -1.082627 0.211048 55.000000
3.558694 -1.093260 0.211001 55.000000
3.557231 -1.104765 0.211095 55.000000
3.555731 -1.116271 0.211190 55.000000
3.553242 -1.127476 0.211237 55.000000
3.552620 -1.139286 0.211378 55.000000
3.551959 -1.151103 0.211519 55.000000
3.548411 -1.161995 0.211519 55.000000
3.542932 -1.172249 0.211425 55.000000
3.539319 -1.183113 0.211425 55.000000
3.532833 -1.193008 0.211284 55.000000
3.526320 -1.202874 0.211142 55.000000
3.523558 -1.214013 0.211190 55.000000
3.520760 -1.225145 0.211237 55.000000
3.518870 -1.236602 0.211331 55.000000
3.514118 -1.247059 0.211284 55.000000
3.514978 -1.259517 0.211519 55.000000
3.512976 -1.270974 0.211614 55.000000
3.504368 -1.280034 0.211378 55.000000
3.501362 -1.291124 0.211425 55.000000
3.496448 -1.301512 0.211378 55.000000
3.493374 -1.312584 0.211425 55.000000
3.493067 -1.324711 0.211614 55.000000
3.488053 -1.335064 0.211566 55.000000
3.485805 -1.346479 0.211661 55.000000
3.481658 -1.357167 0.211661 55.000000
3.480266 -1.368938 0.211802 55.000000
3.479764 -1.381081 0.211990 55.000000
3.474583 -1.391380 0.211943 55.000000
3.497160 -1.412876 0.213309 55.000000
4.289196 1.919093 0.230007 56.000000
4.285016 1.901469 0.229552 56.000000
4.289915 1.887912 0.229511 56.000000
4.291107 1.872745 0.229304 56.000000
4.290413 1.856795 0.229015 56.000000
4.291498 1.841654 0.228808 56.000000
4.288853 1.824960 0.228436 56.000000
4.290749 1.810241 0.228270 56.000000
4.294439 1.796298 0.228188 56.000000
4.297161 1.781967 0.228064 56.000000
4.286896 1.762321 0.227361 56.000000
4.290432 1.748407 0.227278 56.000000
4.292069 1.733740 0.227113 56.000000
4.296441 1.720193 0.227071 56.000000
4.328633 1.717684 0.228270 56.000000
4.306915 1.693798 0.227071 56.000000
4.306505 1.678401 0.226823 56.000000
4.310702 1.664821 0.226782 56.000000
4.314856 1.651231 0.226740 56.000000
4.318033 1.637278 0.226658 56.000000
4.313681 1.620511 0.226244 56.000000
4.320506 1.607966 0.226327 56.000000
4.320731 1.592976 0.226120 56.000000
4.324659 1.579370 0.226079 56.000000
4.324786 1.564397 0.225872 56.000000
4.328624 1.550785 0.225831 56.000000
4.331478 1.536830 0.225748 56.000000
4.334287 1.522872 0.225665 56.000000
4.334220 1.507927 0.225458 56.000000
4.337882 1.494297 0.225417 56.000000
4.346229 1.482271 0.225583 56.000000
4.347915 1.467972 0.225458 56.000000
4.354294 1.455259 0.225541 56.000000
4.354943 1.440639 0.225376 56.000000
4.359343 1.427271 0.225376 56.000000
4.361800 1.413275 0.225293 56.000000
4.364212 1.399277 0.225210 56.000000
4.370389 1.386485 0.225293 56.000000
4.374622 1.373070 0.225293 56.000000
4.966650 1.542005 0.250766 56.000000
4.977089 1.528519 0.251014 56.000000
4.980799 1.512952 0.250973 56.000000
4.988288 1.498526 0.251097 56.000000
4.454734 -0.941178 0.223970 56.000000
3.766061 -0.807573 0.194940 56.000000
3.665943 -0.797845 0.190805 56.000000
3.661527 -0.808657 0.190722 56.000000
3.657079 -0.819449 0.190640 56.000000
3.652599 -0.830221 0.190557 56.000000
3.644194 -0.840075 0.190309 56.000000
3.633817 -0.849429 0.189978 56.000000
3.632166 -0.860804 0.190019 56.000000
3.628536 -0.871710 0.189978 56.000000
3.623904 -0.882365 0.189895 56.000000
3.622149 -0.893718 0.189937 56.000000
3.614544 -0.903613 0.189730 56.000000
3.609818 -0.914207 0.189647 56.000000
3.607964 -0.925526 0.189689 56.000000
3.606074 -0.936843 0.189730 56.000000
3.601251 -0.947392 0.189647 56.000000
3.599293 -0.958694 0.189689 56.000000
3.597299 -0.969992 0.189730 56.000000
3.591415 -0.980234 0.189606 56.000000
3.588391 -0.991248 0.189606 56.000000
3.586295 -1.002521 0.189647 56.000000
3.585125 -1.014064 0.189730 56.000000
3.582958 -1.025333 0.189771 56.000000
3.582674 -1.037155 0.189895 56.000000
3.581393 -1.048704 0.189978 56.000000
3.575285 -1.058834 0.189854 56.000000
3.570105 -1.069224 0.189771 56.000000
3.565852 -1.079882 0.189730 56.000000
3.562522 -1.090817 0.189730 56.000000
3.562022 -1.102629 0.189854 56.000000
3.559576 -1.113850 0.189895 56.000000
3.552332 -1.123559 0.189730 56.000000
3.554578 -1.136280 0.189978 56.000000
3.551075 -1.147180 0.189978 56.000000
3.541840 -1.156207 0.189730 56.000000
3.543020 -1.168634 0.189937 56.000000
3.534679 -1.177917 0.189730 56.000000
3.524421 -1.186522 0.189440 56.000000
3.518873 -1.196686 0.189358 56.000000
3.517074 -1.208125 0.189440 56.000000
3.511464 -1.218254 0.189358 56.000000
3.510538 -1.230014 0.189482 56.000000
3.509573 -1.241779 0.189606 56.000000
3.510451 -1.254223 0.189813 56.000000
3.503767 -1.263968 0.189689 56.000000
3.502689 -1.275739 0.189813 56.000000
3.499696 -1.286824 0.189854 56.000000
3.495732 -1.297555 0.189854 56.000000
3.491735 -1.308273 0.189854 56.000000
