# This PCD file was generated using the MATLAB® pcwrite function
# from Computer Vision Toolbox®.
# .PCD v.7 - Point Cloud Data file format
VERSION .7
FIELDS x y z intensity
SIZE 4 4 4 4
TYPE F F F F
COUNT 1 1 1 1
WIDTH 1288
HEIGHT 1
VIEWPOINT 0 0 0 1 0 0 0
POINTS 1288
DATA ascii
1.829363 1.001256 0.172922 52.000000
1.828041 0.993259 0.172593 52.000000
1.831958 0.988119 0.172659 52.000000
1.834101 0.982024 0.172593 52.000000
1.839750 0.977795 0.172791 52.000000
1.840092 0.970751 0.172593 52.000000
1.845715 0.966489 0.172791 52.000000
1.851328 0.962200 0.172988 52.000000
1.854271 0.956516 0.172988 52.000000
1.858086 0.951277 0.173054 52.000000
1.860995 0.945572 0.173054 52.000000
1.859432 0.937614 0.172725 52.000000
1.860514 0.931013 0.172593 52.000000
1.864256 0.925744 0.172659 52.000000
1.866192 0.919580 0.172593 52.000000
1.867211 0.912974 0.172461 52.000000
1.870901 0.907677 0.172527 52.000000
1.873677 0.901932 0.172527 52.000000
1.872833 0.894462 0.172263 52.000000
1.876470 0.889139 0.172329 52.000000
1.879189 0.883377 0.172329 52.000000
1.880986 0.877187 0.172263 52.000000
1.882762 0.870993 0.172197 52.000000
1.885425 0.865213 0.172197 52.000000
1.882621 0.856947 0.171802 52.000000
1.887970 0.852398 0.172000 52.000000
1.890576 0.846602 0.172000 52.000000
1.894077 0.841202 0.172065 52.000000
1.895735 0.834985 0.172000 52.000000
1.898288 0.829165 0.172000 52.000000
1.899907 0.822941 0.171934 52.000000
1.904257 0.817895 0.172065 52.000000
1.904921 0.811268 0.171934 52.000000
1.906481 0.805033 0.171868 52.000000
1.908021 0.798795 0.171802 52.000000
1.911385 0.793320 0.171868 52.000000
1.911041 0.786314 0.171670 52.000000
1.914368 0.780824 0.171736 52.000000
1.926008 0.778682 0.172395 52.000000
1.925608 0.771657 0.172197 52.000000
1.698850 1.369526 0.165643 53.000000
1.702265 1.363683 0.165583 53.000000
1.705659 1.357833 0.165523 53.000000
1.710600 1.353213 0.165583 53.000000
1.713959 1.347342 0.165523 53.000000
1.717298 1.341462 0.165464 53.000000
1.719828 1.334964 0.165344 53.000000
1.722334 1.328462 0.165225 53.000000
1.725609 1.322565 0.165165 53.000000
1.728070 1.316055 0.165046 53.000000
1.730508 1.309543 0.164927 53.000000
1.732123 1.302428 0.164748 53.000000
1.734511 1.295913 0.164628 53.000000
1.735273 1.288206 0.164390 53.000000
1.736806 1.281099 0.164211 53.000000
1.739118 1.274585 0.164092 53.000000
1.742213 1.268656 0.164032 53.000000
1.744479 1.262135 0.163913 53.000000
1.745911 1.255030 0.163734 53.000000
1.747316 1.247927 0.163555 53.000000
1.751137 1.242561 0.163555 53.000000
1.754941 1.237182 0.163555 53.000000
1.758728 1.231792 0.163555 53.000000
1.760040 1.224681 0.163376 53.000000
1.764611 1.219843 0.163435 53.000000
1.766699 1.213294 0.163316 53.000000
1.767939 1.206180 0.163137 53.000000
1.769978 1.199631 0.163018 53.000000
1.771994 1.193080 0.162898 53.000000
1.774816 1.187084 0.162839 53.000000
1.775955 1.179976 0.162660 53.000000
1.777067 1.172873 0.162481 53.000000
1.778152 1.165774 0.162302 53.000000
1.780047 1.159224 0.162183 53.000000
1.781081 1.152131 0.162004 53.000000
1.785447 1.147201 0.162063 53.000000
1.787275 1.140644 0.161944 53.000000
1.790766 1.135156 0.161944 53.000000
1.795085 1.130188 0.162004 53.000000
1.796851 1.123617 0.161884 53.000000
1.800290 1.118099 0.161884 53.000000
1.805411 1.113619 0.162004 53.000000
1.806265 1.106511 0.161825 53.000000
1.807945 1.099926 0.161705 53.000000
1.809603 1.093343 0.161586 53.000000
1.812092 1.087272 0.161526 53.000000
1.811989 1.079664 0.161288 53.000000
1.814434 1.073592 0.161228 53.000000
1.819440 1.069031 0.161347 53.000000
1.819262 1.061433 0.161109 53.000000
1.819919 1.054346 0.160930 53.000000
1.824876 1.049753 0.161049 53.000000
1.828954 1.044644 0.161109 53.000000
1.830414 1.038043 0.160989 53.000000
1.832720 1.031933 0.160930 53.000000
1.835006 1.025819 0.160870 53.000000
1.838145 1.020184 0.160870 53.000000
1.835145 1.011169 0.160453 53.000000
1.836487 1.004576 0.160333 53.000000
1.838683 0.998461 0.160274 53.000000
1.839980 0.991868 0.160154 53.000000
1.842134 0.985748 0.160095 53.000000
1.843387 0.979156 0.159975 53.000000
1.847265 0.973961 0.160035 53.000000
1.852013 0.969214 0.160154 53.000000
1.854092 0.963068 0.160095 53.000000
1.857038 0.957375 0.160095 53.000000
1.859967 0.951673 0.160095 53.000000
1.861097 0.945059 0.159975 53.000000
1.861313 0.937998 0.159796 53.000000
1.862397 0.931390 0.159677 53.000000
1.865245 0.925672 0.159677 53.000000
1.866285 0.919063 0.159558 53.000000
1.867302 0.912457 0.159438 53.000000
1.871889 0.907595 0.159558 53.000000
1.873765 0.901415 0.159498 53.000000
1.875621 0.895232 0.159438 53.000000
1.880163 0.890328 0.159558 53.000000
1.881079 0.883707 0.159438 53.000000
1.883781 0.877932 0.159438 53.000000
1.884654 0.871311 0.159319 53.000000
1.889133 0.866356 0.159438 53.000000
1.889964 0.859730 0.159319 53.000000
1.891683 0.853518 0.159259 53.000000
1.893381 0.847302 0.159200 53.000000
1.895060 0.841085 0.159140 53.000000
1.899459 0.836071 0.159259 53.000000
1.902015 0.830239 0.159259 53.000000
1.903637 0.824004 0.159200 53.000000
1.906156 0.818160 0.159200 53.000000
1.907738 0.811917 0.159140 53.000000
1.911140 0.806448 0.159200 53.000000
1.914526 0.800966 0.159259 53.000000
1.916974 0.795089 0.159259 53.000000
1.913865 0.786927 0.158902 53.000000
1.938457 0.790090 0.160333 53.000000
1.940872 0.784140 0.160333 53.000000
1.694474 1.372989 0.151922 54.000000
1.698678 1.367784 0.151922 54.000000
1.702867 1.362566 0.151922 54.000000
1.706257 1.356714 0.151868 54.000000
1.709628 1.350854 0.151815 54.000000
1.712979 1.344985 0.151762 54.000000
1.715523 1.338495 0.151655 54.000000
1.717254 1.331389 0.151495 54.000000
1.718958 1.324286 0.151335 54.000000
1.721427 1.317792 0.151228 54.000000
1.723078 1.310690 0.151068 54.000000
1.726295 1.304795 0.151014 54.000000
1.727895 1.297694 0.150854 54.000000
1.728667 1.289997 0.150641 54.000000
1.730210 1.282903 0.150481 54.000000
1.732530 1.276404 0.150374 54.000000
1.734827 1.269902 0.150267 54.000000
1.737100 1.263399 0.150160 54.000000
1.740158 1.257479 0.150107 54.000000
1.744008 1.252134 0.150107 54.000000
1.744590 1.244457 0.149893 54.000000
1.747585 1.238522 0.149840 54.000000
1.752193 1.233729 0.149893 54.000000
1.755152 1.227775 0.149840 54.000000
1.756451 1.220675 0.149680 54.000000
1.758544 1.214145 0.149573 54.000000
1.762261 1.208745 0.149573 54.000000
1.763485 1.201645 0.149413 54.000000
1.763030 1.193429 0.149146 54.000000
1.767511 1.188572 0.149199 54.000000
1.768659 1.181480 0.149039 54.000000
1.768947 1.173839 0.148826 54.000000
1.771707 1.167856 0.148772 54.000000
1.774446 1.161868 0.148719 54.000000
1.774654 1.154240 0.148505 54.000000
1.776510 1.147706 0.148399 54.000000
1.778342 1.141172 0.148292 54.000000
1.781834 1.135711 0.148292 54.000000
1.784467 1.129704 0.148239 54.000000
1.787079 1.123693 0.148185 54.000000
1.791365 1.118734 0.148239 54.000000
1.793092 1.112180 0.148132 54.000000
1.798195 1.107721 0.148239 54.000000
1.801586 1.102199 0.148239 54.000000
1.801545 1.094592 0.148025 54.000000
1.803185 1.088028 0.147918 54.000000
1.805658 1.081977 0.147865 54.000000
1.805537 1.074389 0.147651 54.000000
1.807965 1.068337 0.147598 54.000000
1.810373 1.062279 0.147545 54.000000
1.810173 1.054709 0.147331 54.000000
1.815129 1.050151 0.147438 54.000000
1.818342 1.044577 0.147438 54.000000
1.824140 1.040478 0.147598 54.000000
1.823848 1.032908 0.147384 54.000000
1.827879 1.027797 0.147438 54.000000
1.829280 1.021211 0.147331 54.000000
1.830658 1.014625 0.147224 54.000000
1.832012 1.008041 0.147118 54.000000
1.832467 1.000979 0.146957 54.000000
1.834652 0.994876 0.146904 54.000000
1.835937 0.988296 0.146797 54.000000
1.837199 0.981717 0.146690 54.000000
1.838439 0.975140 0.146584 54.000000
1.842305 0.969960 0.146637 54.000000
1.845272 0.964304 0.146637 54.000000
1.848222 0.958638 0.146637 54.000000
1.848491 0.951592 0.146477 54.000000
1.854069 0.947280 0.146637 54.000000
1.854295 0.940232 0.146477 54.000000
1.853603 0.932742 0.146263 54.000000
1.856456 0.927051 0.146263 54.000000
1.859292 0.921351 0.146263 54.000000
1.858525 0.913879 0.146050 54.000000
1.861320 0.908173 0.146050 54.000000
1.864997 0.902894 0.146103 54.000000
1.866858 0.896735 0.146050 54.000000
1.869600 0.891003 0.146050 54.000000
1.873228 0.885690 0.146103 54.000000
1.874128 0.879091 0.145996 54.000000
1.876816 0.873337 0.145996 54.000000
1.880393 0.867994 0.146050 54.000000
1.882140 0.861805 0.145996 54.000000
1.881138 0.854374 0.145783 54.000000
1.884661 0.849009 0.145836 54.000000
1.887257 0.843223 0.145836 54.000000
1.889835 0.837429 0.145836 54.000000
1.891481 0.831225 0.145783 54.000000
1.894022 0.825418 0.145783 54.000000
1.896546 0.819603 0.145783 54.000000
1.899969 0.814175 0.145836 54.000000
1.902458 0.808342 0.145836 54.000000
1.904929 0.802501 0.145836 54.000000
1.910146 0.797808 0.145996 54.000000
1.909817 0.790798 0.145836 54.000000
1.922395 0.789108 0.146424 54.000000
1.923882 0.782830 0.146370 54.000000
1.689220 1.375730 0.138175 55.000000
1.691105 1.368654 0.138033 55.000000
1.695296 1.363459 0.138033 55.000000
1.700251 1.358876 0.138080 55.000000
1.703630 1.353032 0.138033 55.000000
1.706205 1.346560 0.137939 55.000000
1.709543 1.340702 0.137892 55.000000
1.711285 1.333608 0.137751 55.000000
1.713790 1.327128 0.137656 55.000000
1.716271 1.320644 0.137562 55.000000
1.718728 1.314158 0.137468 55.000000
1.720366 1.307065 0.137327 55.000000
1.721978 1.299974 0.137185 55.000000
1.725159 1.294085 0.137138 55.000000
1.726719 1.286994 0.136997 55.000000
1.727450 1.279311 0.136809 55.000000
1.730563 1.273413 0.136761 55.000000
1.732043 1.266328 0.136620 55.000000
1.732689 1.258658 0.136432 55.000000
1.735732 1.252751 0.136385 55.000000
1.738756 1.246837 0.136337 55.000000
1.740134 1.239757 0.136196 55.000000
1.742299 1.233257 0.136102 55.000000
1.746891 1.228481 0.136149 55.000000
1.750652 1.223116 0.136149 55.000000
1.750295 1.214889 0.135913 55.000000
1.755658 1.210649 0.136008 55.000000
1.754421 1.201867 0.135725 55.000000
1.758926 1.197041 0.135772 55.000000
1.759281 1.189400 0.135584 55.000000
1.761264 1.182882 0.135490 55.000000
1.763223 1.176363 0.135395 55.000000
1.765159 1.169844 0.135301 55.000000
1.767072 1.163323 0.135207 55.000000
1.768961 1.156802 0.135113 55.000000
1.769153 1.149191 0.134924 55.000000
1.770153 1.142132 0.134783 55.000000
1.772808 1.136157 0.134736 55.000000
1.775443 1.130175 0.134689 55.000000
1.777214 1.123655 0.134595 55.000000
1.778961 1.117134 0.134500 55.000000
1.781533 1.111141 0.134453 55.000000
1.784085 1.105144 0.134406 55.000000
1.788317 1.100189 0.134453 55.000000
1.791684 1.094698 0.134453 55.000000
1.793327 1.088158 0.134359 55.000000
1.794091 1.081103 0.134218 55.000000
1.796543 1.075081 0.134171 55.000000
1.798116 1.068542 0.134076 55.000000
1.800525 1.062513 0.134029 55.000000
1.803777 1.056984 0.134029 55.000000
1.805285 1.050439 0.133935 55.000000
1.805905 1.043395 0.133794 55.000000
1.811696 1.039342 0.133935 55.000000
1.814009 1.033284 0.133888 55.000000
1.815432 1.026730 0.133794 55.000000
1.818573 1.021155 0.133794 55.000000
1.821697 1.015571 0.133794 55.000000
1.821310 1.008041 0.133605 55.000000
1.822644 1.001485 0.133511 55.000000
1.824831 0.995410 0.133464 55.000000
1.826120 0.988854 0.133370 55.000000
1.827386 0.982300 0.133276 55.000000
1.827748 0.975277 0.133134 55.000000
1.830732 0.969665 0.133134 55.000000
1.835466 0.964975 0.133228 55.000000
1.838417 0.959339 0.133228 55.000000
1.841352 0.953694 0.133228 55.000000
1.844269 0.948041 0.133228 55.000000
1.846280 0.941924 0.133181 55.000000
1.846488 0.934900 0.133040 55.000000
1.847563 0.928332 0.132946 55.000000
1.850402 0.922660 0.132946 55.000000
1.853224 0.916978 0.132946 55.000000
1.853339 0.909966 0.132804 55.000000
1.856122 0.904276 0.132804 55.000000
1.859787 0.899013 0.132852 55.000000
1.864337 0.894168 0.132946 55.000000
1.867974 0.888873 0.132993 55.000000
1.870692 0.883138 0.132993 55.000000
1.872488 0.876971 0.132946 55.000000
1.874264 0.870800 0.132899 55.000000
1.874206 0.863790 0.132757 55.000000
1.877756 0.858452 0.132804 55.000000
1.877652 0.851448 0.132663 55.000000
1.877523 0.844453 0.132522 55.000000
1.880105 0.838689 0.132522 55.000000
1.882669 0.832917 0.132522 55.000000
1.885216 0.827137 0.132522 55.000000
1.886829 0.820950 0.132475 55.000000
1.890255 0.815554 0.132522 55.000000
1.892748 0.809751 0.132522 55.000000
1.896143 0.804331 0.132569 55.000000
1.898602 0.798510 0.132569 55.000000
1.901965 0.793066 0.132616 55.000000
1.896083 0.783788 0.132192 55.000000
1.897554 0.777588 0.132145 55.000000
1.685840 1.385466 0.125840 56.000000
1.684664 1.375866 0.125551 56.000000
1.688101 1.370062 0.125509 56.000000
1.693074 1.365503 0.125551 56.000000
1.697256 1.360302 0.125551 56.000000
1.699857 1.353845 0.125468 56.000000
1.704003 1.348623 0.125468 56.000000
1.705775 1.341537 0.125344 56.000000
1.708308 1.335068 0.125261 56.000000
1.710817 1.328596 0.125179 56.000000
1.712511 1.321511 0.125055 56.000000
1.715764 1.315644 0.125013 56.000000
1.717407 1.308558 0.124889 56.000000
1.719820 1.302078 0.124806 56.000000
1.723806 1.296795 0.124806 56.000000
1.728577 1.292098 0.124848 56.000000
1.727719 1.283217 0.124600 56.000000
1.729235 1.276132 0.124476 56.000000
1.731529 1.269640 0.124393 56.000000
1.732993 1.262558 0.124269 56.000000
1.733619 1.254894 0.124103 56.000000
1.735838 1.248403 0.124021 56.000000
1.736407 1.240750 0.123855 56.000000
1.737760 1.233683 0.123731 56.000000
1.741537 1.228346 0.123731 56.000000
1.744479 1.222425 0.123690 56.000000
1.746580 1.215926 0.123607 56.000000
1.749481 1.209994 0.123566 56.000000
1.749889 1.202359 0.123400 56.000000
1.752744 1.196422 0.123359 56.000000
1.756407 1.191039 0.123359 56.000000
1.759224 1.185087 0.123318 56.000000
1.761190 1.178574 0.123235 56.000000
1.764797 1.173165 0.123235 56.000000
1.765886 1.166095 0.123111 56.000000
1.768619 1.160124 0.123070 56.000000
1.770495 1.153603 0.122987 56.000000
1.771509 1.146538 0.122863 56.000000
1.773337 1.140018 0.122780 56.000000
1.775984 1.134035 0.122739 56.000000
1.776922 1.126977 0.122615 56.000000
1.779526 1.120988 0.122573 56.000000
1.781262 1.114465 0.122491 56.000000
1.784672 1.108995 0.122491 56.000000
1.786365 1.102466 0.122408 56.000000
1.791444 1.098023 0.122491 56.000000
1.792243 1.090965 0.122367 56.000000
1.794726 1.084945 0.122325 56.000000
1.795475 1.077892 0.122201 56.000000
1.797057 1.071356 0.122119 56.000000
1.800335 1.065838 0.122119 56.000000
1.803597 1.060310 0.122119 56.000000
1.805978 1.054268 0.122077 56.000000
1.807474 1.047721 0.121994 56.000000
1.809814 1.041673 0.121953 56.000000
1.813869 1.036611 0.121994 56.000000
1.817041 1.031041 0.121994 56.000000
1.818454 1.024482 0.121912 56.000000
1.820716 1.018411 0.121870 56.000000
1.820337 1.010882 0.121705 56.000000
1.819929 1.003365 0.121540 56.000000
1.823875 0.998256 0.121581 56.000000
1.823417 0.990749 0.121416 56.000000
1.823809 0.983729 0.121291 56.000000
1.825937 0.977658 0.121250 56.000000
1.829810 0.972520 0.121291 56.000000
1.833669 0.967367 0.121333 56.000000
1.837514 0.962200 0.121374 56.000000
1.843118 0.957939 0.121498 56.000000
1.846048 0.952280 0.121498 56.000000
1.847182 0.945702 0.121416 56.000000
1.850965 0.940483 0.121457 56.000000
1.852950 0.934350 0.121416 56.000000
1.854914 0.928214 0.121374 56.000000
1.855962 0.921632 0.121291 56.000000
1.857885 0.915492 0.121250 56.000000
1.859787 0.909350 0.121209 56.000000
1.863467 0.904075 0.121250 56.000000
1.864431 0.897488 0.121167 56.000000
1.868077 0.892194 0.121209 56.000000
1.871709 0.886886 0.121250 56.000000
1.874421 0.881139 0.121250 56.000000
1.877116 0.875385 0.121250 56.000000
1.877071 0.868365 0.121126 56.000000
1.879727 0.862602 0.121126 56.000000
1.883274 0.857244 0.121167 56.000000
1.882251 0.849820 0.121002 56.000000
1.885762 0.844449 0.121043 56.000000
1.889257 0.839065 0.121085 56.000000
1.892737 0.833667 0.121126 56.000000
1.892538 0.826658 0.121002 56.000000
1.894148 0.820451 0.120961 56.000000
1.900330 0.816211 0.121126 56.000000
1.900986 0.809595 0.121043 56.000000
1.898857 0.801818 0.120837 56.000000
1.885637 0.789439 0.120134 56.000000
1.886204 0.782885 0.120051 56.000000
1.888597 0.777094 0.120051 56.000000
1.682962 1.381978 0.112052 57.000000
1.687194 1.376808 0.112052 57.000000
1.690633 1.370996 0.112017 57.000000
1.694831 1.365803 0.112017 57.000000
1.699014 1.360597 0.112017 57.000000
1.701616 1.354133 0.111946 57.000000
1.704978 1.348287 0.111911 57.000000
1.706749 1.341197 0.111806 57.000000
1.710068 1.335340 0.111771 57.000000
1.712577 1.328862 0.111701 57.000000
1.715854 1.322992 0.111666 57.000000
1.718318 1.316506 0.111596 57.000000
1.721554 1.310623 0.111561 57.000000
1.723175 1.303527 0.111455 57.000000
1.727166 1.298234 0.111455 57.000000
1.729540 1.291733 0.111385 57.000000
1.731889 1.285230 0.111315 57.000000
1.734215 1.278725 0.111245 57.000000
1.735711 1.271627 0.111140 57.000000
1.737180 1.264532 0.111035 57.000000
1.739432 1.258025 0.110964 57.000000
1.739225 1.249768 0.110789 57.000000
1.741424 1.243265 0.110719 57.000000
1.742784 1.236182 0.110614 57.000000
1.744934 1.229679 0.110544 57.000000
1.748699 1.224319 0.110544 57.000000
1.751626 1.218378 0.110508 57.000000
1.755356 1.212999 0.110508 57.000000
1.757421 1.206476 0.110438 57.000000
1.759462 1.199953 0.110368 57.000000
1.762308 1.193989 0.110333 57.000000
1.764305 1.187461 0.110263 57.000000
1.767108 1.181487 0.110228 57.000000
1.768227 1.174402 0.110123 57.000000
1.769319 1.167321 0.110017 57.000000
1.771220 1.160792 0.109947 57.000000
1.773098 1.154263 0.109877 57.000000
1.775791 1.148275 0.109842 57.000000
1.778465 1.142281 0.109807 57.000000
1.781118 1.136282 0.109772 57.000000
1.782907 1.129743 0.109702 57.000000
1.785519 1.123736 0.109667 57.000000
1.784720 1.115605 0.109491 57.000000
1.788135 1.110124 0.109491 57.000000
1.793234 1.105682 0.109561 57.000000
1.791503 1.097044 0.109351 57.000000
1.794006 1.091024 0.109316 57.000000
1.796490 1.084998 0.109281 57.000000
1.797238 1.077940 0.109176 57.000000
1.800537 1.072421 0.109176 57.000000
1.802958 1.066383 0.109141 57.000000
1.807083 1.061353 0.109176 57.000000
1.809468 1.055301 0.109141 57.000000
1.812697 1.049744 0.109141 57.000000
1.815909 1.044178 0.109141 57.000000
1.818236 1.038107 0.109105 57.000000
1.822282 1.033016 0.109141 57.000000
1.823700 1.026441 0.109070 57.000000
1.826841 1.020841 0.109070 57.000000
1.826468 1.013293 0.108930 57.000000
1.828693 1.007202 0.108895 57.000000
1.829143 1.000149 0.108790 57.000000
1.829568 0.993103 0.108685 57.000000
1.831726 0.987012 0.108650 57.000000
1.834746 0.981387 0.108650 57.000000
1.837748 0.975754 0.108650 57.000000
1.840733 0.970111 0.108650 57.000000
1.844586 0.964922 0.108685 57.000000
1.849312 0.960179 0.108755 57.000000
1.853137 0.954959 0.108790 57.000000
1.855168 0.948814 0.108755 57.000000
1.858071 0.943118 0.108755 57.000000
1.860063 0.936964 0.108720 57.000000
1.861141 0.930359 0.108650 57.000000
1.859509 0.922425 0.108474 57.000000
1.861434 0.916275 0.108439 57.000000
1.861542 0.909244 0.108334 57.000000
1.863423 0.903093 0.108299 57.000000
1.864384 0.896506 0.108229 57.000000
1.868929 0.891643 0.108299 57.000000
1.871656 0.885904 0.108299 57.000000
1.876175 0.881007 0.108369 57.000000
1.878869 0.875247 0.108369 57.000000
1.884267 0.870736 0.108474 57.000000
1.886021 0.864535 0.108439 57.000000
1.888664 0.858745 0.108439 57.000000
1.888557 0.851714 0.108334 57.000000
1.892986 0.846732 0.108404 57.000000
1.898315 0.842135 0.108509 57.000000
1.898145 0.835101 0.108404 57.000000
1.898866 0.828474 0.108334 57.000000
1.902316 0.823041 0.108369 57.000000
1.904833 0.817201 0.108369 57.000000
1.904572 0.810181 0.108264 57.000000
1.872975 0.789970 0.106966 57.000000
1.882766 0.787303 0.107247 57.000000
1.885173 0.781523 0.107247 57.000000
1.680149 1.387681 0.097741 58.000000
1.685171 1.383155 0.097769 58.000000
1.689407 1.377978 0.097769 58.000000
1.692850 1.372159 0.097741 58.000000
1.696274 1.366332 0.097712 58.000000
1.699677 1.360496 0.097684 58.000000
1.702279 1.354031 0.097627 58.000000
1.705641 1.348182 0.097598 58.000000
1.708197 1.341707 0.097541 58.000000
1.713093 1.337076 0.097570 58.000000
1.714028 1.329363 0.097456 58.000000
1.717307 1.323487 0.097428 58.000000
1.718185 1.315781 0.097314 58.000000
1.720623 1.309293 0.097257 58.000000
1.722240 1.302199 0.097172 58.000000
1.725428 1.296308 0.097143 58.000000
1.725392 1.288018 0.097001 58.000000
1.729336 1.282718 0.097001 58.000000
1.731654 1.276221 0.096944 58.000000
1.734755 1.270311 0.096916 58.000000
1.736219 1.263218 0.096830 58.000000
1.740087 1.257886 0.096830 58.000000
1.741502 1.250791 0.096745 58.000000
1.743704 1.244281 0.096688 58.000000
1.745883 1.237769 0.096631 58.000000
1.748038 1.231256 0.096574 58.000000
1.749350 1.224167 0.096489 58.000000
1.752277 1.218224 0.096461 58.000000
1.756006 1.212842 0.096461 58.000000
1.757247 1.205752 0.096375 58.000000
1.758460 1.198665 0.096290 58.000000
1.760474 1.192144 0.096233 58.000000
1.763294 1.186179 0.096205 58.000000
1.762770 1.177986 0.096062 58.000000
1.764710 1.171466 0.096005 58.000000
1.766627 1.164946 0.095949 58.000000
1.768520 1.158425 0.095892 58.000000
1.770391 1.151903 0.095835 58.000000
1.773077 1.145923 0.095806 58.000000
1.776584 1.140478 0.095806 58.000000
1.777547 1.133410 0.095721 58.000000
1.781860 1.128486 0.095749 58.000000
1.784468 1.122481 0.095721 58.000000
1.785360 1.115412 0.095636 58.000000
1.786226 1.108348 0.095550 58.000000
1.787916 1.101813 0.095493 58.000000
1.788730 1.094757 0.095408 58.000000
1.791227 1.088745 0.095380 58.000000
1.791991 1.081694 0.095294 58.000000
1.792730 1.074649 0.095209 58.000000
1.796018 1.069144 0.095209 58.000000
1.799290 1.063629 0.095209 58.000000
1.802544 1.058104 0.095209 58.000000
1.806646 1.053072 0.095237 58.000000
1.809868 1.047524 0.095237 58.000000
1.813073 1.041967 0.095237 58.000000
1.815393 1.035904 0.095209 58.000000
1.820302 1.031315 0.095266 58.000000
1.823458 1.025726 0.095266 58.000000
1.826596 1.020127 0.095266 58.000000
1.827969 1.013548 0.095209 58.000000
1.830194 1.007453 0.095181 58.000000
1.831522 1.000874 0.095124 58.000000
1.832827 0.994297 0.095067 58.000000
1.834989 0.988195 0.095038 58.000000
1.832723 0.979732 0.094868 58.000000
1.838369 0.975511 0.094953 58.000000
1.841353 0.969867 0.094953 58.000000
1.844320 0.964213 0.094953 58.000000
1.844608 0.957168 0.094868 58.000000
1.851090 0.953336 0.094981 58.000000
1.853116 0.947197 0.094953 58.000000
1.854231 0.940603 0.094896 58.000000
1.856215 0.934460 0.094868 58.000000
1.859967 0.929208 0.094896 58.000000
1.860123 0.922165 0.094811 58.000000
1.859356 0.914688 0.094697 58.000000
1.862153 0.908979 0.094697 58.000000
1.864034 0.902826 0.094669 58.000000
1.865894 0.896670 0.094640 58.000000
1.868636 0.890941 0.094640 58.000000
1.873168 0.886059 0.094697 58.000000
1.875877 0.880308 0.094697 58.000000
1.878569 0.874549 0.094697 58.000000
1.881244 0.868782 0.094697 58.000000
1.884809 0.863422 0.094725 58.000000
1.886539 0.857222 0.094697 58.000000
1.889160 0.851430 0.094697 58.000000
1.891763 0.845630 0.094697 58.000000
1.894349 0.839822 0.094697 58.000000
1.896001 0.833604 0.094669 58.000000
1.896717 0.826984 0.094612 58.000000
1.899246 0.821161 0.094612 58.000000
1.903593 0.816119 0.094669 58.000000
1.899649 0.807536 0.094469 58.000000
1.872644 0.789275 0.093559 58.000000
1.875057 0.783526 0.093559 58.000000
4.505873 -1.881765 0.174684 58.000000
4.474284 -1.884717 0.173888 58.000000
4.470321 -1.899216 0.173945 58.000000
4.415455 -1.907978 0.172608 58.000000
4.386740 -1.943677 0.172267 58.000000
1.674831 1.389843 0.085212 59.000000
1.682942 1.387880 0.085325 59.000000
1.686419 1.382077 0.085302 59.000000
1.689102 1.375633 0.085257 59.000000
1.692537 1.369815 0.085234 59.000000
1.695953 1.363989 0.085212 59.000000
1.699349 1.358155 0.085189 59.000000
1.701160 1.351068 0.085121 59.000000
1.703729 1.344603 0.085076 59.000000
1.706273 1.338135 0.085030 59.000000
1.708006 1.331049 0.084962 59.000000
1.709711 1.323965 0.084894 59.000000
1.713765 1.318714 0.084894 59.000000
1.714627 1.311019 0.084803 59.000000
1.716254 1.303937 0.084735 59.000000
1.717853 1.296857 0.084667 59.000000
1.722623 1.292181 0.084690 59.000000
1.723375 1.284498 0.084599 59.000000
1.727307 1.279205 0.084599 59.000000
1.729614 1.272714 0.084554 59.000000
1.733510 1.267401 0.084554 59.000000
1.735773 1.260901 0.084508 59.000000
1.738823 1.254984 0.084486 59.000000
1.740229 1.247895 0.084418 59.000000
1.742422 1.241389 0.084372 59.000000
1.745406 1.235459 0.084350 59.000000
1.746736 1.228372 0.084282 59.000000
1.748039 1.221288 0.084213 59.000000
1.749314 1.214208 0.084145 59.000000
1.753031 1.208836 0.084145 59.000000
1.754258 1.201755 0.084077 59.000000
1.754632 1.194116 0.083987 59.000000
1.756631 1.187606 0.083941 59.000000
1.757778 1.180538 0.083873 59.000000
1.756403 1.171808 0.083737 59.000000
1.759157 1.165861 0.083714 59.000000
1.761056 1.159358 0.083669 59.000000
1.763768 1.153402 0.083646 59.000000
1.765622 1.146896 0.083601 59.000000
1.766613 1.139846 0.083533 59.000000
1.770944 1.134960 0.083556 59.000000
1.774417 1.129522 0.083556 59.000000
1.776185 1.123003 0.083510 59.000000
1.778775 1.117017 0.083487 59.000000
1.779650 1.109966 0.083419 59.000000
1.782197 1.103974 0.083397 59.000000
1.782171 1.096403 0.083306 59.000000
1.783821 1.089887 0.083261 59.000000
1.786302 1.083890 0.083238 59.000000
1.787051 1.076855 0.083170 59.000000
1.789488 1.070854 0.083147 59.000000
1.791906 1.064848 0.083124 59.000000
1.793443 1.058328 0.083079 59.000000
1.797544 1.053327 0.083102 59.000000
1.801631 1.048310 0.083124 59.000000
1.804839 1.042778 0.083124 59.000000
1.808029 1.037236 0.083124 59.000000
1.811203 1.031684 0.083124 59.000000
1.816969 1.027600 0.083193 59.000000
1.820113 1.022021 0.083193 59.000000
1.824986 1.017407 0.083238 59.000000
1.827225 1.011319 0.083215 59.000000
1.832070 1.006672 0.083261 59.000000
1.832518 0.999609 0.083193 59.000000
1.834697 0.993505 0.083170 59.000000
1.838617 0.988346 0.083193 59.000000
1.837232 0.980345 0.083079 59.000000
1.838464 0.973767 0.083034 59.000000
1.841443 0.968122 0.083034 59.000000
1.841747 0.961079 0.082966 59.000000
1.845574 0.955884 0.082988 59.000000
1.845831 0.948845 0.082920 59.000000
1.851404 0.944542 0.082988 59.000000
1.848943 0.936145 0.082852 59.000000
1.850914 0.930018 0.082830 59.000000
1.855547 0.925229 0.082875 59.000000
1.857481 0.919088 0.082852 59.000000
1.855806 0.911179 0.082739 59.000000
1.859492 0.905920 0.082761 59.000000
1.861362 0.899775 0.082739 59.000000
1.860509 0.892329 0.082648 59.000000
1.863238 0.886617 0.082648 59.000000
1.868661 0.882178 0.082716 59.000000
1.869548 0.875592 0.082671 59.000000
1.873132 0.870274 0.082693 59.000000
1.877609 0.865361 0.082739 59.000000
1.876619 0.857932 0.082648 59.000000
1.876511 0.850930 0.082580 59.000000
1.880936 0.845990 0.082625 59.000000
1.881697 0.839400 0.082580 59.000000
1.884264 0.833623 0.082580 59.000000
1.884982 0.827034 0.082535 59.000000
1.887510 0.821247 0.082535 59.000000
1.889103 0.815056 0.082512 59.000000
1.888838 0.808075 0.082444 59.000000
1.866464 0.791721 0.081831 59.000000
1.868885 0.785991 0.081831 59.000000
4.477052 -1.856513 0.145810 59.000000
4.388403 -1.899174 0.144335 59.000000
4.366601 -1.921637 0.144085 59.000000
4.356115 -1.932999 0.143972 59.000000
4.347427 -1.945130 0.143904 59.000000
4.323578 -1.966391 0.143609 59.000000
4.342973 -1.991307 0.144244 59.000000
1.671344 1.391316 0.071979 60.000000
1.677146 1.387456 0.072012 60.000000
1.682167 1.382939 0.072029 60.000000
1.684078 1.375875 0.071979 60.000000
1.688292 1.370701 0.071979 60.000000
1.690932 1.364261 0.071946 60.000000
1.693549 1.357816 0.071913 60.000000
1.696142 1.351369 0.071880 60.000000
1.700280 1.346159 0.071880 60.000000
1.702043 1.339083 0.071830 60.000000
1.703779 1.332008 0.071780 60.000000
1.707068 1.326162 0.071764 60.000000
1.710337 1.320308 0.071747 60.000000
1.713585 1.314446 0.071730 60.000000
1.714428 1.306760 0.071664 60.000000
1.714442 1.298478 0.071581 60.000000
1.716819 1.292011 0.071548 60.000000
1.722377 1.287934 0.071581 60.000000
1.726320 1.282644 0.071581 60.000000
1.730247 1.277342 0.071581 60.000000
1.731738 1.270254 0.071531 60.000000
1.734011 1.263759 0.071498 60.000000
1.737069 1.257847 0.071482 60.000000
1.737672 1.250178 0.071415 60.000000
1.738245 1.242517 0.071349 60.000000
1.741233 1.236599 0.071333 60.000000
1.745019 1.231252 0.071333 60.000000
1.745512 1.223598 0.071266 60.000000
1.745154 1.215382 0.071183 60.000000
1.748874 1.210023 0.071183 60.000000
1.750930 1.203520 0.071150 60.000000
1.751310 1.195889 0.071084 60.000000
1.752487 1.188828 0.071034 60.000000
1.755297 1.182887 0.071018 60.000000
1.755593 1.175273 0.070951 60.000000
1.758357 1.169328 0.070935 60.000000
1.759433 1.162276 0.070885 60.000000
1.762154 1.156325 0.070868 60.000000
1.764017 1.149822 0.070835 60.000000
1.767537 1.144405 0.070835 60.000000
1.771039 1.138977 0.070835 60.000000
1.773682 1.133000 0.070819 60.000000
1.775461 1.126483 0.070785 60.000000
1.778909 1.121031 0.070785 60.000000
1.780644 1.114508 0.070752 60.000000
1.783205 1.108512 0.070736 60.000000
1.783193 1.100937 0.070669 60.000000
1.784005 1.093894 0.070620 60.000000
1.785644 1.087377 0.070586 60.000000
1.786404 1.080343 0.070537 60.000000
1.787138 1.073314 0.070487 60.000000
1.789563 1.067314 0.070470 60.000000
1.791108 1.060801 0.070437 60.000000
1.796078 1.056314 0.070470 60.000000
1.800174 1.051302 0.070487 60.000000
1.804256 1.046275 0.070504 60.000000
1.808324 1.041234 0.070520 60.000000
1.811510 1.035681 0.070520 60.000000
1.819898 1.033077 0.070620 60.000000
1.822188 1.026998 0.070603 60.000000
1.826203 1.021891 0.070620 60.000000
1.828455 1.015798 0.070603 60.000000
1.830687 1.009701 0.070586 60.000000
1.833776 1.004080 0.070586 60.000000
1.831576 0.995588 0.070487 60.000000
1.834621 0.989964 0.070487 60.000000
1.835005 0.982916 0.070437 60.000000
1.834479 0.975406 0.070371 60.000000
1.838348 0.970239 0.070387 60.000000
1.838658 0.963204 0.070338 60.000000
1.838942 0.956176 0.070288 60.000000
1.842756 0.950988 0.070305 60.000000
1.843884 0.944420 0.070271 60.000000
1.845882 0.938305 0.070255 60.000000
1.853217 0.934887 0.070338 60.000000
1.853393 0.927856 0.070288 60.000000
1.858918 0.923499 0.070338 60.000000
1.853669 0.913817 0.070189 60.000000
1.860057 0.909881 0.070255 60.000000
1.859241 0.902426 0.070189 60.000000
1.860199 0.895851 0.070155 60.000000
1.864743 0.891000 0.070189 60.000000
1.869276 0.886131 0.070222 60.000000
1.863840 0.876567 0.070072 60.000000
1.870146 0.872533 0.070139 60.000000
1.872814 0.866792 0.070139 60.000000
1.876373 0.861459 0.070155 60.000000
1.872636 0.852801 0.070039 60.000000
1.880712 0.849518 0.070139 60.000000
1.880572 0.842519 0.070089 60.000000
1.880406 0.835529 0.070039 60.000000
1.884791 0.830562 0.070072 60.000000
1.885497 0.823976 0.070039 60.000000
1.889851 0.818981 0.070072 60.000000
1.891436 0.812785 0.070056 60.000000
1.876440 0.799542 0.069741 60.000000
1.878884 0.793781 0.069741 60.000000
4.370565 -1.886444 0.114855 60.000000
4.315410 -1.973622 0.114606 60.000000
4.325676 -1.994391 0.114904 60.000000
1.665513 1.401728 0.059189 61.000000
1.673641 1.399819 0.059242 61.000000
1.678697 1.395316 0.059253 61.000000
1.680657 1.388250 0.059221 61.000000
1.682589 1.381184 0.059189 61.000000
1.685269 1.374751 0.059167 61.000000
1.687148 1.367686 0.059136 61.000000
1.688999 1.360622 0.059104 61.000000
1.693166 1.355434 0.059104 61.000000
1.695751 1.348988 0.059082 61.000000
1.698312 1.342539 0.059061 61.000000
1.700850 1.336088 0.059040 61.000000
1.704941 1.330863 0.059040 61.000000
1.706646 1.323788 0.059008 61.000000
1.711491 1.319156 0.059018 61.000000
1.717118 1.315115 0.059040 61.000000
1.718757 1.308024 0.059008 61.000000
1.725155 1.304554 0.059040 61.000000
1.725951 1.296853 0.058997 61.000000
1.729120 1.290954 0.058986 61.000000
1.730663 1.283856 0.058955 61.000000
1.732984 1.277354 0.058933 61.000000
1.733667 1.269669 0.058891 61.000000
1.735937 1.263168 0.058869 61.000000
1.737373 1.256079 0.058837 61.000000
1.737969 1.248410 0.058795 61.000000
1.738535 1.240749 0.058752 61.000000
1.742334 1.235409 0.058752 61.000000
1.745298 1.229482 0.058742 61.000000
1.747423 1.222976 0.058720 61.000000
1.746240 1.214185 0.058656 61.000000
1.749957 1.208822 0.058656 61.000000
1.752008 1.202316 0.058635 61.000000
1.753210 1.195246 0.058603 61.000000
1.756041 1.189301 0.058593 61.000000
1.757192 1.182234 0.058561 61.000000
1.759979 1.176282 0.058550 61.000000
1.759414 1.168112 0.058497 61.000000
1.762154 1.162158 0.058486 61.000000
1.764038 1.155651 0.058465 61.000000
1.765061 1.148598 0.058433 61.000000
1.767737 1.142635 0.058422 61.000000
1.771234 1.137206 0.058422 61.000000
1.774714 1.131766 0.058422 61.000000
1.778178 1.126316 0.058422 61.000000
1.779932 1.119791 0.058401 61.000000
1.781663 1.113266 0.058380 61.000000
1.783371 1.106740 0.058358 61.000000
1.785055 1.100214 0.058337 61.000000
1.785864 1.093167 0.058305 61.000000
1.786645 1.086125 0.058273 61.000000
1.787401 1.079089 0.058241 61.000000
1.790703 1.073600 0.058241 61.000000
1.793988 1.068101 0.058241 61.000000
1.795535 1.061575 0.058220 61.000000
1.797921 1.055555 0.058209 61.000000
1.801151 1.050034 0.058209 61.000000
1.804364 1.044503 0.058209 61.000000
1.805826 1.037966 0.058188 61.000000
1.811607 1.033908 0.058220 61.000000
1.808680 1.024895 0.058145 61.000000
1.817046 1.022282 0.058209 61.000000
1.817554 1.015241 0.058177 61.000000
1.824159 1.011599 0.058220 61.000000
1.826378 1.005515 0.058209 61.000000
1.828576 0.999428 0.058199 61.000000
1.829876 0.992860 0.058177 61.000000
1.833794 0.987715 0.058188 61.000000
1.831524 0.979257 0.058124 61.000000
1.833636 0.973165 0.058113 61.000000
1.836613 0.967534 0.058113 61.000000
1.839573 0.961895 0.058113 61.000000
1.844291 0.957168 0.058135 61.000000
1.846330 0.951047 0.058124 61.000000
1.848348 0.944924 0.058113 61.000000
1.848563 0.937892 0.058082 61.000000
1.850538 0.931766 0.058071 61.000000
1.854283 0.926531 0.058082 61.000000
1.857117 0.920838 0.058082 61.000000
1.856344 0.913371 0.058039 61.000000
1.860036 0.908110 0.058050 61.000000
1.860113 0.901092 0.058018 61.000000
1.861968 0.894948 0.058007 61.000000
1.864705 0.889232 0.058007 61.000000
1.869232 0.884361 0.058028 61.000000
1.871031 0.878198 0.058018 61.000000
1.872810 0.872032 0.058007 61.000000
1.879108 0.867958 0.058050 61.000000
1.877216 0.860107 0.057996 61.000000
1.882577 0.855585 0.058028 61.000000
1.883370 0.848984 0.058007 61.000000
1.888705 0.844425 0.058039 61.000000
1.883973 0.835386 0.057954 61.000000
1.892020 0.832016 0.058018 61.000000
1.887230 0.823011 0.057932 61.000000
1.877814 0.812060 0.057794 61.000000
1.896840 0.813385 0.057986 61.000000
1.899326 0.807562 0.057986 61.000000
4.399275 -1.901732 0.087039 61.000000
4.382421 -1.910424 0.086912 61.000000
4.371963 -1.921847 0.086858 61.000000
4.332210 -1.952143 0.086603 61.000000
4.313456 -1.959634 0.086454 61.000000
4.311968 -1.974940 0.086507 61.000000
4.308613 -1.989418 0.086539 61.000000
1.671523 1.414923 0.045287 62.000000
1.666675 1.402061 0.045237 62.000000
1.670968 1.396941 0.045237 62.000000
1.674477 1.391169 0.045233 62.000000
1.676424 1.384115 0.045220 62.000000
1.680663 1.378965 0.045220 62.000000
1.683336 1.372538 0.045212 62.000000
1.685208 1.365479 0.045199 62.000000
1.687053 1.358420 0.045187 62.000000
1.691213 1.353238 0.045187 62.000000
1.693791 1.346798 0.045178 62.000000
1.697131 1.340975 0.045174 62.000000
1.698878 1.333909 0.045162 62.000000
1.701385 1.327460 0.045153 62.000000
1.703870 1.321008 0.045145 62.000000
1.707122 1.315164 0.045141 62.000000
1.710355 1.309313 0.045136 62.000000
1.714364 1.304059 0.045136 62.000000
1.717559 1.298190 0.045132 62.000000
1.719935 1.291713 0.045124 62.000000
1.720684 1.284038 0.045107 62.000000
1.723009 1.277561 0.045099 62.000000
1.725311 1.271083 0.045090 62.000000
1.725975 1.263420 0.045074 62.000000
1.724991 1.254589 0.045048 62.000000
1.728022 1.248705 0.045044 62.000000
1.730220 1.242231 0.045036 62.000000
1.731581 1.235175 0.045023 62.000000
1.734547 1.229278 0.045019 62.000000
1.746485 1.229709 0.045061 62.000000
1.738780 1.216318 0.045002 62.000000
1.741682 1.210407 0.044998 62.000000
1.745387 1.205058 0.044998 62.000000
1.746603 1.198000 0.044986 62.000000
1.748617 1.191510 0.044977 62.000000
1.751436 1.185579 0.044973 62.000000
1.755066 1.180200 0.044973 62.000000
1.756184 1.173143 0.044960 62.000000
1.756442 1.165537 0.044944 62.000000
1.755836 1.157391 0.044923 62.000000
1.757705 1.150903 0.044914 62.000000
1.760390 1.144959 0.044910 62.000000
1.761375 1.137925 0.044898 62.000000
1.764857 1.132515 0.044898 62.000000
1.767480 1.126558 0.044893 62.000000
1.769239 1.120060 0.044885 62.000000
1.772667 1.114627 0.044885 62.000000
1.768445 1.104414 0.044847 62.000000
1.779472 1.103729 0.044885 62.000000
1.780296 1.096690 0.044873 62.000000
1.781094 1.089657 0.044860 62.000000
1.781865 1.082630 0.044847 62.000000
1.785178 1.077158 0.044847 62.000000
1.787617 1.071162 0.044843 62.000000
1.788317 1.064138 0.044831 62.000000
1.790712 1.058137 0.044826 62.000000
1.793950 1.052639 0.044826 62.000000
1.793715 1.045116 0.044810 62.000000
1.796913 1.039608 0.044810 62.000000
1.798360 1.033093 0.044801 62.000000
1.799784 1.026580 0.044793 62.000000
1.801185 1.020067 0.044785 62.000000
1.806049 1.015517 0.044793 62.000000
1.807410 1.008996 0.044785 62.000000
1.809623 1.002962 0.044780 62.000000
1.811815 0.996923 0.044776 62.000000
1.820130 0.994237 0.044801 62.000000
1.816140 0.984833 0.044768 62.000000
1.820914 0.980205 0.044776 62.000000
1.823031 0.974143 0.044772 62.000000
1.825127 0.968076 0.044768 62.000000
1.828974 0.962938 0.044772 62.000000
1.831919 0.957323 0.044772 62.000000
1.833960 0.951237 0.044768 62.000000
1.836870 0.945606 0.044768 62.000000
1.837981 0.939056 0.044759 62.000000
1.838178 0.932056 0.044747 62.000000
1.843709 0.927761 0.044759 62.000000
1.843863 0.920759 0.044747 62.000000
1.845783 0.914654 0.044743 62.000000
1.847683 0.908545 0.044738 62.000000
1.853158 0.904188 0.044751 62.000000
1.852323 0.896755 0.044734 62.000000
1.855967 0.891501 0.044738 62.000000
1.859596 0.886233 0.044743 62.000000
1.863210 0.880952 0.044747 62.000000
1.864093 0.874382 0.044738 62.000000
1.866767 0.868659 0.044738 62.000000
1.868516 0.862508 0.044734 62.000000
1.872062 0.857188 0.044738 62.000000
1.875594 0.851854 0.044743 62.000000
1.877286 0.845685 0.044738 62.000000
1.878959 0.839514 0.044734 62.000000
1.878783 0.832529 0.044722 62.000000
1.886821 0.829176 0.044747 62.000000
1.872857 0.816189 0.044671 62.000000
1.887284 0.815599 0.044726 62.000000
1.890697 0.810199 0.044730 62.000000
4.556723 -1.871171 0.056748 62.000000
4.507325 -1.883291 0.056576 62.000000
4.406159 -1.888849 0.056195 62.000000
4.403097 -1.903548 0.056207 62.000000
4.388987 -1.913451 0.056170 62.000000
4.384926 -1.927712 0.056178 62.000000
4.345626 -1.942342 0.056052 62.000000
4.329618 -1.951146 0.056006 62.000000
4.319969 -1.962766 0.055990 62.000000
4.325747 -1.981423 0.056044 62.000000
4.319647 -1.994685 0.056044 62.000000
1.660619 1.404551 0.031658 63.000000
1.664156 1.398805 0.031660 63.000000
1.667672 1.393052 0.031662 63.000000
1.671938 1.387929 0.031662 63.000000
1.675417 1.382156 0.031664 63.000000
1.678877 1.376375 0.031666 63.000000
1.681542 1.369954 0.031670 63.000000
1.684960 1.364159 0.031672 63.000000
1.687580 1.357729 0.031677 63.000000
1.690176 1.351295 0.031681 63.000000
1.692748 1.344858 0.031685 63.000000
1.696082 1.339039 0.031687 63.000000
1.697036 1.331358 0.031695 63.000000
1.699536 1.324915 0.031700 63.000000
1.701222 1.317856 0.031706 63.000000
1.706049 1.313241 0.031704 63.000000
1.707688 1.306177 0.031710 63.000000
1.710096 1.299721 0.031714 63.000000
1.713278 1.293865 0.031716 63.000000
1.715640 1.287401 0.031721 63.000000
1.715575 1.279141 0.031731 63.000000
1.716278 1.271489 0.031739 63.000000
1.719366 1.265624 0.031742 63.000000
1.718400 1.256798 0.031754 63.000000
1.720630 1.250344 0.031758 63.000000
1.722837 1.243888 0.031763 63.000000
1.723396 1.236263 0.031771 63.000000
1.724739 1.229227 0.031777 63.000000
1.726055 1.222195 0.031783 63.000000
1.732249 1.218621 0.031777 63.000000
1.733521 1.211581 0.031783 63.000000
1.737230 1.206257 0.031783 63.000000
1.739277 1.199785 0.031788 63.000000
1.743775 1.195009 0.031786 63.000000
1.745780 1.188527 0.031790 63.000000
1.748590 1.182605 0.031792 63.000000
1.749721 1.175560 0.031798 63.000000
1.754151 1.170742 0.031796 63.000000
1.753568 1.162590 0.031806 63.000000
1.755457 1.156104 0.031811 63.000000
1.755650 1.148521 0.031819 63.000000
1.758327 1.142584 0.031821 63.000000
1.759304 1.135556 0.031827 63.000000
1.759414 1.127992 0.031836 63.000000
1.763709 1.123127 0.031834 63.000000
1.762078 1.114501 0.031846 63.000000
1.766335 1.109622 0.031844 63.000000
1.770579 1.104727 0.031842 63.000000
1.775659 1.100344 0.031838 63.000000
1.776473 1.093318 0.031844 63.000000
1.780672 1.088385 0.031842 63.000000
1.783148 1.082397 0.031844 63.000000
1.788172 1.077955 0.031840 63.000000
1.787183 1.069893 0.031850 63.000000
1.789597 1.063893 0.031853 63.000000
1.791992 1.057889 0.031855 63.000000
1.791780 1.050362 0.031863 63.000000
1.791538 1.042845 0.031871 63.000000
1.794729 1.037344 0.031871 63.000000
1.795302 1.030338 0.031878 63.000000
1.797586 1.024330 0.031880 63.000000
1.798980 1.017824 0.031884 63.000000
1.802965 1.012791 0.031882 63.000000
1.804318 1.006279 0.031886 63.000000
1.805648 0.999769 0.031890 63.000000
1.808706 0.994225 0.031890 63.000000
1.811748 0.988671 0.031890 63.000000
1.814773 0.983108 0.031890 63.000000
1.820422 0.978958 0.031884 63.000000
1.823417 0.973369 0.031884 63.000000
1.826394 0.967770 0.031884 63.000000
1.825816 0.960298 0.031892 63.000000
1.829639 0.955155 0.031890 63.000000
1.831674 0.949077 0.031892 63.000000
1.832798 0.942537 0.031897 63.000000
1.833901 0.936000 0.031901 63.000000
1.834980 0.929464 0.031905 63.000000
1.839609 0.924730 0.031901 63.000000
1.832597 0.914166 0.031924 63.000000
1.844353 0.912980 0.031903 63.000000
1.845351 0.906435 0.031907 63.000000
1.849920 0.901647 0.031903 63.000000
1.851778 0.895531 0.031905 63.000000
1.854516 0.889846 0.031905 63.000000
1.857238 0.884152 0.031905 63.000000
1.859941 0.878450 0.031905 63.000000
1.861722 0.872315 0.031907 63.000000
1.863483 0.866177 0.031909 63.000000
1.863408 0.859198 0.031915 63.000000
1.866035 0.853477 0.031915 63.000000
1.868645 0.847748 0.031915 63.000000
1.873060 0.842833 0.031911 63.000000
1.872899 0.835858 0.031918 63.000000
1.875454 0.830108 0.031918 63.000000
1.869753 0.820729 0.031936 63.000000
1.878679 0.817786 0.031922 63.000000
1.892194 0.816780 0.031897 63.000000
4.533023 -1.878783 0.025936 63.000000
4.479941 -1.889087 0.026030 63.000000
4.427824 -1.899205 0.026122 63.000000
4.419223 -1.911590 0.026129 63.000000
4.374837 -1.908356 0.026217 63.000000
4.361638 -1.918549 0.026233 63.000000
4.353903 -1.931111 0.026238 63.000000
4.331944 -1.953271 0.026261 63.000000
4.325930 -1.966552 0.026261 63.000000
4.330787 -1.984811 0.026235 63.000000
1.643391 1.401570 0.019340 64.000000
1.654551 1.402337 0.019269 64.000000
1.659611 1.397898 0.019261 64.000000
1.664659 1.393441 0.019253 64.000000
1.668157 1.387688 0.019261 64.000000
1.672407 1.382564 0.019261 64.000000
1.675867 1.376792 0.019269 64.000000
1.679309 1.371012 0.019277 64.000000
1.683507 1.365854 0.019277 64.000000
1.686910 1.360055 0.019285 64.000000
1.685610 1.350500 0.019340 64.000000
1.692093 1.347189 0.019316 64.000000
1.693865 1.340132 0.019340 64.000000
1.696395 1.333693 0.019355 64.000000
1.699691 1.327867 0.019363 64.000000
1.701386 1.320808 0.019387 64.000000
1.703846 1.314362 0.019403 64.000000
1.706282 1.307912 0.019418 64.000000
1.705512 1.299038 0.019465 64.000000
1.707894 1.292594 0.019481 64.000000
1.709453 1.285546 0.019505 64.000000
1.710184 1.277903 0.019536 64.000000
1.712490 1.271459 0.019552 64.000000
1.713967 1.264420 0.019575 64.000000
1.713804 1.256202 0.019615 64.000000
1.716033 1.249761 0.019630 64.000000
1.719859 1.244491 0.019630 64.000000
1.722044 1.238042 0.019646 64.000000
1.724207 1.231591 0.019662 64.000000
1.724714 1.223983 0.019693 64.000000
1.728461 1.218686 0.019693 64.000000
1.731372 1.212804 0.019701 64.000000
1.737548 1.209198 0.019677 64.000000
1.739604 1.202726 0.019693 64.000000
1.743286 1.197383 0.019693 64.000000
1.741993 1.188650 0.019740 64.000000
1.746460 1.183861 0.019732 64.000000
1.746765 1.176265 0.019764 64.000000
1.750365 1.170900 0.019764 64.000000
1.751450 1.163866 0.019787 64.000000
1.755012 1.158487 0.019787 64.000000
1.756048 1.151453 0.019811 64.000000
1.758735 1.145515 0.019819 64.000000
1.759721 1.138486 0.019842 64.000000
1.761523 1.132002 0.019858 64.000000
1.762458 1.124979 0.019882 64.000000
1.764211 1.118497 0.019897 64.000000
1.766788 1.112547 0.019905 64.000000
1.770193 1.107121 0.019905 64.000000
1.774431 1.102212 0.019897 64.000000
1.776953 1.096239 0.019905 64.000000
1.780307 1.090782 0.019905 64.000000
1.784500 1.085834 0.019897 64.000000
1.789535 1.081388 0.019882 64.000000
1.788556 1.073322 0.019921 64.000000
1.790122 1.066807 0.019937 64.000000
1.791664 1.060292 0.019952 64.000000
1.792322 1.053272 0.019976 64.000000
1.792089 1.045754 0.020007 64.000000
1.798751 1.042255 0.019976 64.000000
1.795004 1.032746 0.020039 64.000000
1.799032 1.027730 0.020031 64.000000
1.800437 1.021220 0.020047 64.000000
1.807048 1.017652 0.020015 64.000000
1.809288 1.011616 0.020023 64.000000
1.809759 1.004606 0.020047 64.000000
1.812833 0.999049 0.020047 64.000000
1.812379 0.991564 0.020078 64.000000
1.816292 0.986476 0.020070 64.000000
1.821071 0.981847 0.020054 64.000000
1.822311 0.975313 0.020070 64.000000
1.825294 0.969718 0.020070 64.000000
1.825606 0.962715 0.020094 64.000000
1.828551 0.957110 0.020094 64.000000
1.828816 0.950114 0.020117 64.000000
1.829056 0.943125 0.020141 64.000000
1.830160 0.936599 0.020157 64.000000
1.833024 0.930980 0.020157 64.000000
1.834979 0.924903 0.020164 64.000000
1.837808 0.919269 0.020164 64.000000
1.844203 0.915402 0.020133 64.000000
1.845208 0.908857 0.020149 64.000000
1.847988 0.903192 0.020149 64.000000
1.848950 0.896647 0.020164 64.000000
1.855298 0.892702 0.020133 64.000000
1.853514 0.884855 0.020172 64.000000
1.854412 0.878309 0.020188 64.000000
1.858003 0.873040 0.020180 64.000000
1.860673 0.867336 0.020180 64.000000
1.859694 0.859947 0.020211 64.000000
1.863233 0.854653 0.020204 64.000000
1.863115 0.847692 0.020227 64.000000
1.863883 0.841151 0.020243 64.000000
1.864629 0.834612 0.020259 64.000000
1.868095 0.829293 0.020251 64.000000
1.894432 0.834020 0.020047 64.000000
1.907982 0.833000 0.019952 64.000000
1.880238 0.814048 0.020211 64.000000
1.977864 0.806281 0.019528 64.000000
4.517774 -1.886437 -0.002149 64.000000
4.408005 -1.904435 -0.001410 64.000000
4.388391 -1.911955 -0.001292 64.000000
4.382505 -1.925409 -0.001292 64.000000
4.336337 -1.952927 -0.001049 64.000000
1.641350 1.408392 0.005451 65.000000
1.651751 1.408539 0.005337 65.000000
1.659879 1.406696 0.005265 65.000000
1.662657 1.400309 0.005294 65.000000
1.666945 1.395202 0.005294 65.000000
1.668911 1.388163 0.005337 65.000000
1.671621 1.381763 0.005365 65.000000
1.675852 1.376628 0.005365 65.000000
1.677743 1.369583 0.005408 65.000000
1.681937 1.364430 0.005408 65.000000
1.685337 1.358636 0.005422 65.000000
1.686375 1.350959 0.005480 65.000000
1.689730 1.345156 0.005494 65.000000
1.692280 1.338725 0.005523 65.000000
1.695593 1.332909 0.005537 65.000000
1.698886 1.327086 0.005551 65.000000
1.701370 1.320641 0.005580 65.000000
1.703830 1.314194 0.005608 65.000000
1.705472 1.307137 0.005651 65.000000
1.708679 1.301293 0.005666 65.000000
1.710271 1.294235 0.005709 65.000000
1.712635 1.287780 0.005737 65.000000
1.714976 1.281323 0.005766 65.000000
1.717293 1.274864 0.005795 65.000000
1.717977 1.267215 0.005852 65.000000
1.719437 1.260166 0.005895 65.000000
1.722486 1.254296 0.005909 65.000000
1.726326 1.249006 0.005909 65.000000
1.726902 1.241370 0.005966 65.000000
1.728261 1.234323 0.006009 65.000000
1.732040 1.229015 0.006009 65.000000
