# This PCD file was generated using the MATLAB® pcwrite function
# from Computer Vision Toolbox®.
# .PCD v.7 - Point Cloud Data file format
VERSION .7
FIELDS x y z intensity
SIZE 4 4 4 4
TYPE F F F F
COUNT 1 1 1 1
WIDTH 1272
HEIGHT 1
VIEWPOINT 0 0 0 1 0 0 0
POINTS 1272
DATA ascii
2.304420 -0.027643 0.116506 57.000000
2.305324 -0.034728 0.116541 57.000000
2.305207 -0.041801 0.116541 57.000000
2.260106 -0.047912 0.114963 57.000000
2.250863 0.578684 0.101865 58.000000
2.249721 0.571037 0.101780 58.000000
2.247584 0.563160 0.101666 58.000000
2.247361 0.555782 0.101609 58.000000
2.249055 0.548884 0.101609 58.000000
2.247813 0.541279 0.101524 58.000000
2.250436 0.534611 0.101552 58.000000
2.251092 0.527476 0.101524 58.000000
2.253674 0.520793 0.101552 58.000000
2.252337 0.513210 0.101467 58.000000
2.255852 0.506736 0.101524 58.000000
2.256420 0.499596 0.101495 58.000000
2.258919 0.492884 0.101524 58.000000
2.255534 0.484901 0.101382 58.000000
2.256033 0.477771 0.101353 58.000000
2.254553 0.470235 0.101268 58.000000
2.254026 0.462913 0.101211 58.000000
2.254456 0.455797 0.101182 58.000000
2.254864 0.448683 0.101154 58.000000
2.257210 0.441956 0.101182 58.000000
2.255611 0.434461 0.101097 58.000000
2.256933 0.427539 0.101097 58.000000
2.259217 0.420796 0.101126 58.000000
2.262464 0.414223 0.101182 58.000000
2.260773 0.406748 0.101097 58.000000
2.261026 0.399636 0.101069 58.000000
2.262241 0.392698 0.101069 58.000000
2.259494 0.385083 0.100955 58.000000
2.259679 0.377984 0.100926 58.000000
2.257869 0.370564 0.100841 58.000000
2.260969 0.363953 0.100898 58.000000
2.260100 0.356703 0.100841 58.000000
2.260196 0.349614 0.100813 58.000000
2.262246 0.342828 0.100841 58.000000
2.264276 0.336033 0.100870 58.000000
2.264307 0.328941 0.100841 58.000000
2.265306 0.321992 0.100841 58.000000
2.265293 0.314903 0.100813 58.000000
2.267239 0.308087 0.100841 58.000000
2.268173 0.301130 0.100841 58.000000
2.269086 0.294169 0.100841 58.000000
2.269978 0.287207 0.100841 58.000000
2.271841 0.280364 0.100870 58.000000
2.270705 0.273153 0.100813 58.000000
2.271533 0.266186 0.100813 58.000000
2.272339 0.259215 0.100813 58.000000
2.276104 0.252574 0.100898 58.000000
2.273886 0.245268 0.100813 58.000000
2.275622 0.238395 0.100841 58.000000
2.274354 0.231210 0.100784 58.000000
2.275053 0.224231 0.100784 58.000000
2.276725 0.217345 0.100813 58.000000
2.275390 0.210175 0.100756 58.000000
2.276025 0.203193 0.100756 58.000000
2.276637 0.196210 0.100756 58.000000
2.276232 0.189141 0.100727 58.000000
2.277798 0.182237 0.100756 58.000000
2.278347 0.175248 0.100756 58.000000
2.280867 0.168404 0.100813 58.000000
2.282370 0.161477 0.100841 58.000000
2.284850 0.154609 0.100898 58.000000
2.283318 0.147469 0.100841 58.000000
2.285755 0.140587 0.100898 58.000000
2.285178 0.133515 0.100870 58.000000
2.285577 0.126503 0.100870 58.000000
2.285954 0.119491 0.100870 58.000000
2.285311 0.112428 0.100841 58.000000
2.285646 0.105416 0.100841 58.000000
2.287956 0.098490 0.100898 58.000000
2.289246 0.091510 0.100926 58.000000
2.291514 0.084560 0.100983 58.000000
2.293760 0.077597 0.101040 58.000000
2.295986 0.070622 0.101097 58.000000
2.295192 0.063550 0.101069 58.000000
2.295377 0.056508 0.101069 58.000000
2.297538 0.049509 0.101126 58.000000
2.293681 0.042385 0.101012 58.000000
2.290802 0.035301 0.100926 58.000000
2.290900 0.028273 0.100926 58.000000
2.292975 0.021263 0.100983 58.000000
2.293029 0.014229 0.100983 58.000000
2.294062 0.007197 0.101012 58.000000
2.295073 0.000159 0.101040 58.000000
2.296062 -0.006885 0.101069 58.000000
2.297029 -0.013935 0.101097 58.000000
2.296976 -0.020982 0.101097 58.000000
2.299899 -0.028065 0.101182 58.000000
2.300802 -0.035136 0.101211 58.000000
2.291688 -0.042031 0.100955 58.000000
4.442226 -1.855190 0.172722 58.000000
4.424538 -1.863766 0.172352 58.000000
4.401992 -1.886156 0.172011 58.000000
4.407197 -1.904410 0.172352 58.000000
4.427909 -1.929500 0.173177 58.000000
4.408241 -1.937045 0.172750 58.000000
4.407761 -1.952989 0.172921 58.000000
4.461073 -1.993001 0.174770 58.000000
2.244955 0.582777 0.088456 59.000000
2.242859 0.574892 0.088365 59.000000
2.241705 0.567271 0.088297 59.000000
2.241495 0.559905 0.088252 59.000000
2.240291 0.552307 0.088184 59.000000
2.242946 0.545668 0.088206 59.000000
2.238777 0.537381 0.088070 59.000000
2.242361 0.530972 0.088116 59.000000
2.245926 0.524545 0.088161 59.000000
2.246551 0.517428 0.088138 59.000000
2.246178 0.510089 0.088093 59.000000
2.251635 0.504071 0.088184 59.000000
2.251218 0.496729 0.088138 59.000000
2.250778 0.489394 0.088093 59.000000
2.252269 0.482487 0.088093 59.000000
2.252760 0.475368 0.088070 59.000000
2.251272 0.467842 0.088002 59.000000
2.250738 0.460531 0.087957 59.000000
2.251160 0.453426 0.087934 59.000000
2.252541 0.446518 0.087934 59.000000
2.254881 0.439797 0.087957 59.000000
2.253275 0.432310 0.087889 59.000000
2.254590 0.425395 0.087889 59.000000
2.255885 0.418476 0.087889 59.000000
2.254208 0.411014 0.087821 59.000000
2.253490 0.403742 0.087775 59.000000
2.251765 0.396305 0.087707 59.000000
2.250015 0.388883 0.087639 59.000000
2.248240 0.381475 0.087571 59.000000
2.247428 0.374246 0.087526 59.000000
2.248566 0.367349 0.087526 59.000000
2.248695 0.360291 0.087503 59.000000
2.249790 0.353390 0.087503 59.000000
2.253828 0.346944 0.087571 59.000000
2.255870 0.340177 0.087594 59.000000
2.255914 0.333108 0.087571 59.000000
2.258904 0.326472 0.087617 59.000000
2.259895 0.319541 0.087617 59.000000
2.260865 0.312606 0.087617 59.000000
2.262804 0.305803 0.087639 59.000000
2.265713 0.299122 0.087685 59.000000
2.263646 0.291784 0.087617 59.000000
2.263539 0.284713 0.087594 59.000000
2.261425 0.277400 0.087526 59.000000
2.262265 0.270461 0.087526 59.000000
2.264077 0.263635 0.087549 59.000000
2.262889 0.256462 0.087503 59.000000
2.262671 0.249408 0.087480 59.000000
2.265414 0.242679 0.087526 59.000000
2.267142 0.235832 0.087549 59.000000
2.269844 0.229077 0.087594 59.000000
2.273521 0.222406 0.087662 59.000000
2.272202 0.215240 0.087617 59.000000
2.272852 0.208268 0.087617 59.000000
2.273480 0.201294 0.087617 59.000000
2.274087 0.194318 0.087617 59.000000
2.273676 0.187258 0.087594 59.000000
2.273243 0.180202 0.087571 59.000000
2.272789 0.173150 0.087549 59.000000
2.273309 0.166177 0.087549 59.000000
2.276800 0.159413 0.087617 59.000000
2.277279 0.152427 0.087617 59.000000
2.277735 0.145439 0.087617 59.000000
2.280167 0.138573 0.087662 59.000000
2.281579 0.131635 0.087685 59.000000
2.280974 0.124580 0.087662 59.000000
2.282344 0.117633 0.087685 59.000000
2.282694 0.110630 0.087685 59.000000
2.281025 0.103535 0.087639 59.000000
2.283330 0.096622 0.087685 59.000000
2.283616 0.089616 0.087685 59.000000
2.285878 0.082683 0.087730 59.000000
2.287120 0.075703 0.087753 59.000000
2.287342 0.068686 0.087753 59.000000
2.287541 0.061668 0.087753 59.000000
2.285721 0.054601 0.087707 59.000000
2.286877 0.047610 0.087730 59.000000
2.287013 0.040594 0.087730 59.000000
2.285127 0.033547 0.087685 59.000000
2.285219 0.026536 0.087685 59.000000
2.286290 0.019534 0.087707 59.000000
2.285339 0.012513 0.087685 59.000000
2.284367 0.005499 0.087662 59.000000
2.285373 -0.001509 0.087685 59.000000
2.291356 -0.008540 0.087821 59.000000
2.286320 -0.015538 0.087707 59.000000
2.287261 -0.022562 0.087730 59.000000
2.290180 -0.029616 0.087798 59.000000
2.273085 -0.036379 0.087412 59.000000
4.435361 -1.855203 0.144925 59.000000
4.405235 -1.890430 0.144607 59.000000
4.408591 -1.907904 0.144834 59.000000
4.412359 -1.941761 0.145220 59.000000
4.411864 -1.957720 0.145356 59.000000
4.413138 -1.974511 0.145537 59.000000
4.421643 -1.994615 0.145900 59.000000
2.239520 0.584906 0.074300 60.000000
2.238399 0.577285 0.074251 60.000000
2.241129 0.570661 0.074267 60.000000
2.239960 0.563053 0.074217 60.000000
2.235853 0.554737 0.074118 60.000000
2.234631 0.547163 0.074068 60.000000
2.241159 0.541476 0.074151 60.000000
2.242810 0.534598 0.074151 60.000000
2.242492 0.527258 0.074118 60.000000
2.246048 0.520826 0.074151 60.000000
2.246660 0.513710 0.074135 60.000000
2.248226 0.506815 0.074135 60.000000
2.248794 0.499699 0.074118 60.000000
2.250316 0.492798 0.074118 60.000000
2.250840 0.485681 0.074101 60.000000
2.250363 0.478358 0.074068 60.000000
2.248884 0.470839 0.074018 60.000000
2.248359 0.463534 0.073985 60.000000
2.250751 0.456833 0.074002 60.000000
2.252142 0.449925 0.074002 60.000000
2.251549 0.442629 0.073969 60.000000
2.251915 0.435530 0.073952 60.000000
2.253240 0.428619 0.073952 60.000000
2.252579 0.421338 0.073919 60.000000
2.251894 0.414064 0.073886 60.000000
2.248234 0.406267 0.073803 60.000000
2.249469 0.399368 0.073803 60.000000
2.246744 0.391779 0.073737 60.000000
2.246949 0.384716 0.073720 60.000000
2.246147 0.377491 0.073687 60.000000
2.248281 0.370760 0.073703 60.000000
2.247434 0.363542 0.073670 60.000000
2.249526 0.356802 0.073687 60.000000
2.253574 0.350358 0.073737 60.000000
2.250684 0.342842 0.073670 60.000000
2.257660 0.336818 0.073770 60.000000
2.261651 0.330322 0.073820 60.000000
2.262654 0.323381 0.073820 60.000000
2.264625 0.316576 0.073836 60.000000
2.264595 0.309492 0.073820 60.000000
2.265534 0.302543 0.073820 60.000000
2.266452 0.295591 0.073820 60.000000
2.264372 0.288259 0.073770 60.000000
2.259292 0.280574 0.073670 60.000000
2.258157 0.273402 0.073637 60.000000
2.256999 0.266240 0.073604 60.000000
2.258798 0.259428 0.073621 60.000000
2.252628 0.251723 0.073505 60.000000
2.260348 0.245563 0.073621 60.000000
2.266062 0.239149 0.073703 60.000000
2.267780 0.232297 0.073720 60.000000
2.265497 0.225044 0.073670 60.000000
2.272149 0.218664 0.073770 60.000000
2.272809 0.211692 0.073770 60.000000
2.274444 0.204807 0.073786 60.000000
2.271077 0.197484 0.073720 60.000000
2.273664 0.190682 0.073753 60.000000
2.273242 0.183625 0.073737 60.000000
2.272798 0.176573 0.073720 60.000000
2.274326 0.169673 0.073737 60.000000
2.277828 0.162908 0.073786 60.000000
2.279315 0.155986 0.073803 60.000000
2.280780 0.149057 0.073820 60.000000
2.284221 0.142244 0.073869 60.000000
2.287641 0.135412 0.073919 60.000000
2.285050 0.128226 0.073869 60.000000
2.287430 0.121320 0.073902 60.000000
2.285794 0.114203 0.073869 60.000000
2.288131 0.107282 0.073902 60.000000
2.283455 0.100045 0.073820 60.000000
2.285749 0.093120 0.073853 60.000000
2.286024 0.086107 0.073853 60.000000
2.284279 0.079025 0.073820 60.000000
2.287509 0.072109 0.073869 60.000000
2.287719 0.065091 0.073869 60.000000
2.285909 0.058022 0.073836 60.000000
2.288076 0.051053 0.073869 60.000000
2.291221 0.044089 0.073919 60.000000
2.287346 0.036997 0.073853 60.000000
2.289449 0.030004 0.073886 60.000000
2.291530 0.022999 0.073919 60.000000
2.291589 0.015969 0.073919 60.000000
2.288628 0.008928 0.073869 60.000000
2.288645 0.001907 0.073869 60.000000
2.288640 -0.005115 0.073869 60.000000
2.282614 -0.012101 0.073770 60.000000
2.279567 -0.019078 0.073720 60.000000
2.280497 -0.026083 0.073737 60.000000
2.267410 -0.032884 0.073521 60.000000
4.506157 -1.863531 0.116778 60.000000
4.425639 -1.910231 0.115849 60.000000
4.414270 -1.953717 0.115966 60.000000
2.233525 0.588935 0.060605 61.000000
2.235321 0.582080 0.060605 61.000000
2.236128 0.574971 0.060594 61.000000
2.237881 0.568108 0.060594 61.000000
2.237674 0.560753 0.060573 61.000000
2.239383 0.553886 0.060573 61.000000
2.241072 0.547013 0.060573 61.000000
2.238851 0.539199 0.060530 61.000000
2.241468 0.532559 0.060541 61.000000
2.242118 0.525451 0.060530 61.000000
2.243719 0.518570 0.060530 61.000000
2.246274 0.511906 0.060541 61.000000
2.245883 0.504574 0.060520 61.000000
2.246444 0.497465 0.060509 61.000000
2.246006 0.490145 0.060488 61.000000
2.247499 0.483252 0.060488 61.000000
2.249949 0.476562 0.060498 61.000000
2.249443 0.469249 0.060477 61.000000
2.250872 0.462345 0.060477 61.000000
2.253260 0.455635 0.060488 61.000000
2.252686 0.448330 0.060466 61.000000
2.255032 0.441609 0.060477 61.000000
2.256376 0.434689 0.060477 61.000000
2.256717 0.427578 0.060466 61.000000
2.256052 0.420287 0.060445 61.000000
2.255363 0.413003 0.060424 61.000000
2.253667 0.405551 0.060392 61.000000
2.253916 0.398461 0.060381 61.000000
2.252172 0.391032 0.060349 61.000000
2.252376 0.383953 0.060339 61.000000
2.251570 0.376711 0.060317 61.000000
2.254689 0.370125 0.060339 61.000000
2.252852 0.362730 0.060307 61.000000
2.252967 0.355661 0.060296 61.000000
2.256024 0.349052 0.060317 61.000000
2.259061 0.342429 0.060339 61.000000
2.258123 0.335203 0.060317 61.000000
2.260130 0.328417 0.060328 61.000000
2.263107 0.321763 0.060349 61.000000
2.261112 0.314406 0.060317 61.000000
2.256121 0.306660 0.060253 61.000000
2.260025 0.300131 0.060285 61.000000
2.260936 0.293196 0.060285 61.000000
2.259840 0.286008 0.060264 61.000000
2.262692 0.279318 0.060285 61.000000
2.260560 0.272017 0.060253 61.000000
2.268336 0.265894 0.060328 61.000000
2.265167 0.258481 0.060285 61.000000
2.272906 0.252301 0.060360 61.000000
2.268699 0.244791 0.060307 61.000000
2.274411 0.238350 0.060360 61.000000
2.275132 0.231371 0.060360 61.000000
2.276826 0.224488 0.060370 61.000000
2.276509 0.217407 0.060360 61.000000
2.276170 0.210330 0.060349 61.000000
2.274812 0.203168 0.060328 61.000000
2.272436 0.195931 0.060296 61.000000
2.274023 0.189041 0.060307 61.000000
2.275589 0.182143 0.060317 61.000000
2.275140 0.175084 0.060307 61.000000
2.273672 0.167956 0.060285 61.000000
2.276171 0.161121 0.060307 61.000000
2.277653 0.154204 0.060317 61.000000
2.280111 0.147345 0.060339 61.000000
2.281550 0.140410 0.060349 61.000000
2.286961 0.133700 0.060402 61.000000
2.286362 0.126628 0.060392 61.000000
2.287739 0.119665 0.060402 61.000000
2.287096 0.112597 0.060392 61.000000
2.286432 0.105534 0.060381 61.000000
2.286745 0.098519 0.060381 61.000000
2.286037 0.091463 0.060370 61.000000
2.285308 0.084412 0.060360 61.000000
2.286556 0.077434 0.060370 61.000000
2.288781 0.070480 0.060392 61.000000
2.292985 0.063568 0.060434 61.000000
2.291170 0.056484 0.060413 61.000000
2.294332 0.049519 0.060445 61.000000
2.294473 0.042480 0.060445 61.000000
2.295592 0.035455 0.060456 61.000000
2.294690 0.028400 0.060445 61.000000
2.295767 0.021369 0.060456 61.000000
2.294822 0.014320 0.060445 61.000000
2.294855 0.007279 0.060445 61.000000
2.291866 0.000239 0.060413 61.000000
2.291856 -0.006792 0.060413 61.000000
2.296824 -0.013855 0.060466 61.000000
2.291771 -0.020855 0.060413 61.000000
2.294696 -0.027923 0.060445 61.000000
2.275603 -0.034670 0.060243 61.000000
4.464235 -1.897393 0.087657 61.000000
4.442770 -1.904381 0.087476 61.000000
4.434153 -1.916812 0.087444 61.000000
4.435584 -1.933604 0.087529 61.000000
4.441919 -1.968890 0.087742 61.000000
2.217444 0.591485 0.045727 62.000000
2.220215 0.584934 0.045731 62.000000
2.223934 0.578624 0.045740 62.000000
2.225699 0.571798 0.045740 62.000000
2.229381 0.565459 0.045748 62.000000
2.232076 0.558860 0.045752 62.000000
2.236692 0.552730 0.045765 62.000000
2.235463 0.545154 0.045752 62.000000
2.237125 0.538293 0.045752 62.000000
2.236820 0.530965 0.045744 62.000000
2.240386 0.524556 0.045752 62.000000
2.239061 0.517005 0.045740 62.000000
2.241612 0.510355 0.045744 62.000000
2.242192 0.503256 0.045740 62.000000
2.240796 0.495727 0.045727 62.000000
2.241329 0.488636 0.045723 62.000000
2.242818 0.481758 0.045723 62.000000
2.245264 0.475082 0.045727 62.000000
2.243774 0.467579 0.045714 62.000000
2.246177 0.460894 0.045719 62.000000
2.243660 0.453208 0.045702 62.000000
2.247001 0.446713 0.045710 62.000000
2.249343 0.440009 0.045714 62.000000
2.250682 0.433106 0.045714 62.000000
2.252000 0.426199 0.045714 62.000000
2.253297 0.419288 0.045714 62.000000
2.250638 0.411653 0.045698 62.000000
2.249922 0.404392 0.045689 62.000000
2.256076 0.398357 0.045710 62.000000
2.249406 0.390066 0.045677 62.000000
2.247634 0.382659 0.045664 62.000000
2.248798 0.375761 0.045664 62.000000
2.249940 0.368860 0.045664 62.000000
2.249086 0.361638 0.045656 62.000000
2.251173 0.354892 0.045660 62.000000
2.253240 0.348137 0.045664 62.000000
2.256274 0.341522 0.045673 62.000000
2.255333 0.334305 0.045664 62.000000
2.257338 0.327528 0.045668 62.000000
2.255362 0.320179 0.045656 62.000000
2.258315 0.313533 0.045664 62.000000
2.256293 0.306199 0.045652 62.000000
2.256231 0.299144 0.045647 62.000000
2.255154 0.291963 0.045639 62.000000
2.254056 0.284792 0.045631 62.000000
2.254919 0.277876 0.045631 62.000000
2.256753 0.271076 0.045635 62.000000
2.260554 0.264500 0.045647 62.000000
2.262348 0.257677 0.045652 62.000000
2.263128 0.250735 0.045652 62.000000
2.264881 0.243898 0.045656 62.000000
2.264624 0.236844 0.045652 62.000000
2.265340 0.229895 0.045652 62.000000
2.266035 0.222944 0.045652 62.000000
2.269694 0.216276 0.045664 62.000000
2.268356 0.209128 0.045656 62.000000
2.267991 0.202078 0.045652 62.000000
2.271589 0.195377 0.045664 62.000000
2.270184 0.188241 0.045656 62.000000
2.269754 0.181196 0.045652 62.000000
2.272294 0.174385 0.045660 62.000000
2.270823 0.167265 0.045652 62.000000
2.271326 0.160298 0.045652 62.000000
2.273803 0.153464 0.045660 62.000000
2.275260 0.146552 0.045664 62.000000
2.277696 0.139693 0.045673 62.000000
2.278113 0.132705 0.045673 62.000000
2.280507 0.125825 0.045681 62.000000
2.279883 0.118776 0.045677 62.000000
2.279238 0.111732 0.045673 62.000000
2.280569 0.104785 0.045677 62.000000
2.277883 0.097659 0.045664 62.000000
2.278172 0.090670 0.045664 62.000000
2.278439 0.083680 0.045664 62.000000
2.280684 0.076757 0.045673 62.000000
2.279909 0.069729 0.045668 62.000000
2.287110 0.062928 0.045698 62.000000
2.287292 0.055911 0.045698 62.000000
2.288453 0.048915 0.045702 62.000000
2.286592 0.041857 0.045694 62.000000
2.290709 0.034903 0.045710 62.000000
2.288806 0.027850 0.045702 62.000000
2.291880 0.020856 0.045714 62.000000
2.291934 0.013824 0.045714 62.000000
2.293965 0.006799 0.045723 62.000000
2.291975 -0.000239 0.045714 62.000000
2.293964 -0.007277 0.045723 62.000000
2.295931 -0.014326 0.045731 62.000000
2.280877 -0.021233 0.045668 62.000000
2.279801 -0.028218 0.045664 62.000000
4.487947 -1.875197 0.056488 62.000000
4.464664 -1.881580 0.056408 62.000000
4.448747 -1.890966 0.056362 62.000000
4.435572 -1.901454 0.056329 62.000000
4.417784 -1.909896 0.056274 62.000000
4.413737 -1.924239 0.056283 62.000000
4.407813 -1.937772 0.056283 62.000000
2.213894 0.596914 0.031411 63.000000
2.216681 0.590377 0.031409 63.000000
2.219448 0.583828 0.031406 63.000000
2.222197 0.577268 0.031404 63.000000
2.222020 0.569950 0.031409 63.000000
2.224728 0.563376 0.031406 63.000000
2.226446 0.556548 0.031406 63.000000
2.229114 0.549955 0.031404 63.000000
2.229819 0.542877 0.031406 63.000000
2.231474 0.536033 0.031406 63.000000
2.230189 0.528491 0.031413 63.000000
2.231800 0.521647 0.031413 63.000000
2.232415 0.514572 0.031415 63.000000
2.234959 0.507943 0.031413 63.000000
2.235531 0.500864 0.031415 63.000000
2.235104 0.493571 0.031419 63.000000
2.236608 0.486712 0.031419 63.000000
2.236135 0.479427 0.031423 63.000000
2.238574 0.472772 0.031421 63.000000
2.237077 0.465289 0.031427 63.000000
2.240453 0.458826 0.031423 63.000000
2.238910 0.451356 0.031430 63.000000
2.241265 0.444680 0.031427 63.000000
2.242618 0.437802 0.031427 63.000000
2.240023 0.430163 0.031436 63.000000
2.244280 0.423847 0.031430 63.000000
2.246553 0.417143 0.031427 63.000000
2.245855 0.409889 0.031432 63.000000
2.247102 0.402996 0.031432 63.000000
2.248327 0.396101 0.031432 63.000000
2.246576 0.388688 0.031438 63.000000
2.245787 0.381458 0.031442 63.000000
2.244974 0.374236 0.031446 63.000000
2.243151 0.366861 0.031453 63.000000
2.243279 0.359819 0.031455 63.000000
2.245360 0.353091 0.031453 63.000000
2.244456 0.345895 0.031457 63.000000
2.244518 0.338857 0.031459 63.000000
2.247525 0.332263 0.031455 63.000000
2.248534 0.325366 0.031455 63.000000
2.247541 0.318185 0.031459 63.000000
2.247517 0.311150 0.031461 63.000000
2.248461 0.304254 0.031461 63.000000
2.246410 0.296959 0.031467 63.000000
2.247310 0.290066 0.031467 63.000000
2.246205 0.282919 0.031471 63.000000
2.251033 0.276516 0.031463 63.000000
2.249885 0.269370 0.031467 63.000000
2.251693 0.262583 0.031465 63.000000
2.252489 0.255673 0.031465 63.000000
2.254256 0.248872 0.031463 63.000000
2.255009 0.241955 0.031463 63.000000
2.257730 0.235244 0.031459 63.000000
2.259436 0.228417 0.031457 63.000000
2.258136 0.221288 0.031461 63.000000
2.259799 0.214454 0.031459 63.000000
2.258455 0.207336 0.031463 63.000000
2.263065 0.200762 0.031455 63.000000
2.265663 0.193990 0.031450 63.000000
2.267244 0.187120 0.031448 63.000000
2.266810 0.180084 0.031450 63.000000
2.268349 0.173205 0.031448 63.000000
2.267873 0.166172 0.031450 63.000000
2.266377 0.159072 0.031455 63.000000
2.268850 0.152253 0.031450 63.000000
2.271302 0.145421 0.031446 63.000000
2.271737 0.138452 0.031446 63.000000
2.271153 0.131423 0.031448 63.000000
2.270547 0.124400 0.031450 63.000000
2.271917 0.117485 0.031448 63.000000
2.271268 0.110465 0.031450 63.000000
2.271596 0.103497 0.031450 63.000000
2.270904 0.096484 0.031453 63.000000
2.271189 0.089517 0.031453 63.000000
2.271453 0.082548 0.031453 63.000000
2.271696 0.075579 0.031453 63.000000
2.272916 0.068640 0.031450 63.000000
2.277115 0.061777 0.031442 63.000000
2.277293 0.054791 0.031442 63.000000
2.277451 0.047804 0.031442 63.000000
2.279587 0.040853 0.031438 63.000000
2.282701 0.033906 0.031432 63.000000
2.282794 0.026902 0.031432 63.000000
2.283866 0.019908 0.031430 63.000000
2.285916 0.012913 0.031425 63.000000
2.282945 0.005891 0.031432 63.000000
2.285952 -0.001113 0.031425 63.000000
2.285938 -0.008126 0.031425 63.000000
2.281902 -0.015115 0.031434 63.000000
4.497916 -1.864242 0.026016 63.000000
4.432074 -1.917145 0.026099 63.000000
4.416088 -1.926338 0.026122 63.000000
4.400087 -1.935451 0.026145 63.000000
2.220973 0.601132 0.018232 64.000000
2.223773 0.594573 0.018224 64.000000
2.223653 0.587238 0.018240 64.000000
2.226412 0.580665 0.018232 64.000000
2.225277 0.573085 0.018256 64.000000
2.228963 0.566747 0.018240 64.000000
2.230692 0.559906 0.018240 64.000000
2.234340 0.553540 0.018224 64.000000
2.235057 0.546446 0.018232 64.000000
2.236722 0.539586 0.018232 64.000000
2.234476 0.531797 0.018264 64.000000
2.235123 0.524711 0.018272 64.000000
2.236722 0.517852 0.018272 64.000000
2.236351 0.510543 0.018287 64.000000
2.234979 0.503022 0.018311 64.000000
2.234560 0.495731 0.018327 64.000000
2.233139 0.488234 0.018350 64.000000
2.234626 0.481380 0.018350 64.000000
2.236093 0.474522 0.018350 64.000000
2.236559 0.467456 0.018358 64.000000
2.237983 0.460592 0.018358 64.000000
2.237425 0.453328 0.018374 64.000000
2.238805 0.446461 0.018374 64.000000
2.240164 0.439590 0.018374 64.000000
2.241502 0.432716 0.018374 64.000000
2.242819 0.425837 0.018374 64.000000
2.245098 0.419137 0.018366 64.000000
2.245390 0.412067 0.018374 64.000000
2.247628 0.405353 0.018366 64.000000
2.247876 0.398282 0.018374 64.000000
2.248102 0.391213 0.018382 64.000000
2.247320 0.383978 0.018397 64.000000
2.243556 0.376257 0.018437 64.000000
2.246674 0.369696 0.018421 64.000000
2.245823 0.362484 0.018437 64.000000
2.242973 0.354969 0.018468 64.000000
2.245040 0.348238 0.018460 64.000000
2.245109 0.341199 0.018468 64.000000
2.243178 0.333870 0.018491 64.000000
2.248150 0.327561 0.018460 64.000000
2.248154 0.320522 0.018468 64.000000
2.247146 0.313348 0.018484 64.000000
2.248097 0.306452 0.018484 64.000000
2.246053 0.299159 0.018507 64.000000
2.245968 0.292138 0.018515 64.000000
2.247846 0.285372 0.018507 64.000000
2.247719 0.278352 0.018515 64.000000
2.246576 0.271216 0.018531 64.000000
2.250377 0.264671 0.018507 64.000000
2.250185 0.257653 0.018515 64.000000
2.250965 0.250748 0.018515 64.000000
2.251724 0.243841 0.018515 64.000000
2.252461 0.236931 0.018515 64.000000
2.255167 0.230222 0.018499 64.000000
2.256858 0.223400 0.018491 64.000000
2.257533 0.216475 0.018491 64.000000
2.258186 0.209548 0.018491 64.000000
2.261807 0.202886 0.018468 64.000000
2.263415 0.196031 0.018460 64.000000
2.264005 0.189086 0.018460 64.000000
2.265572 0.182219 0.018452 64.000000
2.270108 0.175574 0.018421 64.000000
2.265650 0.168241 0.018460 64.000000
2.267153 0.161360 0.018452 64.000000
2.268635 0.154471 0.018444 64.000000
2.271094 0.147639 0.018429 64.000000
2.267544 0.140425 0.018460 64.000000
2.269961 0.133584 0.018444 64.000000
2.267364 0.126454 0.018468 64.000000
2.273733 0.119810 0.018421 64.000000
2.272093 0.112736 0.018437 64.000000
2.274426 0.105856 0.018421 64.000000
2.274740 0.098878 0.018421 64.000000
2.275032 0.091899 0.018421 64.000000
2.275304 0.084919 0.018421 64.000000
2.272555 0.077836 0.018444 64.000000
2.277781 0.071017 0.018405 64.000000
2.278988 0.064056 0.018397 64.000000
2.279173 0.057064 0.018397 64.000000
2.279338 0.050072 0.018397 64.000000
2.281480 0.043115 0.018382 64.000000
2.282602 0.036131 0.018374 64.000000
2.282702 0.029128 0.018374 64.000000
2.282780 0.022124 0.018374 64.000000
2.283837 0.015127 0.018366 64.000000
2.281873 0.008114 0.018382 64.000000
2.279887 0.001113 0.018397 64.000000
2.282880 -0.005891 0.018374 64.000000
2.267852 -0.012802 0.018491 64.000000
4.466813 -1.881260 -0.001764 64.000000
4.419937 -1.909593 -0.001512 64.000000
4.412224 -1.922345 -0.001497 64.000000
2.227697 0.610212 0.003347 65.000000
2.227628 0.602852 0.003376 65.000000
2.231400 0.596531 0.003347 65.000000
2.230319 0.588917 0.003390 65.000000
2.234050 0.582576 0.003362 65.000000
2.233890 0.575221 0.003390 65.000000
2.236614 0.568611 0.003376 65.000000
2.237378 0.561504 0.003390 65.000000
2.239090 0.554637 0.003390 65.000000
2.238838 0.547290 0.003419 65.000000
2.239535 0.540185 0.003433 65.000000
2.238263 0.532617 0.003476 65.000000
2.238913 0.525520 0.003490 65.000000
2.235644 0.517522 0.003562 65.000000
2.236246 0.510438 0.003576 65.000000
2.235851 0.503136 0.003605 65.000000
2.235431 0.495842 0.003634 65.000000
2.233035 0.488128 0.003691 65.000000
2.235499 0.481485 0.003676 65.000000
2.235988 0.474417 0.003691 65.000000
2.237433 0.467555 0.003691 65.000000
2.238857 0.460688 0.003691 65.000000
2.239279 0.453619 0.003705 65.000000
2.241641 0.446942 0.003691 65.000000
2.243002 0.440063 0.003691 65.000000
2.242378 0.432801 0.003719 65.000000
2.246642 0.426478 0.003676 65.000000
2.247940 0.419583 0.003676 65.000000
2.245283 0.411964 0.003734 65.000000
2.248504 0.405428 0.003705 65.000000
2.250722 0.398702 0.003691 65.000000
2.248979 0.391281 0.003734 65.000000
2.248198 0.384043 0.003762 65.000000
2.251338 0.377474 0.003734 65.000000
2.252485 0.370566 0.003734 65.000000
2.250650 0.363176 0.003777 65.000000
2.251754 0.356269 0.003777 65.000000
2.250860 0.349053 0.003805 65.000000
2.247966 0.341546 0.003863 65.000000
2.248014 0.334501 0.003877 65.000000
2.250019 0.327746 0.003863 65.000000
2.249034 0.320560 0.003891 65.000000
2.249017 0.313521 0.003905 65.000000
2.248977 0.306484 0.003920 65.000000
2.249907 0.299583 0.003920 65.000000
2.251807 0.292808 0.003905 65.000000
2.252695 0.285898 0.003905 65.000000
2.254554 0.279108 0.003891 65.000000
2.259370 0.272669 0.003834 65.000000
2.258210 0.265502 0.003863 65.000000
2.259014 0.258573 0.003863 65.000000
2.259796 0.251641 0.003863 65.000000
2.263540 0.245029 0.003820 65.000000
2.262292 0.237875 0.003848 65.000000
2.261022 0.230731 0.003877 65.000000
2.263709 0.223989 0.003848 65.000000
2.263391 0.216948 0.003863 65.000000
2.262054 0.209819 0.003891 65.000000
2.263683 0.202967 0.003877 65.000000
2.265291 0.196107 0.003863 65.000000
2.262893 0.188908 0.003905 65.000000
2.263462 0.181964 0.003905 65.000000
2.266003 0.175173 0.003877 65.000000
2.262542 0.167925 0.003934 65.000000
2.264044 0.161053 0.003920 65.000000
2.265525 0.154174 0.003905 65.000000
2.267982 0.147352 0.003877 65.000000
2.271418 0.140578 0.003834 65.000000
2.272837 0.133668 0.003820 65.000000
2.275233 0.126805 0.003791 65.000000
2.276610 0.119877 0.003777 65.000000
2.276967 0.112891 0.003777 65.000000
2.278301 0.105952 0.003762 65.000000
2.278615 0.098961 0.003762 65.000000
2.278908 0.091970 0.003762 65.000000
2.282177 0.085089 0.003719 65.000000
2.281428 0.078053 0.003734 65.000000
2.283656 0.071116 0.003705 65.000000
2.283863 0.064109 0.003705 65.000000
2.283050 0.057077 0.003719 65.000000
2.282214 0.050051 0.003734 65.000000
2.285357 0.043105 0.003691 65.000000
2.284478 0.036078 0.003705 65.000000
2.282578 0.029044 0.003734 65.000000
2.284657 0.022060 0.003705 65.000000
2.286713 0.015063 0.003676 65.000000
2.282749 0.008034 0.003734 65.000000
2.284763 0.001031 0.003705 65.000000
2.273756 -0.005948 0.003863 65.000000
2.280727 -0.012964 0.003762 65.000000
4.463555 -1.943952 -0.033275 65.000000
2.213387 0.612279 -0.010798 66.000000
2.216219 0.605749 -0.010818 66.000000
2.219997 0.599469 -0.010859 66.000000
2.225690 0.593686 -0.010942 66.000000
2.224600 0.586091 -0.010880 66.000000
2.228323 0.579767 -0.010921 66.000000
2.229123 0.572679 -0.010901 66.000000
2.230870 0.565837 -0.010901 66.000000
2.231625 0.558747 -0.010880 66.000000
2.232358 0.551658 -0.010859 66.000000
2.229184 0.543622 -0.010756 66.000000
2.228897 0.536312 -0.010715 66.000000
2.225668 0.528316 -0.010612 66.000000
2.227279 0.521485 -0.010612 66.000000
2.226920 0.514199 -0.010571 66.000000
2.224588 0.506476 -0.010489 66.000000
2.230033 0.500525 -0.010571 66.000000
2.225701 0.492385 -0.010448 66.000000
2.226225 0.485341 -0.010427 66.000000
2.226726 0.478298 -0.010406 66.000000
2.227205 0.471258 -0.010386 66.000000
2.227661 0.464218 -0.010365 66.000000
2.228096 0.457181 -0.010345 66.000000
2.231447 0.450739 -0.010386 66.000000
2.234781 0.444281 -0.010427 66.000000
2.237115 0.437615 -0.010448 66.000000
2.234520 0.429993 -0.010365 66.000000
2.237793 0.423508 -0.010406 66.000000
2.238099 0.416457 -0.010386 66.000000
2.239366 0.409589 -0.010386 66.000000
2.240612 0.402717 -0.010386 66.000000
2.240853 0.395667 -0.010365 66.000000
2.234175 0.387422 -0.010200 66.000000
2.237325 0.380902 -0.010242 66.000000
2.245385 0.375191 -0.010386 66.000000
2.246526 0.368300 -0.010386 66.000000
2.252581 0.362201 -0.010489 66.000000
2.249731 0.354665 -0.010406 66.000000
2.248832 0.347455 -0.010365 66.000000
2.247911 0.340255 -0.010324 66.000000
2.248944 0.333357 -0.010324 66.000000
2.249956 0.326455 -0.010324 66.000000
2.247978 0.319129 -0.010262 66.000000
2.246966 0.311955 -0.010221 66.000000
2.246922 0.304926 -0.010200 66.000000
2.247846 0.298031 -0.010200 66.000000
2.248750 0.291133 -0.010200 66.000000
2.249633 0.284233 -0.010200 66.000000
2.256448 0.278064 -0.010324 66.000000
2.254313 0.270782 -0.010262 66.000000
2.256125 0.263981 -0.010283 66.000000
2.255931 0.256945 -0.010262 66.000000
2.259690 0.250353 -0.010324 66.000000
2.259454 0.243312 -0.010303 66.000000
2.257206 0.236067 -0.010242 66.000000
2.257920 0.229141 -0.010242 66.000000
2.254632 0.221820 -0.010159 66.000000
2.260279 0.215377 -0.010262 66.000000
2.256947 0.208074 -0.010180 66.000000
2.260562 0.201415 -0.010242 66.000000
2.261169 0.194479 -0.010242 66.000000
2.262752 0.187624 -0.010262 66.000000
2.260327 0.180442 -0.010200 66.000000
2.257879 0.173276 -0.010139 66.000000
2.261391 0.166569 -0.010200 66.000000
2.259897 0.159489 -0.010159 66.000000
2.259378 0.152488 -0.010139 66.000000
2.261831 0.145684 -0.010180 66.000000
2.261269 0.138683 -0.010159 66.000000
2.269669 0.132211 -0.010324 66.000000
2.266071 0.125027 -0.010242 66.000000
2.267442 0.118126 -0.010262 66.000000
2.268792 0.111218 -0.010283 66.000000
2.273118 0.104441 -0.010365 66.000000
2.271430 0.097381 -0.010324 66.000000
2.274715 0.090532 -0.010386 66.000000
2.277979 0.083663 -0.010448 66.000000
2.275228 0.076573 -0.010386 66.000000
2.279449 0.069715 -0.010468 66.000000
2.278653 0.062694 -0.010448 66.000000
2.277835 0.055678 -0.010427 66.000000
2.277995 0.048689 -0.010427 66.000000
2.278134 0.041700 -0.010427 66.000000
2.276252 0.034680 -0.010386 66.000000
2.282346 0.027770 -0.010509 66.000000
2.277421 0.020722 -0.010406 66.000000
2.281473 0.013760 -0.010489 66.000000
2.281505 0.006760 -0.010489 66.000000
2.282514 -0.000240 -0.010509 66.000000
2.279504 -0.007233 -0.010448 66.000000
4.549770 -1.901023 -0.065061 66.000000
4.482458 -1.921549 -0.063949 66.000000
4.471953 -1.933309 -0.063846 66.000000
4.440338 -1.935834 -0.063270 66.000000
2.485607 -1.120323 -0.019653 66.000000
2.207636 0.616665 -0.024622 67.000000
2.212408 0.610688 -0.024702 67.000000
2.213307 0.603634 -0.024675 67.000000
2.216114 0.597102 -0.024702 67.000000
2.216003 0.589785 -0.024649 67.000000
2.219736 0.583492 -0.024702 67.000000
2.219580 0.576176 -0.024649 67.000000
2.224242 0.570110 -0.024729 67.000000
2.224043 0.562792 -0.024675 67.000000
2.222850 0.555238 -0.024595 67.000000
2.214838 0.546018 -0.024328 67.000000
2.221359 0.540404 -0.024462 67.000000
2.218147 0.532418 -0.024328 67.000000
2.217824 0.525148 -0.024275 67.000000
2.216505 0.517658 -0.024195 67.000000
2.212239 0.509507 -0.024035 67.000000
2.215741 0.503161 -0.024088 67.000000
2.219225 0.496798 -0.024141 67.000000
2.220739 0.489988 -0.024141 67.000000
2.224185 0.483598 -0.024195 67.000000
2.220771 0.475723 -0.024061 67.000000
2.227110 0.469941 -0.024195 67.000000
2.220713 0.461476 -0.023981 67.000000
2.225056 0.455263 -0.024061 67.000000
2.227422 0.448632 -0.024088 67.000000
2.226827 0.441407 -0.024035 67.000000
2.226208 0.434189 -0.023981 67.000000
2.226548 0.427168 -0.023954 67.000000
2.227849 0.420335 -0.023954 67.000000
2.228145 0.413316 -0.023928 67.000000
2.229402 0.406478 -0.023928 67.000000
2.232607 0.399990 -0.023981 67.000000
2.232839 0.392965 -0.023954 67.000000
2.230094 0.385430 -0.023848 67.000000
2.229295 0.378250 -0.023794 67.000000
2.231431 0.371574 -0.023821 67.000000
2.231574 0.364565 -0.023794 67.000000
2.235643 0.358193 -0.023874 67.000000
2.239694 0.351799 -0.023954 67.000000
2.239774 0.344773 -0.023928 67.000000
2.238845 0.337601 -0.023874 67.000000
2.243826 0.331317 -0.023981 67.000000
2.243842 0.324288 -0.023954 67.000000
2.244827 0.317402 -0.023954 67.000000
2.244800 0.310376 -0.023928 67.000000
2.244751 0.303354 -0.023901 67.000000
2.244680 0.296334 -0.023874 67.000000
2.245578 0.289446 -0.023874 67.000000
2.246456 0.282555 -0.023874 67.000000
2.247312 0.275662 -0.023874 67.000000
2.246162 0.268528 -0.023821 67.000000
2.246975 0.261635 -0.023821 67.000000
2.252734 0.255306 -0.023954 67.000000
2.249532 0.247953 -0.023848 67.000000
2.251276 0.241158 -0.023874 67.000000
2.252005 0.234250 -0.023874 67.000000
2.250724 0.227138 -0.023821 67.000000
2.244447 0.219547 -0.023634 67.000000
2.247100 0.212849 -0.023687 67.000000
2.251724 0.206321 -0.023794 67.000000
2.249359 0.199146 -0.023714 67.000000
2.252948 0.192501 -0.023794 67.000000
2.255520 0.185753 -0.023848 67.000000
2.254086 0.178674 -0.023794 67.000000
2.254624 0.171757 -0.023794 67.000000
2.255140 0.164839 -0.023794 67.000000
2.254638 0.157850 -0.023767 67.000000
2.253117 0.150797 -0.023714 67.000000
2.256562 0.144077 -0.023794 67.000000
2.256994 0.137153 -0.023794 67.000000
2.255408 0.130112 -0.023741 67.000000
2.257792 0.123302 -0.023794 67.000000
2.259158 0.116426 -0.023821 67.000000
2.260504 0.109544 -0.023848 67.000000
2.260829 0.102608 -0.023848 67.000000
2.258137 0.095543 -0.023767 67.000000
2.261416 0.088734 -0.023848 67.000000
2.264674 0.081905 -0.023928 67.000000
2.265914 0.074991 -0.023954 67.000000
2.268132 0.068100 -0.024008 67.000000
2.268330 0.061141 -0.024008 67.000000
2.268507 0.054181 -0.024008 67.000000
2.268663 0.047221 -0.024008 67.000000
2.269796 0.040279 -0.024035 67.000000
2.270909 0.033331 -0.024061 67.000000
2.270001 0.026351 -0.024035 67.000000
2.272070 0.019405 -0.024088 67.000000
2.275118 0.012452 -0.024168 67.000000
2.274146 0.005469 -0.024141 67.000000
4.537300 -1.897812 -0.094764 67.000000
4.524087 -1.908617 -0.094550 67.000000
4.467793 -1.933508 -0.093429 67.000000
4.465506 -1.948805 -0.093536 67.000000
2.481920 -1.120160 -0.036130 67.000000
2.483022 -1.129837 -0.036263 67.000000
2.475136 -1.144632 -0.036237 67.000000
2.207530 0.626670 -0.037829 68.000000
2.207518 0.619356 -0.037764 68.000000
2.211334 0.613113 -0.037829 68.000000
2.212240 0.606063 -0.037797 68.000000
2.213125 0.599012 -0.037764 68.000000
2.214952 0.592219 -0.037764 68.000000
2.217725 0.585676 -0.037797 68.000000
2.216609 0.578114 -0.037699 68.000000
2.221277 0.572057 -0.037797 68.000000
2.221084 0.564748 -0.037732 68.000000
2.221836 0.557689 -0.037699 68.000000
2.218685 0.549670 -0.037537 68.000000
2.219390 0.542624 -0.037505 68.000000
2.218130 0.535111 -0.037407 68.000000
2.216843 0.527610 -0.037310 68.000000
2.215532 0.520123 -0.037213 68.000000
2.217118 0.513323 -0.037213 68.000000
2.214784 0.505631 -0.037083 68.000000
2.217300 0.499053 -0.037115 68.000000
2.221748 0.492896 -0.037213 68.000000
2.229109 0.487355 -0.037407 68.000000
2.224731 0.479254 -0.037213 68.000000
2.228146 0.472840 -0.037277 68.000000
2.227629 0.465594 -0.037213 68.000000
2.227089 0.458356 -0.037148 68.000000
2.227505 0.451323 -0.037115 68.000000
2.227899 0.444292 -0.037083 68.000000
2.228271 0.437263 -0.037050 68.000000
2.229602 0.430425 -0.037050 68.000000
2.229930 0.423396 -0.037018 68.000000
2.230236 0.416370 -0.036985 68.000000
2.232486 0.409706 -0.037018 68.000000
2.231765 0.402501 -0.036953 68.000000
2.230037 0.395130 -0.036855 68.000000
2.229269 0.387945 -0.036791 68.000000
2.228478 0.380768 -0.036726 68.000000
2.229636 0.373930 -0.036726 68.000000
2.232745 0.367411 -0.036791 68.000000
2.234848 0.360718 -0.036823 68.000000
2.236932 0.354016 -0.036855 68.000000
2.239983 0.347457 -0.036920 68.000000
2.241038 0.340583 -0.036920 68.000000
2.242073 0.333706 -0.036920 68.000000
2.245064 0.327113 -0.036985 68.000000
2.244078 0.319943 -0.036920 68.000000
2.242079 0.312644 -0.036823 68.000000
2.243028 0.305764 -0.036823 68.000000
2.242965 0.298749 -0.036791 68.000000
2.241888 0.291610 -0.036726 68.000000
2.242772 0.284730 -0.036726 68.000000
2.244627 0.277971 -0.036758 68.000000
2.246462 0.271202 -0.036791 68.000000
2.248276 0.264425 -0.036823 68.000000
2.249077 0.257526 -0.036823 68.000000
2.247869 0.250405 -0.036758 68.000000
2.247633 0.243400 -0.036726 68.000000
2.249363 0.236607 -0.036758 68.000000
2.251073 0.229806 -0.036791 68.000000
2.252762 0.222997 -0.036823 68.000000
2.253436 0.216084 -0.036823 68.000000
2.255083 0.209262 -0.036855 68.000000
2.257706 0.202520 -0.036920 68.000000
2.256325 0.195421 -0.036855 68.000000
2.256914 0.188498 -0.036855 68.000000
2.256485 0.181493 -0.036823 68.000000
2.257031 0.174569 -0.036823 68.000000
2.257556 0.167644 -0.036823 68.000000
2.256066 0.160576 -0.036758 68.000000
2.255551 0.153587 -0.036726 68.000000
2.257009 0.146730 -0.036758 68.000000
2.258446 0.139867 -0.036791 68.000000
2.259862 0.132995 -0.036823 68.000000
2.257266 0.125896 -0.036726 68.000000
2.258640 0.119022 -0.036758 68.000000
2.259992 0.112141 -0.036791 68.000000
2.257331 0.105069 -0.036693 68.000000
2.258641 0.098186 -0.036726 68.000000
2.264924 0.091496 -0.036920 68.000000
2.263196 0.084473 -0.036855 68.000000
2.262445 0.077495 -0.036823 68.000000
2.260675 0.070493 -0.036758 68.000000
2.265876 0.063695 -0.036920 68.000000
2.267060 0.056767 -0.036953 68.000000
2.266224 0.049790 -0.036920 68.000000
2.269364 0.042892 -0.037018 68.000000
2.269485 0.035930 -0.037018 68.000000
2.268585 0.028955 -0.036985 68.000000
2.270662 0.022013 -0.037050 68.000000
2.274717 0.015071 -0.037180 68.000000
2.263758 0.008059 -0.036823 68.000000
2.314745 0.001113 -0.038478 68.000000
2.494630 -1.132167 -0.052273 68.000000
2.518405 -1.152301 -0.053246 68.000000
2.210199 0.626518 -0.052263 69.000000
2.211148 0.619464 -0.052224 69.000000
2.215928 0.613477 -0.052341 69.000000
2.215872 0.606149 -0.052263 69.000000
2.216756 0.599087 -0.052224 69.000000
2.217618 0.592026 -0.052186 69.000000
2.220390 0.585474 -0.052224 69.000000
2.220242 0.578156 -0.052147 69.000000
2.220070 0.570844 -0.052070 69.000000
2.222779 0.564276 -0.052108 69.000000
2.221592 0.556726 -0.051992 69.000000
2.220379 0.549189 -0.051876 69.000000
2.221083 0.542137 -0.051837 69.000000
2.220793 0.534853 -0.051760 69.000000
2.219506 0.527345 -0.051643 69.000000
2.219168 0.520077 -0.051566 69.000000
2.220753 0.513266 -0.051566 69.000000
2.221343 0.506229 -0.051527 69.000000
2.222886 0.499411 -0.051527 69.000000
2.226359 0.493021 -0.051605 69.000000
2.228837 0.486401 -0.051643 69.000000
2.230319 0.479561 -0.051643 69.000000
2.231780 0.472716 -0.051643 69.000000
2.230285 0.465255 -0.051527 69.000000
2.231702 0.458411 -0.051527 69.000000
2.230159 0.450968 -0.051411 69.000000
2.231532 0.444124 -0.051411 69.000000
2.232884 0.437276 -0.051411 69.000000
2.232253 0.430046 -0.051334 69.000000
2.232580 0.423009 -0.051295 69.000000
2.234849 0.416341 -0.051334 69.000000
2.236116 0.409482 -0.051334 69.000000
2.234411 0.402090 -0.051217 69.000000
2.233666 0.394885 -0.051140 69.000000
2.231914 0.387518 -0.051024 69.000000
2.231122 0.380333 -0.050946 69.000000
2.230307 0.373157 -0.050869 69.000000
2.232428 0.366475 -0.050907 69.000000
2.232555 0.359465 -0.050869 69.000000
2.235621 0.352925 -0.050946 69.000000
2.237681 0.346218 -0.050985 69.000000
2.239721 0.339500 -0.051024 69.000000
2.241740 0.332774 -0.051062 69.000000
2.242751 0.325895 -0.051062 69.000000
2.242751 0.318872 -0.051024 69.000000
2.242728 0.311853 -0.050985 69.000000
2.242685 0.304836 -0.050946 69.000000
2.243609 0.297954 -0.050946 69.000000
2.242531 0.290813 -0.050869 69.000000
2.243412 0.283931 -0.050869 69.000000
2.246257 0.277292 -0.050946 69.000000
2.247097 0.270399 -0.050946 69.000000
2.247916 0.263504 -0.050946 69.000000
2.248713 0.256606 -0.050946 69.000000
2.250483 0.249816 -0.050985 69.000000
2.252233 0.243018 -0.051024 69.000000
2.253962 0.236211 -0.051062 69.000000
2.255670 0.229395 -0.051101 69.000000
2.257357 0.222572 -0.051140 69.000000
2.257035 0.215551 -0.051101 69.000000
2.258681 0.208717 -0.051140 69.000000
2.258315 0.201698 -0.051101 69.000000
2.258923 0.194768 -0.051101 69.000000
2.257518 0.187672 -0.051024 69.000000
2.256091 0.180586 -0.050946 69.000000
2.256635 0.173663 -0.050946 69.000000
2.257157 0.166739 -0.050946 69.000000
2.256661 0.159743 -0.050907 69.000000
2.258137 0.152887 -0.050946 69.000000
2.260590 0.146086 -0.051024 69.000000
2.262025 0.139212 -0.051062 69.000000
2.260447 0.132155 -0.050985 69.000000
2.262837 0.125329 -0.051062 69.000000
2.262213 0.118335 -0.051024 69.000000
2.262565 0.111394 -0.051024 69.000000
2.261898 0.104406 -0.050985 69.000000
2.264204 0.097552 -0.051062 69.000000
2.264493 0.090605 -0.051062 69.000000
2.268755 0.083804 -0.051217 69.000000
2.266005 0.076742 -0.051101 69.000000
2.267229 0.069820 -0.051140 69.000000
2.269430 0.062919 -0.051217 69.000000
2.268613 0.055932 -0.051179 69.000000
2.268774 0.048972 -0.051179 69.000000
2.270912 0.042047 -0.051256 69.000000
2.272029 0.035095 -0.051295 69.000000
2.270128 0.028100 -0.051217 69.000000
2.272202 0.021154 -0.051295 69.000000
2.276253 0.014207 -0.051450 69.000000
2.501319 -1.108529 -0.069269 69.000000
2.496469 -1.133984 -0.069501 69.000000
2.512964 -1.150793 -0.070353 69.000000
2.205193 0.631091 -0.065666 70.000000
2.206157 0.624050 -0.065621 70.000000
2.208061 0.617279 -0.065621 70.000000
2.209945 0.610502 -0.065621 70.000000
2.212771 0.603982 -0.065666 70.000000
2.210756 0.596149 -0.065487 70.000000
2.212574 0.589364 -0.065487 70.000000
2.215338 0.582828 -0.065532 70.000000
2.215182 0.575525 -0.065443 70.000000
2.215002 0.568230 -0.065353 70.000000
2.216735 0.561432 -0.065353 70.000000
2.215539 0.553901 -0.065219 70.000000
2.214319 0.546383 -0.065086 70.000000
2.214043 0.539114 -0.064996 70.000000
2.213744 0.531851 -0.064907 70.000000
2.213422 0.524596 -0.064818 70.000000
2.213075 0.517348 -0.064728 70.000000
2.212705 0.510107 -0.064639 70.000000
2.215234 0.503537 -0.064684 70.000000
2.216768 0.496739 -0.064684 70.000000
2.217306 0.489720 -0.064639 70.000000
2.219774 0.483127 -0.064684 70.000000
2.220269 0.476105 -0.064639 70.000000
2.220742 0.469085 -0.064594 70.000000
2.223149 0.462473 -0.064639 70.000000
2.224557 0.455650 -0.064639 70.000000
2.224966 0.448626 -0.064594 70.000000
2.223392 0.441214 -0.064460 70.000000
2.227676 0.434965 -0.064594 70.000000
2.228019 0.427940 -0.064550 70.000000
2.229322 0.421103 -0.064550 70.000000
2.230603 0.414261 -0.064550 70.000000
2.231863 0.407416 -0.064550 70.000000
2.230153 0.400037 -0.064416 70.000000
2.229402 0.392846 -0.064326 70.000000
2.229613 0.385834 -0.064282 70.000000
2.227831 0.378489 -0.064148 70.000000
2.228982 0.371653 -0.064148 70.000000
2.230112 0.364813 -0.064148 70.000000
2.231220 0.357969 -0.064148 70.000000
2.234282 0.351433 -0.064237 70.000000
2.235350 0.344576 -0.064237 70.000000
2.236396 0.337717 -0.064237 70.000000
2.236434 0.330708 -0.064192 70.000000
2.237438 0.323845 -0.064192 70.000000
2.237432 0.316839 -0.064148 70.000000
2.235425 0.309561 -0.064014 70.000000
2.235374 0.302568 -0.063969 70.000000
2.235301 0.295577 -0.063924 70.000000
2.235207 0.288590 -0.063880 70.000000
2.237073 0.281856 -0.063924 70.000000
2.239910 0.275235 -0.064014 70.000000
2.240744 0.268362 -0.064014 70.000000
2.242549 0.261602 -0.064058 70.000000
2.245326 0.254947 -0.064148 70.000000
2.247091 0.248167 -0.064192 70.000000
2.249828 0.241485 -0.064282 70.000000
2.250558 0.234582 -0.064282 70.000000
2.251267 0.227676 -0.064282 70.000000
2.251955 0.220768 -0.064282 70.000000
2.251627 0.213764 -0.064237 70.000000
2.251278 0.206763 -0.064192 70.000000
2.250906 0.199767 -0.064148 70.000000
2.251509 0.192860 -0.064148 70.000000
2.249103 0.185705 -0.064014 70.000000
2.250658 0.178883 -0.064058 70.000000
2.248208 0.171748 -0.063924 70.000000
2.250717 0.164997 -0.064014 70.000000
2.249219 0.157950 -0.063924 70.000000
2.251687 0.151183 -0.064014 70.000000
2.255131 0.144467 -0.064148 70.000000
2.254566 0.137486 -0.064103 70.000000
2.254978 0.130569 -0.064103 70.000000
2.256365 0.123705 -0.064148 70.000000
2.256734 0.116782 -0.064148 70.000000
2.257082 0.109858 -0.064148 70.000000
2.257408 0.102933 -0.064148 70.000000
2.258711 0.096049 -0.064192 70.000000
2.257997 0.089079 -0.064148 70.000000
2.260257 0.082225 -0.064237 70.000000
2.261497 0.075323 -0.064282 70.000000
2.263714 0.068445 -0.064371 70.000000
2.262915 0.061473 -0.064326 70.000000
2.265090 0.054579 -0.064416 70.000000
2.266246 0.047650 -0.064460 70.000000
2.266381 0.040697 -0.064460 70.000000
2.267494 0.033759 -0.064505 70.000000
2.265589 0.026778 -0.064416 70.000000
2.270656 0.019872 -0.064639 70.000000
2.241735 0.012736 -0.063344 70.000000
4.419704 -1.928670 -0.178715 70.000000
2.516795 -1.126146 -0.086391 70.000000
2.515150 -1.134684 -0.086480 70.000000
2.510747 -1.141981 -0.086436 70.000000
2.506324 -1.149263 -0.086391 70.000000
2.506414 -1.158623 -0.086570 70.000000
2.199898 0.635973 -0.080221 71.000000
2.200879 0.628946 -0.080170 71.000000
2.202798 0.622191 -0.080170 71.000000
2.204696 0.615430 -0.080170 71.000000
2.209462 0.609461 -0.080323 71.000000
2.209394 0.602153 -0.080221 71.000000
2.210267 0.595112 -0.080170 71.000000
2.211118 0.588071 -0.080118 71.000000
2.213877 0.581539 -0.080170 71.000000
2.213718 0.574242 -0.080067 71.000000
2.214502 0.567199 -0.080016 71.000000
2.213327 0.559667 -0.079863 71.000000
2.211159 0.551904 -0.079658 71.000000
2.207993 0.543921 -0.079403 71.000000
2.209652 0.537144 -0.079403 71.000000
2.210318 0.530129 -0.079352 71.000000
2.209991 0.522885 -0.079250 71.000000
2.208667 0.515420 -0.079096 71.000000
2.210238 0.508641 -0.079096 71.000000
2.210814 0.501636 -0.079045 71.000000
2.212343 0.494851 -0.079045 71.000000
2.214826 0.488277 -0.079096 71.000000
2.216313 0.481480 -0.079096 71.000000
2.218757 0.474888 -0.079147 71.000000
2.218249 0.467665 -0.079045 71.000000
2.220651 0.461061 -0.079096 71.000000
2.221077 0.454046 -0.079045 71.000000
2.220501 0.446834 -0.078943 71.000000
2.222841 0.440214 -0.078994 71.000000
2.225162 0.433584 -0.079045 71.000000
2.224520 0.426378 -0.078943 71.000000
2.225817 0.419552 -0.078943 71.000000
2.227094 0.412721 -0.078943 71.000000
2.228350 0.405886 -0.078943 71.000000
2.229585 0.399048 -0.078943 71.000000
2.230798 0.392206 -0.078943 71.000000
2.231991 0.385360 -0.078943 71.000000
2.233163 0.378511 -0.078943 71.000000
2.233329 0.371493 -0.078892 71.000000
2.232487 0.364317 -0.078789 71.000000
2.232608 0.357308 -0.078738 71.000000
2.233693 0.350456 -0.078738 71.000000
2.232784 0.343297 -0.078636 71.000000
