# This PCD file was generated using the MATLAB® pcwrite function
# from Computer Vision Toolbox®.
# .PCD v.7 - Point Cloud Data file format
VERSION .7
FIELDS x y z intensity
SIZE 4 4 4 4
TYPE F F F F
COUNT 1 1 1 1
WIDTH 1253
HEIGHT 1
VIEWPOINT 0 0 0 1 0 0 0
POINTS 1253
DATA ascii
3.273533 -1.241533 0.115272 59.000000
3.270643 -1.251927 0.115295 59.000000
3.264921 -1.261236 0.115250 59.000000
3.260104 -1.270883 0.115227 59.000000
3.249677 -1.278320 0.115068 59.000000
3.243881 -1.287547 0.115023 59.000000
3.233418 -1.294893 0.114864 59.000000
3.225722 -1.303310 0.114773 59.000000
3.219857 -1.312446 0.114728 59.000000
3.212116 -1.320799 0.114637 59.000000
3.206201 -1.329882 0.114592 59.000000
3.203951 -1.340483 0.114637 59.000000
3.200745 -1.350695 0.114660 59.000000
3.191986 -1.358552 0.114546 59.000000
3.185965 -1.367551 0.114501 59.000000
3.179002 -1.376128 0.114433 59.000000
3.172016 -1.384676 0.114365 59.000000
3.165007 -1.393193 0.114297 59.000000
3.158890 -1.402086 0.114252 59.000000
3.151836 -1.410547 0.114183 59.000000
3.145671 -1.419388 0.114138 59.000000
3.136750 -1.426964 0.114025 59.000000
3.126904 -1.434082 0.113889 59.000000
3.117045 -1.441153 0.113752 59.000000
3.108983 -1.449021 0.113662 59.000000
3.102713 -1.457703 0.113616 59.000000
3.098226 -1.467215 0.113616 59.000000
3.093710 -1.476713 0.113616 59.000000
3.089165 -1.486197 0.113616 59.000000
3.084591 -1.495668 0.113616 59.000000
3.079090 -1.504686 0.113594 59.000000
3.071768 -1.512801 0.113526 59.000000
3.065321 -1.521329 0.113480 59.000000
3.060639 -1.530727 0.113480 59.000000
3.053250 -1.538760 0.113412 59.000000
3.049406 -1.548573 0.113435 59.000000
3.046421 -1.558831 0.113480 59.000000
3.038958 -1.566797 0.113412 59.000000
3.034137 -1.576113 0.113412 59.000000
3.029287 -1.585414 0.113412 59.000000
3.021755 -1.593302 0.113344 59.000000
3.014204 -1.601159 0.113276 59.000000
3.006632 -1.608985 0.113208 59.000000
3.000802 -1.617727 0.113185 59.000000
2.994067 -1.625972 0.113140 59.000000
2.986433 -1.633712 0.113072 59.000000
2.981407 -1.642866 0.113072 59.000000
2.976352 -1.652006 0.113072 59.000000
2.972143 -1.661617 0.113094 59.000000
2.967031 -1.670727 0.113094 59.000000
2.963631 -1.680808 0.113140 59.000000
2.955856 -1.688406 0.113072 59.000000
2.950662 -1.697466 0.113072 59.000000
2.943710 -1.705509 0.113026 59.000000
2.937600 -1.714028 0.113004 59.000000
2.930603 -1.722020 0.112958 59.000000
3.182616 -1.883144 0.119742 59.000000
3.972061 1.987036 0.109566 60.000000
4.015758 1.993503 0.110262 60.000000
4.022752 1.981616 0.110279 60.000000
4.051273 1.980236 0.110693 60.000000
4.065149 1.956207 0.110726 60.000000
4.104521 1.959657 0.111340 60.000000
4.139999 1.945486 0.111771 60.000000
4.149573 1.934464 0.111837 60.000000
4.168195 1.927597 0.112069 60.000000
4.174089 1.914800 0.112069 60.000000
4.211801 1.916471 0.112650 60.000000
4.272347 1.928205 0.113644 60.000000
4.284632 1.917947 0.113760 60.000000
4.298721 1.908442 0.113910 60.000000
4.310047 1.897661 0.114009 60.000000
4.313100 1.883229 0.113959 60.000000
4.313351 1.867606 0.113860 60.000000
4.318142 1.853969 0.113843 60.000000
4.302648 1.831710 0.113462 60.000000
4.300877 1.815392 0.113329 60.000000
4.297202 1.798331 0.113164 60.000000
4.297157 1.782842 0.113064 60.000000
4.292434 1.765469 0.112882 60.000000
4.296904 1.751914 0.112865 60.000000
4.300405 1.737974 0.112832 60.000000
4.302003 1.723286 0.112766 60.000000
4.304482 1.708974 0.112716 60.000000
4.307844 1.695028 0.112683 60.000000
4.306502 1.679263 0.112567 60.000000
4.312566 1.666403 0.112583 60.000000
4.308320 1.649591 0.112417 60.000000
4.313361 1.636366 0.112417 60.000000
4.315553 1.622070 0.112368 60.000000
4.320509 1.608823 0.112368 60.000000
4.327301 1.596252 0.112401 60.000000
4.329360 1.581939 0.112351 60.000000
4.337014 1.569670 0.112401 60.000000
4.341809 1.556357 0.112401 60.000000
4.345621 1.542695 0.112384 60.000000
4.347503 1.528361 0.112335 60.000000
4.349339 1.514030 0.112285 60.000000
4.352072 1.500028 0.112252 60.000000
4.351922 1.485056 0.112169 60.000000
4.351721 1.470099 0.112086 60.000000
4.352417 1.455474 0.112020 60.000000
4.354964 1.441486 0.111986 60.000000
4.358415 1.427807 0.111970 60.000000
4.362775 1.414429 0.111970 60.000000
4.364238 1.400122 0.111920 60.000000
4.375184 1.388842 0.112036 60.000000
4.939422 1.551132 0.121768 60.000000
4.953707 1.538935 0.121934 60.000000
4.950758 1.521382 0.121802 60.000000
4.954446 1.505895 0.121785 60.000000
4.966703 1.492989 0.121918 60.000000
4.971260 1.477744 0.121918 60.000000
3.291310 -1.220954 0.094130 60.000000
3.289421 -1.231748 0.094163 60.000000
3.282821 -1.240772 0.094113 60.000000
3.278065 -1.250481 0.094097 60.000000
3.272347 -1.259813 0.094064 60.000000
3.265671 -1.268759 0.094014 60.000000
3.257110 -1.276946 0.093931 60.000000
3.246669 -1.284356 0.093815 60.000000
3.240857 -1.293569 0.093782 60.000000
3.234091 -1.302384 0.093732 60.000000
3.224523 -1.310040 0.093632 60.000000
3.224189 -1.321444 0.093699 60.000000
3.215500 -1.329418 0.093616 60.000000
3.212329 -1.339662 0.093632 60.000000
3.206361 -1.348735 0.093599 60.000000
3.203128 -1.358957 0.093616 60.000000
3.192510 -1.366022 0.093500 60.000000
3.185550 -1.374620 0.093450 60.000000
3.177651 -1.382790 0.093384 60.000000
3.169732 -1.390924 0.093317 60.000000
3.159965 -1.398213 0.093218 60.000000
3.152921 -1.406678 0.093168 60.000000
3.145856 -1.415113 0.093118 60.000000
3.135126 -1.421865 0.093002 60.000000
3.127112 -1.429812 0.092936 60.000000
3.120895 -1.438561 0.092903 60.000000
3.114654 -1.447286 0.092870 60.000000
3.108388 -1.455986 0.092837 60.000000
3.103003 -1.465088 0.092820 60.000000
3.099396 -1.475031 0.092837 60.000000
3.094856 -1.484533 0.092837 60.000000
3.089387 -1.493586 0.092820 60.000000
3.083892 -1.502618 0.092803 60.000000
3.075678 -1.510309 0.092737 60.000000
3.068342 -1.518406 0.092687 60.000000
3.062774 -1.527366 0.092671 60.000000
3.057181 -1.536306 0.092654 60.000000
3.048886 -1.543870 0.092588 60.000000
3.045025 -1.553671 0.092605 60.000000
3.038466 -1.562091 0.092571 60.000000
3.032772 -1.570946 0.092555 60.000000
3.026165 -1.579317 0.092522 60.000000
3.021306 -1.588593 0.092522 60.000000
3.013768 -1.596450 0.092472 60.000000
3.005328 -1.603805 0.092406 60.000000
2.996871 -1.611122 0.092339 60.000000
2.991914 -1.620309 0.092339 60.000000
2.985174 -1.628522 0.092306 60.000000
2.980164 -1.637673 0.092306 60.000000
2.974251 -1.646324 0.092289 60.000000
2.970059 -1.655928 0.092306 60.000000
2.964965 -1.665032 0.092306 60.000000
2.960713 -1.674613 0.092323 60.000000
2.956430 -1.684184 0.092339 60.000000
2.950382 -1.692748 0.092323 60.000000
2.945175 -1.701792 0.092323 60.000000
2.939940 -1.710820 0.092323 60.000000
2.934677 -1.719831 0.092323 60.000000
3.977117 1.986752 0.083345 61.000000
3.996632 1.981202 0.083505 61.000000
4.017946 1.976433 0.083686 61.000000
4.076112 1.989532 0.084303 61.000000
4.051597 1.962201 0.083941 61.000000
4.089145 1.964917 0.084314 61.000000
4.140286 1.973874 0.084846 61.000000
4.162594 1.968857 0.085038 61.000000
4.167709 1.955652 0.085027 61.000000
4.193634 1.952139 0.085262 61.000000
4.217761 1.947647 0.085474 61.000000
4.243717 1.943857 0.085709 61.000000
4.290630 1.949439 0.086188 61.000000
4.293855 1.935034 0.086156 61.000000
4.294294 1.919403 0.086092 61.000000
4.298334 1.905409 0.086071 61.000000
4.302329 1.891409 0.086049 61.000000
4.306278 1.877401 0.086028 61.000000
4.311100 1.863784 0.086017 61.000000
4.314959 1.849761 0.085996 61.000000
4.312331 1.832995 0.085900 61.000000
4.309641 1.816262 0.085805 61.000000
4.306889 1.799562 0.085709 61.000000
4.307770 1.784428 0.085655 61.000000
4.303050 1.767026 0.085538 61.000000
4.303820 1.751931 0.085485 61.000000
4.298974 1.734604 0.085368 61.000000
4.292205 1.716581 0.085230 61.000000
4.300240 1.704510 0.085262 61.000000
4.309172 1.692771 0.085304 61.000000
4.308753 1.677366 0.085240 61.000000
4.312947 1.663780 0.085230 61.000000
4.318031 1.650540 0.085230 61.000000
4.322139 1.636930 0.085219 61.000000
4.325268 1.622960 0.085198 61.000000
4.329290 1.609335 0.085187 61.000000
4.332330 1.595354 0.085166 61.000000
4.335325 1.581370 0.085144 61.000000
4.338275 1.567382 0.085123 61.000000
4.342122 1.553729 0.085112 61.000000
4.343098 1.539064 0.085070 61.000000
4.344026 1.524408 0.085027 61.000000
4.346793 1.510418 0.085006 61.000000
4.345733 1.495124 0.084942 61.000000
4.350299 1.481784 0.084942 61.000000
4.337769 1.462681 0.084751 61.000000
4.355515 1.453797 0.084900 61.000000
4.358056 1.439801 0.084878 61.000000
4.360552 1.425802 0.084857 61.000000
4.363954 1.412109 0.084846 61.000000
4.371123 1.399629 0.084878 61.000000
4.378256 1.387118 0.084910 61.000000
4.386308 1.374875 0.084953 61.000000
4.818393 1.494052 0.089722 61.000000
4.945323 1.516784 0.091085 61.000000
4.950911 1.501895 0.091096 61.000000
4.956453 1.486986 0.091106 61.000000
3.300229 -1.215050 0.073455 61.000000
3.297423 -1.225517 0.073465 61.000000
3.292712 -1.235277 0.073455 61.000000
3.287036 -1.244664 0.073433 61.000000
3.278532 -1.252958 0.073380 61.000000
3.271874 -1.261930 0.073348 61.000000
3.265192 -1.270874 0.073316 61.000000
3.256624 -1.279057 0.073263 61.000000
3.248966 -1.287568 0.073221 61.000000
3.242215 -1.296416 0.073189 61.000000
3.235441 -1.305234 0.073157 61.000000
3.228643 -1.314023 0.073125 61.000000
3.223671 -1.323542 0.073114 61.000000
3.217748 -1.332661 0.073093 61.000000
3.213644 -1.342526 0.073093 61.000000
3.208589 -1.351991 0.073082 61.000000
3.202586 -1.361046 0.073061 61.000000
3.194719 -1.369289 0.073018 61.000000
3.186831 -1.377496 0.072976 61.000000
3.178924 -1.385668 0.072933 61.000000
3.169166 -1.393000 0.072869 61.000000
3.159392 -1.400284 0.072805 61.000000
3.152343 -1.408746 0.072773 61.000000
3.145271 -1.417178 0.072741 61.000000
3.137267 -1.425166 0.072699 61.000000
3.128334 -1.432702 0.072646 61.000000
3.123016 -1.441874 0.072635 61.000000
3.116765 -1.450604 0.072614 61.000000
3.109584 -1.458885 0.072582 61.000000
3.106902 -1.469274 0.072603 61.000000
3.101477 -1.478368 0.072592 61.000000
3.097828 -1.488310 0.072603 61.000000
3.090548 -1.496499 0.072571 61.000000
3.085942 -1.505974 0.072571 61.000000
3.079513 -1.514551 0.072550 61.000000
3.073060 -1.523104 0.072529 61.000000
3.065689 -1.531184 0.072497 61.000000
3.058297 -1.539233 0.072465 61.000000
3.049994 -1.546799 0.072422 61.000000
3.044343 -1.555694 0.072411 61.000000
3.036000 -1.563195 0.072369 61.000000
3.028527 -1.571120 0.072337 61.000000
3.020149 -1.578551 0.072294 61.000000
3.014407 -1.587343 0.072284 61.000000
3.006873 -1.595178 0.072252 61.000000
2.998437 -1.602509 0.072209 61.000000
2.991746 -1.610753 0.072188 61.000000
2.985911 -1.619447 0.072177 61.000000
2.980052 -1.628120 0.072167 61.000000
2.975042 -1.637255 0.072167 61.000000
2.970005 -1.646375 0.072167 61.000000
2.967559 -1.656942 0.072199 61.000000
2.958976 -1.664077 0.072156 61.000000
2.954727 -1.673640 0.072167 61.000000
2.951315 -1.683689 0.072188 61.000000
2.946136 -1.692735 0.072188 61.000000
2.940929 -1.701766 0.072188 61.000000
2.936558 -1.711284 0.072199 61.000000
3.963242 1.994818 0.054699 62.000000
3.977394 1.986672 0.054737 62.000000
3.991534 1.978458 0.054775 62.000000
4.029659 1.966650 0.054896 62.000000
4.069872 1.970843 0.055055 62.000000
4.121867 1.980438 0.055269 62.000000
4.148684 1.977682 0.055365 62.000000
4.171907 1.973069 0.055445 62.000000
4.201478 1.971306 0.055554 62.000000
4.242861 1.974867 0.055717 62.000000
4.267965 1.970646 0.055805 62.000000
4.279446 1.960041 0.055830 62.000000
4.312751 1.959314 0.055956 62.000000
4.287745 1.932103 0.055814 62.000000
4.285436 1.915266 0.055776 62.000000
4.291292 1.902110 0.055776 62.000000
4.289784 1.885715 0.055742 62.000000
4.295549 1.872545 0.055742 62.000000
4.306781 1.861739 0.055768 62.000000
4.310634 1.847729 0.055759 62.000000
4.313522 1.833322 0.055747 62.000000
4.312675 1.817361 0.055717 62.000000
4.307159 1.799494 0.055667 62.000000
4.308964 1.784741 0.055650 62.000000
4.308869 1.769233 0.055625 62.000000
4.312425 1.755251 0.055617 62.000000
4.312225 1.739767 0.055592 62.000000
4.310115 1.723559 0.055558 62.000000
4.308875 1.707747 0.055529 62.000000
4.311302 1.693423 0.055516 62.000000
4.314613 1.679463 0.055508 62.000000
4.318812 1.665858 0.055504 62.000000
4.322969 1.652243 0.055499 62.000000
4.326147 1.638264 0.055491 62.000000
4.328344 1.623930 0.055479 62.000000
4.330494 1.609597 0.055466 62.000000
4.331658 1.594922 0.055449 62.000000
4.332773 1.580254 0.055432 62.000000
4.335720 1.566274 0.055424 62.000000
4.337680 1.551954 0.055411 62.000000
4.337709 1.536969 0.055391 62.000000
4.338629 1.522329 0.055374 62.000000
4.339501 1.507698 0.055357 62.000000
4.342215 1.493727 0.055349 62.000000
4.346777 1.480398 0.055349 62.000000
4.355089 1.468333 0.055365 62.000000
4.359573 1.454965 0.055365 62.000000
4.357370 1.439387 0.055336 62.000000
4.358914 1.425080 0.055324 62.000000
4.357557 1.409853 0.055298 62.000000
4.365672 1.397697 0.055315 62.000000
4.383285 1.388526 0.055374 62.000000
4.875121 1.527932 0.057514 62.000000
4.891246 1.516523 0.057565 62.000000
4.942721 1.515880 0.057770 62.000000
4.941607 1.498967 0.057745 62.000000
4.941393 1.482362 0.057724 62.000000
4.949753 1.468333 0.057740 62.000000
3.288959 -1.199793 0.050779 62.000000
3.288078 -1.210914 0.050791 62.000000
3.281535 -1.219951 0.050779 62.000000
3.278713 -1.230364 0.050783 62.000000
3.272117 -1.239355 0.050770 62.000000
3.267366 -1.249031 0.050766 62.000000
3.259786 -1.257610 0.050749 62.000000
3.251253 -1.265792 0.050728 62.000000
3.245493 -1.275029 0.050720 62.000000
3.240636 -1.284612 0.050716 62.000000
3.231109 -1.292320 0.050691 62.000000
3.224347 -1.301105 0.050678 62.000000
3.217561 -1.309860 0.050666 62.000000
3.210752 -1.318586 0.050653 62.000000
3.205768 -1.328048 0.050649 62.000000
3.200755 -1.337491 0.050645 62.000000
3.196637 -1.347305 0.050645 62.000000
3.191568 -1.356714 0.050640 62.000000
3.184633 -1.365318 0.050628 62.000000
3.178594 -1.374288 0.050620 62.000000
3.170696 -1.382435 0.050603 62.000000
3.163693 -1.390949 0.050590 62.000000
3.155754 -1.399028 0.050573 62.000000
3.147795 -1.407071 0.050557 62.000000
3.141640 -1.415900 0.050548 62.000000
3.132729 -1.423464 0.050527 62.000000
3.126529 -1.432236 0.050519 62.000000
3.120304 -1.440983 0.050511 62.000000
3.113149 -1.449283 0.050498 62.000000
3.106877 -1.457978 0.050490 62.000000
3.103294 -1.467930 0.050494 62.000000
3.098775 -1.477444 0.050494 62.000000
3.094228 -1.486944 0.050494 62.000000
3.087852 -1.495559 0.050485 62.000000
3.084147 -1.505463 0.050490 62.000000
3.075925 -1.513153 0.050473 62.000000
3.069476 -1.521695 0.050465 62.000000
3.063899 -1.530658 0.050460 62.000000
3.058295 -1.539601 0.050456 62.000000
3.049098 -1.546715 0.050435 62.000000
3.042557 -1.555152 0.050427 62.000000
3.033326 -1.562190 0.050406 62.000000
3.024969 -1.569647 0.050389 62.000000
3.016594 -1.577068 0.050372 62.000000
3.009087 -1.584917 0.050360 62.000000
2.999793 -1.591798 0.050339 62.000000
2.992250 -1.599580 0.050326 62.000000
2.986448 -1.608279 0.050322 62.000000
2.979742 -1.616480 0.050314 62.000000
2.974768 -1.625614 0.050314 62.000000
2.970643 -1.635215 0.050318 62.000000
2.965612 -1.644321 0.050318 62.000000
2.960554 -1.653412 0.050318 62.000000
2.955467 -1.662487 0.050318 62.000000
2.951223 -1.672039 0.050322 62.000000
2.946948 -1.681581 0.050326 62.000000
2.941775 -1.690614 0.050326 62.000000
2.939171 -1.701134 0.050339 62.000000
4.027616 1.979895 0.026813 63.000000
4.050745 1.975863 0.026774 63.000000
4.104488 1.986528 0.026663 63.000000
4.149321 1.992550 0.026573 63.000000
4.147291 1.975938 0.026591 63.000000
4.194916 1.982873 0.026495 63.000000
4.248960 1.992508 0.026384 63.000000
4.297663 1.999298 0.026286 63.000000
4.322842 1.994908 0.026242 63.000000
4.339851 1.986633 0.026217 63.000000
4.285838 1.946008 0.026355 63.000000
4.286317 1.930385 0.026367 63.000000
4.286742 1.914777 0.026380 63.000000
4.290768 1.900806 0.026384 63.000000
4.292002 1.885621 0.026395 63.000000
4.295017 1.871246 0.026401 63.000000
4.299819 1.857663 0.026403 63.000000
4.303660 1.843675 0.026407 63.000000
4.304695 1.828507 0.026418 63.000000
4.304755 1.812961 0.026430 63.000000
4.302916 1.796662 0.026447 63.000000
4.305636 1.782304 0.026453 63.000000
4.306458 1.767187 0.026464 63.000000
4.305377 1.751327 0.026478 63.000000
4.302383 1.734743 0.026497 63.000000
4.306756 1.721164 0.026499 63.000000
4.308298 1.706468 0.026508 63.000000
4.308859 1.691415 0.026518 63.000000
4.311233 1.677099 0.026524 63.000000
4.314492 1.663145 0.026529 63.000000
4.317706 1.649186 0.026533 63.000000
4.319004 1.634515 0.026541 63.000000
4.322126 1.620554 0.026545 63.000000
4.324265 1.606241 0.026552 63.000000
4.327296 1.592276 0.026556 63.000000
4.330282 1.578307 0.026560 63.000000
4.334163 1.564674 0.026562 63.000000
4.336119 1.550359 0.026568 63.000000
4.338027 1.536047 0.026575 63.000000
4.337058 1.520744 0.026587 63.000000
4.336980 1.505790 0.026598 63.000000
4.337797 1.491176 0.026606 63.000000
4.342351 1.477861 0.026606 63.000000
4.345917 1.464212 0.026608 63.000000
4.348492 1.450239 0.026612 63.000000
4.353870 1.437205 0.026610 63.000000
4.357308 1.423530 0.026612 63.000000
4.357850 1.408924 0.026621 63.000000
4.366913 1.397072 0.026610 63.000000
4.376899 1.385480 0.026598 63.000000
4.870643 1.525484 0.025523 63.000000
4.920192 1.524454 0.025425 63.000000
4.929626 1.510818 0.025414 63.000000
4.935194 1.495977 0.025412 63.000000
4.954128 1.485139 0.025381 63.000000
3.295117 -1.191583 0.028874 63.000000
3.285809 -1.199631 0.028887 63.000000
3.280236 -1.209015 0.028891 63.000000
3.272762 -1.217679 0.028899 63.000000
3.266202 -1.226660 0.028906 63.000000
3.258682 -1.235259 0.028914 63.000000
3.250207 -1.243465 0.028925 63.000000
3.242645 -1.251991 0.028933 63.000000
3.237856 -1.261571 0.028935 63.000000
3.232109 -1.270768 0.028939 63.000000
3.225406 -1.279572 0.028946 63.000000
3.219609 -1.288719 0.028950 63.000000
3.212857 -1.297468 0.028956 63.000000
3.207009 -1.306565 0.028960 63.000000
3.200211 -1.315258 0.028967 63.000000
3.195236 -1.324688 0.028969 63.000000
3.190235 -1.334099 0.028971 63.000000
3.182441 -1.342327 0.028979 63.000000
3.177387 -1.351693 0.028981 63.000000
3.171387 -1.360646 0.028985 63.000000
3.167198 -1.370370 0.028985 63.000000
3.159312 -1.378482 0.028994 63.000000
3.155068 -1.388168 0.028994 63.000000
3.146223 -1.395815 0.029004 63.000000
3.139187 -1.404237 0.029010 63.000000
3.133952 -1.413450 0.029013 63.000000
3.124139 -1.420577 0.029025 63.000000
3.117038 -1.428905 0.029031 63.000000
3.115363 -1.439719 0.029025 63.000000
3.107305 -1.447582 0.029034 63.000000
3.102849 -1.457109 0.029034 63.000000
3.098365 -1.466621 0.029034 63.000000
3.092045 -1.475259 0.029038 63.000000
3.084800 -1.483439 0.029044 63.000000
3.079335 -1.492461 0.029046 63.000000
3.075640 -1.502339 0.029044 63.000000
3.068325 -1.510444 0.029050 63.000000
3.063676 -1.519851 0.029050 63.000000
3.059893 -1.529690 0.029048 63.000000
3.054293 -1.538620 0.029050 63.000000
3.048666 -1.547531 0.029052 63.000000
3.042123 -1.555967 0.029057 63.000000
3.032890 -1.563004 0.029067 63.000000
3.021867 -1.569078 0.029082 63.000000
3.009063 -1.574172 0.029101 63.000000
3.006873 -1.584794 0.029094 63.000000
2.997580 -1.591668 0.029105 63.000000
2.990037 -1.599443 0.029111 63.000000
2.983355 -1.607661 0.029115 63.000000
2.975772 -1.615376 0.029121 63.000000
2.969924 -1.624018 0.029124 63.000000
2.964052 -1.632640 0.029126 63.000000
2.959904 -1.642211 0.029124 63.000000
2.954852 -1.651284 0.029124 63.000000
2.948900 -1.659851 0.029126 63.000000
2.944664 -1.669383 0.029124 63.000000
2.940397 -1.678905 0.029121 63.000000
2.935232 -1.687918 0.029121 63.000000
3.448488 -1.996934 0.027867 63.000000
4.063350 1.999845 0.000734 64.000000
4.150986 1.995708 0.000129 64.000000
4.398641 1.999584 -0.001646 64.000000
4.350965 1.961842 -0.001183 64.000000
4.327749 1.935428 -0.000931 64.000000
4.310812 1.912011 -0.000735 64.000000
4.309334 1.895558 -0.000672 64.000000
4.310546 1.880330 -0.000633 64.000000
4.317213 1.867493 -0.000641 64.000000
4.306378 1.847148 -0.000499 64.000000
4.306503 1.831581 -0.000452 64.000000
4.313945 1.819137 -0.000468 64.000000
4.314892 1.803966 -0.000429 64.000000
4.310244 1.786510 -0.000342 64.000000
4.309229 1.770619 -0.000287 64.000000
4.307231 1.754375 -0.000224 64.000000
4.303320 1.737411 -0.000146 64.000000
4.305845 1.723086 -0.000122 64.000000
4.308322 1.708763 -0.000099 64.000000
4.311683 1.694806 -0.000083 64.000000
4.314998 1.680844 -0.000067 64.000000
4.318269 1.666878 -0.000052 64.000000
4.317758 1.651480 -0.000004 64.000000
4.319999 1.637164 0.000019 64.000000
4.322192 1.622848 0.000043 64.000000
4.327151 1.609581 0.000043 64.000000
4.332068 1.596297 0.000043 64.000000
4.336006 1.582657 0.000051 64.000000
4.343663 1.570366 0.000027 64.000000
4.344694 1.555685 0.000058 64.000000
4.345676 1.541012 0.000090 64.000000
4.344722 1.525686 0.000137 64.000000
4.344659 1.510709 0.000176 64.000000
4.342655 1.495095 0.000231 64.000000
4.343435 1.480476 0.000263 64.000000
4.346061 1.466504 0.000278 64.000000
4.351489 1.453480 0.000270 64.000000
4.357826 1.440751 0.000255 64.000000
4.363176 1.427685 0.000247 64.000000
4.367536 1.414292 0.000247 64.000000
4.370902 1.400581 0.000255 64.000000
4.376132 1.387467 0.000247 64.000000
4.380368 1.374035 0.000247 64.000000
4.884089 1.515461 -0.003861 64.000000
4.910704 1.507213 -0.004041 64.000000
4.930616 1.496784 -0.004167 64.000000
4.933269 1.481075 -0.004151 64.000000
4.952170 1.470199 -0.004269 64.000000
3.295761 -1.189505 0.008784 64.000000
3.294914 -1.200639 0.008761 64.000000
3.282770 -1.207632 0.008831 64.000000
3.275301 -1.216304 0.008863 64.000000
3.265000 -1.223887 0.008918 64.000000
3.256554 -1.232128 0.008957 64.000000
3.248088 -1.240328 0.008996 64.000000
3.239603 -1.248487 0.009035 64.000000
3.232030 -1.256969 0.009067 64.000000
3.228158 -1.266879 0.009067 64.000000
3.223327 -1.276409 0.009075 64.000000
3.217539 -1.285549 0.009090 64.000000
3.214507 -1.295788 0.009083 64.000000
3.207738 -1.304513 0.009106 64.000000
3.202796 -1.313968 0.009114 64.000000
3.198749 -1.323788 0.009114 64.000000
3.191905 -1.332439 0.009137 64.000000
3.187802 -1.342225 0.009137 64.000000
3.181829 -1.351217 0.009153 64.000000
3.174911 -1.359790 0.009177 64.000000
3.167971 -1.368334 0.009200 64.000000
3.161925 -1.377247 0.009216 64.000000
3.154023 -1.385332 0.009247 64.000000
3.146101 -1.393381 0.009279 64.000000
3.139073 -1.401802 0.009302 64.000000
3.131110 -1.409782 0.009334 64.000000
3.121308 -1.416900 0.009381 64.000000
3.115128 -1.425637 0.009397 64.000000
3.108924 -1.434348 0.009412 64.000000
3.103602 -1.443458 0.009420 64.000000
3.098254 -1.452548 0.009428 64.000000
3.093783 -1.462046 0.009428 64.000000
3.087478 -1.470670 0.009444 64.000000
3.082050 -1.479703 0.009452 64.000000
3.075696 -1.488280 0.009467 64.000000
3.071115 -1.497709 0.009467 64.000000
3.064711 -1.506241 0.009483 64.000000
3.060076 -1.515636 0.009483 64.000000
3.057201 -1.525911 0.009467 64.000000
3.052505 -1.535283 0.009467 64.000000
3.047780 -1.544641 0.009467 64.000000
3.042137 -1.553529 0.009475 64.000000
3.035578 -1.561939 0.009491 64.000000
3.027222 -1.569403 0.009522 64.000000
3.018848 -1.576830 0.009554 64.000000
3.009572 -1.583754 0.009593 64.000000
3.000282 -1.590636 0.009632 64.000000
2.991861 -1.597948 0.009664 64.000000
2.983423 -1.605223 0.009695 64.000000
2.977605 -1.613892 0.009703 64.000000
2.970007 -1.621581 0.009727 64.000000
2.966770 -1.631649 0.009711 64.000000
2.960001 -1.639774 0.009727 64.000000
2.955829 -1.649335 0.009719 64.000000
2.950755 -1.658395 0.009719 64.000000
2.947394 -1.668426 0.009703 64.000000
2.943130 -1.677956 0.009695 64.000000
2.937101 -1.686480 0.009703 64.000000
4.387151 1.995125 -0.032574 65.000000
4.388693 1.979600 -0.032502 65.000000
4.381968 1.960411 -0.032302 65.000000
4.323981 1.918576 -0.031300 65.000000
4.332593 1.906509 -0.031343 65.000000
4.327424 1.888410 -0.031171 65.000000
4.304749 1.862817 -0.030728 65.000000
4.319633 1.853543 -0.030871 65.000000
4.294935 1.827366 -0.030399 65.000000
4.292229 1.810684 -0.030270 65.000000
4.278392 1.789406 -0.029969 65.000000
4.299564 1.782781 -0.030212 65.000000
4.296690 1.766162 -0.030084 65.000000
4.298384 1.751462 -0.030026 65.000000
4.347313 1.755863 -0.030699 65.000000
4.302551 1.722454 -0.029926 65.000000
4.290156 1.702241 -0.029654 65.000000
4.300011 1.690900 -0.029726 65.000000
4.301452 1.676248 -0.029669 65.000000
4.311238 1.664844 -0.029740 65.000000
4.306987 1.648037 -0.029597 65.000000
4.312023 1.634815 -0.029597 65.000000
4.303913 1.616657 -0.029397 65.000000
4.321035 1.607978 -0.029583 65.000000
4.320319 1.592639 -0.029497 65.000000
4.344909 1.586578 -0.029797 65.000000
4.335652 1.568140 -0.029583 65.000000
4.342325 1.555505 -0.029611 65.000000
4.342365 1.540505 -0.029540 65.000000
4.340467 1.524856 -0.029440 65.000000
4.339458 1.509562 -0.029354 65.000000
4.337451 1.493963 -0.029254 65.000000
4.343907 1.481294 -0.029282 65.000000
4.351273 1.468919 -0.029325 65.000000
4.358604 1.456513 -0.029368 65.000000
4.363052 1.443134 -0.029368 65.000000
4.370310 1.430675 -0.029411 65.000000
4.378484 1.418493 -0.029468 65.000000
4.386624 1.406273 -0.029526 65.000000
4.443339 1.409432 -0.030313 65.000000
4.579301 1.437100 -0.032288 65.000000
4.878771 1.514629 -0.036710 65.000000
4.847072 1.488503 -0.036166 65.000000
4.865967 1.477983 -0.036381 65.000000
4.906869 1.473976 -0.036924 65.000000
4.955460 1.472009 -0.037583 65.000000
3.307767 -1.182073 -0.013869 65.000000
3.301304 -1.191197 -0.013826 65.000000
3.294815 -1.200292 -0.013783 65.000000
3.288302 -1.209359 -0.013740 65.000000
3.278952 -1.217353 -0.013654 65.000000
3.270521 -1.225652 -0.013583 65.000000
3.259264 -1.232849 -0.013468 65.000000
3.248927 -1.240346 -0.013368 65.000000
3.239509 -1.248150 -0.013282 65.000000
3.234732 -1.257720 -0.013268 65.000000
3.228066 -1.266543 -0.013225 65.000000
3.224165 -1.276440 -0.013225 65.000000
3.220234 -1.286326 -0.013225 65.000000
3.217200 -1.296573 -0.013239 65.000000
3.215059 -1.307191 -0.013268 65.000000
3.210109 -1.316669 -0.013254 65.000000
3.206978 -1.326893 -0.013268 65.000000
3.202892 -1.336726 -0.013268 65.000000
3.196011 -1.345382 -0.013225 65.000000
3.189108 -1.354008 -0.013182 65.000000
3.182181 -1.362605 -0.013139 65.000000
3.173396 -1.370378 -0.013068 65.000000
3.165510 -1.378511 -0.013010 65.000000
3.158520 -1.387009 -0.012967 65.000000
3.149678 -1.394668 -0.012896 65.000000
3.141733 -1.402694 -0.012839 65.000000
3.134679 -1.411094 -0.012796 65.000000
3.124873 -1.418225 -0.012710 65.000000
3.116870 -1.426141 -0.012653 65.000000
3.110664 -1.434858 -0.012624 65.000000
3.103528 -1.443130 -0.012581 65.000000
3.095464 -1.450947 -0.012524 65.000000
3.089190 -1.459582 -0.012495 65.000000
3.083795 -1.468623 -0.012481 65.000000
3.077472 -1.477211 -0.012452 65.000000
3.072026 -1.486210 -0.012438 65.000000
3.065654 -1.494751 -0.012409 65.000000
3.059259 -1.503268 -0.012381 65.000000
3.053737 -1.512202 -0.012366 65.000000
3.052662 -1.523350 -0.012424 65.000000
3.047081 -1.532259 -0.012409 65.000000
3.044149 -1.542504 -0.012438 65.000000
3.040293 -1.552291 -0.012452 65.000000
3.034627 -1.561154 -0.012438 65.000000
3.028048 -1.569536 -0.012409 65.000000
3.019673 -1.576967 -0.012352 65.000000
3.012167 -1.584827 -0.012309 65.000000
3.003757 -1.592187 -0.012252 65.000000
2.995330 -1.599510 -0.012195 65.000000
2.987767 -1.607271 -0.012152 65.000000
2.981064 -1.615477 -0.012123 65.000000
2.975216 -1.624136 -0.012109 65.000000
2.967591 -1.631810 -0.012066 65.000000
2.961696 -1.640422 -0.012052 65.000000
2.954903 -1.648527 -0.012023 65.000000
2.948088 -1.656604 -0.011994 65.000000
2.942122 -1.665149 -0.011980 65.000000
2.935262 -1.673177 -0.011951 65.000000
4.377413 1.988697 -0.062528 66.000000
4.367087 1.967863 -0.062158 66.000000
4.363976 1.950375 -0.061952 66.000000
4.348917 1.927658 -0.061478 66.000000
4.345659 1.910282 -0.061272 66.000000
4.306592 1.877361 -0.060263 66.000000
4.302238 1.859775 -0.060036 66.000000
4.286788 1.837506 -0.059563 66.000000
4.278604 1.818478 -0.059254 66.000000
4.266659 1.797965 -0.058863 66.000000
4.261085 1.780241 -0.058616 66.000000
4.256366 1.762950 -0.058389 66.000000
4.255281 1.747225 -0.058245 66.000000
4.244880 1.727753 -0.057895 66.000000
4.225128 1.704619 -0.057339 66.000000
4.227552 1.690535 -0.057277 66.000000
4.215060 1.670557 -0.056886 66.000000
4.233193 1.662735 -0.057174 66.000000
4.220573 1.642848 -0.056783 66.000000
4.245181 1.637449 -0.057215 66.000000
4.216566 1.611565 -0.056474 66.000000
4.218685 1.597559 -0.056412 66.000000
4.217950 1.582501 -0.056288 66.000000
4.227471 1.571295 -0.056391 66.000000
4.241653 1.561773 -0.056597 66.000000
4.269906 1.557319 -0.057112 66.000000
4.274663 1.544212 -0.057112 66.000000
4.281264 1.531764 -0.057153 66.000000
4.298193 1.522964 -0.057421 66.000000
4.307562 1.511425 -0.057524 66.000000
4.309346 1.497218 -0.057462 66.000000
4.326209 1.488219 -0.057730 66.000000
4.340219 1.478163 -0.057936 66.000000
4.352312 1.467397 -0.058101 66.000000
4.357742 1.454354 -0.058121 66.000000
4.372625 1.444428 -0.058348 66.000000
4.418848 1.444680 -0.059254 66.000000
4.391869 1.420957 -0.058574 66.000000
4.415251 1.413575 -0.058986 66.000000
4.460550 1.413009 -0.059872 66.000000
4.463910 1.399018 -0.059851 66.000000
4.476775 1.387982 -0.060036 66.000000
4.496305 1.378932 -0.060366 66.000000
4.770309 1.446992 -0.066173 66.000000
4.895384 1.468556 -0.068768 66.000000
4.942998 1.466329 -0.069695 66.000000
3.310503 -1.173241 -0.035839 66.000000
3.297474 -1.180025 -0.035633 66.000000
3.292898 -1.189796 -0.035613 66.000000
3.285475 -1.198523 -0.035530 66.000000
3.278968 -1.207561 -0.035469 66.000000
3.269625 -1.215525 -0.035345 66.000000
3.264008 -1.224848 -0.035304 66.000000
3.255560 -1.233086 -0.035201 66.000000
3.247092 -1.241284 -0.035098 66.000000
3.238605 -1.249441 -0.034995 66.000000
3.228234 -1.256833 -0.034851 66.000000
3.221571 -1.265634 -0.034789 66.000000
3.214885 -1.274407 -0.034727 66.000000
3.210960 -1.284264 -0.034727 66.000000
3.208859 -1.294857 -0.034768 66.000000
3.207649 -1.305826 -0.034830 66.000000
3.204553 -1.316041 -0.034851 66.000000
3.202348 -1.326631 -0.034892 66.000000
3.197340 -1.336064 -0.034871 66.000000
3.190462 -1.344703 -0.034810 66.000000
3.183561 -1.353312 -0.034748 66.000000
3.175718 -1.361497 -0.034665 66.000000
3.166020 -1.368853 -0.034542 66.000000
3.159056 -1.377362 -0.034480 66.000000
3.149324 -1.384633 -0.034356 66.000000
3.143233 -1.393479 -0.034315 66.000000
3.137117 -1.402300 -0.034274 66.000000
3.130977 -1.411096 -0.034233 66.000000
3.122082 -1.418628 -0.034130 66.000000
3.116806 -1.427783 -0.034109 66.000000
3.108780 -1.435662 -0.034027 66.000000
3.100735 -1.443506 -0.033945 66.000000
3.094482 -1.452163 -0.033903 66.000000
3.083685 -1.458658 -0.033759 66.000000
3.079196 -1.468112 -0.033759 66.000000
3.071072 -1.475820 -0.033677 66.000000
3.062931 -1.483492 -0.033595 66.000000
3.058365 -1.492882 -0.033595 66.000000
3.051976 -1.501375 -0.033553 66.000000
3.046460 -1.510288 -0.033533 66.000000
3.040918 -1.519180 -0.033512 66.000000
3.038029 -1.529401 -0.033553 66.000000
3.035997 -1.540071 -0.033615 66.000000
3.030368 -1.548923 -0.033595 66.000000
3.025601 -1.558213 -0.033595 66.000000
3.019032 -1.566567 -0.033553 66.000000
3.011553 -1.574433 -0.033492 66.000000
3.004055 -1.582267 -0.033430 66.000000
2.995653 -1.589602 -0.033347 66.000000
2.988117 -1.597371 -0.033286 66.000000
2.979681 -1.604636 -0.033203 66.000000
2.973866 -1.613293 -0.033183 66.000000
2.966270 -1.620971 -0.033121 66.000000
2.959531 -1.629100 -0.033080 66.000000
2.953645 -1.637687 -0.033059 66.000000
2.947733 -1.646254 -0.033039 66.000000
2.943540 -1.655779 -0.033059 66.000000
2.934097 -1.662339 -0.032956 66.000000
4.235049 1.937737 -0.087795 67.000000
4.246435 1.927215 -0.087955 67.000000
4.250505 1.913357 -0.087902 67.000000
4.257267 1.900715 -0.087928 67.000000
4.253940 1.883595 -0.087661 67.000000
4.256037 1.868927 -0.087555 67.000000
4.259918 1.855062 -0.087501 67.000000
4.260084 1.839605 -0.087341 67.000000
4.278572 1.832039 -0.087715 67.000000
4.274051 1.814604 -0.087421 67.000000
4.281441 1.802259 -0.087475 67.000000
4.244518 1.771394 -0.086246 67.000000
4.233308 1.751480 -0.085766 67.000000
4.222940 1.732032 -0.085312 67.000000
4.228234 1.719068 -0.085312 67.000000
4.210311 1.696740 -0.084644 67.000000
4.201573 1.678250 -0.084244 67.000000
4.197409 1.661670 -0.083977 67.000000
4.204348 1.649515 -0.084030 67.000000
4.192620 1.630084 -0.083550 67.000000
4.192937 1.615415 -0.083416 67.000000
4.201609 1.603971 -0.083523 67.000000
4.204640 1.590365 -0.083470 67.000000
4.226347 1.583776 -0.083950 67.000000
4.239620 1.573936 -0.084190 67.000000
4.243491 1.560577 -0.084164 67.000000
4.238867 1.544126 -0.083897 67.000000
4.256747 1.535868 -0.084271 67.000000
4.255792 1.520781 -0.084110 67.000000
4.271745 1.511722 -0.084431 67.000000
4.284852 1.501587 -0.084671 67.000000
4.303604 1.493354 -0.085072 67.000000
4.325181 1.485994 -0.085552 67.000000
4.337290 1.475295 -0.085766 67.000000
4.345585 1.463258 -0.085873 67.000000
4.365226 1.454981 -0.086300 67.000000
4.385806 1.446910 -0.086754 67.000000
4.376922 1.429100 -0.086380 67.000000
4.388895 1.418126 -0.086593 67.000000
4.398937 1.406483 -0.086754 67.000000
4.417527 1.397507 -0.087154 67.000000
4.428471 1.386039 -0.087341 67.000000
4.457529 1.380139 -0.088035 67.000000
4.506662 1.380227 -0.089290 67.000000
4.508962 1.365814 -0.089237 67.000000
4.515046 1.352549 -0.089290 67.000000
4.547926 1.347215 -0.090091 67.000000
4.550120 1.332694 -0.090038 67.000000
4.561868 1.320954 -0.090251 67.000000
4.571665 1.308604 -0.090412 67.000000
3.310236 -1.163357 -0.057116 67.000000
3.300998 -1.171503 -0.056956 67.000000
3.294564 -1.180614 -0.056876 67.000000
3.287167 -1.189357 -0.056769 67.000000
3.278807 -1.197723 -0.056636 67.000000
3.271365 -1.206394 -0.056529 67.000000
3.263900 -1.215031 -0.056422 67.000000
3.257350 -1.223985 -0.056342 67.000000
3.249840 -1.232556 -0.056235 67.000000
3.243242 -1.241449 -0.056155 67.000000
3.236620 -1.250314 -0.056075 67.000000
3.229975 -1.259150 -0.055995 67.000000
3.221445 -1.267225 -0.055861 67.000000
3.215683 -1.276365 -0.055808 67.000000
3.210824 -1.285854 -0.055781 67.000000
3.205937 -1.295324 -0.055755 67.000000
3.202874 -1.305531 -0.055781 67.000000
3.198853 -1.315351 -0.055781 67.000000
3.193879 -1.324776 -0.055755 67.000000
3.187955 -1.333797 -0.055701 67.000000
3.177401 -1.340853 -0.055514 67.000000
3.170512 -1.349421 -0.055434 67.000000
3.160845 -1.356778 -0.055274 67.000000
3.155750 -1.366072 -0.055247 67.000000
3.146046 -1.373350 -0.055087 67.000000
3.140903 -1.382593 -0.055060 67.000000
3.135733 -1.391817 -0.055034 67.000000
3.131448 -1.401431 -0.055034 67.000000
3.126222 -1.410620 -0.055007 67.000000
3.121880 -1.420205 -0.055007 67.000000
3.116599 -1.429360 -0.054980 67.000000
3.110384 -1.438076 -0.054927 67.000000
3.103239 -1.446346 -0.054847 67.000000
3.095168 -1.454161 -0.054740 67.000000
3.087077 -1.461939 -0.054633 67.000000
3.078066 -1.469252 -0.054500 67.000000
3.069039 -1.476523 -0.054366 67.000000
3.059997 -1.483753 -0.054233 67.000000
3.052736 -1.491818 -0.054153 67.000000
3.046350 -1.500294 -0.054099 67.000000
3.039047 -1.508301 -0.054019 67.000000
3.034405 -1.517617 -0.054019 67.000000
3.031520 -1.527819 -0.054072 67.000000
3.026819 -1.537112 -0.054072 67.000000
3.022979 -1.546846 -0.054099 67.000000
3.017330 -1.555655 -0.054072 67.000000
3.012543 -1.564905 -0.054072 67.000000
3.005956 -1.573213 -0.054019 67.000000
2.997578 -1.580564 -0.053912 67.000000
2.991832 -1.589285 -0.053886 67.000000
2.982534 -1.596099 -0.053752 67.000000
2.974983 -1.603820 -0.053672 67.000000
2.966534 -1.611032 -0.053565 67.000000
2.959823 -1.619167 -0.053512 67.000000
2.953090 -1.627276 -0.053458 67.000000
2.947210 -1.635843 -0.053432 67.000000
2.941305 -1.644390 -0.053405 67.000000
2.934504 -1.652426 -0.053351 67.000000
4.496603 1.977877 -0.122835 68.000000
4.520058 1.971661 -0.123452 68.000000
4.489388 1.941921 -0.122154 68.000000
4.468685 1.916719 -0.121212 68.000000
4.380720 1.863124 -0.117902 68.000000
4.281417 1.805430 -0.114202 68.000000
4.248203 1.776104 -0.112838 68.000000
4.237010 1.756178 -0.112254 68.000000
4.234057 1.739754 -0.111962 68.000000
4.215306 1.716959 -0.111118 68.000000
4.229823 1.707758 -0.111443 68.000000
4.241538 1.697371 -0.111670 68.000000
4.216992 1.672566 -0.110631 68.000000
4.230477 1.662910 -0.110923 68.000000
4.238353 1.651010 -0.111021 68.000000
4.248993 1.640158 -0.111215 68.000000
4.248404 1.624973 -0.111021 68.000000
4.250565 1.610870 -0.110923 68.000000
4.269523 1.603088 -0.111410 68.000000
4.280043 1.592071 -0.111605 68.000000
4.268024 1.572716 -0.111021 68.000000
4.279402 1.562012 -0.111248 68.000000
4.333995 1.566873 -0.112968 68.000000
4.300199 1.539765 -0.111637 68.000000
4.294539 1.522893 -0.111280 68.000000
4.294476 1.508056 -0.111118 68.000000
4.347232 1.511603 -0.112773 68.000000
4.330112 1.490781 -0.112027 68.000000
4.328988 1.475556 -0.111832 68.000000
4.335389 1.462906 -0.111897 68.000000
4.345545 1.451497 -0.112092 68.000000
4.349977 1.438158 -0.112092 68.000000
4.347719 1.422632 -0.111865 68.000000
4.356818 1.410825 -0.112027 68.000000
4.379212 1.403242 -0.112644 68.000000
4.402553 1.395836 -0.113293 68.000000
4.456408 1.397866 -0.114981 68.000000
4.507453 1.398690 -0.116571 68.000000
4.537523 1.392767 -0.117447 68.000000
4.559947 1.384352 -0.118064 68.000000
4.568959 1.371791 -0.118226 68.000000
4.574105 1.358052 -0.118259 68.000000
4.585922 1.346262 -0.118518 68.000000
4.587151 1.331352 -0.118421 68.000000
4.596979 1.318925 -0.118616 68.000000
4.594272 1.302908 -0.118389 68.000000
3.304937 -1.158548 -0.077038 68.000000
3.298541 -1.167681 -0.076940 68.000000
3.292120 -1.176785 -0.076843 68.000000
3.288494 -1.186879 -0.076843 68.000000
3.282959 -1.196278 -0.076778 68.000000
3.272708 -1.203926 -0.076551 68.000000
3.266189 -1.212917 -0.076454 68.000000
3.262452 -1.222931 -0.076454 68.000000
3.254011 -1.231165 -0.076291 68.000000
3.247418 -1.240072 -0.076194 68.000000
3.242666 -1.249669 -0.076161 68.000000
3.235091 -1.258161 -0.076032 68.000000
3.229355 -1.267349 -0.075967 68.000000
3.223594 -1.276514 -0.075902 68.000000
3.215950 -1.284914 -0.075772 68.000000
3.211066 -1.294400 -0.075739 68.000000
3.203377 -1.302738 -0.075610 68.000000
3.197516 -1.311800 -0.075545 68.000000
3.188860 -1.319691 -0.075382 68.000000
3.182029 -1.328313 -0.075285 68.000000
3.172413 -1.335740 -0.075090 68.000000
3.165540 -1.344293 -0.074993 68.000000
3.156808 -1.352030 -0.074831 68.000000
3.149893 -1.360518 -0.074733 68.000000
3.142040 -1.368578 -0.074603 68.000000
3.136911 -1.377809 -0.074571 68.000000
3.130842 -1.386616 -0.074506 68.000000
3.126573 -1.396215 -0.074506 68.000000
3.121364 -1.405390 -0.074474 68.000000
3.117947 -1.415373 -0.074506 68.000000
3.110864 -1.423683 -0.074409 68.000000
3.109204 -1.434478 -0.074506 68.000000
3.103882 -1.443588 -0.074474 68.000000
3.097629 -1.452255 -0.074409 68.000000
3.089545 -1.460042 -0.074279 68.000000
3.080540 -1.467363 -0.074117 68.000000
3.070619 -1.474210 -0.073922 68.000000
3.060684 -1.481009 -0.073727 68.000000
3.051635 -1.488201 -0.073565 68.000000
3.044365 -1.496232 -0.073467 68.000000
3.038865 -1.505121 -0.073435 68.000000
3.033339 -1.513991 -0.073403 68.000000
3.030465 -1.524189 -0.073467 68.000000
3.026666 -1.533931 -0.073500 68.000000
3.022835 -1.543664 -0.073532 68.000000
3.019862 -1.553846 -0.073597 68.000000
3.013307 -1.562183 -0.073532 68.000000
3.005843 -1.570031 -0.073435 68.000000
2.996590 -1.576917 -0.073273 68.000000
2.988207 -1.584229 -0.073143 68.000000
2.980688 -1.591976 -0.073046 68.000000
2.971390 -1.598743 -0.072883 68.000000
2.963835 -1.606422 -0.072786 68.000000
2.958016 -1.615028 -0.072753 68.000000
2.952172 -1.623614 -0.072721 68.000000
2.947176 -1.632663 -0.072721 68.000000
2.940408 -1.640723 -0.072656 68.000000
2.929263 -1.646306 -0.072429 68.000000
0.720842 -0.779083 0.002223 68.000000
0.701556 -0.762880 0.003035 68.000000
4.316454 1.993210 -0.147517 69.000000
4.313464 1.975798 -0.147129 69.000000
4.307678 1.957183 -0.146626 69.000000
4.307284 1.941084 -0.146354 69.000000
4.313220 1.927860 -0.146354 69.000000
4.310892 1.910975 -0.146006 69.000000
4.303012 1.891709 -0.145425 69.000000
4.316124 1.881693 -0.145735 69.000000
4.316373 1.866064 -0.145502 69.000000
4.306464 1.846120 -0.144844 69.000000
4.299233 1.827428 -0.144301 69.000000
4.287323 1.806858 -0.143565 69.000000
4.284548 1.790230 -0.143217 69.000000
4.281711 1.773635 -0.142868 69.000000
4.266796 1.752142 -0.142016 69.000000
4.214768 1.715690 -0.139614 69.000000
4.224645 1.704620 -0.139808 69.000000
4.213154 1.684974 -0.139111 69.000000
4.216445 1.671304 -0.139033 69.000000
4.232715 1.662743 -0.139498 69.000000
4.237796 1.649750 -0.139498 69.000000
4.249363 1.639258 -0.139769 69.000000
4.256239 1.626927 -0.139847 69.000000
4.266818 1.615984 -0.140079 69.000000
4.268013 1.601482 -0.139924 69.000000
4.271970 1.588032 -0.139885 69.000000
4.278697 1.575609 -0.139963 69.000000
4.282572 1.562132 -0.139924 69.000000
4.282645 1.547289 -0.139730 69.000000
4.282668 1.532460 -0.139537 69.000000
4.291117 1.520648 -0.139692 69.000000
4.308020 1.511777 -0.140195 69.000000
4.315469 1.499536 -0.140312 69.000000
4.323829 1.487590 -0.140466 69.000000
4.329319 1.474640 -0.140505 69.000000
4.332875 1.461031 -0.140466 69.000000
4.339233 1.448364 -0.140544 69.000000
4.341758 1.434418 -0.140466 69.000000
4.347088 1.421401 -0.140505 69.000000
4.353330 1.408673 -0.140583 69.000000
4.356680 1.395006 -0.140544 69.000000
4.370465 1.384650 -0.140931 69.000000
4.388996 1.375717 -0.141512 69.000000
4.394150 1.362541 -0.141551 69.000000
4.439390 1.361650 -0.143217 69.000000
4.535346 1.375864 -0.146935 69.000000
4.582616 1.374862 -0.148679 69.000000
4.582980 1.359659 -0.148524 69.000000
4.593842 1.347561 -0.148795 69.000000
4.603713 1.335130 -0.149027 69.000000
4.576088 1.311915 -0.147749 69.000000
3.293932 -1.178418 -0.098825 69.000000
3.292181 -1.189197 -0.098902 69.000000
3.278191 -1.195525 -0.098476 69.000000
3.276383 -1.206267 -0.098553 69.000000
3.270794 -1.215617 -0.098476 69.000000
3.264242 -1.224592 -0.098360 69.000000
3.254863 -1.232478 -0.098127 69.000000
3.247333 -1.241030 -0.097972 69.000000
3.241646 -1.250268 -0.097895 69.000000
3.235001 -1.259119 -0.097779 69.000000
3.228333 -1.267942 -0.097663 69.000000
3.220712 -1.276368 -0.097508 69.000000
3.216781 -1.286242 -0.097508 69.000000
3.208187 -1.294236 -0.097314 69.000000
3.201425 -1.302942 -0.097198 69.000000
3.192791 -1.310859 -0.097004 69.000000
3.185061 -1.319119 -0.096849 69.000000
3.175467 -1.326572 -0.096617 69.000000
3.167699 -1.334756 -0.096462 69.000000
3.160830 -1.343295 -0.096345 69.000000
3.153021 -1.351411 -0.096191 69.000000
3.147026 -1.360285 -0.096113 69.000000
3.141006 -1.369135 -0.096036 69.000000
3.134961 -1.377960 -0.095958 69.000000
3.128892 -1.386762 -0.095881 69.000000
3.123710 -1.395947 -0.095842 69.000000
3.118502 -1.405113 -0.095803 69.000000
3.113266 -1.414261 -0.095764 69.000000
3.109822 -1.424221 -0.095803 69.000000
3.105437 -1.433756 -0.095803 69.000000
3.101024 -1.443276 -0.095803 69.000000
3.096581 -1.452783 -0.095803 69.000000
3.087594 -1.460140 -0.095609 69.000000
3.080393 -1.468315 -0.095493 69.000000
3.069570 -1.474729 -0.095222 69.000000
3.059635 -1.481526 -0.094990 69.000000
3.049687 -1.488276 -0.094757 69.000000
3.043314 -1.496743 -0.094680 69.000000
3.036917 -1.505185 -0.094602 69.000000
3.033179 -1.514942 -0.094641 69.000000
3.028517 -1.524240 -0.094641 69.000000
3.026500 -1.534881 -0.094757 69.000000
3.020887 -1.543704 -0.094719 69.000000
3.014360 -1.552049 -0.094641 69.000000
3.007810 -1.560369 -0.094564 69.000000
3.000352 -1.568201 -0.094447 69.000000
2.992875 -1.576002 -0.094331 69.000000
2.986260 -1.584239 -0.094254 69.000000
2.979623 -1.592451 -0.094176 69.000000
2.972964 -1.600638 -0.094099 69.000000
2.967161 -1.609275 -0.094060 69.000000
2.961333 -1.617891 -0.094021 69.000000
2.957231 -1.627450 -0.094060 69.000000
2.950476 -1.635546 -0.093983 69.000000
2.947189 -1.645565 -0.094060 69.000000
0.735110 -0.786013 -0.004927 69.000000
0.723175 -0.778015 -0.004385 69.000000
4.317961 1.991913 -0.175722 70.000000
4.316785 1.975330 -0.175365 70.000000
4.314638 1.958360 -0.174963 70.000000
4.314249 1.942243 -0.174650 70.000000
4.311978 1.925331 -0.174248 70.000000
4.313298 1.910071 -0.174025 70.000000
4.313650 1.894418 -0.173757 70.000000
4.313946 1.878781 -0.173489 70.000000
4.313270 1.862764 -0.173176 70.000000
4.318046 1.849129 -0.173131 70.000000
4.321860 1.835092 -0.173042 70.000000
4.309976 1.814458 -0.172194 70.000000
4.306304 1.797378 -0.171747 70.000000
4.309951 1.783394 -0.171658 70.000000
4.319099 1.771679 -0.171836 70.000000
4.296753 1.747129 -0.170496 70.000000
4.293754 1.730577 -0.170094 70.000000
4.325018 1.727775 -0.171345 70.000000
4.326583 1.713026 -0.171166 70.000000
4.307640 1.690255 -0.170005 70.000000
4.292322 1.669064 -0.169022 70.000000
4.331913 1.669181 -0.170675 70.000000
4.343546 1.658378 -0.170988 70.000000
4.283209 1.620296 -0.167861 70.000000
4.290030 1.607849 -0.167950 70.000000
4.296816 1.595375 -0.168040 70.000000
4.323255 1.590119 -0.169067 70.000000
4.314033 1.571717 -0.168397 70.000000
4.309438 1.555083 -0.167950 70.000000
4.301019 1.537146 -0.167325 70.000000
4.301948 1.522610 -0.167146 70.000000
4.313198 1.511718 -0.167459 70.000000
4.326310 1.501427 -0.167861 70.000000
4.327116 1.486848 -0.167682 70.000000
4.338278 1.475818 -0.167995 70.000000
4.352252 1.465691 -0.168442 70.000000
4.355781 1.452016 -0.168397 70.000000
4.363061 1.439585 -0.168531 70.000000
4.357961 1.423090 -0.168084 70.000000
4.357553 1.408177 -0.167861 70.000000
4.363756 1.395411 -0.167950 70.000000
4.360397 1.379605 -0.167593 70.000000
4.361749 1.365325 -0.167459 70.000000
4.368781 1.352824 -0.167593 70.000000
4.369090 1.338244 -0.167414 70.000000
4.371263 1.324254 -0.167325 70.000000
4.375305 1.310837 -0.167325 70.000000
4.374516 1.295988 -0.167102 70.000000
4.397646 1.288179 -0.167995 70.000000
4.396780 1.273291 -0.167772 70.000000
4.400665 1.259796 -0.167772 70.000000
4.412199 1.248466 -0.168129 70.000000
3.247913 -1.231481 -0.118416 70.000000
3.244120 -1.241440 -0.118416 70.000000
3.237500 -1.250308 -0.118282 70.000000
3.224340 -1.256608 -0.117836 70.000000
3.216751 -1.265032 -0.117657 70.000000
3.211926 -1.274526 -0.117612 70.000000
3.204291 -1.282889 -0.117434 70.000000
3.196635 -1.291218 -0.117255 70.000000
3.190808 -1.300265 -0.117166 70.000000
3.184032 -1.308909 -0.117032 70.000000
3.176310 -1.317141 -0.116853 70.000000
3.168567 -1.325338 -0.116674 70.000000
3.161725 -1.333888 -0.116540 70.000000
3.154860 -1.342409 -0.116406 70.000000
3.147972 -1.350900 -0.116272 70.000000
3.141062 -1.359362 -0.116138 70.000000
3.135961 -1.368592 -0.116094 70.000000
3.129004 -1.377000 -0.115960 70.000000
3.123852 -1.386188 -0.115915 70.000000
3.116849 -1.394542 -0.115781 70.000000
3.110734 -1.403276 -0.115692 70.000000
3.105505 -1.412400 -0.115647 70.000000
3.100249 -1.421504 -0.115602 70.000000
3.095874 -1.431009 -0.115602 70.000000
3.092374 -1.440922 -0.115647 70.000000
3.087035 -1.449978 -0.115602 70.000000
3.081669 -1.459015 -0.115558 70.000000
3.073571 -1.466742 -0.115379 70.000000
3.067256 -1.475298 -0.115290 70.000000
3.059120 -1.482959 -0.115111 70.000000
3.050068 -1.490145 -0.114888 70.000000
3.042793 -1.498172 -0.114754 70.000000
3.037287 -1.507056 -0.114709 70.000000
3.030862 -1.515474 -0.114620 70.000000
3.025306 -1.524316 -0.114575 70.000000
3.018834 -1.532686 -0.114486 70.000000
3.013228 -1.541486 -0.114441 70.000000
3.006708 -1.549808 -0.114352 70.000000
2.999279 -1.557644 -0.114218 70.000000
2.992716 -1.565912 -0.114128 70.000000
2.985247 -1.573689 -0.113994 70.000000
2.979522 -1.582372 -0.113950 70.000000
2.975534 -1.591976 -0.113994 70.000000
2.968878 -1.600150 -0.113905 70.000000
2.963954 -1.609251 -0.113905 70.000000
2.959003 -1.618336 -0.113905 70.000000
2.954024 -1.627407 -0.113905 70.000000
2.949018 -1.636462 -0.113905 70.000000
0.722237 -0.768966 -0.010281 70.000000
