# This PCD file was generated using the MATLAB® pcwrite function
# from Computer Vision Toolbox®.
# .PCD v.7 - Point Cloud Data file format
VERSION .7
FIELDS x y z intensity
SIZE 4 4 4 4
TYPE F F F F
COUNT 1 1 1 1
WIDTH 1288
HEIGHT 1
VIEWPOINT 0 0 0 1 0 0 0
POINTS 1288
DATA ascii
1.798251 0.527192 0.273224 42.000000
1.797954 0.521120 0.272971 42.000000
1.799545 0.515601 0.272971 42.000000
1.801118 0.510078 0.272971 42.000000
1.801719 0.504282 0.272844 42.000000
1.801346 0.498223 0.272591 42.000000
1.803823 0.492956 0.272718 42.000000
1.807242 0.487937 0.272971 42.000000
1.808730 0.482390 0.272971 42.000000
1.809243 0.476586 0.272844 42.000000
1.810696 0.471033 0.272844 42.000000
1.813094 0.465723 0.272971 42.000000
1.814514 0.460158 0.272971 42.000000
1.816879 0.454830 0.273097 42.000000
1.819229 0.449492 0.273224 42.000000
1.822527 0.444379 0.273477 42.000000
1.822917 0.438553 0.273350 42.000000
1.827150 0.433646 0.273730 42.000000
1.828471 0.428039 0.273730 42.000000
1.832675 0.423097 0.274110 42.000000
1.833965 0.417472 0.274110 42.000000
1.837173 0.412279 0.274363 42.000000
1.839397 0.406855 0.274489 42.000000
1.838699 0.400787 0.274236 42.000000
1.839919 0.395144 0.274236 42.000000
1.840153 0.389292 0.274110 42.000000
1.840367 0.383442 0.273983 42.000000
1.839592 0.377395 0.273730 42.000000
1.840741 0.371749 0.273730 42.000000
1.839927 0.365713 0.273477 42.000000
1.842987 0.360447 0.273730 42.000000
1.847007 0.355354 0.274110 42.000000
1.849063 0.349871 0.274236 42.000000
1.852078 0.344560 0.274489 42.000000
1.855078 0.339233 0.274742 42.000000
1.858062 0.333892 0.274995 42.000000
1.860055 0.328362 0.275122 42.000000
1.862031 0.322824 0.275248 42.000000
1.864968 0.317443 0.275502 42.000000
1.864955 0.311556 0.275375 42.000000
1.866881 0.305994 0.275502 42.000000
1.868790 0.300422 0.275628 42.000000
1.872642 0.295152 0.276008 42.000000
1.873539 0.289405 0.276008 42.000000
1.874418 0.283656 0.276008 42.000000
1.875280 0.277904 0.276008 42.000000
1.876123 0.272149 0.276008 42.000000
1.878914 0.266671 0.276261 42.000000
1.880705 0.261042 0.276387 42.000000
1.881498 0.255271 0.276387 42.000000
1.880305 0.249236 0.276134 42.000000
1.880077 0.243339 0.276008 42.000000
1.881799 0.237694 0.276134 42.000000
1.881535 0.231798 0.276008 42.000000
1.885192 0.226380 0.276387 42.000000
1.885877 0.220595 0.276387 42.000000
1.889502 0.215146 0.276767 42.000000
1.890153 0.209348 0.276767 42.000000
1.890787 0.203548 0.276767 42.000000
1.894362 0.198056 0.277147 42.000000
1.894961 0.192244 0.277147 42.000000
1.897516 0.186624 0.277400 42.000000
1.899067 0.180895 0.277526 42.000000
1.897637 0.174886 0.277273 42.000000
1.899153 0.169151 0.277400 42.000000
1.900651 0.163409 0.277526 42.000000
1.902132 0.157660 0.277653 42.000000
1.905573 0.152060 0.278033 42.000000
1.906031 0.146214 0.278033 42.000000
1.911417 0.140730 0.278665 42.000000
1.910850 0.134796 0.278539 42.000000
1.915214 0.129200 0.279045 42.000000
1.917581 0.123452 0.279298 42.000000
1.917950 0.117568 0.279298 42.000000
1.921273 0.111857 0.279678 42.000000
1.922598 0.106017 0.279804 42.000000
1.925886 0.100273 0.280184 42.000000
1.929156 0.094511 0.280563 42.000000
1.933401 0.088774 0.281070 42.000000
1.935646 0.082928 0.281323 42.000000
1.937874 0.077068 0.281576 42.000000
1.936119 0.071049 0.281323 42.000000
1.939302 0.065210 0.281702 42.000000
1.942467 0.059351 0.282082 42.000000
1.941648 0.053364 0.281955 42.000000
1.941803 0.047407 0.281955 42.000000
1.940948 0.041428 0.281829 42.000000
1.942057 0.035491 0.281955 42.000000
1.943149 0.029548 0.282082 42.000000
1.945214 0.023611 0.282335 42.000000
1.949245 0.017680 0.282841 42.000000
1.951274 0.011712 0.283094 42.000000
1.952293 0.005728 0.283221 42.000000
1.961229 -0.000261 0.284360 42.000000
1.960227 -0.006275 0.284233 42.000000
1.964166 -0.012313 0.284739 42.000000
1.967095 -0.018366 0.285119 42.000000
1.970005 -0.024437 0.285499 42.000000
1.971904 -0.030511 0.285752 42.000000
1.972793 -0.036579 0.285878 42.000000
1.993498 -0.043077 0.288536 42.000000
1.960632 -0.048391 0.284360 42.000000
1.945600 -0.053997 0.282462 42.000000
1.782211 0.557753 0.260259 43.000000
1.786758 0.553166 0.260619 43.000000
1.790345 0.548264 0.260859 43.000000
1.792018 0.542769 0.260859 43.000000
1.792724 0.536983 0.260739 43.000000
1.794363 0.531480 0.260739 43.000000
1.796938 0.526252 0.260859 43.000000
1.797590 0.520460 0.260739 43.000000
1.800133 0.515217 0.260859 43.000000
1.797885 0.508608 0.260379 43.000000
1.797525 0.502554 0.260138 43.000000
1.797145 0.496507 0.259898 43.000000
1.798660 0.490991 0.259898 43.000000
1.801116 0.485730 0.260018 43.000000
1.800679 0.479689 0.259778 43.000000
1.803102 0.474416 0.259898 43.000000
1.806471 0.469382 0.260138 43.000000
1.808864 0.464085 0.260259 43.000000
1.810279 0.458534 0.260259 43.000000
1.812640 0.453219 0.260379 43.000000
1.815950 0.448133 0.260619 43.000000
1.819245 0.443030 0.260859 43.000000
1.820595 0.437447 0.260859 43.000000
1.822895 0.432089 0.260979 43.000000
1.826145 0.426948 0.261220 43.000000
1.829381 0.421790 0.261460 43.000000
1.828730 0.415734 0.261220 43.000000
1.830966 0.410340 0.261340 43.000000
1.837062 0.405794 0.261940 43.000000
1.839268 0.400368 0.262061 43.000000
1.837576 0.394097 0.261700 43.000000
1.838777 0.388458 0.261700 43.000000
1.840932 0.383017 0.261820 43.000000
1.839181 0.376768 0.261460 43.000000
1.839355 0.370927 0.261340 43.000000
1.840484 0.365282 0.261340 43.000000
1.843545 0.360016 0.261580 43.000000
1.842691 0.353982 0.261340 43.000000
1.846695 0.348882 0.261700 43.000000
1.846780 0.343033 0.261580 43.000000
1.850754 0.337902 0.261940 43.000000
1.851781 0.332222 0.261940 43.000000
1.854747 0.326886 0.262181 43.000000
1.856719 0.321364 0.262301 43.000000
1.859654 0.316000 0.262541 43.000000
1.859635 0.310129 0.262421 43.000000
1.863517 0.304905 0.262781 43.000000
1.867384 0.299660 0.263142 43.000000
1.868295 0.293929 0.263142 43.000000
1.869188 0.288196 0.263142 43.000000
1.872026 0.282758 0.263382 43.000000
1.873867 0.277159 0.263502 43.000000
1.876673 0.271695 0.263742 43.000000
1.877498 0.265936 0.263742 43.000000
1.880271 0.260448 0.263983 43.000000
1.882045 0.254812 0.264103 43.000000
1.881834 0.248906 0.263983 43.000000
1.881604 0.243004 0.263863 43.000000
1.882341 0.237230 0.263863 43.000000
1.883060 0.231454 0.263863 43.000000
1.884747 0.225794 0.263983 43.000000
1.885431 0.220011 0.263983 43.000000
1.887083 0.214338 0.264103 43.000000
1.888718 0.208657 0.264223 43.000000
1.891324 0.203075 0.264463 43.000000
1.892925 0.197375 0.264583 43.000000
1.895497 0.191768 0.264824 43.000000
1.897065 0.186049 0.264944 43.000000
1.898615 0.180323 0.265064 43.000000
1.898170 0.174405 0.264944 43.000000
1.901663 0.168846 0.265304 43.000000
1.903161 0.163097 0.265424 43.000000
1.904642 0.157339 0.265545 43.000000
1.906105 0.151575 0.265665 43.000000
1.908541 0.145879 0.265905 43.000000
1.909970 0.140096 0.266025 43.000000
1.911381 0.134306 0.266145 43.000000
1.912774 0.128508 0.266265 43.000000
1.915141 0.122767 0.266506 43.000000
1.917490 0.117013 0.266746 43.000000
1.918831 0.111188 0.266866 43.000000
1.921146 0.105411 0.267106 43.000000
1.924434 0.099672 0.267467 43.000000
1.925723 0.093816 0.267587 43.000000
1.929968 0.088091 0.268067 43.000000
1.932213 0.082256 0.268308 43.000000
1.934440 0.076407 0.268548 43.000000
1.935658 0.070508 0.268668 43.000000
1.939834 0.064704 0.269149 43.000000
1.938038 0.058691 0.268908 43.000000
1.939202 0.052773 0.269029 43.000000
1.938362 0.046799 0.268908 43.000000
1.940482 0.040895 0.269149 43.000000
1.938613 0.034904 0.268908 43.000000
1.940696 0.028987 0.269149 43.000000
1.942761 0.023058 0.269389 43.000000
1.943815 0.017107 0.269509 43.000000
1.944851 0.011150 0.269629 43.000000
1.946862 0.005189 0.269869 43.000000
1.949847 -0.000783 0.270230 43.000000
1.953807 -0.006776 0.270710 43.000000
1.956755 -0.012788 0.271071 43.000000
1.959684 -0.018818 0.271431 43.000000
1.960610 -0.024842 0.271551 43.000000
1.958539 -0.030827 0.271311 43.000000
1.973325 -0.037107 0.273113 43.000000
1.972209 -0.043140 0.272993 43.000000
1.971075 -0.049166 0.272873 43.000000
1.782706 0.560261 0.249913 44.000000
1.786314 0.555378 0.250142 44.000000
1.788959 0.550187 0.250257 44.000000
1.790639 0.544696 0.250257 44.000000
1.792301 0.539199 0.250257 44.000000
1.793947 0.533698 0.250257 44.000000
1.795576 0.528192 0.250257 44.000000
1.798142 0.522957 0.250372 44.000000
1.798783 0.517164 0.250257 44.000000
1.798450 0.511101 0.250028 44.000000
1.796183 0.504509 0.249570 44.000000
1.795808 0.498466 0.249340 44.000000
1.795412 0.492430 0.249111 44.000000
1.798832 0.487438 0.249340 44.000000
1.799360 0.481661 0.249226 44.000000
1.801789 0.476391 0.249340 44.000000
1.805165 0.471362 0.249570 44.000000
1.808527 0.466317 0.249799 44.000000
1.810912 0.461010 0.249913 44.000000
1.812318 0.455452 0.249913 44.000000
1.815635 0.450367 0.250142 44.000000
1.817973 0.445030 0.250257 44.000000
1.819330 0.439451 0.250257 44.000000
1.820670 0.433867 0.250257 44.000000
1.821992 0.428279 0.250257 44.000000
1.825234 0.423135 0.250486 44.000000
1.827492 0.417754 0.250601 44.000000
1.828765 0.412146 0.250601 44.000000
1.832930 0.407178 0.250945 44.000000
1.835141 0.401764 0.251059 44.000000
1.835394 0.395923 0.250945 44.000000
1.839516 0.390908 0.251288 44.000000
1.840706 0.385263 0.251288 44.000000
1.839934 0.379214 0.251059 44.000000
1.843036 0.373961 0.251288 44.000000
1.844174 0.368305 0.251288 44.000000
1.845296 0.362645 0.251288 44.000000
1.845424 0.356794 0.251174 44.000000
1.847486 0.351316 0.251288 44.000000
1.848555 0.345646 0.251288 44.000000
1.849607 0.339973 0.251288 44.000000
1.850641 0.334297 0.251288 44.000000
1.852636 0.328791 0.251403 44.000000
1.853636 0.323106 0.251403 44.000000
1.857557 0.317918 0.251747 44.000000
1.857543 0.312054 0.251632 44.000000
1.858492 0.306354 0.251632 44.000000
1.860404 0.300808 0.251747 44.000000
1.861318 0.295099 0.251747 44.000000
1.863196 0.289539 0.251861 44.000000
1.865058 0.283971 0.251976 44.000000
1.867886 0.278539 0.252205 44.000000
1.869715 0.272950 0.252320 44.000000
1.872510 0.267493 0.252549 44.000000
1.874306 0.261883 0.252663 44.000000
1.877069 0.256400 0.252893 44.000000
1.878832 0.250770 0.253007 44.000000
1.880578 0.245133 0.253122 44.000000
1.880335 0.239237 0.253007 44.000000
1.883032 0.233711 0.253236 44.000000
1.884727 0.228052 0.253351 44.000000
1.885418 0.222268 0.253351 44.000000
1.889052 0.216821 0.253695 44.000000
1.888721 0.210915 0.253580 44.000000
1.890346 0.205226 0.253695 44.000000
1.892943 0.199632 0.253924 44.000000
1.895523 0.194025 0.254153 44.000000
1.897098 0.188306 0.254268 44.000000
1.898656 0.182580 0.254382 44.000000
1.897229 0.176571 0.254153 44.000000
1.899740 0.170926 0.254382 44.000000
1.901246 0.165183 0.254497 44.000000
1.903723 0.159514 0.254726 44.000000
1.904204 0.153672 0.254726 44.000000
1.904666 0.147830 0.254726 44.000000
1.908083 0.142205 0.255070 44.000000
1.911483 0.136561 0.255414 44.000000
1.911893 0.130696 0.255414 44.000000
1.915259 0.125022 0.255757 44.000000
1.915634 0.119146 0.255757 44.000000
1.916982 0.113326 0.255872 44.000000
1.916329 0.107389 0.255757 44.000000
1.922602 0.101821 0.256445 44.000000
1.923897 0.095971 0.256560 44.000000
1.926167 0.090160 0.256789 44.000000
1.926435 0.084250 0.256789 44.000000
1.927677 0.078379 0.256903 44.000000
1.927908 0.072465 0.256903 44.000000
1.930107 0.066617 0.257133 44.000000
1.931295 0.060726 0.257247 44.000000
1.933459 0.054856 0.257476 44.000000
1.933618 0.048924 0.257476 44.000000
1.934752 0.043013 0.257591 44.000000
1.934875 0.037077 0.257591 44.000000
1.936966 0.031171 0.257820 44.000000
1.944006 0.025315 0.258622 44.000000
1.943081 0.019342 0.258508 44.000000
1.943131 0.013380 0.258508 44.000000
1.945150 0.007425 0.258737 44.000000
1.947150 0.001458 0.258966 44.000000
1.951119 -0.004528 0.259424 44.000000
1.953083 -0.010525 0.259653 44.000000
1.955028 -0.016535 0.259883 44.000000
1.953975 -0.022521 0.259768 44.000000
1.956877 -0.028561 0.260112 44.000000
1.966712 -0.034746 0.261258 44.000000
1.996392 -0.041415 0.264695 44.000000
1.996256 -0.047540 0.264695 44.000000
1.817497 0.583240 0.242493 45.000000
1.781375 0.565635 0.238159 45.000000
1.784999 0.560762 0.238375 45.000000
1.787661 0.555578 0.238484 45.000000
1.790307 0.550383 0.238592 45.000000
1.791987 0.544888 0.238592 45.000000
1.793650 0.539388 0.238592 45.000000
1.795297 0.533882 0.238592 45.000000
1.800741 0.529493 0.239025 45.000000
1.803312 0.524243 0.239134 45.000000
1.803001 0.518159 0.238917 45.000000
1.803626 0.512354 0.238809 45.000000
1.804232 0.506549 0.238700 45.000000
1.803862 0.500481 0.238484 45.000000
1.804430 0.494681 0.238375 45.000000
1.806899 0.489403 0.238484 45.000000
1.808392 0.483857 0.238484 45.000000
1.810829 0.478561 0.238592 45.000000
1.812288 0.473003 0.238592 45.000000
1.815656 0.467936 0.238809 45.000000
1.818047 0.462609 0.238917 45.000000
1.819458 0.457029 0.238917 45.000000
1.820851 0.451445 0.238917 45.000000
1.822228 0.445856 0.238917 45.000000
1.825520 0.440730 0.239134 45.000000
1.825896 0.434897 0.239025 45.000000
1.826254 0.429066 0.238917 45.000000
1.830467 0.424134 0.239242 45.000000
1.833698 0.418958 0.239459 45.000000
1.835945 0.413549 0.239567 45.000000
1.840117 0.408560 0.239892 45.000000
1.842332 0.403125 0.240001 45.000000
1.843561 0.397471 0.240001 45.000000
1.843799 0.391607 0.239892 45.000000
1.844992 0.385948 0.239892 45.000000
1.846167 0.380286 0.239892 45.000000
1.847325 0.374621 0.239892 45.000000
1.847491 0.368757 0.239784 45.000000
1.849589 0.363279 0.239892 45.000000
1.848742 0.357226 0.239676 45.000000
1.851783 0.351923 0.239892 45.000000
1.851877 0.346058 0.239784 45.000000
1.852930 0.340374 0.239784 45.000000
1.854944 0.334865 0.239892 45.000000
1.855962 0.329172 0.239892 45.000000
1.856963 0.323477 0.239892 45.000000
1.858927 0.317945 0.240001 45.000000
1.861855 0.312570 0.240217 45.000000
1.862805 0.306856 0.240217 45.000000
1.865700 0.301456 0.240434 45.000000
1.864653 0.295420 0.240217 45.000000
1.868497 0.290155 0.240542 45.000000
1.869379 0.284421 0.240542 45.000000
1.870242 0.278685 0.240542 45.000000
1.873056 0.273232 0.240759 45.000000
1.875854 0.267765 0.240976 45.000000
1.877651 0.262146 0.241084 45.000000
1.873521 0.255713 0.240542 45.000000
1.880210 0.250751 0.241192 45.000000
1.878013 0.244597 0.240867 45.000000
1.881713 0.239210 0.241192 45.000000
1.885398 0.233802 0.241517 45.000000
1.889067 0.228374 0.241842 45.000000
1.889759 0.222577 0.241842 45.000000
1.892408 0.217005 0.242059 45.000000
1.894053 0.211308 0.242167 45.000000
1.898646 0.205924 0.242601 45.000000
1.901246 0.200306 0.242818 45.000000
1.902840 0.194573 0.242926 45.000000
1.902439 0.188636 0.242818 45.000000
1.903998 0.182894 0.242926 45.000000
1.903561 0.176960 0.242818 45.000000
1.905085 0.171208 0.242926 45.000000
1.907582 0.165534 0.243143 45.000000
1.910062 0.159846 0.243359 45.000000
1.908562 0.153826 0.243143 45.000000
1.911007 0.148123 0.243359 45.000000
1.913435 0.142407 0.243576 45.000000
1.916838 0.136747 0.243901 45.000000
1.918240 0.130933 0.244009 45.000000
1.922601 0.125305 0.244443 45.000000
1.924961 0.119529 0.244659 45.000000
1.924326 0.113565 0.244551 45.000000
1.923673 0.107605 0.244443 45.000000
1.925979 0.101807 0.244659 45.000000
1.927275 0.095947 0.244768 45.000000
1.927561 0.090034 0.244768 45.000000
1.928821 0.084163 0.244876 45.000000
1.930063 0.078285 0.244984 45.000000
1.930295 0.072363 0.244984 45.000000
1.930507 0.066441 0.244984 45.000000
1.933683 0.060611 0.245310 45.000000
1.935847 0.054734 0.245526 45.000000
1.937000 0.048819 0.245635 45.000000
1.939128 0.042920 0.245851 45.000000
1.941239 0.037008 0.246068 45.000000
1.943331 0.031084 0.246285 45.000000
1.945405 0.025147 0.246501 45.000000
1.949450 0.019217 0.246935 45.000000
1.949500 0.013236 0.246935 45.000000
1.949531 0.007255 0.246935 45.000000
1.950538 0.001274 0.247043 45.000000
1.953515 -0.004718 0.247368 45.000000
1.953492 -0.010711 0.247368 45.000000
1.955438 -0.016722 0.247585 45.000000
1.955377 -0.022721 0.247585 45.000000
1.964244 -0.028853 0.248560 45.000000
2.011856 -0.035735 0.253761 45.000000
2.012731 -0.041928 0.253869 45.000000
1.784074 0.570941 0.227141 46.000000
1.781076 0.563963 0.226630 46.000000
1.782798 0.558496 0.226630 46.000000
1.783553 0.552729 0.226527 46.000000
1.789044 0.548421 0.226937 46.000000
1.790719 0.542930 0.226937 46.000000
1.792376 0.537434 0.226937 46.000000
1.791155 0.531083 0.226630 46.000000
1.794685 0.526146 0.226834 46.000000
1.794380 0.520083 0.226630 46.000000
1.796924 0.514850 0.226732 46.000000
1.795623 0.508521 0.226425 46.000000
1.796217 0.502741 0.226323 46.000000
1.796793 0.496962 0.226221 46.000000
1.797349 0.491185 0.226118 46.000000
1.800768 0.486188 0.226323 46.000000
1.806096 0.481687 0.226732 46.000000
1.809489 0.476651 0.226937 46.000000
1.811905 0.471348 0.227039 46.000000
1.814306 0.466034 0.227141 46.000000
1.816692 0.460711 0.227243 46.000000
1.820027 0.455619 0.227448 46.000000
1.818519 0.449316 0.227141 46.000000
1.818922 0.443499 0.227039 46.000000
1.822209 0.438382 0.227243 46.000000
1.821609 0.432330 0.227039 46.000000
1.821959 0.426512 0.226937 46.000000
1.824228 0.421145 0.227039 46.000000
1.827451 0.415988 0.227243 46.000000
1.829689 0.410598 0.227346 46.000000
1.838710 0.406703 0.228164 46.000000
1.836062 0.400211 0.227755 46.000000
1.834363 0.393949 0.227448 46.000000
1.841402 0.389556 0.228062 46.000000
1.840641 0.383499 0.227857 46.000000
1.844732 0.378450 0.228164 46.000000
1.839060 0.371409 0.227448 46.000000
1.840190 0.365765 0.227448 46.000000
1.842280 0.360309 0.227550 46.000000
1.845330 0.355032 0.227755 46.000000
1.847388 0.349554 0.227857 46.000000
1.849430 0.344066 0.227959 46.000000
1.851455 0.338570 0.228062 46.000000
1.853464 0.333064 0.228164 46.000000
1.853498 0.327203 0.228062 46.000000
1.855473 0.321685 0.228164 46.000000
1.856451 0.315991 0.228164 46.000000
1.857412 0.310294 0.228164 46.000000
1.859337 0.304756 0.228266 46.000000
1.860263 0.299050 0.228266 46.000000
1.862154 0.293496 0.228368 46.000000
1.865995 0.288238 0.228675 46.000000
1.867854 0.282661 0.228777 46.000000
1.868713 0.276929 0.228777 46.000000
1.871522 0.271481 0.228982 46.000000
1.873331 0.265878 0.229084 46.000000
1.871182 0.259718 0.228777 46.000000
1.871970 0.253976 0.228777 46.000000
1.873727 0.248363 0.228880 46.000000
1.876453 0.242869 0.229084 46.000000
1.876202 0.236986 0.228982 46.000000
1.880870 0.231716 0.229391 46.000000
1.882559 0.226064 0.229493 46.000000
1.885220 0.220518 0.229698 46.000000
1.888853 0.215072 0.230005 46.000000
1.892470 0.209605 0.230312 46.000000
1.896071 0.204118 0.230618 46.000000
1.899656 0.198611 0.230925 46.000000
1.900257 0.192782 0.230925 46.000000
1.900839 0.186951 0.230925 46.000000
1.901404 0.181119 0.230925 46.000000
1.901951 0.175284 0.230925 46.000000
1.902479 0.169448 0.230925 46.000000
1.903981 0.163696 0.231027 46.000000
1.906457 0.158019 0.231232 46.000000
1.905941 0.152090 0.231130 46.000000
1.907391 0.146318 0.231232 46.000000
1.910807 0.140685 0.231539 46.000000
1.915199 0.135103 0.231948 46.000000
1.914612 0.129160 0.231846 46.000000
1.920955 0.123670 0.232459 46.000000
1.915368 0.117409 0.231846 46.000000
1.921678 0.111881 0.232459 46.000000
1.922012 0.105985 0.232459 46.000000
1.920341 0.099984 0.232255 46.000000
1.925607 0.094336 0.232766 46.000000
1.921912 0.088244 0.232357 46.000000
1.926149 0.082519 0.232766 46.000000
1.926394 0.076609 0.232766 46.000000
1.927614 0.070735 0.232868 46.000000
1.928816 0.064855 0.232971 46.000000
1.930994 0.058998 0.233175 46.000000
1.934149 0.053156 0.233482 46.000000
1.936292 0.047271 0.233686 46.000000
1.939412 0.041395 0.233993 46.000000
1.942513 0.035500 0.234300 46.000000
1.944602 0.029570 0.234505 46.000000
1.946673 0.023629 0.234709 46.000000
1.950715 0.017693 0.235118 46.000000
1.951755 0.011715 0.235221 46.000000
1.952777 0.005730 0.235323 46.000000
1.953780 -0.000261 0.235425 46.000000
1.954765 -0.006258 0.235527 46.000000
1.954736 -0.012255 0.235527 46.000000
1.954690 -0.018252 0.235527 46.000000
1.951640 -0.024213 0.235221 46.000000
2.008251 -0.031066 0.241050 46.000000
1.787436 0.577170 0.215851 47.000000
1.776875 0.567737 0.214603 47.000000
1.775762 0.561381 0.214315 47.000000
1.779376 0.556526 0.214507 47.000000
1.782976 0.551654 0.214699 47.000000
1.785612 0.546473 0.214795 47.000000
1.786327 0.540704 0.214699 47.000000
1.787978 0.535221 0.214699 47.000000
1.789611 0.529733 0.214699 47.000000
1.792183 0.524520 0.214795 47.000000
1.792828 0.518742 0.214699 47.000000
1.793454 0.512965 0.214603 47.000000
1.793104 0.506917 0.214411 47.000000
1.791776 0.500609 0.214123 47.000000
1.792344 0.494844 0.214027 47.000000
1.797694 0.490393 0.214411 47.000000
1.797268 0.484356 0.214219 47.000000
1.802593 0.479866 0.214603 47.000000
1.806944 0.475095 0.214891 47.000000
1.811283 0.470301 0.215179 47.000000
1.811753 0.464494 0.215083 47.000000
1.813169 0.458934 0.215083 47.000000
1.814569 0.453369 0.215083 47.000000
1.814985 0.447561 0.214987 47.000000
1.816350 0.441990 0.214987 47.000000
1.817697 0.436416 0.214987 47.000000
1.818059 0.430607 0.214891 47.000000
1.814526 0.423892 0.214411 47.000000
1.815818 0.418323 0.214411 47.000000
1.820004 0.413414 0.214699 47.000000
1.821264 0.407828 0.214699 47.000000
1.821535 0.402024 0.214603 47.000000
1.823732 0.396645 0.214699 47.000000
1.825913 0.391258 0.214795 47.000000
1.827105 0.385654 0.214795 47.000000
1.825356 0.379437 0.214507 47.000000
1.834312 0.375437 0.215275 47.000000
1.832529 0.369216 0.214987 47.000000
1.834629 0.363786 0.215083 47.000000
1.836713 0.358347 0.215179 47.000000
1.839759 0.353087 0.215371 47.000000
1.841811 0.347626 0.215467 47.000000
1.843848 0.342156 0.215563 47.000000
1.847826 0.337035 0.215851 47.000000
1.848851 0.331365 0.215851 47.000000
1.849859 0.325691 0.215851 47.000000
1.852811 0.320354 0.216043 47.000000
1.854767 0.314836 0.216139 47.000000
1.862596 0.310293 0.216811 47.000000
1.860593 0.304094 0.216523 47.000000
1.860534 0.298226 0.216427 47.000000
1.864390 0.292982 0.216715 47.000000
1.867247 0.287565 0.216907 47.000000
1.867137 0.281686 0.216811 47.000000
1.867007 0.275810 0.216715 47.000000
1.869815 0.270367 0.216907 47.000000
1.868665 0.264349 0.216715 47.000000
1.868481 0.258478 0.216619 47.000000
1.869265 0.252744 0.216619 47.000000
1.870032 0.247008 0.216619 47.000000
1.869794 0.241142 0.216523 47.000000
1.872500 0.235654 0.216715 47.000000
1.878153 0.230518 0.217195 47.000000
1.879840 0.224873 0.217291 47.000000
1.882498 0.219337 0.217483 47.000000
1.885140 0.213786 0.217675 47.000000
1.887766 0.208221 0.217867 47.000000
1.891365 0.202748 0.218156 47.000000
1.894948 0.197256 0.218444 47.000000
1.896534 0.191542 0.218540 47.000000
1.896122 0.185625 0.218444 47.000000
1.897674 0.179901 0.218540 47.000000
1.900199 0.174261 0.218732 47.000000
1.900725 0.168431 0.218732 47.000000
1.901233 0.162599 0.218732 47.000000
1.904698 0.157012 0.219020 47.000000
1.903187 0.151009 0.218828 47.000000
1.907611 0.145475 0.219212 47.000000
1.909041 0.139695 0.219308 47.000000
1.912439 0.134048 0.219596 47.000000
1.913835 0.128247 0.219692 47.000000
1.916206 0.122503 0.219884 47.000000
1.919553 0.116807 0.220172 47.000000
1.920896 0.110975 0.220268 47.000000
1.920234 0.105027 0.220172 47.000000
1.922535 0.099239 0.220364 47.000000
1.921836 0.093291 0.220268 47.000000
1.922113 0.087395 0.220268 47.000000
1.925356 0.081626 0.220556 47.000000
1.927586 0.075798 0.220748 47.000000
1.925820 0.069810 0.220556 47.000000
1.928015 0.063969 0.220748 47.000000
1.930192 0.058115 0.220940 47.000000
1.933346 0.052275 0.221228 47.000000
1.934493 0.046368 0.221324 47.000000
1.936616 0.040476 0.221516 47.000000
1.940712 0.034607 0.221900 47.000000
1.941804 0.028668 0.221996 47.000000
1.943874 0.022735 0.222188 47.000000
1.945925 0.016790 0.222380 47.000000
1.948953 0.010838 0.222668 47.000000
1.949973 0.004862 0.222764 47.000000
1.950974 -0.001121 0.222861 47.000000
1.951957 -0.007109 0.222957 47.000000
1.952921 -0.013104 0.223053 47.000000
1.954862 -0.019113 0.223245 47.000000
1.955790 -0.025123 0.223341 47.000000
1.776131 0.576550 0.204037 48.000000
1.775995 0.570490 0.203857 48.000000
1.777737 0.565039 0.203857 48.000000
1.778512 0.559284 0.203766 48.000000
1.781170 0.554120 0.203857 48.000000
1.783814 0.548946 0.203947 48.000000
1.784537 0.543181 0.203857 48.000000
1.785241 0.537417 0.203766 48.000000
1.787836 0.532221 0.203857 48.000000
1.788505 0.526453 0.203766 48.000000
1.790112 0.520963 0.203766 48.000000
1.791701 0.515469 0.203766 48.000000
1.796149 0.510785 0.204037 48.000000
1.794831 0.504465 0.203766 48.000000
1.794450 0.498425 0.203586 48.000000
1.797892 0.493443 0.203766 48.000000
1.801320 0.488445 0.203947 48.000000
1.803772 0.483173 0.204037 48.000000
1.805246 0.477637 0.204037 48.000000
1.808631 0.472599 0.204218 48.000000
1.809108 0.466800 0.204128 48.000000
1.809566 0.461002 0.204037 48.000000
1.810972 0.455448 0.204037 48.000000
1.812361 0.449890 0.204037 48.000000
1.812765 0.444091 0.203947 48.000000
1.815087 0.438761 0.204037 48.000000
1.813518 0.432499 0.203766 48.000000
1.814836 0.426933 0.203766 48.000000
1.816137 0.421363 0.203766 48.000000
1.818393 0.416011 0.203857 48.000000
1.819660 0.410430 0.203857 48.000000
1.819939 0.404630 0.203766 48.000000
1.824090 0.399683 0.204037 48.000000
1.827255 0.394504 0.204218 48.000000
1.826508 0.388483 0.204037 48.000000
1.829641 0.383284 0.204218 48.000000
1.833735 0.378271 0.204489 48.000000
1.836839 0.373039 0.204669 48.000000
1.836022 0.367012 0.204489 48.000000
1.838116 0.361569 0.204579 48.000000
1.844106 0.356872 0.205030 48.000000
1.843236 0.350841 0.204850 48.000000
1.844303 0.345184 0.204850 48.000000
1.847313 0.339884 0.205030 48.000000
1.849327 0.334391 0.205121 48.000000
1.851325 0.328890 0.205211 48.000000
1.852325 0.323208 0.205211 48.000000
1.855272 0.317859 0.205391 48.000000
1.859185 0.312659 0.205662 48.000000
1.864066 0.307600 0.206023 48.000000
1.863035 0.301563 0.205843 48.000000
1.864935 0.296001 0.205933 48.000000
1.866818 0.290431 0.206023 48.000000
1.866716 0.284553 0.205933 48.000000
1.869550 0.279117 0.206114 48.000000
1.871383 0.273524 0.206204 48.000000
1.869256 0.267360 0.205933 48.000000
1.870067 0.261624 0.205933 48.000000
1.871848 0.256020 0.206023 48.000000
1.872625 0.250276 0.206023 48.000000
1.875359 0.244786 0.206204 48.000000
1.878077 0.239282 0.206385 48.000000
1.880779 0.233763 0.206565 48.000000
1.880499 0.227873 0.206475 48.000000
1.884156 0.222451 0.206746 48.000000
1.885819 0.216783 0.206836 48.000000
1.886475 0.210996 0.206836 48.000000
1.888104 0.205314 0.206926 48.000000
1.889715 0.199625 0.207017 48.000000
1.892301 0.194028 0.207197 48.000000
1.890905 0.188026 0.207017 48.000000
1.892464 0.182319 0.207107 48.000000
1.894998 0.176696 0.207287 48.000000
1.895531 0.170881 0.207287 48.000000
1.896046 0.165065 0.207287 48.000000
1.899521 0.159495 0.207558 48.000000
1.900002 0.153667 0.207558 48.000000
1.901457 0.147914 0.207649 48.000000
1.903888 0.142226 0.207829 48.000000
1.907296 0.136596 0.208100 48.000000
1.910687 0.130947 0.208371 48.000000
1.913067 0.125213 0.208551 48.000000
1.914437 0.119405 0.208642 48.000000
1.917776 0.113706 0.208913 48.000000
1.918116 0.107822 0.208913 48.000000
1.921422 0.102093 0.209183 48.000000
1.921726 0.096198 0.209183 48.000000
1.922012 0.090302 0.209183 48.000000
1.925265 0.084534 0.209454 48.000000
1.925515 0.078627 0.209454 48.000000
1.925747 0.072719 0.209454 48.000000
1.928947 0.066912 0.209725 48.000000
1.928148 0.060963 0.209635 48.000000
1.931313 0.055131 0.209906 48.000000
1.932468 0.049230 0.209996 48.000000
1.935597 0.043366 0.210267 48.000000
1.939704 0.037502 0.210628 48.000000
1.939810 0.031551 0.210628 48.000000
1.941890 0.025625 0.210809 48.000000
1.945943 0.019705 0.211170 48.000000
1.947986 0.013748 0.211350 48.000000
1.951006 0.007782 0.211621 48.000000
1.950025 0.001796 0.211531 48.000000
1.951017 -0.004190 0.211621 48.000000
1.950995 -0.010175 0.211621 48.000000
1.947967 -0.016134 0.211350 48.000000
1.947909 -0.022110 0.211350 48.000000
1.947832 -0.028086 0.211350 48.000000
1.775799 0.580889 0.192723 49.000000
1.775676 0.574824 0.192555 49.000000
1.777431 0.569374 0.192555 49.000000
1.781070 0.564520 0.192723 49.000000
1.782793 0.559053 0.192723 49.000000
1.784500 0.553581 0.192723 49.000000
1.786190 0.548104 0.192723 49.000000
1.787863 0.542621 0.192723 49.000000
1.788565 0.536847 0.192639 49.000000
1.793070 0.532207 0.192892 49.000000
1.794694 0.526704 0.192892 49.000000
1.796301 0.521195 0.192892 49.000000
1.798850 0.515956 0.192976 49.000000
1.800424 0.510435 0.192976 49.000000
1.802942 0.505178 0.193060 49.000000
1.806404 0.500175 0.193229 49.000000
1.808891 0.494894 0.193313 49.000000
1.811363 0.489602 0.193397 49.000000
1.812856 0.484042 0.193397 49.000000
1.812406 0.477970 0.193229 49.000000
1.812899 0.472157 0.193144 49.000000
1.812409 0.466097 0.192976 49.000000
1.813830 0.460534 0.192976 49.000000
1.812335 0.454241 0.192723 49.000000
1.813720 0.448679 0.192723 49.000000
1.815088 0.443112 0.192723 49.000000
1.816439 0.437542 0.192723 49.000000
1.817773 0.431967 0.192723 49.000000
1.819089 0.426388 0.192723 49.000000
1.820389 0.420805 0.192723 49.000000
1.824586 0.415882 0.192976 49.000000
1.825853 0.410282 0.192976 49.000000
1.827104 0.404679 0.192976 49.000000
1.829310 0.399284 0.193060 49.000000
1.834423 0.394507 0.193397 49.000000
1.833675 0.388464 0.193229 49.000000
1.835834 0.383040 0.193313 49.000000
1.837000 0.377406 0.193313 49.000000
1.841080 0.372360 0.193565 49.000000
1.841236 0.366516 0.193481 49.000000
1.842352 0.360865 0.193481 49.000000
1.842472 0.355023 0.193397 49.000000
1.844532 0.349554 0.193481 49.000000
1.845595 0.343894 0.193481 49.000000
1.850562 0.338947 0.193818 49.000000
1.852574 0.333444 0.193902 49.000000
1.857514 0.328452 0.194239 49.000000
1.858513 0.322752 0.194239 49.000000
1.861459 0.317383 0.194407 49.000000
1.865372 0.312164 0.194660 49.000000
1.866321 0.306439 0.194660 49.000000
1.866269 0.300554 0.194576 49.000000
1.866197 0.294672 0.194492 49.000000
1.869062 0.289249 0.194660 49.000000
1.869941 0.283514 0.194660 49.000000
1.870802 0.277775 0.194660 49.000000
1.870659 0.271891 0.194576 49.000000
1.873458 0.266431 0.194744 49.000000
1.871305 0.260271 0.194492 49.000000
1.873082 0.254663 0.194576 49.000000
1.874843 0.249046 0.194660 49.000000
1.876586 0.243421 0.194744 49.000000
1.879301 0.237912 0.194913 49.000000
1.881011 0.232267 0.194997 49.000000
1.881715 0.226496 0.194997 49.000000
1.883391 0.220837 0.195081 49.000000
1.885049 0.215171 0.195165 49.000000
1.885701 0.209387 0.195165 49.000000
1.889306 0.203921 0.195418 49.000000
1.890914 0.198227 0.195502 49.000000
1.892505 0.192525 0.195586 49.000000
1.892095 0.186621 0.195502 49.000000
1.894642 0.181004 0.195670 49.000000
1.897173 0.175374 0.195839 49.000000
1.898695 0.169641 0.195923 49.000000
1.899206 0.163815 0.195923 49.000000
1.900693 0.158070 0.196007 49.000000
1.903156 0.152397 0.196176 49.000000
1.904608 0.146633 0.196260 49.000000
1.907036 0.140936 0.196428 49.000000
1.911435 0.135365 0.196765 49.000000
1.913830 0.129635 0.196933 49.000000
1.915213 0.123827 0.197018 49.000000
1.919562 0.118194 0.197354 49.000000
1.922900 0.112479 0.197607 49.000000
1.924231 0.106634 0.197691 49.000000
1.925544 0.100782 0.197775 49.000000
1.925845 0.094874 0.197775 49.000000
1.926126 0.088965 0.197775 49.000000
1.927386 0.083098 0.197860 49.000000
1.928627 0.077224 0.197944 49.000000
1.928855 0.071307 0.197944 49.000000
1.929065 0.065389 0.197944 49.000000
1.928261 0.059440 0.197860 49.000000
1.933414 0.053661 0.198281 49.000000
1.934566 0.047753 0.198365 49.000000
1.936696 0.041861 0.198533 49.000000
1.937811 0.035937 0.198617 49.000000
1.942894 0.030068 0.199038 49.000000
1.943974 0.024119 0.199123 49.000000
1.948024 0.018191 0.199459 49.000000
1.947074 0.012209 0.199375 49.000000
1.949095 0.006241 0.199544 49.000000
1.953091 0.000261 0.199880 49.000000
1.952086 -0.005728 0.199796 49.000000
1.943092 -0.011661 0.199038 49.000000
1.960982 -0.017789 0.200554 49.000000
1.975864 -0.023989 0.201817 49.000000
1.766478 0.583623 0.180057 50.000000
1.765418 0.577271 0.179824 50.000000
1.768129 0.572159 0.179901 50.000000
1.773674 0.567949 0.180212 50.000000
1.775408 0.562504 0.180212 50.000000
1.777125 0.557055 0.180212 50.000000
1.781682 0.552487 0.180446 50.000000
1.784322 0.547310 0.180523 50.000000
1.785993 0.541834 0.180523 50.000000
1.788601 0.536638 0.180601 50.000000
1.792151 0.531716 0.180757 50.000000
1.791860 0.525654 0.180601 50.000000
1.794422 0.520432 0.180679 50.000000
1.796010 0.514924 0.180679 50.000000
1.798541 0.509684 0.180757 50.000000
1.800096 0.504163 0.180757 50.000000
1.803556 0.499171 0.180912 50.000000
1.806041 0.493898 0.180990 50.000000
1.805622 0.487835 0.180834 50.000000
1.809037 0.482807 0.180990 50.000000
1.808582 0.476746 0.180834 50.000000
1.808106 0.470693 0.180679 50.000000
1.807611 0.464647 0.180523 50.000000
1.807095 0.458608 0.180368 50.000000
1.807527 0.452819 0.180290 50.000000
1.808907 0.447272 0.180290 50.000000
1.807366 0.441010 0.180057 50.000000
1.810649 0.435930 0.180212 50.000000
1.814887 0.431065 0.180446 50.000000
1.817172 0.425723 0.180523 50.000000
1.820412 0.420595 0.180679 50.000000
1.822666 0.415230 0.180757 50.000000
1.823931 0.409636 0.180757 50.000000
1.825179 0.404038 0.180757 50.000000
1.827384 0.398649 0.180834 50.000000
1.830548 0.393461 0.180990 50.000000
1.833697 0.388256 0.181146 50.000000
1.833904 0.382425 0.181068 50.000000
1.834092 0.376596 0.180990 50.000000
1.835239 0.370967 0.180990 50.000000
1.836368 0.365335 0.180990 50.000000
1.837480 0.359699 0.180990 50.000000
1.840533 0.354438 0.181146 50.000000
1.843571 0.349161 0.181301 50.000000
1.843653 0.343321 0.181223 50.000000
1.847640 0.338202 0.181457 50.000000
1.848669 0.332532 0.181457 50.000000
1.853607 0.327553 0.181768 50.000000
1.853621 0.321694 0.181690 50.000000
1.854599 0.316006 0.181690 50.000000
1.858510 0.310809 0.181923 50.000000
1.857487 0.304782 0.181768 50.000000
1.859398 0.299241 0.181845 50.000000
1.859322 0.293379 0.181768 50.000000
1.862184 0.287979 0.181923 50.000000
1.864045 0.282414 0.182001 50.000000
1.866874 0.276987 0.182156 50.000000
1.867715 0.271258 0.182156 50.000000
1.871500 0.265948 0.182390 50.000000
1.872307 0.260205 0.182390 50.000000
1.872109 0.254325 0.182312 50.000000
1.873868 0.248712 0.182390 50.000000
1.874623 0.242962 0.182390 50.000000
1.875359 0.237209 0.182390 50.000000
1.874099 0.231210 0.182234 50.000000
1.874800 0.225459 0.182234 50.000000
1.875483 0.219706 0.182234 50.000000
1.877138 0.214065 0.182312 50.000000
1.878777 0.208415 0.182390 50.000000
1.879408 0.202650 0.182390 50.000000
1.881012 0.196987 0.182467 50.000000
1.883591 0.191417 0.182623 50.000000
1.885162 0.185735 0.182701 50.000000
1.887708 0.180141 0.182856 50.000000
1.891230 0.174624 0.183090 50.000000
1.892750 0.168910 0.183167 50.000000
1.895245 0.163274 0.183323 50.000000
1.898718 0.157707 0.183556 50.000000
1.899193 0.151881 0.183556 50.000000
1.901638 0.146207 0.183712 50.000000
1.903072 0.140445 0.183789 50.000000
1.904488 0.134677 0.183867 50.000000
1.906882 0.128968 0.184023 50.000000
1.912243 0.123440 0.184412 50.000000
1.913608 0.117634 0.184489 50.000000
1.916945 0.111937 0.184723 50.000000
1.920266 0.106221 0.184956 50.000000
1.921579 0.100382 0.185034 50.000000
1.924865 0.094633 0.185267 50.000000
1.926142 0.088774 0.185345 50.000000
1.927401 0.082907 0.185422 50.000000
1.927647 0.076993 0.185422 50.000000
1.927874 0.071079 0.185422 50.000000
1.928083 0.065164 0.185422 50.000000
1.928274 0.059249 0.185422 50.000000
1.928446 0.053332 0.185422 50.000000
1.932588 0.047515 0.185734 50.000000
1.934718 0.041629 0.185889 50.000000
1.935833 0.035711 0.185967 50.000000
1.937927 0.029803 0.186122 50.000000
1.941000 0.023895 0.186356 50.000000
1.945052 0.017978 0.186667 50.000000
1.945098 0.012010 0.186667 50.000000
1.947120 0.006049 0.186822 50.000000
1.947129 0.000076 0.186822 50.000000
1.949114 -0.005904 0.186978 50.000000
1.926157 -0.011748 0.185189 50.000000
1.970974 -0.018060 0.188689 50.000000
1.989850 -0.024334 0.190166 50.000000
1.758349 0.585348 0.168213 51.000000
1.762031 0.580576 0.168356 51.000000
1.760960 0.574238 0.168141 51.000000
1.766509 0.570060 0.168428 51.000000
1.768250 0.564638 0.168428 51.000000
1.770925 0.559512 0.168500 51.000000
1.773585 0.554374 0.168571 51.000000
1.776230 0.549225 0.168643 51.000000
1.777907 0.543773 0.168643 51.000000
1.783385 0.539474 0.168930 51.000000
1.784076 0.533714 0.168858 51.000000
1.787618 0.528805 0.169001 51.000000
1.787317 0.522757 0.168858 51.000000
1.787955 0.516993 0.168786 51.000000
1.789532 0.511505 0.168786 51.000000
1.793013 0.506556 0.168930 51.000000
1.795519 0.501322 0.169001 51.000000
1.798010 0.496077 0.169073 51.000000
1.801448 0.491084 0.169216 51.000000
1.802946 0.485555 0.169216 51.000000
1.804427 0.480021 0.169216 51.000000
1.805891 0.474483 0.169216 51.000000
1.807338 0.468941 0.169216 51.000000
1.805870 0.462649 0.169001 51.000000
1.806314 0.456861 0.168930 51.000000
1.805772 0.450833 0.168786 51.000000
1.807147 0.445291 0.168786 51.000000
1.806566 0.439272 0.168643 51.000000
1.808875 0.433961 0.168715 51.000000
1.811169 0.428640 0.168786 51.000000
1.813446 0.423308 0.168858 51.000000
1.813765 0.417518 0.168786 51.000000
1.816010 0.412173 0.168858 51.000000
1.820185 0.407255 0.169073 51.000000
1.819478 0.401238 0.168930 51.000000
1.818752 0.395229 0.168786 51.000000
1.822881 0.390276 0.169001 51.000000
1.826022 0.385094 0.169145 51.000000
1.825242 0.379084 0.169001 51.000000
1.825419 0.373282 0.168930 51.000000
1.830466 0.368469 0.169216 51.000000
1.833545 0.363241 0.169360 51.000000
1.834651 0.357614 0.169360 51.000000
1.838677 0.352549 0.169575 51.000000
1.841710 0.347277 0.169718 51.000000
1.844728 0.341990 0.169861 51.000000
1.846750 0.336508 0.169933 51.000000
1.851701 0.331546 0.170220 51.000000
1.853691 0.326037 0.170291 51.000000
1.854683 0.320349 0.170291 51.000000
1.852707 0.314155 0.170076 51.000000
1.854646 0.308634 0.170148 51.000000
1.853616 0.302620 0.170005 51.000000
1.853550 0.296773 0.169933 51.000000
1.853467 0.290930 0.169861 51.000000
1.854351 0.285242 0.169861 51.000000
1.856203 0.279701 0.169933 51.000000
1.860013 0.274444 0.170148 51.000000
1.862820 0.269022 0.170291 51.000000
1.864624 0.263446 0.170363 51.000000
1.865424 0.257724 0.170363 51.000000
1.867194 0.252134 0.170435 51.000000
1.868948 0.246535 0.170506 51.000000
1.867717 0.240544 0.170363 51.000000
1.868446 0.234813 0.170363 51.000000
1.868168 0.228958 0.170291 51.000000
1.866881 0.222987 0.170148 51.000000
1.867556 0.217259 0.170148 51.000000
1.869205 0.211641 0.170220 51.000000
1.869845 0.205905 0.170220 51.000000
1.871460 0.200275 0.170291 51.000000
1.875041 0.194843 0.170506 51.000000
1.878608 0.189392 0.170721 51.000000
1.880172 0.183725 0.170793 51.000000
1.883706 0.178239 0.171008 51.000000
1.889210 0.172917 0.171366 51.000000
1.890725 0.167209 0.171438 51.000000
1.893217 0.161578 0.171581 51.000000
1.894698 0.155851 0.171653 51.000000
1.897155 0.150197 0.171796 51.000000
1.898602 0.144452 0.171868 51.000000
1.900031 0.138699 0.171940 51.000000
1.902437 0.133010 0.172083 51.000000
1.902836 0.127173 0.172083 51.000000
1.906204 0.121526 0.172298 51.000000
1.908559 0.115800 0.172441 51.000000
1.911892 0.110118 0.172656 51.000000
1.915209 0.104416 0.172872 51.000000
1.917512 0.098644 0.173015 51.000000
1.918802 0.092809 0.173087 51.000000
1.920074 0.086968 0.173158 51.000000
1.920332 0.081077 0.173158 51.000000
1.921568 0.075224 0.173230 51.000000
1.920793 0.069292 0.173158 51.000000
1.922990 0.063466 0.173302 51.000000
1.923176 0.057566 0.173302 51.000000
1.924341 0.051693 0.173373 51.000000
1.925487 0.045813 0.173445 51.000000
1.926616 0.039927 0.173517 51.000000
1.929721 0.034071 0.173732 51.000000
1.932809 0.028196 0.173947 51.000000
1.934881 0.022290 0.174090 51.000000
1.937932 0.016381 0.174305 51.000000
1.938971 0.010441 0.174377 51.000000
1.938994 0.004492 0.174377 51.000000
1.938998 -0.001456 0.174377 51.000000
1.930008 -0.007376 0.173732 51.000000
1.989769 -0.019778 0.178032 51.000000
1.765700 0.590846 0.158155 52.000000
1.765609 0.584800 0.158023 52.000000
1.769292 0.580001 0.158155 52.000000
1.772012 0.574877 0.158221 52.000000
1.772817 0.569133 0.158155 52.000000
1.774555 0.563692 0.158155 52.000000
1.775324 0.557946 0.158089 52.000000
1.778933 0.553088 0.158221 52.000000
1.780622 0.547628 0.158221 52.000000
1.784203 0.542742 0.158353 52.000000
1.784904 0.536979 0.158287 52.000000
1.784630 0.530933 0.158155 52.000000
1.786250 0.525455 0.158155 52.000000
1.785937 0.519416 0.158023 52.000000
1.788482 0.514210 0.158089 52.000000
1.790051 0.508720 0.158089 52.000000
1.792564 0.503495 0.158155 52.000000
1.792177 0.497461 0.158023 52.000000
1.795620 0.492487 0.158155 52.000000
1.796159 0.486715 0.158089 52.000000
1.798608 0.481460 0.158155 52.000000
1.799111 0.475685 0.158089 52.000000
1.802494 0.470666 0.158221 52.000000
1.802963 0.464886 0.158155 52.000000
1.804381 0.459352 0.158155 52.000000
1.808685 0.454542 0.158353 52.000000
1.808134 0.448511 0.158221 52.000000
1.810471 0.443199 0.158287 52.000000
1.810852 0.437409 0.158221 52.000000
1.814127 0.432312 0.158353 52.000000
1.815444 0.426745 0.158353 52.000000
1.814801 0.420723 0.158221 52.000000
1.816083 0.415154 0.158221 52.000000
1.818322 0.409799 0.158287 52.000000
1.818596 0.404003 0.158221 52.000000
1.818852 0.398208 0.158155 52.000000
1.822016 0.393046 0.158287 52.000000
1.824190 0.387661 0.158353 52.000000
1.824394 0.381859 0.158287 52.000000
1.826534 0.376461 0.158353 52.000000
1.830615 0.371449 0.158551 52.000000
1.833703 0.366220 0.158683 52.000000
1.833838 0.360401 0.158617 52.000000
1.838855 0.355529 0.158880 52.000000
1.841898 0.350257 0.159012 52.000000
1.844925 0.344970 0.159144 52.000000
1.847938 0.339668 0.159276 52.000000
1.849953 0.334174 0.159342 52.000000
1.852935 0.328844 0.159474 52.000000
1.852952 0.322987 0.159408 52.000000
1.852951 0.317133 0.159342 52.000000
1.852931 0.311282 0.159276 52.000000
1.851908 0.305272 0.159144 52.000000
1.852836 0.299589 0.159144 52.000000
1.853746 0.293904 0.159144 52.000000
1.853653 0.288062 0.159078 52.000000
1.855515 0.282524 0.159144 52.000000
1.862295 0.277709 0.159540 52.000000
1.860175 0.271564 0.159342 52.000000
1.862976 0.266136 0.159474 52.000000
1.863783 0.260420 0.159474 52.000000
1.864574 0.254700 0.159474 52.000000
1.866335 0.249110 0.159540 52.000000
1.866101 0.243255 0.159474 52.000000
1.867829 0.237654 0.159540 52.000000
1.868549 0.231922 0.159540 52.000000
1.868261 0.226069 0.159474 52.000000
1.866964 0.220104 0.159342 52.000000
1.870604 0.214715 0.159540 52.000000
1.871254 0.208975 0.159540 52.000000
1.871887 0.203233 0.159540 52.000000
1.877463 0.198009 0.159869 52.000000
1.880047 0.192451 0.160001 52.000000
1.881622 0.186780 0.160067 52.000000
1.883179 0.181101 0.160133 52.000000
1.885713 0.175506 0.160265 52.000000
1.890218 0.170076 0.160528 52.000000
1.889737 0.164190 0.160463 52.000000
1.893215 0.158640 0.160660 52.000000
1.896677 0.153069 0.160858 52.000000
1.898132 0.147326 0.160924 52.000000
1.898575 0.141502 0.160924 52.000000
1.901987 0.135888 0.161122 52.000000
1.902395 0.130053 0.161122 52.000000
1.905772 0.124409 0.161320 52.000000
1.908136 0.118684 0.161451 52.000000
1.912476 0.113063 0.161715 52.000000
1.913810 0.107250 0.161781 52.000000
1.913134 0.101326 0.161715 52.000000
1.914432 0.095505 0.161781 52.000000
1.915713 0.089677 0.161847 52.000000
1.916976 0.083842 0.161913 52.000000
1.919218 0.078041 0.162045 52.000000
1.920446 0.072189 0.162111 52.000000
1.919661 0.066263 0.162045 52.000000
1.920853 0.060404 0.162111 52.000000
1.923024 0.054566 0.162243 52.000000
1.925177 0.048715 0.162374 52.000000
1.924320 0.042787 0.162308 52.000000
1.927435 0.036939 0.162506 52.000000
1.930533 0.031072 0.162704 52.000000
1.932614 0.025174 0.162836 52.000000
1.933680 0.019254 0.162902 52.000000
1.934728 0.013327 0.162968 52.000000
1.936755 0.007398 0.163100 52.000000
1.936769 0.001456 0.163100 52.000000
1.921797 -0.004442 0.162111 52.000000
1.951709 -0.010517 0.164088 52.000000
1.767614 0.596958 0.146732 53.000000
1.766597 0.590583 0.146553 53.000000
1.770296 0.585787 0.146672 53.000000
1.772085 0.580354 0.146672 53.000000
1.776706 0.575837 0.146851 53.000000
1.776563 0.569774 0.146732 53.000000
1.779254 0.564623 0.146792 53.000000
1.780025 0.558862 0.146732 53.000000
1.783638 0.553991 0.146851 53.000000
1.781512 0.547344 0.146613 53.000000
1.783183 0.541876 0.146613 53.000000
1.782925 0.535828 0.146493 53.000000
1.783604 0.530072 0.146434 53.000000
1.784264 0.524316 0.146374 53.000000
1.785864 0.518839 0.146374 53.000000
1.786488 0.513083 0.146314 53.000000
1.789974 0.508144 0.146434 53.000000
1.791525 0.502650 0.146434 53.000000
1.794021 0.497418 0.146493 53.000000
1.796501 0.492175 0.146553 53.000000
1.798003 0.486661 0.146553 53.000000
1.797558 0.480628 0.146434 53.000000
1.799990 0.475365 0.146493 53.000000
1.801440 0.469841 0.146493 53.000000
1.803839 0.464560 0.146553 53.000000
1.805256 0.459024 0.146553 53.000000
1.807624 0.453726 0.146613 53.000000
1.810946 0.448658 0.146732 53.000000
1.814253 0.443574 0.146851 53.000000
1.815605 0.438006 0.146851 53.000000
1.817912 0.432665 0.146911 53.000000
1.819230 0.427085 0.146911 53.000000
1.820532 0.421502 0.146911 53.000000
1.820843 0.415693 0.146851 53.000000
1.824058 0.410542 0.146971 53.000000
1.826284 0.405160 0.147030 53.000000
1.825567 0.399129 0.146911 53.000000
1.828735 0.393947 0.147030 53.000000
1.829935 0.388334 0.147030 53.000000
1.832095 0.382923 0.147090 53.000000
1.833261 0.377300 0.147090 53.000000
1.834410 0.371674 0.147090 53.000000
1.836521 0.366239 0.147150 53.000000
1.836656 0.360411 0.147090 53.000000
1.843634 0.355909 0.147448 53.000000
1.844718 0.350251 0.147448 53.000000
1.845783 0.344590 0.147448 53.000000
1.849777 0.339465 0.147627 53.000000
1.853757 0.334319 0.147806 53.000000
1.854774 0.328631 0.147806 53.000000
1.855774 0.322939 0.147806 53.000000
1.856756 0.317244 0.147806 53.000000
1.858705 0.311711 0.147865 53.000000
1.859653 0.306007 0.147865 53.000000
1.859597 0.300141 0.147806 53.000000
1.860509 0.294435 0.147806 53.000000
1.859431 0.288420 0.147686 53.000000
1.860307 0.282714 0.147686 53.000000
1.862153 0.277152 0.147746 53.000000
1.863982 0.271581 0.147806 53.000000
1.864807 0.265861 0.147806 53.000000
1.865613 0.260139 0.147806 53.000000
1.866403 0.254414 0.147806 53.000000
1.869154 0.248950 0.147925 53.000000
1.870898 0.243343 0.147985 53.000000
1.872627 0.237727 0.148044 53.000000
1.874338 0.232104 0.148104 53.000000
1.876032 0.226471 0.148164 53.000000
1.879692 0.221064 0.148343 53.000000
1.880362 0.215296 0.148343 53.000000
1.882998 0.209747 0.148462 53.000000
1.884625 0.204076 0.148522 53.000000
1.888220 0.198606 0.148701 53.000000
1.889814 0.192913 0.148760 53.000000
1.890397 0.187114 0.148760 53.000000
1.891955 0.181409 0.148820 53.000000
1.894491 0.175788 0.148939 53.000000
1.895021 0.169975 0.148939 53.000000
1.894539 0.164074 0.148880 53.000000
1.896029 0.158344 0.148939 53.000000
1.898496 0.152686 0.149058 53.000000
1.900946 0.147014 0.149178 53.000000
1.902383 0.141255 0.149237 53.000000
1.904799 0.135559 0.149357 53.000000
1.909190 0.129985 0.149595 53.000000
1.909579 0.124127 0.149595 53.000000
1.910948 0.118330 0.149655 53.000000
1.913295 0.112583 0.149774 53.000000
1.914628 0.106768 0.149834 53.000000
1.913949 0.100842 0.149774 53.000000
1.914250 0.094969 0.149774 53.000000
1.914532 0.089096 0.149774 53.000000
1.914796 0.083222 0.149774 53.000000
1.915043 0.077347 0.149774 53.000000
1.916269 0.071508 0.149834 53.000000
1.917477 0.065663 0.149894 53.000000
1.918667 0.059811 0.149953 53.000000
1.921835 0.054008 0.150132 53.000000
1.921991 0.048111 0.150132 53.000000
1.925124 0.042280 0.150311 53.000000
1.928239 0.036429 0.150490 53.000000
1.929340 0.030529 0.150550 53.000000
1.933417 0.024660 0.150788 53.000000
1.932485 0.018718 0.150729 53.000000
1.936526 0.012815 0.150967 53.000000
