# This PCD file was generated using the MATLAB® pcwrite function
# from Computer Vision Toolbox®.
# .PCD v.7 - Point Cloud Data file format
VERSION .7
FIELDS x y z intensity
SIZE 4 4 4 4
TYPE F F F F
COUNT 1 1 1 1
WIDTH 1257
HEIGHT 1
VIEWPOINT 0 0 0 1 0 0 0
POINTS 1257
DATA ascii
2.611736 -0.080805 0.542911 31.000000
2.611476 -0.088818 0.542911 31.000000
2.612172 -0.096865 0.543102 31.000000
2.611863 -0.104879 0.543102 31.000000
2.611529 -0.112891 0.543102 31.000000
2.612150 -0.120948 0.543294 31.000000
2.611767 -0.128961 0.543294 31.000000
2.611359 -0.136973 0.543294 31.000000
2.611907 -0.145038 0.543485 31.000000
2.613409 -0.153165 0.543868 31.000000
2.612927 -0.161182 0.543868 31.000000
2.612420 -0.169197 0.543868 31.000000
2.614826 -0.177409 0.544443 31.000000
2.616228 -0.185569 0.544826 31.000000
2.613689 -0.193450 0.544443 31.000000
2.616019 -0.201693 0.545017 31.000000
2.616366 -0.209796 0.545209 31.000000
2.615710 -0.217822 0.545209 31.000000
2.614052 -0.225762 0.545017 31.000000
2.614324 -0.233868 0.545209 31.000000
2.615549 -0.242067 0.545592 31.000000
2.613817 -0.249997 0.545400 31.000000
2.613038 -0.258015 0.545400 31.000000
2.614187 -0.266229 0.545783 31.000000
2.613358 -0.274248 0.545783 31.000000
2.614456 -0.282474 0.546166 31.000000
2.614553 -0.290602 0.546358 31.000000
2.615599 -0.298844 0.546741 31.000000
2.614670 -0.306867 0.546741 31.000000
2.617614 -0.315355 0.547507 31.000000
2.621505 -0.323984 0.548464 31.000000
2.617578 -0.331656 0.547890 31.000000
2.618642 -0.029668 0.528501 32.000000
2.616574 -0.037673 0.528130 32.000000
2.618411 -0.045735 0.528501 32.000000
2.617276 -0.053748 0.528315 32.000000
2.614151 -0.061706 0.527758 32.000000
2.613950 -0.069726 0.527758 32.000000
2.614706 -0.077775 0.527944 32.000000
2.614455 -0.085796 0.527944 32.000000
2.613198 -0.093781 0.527758 32.000000
2.614861 -0.101875 0.528130 32.000000
2.614536 -0.109897 0.528130 32.000000
2.613205 -0.117873 0.527944 32.000000
2.614794 -0.125985 0.528315 32.000000
2.614395 -0.134007 0.528315 32.000000
2.613972 -0.142027 0.528315 32.000000
2.614505 -0.150103 0.528501 32.000000
2.613051 -0.158063 0.528315 32.000000
2.613534 -0.166142 0.528501 32.000000
2.614973 -0.174291 0.528873 32.000000
2.616387 -0.182450 0.529245 32.000000
2.614835 -0.190405 0.529059 32.000000
2.615218 -0.198501 0.529245 32.000000
2.614597 -0.206523 0.529245 32.000000
2.615909 -0.214705 0.529616 32.000000
2.613280 -0.222562 0.529245 32.000000
2.614542 -0.230752 0.529616 32.000000
2.612844 -0.238683 0.529430 32.000000
2.612099 -0.246698 0.529430 32.000000
2.613286 -0.254902 0.529802 32.000000
2.614447 -0.263116 0.530174 32.000000
2.615582 -0.271339 0.530545 32.000000
2.616691 -0.279572 0.530917 32.000000
2.618751 -0.287922 0.531475 32.000000
2.618832 -0.296066 0.531660 32.000000
2.618887 -0.304213 0.531846 32.000000
2.619892 -0.312479 0.532218 32.000000
2.620872 -0.320755 0.532590 32.000000
2.619876 -0.328794 0.532590 32.000000
2.617880 -0.336705 0.532404 32.000000
2.614887 -0.344477 0.532032 32.000000
2.612844 -0.352366 0.531846 32.000000
2.603964 -0.359303 0.530360 32.000000
2.580473 -0.364122 0.526085 32.000000
2.585179 -0.372882 0.527200 32.000000
2.621539 -0.023002 0.513501 33.000000
2.619489 -0.031021 0.513140 33.000000
2.618398 -0.039043 0.512960 33.000000
2.620233 -0.047111 0.513321 33.000000
2.620076 -0.055150 0.513321 33.000000
2.616944 -0.063116 0.512780 33.000000
2.616738 -0.071145 0.512780 33.000000
2.618474 -0.079232 0.513140 33.000000
2.617236 -0.087232 0.512960 33.000000
2.615973 -0.095225 0.512780 33.000000
2.617634 -0.103329 0.513140 33.000000
2.618287 -0.111401 0.513321 33.000000
2.615968 -0.119343 0.512960 33.000000
2.617554 -0.127464 0.513321 33.000000
2.617151 -0.135494 0.513321 33.000000
2.615741 -0.143469 0.513140 33.000000
2.615288 -0.151493 0.513140 33.000000
2.616775 -0.159636 0.513501 33.000000
2.614310 -0.167537 0.513140 33.000000
2.614765 -0.175623 0.513321 33.000000
2.613233 -0.183575 0.513140 33.000000
2.611676 -0.191520 0.512960 33.000000
2.611076 -0.199531 0.512960 33.000000
2.611432 -0.207619 0.513140 33.000000
2.610783 -0.215630 0.513140 33.000000
2.610109 -0.223639 0.513140 33.000000
2.610391 -0.231732 0.513321 33.000000
2.612606 -0.240010 0.513861 33.000000
2.613816 -0.248211 0.514221 33.000000
2.616957 -0.256613 0.514942 33.000000
2.620072 -0.265037 0.515663 33.000000
2.621204 -0.273279 0.516023 33.000000
2.622309 -0.281529 0.516383 33.000000
2.623388 -0.289789 0.516744 33.000000
2.624441 -0.298059 0.517104 33.000000
2.621561 -0.305881 0.516744 33.000000
2.619633 -0.313805 0.516564 33.000000
2.620611 -0.322081 0.516924 33.000000
2.617658 -0.329873 0.516564 33.000000
2.615659 -0.337776 0.516383 33.000000
2.614610 -0.345799 0.516383 33.000000
2.613537 -0.353819 0.516383 33.000000
2.611465 -0.361701 0.516203 33.000000
2.610343 -0.369711 0.516203 33.000000
2.604329 -0.377012 0.515302 33.000000
2.611917 -0.386297 0.516924 33.000000
2.608775 -0.394014 0.516564 33.000000
2.607553 -0.402016 0.516564 33.000000
2.599506 -0.408943 0.515302 33.000000
2.610865 -0.418944 0.517645 33.000000
2.607719 -0.015767 0.494613 34.000000
2.615536 -0.023838 0.496006 34.000000
2.614465 -0.031850 0.495832 34.000000
2.614356 -0.039871 0.495832 34.000000
2.616190 -0.047927 0.496180 34.000000
2.617015 -0.055974 0.496355 34.000000
2.613878 -0.063931 0.495832 34.000000
2.615638 -0.072004 0.496180 34.000000
2.616389 -0.080058 0.496355 34.000000
2.614163 -0.088019 0.496006 34.000000
2.613881 -0.096039 0.496006 34.000000
2.615541 -0.104136 0.496355 34.000000
2.618161 -0.112286 0.496877 34.000000
2.616821 -0.120272 0.496703 34.000000
2.617423 -0.128348 0.496877 34.000000
2.617017 -0.136378 0.496877 34.000000
2.616586 -0.144406 0.496877 34.000000
2.617114 -0.152490 0.497051 34.000000
2.615651 -0.160458 0.496877 34.000000
2.614163 -0.168419 0.496703 34.000000
2.613635 -0.176439 0.496703 34.000000
2.610134 -0.184249 0.496180 34.000000
2.610538 -0.192328 0.496355 34.000000
2.606991 -0.200110 0.495832 34.000000
2.609309 -0.208342 0.496355 34.000000
2.608658 -0.216346 0.496355 34.000000
2.607001 -0.224264 0.496180 34.000000
2.607281 -0.232349 0.496355 34.000000
2.610478 -0.240708 0.497051 34.000000
2.611688 -0.248902 0.497400 34.000000
2.615812 -0.257395 0.498270 34.000000
2.618929 -0.265816 0.498967 34.000000
2.621039 -0.274156 0.499489 34.000000
2.623123 -0.282512 0.500012 34.000000
2.625180 -0.290883 0.500534 34.000000
2.626232 -0.299159 0.500883 34.000000
2.625302 -0.307214 0.500883 34.000000
2.622392 -0.315033 0.500534 34.000000
2.621413 -0.323076 0.500534 34.000000
2.618456 -0.330871 0.500186 34.000000
2.616452 -0.338776 0.500012 34.000000
2.615400 -0.346802 0.500012 34.000000
2.613348 -0.354692 0.499838 34.000000
2.613223 -0.362843 0.500012 34.000000
2.614047 -0.371135 0.500360 34.000000
2.612896 -0.379153 0.500360 34.000000
2.612695 -0.387312 0.500534 34.000000
2.612468 -0.395473 0.500709 34.000000
2.611243 -0.403486 0.500709 34.000000
2.611938 -0.411802 0.501057 34.000000
2.612607 -0.420125 0.501405 34.000000
2.612277 -0.428298 0.501579 34.000000
2.609980 -0.436148 0.501405 34.000000
2.611542 -0.444649 0.501928 34.000000
2.589790 -0.449128 0.498270 34.000000
2.609556 -0.009112 0.478150 35.000000
2.609516 -0.017118 0.478150 35.000000
2.609451 -0.025124 0.478150 35.000000
2.608376 -0.033117 0.477982 35.000000
2.609248 -0.041135 0.478150 35.000000
2.610095 -0.049158 0.478318 35.000000
2.610918 -0.057186 0.478486 35.000000
2.610730 -0.065196 0.478486 35.000000
2.610518 -0.073206 0.478486 35.000000
2.609295 -0.081184 0.478318 35.000000
2.609034 -0.089189 0.478318 35.000000
2.610718 -0.097265 0.478654 35.000000
2.613363 -0.105392 0.479158 35.000000
2.614997 -0.113494 0.479494 35.000000
2.617591 -0.121652 0.479998 35.000000
2.617205 -0.129682 0.479998 35.000000
2.614826 -0.137608 0.479662 35.000000
2.614392 -0.145630 0.479662 35.000000
2.613932 -0.153650 0.479662 35.000000
2.610497 -0.161488 0.479158 35.000000
2.609005 -0.169432 0.478990 35.000000
2.608473 -0.177436 0.478990 35.000000
2.604967 -0.185229 0.478486 35.000000
2.604386 -0.193220 0.478486 35.000000
2.604764 -0.201285 0.478654 35.000000
2.607082 -0.209511 0.479158 35.000000
2.605445 -0.217427 0.478990 35.000000
2.604765 -0.225419 0.478990 35.000000
2.606025 -0.233585 0.479326 35.000000
2.608241 -0.241850 0.479830 35.000000
2.610431 -0.250132 0.480334 35.000000
2.613575 -0.258526 0.481006 35.000000
2.615712 -0.266842 0.481510 35.000000
2.616842 -0.275071 0.481846 35.000000
2.616966 -0.283203 0.482014 35.000000
2.619024 -0.291557 0.482517 35.000000
2.619097 -0.299702 0.482685 35.000000
2.620123 -0.307965 0.483021 35.000000
2.616230 -0.315649 0.482517 35.000000
2.614271 -0.323554 0.482350 35.000000
2.613266 -0.331573 0.482350 35.000000
2.613214 -0.339715 0.482517 35.000000
2.611182 -0.347601 0.482350 35.000000
2.610104 -0.355610 0.482350 35.000000
2.611929 -0.364023 0.482853 35.000000
2.611776 -0.372173 0.483021 35.000000
2.610622 -0.380185 0.483021 35.000000
2.609444 -0.388192 0.483021 35.000000
2.611164 -0.396639 0.483525 35.000000
2.610909 -0.404798 0.483693 35.000000
2.612576 -0.413267 0.484197 35.000000
2.613243 -0.421594 0.484533 35.000000
2.613883 -0.429928 0.484869 35.000000
2.613524 -0.438108 0.485037 35.000000
2.613139 -0.446290 0.485205 35.000000
2.613700 -0.454642 0.485541 35.000000
2.615205 -0.463173 0.486045 35.000000
2.614742 -0.471368 0.486213 35.000000
2.615223 -0.479743 0.486549 35.000000
2.610832 -0.487223 0.486045 35.000000
2.633539 -0.499815 0.490244 35.000000
2.660066 -0.513297 0.495115 35.000000
2.628849 0.002474 0.465963 36.000000
2.600229 -0.005518 0.461256 36.000000
2.604146 -0.013517 0.461905 36.000000
2.603106 -0.021498 0.461743 36.000000
2.604014 -0.029496 0.461905 36.000000
2.604898 -0.037499 0.462068 36.000000
2.606744 -0.045526 0.462392 36.000000
2.606592 -0.053523 0.462392 36.000000
2.605429 -0.061496 0.462230 36.000000
2.607201 -0.069543 0.462555 36.000000
2.601058 -0.077363 0.461581 36.000000
2.600808 -0.085342 0.461581 36.000000
2.604478 -0.093464 0.462230 36.000000
2.606151 -0.101532 0.462555 36.000000
2.605828 -0.109527 0.462555 36.000000
2.607451 -0.117611 0.462879 36.000000
2.609049 -0.125706 0.463204 36.000000
2.606680 -0.133608 0.462879 36.000000
2.607243 -0.141658 0.463041 36.000000
2.607781 -0.149714 0.463204 36.000000
2.604355 -0.157533 0.462717 36.000000
2.602875 -0.165460 0.462555 36.000000
2.604324 -0.173576 0.462879 36.000000
2.601810 -0.181427 0.462555 36.000000
2.604194 -0.189625 0.463041 36.000000
2.605568 -0.197764 0.463366 36.000000
2.604949 -0.205757 0.463366 36.000000
2.605289 -0.213829 0.463528 36.000000
2.605603 -0.221905 0.463691 36.000000
2.605893 -0.229985 0.463853 36.000000
2.606158 -0.238069 0.464015 36.000000
2.606398 -0.246157 0.464177 36.000000
2.607594 -0.254344 0.464502 36.000000
2.606802 -0.262343 0.464502 36.000000
2.608929 -0.270646 0.464989 36.000000
2.606124 -0.278438 0.464664 36.000000
2.607219 -0.286649 0.464989 36.000000
2.608288 -0.294869 0.465313 36.000000
2.609332 -0.303098 0.465638 36.000000
2.608389 -0.311102 0.465638 36.000000
2.607423 -0.319103 0.465638 36.000000
2.609369 -0.327471 0.466125 36.000000
2.610309 -0.335728 0.466450 36.000000
2.609267 -0.343734 0.466450 36.000000
2.610155 -0.352002 0.466774 36.000000
2.610041 -0.360144 0.466936 36.000000
2.610877 -0.368426 0.467261 36.000000
2.608758 -0.376293 0.467099 36.000000
2.609544 -0.384584 0.467423 36.000000
2.608351 -0.392588 0.467423 36.000000
2.610060 -0.401039 0.467910 36.000000
2.608818 -0.409045 0.467910 36.000000
2.608525 -0.417203 0.468072 36.000000
2.607233 -0.425204 0.468072 36.000000
2.606889 -0.433363 0.468235 36.000000
2.606520 -0.441524 0.468397 36.000000
2.608070 -0.450023 0.468884 36.000000
2.609593 -0.458536 0.469371 36.000000
2.610116 -0.466888 0.469695 36.000000
2.606730 -0.474540 0.469371 36.000000
2.608172 -0.483075 0.469858 36.000000
2.607648 -0.491258 0.470020 36.000000
2.605159 -0.499069 0.469858 36.000000
2.606521 -0.507627 0.470345 36.000000
2.604952 -0.515621 0.470345 36.000000
2.604325 -0.523805 0.470507 36.000000
2.604639 -0.532189 0.470831 36.000000
2.666754 -0.553438 0.481543 36.000000
2.597882 0.000670 0.444679 37.000000
2.596884 -0.007298 0.444523 37.000000
2.599812 -0.015283 0.444992 37.000000
2.598765 -0.023250 0.444836 37.000000
2.599669 -0.031235 0.444992 37.000000
2.602524 -0.039255 0.445461 37.000000
2.602391 -0.047239 0.445461 37.000000
2.602234 -0.055223 0.445461 37.000000
2.603040 -0.063231 0.445617 37.000000
2.603821 -0.071244 0.445773 37.000000
2.602603 -0.079201 0.445617 37.000000
2.604322 -0.087252 0.445929 37.000000
2.604042 -0.095242 0.445929 37.000000
2.602751 -0.103191 0.445773 37.000000
2.602422 -0.111176 0.445773 37.000000
2.602069 -0.119159 0.445773 37.000000
2.601691 -0.127142 0.445773 37.000000
2.600302 -0.135072 0.445617 37.000000
2.600862 -0.143103 0.445773 37.000000
2.600410 -0.151082 0.445773 37.000000
2.597963 -0.158938 0.445461 37.000000
2.598449 -0.166971 0.445617 37.000000
2.598910 -0.175009 0.445773 37.000000
2.598361 -0.182981 0.445773 37.000000
2.599757 -0.191097 0.446086 37.000000
2.601128 -0.199223 0.446398 37.000000
2.603459 -0.207438 0.446867 37.000000
2.604779 -0.215588 0.447180 37.000000
2.606073 -0.223748 0.447492 37.000000
2.606358 -0.231830 0.447648 37.000000
2.605635 -0.239825 0.447648 37.000000
2.604887 -0.247817 0.447648 37.000000
2.605097 -0.255905 0.447805 37.000000
2.603317 -0.263796 0.447648 37.000000
2.602495 -0.271782 0.447648 37.000000
2.600667 -0.279659 0.447492 37.000000
2.599797 -0.287636 0.447492 37.000000
2.601846 -0.295946 0.447961 37.000000
2.601907 -0.304042 0.448117 37.000000
2.600962 -0.312023 0.448117 37.000000
2.601954 -0.320243 0.448430 37.000000
2.601938 -0.328348 0.448586 37.000000
2.603858 -0.336710 0.449055 37.000000
2.603791 -0.344826 0.449211 37.000000
2.605658 -0.353212 0.449680 37.000000
2.606518 -0.361476 0.449992 37.000000
2.606375 -0.369609 0.450149 37.000000
2.607184 -0.377888 0.450461 37.000000
2.606012 -0.385884 0.450461 37.000000
2.605793 -0.394026 0.450617 37.000000
2.605548 -0.402169 0.450774 37.000000
2.602350 -0.409853 0.450461 37.000000
2.602056 -0.417992 0.450617 37.000000
2.602710 -0.426293 0.450930 37.000000
2.603339 -0.434601 0.451242 37.000000
2.598098 -0.441923 0.450617 37.000000
2.600623 -0.450567 0.451242 37.000000
2.604092 -0.459402 0.452024 37.000000
2.606559 -0.468088 0.452649 37.000000
2.607054 -0.476438 0.452961 37.000000
2.610435 -0.485337 0.453743 37.000000
2.608934 -0.493344 0.453743 37.000000
2.608378 -0.501532 0.453899 37.000000
2.608765 -0.509912 0.454211 37.000000
2.610095 -0.518490 0.454680 37.000000
2.608492 -0.526496 0.454680 37.000000
2.606864 -0.534496 0.454680 37.000000
2.607146 -0.542894 0.454993 37.000000
2.607401 -0.551299 0.455305 37.000000
2.607629 -0.559711 0.455618 37.000000
2.607830 -0.568129 0.455930 37.000000
2.616683 -0.578474 0.457649 37.000000
2.584497 0.008158 0.426495 38.000000
2.586488 0.000229 0.426796 38.000000
2.587465 -0.007709 0.426946 38.000000
2.590395 -0.015665 0.427397 38.000000
2.592312 -0.023630 0.427697 38.000000
2.595193 -0.031618 0.428148 38.000000
2.597061 -0.039610 0.428448 38.000000
2.599892 -0.047631 0.428899 38.000000
2.598746 -0.055586 0.428749 38.000000
2.600539 -0.063607 0.429049 38.000000
2.600332 -0.071585 0.429049 38.000000
2.599112 -0.079532 0.428899 38.000000
2.596880 -0.087440 0.428598 38.000000
2.597587 -0.095443 0.428749 38.000000
2.594318 -0.103294 0.428298 38.000000
2.592014 -0.111168 0.427997 38.000000
2.590673 -0.119075 0.427847 38.000000
2.590296 -0.127022 0.427847 38.000000
2.588906 -0.134917 0.427697 38.000000
2.589467 -0.142913 0.427847 38.000000
2.590991 -0.150972 0.428148 38.000000
2.589529 -0.158860 0.427997 38.000000
2.590016 -0.166867 0.428148 38.000000
2.589491 -0.174812 0.428148 38.000000
2.590915 -0.182895 0.428448 38.000000
2.591328 -0.190915 0.428598 38.000000
2.593687 -0.199091 0.429049 38.000000
2.596021 -0.207283 0.429500 38.000000
2.598329 -0.215491 0.429950 38.000000
2.602581 -0.223885 0.430702 38.000000
2.602866 -0.231956 0.430852 38.000000
2.603127 -0.240031 0.431002 38.000000
2.602378 -0.248016 0.431002 38.000000
2.600621 -0.255902 0.430852 38.000000
2.600807 -0.263979 0.431002 38.000000
2.599002 -0.271855 0.430852 38.000000
2.597172 -0.279721 0.430702 38.000000
2.595320 -0.287579 0.430551 38.000000
2.596390 -0.295764 0.430852 38.000000
2.595470 -0.303728 0.430852 38.000000
2.594526 -0.311689 0.430852 38.000000
2.595520 -0.319889 0.431152 38.000000
2.595507 -0.327974 0.431302 38.000000
2.595469 -0.336063 0.431453 38.000000
2.598346 -0.344543 0.432054 38.000000
2.598257 -0.352646 0.432204 38.000000
2.600101 -0.361023 0.432654 38.000000
2.600939 -0.369276 0.432955 38.000000
2.601750 -0.377537 0.433255 38.000000
2.602536 -0.385807 0.433556 38.000000
2.600362 -0.393642 0.433406 38.000000
2.602073 -0.402071 0.433856 38.000000
2.599851 -0.409898 0.433706 38.000000
2.598581 -0.417872 0.433706 38.000000
2.598263 -0.426002 0.433856 38.000000
2.595968 -0.433809 0.433706 38.000000
2.593651 -0.441605 0.433556 38.000000
2.595206 -0.450067 0.434007 38.000000
2.596734 -0.458542 0.434457 38.000000
2.597261 -0.466856 0.434758 38.000000
2.596789 -0.475000 0.434908 38.000000
2.599208 -0.483688 0.435509 38.000000
2.602569 -0.492578 0.436260 38.000000
2.602987 -0.500934 0.436560 38.000000
2.605319 -0.509676 0.437161 38.000000
2.609561 -0.518822 0.438063 38.000000
2.607957 -0.526826 0.438063 38.000000
2.606328 -0.534825 0.438063 38.000000
2.607579 -0.543423 0.438513 38.000000
2.608802 -0.552034 0.438964 38.000000
2.607095 -0.560035 0.438964 38.000000
2.606331 -0.568241 0.439114 38.000000
2.606506 -0.576661 0.439415 38.000000
2.604725 -0.584655 0.439415 38.000000
2.602919 -0.592644 0.439415 38.000000
2.603015 -0.601071 0.439715 38.000000
2.602121 -0.609280 0.439865 38.000000
2.635832 -0.625704 0.445424 38.000000
2.578785 0.014717 0.410091 39.000000
2.581787 0.006814 0.410524 39.000000
2.585754 -0.001107 0.411101 39.000000
2.586728 -0.009043 0.411245 39.000000
2.589656 -0.016997 0.411678 39.000000
2.591571 -0.024960 0.411967 39.000000
2.595440 -0.032959 0.412545 39.000000
2.597305 -0.040952 0.412833 39.000000
2.600136 -0.048975 0.413266 39.000000
2.597995 -0.056909 0.412978 39.000000
2.598797 -0.064904 0.413122 39.000000
2.599575 -0.072904 0.413266 39.000000
2.597361 -0.080818 0.412978 39.000000
2.595123 -0.088719 0.412689 39.000000
2.595827 -0.096717 0.412833 39.000000
2.592552 -0.104562 0.412400 39.000000
2.590242 -0.112431 0.412112 39.000000
2.591861 -0.120468 0.412400 39.000000
2.593456 -0.128516 0.412689 39.000000
2.592062 -0.136421 0.412545 39.000000
2.592619 -0.144427 0.412689 39.000000
2.595127 -0.152553 0.413122 39.000000
2.594647 -0.160514 0.413122 39.000000
2.593155 -0.168410 0.412978 39.000000
2.594600 -0.176498 0.413266 39.000000
2.591086 -0.184248 0.412833 39.000000
2.590508 -0.192197 0.412833 39.000000
2.595826 -0.200598 0.413699 39.000000
2.593226 -0.208404 0.413411 39.000000
2.599477 -0.216931 0.414421 39.000000
2.598799 -0.224905 0.414421 39.000000
2.603025 -0.233317 0.415143 39.000000
2.604268 -0.241484 0.415432 39.000000
2.605485 -0.249660 0.415720 39.000000
2.606676 -0.257846 0.416009 39.000000
2.605873 -0.265842 0.416009 39.000000
2.601108 -0.273424 0.415432 39.000000
2.600257 -0.281403 0.415432 39.000000
2.598398 -0.289270 0.415287 39.000000
2.598481 -0.297352 0.415432 39.000000
2.596574 -0.305208 0.415287 39.000000
2.596608 -0.313291 0.415432 39.000000
2.595635 -0.321255 0.415432 39.000000
2.596600 -0.329465 0.415720 39.000000
2.596559 -0.337557 0.415865 39.000000
2.600415 -0.346173 0.416587 39.000000
2.602283 -0.354548 0.417020 39.000000
2.602163 -0.362666 0.417164 39.000000
2.601038 -0.370648 0.417164 39.000000
2.604785 -0.379337 0.417886 39.000000
2.603609 -0.387327 0.417886 39.000000
2.603387 -0.395461 0.418030 39.000000
2.603139 -0.403597 0.418175 39.000000
2.603843 -0.411890 0.418463 39.000000
2.602567 -0.419876 0.418463 39.000000
2.602244 -0.428019 0.418608 39.000000
2.600918 -0.436001 0.418608 39.000000
2.601519 -0.444311 0.418896 39.000000
2.599169 -0.452121 0.418752 39.000000
2.598744 -0.460265 0.418896 39.000000
2.600241 -0.468761 0.419329 39.000000
2.598791 -0.476736 0.419329 39.000000
2.600235 -0.485250 0.419762 39.000000
2.599706 -0.493409 0.419907 39.000000
2.602067 -0.502131 0.420484 39.000000
2.604398 -0.510872 0.421062 39.000000
2.605730 -0.519439 0.421495 39.000000
2.606064 -0.527823 0.421783 39.000000
2.605402 -0.536014 0.421928 39.000000
2.603745 -0.544005 0.421928 39.000000
2.605936 -0.552810 0.422505 39.000000
2.606163 -0.561219 0.422794 39.000000
2.604429 -0.569211 0.422794 39.000000
2.604603 -0.577627 0.423083 39.000000
2.602818 -0.585615 0.423083 39.000000
2.600044 -0.593378 0.422938 39.000000
2.600140 -0.601797 0.423227 39.000000
2.625258 -0.616090 0.427269 39.000000
2.632020 -0.626199 0.428568 39.000000
2.583911 0.017858 0.395290 40.000000
2.584944 0.009934 0.395428 40.000000
2.587933 0.002005 0.395844 40.000000
2.587927 -0.005935 0.395844 40.000000
2.590868 -0.013892 0.396259 40.000000
2.592793 -0.021858 0.396536 40.000000
2.594695 -0.029836 0.396813 40.000000
2.597562 -0.037841 0.397229 40.000000
2.598424 -0.045828 0.397367 40.000000
2.597281 -0.053779 0.397229 40.000000
2.598094 -0.061771 0.397367 40.000000
2.597892 -0.069741 0.397367 40.000000
2.595686 -0.077651 0.397090 40.000000
2.594446 -0.085581 0.396952 40.000000
2.595160 -0.093577 0.397090 40.000000
2.594861 -0.101538 0.397090 40.000000
2.593548 -0.109456 0.396952 40.000000
2.595179 -0.117503 0.397229 40.000000
2.596784 -0.125561 0.397506 40.000000
2.601332 -0.133784 0.398198 40.000000
2.598932 -0.141655 0.397921 40.000000
2.604417 -0.149972 0.398752 40.000000
2.601968 -0.157841 0.398475 40.000000
2.599494 -0.165696 0.398198 40.000000
2.599962 -0.173737 0.398337 40.000000
2.596453 -0.181504 0.397921 40.000000
2.595884 -0.189469 0.397921 40.000000
2.595290 -0.197432 0.397921 40.000000
2.597634 -0.205629 0.398337 40.000000
2.596991 -0.213598 0.398337 40.000000
2.600271 -0.221903 0.398891 40.000000
2.603523 -0.230230 0.399444 40.000000
2.603791 -0.238307 0.399583 40.000000
2.605020 -0.246482 0.399860 40.000000
2.607208 -0.254763 0.400275 40.000000
2.605429 -0.262661 0.400137 40.000000
2.600671 -0.270242 0.399583 40.000000
2.600814 -0.278325 0.399721 40.000000
2.597979 -0.286085 0.399444 40.000000
2.596105 -0.293942 0.399306 40.000000
2.596175 -0.302021 0.399444 40.000000
2.596219 -0.310102 0.399583 40.000000
2.596239 -0.318187 0.399721 40.000000
2.595250 -0.326150 0.399721 40.000000
2.598166 -0.334619 0.400275 40.000000
2.599091 -0.342848 0.400552 40.000000
2.600971 -0.351219 0.400968 40.000000
2.603805 -0.359741 0.401522 40.000000
2.603670 -0.367867 0.401660 40.000000
2.603509 -0.375995 0.401799 40.000000
2.604303 -0.384271 0.402076 40.000000
2.604091 -0.392407 0.402214 40.000000
2.603854 -0.400545 0.402353 40.000000
2.603591 -0.408686 0.402491 40.000000
2.602325 -0.416672 0.402491 40.000000
2.602011 -0.424813 0.402630 40.000000
2.600696 -0.432794 0.402630 40.000000
2.599356 -0.440771 0.402630 40.000000
2.599943 -0.449082 0.402906 40.000000
2.598553 -0.457056 0.402906 40.000000
2.597139 -0.465026 0.402906 40.000000
2.600571 -0.473882 0.403599 40.000000
2.599105 -0.481858 0.403599 40.000000
2.597614 -0.489830 0.403599 40.000000
2.599990 -0.498544 0.404153 40.000000
2.602336 -0.507278 0.404707 40.000000
2.603681 -0.515839 0.405122 40.000000
2.604028 -0.524216 0.405399 40.000000
2.603378 -0.532401 0.405538 40.000000
2.603671 -0.540789 0.405815 40.000000
2.603938 -0.549184 0.406092 40.000000
2.605146 -0.557794 0.406507 40.000000
2.605358 -0.566205 0.406784 40.000000
2.602641 -0.573982 0.406646 40.000000
2.601834 -0.582181 0.406784 40.000000
2.601002 -0.590380 0.406922 40.000000
2.600143 -0.598580 0.407061 40.000000
2.604081 -0.607907 0.407892 40.000000
2.592969 0.025435 0.380522 41.000000
2.594026 0.017486 0.380655 41.000000
2.595059 0.009531 0.380787 41.000000
2.595076 0.001570 0.380787 41.000000
2.596060 -0.006395 0.380919 41.000000
2.594046 -0.014348 0.380655 41.000000
2.595972 -0.022324 0.380919 41.000000
2.595891 -0.030288 0.380919 41.000000
2.596777 -0.038266 0.381052 41.000000
2.598629 -0.046269 0.381317 41.000000
2.597484 -0.054220 0.381184 41.000000
2.598297 -0.062213 0.381317 41.000000
2.598094 -0.070184 0.381317 41.000000
2.597866 -0.078154 0.381317 41.000000
2.598604 -0.086157 0.381449 41.000000
2.599319 -0.094165 0.381582 41.000000
2.600008 -0.102178 0.381714 41.000000
2.599682 -0.110155 0.381714 41.000000
2.600322 -0.118175 0.381846 41.000000
2.600937 -0.126200 0.381979 41.000000
2.600538 -0.134179 0.381979 41.000000
2.603083 -0.142320 0.382376 41.000000
2.604613 -0.150420 0.382641 41.000000
2.604140 -0.158410 0.382641 41.000000
2.603641 -0.166399 0.382641 41.000000
2.605097 -0.174518 0.382906 41.000000
2.604549 -0.182510 0.382906 41.000000
2.601011 -0.190282 0.382509 41.000000
2.602392 -0.198412 0.382773 41.000000
2.599794 -0.206238 0.382509 41.000000
2.602113 -0.214458 0.382906 41.000000
2.601443 -0.222440 0.382906 41.000000
2.600748 -0.230420 0.382906 41.000000
2.602990 -0.238670 0.383303 41.000000
2.605206 -0.246936 0.383700 41.000000
2.607395 -0.255217 0.384098 41.000000
2.605614 -0.263116 0.383965 41.000000
2.605780 -0.271211 0.384098 41.000000
2.604936 -0.279204 0.384098 41.000000
2.605052 -0.287304 0.384230 41.000000
2.603174 -0.295183 0.384098 41.000000
2.605210 -0.303512 0.384495 41.000000
2.603282 -0.311386 0.384363 41.000000
2.601331 -0.319250 0.384230 41.000000
2.602306 -0.327477 0.384495 41.000000
2.604238 -0.335840 0.384892 41.000000
2.604178 -0.343958 0.385025 41.000000
2.606057 -0.352345 0.385422 41.000000
2.606928 -0.360610 0.385687 41.000000
2.605809 -0.368607 0.385687 41.000000
2.604666 -0.376599 0.385687 41.000000
2.604479 -0.384734 0.385819 41.000000
2.605246 -0.393018 0.386084 41.000000
2.602069 -0.400707 0.385819 41.000000
2.600827 -0.408688 0.385819 41.000000
2.601519 -0.416980 0.386084 41.000000
2.600227 -0.424959 0.386084 41.000000
2.597934 -0.432771 0.385952 41.000000
2.599525 -0.441238 0.386349 41.000000
2.599136 -0.449380 0.386481 41.000000
2.600673 -0.457868 0.386879 41.000000
2.599257 -0.465845 0.386879 41.000000
2.601715 -0.474529 0.387408 41.000000
2.601222 -0.482689 0.387541 41.000000
2.601677 -0.491035 0.387806 41.000000
2.601131 -0.499202 0.387938 41.000000
2.603479 -0.507940 0.388468 41.000000
2.603853 -0.516310 0.388733 41.000000
2.604200 -0.524688 0.388998 41.000000
2.605491 -0.533272 0.389395 41.000000
2.605783 -0.541667 0.389660 41.000000
2.605079 -0.549864 0.389792 41.000000
2.606287 -0.558477 0.390189 41.000000
2.606499 -0.566892 0.390454 41.000000
2.605715 -0.575099 0.390587 41.000000
2.602971 -0.582874 0.390454 41.000000
2.601171 -0.590857 0.390454 41.000000
2.602243 -0.599503 0.390852 41.000000
2.583019 -0.603422 0.388468 41.000000
2.594899 0.031627 0.365222 42.000000
2.587049 0.023592 0.364210 42.000000
2.587109 0.015655 0.364210 42.000000
2.587145 0.007718 0.364210 42.000000
2.588148 -0.000220 0.364336 42.000000
2.586151 -0.008154 0.364083 42.000000
2.586114 -0.016088 0.364083 42.000000
2.587044 -0.024031 0.364210 42.000000
2.586959 -0.031968 0.364210 42.000000
2.586848 -0.039905 0.364210 42.000000
2.586714 -0.047841 0.364210 42.000000
2.587547 -0.055798 0.364336 42.000000
2.589347 -0.063784 0.364589 42.000000
2.588147 -0.071701 0.364463 42.000000
2.593864 -0.079823 0.365222 42.000000
2.590633 -0.087680 0.364843 42.000000
2.590351 -0.095628 0.364843 42.000000
2.590046 -0.103574 0.364843 42.000000
2.590707 -0.111563 0.364969 42.000000
2.590353 -0.119510 0.364969 42.000000
2.588983 -0.127408 0.364843 42.000000
2.589571 -0.135402 0.364969 42.000000
2.590133 -0.143401 0.365096 42.000000
2.591662 -0.151462 0.365349 42.000000
2.593165 -0.159534 0.365602 42.000000
2.592663 -0.167489 0.365602 42.000000
2.597086 -0.175776 0.366235 42.000000
2.595545 -0.183674 0.366108 42.000000
2.597937 -0.191854 0.366488 42.000000
2.599314 -0.199976 0.366741 42.000000
2.596711 -0.207791 0.366488 42.000000
2.595073 -0.215675 0.366361 42.000000
2.593410 -0.223551 0.366235 42.000000
2.593700 -0.231594 0.366361 42.000000
2.592978 -0.239550 0.366361 42.000000
2.596180 -0.247881 0.366867 42.000000
2.593433 -0.255650 0.366614 42.000000
2.591650 -0.263505 0.366488 42.000000
2.594776 -0.271868 0.366994 42.000000
2.594916 -0.279934 0.367120 42.000000
2.594045 -0.287894 0.367120 42.000000
2.596106 -0.296188 0.367500 42.000000
2.597155 -0.304382 0.367753 42.000000
2.596209 -0.312348 0.367753 42.000000
2.596223 -0.320433 0.367880 42.000000
2.596212 -0.328521 0.368006 42.000000
2.595192 -0.336484 0.368006 42.000000
2.595131 -0.344575 0.368133 42.000000
2.595045 -0.352669 0.368259 42.000000
2.595915 -0.360902 0.368512 42.000000
2.592832 -0.368585 0.368259 42.000000
2.591689 -0.376538 0.368259 42.000000
2.590521 -0.384487 0.368259 42.000000
2.589329 -0.392433 0.368259 42.000000
2.590074 -0.400678 0.368512 42.000000
2.591772 -0.409086 0.368892 42.000000
2.592464 -0.417351 0.369145 42.000000
2.592150 -0.425463 0.369272 42.000000
2.591811 -0.433577 0.369398 42.000000
2.594380 -0.442193 0.369904 42.000000
2.593011 -0.450150 0.369904 42.000000
2.594548 -0.458621 0.370284 42.000000
2.593129 -0.466579 0.370284 42.000000
2.596564 -0.475424 0.370917 42.000000
2.592168 -0.482844 0.370537 42.000000
2.593598 -0.491348 0.370917 42.000000
2.594027 -0.499677 0.371170 42.000000
2.596376 -0.508395 0.371676 42.000000
2.594804 -0.516359 0.371676 42.000000
2.596124 -0.524906 0.372056 42.000000
2.597417 -0.533467 0.372435 42.000000
2.599652 -0.542243 0.372941 42.000000
2.598947 -0.550421 0.373068 42.000000
2.602095 -0.559434 0.373701 42.000000
2.601336 -0.567626 0.373827 42.000000
2.600551 -0.575818 0.373954 42.000000
2.600708 -0.584228 0.374207 42.000000
2.599870 -0.592425 0.374333 42.000000
2.590873 0.039089 0.347838 43.000000
2.582047 0.031029 0.346757 43.000000
2.578159 0.023070 0.346276 43.000000
2.579211 0.015167 0.346397 43.000000
2.583216 0.007267 0.346877 43.000000
2.587197 -0.000658 0.347358 43.000000
2.585197 -0.008590 0.347117 43.000000
2.587145 -0.016533 0.347358 43.000000
2.588074 -0.024479 0.347478 43.000000
2.587987 -0.032419 0.347478 43.000000
2.588868 -0.040373 0.347598 43.000000
2.589725 -0.048334 0.347718 43.000000
2.587579 -0.056237 0.347478 43.000000
2.587394 -0.064175 0.347478 43.000000
2.587185 -0.072113 0.347478 43.000000
2.587944 -0.080080 0.347598 43.000000
2.586694 -0.087986 0.347478 43.000000
2.586412 -0.095921 0.347478 43.000000
2.586106 -0.103856 0.347478 43.000000
2.585775 -0.111789 0.347478 43.000000
2.583436 -0.119631 0.347238 43.000000
2.582065 -0.127508 0.347117 43.000000
2.580671 -0.135377 0.346997 43.000000
2.581234 -0.143349 0.347117 43.000000
2.581774 -0.151325 0.347238 43.000000
2.583279 -0.159366 0.347478 43.000000
2.584759 -0.167418 0.347718 43.000000
2.585224 -0.175414 0.347838 43.000000
2.586654 -0.183484 0.348079 43.000000
2.590039 -0.191710 0.348559 43.000000
2.592409 -0.199883 0.348920 43.000000
2.594752 -0.208073 0.349280 43.000000
2.588165 -0.215540 0.348559 43.000000
2.593427 -0.223990 0.349280 43.000000
2.589761 -0.231681 0.348920 43.000000
2.590026 -0.239716 0.349040 43.000000
2.586314 -0.247379 0.348679 43.000000
2.587519 -0.255507 0.348920 43.000000
2.587710 -0.263544 0.349040 43.000000
2.586890 -0.271482 0.349040 43.000000
2.588019 -0.279629 0.349280 43.000000
2.590109 -0.287896 0.349640 43.000000
2.593159 -0.296290 0.350121 43.000000
2.592238 -0.304244 0.350121 43.000000
2.593263 -0.312432 0.350361 43.000000
2.595249 -0.320751 0.350722 43.000000
2.596222 -0.328960 0.350962 43.000000
2.595201 -0.336924 0.350962 43.000000
2.595139 -0.345014 0.351082 43.000000
2.596036 -0.353241 0.351322 43.000000
2.592973 -0.360931 0.351082 43.000000
2.589888 -0.368606 0.350842 43.000000
2.590710 -0.376835 0.351082 43.000000
2.587577 -0.384490 0.350842 43.000000
2.586386 -0.392427 0.350842 43.000000
2.587132 -0.400663 0.351082 43.000000
2.590794 -0.409371 0.351683 43.000000
2.590506 -0.417475 0.351803 43.000000
2.591172 -0.425742 0.352043 43.000000
2.589854 -0.433689 0.352043 43.000000
2.592426 -0.442299 0.352524 43.000000
2.589100 -0.449911 0.352283 43.000000
2.588686 -0.458025 0.352403 43.000000
2.587268 -0.465965 0.352403 43.000000
2.587780 -0.474257 0.352644 43.000000
2.584360 -0.481831 0.352403 43.000000
2.584821 -0.490126 0.352644 43.000000
2.585255 -0.498429 0.352884 43.000000
2.586636 -0.506930 0.353244 43.000000
2.585069 -0.514863 0.353244 43.000000
2.584450 -0.522988 0.353365 43.000000
2.589641 -0.532311 0.354206 43.000000
2.590912 -0.540861 0.354566 43.000000
2.591183 -0.549218 0.354806 43.000000
2.593368 -0.557998 0.355287 43.000000
2.593584 -0.566375 0.355527 43.000000
2.593773 -0.574758 0.355767 43.000000
2.591997 -0.582713 0.355767 43.000000
2.587573 0.041252 0.332877 44.000000
2.582721 0.033251 0.332304 44.000000
2.580824 0.025309 0.332075 44.000000
2.592810 0.017466 0.333450 44.000000
2.583911 0.009482 0.332418 44.000000
2.583928 0.001555 0.332418 44.000000
2.583921 -0.006372 0.332418 44.000000
2.586869 -0.014318 0.332762 44.000000
2.587806 -0.022263 0.332877 44.000000
2.588719 -0.030214 0.332991 44.000000
2.589608 -0.038171 0.333106 44.000000
2.590472 -0.046134 0.333221 44.000000
2.590318 -0.054081 0.333221 44.000000
2.589147 -0.062004 0.333106 44.000000
2.589937 -0.069974 0.333221 44.000000
2.588717 -0.077889 0.333106 44.000000
2.588466 -0.085831 0.333106 44.000000
2.585212 -0.093663 0.332762 44.000000
2.581935 -0.101475 0.332418 44.000000
2.578634 -0.109268 0.332075 44.000000
2.578287 -0.117179 0.332075 44.000000
2.577915 -0.125088 0.332075 44.000000
2.577519 -0.132997 0.332075 44.000000
2.578091 -0.140959 0.332189 44.000000
2.579630 -0.148983 0.332418 44.000000
2.582135 -0.157079 0.332762 44.000000
2.581641 -0.165000 0.332762 44.000000
2.585088 -0.173187 0.333221 44.000000
2.588508 -0.181396 0.333679 44.000000
2.589921 -0.189483 0.333908 44.000000
2.591308 -0.197580 0.334137 44.000000
2.592670 -0.205687 0.334366 44.000000
2.592027 -0.213640 0.334366 44.000000
2.591359 -0.221591 0.334366 44.000000
2.590667 -0.229540 0.334366 44.000000
2.593908 -0.237852 0.334825 44.000000
2.587232 -0.245244 0.334137 44.000000
2.585479 -0.253083 0.334023 44.000000
2.585679 -0.261114 0.334137 44.000000
2.582890 -0.268839 0.333908 44.000000
2.582053 -0.276762 0.333908 44.000000
2.583166 -0.284901 0.334137 44.000000
2.583267 -0.292937 0.334252 44.000000
2.582356 -0.300861 0.334252 44.000000
2.586353 -0.309374 0.334825 44.000000
2.587363 -0.317551 0.335054 44.000000
2.588348 -0.325736 0.335283 44.000000
2.586351 -0.333548 0.335169 44.000000
2.589255 -0.342003 0.335627 44.000000
2.588193 -0.349945 0.335627 44.000000
2.587108 -0.357884 0.335627 44.000000
2.585998 -0.365820 0.335627 44.000000
2.586829 -0.374037 0.335856 44.000000
2.585670 -0.381971 0.335856 44.000000
2.587432 -0.390348 0.336200 44.000000
2.587204 -0.398436 0.336314 44.000000
2.589895 -0.406990 0.336773 44.000000
2.590596 -0.415249 0.337002 44.000000
2.590290 -0.423356 0.337117 44.000000
2.589959 -0.431464 0.337231 44.000000
2.591561 -0.439908 0.337575 44.000000
2.589220 -0.447687 0.337460 44.000000
2.586856 -0.455456 0.337346 44.000000
2.585447 -0.463390 0.337346 44.000000
2.585967 -0.471678 0.337575 44.000000
2.582555 -0.479246 0.337346 44.000000
2.584001 -0.487721 0.337690 44.000000
2.584443 -0.496021 0.337919 44.000000
2.585834 -0.504520 0.338262 44.000000
2.581351 -0.511870 0.337919 44.000000
2.582690 -0.520377 0.338262 44.000000
2.584000 -0.528897 0.338606 44.000000
2.585283 -0.537430 0.338950 44.000000
2.584594 -0.545564 0.339065 44.000000
2.586793 -0.554326 0.339523 44.000000
2.586051 -0.562471 0.339638 44.000000
2.586253 -0.570831 0.339867 44.000000
2.585459 -0.578980 0.339981 44.000000
2.523615 -0.573240 0.332877 44.000000
2.589285 0.049236 0.316710 45.000000
2.587436 0.041260 0.316493 45.000000
2.585562 0.033297 0.316276 45.000000
2.585653 0.025364 0.316276 45.000000
2.585718 0.017431 0.316276 45.000000
2.585759 0.009498 0.316276 45.000000
2.585777 0.001565 0.316276 45.000000
2.585769 -0.006368 0.316276 45.000000
2.585737 -0.014301 0.316276 45.000000
2.588664 -0.022260 0.316601 45.000000
2.591565 -0.030237 0.316926 45.000000
2.594442 -0.038232 0.317252 45.000000
2.596301 -0.046227 0.317468 45.000000
2.597141 -0.054213 0.317577 45.000000
2.599943 -0.062252 0.317902 45.000000
2.598747 -0.070202 0.317793 45.000000
2.595538 -0.078084 0.317468 45.000000
2.594293 -0.086014 0.317360 45.000000
2.592030 -0.093900 0.317143 45.000000
2.586763 -0.101656 0.316601 45.000000
2.585445 -0.109549 0.316493 45.000000
2.583111 -0.117390 0.316276 45.000000
2.582739 -0.125315 0.316276 45.000000
2.582342 -0.133238 0.316276 45.000000
2.581921 -0.141160 0.316276 45.000000
2.583461 -0.149195 0.316493 45.000000
2.586960 -0.157362 0.316926 45.000000
2.585473 -0.165235 0.316818 45.000000
2.588921 -0.173432 0.317252 45.000000
2.589369 -0.181444 0.317360 45.000000
2.590783 -0.189533 0.317577 45.000000
2.590189 -0.197480 0.317577 45.000000
2.590562 -0.205504 0.317685 45.000000
2.591901 -0.213615 0.317902 45.000000
2.592224 -0.221651 0.318010 45.000000
2.591532 -0.229602 0.318010 45.000000
2.592795 -0.237734 0.318227 45.000000
2.592053 -0.245687 0.318227 45.000000
2.591287 -0.253638 0.318227 45.000000
2.590497 -0.261587 0.318227 45.000000
2.589682 -0.269533 0.318227 45.000000
2.589832 -0.277583 0.318335 45.000000
2.587980 -0.285418 0.318227 45.000000
2.587092 -0.293357 0.318227 45.000000
2.587167 -0.301408 0.318335 45.000000
2.588204 -0.309580 0.318552 45.000000
2.587242 -0.317519 0.318552 45.000000
2.589215 -0.325828 0.318877 45.000000
2.590175 -0.334025 0.319093 45.000000
2.590124 -0.342100 0.319202 45.000000
2.589062 -0.350045 0.319202 45.000000
2.590930 -0.358395 0.319527 45.000000
2.590802 -0.366482 0.319635 45.000000
2.591634 -0.374713 0.319852 45.000000
2.593422 -0.383099 0.320177 45.000000
2.594201 -0.391350 0.320394 45.000000
2.593970 -0.399459 0.320502 45.000000
2.595679 -0.407879 0.320827 45.000000
2.594415 -0.415840 0.320827 45.000000
2.594108 -0.423958 0.320935 45.000000
2.591815 -0.431751 0.320827 45.000000
2.591458 -0.439867 0.320935 45.000000
2.590096 -0.447816 0.320935 45.000000
2.589689 -0.455932 0.321044 45.000000
2.588278 -0.463875 0.321044 45.000000
2.590755 -0.472528 0.321477 45.000000
2.589293 -0.480474 0.321477 45.000000
2.590737 -0.488969 0.321802 45.000000
2.590201 -0.497103 0.321910 45.000000
2.593542 -0.505999 0.322452 45.000000
2.589052 -0.513373 0.322127 45.000000
2.589414 -0.521707 0.322344 45.000000
2.591697 -0.530447 0.322777 45.000000
2.592004 -0.538800 0.322994 45.000000
2.589366 -0.546545 0.322886 45.000000
2.589621 -0.554903 0.323102 45.000000
2.591792 -0.563691 0.323536 45.000000
2.590050 -0.571640 0.323536 45.000000
2.575674 -0.576757 0.322127 45.000000
2.574914 0.055086 0.299345 46.000000
2.572087 0.047131 0.299038 46.000000
2.574208 0.039271 0.299243 46.000000
2.575311 0.031385 0.299345 46.000000
2.574401 0.023475 0.299243 46.000000
2.575456 0.015583 0.299345 46.000000
2.572507 0.007672 0.299038 46.000000
2.572518 -0.000221 0.299038 46.000000
2.572506 -0.008113 0.299038 46.000000
2.574458 -0.016017 0.299243 46.000000
2.575392 -0.023925 0.299345 46.000000
2.577296 -0.031850 0.299549 46.000000
2.582159 -0.039833 0.300061 46.000000
2.585008 -0.047809 0.300368 46.000000
2.588827 -0.055825 0.300777 46.000000
2.591627 -0.063840 0.301084 46.000000
2.593408 -0.071846 0.301288 46.000000
2.592181 -0.079771 0.301186 46.000000
2.588942 -0.087623 0.300879 46.000000
2.588661 -0.095566 0.300879 46.000000
2.585373 -0.103388 0.300572 46.000000
2.584050 -0.111277 0.300470 46.000000
2.581709 -0.119113 0.300265 46.000000
2.581332 -0.127033 0.300265 46.000000
2.581923 -0.135003 0.300368 46.000000
2.581497 -0.142924 0.300368 46.000000
2.582039 -0.150901 0.300470 46.000000
2.585536 -0.159066 0.300879 46.000000
2.587021 -0.167125 0.301084 46.000000
2.586496 -0.175061 0.301084 46.000000
2.586939 -0.183066 0.301186 46.000000
2.587357 -0.191075 0.301288 46.000000
2.585767 -0.198936 0.301186 46.000000
2.582170 -0.206630 0.300879 46.000000
2.587472 -0.215044 0.301493 46.000000
2.583827 -0.222726 0.301186 46.000000
2.583131 -0.230652 0.301186 46.000000
2.580430 -0.238393 0.300981 46.000000
2.583648 -0.246686 0.301390 46.000000
2.582879 -0.254611 0.301390 46.000000
2.583075 -0.262635 0.301493 46.000000
2.583247 -0.270662 0.301595 46.000000
2.584382 -0.278799 0.301799 46.000000
2.583515 -0.286727 0.301799 46.000000
2.582623 -0.294651 0.301799 46.000000
2.584671 -0.302920 0.302106 46.000000
2.583729 -0.310848 0.302106 46.000000
2.582763 -0.318774 0.302106 46.000000
2.584734 -0.327070 0.302413 46.000000
2.583718 -0.334999 0.302413 46.000000
2.579720 -0.342531 0.302106 46.000000
2.581614 -0.350846 0.302413 46.000000
2.583482 -0.359175 0.302720 46.000000
2.582367 -0.367099 0.302720 46.000000
2.582214 -0.375163 0.302822 46.000000
2.585970 -0.383813 0.303334 46.000000
2.589699 -0.392489 0.303845 46.000000
2.589465 -0.400584 0.303947 46.000000
2.591172 -0.408992 0.304254 46.000000
2.591869 -0.417255 0.304458 46.000000
2.591558 -0.425366 0.304561 46.000000
2.591223 -0.433479 0.304663 46.000000
2.590861 -0.441593 0.304765 46.000000
2.590474 -0.449710 0.304868 46.000000
2.589082 -0.457655 0.304868 46.000000
2.586687 -0.465420 0.304765 46.000000
2.586226 -0.473533 0.304868 46.000000
2.586716 -0.481829 0.305072 46.000000
2.587181 -0.490133 0.305277 46.000000
2.590549 -0.499008 0.305788 46.000000
2.589982 -0.507144 0.305890 46.000000
2.590365 -0.515476 0.306095 46.000000
2.591697 -0.524012 0.306402 46.000000
2.593000 -0.532560 0.306708 46.000000
2.593302 -0.540919 0.306913 46.000000
2.592603 -0.549079 0.307015 46.000000
2.593824 -0.557657 0.307322 46.000000
2.595017 -0.566248 0.307629 46.000000
2.622406 -0.580654 0.310697 46.000000
2.559402 0.061722 0.281624 47.000000
2.559580 0.053870 0.281624 47.000000
2.559733 0.046017 0.281624 47.000000
2.564838 0.038240 0.282105 47.000000
2.563948 0.030359 0.282008 47.000000
2.567015 0.022520 0.282297 47.000000
2.570058 0.014663 0.282585 47.000000
2.570091 0.006778 0.282585 47.000000
2.569105 -0.001107 0.282489 47.000000
2.569089 -0.008989 0.282489 47.000000
2.571040 -0.016883 0.282681 47.000000
2.570976 -0.024771 0.282681 47.000000
2.573874 -0.032695 0.282969 47.000000
2.577743 -0.040652 0.283353 47.000000
2.576611 -0.048542 0.283257 47.000000
2.579435 -0.056511 0.283545 47.000000
2.583230 -0.064522 0.283929 47.000000
2.586005 -0.072529 0.284217 47.000000
2.586765 -0.080493 0.284313 47.000000
2.586506 -0.088429 0.284313 47.000000
2.585228 -0.096327 0.284217 47.000000
2.583925 -0.104218 0.284121 47.000000
2.582599 -0.112102 0.284025 47.000000
2.583237 -0.120071 0.284121 47.000000
2.581862 -0.127947 0.284025 47.000000
2.582452 -0.135919 0.284121 47.000000
2.580035 -0.143732 0.283929 47.000000
2.579582 -0.151646 0.283929 47.000000
2.581092 -0.159682 0.284121 47.000000
2.582576 -0.167728 0.284313 47.000000
2.581056 -0.175583 0.284217 47.000000
2.580505 -0.183501 0.284217 47.000000
2.579930 -0.191417 0.284217 47.000000
2.579331 -0.199331 0.284217 47.000000
2.574739 -0.206926 0.283833 47.000000
2.574091 -0.214824 0.283833 47.000000
2.573420 -0.222721 0.283833 47.000000
2.572725 -0.230615 0.283833 47.000000
2.573987 -0.238689 0.284025 47.000000
2.577207 -0.246963 0.284409 47.000000
2.576437 -0.254869 0.284409 47.000000
2.575643 -0.262772 0.284409 47.000000
2.577795 -0.270984 0.284697 47.000000
2.580909 -0.279318 0.285081 47.000000
2.579051 -0.287125 0.284985 47.000000
2.581125 -0.295374 0.285273 47.000000
2.583173 -0.303639 0.285561 47.000000
2.583217 -0.311681 0.285657 47.000000
2.582249 -0.319605 0.285657 47.000000
2.586194 -0.328150 0.286137 47.000000
2.585175 -0.336083 0.286137 47.000000
2.584131 -0.344012 0.286137 47.000000
2.583064 -0.351939 0.286137 47.000000
2.584930 -0.360272 0.286425 47.000000
2.582827 -0.368061 0.286329 47.000000
2.582670 -0.376127 0.286425 47.000000
2.586427 -0.384778 0.286905 47.000000
2.586219 -0.392861 0.287002 47.000000
2.585001 -0.400793 0.287002 47.000000
2.586709 -0.409187 0.287290 47.000000
2.588390 -0.417596 0.287578 47.000000
2.587097 -0.425535 0.287578 47.000000
2.586761 -0.433634 0.287674 47.000000
2.586400 -0.441735 0.287770 47.000000
2.586994 -0.450008 0.287962 47.000000
2.584621 -0.457770 0.287866 47.000000
2.584184 -0.465873 0.287962 47.000000
2.583721 -0.473978 0.288058 47.000000
2.583234 -0.482085 0.288154 47.000000
2.581743 -0.490008 0.288154 47.000000
2.585114 -0.498867 0.288634 47.000000
2.584548 -0.506987 0.288730 47.000000
2.587862 -0.515885 0.289210 47.000000
2.588218 -0.524216 0.289402 47.000000
2.591473 -0.533155 0.289882 47.000000
2.590800 -0.541306 0.289978 47.000000
2.591074 -0.549664 0.290170 47.000000
2.590349 -0.557820 0.290266 47.000000
2.613911 -0.571280 0.292763 47.000000
2.560697 0.064858 0.266966 48.000000
2.562875 0.057045 0.267146 48.000000
2.563038 0.049182 0.267146 48.000000
2.566164 0.041365 0.267417 48.000000
2.568271 0.033517 0.267598 48.000000
2.570354 0.025657 0.267778 48.000000
2.572412 0.017784 0.267959 48.000000
2.575442 0.009902 0.268230 48.000000
2.573468 0.002000 0.268049 48.000000
2.575454 -0.005901 0.268230 48.000000
2.575424 -0.013802 0.268230 48.000000
2.576365 -0.021712 0.268320 48.000000
2.575291 -0.029605 0.268230 48.000000
2.578175 -0.037550 0.268501 48.000000
2.578048 -0.045460 0.268501 48.000000
2.578892 -0.053390 0.268591 48.000000
2.579712 -0.061326 0.268681 48.000000
2.582498 -0.069321 0.268952 48.000000
2.582273 -0.077244 0.268952 48.000000
2.581029 -0.085133 0.268862 48.000000
2.579760 -0.093014 0.268772 48.000000
2.577472 -0.100850 0.268591 48.000000
2.577151 -0.108757 0.268591 48.000000
2.576805 -0.116663 0.268591 48.000000
2.575440 -0.124519 0.268501 48.000000
2.575046 -0.132420 0.268501 48.000000
2.575622 -0.140374 0.268591 48.000000
2.575180 -0.148276 0.268591 48.000000
2.578689 -0.156418 0.268952 48.000000
2.583166 -0.164648 0.269404 48.000000
2.582649 -0.172572 0.269404 48.000000
2.583101 -0.180565 0.269494 48.000000
2.582535 -0.188489 0.269494 48.000000
2.582937 -0.196487 0.269584 48.000000
2.578351 -0.204094 0.269223 48.000000
2.580690 -0.212250 0.269494 48.000000
2.578043 -0.219996 0.269313 48.000000
2.577355 -0.227904 0.269313 48.000000
2.575652 -0.235719 0.269223 48.000000
2.578883 -0.243997 0.269584 48.000000
2.577131 -0.251811 0.269494 48.000000
2.577337 -0.259816 0.269584 48.000000
2.576528 -0.267722 0.269584 48.000000
2.578665 -0.275945 0.269855 48.000000
2.576817 -0.283745 0.269765 48.000000
2.577913 -0.291874 0.269945 48.000000
2.580962 -0.300244 0.270306 48.000000
2.582995 -0.308517 0.270577 48.000000
2.583025 -0.316561 0.270668 48.000000
2.586982 -0.325108 0.271119 48.000000
2.587948 -0.333298 0.271300 48.000000
2.585926 -0.341106 0.271209 48.000000
2.586841 -0.349305 0.271390 48.000000
2.586744 -0.357376 0.271480 48.000000
2.585635 -0.365311 0.271480 48.000000
2.581545 -0.372813 0.271209 48.000000
2.584330 -0.381315 0.271570 48.000000
2.585118 -0.389539 0.271751 48.000000
2.581942 -0.397165 0.271570 48.000000
2.580711 -0.405084 0.271570 48.000000
2.583390 -0.413631 0.271931 48.000000
2.581125 -0.421394 0.271841 48.000000
2.581785 -0.429639 0.272022 48.000000
2.584382 -0.438225 0.272383 48.000000
2.585970 -0.446662 0.272654 48.000000
2.583606 -0.454420 0.272564 48.000000
2.585141 -0.462873 0.272834 48.000000
2.583709 -0.470801 0.272834 48.000000
2.582252 -0.478726 0.272834 48.000000
2.581750 -0.486831 0.272925 48.000000
2.582200 -0.495125 0.273105 48.000000
2.582624 -0.503427 0.273286 48.000000
2.583021 -0.511736 0.273466 48.000000
2.583391 -0.520052 0.273647 48.000000
2.584710 -0.528575 0.273918 48.000000
2.586002 -0.537111 0.274189 48.000000
2.586290 -0.545454 0.274369 48.000000
2.584605 -0.553387 0.274369 48.000000
2.604303 -0.565976 0.276355 48.000000
2.569903 0.071198 0.252084 49.000000
2.570110 0.063313 0.252084 49.000000
2.572284 0.055471 0.252252 49.000000
2.570450 0.047542 0.252084 49.000000
2.574569 0.039717 0.252421 49.000000
2.575675 0.031830 0.252505 49.000000
2.576757 0.023937 0.252589 49.000000
2.576818 0.016032 0.252589 49.000000
2.580841 0.008138 0.252926 49.000000
