# This PCD file was generated using the MATLAB® pcwrite function
# from Computer Vision Toolbox®.
# .PCD v.7 - Point Cloud Data file format
VERSION .7
FIELDS x y z intensity
SIZE 4 4 4 4
TYPE F F F F
COUNT 1 1 1 1
WIDTH 1244
HEIGHT 1
VIEWPOINT 0 0 0 1 0 0 0
POINTS 1244
DATA ascii
4.364127 1.427996 0.000239 64.000000
4.368487 1.414600 0.000239 64.000000
4.370902 1.400581 0.000255 64.000000
4.373272 1.386561 0.000270 64.000000
4.378459 1.373437 0.000263 64.000000
4.909878 1.523456 -0.004073 64.000000
4.938429 1.515715 -0.004269 64.000000
4.942099 1.500267 -0.004261 64.000000
4.924649 1.478490 -0.004081 64.000000
4.917657 1.459961 -0.003986 64.000000
3.254178 0.251178 0.010669 64.000000
3.257925 0.241414 0.010645 64.000000
3.258650 0.231417 0.010645 64.000000
3.259345 0.221419 0.010645 64.000000
3.260009 0.211418 0.010645 64.000000
3.261640 0.201477 0.010638 64.000000
3.258250 0.191237 0.010669 64.000000
3.256824 0.181129 0.010685 64.000000
3.254369 0.170980 0.010708 64.000000
3.251882 0.160848 0.010732 64.000000
3.250362 0.150779 0.010748 64.000000
3.248811 0.140720 0.010763 64.000000
3.250227 0.130792 0.010755 64.000000
3.254610 0.120967 0.010724 64.000000
3.254966 0.110982 0.010724 64.000000
3.256291 0.101026 0.010716 64.000000
3.256585 0.091035 0.010716 64.000000
3.253850 0.080970 0.010740 64.000000
3.244086 0.070772 0.010818 64.000000
3.245287 0.060838 0.010810 64.000000
3.246459 0.050896 0.010803 64.000000
3.246600 0.040936 0.010803 64.000000
3.245710 0.030966 0.010810 64.000000
3.248790 0.021027 0.010787 64.000000
3.246839 0.011053 0.010803 64.000000
3.245857 0.001092 0.010810 64.000000
3.243846 -0.008860 0.010826 64.000000
3.236804 -0.018769 0.010881 64.000000
3.232731 -0.028662 0.010912 64.000000
3.228628 -0.038530 0.010944 64.000000
3.225495 -0.048390 0.010967 64.000000
3.223332 -0.058248 0.010983 64.000000
3.224138 -0.068158 0.010975 64.000000
3.221914 -0.078000 0.010991 64.000000
3.223659 -0.087940 0.010975 64.000000
3.225373 -0.097891 0.010960 64.000000
3.226057 -0.107820 0.010952 64.000000
3.228709 -0.117827 0.010928 64.000000
3.226334 -0.127652 0.010944 64.000000
3.224928 -0.137507 0.010952 64.000000
3.222493 -0.147308 0.010967 64.000000
3.221027 -0.157145 0.010975 64.000000
3.218533 -0.166922 0.010991 64.000000
3.215010 -0.176630 0.011015 64.000000
3.212457 -0.186376 0.011030 64.000000
3.213866 -0.196353 0.011015 64.000000
3.212250 -0.206148 0.011022 64.000000
3.212601 -0.216069 0.011015 64.000000
3.213917 -0.226066 0.010999 64.000000
3.218195 -0.236293 0.010960 64.000000
3.218452 -0.246241 0.010952 64.000000
3.221669 -0.256433 0.010920 64.000000
3.221863 -0.266399 0.010912 64.000000
3.219038 -0.276110 0.010928 64.000000
3.215188 -0.285718 0.010952 64.000000
3.215292 -0.295673 0.010944 64.000000
3.214370 -0.305536 0.010944 64.000000
3.210432 -0.315102 0.010967 64.000000
3.211440 -0.325152 0.010952 64.000000
3.211422 -0.335107 0.010944 64.000000
3.208390 -0.344744 0.010960 64.000000
3.207317 -0.354585 0.010960 64.000000
3.209195 -0.364763 0.010936 64.000000
3.448410 -0.402761 0.009035 64.000000
3.901868 -0.468016 0.005438 64.000000
3.910339 -0.481209 0.005360 64.000000
3.922733 -0.494960 0.005250 64.000000
3.936071 -0.508920 0.005132 64.000000
0.710341 -0.767709 0.028089 64.000000
0.714743 -0.777252 0.028010 64.000000
0.725831 -0.794219 0.027853 64.000000
4.382599 1.993055 -0.032502 65.000000
4.375021 1.973434 -0.032288 65.000000
4.364625 1.952654 -0.032030 65.000000
4.338605 1.925063 -0.031529 65.000000
4.340830 1.910133 -0.031472 65.000000
4.328340 1.888810 -0.031186 65.000000
4.323102 1.870757 -0.031014 65.000000
4.313200 1.850784 -0.030771 65.000000
4.301376 1.830106 -0.030499 65.000000
4.304206 1.815735 -0.030456 65.000000
4.292229 1.795192 -0.030184 65.000000
4.303258 1.784313 -0.030270 65.000000
4.312412 1.772623 -0.030327 65.000000
4.296532 1.750708 -0.029998 65.000000
4.305591 1.739016 -0.030055 65.000000
4.291412 1.717996 -0.029755 65.000000
4.290156 1.702241 -0.029654 65.000000
4.299081 1.690534 -0.029712 65.000000
4.289340 1.671529 -0.029483 65.000000
4.312171 1.665204 -0.029755 65.000000
4.307920 1.648394 -0.029611 65.000000
4.320437 1.638005 -0.029726 65.000000
4.301105 1.615603 -0.029354 65.000000
4.328532 1.610767 -0.029697 65.000000
4.342836 1.600937 -0.029840 65.000000
4.345849 1.586920 -0.029812 65.000000
4.337533 1.568820 -0.029611 65.000000
4.347032 1.557191 -0.029683 65.000000
4.356501 1.545518 -0.029755 65.000000
4.348014 1.527507 -0.029554 65.000000
4.351736 1.513831 -0.029540 65.000000
4.353523 1.499497 -0.029497 65.000000
4.355264 1.485165 -0.029454 65.000000
4.357905 1.471157 -0.029425 65.000000
4.361449 1.457464 -0.029411 65.000000
4.364951 1.443762 -0.029397 65.000000
4.370310 1.430675 -0.029411 65.000000
4.377532 1.418184 -0.029454 65.000000
4.382815 1.405053 -0.029468 65.000000
4.399496 1.395529 -0.029654 65.000000
4.759615 1.493671 -0.034992 65.000000
4.806194 1.492103 -0.035622 65.000000
4.832734 1.484101 -0.035951 65.000000
4.845875 1.471882 -0.036080 65.000000
4.901123 1.472250 -0.036839 65.000000
4.937248 1.466600 -0.037311 65.000000
3.168662 0.264368 -0.009103 65.000000
3.260158 0.261921 -0.010406 65.000000
3.258952 0.251764 -0.010377 65.000000
3.254723 0.241395 -0.010306 65.000000
3.258440 0.231621 -0.010349 65.000000
3.259136 0.221623 -0.010349 65.000000
3.256807 0.211430 -0.010306 65.000000
3.257440 0.201437 -0.010306 65.000000
3.259041 0.191501 -0.010320 65.000000
3.257617 0.181390 -0.010291 65.000000
3.254164 0.171186 -0.010234 65.000000
3.252676 0.161102 -0.010205 65.000000
3.250159 0.150984 -0.010162 65.000000
3.254602 0.141185 -0.010220 65.000000
3.249026 0.130958 -0.010134 65.000000
3.253409 0.121138 -0.010191 65.000000
3.252766 0.111122 -0.010177 65.000000
3.255090 0.101204 -0.010205 65.000000
3.249389 0.091050 -0.010120 65.000000
3.253651 0.081180 -0.010177 65.000000
3.243888 0.070980 -0.010034 65.000000
3.241091 0.060971 -0.009991 65.000000
3.241263 0.051027 -0.009991 65.000000
3.242404 0.041095 -0.010005 65.000000
3.245515 0.031176 -0.010048 65.000000
3.248595 0.021238 -0.010091 65.000000
3.250644 0.011278 -0.010120 65.000000
3.251664 0.001306 -0.010134 65.000000
3.248653 -0.008662 -0.010091 65.000000
3.243611 -0.018599 -0.010019 65.000000
3.239540 -0.028515 -0.009962 65.000000
3.233438 -0.038382 -0.009876 65.000000
3.229306 -0.048241 -0.009819 65.000000
3.222145 -0.058022 -0.009719 65.000000
3.221951 -0.067907 -0.009719 65.000000
3.220728 -0.077767 -0.009705 65.000000
3.223473 -0.087730 -0.009747 65.000000
3.224188 -0.097649 -0.009762 65.000000
3.221875 -0.107473 -0.009733 65.000000
3.225527 -0.117503 -0.009790 65.000000
3.226150 -0.127438 -0.009805 65.000000
3.222747 -0.137207 -0.009762 65.000000
3.224309 -0.147185 -0.009790 65.000000
3.221845 -0.156979 -0.009762 65.000000
3.217354 -0.166656 -0.009705 65.000000
3.215829 -0.176471 -0.009690 65.000000
3.215272 -0.186336 -0.009690 65.000000
3.214685 -0.196199 -0.009690 65.000000
3.217062 -0.206253 -0.009733 65.000000
3.216414 -0.216122 -0.009733 65.000000
3.218728 -0.226199 -0.009776 65.000000
3.221011 -0.236293 -0.009819 65.000000
3.221267 -0.246250 -0.009833 65.000000
3.223487 -0.256370 -0.009876 65.000000
3.225675 -0.266506 -0.009919 65.000000
3.224842 -0.276401 -0.009919 65.000000
3.220991 -0.286027 -0.009876 65.000000
3.223085 -0.296183 -0.009919 65.000000
3.218180 -0.305691 -0.009862 65.000000
3.217227 -0.315563 -0.009862 65.000000
3.216244 -0.325431 -0.009862 65.000000
3.216225 -0.335401 -0.009876 65.000000
3.211204 -0.344839 -0.009819 65.000000
3.212118 -0.354909 -0.009848 65.000000
3.370967 -0.382952 -0.012152 65.000000
3.898129 -0.455017 -0.019765 65.000000
3.902671 -0.467689 -0.019851 65.000000
3.915111 -0.481369 -0.020052 65.000000
3.910640 -0.493003 -0.020009 65.000000
3.921009 -0.506537 -0.020180 65.000000
0.725240 -0.770166 0.021265 65.000000
0.754974 -0.806711 0.020592 65.000000
0.746369 -0.802432 0.020721 65.000000
0.733048 -0.792967 0.020950 65.000000
0.723849 -0.787846 0.021093 65.000000
0.718733 -0.787109 0.021150 65.000000
4.380144 1.989937 -0.062590 66.000000
4.386228 1.976490 -0.062590 66.000000
4.360325 1.948743 -0.061869 66.000000
4.346176 1.926442 -0.061416 66.000000
4.322778 1.900222 -0.060757 66.000000
4.324006 1.884953 -0.060654 66.000000
4.309579 1.862949 -0.060201 66.000000
4.310680 1.847749 -0.060098 66.000000
4.302527 1.828648 -0.059789 66.000000
4.281399 1.804178 -0.059192 66.000000
4.256473 1.778313 -0.058513 66.000000
4.261908 1.765246 -0.058513 66.000000
4.258980 1.748744 -0.058327 66.000000
4.246732 1.728507 -0.057936 66.000000
4.240889 1.710980 -0.057689 66.000000
4.246118 1.697961 -0.057689 66.000000
4.237366 1.679399 -0.057380 66.000000
4.235985 1.663832 -0.057236 66.000000
4.215914 1.641034 -0.056680 66.000000
4.233055 1.632771 -0.056947 66.000000
4.204425 1.606924 -0.056206 66.000000
4.207466 1.593309 -0.056165 66.000000
4.216078 1.581798 -0.056247 66.000000
4.213414 1.566069 -0.056083 66.000000
4.243530 1.562464 -0.056639 66.000000
4.257696 1.552864 -0.056845 66.000000
4.272783 1.543532 -0.057071 66.000000
4.289736 1.534796 -0.057339 66.000000
4.303848 1.524968 -0.057545 66.000000
4.310393 1.512419 -0.057586 66.000000
4.324456 1.502469 -0.057792 66.000000
4.331882 1.490171 -0.057854 66.000000
4.334540 1.476229 -0.057812 66.000000
4.340943 1.463563 -0.057854 66.000000
4.351103 1.452138 -0.057977 66.000000
4.363132 1.441291 -0.058142 66.000000
4.410295 1.441883 -0.059069 66.000000
4.383308 1.418187 -0.058389 66.000000
4.397160 1.407781 -0.058595 66.000000
4.456738 1.411801 -0.059789 66.000000
4.459140 1.397523 -0.059748 66.000000
4.470091 1.385909 -0.059892 66.000000
4.495350 1.378639 -0.060345 66.000000
4.813362 1.460055 -0.067100 66.000000
4.859953 1.457924 -0.068006 66.000000
4.951625 1.468889 -0.069880 66.000000
3.262095 0.270660 -0.030917 66.000000
3.259920 0.260412 -0.030856 66.000000
3.260704 0.250409 -0.030856 66.000000
3.255474 0.239962 -0.030732 66.000000
3.255198 0.229903 -0.030711 66.000000
3.253893 0.219780 -0.030670 66.000000
3.251559 0.209603 -0.030608 66.000000
3.250191 0.199504 -0.030567 66.000000
3.249789 0.189473 -0.030547 66.000000
3.249357 0.179447 -0.030526 66.000000
3.248894 0.169425 -0.030506 66.000000
3.250397 0.159506 -0.030526 66.000000
3.247875 0.149395 -0.030464 66.000000
3.246320 0.139344 -0.030423 66.000000
3.243736 0.129264 -0.030361 66.000000
3.246115 0.119385 -0.030403 66.000000
3.243468 0.109324 -0.030341 66.000000
3.243788 0.099373 -0.030341 66.000000
3.240080 0.089310 -0.030258 66.000000
3.241339 0.079394 -0.030279 66.000000
3.235570 0.069320 -0.030155 66.000000
3.234767 0.059374 -0.030135 66.000000
3.232935 0.049419 -0.030094 66.000000
3.235071 0.039525 -0.030135 66.000000
3.234177 0.029591 -0.030114 66.000000
3.239252 0.019699 -0.030217 66.000000
3.242296 0.009771 -0.030279 66.000000
3.245310 -0.000177 -0.030341 66.000000
3.245294 -0.010133 -0.030341 66.000000
3.239249 -0.020053 -0.030217 66.000000
3.235174 -0.029954 -0.030135 66.000000
3.231068 -0.039831 -0.030052 66.000000
3.226932 -0.049682 -0.029970 66.000000
3.218767 -0.059435 -0.029805 66.000000
3.218570 -0.069310 -0.029805 66.000000
3.213344 -0.079062 -0.029702 66.000000
3.212087 -0.088892 -0.029682 66.000000
3.209801 -0.098685 -0.029641 66.000000
3.217477 -0.108802 -0.029805 66.000000
3.216129 -0.118635 -0.029785 66.000000
3.217747 -0.128581 -0.029826 66.000000
3.216339 -0.138410 -0.029805 66.000000
3.215899 -0.148277 -0.029805 66.000000
3.211435 -0.157946 -0.029723 66.000000
3.206941 -0.167590 -0.029641 66.000000
3.206412 -0.177428 -0.029641 66.000000
3.203856 -0.187148 -0.029599 66.000000
3.203267 -0.196976 -0.029599 66.000000
3.202648 -0.206803 -0.029599 66.000000
3.204991 -0.216830 -0.029661 66.000000
3.204311 -0.226661 -0.029661 66.000000
3.206591 -0.236711 -0.029723 66.000000
3.206847 -0.246624 -0.029744 66.000000
3.210062 -0.256780 -0.029826 66.000000
3.210255 -0.266710 -0.029847 66.000000
3.209422 -0.276558 -0.029847 66.000000
3.210550 -0.286580 -0.029888 66.000000
3.213638 -0.296796 -0.029970 66.000000
3.208731 -0.306274 -0.029888 66.000000
3.206781 -0.316019 -0.029867 66.000000
3.207786 -0.326058 -0.029908 66.000000
3.206771 -0.335898 -0.029908 66.000000
3.205725 -0.345735 -0.029908 66.000000
3.387491 -0.375833 -0.033698 66.000000
3.906843 -0.445531 -0.044488 66.000000
3.908437 -0.457863 -0.044550 66.000000
3.907013 -0.469852 -0.044550 66.000000
3.911507 -0.482570 -0.044674 66.000000
3.918935 -0.495697 -0.044859 66.000000
0.748783 -0.791781 0.014059 66.000000
0.747720 -0.795531 0.014017 66.000000
0.729573 -0.781023 0.014491 66.000000
0.730576 -0.786920 0.014388 66.000000
0.717306 -0.777405 0.014718 66.000000
0.712214 -0.776655 0.014800 66.000000
0.705112 -0.773666 0.014944 66.000000
0.704749 -0.778048 0.014882 66.000000
4.285948 1.961040 -0.089290 67.000000
4.246435 1.927215 -0.087955 67.000000
4.235922 1.906788 -0.087475 67.000000
4.279172 1.910501 -0.088569 67.000000
4.269476 1.890480 -0.088115 67.000000
4.265189 1.872948 -0.087822 67.000000
4.251671 1.851468 -0.087261 67.000000
4.270178 1.843967 -0.087635 67.000000
4.258357 1.823377 -0.087127 67.000000
4.253810 1.806004 -0.086834 67.000000
4.290653 1.806139 -0.087742 67.000000
4.253742 1.775246 -0.086513 67.000000
4.239773 1.754157 -0.085953 67.000000
4.231263 1.735448 -0.085552 67.000000
4.242123 1.724719 -0.085712 67.000000
4.215873 1.698984 -0.084805 67.000000
4.178367 1.668974 -0.083576 67.000000
4.206702 1.665352 -0.084244 67.000000
4.203417 1.649150 -0.084004 67.000000
4.197278 1.631896 -0.083683 67.000000
4.191072 1.614696 -0.083363 67.000000
4.188535 1.598976 -0.083149 67.000000
4.190617 1.585057 -0.083069 67.000000
4.196396 1.572544 -0.083096 67.000000
4.228375 1.569758 -0.083870 67.000000
4.235986 1.557814 -0.083950 67.000000
4.244502 1.546181 -0.084057 67.000000
4.254867 1.535189 -0.084217 67.000000
4.281206 1.529870 -0.084831 67.000000
4.297186 1.520733 -0.085152 67.000000
4.300889 1.507212 -0.085125 67.000000
4.312102 1.496305 -0.085312 67.000000
4.325181 1.485994 -0.085552 67.000000
4.328773 1.472396 -0.085525 67.000000
4.338953 1.461024 -0.085686 67.000000
4.348157 1.449287 -0.085819 67.000000
4.382009 1.445656 -0.086647 67.000000
4.369320 1.426616 -0.086166 67.000000
4.386041 1.417203 -0.086513 67.000000
4.398937 1.406483 -0.086754 67.000000
4.416574 1.397205 -0.087127 67.000000
4.434195 1.387832 -0.087501 67.000000
4.463258 1.381915 -0.088195 67.000000
4.509529 1.381106 -0.089370 67.000000
4.530965 1.372485 -0.089851 67.000000
4.524621 1.355420 -0.089557 67.000000
4.567095 1.352898 -0.090625 67.000000
4.555875 1.334381 -0.090198 67.000000
4.551307 1.317893 -0.089958 67.000000
4.568782 1.307778 -0.090332 67.000000
3.259874 0.279057 -0.050788 67.000000
3.263703 0.269303 -0.050868 67.000000
3.261525 0.259050 -0.050788 67.000000
3.264298 0.249195 -0.050842 67.000000
3.261059 0.238886 -0.050735 67.000000
3.258785 0.228669 -0.050655 67.000000
3.253487 0.218267 -0.050495 67.000000
3.250151 0.208027 -0.050388 67.000000
3.246783 0.197810 -0.050281 67.000000
3.246377 0.187790 -0.050254 67.000000
3.244941 0.177720 -0.050201 67.000000
3.243474 0.167659 -0.050147 67.000000
3.243973 0.157708 -0.050147 67.000000
3.242445 0.147663 -0.050094 67.000000
3.240885 0.137629 -0.050041 67.000000
3.239295 0.127606 -0.049987 67.000000
3.239671 0.117668 -0.049987 67.000000
3.238019 0.107661 -0.049934 67.000000
3.236335 0.097665 -0.049880 67.000000
3.237619 0.087763 -0.049907 67.000000
3.236873 0.077805 -0.049880 67.000000
3.233099 0.067789 -0.049774 67.000000
3.231293 0.057833 -0.049720 67.000000
3.230456 0.047905 -0.049694 67.000000
3.229588 0.037981 -0.049667 67.000000
3.230689 0.028082 -0.049694 67.000000
3.229760 0.018164 -0.049667 67.000000
3.231800 0.008261 -0.049720 67.000000
3.226812 -0.001653 -0.049587 67.000000
3.226792 -0.011553 -0.049587 67.000000
3.229740 -0.021471 -0.049667 67.000000
3.229659 -0.031380 -0.049667 67.000000
3.226549 -0.041251 -0.049587 67.000000
3.224408 -0.051119 -0.049533 67.000000
3.220238 -0.060937 -0.049427 67.000000
3.218037 -0.070773 -0.049373 67.000000
3.214807 -0.080571 -0.049293 67.000000
3.210547 -0.090323 -0.049186 67.000000
3.209256 -0.100141 -0.049160 67.000000
3.210932 -0.110054 -0.049213 67.000000
3.209580 -0.119868 -0.049186 67.000000
3.209197 -0.129714 -0.049186 67.000000
3.210782 -0.139645 -0.049240 67.000000
3.208341 -0.149403 -0.049186 67.000000
3.203874 -0.159048 -0.049079 67.000000
3.195385 -0.168459 -0.048866 67.000000
3.197847 -0.178427 -0.048946 67.000000
3.196287 -0.188179 -0.048919 67.000000
3.196692 -0.198046 -0.048946 67.000000
3.195072 -0.207788 -0.048919 67.000000
3.195417 -0.217656 -0.048946 67.000000
3.197725 -0.227671 -0.049026 67.000000
3.198009 -0.237554 -0.049053 67.000000
3.198261 -0.247441 -0.049079 67.000000
3.200477 -0.257491 -0.049160 67.000000
3.202660 -0.267558 -0.049240 67.000000
3.202820 -0.277468 -0.049266 67.000000
3.201954 -0.287293 -0.049266 67.000000
3.202053 -0.297207 -0.049293 67.000000
3.203116 -0.307219 -0.049346 67.000000
3.200169 -0.316849 -0.049293 67.000000
3.199182 -0.326665 -0.049293 67.000000
3.198164 -0.336478 -0.049293 67.000000
3.383965 -0.366459 -0.054313 67.000000
3.897476 -0.433992 -0.068144 67.000000
3.906058 -0.447081 -0.068411 67.000000
3.907647 -0.459412 -0.068491 67.000000
3.914159 -0.472354 -0.068704 67.000000
3.918644 -0.485095 -0.068864 67.000000
3.971682 -0.504021 -0.070333 67.000000
0.776964 -0.812999 0.006564 67.000000
0.767574 -0.808138 0.006831 67.000000
0.771274 -0.817025 0.006591 67.000000
0.746168 -0.795353 0.007472 67.000000
0.736899 -0.790335 0.007739 67.000000
0.728349 -0.785999 0.007979 67.000000
0.725256 -0.787495 0.008006 67.000000
0.721485 -0.788244 0.008059 67.000000
0.700880 -0.770508 0.008780 67.000000
4.439671 1.985448 -0.121245 68.000000
4.462188 1.979108 -0.121829 68.000000
4.476474 1.969028 -0.122121 68.000000
4.486158 1.956883 -0.122251 68.000000
4.497645 1.945490 -0.122446 68.000000
4.497162 1.928926 -0.122219 68.000000
4.485582 1.907692 -0.121602 68.000000
4.247339 1.791069 -0.113001 68.000000
4.261114 1.781498 -0.113293 68.000000
4.252708 1.762680 -0.112806 68.000000
4.240530 1.742411 -0.112189 68.000000
4.226415 1.721481 -0.111508 68.000000
4.245580 1.714116 -0.111994 68.000000
4.248962 1.700340 -0.111930 68.000000
4.239293 1.681404 -0.111410 68.000000
4.224895 1.660717 -0.110729 68.000000
4.250461 1.655723 -0.111443 68.000000
4.254588 1.642316 -0.111410 68.000000
4.231598 1.618550 -0.110436 68.000000
4.234675 1.604853 -0.110372 68.000000
4.266716 1.602035 -0.111313 68.000000
4.265053 1.586500 -0.111086 68.000000
4.268024 1.572716 -0.111021 68.000000
4.284097 1.563724 -0.111410 68.000000
4.300155 1.554649 -0.111800 68.000000
4.297375 1.538755 -0.111540 68.000000
4.303960 1.526231 -0.111605 68.000000
4.303907 1.511365 -0.111443 68.000000
4.347232 1.511603 -0.112773 68.000000
4.334837 1.492406 -0.112189 68.000000
4.333719 1.477167 -0.111994 68.000000
4.343913 1.465780 -0.112189 68.000000
4.350285 1.453079 -0.112254 68.000000
4.354723 1.439726 -0.112254 68.000000
4.359119 1.426359 -0.112254 68.000000
4.370131 1.415132 -0.112481 68.000000
4.382067 1.404156 -0.112741 68.000000
4.409222 1.397949 -0.113520 68.000000
4.428750 1.389198 -0.114039 68.000000
4.517954 1.401946 -0.116928 68.000000
4.534657 1.391888 -0.117350 68.000000
4.556121 1.383191 -0.117934 68.000000
4.548855 1.365761 -0.117545 68.000000
4.567397 1.356062 -0.118032 68.000000
4.583045 1.345419 -0.118421 68.000000
4.598670 1.334692 -0.118810 68.000000
4.600822 1.320026 -0.118746 68.000000
4.572155 1.296641 -0.117642 68.000000
3.249246 0.290950 -0.069248 68.000000
3.259085 0.281751 -0.069540 68.000000
3.264914 0.272165 -0.069702 68.000000
3.264738 0.262067 -0.069670 68.000000
3.265526 0.252050 -0.069670 68.000000
3.265287 0.241957 -0.069637 68.000000
3.263023 0.231726 -0.069540 68.000000
3.259730 0.221445 -0.069410 68.000000
3.255407 0.211122 -0.069248 68.000000
3.250054 0.200766 -0.069053 68.000000
3.248659 0.190677 -0.068988 68.000000
3.245237 0.180489 -0.068859 68.000000
3.242781 0.170376 -0.068761 68.000000
3.243289 0.160426 -0.068761 68.000000
3.241769 0.150383 -0.068696 68.000000
3.238221 0.140265 -0.068566 68.000000
3.235640 0.130210 -0.068469 68.000000
3.238022 0.120357 -0.068534 68.000000
3.236378 0.110354 -0.068469 68.000000
3.231706 0.100272 -0.068307 68.000000
3.233997 0.090412 -0.068372 68.000000
3.232260 0.080440 -0.068307 68.000000
3.231493 0.070502 -0.068274 68.000000
3.231694 0.060588 -0.068274 68.000000
3.231864 0.050673 -0.068274 68.000000
3.232005 0.040757 -0.068274 68.000000
3.230116 0.030823 -0.068209 68.000000
3.230195 0.020913 -0.068209 68.000000
3.229245 0.011000 -0.068177 68.000000
3.227264 0.001093 -0.068112 68.000000
3.224254 -0.008799 -0.068015 68.000000
3.224212 -0.018691 -0.068015 68.000000
3.224139 -0.028583 -0.068015 68.000000
3.223037 -0.038462 -0.067982 68.000000
3.220905 -0.048319 -0.067917 68.000000
3.222740 -0.058237 -0.067982 68.000000
3.222547 -0.068124 -0.067982 68.000000
3.218326 -0.077912 -0.067852 68.000000
3.213076 -0.087647 -0.067690 68.000000
3.210794 -0.097443 -0.067625 68.000000
3.206484 -0.107158 -0.067495 68.000000
3.205142 -0.116958 -0.067463 68.000000
3.200773 -0.126632 -0.067333 68.000000
3.200370 -0.136451 -0.067333 68.000000
3.200934 -0.146315 -0.067365 68.000000
3.195479 -0.155889 -0.067203 68.000000
3.196982 -0.165796 -0.067268 68.000000
3.194462 -0.175493 -0.067203 68.000000
3.193909 -0.185293 -0.067203 68.000000
3.195321 -0.195214 -0.067268 68.000000
3.195704 -0.205080 -0.067301 68.000000
3.198051 -0.215086 -0.067398 68.000000
3.200367 -0.225108 -0.067495 68.000000
3.201655 -0.235072 -0.067560 68.000000
3.201916 -0.244970 -0.067593 68.000000
3.204138 -0.255031 -0.067690 68.000000
3.204336 -0.264943 -0.067723 68.000000
3.202513 -0.274687 -0.067690 68.000000
3.200659 -0.284422 -0.067658 68.000000
3.200767 -0.294332 -0.067690 68.000000
3.198854 -0.304055 -0.067658 68.000000
3.195917 -0.313672 -0.067593 68.000000
3.191956 -0.323172 -0.067495 68.000000
3.192938 -0.333172 -0.067560 68.000000
3.887501 -0.417962 -0.090280 68.000000
3.900107 -0.431430 -0.090735 68.000000
3.909689 -0.444639 -0.091092 68.000000
3.901357 -0.455817 -0.090865 68.000000
3.901925 -0.468023 -0.090930 68.000000
3.913367 -0.481582 -0.091352 68.000000
0.743649 -0.769901 0.001931 68.000000
0.783457 -0.816206 -0.000049 68.000000
0.780949 -0.818606 -0.000049 68.000000
0.783930 -0.826806 -0.000308 68.000000
0.771119 -0.818286 0.000178 68.000000
0.757003 -0.808234 0.000730 68.000000
0.751799 -0.807624 0.000860 68.000000
0.747283 -0.807723 0.000957 68.000000
0.734666 -0.798965 0.001444 68.000000
0.738946 -0.808601 0.001120 68.000000
0.725723 -0.799015 0.001639 68.000000
4.306474 1.988603 -0.147090 69.000000
4.298927 1.969141 -0.146509 69.000000
4.309497 1.958009 -0.146703 69.000000
4.361948 1.965713 -0.148679 69.000000
4.299535 1.921745 -0.145773 69.000000
4.299929 1.906116 -0.145541 69.000000
4.303012 1.891709 -0.145425 69.000000
4.303300 1.876103 -0.145192 69.000000
4.309035 1.862892 -0.145192 69.000000
4.304627 1.845333 -0.144766 69.000000
4.287277 1.822348 -0.143798 69.000000
4.281798 1.804530 -0.143333 69.000000
4.297456 1.795622 -0.143759 69.000000
4.279865 1.772871 -0.142791 69.000000
4.275115 1.755557 -0.142365 69.000000
4.242534 1.726990 -0.140776 69.000000
4.239472 1.710602 -0.140428 69.000000
4.209443 1.683490 -0.138956 69.000000
4.224806 1.674617 -0.139382 69.000000
4.229924 1.661648 -0.139382 69.000000
4.225690 1.645038 -0.138994 69.000000
4.236311 1.634224 -0.139227 69.000000
4.239438 1.620506 -0.139149 69.000000
4.256538 1.612092 -0.139653 69.000000
4.263335 1.599727 -0.139730 69.000000
4.271033 1.587684 -0.139847 69.000000
4.279634 1.575954 -0.140002 69.000000
4.286327 1.563502 -0.140079 69.000000
4.296742 1.552381 -0.140312 69.000000
4.301485 1.539191 -0.140312 69.000000
4.303361 1.524986 -0.140195 69.000000
4.308962 1.512107 -0.140234 69.000000
4.315469 1.499536 -0.140312 69.000000
4.320994 1.486615 -0.140350 69.000000
4.330264 1.474962 -0.140544 69.000000
4.337610 1.462627 -0.140660 69.000000
4.346816 1.450894 -0.140854 69.000000
4.352196 1.437865 -0.140893 69.000000
4.357536 1.424816 -0.140931 69.000000
4.366641 1.412979 -0.141125 69.000000
4.368100 1.398661 -0.141009 69.000000
4.376181 1.386461 -0.141164 69.000000
4.387089 1.375120 -0.141435 69.000000
4.397968 1.363725 -0.141706 69.000000
4.455631 1.366630 -0.143875 69.000000
4.514308 1.369484 -0.146083 69.000000
4.533803 1.360221 -0.146703 69.000000
4.549450 1.349715 -0.147168 69.000000
4.590966 1.346717 -0.148679 69.000000
4.600834 1.334296 -0.148911 69.000000
4.670225 1.338895 -0.151545 69.000000
3.262309 0.271028 -0.090109 69.000000
3.268106 0.261416 -0.090303 69.000000
3.269889 0.251465 -0.090341 69.000000
3.266659 0.241138 -0.090186 69.000000
3.263396 0.230834 -0.090031 69.000000
3.257110 0.220349 -0.089760 69.000000
3.249793 0.209841 -0.089450 69.000000
3.248427 0.199748 -0.089373 69.000000
3.245034 0.189548 -0.089218 69.000000
3.241610 0.179371 -0.089063 69.000000
3.239151 0.169269 -0.088947 69.000000
3.239655 0.159331 -0.088947 69.000000
3.239130 0.149345 -0.088908 69.000000
3.237577 0.139321 -0.088831 69.000000
3.235992 0.129308 -0.088753 69.000000
3.232379 0.119233 -0.088598 69.000000
3.228735 0.109181 -0.088443 69.000000
3.228056 0.099244 -0.088404 69.000000
3.227346 0.089313 -0.088366 69.000000
3.227605 0.079411 -0.088366 69.000000
3.227834 0.069508 -0.088366 69.000000
3.231029 0.059660 -0.088482 69.000000
3.231197 0.049747 -0.088482 69.000000
3.230335 0.039822 -0.088443 69.000000
3.228444 0.029893 -0.088366 69.000000
3.229519 0.019994 -0.088404 69.000000
3.225569 0.010074 -0.088250 69.000000
3.224585 0.000178 -0.088211 69.000000
3.222572 -0.009709 -0.088133 69.000000
3.220529 -0.019583 -0.088056 69.000000
3.219454 -0.029454 -0.088017 69.000000
3.219349 -0.039331 -0.088017 69.000000
3.219213 -0.049208 -0.088017 69.000000
3.218048 -0.059065 -0.087978 69.000000
3.217851 -0.068938 -0.087978 69.000000
3.213629 -0.078712 -0.087823 69.000000
3.212373 -0.088543 -0.087785 69.000000
3.210089 -0.098336 -0.087707 69.000000
3.205777 -0.108049 -0.087552 69.000000
3.204432 -0.117847 -0.087514 69.000000
3.204056 -0.127678 -0.087514 69.000000
3.201652 -0.137421 -0.087436 69.000000
3.201216 -0.147243 -0.087436 69.000000
3.202745 -0.157161 -0.087514 69.000000
3.198256 -0.166778 -0.087359 69.000000
3.197729 -0.176589 -0.087359 69.000000
3.196175 -0.186341 -0.087320 69.000000
3.195588 -0.196146 -0.087320 69.000000
3.194972 -0.205949 -0.087320 69.000000
3.195322 -0.215817 -0.087359 69.000000
3.196638 -0.225760 -0.087436 69.000000
3.198920 -0.235787 -0.087552 69.000000
3.198181 -0.245600 -0.087552 69.000000
3.200401 -0.255650 -0.087668 69.000000
3.199602 -0.265467 -0.087668 69.000000
3.196781 -0.275111 -0.087591 69.000000
3.192936 -0.284650 -0.087475 69.000000
3.191053 -0.294353 -0.087436 69.000000
3.188145 -0.303952 -0.087359 69.000000
3.187198 -0.313731 -0.087359 69.000000
3.184232 -0.323306 -0.087281 69.000000
3.879887 -0.406054 -0.114435 69.000000
3.892532 -0.419455 -0.114978 69.000000
3.889240 -0.431175 -0.114900 69.000000
3.895842 -0.444011 -0.115210 69.000000
3.891484 -0.455612 -0.115094 69.000000
3.907925 -0.469697 -0.115791 69.000000
3.938201 -0.485601 -0.117031 69.000000
0.786724 -0.795989 -0.006593 69.000000
0.772056 -0.790788 -0.006050 69.000000
0.776582 -0.800327 -0.006438 69.000000
0.784524 -0.813498 -0.007019 69.000000
0.768892 -0.802190 -0.006283 69.000000
0.771250 -0.809612 -0.006554 69.000000
0.750221 -0.792376 -0.005508 69.000000
0.742310 -0.788850 -0.005198 69.000000
0.735110 -0.786013 -0.004927 69.000000
0.722495 -0.777283 -0.004346 69.000000
0.733662 -0.794180 -0.005121 69.000000
0.735951 -0.801581 -0.005392 69.000000
4.300726 1.983961 -0.174873 70.000000
4.299526 1.967431 -0.174516 70.000000
4.300083 1.951753 -0.174248 70.000000
4.296942 1.934450 -0.173801 70.000000
4.291911 1.916369 -0.173266 70.000000
4.295943 1.902384 -0.173176 70.000000
4.299015 1.887990 -0.173042 70.000000
4.305703 1.875190 -0.173087 70.000000
4.305933 1.859595 -0.172819 70.000000
4.308863 1.845196 -0.172685 70.000000
4.302550 1.826891 -0.172104 70.000000
4.301690 1.810968 -0.171792 70.000000
4.298007 1.793914 -0.171345 70.000000
4.331182 1.792180 -0.172685 70.000000
4.339433 1.780022 -0.172819 70.000000
4.287499 1.743365 -0.170050 70.000000
4.301166 1.733565 -0.170452 70.000000
4.349138 1.737412 -0.172506 70.000000
4.362807 1.727372 -0.172908 70.000000
4.284391 1.681130 -0.168888 70.000000
4.291391 1.668702 -0.168978 70.000000
4.315134 1.662714 -0.169871 70.000000
4.343546 1.658378 -0.170988 70.000000
4.277603 1.618175 -0.167593 70.000000
4.282547 1.605044 -0.167593 70.000000
4.287451 1.591897 -0.167593 70.000000
4.325130 1.590809 -0.169156 70.000000
4.299954 1.566586 -0.167727 70.000000
4.309438 1.555083 -0.167950 70.000000
4.310426 1.540509 -0.167772 70.000000
4.319840 1.528945 -0.167995 70.000000
4.318855 1.513701 -0.167727 70.000000
4.331972 1.503393 -0.168129 70.000000
4.327116 1.486848 -0.167682 70.000000
4.337332 1.475497 -0.167950 70.000000
4.350359 1.465053 -0.168352 70.000000
4.364310 1.454860 -0.168799 70.000000
4.367805 1.441150 -0.168754 70.000000
4.369357 1.426813 -0.168620 70.000000
4.372763 1.413094 -0.168576 70.000000
4.365659 1.396019 -0.168040 70.000000
4.363255 1.380509 -0.167727 70.000000
4.370329 1.368012 -0.167861 70.000000
4.371643 1.353711 -0.167727 70.000000
4.374821 1.339999 -0.167682 70.000000
4.379867 1.326861 -0.167727 70.000000
4.382003 1.312844 -0.167638 70.000000
4.385053 1.299110 -0.167593 70.000000
4.389018 1.285651 -0.167593 70.000000
4.392941 1.272180 -0.167593 70.000000
4.401626 1.260071 -0.167816 70.000000
4.412199 1.248466 -0.168129 70.000000
3.253417 0.218613 -0.108902 70.000000
3.269027 0.209591 -0.109572 70.000000
3.243729 0.197975 -0.108411 70.000000
3.234348 0.187444 -0.107964 70.000000
3.233910 0.177465 -0.107920 70.000000
3.234439 0.167543 -0.107920 70.000000
3.231945 0.157473 -0.107786 70.000000
3.232413 0.147556 -0.107786 70.000000
3.230854 0.137554 -0.107696 70.000000
3.230262 0.127601 -0.107652 70.000000
3.227644 0.117581 -0.107518 70.000000
3.225992 0.107611 -0.107428 70.000000
3.221314 0.097562 -0.107205 70.000000
3.224595 0.087760 -0.107339 70.000000
3.222851 0.077818 -0.107250 70.000000
3.223075 0.067930 -0.107250 70.000000
3.227263 0.058114 -0.107428 70.000000
3.224430 0.048168 -0.107294 70.000000
3.226560 0.038299 -0.107384 70.000000
3.224665 0.028382 -0.107294 70.000000
3.225736 0.018495 -0.107339 70.000000
3.221781 0.008587 -0.107160 70.000000
3.220793 -0.001297 -0.107116 70.000000
3.218776 -0.011171 -0.107026 70.000000
3.215730 -0.021027 -0.106892 70.000000
3.213652 -0.030874 -0.106803 70.000000
3.212543 -0.040721 -0.106758 70.000000
3.209407 -0.050529 -0.106624 70.000000
3.206240 -0.060320 -0.106490 70.000000
3.204042 -0.070112 -0.106401 70.000000
3.200816 -0.079868 -0.106267 70.000000
3.199558 -0.089659 -0.106222 70.000000
3.196272 -0.099382 -0.106088 70.000000
3.194953 -0.109154 -0.106044 70.000000
3.193605 -0.118918 -0.105999 70.000000
3.194224 -0.128756 -0.106044 70.000000
3.194812 -0.138598 -0.106088 70.000000
3.194371 -0.148399 -0.106088 70.000000
3.196894 -0.158346 -0.106222 70.000000
3.196393 -0.168153 -0.106222 70.000000
3.192870 -0.177793 -0.106088 70.000000
3.192310 -0.187587 -0.106088 70.000000
3.191719 -0.197380 -0.106088 70.000000
3.191099 -0.207172 -0.106088 70.000000
3.189451 -0.216893 -0.106044 70.000000
3.189767 -0.226748 -0.106088 70.000000
3.192045 -0.236754 -0.106222 70.000000
3.190308 -0.246469 -0.106178 70.000000
3.187545 -0.256096 -0.106088 70.000000
3.186745 -0.265874 -0.106088 70.000000
3.185914 -0.275650 -0.106088 70.000000
3.184058 -0.285334 -0.106044 70.000000
3.180184 -0.294824 -0.105910 70.000000
3.178270 -0.304485 -0.105865 70.000000
3.175332 -0.314038 -0.105776 70.000000
3.856140 -0.393236 -0.136416 70.000000
3.874787 -0.407151 -0.137310 70.000000
3.878485 -0.419573 -0.137533 70.000000
3.880158 -0.431801 -0.137667 70.000000
3.888741 -0.444838 -0.138114 70.000000
3.894303 -0.457582 -0.138426 70.000000
3.918669 -0.472635 -0.139588 70.000000
3.923149 -0.485390 -0.139856 70.000000
0.765562 -0.785581 -0.012157 70.000000
0.762453 -0.787209 -0.012112 70.000000
0.764886 -0.794581 -0.012425 70.000000
0.743792 -0.777440 -0.011219 70.000000
0.739337 -0.777547 -0.011085 70.000000
0.732143 -0.774731 -0.010772 70.000000
0.728394 -0.775518 -0.010683 70.000000
0.728058 -0.779939 -0.010817 70.000000
0.721583 -0.777776 -0.010549 70.000000
0.720548 -0.781455 -0.010638 70.000000
4.290051 1.993940 -0.205148 71.000000
4.278012 1.972401 -0.204126 71.000000
4.284951 1.959683 -0.204177 71.000000
4.280940 1.941987 -0.203614 71.000000
4.298716 1.934174 -0.204279 71.000000
4.277273 1.908760 -0.202745 71.000000
4.271237 1.890371 -0.202081 71.000000
4.305363 1.889708 -0.203666 71.000000
4.285503 1.865324 -0.202234 71.000000
4.287538 1.850584 -0.202030 71.000000
4.285851 1.834276 -0.201621 71.000000
4.300651 1.825022 -0.202132 71.000000
4.285980 1.803293 -0.201008 71.000000
4.284120 1.787058 -0.200599 71.000000
4.292350 1.775051 -0.200752 71.000000
4.297776 1.761874 -0.200752 71.000000
4.280033 1.739275 -0.199474 71.000000
4.279791 1.723896 -0.199167 71.000000
4.304536 1.718539 -0.200241 71.000000
4.281931 1.694294 -0.198707 71.000000
4.281531 1.678960 -0.198401 71.000000
4.284801 1.665093 -0.198298 71.000000
4.289889 1.651940 -0.198298 71.000000
4.283741 1.634495 -0.197685 71.000000
4.282197 1.618872 -0.197327 71.000000
4.301170 1.610984 -0.198094 71.000000
4.289241 1.591523 -0.197174 71.000000
4.314723 1.585942 -0.198298 71.000000
4.314877 1.570987 -0.198043 71.000000
4.323434 1.559098 -0.198247 71.000000
4.319733 1.542801 -0.197787 71.000000
4.344216 1.536540 -0.198861 71.000000
4.337601 1.519240 -0.198247 71.000000
4.336580 1.503961 -0.197941 71.000000
4.352508 1.494544 -0.198554 71.000000
4.345726 1.477324 -0.197941 71.000000
4.402293 1.481517 -0.200752 71.000000
4.437136 1.478112 -0.202388 71.000000
4.520366 1.490468 -0.206630 71.000000
4.592320 1.498606 -0.210259 71.000000
4.630157 1.495260 -0.212049 71.000000
4.751724 1.518466 -0.218336 71.000000
4.755408 1.503580 -0.218285 71.000000
4.793356 1.499426 -0.220074 71.000000
4.819876 1.491509 -0.221249 71.000000
4.361066 1.276447 -0.195589 71.000000
4.388943 1.270008 -0.196867 71.000000
4.398579 1.258186 -0.197174 71.000000
4.412028 1.247405 -0.197685 71.000000
4.422567 1.235746 -0.198043 71.000000
4.459066 1.231218 -0.199781 71.000000
4.458005 1.216216 -0.199525 71.000000
3.219983 0.155972 -0.128014 71.000000
3.222442 0.146184 -0.128116 71.000000
3.226866 0.136467 -0.128321 71.000000
3.225274 0.126488 -0.128219 71.000000
3.223651 0.116519 -0.128116 71.000000
3.224991 0.106662 -0.128167 71.000000
3.223307 0.096707 -0.128065 71.000000
3.223588 0.086817 -0.128065 71.000000
3.223840 0.076927 -0.128065 71.000000
3.223062 0.067015 -0.128014 71.000000
3.222254 0.057109 -0.127963 71.000000
3.223413 0.047238 -0.128014 71.000000
3.221545 0.037324 -0.127912 71.000000
3.218648 0.027414 -0.127758 71.000000
3.217719 0.017533 -0.127707 71.000000
3.214761 0.007653 -0.127554 71.000000
3.213771 -0.002209 -0.127503 71.000000
3.210753 -0.012059 -0.127350 71.000000
3.209702 -0.021903 -0.127298 71.000000
3.208621 -0.031740 -0.127247 71.000000
3.204514 -0.041534 -0.127043 71.000000
3.203373 -0.051349 -0.126992 71.000000
3.202202 -0.061158 -0.126941 71.000000
3.196009 -0.070851 -0.126634 71.000000
3.195776 -0.080656 -0.126634 71.000000
3.195514 -0.090460 -0.126634 71.000000
3.194223 -0.100233 -0.126583 71.000000
3.191904 -0.109964 -0.126481 71.000000
3.188558 -0.119645 -0.126327 71.000000
3.189173 -0.129467 -0.126378 71.000000
3.189759 -0.139294 -0.126429 71.000000
3.188319 -0.149033 -0.126378 71.000000
3.188844 -0.158863 -0.126429 71.000000
3.189339 -0.168698 -0.126481 71.000000
3.186812 -0.178371 -0.126378 71.000000
3.187247 -0.188206 -0.126429 71.000000
3.187652 -0.198045 -0.126481 71.000000
3.186032 -0.207759 -0.126429 71.000000
3.184384 -0.217465 -0.126378 71.000000
3.185694 -0.227375 -0.126481 71.000000
3.187969 -0.237368 -0.126634 71.000000
3.186230 -0.247071 -0.126583 71.000000
3.184462 -0.256765 -0.126532 71.000000
3.183659 -0.266534 -0.126532 71.000000
3.182826 -0.276300 -0.126532 71.000000
3.178979 -0.285796 -0.126378 71.000000
3.177093 -0.295456 -0.126327 71.000000
3.174184 -0.305011 -0.126225 71.000000
3.216962 -0.319069 -0.128474 71.000000
3.867734 -0.395366 -0.162006 71.000000
3.868490 -0.407439 -0.162108 71.000000
3.869207 -0.419520 -0.162211 71.000000
3.870880 -0.431720 -0.162364 71.000000
3.884420 -0.445295 -0.163131 71.000000
3.891963 -0.458259 -0.163591 71.000000
3.898471 -0.471153 -0.164000 71.000000
0.755231 -0.771419 -0.018268 71.000000
0.761925 -0.783028 -0.018933 71.000000
0.756044 -0.781776 -0.018677 71.000000
0.754335 -0.784811 -0.018728 71.000000
0.749851 -0.784958 -0.018575 71.000000
0.747440 -0.787255 -0.018575 71.000000
0.742962 -0.787367 -0.018422 71.000000
0.739859 -0.788915 -0.018371 71.000000
0.733345 -0.786802 -0.018064 71.000000
0.730928 -0.789048 -0.018064 71.000000
0.720377 -0.782479 -0.017450 71.000000
4.248962 1.995754 -0.231127 72.000000
4.248729 1.979759 -0.230727 72.000000
4.246626 1.962947 -0.230214 72.000000
4.249905 1.948661 -0.230043 72.000000
4.246775 1.931483 -0.229472 72.000000
4.247220 1.915983 -0.229130 72.000000
4.250343 1.901721 -0.228959 72.000000
4.256158 1.888672 -0.228959 72.000000
4.259191 1.874400 -0.228788 72.000000
4.260345 1.859328 -0.228503 72.000000
4.256866 1.842286 -0.227932 72.000000
4.268921 1.831972 -0.228332 72.000000
4.261659 1.813397 -0.227533 72.000000
4.252483 1.794108 -0.226620 72.000000
4.259809 1.781823 -0.226734 72.000000
4.274479 1.772568 -0.227305 72.000000
4.279897 1.759446 -0.227305 72.000000
4.265857 1.738400 -0.226107 72.000000
4.271171 1.725304 -0.226107 72.000000
4.271809 1.710338 -0.225822 72.000000
4.275180 1.696488 -0.225708 72.000000
4.275719 1.681538 -0.225422 72.000000
4.278067 1.667326 -0.225251 72.000000
4.275710 1.651317 -0.224795 72.000000
4.277026 1.636766 -0.224567 72.000000
4.279227 1.622575 -0.224396 72.000000
4.280446 1.608035 -0.224168 72.000000
4.293781 1.598028 -0.224681 72.000000
4.288359 1.581051 -0.224053 72.000000
4.290375 1.566860 -0.223882 72.000000
4.297979 1.554708 -0.224053 72.000000
4.311188 1.544543 -0.224567 72.000000
4.346018 1.541984 -0.226392 72.000000
4.340366 1.525006 -0.225765 72.000000
4.392175 1.528074 -0.228617 72.000000
4.428939 1.525639 -0.230556 72.000000
4.466674 1.523315 -0.232553 72.000000
4.475111 1.510881 -0.232781 72.000000
4.529914 1.513904 -0.235804 72.000000
4.572455 1.512532 -0.238086 72.000000
4.623569 1.513706 -0.240881 72.000000
4.742172 1.536414 -0.247726 72.000000
4.898037 1.570285 -0.256795 72.000000
4.938997 1.566714 -0.258963 72.000000
4.921870 1.544683 -0.257651 72.000000
4.940889 1.534013 -0.258506 72.000000
3.229143 0.100754 -0.147504 72.000000
3.226443 0.090764 -0.147333 72.000000
3.225708 0.080840 -0.147276 72.000000
3.224943 0.070922 -0.147219 72.000000
3.223149 0.060991 -0.147105 72.000000
3.221324 0.051071 -0.146991 72.000000
3.221466 0.041188 -0.146991 72.000000
3.219580 0.031286 -0.146877 72.000000
3.219661 0.021408 -0.146877 72.000000
3.219712 0.011530 -0.146877 72.000000
3.214740 0.001651 -0.146591 72.000000
3.213732 -0.008208 -0.146534 72.000000
3.212693 -0.018062 -0.146477 72.000000
3.208629 -0.027882 -0.146249 72.000000
3.204535 -0.037678 -0.146021 72.000000
3.202408 -0.047479 -0.145907 72.000000
3.203246 -0.057321 -0.145964 72.000000
3.202057 -0.067127 -0.145907 72.000000
3.199839 -0.076902 -0.145793 72.000000
3.197592 -0.086664 -0.145679 72.000000
3.197311 -0.096473 -0.145679 72.000000
3.194007 -0.106182 -0.145508 72.000000
3.191671 -0.115907 -0.145393 72.000000
3.190303 -0.125659 -0.145336 72.000000
3.188905 -0.135403 -0.145279 72.000000
3.187477 -0.145140 -0.145222 72.000000
3.187017 -0.154918 -0.145222 72.000000
3.187523 -0.164747 -0.145279 72.000000
3.187003 -0.174526 -0.145279 72.000000
3.187449 -0.184360 -0.145336 72.000000
3.187865 -0.194200 -0.145393 72.000000
3.188251 -0.204043 -0.145451 72.000000
3.188606 -0.213891 -0.145508 72.000000
3.189926 -0.223813 -0.145622 72.000000
3.190220 -0.233671 -0.145679 72.000000
3.189488 -0.243458 -0.145679 72.000000
3.188726 -0.253242 -0.145679 72.000000
3.187934 -0.263024 -0.145679 72.000000
3.187113 -0.272803 -0.145679 72.000000
3.183277 -0.282314 -0.145508 72.000000
3.182396 -0.292079 -0.145508 72.000000
3.181485 -0.301841 -0.145508 72.000000
3.869095 -0.379310 -0.185037 72.000000
3.865926 -0.390977 -0.184923 72.000000
3.869673 -0.403355 -0.185208 72.000000
3.871396 -0.415545 -0.185379 72.000000
3.882010 -0.428739 -0.186064 72.000000
3.901508 -0.443019 -0.187262 72.000000
3.905088 -0.455566 -0.187547 72.000000
3.911602 -0.468497 -0.188003 72.000000
0.724837 -0.736422 -0.021956 72.000000
0.770691 -0.787940 -0.025892 72.000000
0.774526 -0.796750 -0.026405 72.000000
0.767921 -0.794810 -0.026063 72.000000
0.764788 -0.796442 -0.026006 72.000000
0.760275 -0.796615 -0.025835 72.000000
0.754396 -0.795319 -0.025550 72.000000
0.754005 -0.799811 -0.025721 72.000000
0.743365 -0.793369 -0.025036 72.000000
0.740928 -0.795646 -0.025036 72.000000
0.732387 -0.791315 -0.024523 72.000000
0.732656 -0.796500 -0.024751 72.000000
0.723481 -0.791368 -0.024181 72.000000
4.246905 1.993707 -0.260454 73.000000
4.246668 1.977720 -0.260011 73.000000
4.261776 1.968867 -0.260644 73.000000
4.254187 1.949547 -0.259694 73.000000
4.254696 1.934009 -0.259314 73.000000
4.255151 1.918486 -0.258935 73.000000
4.263750 1.906644 -0.259124 73.000000
4.261368 1.889913 -0.258555 73.000000
4.267147 1.876831 -0.258555 73.000000
4.275629 1.864927 -0.258745 73.000000
4.281330 1.851801 -0.258745 73.000000
4.271399 1.831971 -0.257668 73.000000
4.267815 1.814953 -0.257035 73.000000
4.265086 1.798362 -0.256465 73.000000
4.265059 1.782960 -0.256085 73.000000
4.259445 1.765282 -0.255326 73.000000
4.267610 1.753344 -0.255516 73.000000
4.270196 1.739113 -0.255326 73.000000
4.271810 1.724510 -0.255072 73.000000
4.275227 1.710655 -0.254946 73.000000
4.275816 1.695692 -0.254629 73.000000
4.277283 1.681106 -0.254376 73.000000
4.276841 1.665803 -0.253996 73.000000
4.276345 1.650518 -0.253616 73.000000
4.278592 1.636321 -0.253426 73.000000
4.277992 1.621066 -0.253046 73.000000
4.282946 1.607934 -0.253046 73.000000
4.285987 1.594090 -0.252920 73.000000
4.300223 1.584383 -0.253553 73.000000
4.312563 1.573919 -0.254059 73.000000
4.325819 1.563734 -0.254629 73.000000
4.329657 1.550119 -0.254566 73.000000
4.332511 1.536162 -0.254439 73.000000
4.347561 1.526498 -0.255136 73.000000
4.375791 1.521344 -0.256719 73.000000
4.373832 1.505639 -0.256275 73.000000
4.469119 1.523112 -0.262353 73.000000
4.567390 1.540972 -0.268621 73.000000
4.645933 1.551605 -0.273560 73.000000
4.677204 1.546112 -0.275333 73.000000
4.769191 1.560298 -0.281157 73.000000
4.867006 1.575778 -0.287362 73.000000
4.946902 1.584888 -0.292364 73.000000
4.952692 1.570005 -0.292427 73.000000
4.922251 1.543756 -0.290085 73.000000
3.217169 0.050092 -0.166941 73.000000
3.215312 0.040197 -0.166814 73.000000
3.215420 0.030332 -0.166814 73.000000
3.217494 0.020480 -0.166941 73.000000
3.212551 0.010593 -0.166624 73.000000
3.215563 0.000737 -0.166814 73.000000
3.212556 -0.009119 -0.166624 73.000000
3.212513 -0.018975 -0.166624 73.000000
3.206452 -0.028777 -0.166244 73.000000
3.204352 -0.038589 -0.166118 73.000000
3.203221 -0.048405 -0.166054 73.000000
3.202060 -0.058214 -0.165991 73.000000
3.196877 -0.067931 -0.165674 73.000000
3.201642 -0.077860 -0.165991 73.000000
3.200391 -0.087655 -0.165928 73.000000
3.199109 -0.097443 -0.165864 73.000000
3.195803 -0.107156 -0.165674 73.000000
3.198451 -0.117070 -0.165864 73.000000
3.195085 -0.126763 -0.165674 73.000000
3.194681 -0.136565 -0.165674 73.000000
3.192253 -0.146274 -0.165548 73.000000
3.190793 -0.156018 -0.165484 73.000000
3.188306 -0.165703 -0.165358 73.000000
3.186786 -0.175429 -0.165294 73.000000
3.186233 -0.185205 -0.165294 73.000000
3.185650 -0.194979 -0.165294 73.000000
3.185036 -0.204752 -0.165294 73.000000
3.183398 -0.214455 -0.165231 73.000000
3.183720 -0.224291 -0.165294 73.000000
3.183017 -0.234057 -0.165294 73.000000
3.183279 -0.243898 -0.165358 73.000000
3.183511 -0.253742 -0.165421 73.000000
3.181723 -0.263425 -0.165358 73.000000
3.180899 -0.273186 -0.165358 73.000000
3.182034 -0.283120 -0.165484 73.000000
3.180157 -0.292790 -0.165421 73.000000
3.842898 -0.365781 -0.207714 73.000000
3.857649 -0.379132 -0.208727 73.000000
3.860439 -0.391369 -0.208981 73.000000
3.868153 -0.404145 -0.209550 73.000000
3.863919 -0.415690 -0.209360 73.000000
3.884447 -0.429960 -0.210753 73.000000
3.914840 -0.445489 -0.212779 73.000000
3.910482 -0.457149 -0.212589 73.000000
3.931851 -0.471882 -0.214046 73.000000
0.740782 -0.735546 -0.029045 73.000000
0.783081 -0.792028 -0.033477 73.000000
0.789737 -0.803684 -0.034300 73.000000
0.782389 -0.801103 -0.033857 73.000000
0.778538 -0.802067 -0.033730 73.000000
0.773303 -0.801578 -0.033477 73.000000
0.766697 -0.799623 -0.033097 73.000000
0.751852 -0.788962 -0.031957 73.000000
0.751486 -0.793440 -0.032147 73.000000
0.740159 -0.786291 -0.031324 73.000000
0.730246 -0.780539 -0.030628 73.000000
0.721734 -0.776196 -0.030058 73.000000
0.720026 -0.779140 -0.030121 73.000000
0.704811 -0.767375 -0.028918 73.000000
4.281326 1.990963 -0.291232 74.000000
4.285603 1.976983 -0.291093 74.000000
4.287112 1.961749 -0.290746 74.000000
4.284027 1.944464 -0.290052 74.000000
4.286334 1.929673 -0.289775 74.000000
4.284036 1.912852 -0.289150 74.000000
4.324545 1.915052 -0.291787 74.000000
4.285645 1.882117 -0.288386 74.000000
4.288656 1.867764 -0.288178 74.000000
4.291618 1.853411 -0.287970 74.000000
4.335799 1.856733 -0.290885 74.000000
4.309338 1.829773 -0.288456 74.000000
4.298382 1.809575 -0.287207 74.000000
4.322325 1.804066 -0.288595 74.000000
4.336135 1.794230 -0.289219 74.000000
4.321315 1.772588 -0.287692 74.000000
4.312871 1.753685 -0.286651 74.000000
4.313605 1.738580 -0.286304 74.000000
4.334667 1.731630 -0.287484 74.000000
4.334394 1.716120 -0.287068 74.000000
4.353569 1.708281 -0.288109 74.000000
4.340194 1.687684 -0.286721 74.000000
4.353729 1.677589 -0.287345 74.000000
4.353263 1.662089 -0.286929 74.000000
4.345280 1.643783 -0.285957 74.000000
4.341896 1.627292 -0.285333 74.000000
4.337516 1.610491 -0.284638 74.000000
4.334010 1.594076 -0.284014 74.000000
4.353877 1.586237 -0.285124 74.000000
4.360600 1.573549 -0.285263 74.000000
4.354134 1.556134 -0.284430 74.000000
4.365471 1.545099 -0.284916 74.000000
4.384312 1.536649 -0.285957 74.000000
4.389005 1.523191 -0.285957 74.000000
4.402149 1.512637 -0.286582 74.000000
4.567318 1.553756 -0.298381 74.000000
4.631623 1.559799 -0.302754 74.000000
4.643958 1.548107 -0.303309 74.000000
4.705525 1.552612 -0.307474 74.000000
4.733973 1.545912 -0.309209 74.000000
4.792799 1.548871 -0.313165 74.000000
4.819383 1.541149 -0.314762 74.000000
4.860230 1.537795 -0.317399 74.000000
4.915381 1.538675 -0.321078 74.000000
4.965819 1.537756 -0.324409 74.000000
3.208153 0.028235 -0.185940 74.000000
3.232208 0.008616 -0.187606 74.000000
3.190321 -0.001288 -0.184691 74.000000
3.212249 -0.011150 -0.186218 74.000000
3.210204 -0.020992 -0.186079 74.000000
3.203142 -0.030774 -0.185593 74.000000
3.202035 -0.040589 -0.185523 74.000000
3.198903 -0.050365 -0.185315 74.000000
3.196738 -0.060142 -0.185176 74.000000
3.193547 -0.069884 -0.184968 74.000000
3.195312 -0.079731 -0.185107 74.000000
3.195052 -0.089534 -0.185107 74.000000
3.194762 -0.099335 -0.185107 74.000000
3.194443 -0.109136 -0.185107 74.000000
3.197084 -0.119047 -0.185315 74.000000
3.193713 -0.128735 -0.185107 74.000000
3.193303 -0.138533 -0.185107 74.000000
3.192863 -0.148329 -0.185107 74.000000
3.190400 -0.158025 -0.184968 74.000000
3.186912 -0.167656 -0.184760 74.000000
3.186382 -0.177432 -0.184760 74.000000
3.183831 -0.187090 -0.184621 74.000000
3.182246 -0.196796 -0.184552 74.000000
3.180632 -0.206493 -0.184482 74.000000
3.180979 -0.216318 -0.184552 74.000000
3.182291 -0.226217 -0.184691 74.000000
3.181582 -0.235979 -0.184691 74.000000
