# This PCD file was generated using the MATLAB® pcwrite function
# from Computer Vision Toolbox®.
# .PCD v.7 - Point Cloud Data file format
VERSION .7
FIELDS x y z intensity
SIZE 4 4 4 4
TYPE F F F F
COUNT 1 1 1 1
WIDTH 1274
HEIGHT 1
VIEWPOINT 0 0 0 1 0 0 0
POINTS 1274
DATA ascii
4.395360 -1.963649 0.172722 58.000000
1.990280 0.954659 0.085915 59.000000
1.991394 0.947688 0.085870 59.000000
1.993388 0.941146 0.085847 59.000000
1.994456 0.934177 0.085802 59.000000
1.995500 0.927211 0.085756 59.000000
1.998335 0.921084 0.085756 59.000000
1.999334 0.914117 0.085711 59.000000
1.999398 0.906738 0.085643 59.000000
2.000347 0.899779 0.085597 59.000000
2.002185 0.893230 0.085575 59.000000
2.004916 0.887083 0.085575 59.000000
2.005798 0.880123 0.085529 59.000000
2.009405 0.874365 0.085552 59.000000
2.013914 0.868989 0.085597 59.000000
2.015651 0.862413 0.085575 59.000000
2.017368 0.855834 0.085552 59.000000
2.019984 0.849640 0.085552 59.000000
2.022581 0.843439 0.085552 59.000000
2.023312 0.836465 0.085507 59.000000
2.024943 0.829874 0.085484 59.000000
2.026554 0.823281 0.085461 59.000000
2.029997 0.817434 0.085484 59.000000
2.030639 0.810460 0.085439 59.000000
2.033116 0.804226 0.085439 59.000000
2.036504 0.798350 0.085461 59.000000
2.040807 0.792824 0.085507 59.000000
2.043230 0.786559 0.085507 59.000000
2.046567 0.780643 0.085529 59.000000
2.050823 0.775069 0.085575 59.000000
2.053191 0.768773 0.085575 59.000000
2.055540 0.762470 0.085575 59.000000
2.057869 0.756161 0.085575 59.000000
2.060180 0.749844 0.085575 59.000000
2.062470 0.743520 0.085575 59.000000
2.061918 0.736178 0.085507 59.000000
2.065109 0.730183 0.085529 59.000000
2.066396 0.723513 0.085507 59.000000
2.068606 0.717170 0.085507 59.000000
2.070796 0.710820 0.085507 59.000000
2.072021 0.704141 0.085484 59.000000
2.074172 0.697781 0.085484 59.000000
2.077251 0.691731 0.085507 59.000000
2.080313 0.685668 0.085529 59.000000
2.081456 0.678972 0.085507 59.000000
2.083530 0.672583 0.085507 59.000000
2.087488 0.666797 0.085552 59.000000
2.090477 0.660691 0.085575 59.000000
2.091540 0.653976 0.085552 59.000000
2.094491 0.647852 0.085575 59.000000
2.096469 0.641423 0.085575 59.000000
2.095557 0.634118 0.085507 59.000000
2.096535 0.627399 0.085484 59.000000
2.105159 0.622953 0.085643 59.000000
2.102264 0.615086 0.085529 59.000000
2.107982 0.609746 0.085620 59.000000
2.110803 0.603552 0.085643 59.000000
2.115531 0.597890 0.085711 59.000000
2.116393 0.591127 0.085688 59.000000
2.117233 0.584365 0.085665 59.000000
2.119015 0.577867 0.085665 59.000000
2.118848 0.570842 0.085620 59.000000
2.120589 0.564339 0.085620 59.000000
2.123277 0.558085 0.085643 59.000000
2.124012 0.551316 0.085620 59.000000
2.126662 0.545046 0.085643 59.000000
2.127355 0.538273 0.085620 59.000000
2.129966 0.531987 0.085643 59.000000
2.131588 0.525450 0.085643 59.000000
2.136104 0.519618 0.085711 59.000000
2.137688 0.513062 0.085711 59.000000
2.139252 0.506501 0.085711 59.000000
2.140796 0.499936 0.085711 59.000000
2.142320 0.493366 0.085711 59.000000
2.143823 0.486791 0.085711 59.000000
2.147258 0.480649 0.085756 59.000000
2.146770 0.473627 0.085711 59.000000
2.150167 0.467465 0.085756 59.000000
2.150613 0.460656 0.085734 59.000000
2.153972 0.454470 0.085779 59.000000
2.157314 0.448267 0.085824 59.000000
2.162596 0.442450 0.085915 59.000000
2.163944 0.435813 0.085915 59.000000
2.168212 0.429757 0.085983 59.000000
2.173445 0.423871 0.086074 59.000000
2.173754 0.417012 0.086051 59.000000
2.178952 0.411084 0.086142 59.000000
2.177254 0.403849 0.086074 59.000000
2.182417 0.397886 0.086165 59.000000
2.181659 0.390835 0.086119 59.000000
2.180879 0.383793 0.086074 59.000000
2.183031 0.377271 0.086097 59.000000
2.185164 0.370739 0.086119 59.000000
2.180375 0.363045 0.085983 59.000000
2.515929 0.411169 0.093674 59.000000
2.543829 0.407732 0.094287 59.000000
2.554944 0.401482 0.094514 59.000000
2.570984 0.395931 0.094854 59.000000
2.581083 0.389387 0.095058 59.000000
2.598089 0.383812 0.095421 59.000000
2.613105 0.377848 0.095739 59.000000
2.618212 0.370391 0.095829 59.000000
2.643102 0.365655 0.096374 59.000000
2.657090 0.359292 0.096669 59.000000
2.669081 0.352583 0.096918 59.000000
2.686014 0.346446 0.097281 59.000000
2.688056 0.338329 0.097304 59.000000
2.699004 0.331303 0.097531 59.000000
2.665266 0.318849 0.096737 59.000000
4.435361 -1.855203 0.144925 59.000000
4.454522 -1.879288 0.145537 59.000000
4.441988 -1.906191 0.145515 59.000000
4.438872 -1.921000 0.145583 59.000000
4.443038 -1.939006 0.145832 59.000000
4.426086 -1.947798 0.145560 59.000000
4.422831 -1.962584 0.145628 59.000000
4.408575 -1.972471 0.145424 59.000000
4.404326 -1.986809 0.145469 59.000000
4.381827 -1.992866 0.145061 59.000000
1.980944 0.953917 0.072377 60.000000
1.989276 0.950418 0.072477 60.000000
1.991278 0.943883 0.072460 60.000000
1.992355 0.936919 0.072427 60.000000
1.992501 0.929536 0.072377 60.000000
1.992620 0.922160 0.072327 60.000000
1.996349 0.916459 0.072344 60.000000
1.995511 0.908674 0.072278 60.000000
1.997378 0.902137 0.072261 60.000000
1.998310 0.895188 0.072228 60.000000
2.000134 0.888648 0.072211 60.000000
2.001020 0.881702 0.072178 60.000000
2.003716 0.875559 0.072178 60.000000
2.009145 0.870599 0.072228 60.000000
2.011807 0.864430 0.072228 60.000000
2.014449 0.858254 0.072228 60.000000
2.016152 0.851681 0.072211 60.000000
2.019678 0.845878 0.072228 60.000000
2.020416 0.838912 0.072195 60.000000
2.022055 0.832329 0.072178 60.000000
2.024599 0.826121 0.072178 60.000000
2.027124 0.819906 0.072178 60.000000
2.029630 0.813683 0.072178 60.000000
2.032117 0.807453 0.072178 60.000000
2.032724 0.800483 0.072145 60.000000
2.037965 0.795332 0.072195 60.000000
2.041328 0.789436 0.072211 60.000000
2.047476 0.784598 0.072278 60.000000
2.049873 0.778313 0.072278 60.000000
2.052252 0.772020 0.072278 60.000000
2.054610 0.765721 0.072278 60.000000
2.056950 0.759414 0.072278 60.000000
2.057392 0.752413 0.072244 60.000000
2.061571 0.746778 0.072278 60.000000
2.061028 0.739438 0.072228 60.000000
2.063287 0.733112 0.072228 60.000000
2.063640 0.726115 0.072195 60.000000
2.063969 0.719124 0.072162 60.000000
2.066166 0.712788 0.072162 60.000000
2.069289 0.706769 0.072178 60.000000
2.068606 0.699458 0.072128 60.000000
2.070742 0.693108 0.072128 60.000000
2.072859 0.686752 0.072128 60.000000
2.074005 0.680078 0.072112 60.000000
2.082741 0.675869 0.072228 60.000000
2.079091 0.667645 0.072128 60.000000
2.084942 0.662472 0.072195 60.000000
2.085057 0.655474 0.072162 60.000000
2.088013 0.649370 0.072178 60.000000
2.089040 0.642668 0.072162 60.000000
2.093872 0.637127 0.072211 60.000000
2.095816 0.630700 0.072211 60.000000
2.095824 0.623698 0.072178 60.000000
2.099647 0.617829 0.072211 60.000000
2.102493 0.611663 0.072228 60.000000
2.107242 0.606037 0.072278 60.000000
2.110054 0.599842 0.072294 60.000000
2.110921 0.593096 0.072278 60.000000
2.114658 0.587151 0.072311 60.000000
2.117414 0.580925 0.072327 60.000000
2.119186 0.574426 0.072327 60.000000
2.119007 0.567405 0.072294 60.000000
2.122671 0.561412 0.072327 60.000000
2.124383 0.554897 0.072327 60.000000
2.126076 0.548377 0.072327 60.000000
2.128717 0.542098 0.072344 60.000000
2.129400 0.535321 0.072327 60.000000
2.131033 0.528786 0.072327 60.000000
2.134588 0.522720 0.072360 60.000000
2.137153 0.516403 0.072377 60.000000
2.136782 0.509381 0.072344 60.000000
2.137361 0.502595 0.072327 60.000000
2.138893 0.496035 0.072327 60.000000
2.140405 0.489471 0.072327 60.000000
2.142872 0.483121 0.072344 60.000000
2.143368 0.476328 0.072327 60.000000
2.145796 0.469964 0.072344 60.000000
2.149183 0.463799 0.072377 60.000000
2.153530 0.457825 0.072427 60.000000
2.147094 0.449581 0.072294 60.000000
2.160216 0.445409 0.072493 60.000000
2.161572 0.438779 0.072493 60.000000
2.164870 0.432536 0.072526 60.000000
2.170111 0.426662 0.072593 60.000000
2.171410 0.420002 0.072593 60.000000
2.170723 0.412966 0.072559 60.000000
2.172963 0.406487 0.072576 60.000000
2.177150 0.400360 0.072626 60.000000
2.175416 0.393147 0.072576 60.000000
2.178581 0.386819 0.072609 60.000000
2.177788 0.379791 0.072576 60.000000
2.181899 0.373613 0.072626 60.000000
2.182049 0.366752 0.072609 60.000000
2.517629 0.415037 0.078230 60.000000
2.553439 0.412882 0.078810 60.000000
2.560619 0.405983 0.078910 60.000000
2.574698 0.400115 0.079125 60.000000
2.585799 0.393715 0.079291 60.000000
2.605785 0.388574 0.079606 60.000000
2.616859 0.382017 0.079772 60.000000
2.627918 0.375397 0.079937 60.000000
2.641931 0.369126 0.080153 60.000000
2.651968 0.362233 0.080302 60.000000
2.644146 0.352908 0.080153 60.000000
2.659098 0.346598 0.080385 60.000000
2.680979 0.341079 0.080733 60.000000
2.677052 0.332239 0.080650 60.000000
2.546032 0.308107 0.078445 60.000000
4.429311 -1.911817 0.115916 60.000000
4.440842 -1.932983 0.116231 60.000000
4.421584 -1.956956 0.116098 60.000000
4.395473 -1.961543 0.115733 60.000000
4.396729 -1.978303 0.115866 60.000000
4.398833 -1.995502 0.116015 60.000000
1.959255 0.971459 0.059295 61.000000
1.965178 0.959419 0.059295 61.000000
1.977113 0.957743 0.059402 61.000000
1.982746 0.952972 0.059434 61.000000
1.984757 0.946454 0.059423 61.000000
1.987652 0.940360 0.059423 61.000000
1.990527 0.934258 0.059423 61.000000
1.990664 0.926881 0.059391 61.000000
1.993499 0.920769 0.059391 61.000000
1.996314 0.914649 0.059391 61.000000
1.997290 0.907693 0.059370 61.000000
2.000977 0.901972 0.059380 61.000000
2.001909 0.895013 0.059359 61.000000
2.003731 0.888461 0.059348 61.000000
2.005532 0.881908 0.059338 61.000000
2.009145 0.876150 0.059348 61.000000
2.014577 0.871172 0.059380 61.000000
2.014483 0.863806 0.059348 61.000000
2.018044 0.858012 0.059359 61.000000
2.021588 0.852205 0.059370 61.000000
2.021425 0.844843 0.059338 61.000000
2.024932 0.839020 0.059348 61.000000
2.029346 0.833563 0.059370 61.000000
2.030042 0.826579 0.059348 61.000000
2.030713 0.819599 0.059327 61.000000
2.036932 0.814850 0.059370 61.000000
2.038493 0.808229 0.059359 61.000000
2.038171 0.800874 0.059327 61.000000
2.043414 0.795705 0.059359 61.000000
2.044912 0.789073 0.059348 61.000000
2.047323 0.782795 0.059348 61.000000
2.049716 0.776511 0.059348 61.000000
2.053024 0.770570 0.059359 61.000000
2.053504 0.763571 0.059338 61.000000
2.056776 0.757613 0.059348 61.000000
2.058151 0.750956 0.059338 61.000000
2.061385 0.744978 0.059348 61.000000
2.059895 0.737303 0.059306 61.000000
2.062148 0.730980 0.059306 61.000000
2.063437 0.724319 0.059295 61.000000
2.067538 0.718641 0.059316 61.000000
2.068788 0.711970 0.059306 61.000000
2.071909 0.705942 0.059316 61.000000
2.077855 0.700860 0.059359 61.000000
2.079996 0.694481 0.059359 61.000000
2.084965 0.689038 0.059391 61.000000
2.084218 0.681706 0.059359 61.000000
2.085348 0.675001 0.059348 61.000000
2.084552 0.667685 0.059316 61.000000
2.086591 0.661287 0.059316 61.000000
2.089564 0.655181 0.059327 61.000000
2.091564 0.648767 0.059327 61.000000
2.091633 0.641761 0.059306 61.000000
2.092635 0.635051 0.059295 61.000000
2.094573 0.628628 0.059295 61.000000
2.095533 0.621914 0.059285 61.000000
2.098391 0.615764 0.059295 61.000000
2.101231 0.609601 0.059306 61.000000
2.105014 0.603703 0.059327 61.000000
2.108780 0.597787 0.059348 61.000000
2.109641 0.591045 0.059338 61.000000
2.113372 0.585103 0.059359 61.000000
2.118051 0.579408 0.059391 61.000000
2.120784 0.573168 0.059402 61.000000
2.124465 0.567174 0.059423 61.000000
2.128129 0.561163 0.059444 61.000000
2.130808 0.554884 0.059455 61.000000
2.132500 0.548344 0.059455 61.000000
2.130295 0.540815 0.059412 61.000000
2.133884 0.534763 0.059434 61.000000
2.135515 0.528214 0.059434 61.000000
2.137126 0.521659 0.059434 61.000000
2.137744 0.514866 0.059423 61.000000
2.138340 0.508075 0.059412 61.000000
2.137942 0.501056 0.059391 61.000000
2.139469 0.494494 0.059391 61.000000
2.142926 0.488372 0.059412 61.000000
2.145390 0.482015 0.059423 61.000000
2.149788 0.476078 0.059455 61.000000
2.150261 0.469268 0.059444 61.000000
2.152668 0.462879 0.059455 61.000000
2.157013 0.456893 0.059487 61.000000
2.163299 0.451294 0.059540 61.000000
2.167612 0.445258 0.059572 61.000000
2.168968 0.438605 0.059572 61.000000
2.171284 0.432144 0.059583 61.000000
2.172600 0.425481 0.059583 61.000000
2.170949 0.418246 0.059551 61.000000
2.172222 0.411584 0.059551 61.000000
2.176424 0.405467 0.059583 61.000000
2.174706 0.398248 0.059551 61.000000
2.175918 0.391574 0.059551 61.000000
2.179079 0.385244 0.059572 61.000000
2.181236 0.378728 0.059583 61.000000
2.181401 0.371866 0.059572 61.000000
2.497150 0.417756 0.062968 61.000000
2.547758 0.418183 0.063500 61.000000
2.564825 0.412906 0.063671 61.000000
2.572994 0.406125 0.063745 61.000000
2.586087 0.400062 0.063873 61.000000
2.596200 0.393473 0.063969 61.000000
2.612231 0.387706 0.064129 61.000000
2.616377 0.380121 0.064161 61.000000
2.628422 0.373639 0.064278 61.000000
2.641441 0.367224 0.064405 61.000000
2.658409 0.361270 0.064576 61.000000
2.658513 0.352981 0.064565 61.000000
2.665534 0.345594 0.064629 61.000000
2.593169 0.328136 0.063841 61.000000
2.545535 0.314185 0.063320 61.000000
4.453192 -1.892698 0.087529 61.000000
4.447365 -1.906352 0.087529 61.000000
4.439660 -1.919193 0.087508 61.000000
4.434667 -1.933205 0.087519 61.000000
4.383554 -1.991487 0.087274 61.000000
0.700843 -0.446425 0.044859 61.000000
0.700610 -0.452346 0.044891 61.000000
1.956878 0.969732 0.045262 62.000000
1.962536 0.965048 0.045275 62.000000
1.963690 0.958145 0.045266 62.000000
1.975620 0.956475 0.045308 62.000000
1.978545 0.950410 0.045308 62.000000
1.980549 0.943905 0.045304 62.000000
1.984340 0.938251 0.045308 62.000000
1.986304 0.931734 0.045304 62.000000
1.989153 0.925636 0.045304 62.000000
1.991076 0.919110 0.045300 62.000000
1.994795 0.913413 0.045304 62.000000
1.997588 0.907289 0.045304 62.000000
2.000362 0.901156 0.045304 62.000000
2.002204 0.894607 0.045300 62.000000
2.004025 0.888055 0.045296 62.000000
2.005825 0.881500 0.045291 62.000000
2.008520 0.875342 0.045291 62.000000
2.010278 0.868779 0.045287 62.000000
2.012934 0.862607 0.045287 62.000000
2.015571 0.856428 0.045287 62.000000
2.018189 0.850240 0.045287 62.000000
2.019866 0.843659 0.045283 62.000000
2.023368 0.837841 0.045287 62.000000
2.025929 0.831629 0.045287 62.000000
2.027545 0.825033 0.045283 62.000000
2.029139 0.818434 0.045279 62.000000
2.032569 0.812576 0.045283 62.000000
2.034123 0.805968 0.045279 62.000000
2.034724 0.798992 0.045270 62.000000
2.038098 0.793109 0.045275 62.000000
2.041455 0.787212 0.045279 62.000000
2.041992 0.780232 0.045270 62.000000
2.043441 0.773609 0.045266 62.000000
2.047677 0.768039 0.045275 62.000000
2.049086 0.761405 0.045270 62.000000
2.052351 0.755460 0.045275 62.000000
2.054659 0.749160 0.045275 62.000000
2.056948 0.742853 0.045275 62.000000
2.057334 0.735865 0.045266 62.000000
2.059582 0.729549 0.045266 62.000000
2.062754 0.723558 0.045270 62.000000
2.064964 0.717227 0.045270 62.000000
2.066210 0.710563 0.045266 62.000000
2.068380 0.704220 0.045266 62.000000
2.070531 0.697871 0.045266 62.000000
2.071713 0.691199 0.045262 62.000000
2.074774 0.685154 0.045266 62.000000
2.078767 0.679407 0.045275 62.000000
2.079890 0.672718 0.045270 62.000000
2.081944 0.666334 0.045270 62.000000
2.082072 0.659339 0.045262 62.000000
2.084085 0.652948 0.045262 62.000000
2.087034 0.646848 0.045266 62.000000
2.089964 0.640735 0.045270 62.000000
2.090963 0.634030 0.045266 62.000000
2.091941 0.627324 0.045262 62.000000
2.092897 0.620619 0.045258 62.000000
2.094791 0.614195 0.045258 62.000000
2.096666 0.607766 0.045258 62.000000
2.102365 0.602433 0.045275 62.000000
2.102279 0.595435 0.045266 62.000000
2.103133 0.588712 0.045262 62.000000
2.107821 0.583058 0.045275 62.000000
2.110564 0.576852 0.045279 62.000000
2.114255 0.570896 0.045287 62.000000
2.116963 0.564665 0.045291 62.000000
2.120619 0.558677 0.045300 62.000000
2.124258 0.552672 0.045308 62.000000
2.124975 0.545904 0.045304 62.000000
2.125671 0.539136 0.045300 62.000000
2.128285 0.532855 0.045304 62.000000
2.130881 0.526563 0.045308 62.000000
2.133457 0.520260 0.045312 62.000000
2.135044 0.513712 0.045312 62.000000
2.136610 0.507160 0.045312 62.000000
2.138155 0.500602 0.045312 62.000000
2.139681 0.494040 0.045312 62.000000
2.144112 0.488140 0.045325 62.000000
2.147551 0.481998 0.045333 62.000000
2.149996 0.475623 0.045337 62.000000
2.152422 0.469238 0.045342 62.000000
2.154829 0.462842 0.045346 62.000000
2.158195 0.456643 0.045354 62.000000
2.161544 0.450428 0.045363 62.000000
2.165854 0.444398 0.045375 62.000000
2.168188 0.437950 0.045379 62.000000
2.169521 0.431296 0.045379 62.000000
2.169853 0.424445 0.045375 62.000000
2.171145 0.417786 0.045375 62.000000
2.172416 0.411124 0.045375 62.000000
2.173667 0.404457 0.045375 62.000000
2.174898 0.397786 0.045375 62.000000
2.176108 0.391112 0.045375 62.000000
2.177298 0.384434 0.045375 62.000000
2.178467 0.377752 0.045375 62.000000
2.483235 0.422811 0.046665 62.000000
2.552575 0.426574 0.046954 62.000000
2.557818 0.419389 0.046971 62.000000
2.565017 0.412493 0.046996 62.000000
2.578123 0.406492 0.047047 62.000000
2.591217 0.400415 0.047097 62.000000
2.609241 0.395011 0.047168 62.000000
2.617365 0.388031 0.047197 62.000000
2.623491 0.380718 0.047218 62.000000
2.634547 0.374075 0.047260 62.000000
2.638654 0.366404 0.047273 62.000000
2.652647 0.360057 0.047327 62.000000
2.658696 0.352575 0.047348 62.000000
2.576463 0.333617 0.046996 62.000000
4.495527 -1.862185 0.056496 62.000000
4.455189 -1.893704 0.056392 62.000000
4.436491 -1.901848 0.056333 62.000000
4.431553 -1.915847 0.056337 62.000000
4.416487 -1.925438 0.056295 62.000000
4.385391 -1.943992 0.056207 62.000000
4.377581 -1.956621 0.056199 62.000000
4.370645 -1.969632 0.056195 62.000000
4.356388 -1.979309 0.056157 62.000000
4.334839 -1.985587 0.056086 62.000000
1.960827 0.970719 0.031631 63.000000
1.956617 0.961167 0.031647 63.000000
1.966746 0.958669 0.031631 63.000000
1.969678 0.952631 0.031631 63.000000
1.976197 0.948316 0.031622 63.000000
1.976389 0.940957 0.031628 63.000000
1.980170 0.935317 0.031626 63.000000
1.983936 0.929662 0.031624 63.000000
1.985872 0.923149 0.031626 63.000000
1.987787 0.916633 0.031628 63.000000
1.991499 0.910947 0.031626 63.000000
1.993374 0.904419 0.031628 63.000000
1.997051 0.898710 0.031626 63.000000
1.998886 0.892171 0.031628 63.000000
1.997043 0.884008 0.031639 63.000000
2.003407 0.879487 0.031631 63.000000
2.007013 0.873736 0.031628 63.000000
2.007848 0.866781 0.031633 63.000000
2.011417 0.861011 0.031631 63.000000
2.014049 0.854836 0.031631 63.000000
2.017584 0.849041 0.031628 63.000000
2.018333 0.842076 0.031633 63.000000
2.021831 0.836263 0.031631 63.000000
2.019762 0.828157 0.031641 63.000000
2.022293 0.821956 0.031641 63.000000
2.023878 0.815374 0.031643 63.000000
2.027299 0.809532 0.031641 63.000000
2.028843 0.802940 0.031643 63.000000
2.028505 0.795615 0.031649 63.000000
2.030004 0.789025 0.031652 63.000000
2.032415 0.782793 0.031652 63.000000
2.033873 0.776197 0.031654 63.000000
2.035310 0.769600 0.031656 63.000000
2.039534 0.764054 0.031652 63.000000
2.041868 0.757794 0.031652 63.000000
2.046999 0.752562 0.031645 63.000000
2.048359 0.745936 0.031647 63.000000
2.051578 0.739988 0.031645 63.000000
2.053839 0.733690 0.031645 63.000000
2.056080 0.727386 0.031645 63.000000
2.059245 0.721406 0.031643 63.000000
2.060504 0.714756 0.031645 63.000000
2.062687 0.708431 0.031645 63.000000
2.063905 0.701777 0.031647 63.000000
2.066048 0.695442 0.031647 63.000000
2.067223 0.688784 0.031649 63.000000
2.071226 0.683066 0.031645 63.000000
2.074262 0.677019 0.031643 63.000000
2.078232 0.671268 0.031639 63.000000
2.080282 0.664889 0.031639 63.000000
2.079452 0.657597 0.031645 63.000000
2.084322 0.652112 0.031639 63.000000
2.086313 0.645714 0.031639 63.000000
2.091152 0.640190 0.031633 63.000000
2.093107 0.633771 0.031633 63.000000
2.094084 0.627060 0.031635 63.000000
2.095039 0.620348 0.031637 63.000000
2.095973 0.613636 0.031639 63.000000
2.097845 0.607202 0.031639 63.000000
2.100660 0.601039 0.031637 63.000000
2.102494 0.594591 0.031637 63.000000
2.103345 0.587869 0.031639 63.000000
2.105139 0.581413 0.031639 63.000000
2.108842 0.575479 0.031635 63.000000
2.111562 0.569268 0.031633 63.000000
2.110401 0.562013 0.031639 63.000000
2.115016 0.556301 0.031633 63.000000
2.117680 0.550061 0.031631 63.000000
2.118389 0.543313 0.031633 63.000000
2.120046 0.536811 0.031633 63.000000
2.124593 0.531033 0.031626 63.000000
2.127183 0.524752 0.031624 63.000000
2.128783 0.518224 0.031624 63.000000
2.130363 0.511690 0.031624 63.000000
2.134842 0.505845 0.031618 63.000000
2.137357 0.499522 0.031616 63.000000
2.139854 0.493187 0.031614 63.000000
2.144282 0.487286 0.031608 63.000000
2.146743 0.480924 0.031605 63.000000
2.150161 0.474768 0.031601 63.000000
2.150630 0.467956 0.031603 63.000000
2.153033 0.461566 0.031601 63.000000
2.155417 0.455166 0.031599 63.000000
2.158762 0.448959 0.031595 63.000000
2.160129 0.442334 0.031595 63.000000
2.162456 0.435903 0.031593 63.000000
2.164764 0.429462 0.031591 63.000000
2.166071 0.422818 0.031591 63.000000
2.166376 0.415982 0.031593 63.000000
2.169607 0.409705 0.031589 63.000000
2.171837 0.403230 0.031587 63.000000
2.173064 0.396565 0.031587 63.000000
2.173286 0.389720 0.031589 63.000000
2.174472 0.383050 0.031589 63.000000
2.317516 0.400999 0.031287 63.000000
2.529695 0.429830 0.030839 63.000000
2.530015 0.421902 0.030841 63.000000
2.546100 0.416567 0.030810 63.000000
2.551315 0.409389 0.030801 63.000000
2.566388 0.403742 0.030772 63.000000
2.592321 0.399687 0.030720 63.000000
2.600456 0.392780 0.030705 63.000000
2.609562 0.385974 0.030688 63.000000
2.623599 0.379835 0.030661 63.000000
2.620791 0.371221 0.030669 63.000000
2.632813 0.364693 0.030646 63.000000
2.631938 0.356345 0.030650 63.000000
2.498201 0.330376 0.030935 63.000000
4.509164 -1.852712 0.026003 63.000000
4.481102 -1.873406 0.026041 63.000000
4.465197 -1.882874 0.026064 63.000000
4.438854 -1.903933 0.026097 63.000000
4.430238 -1.916352 0.026103 63.000000
4.416088 -1.926338 0.026122 63.000000
4.376759 -1.941242 0.026185 63.000000
4.369869 -1.954252 0.026187 63.000000
4.362942 -1.967239 0.026189 63.000000
4.342319 -1.973997 0.026223 63.000000
4.330787 -1.984811 0.026235 63.000000
0.704003 -0.420366 0.034496 63.000000
1.962755 0.966673 0.019120 64.000000
1.966610 0.961085 0.019112 64.000000
1.970450 0.955483 0.019104 64.000000
1.973372 0.949433 0.019104 64.000000
1.975373 0.942944 0.019112 64.000000
1.979160 0.937307 0.019104 64.000000
1.980216 0.930381 0.019120 64.000000
1.982155 0.923879 0.019128 64.000000
1.984980 0.917794 0.019128 64.000000
1.987786 0.911700 0.019128 64.000000
1.990574 0.905597 0.019128 64.000000
1.991519 0.898664 0.019143 64.000000
1.993354 0.892142 0.019151 64.000000
1.996082 0.886022 0.019151 64.000000
1.998791 0.879894 0.019151 64.000000
1.999647 0.872959 0.019167 64.000000
2.004152 0.867613 0.019151 64.000000
2.008642 0.862249 0.019136 64.000000
2.010358 0.855691 0.019143 64.000000
2.013895 0.849908 0.019136 64.000000
2.016493 0.843725 0.019136 64.000000
2.011682 0.834473 0.019198 64.000000
2.018857 0.830197 0.019159 64.000000
2.020469 0.823622 0.019167 64.000000
2.017422 0.815175 0.019214 64.000000
2.021770 0.809724 0.019198 64.000000
2.022386 0.802781 0.019214 64.000000
2.022978 0.795841 0.019230 64.000000
2.023546 0.788906 0.019245 64.000000
2.026890 0.783054 0.019238 64.000000
2.027415 0.776117 0.019253 64.000000
2.031656 0.770602 0.019238 64.000000
2.033075 0.764014 0.019245 64.000000
2.035409 0.757773 0.019245 64.000000
2.040540 0.752562 0.019222 64.000000
2.042839 0.746298 0.019222 64.000000
2.047000 0.740706 0.019206 64.000000
2.052087 0.735433 0.019183 64.000000
2.053391 0.728800 0.019190 64.000000
2.057505 0.723159 0.019175 64.000000
2.056880 0.715859 0.019198 64.000000
2.059066 0.709545 0.019198 64.000000
2.060287 0.702902 0.019206 64.000000
2.062434 0.696578 0.019206 64.000000
2.062664 0.689614 0.019222 64.000000
2.065719 0.683596 0.019214 64.000000
2.067807 0.677256 0.019214 64.000000
2.071778 0.671524 0.019198 64.000000
2.075733 0.665775 0.019183 64.000000
2.077766 0.659403 0.019183 64.000000
2.082642 0.653923 0.019159 64.000000
2.086548 0.648123 0.019143 64.000000
2.090439 0.642304 0.019128 64.000000
2.092400 0.635888 0.019128 64.000000
2.093383 0.629178 0.019136 64.000000
2.096262 0.623037 0.019128 64.000000
2.097204 0.616322 0.019136 64.000000
2.097164 0.609328 0.019151 64.000000
2.099024 0.602891 0.019151 64.000000
2.099901 0.596176 0.019159 64.000000
2.099795 0.589191 0.019175 64.000000
2.102556 0.583013 0.019167 64.000000
2.103370 0.576296 0.019175 64.000000
2.105129 0.569840 0.019175 64.000000
2.105901 0.563121 0.019183 64.000000
2.108585 0.556913 0.019175 64.000000
2.113187 0.551197 0.019151 64.000000
2.113900 0.544462 0.019159 64.000000
2.116529 0.538220 0.019151 64.000000
2.120111 0.532210 0.019136 64.000000
2.121734 0.525703 0.019136 64.000000
2.124308 0.519428 0.019128 64.000000
2.129780 0.513845 0.019096 64.000000
2.130374 0.507077 0.019104 64.000000
2.131920 0.500539 0.019104 64.000000
2.133445 0.493996 0.019104 64.000000
2.137876 0.488114 0.019081 64.000000
2.142290 0.482210 0.019057 64.000000
2.143759 0.475636 0.019057 64.000000
2.146186 0.469269 0.019049 64.000000
2.147615 0.462683 0.019049 64.000000
2.150981 0.456506 0.019033 64.000000
2.152372 0.449905 0.019033 64.000000
2.153742 0.443299 0.019033 64.000000
2.157052 0.437086 0.019018 64.000000
2.157402 0.430271 0.019026 64.000000
2.160675 0.424034 0.019010 64.000000
2.162947 0.417592 0.019002 64.000000
2.164218 0.410955 0.019002 64.000000
2.167435 0.404679 0.018986 64.000000
2.167683 0.397847 0.018994 64.000000
2.166925 0.390841 0.019010 64.000000
2.171068 0.384713 0.018986 64.000000
2.453034 0.426767 0.016748 64.000000
2.520379 0.430489 0.016222 64.000000
2.539441 0.425723 0.016080 64.000000
2.551589 0.419711 0.015994 64.000000
2.556814 0.412516 0.015963 64.000000
2.567945 0.406228 0.015884 64.000000
2.586968 0.401097 0.015743 64.000000
2.595107 0.394207 0.015688 64.000000
2.603228 0.387270 0.015633 64.000000
2.621227 0.381724 0.015499 64.000000
2.616446 0.372837 0.015546 64.000000
2.620549 0.365221 0.015523 64.000000
2.600848 0.354354 0.015688 64.000000
4.515651 -1.901842 -0.002180 64.000000
4.469302 -1.898475 -0.001834 64.000000
4.440640 -1.934734 -0.001740 64.000000
4.374024 -1.986076 -0.001426 64.000000
4.337000 -1.985327 -0.001159 64.000000
1.961516 0.973426 0.005065 65.000000
1.970773 0.970495 0.004964 65.000000
1.971944 0.963567 0.004993 65.000000
1.973991 0.957076 0.005007 65.000000
1.976017 0.950582 0.005022 65.000000
1.976217 0.943224 0.005065 65.000000
1.979101 0.937156 0.005065 65.000000
1.981062 0.930655 0.005079 65.000000
1.984814 0.924995 0.005065 65.000000
1.986735 0.918482 0.005079 65.000000
1.988635 0.911966 0.005093 65.000000
1.991423 0.905861 0.005093 65.000000
1.996016 0.900569 0.005065 65.000000
1.996944 0.893624 0.005093 65.000000
2.004246 0.889521 0.005022 65.000000
2.002390 0.881355 0.005093 65.000000
2.007834 0.876407 0.005050 65.000000
2.009595 0.869846 0.005065 65.000000
2.014092 0.864465 0.005036 65.000000
2.012134 0.856324 0.005108 65.000000
2.016595 0.850924 0.005079 65.000000
2.020118 0.845119 0.005065 65.000000
2.019931 0.837769 0.005108 65.000000
2.022491 0.831568 0.005108 65.000000
2.022255 0.824227 0.005151 65.000000
2.022920 0.817271 0.005179 65.000000
2.024489 0.810689 0.005193 65.000000
2.028826 0.805211 0.005165 65.000000
2.031287 0.798983 0.005165 65.000000
2.029070 0.790933 0.005236 65.000000
2.031487 0.784704 0.005236 65.000000
2.033885 0.778468 0.005236 65.000000
2.037199 0.772579 0.005222 65.000000
2.038623 0.765973 0.005236 65.000000
2.043775 0.760761 0.005193 65.000000
2.042346 0.753104 0.005251 65.000000
2.044647 0.746835 0.005251 65.000000
2.049750 0.741579 0.005208 65.000000
2.051074 0.734950 0.005222 65.000000
2.055204 0.729322 0.005193 65.000000
2.057432 0.723013 0.005193 65.000000
2.058696 0.716369 0.005208 65.000000
2.060884 0.710050 0.005208 65.000000
2.061160 0.703079 0.005236 65.000000
2.066149 0.697711 0.005193 65.000000
2.067332 0.691052 0.005208 65.000000
2.070391 0.685020 0.005193 65.000000
2.071533 0.678354 0.005208 65.000000
2.073605 0.671995 0.005208 65.000000
2.078513 0.666546 0.005165 65.000000
2.078642 0.659562 0.005193 65.000000
2.083518 0.654079 0.005151 65.000000
2.088380 0.648573 0.005108 65.000000
2.090359 0.642163 0.005108 65.000000
2.092320 0.635747 0.005108 65.000000
2.094260 0.629325 0.005108 65.000000
2.097140 0.623181 0.005093 65.000000
2.100001 0.617026 0.005079 65.000000
2.099964 0.610023 0.005108 65.000000
2.101825 0.603578 0.005108 65.000000
2.102705 0.596854 0.005122 65.000000
2.105489 0.590670 0.005108 65.000000
2.104401 0.583407 0.005151 65.000000
2.106181 0.576948 0.005151 65.000000
2.108906 0.570744 0.005136 65.000000
2.110647 0.564272 0.005136 65.000000
2.111402 0.557538 0.005151 65.000000
2.113102 0.551058 0.005151 65.000000
2.115751 0.544822 0.005136 65.000000
2.118382 0.538574 0.005122 65.000000
2.118084 0.531586 0.005151 65.000000
2.121647 0.525566 0.005122 65.000000
2.124220 0.519292 0.005108 65.000000
2.125803 0.512772 0.005108 65.000000
2.128340 0.506479 0.005093 65.000000
2.130857 0.500176 0.005079 65.000000
2.134330 0.494087 0.005050 65.000000
2.136810 0.487759 0.005036 65.000000
2.138297 0.481201 0.005036 65.000000
2.143668 0.475504 0.004979 65.000000
2.146093 0.469138 0.004964 65.000000
2.148500 0.462762 0.004950 65.000000
2.150888 0.456376 0.004936 65.000000
2.151299 0.449570 0.004950 65.000000
2.155607 0.443572 0.004907 65.000000
2.154997 0.436560 0.004936 65.000000
2.156326 0.429947 0.004936 65.000000
2.157635 0.423329 0.004936 65.000000
2.158924 0.416708 0.004936 65.000000
2.162157 0.410455 0.004907 65.000000
2.164389 0.404003 0.004893 65.000000
2.168569 0.397902 0.004850 65.000000
2.169779 0.391247 0.004850 65.000000
2.273368 0.402709 0.003362 65.000000
2.523830 0.439053 -0.000259 65.000000
2.523194 0.430971 -0.000230 65.000000
2.536338 0.425210 -0.000402 65.000000
2.545524 0.418724 -0.000517 65.000000
2.558642 0.412822 -0.000688 65.000000
2.571748 0.406843 -0.000860 65.000000
2.583854 0.400635 -0.001018 65.000000
2.592979 0.393906 -0.001132 65.000000
2.598132 0.386537 -0.001189 65.000000
2.608211 0.379860 -0.001318 65.000000
2.610354 0.371997 -0.001332 65.000000
2.615444 0.364539 -0.001390 65.000000
2.532335 0.345051 -0.000173 65.000000
4.471723 -1.914953 -0.033218 65.000000
4.467662 -1.929456 -0.033246 65.000000
4.444304 -1.935567 -0.032975 65.000000
4.431022 -1.945975 -0.032860 65.000000
4.409277 -1.985033 -0.032803 65.000000
4.367011 -1.998318 -0.032331 65.000000
1.949028 0.973300 -0.008368 66.000000
1.959171 0.970868 -0.008532 66.000000
1.964831 0.966177 -0.008594 66.000000
1.967786 0.960145 -0.008594 66.000000
1.970723 0.954103 -0.008594 66.000000
1.970937 0.946753 -0.008532 66.000000
1.972028 0.939841 -0.008491 66.000000
1.973998 0.933359 -0.008471 66.000000
1.976852 0.927299 -0.008471 66.000000
1.976969 0.919964 -0.008409 66.000000
1.980689 0.914313 -0.008429 66.000000
1.983485 0.908232 -0.008429 66.000000
1.987172 0.902556 -0.008450 66.000000
1.986286 0.894812 -0.008368 66.000000
1.993586 0.890754 -0.008471 66.000000
1.999051 0.885849 -0.008532 66.000000
2.001759 0.879712 -0.008532 66.000000
2.003532 0.873167 -0.008512 66.000000
2.006202 0.867016 -0.008512 66.000000
2.009771 0.861251 -0.008532 66.000000
2.009644 0.853908 -0.008471 66.000000
2.013175 0.848127 -0.008491 66.000000
2.014845 0.841561 -0.008471 66.000000
2.017418 0.835376 -0.008471 66.000000
2.018121 0.828423 -0.008429 66.000000
2.019728 0.821850 -0.008409 66.000000
2.024094 0.816398 -0.008450 66.000000
2.022876 0.808699 -0.008368 66.000000
2.026277 0.802858 -0.008388 66.000000
2.028730 0.796638 -0.008388 66.000000
2.028370 0.789322 -0.008326 66.000000
2.029849 0.782735 -0.008306 66.000000
2.032241 0.776504 -0.008306 66.000000
2.032744 0.769557 -0.008265 66.000000
2.036967 0.764020 -0.008306 66.000000
2.038365 0.757418 -0.008285 66.000000
2.040679 0.751161 -0.008285 66.000000
2.041095 0.744212 -0.008244 66.000000
2.047130 0.739305 -0.008326 66.000000
2.049388 0.733021 -0.008326 66.000000
2.051628 0.726730 -0.008326 66.000000
2.053848 0.720433 -0.008326 66.000000
2.053215 0.713143 -0.008265 66.000000
2.054448 0.706516 -0.008244 66.000000
2.057552 0.700532 -0.008265 66.000000
2.059692 0.694216 -0.008265 66.000000
2.062760 0.688210 -0.008285 66.000000
2.062963 0.681251 -0.008244 66.000000
2.064093 0.674608 -0.008223 66.000000
2.068056 0.668888 -0.008265 66.000000
2.071050 0.662845 -0.008285 66.000000
2.075933 0.657394 -0.008347 66.000000
2.077940 0.651022 -0.008347 66.000000
2.081838 0.645236 -0.008388 66.000000
2.082852 0.638553 -0.008368 66.000000
2.085758 0.632450 -0.008388 66.000000
2.088646 0.626336 -0.008409 66.000000
2.090558 0.619925 -0.008409 66.000000
2.092450 0.613508 -0.008409 66.000000
2.097203 0.607921 -0.008471 66.000000
2.096175 0.600658 -0.008409 66.000000
2.098007 0.594224 -0.008409 66.000000
2.099821 0.587784 -0.008409 66.000000
2.100651 0.581073 -0.008388 66.000000
2.100495 0.574098 -0.008347 66.000000
2.105142 0.568433 -0.008409 66.000000
2.106876 0.561972 -0.008409 66.000000
2.108590 0.555506 -0.008409 66.000000
2.110284 0.549034 -0.008409 66.000000
2.111959 0.542557 -0.008409 66.000000
2.112644 0.535829 -0.008388 66.000000
2.112339 0.528859 -0.008347 66.000000
2.116863 0.523096 -0.008409 66.000000
2.119429 0.516836 -0.008429 66.000000
2.120033 0.510098 -0.008409 66.000000
2.120615 0.503360 -0.008388 66.000000
2.123122 0.497080 -0.008409 66.000000
2.124638 0.490564 -0.008409 66.000000
2.127107 0.484265 -0.008429 66.000000
2.132485 0.478614 -0.008512 66.000000
2.139800 0.473366 -0.008635 66.000000
2.145150 0.467651 -0.008718 66.000000
2.141687 0.460017 -0.008615 66.000000
2.149935 0.454894 -0.008759 66.000000
2.149363 0.447888 -0.008718 66.000000
2.148768 0.440889 -0.008676 66.000000
2.149131 0.434097 -0.008656 66.000000
2.150452 0.427501 -0.008656 66.000000
2.150773 0.420710 -0.008635 66.000000
2.153035 0.414298 -0.008656 66.000000
2.151349 0.407133 -0.008594 66.000000
2.158485 0.401629 -0.008718 66.000000
2.156757 0.394465 -0.008656 66.000000
2.164845 0.389085 -0.008800 66.000000
2.514551 0.444042 -0.016090 66.000000
2.517872 0.436667 -0.016131 66.000000
2.523142 0.429612 -0.016214 66.000000
2.550087 0.426158 -0.016749 66.000000
2.554342 0.418818 -0.016811 66.000000
2.564498 0.412410 -0.016996 66.000000
2.600317 0.409995 -0.017717 66.000000
2.588717 0.400029 -0.017449 66.000000
2.597841 0.393283 -0.017614 66.000000
2.602002 0.385751 -0.017676 66.000000
2.607131 0.378342 -0.017758 66.000000
2.614218 0.371185 -0.017882 66.000000
2.617325 0.363439 -0.017923 66.000000
2.455956 0.333330 -0.014546 66.000000
4.470118 -1.932515 -0.063805 66.000000
4.455919 -1.942625 -0.063620 66.000000
4.445362 -1.954275 -0.063517 66.000000
4.427463 -1.962638 -0.063249 66.000000
4.409554 -1.970909 -0.062981 66.000000
4.399840 -1.982785 -0.062899 66.000000
4.392827 -1.995861 -0.062878 66.000000
1.940029 0.974858 -0.021391 67.000000
1.954637 0.974707 -0.021738 67.000000
1.958514 0.969150 -0.021765 67.000000
1.962375 0.963578 -0.021792 67.000000
1.963525 0.956676 -0.021738 67.000000
1.965551 0.950212 -0.021712 67.000000
1.968457 0.944177 -0.021712 67.000000
1.971345 0.938134 -0.021712 67.000000
1.971503 0.930799 -0.021631 67.000000
1.973444 0.924322 -0.021605 67.000000
1.975364 0.917841 -0.021578 67.000000
1.976355 0.910939 -0.021525 67.000000
1.974596 0.902791 -0.021391 67.000000
1.977357 0.896728 -0.021391 67.000000
1.985567 0.893121 -0.021551 67.000000
1.988298 0.887025 -0.021551 67.000000
1.993752 0.882136 -0.021631 67.000000
1.998279 0.876819 -0.021685 67.000000
1.999127 0.869886 -0.021631 67.000000
2.001786 0.863749 -0.021631 67.000000
2.005346 0.857997 -0.021658 67.000000
2.007048 0.851450 -0.021631 67.000000
2.008730 0.844900 -0.021605 67.000000
2.009468 0.837963 -0.021551 67.000000
2.012029 0.831794 -0.021551 67.000000
2.014572 0.825617 -0.021551 67.000000
2.015243 0.818679 -0.021498 67.000000
2.017745 0.812493 -0.021498 67.000000
2.020229 0.806298 -0.021498 67.000000
2.024551 0.800833 -0.021551 67.000000
2.024207 0.793522 -0.021471 67.000000
2.027564 0.787671 -0.021498 67.000000
2.029038 0.781087 -0.021471 67.000000
2.030491 0.774501 -0.021445 67.000000
2.031923 0.767914 -0.021418 67.000000
2.036141 0.762379 -0.021471 67.000000
2.037534 0.755780 -0.021445 67.000000
2.038904 0.749181 -0.021418 67.000000
2.040254 0.742579 -0.021391 67.000000
2.042523 0.736316 -0.021391 67.000000
2.041948 0.729037 -0.021311 67.000000
2.044175 0.722769 -0.021311 67.000000
2.045440 0.716163 -0.021284 67.000000
2.045739 0.709228 -0.021231 67.000000
2.047905 0.702949 -0.021231 67.000000
2.051945 0.697307 -0.021284 67.000000
2.054074 0.691008 -0.021284 67.000000
2.057133 0.685020 -0.021311 67.000000
2.057326 0.678078 -0.021258 67.000000
2.061297 0.672384 -0.021311 67.000000
2.064302 0.666365 -0.021338 67.000000
2.066336 0.660029 -0.021338 67.000000
2.071211 0.654591 -0.021418 67.000000
2.072255 0.647935 -0.021391 67.000000
2.074233 0.641574 -0.021391 67.000000
2.077147 0.635501 -0.021418 67.000000
2.081001 0.629705 -0.021471 67.000000
2.082923 0.623318 -0.021471 67.000000
2.084826 0.616925 -0.021471 67.000000
2.087667 0.610807 -0.021498 67.000000
2.090492 0.604677 -0.021525 67.000000
2.090415 0.597710 -0.021471 67.000000
2.094163 0.591839 -0.021525 67.000000
2.097894 0.585950 -0.021578 67.000000
2.099682 0.579511 -0.021578 67.000000
2.097593 0.572013 -0.021471 67.000000
2.102233 0.566356 -0.021551 67.000000
2.102995 0.559646 -0.021525 67.000000
2.105668 0.553446 -0.021551 67.000000
2.107356 0.546984 -0.021551 67.000000
2.110961 0.541013 -0.021605 67.000000
2.112611 0.534534 -0.021605 67.000000
2.112302 0.527565 -0.021551 67.000000
2.116822 0.521801 -0.021631 67.000000
2.119384 0.515541 -0.021658 67.000000
2.118040 0.508335 -0.021578 67.000000
2.118616 0.501604 -0.021551 67.000000
2.120145 0.495102 -0.021551 67.000000
2.123602 0.489045 -0.021605 67.000000
2.124118 0.482305 -0.021578 67.000000
2.128514 0.476443 -0.021658 67.000000
2.131918 0.470342 -0.021712 67.000000
2.135304 0.464225 -0.021765 67.000000
2.139650 0.458302 -0.021845 67.000000
2.139090 0.451322 -0.021792 67.000000
2.142422 0.445165 -0.021845 67.000000
2.144757 0.438791 -0.021872 67.000000
2.145113 0.432011 -0.021845 67.000000
2.144468 0.425038 -0.021792 67.000000
2.148705 0.419032 -0.021872 67.000000
2.147035 0.411871 -0.021792 67.000000
2.148289 0.405282 -0.021792 67.000000
2.149522 0.398690 -0.021792 67.000000
2.154669 0.392812 -0.021898 67.000000
2.517934 0.451259 -0.031724 67.000000
2.514384 0.442663 -0.031591 67.000000
2.523610 0.436313 -0.031804 67.000000
2.521980 0.428066 -0.031724 67.000000
2.536099 0.422467 -0.032071 67.000000
2.550208 0.416787 -0.032418 67.000000
2.566279 0.411341 -0.032819 67.000000
2.577404 0.405022 -0.033086 67.000000
2.584562 0.398028 -0.033246 67.000000
2.591701 0.390994 -0.033406 67.000000
2.597832 0.383774 -0.033540 67.000000
2.613837 0.377954 -0.033940 67.000000
2.613995 0.369793 -0.033914 67.000000
2.551747 0.352977 -0.032205 67.000000
4.463673 -1.948006 -0.093482 67.000000
4.455845 -1.960886 -0.093429 67.000000
4.415997 -1.959553 -0.092441 67.000000
4.405402 -1.971052 -0.092307 67.000000
4.390221 -1.980450 -0.092040 67.000000
4.386854 -1.995150 -0.092120 67.000000
1.948349 0.981965 -0.034162 68.000000
1.952247 0.976430 -0.034194 68.000000
1.953442 0.969548 -0.034129 68.000000
1.957304 0.963992 -0.034162 68.000000
1.961151 0.958420 -0.034194 68.000000
1.962283 0.951528 -0.034129 68.000000
1.963391 0.944638 -0.034064 68.000000
1.964475 0.937749 -0.033999 68.000000
1.967343 0.931718 -0.033999 68.000000
1.969288 0.925253 -0.033967 68.000000
1.971211 0.918786 -0.033934 68.000000
1.971298 0.911477 -0.033837 68.000000
1.974085 0.905425 -0.033837 68.000000
1.976854 0.899364 -0.033837 68.000000
1.981426 0.894116 -0.033902 68.000000
1.984160 0.888033 -0.033902 68.000000
1.988702 0.882751 -0.033967 68.000000
1.992316 0.877048 -0.033999 68.000000
1.994998 0.870932 -0.033999 68.000000
1.997660 0.864807 -0.033999 68.000000
2.000304 0.858674 -0.033999 68.000000
2.002009 0.852143 -0.033967 68.000000
2.002772 0.845220 -0.033902 68.000000
2.004433 0.838686 -0.033869 68.000000
2.006997 0.832533 -0.033869 68.000000
2.008617 0.825992 -0.033837 68.000000
2.008365 0.818695 -0.033740 68.000000
2.011794 0.812904 -0.033772 68.000000
2.015206 0.807099 -0.033804 68.000000
2.017673 0.800913 -0.033804 68.000000
2.019190 0.794353 -0.033772 68.000000
2.022549 0.788518 -0.033804 68.000000
2.024959 0.782309 -0.033804 68.000000
2.027349 0.776093 -0.033804 68.000000
2.029721 0.769869 -0.033804 68.000000
2.033009 0.763989 -0.033837 68.000000
2.033470 0.757052 -0.033772 68.000000
2.035783 0.750810 -0.033772 68.000000
2.039016 0.744903 -0.033804 68.000000
2.041291 0.738644 -0.033804 68.000000
2.042607 0.732041 -0.033772 68.000000
2.042959 0.725104 -0.033707 68.000000
2.044231 0.718502 -0.033675 68.000000
2.043593 0.711243 -0.033577 68.000000
2.045766 0.704970 -0.033577 68.000000
2.046026 0.698046 -0.033512 68.000000
2.049106 0.692084 -0.033545 68.000000
2.050271 0.685478 -0.033512 68.000000
2.052365 0.679185 -0.033512 68.000000
2.056339 0.673506 -0.033577 68.000000
2.059346 0.667502 -0.033610 68.000000
2.063288 0.661790 -0.033675 68.000000
2.067214 0.656061 -0.033740 68.000000
2.069217 0.649716 -0.033740 68.000000
2.071201 0.643364 -0.033740 68.000000
2.072209 0.636714 -0.033707 68.000000
2.077022 0.631224 -0.033804 68.000000
2.078949 0.624849 -0.033804 68.000000
2.079898 0.618183 -0.033772 68.000000
2.082744 0.612081 -0.033804 68.000000
2.084612 0.605688 -0.033804 68.000000
2.086461 0.599290 -0.033804 68.000000
2.090213 0.593431 -0.033869 68.000000
2.092986 0.587285 -0.033902 68.000000
2.092851 0.580328 -0.033837 68.000000
2.093657 0.573640 -0.033804 68.000000
2.096373 0.567475 -0.033837 68.000000
2.099069 0.561299 -0.033869 68.000000
2.101748 0.555111 -0.033902 68.000000
2.103441 0.548660 -0.033902 68.000000
2.108019 0.542951 -0.033999 68.000000
2.109674 0.536481 -0.033999 68.000000
2.112280 0.530249 -0.034032 68.000000
2.114867 0.524006 -0.034064 68.000000
2.117436 0.517752 -0.034097 68.000000
2.118042 0.511019 -0.034064 68.000000
2.118628 0.504288 -0.034032 68.000000
2.119192 0.497558 -0.033999 68.000000
2.120708 0.491054 -0.033999 68.000000
2.122205 0.484545 -0.033999 68.000000
2.124657 0.478251 -0.034032 68.000000
2.129041 0.472378 -0.034129 68.000000
2.132434 0.466270 -0.034194 68.000000
2.135808 0.460146 -0.034259 68.000000
2.136232 0.453384 -0.034226 68.000000
2.139570 0.447236 -0.034291 68.000000
2.142890 0.441072 -0.034356 68.000000
2.145213 0.434693 -0.034389 68.000000
2.146537 0.428110 -0.034389 68.000000
2.147840 0.421522 -0.034389 68.000000
2.149123 0.414931 -0.034389 68.000000
2.149404 0.408150 -0.034356 68.000000
2.151628 0.401736 -0.034389 68.000000
2.217739 0.407007 -0.036531 68.000000
2.517037 0.453799 -0.046366 68.000000
2.508575 0.444336 -0.046041 68.000000
2.533561 0.440738 -0.046820 68.000000
2.544754 0.434641 -0.047144 68.000000
2.548047 0.427162 -0.047209 68.000000
2.549345 0.419342 -0.047209 68.000000
2.563448 0.413583 -0.047631 68.000000
2.580501 0.408208 -0.048151 68.000000
2.586680 0.401053 -0.048313 68.000000
2.592839 0.393863 -0.048475 68.000000
2.600956 0.386933 -0.048702 68.000000
2.611032 0.380244 -0.048995 68.000000
2.604270 0.371107 -0.048735 68.000000
2.607377 0.363391 -0.048800 68.000000
4.505990 -1.996213 -0.123355 68.000000
4.454220 -1.989635 -0.121732 68.000000
1.937301 0.982893 -0.047421 69.000000
1.948341 0.980988 -0.047770 69.000000
1.954917 0.976792 -0.047925 69.000000
1.956114 0.969902 -0.047847 69.000000
1.958184 0.963455 -0.047808 69.000000
1.960232 0.957005 -0.047770 69.000000
1.962260 0.950551 -0.047731 69.000000
1.963365 0.943661 -0.047654 69.000000
1.965349 0.937203 -0.047615 69.000000
1.969119 0.931596 -0.047654 69.000000
1.970158 0.924702 -0.047576 69.000000
1.972080 0.918232 -0.047537 69.000000
1.973073 0.911339 -0.047460 69.000000
1.975860 0.905282 -0.047460 69.000000
1.978628 0.899216 -0.047460 69.000000
1.982288 0.893552 -0.047499 69.000000
1.984108 0.887058 -0.047460 69.000000
1.986820 0.880967 -0.047460 69.000000
1.989514 0.874867 -0.047460 69.000000
1.992188 0.868759 -0.047460 69.000000
1.996679 0.863436 -0.047537 69.000000
1.997482 0.856519 -0.047460 69.000000
2.000100 0.850387 -0.047460 69.000000
2.002699 0.844247 -0.047460 69.000000
2.002514 0.836943 -0.047344 69.000000
2.005072 0.830795 -0.047344 69.000000
2.007612 0.824640 -0.047344 69.000000
2.007356 0.817347 -0.047227 69.000000
2.009854 0.811185 -0.047227 69.000000
2.012333 0.805015 -0.047227 69.000000
2.014793 0.798837 -0.047227 69.000000
2.018165 0.793017 -0.047266 69.000000
2.022450 0.787547 -0.047344 69.000000
2.025789 0.781698 -0.047382 69.000000
2.027245 0.775122 -0.047344 69.000000
2.030548 0.769253 -0.047382 69.000000
2.033834 0.763371 -0.047421 69.000000
2.035230 0.756779 -0.047382 69.000000
2.037542 0.750532 -0.047382 69.000000
2.041712 0.744962 -0.047460 69.000000
2.041169 0.737676 -0.047344 69.000000
2.043422 0.731410 -0.047344 69.000000
2.044715 0.724804 -0.047305 69.000000
2.045986 0.718197 -0.047266 69.000000
2.047236 0.711589 -0.047227 69.000000
2.049409 0.705304 -0.047227 69.000000
2.050617 0.698691 -0.047189 69.000000
2.051805 0.692078 -0.047150 69.000000
2.052022 0.685147 -0.047072 69.000000
2.055063 0.679162 -0.047111 69.000000
2.058087 0.673164 -0.047150 69.000000
2.061094 0.667154 -0.047189 69.000000
2.064082 0.661133 -0.047227 69.000000
2.066101 0.654797 -0.047227 69.000000
2.068100 0.648455 -0.047227 69.000000
2.070080 0.642107 -0.047227 69.000000
2.072040 0.635753 -0.047227 69.000000
2.073981 0.629393 -0.047227 69.000000
2.076859 0.623315 -0.047266 69.000000
2.077804 0.616656 -0.047227 69.000000
2.079686 0.610278 -0.047227 69.000000
2.082508 0.604173 -0.047266 69.000000
2.084352 0.597781 -0.047266 69.000000
2.088099 0.591929 -0.047344 69.000000
2.090867 0.585789 -0.047382 69.000000
2.091691 0.579105 -0.047344 69.000000
2.095386 0.573212 -0.047421 69.000000
2.096170 0.566520 -0.047382 69.000000
2.099829 0.560602 -0.047460 69.000000
2.102505 0.554412 -0.047499 69.000000
2.104197 0.547959 -0.047499 69.000000
2.107803 0.541998 -0.047576 69.000000
2.111393 0.536020 -0.047654 69.000000
2.113997 0.529783 -0.047692 69.000000
2.115613 0.523295 -0.047692 69.000000
2.117208 0.516801 -0.047692 69.000000
2.118784 0.510303 -0.047692 69.000000
2.120339 0.503801 -0.047692 69.000000
2.121875 0.497293 -0.047692 69.000000
2.123391 0.490781 -0.047692 69.000000
2.124887 0.484264 -0.047692 69.000000
2.126362 0.477743 -0.047692 69.000000
2.127818 0.471217 -0.047692 69.000000
2.131206 0.465113 -0.047770 69.000000
2.135554 0.459202 -0.047886 69.000000
2.136953 0.452648 -0.047886 69.000000
2.139310 0.446293 -0.047925 69.000000
2.143605 0.440331 -0.048041 69.000000
2.145926 0.433950 -0.048080 69.000000
2.148227 0.427559 -0.048118 69.000000
2.151490 0.421350 -0.048196 69.000000
2.154735 0.415125 -0.048273 69.000000
2.155016 0.408327 -0.048235 69.000000
2.158224 0.402079 -0.048312 69.000000
2.532963 0.463789 -0.063032 69.000000
2.549126 0.458668 -0.063613 69.000000
2.554457 0.451540 -0.063768 69.000000
2.551892 0.443018 -0.063613 69.000000
2.550284 0.434684 -0.063497 69.000000
2.571317 0.430152 -0.064272 69.000000
2.567695 0.421453 -0.064078 69.000000
2.576868 0.414843 -0.064388 69.000000
2.585038 0.408024 -0.064659 69.000000
2.592203 0.401007 -0.064891 69.000000
2.602313 0.394399 -0.065240 69.000000
2.607464 0.387000 -0.065395 69.000000
2.613584 0.379716 -0.065589 69.000000
2.599897 0.369588 -0.065008 69.000000
2.569346 0.357212 -0.063768 69.000000
1.932589 0.986571 -0.060128 70.000000
1.940953 0.983347 -0.060396 70.000000
1.946638 0.978734 -0.060530 70.000000
1.947844 0.971865 -0.060440 70.000000
1.949921 0.965441 -0.060396 70.000000
1.950184 0.958132 -0.060262 70.000000
1.957604 0.954334 -0.060485 70.000000
1.958724 0.947454 -0.060396 70.000000
1.960721 0.941007 -0.060351 70.000000
1.962697 0.934558 -0.060306 70.000000
1.966458 0.928959 -0.060351 70.000000
1.968394 0.922498 -0.060306 70.000000
1.970309 0.916033 -0.060262 70.000000
