# This PCD file was generated using the MATLAB® pcwrite function
# from Computer Vision Toolbox®.
# .PCD v.7 - Point Cloud Data file format
VERSION .7
FIELDS x y z intensity
SIZE 4 4 4 4
TYPE F F F F
COUNT 1 1 1 1
WIDTH 1282
HEIGHT 1
VIEWPOINT 0 0 0 1 0 0 0
POINTS 1282
DATA ascii
2.342194 0.347138 0.553304 27.000000
2.343248 0.339951 0.553304 27.000000
2.343313 0.332622 0.553090 27.000000
2.345290 0.325566 0.553304 27.000000
2.346278 0.318370 0.553304 27.000000
2.347244 0.311170 0.553304 27.000000
2.348187 0.303967 0.553304 27.000000
2.349109 0.296762 0.553304 27.000000
2.348069 0.289313 0.552875 27.000000
2.350885 0.282342 0.553304 27.000000
2.352710 0.275242 0.553519 27.000000
2.355484 0.268245 0.553949 27.000000
2.358238 0.261233 0.554378 27.000000
2.359028 0.253997 0.554378 27.000000
2.360768 0.246861 0.554593 27.000000
2.361514 0.239617 0.554593 27.000000
2.362238 0.232370 0.554593 27.000000
2.363912 0.225215 0.554807 27.000000
2.363619 0.217872 0.554593 27.000000
2.365249 0.210706 0.554807 27.000000
2.366858 0.203533 0.555022 27.000000
2.370391 0.196514 0.555666 27.000000
2.372930 0.189397 0.556096 27.000000
2.375447 0.182267 0.556525 27.000000
2.380865 0.175339 0.557599 27.000000
2.381392 0.168034 0.557599 27.000000
2.382870 0.160793 0.557814 27.000000
2.383353 0.153482 0.557814 27.000000
2.382838 0.146109 0.557599 27.000000
2.382299 0.138741 0.557384 27.000000
2.361260 0.130237 0.552660 27.000000
2.329463 0.121300 0.545574 27.000000
2.334960 0.392370 0.539532 28.000000
2.331329 0.384412 0.538486 28.000000
2.331532 0.377102 0.538277 28.000000
2.333643 0.370100 0.538486 28.000000
2.334768 0.362939 0.538486 28.000000
2.334903 0.355627 0.538277 28.000000
2.335984 0.348462 0.538277 28.000000
2.339945 0.341716 0.538905 28.000000
2.340982 0.334536 0.538905 28.000000
2.341997 0.327352 0.538905 28.000000
2.343960 0.320297 0.539114 28.000000
2.344931 0.313105 0.539114 28.000000
2.346850 0.306035 0.539323 28.000000
2.346808 0.298711 0.539114 28.000000
2.349654 0.291749 0.539532 28.000000
2.350538 0.284539 0.539532 28.000000
2.352372 0.277441 0.539742 28.000000
2.355155 0.270445 0.540160 28.000000
2.355001 0.263110 0.539951 28.000000
2.355798 0.255883 0.539951 28.000000
2.356572 0.248655 0.539951 28.000000
2.358296 0.241523 0.540160 28.000000
2.359026 0.234287 0.540160 28.000000
2.361681 0.227234 0.540579 28.000000
2.362367 0.219988 0.540579 28.000000
2.363030 0.212739 0.540579 28.000000
2.365620 0.205657 0.540997 28.000000
2.368189 0.198561 0.541416 28.000000
2.371711 0.191529 0.542044 28.000000
2.375213 0.184478 0.542672 28.000000
2.380643 0.177551 0.543718 28.000000
2.381177 0.170246 0.543718 28.000000
2.382664 0.163006 0.543927 28.000000
2.384128 0.155759 0.544136 28.000000
2.385571 0.148504 0.544346 28.000000
2.384063 0.141070 0.543927 28.000000
2.385461 0.133810 0.544136 28.000000
2.388790 0.126644 0.544764 28.000000
2.391120 0.119412 0.545183 28.000000
2.391475 0.112075 0.545183 28.000000
2.396693 0.104949 0.546229 28.000000
2.399935 0.097714 0.546857 28.000000
2.379702 0.089588 0.542462 28.000000
2.329441 0.390556 0.523326 29.000000
2.332561 0.383725 0.523733 29.000000
2.332760 0.376411 0.523530 29.000000
2.333904 0.369253 0.523530 29.000000
2.335993 0.362241 0.523733 29.000000
2.337094 0.355072 0.523733 29.000000
2.336235 0.347613 0.523326 29.000000
2.337291 0.340443 0.523326 29.000000
2.338324 0.333271 0.523326 29.000000
2.339335 0.326096 0.523326 29.000000
2.342265 0.319181 0.523733 29.000000
2.343233 0.311994 0.523733 29.000000
2.345150 0.304929 0.523936 29.000000
2.348018 0.297979 0.524343 29.000000
2.352808 0.291255 0.525156 29.000000
2.353690 0.284035 0.525156 29.000000
2.354551 0.276813 0.525156 29.000000
2.356362 0.269699 0.525359 29.000000
2.357178 0.262469 0.525359 29.000000
2.356025 0.255025 0.524953 29.000000
2.356797 0.247796 0.524953 29.000000
2.358520 0.240663 0.525156 29.000000
2.359247 0.233426 0.525156 29.000000
2.359952 0.226187 0.525156 29.000000
2.361610 0.219036 0.525359 29.000000
2.364221 0.211964 0.525766 29.000000
2.366811 0.204879 0.526172 29.000000
2.369380 0.197779 0.526579 29.000000
2.373880 0.190822 0.527392 29.000000
2.377383 0.183764 0.528002 29.000000
2.381841 0.176759 0.528815 29.000000
2.382372 0.169451 0.528815 29.000000
2.382881 0.162141 0.528815 29.000000
2.384344 0.154893 0.529019 29.000000
2.386762 0.147698 0.529425 29.000000
2.387204 0.140374 0.529425 29.000000
2.387624 0.133050 0.529425 29.000000
2.390954 0.125878 0.530035 29.000000
2.393285 0.118639 0.530442 29.000000
2.392659 0.111250 0.530238 29.000000
2.398859 0.104163 0.531458 29.000000
2.401124 0.096882 0.531865 29.000000
2.401410 0.089515 0.531865 29.000000
2.400694 0.082114 0.531662 29.000000
2.398978 0.074687 0.531255 29.000000
2.399195 0.067327 0.531255 29.000000
2.391560 0.059772 0.529629 29.000000
2.420120 0.053052 0.535524 29.000000
2.320639 0.395515 0.506815 30.000000
2.324743 0.388879 0.507407 30.000000
2.327859 0.382063 0.507801 30.000000
2.332892 0.375543 0.508591 30.000000
2.335970 0.368690 0.508985 30.000000
2.336121 0.361372 0.508788 30.000000
2.338188 0.354350 0.508985 30.000000
2.337325 0.346887 0.508591 30.000000
2.337408 0.339573 0.508393 30.000000
2.334556 0.331848 0.507604 30.000000
2.332651 0.324279 0.507012 30.000000
2.334606 0.317253 0.507210 30.000000
2.334596 0.309960 0.507012 30.000000
2.336509 0.302922 0.507210 30.000000
2.340345 0.296122 0.507801 30.000000
2.345134 0.289421 0.508591 30.000000
2.348931 0.282577 0.509183 30.000000
2.351734 0.275598 0.509577 30.000000
2.353542 0.268493 0.509775 30.000000
2.357278 0.261596 0.510367 30.000000
2.355145 0.254047 0.509775 30.000000
2.356889 0.246922 0.509972 30.000000
2.359586 0.239889 0.510367 30.000000
2.361286 0.232745 0.510564 30.000000
2.361989 0.225500 0.510564 30.000000
2.364622 0.218433 0.510959 30.000000
2.367234 0.211352 0.511353 30.000000
2.367871 0.204088 0.511353 30.000000
2.370440 0.196985 0.511748 30.000000
2.373965 0.189947 0.512340 30.000000
2.375514 0.182738 0.512537 30.000000
2.378997 0.175667 0.513129 30.000000
2.379524 0.168367 0.513129 30.000000
2.380030 0.161066 0.513129 30.000000
2.382469 0.153890 0.513524 30.000000
2.383909 0.146640 0.513721 30.000000
2.387283 0.139498 0.514313 30.000000
2.387700 0.132173 0.514313 30.000000
2.389073 0.124899 0.514510 30.000000
2.391403 0.117665 0.514905 30.000000
2.392732 0.110373 0.515102 30.000000
2.397957 0.103244 0.516089 30.000000
2.399242 0.095926 0.516286 30.000000
2.398545 0.088528 0.516089 30.000000
2.398806 0.081169 0.516089 30.000000
2.401983 0.073900 0.516681 30.000000
2.399259 0.066449 0.516089 30.000000
2.399451 0.059088 0.516089 30.000000
2.397661 0.051683 0.515694 30.000000
2.399769 0.044364 0.516089 30.000000
2.398913 0.036986 0.515891 30.000000
2.399996 0.029638 0.516089 30.000000
2.423602 0.022497 0.520824 30.000000
2.423660 0.015062 0.520824 30.000000
2.316436 0.401225 0.491782 31.000000
2.321527 0.394777 0.492548 31.000000
2.322727 0.387652 0.492548 31.000000
2.327779 0.381161 0.493314 31.000000
2.329906 0.374174 0.493505 31.000000
2.332983 0.367330 0.493888 31.000000
2.336038 0.360471 0.494271 31.000000
2.338104 0.353450 0.494463 31.000000
2.337235 0.345986 0.494080 31.000000
2.337315 0.338673 0.493888 31.000000
2.335428 0.331086 0.493314 31.000000
2.336432 0.323919 0.493314 31.000000
2.334497 0.316353 0.492739 31.000000
2.335457 0.309189 0.492739 31.000000
2.337368 0.302149 0.492931 31.000000
2.340231 0.295223 0.493314 31.000000
2.345996 0.288644 0.494271 31.000000
2.346871 0.281445 0.494271 31.000000
2.349673 0.274473 0.494654 31.000000
2.352454 0.267485 0.495037 31.000000
2.356190 0.260592 0.495612 31.000000
2.356979 0.253362 0.495612 31.000000
2.357745 0.246130 0.495612 31.000000
2.359465 0.238994 0.495803 31.000000
2.361164 0.231851 0.495995 31.000000
2.362842 0.224699 0.496186 31.000000
2.364497 0.217540 0.496378 31.000000
2.367109 0.210459 0.496761 31.000000
2.369699 0.203365 0.497144 31.000000
2.370311 0.196094 0.497144 31.000000
2.374815 0.189134 0.497910 31.000000
2.377342 0.181998 0.498293 31.000000
2.378868 0.174776 0.498484 31.000000
2.379393 0.167477 0.498484 31.000000
2.379895 0.160177 0.498484 31.000000
2.380376 0.152874 0.498484 31.000000
2.382793 0.145692 0.498867 31.000000
2.384208 0.138438 0.499059 31.000000
2.386582 0.131231 0.499442 31.000000
2.385993 0.123858 0.499250 31.000000
2.388322 0.116634 0.499633 31.000000
2.389649 0.109351 0.499825 31.000000
2.394876 0.102231 0.500782 31.000000
2.395179 0.094883 0.500782 31.000000
2.398401 0.087643 0.501357 31.000000
2.398659 0.080285 0.501357 31.000000
2.399875 0.072956 0.501548 31.000000
2.402050 0.065647 0.501931 31.000000
2.404202 0.058326 0.502314 31.000000
2.403388 0.050928 0.502123 31.000000
2.405496 0.043591 0.502506 31.000000
2.403656 0.036181 0.502123 31.000000
2.403755 0.028806 0.502123 31.000000
2.403832 0.021431 0.502123 31.000000
2.402905 0.014050 0.501931 31.000000
2.403919 0.006681 0.502123 31.000000
2.400983 -0.000694 0.501548 31.000000
2.407840 -0.008080 0.502889 31.000000
2.385230 -0.015333 0.498484 31.000000
2.367506 -0.022492 0.495037 31.000000
2.309751 0.403146 0.476652 32.000000
2.317757 0.397216 0.477953 32.000000
2.318965 0.390104 0.477953 32.000000
2.321120 0.383147 0.478139 32.000000
2.323255 0.376181 0.478325 32.000000
2.326339 0.369359 0.478697 32.000000
2.327461 0.362220 0.478697 32.000000
2.333419 0.355816 0.479626 32.000000
2.333528 0.348510 0.479440 32.000000
2.336530 0.341633 0.479812 32.000000
2.336595 0.334324 0.479626 32.000000
2.338583 0.327290 0.479812 32.000000
2.338602 0.319981 0.479626 32.000000
2.338599 0.312675 0.479440 32.000000
2.340522 0.305626 0.479626 32.000000
2.342423 0.298567 0.479812 32.000000
2.343328 0.291379 0.479812 32.000000
2.347137 0.284542 0.480369 32.000000
2.348975 0.277455 0.480555 32.000000
2.352744 0.270582 0.481112 32.000000
2.353563 0.263363 0.481112 32.000000
2.355337 0.256247 0.481298 32.000000
2.358066 0.249225 0.481670 32.000000
2.356864 0.241790 0.481298 32.000000
2.359551 0.234751 0.481670 32.000000
2.362216 0.227699 0.482042 32.000000
2.365839 0.220723 0.482599 32.000000
2.366505 0.213464 0.482599 32.000000
2.370085 0.206457 0.483157 32.000000
2.370708 0.199185 0.483157 32.000000
2.373266 0.192068 0.483528 32.000000
2.374824 0.184862 0.483714 32.000000
2.376360 0.177648 0.483900 32.000000
2.375914 0.170287 0.483714 32.000000
2.378386 0.163130 0.484086 32.000000
2.379855 0.155896 0.484272 32.000000
2.382284 0.148716 0.484643 32.000000
2.383710 0.141464 0.484829 32.000000
2.389038 0.134424 0.485758 32.000000
2.386495 0.126939 0.485201 32.000000
2.387855 0.119665 0.485387 32.000000
2.391155 0.112476 0.485944 32.000000
2.394434 0.105267 0.486502 32.000000
2.396709 0.098000 0.486873 32.000000
2.398962 0.090720 0.487245 32.000000
2.400212 0.083393 0.487431 32.000000
2.403402 0.076121 0.487989 32.000000
2.405589 0.068803 0.488360 32.000000
2.407753 0.061471 0.488732 32.000000
2.407931 0.054084 0.488732 32.000000
2.408085 0.046696 0.488732 32.000000
2.408217 0.039308 0.488732 32.000000
2.406361 0.031895 0.488360 32.000000
2.405465 0.024502 0.488174 32.000000
2.412407 0.017168 0.489475 32.000000
2.411466 0.009763 0.489289 32.000000
2.411484 0.002365 0.489289 32.000000
2.413445 -0.005038 0.489661 32.000000
2.415384 -0.012454 0.490033 32.000000
2.416317 -0.019873 0.490219 32.000000
2.418210 -0.027309 0.490590 32.000000
2.418114 -0.034728 0.490590 32.000000
2.417996 -0.042146 0.490590 32.000000
2.421785 -0.049647 0.491334 32.000000
2.404922 -0.056675 0.488174 32.000000
2.319942 0.410952 0.464853 33.000000
2.319253 0.403495 0.464493 33.000000
2.318541 0.396047 0.464132 33.000000
2.317805 0.388607 0.463772 33.000000
2.320928 0.381813 0.464132 33.000000
2.321117 0.374535 0.463952 33.000000
2.323227 0.367565 0.464132 33.000000
2.325316 0.360587 0.464313 33.000000
2.328356 0.353746 0.464673 33.000000
2.334295 0.347324 0.465574 33.000000
2.336323 0.340303 0.465754 33.000000
2.338330 0.333272 0.465934 33.000000
2.341290 0.326368 0.466295 33.000000
2.342280 0.319183 0.466295 33.000000
2.343248 0.311996 0.466295 33.000000
2.342243 0.304552 0.465934 33.000000
2.344143 0.297488 0.466114 33.000000
2.346020 0.290416 0.466295 33.000000
2.347877 0.283335 0.466475 33.000000
2.348735 0.276130 0.466475 33.000000
2.352503 0.269258 0.467015 33.000000
2.356251 0.262366 0.467556 33.000000
2.360957 0.255558 0.468277 33.000000
2.358795 0.248006 0.467736 33.000000
2.360523 0.240868 0.467916 33.000000
2.361251 0.233624 0.467916 33.000000
2.364894 0.226660 0.468457 33.000000
2.364599 0.219313 0.468277 33.000000
2.366240 0.212145 0.468457 33.000000
2.367860 0.204969 0.468637 33.000000
2.367497 0.197622 0.468457 33.000000
2.370054 0.190515 0.468817 33.000000
2.371608 0.183319 0.468997 33.000000
2.373140 0.176115 0.469177 33.000000
2.374650 0.168903 0.469358 33.000000
2.376138 0.161683 0.469538 33.000000
2.377605 0.154456 0.469718 33.000000
2.381013 0.147343 0.470258 33.000000
2.382436 0.140095 0.470439 33.000000
2.382854 0.132785 0.470439 33.000000
2.384233 0.125525 0.470619 33.000000
2.386571 0.118307 0.470979 33.000000
2.389871 0.111121 0.471520 33.000000
2.393149 0.103916 0.472060 33.000000
2.396405 0.096692 0.472601 33.000000
2.400622 0.089486 0.473321 33.000000
2.400885 0.082120 0.473321 33.000000
2.404075 0.074845 0.473862 33.000000
2.409210 0.067607 0.474763 33.000000
2.410389 0.060239 0.474943 33.000000
2.410563 0.052844 0.474943 33.000000
2.410714 0.045448 0.474943 33.000000
2.411825 0.038067 0.475123 33.000000
2.415865 0.030717 0.475844 33.000000
2.412014 0.023268 0.475123 33.000000
2.414041 0.015881 0.475484 33.000000
2.418013 0.008488 0.476204 33.000000
2.418027 0.001069 0.476204 33.000000
2.417036 -0.006346 0.476024 33.000000
2.417005 -0.013762 0.476024 33.000000
2.419902 -0.021203 0.476565 33.000000
2.416875 -0.028592 0.476024 33.000000
2.418743 -0.036036 0.476384 33.000000
2.419604 -0.043475 0.476565 33.000000
2.421426 -0.050939 0.476925 33.000000
2.419292 -0.058320 0.476565 33.000000
2.418118 -0.065715 0.476384 33.000000
2.420855 -0.073223 0.476925 33.000000
2.422585 -0.080716 0.477285 33.000000
2.426258 -0.088292 0.478006 33.000000
2.312638 0.416089 0.448982 34.000000
2.314873 0.409163 0.449156 34.000000
2.312237 0.401385 0.448460 34.000000
2.312486 0.394124 0.448285 34.000000
2.313685 0.387027 0.448285 34.000000
2.314861 0.379927 0.448285 34.000000
2.316988 0.372980 0.448460 34.000000
2.318121 0.365870 0.448460 34.000000
2.321179 0.359058 0.448808 34.000000
2.323244 0.352083 0.448982 34.000000
2.328209 0.345532 0.449679 34.000000
2.333156 0.338955 0.450375 34.000000
2.334185 0.331795 0.450375 34.000000
2.336167 0.324768 0.450549 34.000000
2.339104 0.317865 0.450898 34.000000
2.340068 0.310687 0.450898 34.000000
2.340034 0.303380 0.450724 34.000000
2.342907 0.296447 0.451072 34.000000
2.343806 0.289257 0.451072 34.000000
2.346637 0.282301 0.451420 34.000000
2.345536 0.274870 0.451072 34.000000
2.352239 0.268344 0.452117 34.000000
2.354030 0.261235 0.452291 34.000000
2.356778 0.254223 0.452639 34.000000
2.357547 0.246991 0.452639 34.000000
2.363192 0.240256 0.453510 34.000000
2.362938 0.232908 0.453336 34.000000
2.364622 0.225751 0.453510 34.000000
2.365303 0.218496 0.453510 34.000000
2.365962 0.211238 0.453510 34.000000
2.366599 0.203978 0.453510 34.000000
2.367214 0.196717 0.453510 34.000000
2.367806 0.189453 0.453510 34.000000
2.370340 0.182339 0.453859 34.000000
2.370888 0.175067 0.453859 34.000000
2.375343 0.168071 0.454555 34.000000
2.377812 0.160916 0.454904 34.000000
2.378295 0.153620 0.454904 34.000000
2.382686 0.146565 0.455600 34.000000
2.382142 0.139197 0.455426 34.000000
2.384524 0.131997 0.455774 34.000000
2.386885 0.124784 0.456123 34.000000
2.387256 0.117460 0.456123 34.000000
2.390556 0.110273 0.456645 34.000000
2.391867 0.102980 0.456819 34.000000
2.394140 0.095721 0.457168 34.000000
2.397374 0.088485 0.457690 34.000000
2.397635 0.081129 0.457690 34.000000
2.402793 0.073925 0.458561 34.000000
2.404977 0.066608 0.458909 34.000000
2.409108 0.059327 0.459606 34.000000
2.408294 0.051914 0.459432 34.000000
2.407458 0.044507 0.459258 34.000000
2.410537 0.037167 0.459780 34.000000
2.413593 0.029808 0.460303 34.000000
2.410719 0.022375 0.459780 34.000000
2.412746 0.014992 0.460128 34.000000
2.415735 0.007599 0.460651 34.000000
2.416732 0.000188 0.460825 34.000000
2.414751 -0.007221 0.460477 34.000000
2.416687 -0.014641 0.460825 34.000000
2.416631 -0.022055 0.460825 34.000000
2.416552 -0.029469 0.460825 34.000000
2.416450 -0.036882 0.460825 34.000000
2.418295 -0.044332 0.461173 34.000000
2.420116 -0.051792 0.461522 34.000000
2.419946 -0.059217 0.461522 34.000000
2.421722 -0.066695 0.461870 34.000000
2.423474 -0.074184 0.462218 34.000000
2.426188 -0.081718 0.462741 34.000000
2.426909 -0.089197 0.462915 34.000000
2.429576 -0.096759 0.463438 34.000000
2.429268 -0.104213 0.463438 34.000000
2.430904 -0.111755 0.463786 34.000000
2.422682 -0.118828 0.462393 34.000000
2.422306 -0.126260 0.462393 34.000000
2.313080 0.422193 0.434141 35.000000
2.308543 0.414048 0.433133 35.000000
2.311744 0.407306 0.433469 35.000000
2.312012 0.400044 0.433301 35.000000
2.309341 0.392286 0.432629 35.000000
2.310534 0.385199 0.432629 35.000000
2.313650 0.378428 0.432965 35.000000
2.312854 0.371015 0.432629 35.000000
2.315928 0.364225 0.432965 35.000000
2.319958 0.357570 0.433469 35.000000
2.322018 0.350598 0.433637 35.000000
2.326984 0.344051 0.434309 35.000000
2.328028 0.336911 0.434309 35.000000
2.332955 0.330322 0.434981 35.000000
2.335910 0.323434 0.435317 35.000000
2.337868 0.316399 0.435485 35.000000
2.340782 0.309484 0.435821 35.000000
2.340743 0.302175 0.435653 35.000000
2.342637 0.295116 0.435821 35.000000
2.342553 0.287806 0.435653 35.000000
2.343425 0.280618 0.435653 35.000000
2.344275 0.273427 0.435653 35.000000
2.348041 0.266569 0.436157 35.000000
2.347868 0.259255 0.435989 35.000000
2.348653 0.252051 0.435989 35.000000
2.350395 0.244947 0.436157 35.000000
2.354078 0.238034 0.436661 35.000000
2.354797 0.230810 0.436661 35.000000
2.358438 0.223866 0.437165 35.000000
2.359114 0.216629 0.437165 35.000000
2.359767 0.209390 0.437165 35.000000
2.363345 0.202404 0.437669 35.000000
2.363955 0.195152 0.437669 35.000000
2.364542 0.187899 0.437669 35.000000
2.368057 0.180870 0.438173 35.000000
2.369583 0.173677 0.438341 35.000000
2.374038 0.166684 0.439012 35.000000
2.377489 0.159599 0.439516 35.000000
2.378952 0.152368 0.439684 35.000000
2.383343 0.145311 0.440356 35.000000
2.381810 0.137883 0.440020 35.000000
2.384190 0.130684 0.440356 35.000000
2.387533 0.123523 0.440860 35.000000
2.386916 0.116149 0.440692 35.000000
2.389231 0.108917 0.441028 35.000000
2.390539 0.101628 0.441196 35.000000
2.391824 0.094333 0.441364 35.000000
2.394073 0.087067 0.441700 35.000000
2.395314 0.079755 0.441868 35.000000
2.396533 0.072436 0.442036 35.000000
2.399700 0.065165 0.442540 35.000000
2.403831 0.057900 0.443212 35.000000
2.403011 0.050503 0.443044 35.000000
2.403155 0.043131 0.443044 35.000000
2.407218 0.035818 0.443716 35.000000
2.408303 0.028445 0.443884 35.000000
2.407393 0.021047 0.443716 35.000000
2.410403 0.013680 0.444220 35.000000
2.411420 0.006288 0.444388 35.000000
2.413399 -0.001110 0.444724 35.000000
2.407470 -0.008497 0.443716 35.000000
2.412361 -0.015913 0.444556 35.000000
2.414273 -0.023332 0.444891 35.000000
2.413204 -0.030726 0.444724 35.000000
2.416055 -0.038175 0.445227 35.000000
2.412970 -0.045533 0.444724 35.000000
2.419718 -0.053084 0.445899 35.000000
2.419544 -0.060507 0.445899 35.000000
2.420332 -0.067957 0.446067 35.000000
2.424054 -0.075503 0.446739 35.000000
2.426766 -0.083039 0.447243 35.000000
2.427485 -0.090520 0.447411 35.000000
2.430151 -0.098085 0.447915 35.000000
2.431808 -0.105625 0.448251 35.000000
2.431473 -0.113085 0.448251 35.000000
2.434068 -0.120689 0.448755 35.000000
2.435656 -0.128259 0.449091 35.000000
2.436235 -0.135785 0.449259 35.000000
2.438759 -0.143431 0.449763 35.000000
2.440276 -0.151033 0.450099 35.000000
2.453573 -0.159408 0.452450 35.000000
2.475694 -0.168463 0.456314 35.000000
2.332758 0.436711 0.423929 36.000000
2.308853 0.424921 0.419709 36.000000
2.305290 0.416960 0.418898 36.000000
2.310445 0.410574 0.419547 36.000000
2.309749 0.403146 0.419222 36.000000
2.310975 0.396058 0.419222 36.000000
2.311206 0.388803 0.419060 36.000000
2.313362 0.381870 0.419222 36.000000
2.315497 0.374928 0.419385 36.000000
2.316636 0.367823 0.419385 36.000000
2.318729 0.360865 0.419547 36.000000
2.323727 0.354343 0.420196 36.000000
2.322851 0.346921 0.419872 36.000000
2.328787 0.340505 0.420683 36.000000
2.329821 0.333358 0.420683 36.000000
2.333764 0.326618 0.421170 36.000000
2.335733 0.319590 0.421332 36.000000
2.338659 0.312683 0.421657 36.000000
2.340585 0.305634 0.421819 36.000000
2.343470 0.298700 0.422144 36.000000
2.342417 0.291267 0.421819 36.000000
2.344279 0.284197 0.421981 36.000000
2.345140 0.277004 0.421981 36.000000
2.345979 0.269807 0.421981 36.000000
2.344834 0.262390 0.421657 36.000000
2.345628 0.255195 0.421657 36.000000
2.347381 0.248101 0.421819 36.000000
2.350095 0.241099 0.422144 36.000000
2.350823 0.233887 0.422144 36.000000
2.354476 0.226957 0.422630 36.000000
2.355162 0.219732 0.422630 36.000000
2.358773 0.212770 0.423117 36.000000
2.359415 0.205533 0.423117 36.000000
2.362001 0.198457 0.423442 36.000000
2.363582 0.191289 0.423604 36.000000
2.365142 0.184113 0.423767 36.000000
2.366679 0.176929 0.423929 36.000000
2.372132 0.170017 0.424740 36.000000
2.373627 0.162806 0.424903 36.000000
2.377069 0.155715 0.425389 36.000000
2.378521 0.148483 0.425552 36.000000
2.380935 0.141301 0.425876 36.000000
2.384313 0.134160 0.426363 36.000000
2.384714 0.126845 0.426363 36.000000
2.386077 0.119577 0.426526 36.000000
2.386433 0.112256 0.426526 36.000000
2.384794 0.104848 0.426201 36.000000
2.386091 0.097571 0.426363 36.000000
2.388351 0.090324 0.426688 36.000000
2.387631 0.082962 0.426526 36.000000
2.386888 0.075606 0.426363 36.000000
2.392040 0.068421 0.427175 36.000000
2.393225 0.061107 0.427337 36.000000
2.393401 0.053765 0.427337 36.000000
2.396515 0.046477 0.427824 36.000000
2.399606 0.039172 0.428311 36.000000
2.400702 0.031822 0.428473 36.000000
2.402761 0.024476 0.428798 36.000000
2.404799 0.017117 0.429122 36.000000
2.407800 0.009750 0.429609 36.000000
2.409792 0.002364 0.429934 36.000000
2.409788 -0.005029 0.429934 36.000000
2.410748 -0.012428 0.430096 36.000000
2.412672 -0.019841 0.430421 36.000000
2.415560 -0.027278 0.430907 36.000000
2.416451 -0.034703 0.431070 36.000000
2.420280 -0.042187 0.431719 36.000000
2.421125 -0.049633 0.431881 36.000000
2.423921 -0.057132 0.432368 36.000000
2.424721 -0.064595 0.432530 36.000000
2.426484 -0.072093 0.432855 36.000000
2.427237 -0.079570 0.433017 36.000000
2.428954 -0.087088 0.433342 36.000000
2.429661 -0.094578 0.433504 36.000000
2.431331 -0.102115 0.433829 36.000000
2.431007 -0.109574 0.433829 36.000000
2.433616 -0.117176 0.434316 36.000000
2.436201 -0.124794 0.434802 36.000000
2.437778 -0.132376 0.435127 36.000000
2.439330 -0.139968 0.435452 36.000000
2.440859 -0.147571 0.435776 36.000000
2.442364 -0.155185 0.436101 36.000000
2.442861 -0.162743 0.436263 36.000000
2.444319 -0.170375 0.436588 36.000000
2.448705 -0.178234 0.437399 36.000000
2.443228 -0.185370 0.436588 36.000000
2.437729 -0.192474 0.435776 36.000000
2.307233 0.430226 0.404989 37.000000
2.308542 0.423146 0.404989 37.000000
2.307885 0.415711 0.404676 37.000000
2.310122 0.408801 0.404833 37.000000
2.311365 0.401712 0.404833 37.000000
2.312587 0.394619 0.404833 37.000000
2.314761 0.387685 0.404989 37.000000
2.318863 0.381061 0.405458 37.000000
2.319046 0.373788 0.405301 37.000000
2.321158 0.366826 0.405458 37.000000
2.322272 0.359703 0.405458 37.000000
2.327271 0.353169 0.406083 37.000000
2.325413 0.345592 0.405614 37.000000
2.326462 0.338456 0.405614 37.000000
2.327490 0.331317 0.405614 37.000000
2.330452 0.324447 0.405926 37.000000
2.331436 0.317296 0.405926 37.000000
2.335336 0.310532 0.406395 37.000000
2.337257 0.303492 0.406551 37.000000
2.340137 0.296568 0.406864 37.000000
2.341036 0.289388 0.406864 37.000000
2.341913 0.282204 0.406864 37.000000
2.342767 0.275018 0.406864 37.000000
2.344582 0.267941 0.407020 37.000000
2.344411 0.260638 0.406864 37.000000
2.345199 0.253444 0.406864 37.000000
2.346948 0.246351 0.407020 37.000000
2.349658 0.239349 0.407333 37.000000
2.351365 0.232236 0.407489 37.000000
2.355016 0.225303 0.407958 37.000000
2.357663 0.218259 0.408270 37.000000
2.361273 0.211288 0.408739 37.000000
2.361910 0.204043 0.408739 37.000000
2.364493 0.196959 0.409052 37.000000
2.365087 0.189704 0.409052 37.000000
2.366642 0.182523 0.409208 37.000000
2.368176 0.175334 0.409364 37.000000
2.370673 0.168207 0.409677 37.000000
2.371178 0.160933 0.409677 37.000000
2.374618 0.153849 0.410145 37.000000
2.376065 0.146624 0.410302 37.000000
2.378475 0.139449 0.410614 37.000000
2.380864 0.132260 0.410927 37.000000
2.383231 0.125058 0.411239 37.000000
2.385577 0.117843 0.411552 37.000000
2.384941 0.110478 0.411396 37.000000
2.386255 0.103204 0.411552 37.000000
2.386561 0.095882 0.411552 37.000000
2.386843 0.088560 0.411552 37.000000
2.384143 0.081136 0.411083 37.000000
2.385367 0.073852 0.411239 37.000000
2.387558 0.066588 0.411552 37.000000
2.387751 0.059263 0.411552 37.000000
2.390884 0.052001 0.412021 37.000000
2.393995 0.044721 0.412489 37.000000
2.397083 0.037421 0.412958 37.000000
2.400150 0.030104 0.413427 37.000000
2.403194 0.022768 0.413896 37.000000
2.406215 0.015413 0.414365 37.000000
2.409214 0.008040 0.414833 37.000000
2.410216 0.000649 0.414990 37.000000
2.412182 -0.006751 0.415302 37.000000
2.415113 -0.014169 0.415771 37.000000
2.415058 -0.021579 0.415771 37.000000
2.416955 -0.029012 0.416083 37.000000
2.418830 -0.036457 0.416396 37.000000
2.421670 -0.043932 0.416865 37.000000
2.421524 -0.051361 0.416865 37.000000
2.422342 -0.058814 0.417021 37.000000
2.424125 -0.066300 0.417334 37.000000
2.425884 -0.073797 0.417646 37.000000
2.425647 -0.081239 0.417646 37.000000
2.427360 -0.088753 0.417959 37.000000
2.429050 -0.096279 0.418271 37.000000
2.430717 -0.103815 0.418584 37.000000
2.432361 -0.111362 0.418896 37.000000
2.435954 -0.119018 0.419521 37.000000
2.436563 -0.126542 0.419677 37.000000
2.441095 -0.134289 0.420459 37.000000
2.445601 -0.142064 0.421240 37.000000
2.447126 -0.149688 0.421553 37.000000
2.448627 -0.157322 0.421865 37.000000
2.448132 -0.164833 0.421865 37.000000
2.448600 -0.172413 0.422021 37.000000
2.472686 -0.181738 0.425928 37.000000
2.436663 -0.186602 0.420303 37.000000
2.296504 0.435042 0.388939 38.000000
2.297828 0.427994 0.388939 38.000000
2.302047 0.421477 0.389390 38.000000
2.300411 0.413887 0.388939 38.000000
2.304590 0.407344 0.389390 38.000000
2.306803 0.400441 0.389540 38.000000
2.308021 0.393362 0.389540 38.000000
2.311167 0.386606 0.389840 38.000000
2.315269 0.379994 0.390291 38.000000
2.316424 0.372889 0.390291 38.000000
2.317557 0.365781 0.390291 38.000000
2.318668 0.358669 0.390291 38.000000
2.319758 0.351554 0.390291 38.000000
2.320825 0.344435 0.390291 38.000000
2.321871 0.337313 0.390291 38.000000
2.319959 0.329770 0.389840 38.000000
2.320960 0.322651 0.389840 38.000000
2.323898 0.315796 0.390141 38.000000
2.326816 0.308925 0.390441 38.000000
2.328733 0.301913 0.390591 38.000000
2.331610 0.295015 0.390892 38.000000
2.334466 0.288103 0.391192 38.000000
2.334358 0.280821 0.391042 38.000000
2.335208 0.273658 0.391042 38.000000
2.337019 0.266605 0.391192 38.000000
2.336843 0.259325 0.391042 38.000000
2.336645 0.252048 0.390892 38.000000
2.339374 0.245084 0.391192 38.000000
2.342082 0.238106 0.391493 38.000000
2.343785 0.231017 0.391643 38.000000
2.347435 0.224108 0.392094 38.000000
2.352050 0.217269 0.392694 38.000000
2.354675 0.210228 0.392995 38.000000
2.357279 0.203173 0.393295 38.000000
2.360847 0.196187 0.393746 38.000000
2.360452 0.188864 0.393596 38.000000
2.362992 0.181773 0.393896 38.000000
2.364524 0.174596 0.394046 38.000000
2.363076 0.167201 0.393746 38.000000
2.364565 0.160017 0.393896 38.000000
2.365044 0.152762 0.393896 38.000000
2.368462 0.145688 0.394347 38.000000
2.368898 0.138421 0.394347 38.000000
2.373260 0.131372 0.394948 38.000000
2.375627 0.124194 0.395248 38.000000
2.378959 0.117051 0.395699 38.000000
2.380294 0.109798 0.395849 38.000000
2.382595 0.102580 0.396150 38.000000
2.381911 0.095230 0.395999 38.000000
2.383180 0.087958 0.396150 38.000000
2.383439 0.080647 0.396150 38.000000
2.383675 0.073334 0.396150 38.000000
2.382900 0.065993 0.395999 38.000000
2.383091 0.058682 0.395999 38.000000
2.384249 0.051392 0.396150 38.000000
2.388349 0.044151 0.396751 38.000000
2.390450 0.036854 0.397051 38.000000
2.393518 0.029557 0.397502 38.000000
2.396563 0.022242 0.397952 38.000000
2.400575 0.014914 0.398553 38.000000
2.403575 0.007559 0.399004 38.000000
2.405564 0.000186 0.399304 38.000000
2.405554 -0.007195 0.399304 38.000000
2.407497 -0.014586 0.399605 38.000000
2.408430 -0.021981 0.399755 38.000000
2.409340 -0.029382 0.399905 38.000000
2.411215 -0.036803 0.400206 38.000000
2.414057 -0.044255 0.400656 38.000000
2.413909 -0.051661 0.400656 38.000000
2.418681 -0.059186 0.401408 38.000000
2.420465 -0.066661 0.401708 38.000000
2.423213 -0.074176 0.402159 38.000000
2.423963 -0.081643 0.402309 38.000000
2.425677 -0.089152 0.402609 38.000000
2.426380 -0.096633 0.402760 38.000000
2.429035 -0.104203 0.403210 38.000000
2.431667 -0.111790 0.403661 38.000000
2.435262 -0.119443 0.404262 38.000000
2.439821 -0.127170 0.405013 38.000000
2.442381 -0.134818 0.405464 38.000000
2.445904 -0.142540 0.406065 38.000000
2.447428 -0.150164 0.406365 38.000000
2.449916 -0.157862 0.406816 38.000000
2.450407 -0.165444 0.406966 38.000000
2.451860 -0.173100 0.407266 38.000000
2.414836 -0.177939 0.401708 38.000000
2.289606 0.439711 0.374002 39.000000
2.295805 0.433605 0.374723 39.000000
2.297124 0.426560 0.374723 39.000000
2.298422 0.419510 0.374723 39.000000
2.299699 0.412457 0.374723 39.000000
2.303876 0.405916 0.375156 39.000000
2.303161 0.398508 0.374868 39.000000
2.305348 0.391606 0.375012 39.000000
2.308491 0.384858 0.375301 39.000000
2.311614 0.378094 0.375589 39.000000
2.312763 0.371000 0.375589 39.000000
2.315845 0.364212 0.375878 39.000000
2.317929 0.357256 0.376022 39.000000
2.319014 0.350143 0.376022 39.000000
2.319099 0.342882 0.375878 39.000000
2.321119 0.335907 0.376022 39.000000
2.322139 0.328785 0.376022 39.000000
2.323137 0.321659 0.376022 39.000000
2.326073 0.314797 0.376311 39.000000
2.328009 0.307789 0.376456 39.000000
2.328943 0.300645 0.376456 39.000000
2.332799 0.293871 0.376889 39.000000
2.335654 0.286955 0.377177 39.000000
2.333576 0.279434 0.376744 39.000000
2.333439 0.272158 0.376600 39.000000
2.336230 0.265222 0.376889 39.000000
2.337032 0.258053 0.376889 39.000000
2.337813 0.250882 0.376889 39.000000
2.340540 0.243915 0.377177 39.000000
2.343246 0.236933 0.377466 39.000000
2.342978 0.229646 0.377322 39.000000
2.347611 0.222833 0.377899 39.000000
2.352225 0.215993 0.378477 39.000000
2.353862 0.208864 0.378621 39.000000
2.356464 0.201811 0.378910 39.000000
2.358058 0.194662 0.379054 39.000000
2.358644 0.187427 0.379054 39.000000
2.356248 0.179962 0.378621 39.000000
2.359750 0.172951 0.379054 39.000000
2.362243 0.165850 0.379343 39.000000
2.362741 0.158602 0.379343 39.000000
2.364204 0.151416 0.379487 39.000000
2.367620 0.144345 0.379920 39.000000
2.372991 0.137368 0.380642 39.000000
2.375378 0.130197 0.380931 39.000000
2.377742 0.123012 0.381219 39.000000
2.380085 0.115814 0.381508 39.000000
2.381418 0.108557 0.381652 39.000000
2.383717 0.101335 0.381941 39.000000
2.383028 0.093982 0.381797 39.000000
2.383305 0.086670 0.381797 39.000000
2.384548 0.079392 0.381941 39.000000
2.385770 0.072106 0.382085 39.000000
2.384001 0.064731 0.381797 39.000000
2.386167 0.057466 0.382085 39.000000
2.387322 0.050166 0.382230 39.000000
2.389443 0.042878 0.382519 39.000000
2.390553 0.035562 0.382663 39.000000
2.394608 0.028277 0.383240 39.000000
2.394684 0.020930 0.383240 39.000000
2.397705 0.013602 0.383673 39.000000
2.398725 0.006248 0.383818 39.000000
2.401702 -0.001111 0.384251 39.000000
2.402677 -0.008482 0.384395 39.000000
2.404618 -0.015865 0.384684 39.000000
2.403569 -0.023234 0.384540 39.000000
2.404476 -0.030620 0.384684 39.000000
2.404371 -0.037996 0.384684 39.000000
2.410179 -0.045482 0.385550 39.000000
2.412006 -0.052918 0.385839 39.000000
2.416779 -0.060439 0.386560 39.000000
2.419549 -0.067935 0.386994 39.000000
2.422297 -0.075449 0.387427 39.000000
2.424032 -0.082947 0.387715 39.000000
2.429699 -0.090602 0.388581 39.000000
2.429410 -0.098056 0.388581 39.000000
2.433052 -0.105678 0.389159 39.000000
2.436670 -0.113324 0.389736 39.000000
2.439276 -0.120945 0.390169 39.000000
2.440870 -0.128531 0.390458 39.000000
2.443428 -0.136183 0.390891 39.000000
2.445962 -0.143852 0.391324 39.000000
2.447485 -0.151476 0.391613 39.000000
2.448984 -0.159112 0.391902 39.000000
2.449471 -0.166691 0.392046 39.000000
2.425259 -0.172531 0.388581 39.000000
2.291933 0.443249 0.360393 40.000000
2.292309 0.436030 0.360254 40.000000
2.294609 0.429177 0.360393 40.000000
2.294941 0.421957 0.360254 40.000000
2.298174 0.415265 0.360531 40.000000
2.302363 0.408731 0.360947 40.000000
2.303606 0.401665 0.360947 40.000000
2.304828 0.394596 0.360947 40.000000
2.306027 0.387523 0.360947 40.000000
2.309160 0.380768 0.361223 40.000000
2.309340 0.373524 0.361085 40.000000
2.310475 0.366437 0.361085 40.000000
2.314524 0.359802 0.361500 40.000000
2.315617 0.352699 0.361500 40.000000
2.317668 0.345739 0.361639 40.000000
2.319698 0.338770 0.361777 40.000000
2.321707 0.331791 0.361916 40.000000
2.324675 0.324940 0.362193 40.000000
2.326643 0.317940 0.362331 40.000000
2.329570 0.311061 0.362608 40.000000
2.330514 0.303913 0.362608 40.000000
2.331435 0.296762 0.362608 40.000000
2.332335 0.289607 0.362608 40.000000
2.333212 0.282450 0.362608 40.000000
2.334068 0.275291 0.362608 40.000000
2.337853 0.268466 0.363024 40.000000
2.337682 0.261183 0.362885 40.000000
2.340441 0.254223 0.363162 40.000000
2.341210 0.247041 0.363162 40.000000
2.344913 0.240159 0.363578 40.000000
2.345639 0.232964 0.363578 40.000000
2.346342 0.225766 0.363578 40.000000
2.348996 0.218749 0.363855 40.000000
2.349656 0.211542 0.363855 40.000000
2.350294 0.204332 0.363855 40.000000
2.351897 0.197203 0.363993 40.000000
2.354465 0.190145 0.364270 40.000000
2.356025 0.182997 0.364409 40.000000
2.357563 0.175841 0.364547 40.000000
2.361055 0.168818 0.364962 40.000000
2.363538 0.161707 0.365239 40.000000
2.364023 0.154455 0.365239 40.000000
2.367451 0.147385 0.365655 40.000000
2.369869 0.140237 0.365932 40.000000
2.370288 0.132966 0.365932 40.000000
2.373652 0.125849 0.366347 40.000000
2.374027 0.118566 0.366347 40.000000
2.377348 0.111420 0.366763 40.000000
2.377678 0.104126 0.366763 40.000000
2.378976 0.096871 0.366901 40.000000
2.379262 0.089571 0.366901 40.000000
2.381505 0.082339 0.367178 40.000000
2.383727 0.075094 0.367455 40.000000
2.383946 0.067780 0.367455 40.000000
2.385133 0.060491 0.367594 40.000000
2.386297 0.053195 0.367732 40.000000
2.388429 0.045910 0.368009 40.000000
2.388559 0.038582 0.368009 40.000000
2.390647 0.031279 0.368286 40.000000
2.390731 0.023945 0.368286 40.000000
2.393764 0.016629 0.368701 40.000000
2.393804 0.009285 0.368701 40.000000
2.396793 0.001942 0.369117 40.000000
2.397778 -0.005414 0.369255 40.000000
2.400721 -0.012788 0.369671 40.000000
2.400670 -0.020153 0.369671 40.000000
2.403568 -0.027553 0.370086 40.000000
2.409414 -0.035016 0.370917 40.000000
2.410285 -0.042426 0.371056 40.000000
2.409153 -0.049800 0.370917 40.000000
2.414930 -0.057335 0.371748 40.000000
2.418703 -0.064851 0.372302 40.000000
2.422452 -0.072392 0.372856 40.000000
2.424198 -0.079889 0.373133 40.000000
2.427900 -0.087471 0.373687 40.000000
2.428610 -0.094958 0.373825 40.000000
2.430286 -0.102493 0.374102 40.000000
2.433918 -0.110130 0.374656 40.000000
2.436536 -0.117741 0.375072 40.000000
2.436163 -0.125216 0.375072 40.000000
2.435768 -0.132689 0.375072 40.000000
2.435349 -0.140161 0.375072 40.000000
2.436885 -0.147753 0.375349 40.000000
2.436420 -0.155229 0.375349 40.000000
2.442849 -0.163168 0.376318 40.000000
2.421591 -0.169202 0.373410 40.000000
2.290646 0.449814 0.345958 41.000000
2.293961 0.443160 0.346223 41.000000
2.295310 0.436120 0.346223 41.000000
2.296637 0.429076 0.346223 41.000000
2.296968 0.421849 0.346090 41.000000
2.299227 0.414976 0.346223 41.000000
2.301465 0.408093 0.346355 41.000000
2.305636 0.401540 0.346753 41.000000
2.307834 0.394632 0.346885 41.000000
2.309034 0.387550 0.346885 41.000000
2.311190 0.380625 0.347017 41.000000
2.313325 0.373690 0.347150 41.000000
2.314461 0.366591 0.347150 41.000000
2.317534 0.359793 0.347415 41.000000
2.319607 0.352830 0.347547 41.000000
2.322639 0.346003 0.347812 41.000000
2.321728 0.338590 0.347547 41.000000
2.324718 0.331745 0.347812 41.000000
2.326707 0.324749 0.347944 41.000000
2.328674 0.317743 0.348077 41.000000
2.331603 0.310859 0.348342 41.000000
2.331563 0.303576 0.348209 41.000000
2.334450 0.296671 0.348474 41.000000
2.335349 0.289508 0.348474 41.000000
2.338194 0.282579 0.348739 41.000000
2.339050 0.275404 0.348739 41.000000
2.341854 0.268452 0.349004 41.000000
2.343652 0.261376 0.349136 41.000000
2.345428 0.254291 0.349269 41.000000
2.347183 0.247198 0.349401 41.000000
2.348916 0.240097 0.349534 41.000000
2.346683 0.232596 0.349136 41.000000
2.348372 0.225490 0.349269 41.000000
2.350039 0.218376 0.349401 41.000000
2.351686 0.211254 0.349534 41.000000
2.353310 0.204123 0.349666 41.000000
2.354913 0.196985 0.349798 41.000000
2.357482 0.189918 0.350063 41.000000
2.361019 0.182914 0.350461 41.000000
2.363546 0.175816 0.350726 41.000000
2.367040 0.168775 0.351123 41.000000
2.368536 0.161580 0.351255 41.000000
2.370009 0.154376 0.351388 41.000000
2.371461 0.147166 0.351520 41.000000
2.372891 0.139948 0.351653 41.000000
2.374299 0.132722 0.351785 41.000000
2.373705 0.125385 0.351653 41.000000
2.375068 0.118152 0.351785 41.000000
2.376410 0.110910 0.351917 41.000000
2.378719 0.103705 0.352182 41.000000
2.380017 0.096447 0.352315 41.000000
2.383273 0.089255 0.352712 41.000000
2.381554 0.081875 0.352447 41.000000
2.386748 0.074723 0.353109 41.000000
2.386966 0.067400 0.353109 41.000000
2.389143 0.060126 0.353374 41.000000
2.389316 0.052796 0.353374 41.000000
2.390458 0.045484 0.353507 41.000000
2.390586 0.038150 0.353507 41.000000
2.390692 0.030816 0.353507 41.000000
2.392758 0.023500 0.353771 41.000000
2.395792 0.016179 0.354169 41.000000
2.395831 0.008829 0.354169 41.000000
2.397829 0.001479 0.354434 41.000000
2.400795 -0.005885 0.354831 41.000000
2.403740 -0.013267 0.355228 41.000000
2.406661 -0.020668 0.355625 41.000000
2.409560 -0.028086 0.356023 41.000000
2.413427 -0.035538 0.356552 41.000000
2.415288 -0.042977 0.356817 41.000000
2.417127 -0.050429 0.357082 41.000000
2.418943 -0.057892 0.357347 41.000000
2.422717 -0.065421 0.357877 41.000000
2.423496 -0.072883 0.358009 41.000000
2.424251 -0.080351 0.358142 41.000000
2.426965 -0.087896 0.358539 41.000000
2.427674 -0.095381 0.358671 41.000000
2.429351 -0.102912 0.358936 41.000000
2.431994 -0.110500 0.359333 41.000000
2.432634 -0.118009 0.359466 41.000000
2.434240 -0.125574 0.359731 41.000000
2.432854 -0.132988 0.359598 41.000000
2.431445 -0.140394 0.359466 41.000000
2.431002 -0.147853 0.359466 41.000000
2.430537 -0.155310 0.359466 41.000000
2.434994 -0.163098 0.360128 41.000000
2.281618 0.453601 0.330928 42.000000
2.280078 0.446027 0.330549 42.000000
2.282410 0.439217 0.330675 42.000000
2.281798 0.431844 0.330422 42.000000
2.285062 0.425204 0.330675 42.000000
2.287332 0.418371 0.330802 42.000000
2.289581 0.411527 0.330928 42.000000
2.293763 0.405018 0.331308 42.000000
2.296949 0.398319 0.331561 42.000000
2.301094 0.391770 0.331941 42.000000
2.301307 0.384545 0.331814 42.000000
2.305413 0.377964 0.332194 42.000000
2.309499 0.371363 0.332574 42.000000
2.309648 0.364121 0.332447 42.000000
2.309774 0.356882 0.332320 42.000000
2.311839 0.349942 0.332447 42.000000
2.311920 0.342702 0.332320 42.000000
2.311979 0.335465 0.332194 42.000000
2.312997 0.328371 0.332194 42.000000
2.315959 0.321546 0.332447 42.000000
2.317917 0.314573 0.332574 42.000000
2.318872 0.307460 0.332574 42.000000
2.322755 0.300727 0.332953 42.000000
2.324651 0.293724 0.333080 42.000000
2.327510 0.286834 0.333333 42.000000
2.328379 0.279692 0.333333 42.000000
2.330212 0.272662 0.333459 42.000000
2.336951 0.266187 0.334219 42.000000
2.332827 0.258469 0.333586 42.000000
2.332622 0.251204 0.333459 42.000000
2.332396 0.243943 0.333333 42.000000
2.333133 0.236786 0.333333 42.000000
2.333848 0.229627 0.333333 42.000000
2.337504 0.222749 0.333712 42.000000
2.337189 0.215485 0.333586 42.000000
2.340803 0.208579 0.333965 42.000000
2.343409 0.201566 0.334219 42.000000
2.348959 0.194787 0.334851 42.000000
2.350534 0.187658 0.334978 42.000000
2.356044 0.180827 0.335611 42.000000
2.359555 0.173817 0.335990 42.000000
2.360078 0.166577 0.335990 42.000000
2.361567 0.159402 0.336117 42.000000
2.364025 0.152284 0.336370 42.000000
2.364481 0.145031 0.336370 42.000000
2.364915 0.137776 0.336370 42.000000
2.365326 0.130520 0.336370 42.000000
2.365716 0.123263 0.336370 42.000000
2.368064 0.116102 0.336623 42.000000
2.368409 0.108836 0.336623 42.000000
2.372696 0.101740 0.337129 42.000000
2.375971 0.094579 0.337509 42.000000
2.379224 0.087399 0.337888 42.000000
2.380472 0.080132 0.338015 42.000000
2.383681 0.072920 0.338395 42.000000
2.385877 0.065662 0.338648 42.000000
2.388050 0.058391 0.338901 42.000000
2.387226 0.051043 0.338774 42.000000
2.388364 0.043737 0.338901 42.000000
2.387495 0.036394 0.338774 42.000000
2.388587 0.029081 0.338901 42.000000
2.388665 0.021753 0.338901 42.000000
2.388721 0.014425 0.338901 42.000000
2.389745 0.007099 0.339027 42.000000
2.389756 -0.000233 0.339027 42.000000
2.393712 -0.007576 0.339533 42.000000
2.395661 -0.014932 0.339787 42.000000
2.397588 -0.022300 0.340040 42.000000
2.399492 -0.029680 0.340293 42.000000
2.403357 -0.037102 0.340799 42.000000
2.404224 -0.044493 0.340925 42.000000
2.407051 -0.051933 0.341305 42.000000
2.406880 -0.059317 0.341305 42.000000
2.410654 -0.066810 0.341811 42.000000
2.413412 -0.074297 0.342191 42.000000
2.414164 -0.081734 0.342317 42.000000
2.415884 -0.089213 0.342571 42.000000
2.418573 -0.096743 0.342950 42.000000
2.420247 -0.104248 0.343203 42.000000
2.424870 -0.111900 0.343836 42.000000
2.425506 -0.119388 0.343963 42.000000
2.428100 -0.126983 0.344342 42.000000
2.427699 -0.134432 0.344342 42.000000
2.428266 -0.141937 0.344469 42.000000
2.429799 -0.149508 0.344722 42.000000
2.444177 -0.157919 0.346620 42.000000
2.274306 0.458921 0.315041 43.000000
2.273756 0.451554 0.314801 43.000000
2.278053 0.445148 0.315161 43.000000
2.279408 0.438157 0.315161 43.000000
2.281717 0.431347 0.315281 43.000000
2.282054 0.424163 0.315161 43.000000
2.286274 0.417696 0.315521 43.000000
2.287544 0.410680 0.315521 43.000000
2.290749 0.404006 0.315762 43.000000
2.294912 0.397486 0.316122 43.000000
2.298078 0.390777 0.316362 43.000000
2.300245 0.383889 0.316483 43.000000
2.302392 0.376991 0.316603 43.000000
2.305498 0.370241 0.316843 43.000000
2.308584 0.363476 0.317083 43.000000
2.308707 0.356240 0.316963 43.000000
2.311752 0.349453 0.317203 43.000000
2.312813 0.342359 0.317203 43.000000
2.310905 0.334833 0.316843 43.000000
2.313888 0.328021 0.317083 43.000000
2.314883 0.320921 0.317083 43.000000
2.315857 0.313818 0.317083 43.000000
2.315825 0.306580 0.316963 43.000000
2.321677 0.300113 0.317564 43.000000
2.322587 0.292989 0.317564 43.000000
2.324460 0.285983 0.317684 43.000000
2.327297 0.279088 0.317924 43.000000
2.329129 0.272062 0.318044 43.000000
2.326993 0.264578 0.317684 43.000000
2.326807 0.257328 0.317564 43.000000
2.325612 0.249975 0.317324 43.000000
2.325381 0.242735 0.317203 43.000000
2.326114 0.235600 0.317203 43.000000
2.328802 0.228657 0.317444 43.000000
2.330481 0.221606 0.317564 43.000000
2.331150 0.214455 0.317564 43.000000
2.334763 0.207567 0.317924 43.000000
2.340334 0.200830 0.318525 43.000000
2.341929 0.193732 0.318645 43.000000
2.345481 0.186784 0.319005 43.000000
2.350002 0.179892 0.319486 43.000000
2.355494 0.173048 0.320087 43.000000
2.356013 0.165820 0.320087 43.000000
2.358492 0.158726 0.320327 43.000000
2.361940 0.151681 0.320687 43.000000
2.363385 0.144495 0.320807 43.000000
2.362826 0.137186 0.320687 43.000000
2.364227 0.129991 0.320807 43.000000
2.366597 0.122841 0.321048 43.000000
2.365972 0.115531 0.320928 43.000000
2.368298 0.108364 0.321168 43.000000
2.369612 0.101140 0.321288 43.000000
2.373878 0.094029 0.321769 43.000000
2.375148 0.086782 0.321889 43.000000
2.376395 0.079529 0.322009 43.000000
2.380597 0.072360 0.322489 43.000000
2.382793 0.065111 0.322730 43.000000
2.384966 0.057850 0.322970 43.000000
2.385132 0.050533 0.322970 43.000000
2.386269 0.043233 0.323090 43.000000
2.388376 0.035943 0.323330 43.000000
2.385496 0.028578 0.322970 43.000000
2.388551 0.021288 0.323330 43.000000
2.389598 0.013966 0.323450 43.000000
2.389629 0.006635 0.323450 43.000000
2.388646 -0.000697 0.323330 43.000000
2.391611 -0.008034 0.323691 43.000000
2.392567 -0.015377 0.323811 43.000000
2.395487 -0.022744 0.324171 43.000000
2.396399 -0.030105 0.324291 43.000000
2.399273 -0.037502 0.324652 43.000000
2.401132 -0.044899 0.324892 43.000000
2.402968 -0.052308 0.325132 43.000000
2.402796 -0.059679 0.325132 43.000000
2.408556 -0.067214 0.325853 43.000000
2.410323 -0.074664 0.326093 43.000000
2.412067 -0.082125 0.326334 43.000000
2.413788 -0.089597 0.326574 43.000000
2.418462 -0.097199 0.327175 43.000000
2.422119 -0.104788 0.327655 43.000000
2.424762 -0.112355 0.328016 43.000000
2.427380 -0.119939 0.328376 43.000000
2.429975 -0.127540 0.328737 43.000000
2.430564 -0.135049 0.328857 43.000000
2.432120 -0.142621 0.329097 43.000000
2.416808 -0.149172 0.327295 43.000000
4.310279 1.881106 0.576840 44.000000
2.274383 0.461206 0.302052 44.000000
2.275787 0.454227 0.302052 44.000000
2.279120 0.447624 0.302281 44.000000
2.281458 0.440818 0.302396 44.000000
2.282799 0.433817 0.302396 44.000000
2.287049 0.427357 0.302739 44.000000
2.288350 0.420338 0.302739 44.000000
2.290606 0.413492 0.302854 44.000000
2.290886 0.406289 0.302739 44.000000
2.293100 0.399429 0.302854 44.000000
2.296273 0.392726 0.303083 44.000000
2.296488 0.385515 0.302969 44.000000
2.299620 0.378790 0.303198 44.000000
2.302733 0.372049 0.303427 44.000000
2.304845 0.365137 0.303542 44.000000
2.305954 0.358065 0.303542 44.000000
2.309006 0.351286 0.303771 44.000000
2.310073 0.344201 0.303771 44.000000
2.310135 0.336969 0.303656 44.000000
2.313125 0.330160 0.303885 44.000000
2.314127 0.323062 0.303885 44.000000
2.315107 0.315960 0.303885 44.000000
2.316066 0.308856 0.303885 44.000000
2.319958 0.302133 0.304229 44.000000
2.320874 0.295014 0.304229 44.000000
2.321768 0.287892 0.304229 44.000000
2.322640 0.280768 0.304229 44.000000
2.326451 0.273988 0.304573 44.000000
2.321358 0.266173 0.303885 44.000000
2.325126 0.259379 0.304229 44.000000
2.324923 0.252137 0.304115 44.000000
2.325686 0.245003 0.304115 44.000000
2.323462 0.237565 0.303771 44.000000
2.328134 0.230826 0.304229 44.000000
2.328831 0.223682 0.304229 44.000000
2.331485 0.216720 0.304458 44.000000
2.332139 0.209566 0.304458 44.000000
2.338709 0.202922 0.305146 44.000000
2.341301 0.195911 0.305375 44.000000
2.343871 0.188885 0.305604 44.000000
2.350383 0.182151 0.306292 44.000000
2.352912 0.175086 0.306521 44.000000
2.354429 0.167937 0.306636 44.000000
2.354933 0.160713 0.306636 44.000000
2.358389 0.153679 0.306979 44.000000
2.361824 0.146626 0.307323 44.000000
2.362263 0.139380 0.307323 44.000000
2.363671 0.132187 0.307438 44.000000
2.366050 0.125038 0.307667 44.000000
2.365430 0.117730 0.307552 44.000000
2.365780 0.110472 0.307552 44.000000
2.367100 0.103257 0.307667 44.000000
2.370384 0.096113 0.308011 44.000000
2.371660 0.088877 0.308125 44.000000
2.372915 0.081634 0.308240 44.000000
2.374147 0.074385 0.308354 44.000000
2.378336 0.067211 0.308813 44.000000
2.379524 0.059938 0.308927 44.000000
2.382676 0.052702 0.309271 44.000000
2.383820 0.045410 0.309386 44.000000
2.385935 0.038128 0.309615 44.000000
2.386040 0.030807 0.309615 44.000000
