# This PCD file was generated using the MATLAB® pcwrite function
# from Computer Vision Toolbox®.
# .PCD v.7 - Point Cloud Data file format
VERSION .7
FIELDS x y z intensity
SIZE 4 4 4 4
TYPE F F F F
COUNT 1 1 1 1
WIDTH 1270
HEIGHT 1
VIEWPOINT 0 0 0 1 0 0 0
POINTS 1270
DATA ascii
4.984857 1.510096 0.409316 51.000000
4.985645 1.493650 0.409029 51.000000
3.344725 -0.971714 0.285324 51.000000
3.336943 -0.980567 0.284966 51.000000
3.332962 -0.990516 0.284894 51.000000
3.325131 -0.999303 0.284536 51.000000
3.320141 -1.008920 0.284392 51.000000
3.312262 -1.017638 0.284034 51.000000
3.306267 -1.026909 0.283819 51.000000
3.303101 -1.037048 0.283819 51.000000
3.297051 -1.046272 0.283604 51.000000
3.294775 -1.056687 0.283676 51.000000
3.290569 -1.066483 0.283604 51.000000
3.284438 -1.075643 0.283389 51.000000
3.281122 -1.085714 0.283389 51.000000
3.274938 -1.094828 0.283174 51.000000
3.268728 -1.103913 0.282959 51.000000
3.262494 -1.112971 0.282744 51.000000
3.260007 -1.123300 0.282816 51.000000
3.254661 -1.132641 0.282672 51.000000
3.249289 -1.141960 0.282529 51.000000
3.245770 -1.151924 0.282529 51.000000
3.244099 -1.162548 0.282672 51.000000
3.241455 -1.172835 0.282744 51.000000
3.236904 -1.182432 0.282672 51.000000
3.234197 -1.192702 0.282744 51.000000
3.229588 -1.202271 0.282672 51.000000
3.224017 -1.211472 0.282529 51.000000
3.218419 -1.220651 0.282386 51.000000
3.213728 -1.230163 0.282314 51.000000
3.207147 -1.238940 0.282099 51.000000
3.200542 -1.247687 0.281884 51.000000
3.193915 -1.256406 0.281669 51.000000
3.189118 -1.265831 0.281597 51.000000
3.183367 -1.274868 0.281454 51.000000
3.179441 -1.284629 0.281454 51.000000
3.175485 -1.294377 0.281454 51.000000
3.171499 -1.304113 0.281454 51.000000
3.164718 -1.312692 0.281239 51.000000
3.166198 -1.324703 0.281669 51.000000
3.162119 -1.334410 0.281669 51.000000
3.158010 -1.344105 0.281669 51.000000
3.148371 -1.351429 0.281239 51.000000
3.140548 -1.359498 0.280952 51.000000
3.131792 -1.367133 0.280594 51.000000
3.126670 -1.376333 0.280522 51.000000
3.121521 -1.385515 0.280450 51.000000
3.118166 -1.395492 0.280522 51.000000
3.115688 -1.405872 0.280665 51.000000
3.112268 -1.415836 0.280737 51.000000
3.108817 -1.425794 0.280809 51.000000
3.104428 -1.435325 0.280809 51.000000
3.097297 -1.443579 0.280594 51.000000
3.092854 -1.453075 0.280594 51.000000
3.088381 -1.462556 0.280594 51.000000
3.083880 -1.472025 0.280594 51.000000
3.078450 -1.481047 0.280522 51.000000
3.074790 -1.490919 0.280594 51.000000
3.069305 -1.499908 0.280522 51.000000
3.063794 -1.508877 0.280450 51.000000
3.057363 -1.517383 0.280307 51.000000
3.115149 -1.557966 0.285324 51.000000
4.296299 1.922269 0.346109 52.000000
4.299440 1.907866 0.345911 52.000000
4.300706 1.892658 0.345582 52.000000
4.305578 1.879056 0.345516 52.000000
4.304912 1.863065 0.345054 52.000000
4.305105 1.847489 0.344659 52.000000
4.307080 1.832711 0.344395 52.000000
4.289696 1.809797 0.342747 52.000000
4.306276 1.801246 0.343538 52.000000
4.309938 1.787262 0.343406 52.000000
4.306171 1.770239 0.342747 52.000000
4.306037 1.754762 0.342351 52.000000
4.305849 1.739302 0.341956 52.000000
4.307459 1.724601 0.341692 52.000000
4.307164 1.709171 0.341296 52.000000
4.309601 1.694854 0.341099 52.000000
4.312922 1.680900 0.340967 52.000000
4.318058 1.667660 0.340967 52.000000
4.319426 1.652979 0.340703 52.000000
4.327276 1.640780 0.340901 52.000000
4.326684 1.625392 0.340505 52.000000
4.328845 1.611067 0.340308 52.000000
4.328149 1.595709 0.339912 52.000000
4.326463 1.580029 0.339451 52.000000
4.328475 1.565731 0.339253 52.000000
4.326682 1.550089 0.338791 52.000000
4.331418 1.536808 0.338791 52.000000
4.336112 1.523512 0.338791 52.000000
4.343593 1.511185 0.338989 52.000000
4.347265 1.497527 0.338923 52.000000
4.350895 1.483861 0.338857 52.000000
4.356372 1.470825 0.338923 52.000000
4.347614 1.453028 0.338000 52.000000
4.351104 1.439370 0.337934 52.000000
4.352654 1.425083 0.337736 52.000000
4.361753 1.413259 0.338066 52.000000
4.360366 1.398045 0.337671 52.000000
4.371293 1.386771 0.338132 52.000000
4.375527 1.373354 0.338132 52.000000
4.382579 1.360810 0.338330 52.000000
4.389595 1.348236 0.338528 52.000000
4.978057 1.512120 0.378874 52.000000
3.344115 -0.968014 0.265152 52.000000
3.338257 -0.977427 0.264955 52.000000
3.334286 -0.987380 0.264889 52.000000
3.327418 -0.996459 0.264625 52.000000
3.320526 -1.005504 0.264361 52.000000
3.316471 -1.015394 0.264295 52.000000
3.310481 -1.024678 0.264098 52.000000
3.302561 -1.033338 0.263768 52.000000
3.298424 -1.043164 0.263702 52.000000
3.293307 -1.052671 0.263570 52.000000
3.289113 -1.062462 0.263504 52.000000
3.283941 -1.071928 0.263372 52.000000
3.281584 -1.082311 0.263438 52.000000
3.277302 -1.092058 0.263372 52.000000
3.270154 -1.100833 0.263109 52.000000
3.266761 -1.110860 0.263109 52.000000
3.261450 -1.120229 0.262977 52.000000
3.254228 -1.128920 0.262713 52.000000
3.249807 -1.138568 0.262647 52.000000
3.243477 -1.147534 0.262449 52.000000
3.239941 -1.157479 0.262449 52.000000
3.235436 -1.167075 0.262384 52.000000
3.231841 -1.176996 0.262384 52.000000
3.228215 -1.186905 0.262384 52.000000
3.225493 -1.197151 0.262449 52.000000
3.219937 -1.206340 0.262318 52.000000
3.212488 -1.214800 0.262054 52.000000
3.206882 -1.223938 0.261922 52.000000
3.199387 -1.232335 0.261658 52.000000
3.192802 -1.241059 0.261461 52.000000
3.186193 -1.249755 0.261263 52.000000
3.181416 -1.259157 0.261197 52.000000
3.175685 -1.268170 0.261065 52.000000
3.172705 -1.278280 0.261131 52.000000
3.169692 -1.288384 0.261197 52.000000
3.168494 -1.299239 0.261395 52.000000
3.165415 -1.309336 0.261461 52.000000
3.165987 -1.320964 0.261790 52.000000
3.160080 -1.329896 0.261658 52.000000
3.153230 -1.338414 0.261461 52.000000
3.145440 -1.346510 0.261197 52.000000
3.137631 -1.354570 0.260933 52.000000
3.129801 -1.362595 0.260669 52.000000
3.123779 -1.371388 0.260538 52.000000
3.120469 -1.381370 0.260604 52.000000
3.117128 -1.391344 0.260669 52.000000
3.115574 -1.402130 0.260867 52.000000
3.112166 -1.412094 0.260933 52.000000
3.108726 -1.422051 0.260999 52.000000
3.104349 -1.431582 0.260999 52.000000
3.099037 -1.440678 0.260933 52.000000
3.093700 -1.449755 0.260867 52.000000
3.085629 -1.457534 0.260604 52.000000
3.083845 -1.468281 0.260801 52.000000
3.079326 -1.477735 0.260801 52.000000
3.073880 -1.486741 0.260735 52.000000
3.069304 -1.496164 0.260735 52.000000
3.063804 -1.505134 0.260669 52.000000
3.058278 -1.514083 0.260604 52.000000
4.292625 1.920450 0.316271 53.000000
4.294847 1.905652 0.316032 53.000000
4.297933 1.891261 0.315853 53.000000
4.301885 1.877268 0.315734 53.000000
4.303959 1.862475 0.315495 53.000000
4.304149 1.846901 0.315138 53.000000
4.305202 1.831734 0.314839 53.000000
4.307122 1.816965 0.314601 53.000000
4.308072 1.801817 0.314302 53.000000
4.304358 1.784769 0.313706 53.000000
4.303350 1.768899 0.313288 53.000000
4.304135 1.753805 0.312990 53.000000
4.304867 1.738723 0.312692 53.000000
4.307401 1.724395 0.312513 53.000000
4.307104 1.708964 0.312155 53.000000
4.311398 1.695376 0.312095 53.000000
4.316578 1.682141 0.312095 53.000000
4.320787 1.668531 0.312035 53.000000
4.325886 1.655267 0.312035 53.000000
4.330944 1.641987 0.312035 53.000000
4.334093 1.627991 0.311916 53.000000
4.336260 1.613642 0.311737 53.000000
4.332760 1.597224 0.311200 53.000000
4.326388 1.579816 0.310484 53.000000
4.324643 1.564160 0.310067 53.000000
4.324723 1.549201 0.309769 53.000000
4.326633 1.534925 0.309590 53.000000
4.337914 1.523960 0.310007 53.000000
4.343512 1.510972 0.310067 53.000000
4.351902 1.498939 0.310305 53.000000
4.353646 1.484614 0.310127 53.000000
4.355343 1.470293 0.309948 53.000000
4.353206 1.454710 0.309530 53.000000
4.350067 1.438840 0.309053 53.000000
4.352563 1.424867 0.308933 53.000000
4.354065 1.410584 0.308754 53.000000
4.359323 1.397524 0.308814 53.000000
4.364541 1.384445 0.308874 53.000000
4.371625 1.371944 0.309053 53.000000
4.827705 1.498780 0.337329 53.000000
4.398092 1.350661 0.310186 53.000000
4.995710 1.467298 0.346397 53.000000
3.352173 -0.959545 0.243611 53.000000
3.344420 -0.968436 0.243313 53.000000
3.342391 -0.978973 0.243373 53.000000
3.339372 -0.989223 0.243373 53.000000
3.334409 -0.998890 0.243253 53.000000
3.328462 -1.008247 0.243074 53.000000
3.325353 -1.018453 0.243074 53.000000
3.318399 -1.027469 0.242836 53.000000
3.312373 -1.036750 0.242657 53.000000
3.306322 -1.046004 0.242478 53.000000
3.300245 -1.055230 0.242299 53.000000
3.294143 -1.064429 0.242120 53.000000
3.288964 -1.073911 0.242001 53.000000
3.284706 -1.083683 0.241941 53.000000
3.280419 -1.093440 0.241881 53.000000
3.276103 -1.103180 0.241822 53.000000
3.271758 -1.112904 0.241762 53.000000
3.265496 -1.121963 0.241583 53.000000
3.259209 -1.130994 0.241404 53.000000
3.252898 -1.139997 0.241225 53.000000
3.243739 -1.147973 0.240867 53.000000
3.237382 -1.156911 0.240688 53.000000
3.236634 -1.167855 0.240867 53.000000
3.228347 -1.176070 0.240569 53.000000
3.225660 -1.186314 0.240629 53.000000
3.222941 -1.196552 0.240688 53.000000
3.218321 -1.206083 0.240629 53.000000
3.210871 -1.214538 0.240390 53.000000
3.205265 -1.223671 0.240271 53.000000
3.199632 -1.232781 0.240151 53.000000
3.191184 -1.240782 0.239853 53.000000
3.185503 -1.249838 0.239734 53.000000
3.179798 -1.258870 0.239615 53.000000
3.174067 -1.267878 0.239495 53.000000
3.172014 -1.278357 0.239615 53.000000
3.170851 -1.289211 0.239793 53.000000
3.168728 -1.299690 0.239913 53.000000
3.169337 -1.311314 0.240211 53.000000
3.165299 -1.321032 0.240211 53.000000
3.165831 -1.332673 0.240509 53.000000
3.157134 -1.340429 0.240211 53.000000
3.151171 -1.349322 0.240092 53.000000
3.142435 -1.357004 0.239793 53.000000
3.135511 -1.365443 0.239615 53.000000
3.128566 -1.373852 0.239436 53.000000
3.124336 -1.383444 0.239436 53.000000
3.120077 -1.393022 0.239436 53.000000
3.115789 -1.402588 0.239436 53.000000
3.116925 -1.414616 0.239793 53.000000
3.115293 -1.425419 0.239972 53.000000
3.110905 -1.434970 0.239972 53.000000
3.108298 -1.445349 0.240092 53.000000
3.102042 -1.454031 0.239972 53.000000
3.095761 -1.462688 0.239853 53.000000
3.089457 -1.471320 0.239734 53.000000
3.083129 -1.479927 0.239615 53.000000
3.077675 -1.488944 0.239555 53.000000
3.071298 -1.497504 0.239436 53.000000
3.066690 -1.506920 0.239436 53.000000
4.288500 1.916636 0.286444 54.000000
4.283406 1.898613 0.285803 54.000000
4.289210 1.885463 0.285803 54.000000
4.293144 1.871497 0.285696 54.000000
4.298866 1.858317 0.285696 54.000000
4.299958 1.843152 0.285429 54.000000
4.300997 1.827998 0.285163 54.000000
4.301064 1.812467 0.284842 54.000000
4.300155 1.796568 0.284469 54.000000
4.301034 1.781455 0.284202 54.000000
4.298166 1.764837 0.283721 54.000000
4.299860 1.750136 0.283508 54.000000
4.299654 1.734694 0.283187 54.000000
4.302174 1.720382 0.283027 54.000000
4.302790 1.705335 0.282760 54.000000
4.307072 1.691761 0.282707 54.000000
4.309451 1.677453 0.282547 54.000000
4.317372 1.665302 0.282707 54.000000
4.320595 1.651335 0.282600 54.000000
4.323773 1.637365 0.282493 54.000000
4.326906 1.623390 0.282387 54.000000
4.329059 1.609064 0.282227 54.000000
4.328352 1.593704 0.281906 54.000000
4.322903 1.576653 0.281319 54.000000
4.319267 1.560329 0.280839 54.000000
4.321213 1.546061 0.280678 54.000000
4.328760 1.533797 0.280839 54.000000
4.336272 1.521501 0.280999 54.000000
4.343749 1.509174 0.281159 54.000000
4.349303 1.496165 0.281212 54.000000
4.347256 1.480561 0.280839 54.000000
4.351778 1.467217 0.280839 54.000000
4.349628 1.451645 0.280465 54.000000
4.349320 1.436728 0.280198 54.000000
4.350861 1.422446 0.280038 54.000000
4.352354 1.408169 0.279878 54.000000
4.352849 1.393591 0.279664 54.000000
4.353297 1.379024 0.279451 54.000000
4.357507 1.365661 0.279451 54.000000
4.970175 1.541001 0.313508 54.000000
4.979653 1.527210 0.313775 54.000000
4.979537 1.510476 0.313508 54.000000
4.984148 1.495191 0.313508 54.000000
4.959692 1.454742 0.311640 54.000000
3.351081 -0.938614 0.221371 54.000000
3.357793 -0.951612 0.221905 54.000000
3.351978 -0.961084 0.221745 54.000000
3.338464 -0.968305 0.221158 54.000000
3.337394 -0.979104 0.221265 54.000000
3.328630 -0.987635 0.220944 54.000000
3.324628 -0.997556 0.220891 54.000000
3.319641 -1.007171 0.220784 54.000000
3.317490 -1.017644 0.220838 54.000000
3.312444 -1.027225 0.220731 54.000000
3.310230 -1.037682 0.220784 54.000000
3.301319 -1.046023 0.220464 54.000000
3.295242 -1.055233 0.220304 54.000000
3.289138 -1.064416 0.220144 54.000000
3.284908 -1.074192 0.220090 54.000000
3.279701 -1.083638 0.219984 54.000000
3.273519 -1.092747 0.219823 54.000000
3.269205 -1.102466 0.219770 54.000000
3.262971 -1.111525 0.219610 54.000000
3.258602 -1.121205 0.219556 54.000000
3.252317 -1.130214 0.219396 54.000000
3.244123 -1.138534 0.219129 54.000000
3.237791 -1.147481 0.218969 54.000000
3.230494 -1.156064 0.218756 54.000000
3.225993 -1.165630 0.218702 54.000000
3.220525 -1.174838 0.218596 54.000000
3.215969 -1.184368 0.218542 54.000000
3.211384 -1.193881 0.218489 54.000000
3.208641 -1.204078 0.218542 54.000000
3.204932 -1.213916 0.218542 54.000000
3.201193 -1.223743 0.218542 54.000000
3.194628 -1.232481 0.218382 54.000000
3.188971 -1.241552 0.218275 54.000000
3.183288 -1.250599 0.218169 54.000000
3.177579 -1.259624 0.218062 54.000000
3.171845 -1.268625 0.217955 54.000000
3.167938 -1.278350 0.217955 54.000000
3.165851 -1.288816 0.218062 54.000000
3.163730 -1.299281 0.218169 54.000000
3.163419 -1.310510 0.218382 54.000000
3.163069 -1.321748 0.218596 54.000000
3.159920 -1.331834 0.218649 54.000000
3.153981 -1.340741 0.218542 54.000000
3.149853 -1.350411 0.218542 54.000000
3.141112 -1.358087 0.218275 54.000000
3.136015 -1.367319 0.218222 54.000000
3.129063 -1.375728 0.218062 54.000000
3.124827 -1.385321 0.218062 54.000000
3.121474 -1.395309 0.218115 54.000000
3.121731 -1.406930 0.218382 54.000000
3.117400 -1.416501 0.218382 54.000000
3.114855 -1.426890 0.218489 54.000000
3.111370 -1.436858 0.218542 54.000000
3.106947 -1.446397 0.218542 54.000000
3.100687 -1.455074 0.218435 54.000000
3.095305 -1.464153 0.218382 54.000000
3.089897 -1.473212 0.218329 54.000000
3.083563 -1.481820 0.218222 54.000000
3.077204 -1.490403 0.218115 54.000000
3.071720 -1.499399 0.218062 54.000000
3.093988 -1.522036 0.219663 54.000000
4.266838 1.904990 0.255799 55.000000
4.267182 1.889463 0.255517 55.000000
4.275702 1.877568 0.255658 55.000000
4.277780 1.862845 0.255470 55.000000
4.286226 1.850901 0.255611 55.000000
4.283620 1.834202 0.255187 55.000000
4.299341 1.825348 0.255705 55.000000
4.293874 1.807496 0.255140 55.000000
4.292025 1.791234 0.254763 55.000000
4.291040 1.775383 0.254433 55.000000
4.294618 1.761452 0.254339 55.000000
4.295376 1.746385 0.254104 55.000000
4.297008 1.731705 0.253915 55.000000
4.324562 1.727412 0.255046 55.000000
4.295480 1.700523 0.253303 55.000000
4.298817 1.686607 0.253209 55.000000
4.302110 1.672686 0.253114 55.000000
4.303493 1.658042 0.252926 55.000000
4.307627 1.644475 0.252879 55.000000
4.312652 1.631251 0.252879 55.000000
4.314830 1.616960 0.252737 55.000000
4.323516 1.605107 0.252926 55.000000
4.319983 1.588730 0.252502 55.000000
4.327652 1.576495 0.252643 55.000000
4.327771 1.561514 0.252408 55.000000
4.330660 1.547557 0.252314 55.000000
4.335388 1.534263 0.252314 55.000000
4.346673 1.523269 0.252643 55.000000
4.345664 1.507961 0.252361 55.000000
4.347436 1.493647 0.252219 55.000000
4.345379 1.478049 0.251890 55.000000
4.347053 1.463753 0.251748 55.000000
4.347733 1.449145 0.251560 55.000000
4.349313 1.434860 0.251419 55.000000
4.351796 1.420889 0.251324 55.000000
4.354234 1.406917 0.251230 55.000000
4.358530 1.393552 0.251230 55.000000
4.358975 1.378967 0.251042 55.000000
4.358419 1.364095 0.250806 55.000000
4.359721 1.349830 0.250665 55.000000
4.968375 1.521757 0.280483 55.000000
4.967285 1.504768 0.280201 55.000000
4.971878 1.489522 0.280201 55.000000
4.998178 1.464045 0.281048 55.000000
3.354572 -0.941182 0.199743 55.000000
3.349746 -0.950924 0.199649 55.000000
3.341052 -0.959544 0.199366 55.000000
3.335215 -0.968955 0.199225 55.000000
3.327434 -0.977776 0.198989 55.000000
3.319630 -0.986559 0.198754 55.000000
3.311805 -0.995303 0.198518 55.000000
3.306824 -1.004878 0.198424 55.000000
3.300860 -1.014139 0.198282 55.000000
3.294871 -1.023374 0.198141 55.000000
3.289810 -1.032880 0.198047 55.000000
3.295195 -1.045684 0.198471 55.000000
3.285313 -1.053656 0.198141 55.000000
3.283015 -1.064037 0.198188 55.000000
3.277837 -1.073483 0.198094 55.000000
3.275476 -1.083848 0.198141 55.000000
3.271188 -1.093576 0.198094 55.000000
3.264978 -1.102648 0.197953 55.000000
3.259689 -1.112016 0.197858 55.000000
3.253428 -1.121036 0.197717 55.000000
3.247143 -1.130028 0.197576 55.000000
3.241776 -1.139323 0.197482 55.000000
3.234500 -1.147928 0.197293 55.000000
3.227201 -1.156499 0.197105 55.000000
3.220819 -1.165376 0.196963 55.000000
3.216290 -1.174910 0.196916 55.000000
3.211734 -1.184426 0.196869 55.000000
3.206212 -1.193578 0.196775 55.000000
3.202535 -1.203409 0.196775 55.000000
3.199762 -1.213582 0.196822 55.000000
3.195091 -1.223036 0.196775 55.000000
3.189460 -1.232114 0.196681 55.000000
3.183803 -1.241168 0.196587 55.000000
3.179051 -1.250565 0.196539 55.000000
3.172413 -1.259207 0.196398 55.000000
3.167608 -1.268563 0.196351 55.000000
3.164627 -1.278649 0.196398 55.000000
3.160690 -1.288352 0.196398 55.000000
3.156722 -1.298043 0.196398 55.000000
3.152725 -1.307722 0.196398 55.000000
3.149620 -1.317773 0.196445 55.000000
3.144642 -1.327042 0.196398 55.000000
3.137798 -1.335510 0.196257 55.000000
3.133686 -1.345131 0.196257 55.000000
3.129544 -1.354738 0.196257 55.000000
3.123542 -1.363535 0.196163 55.000000
3.117515 -1.372307 0.196068 55.000000
3.118769 -1.384295 0.196351 55.000000
3.115419 -1.394264 0.196398 55.000000
3.112948 -1.404636 0.196492 55.000000
3.109534 -1.414594 0.196539 55.000000
3.107903 -1.425375 0.196681 55.000000
3.102609 -1.434484 0.196634 55.000000
3.097288 -1.443575 0.196587 55.000000
3.091940 -1.452646 0.196539 55.000000
3.087469 -1.462125 0.196539 55.000000
3.082067 -1.471160 0.196492 55.000000
3.074839 -1.479311 0.196351 55.000000
3.069387 -1.488302 0.196304 55.000000
3.095325 -1.512612 0.197906 55.000000
4.287371 1.918277 0.229925 56.000000
4.273142 1.896204 0.229015 56.000000
4.285342 1.885901 0.229304 56.000000
4.287444 1.871147 0.229139 56.000000
4.289496 1.856398 0.228973 56.000000
4.285989 1.839291 0.228560 56.000000
4.294370 1.827306 0.228684 56.000000
4.291670 1.810629 0.228312 56.000000
4.297204 1.797454 0.228312 56.000000
4.297161 1.781967 0.228064 56.000000
4.297987 1.766877 0.227857 56.000000
4.295059 1.750291 0.227485 56.000000
4.296702 1.735610 0.227319 56.000000
4.297369 1.720564 0.227113 56.000000
4.301698 1.707003 0.227071 56.000000
4.297616 1.690143 0.226658 56.000000
4.300919 1.676225 0.226575 56.000000
4.303245 1.661943 0.226451 56.000000
4.306457 1.648020 0.226368 56.000000
4.310558 1.634446 0.226327 56.000000
4.309004 1.618756 0.226037 56.000000
4.317696 1.606921 0.226203 56.000000
4.322606 1.593667 0.226203 56.000000
4.324659 1.579370 0.226079 56.000000
4.326665 1.565076 0.225955 56.000000
4.337090 1.553815 0.226203 56.000000
4.336187 1.538499 0.225955 56.000000
4.334287 1.522872 0.225665 56.000000
4.334220 1.507927 0.225458 56.000000
4.333158 1.492671 0.225210 56.000000
4.341500 1.480660 0.225376 56.000000
4.345075 1.467014 0.225334 56.000000
4.348608 1.453360 0.225293 56.000000
4.351149 1.439385 0.225210 56.000000
4.355544 1.426029 0.225210 56.000000
4.361800 1.413275 0.225293 56.000000
4.364212 1.399277 0.225210 56.000000
4.369437 1.386183 0.225252 56.000000
4.376529 1.373668 0.225376 56.000000
4.969513 1.542893 0.250890 56.000000
4.976134 1.528226 0.250973 56.000000
4.987491 1.514983 0.251262 56.000000
4.992116 1.499675 0.251262 56.000000
4.994778 1.483784 0.251180 56.000000
3.360162 -0.928126 0.179805 56.000000
3.356336 -0.938161 0.179764 56.000000
3.348635 -0.947092 0.179557 56.000000
3.340911 -0.955985 0.179350 56.000000
3.334124 -0.965118 0.179185 56.000000
3.325395 -0.973656 0.178937 56.000000
3.316644 -0.982149 0.178689 56.000000
3.307873 -0.990598 0.178441 56.000000
3.299082 -0.999003 0.178193 56.000000
3.292180 -1.007948 0.178027 56.000000
3.286209 -1.017157 0.177903 56.000000
3.280213 -1.026338 0.177779 56.000000
3.278001 -1.036698 0.177820 56.000000
3.274805 -1.046750 0.177820 56.000000
3.274431 -1.057714 0.177944 56.000000
3.273069 -1.068376 0.178027 56.000000
3.273571 -1.079665 0.178193 56.000000
3.270244 -1.089704 0.178193 56.000000
3.268779 -1.100370 0.178275 56.000000
3.265387 -1.110393 0.178275 56.000000
3.260076 -1.119756 0.178193 56.000000
3.252850 -1.128441 0.178027 56.000000
3.245601 -1.137093 0.177862 56.000000
3.240213 -1.146378 0.177779 56.000000
3.231977 -1.154631 0.177572 56.000000
3.225600 -1.163523 0.177448 56.000000
3.220138 -1.172729 0.177365 56.000000
3.217463 -1.182948 0.177407 56.000000
3.212882 -1.192465 0.177365 56.000000
3.208273 -1.201966 0.177324 56.000000
3.204570 -1.211803 0.177324 56.000000
3.198037 -1.220559 0.177200 56.000000
3.191481 -1.229286 0.177076 56.000000
3.184901 -1.237985 0.176952 56.000000
3.179228 -1.247020 0.176869 56.000000
3.172600 -1.255664 0.176745 56.000000
3.168733 -1.265391 0.176745 56.000000
3.164836 -1.275107 0.176745 56.000000
3.159058 -1.284057 0.176662 56.000000
3.155104 -1.293743 0.176662 56.000000
3.151120 -1.303417 0.176662 56.000000
3.144340 -1.311923 0.176538 56.000000
3.137538 -1.320400 0.176414 56.000000
3.131633 -1.329238 0.176332 56.000000
3.126622 -1.338446 0.176290 56.000000
3.120667 -1.347240 0.176208 56.000000
3.118351 -1.357606 0.176290 56.000000
3.114171 -1.367166 0.176290 56.000000
3.112702 -1.377928 0.176414 56.000000
3.109373 -1.387879 0.176456 56.000000
3.107833 -1.398643 0.176580 56.000000
3.103527 -1.408171 0.176580 56.000000
3.099193 -1.417686 0.176580 56.000000
3.094829 -1.427187 0.176580 56.000000
3.090436 -1.436675 0.176580 56.000000
3.085109 -1.445726 0.176538 56.000000
3.079756 -1.454757 0.176497 56.000000
3.075278 -1.464199 0.176497 56.000000
3.068069 -1.472329 0.176373 56.000000
3.074330 -1.486959 0.176869 56.000000
4.291128 1.934703 0.200824 57.000000
4.288832 1.917858 0.200508 57.000000
4.291042 1.903070 0.200368 57.000000
4.292286 1.887885 0.200192 57.000000
4.296226 1.873909 0.200122 57.000000
4.292781 1.856753 0.199772 57.000000
4.293865 1.841605 0.199596 57.000000
4.293057 1.825686 0.199351 57.000000
4.291271 1.809400 0.199070 57.000000
4.292191 1.794299 0.198895 57.000000
4.295829 1.780358 0.198825 57.000000
4.295724 1.764892 0.198614 57.000000
4.295565 1.749443 0.198404 57.000000
4.296278 1.734386 0.198228 57.000000
4.293228 1.717856 0.197913 57.000000
4.294762 1.703203 0.197772 57.000000
4.298107 1.689288 0.197702 57.000000
4.304201 1.676457 0.197737 57.000000
4.308392 1.662884 0.197702 57.000000
4.318140 1.651443 0.197878 57.000000
4.320383 1.637125 0.197772 57.000000
4.320707 1.622106 0.197597 57.000000
4.317233 1.605708 0.197281 57.000000
4.324952 1.593492 0.197387 57.000000
4.326065 1.578846 0.197246 57.000000
4.333708 1.566585 0.197351 57.000000
4.333789 1.551598 0.197176 57.000000
4.336645 1.537627 0.197106 57.000000
4.334741 1.521998 0.196860 57.000000
4.344110 1.510333 0.197036 57.000000
4.343998 1.495372 0.196860 57.000000
4.342890 1.480104 0.196650 57.000000
4.344569 1.465815 0.196545 57.000000
4.345254 1.451213 0.196404 57.000000
4.355380 1.439757 0.196615 57.000000
4.359776 1.426388 0.196615 57.000000
4.364131 1.413005 0.196615 57.000000
4.368446 1.399610 0.196615 57.000000
4.370814 1.385597 0.196545 57.000000
4.375998 1.372480 0.196580 57.000000
4.375415 1.357568 0.196404 57.000000
4.975745 1.527059 0.218291 57.000000
3.361662 -0.918409 0.157928 57.000000
3.360755 -0.929251 0.157999 57.000000
3.357888 -0.939557 0.157999 57.000000
3.349221 -0.948220 0.157788 57.000000
3.343414 -0.957665 0.157683 57.000000
3.334701 -0.966249 0.157472 57.000000
3.325966 -0.974788 0.157262 57.000000
3.319128 -0.983851 0.157122 57.000000
3.311307 -0.992594 0.156946 57.000000
3.304421 -1.001588 0.156806 57.000000
3.298466 -1.010842 0.156701 57.000000
3.294394 -1.020661 0.156666 57.000000
3.284572 -1.028672 0.156420 57.000000
3.282353 -1.039046 0.156455 57.000000
3.278198 -1.048806 0.156420 57.000000
3.274014 -1.058551 0.156385 57.000000
3.271701 -1.068901 0.156420 57.000000
3.269356 -1.079247 0.156455 57.000000
3.267925 -1.089905 0.156525 57.000000
3.267407 -1.100883 0.156631 57.000000
3.264014 -1.110902 0.156631 57.000000
3.261536 -1.121236 0.156666 57.000000
3.255248 -1.130253 0.156561 57.000000
3.249879 -1.139573 0.156490 57.000000
3.239774 -1.147202 0.156245 57.000000
3.233416 -1.156127 0.156140 57.000000
3.227034 -1.165023 0.156034 57.000000
3.222505 -1.174575 0.155999 57.000000
3.218887 -1.184456 0.155999 57.000000
3.215238 -1.194326 0.155999 57.000000
3.211558 -1.204185 0.155999 57.000000
3.205980 -1.213324 0.155929 57.000000
3.201308 -1.222798 0.155894 57.000000
3.194745 -1.231535 0.155789 57.000000
3.185363 -1.239156 0.155578 57.000000
3.178756 -1.247827 0.155473 57.000000
3.171196 -1.256100 0.155333 57.000000
3.165472 -1.265082 0.155263 57.000000
3.160649 -1.274413 0.155228 57.000000
3.156724 -1.284104 0.155228 57.000000
3.152770 -1.293783 0.155228 57.000000
3.148785 -1.303449 0.155228 57.000000
3.142927 -1.312333 0.155158 57.000000
3.137965 -1.321581 0.155122 57.000000
3.133896 -1.331202 0.155122 57.000000
3.127960 -1.340023 0.155052 57.000000
3.122000 -1.348821 0.154982 57.000000
3.117847 -1.358392 0.154982 57.000000
3.113664 -1.367951 0.154982 57.000000
3.109453 -1.377498 0.154982 57.000000
3.107037 -1.387846 0.155052 57.000000
3.104587 -1.398193 0.155122 57.000000
3.101193 -1.408124 0.155158 57.000000
3.097767 -1.418048 0.155193 57.000000
3.092494 -1.427126 0.155158 57.000000
3.088101 -1.436607 0.155158 57.000000
3.080965 -1.444801 0.155052 57.000000
3.075614 -1.453820 0.155017 57.000000
3.068433 -1.461959 0.154912 57.000000
3.084653 -1.481318 0.155719 57.000000
3.971451 1.954203 0.161685 58.000000
3.986410 1.946397 0.161969 58.000000
3.998659 1.937209 0.162169 58.000000
4.009989 1.927531 0.162339 58.000000
4.035732 1.924687 0.162965 58.000000
4.043425 1.913152 0.163022 58.000000
4.082754 1.916456 0.164074 58.000000
4.148881 1.916525 0.165781 58.000000
4.204242 1.910889 0.167146 58.000000
4.289362 1.933729 0.169621 58.000000
4.289800 1.918112 0.169450 58.000000
4.287440 1.901294 0.169194 58.000000
4.293253 1.888132 0.169194 58.000000
4.293529 1.872553 0.169024 58.000000
4.289162 1.855006 0.168711 58.000000
4.288402 1.839080 0.168512 58.000000
4.288505 1.823568 0.168341 58.000000
4.289474 1.808460 0.168199 58.000000
4.293158 1.794521 0.168142 58.000000
4.294949 1.779810 0.168028 58.000000
4.296691 1.765105 0.167914 58.000000
4.300235 1.751161 0.167858 58.000000
4.299098 1.735340 0.167658 58.000000
4.298834 1.719914 0.167488 58.000000
4.302232 1.705980 0.167431 58.000000
4.303725 1.691310 0.167317 58.000000
4.304236 1.676284 0.167175 58.000000
4.309359 1.663071 0.167175 58.000000
4.312573 1.649128 0.167118 58.000000
4.322286 1.637661 0.167260 58.000000
4.325418 1.623690 0.167203 58.000000
4.334127 1.611806 0.167317 58.000000
4.324982 1.593317 0.166890 58.000000
4.327972 1.579355 0.166834 58.000000
4.329977 1.565050 0.166748 58.000000
4.330994 1.550411 0.166634 58.000000
4.333846 1.536448 0.166578 58.000000
4.338539 1.523145 0.166578 58.000000
4.345080 1.510484 0.166634 58.000000
4.346859 1.496170 0.166549 58.000000
4.350482 1.482504 0.166521 58.000000
4.351221 1.467872 0.166407 58.000000
4.354756 1.454199 0.166378 58.000000
4.353502 1.438949 0.166208 58.000000
4.352197 1.423721 0.166037 58.000000
4.358446 1.410978 0.166094 58.000000
4.360850 1.396990 0.166037 58.000000
4.373692 1.386323 0.166293 58.000000
4.947325 1.551513 0.183275 58.000000
4.955880 1.537513 0.183389 58.000000
4.954840 1.520541 0.183218 58.000000
4.960438 1.505623 0.183246 58.000000
4.977480 1.494135 0.183616 58.000000
4.987790 1.480564 0.183787 58.000000
3.361225 -0.907550 0.134804 58.000000
3.360354 -0.918385 0.134861 58.000000
3.357521 -0.928690 0.134861 58.000000
3.349842 -0.937640 0.134719 58.000000
3.344064 -0.947096 0.134634 58.000000
3.337299 -0.956250 0.134520 58.000000
3.331470 -0.965649 0.134435 58.000000
3.323695 -0.974460 0.134292 58.000000
3.317815 -0.983800 0.134207 58.000000
3.311908 -0.993114 0.134122 58.000000
3.305976 -1.002400 0.134036 58.000000
3.300018 -1.011659 0.133951 58.000000
3.296899 -1.021779 0.133951 58.000000
3.292794 -1.031590 0.133923 58.000000
3.287708 -1.041084 0.133866 58.000000
3.283547 -1.050861 0.133837 58.000000
3.278405 -1.060315 0.133780 58.000000
3.271336 -1.069126 0.133667 58.000000
3.266142 -1.078531 0.133610 58.000000
3.261869 -1.088230 0.133581 58.000000
3.256621 -1.097594 0.133524 58.000000
3.253238 -1.107580 0.133524 58.000000
3.249825 -1.117555 0.133524 58.000000
3.245437 -1.127192 0.133496 58.000000
3.240077 -1.136482 0.133439 58.000000
3.235632 -1.146084 0.133411 58.000000
3.229277 -1.154996 0.133325 58.000000
3.222898 -1.163879 0.133240 58.000000
3.217434 -1.173077 0.133183 58.000000
3.214758 -1.183288 0.133212 58.000000
3.211112 -1.193145 0.133212 58.000000
3.207437 -1.202991 0.133212 58.000000
3.204666 -1.213179 0.133240 58.000000
3.199061 -1.222292 0.133183 58.000000
3.192498 -1.231022 0.133098 58.000000
3.185911 -1.239724 0.133012 58.000000
3.180232 -1.248762 0.132956 58.000000
3.173598 -1.257408 0.132870 58.000000
3.166941 -1.266026 0.132785 58.000000
3.162115 -1.275362 0.132756 58.000000
3.157261 -1.284681 0.132728 58.000000
3.153305 -1.294361 0.132728 58.000000
3.148395 -1.303647 0.132700 58.000000
3.143459 -1.312915 0.132671 58.000000
3.139416 -1.322553 0.132671 58.000000
3.134423 -1.331787 0.132643 58.000000
3.130323 -1.341397 0.132643 58.000000
3.126193 -1.350995 0.132643 58.000000
3.120200 -1.359781 0.132586 58.000000
3.116014 -1.369347 0.132586 58.000000
3.111798 -1.378900 0.132586 58.000000
3.108466 -1.388848 0.132614 58.000000
3.104190 -1.398378 0.132614 58.000000
3.099886 -1.407895 0.132614 58.000000
3.096461 -1.417815 0.132643 58.000000
3.091189 -1.426889 0.132614 58.000000
3.085890 -1.435945 0.132586 58.000000
3.080565 -1.444981 0.132557 58.000000
3.077021 -1.454852 0.132586 58.000000
3.070739 -1.463426 0.132529 58.000000
3.168057 -1.521735 0.135743 58.000000
3.965307 1.963516 0.136236 59.000000
3.970415 1.950901 0.136213 59.000000
3.988961 1.944847 0.136530 59.000000
4.006607 1.938263 0.136825 59.000000
4.029656 1.934186 0.137256 59.000000
4.029254 1.918804 0.137098 59.000000
4.073082 1.924380 0.138051 59.000000
4.119698 1.930979 0.139071 59.000000
4.117445 1.914535 0.138867 59.000000
4.136007 1.907759 0.139185 59.000000
4.204562 1.923778 0.140750 59.000000
4.271432 1.938567 0.142270 59.000000
4.275536 1.924632 0.142225 59.000000
4.284159 1.912729 0.142293 59.000000
4.289093 1.899171 0.142270 59.000000
4.285747 1.881982 0.142044 59.000000
4.284168 1.865629 0.141862 59.000000
4.284366 1.850098 0.141726 59.000000
4.288184 1.836157 0.141681 59.000000
4.288276 1.820647 0.141544 59.000000
4.289235 1.805542 0.141431 59.000000
4.292909 1.791603 0.141386 59.000000
4.293766 1.776512 0.141272 59.000000
4.296422 1.762192 0.141204 59.000000
4.299956 1.748249 0.141159 59.000000
4.299736 1.732805 0.141023 59.000000
4.297606 1.716637 0.140841 59.000000
4.297275 1.701235 0.140705 59.000000
4.299683 1.686947 0.140637 59.000000
4.302042 1.672660 0.140569 59.000000
4.307154 1.659454 0.140569 59.000000
4.314093 1.646945 0.140614 59.000000
4.318190 1.633348 0.140592 59.000000
4.322245 1.619741 0.140569 59.000000
4.326257 1.606125 0.140546 59.000000
4.331164 1.592845 0.140546 59.000000
4.332273 1.578180 0.140455 59.000000
4.330513 1.562504 0.140297 59.000000
4.329638 1.547191 0.140160 59.000000
4.331537 1.532899 0.140092 59.000000
4.335276 1.519272 0.140070 59.000000
4.339916 1.505965 0.140070 59.000000
4.353025 1.495569 0.140274 59.000000
4.352861 1.480596 0.140160 59.000000
4.355488 1.466596 0.140115 59.000000
4.353328 1.451012 0.139956 59.000000
4.352064 1.435768 0.139820 59.000000
4.351696 1.420857 0.139707 59.000000
4.355084 1.407192 0.139684 59.000000
4.362237 1.394738 0.139752 59.000000
4.365542 1.381047 0.139729 59.000000
4.375483 1.369440 0.139866 59.000000
4.390168 1.359265 0.140115 59.000000
4.950619 1.516315 0.153319 59.000000
4.953334 1.500539 0.153274 59.000000
4.958872 1.485622 0.153296 59.000000
3.359195 -0.909214 0.114796 59.000000
3.354460 -0.918988 0.114751 59.000000
3.347771 -0.928208 0.114660 59.000000
3.341057 -0.937395 0.114569 59.000000
3.336242 -0.947095 0.114524 59.000000
3.331399 -0.956775 0.114478 59.000000
3.326527 -0.966434 0.114433 59.000000
3.320669 -0.975791 0.114365 59.000000
3.315743 -0.985405 0.114320 59.000000
3.308874 -0.994423 0.114229 59.000000
3.302938 -1.003699 0.114161 59.000000
3.295064 -1.012361 0.114047 59.000000
3.292897 -1.022761 0.114070 59.000000
3.287836 -1.032261 0.114025 59.000000
3.287513 -1.043249 0.114093 59.000000
3.281440 -1.052415 0.114025 59.000000
3.279147 -1.062785 0.114047 59.000000
3.269220 -1.070665 0.113889 59.000000
3.264971 -1.080376 0.113866 59.000000
3.254055 -1.087854 0.113684 59.000000
3.245965 -1.096235 0.113571 59.000000
3.240694 -1.105543 0.113526 59.000000
3.237287 -1.115480 0.113526 59.000000
3.233850 -1.125407 0.113526 59.000000
3.231325 -1.135654 0.113548 59.000000
3.227826 -1.145562 0.113548 59.000000
3.224296 -1.155460 0.113548 59.000000
3.218856 -1.164666 0.113503 59.000000
3.214328 -1.174194 0.113480 59.000000
3.209773 -1.183704 0.113457 59.000000
3.206126 -1.193546 0.113457 59.000000
3.200577 -1.202674 0.113412 59.000000
3.196872 -1.212487 0.113412 59.000000
3.192204 -1.221932 0.113389 59.000000
3.186574 -1.231000 0.113344 59.000000
3.179988 -1.239682 0.113276 59.000000
3.176170 -1.249432 0.113276 59.000000
3.168604 -1.257697 0.113185 59.000000
3.162874 -1.266669 0.113140 59.000000
3.158046 -1.275993 0.113117 59.000000
3.152265 -1.284921 0.113072 59.000000
3.147383 -1.294207 0.113049 59.000000
3.141551 -1.303091 0.113004 59.000000
3.137538 -1.312723 0.113004 59.000000
3.132575 -1.321954 0.112981 59.000000
3.129424 -1.331950 0.113004 59.000000
3.127161 -1.342333 0.113049 59.000000
3.123028 -1.351920 0.113049 59.000000
3.118865 -1.361495 0.113049 59.000000
3.114674 -1.371057 0.113049 59.000000
3.110453 -1.380607 0.113049 59.000000
3.106202 -1.390143 0.113049 59.000000
3.101012 -1.399255 0.113026 59.000000
3.095794 -1.408349 0.113004 59.000000
3.092367 -1.418256 0.113026 59.000000
3.087094 -1.427318 0.113004 59.000000
3.083607 -1.437204 0.113026 59.000000
3.079183 -1.446658 0.113026 59.000000
3.074730 -1.456097 0.113026 59.000000
3.964907 1.983459 0.109433 60.000000
4.013071 1.992170 0.110212 60.000000
3.985973 1.963510 0.109599 60.000000
4.004556 1.957416 0.109831 60.000000
4.044425 1.946241 0.110345 60.000000
4.059401 1.938129 0.110511 60.000000
4.119551 1.951333 0.111506 60.000000
4.120088 1.936135 0.111406 60.000000
4.138697 1.929397 0.111638 60.000000
4.150043 1.919208 0.111738 60.000000
4.190450 1.922300 0.112368 60.000000
4.219082 1.919782 0.112782 60.000000
4.267790 1.926150 0.113561 60.000000
4.280981 1.916314 0.113694 60.000000
4.293238 1.906009 0.113810 60.000000
4.293574 1.890413 0.113711 60.000000
4.289273 1.872833 0.113528 60.000000
4.297751 1.860856 0.113578 60.000000
4.291495 1.842536 0.113363 60.000000
4.290687 1.826622 0.113246 60.000000
4.292586 1.811895 0.113180 60.000000
4.291667 1.796017 0.113064 60.000000
4.294386 1.781693 0.113014 60.000000
4.294283 1.766229 0.112915 60.000000
4.296904 1.751914 0.112865 60.000000
4.293915 1.735353 0.112716 60.000000
4.299218 1.722172 0.112716 60.000000
4.295188 1.705287 0.112550 60.000000
4.301330 1.692467 0.112567 60.000000
4.304639 1.678537 0.112534 60.000000
4.308836 1.664962 0.112517 60.000000
4.313923 1.651735 0.112517 60.000000
4.319905 1.638847 0.112534 60.000000
4.324913 1.625586 0.112534 60.000000
4.327068 1.611263 0.112484 60.000000
4.330115 1.597289 0.112451 60.000000
4.330299 1.582282 0.112368 60.000000
4.330431 1.567289 0.112285 60.000000
4.330513 1.552311 0.112202 60.000000
4.334313 1.538683 0.112185 60.000000
4.335239 1.524053 0.112119 60.000000
4.341784 1.511403 0.112152 60.000000
4.344510 1.497424 0.112119 60.000000
4.348136 1.483765 0.112102 60.000000
4.350774 1.469779 0.112069 60.000000
4.350521 1.454840 0.111986 60.000000
4.351166 1.440230 0.111920 60.000000
4.351764 1.425630 0.111854 60.000000
4.353263 1.411348 0.111804 60.000000
4.353764 1.396765 0.111738 60.000000
4.360888 1.384308 0.111787 60.000000
4.918434 1.544546 0.121404 60.000000
4.944158 1.535970 0.121768 60.000000
4.949802 1.521088 0.121785 60.000000
4.962100 1.508220 0.121918 60.000000
4.978194 1.496441 0.122117 60.000000
4.994264 1.484577 0.122316 60.000000
3.359533 -0.894127 0.093566 60.000000
3.355809 -0.904170 0.093550 60.000000
3.356877 -0.915514 0.093616 60.000000
3.350198 -0.924743 0.093550 60.000000
3.346382 -0.934748 0.093533 60.000000
3.337726 -0.943377 0.093433 60.000000
3.336739 -0.954163 0.093467 60.000000
3.328033 -0.962726 0.093367 60.000000
3.320266 -0.971526 0.093284 60.000000
3.313436 -0.980572 0.093218 60.000000
3.301791 -0.988150 0.093069 60.000000
3.295874 -0.997405 0.093019 60.000000
3.289930 -1.006633 0.092969 60.000000
3.284916 -1.016130 0.092936 60.000000
3.283691 -1.026801 0.092969 60.000000
3.284339 -1.038077 0.093036 60.000000
3.279234 -1.047539 0.093002 60.000000
3.276956 -1.057902 0.093019 60.000000
3.269893 -1.066709 0.092953 60.000000
3.261858 -1.075169 0.092870 60.000000
3.254750 -1.083907 0.092803 60.000000
3.246671 -1.092291 0.092721 60.000000
3.242358 -1.101925 0.092704 60.000000
3.237071 -1.111217 0.092671 60.000000
3.233647 -1.121143 0.092671 60.000000
3.231136 -1.131389 0.092687 60.000000
3.228592 -1.141631 0.092704 60.000000
3.226016 -1.151867 0.092721 60.000000
3.223407 -1.162098 0.092737 60.000000
3.221706 -1.172667 0.092770 60.000000
3.215278 -1.181509 0.092721 60.000000
3.211638 -1.191368 0.092721 60.000000
3.205159 -1.200163 0.092671 60.000000
3.198656 -1.208929 0.092621 60.000000
3.193998 -1.218380 0.092605 60.000000
3.187446 -1.227095 0.092555 60.000000
3.181803 -1.236143 0.092522 60.000000
3.175203 -1.244803 0.092472 60.000000
3.170439 -1.254171 0.092455 60.000000
3.164720 -1.263150 0.092422 60.000000
3.159902 -1.272479 0.092406 60.000000
3.156910 -1.282544 0.092422 60.000000
3.152960 -1.292223 0.092422 60.000000
3.148057 -1.301508 0.092406 60.000000
3.144049 -1.311160 0.092406 60.000000
3.139090 -1.320412 0.092389 60.000000
3.135024 -1.330036 0.092389 60.000000
3.132767 -1.340435 0.092422 60.000000
3.126804 -1.349247 0.092389 60.000000
3.122650 -1.358834 0.092389 60.000000
3.117551 -1.368006 0.092372 60.000000
3.113340 -1.377564 0.092372 60.000000
3.106360 -1.385886 0.092323 60.000000
3.102093 -1.395409 0.092323 60.000000
3.097798 -1.404920 0.092323 60.000000
3.093473 -1.414417 0.092323 60.000000
3.090027 -1.424320 0.092339 60.000000
3.087456 -1.434637 0.092372 60.000000
3.085756 -1.445375 0.092422 60.000000
3.073171 -1.450991 0.092273 60.000000
3.988746 1.992560 0.083484 61.000000
3.996632 1.981202 0.083505 61.000000
4.016151 1.975550 0.083665 61.000000
4.036572 1.970236 0.083835 61.000000
4.049798 1.961329 0.083920 61.000000
4.080132 1.960586 0.084208 61.000000
4.130955 1.953896 0.084665 61.000000
4.152320 1.948433 0.084846 61.000000
4.179129 1.945388 0.085091 61.000000
4.203235 1.940941 0.085304 61.000000
4.235535 1.940110 0.085613 61.000000
4.285167 1.946957 0.086124 61.000000
4.287474 1.932158 0.086081 61.000000
4.286991 1.916140 0.086007 61.000000
4.289192 1.901358 0.085964 61.000000
4.293175 1.887385 0.085943 61.000000
4.294362 1.872207 0.085890 61.000000
4.296414 1.857437 0.085847 61.000000
4.301173 1.843853 0.085836 61.000000
4.299447 1.827520 0.085751 61.000000
4.295819 1.810438 0.085645 61.000000
4.295817 1.794937 0.085581 61.000000
4.295761 1.779454 0.085517 61.000000
4.298424 1.765127 0.085485 61.000000
4.302893 1.751554 0.085474 61.000000
4.301755 1.735726 0.085400 61.000000
4.294990 1.717695 0.085262 61.000000
4.300240 1.704510 0.085262 61.000000
4.305449 1.691309 0.085262 61.000000
4.305958 1.676278 0.085208 61.000000
4.310148 1.662700 0.085198 61.000000
4.317097 1.650183 0.085219 61.000000
4.321204 1.636576 0.085208 61.000000
4.330885 1.625067 0.085262 61.000000
4.330227 1.609683 0.085198 61.000000
4.333268 1.595699 0.085176 61.000000
4.334386 1.581027 0.085134 61.000000
4.336394 1.566703 0.085102 61.000000
4.338356 1.552381 0.085070 61.000000
4.340271 1.538062 0.085038 61.000000
4.344969 1.524740 0.085038 61.000000
4.349627 1.511402 0.085038 61.000000
4.351406 1.497075 0.085006 61.000000
4.353139 1.482751 0.084974 61.000000
4.351982 1.467472 0.084910 61.000000
4.352670 1.452847 0.084868 61.000000
4.352359 1.437919 0.084814 61.000000
4.354849 1.423938 0.084793 61.000000
4.357294 1.409955 0.084772 61.000000
4.360647 1.396276 0.084761 61.000000
4.363004 1.382287 0.084740 61.000000
4.367224 1.368895 0.084740 61.000000
4.899577 1.519218 0.090627 61.000000
4.954884 1.519715 0.091192 61.000000
4.963350 1.505667 0.091234 61.000000
4.973693 1.492157 0.091298 61.000000
3.379241 -0.879421 0.073189 61.000000
3.359123 -0.885196 0.072997 61.000000
3.357358 -0.895755 0.073008 61.000000
3.353629 -0.905790 0.072997 61.000000
3.353728 -0.916866 0.073029 61.000000
3.345117 -0.925551 0.072965 61.000000
3.341298 -0.935539 0.072954 61.000000
3.336488 -0.945240 0.072933 61.000000
3.334534 -0.955748 0.072944 61.000000
3.324863 -0.964024 0.072869 61.000000
3.319971 -0.973656 0.072848 61.000000
3.306424 -0.980708 0.072731 61.000000
3.299568 -0.989698 0.072688 61.000000
3.292689 -0.998655 0.072646 61.000000
3.285786 -1.007579 0.072603 61.000000
3.283634 -1.017951 0.072614 61.000000
3.280496 -1.028021 0.072614 61.000000
3.277326 -1.038080 0.072614 61.000000
3.274126 -1.048130 0.072614 61.000000
3.266138 -1.056630 0.072560 61.000000
3.260980 -1.066024 0.072539 61.000000
3.253897 -1.074769 0.072497 61.000000
3.248687 -1.084113 0.072475 61.000000
3.245346 -1.094075 0.072475 61.000000
3.240081 -1.103382 0.072454 61.000000
3.236681 -1.113317 0.072454 61.000000
3.234194 -1.123570 0.072465 61.000000
3.230732 -1.133487 0.072465 61.000000
3.226297 -1.143059 0.072454 61.000000
3.224658 -1.153626 0.072475 61.000000
3.224865 -1.164873 0.072518 61.000000
3.219397 -1.174076 0.072497 61.000000
3.216718 -1.184293 0.072507 61.000000
3.212132 -1.193807 0.072497 61.000000
3.208455 -1.203657 0.072497 61.000000
3.198201 -1.211015 0.072422 61.000000
3.191669 -1.219750 0.072390 61.000000
3.185113 -1.228456 0.072358 61.000000
3.177602 -1.236771 0.072316 61.000000
3.171931 -1.245783 0.072294 61.000000
3.165305 -1.254403 0.072262 61.000000
3.161442 -1.264108 0.072262 61.000000
3.157549 -1.273801 0.072262 61.000000
3.153626 -1.283482 0.072262 61.000000
3.149674 -1.293151 0.072262 61.000000
3.148463 -1.303957 0.072294 61.000000
3.142602 -1.312839 0.072273 61.000000
3.140403 -1.323251 0.072294 61.000000
3.134488 -1.332096 0.072273 61.000000
3.130386 -1.341707 0.072273 61.000000
3.126255 -1.351304 0.072273 61.000000
3.121178 -1.360489 0.072262 61.000000
3.115159 -1.369254 0.072241 61.000000
3.109115 -1.377994 0.072220 61.000000
3.103047 -1.386710 0.072199 61.000000
3.098778 -1.396223 0.072199 61.000000
3.094480 -1.405724 0.072199 61.000000
3.091971 -1.416044 0.072220 61.000000
3.085796 -1.424685 0.072199 61.000000
3.089570 -1.437943 0.072294 61.000000
3.071565 -1.441043 0.072135 61.000000
4.062908 1.982881 0.055051 62.000000
4.085172 1.978253 0.055127 62.000000
4.129077 1.983903 0.055303 62.000000
4.156807 1.981555 0.055403 62.000000
4.173715 1.973924 0.055453 62.000000
4.207814 1.974280 0.055583 62.000000
4.250114 1.978243 0.055751 62.000000
4.274320 1.973580 0.055835 62.000000
4.299447 1.969204 0.055923 62.000000
4.330959 1.967588 0.056040 62.000000
4.300508 1.937855 0.055872 62.000000
4.286349 1.915674 0.055780 62.000000
4.290378 1.901704 0.055772 62.000000
4.293446 1.887325 0.055759 62.000000
4.298299 1.873744 0.055755 62.000000
4.300356 1.858961 0.055738 62.000000
4.299605 1.843001 0.055709 62.000000
4.301558 1.828236 0.055692 62.000000
4.299775 1.811923 0.055659 62.000000
4.300700 1.796795 0.055638 62.000000
4.297878 1.780148 0.055600 62.000000
4.301469 1.766194 0.055592 62.000000
4.306868 1.752989 0.055592 62.000000
4.304807 1.736774 0.055558 62.000000
4.301758 1.720216 0.055520 62.000000
4.306086 1.706642 0.055516 62.000000
4.306648 1.691595 0.055495 62.000000
4.306226 1.676197 0.055470 62.000000
4.310416 1.662618 0.055466 62.000000
4.312694 1.648315 0.055453 62.000000
4.317731 1.635076 0.055453 62.000000
4.318046 1.620065 0.055432 62.000000
4.328619 1.608900 0.055458 62.000000
4.332597 1.595267 0.055453 62.000000
4.335592 1.581282 0.055445 62.000000
4.338542 1.567294 0.055437 62.000000
4.340505 1.552965 0.055424 62.000000
4.343364 1.538973 0.055416 62.000000
4.345234 1.524647 0.055403 62.000000
4.349892 1.511309 0.055403 62.000000
4.351671 1.496980 0.055391 62.000000
4.354350 1.482978 0.055382 62.000000
4.357932 1.469292 0.055378 62.000000
4.365264 1.456865 0.055391 62.000000
4.370663 1.443780 0.055395 62.000000
4.364617 1.426945 0.055349 62.000000
4.367071 1.412932 0.055340 62.000000
4.385671 1.404102 0.055403 62.000000
4.367079 1.383391 0.055303 62.000000
4.897067 1.534812 0.057611 62.000000
4.925631 1.527186 0.057715 62.000000
4.936985 1.514120 0.057745 62.000000
4.948305 1.500999 0.057774 62.000000
4.954803 1.486386 0.057782 62.000000
4.990017 1.480281 0.057916 62.000000
3.354160 -0.873226 0.050632 62.000000
3.350498 -0.883257 0.050628 62.000000
3.348739 -0.893790 0.050632 62.000000
3.345016 -0.903799 0.050628 62.000000
3.342227 -0.914057 0.050628 62.000000
3.339407 -0.924307 0.050628 62.000000
3.335593 -0.934278 0.050624 62.000000
3.330786 -0.943962 0.050615 62.000000
3.324991 -0.953350 0.050603 62.000000
3.316288 -0.961875 0.050578 62.000000
3.311402 -0.971482 0.050569 62.000000
3.305530 -0.980784 0.050557 62.000000
3.295800 -0.988909 0.050527 62.000000
3.288923 -0.997855 0.050511 62.000000
3.284890 -1.007648 0.050506 62.000000
3.279873 -1.017129 0.050498 62.000000
3.275783 -1.026887 0.050494 62.000000
3.270710 -1.036329 0.050485 62.000000
3.265611 -1.045748 0.050477 62.000000
3.259533 -1.054839 0.050465 62.000000
3.253430 -1.063902 0.050452 62.000000
3.247302 -1.072937 0.050439 62.000000
3.243995 -1.082895 0.050439 62.000000
3.240657 -1.092842 0.050439 62.000000
3.239182 -1.103424 0.050448 62.000000
3.234836 -1.113031 0.050444 62.000000
3.231406 -1.122950 0.050444 62.000000
3.227002 -1.132528 0.050439 62.000000
3.223513 -1.142423 0.050439 62.000000
3.217168 -1.151297 0.050427 62.000000
3.215502 -1.161841 0.050435 62.000000
3.210983 -1.171358 0.050431 62.000000
3.207374 -1.181203 0.050431 62.000000
3.203735 -1.191038 0.050431 62.000000
3.201002 -1.201212 0.050435 62.000000
3.192626 -1.209257 0.050414 62.000000
3.187967 -1.218689 0.050410 62.000000
3.179548 -1.226665 0.050389 62.000000
3.174837 -1.236051 0.050385 62.000000
3.168238 -1.244689 0.050372 62.000000
3.162545 -1.253666 0.050364 62.000000
3.157755 -1.262991 0.050360 62.000000
3.152011 -1.271925 0.050351 62.000000
3.148094 -1.281589 0.050351 62.000000
3.144147 -1.291242 0.050351 62.000000
3.140171 -1.300882 0.050351 62.000000
3.136165 -1.310509 0.050351 62.000000
3.132130 -1.320125 0.050351 62.000000
3.128985 -1.330119 0.050356 62.000000
3.125809 -1.340106 0.050360 62.000000
3.121683 -1.349690 0.050360 62.000000
3.117527 -1.359261 0.050360 62.000000
3.111512 -1.368014 0.050351 62.000000
3.105472 -1.376743 0.050343 62.000000
3.101233 -1.386264 0.050343 62.000000
3.093319 -1.394129 0.050326 62.000000
3.086296 -1.402372 0.050314 62.000000
3.081979 -1.411834 0.050314 62.000000
3.074909 -1.420025 0.050301 62.000000
3.055125 -1.422279 0.050230 62.000000
3.074286 -1.442688 0.050339 62.000000
3.999289 1.996527 0.026851 63.000000
4.045562 1.988723 0.026772 63.000000
4.061530 1.981127 0.026749 63.000000
4.081988 1.975631 0.026715 63.000000
4.138505 1.987353 0.026598 63.000000
4.149096 1.976798 0.026587 63.000000
4.190397 1.980735 0.026506 63.000000
4.239907 1.988260 0.026405 63.000000
4.282251 1.992124 0.026321 63.000000
4.325565 1.996165 0.026235 63.000000
4.353489 1.992880 0.026185 63.000000
