# This PCD file was generated using the MATLAB® pcwrite function
# from Computer Vision Toolbox®.
# .PCD v.7 - Point Cloud Data file format
VERSION .7
FIELDS x y z intensity
SIZE 4 4 4 4
TYPE F F F F
COUNT 1 1 1 1
WIDTH 1224
HEIGHT 1
VIEWPOINT 0 0 0 1 0 0 0
POINTS 1224
DATA ascii
2.639793 -0.703296 0.014847 64.000000
2.635692 -0.710870 0.014863 64.000000
2.633499 -0.718952 0.014863 64.000000
2.631281 -0.727028 0.014863 64.000000
2.630001 -0.735367 0.014855 64.000000
2.628695 -0.743705 0.014847 64.000000
2.628323 -0.752318 0.014832 64.000000
2.622161 -0.759264 0.014863 64.000000
2.621738 -0.767868 0.014847 64.000000
2.620329 -0.776192 0.014839 64.000000
2.615062 -0.783365 0.014863 64.000000
2.614560 -0.791965 0.014847 64.000000
2.613074 -0.800276 0.014839 64.000000
2.610607 -0.808289 0.014839 64.000000
2.606206 -0.815696 0.014855 64.000000
2.604645 -0.823990 0.014847 64.000000
2.601152 -0.831672 0.014855 64.000000
2.597637 -0.839341 0.014863 64.000000
2.594099 -0.846995 0.014871 64.000000
2.589589 -0.854323 0.014887 64.000000
2.587905 -0.862580 0.014879 64.000000
2.583351 -0.869876 0.014894 64.000000
2.581617 -0.878120 0.014887 64.000000
2.581747 -0.887012 0.014863 64.000000
2.579014 -0.894929 0.014863 64.000000
2.579087 -0.903830 0.014839 64.000000
2.576302 -0.911739 0.014839 64.000000
2.572551 -0.919301 0.014847 64.000000
2.568778 -0.926850 0.014855 64.000000
2.566862 -0.935069 0.014847 64.000000
2.562104 -0.942249 0.014863 64.000000
2.559201 -0.950105 0.014863 64.000000
2.556274 -0.957952 0.014863 64.000000
2.551453 -0.965081 0.014879 64.000000
2.553151 -0.974690 0.014839 64.000000
2.550148 -0.982518 0.014839 64.000000
2.551781 -0.992151 0.014800 64.000000
2.505912 -0.983156 0.015161 64.000000
2.487080 -0.984576 0.015295 64.000000
2.501228 -1.070988 0.014934 64.000000
4.417183 -1.908403 -0.001489 64.000000
4.401225 -1.917549 -0.001402 64.000000
4.405390 -1.935470 -0.001489 64.000000
4.363305 -1.948999 -0.001230 64.000000
4.336698 -1.969117 -0.001104 64.000000
4.295483 -1.982274 -0.000853 64.000000
2.740147 -0.396694 -0.003222 65.000000
2.737928 -0.404952 -0.003207 65.000000
2.734696 -0.413051 -0.003179 65.000000
2.732428 -0.421287 -0.003164 65.000000
2.730134 -0.429512 -0.003150 65.000000
2.727817 -0.437727 -0.003136 65.000000
2.723500 -0.445609 -0.003093 65.000000
2.721134 -0.453798 -0.003078 65.000000
2.718744 -0.461977 -0.003064 65.000000
2.716328 -0.470145 -0.003050 65.000000
2.711919 -0.477955 -0.003007 65.000000
2.710440 -0.486273 -0.003007 65.000000
2.708935 -0.494586 -0.003007 65.000000
2.704456 -0.502347 -0.002964 65.000000
2.699955 -0.510084 -0.002921 65.000000
2.697395 -0.518176 -0.002907 65.000000
2.693830 -0.526066 -0.002878 65.000000
2.693184 -0.534523 -0.002892 65.000000
2.687611 -0.541992 -0.002835 65.000000
2.684956 -0.550034 -0.002821 65.000000
2.684235 -0.558472 -0.002835 65.000000
2.682509 -0.566705 -0.002835 65.000000
2.680758 -0.574932 -0.002835 65.000000
2.678981 -0.583154 -0.002835 65.000000
2.680108 -0.592017 -0.002878 65.000000
2.678279 -0.600237 -0.002878 65.000000
2.676425 -0.608451 -0.002878 65.000000
2.676495 -0.617109 -0.002907 65.000000
2.675562 -0.625545 -0.002921 65.000000
2.674603 -0.633981 -0.002935 65.000000
2.671674 -0.641950 -0.002921 65.000000
2.668720 -0.649907 -0.002907 65.000000
2.665743 -0.657852 -0.002892 65.000000
2.661772 -0.665542 -0.002864 65.000000
2.657779 -0.673214 -0.002835 65.000000
2.653764 -0.680867 -0.002807 65.000000
2.650695 -0.688754 -0.002792 65.000000
2.648570 -0.696883 -0.002792 65.000000
2.644487 -0.704490 -0.002764 65.000000
2.642313 -0.712600 -0.002764 65.000000
2.638186 -0.720176 -0.002735 65.000000
2.638855 -0.729066 -0.002778 65.000000
2.633717 -0.736350 -0.002735 65.000000
2.631445 -0.744427 -0.002735 65.000000
2.630111 -0.752772 -0.002749 65.000000
2.626828 -0.760559 -0.002735 65.000000
2.623523 -0.768333 -0.002721 65.000000
2.622112 -0.776663 -0.002735 65.000000
2.618759 -0.784417 -0.002721 65.000000
2.616340 -0.792447 -0.002721 65.000000
2.615809 -0.801056 -0.002749 65.000000
2.613339 -0.809078 -0.002749 65.000000
2.610844 -0.817091 -0.002749 65.000000
2.608325 -0.825098 -0.002749 65.000000
2.605782 -0.833096 -0.002749 65.000000
2.600359 -0.840164 -0.002706 65.000000
2.595868 -0.847517 -0.002678 65.000000
2.593256 -0.855477 -0.002678 65.000000
2.590619 -0.863429 -0.002678 65.000000
2.586063 -0.870734 -0.002649 65.000000
2.584326 -0.878986 -0.002663 65.000000
2.584454 -0.887885 -0.002706 65.000000
2.584552 -0.896794 -0.002749 65.000000
2.581788 -0.904719 -0.002749 65.000000
2.581828 -0.913637 -0.002792 65.000000
2.581837 -0.922563 -0.002835 65.000000
2.577114 -0.929801 -0.002807 65.000000
2.574249 -0.937703 -0.002807 65.000000
2.570422 -0.945251 -0.002792 65.000000
2.569385 -0.953829 -0.002821 65.000000
2.565510 -0.961356 -0.002807 65.000000
2.563483 -0.969576 -0.002821 65.000000
2.561431 -0.977793 -0.002835 65.000000
2.559352 -0.986006 -0.002849 65.000000
2.572157 -1.000015 -0.003093 65.000000
2.542084 -0.997308 -0.002678 65.000000
4.484019 -1.903961 -0.033318 65.000000
4.462531 -1.911016 -0.033075 65.000000
4.436971 -1.932372 -0.032860 65.000000
4.430106 -1.945573 -0.032846 65.000000
4.408575 -1.952271 -0.032602 65.000000
4.373121 -1.984911 -0.032331 65.000000
4.355191 -1.992908 -0.032144 65.000000
2.730961 -0.388200 -0.020312 66.000000
2.729757 -0.396577 -0.020312 66.000000
2.729516 -0.405096 -0.020332 66.000000
2.726284 -0.413169 -0.020291 66.000000
2.725991 -0.421684 -0.020312 66.000000
2.719747 -0.429266 -0.020209 66.000000
2.717430 -0.437450 -0.020188 66.000000
2.714102 -0.445461 -0.020147 66.000000
2.713708 -0.453950 -0.020168 66.000000
2.710332 -0.461938 -0.020126 66.000000
2.710872 -0.470593 -0.020168 66.000000
2.702523 -0.477690 -0.020023 66.000000
2.700061 -0.485802 -0.020003 66.000000
2.692657 -0.493004 -0.019879 66.000000
2.693098 -0.501629 -0.019920 66.000000
2.684670 -0.508587 -0.019776 66.000000
2.689969 -0.518144 -0.019920 66.000000
2.691311 -0.526970 -0.019982 66.000000
2.690662 -0.535419 -0.020003 66.000000
2.689986 -0.543870 -0.020023 66.000000
2.682429 -0.550914 -0.019900 66.000000
2.680726 -0.559141 -0.019900 66.000000
2.675086 -0.566535 -0.019818 66.000000
2.671380 -0.574319 -0.019776 66.000000
2.672536 -0.583151 -0.019838 66.000000
2.677567 -0.592859 -0.019982 66.000000
2.667932 -0.599319 -0.019818 66.000000
2.671930 -0.608834 -0.019941 66.000000
2.668101 -0.616578 -0.019900 66.000000
2.667170 -0.624989 -0.019920 66.000000
2.662322 -0.632476 -0.019859 66.000000
2.665229 -0.641810 -0.019962 66.000000
2.662277 -0.649747 -0.019941 66.000000
2.657359 -0.657192 -0.019879 66.000000
2.653390 -0.664856 -0.019838 66.000000
2.653276 -0.673485 -0.019879 66.000000
2.645388 -0.680129 -0.019756 66.000000
2.647159 -0.689249 -0.019838 66.000000
2.641165 -0.696348 -0.019756 66.000000
2.640948 -0.704963 -0.019797 66.000000
2.636842 -0.712541 -0.019756 66.000000
2.638501 -0.721682 -0.019838 66.000000
2.631457 -0.728440 -0.019735 66.000000
2.627284 -0.735971 -0.019694 66.000000
2.621166 -0.742938 -0.019612 66.000000
2.617913 -0.750701 -0.019591 66.000000
2.613678 -0.758172 -0.019550 66.000000
2.607502 -0.765062 -0.019467 66.000000
2.609935 -0.774479 -0.019570 66.000000
2.608504 -0.782770 -0.019591 66.000000
2.608004 -0.791349 -0.019632 66.000000
2.607475 -0.799933 -0.019673 66.000000
2.606919 -0.808521 -0.019715 66.000000
2.604426 -0.816515 -0.019715 66.000000
2.601909 -0.824501 -0.019715 66.000000
2.603176 -0.833699 -0.019797 66.000000
2.595850 -0.840143 -0.019694 66.000000
2.592309 -0.847793 -0.019673 66.000000
2.588747 -0.855428 -0.019653 66.000000
2.584213 -0.862733 -0.019612 66.000000
2.581554 -0.870658 -0.019612 66.000000
2.579818 -0.878896 -0.019632 66.000000
2.578054 -0.887132 -0.019653 66.000000
2.575321 -0.895037 -0.019653 66.000000
2.575393 -0.903926 -0.019715 66.000000
2.572608 -0.911823 -0.019715 66.000000
2.569798 -0.919712 -0.019715 66.000000
2.566964 -0.927592 -0.019715 66.000000
2.566924 -0.936490 -0.019776 66.000000
2.562163 -0.943670 -0.019735 66.000000
2.560193 -0.951874 -0.019756 66.000000
2.558196 -0.960076 -0.019776 66.000000
2.558979 -0.969336 -0.019859 66.000000
2.552257 -0.975754 -0.019776 66.000000
2.595893 -1.001568 -0.020806 66.000000
2.549949 -0.992847 -0.019859 66.000000
4.460403 -1.912097 -0.063455 66.000000
4.448587 -1.939429 -0.063455 66.000000
4.438039 -1.951057 -0.063352 66.000000
4.415580 -1.957372 -0.062981 66.000000
4.400426 -1.966830 -0.062775 66.000000
4.392548 -1.979500 -0.062734 66.000000
4.380083 -1.990072 -0.062590 66.000000
4.363049 -1.998505 -0.062343 66.000000
2.724399 -0.388654 -0.036904 67.000000
2.721216 -0.396723 -0.036851 67.000000
2.718997 -0.404923 -0.036824 67.000000
2.715765 -0.412963 -0.036771 67.000000
2.714485 -0.421293 -0.036771 67.000000
2.710218 -0.429151 -0.036690 67.000000
2.707902 -0.437305 -0.036664 67.000000
2.704574 -0.445286 -0.036610 67.000000
2.696294 -0.452427 -0.036423 67.000000
2.698835 -0.461369 -0.036530 67.000000
2.695437 -0.469304 -0.036477 67.000000
2.690047 -0.476875 -0.036370 67.000000
2.690539 -0.485480 -0.036423 67.000000
2.685104 -0.493012 -0.036317 67.000000
2.680630 -0.500698 -0.036237 67.000000
2.682028 -0.509478 -0.036317 67.000000
2.682416 -0.518082 -0.036370 67.000000
2.678852 -0.525925 -0.036317 67.000000
2.682127 -0.535117 -0.036450 67.000000
2.675574 -0.542352 -0.036317 67.000000
2.676835 -0.551162 -0.036397 67.000000
2.672196 -0.558759 -0.036317 67.000000
2.666557 -0.566126 -0.036210 67.000000
2.658944 -0.573043 -0.036050 67.000000
2.650337 -0.579706 -0.035863 67.000000
2.657330 -0.589780 -0.036103 67.000000
2.652582 -0.597272 -0.036023 67.000000
2.653661 -0.606074 -0.036103 67.000000
2.655685 -0.615113 -0.036210 67.000000
2.654759 -0.623486 -0.036237 67.000000
2.651861 -0.631396 -0.036210 67.000000
2.650883 -0.639763 -0.036237 67.000000
2.645994 -0.647182 -0.036156 67.000000
2.631382 -0.652176 -0.035809 67.000000
2.635186 -0.661704 -0.035970 67.000000
2.628299 -0.668555 -0.035836 67.000000
2.624299 -0.676118 -0.035783 67.000000
2.628984 -0.685929 -0.035970 67.000000
2.629767 -0.694756 -0.036050 67.000000
2.630521 -0.703595 -0.036130 67.000000
2.628350 -0.711662 -0.036130 67.000000
2.626154 -0.719722 -0.036130 67.000000
2.623934 -0.727776 -0.036130 67.000000
2.621689 -0.735822 -0.036130 67.000000
2.616534 -0.743044 -0.036050 67.000000
2.613281 -0.750792 -0.036023 67.000000
2.609045 -0.758249 -0.035970 67.000000
2.605747 -0.765969 -0.035943 67.000000
2.600510 -0.773106 -0.035863 67.000000
2.601956 -0.782230 -0.035970 67.000000
2.599544 -0.790209 -0.035970 67.000000
2.596151 -0.797887 -0.035943 67.000000
2.596555 -0.806737 -0.036023 67.000000
2.594068 -0.814699 -0.036023 67.000000
2.595368 -0.823862 -0.036130 67.000000
2.590925 -0.831211 -0.036076 67.000000
2.589313 -0.839464 -0.036103 67.000000
2.588626 -0.848025 -0.036156 67.000000
2.588859 -0.856904 -0.036237 67.000000
2.582426 -0.863576 -0.036130 67.000000
2.582606 -0.872454 -0.036210 67.000000
2.578024 -0.879728 -0.036156 67.000000
2.578149 -0.888609 -0.036237 67.000000
2.574466 -0.896186 -0.036210 67.000000
2.573591 -0.904743 -0.036263 67.000000
2.569861 -0.912300 -0.036237 67.000000
2.565168 -0.919506 -0.036183 67.000000
2.561395 -0.927032 -0.036156 67.000000
2.557600 -0.934543 -0.036130 67.000000
2.548154 -0.939966 -0.035943 67.000000
2.549943 -0.949522 -0.036076 67.000000
2.546082 -0.956989 -0.036050 67.000000
2.541265 -0.964087 -0.035996 67.000000
2.541096 -0.972951 -0.036076 67.000000
2.556751 -0.987940 -0.036610 67.000000
4.452895 -1.894714 -0.092654 67.000000
4.447061 -1.908367 -0.092654 67.000000
4.438459 -1.953240 -0.092921 67.000000
4.418739 -1.960769 -0.092521 67.000000
4.405402 -1.971052 -0.092307 67.000000
4.397511 -1.983737 -0.092254 67.000000
4.381394 -1.992669 -0.091960 67.000000
2.720536 -0.376883 -0.052500 68.000000
2.720357 -0.385369 -0.052532 68.000000
2.717184 -0.393426 -0.052468 68.000000
2.714975 -0.401613 -0.052435 68.000000
2.712742 -0.409791 -0.052403 68.000000
2.711472 -0.418112 -0.052403 68.000000
2.708202 -0.426117 -0.052338 68.000000
2.705895 -0.434265 -0.052305 68.000000
2.704550 -0.442564 -0.052305 68.000000
2.703180 -0.450860 -0.052305 68.000000
2.698828 -0.458647 -0.052208 68.000000
2.695439 -0.466583 -0.052143 68.000000
2.692026 -0.474503 -0.052078 68.000000
2.690558 -0.482759 -0.052078 68.000000
2.688081 -0.490832 -0.052046 68.000000
2.687545 -0.499259 -0.052078 68.000000
2.686001 -0.507502 -0.052078 68.000000
2.683450 -0.515551 -0.052046 68.000000
2.681855 -0.523782 -0.052046 68.000000
2.679255 -0.531812 -0.052013 68.000000
2.676631 -0.539831 -0.051981 68.000000
2.673005 -0.547638 -0.051916 68.000000
2.668377 -0.555224 -0.051818 68.000000
2.664705 -0.562994 -0.051753 68.000000
2.663942 -0.571377 -0.051786 68.000000
2.658271 -0.578695 -0.051656 68.000000
2.655507 -0.586632 -0.051624 68.000000
2.653695 -0.594776 -0.051624 68.000000
2.651858 -0.602914 -0.051624 68.000000
2.649022 -0.610822 -0.051591 68.000000
2.648108 -0.619175 -0.051624 68.000000
2.646196 -0.627296 -0.051624 68.000000
2.644259 -0.635411 -0.051624 68.000000
2.636472 -0.642099 -0.051429 68.000000
2.635459 -0.650425 -0.051461 68.000000
2.626665 -0.656807 -0.051234 68.000000
2.630450 -0.666338 -0.051429 68.000000
2.626457 -0.673907 -0.051364 68.000000
2.625345 -0.682213 -0.051396 68.000000
2.626139 -0.691029 -0.051494 68.000000
2.624972 -0.699340 -0.051526 68.000000
2.623779 -0.707651 -0.051559 68.000000
2.624488 -0.716488 -0.051656 68.000000
2.623241 -0.724803 -0.051689 68.000000
2.620042 -0.732578 -0.051656 68.000000
2.616821 -0.740340 -0.051624 68.000000
2.614537 -0.748365 -0.051624 68.000000
2.612229 -0.756383 -0.051624 68.000000
2.609896 -0.764394 -0.051624 68.000000
2.604664 -0.771544 -0.051526 68.000000
2.600370 -0.778957 -0.051461 68.000000
2.599881 -0.787512 -0.051526 68.000000
2.596497 -0.795191 -0.051494 68.000000
2.595000 -0.803449 -0.051526 68.000000
2.593476 -0.811706 -0.051559 68.000000
2.592880 -0.820263 -0.051624 68.000000
2.591303 -0.828518 -0.051656 68.000000
2.590650 -0.837080 -0.051721 68.000000
2.589970 -0.845645 -0.051786 68.000000
2.588312 -0.853901 -0.051818 68.000000
2.585680 -0.861837 -0.051818 68.000000
2.584918 -0.870405 -0.051883 68.000000
2.583182 -0.878653 -0.051916 68.000000
2.579529 -0.886249 -0.051883 68.000000
2.577742 -0.894487 -0.051916 68.000000
2.572156 -0.901398 -0.051818 68.000000
2.568437 -0.908952 -0.051786 68.000000
2.563754 -0.916154 -0.051721 68.000000
2.560931 -0.924015 -0.051721 68.000000
2.556206 -0.931182 -0.051656 68.000000
2.549586 -0.937639 -0.051526 68.000000
2.548571 -0.946153 -0.051591 68.000000
2.544720 -0.953616 -0.051559 68.000000
2.538044 -0.960003 -0.051429 68.000000
2.537888 -0.968855 -0.051526 68.000000
2.518119 -0.970162 -0.050942 68.000000
4.399472 -1.965164 -0.119784 68.000000
2.722972 -0.369613 -0.069733 69.000000
2.721825 -0.377965 -0.069733 69.000000
2.720653 -0.386314 -0.069733 69.000000
2.716488 -0.394228 -0.069617 69.000000
2.716255 -0.402707 -0.069656 69.000000
2.714018 -0.410889 -0.069617 69.000000
2.713732 -0.419366 -0.069656 69.000000
2.709472 -0.427222 -0.069540 69.000000
2.708148 -0.435533 -0.069540 69.000000
2.705814 -0.443677 -0.069501 69.000000
2.705425 -0.452141 -0.069540 69.000000
2.704025 -0.460439 -0.069540 69.000000
2.701616 -0.468562 -0.069501 69.000000
2.701149 -0.477022 -0.069540 69.000000
2.696723 -0.484776 -0.069424 69.000000
2.695223 -0.493047 -0.069424 69.000000
2.696645 -0.501863 -0.069540 69.000000
2.697056 -0.510506 -0.069617 69.000000
2.693514 -0.518400 -0.069540 69.000000
2.690931 -0.526469 -0.069501 69.000000
2.685383 -0.533942 -0.069346 69.000000
2.682752 -0.541980 -0.069307 69.000000
2.677162 -0.549404 -0.069152 69.000000
2.672529 -0.557003 -0.069036 69.000000
2.668852 -0.564785 -0.068959 69.000000
2.664176 -0.572341 -0.068842 69.000000
2.659479 -0.579872 -0.068726 69.000000
2.657687 -0.588029 -0.068726 69.000000
2.654896 -0.595961 -0.068688 69.000000
2.653055 -0.604103 -0.068688 69.000000
2.652163 -0.612465 -0.068726 69.000000
2.651244 -0.620826 -0.068765 69.000000
2.648355 -0.628726 -0.068726 69.000000
2.643499 -0.636147 -0.068610 69.000000
2.642506 -0.644491 -0.068649 69.000000
2.638576 -0.652115 -0.068571 69.000000
2.634624 -0.659721 -0.068494 69.000000
2.631619 -0.667555 -0.068455 69.000000
2.627623 -0.675128 -0.068378 69.000000
2.627474 -0.683690 -0.068455 69.000000
2.626330 -0.692003 -0.068494 69.000000
2.625160 -0.700314 -0.068533 69.000000
2.623964 -0.708626 -0.068571 69.000000
2.625633 -0.717727 -0.068726 69.000000
2.623419 -0.725779 -0.068726 69.000000
2.620217 -0.733555 -0.068688 69.000000
2.620839 -0.742407 -0.068804 69.000000
2.617588 -0.750169 -0.068765 69.000000
2.616234 -0.758474 -0.068804 69.000000
2.611977 -0.765935 -0.068726 69.000000
2.609615 -0.773945 -0.068726 69.000000
2.603400 -0.780798 -0.068571 69.000000
2.601948 -0.789072 -0.068610 69.000000
2.596649 -0.796172 -0.068494 69.000000
2.596103 -0.804726 -0.068571 69.000000
2.593622 -0.812687 -0.068571 69.000000
2.592069 -0.820942 -0.068610 69.000000
2.589539 -0.828891 -0.068610 69.000000
2.588885 -0.837447 -0.068688 69.000000
2.587253 -0.845696 -0.068726 69.000000
2.585595 -0.853943 -0.068765 69.000000
2.584859 -0.862505 -0.068842 69.000000
2.585041 -0.871389 -0.068959 69.000000
2.581410 -0.878993 -0.068920 69.000000
2.576811 -0.886259 -0.068842 69.000000
2.578799 -0.895800 -0.069036 69.000000
2.574153 -0.903046 -0.068959 69.000000
2.568545 -0.909937 -0.068842 69.000000
2.562919 -0.916803 -0.068726 69.000000
2.563853 -0.926020 -0.068881 69.000000
2.557245 -0.932512 -0.068726 69.000000
2.556247 -0.941043 -0.068804 69.000000
2.551475 -0.948185 -0.068726 69.000000
2.551361 -0.957062 -0.068842 69.000000
2.540937 -0.962053 -0.068533 69.000000
2.547307 -0.973412 -0.068920 69.000000
4.482894 -1.954233 -0.152785 69.000000
2.718158 -0.370342 -0.085766 70.000000
2.717998 -0.378817 -0.085810 70.000000
2.716823 -0.387154 -0.085810 70.000000
2.713645 -0.395200 -0.085721 70.000000
2.711432 -0.403377 -0.085676 70.000000
2.711169 -0.411843 -0.085721 70.000000
2.708906 -0.420006 -0.085676 70.000000
2.705631 -0.428003 -0.085587 70.000000
2.702332 -0.435984 -0.085498 70.000000
2.701968 -0.444434 -0.085542 70.000000
2.698621 -0.452392 -0.085453 70.000000
2.697221 -0.460669 -0.085453 70.000000
2.694810 -0.468770 -0.085408 70.000000
2.692376 -0.476862 -0.085364 70.000000
2.692867 -0.485474 -0.085453 70.000000
2.693330 -0.494093 -0.085542 70.000000
2.690819 -0.502171 -0.085498 70.000000
2.691229 -0.510796 -0.085587 70.000000
2.689649 -0.519050 -0.085587 70.000000
2.688044 -0.527300 -0.085587 70.000000
2.686414 -0.535544 -0.085587 70.000000
2.682800 -0.543387 -0.085498 70.000000
2.677206 -0.550810 -0.085319 70.000000
2.672570 -0.558409 -0.085185 70.000000
2.665957 -0.565570 -0.084962 70.000000
2.660303 -0.572905 -0.084783 70.000000
2.652677 -0.579785 -0.084515 70.000000
2.650886 -0.587921 -0.084515 70.000000
2.649070 -0.596051 -0.084515 70.000000
2.647228 -0.604175 -0.084515 70.000000
2.645362 -0.612294 -0.084515 70.000000
2.645417 -0.620863 -0.084604 70.000000
2.644471 -0.629207 -0.084649 70.000000
2.640586 -0.636849 -0.084560 70.000000
2.637650 -0.644710 -0.084515 70.000000
2.635659 -0.652800 -0.084515 70.000000
2.632675 -0.660640 -0.084470 70.000000
2.628699 -0.668221 -0.084381 70.000000
2.626637 -0.676283 -0.084381 70.000000
2.624550 -0.684338 -0.084381 70.000000
2.623404 -0.692642 -0.084426 70.000000
2.620301 -0.700429 -0.084381 70.000000
2.619104 -0.708726 -0.084426 70.000000
2.618845 -0.717285 -0.084515 70.000000
2.618557 -0.725850 -0.084604 70.000000
2.615356 -0.733610 -0.084560 70.000000
2.615016 -0.742176 -0.084649 70.000000
2.614647 -0.750746 -0.084738 70.000000
2.613291 -0.759043 -0.084783 70.000000
2.609032 -0.766494 -0.084694 70.000000
2.605711 -0.774210 -0.084649 70.000000
2.601410 -0.781626 -0.084560 70.000000
2.594220 -0.788152 -0.084336 70.000000
2.590835 -0.795814 -0.084292 70.000000
2.590289 -0.804351 -0.084381 70.000000
2.587809 -0.812295 -0.084381 70.000000
2.585305 -0.820230 -0.084381 70.000000
2.581825 -0.827853 -0.084336 70.000000
2.584976 -0.837617 -0.084604 70.000000
2.580495 -0.844922 -0.084515 70.000000
2.576942 -0.852521 -0.084470 70.000000
2.576209 -0.861056 -0.084560 70.000000
2.578288 -0.870553 -0.084783 70.000000
2.572769 -0.877492 -0.084649 70.000000
2.567231 -0.884405 -0.084515 70.000000
2.570167 -0.894246 -0.084783 70.000000
2.564584 -0.901134 -0.084649 70.000000
2.560865 -0.908664 -0.084604 70.000000
2.558065 -0.916516 -0.084604 70.000000
2.561818 -0.926738 -0.084917 70.000000
2.550517 -0.931510 -0.084515 70.000000
2.553271 -0.941403 -0.084783 70.000000
2.552243 -0.949929 -0.084872 70.000000
2.547447 -0.957052 -0.084783 70.000000
2.540762 -0.963447 -0.084604 70.000000
2.534995 -0.970166 -0.084470 70.000000
4.475111 -1.936522 -0.181127 70.000000
4.478306 -1.954237 -0.181573 70.000000
4.474118 -1.968772 -0.181663 70.000000
2.702526 -0.402956 -0.102865 71.000000
2.710163 -0.412594 -0.103325 71.000000
2.705924 -0.420448 -0.103172 71.000000
2.702648 -0.428436 -0.103070 71.000000
2.700335 -0.436567 -0.103018 71.000000
2.698983 -0.444849 -0.103018 71.000000
2.696621 -0.452962 -0.102967 71.000000
2.696203 -0.461402 -0.103018 71.000000
2.692807 -0.469329 -0.102916 71.000000
2.692338 -0.477762 -0.102967 71.000000
2.688894 -0.485666 -0.102865 71.000000
2.687391 -0.493913 -0.102865 71.000000
2.686845 -0.502339 -0.102916 71.000000
2.684310 -0.510393 -0.102865 71.000000
2.682731 -0.518626 -0.102865 71.000000
2.680147 -0.526662 -0.102814 71.000000
2.677540 -0.534687 -0.102763 71.000000
2.674908 -0.542701 -0.102712 71.000000
2.670295 -0.550301 -0.102558 71.000000
2.667617 -0.558287 -0.102507 71.000000
2.665892 -0.566468 -0.102507 71.000000
2.658283 -0.573384 -0.102201 71.000000
2.640901 -0.578126 -0.101383 71.000000
2.649840 -0.588603 -0.101945 71.000000
2.648021 -0.596730 -0.101945 71.000000
2.644231 -0.604407 -0.101843 71.000000
2.641391 -0.612291 -0.101792 71.000000
2.644362 -0.621533 -0.102047 71.000000
2.643414 -0.629874 -0.102098 71.000000
2.638557 -0.637278 -0.101945 71.000000
2.636589 -0.645370 -0.101945 71.000000
2.632658 -0.652976 -0.101843 71.000000
2.629673 -0.660807 -0.101792 71.000000
2.625698 -0.668380 -0.101689 71.000000
2.624602 -0.676681 -0.101741 71.000000
2.622514 -0.684730 -0.101741 71.000000
2.621366 -0.693027 -0.101792 71.000000
2.619228 -0.701066 -0.101792 71.000000
2.617065 -0.709099 -0.101792 71.000000
2.615840 -0.717388 -0.101843 71.000000
2.615552 -0.725943 -0.101945 71.000000
2.613312 -0.733964 -0.101945 71.000000
2.611048 -0.741978 -0.101945 71.000000
2.610679 -0.750537 -0.102047 71.000000
2.608365 -0.758543 -0.102047 71.000000
2.604109 -0.765979 -0.101945 71.000000
2.602704 -0.774249 -0.101996 71.000000
2.599360 -0.781943 -0.101945 71.000000
2.595037 -0.789333 -0.101843 71.000000
2.589739 -0.796412 -0.101689 71.000000
2.587284 -0.804353 -0.101689 71.000000
2.585757 -0.812586 -0.101741 71.000000
2.581348 -0.819911 -0.101638 71.000000
2.578820 -0.827827 -0.101638 71.000000
2.572468 -0.834504 -0.101434 71.000000
2.575590 -0.844256 -0.101741 71.000000
2.569195 -0.850899 -0.101536 71.000000
2.568467 -0.859411 -0.101638 71.000000
2.570550 -0.868883 -0.101894 71.000000
2.568817 -0.877088 -0.101945 71.000000
2.561393 -0.883339 -0.101689 71.000000
2.562444 -0.892505 -0.101894 71.000000
2.560636 -0.900694 -0.101945 71.000000
2.556919 -0.908211 -0.101894 71.000000
2.553181 -0.915715 -0.101843 71.000000
2.555055 -0.925242 -0.102098 71.000000
2.552204 -0.933076 -0.102098 71.000000
2.544645 -0.939175 -0.101843 71.000000
2.545495 -0.948370 -0.102047 71.000000
2.587450 -0.973030 -0.104501 71.000000
2.600328 -0.986982 -0.105370 71.000000
4.462305 -1.932056 -0.211895 71.000000
4.478325 -1.955323 -0.213122 71.000000
4.472305 -1.969053 -0.213122 71.000000
4.479936 -1.988840 -0.213889 71.000000
0.974576 -1.911010 -0.072809 71.000000
0.994893 -1.965659 -0.075774 71.000000
0.984371 -1.959780 -0.075262 71.000000
0.988165 -1.982449 -0.076387 71.000000
0.981192 -1.983681 -0.076285 71.000000
0.967251 -1.986074 -0.076080 71.000000
2.697343 -0.449402 -0.119154 72.000000
2.697920 -0.458011 -0.119269 72.000000
2.696502 -0.466286 -0.119269 72.000000
2.693092 -0.474209 -0.119154 72.000000
2.690642 -0.482293 -0.119097 72.000000
2.690132 -0.490725 -0.119154 72.000000
2.685669 -0.498428 -0.118983 72.000000
2.683146 -0.506479 -0.118926 72.000000
2.677658 -0.513954 -0.118698 72.000000
2.675089 -0.521975 -0.118641 72.000000
2.672496 -0.529985 -0.118584 72.000000
2.671836 -0.538379 -0.118641 72.000000
2.667238 -0.545972 -0.118470 72.000000
2.667505 -0.554560 -0.118584 72.000000
2.666768 -0.562948 -0.118641 72.000000
2.663076 -0.570707 -0.118527 72.000000
2.660337 -0.578662 -0.118470 72.000000
2.659524 -0.587037 -0.118527 72.000000
2.659659 -0.595630 -0.118641 72.000000
2.653925 -0.602901 -0.118413 72.000000
2.651090 -0.610816 -0.118356 72.000000
2.650176 -0.619174 -0.118413 72.000000
2.646321 -0.626841 -0.118299 72.000000
2.642444 -0.634489 -0.118185 72.000000
2.638545 -0.642120 -0.118071 72.000000
2.635593 -0.649973 -0.118014 72.000000
2.632618 -0.657813 -0.117957 72.000000
2.629620 -0.665641 -0.117900 72.000000
2.627565 -0.673706 -0.117900 72.000000
2.624520 -0.681513 -0.117843 72.000000
2.624348 -0.690070 -0.117957 72.000000
2.619324 -0.697346 -0.117786 72.000000
2.617172 -0.705379 -0.117786 72.000000
2.618848 -0.714458 -0.118014 72.000000
2.618568 -0.723021 -0.118128 72.000000
2.614415 -0.730513 -0.118014 72.000000
2.614083 -0.739075 -0.118128 72.000000
2.610843 -0.746816 -0.118071 72.000000
2.608540 -0.754823 -0.118071 72.000000
2.607170 -0.763103 -0.118128 72.000000
2.602902 -0.770530 -0.118014 72.000000
2.599570 -0.778225 -0.117957 72.000000
2.597170 -0.786197 -0.117957 72.000000
2.593791 -0.793869 -0.117900 72.000000
2.591343 -0.801823 -0.117900 72.000000
2.589824 -0.810068 -0.117957 72.000000
2.584471 -0.817105 -0.117786 72.000000
2.581952 -0.825030 -0.117786 72.000000
2.580359 -0.833255 -0.117843 72.000000
2.578739 -0.841478 -0.117900 72.000000
2.574249 -0.848759 -0.117786 72.000000
2.574474 -0.857601 -0.117957 72.000000
2.571831 -0.865495 -0.117957 72.000000
2.568219 -0.873059 -0.117900 72.000000
2.569304 -0.882233 -0.118128 72.000000
2.567529 -0.890439 -0.118185 72.000000
2.565727 -0.898642 -0.118242 72.000000
2.563899 -0.906843 -0.118299 72.000000
2.562045 -0.915041 -0.118356 72.000000
2.558286 -0.922558 -0.118299 72.000000
2.555444 -0.930402 -0.118299 72.000000
2.552578 -0.938237 -0.118299 72.000000
2.538457 -0.941892 -0.117614 72.000000
2.601926 -0.974566 -0.121664 72.000000
2.608261 -0.986079 -0.122235 72.000000
2.628539 -1.002984 -0.123661 72.000000
2.621723 -1.009607 -0.123433 72.000000
2.601539 -1.020201 -0.122577 72.000000
0.977709 -1.924331 -0.086242 72.000000
0.972249 -1.928213 -0.086299 72.000000
0.964990 -1.928508 -0.086128 72.000000
0.960843 -1.935037 -0.086356 72.000000
0.951816 -1.931705 -0.085956 72.000000
0.946762 -1.936410 -0.086071 72.000000
0.945169 -1.948291 -0.086641 72.000000
0.938755 -1.950282 -0.086584 72.000000
0.934916 -1.957658 -0.086869 72.000000
0.927198 -1.956907 -0.086641 72.000000
0.919493 -1.956128 -0.086413 72.000000
0.913908 -1.959844 -0.086470 72.000000
0.914172 -1.976234 -0.087325 72.000000
0.906441 -1.975399 -0.087097 72.000000
0.898310 -1.973626 -0.086812 72.000000
0.891020 -1.973642 -0.086641 72.000000
0.885776 -1.978190 -0.086755 72.000000
0.879703 -1.980898 -0.086755 72.000000
0.876435 -1.989985 -0.087154 72.000000
0.867532 -1.986258 -0.086755 72.000000
0.862227 -1.990743 -0.086869 72.000000
0.856115 -1.993379 -0.086869 72.000000
0.851167 -1.998752 -0.087040 72.000000
2.692922 -0.492143 -0.136487 73.000000
2.687475 -0.499673 -0.136234 73.000000
2.685930 -0.507915 -0.136234 73.000000
2.679459 -0.515210 -0.135917 73.000000
2.676886 -0.523237 -0.135854 73.000000
2.674289 -0.531252 -0.135791 73.000000
2.671669 -0.539257 -0.135727 73.000000
2.669024 -0.547250 -0.135664 73.000000
2.667332 -0.555436 -0.135664 73.000000
2.665616 -0.563617 -0.135664 73.000000
2.663874 -0.571792 -0.135664 73.000000
2.662107 -0.579962 -0.135664 73.000000
2.658367 -0.587695 -0.135537 73.000000
2.656551 -0.595848 -0.135537 73.000000
2.653738 -0.603774 -0.135474 73.000000
2.651873 -0.611913 -0.135474 73.000000
2.648040 -0.619591 -0.135347 73.000000
2.647097 -0.627943 -0.135411 73.000000
2.644188 -0.635827 -0.135347 73.000000
2.642225 -0.643937 -0.135347 73.000000
2.638299 -0.651561 -0.135221 73.000000
2.637256 -0.659894 -0.135284 73.000000
2.637154 -0.668473 -0.135411 73.000000
2.633157 -0.676064 -0.135284 73.000000
2.628173 -0.683385 -0.135094 73.000000
2.627994 -0.691954 -0.135221 73.000000
2.626823 -0.700270 -0.135284 73.000000
2.622736 -0.707806 -0.135157 73.000000
2.622477 -0.716375 -0.135284 73.000000
2.618343 -0.723885 -0.135157 73.000000
2.616110 -0.731915 -0.135157 73.000000
2.612892 -0.739665 -0.135094 73.000000
2.610610 -0.747678 -0.135094 73.000000
2.608304 -0.755684 -0.135094 73.000000
2.605016 -0.763402 -0.135031 73.000000
2.600748 -0.770823 -0.134904 73.000000
2.599327 -0.779085 -0.134968 73.000000
2.596924 -0.787055 -0.134968 73.000000
2.594497 -0.795019 -0.134968 73.000000
2.592046 -0.802975 -0.134968 73.000000
2.591475 -0.811520 -0.135094 73.000000
2.587070 -0.818865 -0.134968 73.000000
2.583596 -0.826493 -0.134904 73.000000
2.579149 -0.833802 -0.134778 73.000000
2.573733 -0.840780 -0.134588 73.000000
2.569246 -0.848047 -0.134461 73.000000
2.569472 -0.856872 -0.134651 73.000000
2.565885 -0.864433 -0.134588 73.000000
2.565111 -0.872944 -0.134714 73.000000
2.564308 -0.881459 -0.134841 73.000000
2.565362 -0.890631 -0.135094 73.000000
2.565443 -0.899489 -0.135284 73.000000
2.562671 -0.907355 -0.135284 73.000000
2.559876 -0.915213 -0.135284 73.000000
2.557056 -0.923062 -0.135284 73.000000
2.554212 -0.930903 -0.135284 73.000000
2.542915 -0.935632 -0.134714 73.000000
2.604582 -0.967415 -0.139083 73.000000
2.659893 -1.015924 -0.143451 73.000000
4.578858 -1.978434 -0.279258 73.000000
0.982482 -1.921029 -0.099702 73.000000
0.975681 -1.922254 -0.099576 73.000000
0.969779 -1.925238 -0.099576 73.000000
0.963422 -1.927312 -0.099512 73.000000
0.957061 -1.929364 -0.099449 73.000000
0.949375 -1.928710 -0.099196 73.000000
0.943453 -1.931613 -0.099196 73.000000
0.938828 -1.937193 -0.099386 73.000000
0.933745 -1.941863 -0.099512 73.000000
0.928642 -1.946520 -0.099639 73.000000
0.926081 -1.956577 -0.100145 73.000000
0.918801 -1.956699 -0.099955 73.000000
0.912794 -1.959509 -0.099955 73.000000
0.908870 -1.966830 -0.100272 73.000000
0.904495 -1.973238 -0.100525 73.000000
0.896785 -1.972370 -0.100272 73.000000
0.891140 -1.976021 -0.100335 73.000000
0.885073 -1.978746 -0.100335 73.000000
0.880212 -1.984189 -0.100525 73.000000
0.874924 -1.988707 -0.100652 73.000000
0.867223 -1.987723 -0.100399 73.000000
0.862309 -1.993122 -0.100589 73.000000
0.856190 -1.995758 -0.100589 73.000000
2.675114 -0.541831 -0.152624 74.000000
2.672462 -0.549835 -0.152555 74.000000
2.667833 -0.557420 -0.152346 74.000000
2.666110 -0.565602 -0.152346 74.000000
2.660461 -0.572939 -0.152069 74.000000
2.657717 -0.580886 -0.151999 74.000000
2.653974 -0.588605 -0.151860 74.000000
2.651182 -0.596526 -0.151791 74.000000
2.648367 -0.604435 -0.151722 74.000000
2.644557 -0.612107 -0.151583 74.000000
2.641695 -0.619990 -0.151513 74.000000
2.640751 -0.628323 -0.151583 74.000000
2.636871 -0.635954 -0.151444 74.000000
2.636846 -0.644514 -0.151583 74.000000
2.633888 -0.652361 -0.151513 74.000000
2.630906 -0.660196 -0.151444 74.000000
2.630802 -0.668756 -0.151583 74.000000
2.627772 -0.676575 -0.151513 74.000000
2.625684 -0.684634 -0.151513 74.000000
2.624536 -0.692941 -0.151583 74.000000
2.620470 -0.700474 -0.151444 74.000000
2.619272 -0.708771 -0.151513 74.000000
2.617085 -0.716803 -0.151513 74.000000
2.612951 -0.724297 -0.151375 74.000000
2.610716 -0.732310 -0.151375 74.000000
2.606538 -0.739771 -0.151236 74.000000
2.605215 -0.748040 -0.151305 74.000000
2.600991 -0.755473 -0.151166 74.000000
2.598661 -0.763449 -0.151166 74.000000
2.594394 -0.770850 -0.151028 74.000000
2.591062 -0.778519 -0.150958 74.000000
2.588661 -0.786464 -0.150958 74.000000
2.585283 -0.794110 -0.150889 74.000000
2.582834 -0.802038 -0.150889 74.000000
2.579409 -0.809659 -0.150819 74.000000
2.575962 -0.817267 -0.150750 74.000000
2.573443 -0.825166 -0.150750 74.000000
2.570899 -0.833058 -0.150750 74.000000
2.568331 -0.840941 -0.150750 74.000000
2.563845 -0.848190 -0.150611 74.000000
2.562177 -0.856368 -0.150680 74.000000
2.558592 -0.863906 -0.150611 74.000000
2.556874 -0.872073 -0.150680 74.000000
2.555130 -0.880238 -0.150750 74.000000
2.553360 -0.888401 -0.150819 74.000000
2.552504 -0.896892 -0.150958 74.000000
2.551621 -0.905385 -0.151097 74.000000
2.548831 -0.913209 -0.151097 74.000000
2.547894 -0.921703 -0.151236 74.000000
2.544117 -0.929173 -0.151166 74.000000
2.535638 -0.934905 -0.150750 74.000000
2.538368 -0.944766 -0.151166 74.000000
4.572259 -1.978552 -0.309348 74.000000
4.533251 -1.978209 -0.306849 74.000000
0.992013 -1.928617 -0.113616 74.000000
0.985638 -1.930763 -0.113547 74.000000
0.978357 -1.931108 -0.113339 74.000000
0.972876 -1.934992 -0.113408 74.000000
0.965153 -1.934397 -0.113131 74.000000
0.958771 -1.936455 -0.113061 74.000000
0.952385 -1.938492 -0.112992 74.000000
0.946871 -1.942301 -0.113061 74.000000
0.942211 -1.947891 -0.113269 74.000000
0.938821 -1.956168 -0.113686 74.000000
0.931958 -1.957238 -0.113547 74.000000
0.927653 -1.963696 -0.113825 74.000000
0.924166 -1.971952 -0.114241 74.000000
0.916849 -1.972064 -0.114033 74.000000
0.911631 -1.976680 -0.114172 74.000000
0.908468 -1.985817 -0.114658 74.000000
0.899485 -1.982236 -0.114172 74.000000
0.891761 -1.981348 -0.113894 74.000000
0.887712 -1.988629 -0.114241 74.000000
0.882819 -1.994079 -0.114449 74.000000
0.865786 -1.988484 -0.113616 74.000000
2.647580 -0.579104 -0.168778 75.000000
2.646764 -0.587439 -0.168854 75.000000
2.643977 -0.595338 -0.168778 75.000000
2.641165 -0.603225 -0.168703 75.000000
2.638331 -0.611101 -0.168627 75.000000
2.636444 -0.619192 -0.168627 75.000000
2.634532 -0.627278 -0.168627 75.000000
2.631625 -0.635124 -0.168551 75.000000
2.628696 -0.642958 -0.168475 75.000000
2.624775 -0.650541 -0.168323 75.000000
2.625668 -0.659318 -0.168551 75.000000
2.623633 -0.667370 -0.168551 75.000000
2.622539 -0.675665 -0.168627 75.000000
2.620454 -0.683707 -0.168627 75.000000
2.618344 -0.691744 -0.168627 75.000000
2.617173 -0.700031 -0.168703 75.000000
2.615013 -0.708057 -0.168703 75.000000
2.612828 -0.716076 -0.168703 75.000000
2.610619 -0.724089 -0.168703 75.000000
2.608385 -0.732095 -0.168703 75.000000
2.601331 -0.738734 -0.168323 75.000000
2.601927 -0.747536 -0.168551 75.000000
2.600579 -0.755793 -0.168627 75.000000
2.598248 -0.763768 -0.168627 75.000000
2.594937 -0.771452 -0.168551 75.000000
2.590648 -0.778836 -0.168399 75.000000
2.584430 -0.785622 -0.168096 75.000000
2.582007 -0.793547 -0.168096 75.000000
2.576704 -0.800578 -0.167868 75.000000
2.573284 -0.808182 -0.167792 75.000000
2.569842 -0.815771 -0.167717 75.000000
2.568276 -0.823956 -0.167792 75.000000
2.566685 -0.832138 -0.167868 75.000000
2.564120 -0.840009 -0.167868 75.000000
2.561531 -0.847871 -0.167868 75.000000
2.561755 -0.856674 -0.168096 75.000000
2.559115 -0.864529 -0.168096 75.000000
2.557394 -0.872698 -0.168172 75.000000
2.555647 -0.880864 -0.168248 75.000000
2.551049 -0.888046 -0.168096 75.000000
2.548313 -0.895868 -0.168096 75.000000
2.545552 -0.903682 -0.168096 75.000000
2.546523 -0.912832 -0.168399 75.000000
2.542773 -0.920301 -0.168323 75.000000
2.517457 -0.919894 -0.166503 75.000000
2.461291 -0.907966 -0.162180 75.000000
1.035737 -1.969880 -0.131916 75.000000
1.007061 -1.929745 -0.128199 75.000000
1.000218 -1.931055 -0.128048 75.000000
0.994289 -1.934114 -0.128048 75.000000
0.987897 -1.936268 -0.127972 75.000000
0.981501 -1.938400 -0.127896 75.000000
0.975101 -1.940512 -0.127820 75.000000
0.968698 -1.942602 -0.127744 75.000000
0.963176 -1.946458 -0.127820 75.000000
0.955880 -1.946720 -0.127593 75.000000
0.950777 -1.951435 -0.127744 75.000000
0.943048 -1.950753 -0.127441 75.000000
0.939649 -1.959030 -0.127896 75.000000
0.934492 -1.963704 -0.128048 75.000000
0.929742 -1.969266 -0.128275 75.000000
0.924966 -1.974817 -0.128503 75.000000
0.919324 -1.978550 -0.128579 75.000000
0.913667 -1.982266 -0.128654 75.000000
0.908827 -1.987780 -0.128882 75.000000
0.902724 -1.990559 -0.128882 75.000000
0.896613 -1.993319 -0.128882 75.000000
0.890086 -1.995150 -0.128806 75.000000
2.659030 -0.604548 -0.185762 76.000000
2.642596 -0.609338 -0.184538 76.000000
2.637803 -0.616760 -0.184294 76.000000
2.634929 -0.624620 -0.184212 76.000000
2.629124 -0.631768 -0.183886 76.000000
2.626205 -0.639594 -0.183804 76.000000
2.623263 -0.647409 -0.183723 76.000000
2.621265 -0.655454 -0.183723 76.000000
2.620208 -0.663738 -0.183804 76.000000
2.619124 -0.672022 -0.183886 76.000000
2.618979 -0.680556 -0.184049 76.000000
2.617843 -0.688842 -0.184130 76.000000
2.615717 -0.696870 -0.184130 76.000000
2.614529 -0.705152 -0.184212 76.000000
2.610430 -0.712644 -0.184049 76.000000
2.608232 -0.720649 -0.184049 76.000000
2.609848 -0.729723 -0.184375 76.000000
2.605679 -0.737183 -0.184212 76.000000
2.604363 -0.745448 -0.184294 76.000000
2.603021 -0.753713 -0.184375 76.000000
2.601653 -0.761976 -0.184457 76.000000
2.596436 -0.769103 -0.184212 76.000000
2.593110 -0.776779 -0.184130 76.000000
2.588807 -0.784152 -0.183967 76.000000
2.583530 -0.791214 -0.183723 76.000000
2.577283 -0.797956 -0.183396 76.000000
2.571019 -0.804667 -0.183070 76.000000
2.568538 -0.812551 -0.183070 76.000000
2.569830 -0.821643 -0.183396 76.000000
2.567297 -0.829523 -0.183396 76.000000
2.566634 -0.838015 -0.183559 76.000000
2.564998 -0.846198 -0.183641 76.000000
2.566171 -0.855326 -0.183967 76.000000
2.564479 -0.863513 -0.184049 76.000000
2.561818 -0.871376 -0.184049 76.000000
2.562902 -0.880529 -0.184375 76.000000
2.562072 -0.889042 -0.184538 76.000000
2.562154 -0.897888 -0.184783 76.000000
2.554690 -0.904080 -0.184375 76.000000
2.550966 -0.911578 -0.184294 76.000000
2.531285 -0.913304 -0.182825 76.000000
2.447011 -0.891351 -0.175727 76.000000
1.001622 -1.928098 -0.140398 76.000000
0.995702 -1.931162 -0.140398 76.000000
0.989319 -1.933320 -0.140316 76.000000
0.984285 -1.938124 -0.140480 76.000000
0.978334 -1.941134 -0.140480 76.000000
0.973710 -1.946801 -0.140724 76.000000
0.967290 -1.948887 -0.140643 76.000000
0.960427 -1.950056 -0.140480 76.000000
0.955314 -1.954785 -0.140643 76.000000
0.948878 -1.956810 -0.140561 76.000000
0.942870 -1.959712 -0.140561 76.000000
0.938140 -1.965294 -0.140806 76.000000
0.932958 -1.969965 -0.140969 76.000000
0.926910 -1.972818 -0.140969 76.000000
0.921274 -1.976556 -0.141051 76.000000
0.916876 -1.982993 -0.141377 76.000000
0.911203 -1.986702 -0.141459 76.000000
0.905516 -1.990396 -0.141540 76.000000
0.901453 -1.997708 -0.141948 76.000000
2.660581 -0.604847 -0.203056 77.000000
2.652889 -0.611663 -0.202529 77.000000
2.645180 -0.618437 -0.202002 77.000000
2.623693 -0.664574 -0.201123 77.000000
2.621641 -0.672621 -0.201123 77.000000
2.622458 -0.681412 -0.201387 77.000000
2.620355 -0.689455 -0.201387 77.000000
2.619190 -0.697747 -0.201475 77.000000
2.617998 -0.706039 -0.201562 77.000000
2.616781 -0.714330 -0.201650 77.000000
2.614577 -0.722355 -0.201650 77.000000
2.612349 -0.730373 -0.201650 77.000000
2.611054 -0.738655 -0.201738 77.000000
2.606860 -0.746114 -0.201562 77.000000
2.606472 -0.754663 -0.201738 77.000000
2.604145 -0.762655 -0.201738 77.000000
2.598928 -0.769792 -0.201475 77.000000
2.599416 -0.778620 -0.201738 77.000000
2.588436 -0.783991 -0.200947 77.000000
2.588876 -0.792804 -0.201211 77.000000
2.580722 -0.798974 -0.200684 77.000000
2.581110 -0.807781 -0.200947 77.000000
2.576720 -0.815095 -0.200772 77.000000
2.576105 -0.823603 -0.200947 77.000000
2.570723 -0.830584 -0.200684 77.000000
2.568162 -0.838467 -0.200684 77.000000
2.565578 -0.846342 -0.200684 77.000000
2.564859 -0.854839 -0.200860 77.000000
2.563169 -0.863022 -0.200947 77.000000
2.563338 -0.871844 -0.201211 77.000000
2.560651 -0.879704 -0.201211 77.000000
2.560763 -0.888536 -0.201475 77.000000
2.558025 -0.896388 -0.201475 77.000000
2.549629 -0.902237 -0.200947 77.000000
2.549663 -0.911061 -0.201211 77.000000
2.532801 -0.913806 -0.199893 77.000000
1.012812 -1.920984 -0.153947 77.000000
1.007375 -1.924965 -0.154035 77.000000
1.001465 -1.928046 -0.154035 77.000000
0.995545 -1.931110 -0.154035 77.000000
0.990069 -1.935042 -0.154123 77.000000
0.984128 -1.938070 -0.154123 77.000000
0.978625 -1.941970 -0.154211 77.000000
0.974444 -1.948527 -0.154562 77.000000
0.969347 -1.953292 -0.154738 77.000000
0.968629 -1.966982 -0.155792 77.000000
0.963027 -1.970840 -0.155880 77.000000
0.953066 -1.965717 -0.155089 77.000000
0.946599 -1.967734 -0.155001 77.000000
0.940558 -1.970629 -0.155001 77.000000
0.934081 -1.972605 -0.154913 77.000000
0.928025 -1.975461 -0.154913 77.000000
0.919437 -1.972881 -0.154386 77.000000
0.915469 -1.980214 -0.154826 77.000000
0.907314 -1.978486 -0.154386 77.000000
0.906600 -1.993049 -0.155528 77.000000
0.899662 -1.994004 -0.155353 77.000000
0.891506 -1.992209 -0.154913 77.000000
2.654821 -0.596376 -0.219058 78.000000
2.653949 -0.604739 -0.219152 78.000000
2.638501 -0.609742 -0.217837 78.000000
2.714827 -0.715758 -0.227231 78.000000
2.657788 -0.709456 -0.221876 78.000000
2.617153 -0.707224 -0.218119 78.000000
2.617852 -0.716037 -0.218401 78.000000
2.617562 -0.724596 -0.218589 78.000000
2.614368 -0.732355 -0.218495 78.000000
2.609236 -0.739558 -0.218213 78.000000
2.606954 -0.747560 -0.218213 78.000000
2.600824 -0.754445 -0.217837 78.000000
2.595631 -0.761580 -0.217555 78.000000
2.587555 -0.767842 -0.216992 78.000000
2.585187 -0.775777 -0.216992 78.000000
2.585653 -0.784571 -0.217274 78.000000
2.580379 -0.791624 -0.216992 78.000000
2.578889 -0.799832 -0.217086 78.000000
2.579273 -0.808633 -0.217368 78.000000
2.573932 -0.815641 -0.217086 78.000000
2.572366 -0.823837 -0.217180 78.000000
2.568879 -0.831419 -0.217086 78.000000
2.563478 -0.838368 -0.216804 78.000000
2.558057 -0.845292 -0.216522 78.000000
2.555452 -0.853136 -0.216522 78.000000
2.551879 -0.860654 -0.216428 78.000000
2.550169 -0.868800 -0.216522 78.000000
2.549375 -0.877267 -0.216710 78.000000
2.548552 -0.885738 -0.216898 78.000000
2.546762 -0.893882 -0.216992 78.000000
2.544946 -0.902024 -0.217086 78.000000
2.561852 -0.916869 -0.219058 78.000000
4.989536 -1.889630 -0.465731 78.000000
4.973485 -1.901020 -0.464697 78.000000
4.979705 -1.920927 -0.465918 78.000000
4.940388 -1.923196 -0.462537 78.000000
4.926124 -1.935068 -0.461691 78.000000
4.914611 -1.947972 -0.461128 78.000000
4.920629 -1.967845 -0.462349 78.000000
4.917338 -1.984050 -0.462631 78.000000
1.034447 -1.921633 -0.168240 78.000000
1.016570 -1.916511 -0.167019 78.000000
1.009293 -1.916978 -0.166737 78.000000
1.004330 -1.921830 -0.166925 78.000000
0.998429 -1.924902 -0.166925 78.000000
0.993886 -1.930612 -0.167207 78.000000
0.986599 -1.930992 -0.166925 78.000000
0.982472 -1.937562 -0.167300 78.000000
0.977418 -1.942345 -0.167488 78.000000
0.972790 -1.948007 -0.167770 78.000000
0.966366 -1.950090 -0.167676 78.000000
0.960818 -1.953939 -0.167770 78.000000
0.957003 -1.961351 -0.168240 78.000000
0.951849 -1.966070 -0.168428 78.000000
0.945382 -1.968083 -0.168334 78.000000
0.938482 -1.969177 -0.168146 78.000000
0.932862 -1.972947 -0.168240 78.000000
0.925959 -1.973997 -0.168052 78.000000
0.919898 -1.976829 -0.168052 78.000000
0.914664 -1.981449 -0.168240 78.000000
0.907752 -1.982436 -0.168052 78.000000
0.902077 -1.986118 -0.168146 78.000000
0.897207 -1.991599 -0.168428 78.000000
0.890686 -1.993433 -0.168334 78.000000
2.660216 -0.582829 -0.235979 79.000000
2.657444 -0.590773 -0.235879 79.000000
2.659502 -0.599797 -0.236279 79.000000
2.645039 -0.605074 -0.234978 79.000000
2.636433 -0.620155 -0.234478 79.000000
2.721241 -0.719891 -0.245180 79.000000
2.710368 -0.725924 -0.244280 79.000000
2.712931 -0.735535 -0.244780 79.000000
3.390081 -0.941192 -0.315890 79.000000
3.480102 -0.977661 -0.325592 79.000000
3.479958 -0.989149 -0.325892 79.000000
3.478820 -1.000370 -0.326092 79.000000
2.570899 -0.748148 -0.231378 79.000000
2.585774 -0.761082 -0.233178 79.000000
2.586288 -0.769861 -0.233478 79.000000
2.578197 -0.776074 -0.232878 79.000000
2.576756 -0.784270 -0.232978 79.000000
2.573387 -0.791879 -0.232878 79.000000
2.574746 -0.800951 -0.233278 79.000000
2.573226 -0.809144 -0.233378 79.000000
2.571680 -0.817336 -0.233478 79.000000
2.569160 -0.825222 -0.233478 79.000000
2.563776 -0.832180 -0.233178 79.000000
2.558375 -0.839112 -0.232878 79.000000
2.554844 -0.846645 -0.232778 79.000000
2.552234 -0.854479 -0.232778 79.000000
2.550543 -0.862624 -0.232878 79.000000
2.546001 -0.869802 -0.232678 79.000000
2.545202 -0.878257 -0.232878 79.000000
2.542496 -0.886062 -0.232878 79.000000
2.542582 -0.894847 -0.233178 79.000000
2.565142 -0.911629 -0.235879 79.000000
4.998577 -1.862111 -0.498416 79.000000
4.984458 -1.874287 -0.497516 79.000000
4.970312 -1.886395 -0.496616 79.000000
4.950562 -1.896299 -0.495116 79.000000
4.936368 -1.908252 -0.494216 79.000000
4.908242 -1.914713 -0.491815 79.000000
4.893085 -1.926120 -0.490815 79.000000
4.876980 -1.937085 -0.489715 79.000000
4.859931 -1.947599 -0.488515 79.000000
4.844707 -1.958773 -0.487515 79.000000
4.834068 -1.971749 -0.487015 79.000000
4.825235 -1.985435 -0.486715 79.000000
4.810850 -1.996798 -0.485815 79.000000
1.084185 -1.946198 -0.186171 79.000000
1.077727 -1.948644 -0.186071 79.000000
1.036674 -1.901944 -0.179971 79.000000
1.027516 -1.898991 -0.179270 79.000000
1.024513 -1.907393 -0.179871 79.000000
1.019594 -1.912282 -0.180071 79.000000
1.013722 -1.915401 -0.180071 79.000000
1.008304 -1.919383 -0.180171 79.000000
1.001490 -1.920703 -0.179971 79.000000
0.997424 -1.927301 -0.180371 79.000000
0.991961 -1.931236 -0.180471 79.000000
0.986484 -1.935157 -0.180571 79.000000
0.981442 -1.939949 -0.180771 79.000000
0.976379 -1.944729 -0.180971 79.000000
0.969964 -1.946825 -0.180871 79.000000
0.964869 -1.951575 -0.181071 79.000000
0.958878 -1.954526 -0.181071 79.000000
0.953749 -1.959248 -0.181271 79.000000
0.948600 -1.963956 -0.181471 79.000000
0.943431 -1.968651 -0.181671 79.000000
0.937387 -1.971536 -0.181671 79.000000
0.930909 -1.973503 -0.181571 79.000000
0.926116 -1.979053 -0.181871 79.000000
0.920040 -1.981885 -0.181871 79.000000
0.914372 -1.985602 -0.181971 79.000000
0.909104 -1.990207 -0.182171 79.000000
0.903816 -1.994799 -0.182371 79.000000
0.896875 -1.995748 -0.182171 79.000000
0.890748 -1.998490 -0.182171 79.000000
2.662532 -0.587702 -0.252570 80.000000
2.661687 -0.596086 -0.252676 80.000000
2.657010 -0.612182 -0.252570 80.000000
2.727078 -0.726083 -0.262738 80.000000
2.730245 -0.744899 -0.263586 80.000000
3.333653 -0.920794 -0.330525 80.000000
3.471576 -0.970414 -0.346095 80.000000
3.487717 -0.986479 -0.348213 80.000000
3.486586 -0.997722 -0.348425 80.000000
3.486374 -1.009245 -0.348743 80.000000
3.485170 -1.020495 -0.348955 80.000000
3.482023 -1.031183 -0.348955 80.000000
3.481700 -1.042717 -0.349272 80.000000
3.487049 -1.055991 -0.350226 80.000000
2.570159 -0.786625 -0.248439 80.000000
2.572482 -0.795978 -0.248969 80.000000
2.569079 -0.803569 -0.248863 80.000000
2.568498 -0.812048 -0.249075 80.000000
2.566942 -0.820227 -0.249181 80.000000
2.564413 -0.828098 -0.249181 80.000000
2.559025 -0.835035 -0.248863 80.000000
2.556451 -0.842882 -0.248863 80.000000
2.555740 -0.851351 -0.249075 80.000000
2.550289 -0.858235 -0.248757 80.000000
2.549526 -0.866696 -0.248969 80.000000
2.548736 -0.875161 -0.249181 80.000000
2.549797 -0.884281 -0.249605 80.000000
2.546133 -0.891770 -0.249499 80.000000
2.538699 -0.897917 -0.248969 80.000000
1.036455 -1.893760 -0.192092 80.000000
1.033011 -1.901301 -0.192621 80.000000
1.028117 -1.906212 -0.192833 80.000000
1.022264 -1.909358 -0.192833 80.000000
1.017799 -1.915120 -0.193151 80.000000
1.013773 -1.921752 -0.193574 80.000000
1.003726 -1.916923 -0.192621 80.000000
1.002421 -1.928819 -0.193680 80.000000
0.997864 -1.934537 -0.193998 80.000000
0.992377 -1.938475 -0.194104 80.000000
0.987775 -1.944171 -0.194422 80.000000
0.981359 -1.946304 -0.194316 80.000000
