# This PCD file was generated using the MATLAB® pcwrite function
# from Computer Vision Toolbox®.
# .PCD v.7 - Point Cloud Data file format
VERSION .7
FIELDS x y z intensity
SIZE 4 4 4 4
TYPE F F F F
COUNT 1 1 1 1
WIDTH 1231
HEIGHT 1
VIEWPOINT 0 0 0 1 0 0 0
POINTS 1231
DATA ascii
1.487165 1.175268 -0.360963 97.000000
1.498460 1.176741 -0.363030 97.000000
1.502063 1.172139 -0.363030 97.000000
1.514932 1.174718 -0.365510 97.000000
1.513878 1.166482 -0.364270 97.000000
1.530658 1.171941 -0.367784 97.000000
1.591098 1.210473 -0.382874 97.000000
1.571386 1.187891 -0.376673 97.000000
1.611796 1.210675 -0.386389 97.000000
1.609229 1.201043 -0.384735 97.000000
1.617623 1.199597 -0.385975 97.000000
1.620508 1.194048 -0.385768 97.000000
1.623374 1.188493 -0.385562 97.000000
1.618308 1.177178 -0.383288 97.000000
1.621912 1.172207 -0.383288 97.000000
1.622321 1.164944 -0.382461 97.000000
1.625091 1.159393 -0.382254 97.000000
1.626245 1.152705 -0.381634 97.000000
1.629774 1.147710 -0.381634 97.000000
1.633287 1.142705 -0.381634 97.000000
1.638392 1.138805 -0.382048 97.000000
1.642684 1.134329 -0.382254 97.000000
1.653418 1.134264 -0.384115 97.000000
1.658507 1.130287 -0.384528 97.000000
1.662778 1.125742 -0.384735 97.000000
1.663788 1.118998 -0.384115 97.000000
1.673722 1.118235 -0.385768 97.000000
1.663285 1.103900 -0.382254 97.000000
1.662579 1.096100 -0.381221 97.000000
1.571794 1.029370 -0.357448 97.000000
1.565101 1.018143 -0.354968 97.000000
1.550958 1.002189 -0.350627 97.000000
1.497204 0.960973 -0.336363 97.000000
1.485293 0.946911 -0.332642 97.000000
1.487364 0.941826 -0.332436 97.000000
1.520895 0.956525 -0.340084 97.000000
1.491455 0.931646 -0.332022 97.000000
1.791988 1.111655 -0.406027 97.000000
1.811218 1.115901 -0.409954 97.000000
1.832996 1.121570 -0.414502 97.000000
1.833920 1.114417 -0.413882 97.000000
1.837330 1.108785 -0.413882 97.000000
1.842402 1.104149 -0.414295 97.000000
1.848303 1.099992 -0.414916 97.000000
1.848300 1.092326 -0.414089 97.000000
1.703957 1.000016 -0.377913 97.000000
1.690954 0.985427 -0.373986 97.000000
1.578786 0.913613 -0.345872 97.000000
1.578187 0.906816 -0.345045 97.000000
1.591161 0.907786 -0.347526 97.000000
1.629698 0.923146 -0.356208 97.000000
1.553204 0.873555 -0.336983 97.000000
1.536227 0.857818 -0.332229 97.000000
1.752804 0.971649 -0.383908 97.000000
1.838931 1.012009 -0.403960 97.000000
1.842886 1.006831 -0.404166 97.000000
1.844246 1.000240 -0.403753 97.000000
1.840413 0.990868 -0.402099 97.000000
1.834815 0.980607 -0.400032 97.000000
1.825713 0.968556 -0.397138 97.000000
1.800104 0.947912 -0.390316 97.000000
1.806473 0.944197 -0.391143 97.000000
1.791121 0.929192 -0.386802 97.000000
1.777434 0.915186 -0.382874 97.000000
1.763679 0.901273 -0.378947 97.000000
1.755090 0.890107 -0.376260 97.000000
1.738584 0.875045 -0.371712 97.000000
1.705370 0.851790 -0.363236 97.000000
1.683427 0.834393 -0.357448 97.000000
1.596418 0.785198 -0.336363 97.000000
1.540781 0.751988 -0.322720 97.000000
1.566860 0.758765 -0.328301 97.000000
1.531255 0.735743 -0.319412 97.000000
1.533971 0.725497 -0.318999 97.000000
1.534846 0.714421 -0.318172 97.000000
1.599216 0.738405 -0.332642 97.000000
1.614819 0.739603 -0.335743 97.000000
1.585900 0.720489 -0.328508 97.000000
1.580966 0.712406 -0.326854 97.000000
1.565277 0.699572 -0.322720 97.000000
1.521169 0.668704 -0.311557 97.000000
1.494705 0.646164 -0.304529 97.000000
1.481392 0.635026 -0.301015 97.000000
1.472527 0.625888 -0.298534 97.000000
1.477145 0.622507 -0.299154 97.000000
1.481756 0.619103 -0.299774 97.000000
1.482745 0.614180 -0.299568 97.000000
1.480096 0.607771 -0.298534 97.000000
1.497409 0.604166 -0.301635 97.000000
1.491987 0.596664 -0.299981 97.000000
1.497449 0.593525 -0.300808 97.000000
1.500174 0.589286 -0.301015 97.000000
1.501063 0.584326 -0.300808 97.000000
1.499197 0.578310 -0.299981 97.000000
1.500050 0.573359 -0.299774 97.000000
1.504547 0.569793 -0.300395 97.000000
1.505372 0.564831 -0.300188 97.000000
1.502512 0.558507 -0.299154 97.000000
1.504218 0.553895 -0.299154 97.000000
1.504072 0.548607 -0.298741 97.000000
1.508509 0.544987 -0.299361 97.000000
1.513669 0.536373 -0.299774 97.000000
1.508844 0.529461 -0.298327 97.000000
1.507689 0.523867 -0.297707 97.000000
1.517359 0.516812 -0.299154 97.000000
1.526354 0.514654 -0.300808 97.000000
1.526998 0.509659 -0.300601 97.000000
1.527900 0.494379 -0.299774 97.000000
1.535933 0.491776 -0.301221 97.000000
1.536502 0.486767 -0.301015 97.000000
1.532917 0.475303 -0.299568 97.000000
1.540976 0.462298 -0.300395 97.000000
1.540511 0.457012 -0.299981 97.000000
1.537648 0.445917 -0.298741 97.000000
1.457587 1.295140 -0.384098 98.000000
1.457159 1.286780 -0.382824 98.000000
1.477255 1.296488 -0.387496 98.000000
1.497425 1.306084 -0.392168 98.000000
1.454913 1.261150 -0.378790 98.000000
1.432127 1.233715 -0.371145 98.000000
1.426257 1.221052 -0.368385 98.000000
1.430741 1.217304 -0.368597 98.000000
1.431484 1.210384 -0.367748 98.000000
1.430703 1.202214 -0.366473 98.000000
1.431385 1.195313 -0.365624 98.000000
1.432790 1.189044 -0.364987 98.000000
1.438692 1.186508 -0.365624 98.000000
1.440814 1.180849 -0.365199 98.000000
1.444430 1.176423 -0.365199 98.000000
1.449552 1.173216 -0.365624 98.000000
1.456190 1.171214 -0.366473 98.000000
1.459776 1.166741 -0.366473 98.000000
1.469469 1.167120 -0.368172 98.000000
1.471509 1.161395 -0.367748 98.000000
1.480447 1.161098 -0.369234 98.000000
1.485543 1.157752 -0.369659 98.000000
1.492178 1.155583 -0.370508 98.000000
1.499588 1.153980 -0.371570 98.000000
1.500017 1.146999 -0.370720 98.000000
1.512864 1.149488 -0.373269 98.000000
1.510925 1.140718 -0.371782 98.000000
1.515199 1.136664 -0.371994 98.000000
1.544531 1.151287 -0.379002 98.000000
1.614009 1.195411 -0.396839 98.000000
1.589339 1.169597 -0.389195 98.000000
1.611849 1.178562 -0.394291 98.000000
1.613876 1.172462 -0.393866 98.000000
1.619050 1.168650 -0.394291 98.000000
1.620246 1.161968 -0.393654 98.000000
1.625394 1.158126 -0.394079 98.000000
1.628940 1.153134 -0.394079 98.000000
1.630871 1.147006 -0.393654 98.000000
1.636786 1.143677 -0.394291 98.000000
1.641089 1.139207 -0.394503 98.000000
1.644576 1.134167 -0.394503 98.000000
1.650466 1.130774 -0.395140 98.000000
1.653928 1.125705 -0.395140 98.000000
1.659802 1.122268 -0.395777 98.000000
1.658371 1.113901 -0.394503 98.000000
1.641461 1.095244 -0.389195 98.000000
1.520208 1.007578 -0.356705 98.000000
1.506971 0.992159 -0.352458 98.000000
1.501830 0.982181 -0.350335 98.000000
1.477798 0.959996 -0.343327 98.000000
1.473347 0.950687 -0.341416 98.000000
1.468854 0.941415 -0.339505 98.000000
1.462669 0.931130 -0.337169 98.000000
1.461389 0.924026 -0.336108 98.000000
1.465872 0.920578 -0.336532 98.000000
1.464544 0.913490 -0.335471 98.000000
1.483121 0.918774 -0.339505 98.000000
1.528374 0.940344 -0.350335 98.000000
1.664650 1.017201 -0.384311 98.000000
1.823965 1.106922 -0.424020 98.000000
1.819821 1.096780 -0.422109 98.000000
1.831561 1.096211 -0.424232 98.000000
1.837435 1.092085 -0.424869 98.000000
1.601802 0.945340 -0.364562 98.000000
1.637571 0.959698 -0.372844 98.000000
1.661620 0.966961 -0.378153 98.000000
1.535987 0.887519 -0.345876 98.000000
1.548872 0.888640 -0.348424 98.000000
1.546641 0.874788 -0.346513 98.000000
1.549318 0.870039 -0.346513 98.000000
1.508457 0.841004 -0.335683 98.000000
1.714820 0.942369 -0.385585 98.000000
1.827495 0.997029 -0.412765 98.000000
1.827968 0.990021 -0.412128 98.000000
1.824972 0.981168 -0.410642 98.000000
1.821940 0.972343 -0.409155 98.000000
1.824914 0.966748 -0.409155 98.000000
1.807981 0.950681 -0.404271 98.000000
1.789233 0.933822 -0.398963 98.000000
1.784281 0.924282 -0.397052 98.000000
1.773205 0.911652 -0.393654 98.000000
1.767290 0.901765 -0.391531 98.000000
1.769177 0.895897 -0.391318 98.000000
1.741360 0.875101 -0.383886 98.000000
1.710809 0.853176 -0.375817 98.000000
1.691526 0.837084 -0.370508 98.000000
1.543793 0.752180 -0.333559 98.000000
1.577762 0.762759 -0.341204 98.000000
1.539569 0.738465 -0.331436 98.000000
1.542710 0.734159 -0.331648 98.000000
1.532585 0.723579 -0.328675 98.000000
1.532143 0.717629 -0.328038 98.000000
1.564913 0.721311 -0.334834 98.000000
1.568896 0.717319 -0.335258 98.000000
1.565750 0.710080 -0.333984 98.000000
1.528713 0.687626 -0.324641 98.000000
1.545093 0.689306 -0.328038 98.000000
1.493588 0.660827 -0.315298 98.000000
1.453713 0.632535 -0.304892 98.000000
1.450264 0.625748 -0.303618 98.000000
1.444990 0.618219 -0.301920 98.000000
1.454076 0.616838 -0.303618 98.000000
1.455061 0.611995 -0.303406 98.000000
1.474968 0.615054 -0.307653 98.000000
1.483169 0.613141 -0.309139 98.000000
1.479661 0.601085 -0.307441 98.000000
1.482405 0.596908 -0.307653 98.000000
1.488766 0.594169 -0.308715 98.000000
1.488765 0.588879 -0.308290 98.000000
1.490565 0.584309 -0.308290 98.000000
1.497815 0.581858 -0.309564 98.000000
1.489563 0.573396 -0.307228 98.000000
1.488576 0.567778 -0.306591 98.000000
1.493053 0.564245 -0.307228 98.000000
1.499352 0.561376 -0.308290 98.000000
1.484577 0.550653 -0.304468 98.000000
1.491763 0.548119 -0.305742 98.000000
1.491223 0.532393 -0.304468 98.000000
1.494692 0.528468 -0.304892 98.000000
1.490520 0.516724 -0.303194 98.000000
1.499492 0.514689 -0.304892 98.000000
1.504765 0.511344 -0.305742 98.000000
1.510957 0.508284 -0.306804 98.000000
1.519926 0.506118 -0.308502 98.000000
1.511263 0.498085 -0.306167 98.000000
1.507782 0.486700 -0.304680 98.000000
1.512603 0.478029 -0.305105 98.000000
1.526768 0.451771 -0.306379 98.000000
1.476158 1.318622 -0.403452 99.000000
1.478008 1.312142 -0.402797 99.000000
1.514207 1.336027 -0.412410 99.000000
1.553499 1.362278 -0.422897 99.000000
1.518700 1.323503 -0.411317 99.000000
1.463771 1.267695 -0.393839 99.000000
1.460261 1.256828 -0.391654 99.000000
1.458921 1.247898 -0.390124 99.000000
1.446394 1.229502 -0.385318 99.000000
1.440474 1.216866 -0.382478 99.000000
1.420296 1.192349 -0.375486 99.000000
1.434433 1.196744 -0.378545 99.000000
1.437346 1.191714 -0.378326 99.000000
1.441749 1.187920 -0.378545 99.000000
1.440858 1.179779 -0.377234 99.000000
1.445984 1.176586 -0.377671 99.000000
1.450346 1.172758 -0.377889 99.000000
1.456218 1.170138 -0.378545 99.000000
1.453703 1.160790 -0.376797 99.000000
1.458786 1.157539 -0.377234 99.000000
1.463862 1.154267 -0.377671 99.000000
1.466629 1.149168 -0.377452 99.000000
1.469378 1.144063 -0.377234 99.000000
1.472881 1.139550 -0.377234 99.000000
1.477916 1.136216 -0.377671 99.000000
1.483721 1.133456 -0.378326 99.000000
1.490299 1.131260 -0.379200 99.000000
1.496098 1.128447 -0.379856 99.000000
1.503456 1.126780 -0.380948 99.000000
1.505341 1.120996 -0.380511 99.000000
1.513478 1.119858 -0.381822 99.000000
1.521622 1.118680 -0.383133 99.000000
1.540799 1.125528 -0.387503 99.000000
1.534772 1.113912 -0.384881 99.000000
1.567456 1.130334 -0.392965 99.000000
1.593118 1.141447 -0.399082 99.000000
1.602969 1.141085 -0.400830 99.000000
1.608852 1.137854 -0.401486 99.000000
1.624307 1.141335 -0.404763 99.000000
1.624601 1.134110 -0.403889 99.000000
1.633684 1.133017 -0.405418 99.000000
1.641972 1.131324 -0.406729 99.000000
1.643825 1.125178 -0.406292 99.000000
1.651302 1.122875 -0.407385 99.000000
1.640998 1.108510 -0.403670 99.000000
1.655731 1.111089 -0.406729 99.000000
1.497613 0.998198 -0.363251 99.000000
1.463256 0.968793 -0.353201 99.000000
1.463776 0.962689 -0.352545 99.000000
1.461007 0.954454 -0.351016 99.000000
1.466383 0.951563 -0.351671 99.000000
1.455358 0.938062 -0.347957 99.000000
1.451657 0.929379 -0.346209 99.000000
1.452855 0.923873 -0.345772 99.000000
1.455683 0.919411 -0.345772 99.000000
1.466760 0.920132 -0.347957 99.000000
1.482822 0.923893 -0.351453 99.000000
1.508045 0.933219 -0.357352 99.000000
1.511732 0.929100 -0.357570 99.000000
1.679432 1.025229 -0.400830 99.000000
1.791011 1.085902 -0.429233 99.000000
1.793498 1.079899 -0.429015 99.000000
1.810199 1.082411 -0.432510 99.000000
1.800930 1.069372 -0.429233 99.000000
1.618492 0.954201 -0.380948 99.000000
1.614677 0.945282 -0.379200 99.000000
1.638653 0.952598 -0.384662 99.000000
1.590877 0.918264 -0.371553 99.000000
1.644467 0.942525 -0.384662 99.000000
1.604357 0.906467 -0.372864 99.000000
1.644830 0.916095 -0.381822 99.000000
1.570801 0.868499 -0.362159 99.000000
1.635028 0.897523 -0.377889 99.000000
1.821938 0.993011 -0.424863 99.000000
1.818112 0.983698 -0.423116 99.000000
1.818543 0.976729 -0.422460 99.000000
1.813784 0.967009 -0.420494 99.000000
1.817604 0.961896 -0.420712 99.000000
1.820547 0.956315 -0.420712 99.000000
1.813956 0.945758 -0.418309 99.000000
1.801254 0.932106 -0.414376 99.000000
1.756377 0.902028 -0.402360 99.000000
1.750444 0.892199 -0.400175 99.000000
1.756655 0.888589 -0.401049 99.000000
1.775938 0.891523 -0.405200 99.000000
1.741991 0.867774 -0.396024 99.000000
1.740272 0.860260 -0.394931 99.000000
1.598386 0.783923 -0.358881 99.000000
1.579731 0.768754 -0.353638 99.000000
1.563634 0.754981 -0.349049 99.000000
1.541309 0.738359 -0.342932 99.000000
1.556783 0.739919 -0.346209 99.000000
1.535668 0.718345 -0.339873 99.000000
1.553793 0.721035 -0.343806 99.000000
1.587900 0.730975 -0.351671 99.000000
1.584810 0.723665 -0.350360 99.000000
1.561252 0.707106 -0.344024 99.000000
1.554515 0.698309 -0.341840 99.000000
1.479566 0.648276 -0.321957 99.000000
1.455600 0.632437 -0.315621 99.000000
1.446783 0.623327 -0.313000 99.000000
1.437106 0.608719 -0.309722 99.000000
1.441665 0.605443 -0.310378 99.000000
1.460720 0.597702 -0.313655 99.000000
1.482472 0.590746 -0.317588 99.000000
1.477018 0.583323 -0.315840 99.000000
1.495153 0.585202 -0.319773 99.000000
1.509675 0.585562 -0.322831 99.000000
1.515107 0.582330 -0.323705 99.000000
1.516886 0.577679 -0.323705 99.000000
1.515000 0.571642 -0.322831 99.000000
1.524971 0.570073 -0.324798 99.000000
1.527628 0.565731 -0.325016 99.000000
1.506313 0.547331 -0.319117 99.000000
1.497697 0.533811 -0.316277 99.000000
1.502587 0.489231 -0.314092 99.000000
1.489759 0.474951 -0.310378 99.000000
1.566651 1.386303 -0.440473 100.000000
1.576023 1.385992 -0.442040 100.000000
1.575128 1.376664 -0.440473 100.000000
1.547689 1.344360 -0.430852 100.000000
1.497184 1.292506 -0.414293 100.000000
1.476719 1.266979 -0.406909 100.000000
1.482084 1.263706 -0.407357 100.000000
1.450243 1.228930 -0.396616 100.000000
1.433122 1.206909 -0.390351 100.000000
1.439809 1.205007 -0.391246 100.000000
1.438251 1.196224 -0.389680 100.000000
1.438908 1.189324 -0.388785 100.000000
1.442550 1.184904 -0.388785 100.000000
1.445423 1.179857 -0.388561 100.000000
1.450551 1.176644 -0.389008 100.000000
1.451876 1.170355 -0.388337 100.000000
1.454699 1.165286 -0.388113 100.000000
1.455215 1.158391 -0.387218 100.000000
1.455703 1.151505 -0.386323 100.000000
1.456929 1.145228 -0.385652 100.000000
1.461204 1.141352 -0.385876 100.000000
1.458537 1.132087 -0.384086 100.000000
1.462775 1.128202 -0.384309 100.000000
1.461586 1.120154 -0.382967 100.000000
1.466567 1.116845 -0.383414 100.000000
1.473874 1.115278 -0.384533 100.000000
1.488980 1.119530 -0.387890 100.000000
1.489283 1.112625 -0.386994 100.000000
1.491906 1.107470 -0.386771 100.000000
1.494512 1.102310 -0.386547 100.000000
1.514404 1.109808 -0.391246 100.000000
1.520166 1.106876 -0.391917 100.000000
1.521185 1.100495 -0.391246 100.000000
1.536430 1.104348 -0.394602 100.000000
1.546953 1.104723 -0.396616 100.000000
1.559082 1.106170 -0.399078 100.000000
1.553702 1.095210 -0.396616 100.000000
1.592197 1.115017 -0.406462 100.000000
1.588407 1.105121 -0.404448 100.000000
1.603821 1.108548 -0.407804 100.000000
1.616056 1.109686 -0.410266 100.000000
1.609787 1.098138 -0.407580 100.000000
1.596198 1.081722 -0.402881 100.000000
1.580098 1.063768 -0.397511 100.000000
1.474748 0.986378 -0.367527 100.000000
1.475331 0.980233 -0.366856 100.000000
1.462869 0.965511 -0.362605 100.000000
1.457670 0.955680 -0.360367 100.000000
1.450790 0.944828 -0.357682 100.000000
1.449588 0.937728 -0.356563 100.000000
1.448357 0.930645 -0.355444 100.000000
1.452027 0.926721 -0.355668 100.000000
1.457334 0.923825 -0.356339 100.000000
1.467587 0.924019 -0.358353 100.000000
1.467935 0.917963 -0.357682 100.000000
1.496422 0.929379 -0.364618 100.000000
1.534120 0.946251 -0.374016 100.000000
1.613508 0.988329 -0.394602 100.000000
1.690669 1.028410 -0.414517 100.000000
1.801471 1.088166 -0.443382 100.000000
1.797277 1.078126 -0.441368 100.000000
1.763721 1.050680 -0.431523 100.000000
1.599948 0.946607 -0.386994 100.000000
1.616295 0.949585 -0.390575 100.000000
1.623411 0.947075 -0.391693 100.000000
1.637277 0.948434 -0.394602 100.000000
1.647785 0.947775 -0.396616 100.000000
1.676085 0.957200 -0.403329 100.000000
1.707001 0.967901 -0.410713 100.000000
1.764337 0.993228 -0.425034 100.000000
1.721419 0.962160 -0.412951 100.000000
1.753297 0.958889 -0.418992 100.000000
1.808496 0.981842 -0.432642 100.000000
1.814933 0.978137 -0.433537 100.000000
1.817925 0.972564 -0.433537 100.000000
1.824345 0.968809 -0.434432 100.000000
1.825583 0.962299 -0.433984 100.000000
1.830255 0.957597 -0.434432 100.000000
1.825397 0.947939 -0.432418 100.000000
1.827430 0.941888 -0.432194 100.000000
1.838991 0.940711 -0.434432 100.000000
1.827959 0.928013 -0.430852 100.000000
1.800324 0.907069 -0.423020 100.000000
1.762987 0.881515 -0.412727 100.000000
1.702803 0.844948 -0.396616 100.000000
1.650284 0.812630 -0.382519 100.000000
1.647513 0.804999 -0.381177 100.000000
1.628456 0.777224 -0.374464 100.000000
1.600704 0.740029 -0.365066 100.000000
1.643732 0.753776 -0.375359 100.000000
1.589241 0.722939 -0.361038 100.000000
1.547906 0.698448 -0.350074 100.000000
1.545592 0.691708 -0.348955 100.000000
1.545034 0.685779 -0.348284 100.000000
1.434269 0.610553 -0.318076 100.000000
1.466843 0.608511 -0.324789 100.000000
1.455178 0.598457 -0.321433 100.000000
1.492315 0.592400 -0.328817 100.000000
1.504097 0.586413 -0.330831 100.000000
1.514073 0.584951 -0.332844 100.000000
1.526787 0.584476 -0.335530 100.000000
1.550450 0.588070 -0.340900 100.000000
1.542208 0.579546 -0.338438 100.000000
1.527331 0.557984 -0.333516 100.000000
1.510150 0.530813 -0.327698 100.000000
1.486912 0.517546 -0.321656 100.000000
1.478355 0.509496 -0.319195 100.000000
1.487918 0.502594 -0.320761 100.000000
1.492227 0.498951 -0.321433 100.000000
1.498378 0.495899 -0.322551 100.000000
1.508812 0.489094 -0.324342 100.000000
1.491342 0.473356 -0.319419 100.000000
1.507669 0.473439 -0.322999 100.000000
1.499701 0.435800 -0.318748 100.000000
1.604259 1.426182 -0.466328 101.000000
1.599143 1.412877 -0.463344 101.000000
1.590304 1.396408 -0.459212 101.000000
1.584312 1.382565 -0.455999 101.000000
1.574573 1.365584 -0.451637 101.000000
1.552948 1.338511 -0.443603 101.000000
1.482376 1.269804 -0.420420 101.000000
1.469958 1.251374 -0.415370 101.000000
1.463385 1.238059 -0.412156 101.000000
1.455255 1.223545 -0.408484 101.000000
1.448544 1.210340 -0.405270 101.000000
1.444761 1.199674 -0.402975 101.000000
1.441677 1.189662 -0.400909 101.000000
1.443062 1.183382 -0.400220 101.000000
1.445176 1.177720 -0.399761 101.000000
1.444244 1.169606 -0.398384 101.000000
1.445550 1.163340 -0.397695 101.000000
1.447592 1.157684 -0.397236 101.000000
1.448851 1.151421 -0.396548 101.000000
1.450848 1.145765 -0.396089 101.000000
1.452059 1.139506 -0.395400 101.000000
1.453245 1.133251 -0.394711 101.000000
1.453637 1.126403 -0.393793 101.000000
1.454001 1.119563 -0.392875 101.000000
1.455883 1.113915 -0.392416 101.000000
1.460068 1.110032 -0.392646 101.000000
1.463467 1.105547 -0.392646 101.000000
1.464516 1.099300 -0.391957 101.000000
1.465541 1.093056 -0.391268 101.000000
1.471234 1.090293 -0.391957 101.000000
1.471436 1.083466 -0.391039 101.000000
1.463754 1.070904 -0.387825 101.000000
1.477269 1.073845 -0.390809 101.000000
1.486870 1.073866 -0.392646 101.000000
1.491739 1.070433 -0.393105 101.000000
1.498187 1.068111 -0.394023 101.000000
1.508606 1.068571 -0.396089 101.000000
1.508693 1.061698 -0.395170 101.000000
1.515134 1.059295 -0.396089 101.000000
1.511181 1.049646 -0.394023 101.000000
1.524009 1.051636 -0.396777 101.000000
1.511973 1.036502 -0.392416 101.000000
1.500664 1.022000 -0.388284 101.000000
1.494923 1.011394 -0.385759 101.000000
1.479437 0.994320 -0.380480 101.000000
1.469527 0.981132 -0.376807 101.000000
1.466040 0.972317 -0.374971 101.000000
1.464139 0.964603 -0.373594 101.000000
1.456503 0.953181 -0.370610 101.000000
1.453707 0.944996 -0.369003 101.000000
1.452510 0.937892 -0.367855 101.000000
1.462756 0.938159 -0.369921 101.000000
1.463164 0.932099 -0.369232 101.000000
1.477533 0.934889 -0.372446 101.000000
1.505120 0.945882 -0.379332 101.000000
1.605457 1.002050 -0.406418 101.000000
1.707806 1.058636 -0.433963 101.000000
1.764097 1.086038 -0.448653 101.000000
1.785691 1.091787 -0.453703 101.000000
1.807337 1.097413 -0.458753 101.000000
1.807361 1.089853 -0.457835 101.000000
1.798170 1.076805 -0.454392 101.000000
1.598995 0.950932 -0.398843 101.000000
1.621183 0.957401 -0.404123 101.000000
1.614037 0.946517 -0.401368 101.000000
1.628710 0.948415 -0.404582 101.000000
1.623185 0.938544 -0.402286 101.000000
1.623524 0.932106 -0.401598 101.000000
1.686418 0.961331 -0.417895 101.000000
1.715621 0.971009 -0.425011 101.000000
1.826364 1.026274 -0.454162 101.000000
1.775100 0.990328 -0.439472 101.000000
1.778130 0.984877 -0.439472 101.000000
1.733731 0.946443 -0.425929 101.000000
1.812794 0.982377 -0.446358 101.000000
1.820943 0.979576 -0.447735 101.000000
1.825657 0.974902 -0.448194 101.000000
1.828639 0.969296 -0.448194 101.000000
1.831604 0.963682 -0.448194 101.000000
1.835415 0.958508 -0.448424 101.000000
1.837483 0.952425 -0.448194 101.000000
1.837799 0.945448 -0.447506 101.000000
1.838957 0.938920 -0.447047 101.000000
1.841829 0.933274 -0.447047 101.000000
1.842075 0.926308 -0.446358 101.000000
1.842295 0.919349 -0.445669 101.000000
1.798003 0.890378 -0.433274 101.000000
1.661821 0.816635 -0.396777 101.000000
1.636132 0.791593 -0.388743 101.000000
1.629778 0.782360 -0.386448 101.000000
1.605505 0.758629 -0.378873 101.000000
1.579715 0.728743 -0.370380 101.000000
1.614693 0.738870 -0.378873 101.000000
1.564165 0.704189 -0.364642 101.000000
1.503737 0.660426 -0.347426 101.000000
1.459506 0.630359 -0.335031 101.000000
1.485593 0.636218 -0.341229 101.000000
1.454480 0.612370 -0.332276 101.000000
1.481596 0.613105 -0.338245 101.000000
1.479867 0.607080 -0.337326 101.000000
1.506182 0.601734 -0.342606 101.000000
1.508021 0.597110 -0.342606 101.000000
1.537977 0.592648 -0.348803 101.000000
1.535241 0.586192 -0.347656 101.000000
1.556151 0.588707 -0.352476 101.000000
1.545189 0.579151 -0.349262 101.000000
1.541484 0.572376 -0.347885 101.000000
1.521050 0.548920 -0.341458 101.000000
1.506228 0.538358 -0.337326 101.000000
1.508790 0.534059 -0.337556 101.000000
1.471271 0.490509 -0.325849 101.000000
1.478315 0.487822 -0.327227 101.000000
1.588606 1.420350 -0.475535 102.000000
1.598041 1.419990 -0.477181 102.000000
1.603847 1.416368 -0.477651 102.000000
1.589194 1.394767 -0.471537 102.000000
1.596395 1.392441 -0.472478 102.000000
1.568350 1.359519 -0.462132 102.000000
1.522447 1.311553 -0.446142 102.000000
1.513914 1.296128 -0.442145 102.000000
1.494939 1.271948 -0.434855 102.000000
1.476572 1.248524 -0.427801 102.000000
1.465515 1.231479 -0.423098 102.000000
1.459590 1.218876 -0.420041 102.000000
1.454348 1.206942 -0.417220 102.000000
1.450547 1.196289 -0.414868 102.000000
1.447446 1.186287 -0.412752 102.000000
1.442790 1.175087 -0.410165 102.000000
1.443367 1.168208 -0.409225 102.000000
1.443158 1.160728 -0.408049 102.000000
1.441398 1.152046 -0.406403 102.000000
1.442643 1.145805 -0.405698 102.000000
1.442337 1.138362 -0.404522 102.000000
1.443529 1.132131 -0.403817 102.000000
1.445462 1.126502 -0.403346 102.000000
1.445838 1.119681 -0.402406 102.000000
1.443875 1.111090 -0.400760 102.000000
1.444189 1.104292 -0.399819 102.000000
1.444475 1.097504 -0.398879 102.000000
1.447836 1.093067 -0.398879 102.000000
1.449628 1.087453 -0.398408 102.000000
1.450619 1.081257 -0.397703 102.000000
1.453149 1.076223 -0.397468 102.000000
1.451748 1.068303 -0.396057 102.000000
1.455018 1.063844 -0.396057 102.000000
1.458275 1.059375 -0.396057 102.000000
1.463094 1.056034 -0.396527 102.000000
1.463958 1.049840 -0.395822 102.000000
1.465589 1.044216 -0.395351 102.000000
1.464027 1.036344 -0.393941 102.000000
1.471969 1.035203 -0.395351 102.000000
1.470358 1.027341 -0.393941 102.000000
1.478293 1.026152 -0.395351 102.000000
1.471834 1.014988 -0.392530 102.000000
1.466924 1.004973 -0.390178 102.000000
1.465983 0.997733 -0.389003 102.000000
1.460181 0.987240 -0.386416 102.000000
1.455136 0.977335 -0.384065 102.000000
1.450043 0.967470 -0.381713 102.000000
1.445714 0.958182 -0.379597 102.000000
1.442153 0.949465 -0.377716 102.000000
1.440180 0.941843 -0.376305 102.000000
1.439802 0.935302 -0.375364 102.000000
1.445931 0.932989 -0.376305 102.000000
1.444696 0.925925 -0.375129 102.000000
1.470484 0.936108 -0.381713 102.000000
1.523455 0.963289 -0.396057 102.000000
1.551916 0.974641 -0.403346 102.000000
1.535109 0.957525 -0.397703 102.000000
1.707400 1.057779 -0.445907 102.000000
1.784304 1.097882 -0.466835 102.000000
1.792640 1.095444 -0.468245 102.000000
1.795161 1.089435 -0.468010 102.000000
1.798495 1.083922 -0.468010 102.000000
1.657546 0.992019 -0.427331 102.000000
1.586602 0.936366 -0.405698 102.000000
1.565152 0.917237 -0.398879 102.000000
1.567958 0.912431 -0.398879 102.000000
1.545506 0.893022 -0.391824 102.000000
1.573527 0.902793 -0.398879 102.000000
1.818187 1.021102 -0.464483 102.000000
1.766986 0.985216 -0.449434 102.000000
1.711331 0.947299 -0.433209 102.000000
1.688678 0.927996 -0.426155 102.000000
1.772961 0.960217 -0.447788 102.000000
1.810995 0.973650 -0.457429 102.000000
1.816545 0.969463 -0.458134 102.000000
1.819511 0.963885 -0.458134 102.000000
1.824180 0.959203 -0.458605 102.000000
1.828838 0.954502 -0.459075 102.000000
1.833483 0.949781 -0.459545 102.000000
1.834660 0.943262 -0.459075 102.000000
1.834948 0.936304 -0.458369 102.000000
1.837812 0.930670 -0.458369 102.000000
1.839790 0.924590 -0.458134 102.000000
1.837400 0.916338 -0.456723 102.000000
1.824524 0.902934 -0.452491 102.000000
1.616174 0.793612 -0.395587 102.000000
1.593889 0.770560 -0.388297 102.000000
1.585730 0.760620 -0.385475 102.000000
1.559975 0.742380 -0.377951 102.000000
1.557851 0.735514 -0.376775 102.000000
1.537656 0.714468 -0.370191 102.000000
1.511597 0.696722 -0.362667 102.000000
1.538476 0.703403 -0.369251 102.000000
1.510533 0.685024 -0.361256 102.000000
1.508196 0.678392 -0.360080 102.000000
1.472023 0.635143 -0.347853 102.000000
1.479326 0.632919 -0.349264 102.000000
1.487523 0.631036 -0.350910 102.000000
1.501234 0.626014 -0.353496 102.000000
1.499651 0.614578 -0.352085 102.000000
1.494327 0.607046 -0.350204 102.000000
1.526834 0.614810 -0.358199 102.000000
1.514310 0.598991 -0.353966 102.000000
1.526094 0.598247 -0.356553 102.000000
1.517038 0.583980 -0.353261 102.000000
1.523363 0.581056 -0.354437 102.000000
1.533320 0.579474 -0.356553 102.000000
1.525989 0.571357 -0.354202 102.000000
1.519432 0.558293 -0.351615 102.000000
1.522829 0.548959 -0.351615 102.000000
1.530913 0.546574 -0.353261 102.000000
1.527817 0.534920 -0.351615 102.000000
1.506251 0.517010 -0.345266 102.000000
1.470945 0.484786 -0.334685 102.000000
1.587174 1.427188 -0.490503 103.000000
1.607457 1.436547 -0.495811 103.000000
1.596627 1.418067 -0.490745 103.000000
1.608969 1.420231 -0.493398 103.000000
1.608944 1.411446 -0.491951 103.000000
1.585483 1.382254 -0.482784 103.000000
1.526669 1.322696 -0.462037 103.000000
1.504993 1.295829 -0.453593 103.000000
1.517805 1.298782 -0.456488 103.000000
1.508482 1.282795 -0.452146 103.000000
1.510188 1.276281 -0.451422 103.000000
1.501469 1.261024 -0.447321 103.000000
1.552991 1.296238 -0.462760 103.000000
1.477075 1.225127 -0.436947 103.000000
1.459869 1.203294 -0.430192 103.000000
1.444044 1.182809 -0.423920 103.000000
1.443152 1.174694 -0.422472 103.000000
1.442225 1.166596 -0.421025 103.000000
1.442017 1.159124 -0.419819 103.000000
1.436472 1.147420 -0.416924 103.000000
1.433907 1.138177 -0.414994 103.000000
1.433585 1.130765 -0.413788 103.000000
1.432467 1.122767 -0.412340 103.000000
1.438200 1.120157 -0.413064 103.000000
1.441630 1.115740 -0.413064 103.000000
1.441971 1.108943 -0.412099 103.000000
1.443825 1.103335 -0.411616 103.000000
1.447975 1.099487 -0.411858 103.000000
1.448244 1.092700 -0.410893 103.000000
1.450038 1.087086 -0.410410 103.000000
1.451810 1.081472 -0.409928 103.000000
1.452003 1.074701 -0.408963 103.000000
1.449041 1.065638 -0.407033 103.000000
1.453087 1.061760 -0.407274 103.000000
1.451628 1.053873 -0.405827 103.000000
1.454068 1.048847 -0.405585 103.000000
1.455702 1.043249 -0.405103 103.000000
1.459686 1.039342 -0.405344 103.000000
1.457324 1.030932 -0.403655 103.000000
1.466829 1.030924 -0.405585 103.000000
1.464418 1.022526 -0.403897 103.000000
1.462766 1.014707 -0.402449 103.000000
1.461878 1.007458 -0.401243 103.000000
1.465762 1.003517 -0.401484 103.000000
1.461616 0.994099 -0.399313 103.000000
1.455013 0.983084 -0.396418 103.000000
1.454801 0.976450 -0.395453 103.000000
1.452140 0.968210 -0.393764 103.000000
1.451060 0.961068 -0.392558 103.000000
1.457243 0.958748 -0.393523 103.000000
1.456118 0.951615 -0.392317 103.000000
1.467167 0.952433 -0.394729 103.000000
1.466006 0.945295 -0.393523 103.000000
1.468082 0.940269 -0.393282 103.000000
1.513520 0.962875 -0.405827 103.000000
1.509907 0.954076 -0.403897 103.000000
1.609782 1.010375 -0.432364 103.000000
1.774229 1.106154 -0.479647 103.000000
1.769367 1.095592 -0.477235 103.000000
1.788421 1.099826 -0.481819 103.000000
1.782679 1.088765 -0.479165 103.000000
1.792647 1.087320 -0.481095 103.000000
1.779354 1.071791 -0.476270 103.000000
1.599896 0.950225 -0.422472 103.000000
1.512559 0.892011 -0.396418 103.000000
1.568026 0.918297 -0.411616 103.000000
1.583415 0.920808 -0.415235 103.000000
1.549268 0.894570 -0.404620 103.000000
1.549670 0.882163 -0.403173 103.000000
1.554058 0.878361 -0.403655 103.000000
1.731023 0.971536 -0.453352 103.000000
1.808572 1.007833 -0.474581 103.000000
1.761079 0.953193 -0.457694 103.000000
1.806726 0.970776 -0.469756 103.000000
1.812264 0.966601 -0.470480 103.000000
1.816936 0.961945 -0.470963 103.000000
1.825031 0.959078 -0.472410 103.000000
1.829686 0.954373 -0.472893 103.000000
1.833467 0.949202 -0.473134 103.000000
1.835507 0.943128 -0.472893 103.000000
1.839256 0.937934 -0.473134 103.000000
1.844722 0.933603 -0.473858 103.000000
1.845844 0.927067 -0.473375 103.000000
1.840864 0.917499 -0.471204 103.000000
1.839322 0.909693 -0.469998 103.000000
1.599977 0.785048 -0.402932 103.000000
1.577082 0.767800 -0.395936 103.000000
1.599522 0.772680 -0.401484 103.000000
1.566016 0.750548 -0.391593 103.000000
1.504712 0.698535 -0.372294 103.000000
1.502442 0.691882 -0.371087 103.000000
1.517795 0.693327 -0.374706 103.000000
1.503125 0.681046 -0.370122 103.000000
1.545697 0.666346 -0.378325 103.000000
1.532087 0.643807 -0.373017 103.000000
1.546165 0.627516 -0.374706 103.000000
1.534731 0.606471 -0.370122 103.000000
1.527552 0.582052 -0.366263 103.000000
1.528423 0.577020 -0.366021 103.000000
1.505651 0.563131 -0.359508 103.000000
1.504524 0.552207 -0.358301 103.000000
1.517925 0.546589 -0.360955 103.000000
1.510985 0.528422 -0.357819 103.000000
1.509707 0.502113 -0.355407 103.000000
1.587996 1.396998 -0.498135 104.000000
1.580596 1.381920 -0.494188 104.000000
1.546039 1.343397 -0.481115 104.000000
1.515663 1.308898 -0.469522 104.000000
1.524822 1.308657 -0.471249 104.000000
1.508912 1.287004 -0.464589 104.000000
1.501019 1.272350 -0.460643 104.000000
1.496017 1.260252 -0.457683 104.000000
1.485007 1.243223 -0.452749 104.000000
1.460491 1.215126 -0.443376 104.000000
1.458982 1.206320 -0.441650 104.000000
1.446944 1.188928 -0.436470 104.000000
1.443074 1.178358 -0.434003 104.000000
1.439154 1.167824 -0.431537 104.000000
1.421596 1.146383 -0.424630 104.000000
1.435699 1.150494 -0.428083 104.000000
1.422536 1.132813 -0.422657 104.000000
1.425244 1.127843 -0.422410 104.000000
1.420314 1.116881 -0.419697 104.000000
1.428318 1.116095 -0.421177 104.000000
1.433267 1.112896 -0.421670 104.000000
1.436674 1.108493 -0.421670 104.000000
1.438529 1.102902 -0.421177 104.000000
1.444220 1.100244 -0.421917 104.000000
1.443723 1.092886 -0.420684 104.000000
1.447844 1.089033 -0.420930 104.000000
1.455062 1.087485 -0.422164 104.000000
1.472403 1.093406 -0.426603 104.000000
1.464828 1.080836 -0.423150 104.000000
1.472829 1.079772 -0.424630 104.000000
1.463595 1.066126 -0.420684 104.000000
1.460576 1.057090 -0.418710 104.000000
1.492150 1.072953 -0.427590 104.000000
1.500957 1.072310 -0.429317 104.000000
1.471034 1.044163 -0.418957 104.000000
1.485323 1.047457 -0.422410 104.000000
1.490912 1.044561 -0.423150 104.000000
1.481377 1.031132 -0.419204 104.000000
1.478154 1.022177 -0.417230 104.000000
1.464502 1.006125 -0.412050 104.000000
1.473187 1.005447 -0.413777 104.000000
1.469043 0.996033 -0.411557 104.000000
1.476112 0.994226 -0.412790 104.000000
1.491243 0.997768 -0.416490 104.000000
1.523364 1.012481 -0.425370 104.000000
1.493291 0.985932 -0.415257 104.000000
1.493877 0.979753 -0.414517 104.000000
1.517996 0.988905 -0.420930 104.000000
1.543000 0.998445 -0.427590 104.000000
1.623534 1.043435 -0.451023 104.000000
1.665952 1.063455 -0.462863 104.000000
1.758452 1.114850 -0.489749 104.000000
1.779911 1.120801 -0.495175 104.000000
1.781698 1.114308 -0.494682 104.000000
1.783461 1.107815 -0.494188 104.000000
1.786851 1.102338 -0.494188 104.000000
1.789398 1.096345 -0.493942 104.000000
1.789441 1.088837 -0.492955 104.000000
1.783646 1.077834 -0.490242 104.000000
1.613216 0.968233 -0.438690 104.000000
1.635332 0.974679 -0.444363 104.000000
1.582418 0.936620 -0.427837 104.000000
1.578598 0.927836 -0.425863 104.000000
1.594834 0.930796 -0.429810 104.000000
1.616974 0.937063 -0.435483 104.000000
1.651669 0.936948 -0.443130 104.000000
1.621594 0.913349 -0.433510 104.000000
1.817306 1.016093 -0.489749 104.000000
1.770407 0.982790 -0.475196 104.000000
1.779806 0.973767 -0.476182 104.000000
1.803666 0.972476 -0.481362 104.000000
1.822026 0.975161 -0.485802 104.000000
1.825865 0.970020 -0.486049 104.000000
1.829690 0.964866 -0.486295 104.000000
1.834359 0.960146 -0.486789 104.000000
1.839877 0.955852 -0.487529 104.000000
1.841077 0.949316 -0.487035 104.000000
1.845707 0.944545 -0.487529 104.000000
1.847732 0.938440 -0.487282 104.000000
1.852334 0.933638 -0.487775 104.000000
1.851721 0.926218 -0.486789 104.000000
1.770330 0.878786 -0.462863 104.000000
1.774757 0.874206 -0.463356 104.000000
1.587571 0.776097 -0.409584 104.000000
1.622216 0.786851 -0.418710 104.000000
1.533936 0.715255 -0.390591 104.000000
1.558119 0.720702 -0.396757 104.000000
1.561629 0.710727 -0.396511 104.000000
1.551593 0.643910 -0.387384 104.000000
1.578275 0.632378 -0.392564 104.000000
1.543432 0.591141 -0.380478 104.000000
1.525300 0.578852 -0.375051 104.000000
1.527069 0.574170 -0.375051 104.000000
1.527007 0.568807 -0.374558 104.000000
1.484035 0.542492 -0.361978 104.000000
1.478004 0.524927 -0.359018 104.000000
1.489667 0.523919 -0.361732 104.000000
1.528125 0.516436 -0.370365 104.000000
1.480309 0.485184 -0.356305 104.000000
1.489167 0.483027 -0.358278 104.000000
1.558201 1.360263 -0.498866 105.000000
1.526546 1.324410 -0.486507 105.000000
1.521806 1.312140 -0.483480 105.000000
1.511126 1.294875 -0.478435 105.000000
1.510670 1.286469 -0.476922 105.000000
1.487276 1.258704 -0.467589 105.000000
1.481501 1.246040 -0.464310 105.000000
1.469723 1.228460 -0.459013 105.000000
1.459339 1.212201 -0.454220 105.000000
1.441406 1.189858 -0.446905 105.000000
1.436819 1.178681 -0.444131 105.000000
1.429176 1.165098 -0.440347 105.000000
1.413191 1.144875 -0.433789 105.000000
1.409158 1.134467 -0.431266 105.000000
1.408098 1.126513 -0.429753 105.000000
1.408517 1.119779 -0.428744 105.000000
1.408149 1.112454 -0.427483 105.000000
1.408510 1.105739 -0.426474 105.000000
1.423342 1.110338 -0.430257 105.000000
1.424447 1.104188 -0.429501 105.000000
1.426294 1.098632 -0.428996 105.000000
1.432732 1.096603 -0.430005 105.000000
1.438401 1.093959 -0.430762 105.000000
1.446383 1.093041 -0.432275 105.000000
1.446634 1.086275 -0.431266 105.000000
1.458493 1.088195 -0.434041 105.000000
1.485926 1.101575 -0.441860 105.000000
1.493974 1.100453 -0.443374 105.000000
1.527802 1.118146 -0.453211 105.000000
1.536705 1.117436 -0.454977 105.000000
1.546402 1.117249 -0.456995 105.000000
1.544318 1.108550 -0.455229 105.000000
1.579230 1.126276 -0.465319 105.000000
1.612685 1.142678 -0.474904 105.000000
1.655752 1.165568 -0.487516 105.000000
1.683906 1.177670 -0.495335 105.000000
1.682742 1.169187 -0.493822 105.000000
1.690304 1.166766 -0.495083 105.000000
1.597299 1.095375 -0.464562 105.000000
1.532667 1.044173 -0.443122 105.000000
1.517429 1.026996 -0.437320 105.000000
1.533423 1.030971 -0.441356 105.000000
1.522092 1.016591 -0.436816 105.000000
1.524397 1.011382 -0.436563 105.000000
1.521028 1.002442 -0.434546 105.000000
1.558105 1.020024 -0.445140 105.000000
1.714570 1.114909 -0.492813 105.000000
1.601222 0.965981 -0.447157 105.000000
1.619122 0.970012 -0.451698 105.000000
1.607545 0.949726 -0.446401 105.000000
1.610452 0.944790 -0.446401 105.000000
1.663131 0.962014 -0.460526 105.000000
1.637542 0.940527 -0.451950 105.000000
1.717391 0.972403 -0.474147 105.000000
1.761353 0.983062 -0.485498 105.000000
1.777121 0.970518 -0.487516 105.000000
1.791150 0.971055 -0.490795 105.000000
1.814574 0.976557 -0.496848 105.000000
1.777204 0.873687 -0.475913 105.000000
1.560404 0.755308 -0.411592 105.000000
1.579703 0.734955 -0.413862 105.000000
1.603542 0.734106 -0.419411 105.000000
1.603143 0.727983 -0.418655 105.000000
1.502951 0.638505 -0.385359 105.000000
1.515771 0.632997 -0.387881 105.000000
1.486410 0.615396 -0.379053 105.000000
1.529915 0.600655 -0.388134 105.000000
1.530863 0.590213 -0.387377 105.000000
1.516354 0.573962 -0.382332 105.000000
1.528075 0.573042 -0.385107 105.000000
1.475094 0.537757 -0.368964 105.000000
1.434370 0.508016 -0.356352 105.000000
1.520022 1.325801 -0.497789 106.000000
1.508753 1.307838 -0.492375 106.000000
1.505439 1.296896 -0.489797 106.000000
1.487396 1.273416 -0.482063 106.000000
1.478052 1.257574 -0.477422 106.000000
1.467887 1.241178 -0.472524 106.000000
1.461334 1.227964 -0.468915 106.000000
1.452489 1.212944 -0.464532 106.000000
1.435389 1.191201 -0.457313 106.000000
1.427858 1.177569 -0.453446 106.000000
1.403819 1.150516 -0.443907 106.000000
1.416330 1.153527 -0.447001 106.000000
1.398837 1.132152 -0.439782 106.000000
1.394024 1.121193 -0.436947 106.000000
1.393684 1.113894 -0.435658 106.000000
1.394825 1.107810 -0.434884 106.000000
1.399734 1.104723 -0.435400 106.000000
1.403116 1.100423 -0.435400 106.000000
1.410296 1.099084 -0.436689 106.000000
1.412897 1.094160 -0.436431 106.000000
1.417779 1.090999 -0.436947 106.000000
1.425724 1.090166 -0.438493 106.000000
1.430600 1.086957 -0.439009 106.000000
1.432386 1.081398 -0.438493 106.000000
1.440333 1.080478 -0.440040 106.000000
1.445965 1.077787 -0.440814 106.000000
1.450818 1.074496 -0.441329 106.000000
1.475893 1.086079 -0.448548 106.000000
1.545505 1.130033 -0.470462 106.000000
1.552091 1.127558 -0.471493 106.000000
1.582175 1.142022 -0.480258 106.000000
1.586457 1.137726 -0.480516 106.000000
1.598594 1.139023 -0.483352 106.000000
1.626524 1.151423 -0.491344 106.000000
1.655336 1.164219 -0.499594 106.000000
1.595118 0.961300 -0.456540 106.000000
1.639507 0.981219 -0.469430 106.000000
1.601816 0.951988 -0.456798 106.000000
1.629689 0.961806 -0.464532 106.000000
1.630965 0.955825 -0.464016 106.000000
1.736897 0.996569 -0.493922 106.000000
1.733230 0.987409 -0.491860 106.000000
1.750547 0.990176 -0.496242 106.000000
1.703878 0.956878 -0.481032 106.000000
1.763413 0.969085 -0.496500 106.000000
1.673087 0.912752 -0.468141 106.000000
1.759131 0.952723 -0.493406 106.000000
1.730562 0.930387 -0.483868 106.000000
1.803397 0.892473 -0.496500 106.000000
1.663041 0.816638 -0.453962 106.000000
1.522020 0.724307 -0.409361 106.000000
1.592698 0.728208 -0.426892 106.000000
1.479825 0.649312 -0.390799 106.000000
1.467636 0.638598 -0.386674 106.000000
1.472562 0.624685 -0.386416 106.000000
1.470910 0.618665 -0.385385 106.000000
1.478151 0.616382 -0.386932 106.000000
1.482713 0.612952 -0.387705 106.000000
1.523921 0.624531 -0.399049 106.000000
1.525829 0.619853 -0.399049 106.000000
1.541269 0.615137 -0.402400 106.000000
1.557523 0.616095 -0.406525 106.000000
1.544204 0.589011 -0.400596 106.000000
1.517989 0.573676 -0.392604 106.000000
1.517932 0.568338 -0.392088 106.000000
1.511516 0.560652 -0.389768 106.000000
0.703898 -0.360577 -0.170632 106.000000
1.496274 1.287862 -0.498850 107.000000
1.477505 1.263814 -0.490680 107.000000
1.472560 1.251772 -0.487518 107.000000
1.455034 1.229182 -0.479875 107.000000
1.456583 1.222851 -0.479085 107.000000
1.418129 1.183125 -0.464063 107.000000
1.406908 1.166446 -0.458792 107.000000
1.397086 1.151074 -0.454049 107.000000
1.394643 1.141890 -0.451940 107.000000
1.387670 1.129076 -0.448251 107.000000
1.388128 1.122385 -0.447197 107.000000
1.385552 1.113283 -0.445088 107.000000
1.392728 1.112039 -0.446406 107.000000
1.392357 1.104761 -0.445088 107.000000
1.394983 1.099886 -0.444825 107.000000
1.399869 1.096792 -0.445352 107.000000
1.403988 1.093085 -0.445616 107.000000
1.409622 1.090545 -0.446406 107.000000
1.413726 1.086804 -0.446670 107.000000
1.419352 1.084220 -0.447460 107.000000
1.423440 1.080444 -0.447724 107.000000
1.425978 1.075490 -0.447460 107.000000
1.432357 1.073426 -0.448514 107.000000
1.437190 1.070180 -0.449042 107.000000
1.462945 1.082419 -0.456684 107.000000
1.481019 1.088791 -0.461691 107.000000
1.528733 1.116703 -0.476713 107.000000
1.545418 1.121648 -0.481193 107.000000
1.563712 1.127631 -0.486200 107.000000
1.592246 1.140822 -0.494633 107.000000
1.600452 1.139291 -0.496215 107.000000
1.672505 1.013962 -0.493843 107.000000
1.658832 0.991788 -0.487518 107.000000
1.602995 0.951693 -0.468807 107.000000
1.657410 0.977178 -0.485146 107.000000
1.640428 0.960379 -0.478821 107.000000
1.683872 0.972020 -0.490680 107.000000
1.719222 0.964512 -0.498059 107.000000
1.544431 0.722451 -0.425323 107.000000
1.608912 0.734690 -0.442717 107.000000
1.560605 0.621947 -0.418471 107.000000
1.522110 0.569001 -0.403450 107.000000
1.512092 0.559965 -0.400024 107.000000
0.707176 -0.357701 -0.176018 107.000000
0.707795 -0.360742 -0.176545 107.000000
0.704968 -0.362033 -0.176018 107.000000
1.471427 1.254631 -0.498957 108.000000
1.458359 1.235799 -0.492775 108.000000
1.458458 1.228219 -0.491432 108.000000
1.425267 1.192852 -0.477994 108.000000
1.422252 1.182934 -0.475575 108.000000
1.401362 1.158330 -0.466707 108.000000
1.396717 1.147305 -0.463750 108.000000
1.394258 1.138146 -0.461600 108.000000
1.385020 1.123555 -0.457032 108.000000
1.392962 1.122925 -0.458644 108.000000
1.394144 1.116841 -0.457838 108.000000
1.395302 1.110760 -0.457032 108.000000
1.396436 1.104683 -0.456225 108.000000
1.399819 1.100394 -0.456225 108.000000
1.405466 1.097871 -0.457032 108.000000
1.404260 1.090014 -0.455419 108.000000
1.409887 1.087463 -0.456225 108.000000
1.413217 1.083133 -0.456225 108.000000
1.417300 1.079375 -0.456494 108.000000
1.422141 1.076183 -0.457032 108.000000
1.427747 1.073550 -0.457838 108.000000
1.433350 1.070893 -0.458644 108.000000
1.442819 1.071080 -0.460794 108.000000
1.472466 1.086071 -0.469932 108.000000
1.499887 1.099183 -0.478263 108.000000
1.539865 1.121201 -0.490894 108.000000
1.548763 1.120420 -0.492775 108.000000
1.562366 1.122966 -0.496269 108.000000
1.572861 1.123201 -0.498688 108.000000
1.651296 0.983793 -0.495732 108.000000
1.683534 0.907417 -0.493044 108.000000
1.695912 0.835062 -0.486863 108.000000
1.581212 0.731033 -0.445475 108.000000
1.621106 0.743418 -0.457032 108.000000
1.647936 0.749592 -0.464557 108.000000
1.547505 0.559964 -0.418600 108.000000
0.704712 -0.353590 -0.179411 108.000000
0.721662 -0.364904 -0.185055 108.000000
0.718824 -0.366239 -0.184517 108.000000
0.717697 -0.368443 -0.184517 108.000000
0.716563 -0.370643 -0.184517 108.000000
0.712862 -0.371501 -0.183711 108.000000
0.711719 -0.373686 -0.183711 108.000000
0.708017 -0.374513 -0.182905 108.000000
0.704316 -0.375320 -0.182099 108.000000
1.424721 1.197884 -0.490245 109.000000
1.426175 1.191658 -0.489422 109.000000
1.419465 1.178678 -0.485582 109.000000
1.395626 1.151677 -0.475433 109.000000
1.396922 1.145561 -0.474610 109.000000
1.393720 1.135804 -0.472142 109.000000
1.392713 1.127893 -0.470496 109.000000
1.390922 1.119395 -0.468576 109.000000
1.394349 1.115123 -0.468576 109.000000
1.390987 1.105456 -0.466107 109.000000
1.392862 1.099992 -0.465559 109.000000
1.398500 1.097494 -0.466381 109.000000
1.401102 1.092607 -0.466107 109.000000
1.400647 1.085359 -0.464736 109.000000
1.406256 1.082817 -0.465559 109.000000
1.408808 1.077913 -0.465284 109.000000
1.412874 1.074168 -0.465559 109.000000
1.415395 1.069249 -0.465284 109.000000
1.430976 1.074135 -0.469673 109.000000
1.447371 1.079511 -0.474336 109.000000
1.463813 1.084796 -0.478999 109.000000
1.459389 1.074600 -0.476256 109.000000
1.467337 1.073523 -0.477902 109.000000
1.507966 1.096149 -0.491068 109.000000
1.520678 1.098272 -0.494360 109.000000
1.683858 0.770501 -0.487502 109.000000
1.561971 0.579978 -0.434563 109.000000
1.559230 0.573524 -0.433192 109.000000
1.580862 0.575975 -0.439226 109.000000
0.715858 -0.352194 -0.186875 109.000000
0.726833 -0.360375 -0.190715 109.000000
0.718844 -0.359161 -0.188521 109.000000
0.722891 -0.363962 -0.190167 109.000000
0.715769 -0.363129 -0.188246 109.000000
0.717220 -0.366638 -0.189069 109.000000
0.705836 -0.363548 -0.185778 109.000000
0.702157 -0.364381 -0.184955 109.000000
1.415852 1.174982 -0.496186 110.000000
1.418710 1.170021 -0.495906 110.000000
1.404477 1.151056 -0.489182 110.000000
1.400560 1.140678 -0.486380 110.000000
1.389878 1.124898 -0.481057 110.000000
1.390331 1.118222 -0.479937 110.000000
1.388507 1.109754 -0.477976 110.000000
1.391153 1.104892 -0.477695 110.000000
1.393030 1.099429 -0.477135 110.000000
1.396396 1.095150 -0.477135 110.000000
1.397478 1.089090 -0.476295 110.000000
1.396260 1.081270 -0.474614 110.000000
1.404135 1.080495 -0.476295 110.000000
1.406680 1.075599 -0.476014 110.000000
1.413795 1.074183 -0.477415 110.000000
1.410956 1.065212 -0.475174 110.000000
1.438018 1.078740 -0.483859 110.000000
1.461329 1.089244 -0.491143 110.000000
1.470834 1.089327 -0.493385 110.000000
1.483446 1.091639 -0.496747 110.000000
1.470518 1.075181 -0.490863 110.000000
1.477692 1.073486 -0.492264 110.000000
1.612178 0.737120 -0.476575 110.000000
1.547742 0.574099 -0.440994 110.000000
1.563912 0.574648 -0.445476 110.000000
1.567471 0.570505 -0.446037 110.000000
1.571923 0.566670 -0.446877 110.000000
0.700062 -0.339843 -0.186325 110.000000
0.712603 -0.351341 -0.191087 110.000000
0.712382 -0.353953 -0.191368 110.000000
0.713868 -0.357425 -0.192208 110.000000
0.712769 -0.359613 -0.192208 110.000000
0.706526 -0.359190 -0.190527 110.000000
0.702857 -0.360045 -0.189687 110.000000
0.706869 -0.364839 -0.191368 110.000000
1.403439 1.149101 -0.499513 111.000000
1.400271 1.139342 -0.496943 111.000000
1.394822 1.127804 -0.493517 111.000000
1.399769 1.124721 -0.494088 111.000000
1.402464 1.119823 -0.493803 111.000000
1.396889 1.108361 -0.490376 111.000000
1.398026 1.102289 -0.489520 111.000000
1.400647 1.097403 -0.489234 111.000000
1.406275 1.094868 -0.490091 111.000000
1.409627 1.090549 -0.490091 111.000000
1.412207 1.085634 -0.489805 111.000000
1.411725 1.078385 -0.488378 111.000000
1.424946 1.081588 -0.492089 111.000000
1.448906 1.092806 -0.499799 111.000000
1.547429 0.931550 -0.497229 111.000000
1.602897 0.731938 -0.484095 111.000000
0.702465 -0.347250 -0.192578 111.000000
0.704607 -0.353697 -0.194005 111.000000
0.703518 -0.355857 -0.194005 111.000000
0.702423 -0.358014 -0.194005 111.000000
1.639993 0.598730 -0.489466 112.000000
0.700924 -0.351833 -0.197310 112.000000
0.706666 -0.357446 -0.199636 112.000000
0.711529 -0.362663 -0.201671 112.000000
0.718918 -0.369228 -0.204578 112.000000
0.716933 -0.370991 -0.204287 112.000000
