# This PCD file was generated using the MATLAB® pcwrite function
# from Computer Vision Toolbox®.
# .PCD v.7 - Point Cloud Data file format
VERSION .7
FIELDS x y z intensity
SIZE 4 4 4 4
TYPE F F F F
COUNT 1 1 1 1
WIDTH 1289
HEIGHT 1
VIEWPOINT 0 0 0 1 0 0 0
POINTS 1289
DATA ascii
1.844750 0.444693 0.333890 37.000000
1.848027 0.439488 0.334202 37.000000
1.852252 0.434492 0.334671 37.000000
1.856463 0.429475 0.335140 37.000000
1.860661 0.424435 0.335608 37.000000
1.861954 0.418725 0.335608 37.000000
1.866123 0.413651 0.336077 37.000000
1.869314 0.408345 0.336390 37.000000
1.873454 0.403231 0.336859 37.000000
1.877582 0.398096 0.337327 37.000000
1.878794 0.392334 0.337327 37.000000
1.880956 0.386766 0.337484 37.000000
1.885038 0.381581 0.337952 37.000000
1.886200 0.375796 0.337952 37.000000
1.889283 0.370387 0.338265 37.000000
1.892350 0.364963 0.338577 37.000000
1.896372 0.359707 0.339046 37.000000
1.897467 0.353888 0.339046 37.000000
1.900487 0.348420 0.339359 37.000000
1.903491 0.342938 0.339671 37.000000
1.906479 0.337441 0.339984 37.000000
1.906533 0.331421 0.339828 37.000000
1.909488 0.325902 0.340140 37.000000
1.911453 0.320205 0.340296 37.000000
1.915350 0.314820 0.340765 37.000000
1.918257 0.309256 0.341078 37.000000
1.922124 0.303832 0.341546 37.000000
1.924999 0.298235 0.341859 37.000000
1.928835 0.292772 0.342328 37.000000
1.934609 0.287578 0.343109 37.000000
1.941347 0.282494 0.344047 37.000000
1.942204 0.276536 0.344047 37.000000
1.948914 0.271393 0.344984 37.000000
1.950716 0.265545 0.345140 37.000000
1.955438 0.260080 0.345766 37.000000
1.958185 0.254333 0.346078 37.000000
1.963856 0.248944 0.346859 37.000000
1.967551 0.243281 0.347328 37.000000
1.971230 0.237598 0.347797 37.000000
1.973912 0.231779 0.348109 37.000000
1.979521 0.226282 0.348891 37.000000
1.983150 0.220535 0.349360 37.000000
1.988728 0.214979 0.350141 37.000000
1.989378 0.208877 0.350141 37.000000
1.992957 0.203073 0.350610 37.000000
1.936560 0.191336 0.341546 37.000000
1.938121 0.185488 0.341703 37.000000
1.760310 0.581584 0.315479 38.000000
1.760207 0.575566 0.315178 38.000000
1.761965 0.570163 0.315178 38.000000
1.763706 0.564755 0.315178 38.000000
1.767315 0.559939 0.315479 38.000000
1.769968 0.554810 0.315629 38.000000
1.773550 0.549963 0.315929 38.000000
1.778064 0.545390 0.316380 38.000000
1.784459 0.541368 0.317131 38.000000
1.788952 0.536744 0.317582 38.000000
1.793434 0.532097 0.318032 38.000000
1.796006 0.526871 0.318183 38.000000
1.797614 0.521358 0.318183 38.000000
1.799205 0.515841 0.318183 38.000000
1.796975 0.509240 0.317582 38.000000
1.801385 0.504525 0.318032 38.000000
1.803877 0.499260 0.318183 38.000000
1.806354 0.493984 0.318333 38.000000
1.807861 0.488440 0.318333 38.000000
1.816992 0.484932 0.319535 38.000000
1.816559 0.478851 0.319234 38.000000
1.819933 0.473774 0.319535 38.000000
1.822336 0.468435 0.319685 38.000000
1.829514 0.464302 0.320586 38.000000
1.829971 0.458447 0.320436 38.000000
1.829449 0.452355 0.320136 38.000000
1.835630 0.447913 0.320887 38.000000
1.839879 0.442974 0.321337 38.000000
1.843153 0.437785 0.321638 38.000000
1.845450 0.432354 0.321788 38.000000
1.848695 0.427136 0.322088 38.000000
1.852888 0.422121 0.322539 38.000000
1.855139 0.416652 0.322689 38.000000
1.859304 0.411600 0.323140 38.000000
1.861524 0.406105 0.323290 38.000000
1.867594 0.401431 0.324041 38.000000
1.869784 0.395905 0.324192 38.000000
1.872925 0.390570 0.324492 38.000000
1.875083 0.385022 0.324642 38.000000
1.881101 0.380248 0.325393 38.000000
1.884197 0.374861 0.325694 38.000000
1.886309 0.369269 0.325844 38.000000
1.889374 0.363854 0.326145 38.000000
1.892425 0.358424 0.326445 38.000000
1.894487 0.352798 0.326595 38.000000
1.896533 0.347162 0.326745 38.000000
1.900508 0.341868 0.327196 38.000000
1.903495 0.336380 0.327497 38.000000
1.905492 0.330708 0.327647 38.000000
1.906498 0.324860 0.327647 38.000000
1.909436 0.319336 0.327947 38.000000
1.913333 0.313958 0.328398 38.000000
1.915263 0.308243 0.328548 38.000000
1.919130 0.302829 0.328999 38.000000
1.922981 0.297393 0.329450 38.000000
1.925839 0.291789 0.329750 38.000000
1.931615 0.286606 0.330501 38.000000
1.937377 0.281390 0.331252 38.000000
1.942146 0.276002 0.331853 38.000000
1.945921 0.270451 0.332304 38.000000
1.949681 0.264880 0.332754 38.000000
1.952444 0.259157 0.333055 38.000000
1.953230 0.253166 0.333055 38.000000
1.956940 0.247545 0.333506 38.000000
1.961615 0.242025 0.334106 38.000000
1.963330 0.236124 0.334257 38.000000
1.966991 0.230446 0.334707 38.000000
1.971618 0.224859 0.335308 38.000000
1.972298 0.218809 0.335308 38.000000
1.975909 0.213075 0.335759 38.000000
1.978520 0.207219 0.336059 38.000000
1.965376 0.199746 0.333956 38.000000
1.951222 0.192258 0.331703 38.000000
1.951803 0.186271 0.331703 38.000000
1.714939 0.660321 0.301968 39.000000
1.719730 0.656117 0.302401 39.000000
1.722660 0.651188 0.302545 39.000000
1.722797 0.645205 0.302256 39.000000
1.725696 0.640261 0.302401 39.000000
1.728580 0.635306 0.302545 39.000000
1.730521 0.629999 0.302545 39.000000
1.730585 0.624015 0.302256 39.000000
1.735286 0.619703 0.302690 39.000000
1.736246 0.614045 0.302545 39.000000
1.737188 0.608388 0.302401 39.000000
1.742785 0.604355 0.302978 39.000000
1.748374 0.600293 0.303556 39.000000
1.749271 0.594607 0.303411 39.000000
1.752962 0.589870 0.303700 39.000000
1.755702 0.584802 0.303844 39.000000
1.759367 0.580034 0.304133 39.000000
1.759258 0.574019 0.303844 39.000000
1.760069 0.568314 0.303700 39.000000
1.763689 0.563515 0.303989 39.000000
1.764466 0.557803 0.303844 39.000000
1.766169 0.552387 0.303844 39.000000
1.769746 0.547552 0.304133 39.000000
1.774255 0.542990 0.304566 39.000000
1.780648 0.538980 0.305288 39.000000
1.785136 0.534368 0.305721 39.000000
1.790562 0.530015 0.306298 39.000000
1.794078 0.525076 0.306587 39.000000
1.798532 0.520396 0.307020 39.000000
1.799169 0.514603 0.306876 39.000000
1.799787 0.508811 0.306732 39.000000
1.803245 0.503821 0.307020 39.000000
1.806690 0.498814 0.307309 39.000000
1.807257 0.493008 0.307165 39.000000
1.808761 0.487461 0.307165 39.000000
1.814073 0.482930 0.307742 39.000000
1.817459 0.477867 0.308031 39.000000
1.820832 0.472787 0.308319 39.000000
1.824191 0.467691 0.308608 39.000000
1.828494 0.462823 0.309041 39.000000
1.831825 0.457692 0.309330 39.000000
1.833221 0.452070 0.309330 39.000000
1.834599 0.446443 0.309330 39.000000
1.838846 0.441508 0.309763 39.000000
1.843081 0.436550 0.310196 39.000000
1.845375 0.431119 0.310340 39.000000
1.848617 0.425901 0.310629 39.000000
1.853774 0.421107 0.311207 39.000000
1.857954 0.416068 0.311640 39.000000
1.860188 0.410580 0.311784 39.000000
1.863372 0.405293 0.312073 39.000000
1.867509 0.400198 0.312506 39.000000
1.870664 0.394876 0.312794 39.000000
1.871867 0.389135 0.312794 39.000000
1.874990 0.383789 0.313083 39.000000
1.877129 0.378231 0.313228 39.000000
1.879251 0.372663 0.313372 39.000000
1.882328 0.367276 0.313661 39.000000
1.884417 0.361686 0.313805 39.000000
1.887462 0.356272 0.314094 39.000000
1.891465 0.351023 0.314527 39.000000
1.893506 0.345396 0.314671 39.000000
1.898453 0.340286 0.315249 39.000000
1.903386 0.335149 0.315826 39.000000
1.907330 0.329815 0.316259 39.000000
1.911259 0.324461 0.316692 39.000000
1.913221 0.318759 0.316836 39.000000
1.918096 0.313529 0.317414 39.000000
1.922957 0.308271 0.317991 39.000000
1.925848 0.302679 0.318280 39.000000
1.930680 0.297374 0.318857 39.000000
1.933540 0.291746 0.319146 39.000000
1.935404 0.285957 0.319291 39.000000
1.938231 0.280303 0.319579 39.000000
1.941041 0.274633 0.319868 39.000000
1.945795 0.269222 0.320445 39.000000
1.946612 0.263251 0.320445 39.000000
1.951334 0.257798 0.321023 39.000000
1.953097 0.251938 0.321167 39.000000
1.955824 0.246193 0.321456 39.000000
1.959517 0.240555 0.321889 39.000000
1.963193 0.234896 0.322322 39.000000
1.965870 0.229103 0.322611 39.000000
1.967547 0.223182 0.322755 39.000000
1.971173 0.217472 0.323188 39.000000
1.974782 0.211742 0.323621 39.000000
1.958692 0.203930 0.321167 39.000000
1.960293 0.198020 0.321312 39.000000
1.960891 0.192005 0.321312 39.000000
1.656241 0.748276 0.288105 40.000000
1.656721 0.742382 0.287828 40.000000
1.658991 0.737296 0.287828 40.000000
1.662151 0.732602 0.287967 40.000000
1.665299 0.727895 0.288105 40.000000
1.667524 0.722782 0.288105 40.000000
1.670644 0.718054 0.288244 40.000000
1.675573 0.714088 0.288659 40.000000
1.677756 0.708944 0.288659 40.000000
1.679923 0.703793 0.288659 40.000000
1.682074 0.698636 0.288659 40.000000
1.685126 0.693849 0.288798 40.000000
1.686329 0.688302 0.288659 40.000000
1.689352 0.683496 0.288798 40.000000
1.692360 0.678678 0.288936 40.000000
1.695355 0.673848 0.289075 40.000000
1.701101 0.670093 0.289628 40.000000
1.704071 0.665231 0.289767 40.000000
1.855015 0.418382 0.299876 40.000000
1.857257 0.412903 0.300015 40.000000
1.860450 0.407626 0.300292 40.000000
1.862660 0.402125 0.300430 40.000000
1.865823 0.396819 0.300707 40.000000
1.868970 0.391498 0.300984 40.000000
1.871132 0.385962 0.301122 40.000000
1.872308 0.380219 0.301122 40.000000
1.875408 0.374860 0.301399 40.000000
1.879465 0.369676 0.301815 40.000000
1.882535 0.364284 0.302092 40.000000
1.885590 0.358876 0.302369 40.000000
1.890576 0.353815 0.302923 40.000000
1.893601 0.348371 0.303200 40.000000
1.898560 0.343262 0.303754 40.000000
1.904480 0.338299 0.304446 40.000000
1.910387 0.333303 0.305138 40.000000
1.915306 0.328107 0.305692 40.000000
1.915327 0.322065 0.305554 40.000000
1.921192 0.316991 0.306246 40.000000
1.922155 0.311095 0.306246 40.000000
1.925057 0.305506 0.306523 40.000000
1.927943 0.299902 0.306800 40.000000
1.930812 0.294283 0.307077 40.000000
1.930726 0.288212 0.306939 40.000000
1.934542 0.282715 0.307354 40.000000
1.935400 0.276779 0.307354 40.000000
1.942125 0.271660 0.308185 40.000000
1.944912 0.265967 0.308462 40.000000
1.951609 0.260783 0.309293 40.000000
1.955347 0.255177 0.309708 40.000000
1.955138 0.249052 0.309570 40.000000
1.959824 0.243539 0.310124 40.000000
1.963512 0.237881 0.310539 40.000000
1.964232 0.231856 0.310539 40.000000
1.965918 0.225941 0.310678 40.000000
1.968571 0.220127 0.310955 40.000000
1.970222 0.214193 0.311093 40.000000
1.964960 0.207527 0.310262 40.000000
1.984307 0.203406 0.312893 40.000000
1.986893 0.197512 0.313170 40.000000
1.658272 0.754733 0.277492 41.000000
1.661483 0.750050 0.277624 41.000000
1.663777 0.744949 0.277624 41.000000
1.805292 0.500877 0.284378 41.000000
1.808733 0.495860 0.284643 41.000000
1.813116 0.491085 0.285040 41.000000
1.815571 0.485777 0.285173 41.000000
1.819928 0.480963 0.285570 41.000000
1.822354 0.475628 0.285703 41.000000
1.828604 0.471271 0.286365 41.000000
1.831963 0.466147 0.286630 41.000000
1.834346 0.460765 0.286762 41.000000
1.836713 0.455374 0.286895 41.000000
1.840027 0.450207 0.287159 41.000000
1.841399 0.444560 0.287159 41.000000
1.843719 0.439138 0.287292 41.000000
1.846987 0.433933 0.287557 41.000000
1.851207 0.428935 0.287954 41.000000
1.853480 0.423474 0.288086 41.000000
1.856705 0.418221 0.288351 41.000000
1.860882 0.413167 0.288749 41.000000
1.863109 0.407667 0.288881 41.000000
1.866289 0.402367 0.289146 41.000000
1.868485 0.396845 0.289278 41.000000
1.872604 0.391719 0.289676 41.000000
1.875739 0.386371 0.289940 41.000000
1.875944 0.380418 0.289808 41.000000
1.878074 0.374855 0.289940 41.000000
1.882133 0.369664 0.290338 41.000000
1.884232 0.364076 0.290470 41.000000
1.888261 0.358848 0.290867 41.000000
1.891302 0.353417 0.291132 41.000000
1.895302 0.348149 0.291530 41.000000
1.898312 0.342685 0.291794 41.000000
1.903259 0.337551 0.292324 41.000000
1.908191 0.332390 0.292854 41.000000
1.913110 0.327201 0.293384 41.000000
1.914105 0.321331 0.293384 41.000000
1.918016 0.315939 0.293781 41.000000
1.921912 0.310527 0.294178 41.000000
1.926772 0.305249 0.294708 41.000000
1.928679 0.299488 0.294840 41.000000
1.932528 0.294016 0.295238 41.000000
1.932441 0.287940 0.295105 41.000000
1.936257 0.282439 0.295502 41.000000
1.942021 0.277197 0.296165 41.000000
1.948753 0.272058 0.296959 41.000000
1.950560 0.266212 0.297092 41.000000
1.954315 0.260619 0.297489 41.000000
1.957072 0.254878 0.297754 41.000000
1.958828 0.248997 0.297886 41.000000
1.964501 0.243595 0.298548 41.000000
1.967207 0.237805 0.298813 41.000000
1.968912 0.231884 0.298946 41.000000
1.969614 0.225842 0.298946 41.000000
1.972268 0.220018 0.299210 41.000000
1.973919 0.214073 0.299343 41.000000
1.967666 0.207290 0.298416 41.000000
1.968293 0.201253 0.298416 41.000000
1.752125 0.578541 0.269554 42.000000
1.752948 0.572855 0.269427 42.000000
1.756585 0.568085 0.269681 42.000000
1.760209 0.563298 0.269934 42.000000
1.764766 0.558794 0.270313 42.000000
1.767419 0.553674 0.270440 42.000000
1.771951 0.549131 0.270819 42.000000
1.773628 0.543692 0.270819 42.000000
1.775287 0.538248 0.270819 42.000000
1.778830 0.533369 0.271073 42.000000
1.782360 0.528474 0.271326 42.000000
1.783021 0.522724 0.271199 42.000000
1.783664 0.516975 0.271073 42.000000
1.789056 0.512594 0.271579 42.000000
1.788711 0.506561 0.271326 42.000000
1.790257 0.501071 0.271326 42.000000
1.795610 0.496635 0.271832 42.000000
1.799996 0.491909 0.272211 42.000000
1.804369 0.487161 0.272591 42.000000
1.808730 0.482390 0.272971 42.000000
1.813079 0.477597 0.273350 42.000000
1.817416 0.472783 0.273730 42.000000
1.821740 0.467946 0.274110 42.000000
1.826052 0.463086 0.274489 42.000000
1.828426 0.457723 0.274616 42.000000
1.831747 0.452588 0.274869 42.000000
1.835055 0.447436 0.275122 42.000000
1.833526 0.441108 0.274742 42.000000
1.833905 0.435251 0.274616 42.000000
1.837163 0.430075 0.274869 42.000000
1.840407 0.424884 0.275122 42.000000
1.845571 0.420117 0.275628 42.000000
1.846851 0.414453 0.275628 42.000000
1.851019 0.409428 0.276008 42.000000
1.853236 0.403959 0.276134 42.000000
1.857376 0.398897 0.276514 42.000000
1.860532 0.393607 0.276767 42.000000
1.867557 0.389113 0.277526 42.000000
1.871657 0.383980 0.277906 42.000000
1.872826 0.378236 0.277906 42.000000
1.875924 0.372876 0.278159 42.000000
1.877059 0.367119 0.278159 42.000000
1.879150 0.361546 0.278286 42.000000
1.884149 0.356517 0.278792 42.000000
1.886209 0.350917 0.278918 42.000000
1.888253 0.345307 0.279045 42.000000
1.890280 0.339688 0.279171 42.000000
1.895220 0.334578 0.279678 42.000000
1.897215 0.328931 0.279804 42.000000
1.902127 0.323776 0.280310 42.000000
1.906046 0.318429 0.280690 42.000000
1.909951 0.313062 0.281070 42.000000
1.912861 0.307516 0.281323 42.000000
1.916735 0.302110 0.281702 42.000000
1.914712 0.295774 0.281323 42.000000
1.924437 0.291236 0.282462 42.000000
1.928265 0.285767 0.282841 42.000000
1.930115 0.279992 0.282968 42.000000
1.935875 0.274767 0.283600 42.000000
1.939656 0.269237 0.283980 42.000000
1.945388 0.263952 0.284613 42.000000
1.945205 0.257852 0.284486 42.000000
1.949922 0.252393 0.284992 42.000000
1.953639 0.246784 0.285372 42.000000
1.954387 0.240789 0.285372 42.000000
1.959056 0.235265 0.285878 42.000000
1.959769 0.229254 0.285878 42.000000
1.962434 0.223465 0.286131 42.000000
1.961139 0.217225 0.285878 42.000000
1.952920 0.210250 0.284739 42.000000
1.955529 0.204464 0.284992 42.000000
1.700000 0.654896 0.254732 43.000000
1.700146 0.648968 0.254492 43.000000
1.702129 0.643749 0.254492 43.000000
1.706885 0.639571 0.254852 43.000000
1.709769 0.634677 0.254972 43.000000
1.710777 0.629086 0.254852 43.000000
1.715497 0.624855 0.255213 43.000000
1.714605 0.618577 0.254852 43.000000
1.722102 0.615321 0.255573 43.000000
1.723982 0.610035 0.255573 43.000000
1.729592 0.606059 0.256054 43.000000
1.730506 0.600423 0.255934 43.000000
1.736094 0.596404 0.256414 43.000000
1.734157 0.589794 0.255934 43.000000
1.738780 0.585423 0.256294 43.000000
1.740568 0.580086 0.256294 43.000000
1.744225 0.575366 0.256534 43.000000
1.746926 0.570321 0.256654 43.000000
1.751501 0.565876 0.257015 43.000000
1.753228 0.560500 0.257015 43.000000
1.761564 0.557218 0.257856 43.000000
1.764213 0.552109 0.257976 43.000000
1.769691 0.547870 0.258456 43.000000
1.768516 0.541564 0.258096 43.000000
1.773019 0.537001 0.258456 43.000000
1.776560 0.532130 0.258697 43.000000
1.776281 0.526112 0.258456 43.000000
1.776934 0.520380 0.258336 43.000000
1.782336 0.516033 0.258817 43.000000
1.783911 0.510563 0.258817 43.000000
1.782603 0.504275 0.258456 43.000000
1.786054 0.499339 0.258697 43.000000
1.791404 0.494917 0.259177 43.000000
1.795787 0.490205 0.259538 43.000000
1.798241 0.484953 0.259658 43.000000
1.805475 0.480970 0.260379 43.000000
1.810782 0.476442 0.260859 43.000000
1.816078 0.471885 0.261340 43.000000
1.817517 0.466311 0.261340 43.000000
1.824712 0.462199 0.262061 43.000000
1.826122 0.456599 0.262061 43.000000
1.830405 0.451710 0.262421 43.000000
1.831782 0.446092 0.262421 43.000000
1.834107 0.440702 0.262541 43.000000
1.834485 0.434844 0.262421 43.000000
1.836777 0.429440 0.262541 43.000000
1.840020 0.424250 0.262781 43.000000
1.844217 0.419265 0.263142 43.000000
1.847432 0.414041 0.263382 43.000000
1.849663 0.408586 0.263502 43.000000
1.853817 0.403544 0.263863 43.000000
1.855046 0.397855 0.263863 43.000000
1.859172 0.392779 0.264223 43.000000
1.863284 0.387682 0.264583 43.000000
1.867381 0.382563 0.264944 43.000000
1.871466 0.377423 0.265304 43.000000
1.872615 0.371680 0.265304 43.000000
1.873746 0.365933 0.265304 43.000000
1.875835 0.360370 0.265424 43.000000
1.879858 0.355168 0.265785 43.000000
1.882890 0.349763 0.266025 43.000000
1.884931 0.344164 0.266145 43.000000
1.885978 0.338379 0.266145 43.000000
1.889940 0.333110 0.266506 43.000000
1.892909 0.327650 0.266746 43.000000
1.896842 0.322342 0.267106 43.000000
1.900759 0.317013 0.267467 43.000000
1.907600 0.312146 0.268188 43.000000
1.911489 0.306765 0.268548 43.000000
1.915363 0.301364 0.268908 43.000000
1.919222 0.295942 0.269269 43.000000
1.921103 0.290202 0.269389 43.000000
1.924930 0.284744 0.269749 43.000000
1.924812 0.278694 0.269629 43.000000
1.929589 0.273347 0.270110 43.000000
1.935335 0.268110 0.270710 43.000000
1.936149 0.262171 0.270710 43.000000
1.939896 0.256622 0.271071 43.000000
1.942643 0.250925 0.271311 43.000000
1.947344 0.245463 0.271792 43.000000
1.950058 0.239731 0.272032 43.000000
1.952756 0.233984 0.272272 43.000000
1.955436 0.228224 0.272512 43.000000
1.958100 0.222449 0.272753 43.000000
1.959760 0.216550 0.272873 43.000000
1.950545 0.209470 0.271672 43.000000
1.644529 0.760945 0.243382 44.000000
1.645953 0.755482 0.243267 44.000000
1.644645 0.748785 0.242809 44.000000
1.646935 0.743736 0.242809 44.000000
1.649209 0.738679 0.242809 44.000000
1.651467 0.733616 0.242809 44.000000
1.651892 0.727746 0.242580 44.000000
1.654117 0.722675 0.242580 44.000000
1.656326 0.717597 0.242580 44.000000
1.656694 0.711729 0.242350 44.000000
1.661612 0.707809 0.242694 44.000000
1.664691 0.703094 0.242809 44.000000
1.667757 0.698366 0.242923 44.000000
1.671727 0.694007 0.243152 44.000000
1.676605 0.690008 0.243496 44.000000
1.677794 0.684486 0.243382 44.000000
1.680807 0.679707 0.243496 44.000000
1.686574 0.676023 0.243955 44.000000
1.693257 0.672677 0.244528 44.000000
1.694389 0.667115 0.244413 44.000000
1.698279 0.662635 0.244642 44.000000
1.846211 0.416066 0.252663 44.000000
1.849419 0.410830 0.252893 44.000000
1.851641 0.405366 0.253007 44.000000
1.852876 0.399683 0.253007 44.000000
1.857009 0.394614 0.253351 44.000000
1.860156 0.389321 0.253580 44.000000
1.863288 0.384012 0.253809 44.000000
1.865431 0.378491 0.253924 44.000000
1.868532 0.373154 0.254153 44.000000
1.868693 0.367229 0.254039 44.000000
1.870786 0.361682 0.254153 44.000000
1.873839 0.356310 0.254382 44.000000
1.877853 0.351106 0.254726 44.000000
1.880876 0.345701 0.254955 44.000000
1.882905 0.340105 0.255070 44.000000
1.886875 0.334846 0.255414 44.000000
1.889850 0.329395 0.255643 44.000000
1.893790 0.324097 0.255987 44.000000
1.898695 0.318941 0.256445 44.000000
1.905546 0.314080 0.257133 44.000000
1.908462 0.308548 0.257362 44.000000
1.912343 0.303157 0.257705 44.000000
1.917191 0.297896 0.258164 44.000000
1.922025 0.292609 0.258622 44.000000
1.923896 0.286856 0.258737 44.000000
1.926733 0.281238 0.258966 44.000000
1.929554 0.275606 0.259195 44.000000
1.930391 0.269685 0.259195 44.000000
1.934162 0.264163 0.259539 44.000000
1.937918 0.258620 0.259883 44.000000
1.942643 0.253184 0.260341 44.000000
1.945381 0.247473 0.260570 44.000000
1.948103 0.241747 0.260799 44.000000
1.951795 0.236125 0.261143 44.000000
1.955470 0.230483 0.261487 44.000000
1.955181 0.224370 0.261372 44.000000
1.981531 0.221221 0.264352 44.000000
1.646168 0.767592 0.232416 45.000000
1.646710 0.761704 0.232200 45.000000
1.650847 0.757477 0.232416 45.000000
1.651353 0.751586 0.232200 45.000000
1.653651 0.746516 0.232200 45.000000
1.655026 0.741033 0.232091 45.000000
1.796198 0.498356 0.237617 45.000000
1.801553 0.493894 0.238050 45.000000
1.804979 0.488883 0.238267 45.000000
1.808392 0.483857 0.238484 45.000000
1.813712 0.479322 0.238917 45.000000
1.819984 0.475010 0.239459 45.000000
1.822395 0.469672 0.239567 45.000000
1.823828 0.464078 0.239567 45.000000
1.828135 0.459207 0.239892 45.000000
1.829536 0.453596 0.239892 45.000000
1.830919 0.447981 0.239892 45.000000
1.834217 0.442828 0.240109 45.000000
1.836534 0.437429 0.240217 45.000000
1.840771 0.432474 0.240542 45.000000
1.842089 0.426824 0.240542 45.000000
1.845328 0.421613 0.240759 45.000000
1.850493 0.416823 0.241192 45.000000
1.854674 0.411790 0.241517 45.000000
1.855929 0.406098 0.241517 45.000000
1.858138 0.400611 0.241626 45.000000
1.861303 0.395321 0.241842 45.000000
1.865427 0.390219 0.242167 45.000000
1.866615 0.384494 0.242167 45.000000
1.870709 0.379358 0.242493 45.000000
1.871864 0.373617 0.242493 45.000000
1.873001 0.367872 0.242493 45.000000
1.876073 0.362501 0.242709 45.000000
1.881083 0.357485 0.243143 45.000000
1.885103 0.352260 0.243468 45.000000
1.889108 0.347013 0.243793 45.000000
1.890164 0.341215 0.243793 45.000000
1.894138 0.335935 0.244118 45.000000
1.895160 0.330122 0.244118 45.000000
1.898124 0.324641 0.244334 45.000000
1.902052 0.319310 0.244659 45.000000
1.905966 0.313957 0.244984 45.000000
1.907901 0.308266 0.245093 45.000000
1.914729 0.303344 0.245743 45.000000
1.918598 0.297925 0.246068 45.000000
1.922452 0.292485 0.246393 45.000000
1.926290 0.287025 0.246718 45.000000
1.930112 0.281544 0.247043 45.000000
1.935888 0.276322 0.247585 45.000000
1.937711 0.270519 0.247693 45.000000
1.944442 0.265378 0.248343 45.000000
1.944262 0.259280 0.248235 45.000000
1.948991 0.253827 0.248668 45.000000
1.949761 0.247846 0.248668 45.000000
1.953472 0.242230 0.248993 45.000000
1.955193 0.236355 0.249102 45.000000
1.959858 0.230820 0.249535 45.000000
2.003026 0.229667 0.254194 45.000000
1.951357 0.217689 0.248452 45.000000
1.952016 0.211702 0.248452 45.000000
1.741907 0.575165 0.223153 46.000000
1.743664 0.569819 0.223153 46.000000
1.749189 0.565692 0.223562 46.000000
1.752812 0.560929 0.223766 46.000000
1.758317 0.556751 0.224175 46.000000
1.761916 0.551949 0.224380 46.000000
1.767401 0.547720 0.224789 46.000000
1.770975 0.542878 0.224993 46.000000
1.771680 0.537154 0.224891 46.000000
1.778084 0.533145 0.225402 46.000000
1.780665 0.527970 0.225505 46.000000
1.784185 0.523065 0.225709 46.000000
1.785782 0.517589 0.225709 46.000000
1.787361 0.512108 0.225709 46.000000
1.788924 0.506622 0.225709 46.000000
1.790470 0.501131 0.225709 46.000000
1.794875 0.496432 0.226016 46.000000
1.799268 0.491710 0.226323 46.000000
1.800768 0.486188 0.226323 46.000000
1.803213 0.480917 0.226425 46.000000
1.808527 0.476397 0.226834 46.000000
1.815756 0.472350 0.227448 46.000000
1.818160 0.467025 0.227550 46.000000
1.819584 0.461445 0.227550 46.000000
1.823886 0.456586 0.227857 46.000000
1.825278 0.450988 0.227857 46.000000
1.826653 0.445386 0.227857 46.000000
1.828011 0.439780 0.227857 46.000000
1.833223 0.435089 0.228266 46.000000
1.834549 0.429463 0.228266 46.000000
1.834889 0.423608 0.228164 46.000000
1.840060 0.418861 0.228573 46.000000
1.847160 0.414522 0.229187 46.000000
1.851336 0.409498 0.229493 46.000000
1.851612 0.403604 0.229391 46.000000
1.854787 0.398340 0.229596 46.000000
1.858920 0.393266 0.229902 46.000000
1.860117 0.387561 0.229902 46.000000
1.862272 0.382052 0.230005 46.000000
1.866360 0.376929 0.230312 46.000000
1.869459 0.371589 0.230516 46.000000
1.871567 0.366043 0.230618 46.000000
1.875611 0.360864 0.230925 46.000000
1.880619 0.355849 0.231334 46.000000
1.880724 0.349895 0.231232 46.000000
1.885703 0.344840 0.231641 46.000000
1.888710 0.339405 0.231846 46.000000
1.892681 0.334129 0.232152 46.000000
1.891737 0.327980 0.231948 46.000000
1.894695 0.322509 0.232152 46.000000
1.896657 0.316859 0.232255 46.000000
1.899583 0.311361 0.232459 46.000000
1.900530 0.305532 0.232459 46.000000
1.907354 0.300630 0.233073 46.000000
1.911216 0.295233 0.233380 46.000000
1.915064 0.289815 0.233686 46.000000
1.919880 0.284522 0.234096 46.000000
1.924681 0.279203 0.234505 46.000000
1.929468 0.273857 0.234914 46.000000
1.932270 0.268210 0.235118 46.000000
1.934069 0.262415 0.235221 46.000000
1.937824 0.256872 0.235527 46.000000
1.937616 0.250798 0.235425 46.000000
1.941337 0.245227 0.235732 46.000000
1.944055 0.239514 0.235936 46.000000
1.946756 0.233786 0.236141 46.000000
1.934620 0.226307 0.234811 46.000000
1.954084 0.222513 0.236755 46.000000
1.954757 0.216517 0.236755 46.000000
1.956049 0.204518 0.236755 46.000000
1.695277 0.652736 0.209898 47.000000
1.701920 0.649309 0.210378 47.000000
1.702043 0.643380 0.210186 47.000000
1.705872 0.638854 0.210378 47.000000
1.707824 0.633618 0.210378 47.000000
1.710694 0.628719 0.210474 47.000000
1.711680 0.623127 0.210378 47.000000
1.715456 0.618549 0.210570 47.000000
1.716408 0.612948 0.210474 47.000000
1.720157 0.608344 0.210666 47.000000
1.721076 0.602734 0.210570 47.000000
1.723858 0.597778 0.210666 47.000000
1.722860 0.591515 0.210378 47.000000
1.725609 0.586547 0.210474 47.000000
1.729286 0.581886 0.210666 47.000000
1.732952 0.577209 0.210858 47.000000
1.735660 0.572202 0.210954 47.000000
1.737407 0.566874 0.210954 47.000000
1.742926 0.562767 0.211338 47.000000
1.751280 0.559542 0.212010 47.000000
1.755835 0.555068 0.212298 47.000000
1.758480 0.549976 0.212394 47.000000
1.763011 0.545463 0.212682 47.000000
1.767531 0.540927 0.212970 47.000000
1.771087 0.536080 0.213163 47.000000
1.774630 0.531216 0.213355 47.000000
1.781023 0.527185 0.213835 47.000000
1.782632 0.521718 0.213835 47.000000
1.781356 0.515415 0.213547 47.000000
1.786757 0.511045 0.213931 47.000000
1.790231 0.506103 0.214123 47.000000
1.789859 0.500072 0.213931 47.000000
1.791384 0.494578 0.213931 47.000000
1.794814 0.489605 0.214123 47.000000
1.795346 0.483837 0.214027 47.000000
1.797784 0.478583 0.214123 47.000000
1.803094 0.474080 0.214507 47.000000
1.809356 0.469800 0.214987 47.000000
1.815609 0.465486 0.215467 47.000000
1.816064 0.459668 0.215371 47.000000
1.820362 0.454820 0.215659 47.000000
1.822715 0.449472 0.215755 47.000000
1.824086 0.443878 0.215755 47.000000
1.828342 0.438979 0.216043 47.000000
1.833554 0.434287 0.216427 47.000000
1.833909 0.428433 0.216331 47.000000
1.836184 0.423029 0.216427 47.000000
1.839414 0.417836 0.216619 47.000000
1.846515 0.413499 0.217195 47.000000
1.849718 0.408262 0.217387 47.000000
1.852907 0.403010 0.217579 47.000000
1.857054 0.397951 0.217867 47.000000
1.860214 0.392664 0.218060 47.000000
1.861410 0.386955 0.218060 47.000000
1.862589 0.381242 0.218060 47.000000
1.867652 0.376315 0.218444 47.000000
1.868798 0.370583 0.218444 47.000000
1.869926 0.364848 0.218444 47.000000
1.872991 0.359486 0.218636 47.000000
1.877019 0.354294 0.218924 47.000000
1.880054 0.348898 0.219116 47.000000
1.885033 0.343845 0.219500 47.000000
1.887058 0.338237 0.219596 47.000000
1.891028 0.332965 0.219884 47.000000
1.892040 0.327162 0.219884 47.000000
1.894997 0.321690 0.220076 47.000000
1.896957 0.316039 0.220172 47.000000
1.898900 0.310379 0.220268 47.000000
1.900826 0.304710 0.220364 47.000000
1.905685 0.299497 0.220748 47.000000
1.909546 0.294106 0.221036 47.000000
1.913392 0.288693 0.221324 47.000000
1.917222 0.283260 0.221612 47.000000
1.921037 0.277806 0.221900 47.000000
1.923851 0.272191 0.222092 47.000000
1.928621 0.266835 0.222476 47.000000
1.931403 0.261185 0.222668 47.000000
1.934169 0.255520 0.222861 47.000000
1.933957 0.249457 0.222764 47.000000
1.935701 0.243648 0.222861 47.000000
1.937427 0.237830 0.222957 47.000000
1.934194 0.231409 0.222572 47.000000
1.951702 0.227443 0.224205 47.000000
1.952390 0.221454 0.224205 47.000000
1.625210 0.770599 0.197808 48.000000
1.627567 0.765609 0.197808 48.000000
1.629908 0.760612 0.197808 48.000000
1.630425 0.754772 0.197627 48.000000
1.630018 0.748522 0.197356 48.000000
1.634119 0.744342 0.197537 48.000000
1.638211 0.740144 0.197717 48.000000
1.640474 0.735115 0.197717 48.000000
1.645453 0.731290 0.197988 48.000000
1.647689 0.726238 0.197988 48.000000
1.648083 0.720383 0.197808 48.000000
1.653028 0.716510 0.198078 48.000000
1.658879 0.713006 0.198440 48.000000
1.661975 0.708303 0.198530 48.000000
1.662305 0.702427 0.198349 48.000000
1.667209 0.698476 0.198620 48.000000
1.665664 0.691832 0.198259 48.000000
1.669621 0.687476 0.198440 48.000000
1.675411 0.683854 0.198801 48.000000
1.681195 0.680202 0.199162 48.000000
1.684199 0.675411 0.199252 48.000000
1.687189 0.670608 0.199342 48.000000
1.690165 0.665793 0.199433 48.000000
1.691272 0.660243 0.199342 48.000000
1.844923 0.416112 0.206204 48.000000
1.851053 0.411528 0.206655 48.000000
1.853279 0.406059 0.206746 48.000000
1.857437 0.401000 0.207017 48.000000
1.860607 0.395713 0.207197 48.000000
1.862787 0.390207 0.207287 48.000000
1.864951 0.384690 0.207378 48.000000
1.868075 0.379362 0.207558 48.000000
1.870207 0.373824 0.207649 48.000000
1.872322 0.368276 0.207739 48.000000
1.874421 0.362719 0.207829 48.000000
1.878461 0.357523 0.208100 48.000000
1.879549 0.351759 0.208100 48.000000
1.882578 0.346350 0.208281 48.000000
1.885592 0.340926 0.208461 48.000000
1.889571 0.335660 0.208732 48.000000
1.891573 0.330032 0.208822 48.000000
1.893559 0.324394 0.208913 48.000000
1.897492 0.319077 0.209183 48.000000
1.901410 0.313739 0.209454 48.000000
1.903347 0.308063 0.209545 48.000000
1.907234 0.302688 0.209815 48.000000
1.910122 0.297141 0.209996 48.000000
1.912994 0.291578 0.210177 48.000000
1.915849 0.286001 0.210357 48.000000
1.915732 0.279978 0.210267 48.000000
1.923484 0.275082 0.210899 48.000000
1.927278 0.269592 0.211170 48.000000
1.933030 0.264350 0.211621 48.000000
1.936794 0.258812 0.211892 48.000000
1.937579 0.252869 0.211892 48.000000
1.941309 0.247299 0.212163 48.000000
1.947001 0.241953 0.212614 48.000000
1.926970 0.233475 0.210718 48.000000
1.955373 0.230815 0.213246 48.000000
1.957061 0.224928 0.213337 48.000000
1.631565 0.778107 0.187587 49.000000
1.632142 0.772245 0.187419 49.000000
1.633602 0.766811 0.187335 49.000000
1.635947 0.761796 0.187335 49.000000
1.637372 0.756356 0.187250 49.000000
1.639684 0.751329 0.187250 49.000000
1.641982 0.746295 0.187250 49.000000
1.643355 0.740844 0.187166 49.000000
1.645620 0.735799 0.187166 49.000000
1.795840 0.497253 0.192302 49.000000
1.799279 0.492266 0.192471 49.000000
1.800781 0.486744 0.192471 49.000000
1.801303 0.480960 0.192387 49.000000
1.805661 0.476193 0.192639 49.000000
1.810970 0.471655 0.192976 49.000000
1.814339 0.466593 0.193144 49.000000
1.814796 0.460779 0.193060 49.000000
1.816201 0.455209 0.193060 49.000000
1.819524 0.450113 0.193229 49.000000
1.822832 0.445001 0.193397 49.000000
1.826127 0.439873 0.193565 49.000000
1.831346 0.435189 0.193902 49.000000
1.834613 0.430023 0.194071 49.000000
1.837865 0.424841 0.194239 49.000000
1.842075 0.419864 0.194492 49.000000
1.848215 0.415302 0.194913 49.000000
1.854345 0.410706 0.195334 49.000000
1.857544 0.405440 0.195502 49.000000
1.861701 0.400367 0.195755 49.000000
1.863896 0.394860 0.195839 49.000000
1.867049 0.389546 0.196007 49.000000
1.869212 0.384017 0.196091 49.000000
1.872335 0.378675 0.196260 49.000000
1.875442 0.373318 0.196428 49.000000
1.877557 0.367753 0.196512 49.000000
1.880633 0.362368 0.196681 49.000000
1.882715 0.356782 0.196765 49.000000
1.886740 0.351551 0.197018 49.000000
1.888789 0.345940 0.197102 49.000000
1.892784 0.340673 0.197354 49.000000
1.896764 0.335384 0.197607 49.000000
1.899748 0.329904 0.197775 49.000000
1.902716 0.324409 0.197944 49.000000
1.906650 0.319063 0.198196 49.000000
1.907620 0.313212 0.198196 49.000000
1.909556 0.307516 0.198281 49.000000
1.912459 0.301966 0.198449 49.000000
1.913376 0.296098 0.198449 49.000000
1.915261 0.290375 0.198533 49.000000
1.917129 0.284644 0.198617 49.000000
1.922923 0.279477 0.199038 49.000000
1.925745 0.273856 0.199207 49.000000
1.930524 0.268495 0.199544 49.000000
1.938250 0.263509 0.200133 49.000000
1.943001 0.258086 0.200470 49.000000
1.944772 0.252251 0.200554 49.000000
1.951468 0.247033 0.201059 49.000000
1.955184 0.241411 0.201312 49.000000
1.957894 0.235649 0.201480 49.000000
1.954649 0.229178 0.201143 49.000000
1.742813 0.575799 0.178113 50.000000
1.743624 0.570140 0.178035 50.000000
1.745365 0.564788 0.178035 50.000000
1.748039 0.559734 0.178113 50.000000
1.751649 0.554971 0.178268 50.000000
1.757148 0.550789 0.178579 50.000000
1.761686 0.546282 0.178813 50.000000
1.764307 0.541167 0.178890 50.000000
1.768821 0.536620 0.179124 50.000000
1.774279 0.532338 0.179435 50.000000
1.777815 0.527460 0.179590 50.000000
1.779425 0.522003 0.179590 50.000000
1.781975 0.516819 0.179668 50.000000
1.784511 0.511625 0.179746 50.000000
1.785113 0.505875 0.179668 50.000000
1.787616 0.500665 0.179746 50.000000
1.792987 0.496243 0.180057 50.000000
1.795463 0.491003 0.180135 50.000000
1.798886 0.486013 0.180290 50.000000
1.799405 0.480235 0.180212 50.000000
1.802798 0.475220 0.180368 50.000000
1.807142 0.470441 0.180601 50.000000
1.809542 0.465143 0.180679 50.000000
1.808062 0.458853 0.180446 50.000000
1.812362 0.454031 0.180679 50.000000
1.816650 0.449188 0.180912 50.000000
1.818019 0.443612 0.180912 50.000000
1.821310 0.438500 0.181068 50.000000
1.827497 0.434063 0.181457 50.000000
1.830761 0.428909 0.181612 50.000000
1.834011 0.423740 0.181768 50.000000
1.839190 0.418998 0.182079 50.000000
1.844358 0.414228 0.182390 50.000000
1.848540 0.409215 0.182623 50.000000
1.850761 0.403754 0.182701 50.000000
1.853940 0.398494 0.182856 50.000000
1.857105 0.393217 0.183012 50.000000
1.861230 0.388129 0.183245 50.000000
1.863389 0.382618 0.183323 50.000000
1.864554 0.376899 0.183323 50.000000
1.869612 0.371956 0.183634 50.000000
1.872701 0.366602 0.183789 50.000000
1.875775 0.361232 0.183945 50.000000
1.880793 0.356219 0.184256 50.000000
1.881877 0.350447 0.184256 50.000000
1.885885 0.345211 0.184489 50.000000
1.892822 0.340484 0.184956 50.000000
1.896803 0.335196 0.185189 50.000000
1.898805 0.329546 0.185267 50.000000
1.902755 0.324222 0.185500 50.000000
1.905707 0.318712 0.185656 50.000000
1.906676 0.312864 0.185656 50.000000
1.907627 0.307013 0.185656 50.000000
1.909545 0.301314 0.185734 50.000000
1.910460 0.295455 0.185734 50.000000
1.912344 0.289741 0.185811 50.000000
1.917168 0.284459 0.186122 50.000000
1.920991 0.279007 0.186356 50.000000
1.923812 0.273393 0.186511 50.000000
1.929579 0.268176 0.186900 50.000000
1.934345 0.262793 0.187211 50.000000
1.939095 0.257383 0.187522 50.000000
1.942841 0.251818 0.187755 50.000000
1.948550 0.246482 0.188144 50.000000
1.935445 0.238791 0.187055 50.000000
1.681166 0.646959 0.164486 51.000000
1.688734 0.643934 0.164916 51.000000
1.688836 0.638044 0.164773 51.000000
1.692653 0.633560 0.164916 51.000000
1.696459 0.629059 0.165059 51.000000
1.702125 0.625229 0.165346 51.000000
1.705909 0.620687 0.165489 51.000000
1.708744 0.615790 0.165561 51.000000
1.712503 0.611216 0.165704 51.000000
1.720952 0.608290 0.166206 51.000000
1.721869 0.602678 0.166134 51.000000
1.727478 0.598701 0.166421 51.000000
1.730250 0.593723 0.166493 51.000000
1.735840 0.589697 0.166779 51.000000
1.735751 0.583732 0.166636 51.000000
1.737534 0.578404 0.166636 51.000000
1.739300 0.573071 0.166636 51.000000
1.741050 0.567732 0.166636 51.000000
1.739936 0.561467 0.166421 51.000000
1.743551 0.556734 0.166564 51.000000
1.746202 0.551683 0.166636 51.000000
1.750741 0.547218 0.166851 51.000000
1.753365 0.542140 0.166923 51.000000
1.756927 0.537342 0.167066 51.000000
1.761431 0.532818 0.167281 51.000000
1.764012 0.527698 0.167353 51.000000
1.768492 0.523134 0.167568 51.000000
1.772003 0.518267 0.167711 51.000000
1.775501 0.513384 0.167855 51.000000
1.776109 0.507659 0.167783 51.000000
1.781496 0.503295 0.168070 51.000000
1.783993 0.498096 0.168141 51.000000
1.786474 0.492886 0.168213 51.000000
1.790864 0.488192 0.168428 51.000000
1.795242 0.483475 0.168643 51.000000
1.794789 0.477451 0.168500 51.000000
1.797210 0.472197 0.168571 51.000000
1.800581 0.467183 0.168715 51.000000
1.801040 0.461408 0.168643 51.000000
1.802447 0.455881 0.168643 51.000000
1.805772 0.450833 0.168786 51.000000
1.811020 0.446248 0.169073 51.000000
1.813350 0.440926 0.169145 51.000000
1.817603 0.436061 0.169360 51.000000
1.822814 0.431403 0.169646 51.000000
1.828014 0.426718 0.169933 51.000000
1.832230 0.421781 0.170148 51.000000
1.837406 0.417044 0.170435 51.000000
1.841596 0.412060 0.170650 51.000000
1.844800 0.406839 0.170793 51.000000
1.847014 0.401389 0.170865 51.000000
1.849211 0.395930 0.170936 51.000000
1.853345 0.390874 0.171151 51.000000
1.854535 0.385187 0.171151 51.000000
1.858640 0.380096 0.171366 51.000000
1.858819 0.374195 0.171295 51.000000
1.859959 0.368490 0.171295 51.000000
1.864017 0.363357 0.171510 51.000000
1.867082 0.358013 0.171653 51.000000
1.870132 0.352654 0.171796 51.000000
1.877088 0.348010 0.172226 51.000000
1.881091 0.342787 0.172441 51.000000
1.885079 0.337544 0.172656 51.000000
1.891017 0.332626 0.173015 51.000000
1.895959 0.327504 0.173302 51.000000
1.899905 0.322188 0.173517 51.000000
1.903836 0.316851 0.173732 51.000000
1.903815 0.310847 0.173660 51.000000
1.904759 0.305005 0.173660 51.000000
1.906671 0.299315 0.173732 51.000000
1.907581 0.293464 0.173732 51.000000
1.908472 0.287610 0.173732 51.000000
1.912305 0.282192 0.173947 51.000000
1.915136 0.276610 0.174090 51.000000
1.918939 0.271154 0.174305 51.000000
1.920749 0.265403 0.174377 51.000000
1.924520 0.259911 0.174592 51.000000
1.928274 0.254398 0.174807 51.000000
1.930035 0.248609 0.174878 51.000000
1.931778 0.242812 0.174950 51.000000
1.953038 0.233332 0.176383 51.000000
1.608687 0.780643 0.153277 52.000000
1.611974 0.776136 0.153343 52.000000
1.614348 0.771187 0.153343 52.000000
1.616706 0.766231 0.153343 52.000000
1.619049 0.761267 0.153343 52.000000
1.620473 0.755875 0.153277 52.000000
1.626407 0.752574 0.153540 52.000000
1.625987 0.746334 0.153343 52.000000
1.627361 0.740929 0.153277 52.000000
1.634175 0.737983 0.153606 52.000000
1.638253 0.733781 0.153738 52.000000
1.640496 0.728751 0.153738 52.000000
1.642725 0.723715 0.153738 52.000000
1.645852 0.719070 0.153804 52.000000
1.648050 0.714018 0.153804 52.000000
1.652067 0.709745 0.153936 52.000000
1.652400 0.703892 0.153804 52.000000
1.656391 0.699594 0.153936 52.000000
1.656688 0.693740 0.153804 52.000000
1.660652 0.689418 0.153936 52.000000
1.660914 0.683561 0.153804 52.000000
1.666699 0.679968 0.154068 52.000000
1.667852 0.674478 0.154002 52.000000
1.671767 0.670099 0.154134 52.000000
1.671960 0.664231 0.154002 52.000000
1.677704 0.660559 0.154266 52.000000
1.679723 0.655408 0.154266 52.000000
1.842660 0.415268 0.159935 52.000000
1.842952 0.409397 0.159869 52.000000
1.846149 0.404167 0.160001 52.000000
1.847380 0.398501 0.160001 52.000000
1.850546 0.393245 0.160133 52.000000
1.851744 0.387566 0.160133 52.000000
1.856834 0.382686 0.160397 52.000000
1.857999 0.376988 0.160397 52.000000
1.859147 0.371286 0.160397 52.000000
1.861256 0.365772 0.160463 52.000000
1.864329 0.360438 0.160594 52.000000
1.867387 0.355088 0.160726 52.000000
1.874354 0.350454 0.161122 52.000000
1.878364 0.345241 0.161320 52.000000
1.882361 0.340007 0.161517 52.000000
1.886343 0.334752 0.161715 52.000000
1.893260 0.329987 0.162111 52.000000
1.895247 0.324345 0.162177 52.000000
1.899185 0.319023 0.162374 52.000000
1.902124 0.313518 0.162506 52.000000
1.902092 0.307523 0.162440 52.000000
1.902041 0.301530 0.162374 52.000000
1.906901 0.296304 0.162638 52.000000
1.907802 0.290452 0.162638 52.000000
1.911645 0.285037 0.162836 52.000000
1.912510 0.279171 0.162836 52.000000
1.914346 0.273443 0.162902 52.000000
1.916164 0.267706 0.162968 52.000000
1.917965 0.261960 0.163034 52.000000
1.923705 0.256732 0.163363 52.000000
1.924484 0.250829 0.163363 52.000000
1.924254 0.244798 0.163297 52.000000
1.936880 0.240361 0.164088 52.000000
1.937608 0.234417 0.164088 52.000000
1.606290 0.784973 0.142079 53.000000
1.614080 0.782653 0.142437 53.000000
1.618273 0.778563 0.142556 53.000000
1.619753 0.773165 0.142496 53.000000
1.621215 0.767765 0.142437 53.000000
1.621756 0.761939 0.142318 53.000000
1.623181 0.756538 0.142258 53.000000
1.625494 0.751555 0.142258 53.000000
1.631422 0.748228 0.142496 53.000000
1.633710 0.743219 0.142496 53.000000
1.636893 0.738614 0.142556 53.000000
1.640062 0.733996 0.142616 53.000000
1.792097 0.496885 0.146374 53.000000
1.795538 0.491912 0.146493 53.000000
1.796075 0.486140 0.146434 53.000000
1.802380 0.481916 0.146732 53.000000
1.800955 0.475620 0.146553 53.000000
1.802405 0.470092 0.146553 53.000000
1.803839 0.464560 0.146553 53.000000
1.807191 0.459516 0.146672 53.000000
1.809561 0.454212 0.146732 53.000000
1.816759 0.450097 0.147090 53.000000
1.818132 0.444522 0.147090 53.000000
1.822398 0.439643 0.147269 53.000000
1.826652 0.434743 0.147448 53.000000
1.829921 0.429593 0.147567 53.000000
1.835120 0.424876 0.147806 53.000000
1.839335 0.419910 0.147985 53.000000
1.842562 0.414703 0.148104 53.000000
1.844800 0.409264 0.148164 53.000000
1.848973 0.404242 0.148343 53.000000
1.852156 0.398987 0.148462 53.000000
1.855325 0.393717 0.148581 53.000000
1.855547 0.387819 0.148522 53.000000
1.862594 0.383331 0.148880 53.000000
1.863762 0.377614 0.148880 53.000000
1.864911 0.371895 0.148880 53.000000
1.870941 0.367132 0.149178 53.000000
1.871079 0.361201 0.149118 53.000000
1.874140 0.355831 0.149237 53.000000
1.878166 0.350628 0.149416 53.000000
1.881197 0.345225 0.149536 53.000000
1.884212 0.339805 0.149655 53.000000
1.890160 0.334893 0.149953 53.000000
1.892162 0.329263 0.150013 53.000000
1.894148 0.323625 0.150073 53.000000
1.896116 0.317977 0.150132 53.000000
1.900038 0.312644 0.150311 53.000000
1.901973 0.306972 0.150371 53.000000
1.904878 0.301447 0.150490 53.000000
1.906781 0.295754 0.150550 53.000000
1.910640 0.290352 0.150729 53.000000
1.914484 0.284929 0.150908 53.000000
1.916337 0.279198 0.150967 53.000000
1.919161 0.273599 0.151087 53.000000
1.919991 0.267710 0.151087 53.000000
1.919814 0.261684 0.151027 53.000000
1.923577 0.256187 0.151206 53.000000
1.906535 0.247971 0.150132 53.000000
1.934025 0.245509 0.151743 53.000000
1.934769 0.239574 0.151743 53.000000
1.735260 0.572969 0.133025 54.000000
1.739857 0.568574 0.133185 54.000000
1.740644 0.562926 0.133132 54.000000
1.746166 0.558801 0.133345 54.000000
1.747872 0.553441 0.133345 54.000000
1.750515 0.548375 0.133398 54.000000
1.751235 0.542706 0.133345 54.000000
1.758620 0.539088 0.133665 54.000000
1.761221 0.533980 0.133719 54.000000
1.764764 0.529148 0.133825 54.000000
1.769251 0.524584 0.133986 54.000000
1.773727 0.519997 0.134146 54.000000
1.778191 0.515387 0.134306 54.000000
1.782643 0.510755 0.134466 54.000000
1.784202 0.505283 0.134466 54.000000
1.788628 0.500615 0.134626 54.000000
1.789194 0.494859 0.134573 54.000000
1.793593 0.490158 0.134733 54.000000
1.793160 0.484132 0.134626 54.000000
1.797531 0.479401 0.134786 54.000000
1.798994 0.473884 0.134786 54.000000
1.799473 0.468111 0.134733 54.000000
1.801868 0.462837 0.134786 54.000000
1.807151 0.458289 0.135000 54.000000
1.810485 0.453228 0.135107 54.000000
1.812837 0.447911 0.135160 54.000000
1.819053 0.443531 0.135427 54.000000
1.825259 0.439117 0.135694 54.000000
1.827569 0.433746 0.135747 54.000000
1.828892 0.428137 0.135747 54.000000
1.835061 0.423648 0.136014 54.000000
1.837326 0.418238 0.136067 54.000000
1.838600 0.412599 0.136067 54.000000
1.841807 0.407388 0.136174 54.000000
1.846951 0.402587 0.136388 54.000000
1.847201 0.396709 0.136334 54.000000
1.850363 0.391454 0.136441 54.000000
1.852533 0.385979 0.136495 54.000000
1.860556 0.381700 0.136868 54.000000
1.863676 0.376386 0.136975 54.000000
1.863842 0.370472 0.136922 54.000000
1.865950 0.364943 0.136975 54.000000
1.869022 0.359595 0.137082 54.000000
1.872079 0.354231 0.137189 54.000000
1.873157 0.348486 0.137189 54.000000
1.878146 0.343457 0.137402 54.000000
1.881156 0.338046 0.137509 54.000000
1.882185 0.332274 0.137509 54.000000
1.885163 0.326839 0.137616 54.000000
1.890094 0.321725 0.137829 54.000000
1.891072 0.315925 0.137829 54.000000
1.894989 0.310607 0.137989 54.000000
1.896919 0.304950 0.138043 54.000000
1.900805 0.299596 0.138203 54.000000
1.903688 0.294068 0.138310 54.000000
1.909518 0.288975 0.138576 54.000000
1.914347 0.283701 0.138790 54.000000
1.916196 0.277970 0.138843 54.000000
1.918029 0.272231 0.138897 54.000000
1.921822 0.266758 0.139057 54.000000
1.920653 0.260591 0.138950 54.000000
1.923423 0.254961 0.139057 54.000000
1.906371 0.246748 0.138096 54.000000
1.961606 0.247791 0.141032 54.000000
1.679880 0.646463 0.120321 55.000000
1.681855 0.641306 0.120321 55.000000
1.683815 0.636143 0.120321 55.000000
1.684823 0.630623 0.120274 55.000000
1.687686 0.625799 0.120321 55.000000
1.690536 0.620964 0.120368 55.000000
1.693371 0.616116 0.120415 55.000000
1.697132 0.611597 0.120510 55.000000
1.697120 0.605714 0.120415 55.000000
1.698970 0.600505 0.120415 55.000000
1.701747 0.595620 0.120463 55.000000
1.704510 0.590724 0.120510 55.000000
1.707259 0.585817 0.120557 55.000000
1.712830 0.581864 0.120745 55.000000
1.715554 0.576925 0.120792 55.000000
1.723001 0.573556 0.121075 55.000000
1.725701 0.568580 0.121122 55.000000
1.732185 0.564835 0.121358 55.000000
1.733910 0.559518 0.121358 55.000000
1.737521 0.554805 0.121452 55.000000
1.743024 0.550677 0.121640 55.000000
1.742799 0.544730 0.121546 55.000000
1.745416 0.539676 0.121593 55.000000
1.749929 0.535197 0.121734 55.000000
1.752518 0.530116 0.121782 55.000000
1.756050 0.525310 0.121876 55.000000
1.760526 0.520772 0.122017 55.000000
1.768826 0.517336 0.122347 55.000000
1.771364 0.512185 0.122394 55.000000
1.772927 0.506748 0.122394 55.000000
1.778318 0.502395 0.122582 55.000000
1.781774 0.497475 0.122677 55.000000
1.786180 0.492805 0.122818 55.000000
1.784793 0.486533 0.122677 55.000000
1.787242 0.481315 0.122724 55.000000
1.789675 0.476087 0.122771 55.000000
1.794025 0.471358 0.122912 55.000000
1.792563 0.465097 0.122771 55.000000
1.796884 0.460341 0.122912 55.000000
1.800224 0.455317 0.123006 55.000000
1.804520 0.450520 0.123148 55.000000
1.807833 0.445460 0.123242 55.000000
1.813073 0.440858 0.123430 55.000000
1.817330 0.435995 0.123572 55.000000
1.820603 0.430879 0.123666 55.000000
1.822889 0.425519 0.123713 55.000000
1.827106 0.420598 0.123854 55.000000
1.827414 0.414769 0.123807 55.000000
1.830627 0.409598 0.123901 55.000000
1.833825 0.404411 0.123996 55.000000
1.836033 0.398996 0.124043 55.000000
1.839202 0.393781 0.124137 55.000000
1.842356 0.388550 0.124231 55.000000
1.844517 0.383099 0.124278 55.000000
1.850577 0.378442 0.124514 55.000000
1.853687 0.373159 0.124608 55.000000
1.857763 0.368054 0.124749 55.000000
1.860844 0.362736 0.124843 55.000000
1.864890 0.357592 0.124985 55.000000
1.866960 0.352054 0.125032 55.000000
1.869996 0.346690 0.125126 55.000000
1.873016 0.341311 0.125220 55.000000
1.876020 0.335916 0.125315 55.000000
1.877042 0.330159 0.125315 55.000000
1.880014 0.324740 0.125409 55.000000
1.881987 0.319138 0.125456 55.000000
1.884927 0.313692 0.125550 55.000000
1.887852 0.308231 0.125644 55.000000
1.890761 0.302755 0.125739 55.000000
1.895628 0.297574 0.125927 55.000000
1.898507 0.292062 0.126021 55.000000
1.905320 0.287133 0.126304 55.000000
1.910144 0.281872 0.126492 55.000000
1.912977 0.276297 0.126586 55.000000
1.914805 0.270567 0.126634 55.000000
1.917604 0.264966 0.126728 55.000000
1.921378 0.259485 0.126869 55.000000
1.925135 0.253982 0.127010 55.000000
1.981381 0.255254 0.129648 55.000000
1.601745 0.795570 0.109547 56.000000
