# This PCD file was generated using the MATLAB® pcwrite function
# from Computer Vision Toolbox®.
# .PCD v.7 - Point Cloud Data file format
VERSION .7
FIELDS x y z
SIZE 4 4 4
TYPE F F F
COUNT 1 1 1
WIDTH 1726
HEIGHT 1
VIEWPOINT 0 0 0 1 0 0 0
POINTS 1726
DATA ascii
3.433007 0.065155 0.492822
3.432791 0.075687 0.492822
3.432543 0.086219 0.492822
3.429290 0.096666 0.492425
3.427986 0.107155 0.492292
3.425660 0.117604 0.492028
3.423302 0.128039 0.491763
3.420913 0.138461 0.491498
3.420471 0.148956 0.491498
3.419998 0.159449 0.491498
3.420483 0.169990 0.491630
3.421925 0.180587 0.491895
3.423334 0.191195 0.492160
3.422732 0.201696 0.492160
3.424075 0.212319 0.492425
3.425667 -0.326955 0.473165
3.410850 -0.314986 0.471141
3.411800 -0.304520 0.471141
3.415683 -0.294306 0.471520
3.419536 -0.284072 0.471900
3.423358 -0.273816 0.472279
3.424181 -0.263312 0.472279
3.423984 -0.252733 0.472153
3.423754 -0.242157 0.472026
3.424481 -0.231652 0.472026
3.424185 -0.221081 0.471900
3.419897 -0.210271 0.471267
3.416565 -0.199547 0.470761
3.419142 -0.189174 0.471014
3.417725 -0.178580 0.470761
3.418257 -0.168093 0.470761
3.417765 -0.157560 0.470634
3.418233 -0.147074 0.470634
3.417677 -0.136546 0.470508
3.418079 -0.126061 0.470508
3.416467 -0.115507 0.470255
3.411848 -0.104873 0.469622
3.415129 -0.094487 0.470002
3.413419 -0.083960 0.469749
3.412669 -0.073466 0.469622
3.409903 -0.062942 0.469242
3.411072 -0.052495 0.469369
3.411217 -0.042030 0.469369
3.410338 -0.031555 0.469242
3.410419 -0.021092 0.469242
3.411459 -0.010632 0.469369
3.413460 -0.000166 0.469622
3.415428 0.010313 0.469875
3.417364 0.020804 0.470128
3.422244 0.031334 0.470761
3.422132 0.041833 0.470761
3.423971 0.052362 0.471014
3.423794 0.062867 0.471014
3.424577 0.073392 0.471141
3.424335 0.083898 0.471141
3.423070 0.094376 0.471014
3.420782 0.104816 0.470761
3.418461 0.115243 0.470508
3.414126 0.125584 0.470002
3.412734 0.136018 0.469875
3.410319 0.146403 0.469622
3.409853 0.156865 0.469622
3.411338 0.167423 0.469875
3.413780 0.178043 0.470255
3.412227 0.188461 0.470128
3.413613 0.199044 0.470381
3.412987 0.209516 0.470381
3.429816 -0.380851 0.451877
3.431955 -0.370433 0.451997
3.427151 -0.359283 0.451276
3.426262 -0.348566 0.451036
3.417435 -0.337082 0.449834
3.418453 -0.326596 0.449834
3.413508 -0.315560 0.449114
3.414460 -0.305086 0.449114
3.415380 -0.294610 0.449114
3.416268 -0.284130 0.449114
3.415144 -0.273490 0.448873
3.414977 -0.262935 0.448753
3.418738 -0.252675 0.449114
3.411575 -0.241627 0.448153
3.416262 -0.231427 0.448633
3.410021 -0.220498 0.447792
3.415636 -0.210339 0.448393
3.416265 -0.199859 0.448393
3.416862 -0.189377 0.448393
3.415444 -0.178790 0.448153
3.414985 -0.168263 0.448032
3.415485 -0.157785 0.448032
3.414961 -0.147263 0.447912
3.412421 -0.136667 0.447552
3.411832 -0.126161 0.447432
3.408235 -0.115560 0.446951
3.410558 -0.105164 0.447191
3.408880 -0.094645 0.446951
3.409154 -0.084186 0.446951
3.408403 -0.073706 0.446831
3.409606 -0.063267 0.446951
3.405814 -0.052746 0.446471
3.404967 -0.042285 0.446350
3.405081 -0.031838 0.446350
3.405162 -0.021391 0.446350
3.405212 -0.010944 0.446350
3.409200 -0.000496 0.446831
3.407200 0.009956 0.446591
3.410132 0.020428 0.446951
3.413031 0.030918 0.447312
3.412920 0.041389 0.447312
3.412777 0.051860 0.447312
3.412602 0.062330 0.447312
3.409417 0.072735 0.446951
3.411163 0.083243 0.447191
3.409899 0.093681 0.447071
3.407611 0.104080 0.446831
3.405292 0.114467 0.446591
3.401948 0.124803 0.446230
3.401549 0.135240 0.446230
3.400126 0.145632 0.446110
3.400655 0.156109 0.446230
3.401152 0.166590 0.446350
3.401616 0.177076 0.446471
3.402048 0.187566 0.446591
3.401457 0.198002 0.446591
3.399842 0.208376 0.446471
3.397206 0.218677 0.446230
3.414352 -0.387556 0.430737
3.436260 -0.379375 0.433143
3.434444 -0.368512 0.432800
3.428642 -0.357251 0.431997
3.425769 -0.346329 0.431539
3.421872 -0.335331 0.430966
3.420907 -0.324643 0.430737
3.417930 -0.313782 0.430279
3.416898 -0.303118 0.430049
3.418801 -0.292719 0.430164
3.418693 -0.282147 0.430049
3.418552 -0.271578 0.429935
3.418379 -0.261013 0.429820
3.412228 -0.250014 0.429018
3.415952 -0.239754 0.429362
3.415681 -0.229206 0.429247
3.417359 -0.218789 0.429362
3.413056 -0.208000 0.428789
3.415662 -0.197643 0.429018
3.415260 -0.187109 0.428903
3.413834 -0.176527 0.428674
3.414360 -0.166052 0.428674
3.413861 -0.155531 0.428560
3.409359 -0.144844 0.427987
3.408795 -0.134344 0.427872
3.409191 -0.123885 0.427872
3.409555 -0.113426 0.427872
3.410880 -0.102995 0.427987
3.411180 -0.092530 0.427987
3.411448 -0.082064 0.427987
3.411684 -0.071598 0.427987
3.409901 -0.061094 0.427758
3.406099 -0.050572 0.427299
3.406238 -0.040122 0.427299
3.403365 -0.029645 0.426955
3.404433 -0.019209 0.427070
3.402489 -0.008759 0.426841
3.404487 0.001680 0.427070
3.405459 0.012128 0.427185
3.403419 0.022564 0.426955
3.403334 0.033005 0.426955
3.403217 0.043446 0.426955
3.402074 0.053871 0.426841
3.401893 0.064309 0.426841
3.402673 0.074767 0.426955
3.402427 0.085206 0.426955
3.402150 0.095644 0.426955
3.401840 0.106081 0.426955
3.403485 0.116584 0.427185
3.400133 0.126915 0.426841
3.399727 0.137346 0.426841
3.400282 0.147819 0.426955
3.399813 0.158250 0.426955
3.399312 0.168680 0.426955
3.399770 0.179160 0.427070
3.400196 0.189644 0.427185
3.399598 0.200075 0.427185
3.399960 0.210565 0.427299
3.398307 0.220931 0.427185
3.396622 0.231288 0.427070
3.413048 -0.376534 0.408696
3.427037 -0.367440 0.410104
3.426171 -0.356719 0.409888
3.426260 -0.346106 0.409779
3.425327 -0.335398 0.409563
3.425350 -0.324794 0.409454
3.424351 -0.314102 0.409238
3.424308 -0.303507 0.409129
3.423242 -0.292830 0.408913
3.424124 -0.282326 0.408913
3.424974 -0.271820 0.408913
3.423810 -0.261159 0.408696
3.424595 -0.250654 0.408696
3.424356 -0.240077 0.408588
3.422101 -0.229370 0.408262
3.421796 -0.218807 0.408154
3.420467 -0.208187 0.407937
3.421089 -0.197692 0.407937
3.418702 -0.187032 0.407612
3.418267 -0.176491 0.407504
3.416806 -0.165907 0.407287
3.417300 -0.155423 0.407287
3.415774 -0.144854 0.407071
3.413222 -0.134256 0.406746
3.415605 -0.123856 0.406962
3.415969 -0.113377 0.406962
3.416301 -0.102896 0.406962
3.416600 -0.092415 0.406962
3.415874 -0.081908 0.406854
3.414121 -0.071386 0.406637
3.413330 -0.060894 0.406529
3.411513 -0.050392 0.406312
3.409663 -0.039902 0.406096
3.409770 -0.029441 0.406096
3.408850 -0.018974 0.405987
3.407898 -0.008513 0.405879
3.407908 0.001942 0.405879
3.405898 0.012390 0.405662
3.404850 0.022833 0.405554
3.401781 0.033250 0.405229
3.402658 0.043699 0.405337
3.398531 0.054075 0.404904
3.398350 0.064501 0.404904
3.398136 0.074927 0.404904
3.400871 0.085427 0.405229
3.401587 0.095888 0.405337
3.407238 0.106509 0.405987
3.408883 0.117030 0.406204
3.404534 0.127339 0.405771
3.406114 0.137864 0.405987
3.410641 0.148529 0.406529
3.406197 0.158807 0.406096
3.404701 0.169207 0.405987
3.407144 0.179809 0.406312
3.407569 0.190316 0.406421
3.405976 0.200711 0.406312
3.406337 0.211221 0.406421
3.405673 0.221670 0.406421
3.403985 0.232050 0.406312
3.401273 0.242351 0.406096
3.399194 -0.377130 0.386174
3.423083 -0.369150 0.388526
3.424200 -0.358646 0.388526
3.422315 -0.347838 0.388219
3.423366 -0.337337 0.388219
3.421414 -0.326549 0.387912
3.423390 -0.316142 0.388014
3.421371 -0.305373 0.387708
3.419319 -0.294619 0.387401
3.417233 -0.283881 0.387094
3.422054 -0.273712 0.387503
3.421886 -0.263136 0.387401
3.418709 -0.252344 0.386992
3.417482 -0.241714 0.386787
3.419200 -0.231296 0.386889
3.416915 -0.220613 0.386583
3.416583 -0.210068 0.386480
3.415226 -0.199469 0.386276
3.412842 -0.188826 0.385969
3.412412 -0.178303 0.385867
3.413936 -0.167881 0.385969
3.414435 -0.157407 0.385969
3.411921 -0.146803 0.385662
3.413349 -0.136374 0.385765
3.410769 -0.125792 0.385458
3.408156 -0.115227 0.385151
3.406505 -0.104709 0.384946
3.406810 -0.094258 0.384946
3.405094 -0.083756 0.384742
3.403346 -0.073267 0.384537
3.404550 -0.062843 0.384640
3.404727 -0.052398 0.384640
3.404871 -0.041952 0.384640
3.403989 -0.031497 0.384537
3.405065 -0.021060 0.384640
3.402129 -0.010604 0.384333
3.401151 -0.000166 0.384230
3.401135 0.010268 0.384230
3.399098 0.020690 0.384026
3.399019 0.031119 0.384026
3.394928 0.041497 0.383617
3.394785 0.051913 0.383617
3.395605 0.062346 0.383719
3.394403 0.072742 0.383617
3.395158 0.083180 0.383719
3.399859 0.093733 0.384230
3.400549 0.104194 0.384333
3.402202 0.114693 0.384537
3.408793 0.125387 0.385253
3.408392 0.135845 0.385253
3.407959 0.146301 0.385253
3.401532 0.156481 0.384640
3.406997 0.167209 0.385253
3.406468 0.177661 0.385253
3.404914 0.188056 0.385151
3.406307 0.198617 0.385355
3.404689 0.209006 0.385253
3.403039 0.219386 0.385151
3.401357 0.229758 0.385049
3.399644 0.240122 0.384946
3.397900 0.250478 0.384844
3.428049 -0.370615 0.367274
3.421250 -0.359267 0.366506
3.420356 -0.348568 0.366314
3.417447 -0.337683 0.365930
3.418467 -0.327196 0.365930
3.415490 -0.316341 0.365545
3.412478 -0.305508 0.365161
3.399515 -0.293841 0.363817
3.408337 -0.284069 0.364585
3.406216 -0.273373 0.364297
3.406046 -0.262846 0.364201
3.403858 -0.252175 0.363913
3.384758 -0.240328 0.361993
3.401369 -0.231016 0.363529
3.406035 -0.220836 0.363913
3.406696 -0.210386 0.363913
3.405339 -0.199817 0.363721
3.405936 -0.189369 0.363721
3.405506 -0.178867 0.363625
3.406039 -0.168418 0.363625
3.405545 -0.157922 0.363529
3.405020 -0.147430 0.363433
3.405456 -0.136983 0.363433
3.404865 -0.126498 0.363337
3.403248 -0.115984 0.363145
3.402593 -0.105512 0.363049
3.398920 -0.094963 0.362665
3.399196 -0.084535 0.362665
3.400434 -0.074127 0.362761
3.400645 -0.063694 0.362761
3.400825 -0.053261 0.362761
3.400972 -0.042827 0.362761
3.401088 -0.032393 0.362761
3.401171 -0.021959 0.362761
3.398236 -0.011515 0.362473
3.398256 -0.001089 0.362473
3.398243 0.009337 0.362473
3.398198 0.019762 0.362473
3.395136 0.030160 0.362185
3.395027 0.040576 0.362185
3.393892 0.050977 0.362089
3.394714 0.061407 0.362185
3.393515 0.071800 0.362089
3.394274 0.082235 0.362185
3.396990 0.092731 0.362473
3.399675 0.103244 0.362761
3.399342 0.113674 0.362761
3.401961 0.124212 0.363049
3.402559 0.134688 0.363145
3.397157 0.144913 0.362665
3.400674 0.155518 0.363049
3.402169 0.166048 0.363241
3.400650 0.176433 0.363145
3.402080 0.186975 0.363337
3.401490 0.197411 0.363337
3.400869 0.207846 0.363337
3.400215 0.218279 0.363337
3.399529 0.228710 0.363337
3.399805 0.239208 0.363433
3.395084 0.249345 0.363049
3.401250 0.260293 0.363721
3.411550 -0.354865 0.345694
3.411632 -0.344296 0.345604
3.410690 -0.333634 0.345423
3.408723 -0.322885 0.345153
3.406723 -0.312152 0.344882
3.404688 -0.301435 0.344611
3.402620 -0.290733 0.344340
3.402503 -0.280210 0.344250
3.404340 -0.269849 0.344340
3.399194 -0.258947 0.343798
3.397986 -0.248372 0.343618
3.396745 -0.237806 0.343437
3.396465 -0.227317 0.343347
3.396152 -0.216832 0.343257
3.395808 -0.206351 0.343166
3.397419 -0.195989 0.343257
3.395021 -0.185401 0.342986
3.393584 -0.174882 0.342805
3.393110 -0.164421 0.342715
3.393599 -0.154010 0.342715
3.394055 -0.143598 0.342715
3.395475 -0.133224 0.342805
3.397858 -0.122879 0.342986
3.401205 -0.112553 0.343257
3.402530 -0.102148 0.343347
3.405814 -0.091791 0.343618
3.404088 -0.081293 0.343437
3.403326 -0.070828 0.343347
3.399544 -0.060314 0.342986
3.399714 -0.049884 0.342986
3.398855 -0.039442 0.342895
3.395972 -0.028988 0.342625
3.394053 -0.018558 0.342444
3.394094 -0.008145 0.342444
3.394103 0.002268 0.342444
3.394080 0.012681 0.342444
3.394025 0.023094 0.342444
3.392943 0.033497 0.342354
3.392824 0.043906 0.342354
3.393669 0.054331 0.342444
3.395478 0.064780 0.342625
3.396259 0.075218 0.342715
3.398003 0.085687 0.342895
3.398720 0.096139 0.342986
3.401395 0.106659 0.343257
3.401052 0.117093 0.343257
3.400677 0.127527 0.343257
3.400270 0.137960 0.343257
3.399830 0.148391 0.343257
3.397369 0.158728 0.343076
3.398856 0.169249 0.343257
3.400310 0.179780 0.343437
3.402725 0.190377 0.343708
3.403119 0.200874 0.343798
3.404475 0.211437 0.343979
3.405798 0.222009 0.344159
3.407088 0.232592 0.344340
3.409339 0.243255 0.344611
3.411556 0.253935 0.344882
3.411754 0.264477 0.344972
3.409934 0.274863 0.344882
3.384445 -0.354153 0.322391
3.406334 -0.345884 0.324159
3.403413 -0.335041 0.323822
3.404424 -0.324598 0.323822
3.405404 -0.314152 0.323822
3.403375 -0.303437 0.323570
3.404289 -0.292994 0.323570
3.404179 -0.282466 0.323485
3.403043 -0.271862 0.323317
3.401874 -0.261267 0.323149
3.404647 -0.250976 0.323317
3.401426 -0.240248 0.322980
3.400158 -0.229677 0.322812
3.397864 -0.219052 0.322559
3.398520 -0.208626 0.322559
3.398149 -0.198141 0.322475
3.396751 -0.187604 0.322307
3.397311 -0.177182 0.322307
3.397838 -0.166759 0.322307
3.398334 -0.156333 0.322307
3.398798 -0.145907 0.322307
3.399229 -0.135479 0.322307
3.403612 -0.125196 0.322643
3.406968 -0.114855 0.322896
3.407304 -0.104402 0.322896
3.407608 -0.093948 0.322896
3.409873 -0.083542 0.323064
3.408121 -0.073037 0.322896
3.404343 -0.062507 0.322559
3.404519 -0.052063 0.322559
3.399681 -0.041556 0.322138
3.399793 -0.031126 0.322138
3.399872 -0.020695 0.322138
3.401912 -0.010271 0.322307
3.400932 0.000166 0.322222
3.398922 0.010594 0.322054
3.397877 0.021016 0.321970
3.395804 0.031422 0.321801
3.394695 0.041828 0.321717
3.395547 0.052258 0.321801
3.397363 0.062712 0.321970
3.395163 0.073092 0.321801
3.396915 0.083556 0.321970
3.400627 0.094087 0.322307
3.402314 0.104581 0.322475
3.402973 0.115052 0.322559
3.402604 0.125492 0.322559
3.402203 0.135930 0.322559
3.400774 0.146324 0.322475
3.398319 0.156666 0.322307
3.399812 0.167188 0.322475
3.398288 0.177566 0.322391
3.399718 0.188101 0.322559
3.400119 0.198588 0.322643
3.401483 0.209141 0.322812
3.401820 0.219640 0.322896
3.403118 0.230209 0.323064
3.402396 0.240649 0.323064
3.404623 0.251306 0.323317
3.406817 0.261979 0.323570
3.405004 0.272350 0.323485
3.403232 -0.334758 0.301678
3.404243 -0.324316 0.301678
3.404229 -0.313779 0.301601
3.403190 -0.303156 0.301445
3.404104 -0.292714 0.301445
3.403992 -0.282187 0.301367
3.402854 -0.271584 0.301212
3.402677 -0.261066 0.301134
3.403462 -0.250626 0.301134
3.403221 -0.240113 0.301056
3.402947 -0.229604 0.300978
3.403635 -0.219163 0.300978
3.402301 -0.208598 0.300823
3.400934 -0.198043 0.300667
3.400531 -0.187553 0.300590
3.400095 -0.177068 0.300512
3.402613 -0.166733 0.300667
3.403109 -0.156293 0.300667
3.403572 -0.145852 0.300667
3.404004 -0.135409 0.300667
3.404403 -0.124965 0.300667
3.404770 -0.114520 0.300667
3.403113 -0.104013 0.300512
3.403416 -0.093572 0.300512
3.406677 -0.083203 0.300745
3.401932 -0.072645 0.300356
3.399149 -0.062154 0.300123
3.399324 -0.051725 0.300123
3.400463 -0.041308 0.300201
3.396586 -0.030839 0.299890
3.401649 -0.020448 0.300279
3.400699 -0.010009 0.300201
3.400714 0.000424 0.300201
3.399700 0.010854 0.300123
3.396660 0.021265 0.299890
3.394584 0.031667 0.299734
3.391481 0.042044 0.299501
3.391336 0.052449 0.299501
3.388169 0.062797 0.299268
3.390950 0.073257 0.299501
3.390709 0.083660 0.299501
3.390437 0.094062 0.299501
3.393122 0.104556 0.299734
3.394778 0.115033 0.299890
3.396401 0.125521 0.300045
3.395004 0.135901 0.299967
3.395567 0.146359 0.300045
3.395102 0.156775 0.300045
3.393610 0.167142 0.299967
3.392085 0.177500 0.299890
3.389534 0.187795 0.299734
3.387947 0.198135 0.299656
3.386328 0.208467 0.299579
3.386667 0.218919 0.299656
3.387969 0.229444 0.299812
3.388243 0.239907 0.299890
3.388486 0.250375 0.299967
3.390684 0.260999 0.300201
3.388873 0.271321 0.300123
3.391006 0.281964 0.300356
3.391634 -0.335736 0.279949
3.401584 -0.326183 0.280594
3.400583 -0.315562 0.280450
3.400541 -0.305038 0.280379
3.400467 -0.294519 0.280307
3.399367 -0.283919 0.280164
3.400222 -0.273489 0.280164
3.401045 -0.263056 0.280164
3.401836 -0.252620 0.280164
3.402595 -0.242182 0.280164
3.404317 -0.231810 0.280235
3.404017 -0.221300 0.280164
3.404680 -0.210856 0.280164
3.405311 -0.200409 0.280164
3.402922 -0.189795 0.279949
3.403488 -0.179354 0.279949
3.402030 -0.168814 0.279805
3.401536 -0.158329 0.279734
3.400012 -0.147807 0.279590
3.399453 -0.137335 0.279519
3.399858 -0.126905 0.279519
3.397241 -0.116373 0.279304
3.397582 -0.105949 0.279304
3.396894 -0.095498 0.279232
3.395177 -0.085026 0.279089
3.396419 -0.074631 0.279160
3.395635 -0.064192 0.279089
3.395816 -0.053774 0.279089
3.392973 -0.043319 0.278874
3.396082 -0.032937 0.279089
3.396167 -0.022518 0.279089
3.396220 -0.012099 0.279089
3.396241 -0.001679 0.279089
3.395233 0.008738 0.279017
3.390203 0.019124 0.278659
3.392123 0.029543 0.278802
3.392017 0.039950 0.278802
3.389884 0.050326 0.278659
3.387718 0.060689 0.278515
3.387516 0.071082 0.278515
3.386285 0.081450 0.278444
3.383028 0.091757 0.278229
3.386719 0.102257 0.278515
3.389380 0.112748 0.278730
3.389018 0.123146 0.278730
3.388624 0.133542 0.278730
3.392184 0.144109 0.279017
3.391726 0.154515 0.279017
3.389244 0.164822 0.278874
3.387726 0.175168 0.278802
3.384185 0.185396 0.278587
3.381609 0.195661 0.278444
3.379997 0.205974 0.278372
3.380345 0.216407 0.278444
3.378670 0.226709 0.278372
3.378953 0.237144 0.278444
3.378210 0.247510 0.278444
3.378429 0.257949 0.278515
3.376627 0.268233 0.278444
3.376783 0.278674 0.278515
3.374918 0.288947 0.278444
3.432033 -0.336331 0.262977
3.398282 -0.322489 0.260669
3.395281 -0.311695 0.260406
3.396222 -0.301277 0.260406
3.397130 -0.290856 0.260406
3.397012 -0.280350 0.260340
3.395867 -0.269768 0.260208
3.396678 -0.259348 0.260208
3.399448 -0.249073 0.260340
3.399201 -0.238572 0.260274
3.400913 -0.228210 0.260340
3.402592 -0.217839 0.260406
3.403245 -0.207399 0.260406
3.400877 -0.196783 0.260208
3.401464 -0.186348 0.260208
3.401023 -0.175860 0.260142
3.399554 -0.165327 0.260010
3.398052 -0.154805 0.259878
3.396517 -0.144294 0.259746
3.394949 -0.133794 0.259615
3.394346 -0.123341 0.259549
3.392715 -0.112860 0.259417
3.392047 -0.102420 0.259351
3.391348 -0.091985 0.259285
3.390617 -0.081556 0.259219
3.389853 -0.071132 0.259153
3.390056 -0.060732 0.259153
3.389228 -0.050316 0.259087
3.388369 -0.039906 0.259021
3.388476 -0.029510 0.259021
3.387552 -0.019108 0.258955
3.387595 -0.008715 0.258955
3.387606 0.001678 0.258955
3.388582 0.012074 0.259021
3.389527 0.022476 0.259087
3.391438 0.032894 0.259219
3.390323 0.043286 0.259153
3.390175 0.053687 0.259153
3.388996 0.064069 0.259087
3.389781 0.074488 0.259153
3.387542 0.084838 0.259021
3.387266 0.095230 0.259021
3.388952 0.105683 0.259153
3.389609 0.116114 0.259219
3.391232 0.126586 0.259351
3.393818 0.137110 0.259549
3.395375 0.147607 0.259681
3.393910 0.157977 0.259615
3.393409 0.168389 0.259615
3.391880 0.178747 0.259549
3.388327 0.188986 0.259351
3.385739 0.199264 0.259219
3.386107 0.209712 0.259285
3.386444 0.220164 0.259351
3.383761 0.230417 0.259219
3.386025 0.241009 0.259417
3.385269 0.251396 0.259417
3.383487 0.261704 0.259351
3.380679 0.271924 0.259219
3.379829 0.282294 0.259219
3.375965 0.292405 0.259021
3.370082 0.302317 0.258692
3.387679 -0.311327 0.238541
3.387624 -0.300844 0.238481
3.389525 -0.290535 0.238541
3.390401 -0.280135 0.238541
3.391244 -0.269732 0.238541
3.394046 -0.259479 0.238660
3.395822 -0.249138 0.238720
3.396570 -0.238719 0.238720
3.397287 -0.228297 0.238720
3.397971 -0.217873 0.238720
3.398623 -0.207447 0.238720
3.398247 -0.196962 0.238660
3.396842 -0.186425 0.238541
3.397398 -0.176003 0.238541
3.397922 -0.165579 0.238541
3.397417 -0.155108 0.238481
3.396880 -0.144642 0.238421
3.396310 -0.134180 0.238362
3.396706 -0.123760 0.238362
3.396072 -0.113305 0.238302
3.394408 -0.102825 0.238183
3.394707 -0.092410 0.238183
3.393977 -0.081971 0.238123
3.394212 -0.071558 0.238123
3.392420 -0.061108 0.238004
3.392591 -0.050700 0.238004
3.390735 -0.040267 0.237885
3.387848 -0.029838 0.237706
3.385927 -0.019432 0.237586
3.384972 -0.009042 0.237527
3.383986 0.001343 0.237467
3.385962 0.011732 0.237586
3.386909 0.022126 0.237646
3.389819 0.032545 0.237825
3.391700 0.042970 0.237944
3.392550 0.053391 0.238004
3.392370 0.063799 0.238004
3.392159 0.074206 0.238004
3.391915 0.084613 0.238004
3.391639 0.095019 0.238004
3.393327 0.105486 0.238123
3.393986 0.115930 0.238183
3.395609 0.126416 0.238302
3.398197 0.136953 0.238481
3.397761 0.147378 0.238481
3.395299 0.157709 0.238362
3.393802 0.168076 0.238302
3.391277 0.178382 0.238183
3.387723 0.188619 0.238004
3.387129 0.199012 0.238004
3.388495 0.209526 0.238123
3.389828 0.220049 0.238242
3.390133 0.230516 0.238302
3.393393 0.241198 0.238541
3.391641 0.251534 0.238481
3.388863 0.261785 0.238362
3.387049 0.272101 0.238302
3.384209 0.282325 0.238183
3.380343 0.292448 0.238004
3.376447 0.302551 0.237825
3.372521 0.312632 0.237646
3.412604 -0.315147 0.218542
3.383716 -0.302016 0.216941
3.384626 -0.291634 0.216941
3.387495 -0.281414 0.217048
3.388343 -0.271020 0.217048
3.390154 -0.260700 0.217101
3.392930 -0.250444 0.217208
3.391690 -0.239893 0.217101
3.392410 -0.229486 0.217101
3.394094 -0.219142 0.217154
3.390764 -0.208483 0.216941
3.388397 -0.197905 0.216781
3.388988 -0.187509 0.216781
3.389547 -0.177110 0.216781
3.389077 -0.166662 0.216727
3.390570 -0.156309 0.216781
3.391034 -0.145906 0.216781
3.391466 -0.135502 0.216781
3.390867 -0.125060 0.216727
3.391235 -0.114656 0.216727
3.390573 -0.104221 0.216674
3.390877 -0.093818 0.216674
3.391149 -0.083415 0.216674
3.392387 -0.073032 0.216727
3.392595 -0.062624 0.216727
3.392771 -0.052215 0.216727
3.388921 -0.041758 0.216514
3.386038 -0.031333 0.216354
3.383122 -0.020926 0.216193
3.382172 -0.010544 0.216140
3.380191 -0.000168 0.216033
3.379177 0.010199 0.215980
3.381127 0.020579 0.216087
3.382047 0.030961 0.216140
3.383933 0.041362 0.216247
3.384789 0.051759 0.216300
3.385612 0.062161 0.216354
3.385406 0.072548 0.216354
3.387164 0.082983 0.216460
3.386893 0.093374 0.216460
3.389585 0.103857 0.216620
3.391246 0.114323 0.216727
3.392875 0.124800 0.216834
3.393474 0.135249 0.216887
3.394041 0.145702 0.216941
3.390586 0.155976 0.216781
3.387099 0.166230 0.216620
3.384579 0.176517 0.216514
3.383024 0.186844 0.216460
3.381438 0.197164 0.216407
3.381814 0.207599 0.216460
3.384151 0.218166 0.216620
3.384462 0.228615 0.216674
3.386733 0.239209 0.216834
3.386979 0.249671 0.216887
3.385201 0.259985 0.216834
3.383392 0.270290 0.216781
3.381552 0.280586 0.216727
3.377691 0.290702 0.216567
3.375788 0.300974 0.216514
3.375843 0.311421 0.216567
3.366920 0.321018 0.216140
3.384608 -0.303615 0.195692
3.384528 -0.293144 0.195644
3.386407 -0.282841 0.195692
3.387259 -0.272451 0.195692
3.390071 -0.262211 0.195786
3.390859 -0.251809 0.195786
3.391616 -0.241405 0.195786
3.389351 -0.230796 0.195644
3.387052 -0.220203 0.195503
3.387712 -0.209811 0.195503
3.380362 -0.198949 0.195126
3.380957 -0.188578 0.195126
3.380522 -0.178152 0.195079
3.379057 -0.167681 0.194985
3.379556 -0.157314 0.194985
3.380023 -0.146945 0.194985
3.380457 -0.136574 0.194985
3.380860 -0.126203 0.194985
3.381232 -0.115830 0.194985
3.383568 -0.105517 0.195079
3.384874 -0.095164 0.195126
3.385150 -0.084779 0.195126
3.386393 -0.074414 0.195173
3.387604 -0.064043 0.195221
3.387785 -0.053650 0.195221
3.385936 -0.043231 0.195126
3.382057 -0.032806 0.194938
3.380144 -0.022417 0.194844
3.377200 -0.012037 0.194702
3.374225 -0.001676 0.194561
3.375213 0.008679 0.194608
3.374171 0.019028 0.194561
3.375096 0.029389 0.194608
3.375989 0.039756 0.194655
3.373853 0.050082 0.194561
3.376680 0.060488 0.194702
3.376479 0.070847 0.194702
3.379241 0.081279 0.194844
3.378976 0.091646 0.194844
3.380676 0.102073 0.194938
3.381345 0.112478 0.194985
3.382980 0.122924 0.195079
3.381589 0.133263 0.195032
3.382162 0.143679 0.195079
3.380708 0.154009 0.195032
3.379222 0.164331 0.194985
3.377704 0.174646 0.194938
3.378150 0.185063 0.194985
3.376569 0.195368 0.194938
3.376951 0.205787 0.194985
3.376303 0.216147 0.194985
3.376621 0.226571 0.195032
3.377903 0.237070 0.195126
3.377160 0.247432 0.195126
3.375389 0.257716 0.195079
3.374582 0.268070 0.195079
3.373744 0.278422 0.195079
3.370883 0.288600 0.194985
3.370977 0.299029 0.195032
3.369049 0.309278 0.194985
3.368084 0.319612 0.194985
3.352176 0.328478 0.194278
3.384680 -0.289786 0.176125
3.387545 -0.279565 0.176208
3.386395 -0.269012 0.176125
3.389196 -0.258775 0.176208
3.389974 -0.248376 0.176208
3.390720 -0.237974 0.176208
3.388444 -0.227369 0.176084
3.389125 -0.216972 0.176084
3.386783 -0.206390 0.175959
3.384408 -0.195824 0.175835
3.382000 -0.185275 0.175711
3.381555 -0.174847 0.175670
3.380080 -0.164373 0.175587
3.379570 -0.153957 0.175546
3.379028 -0.143545 0.175505
3.378454 -0.133138 0.175463
3.376850 -0.122699 0.175381
3.377210 -0.112339 0.175381
3.377539 -0.101977 0.175381
3.377836 -0.091614 0.175381
3.380099 -0.081300 0.175463
3.382330 -0.070972 0.175546
3.383531 -0.060613 0.175587
3.383701 -0.050232 0.175587
3.383839 -0.039851 0.175587
3.381947 -0.029451 0.175505
3.381023 -0.019069 0.175463
3.378068 -0.008688 0.175339
3.376080 0.001676 0.175257
3.375060 0.012030 0.175215
3.374008 0.022379 0.175174
3.372925 0.032720 0.175132
3.374806 0.043093 0.175215
3.374658 0.053447 0.175215
3.374479 0.063800 0.175215
3.374267 0.074152 0.175215
3.378019 0.084603 0.175381
3.377743 0.094966 0.175381
3.377436 0.105328 0.175381
3.378096 0.115723 0.175422
3.378723 0.126124 0.175463
3.377322 0.136449 0.175422
3.377886 0.146853 0.175463
3.377419 0.157215 0.175463
3.377919 0.167625 0.175505
3.376391 0.177936 0.175463
3.375829 0.188293 0.175463
3.376233 0.198708 0.175505
3.376605 0.209126 0.175546
3.373953 0.219356 0.175463
3.373265 0.229706 0.175463
3.372544 0.240054 0.175463
3.371792 0.250400 0.175463
3.369015 0.260589 0.175381
3.368200 0.270924 0.175381
3.368348 0.281339 0.175422
3.368465 0.291758 0.175463
3.367554 0.302091 0.175463
3.367606 0.312513 0.175505
3.368621 0.323033 0.175587
3.364631 0.333072 0.175463
3.385329 -0.280307 0.154842
3.386173 -0.269920 0.154842
3.386985 -0.259530 0.154842
3.388762 -0.249211 0.154877
3.389510 -0.238813 0.154877
3.389230 -0.228346 0.154842
3.388917 -0.217883 0.154807
3.387575 -0.207362 0.154737
3.384204 -0.196736 0.154596
3.381798 -0.186187 0.154491
3.380358 -0.175707 0.154421
3.380881 -0.165336 0.154421
3.378377 -0.154825 0.154316
3.375841 -0.144331 0.154211
3.379263 -0.134093 0.154316
3.376663 -0.123615 0.154211
3.376027 -0.113221 0.154175
3.377358 -0.102893 0.154211
3.376658 -0.092504 0.154175
3.376926 -0.082144 0.154175
3.379161 -0.071826 0.154246
3.381364 -0.061495 0.154316
3.381536 -0.051121 0.154316
3.382677 -0.040759 0.154351
3.381787 -0.030371 0.154316
3.381864 -0.019996 0.154316
3.379910 -0.009615 0.154246
3.379924 0.000755 0.154246
3.378906 0.011121 0.154211
3.379856 0.021494 0.154246
3.378775 0.031854 0.154211
3.380660 0.042244 0.154281
3.381513 0.052631 0.154316
3.381336 0.063005 0.154316
3.380128 0.073357 0.154281
3.381885 0.083776 0.154351
3.380613 0.094123 0.154316
3.377311 0.104402 0.154211
3.375977 0.114729 0.154175
3.376607 0.125123 0.154211
3.373212 0.135362 0.154105
3.371782 0.145667 0.154070
3.373316 0.156103 0.154140
3.374818 0.166550 0.154211
3.375289 0.176955 0.154246
3.376726 0.187420 0.154316
3.379128 0.197954 0.154421
3.379502 0.208381 0.154456
3.377850 0.218684 0.154421
3.376166 0.228979 0.154386
3.373454 0.239194 0.154316
3.370710 0.249395 0.154246
3.367937 0.259582 0.154175
3.365132 0.269754 0.154105
3.365284 0.280160 0.154140
3.365405 0.290569 0.154175
3.365493 0.300981 0.154211
3.365549 0.311397 0.154246
3.366567 0.321911 0.154316
3.367553 0.332434 0.154386
3.359558 0.342056 0.154140
3.383867 -0.270071 0.132330
3.384680 -0.259688 0.132330
3.385461 -0.249302 0.132330
3.386209 -0.238915 0.132330
3.384932 -0.228391 0.132273
3.384619 -0.217941 0.132244
3.383276 -0.207434 0.132187
3.380903 -0.196879 0.132102
3.379495 -0.186396 0.132045
3.378054 -0.175923 0.131988
3.377580 -0.165510 0.131960
3.376075 -0.155055 0.131903
3.376534 -0.144697 0.131903
3.376962 -0.134337 0.131903
3.376360 -0.123939 0.131875
3.374726 -0.113513 0.131818
3.376058 -0.103190 0.131846
3.375359 -0.092804 0.131818
3.376627 -0.082473 0.131846
3.377864 -0.072134 0.131875
3.380068 -0.061807 0.131931
3.380242 -0.051437 0.131931
3.384382 -0.041114 0.132045
3.387491 -0.030758 0.132131
3.386569 -0.020359 0.132102
3.385616 -0.009966 0.132074
3.385631 0.000421 0.132074
3.385614 0.010808 0.132074
3.384565 0.021188 0.132045
3.383485 0.031562 0.132017
3.384372 0.041955 0.132045
3.385226 0.052354 0.132074
3.382051 0.062683 0.131988
3.380844 0.073037 0.131960
3.380604 0.083409 0.131960
3.378334 0.093725 0.131903
3.375033 0.103996 0.131818
3.374698 0.114350 0.131818
3.374331 0.124703 0.131818
3.372934 0.135015 0.131789
3.371505 0.145319 0.131761
3.373040 0.155754 0.131818
3.374544 0.166200 0.131875
3.376014 0.176657 0.131931
3.376454 0.187069 0.131960
3.377860 0.197544 0.132017
3.376241 0.207845 0.131988
3.375587 0.218202 0.131988
3.371910 0.228354 0.131903
3.369199 0.238557 0.131846
3.366458 0.248744 0.131789
3.364682 0.258995 0.131761
3.362875 0.269236 0.131732
3.363030 0.279635 0.131761
3.364148 0.290123 0.131818
3.364238 0.300532 0.131846
3.364295 0.310944 0.131875
3.365315 0.321454 0.131931
3.365308 0.331876 0.131960
3.362285 0.341996 0.131903
3.378000 -0.261281 0.112709
3.376791 -0.250769 0.112663
3.377545 -0.240408 0.112663
3.379264 -0.230112 0.112686
3.378956 -0.219679 0.112663
3.379614 -0.209312 0.112663
3.377246 -0.198767 0.112595
3.375844 -0.188294 0.112550
3.375407 -0.177884 0.112527
3.372942 -0.167380 0.112459
3.371442 -0.156939 0.112414
3.369910 -0.146509 0.112368
3.368346 -0.136089 0.112323
3.370745 -0.125829 0.112368
3.371116 -0.115487 0.112368
3.372453 -0.105174 0.112391
3.371761 -0.094800 0.112368
3.371036 -0.084430 0.112346
3.372279 -0.074109 0.112368
3.373490 -0.063781 0.112391
3.373670 -0.053431 0.112391
3.376817 -0.043118 0.112459
3.377933 -0.032767 0.112482
3.378018 -0.022404 0.112482
3.379070 -0.012043 0.112505
3.379091 -0.001676 0.112505
3.379081 0.008691 0.112505
3.380038 0.019063 0.112527
3.378963 0.029424 0.112505
3.377858 0.039778 0.112482
3.378719 0.050156 0.112505
3.376550 0.060485 0.112459
3.373350 0.070780 0.112391
3.371119 0.081080 0.112346
3.369854 0.091395 0.112323
3.366560 0.101642 0.112255
3.366233 0.111970 0.112255
3.367872 0.122370 0.112300
3.368479 0.132742 0.112323
3.370054 0.143161 0.112368
3.370597 0.153545 0.112391
3.370111 0.163885 0.112391
3.370590 0.174276 0.112414
3.370040 0.184616 0.112414
3.371454 0.195070 0.112459
3.366848 0.205168 0.112368
3.366202 0.215497 0.112368
3.363530 0.225688 0.112323
3.362822 0.236006 0.112323
3.361085 0.246249 0.112300
3.360314 0.256559 0.112300
3.359511 0.266868 0.112300
3.359673 0.277256 0.112323
3.359802 0.287647 0.112346
3.360896 0.298131 0.112391
3.360961 0.308533 0.112414
3.360994 0.318937 0.112437
3.359999 0.329247 0.112437
3.358974 0.339554 0.112437
3.359905 0.350065 0.112482
3.363785 0.360907 0.112595
3.369733 -0.256693 0.091958
3.370504 -0.246354 0.091958
3.374236 -0.236222 0.092008
3.372950 -0.225735 0.091974
3.373627 -0.215386 0.091974
3.375270 -0.205096 0.091991
3.375883 -0.194740 0.091991
3.375466 -0.184327 0.091974
3.374019 -0.173867 0.091941
3.373538 -0.163466 0.091925
3.372025 -0.153024 0.091892
3.372479 -0.142678 0.091892
3.372901 -0.132330 0.091892
3.372292 -0.121945 0.091875
3.373649 -0.111632 0.091892
3.374975 -0.101312 0.091908
3.375270 -0.090957 0.091908
3.375534 -0.080601 0.091908
3.375765 -0.070245 0.091908
3.375965 -0.059888 0.091908
3.375133 -0.049515 0.091892
3.375269 -0.039160 0.091892
3.377373 -0.028823 0.091925
3.376445 -0.018455 0.091908
3.374486 -0.008091 0.091875
3.374495 0.002262 0.091875
3.374472 0.012615 0.091875
3.374418 0.022967 0.091875
3.374331 0.033320 0.091875
3.374213 0.043672 0.091875
3.372064 0.053992 0.091842
3.372882 0.064356 0.091858
3.370670 0.074660 0.091825
3.369425 0.084976 0.091809
3.368149 0.095285 0.091792
3.367841 0.105618 0.091792
3.366502 0.115916 0.091776
3.368129 0.126318 0.091809
3.366726 0.136610 0.091792
3.371286 0.147155 0.091875
3.369820 0.157451 0.091858
3.366325 0.167640 0.091809
3.365795 0.177967 0.091809
3.363236 0.188181 0.091776
3.362643 0.198499 0.091776
3.360023 0.208691 0.091742
3.358369 0.218934 0.091726
3.359676 0.229372 0.091759
3.356962 0.239536 0.091726
3.359203 0.250056 0.091776
3.359417 0.260437 0.091792
3.360595 0.270903 0.091825
3.360745 0.281295 0.091842
3.360862 0.291690 0.091858
3.360947 0.302089 0.091875
3.360004 0.312399 0.091875
3.361021 0.322896 0.091908
3.358024 0.333009 0.091875
3.354998 0.343107 0.091842
3.355918 0.353608 0.091875
3.352829 0.363687 0.091842
3.397797 -0.260954 0.072294
3.369662 -0.248393 0.071986
3.374398 -0.238336 0.072028
3.370125 -0.227645 0.071975
3.370807 -0.217304 0.071975
3.371458 -0.206962 0.071975
3.372077 -0.196617 0.071975
3.371666 -0.186216 0.071964
3.372222 -0.175871 0.071964
3.371747 -0.165475 0.071954
3.371240 -0.155084 0.071943
3.371700 -0.144740 0.071943
3.372128 -0.134395 0.071943
3.372524 -0.124049 0.071943
3.371890 -0.113668 0.071932
3.372222 -0.103323 0.071932
3.373523 -0.093004 0.071943
3.373793 -0.082654 0.071943
3.374030 -0.072303 0.071943
3.373236 -0.061933 0.071932
3.374410 -0.051599 0.071943
3.372553 -0.041221 0.071922
3.371664 -0.030865 0.071911
3.371742 -0.020521 0.071911
3.369790 -0.010170 0.071890
3.369805 0.000168 0.071890
3.370789 0.010510 0.071900
3.371741 0.020857 0.071911
3.373661 0.031220 0.071932
3.374549 0.041582 0.071943
3.374405 0.051935 0.071943
3.375230 0.062305 0.071954
3.375023 0.072660 0.071954
3.372785 0.082965 0.071932
3.371515 0.093285 0.071922
3.368214 0.103536 0.071890
3.366881 0.113836 0.071879
3.365517 0.124128 0.071868
3.365120 0.134453 0.071868
3.365691 0.144819 0.071879
3.366230 0.155190 0.071890
3.367735 0.165615 0.071911
3.367211 0.175946 0.071911
3.366656 0.186276 0.071911
3.366068 0.196603 0.071911
3.363453 0.206807 0.071890
3.364799 0.217254 0.071911
3.363119 0.227508 0.071900
3.362405 0.237825 0.071900
3.363654 0.248287 0.071922
3.364870 0.258758 0.071943
3.364061 0.269080 0.071943
3.365212 0.279565 0.071964
3.367327 0.290145 0.071996
3.366421 0.300475 0.071996
3.364488 0.310709 0.071986
3.362524 0.320935 0.071975
3.359533 0.331054 0.071954
3.355517 0.341056 0.071922
3.353460 0.351245 0.071911
3.349384 0.361210 0.071879
3.344285 0.371044 0.071837
3.386752 -0.249989 0.050339
3.366555 -0.238118 0.050251
3.366272 -0.227721 0.050247
3.364959 -0.217264 0.050238
3.365610 -0.206939 0.050238
3.366229 -0.196613 0.050238
3.365818 -0.186229 0.050234
3.366373 -0.175902 0.050234
3.367896 -0.165623 0.050238
3.368388 -0.155289 0.050238
3.368849 -0.144954 0.050238
3.369277 -0.134618 0.050238
3.368675 -0.124244 0.050234
3.368041 -0.113875 0.050230
3.367375 -0.103511 0.050226
3.367677 -0.093179 0.050226
3.366947 -0.082822 0.050222
3.368185 -0.072514 0.050226
3.365392 -0.062125 0.050213
3.366567 -0.051815 0.050217
3.366710 -0.041486 0.050217
3.365822 -0.031148 0.050213
3.363902 -0.020810 0.050205
3.364949 -0.010492 0.050209
3.362966 -0.000169 0.050201
3.365951 0.010158 0.050213
3.366904 0.020491 0.050217
3.369825 0.030848 0.050230
3.369714 0.041186 0.050230
3.371572 0.051555 0.050238
3.371397 0.061899 0.050238
3.371192 0.072242 0.050238
3.369955 0.082559 0.050234
3.364687 0.092760 0.050213
3.361388 0.102990 0.050201
3.358058 0.113200 0.050188
3.353698 0.123355 0.050171
3.351305 0.133563 0.050163
3.352878 0.143930 0.050171
3.354419 0.154308 0.050180
3.354928 0.164648 0.050184
3.358402 0.175149 0.050201
3.362841 0.185727 0.050222
3.369243 0.196452 0.050251
3.362636 0.206419 0.050226
3.360989 0.216670 0.050222
3.361306 0.227048 0.050226
3.356604 0.237077 0.050209
3.358853 0.247595 0.050222
3.360071 0.258052 0.050230
3.362254 0.268598 0.050243
3.363407 0.279078 0.050251
3.365524 0.289653 0.050263
3.364620 0.299977 0.050263
3.363684 0.310298 0.050263
3.360725 0.320426 0.050255
3.358731 0.330637 0.050251
3.351732 0.340333 0.050226
3.349677 0.350511 0.050222
3.346597 0.360571 0.050213
3.342494 0.370506 0.050201
3.334387 0.379965 0.050171
3.374454 -0.239600 0.029128
3.367192 -0.228707 0.029145
3.364884 -0.218182 0.029151
3.365537 -0.207858 0.029151
3.366159 -0.197532 0.029151
3.364753 -0.187093 0.029155
3.366309 -0.176821 0.029153
3.365837 -0.166444 0.029155
3.366332 -0.156117 0.029155
3.365796 -0.145745 0.029157
3.366227 -0.135419 0.029157
3.364628 -0.125017 0.029161
3.363997 -0.114660 0.029163
3.362333 -0.104278 0.029168
3.361638 -0.093934 0.029170
3.361910 -0.083620 0.029170
3.362151 -0.073306 0.029170
3.362360 -0.062990 0.029170
3.362537 -0.052675 0.029170
3.360683 -0.042334 0.029174
3.359797 -0.032014 0.029176
3.359880 -0.021706 0.029176
3.359931 -0.011398 0.029176
3.360950 -0.001090 0.029174
3.361937 0.009225 0.029172
3.362893 0.019545 0.029170
3.364817 0.029881 0.029165
3.365710 0.040216 0.029163
3.365571 0.050541 0.029163
3.365400 0.060867 0.029163
3.365197 0.071191 0.029163
3.361964 0.081442 0.029170
3.358699 0.091673 0.029176
3.353405 0.101823 0.029186
3.352077 0.112077 0.029189
3.348719 0.122250 0.029195
3.348329 0.132523 0.029195
3.347906 0.142795 0.029195
3.350449 0.153204 0.029189
3.350962 0.163531 0.029186
3.352442 0.173915 0.029182
3.355886 0.184420 0.029174
3.359298 0.194948 0.029165
3.356688 0.205131 0.029170
3.358039 0.215557 0.029165
3.356364 0.225791 0.029168
3.355655 0.236087 0.029168
3.353918 0.246307 0.029170
3.354144 0.256672 0.029168
3.354337 0.267041 0.029165
3.354499 0.277414 0.029163
3.356621 0.287961 0.029157
3.357713 0.298436 0.029153
3.355786 0.308644 0.029155
3.353828 0.318843 0.029157
3.351839 0.329032 0.029159
3.345840 0.338809 0.029170
3.344784 0.349072 0.029170
3.341709 0.359118 0.029174
3.340592 0.369368 0.029174
3.338449 0.379502 0.029176
3.337269 0.389742 0.029176
3.365247 -0.226391 0.009813
3.364928 -0.216002 0.009821
3.363579 -0.205554 0.009836
3.363195 -0.195176 0.009844
3.362780 -0.184802 0.009852
3.362332 -0.174432 0.009860
3.362852 -0.164115 0.009860
3.362340 -0.153751 0.009868
3.362796 -0.143435 0.009868
3.364220 -0.133158 0.009860
3.363613 -0.122799 0.009868
3.363974 -0.112479 0.009868
3.364303 -0.102158 0.009868
3.361602 -0.091753 0.009891
3.361868 -0.081439 0.009891
3.361102 -0.071103 0.009899
3.359305 -0.060754 0.009915
3.360475 -0.050463 0.009907
3.359614 -0.040141 0.009915
3.358722 -0.029824 0.009923
3.358798 -0.019520 0.009923
3.357842 -0.009212 0.009931
3.357854 0.001090 0.009931
3.358835 0.011395 0.009923
3.359784 0.021705 0.009915
3.358702 0.032004 0.009923
3.358588 0.042308 0.009923
3.359442 0.052627 0.009915
3.359265 0.062934 0.009915
3.359056 0.073239 0.009915
3.358815 0.083544 0.009915
3.356544 0.093794 0.009931
3.355241 0.104060 0.009939
3.354906 0.114353 0.009939
3.354539 0.124646 0.009939
3.352143 0.134857 0.009954
3.351713 0.145140 0.009954
3.350253 0.155377 0.009962
3.351758 0.165753 0.009946
3.349237 0.175931 0.009962
3.349680 0.186260 0.009954
3.351089 0.196653 0.009939
3.352466 0.207055 0.009923
3.350817 0.217275 0.009931
3.349137 0.227487 0.009939
3.351416 0.237972 0.009915
3.349673 0.248180 0.009923
3.350890 0.258608 0.009907
3.349084 0.268808 0.009915
3.350236 0.279247 0.009899
3.349364 0.289524 0.009899
3.349456 0.299887 0.009891
3.349516 0.310253 0.009884
3.347553 0.320433 0.009891
3.345559 0.330604 0.009899
3.342539 0.340664 0.009915
3.341478 0.350917 0.009915
3.338398 0.360953 0.009931
3.338268 0.371303 0.009923
3.337113 0.381543 0.009923
3.337914 0.392012 0.009907
3.317832 0.399984 0.010056
3.364743 -0.215739 -0.011851
3.364390 -0.205354 -0.011837
3.363008 -0.194915 -0.011808
3.361593 -0.184487 -0.011780
3.361145 -0.174121 -0.011765
3.360665 -0.163760 -0.011751
3.360153 -0.153403 -0.011737
3.360607 -0.143093 -0.011737
3.361031 -0.132782 -0.011737
3.360423 -0.122434 -0.011722
3.361782 -0.112157 -0.011737
3.362110 -0.101843 -0.011737
3.362407 -0.091527 -0.011737
3.361672 -0.081187 -0.011722
3.361906 -0.070873 -0.011722
3.362107 -0.060559 -0.011722
3.362277 -0.050243 -0.011722
3.360416 -0.039904 -0.011694
3.362522 -0.029612 -0.011722
3.362597 -0.019296 -0.011722
3.362641 -0.008979 -0.011722
3.362652 0.001337 -0.011722
3.361633 0.011650 -0.011708
3.360581 0.021957 -0.011694
3.359498 0.032258 -0.011679
3.359383 0.042564 -0.011679
3.358237 0.052855 -0.011665
3.359059 0.063176 -0.011679
3.358849 0.073481 -0.011679
3.359607 0.083811 -0.011694
3.361334 0.094173 -0.011722
3.362028 0.104516 -0.011737
3.360693 0.114796 -0.011722
3.361324 0.125143 -0.011737
3.360924 0.135455 -0.011737
3.360492 0.145766 -0.011737
3.359031 0.156028 -0.011722
3.357538 0.166284 -0.011708
3.356013 0.176531 -0.011694
3.353459 0.186716 -0.011665
3.353868 0.197062 -0.011679
3.353248 0.207350 -0.011679
3.353594 0.217701 -0.011694
3.352910 0.227989 -0.011694
3.354190 0.238416 -0.011722
3.353443 0.248706 -0.011722
3.352664 0.258993 -0.011722
3.350857 0.269197 -0.011708
3.350015 0.279476 -0.011708
3.348146 0.289667 -0.011694
3.347241 0.299937 -0.011694
3.342323 0.309836 -0.011637
3.345338 0.320470 -0.011694
3.342349 0.330535 -0.011665
3.342314 0.340889 -0.011679
3.343241 0.351350 -0.011708
3.343142 0.361713 -0.011722
3.342016 0.371968 -0.011722
3.340859 0.382219 -0.011722
3.341657 0.392700 -0.011751
3.339444 0.402831 -0.011737
3.353077 0.414914 -0.011951
3.341331 -0.215741 -0.032462
3.357944 -0.206469 -0.032791
3.356565 -0.196049 -0.032750
3.355154 -0.185641 -0.032709
3.355708 -0.175346 -0.032709
3.355231 -0.165001 -0.032688
3.354723 -0.154661 -0.032668
3.353184 -0.144282 -0.032627
3.353611 -0.133994 -0.032627
3.351009 -0.123595 -0.032565
3.349374 -0.113246 -0.032524
3.348706 -0.102939 -0.032503
3.348007 -0.092637 -0.032482
3.346276 -0.082316 -0.032441
3.345514 -0.072028 -0.032421
3.346718 -0.061782 -0.032441
3.346892 -0.051515 -0.032441
3.349034 -0.041271 -0.032482
3.350144 -0.031005 -0.032503
3.350224 -0.020727 -0.032503
3.353271 -0.010457 -0.032565
3.353287 -0.000169 -0.032565
3.351273 0.010112 -0.032524
3.350226 0.020387 -0.032503
3.350148 0.030666 -0.032503
3.347039 0.040907 -0.032441
3.346897 0.051175 -0.032441
3.349724 0.061498 -0.032503
3.349519 0.071775 -0.032503
3.350283 0.082075 -0.032524
3.350015 0.092353 -0.032524
3.351715 0.102692 -0.032565
3.351384 0.112974 -0.032565
3.352021 0.123293 -0.032585
3.351626 0.133576 -0.032585
3.352200 0.143901 -0.032606
3.349745 0.154093 -0.032565
3.349257 0.164369 -0.032565
3.347738 0.174591 -0.032544
3.347187 0.184861 -0.032544
3.345606 0.195071 -0.032524
3.344991 0.205334 -0.032524
3.346341 0.215724 -0.032565
3.346661 0.226057 -0.032585
3.347946 0.236465 -0.032627
3.350196 0.246956 -0.032688
3.351417 0.257386 -0.032730
3.351608 0.267747 -0.032750
3.349774 0.277945 -0.032730
3.347910 0.288135 -0.032709
3.343027 0.298049 -0.032627
3.341101 0.308212 -0.032606
3.338149 0.318271 -0.032565
3.337157 0.328511 -0.032565
3.339117 0.339051 -0.032627
3.340050 0.349502 -0.032668
3.341944 0.360069 -0.032730
3.342811 0.370541 -0.032771
3.341659 0.380795 -0.032771
3.341468 0.391161 -0.032791
3.338267 0.401172 -0.032750
3.337020 0.411412 -0.032750
3.343362 -0.207079 -0.052871
3.356954 -0.197580 -0.053218
3.355549 -0.187169 -0.053165
3.355109 -0.176821 -0.053138
3.354637 -0.166478 -0.053111
3.355132 -0.156185 -0.053111
3.352599 -0.145762 -0.053031
3.352032 -0.135436 -0.053004
3.349435 -0.125040 -0.052924
3.347804 -0.114696 -0.052871
3.343145 -0.104271 -0.052737
3.342449 -0.093986 -0.052711
3.339724 -0.083657 -0.052631
3.339965 -0.073410 -0.052631
3.339175 -0.063144 -0.052604
3.341352 -0.052931 -0.052657
3.343498 -0.042704 -0.052711
3.344613 -0.032456 -0.052737
3.340698 -0.022169 -0.052631
3.348747 -0.011946 -0.052844
3.346769 -0.001671 -0.052791
3.345759 0.008593 -0.052764
3.346716 0.018864 -0.052791
3.344644 0.029113 -0.052737
3.343539 0.039362 -0.052711
3.343402 0.049620 -0.052711
3.345233 0.059914 -0.052764
3.344034 0.070155 -0.052737
3.345802 0.080463 -0.052791
3.344540 0.090700 -0.052764
3.345246 0.100991 -0.052791
3.343921 0.111220 -0.052764
3.343564 0.121478 -0.052764
3.344174 0.131775 -0.052791
3.344753 0.142077 -0.052817
3.342304 0.152247 -0.052764
3.344817 0.162647 -0.052844
3.345300 0.172959 -0.052871
3.345752 0.183277 -0.052898
3.346172 0.193599 -0.052924
3.343567 0.203741 -0.052871
3.342926 0.213998 -0.052871
3.343251 0.224321 -0.052898
3.344541 0.234717 -0.052951
3.345799 0.245124 -0.053004
3.347025 0.255540 -0.053058
3.347222 0.265887 -0.053084
3.347387 0.276238 -0.053111
3.344532 0.286335 -0.053058
3.341646 0.296417 -0.053004
3.338730 0.306484 -0.052951
3.336779 0.316631 -0.052924
3.335792 0.326866 -0.052924
3.336762 0.337301 -0.052978
3.339689 0.347952 -0.053084
3.342581 0.358624 -0.053191
3.342458 0.368988 -0.053218
3.344290 0.379580 -0.053298
3.342117 0.389722 -0.053271
3.339913 0.399854 -0.053245
3.333710 0.409488 -0.053111
3.308636 0.416708 -0.052470
3.351942 -0.204839 -0.072364
3.357544 -0.194846 -0.072526
3.355132 -0.184379 -0.072429
3.354684 -0.174032 -0.072396
3.354203 -0.163690 -0.072364
3.354690 -0.153399 -0.072364
3.352149 -0.142977 -0.072267
3.351573 -0.132653 -0.072234
3.348968 -0.122259 -0.072137
3.347330 -0.111917 -0.072072
3.339665 -0.101401 -0.071812
3.340960 -0.091182 -0.071845
3.339226 -0.080883 -0.071780
3.336460 -0.070573 -0.071682
3.336661 -0.060337 -0.071682
3.337830 -0.050115 -0.071715
3.338967 -0.039887 -0.071747
3.342072 -0.029671 -0.071845
3.342147 -0.019417 -0.071845
3.343191 -0.009167 -0.071877
3.343203 0.001090 -0.071877
3.339186 0.011335 -0.071747
3.338136 0.021573 -0.071715
3.337055 0.031805 -0.071682
3.335942 0.042031 -0.071650
3.335798 0.052265 -0.071650
3.339619 0.062572 -0.071780
3.337413 0.072775 -0.071715
3.339172 0.083063 -0.071780
3.337902 0.093279 -0.071747
3.338599 0.103550 -0.071780
3.337267 0.113758 -0.071747
3.337901 0.124033 -0.071780
3.337505 0.134273 -0.071780
3.339074 0.144598 -0.071845
3.339613 0.154887 -0.071877
3.340121 0.165181 -0.071910
3.340596 0.175480 -0.071942
3.341040 0.185783 -0.071974
3.340455 0.196032 -0.071974
3.339838 0.206280 -0.071974
3.341184 0.216654 -0.072039
3.338509 0.226769 -0.071974
3.340788 0.237221 -0.072072
3.341042 0.247543 -0.072104
3.342260 0.257945 -0.072169
3.343445 0.268357 -0.072234
3.342606 0.278613 -0.072234
3.341736 0.288867 -0.072234
3.338843 0.298940 -0.072169
3.337910 0.309182 -0.072169
3.335950 0.319327 -0.072137
3.332966 0.329364 -0.072072
3.333928 0.339790 -0.072137
3.335852 0.350329 -0.072234
3.337743 0.360882 -0.072331
3.338607 0.371341 -0.072396
3.339438 0.381808 -0.072461
3.338251 0.392052 -0.072461
3.337032 0.402292 -0.072461
3.335783 0.412528 -0.072461
3.334501 0.422760 -0.072461
3.350795 -0.195374 -0.093324
3.355370 -0.185314 -0.093479
3.354924 -0.174967 -0.093440
3.353449 -0.164575 -0.093363
3.352940 -0.154240 -0.093324
3.353398 -0.143953 -0.093324
3.350828 -0.133544 -0.093208
3.349225 -0.123190 -0.093130
3.346591 -0.112812 -0.093014
3.346921 -0.102545 -0.093014
3.347220 -0.092276 -0.093014
3.345490 -0.081957 -0.092937
3.344727 -0.071671 -0.092898
3.344931 -0.061410 -0.092898
3.345103 -0.051147 -0.092898
3.347243 -0.040909 -0.092975
3.348352 -0.030649 -0.093014
3.345432 -0.020358 -0.092898
3.345479 -0.010094 -0.092898
3.342497 0.000170 -0.092782
3.341481 0.010422 -0.092743
3.339435 0.020661 -0.092666
3.339356 0.030906 -0.092666
3.339245 0.041151 -0.092666
3.338104 0.051380 -0.092627
3.338930 0.061640 -0.092666
3.338725 0.071883 -0.092666
3.340487 0.082175 -0.092743
3.338221 0.092368 -0.092666
3.337922 0.102609 -0.092666
3.337592 0.112849 -0.092666
3.339227 0.123161 -0.092743
3.338833 0.133405 -0.092743
3.340405 0.143734 -0.092820
3.340946 0.154027 -0.092859
3.341456 0.164325 -0.092898
3.340936 0.174576 -0.092898
3.342381 0.184935 -0.092975
3.341797 0.195189 -0.092975
3.342180 0.205501 -0.093014
3.341534 0.215754 -0.093014
3.342850 0.226139 -0.093092
3.340147 0.236253 -0.093014
3.340403 0.246573 -0.093053
3.339631 0.256820 -0.093053
3.339823 0.267144 -0.093092
3.336997 0.277224 -0.093014
3.336130 0.287461 -0.093014
3.335233 0.297695 -0.093014
3.334304 0.307925 -0.093014
3.333343 0.318154 -0.093014
3.332351 0.328379 -0.093014
3.331328 0.338601 -0.093014
3.334249 0.349235 -0.093169
3.335149 0.359677 -0.093247
3.336016 0.370128 -0.093324
3.336851 0.380587 -0.093401
3.337652 0.391055 -0.093479
3.360444 -0.187104 -0.113592
3.349031 -0.176165 -0.113056
3.349555 -0.165889 -0.113056
3.348053 -0.155520 -0.112967
3.349512 -0.145290 -0.113012
3.345949 -0.134853 -0.112833
3.343353 -0.124476 -0.112699
3.341722 -0.114150 -0.112610
3.340059 -0.103836 -0.112520
3.340362 -0.093588 -0.112520
3.339635 -0.083315 -0.112476
