# This PCD file was generated using the MATLAB® pcwrite function
# from Computer Vision Toolbox®.
# .PCD v.7 - Point Cloud Data file format
VERSION .7
FIELDS x y z
SIZE 4 4 4
TYPE F F F
COUNT 1 1 1
WIDTH 1734
HEIGHT 1
VIEWPOINT 0 0 0 1 0 0 0
POINTS 1734
DATA ascii
3.357745 0.156891 0.503998
3.353292 0.166996 0.503444
3.348808 0.177075 0.502890
3.341327 0.186963 0.501921
3.338760 0.197097 0.501644
3.331220 0.206912 0.500675
3.328593 0.217003 0.500398
3.320995 0.226744 0.499428
3.326211 0.237353 0.500259
3.322504 0.247337 0.499844
3.318768 0.257300 0.499428
3.315001 0.267243 0.499013
3.314166 0.277412 0.499013
3.309352 0.287237 0.498459
3.479066 -0.147545 0.499311
3.476532 -0.136754 0.498914
3.461086 -0.125511 0.496795
3.463436 -0.114958 0.497060
3.458819 -0.104182 0.496398
3.461104 -0.093623 0.496663
3.461375 -0.083004 0.496663
3.458640 -0.072322 0.496265
3.451909 -0.061586 0.495338
3.446135 -0.050907 0.494544
3.441319 -0.040276 0.493882
3.433497 -0.029649 0.492822
3.426634 -0.019075 0.491895
3.418747 -0.008542 0.490836
3.413801 0.001945 0.490174
3.407832 0.012397 0.489379
3.404804 0.022833 0.488982
3.401745 0.033249 0.488584
3.402618 0.043698 0.488717
3.401477 0.054122 0.488584
3.400304 0.064538 0.488452
3.395135 0.074861 0.487790
3.390926 0.085178 0.487260
3.382722 0.095358 0.486201
3.376469 0.105551 0.485406
3.370186 0.115706 0.484612
3.365853 0.125897 0.484082
3.360499 0.136023 0.483420
3.355114 0.146117 0.482758
3.351680 0.156271 0.482360
3.347225 0.166357 0.481831
3.340760 0.176313 0.481036
3.335255 0.186285 0.480374
3.330710 0.196284 0.479844
3.328113 0.206379 0.479579
3.325486 0.216460 0.479314
3.322829 0.226527 0.479050
3.321129 0.236650 0.478917
3.323353 0.247058 0.479314
3.317638 0.256871 0.478652
3.313871 0.266809 0.478255
3.314024 0.277057 0.478387
3.309209 0.286882 0.477858
3.515216 -0.194478 0.483289
3.483105 -0.181988 0.479113
3.479684 -0.171107 0.478607
3.478211 -0.160340 0.478354
3.472740 -0.149413 0.477594
3.467235 -0.138521 0.476835
3.463679 -0.127737 0.476329
3.460089 -0.116976 0.475823
3.453491 -0.106148 0.474937
3.450826 -0.095470 0.474557
3.448127 -0.084810 0.474178
3.442421 -0.074103 0.473418
3.436681 -0.063433 0.472659
3.436860 -0.052889 0.472659
3.428079 -0.042236 0.471520
3.424225 -0.031682 0.471014
3.417362 -0.021134 0.470128
3.411459 -0.010632 0.469369
3.406516 -0.000166 0.468736
3.402533 0.010273 0.468230
3.397525 0.020681 0.467597
3.394470 0.031076 0.467218
3.393367 0.041478 0.467091
3.391240 0.051858 0.466838
3.389081 0.062225 0.466585
3.385899 0.072559 0.466205
3.382686 0.082873 0.465826
3.377458 0.093113 0.465193
3.370216 0.103261 0.464307
3.363935 0.113399 0.463548
3.358614 0.123536 0.462915
3.353264 0.133641 0.462282
3.347883 0.143715 0.461650
3.343462 0.153803 0.461143
3.339012 0.163865 0.460637
3.333540 0.173849 0.460005
3.329030 0.183856 0.459498
3.326469 0.193953 0.459245
3.323878 0.204036 0.458992
3.320267 0.214040 0.458613
3.318605 0.224159 0.458486
3.314933 0.234129 0.458106
3.312221 0.244152 0.457853
3.308489 0.254084 0.457474
3.302750 0.263838 0.456841
3.297971 0.273641 0.456335
3.294151 0.283502 0.455955
3.293266 0.293607 0.455955
3.509370 -0.237702 0.459926
3.504138 -0.226552 0.459205
3.498872 -0.215436 0.458484
3.495552 -0.204470 0.458004
3.489224 -0.193363 0.457163
3.482861 -0.182296 0.456322
3.480429 -0.171465 0.455961
3.478955 -0.160695 0.455721
3.475464 -0.149851 0.455241
3.468964 -0.138912 0.454400
3.464413 -0.128087 0.453799
3.458837 -0.117258 0.453078
3.449257 -0.106344 0.451877
3.448575 -0.095734 0.451757
3.438928 -0.084912 0.450555
3.430239 -0.074171 0.449474
3.427473 -0.063592 0.449114
3.424674 -0.053031 0.448753
3.419857 -0.042464 0.448153
3.417986 -0.031954 0.447912
3.416082 -0.021456 0.447672
3.410176 -0.010959 0.446951
3.404237 -0.000497 0.446230
3.401244 0.009937 0.445870
3.395241 0.020334 0.445149
3.392184 0.030722 0.444789
3.388103 0.041080 0.444308
3.385976 0.051443 0.444068
3.380839 0.061739 0.443467
3.379642 0.072089 0.443347
3.375435 0.082359 0.442867
3.371197 0.092604 0.442386
3.366928 0.102824 0.441905
3.362628 0.113018 0.441425
3.357305 0.123150 0.440824
3.353935 0.133330 0.440464
3.348551 0.143405 0.439863
3.344129 0.153495 0.439383
3.339676 0.163558 0.438902
3.337175 0.173699 0.438662
3.332662 0.183717 0.438181
3.328118 0.193708 0.437701
3.326518 0.203857 0.437580
3.321914 0.213805 0.437100
3.319261 0.223861 0.436860
3.312617 0.233622 0.436139
3.310895 0.243711 0.436019
3.305182 0.253486 0.435418
3.298451 0.263149 0.434697
3.294661 0.273021 0.434337
3.289851 0.282786 0.433856
3.283035 0.292347 0.433135
3.279157 0.302144 0.432775
3.284144 0.312769 0.433496
3.519410 -0.268762 0.441508
3.529135 -0.258619 0.442540
3.522975 -0.247302 0.441738
3.517770 -0.236091 0.441050
3.511539 -0.224851 0.440248
3.506262 -0.213712 0.439560
3.498968 -0.202492 0.438644
3.490645 -0.191264 0.437612
3.484271 -0.180193 0.436810
3.478854 -0.169211 0.436123
3.474395 -0.158309 0.435550
3.468910 -0.147394 0.434862
3.466367 -0.136633 0.434518
3.459821 -0.125743 0.433716
3.452248 -0.114860 0.432800
3.443647 -0.103996 0.431768
3.438985 -0.093294 0.431195
3.432303 -0.082573 0.430393
3.424595 -0.071873 0.429476
3.420826 -0.061294 0.429018
3.417025 -0.050738 0.428560
3.418158 -0.040267 0.428674
3.409325 -0.029699 0.427643
3.403440 -0.019203 0.426955
3.400502 -0.008753 0.426612
3.397533 0.001679 0.426268
3.393538 0.012090 0.425810
3.388518 0.022470 0.425237
3.383466 0.032819 0.424664
3.379377 0.043150 0.424205
3.377242 0.053487 0.423976
3.372096 0.063755 0.423403
3.369898 0.074058 0.423174
3.366675 0.084322 0.422830
3.363422 0.094568 0.422486
3.360137 0.104795 0.422143
3.354836 0.114935 0.421570
3.350496 0.125080 0.421111
3.346126 0.135199 0.420653
3.342718 0.145336 0.420309
3.337295 0.155361 0.419736
3.334818 0.165501 0.419507
3.336279 0.175836 0.419736
3.326797 0.185575 0.418705
3.326211 0.195781 0.418705
3.319646 0.205618 0.418017
3.317017 0.215674 0.417788
3.312375 0.225581 0.417330
3.305722 0.235321 0.416642
3.302012 0.245242 0.416299
3.296292 0.254990 0.415726
3.291533 0.264784 0.415267
3.286745 0.274552 0.414809
3.283908 0.284463 0.414580
3.281041 0.294360 0.414351
3.278144 0.304242 0.414121
3.520950 -0.268580 0.419314
3.533655 -0.258649 0.420614
3.532448 -0.247667 0.420397
3.526248 -0.236362 0.419639
3.521004 -0.225162 0.418989
3.513740 -0.213874 0.418122
3.504455 -0.202519 0.417039
3.496127 -0.191276 0.416063
3.490740 -0.180241 0.415413
3.486312 -0.169289 0.414872
3.478870 -0.158230 0.414005
3.472387 -0.147261 0.413246
3.467856 -0.136411 0.412705
3.453356 -0.125229 0.411079
3.451737 -0.114568 0.410863
3.446110 -0.103797 0.410213
3.440450 -0.093062 0.409563
3.433763 -0.082339 0.408804
3.428036 -0.071679 0.408154
3.423270 -0.061072 0.407612
3.420459 -0.050525 0.407287
3.414634 -0.039961 0.406637
3.411758 -0.029458 0.406312
3.406862 -0.018963 0.405771
3.402927 -0.008500 0.405337
3.396973 0.001937 0.404687
3.393969 0.012348 0.404362
3.387950 0.022721 0.403712
3.384882 0.033087 0.403387
3.382777 0.043446 0.403170
3.378652 0.053761 0.402737
3.375489 0.064070 0.402412
3.374283 0.074404 0.402303
3.370063 0.084656 0.401870
3.366807 0.094911 0.401545
3.362525 0.105116 0.401112
3.358212 0.115296 0.400678
3.352876 0.125413 0.400137
3.347509 0.135498 0.399595
3.343105 0.145595 0.399161
3.337677 0.155620 0.398620
3.333212 0.165662 0.398186
3.327725 0.175626 0.397645
3.324193 0.185669 0.397319
3.320630 0.195691 0.396994
3.316045 0.205632 0.396561
3.314407 0.215740 0.396453
3.311746 0.225773 0.396236
3.309054 0.235791 0.396019
3.304350 0.245647 0.395586
3.301598 0.255631 0.395369
3.297826 0.265519 0.395044
3.293033 0.275305 0.394611
3.290192 0.285235 0.394394
3.288311 0.295239 0.394286
3.285410 0.305142 0.394069
3.282479 0.315031 0.393852
3.281497 0.325100 0.393852
3.526844 -0.260314 0.398139
3.530603 -0.249702 0.398446
3.524405 -0.238400 0.397730
3.516185 -0.227011 0.396810
3.511901 -0.215917 0.396298
3.505595 -0.204737 0.395583
3.495281 -0.193377 0.394458
3.487911 -0.182239 0.393639
3.482492 -0.171245 0.393026
3.476045 -0.160240 0.392310
3.472545 -0.149404 0.391901
3.467023 -0.138512 0.391287
3.459479 -0.127583 0.390469
3.449912 -0.116633 0.389446
3.445282 -0.105897 0.388935
3.441613 -0.095216 0.388526
3.434928 -0.084487 0.387810
3.430199 -0.073842 0.387299
3.425436 -0.063226 0.386787
3.420641 -0.052641 0.386276
3.413823 -0.042062 0.385560
3.409957 -0.031551 0.385151
3.405065 -0.021060 0.384640
3.401134 -0.010601 0.384230
3.395182 -0.000167 0.383617
3.393177 0.010243 0.383412
3.388156 0.020623 0.382901
3.385093 0.030990 0.382594
3.381003 0.041326 0.382185
3.380860 0.051698 0.382185
3.374718 0.061960 0.381571
3.371529 0.072249 0.381265
3.368308 0.082519 0.380958
3.367044 0.092825 0.380855
3.358789 0.102910 0.380037
3.355475 0.113113 0.379730
3.346166 0.123077 0.378810
3.343785 0.133263 0.378605
3.339385 0.143349 0.378196
3.332967 0.153319 0.377583
3.328507 0.163348 0.377174
3.323023 0.173299 0.376662
3.316516 0.183164 0.376049
3.311966 0.193106 0.375640
3.307387 0.203021 0.375231
3.305756 0.213103 0.375128
3.303101 0.223110 0.374924
3.301409 0.233172 0.374821
3.298694 0.243153 0.374617
3.297932 0.253272 0.374617
3.294165 0.263151 0.374310
3.291360 0.273092 0.374106
3.287533 0.282932 0.373799
3.284668 0.292840 0.373594
3.280782 0.302641 0.373287
3.276868 0.312421 0.372981
3.275894 0.322473 0.372981
3.514828 -0.249519 0.374571
3.520543 -0.239070 0.375051
3.513313 -0.227755 0.374283
3.505054 -0.216426 0.373419
3.502720 -0.205498 0.373131
3.491408 -0.194092 0.371979
3.483040 -0.182913 0.371115
3.476626 -0.171884 0.370442
3.470177 -0.160897 0.369770
3.461704 -0.149865 0.368906
3.459163 -0.139125 0.368618
3.455595 -0.128366 0.368234
3.451993 -0.117629 0.367850
3.450348 -0.106977 0.367658
3.443695 -0.096199 0.366986
3.438999 -0.085511 0.366506
3.429293 -0.074746 0.365545
3.423535 -0.064115 0.364969
3.419735 -0.053551 0.364585
3.414907 -0.042998 0.364105
3.413032 -0.032503 0.363913
3.406148 -0.021989 0.363241
3.405204 -0.011536 0.363145
3.399251 -0.001089 0.362569
3.396252 0.009331 0.362281
3.391231 0.019719 0.361801
3.387173 0.030087 0.361417
3.382088 0.040417 0.360937
3.377967 0.050732 0.360552
3.373815 0.061022 0.360168
3.369631 0.071287 0.359784
3.367407 0.081575 0.359592
3.363160 0.091796 0.359208
3.359878 0.102022 0.358920
3.356565 0.112229 0.358632
3.354215 0.122452 0.358440
3.348851 0.132544 0.357960
3.343456 0.142604 0.357480
3.340020 0.152723 0.357192
3.332577 0.162627 0.356520
3.327092 0.172591 0.356040
3.321577 0.182523 0.355559
3.317027 0.192481 0.355175
3.311453 0.202351 0.354695
3.308830 0.212381 0.354503
3.307170 0.222464 0.354407
3.305479 0.232539 0.354311
3.302765 0.242533 0.354119
3.302005 0.252664 0.354119
3.296253 0.262397 0.353639
3.293449 0.272344 0.353447
3.287639 0.282019 0.352967
3.282793 0.291751 0.352583
3.276927 0.301363 0.352103
3.273014 0.311132 0.351815
3.266100 0.320586 0.351239
3.266092 0.330705 0.351335
3.518940 -0.246403 0.354542
3.515705 -0.235338 0.354181
3.512435 -0.224296 0.353820
3.507142 -0.213154 0.353278
3.499826 -0.201932 0.352556
3.492474 -0.190757 0.351834
3.482102 -0.179473 0.350841
3.473684 -0.168353 0.350028
3.467220 -0.157376 0.349396
3.462711 -0.146526 0.348945
3.458169 -0.135705 0.348493
3.454588 -0.124950 0.348132
3.452964 -0.114284 0.347951
3.446330 -0.103478 0.347319
3.440658 -0.092742 0.346778
3.431966 -0.081968 0.345965
3.426227 -0.071312 0.345423
3.420455 -0.060693 0.344882
3.416642 -0.050139 0.344521
3.414788 -0.039633 0.344340
3.410910 -0.029121 0.343979
3.406004 -0.018627 0.343527
3.403057 -0.008169 0.343257
3.398087 0.002270 0.342805
3.392088 0.012675 0.342263
3.385062 0.023036 0.341631
3.379000 0.033364 0.341090
3.373903 0.043668 0.340638
3.369770 0.053956 0.340277
3.365606 0.064220 0.339916
3.363401 0.074502 0.339736
3.360170 0.084746 0.339465
3.356908 0.094971 0.339194
3.355605 0.105238 0.339104
3.354271 0.115499 0.339013
3.350915 0.125678 0.338742
3.347529 0.135838 0.338472
3.343116 0.145935 0.338110
3.337679 0.155960 0.337659
3.332211 0.165953 0.337208
3.328702 0.176019 0.336937
3.325164 0.186064 0.336666
3.317618 0.195856 0.336034
3.311037 0.205665 0.335492
3.307409 0.215629 0.335221
3.302758 0.225505 0.334860
3.301057 0.235566 0.334770
3.298332 0.245546 0.334589
3.296570 0.255587 0.334499
3.290807 0.265301 0.334048
3.289978 0.275396 0.334048
3.287133 0.285317 0.333867
3.282274 0.295045 0.333506
3.278378 0.304838 0.333235
3.277428 0.314894 0.333235
3.273473 0.324654 0.332964
3.270480 0.334493 0.332784
3.286276 0.346294 0.334318
3.516477 -0.237548 0.332663
3.510228 -0.226309 0.332074
3.505933 -0.215232 0.331653
3.503593 -0.204301 0.331400
3.493259 -0.192945 0.330474
3.489854 -0.182019 0.330137
3.478453 -0.170724 0.329127
3.475974 -0.159914 0.328874
3.468484 -0.148906 0.328201
3.463947 -0.138065 0.327780
3.457384 -0.127180 0.327190
3.453774 -0.116438 0.326853
3.448139 -0.105658 0.326348
3.442471 -0.094913 0.325843
3.435773 -0.084179 0.325254
3.434022 -0.073595 0.325085
3.429250 -0.062968 0.324664
3.425442 -0.052385 0.324327
3.422598 -0.041839 0.324075
3.420717 -0.031320 0.323906
3.416811 -0.020800 0.323570
3.407891 -0.010289 0.322812
3.399935 0.000166 0.322138
3.395933 0.010585 0.321801
3.383927 0.020931 0.320791
3.376872 0.031249 0.320202
3.371778 0.041548 0.319781
3.365657 0.051801 0.319275
3.362494 0.062072 0.319023
3.361291 0.072366 0.318939
3.359061 0.082629 0.318770
3.357795 0.092907 0.318686
3.356499 0.103178 0.318602
3.355170 0.113441 0.318518
3.350824 0.123588 0.318181
3.345450 0.133669 0.317760
3.342038 0.143804 0.317507
3.337600 0.153873 0.317170
3.334126 0.163966 0.316918
3.332612 0.174142 0.316834
3.327087 0.184091 0.316413
3.323523 0.194123 0.316160
3.320922 0.204197 0.315992
3.319286 0.214320 0.315907
3.311653 0.224033 0.315318
3.307969 0.233981 0.315065
3.301273 0.243689 0.314560
3.298522 0.253664 0.314392
3.292762 0.263386 0.313971
3.290946 0.273404 0.313887
3.288106 0.283328 0.313718
3.284244 0.293149 0.313466
3.279360 0.302858 0.313129
3.277423 0.312823 0.313045
3.275456 0.322779 0.312960
3.274451 0.332826 0.312960
3.266477 0.342145 0.312371
3.521318 -0.237577 0.310232
3.501137 -0.225430 0.308599
3.495842 -0.214322 0.308133
3.493497 -0.203422 0.307899
3.489127 -0.192430 0.307511
3.482732 -0.181362 0.306966
3.475305 -0.170287 0.306344
3.468840 -0.159305 0.305800
3.463336 -0.148406 0.305333
3.458794 -0.137583 0.304944
3.451229 -0.126679 0.304322
3.448613 -0.115990 0.304089
3.442973 -0.105227 0.303622
3.438297 -0.094527 0.303234
3.432590 -0.083833 0.302767
3.429841 -0.073238 0.302534
3.427059 -0.062661 0.302300
3.424245 -0.052101 0.302067
3.419404 -0.041536 0.301678
3.413534 -0.030991 0.301212
3.409625 -0.020495 0.300901
3.404687 -0.010020 0.300512
3.398720 0.000424 0.300045
3.393718 0.010835 0.299656
3.385693 0.021195 0.299034
3.379631 0.031526 0.298568
3.375530 0.041845 0.298257
3.371399 0.052138 0.297946
3.367236 0.062407 0.297635
3.364038 0.072672 0.297401
3.360809 0.082918 0.297168
3.356553 0.093118 0.296857
3.354258 0.103354 0.296701
3.350936 0.113542 0.296468
3.344594 0.123600 0.296002
3.340215 0.133701 0.295691
3.334809 0.143733 0.295302
3.329373 0.153733 0.294913
3.325898 0.163799 0.294680
3.324384 0.173950 0.294602
3.319853 0.183927 0.294291
3.314297 0.193819 0.293902
3.311697 0.203864 0.293746
3.310061 0.213959 0.293669
3.303421 0.223708 0.293202
3.296752 0.233418 0.292736
3.294032 0.243384 0.292580
3.289293 0.253183 0.292269
3.281545 0.262715 0.291725
3.281717 0.272864 0.291802
3.278877 0.282760 0.291647
3.276009 0.292640 0.291491
3.270132 0.302230 0.291103
3.266212 0.311976 0.290869
3.265239 0.321996 0.290869
3.261261 0.331709 0.290636
3.260228 0.341713 0.290636
3.261146 0.351927 0.290791
3.484640 -0.226514 0.285969
3.481337 -0.215577 0.285682
3.477003 -0.204604 0.285324
3.471639 -0.193604 0.284894
3.469229 -0.182796 0.284679
3.461803 -0.171759 0.284106
3.454343 -0.160769 0.283532
3.449837 -0.149956 0.283174
3.442308 -0.139052 0.282601
3.440725 -0.128417 0.282457
3.438112 -0.117759 0.282242
3.435467 -0.107118 0.282027
3.431791 -0.096467 0.281741
3.427085 -0.085815 0.281382
3.424340 -0.075235 0.281167
3.418572 -0.064618 0.280737
3.413767 -0.054053 0.280379
3.406936 -0.043492 0.279877
3.404061 -0.033012 0.279662
3.399159 -0.022537 0.279304
3.395223 -0.012095 0.279017
3.390257 -0.001678 0.278659
3.388251 0.008717 0.278515
3.384218 0.019088 0.278229
3.380155 0.029435 0.277942
3.376059 0.039756 0.277655
3.371932 0.050053 0.277369
3.366776 0.060307 0.277010
3.362586 0.070551 0.276724
3.357368 0.080745 0.276365
3.352120 0.090908 0.276007
3.346840 0.101040 0.275648
3.341530 0.111139 0.275290
3.336190 0.121208 0.274932
3.330819 0.131244 0.274573
3.328408 0.141377 0.274430
3.321980 0.151314 0.274000
3.318511 0.161358 0.273785
3.317004 0.171487 0.273713
3.315467 0.181607 0.273642
3.309915 0.191488 0.273283
3.306326 0.201459 0.273068
3.304697 0.211538 0.272997
3.296071 0.221139 0.272423
3.291397 0.230969 0.272137
3.288683 0.240919 0.271993
3.284945 0.250779 0.271778
3.276206 0.260221 0.271205
3.276386 0.270354 0.271277
3.273554 0.280233 0.271133
3.265724 0.289656 0.270631
3.261841 0.299399 0.270416
3.259914 0.309310 0.270345
3.255972 0.319017 0.270130
3.252001 0.328703 0.269915
3.250977 0.338678 0.269915
3.248931 0.348544 0.269843
3.254786 0.359278 0.270345
3.476945 -0.211915 0.265284
3.469610 -0.200783 0.264757
3.470210 -0.190138 0.264757
3.463801 -0.179127 0.264295
3.458355 -0.168207 0.263900
3.451877 -0.157276 0.263438
3.448356 -0.146514 0.263175
3.441810 -0.135657 0.262713
3.434233 -0.124804 0.262186
3.431607 -0.114167 0.261988
3.428950 -0.103547 0.261790
3.425261 -0.092917 0.261526
3.419545 -0.082262 0.261131
3.416789 -0.071707 0.260933
3.410009 -0.061096 0.260472
3.405192 -0.050558 0.260142
3.400342 -0.040051 0.259812
3.394462 -0.029564 0.259417
3.389548 -0.019120 0.259087
3.385599 -0.008710 0.258824
3.385610 0.001677 0.258824
3.383594 0.012058 0.258692
3.379549 0.022413 0.258428
3.377469 0.032763 0.258296
3.376355 0.043112 0.258230
3.374211 0.053440 0.258098
3.369043 0.063699 0.257769
3.364842 0.073948 0.257505
3.360609 0.084173 0.257241
3.351358 0.094233 0.256648
3.345069 0.104330 0.256252
3.338750 0.114389 0.255857
3.334394 0.124484 0.255593
3.329012 0.134514 0.255264
3.325593 0.144597 0.255066
3.322143 0.154661 0.254868
3.317666 0.164656 0.254604
3.315153 0.174729 0.254472
3.309620 0.184623 0.254143
3.305053 0.194543 0.253879
3.300457 0.204437 0.253615
3.295831 0.214304 0.253352
3.292172 0.224212 0.253154
3.283506 0.233747 0.252627
3.282773 0.243819 0.252627
3.280020 0.253737 0.252495
3.273258 0.263320 0.252099
3.269452 0.273113 0.251901
3.270586 0.283314 0.252033
3.265727 0.292991 0.251769
3.260838 0.302642 0.251506
3.256914 0.312360 0.251308
3.252962 0.322056 0.251110
3.248980 0.331732 0.250912
3.249932 0.341906 0.251044
3.252836 0.352303 0.251308
3.242814 0.361290 0.250715
3.487299 -0.212870 0.244029
3.469002 -0.201071 0.242896
3.468606 -0.190372 0.242836
3.466183 -0.179574 0.242657
3.458741 -0.168550 0.242180
3.454256 -0.157710 0.241881
3.452729 -0.147026 0.241762
3.444187 -0.136077 0.241225
3.438603 -0.125291 0.240867
3.435978 -0.114641 0.240688
3.430327 -0.103917 0.240330
3.422647 -0.093174 0.239853
3.418925 -0.082576 0.239615
3.413174 -0.071960 0.239257
3.408389 -0.061397 0.238958
3.405567 -0.050895 0.238779
3.398720 -0.040363 0.238362
3.394835 -0.029900 0.238123
3.389920 -0.019456 0.237825
3.383974 -0.009039 0.237467
3.380991 0.001342 0.237288
3.379973 0.011712 0.237228
3.374930 0.022049 0.236930
3.371852 0.032375 0.236751
3.369741 0.042694 0.236632
3.364603 0.052954 0.236334
3.360433 0.063202 0.236095
3.358227 0.073468 0.235976
3.352996 0.083647 0.235677
3.346737 0.093766 0.235319
3.341445 0.103879 0.235021
3.337120 0.113994 0.234782
3.331767 0.124046 0.234484
3.326384 0.134067 0.234186
3.323962 0.144185 0.234067
3.320513 0.154244 0.233888
3.316036 0.164233 0.233649
3.311529 0.174196 0.233410
3.311975 0.184411 0.233470
3.306412 0.194279 0.233172
3.300818 0.204114 0.232874
3.296192 0.213982 0.232635
3.283569 0.223282 0.231919
3.288843 0.233779 0.232277
3.285124 0.243647 0.232098
3.283365 0.253647 0.232038
3.280582 0.263560 0.231919
3.276773 0.273374 0.231740
3.273930 0.283254 0.231621
3.269069 0.292941 0.231382
3.262191 0.302417 0.231024
3.258267 0.312139 0.230845
3.253320 0.321741 0.230607
3.249339 0.331417 0.230428
3.244335 0.340967 0.230189
3.244267 0.351027 0.230249
3.236230 0.360206 0.229831
3.243043 0.371040 0.230308
3.459175 -0.202031 0.220571
3.454794 -0.191142 0.220304
3.455364 -0.180542 0.220304
3.449917 -0.169647 0.219984
3.445434 -0.158832 0.219717
3.443910 -0.148175 0.219610
3.439359 -0.137410 0.219343
3.433777 -0.126638 0.219023
3.429159 -0.115934 0.218756
3.425507 -0.105291 0.218542
3.418826 -0.094589 0.218169
3.413110 -0.083953 0.217848
3.410357 -0.073417 0.217688
3.403577 -0.062826 0.217314
3.396765 -0.052276 0.216941
3.393914 -0.041818 0.216781
3.388035 -0.031351 0.216460
3.385119 -0.020938 0.216300
3.379176 -0.010535 0.215980
3.377196 -0.000168 0.215873
3.373186 0.010181 0.215660
3.369145 0.020505 0.215446
3.365072 0.030804 0.215233
3.360967 0.041078 0.215019
3.357830 0.051343 0.214859
3.351666 0.061534 0.214539
3.349465 0.071774 0.214432
3.345236 0.081951 0.214218
3.339978 0.092075 0.213951
3.338682 0.102291 0.213898
3.333362 0.112365 0.213631
3.327014 0.122370 0.213311
3.321635 0.132377 0.213044
3.319217 0.142481 0.212937
3.314775 0.152480 0.212724
3.308307 0.162354 0.212403
3.307793 0.172503 0.212403
3.303260 0.182430 0.212190
3.298697 0.192330 0.211976
3.291115 0.202021 0.211603
3.285497 0.211795 0.211336
3.281843 0.221671 0.211176
3.277164 0.231457 0.210962
3.274446 0.241363 0.210855
3.273690 0.251408 0.210855
3.271908 0.261371 0.210802
3.269101 0.271242 0.210695
3.266263 0.281099 0.210588
3.262402 0.290852 0.210428
3.255528 0.300308 0.210108
3.249621 0.309820 0.209841
3.243686 0.319299 0.209574
3.239711 0.328946 0.209414
3.235707 0.338571 0.209254
3.232668 0.348283 0.209147
3.232576 0.358309 0.209200
3.228486 0.367885 0.209040
3.222383 0.377207 0.208773
3.440798 -0.191895 0.197953
3.438378 -0.181181 0.197811
3.435925 -0.170484 0.197670
3.433438 -0.159804 0.197529
3.430918 -0.149140 0.197387
3.429364 -0.138533 0.197293
3.426778 -0.127901 0.197152
3.423161 -0.117252 0.196963
3.417514 -0.106564 0.196681
3.411834 -0.095913 0.196398
3.406121 -0.085297 0.196116
3.400374 -0.074717 0.195833
3.394595 -0.064173 0.195550
3.388783 -0.053666 0.195268
3.383938 -0.043207 0.195032
3.380059 -0.032787 0.194844
3.375150 -0.022386 0.194608
3.371207 -0.012018 0.194420
3.368231 -0.001675 0.194278
3.364225 0.008647 0.194090
3.359188 0.018939 0.193854
3.354120 0.029199 0.193619
3.351018 0.039453 0.193478
3.346886 0.049673 0.193289
3.341725 0.059850 0.193054
3.338529 0.070038 0.192912
3.334304 0.080182 0.192724
3.328052 0.090247 0.192441
3.324764 0.100365 0.192300
3.320447 0.110431 0.192111
3.315101 0.120434 0.191876
3.311722 0.130485 0.191735
3.307314 0.140474 0.191546
3.307866 0.150666 0.191593
3.300404 0.160471 0.191264
3.297901 0.170492 0.191169
3.296365 0.180554 0.191122
3.290810 0.190376 0.190887
3.281237 0.199922 0.190463
3.278614 0.209859 0.190369
3.268986 0.219312 0.189945
3.267301 0.229270 0.189897
3.260605 0.238853 0.189615
3.262845 0.249084 0.189756
3.262065 0.259093 0.189756
3.261255 0.269100 0.189756
3.258424 0.278933 0.189662
3.254568 0.288662 0.189521
3.246704 0.298004 0.189191
3.239808 0.307395 0.188908
3.236861 0.317138 0.188814
3.231898 0.326664 0.188626
3.228894 0.336370 0.188531
3.226854 0.346168 0.188484
3.222798 0.355736 0.188343
3.219706 0.365396 0.188249
3.215594 0.374924 0.188107
3.215420 0.384906 0.188155
3.442856 -0.188630 0.178234
3.436434 -0.177703 0.177944
3.433969 -0.167013 0.177820
3.433467 -0.156431 0.177779
3.428940 -0.145683 0.177572
3.426375 -0.135043 0.177448
3.423778 -0.124421 0.177324
3.421148 -0.113815 0.177200
3.416487 -0.103166 0.176993
3.409796 -0.092492 0.176704
3.404071 -0.081884 0.176456
3.398313 -0.071313 0.176208
3.393521 -0.060795 0.176001
3.386698 -0.050278 0.175711
3.383839 -0.039851 0.175587
3.379949 -0.029433 0.175422
3.376027 -0.019039 0.175257
3.368077 -0.008658 0.174926
3.366089 0.001674 0.174843
3.360073 0.011982 0.174595
3.359021 0.022284 0.174554
3.353942 0.032543 0.174347
3.353826 0.042832 0.174347
3.347685 0.053029 0.174099
3.344509 0.063243 0.173975
3.340304 0.073417 0.173809
3.338065 0.083616 0.173726
3.330802 0.093662 0.173437
3.325505 0.103726 0.173230
3.321177 0.113793 0.173065
3.315820 0.123797 0.172858
3.310433 0.133769 0.172651
3.311005 0.143968 0.172693
3.305557 0.153895 0.172486
3.303074 0.163937 0.172403
3.298564 0.173861 0.172238
3.296020 0.183869 0.172155
3.290453 0.193689 0.171948
3.284858 0.203476 0.171742
3.278235 0.213166 0.171493
3.273579 0.222952 0.171328
3.262913 0.232288 0.170915
3.260192 0.242150 0.170832
3.260430 0.252228 0.170873
3.254661 0.261831 0.170666
3.253842 0.271815 0.170666
3.251997 0.281710 0.170625
3.248132 0.291419 0.170501
3.244238 0.301107 0.170377
3.237332 0.310489 0.170129
3.233381 0.320125 0.170005
3.231390 0.329942 0.169963
3.226387 0.339437 0.169798
3.222351 0.349013 0.169674
3.220272 0.358787 0.169633
3.221141 0.368891 0.169715
3.216025 0.378306 0.169550
3.213857 0.388052 0.169509
3.443233 -0.178983 0.156631
3.440772 -0.168271 0.156525
3.435282 -0.157439 0.156315
3.435749 -0.146899 0.156315
3.428195 -0.136040 0.156034
3.425600 -0.125412 0.155929
3.420974 -0.114733 0.155754
3.416316 -0.104085 0.155578
3.408627 -0.093383 0.155298
3.404901 -0.082828 0.155158
3.398145 -0.072232 0.154912
3.394354 -0.061733 0.154772
3.387532 -0.051212 0.154526
3.382677 -0.040759 0.154351
3.378788 -0.030344 0.154211
3.373869 -0.019948 0.154035
3.368917 -0.009582 0.153860
3.365933 0.000753 0.153755
3.360918 0.011064 0.153579
3.358869 0.021363 0.153509
3.354790 0.031630 0.153369
3.351680 0.041885 0.153264
3.347538 0.052106 0.153123
3.345364 0.062339 0.153053
3.340162 0.072494 0.152878
3.335927 0.082643 0.152737
3.329664 0.092711 0.152527
3.327366 0.102864 0.152457
3.323040 0.112936 0.152317
3.322677 0.123131 0.152317
3.318290 0.133164 0.152176
3.315868 0.143258 0.152106
3.311420 0.153246 0.151966
3.307940 0.163257 0.151861
3.305427 0.173300 0.151790
3.302884 0.183330 0.151720
3.298316 0.193229 0.151580
3.291722 0.202979 0.151370
3.289089 0.212948 0.151299
3.281441 0.222565 0.151054
3.275758 0.232278 0.150879
3.274034 0.242254 0.150843
3.264307 0.251607 0.150528
3.258539 0.261222 0.150352
3.254734 0.270969 0.150247
3.249905 0.280610 0.150107
3.252015 0.290846 0.150212
3.245136 0.300270 0.150002
3.241215 0.309939 0.149896
3.235276 0.319391 0.149721
3.235276 0.329417 0.149756
3.229280 0.338820 0.149581
3.224251 0.348297 0.149440
3.223167 0.358187 0.149440
3.220067 0.367847 0.149370
3.218923 0.377724 0.149370
3.216757 0.387479 0.149335
3.204643 0.395999 0.148949
3.439481 -0.168536 0.133724
3.433990 -0.157708 0.133553
3.427467 -0.146873 0.133354
3.422908 -0.136159 0.133212
3.417316 -0.125438 0.133041
3.414687 -0.114853 0.132956
3.411027 -0.104254 0.132842
3.409333 -0.093734 0.132785
3.406606 -0.083201 0.132700
3.402848 -0.072665 0.132586
3.396059 -0.062097 0.132387
3.392236 -0.051618 0.132273
3.385381 -0.041126 0.132074
3.380494 -0.030695 0.131931
3.375574 -0.020294 0.131789
3.370622 -0.009924 0.131647
3.365639 0.000416 0.131505
3.362623 0.010732 0.131419
3.358576 0.021023 0.131306
3.355497 0.031298 0.131220
3.350388 0.041530 0.131078
3.346247 0.051746 0.130964
3.341075 0.061919 0.130822
3.338871 0.072126 0.130765
3.333637 0.082245 0.130623
3.333369 0.092472 0.130623
3.330073 0.102605 0.130538
3.326745 0.112720 0.130452
3.323387 0.122814 0.130367
3.321995 0.132970 0.130339
3.316579 0.142945 0.130196
3.312130 0.152934 0.130083
3.305655 0.162799 0.129912
3.301147 0.172731 0.129798
3.293616 0.182470 0.129599
3.289049 0.192340 0.129485
3.286448 0.202307 0.129428
3.281822 0.212130 0.129315
3.277166 0.221927 0.129201
3.272481 0.231697 0.129087
3.268765 0.241515 0.129002
3.264022 0.251235 0.128888
3.259250 0.260928 0.128774
3.254450 0.270594 0.128660
3.247629 0.280061 0.128490
3.246754 0.290023 0.128490
3.241868 0.299614 0.128376
3.237948 0.309273 0.128291
3.237979 0.319304 0.128319
3.232012 0.328730 0.128177
3.226017 0.338123 0.128035
3.223971 0.347911 0.128006
3.221895 0.357690 0.127978
3.217803 0.367233 0.127892
3.216661 0.377103 0.127892
3.215489 0.386970 0.127892
3.214287 0.396833 0.127892
3.417876 -0.169594 0.113480
3.421376 -0.159246 0.113548
3.411860 -0.148318 0.113321
3.410301 -0.137770 0.113276
3.407711 -0.127196 0.113208
3.406086 -0.116673 0.113163
3.403431 -0.106130 0.113094
3.402741 -0.095660 0.113072
3.403018 -0.085220 0.113072
3.402264 -0.074758 0.113049
3.395481 -0.064190 0.112890
3.391663 -0.053710 0.112800
3.385814 -0.043230 0.112663
3.378933 -0.032777 0.112505
3.373019 -0.022372 0.112368
3.369073 -0.012011 0.112278
3.363095 -0.001674 0.112142
3.362085 0.008641 0.112119
3.356044 0.018920 0.111983
3.352971 0.029189 0.111915
3.346868 0.039403 0.111779
3.343732 0.049625 0.111711
3.338567 0.059792 0.111597
3.334369 0.069949 0.111506
3.327143 0.080008 0.111348
3.324883 0.090160 0.111302
3.321593 0.100269 0.111234
3.320271 0.110425 0.111211
3.314921 0.120428 0.111098
3.313537 0.130557 0.111075
3.308126 0.140509 0.110962
3.301688 0.150382 0.110826
3.290227 0.159973 0.110576
3.285727 0.169859 0.110485
3.282196 0.179773 0.110417
3.273644 0.189377 0.110236
3.274046 0.199481 0.110259
3.268430 0.209204 0.110145
3.268770 0.219297 0.110168
3.263096 0.228973 0.110054
3.262378 0.238983 0.110054
3.256645 0.248608 0.109941
3.250884 0.258201 0.109827
3.246092 0.267843 0.109737
3.245255 0.277801 0.109737
3.238412 0.287224 0.109601
3.234529 0.296882 0.109533
3.232608 0.306710 0.109510
3.231652 0.316626 0.109510
3.226686 0.326135 0.109419
3.224677 0.335929 0.109396
3.221643 0.345607 0.109351
3.217586 0.355159 0.109283
3.212508 0.364576 0.109192
3.211375 0.374430 0.109192
3.204255 0.383566 0.109056
3.203063 0.393394 0.109056
3.195890 0.402468 0.108920
3.412486 -0.165366 0.092571
3.410980 -0.154805 0.092538
3.409441 -0.144254 0.092505
3.405871 -0.133635 0.092439
3.408263 -0.123259 0.092472
3.408625 -0.112802 0.092472
3.405957 -0.102252 0.092422
3.406255 -0.091803 0.092422
3.406520 -0.081352 0.092422
3.406754 -0.070901 0.092422
3.399957 -0.060322 0.092306
3.395128 -0.049816 0.092223
3.389266 -0.039328 0.092124
3.380372 -0.028849 0.091974
3.374446 -0.018444 0.091875
3.368487 -0.008074 0.091776
3.362497 0.002258 0.091676
3.359475 0.012564 0.091626
3.356421 0.022851 0.091577
3.353335 0.033120 0.091527
3.350219 0.043370 0.091477
3.345071 0.053569 0.091394
3.340892 0.063757 0.091328
3.334683 0.073875 0.091228
3.330443 0.084006 0.091162
3.327171 0.094140 0.091112
3.321869 0.104192 0.091029
3.316538 0.114212 0.090947
3.313174 0.124276 0.090897
3.307782 0.134239 0.090814
3.306356 0.144343 0.090797
3.292913 0.153884 0.090582
3.288431 0.163788 0.090515
3.279925 0.173456 0.090383
3.285367 0.183851 0.090482
3.266821 0.192875 0.090184
3.266214 0.202897 0.090184
3.269567 0.213175 0.090250
3.264908 0.222934 0.090184
3.261216 0.232737 0.090134
3.257496 0.242520 0.090084
3.256736 0.252513 0.090084
3.250963 0.262103 0.090001
3.249147 0.271993 0.089985
3.242320 0.281443 0.089885
3.235466 0.290854 0.089786
3.229581 0.300318 0.089703
3.227649 0.310129 0.089686
3.226682 0.320030 0.089686
3.222701 0.329624 0.089637
3.215708 0.338883 0.089537
3.213660 0.348639 0.089521
3.207606 0.357944 0.089438
3.205499 0.367670 0.089421
3.201377 0.377152 0.089371
3.198220 0.386733 0.089338
3.191064 0.395807 0.089239
3.187851 0.405344 0.089206
3.413193 -0.157019 0.072390
3.410661 -0.146417 0.072358
3.408097 -0.135833 0.072326
3.407498 -0.125340 0.072316
3.407867 -0.114885 0.072316
3.406204 -0.104368 0.072294
3.403510 -0.093834 0.072262
3.404781 -0.083417 0.072273
3.401022 -0.072884 0.072230
3.397231 -0.062376 0.072188
3.392407 -0.051876 0.072135
3.386551 -0.041394 0.072071
3.378663 -0.030930 0.071986
3.373742 -0.020533 0.071932
3.369790 -0.010170 0.071890
3.365805 0.000169 0.071847
3.362789 0.010486 0.071815
3.359741 0.020784 0.071783
3.356662 0.031064 0.071751
3.352551 0.041314 0.071709
3.347410 0.051522 0.071656
3.344237 0.061737 0.071624
3.335034 0.071804 0.071528
3.329800 0.081913 0.071475
3.323536 0.091963 0.071411
3.319240 0.102037 0.071368
3.313914 0.112051 0.071315
3.306560 0.121960 0.071240
3.300175 0.131865 0.071176
3.298756 0.141947 0.071166
3.293311 0.151837 0.071113
3.287836 0.161695 0.071059
3.282331 0.171521 0.071006
3.279793 0.181480 0.070985
3.274230 0.191250 0.070932
3.266641 0.200866 0.070857
3.269003 0.211079 0.070889
3.266345 0.220973 0.070868
3.262659 0.230782 0.070836
3.260938 0.240717 0.070825
3.260184 0.250720 0.070825
3.256410 0.260482 0.070793
3.252605 0.270223 0.070761
3.245784 0.279687 0.070697
3.238934 0.289110 0.070634
3.232058 0.298495 0.070570
3.228141 0.308125 0.070538
3.221209 0.317439 0.070474
3.217236 0.327017 0.070442
3.211245 0.336366 0.070389
3.209203 0.346109 0.070378
3.207133 0.355843 0.070367
3.204039 0.365454 0.070346
3.199923 0.374934 0.070314
3.198758 0.384749 0.070314
3.194585 0.394194 0.070282
3.190384 0.403617 0.070250
3.189131 0.413403 0.070250
3.434318 -0.158321 0.050515
3.411809 -0.146798 0.050418
3.408246 -0.136171 0.050402
3.406649 -0.125640 0.050393
3.405020 -0.115121 0.050385
3.399360 -0.104490 0.050360
3.397665 -0.094006 0.050351
3.394939 -0.083508 0.050339
3.391180 -0.073006 0.050322
3.386389 -0.062510 0.050301
3.383565 -0.052075 0.050289
3.377709 -0.041621 0.050263
3.372821 -0.031212 0.050243
3.368901 -0.020840 0.050226
3.366950 -0.010498 0.050217
3.362966 -0.000169 0.050201
3.359951 0.010139 0.050188
3.355904 0.020423 0.050171
3.350826 0.030672 0.050150
3.347716 0.040915 0.050138
3.338576 0.051047 0.050100
3.330405 0.061141 0.050067
3.327202 0.071294 0.050054
3.319970 0.081329 0.050025
3.312708 0.091320 0.049995
3.307415 0.101330 0.049974
3.304090 0.111375 0.049962
3.297737 0.121290 0.049937
3.292353 0.131207 0.049916
3.289937 0.141221 0.049907
3.289488 0.151314 0.049907
3.282017 0.161061 0.049878
3.280509 0.171077 0.049874
3.275975 0.180920 0.049857
3.270413 0.190678 0.049836
3.263824 0.200342 0.049811
3.264192 0.210419 0.049815
3.260538 0.220230 0.049803
3.257852 0.230091 0.049794
3.255136 0.239937 0.049786
3.254384 0.249923 0.049786
3.249615 0.259587 0.049769
3.245814 0.269307 0.049757
3.239991 0.278835 0.049736
3.234140 0.288329 0.049715
3.226270 0.297606 0.049685
3.221360 0.307122 0.049669
3.216422 0.316612 0.049652
3.212451 0.326175 0.049639
3.208451 0.335716 0.049627
3.207406 0.345558 0.049627
3.205337 0.355286 0.049623
3.205225 0.365232 0.049627
3.203097 0.374947 0.049623
3.201931 0.384772 0.049623
3.189819 0.393247 0.049577
3.184629 0.402529 0.049560
3.183379 0.412297 0.049560
3.174169 0.421009 0.049526
3.411753 -0.147720 0.029061
3.406195 -0.137013 0.029073
3.402602 -0.126415 0.029082
3.398977 -0.115840 0.029090
3.394318 -0.105259 0.029101
3.390627 -0.094734 0.029109
3.382904 -0.084135 0.029126
3.380147 -0.073692 0.029132
3.376358 -0.063248 0.029140
3.375536 -0.052874 0.029142
3.371683 -0.042468 0.029151
3.368797 -0.032097 0.029157
3.365880 -0.021743 0.029163
3.362931 -0.011407 0.029170
3.357950 -0.001090 0.029180
3.353937 0.009200 0.029189
3.347893 0.019453 0.029201
3.338819 0.029641 0.029220
3.332712 0.039810 0.029232
3.328575 0.049973 0.029241
3.319407 0.060019 0.029260
3.312209 0.070052 0.029274
3.309979 0.080164 0.029279
3.302721 0.090125 0.029293
3.299430 0.100165 0.029300
3.298108 0.110254 0.029302
3.292758 0.120187 0.029312
3.290375 0.130209 0.029316
3.287962 0.140217 0.029320
3.288515 0.150350 0.029318
3.283044 0.160193 0.029329
3.280540 0.170160 0.029333
3.275010 0.179948 0.029343
3.271448 0.189820 0.029350
3.263863 0.199426 0.029364
3.261240 0.209310 0.029369
3.256592 0.219044 0.029377
3.252912 0.228823 0.029383
3.249203 0.238581 0.029390
3.246461 0.248395 0.029394
3.242694 0.258114 0.029400
3.237900 0.267731 0.029408
3.232082 0.277234 0.029419
3.227232 0.286793 0.029427
3.221358 0.296233 0.029438
3.217448 0.305830 0.029444
3.213509 0.315405 0.029450
3.210536 0.325060 0.029454
3.206540 0.334596 0.029461
3.204504 0.344325 0.029463
3.202439 0.354044 0.029465
3.199351 0.363641 0.029469
3.190274 0.372524 0.029486
3.186138 0.381952 0.029492
3.181974 0.391358 0.029498
3.172821 0.400114 0.029515
3.166620 0.409204 0.029526
3.160393 0.418259 0.029536
3.152159 0.427011 0.029551
3.409752 -0.145454 0.009499
3.407184 -0.134873 0.009522
3.402586 -0.124235 0.009562
3.398953 -0.113660 0.009593
3.389291 -0.102925 0.009672
3.385592 -0.092416 0.009703
3.376863 -0.081808 0.009774
3.371099 -0.071318 0.009821
3.366303 -0.060883 0.009860
3.362475 -0.050494 0.009891
3.361614 -0.040165 0.009899
3.359722 -0.029834 0.009915
3.359797 -0.019526 0.009915
3.356842 -0.009209 0.009939
3.350854 0.001090 0.009986
3.344836 0.011352 0.010033
3.339785 0.021583 0.010072
3.330704 0.031747 0.010143
3.325591 0.041904 0.010182
3.321448 0.052045 0.010213
3.317273 0.062161 0.010245
3.312068 0.072231 0.010284
3.307832 0.082294 0.010316
3.307564 0.092442 0.010316
3.304266 0.102497 0.010339
3.299939 0.112499 0.010371
3.297580 0.122549 0.010386
3.294191 0.132546 0.010410
3.290771 0.142523 0.010433
3.287322 0.152480 0.010457
3.283842 0.162418 0.010481
3.275340 0.172075 0.010543
3.271801 0.181957 0.010567
3.267234 0.191761 0.010598
3.261640 0.201477 0.010638
3.257015 0.211225 0.010669
3.253359 0.221014 0.010693
3.249673 0.230783 0.010716
3.245958 0.240531 0.010740
3.242213 0.250259 0.010763
3.239437 0.260045 0.010779
3.236631 0.269817 0.010795
3.231802 0.279403 0.010826
3.226946 0.288961 0.010858
3.223057 0.298584 0.010881
3.219140 0.308186 0.010905
3.212208 0.317473 0.010952
3.207239 0.326922 0.010983
3.202243 0.336344 0.011015
3.197219 0.345738 0.011046
3.194156 0.355325 0.011062
3.190070 0.364783 0.011085
3.185956 0.374219 0.011109
3.177844 0.383157 0.011164
3.171691 0.392292 0.011203
3.166504 0.401519 0.011234
3.162282 0.410847 0.011258
3.160016 0.420415 0.011266
3.154747 0.429570 0.011297
3.397998 -0.134247 -0.012266
3.394397 -0.123675 -0.012209
3.391762 -0.113161 -0.012166
3.388096 -0.102633 -0.012109
3.382397 -0.092074 -0.012023
3.375667 -0.081526 -0.011923
3.369903 -0.071043 -0.011837
3.365106 -0.060613 -0.011765
3.363277 -0.050259 -0.011737
3.362416 -0.039928 -0.011722
3.359523 -0.029585 -0.011679
3.358598 -0.019272 -0.011665
3.355641 -0.008960 -0.011622
3.351653 0.001334 -0.011565
3.344634 0.011593 -0.011465
3.340584 0.021829 -0.011408
3.332502 0.032001 -0.011293
3.326389 0.042150 -0.011207
3.322245 0.052293 -0.011150
3.318070 0.062410 -0.011093
3.315864 0.072546 -0.011064
3.315626 0.082719 -0.011064
3.311358 0.092779 -0.011007
3.309059 0.102876 -0.010978
3.306729 0.112959 -0.010950
3.306367 0.123103 -0.010950
3.303976 0.133166 -0.010921
3.300555 0.143173 -0.010878
3.296105 0.153113 -0.010821
3.289627 0.162928 -0.010735
3.283121 0.172705 -0.010649
3.274589 0.182333 -0.010535
3.267027 0.191969 -0.010434
3.260434 0.201622 -0.010349
3.254811 0.211300 -0.010277
3.251155 0.221082 -0.010234
3.247469 0.230843 -0.010191
3.243754 0.240583 -0.010148
3.242004 0.250457 -0.010134
3.241220 0.260402 -0.010134
3.240406 0.270345 -0.010134
3.235577 0.279941 -0.010077
3.231715 0.289598 -0.010034
3.228820 0.299327 -0.010005
3.220919 0.308565 -0.009905
3.211997 0.317659 -0.009790
3.208023 0.327208 -0.009747
3.201037 0.336422 -0.009662
3.195019 0.345704 -0.009590
3.189969 0.355063 -0.009533
3.186877 0.364620 -0.009504
3.181772 0.373930 -0.009447
3.175646 0.383091 -0.009375
3.170486 0.392341 -0.009318
3.169268 0.402066 -0.009318
3.163061 0.411144 -0.009247
3.160794 0.420714 -0.009232
3.158498 0.430275 -0.009218
3.154192 0.439549 -0.009175
3.380982 -0.124697 -0.033183
3.378351 -0.114222 -0.033121
3.376687 -0.103796 -0.033080
3.372992 -0.093326 -0.032997
3.369265 -0.082879 -0.032915
3.365505 -0.072456 -0.032833
3.361713 -0.062058 -0.032750
3.357888 -0.051683 -0.032668
3.355032 -0.041344 -0.032606
3.350144 -0.031005 -0.032503
3.349224 -0.020721 -0.032482
3.347272 -0.010439 -0.032441
3.344289 -0.000170 -0.032380
3.341275 0.010081 -0.032318
3.336229 0.020301 -0.032215
3.330153 0.030480 -0.032091
3.326045 0.040648 -0.032009
3.319906 0.050759 -0.031885
3.313737 0.060833 -0.031762
3.305539 0.070827 -0.031597
3.301308 0.080870 -0.031515
3.297046 0.090887 -0.031432
3.293754 0.100909 -0.031370
3.295428 0.111082 -0.031412
3.296070 0.121228 -0.031432
3.294684 0.131300 -0.031412
3.291269 0.141278 -0.031350
3.288823 0.151283 -0.031309
3.281353 0.161028 -0.031165
3.273854 0.170729 -0.031020
3.267326 0.180441 -0.030897
3.260768 0.190114 -0.030773
3.252187 0.199626 -0.030608
3.247568 0.209345 -0.030526
3.240925 0.218903 -0.030403
3.234255 0.228421 -0.030279
3.231544 0.238196 -0.030238
3.228805 0.247955 -0.030197
3.226036 0.257701 -0.030155
3.222241 0.267348 -0.030094
3.223398 0.277405 -0.030135
3.219544 0.287026 -0.030073
3.214666 0.296534 -0.029991
3.211751 0.306205 -0.029949
3.208806 0.315861 -0.029908
3.203843 0.325300 -0.029826
3.198853 0.334711 -0.029744
3.194829 0.344201 -0.029682
3.194752 0.354112 -0.029702
3.191664 0.363685 -0.029661
3.185568 0.372893 -0.029558
3.181431 0.382306 -0.029496
3.176274 0.391575 -0.029414
3.172082 0.400942 -0.029352
3.167862 0.410286 -0.029291
3.165598 0.419871 -0.029270
3.162313 0.429312 -0.029229
3.158010 0.438599 -0.029167
3.374409 -0.125964 -0.053592
3.373780 -0.115577 -0.053565
3.372120 -0.105164 -0.053512
3.370429 -0.094763 -0.053458
3.368705 -0.084373 -0.053405
3.366949 -0.073994 -0.053351
3.363162 -0.063590 -0.053245
3.360343 -0.053225 -0.053165
3.356492 -0.042866 -0.053058
3.352610 -0.032530 -0.052951
3.349695 -0.022226 -0.052871
3.345749 -0.011936 -0.052764
3.340771 -0.001671 -0.052631
3.337762 0.008570 -0.052550
3.334721 0.018792 -0.052470
3.327650 0.028960 -0.052283
3.322548 0.039108 -0.052150
3.318414 0.049240 -0.052043
3.310252 0.059275 -0.051830
3.300060 0.069217 -0.051563
3.297834 0.079293 -0.051509
3.291579 0.089245 -0.051349
3.287293 0.099221 -0.051242
3.285974 0.109272 -0.051215
3.286623 0.119390 -0.051242
3.281246 0.129274 -0.051109
3.280834 0.139340 -0.051109
3.278394 0.149313 -0.051055
3.273927 0.159175 -0.050948
3.267433 0.168907 -0.050788
3.263906 0.178765 -0.050708
3.259350 0.188545 -0.050601
3.252769 0.198177 -0.050441
3.246161 0.207770 -0.050281
3.237529 0.217190 -0.050067
3.230865 0.226700 -0.049907
3.224172 0.236171 -0.049747
3.221439 0.245908 -0.049694
3.216683 0.255472 -0.049587
3.211900 0.265010 -0.049480
3.210075 0.274777 -0.049453
3.208222 0.284535 -0.049427
3.204347 0.294101 -0.049346
3.202435 0.303836 -0.049320
3.199498 0.313464 -0.049266
3.195538 0.322976 -0.049186
3.191549 0.332466 -0.049106
3.192502 0.342470 -0.049160
3.186468 0.351713 -0.049026
3.185374 0.361487 -0.049026
3.182264 0.371026 -0.048973
3.178133 0.380429 -0.048893
3.172983 0.389689 -0.048786
3.168797 0.399046 -0.048706
3.164584 0.408381 -0.048626
3.160343 0.417694 -0.048545
3.156075 0.426985 -0.048465
3.150789 0.436116 -0.048359
3.147457 0.445499 -0.048305
3.370304 -0.112693 -0.072818
3.369635 -0.102321 -0.072786
3.366936 -0.091900 -0.072688
3.365204 -0.081521 -0.072624
3.363440 -0.071153 -0.072559
3.361644 -0.060797 -0.072494
3.359816 -0.050453 -0.072429
3.356956 -0.040108 -0.072331
3.353066 -0.029772 -0.072202
3.349144 -0.019460 -0.072072
3.346189 -0.009176 -0.071974
3.340205 0.001090 -0.071780
3.336188 0.011326 -0.071650
3.330141 0.021524 -0.071455
3.325062 0.031695 -0.071293
3.315954 0.041786 -0.071001
3.315810 0.051959 -0.071001
3.308640 0.062003 -0.070774
3.304437 0.072067 -0.070644
3.300204 0.082107 -0.070514
3.294941 0.092094 -0.070352
3.289648 0.102049 -0.070189
3.285324 0.112006 -0.070059
3.280970 0.121937 -0.069930
3.276586 0.131843 -0.069800
3.271173 0.141681 -0.069637
3.267728 0.151578 -0.069540
3.264252 0.161456 -0.069443
3.261745 0.171365 -0.069378
3.260206 0.181316 -0.069345
3.256641 0.191143 -0.069248
3.250054 0.200766 -0.069053
3.247428 0.210607 -0.068988
3.239786 0.220097 -0.068761
3.234111 0.229684 -0.068599
3.227410 0.239164 -0.068404
3.224668 0.248911 -0.068339
3.217912 0.258325 -0.068144
3.216108 0.268114 -0.068112
3.209296 0.277465 -0.067917
3.207434 0.287221 -0.067885
3.203552 0.296784 -0.067787
3.201631 0.306516 -0.067755
3.196697 0.315945 -0.067625
3.192729 0.325448 -0.067528
3.188734 0.334930 -0.067430
3.182723 0.344176 -0.067268
3.181652 0.353939 -0.067268
3.175586 0.363132 -0.067106
3.171479 0.372524 -0.067008
3.169329 0.382133 -0.066976
3.166157 0.391610 -0.066911
3.162958 0.401071 -0.066846
3.160721 0.410645 -0.066814
3.158456 0.420208 -0.066781
3.156162 0.429762 -0.066749
3.153838 0.439305 -0.066716
3.149507 0.448557 -0.066619
3.129323 0.455489 -0.066002
3.365566 -0.113454 -0.093750
3.362902 -0.103036 -0.093634
3.362203 -0.092691 -0.093595
3.361473 -0.082351 -0.093556
3.360711 -0.072016 -0.093518
3.359917 -0.061687 -0.093479
3.358092 -0.051347 -0.093401
3.354237 -0.040995 -0.093247
3.354347 -0.030705 -0.093247
3.351428 -0.020395 -0.093130
3.348477 -0.010103 -0.093014
3.341497 0.000170 -0.092743
3.337484 0.010410 -0.092588
3.329443 0.020600 -0.092278
3.323369 0.030760 -0.092046
3.319262 0.040907 -0.091891
3.314125 0.051014 -0.091697
3.310956 0.061126 -0.091581
3.308754 0.071241 -0.091503
3.305523 0.081319 -0.091387
3.304260 0.091432 -0.091348
3.299968 0.101446 -0.091194
3.295647 0.111436 -0.091039
3.289298 0.121326 -0.090806
3.283918 0.131218 -0.090612
3.279507 0.141121 -0.090458
3.275065 0.150998 -0.090303
3.268599 0.160751 -0.090070
3.266094 0.170674 -0.089993
3.261564 0.180473 -0.089838
3.257005 0.190246 -0.089683
3.252417 0.199993 -0.089528
3.247799 0.209713 -0.089373
3.241158 0.219272 -0.089140
3.235487 0.228863 -0.088947
3.231780 0.238568 -0.088831
3.225055 0.248023 -0.088598
3.218302 0.257438 -0.088366
3.213514 0.266980 -0.088211
3.208697 0.276495 -0.088056
3.202857 0.285895 -0.087862
3.198980 0.295444 -0.087746
3.193085 0.304783 -0.087552
3.193129 0.314676 -0.087591
3.185190 0.323764 -0.087320
3.181200 0.333223 -0.087204
3.175195 0.342446 -0.087010
3.171150 0.351855 -0.086894
3.165092 0.361017 -0.086700
3.163969 0.370726 -0.086700
3.160833 0.380192 -0.086623
3.156676 0.389521 -0.086506
3.158440 0.399580 -0.086623
3.159182 0.409524 -0.086700
3.157910 0.419215 -0.086700
3.156609 0.428901 -0.086700
3.156268 0.438721 -0.086739
3.358033 -0.104392 -0.113324
3.358337 -0.094090 -0.113324
3.358610 -0.083786 -0.113324
3.357852 -0.073460 -0.113280
3.356064 -0.063120 -0.113190
3.355243 -0.052808 -0.113146
3.347398 -0.042414 -0.112788
3.345515 -0.032125 -0.112699
3.341601 -0.021835 -0.112520
3.338656 -0.011573 -0.112386
3.333681 -0.001329 -0.112163
3.328674 0.008885 -0.111940
3.321638 0.019056 -0.111627
3.318567 0.029220 -0.111493
3.311469 0.039317 -0.111180
3.308336 0.049431 -0.111046
3.304174 0.059508 -0.110868
3.300979 0.069582 -0.110734
3.298753 0.079660 -0.110644
3.295497 0.089698 -0.110510
3.290214 0.099657 -0.110287
3.288894 0.109717 -0.110242
3.284549 0.119661 -0.110064
3.281172 0.129618 -0.109930
3.274770 0.139428 -0.109662
3.271333 0.149338 -0.109528
3.265870 0.159130 -0.109304
3.265367 0.169148 -0.109304
3.260842 0.178946 -0.109126
3.255291 0.188660 -0.108902
3.250709 0.198402 -0.108724
3.244103 0.207990 -0.108456
3.238466 0.217606 -0.108232
3.228814 0.226909 -0.107830
3.224118 0.236521 -0.107652
3.217400 0.245954 -0.107384
3.211651 0.255427 -0.107160
3.202888 0.264620 -0.106803
3.200070 0.274274 -0.106714
3.194238 0.283648 -0.106490
3.191363 0.293264 -0.106401
3.185476 0.302580 -0.106178
3.182544 0.312157 -0.106088
3.175608 0.321315 -0.105820
3.174608 0.331056 -0.105820
3.169604 0.340367 -0.105642
3.166559 0.349870 -0.105553
3.159515 0.358906 -0.105284
3.159391 0.368713 -0.105329
3.156261 0.378167 -0.105240
3.389873 -0.106301 -0.136602
3.360234 -0.095064 -0.135068
3.360510 -0.084754 -0.135068
3.360754 -0.074444 -0.135068
3.357971 -0.064077 -0.134915
3.352160 -0.053681 -0.134608
3.349313 -0.043358 -0.134455
3.339444 -0.032987 -0.133943
3.340528 -0.022748 -0.133995
3.334590 -0.012479 -0.133688
3.330618 -0.002248 -0.133483
3.328612 0.007965 -0.133381
3.323578 0.018148 -0.133126
3.316516 0.028283 -0.132768
3.312419 0.038410 -0.132563
3.307293 0.048497 -0.132308
3.298142 0.058481 -0.131848
3.291956 0.068472 -0.131541
3.290732 0.078547 -0.131490
