# This PCD file was generated using the MATLAB® pcwrite function
# from Computer Vision Toolbox®.
# .PCD v.7 - Point Cloud Data file format
VERSION .7
FIELDS x y z
SIZE 4 4 4
TYPE F F F
COUNT 1 1 1
WIDTH 1750
HEIGHT 1
VIEWPOINT 0 0 0 1 0 0 0
POINTS 1750
DATA ascii
3.323775 0.524173 0.463421
3.315296 0.533264 0.462535
3.312665 0.543272 0.462409
3.300221 0.551633 0.461017
3.293624 0.560922 0.460384
3.284069 0.569667 0.459372
3.275468 0.578531 0.458486
3.265867 0.587172 0.457474
3.257220 0.595938 0.456588
3.249525 0.604839 0.455829
3.242781 0.613882 0.455196
3.236012 0.622890 0.454563
3.229219 0.631862 0.453930
3.220455 0.640411 0.453045
3.214586 0.649502 0.452538
3.203833 0.657565 0.451399
3.195974 0.666176 0.450640
3.187122 0.674539 0.449754
3.182128 0.683689 0.449375
3.172262 0.691756 0.448362
3.169157 0.701271 0.448236
3.162151 0.709904 0.447603
3.154155 0.718279 0.446844
3.149037 0.727283 0.446464
3.142928 0.736035 0.445958
3.134865 0.744299 0.445199
3.126780 0.752519 0.444439
3.121565 0.761403 0.444060
3.113437 0.769548 0.443301
3.106250 0.777890 0.442668
3.101926 0.786928 0.442415
3.090851 0.794218 0.441276
3.084560 0.802697 0.440770
3.076328 0.810640 0.440010
3.066159 0.818027 0.438998
3.059804 0.826395 0.438492
3.054384 0.834994 0.438112
3.047028 0.843037 0.437479
3.410345 0.367117 0.449354
3.430910 0.379990 0.451997
3.422824 0.389725 0.451156
3.409780 0.398836 0.449714
3.403612 0.408702 0.449114
3.397416 0.418534 0.448513
3.388237 0.427957 0.447552
3.379032 0.437328 0.446591
3.371770 0.446908 0.445870
3.362513 0.456180 0.444909
3.354215 0.465536 0.444068
3.343925 0.474566 0.442987
3.339506 0.484394 0.442626
3.331131 0.493616 0.441785
3.326656 0.503387 0.441425
3.322152 0.513135 0.441064
3.318601 0.523015 0.440824
3.311100 0.532247 0.440103
3.306513 0.541920 0.439743
3.298960 0.551078 0.439022
3.291382 0.560195 0.438301
3.283779 0.569271 0.437580
3.273219 0.577786 0.436499
3.264592 0.586594 0.435658
3.255941 0.595355 0.434817
3.246292 0.603886 0.433856
3.241498 0.613288 0.433496
3.231802 0.621726 0.432535
3.225008 0.630684 0.431934
3.218190 0.639606 0.431333
3.209402 0.648098 0.430492
3.201564 0.656743 0.429772
3.190787 0.664736 0.428690
3.186790 0.674111 0.428450
3.177913 0.682423 0.427609
3.169985 0.690899 0.426888
3.164943 0.699977 0.426528
3.158906 0.708813 0.426047
3.150909 0.717177 0.425327
3.145792 0.726169 0.424966
3.139683 0.734911 0.424486
3.131619 0.743162 0.423765
3.124499 0.751604 0.423164
3.114463 0.759302 0.422203
3.108264 0.767900 0.421722
3.100116 0.775984 0.421002
3.089060 0.783292 0.419920
3.080874 0.791281 0.419200
3.073628 0.799478 0.418599
3.062522 0.806625 0.417518
3.056196 0.814992 0.417037
3.049848 0.823329 0.416557
3.045393 0.832157 0.416316
3.038998 0.840437 0.415836
3.428156 0.371229 0.432112
3.423052 0.381306 0.431654
3.420879 0.391693 0.431539
3.413741 0.401492 0.430852
3.406576 0.411251 0.430164
3.401354 0.421214 0.429706
3.392162 0.430649 0.428789
3.379988 0.439648 0.427528
3.370745 0.448969 0.426612
3.358524 0.457836 0.425351
3.348248 0.466905 0.424320
3.336964 0.475777 0.423174
3.330574 0.485298 0.422601
3.324156 0.494784 0.422028
3.316729 0.504086 0.421341
3.312222 0.513804 0.420997
3.308667 0.523653 0.420768
3.302141 0.533012 0.420195
3.296570 0.542496 0.419736
3.289011 0.551623 0.419049
3.282407 0.560877 0.418476
3.273819 0.569754 0.417674
3.269121 0.579277 0.417330
3.262440 0.588423 0.416757
3.252802 0.596998 0.415840
3.248025 0.606429 0.415496
3.242246 0.615651 0.415038
3.235464 0.624655 0.414465
3.228658 0.633623 0.413892
3.220853 0.642362 0.413205
3.212051 0.650862 0.412402
3.204201 0.659514 0.411715
3.201190 0.669138 0.411600
3.189404 0.676897 0.410454
3.177600 0.684590 0.409309
3.168691 0.692852 0.408506
3.163640 0.701926 0.408163
3.155657 0.710322 0.407475
3.146683 0.718455 0.406673
3.141560 0.727434 0.406329
3.135445 0.736162 0.405871
3.127373 0.744400 0.405183
3.118314 0.752362 0.404381
3.111165 0.760747 0.403808
3.102066 0.768619 0.403006
3.091985 0.776200 0.402089
3.082849 0.783971 0.401287
3.073694 0.791693 0.400485
3.067406 0.800118 0.400027
3.055331 0.806992 0.398881
3.047082 0.814824 0.398193
3.041691 0.823391 0.397850
3.037234 0.832194 0.397620
3.032752 0.840978 0.397391
3.030157 0.850278 0.397391
3.432378 0.382618 0.410863
3.426250 0.392582 0.410321
3.423054 0.402859 0.410104
3.412920 0.412287 0.409129
3.409666 0.422512 0.408913
3.398491 0.431719 0.407829
3.388278 0.440989 0.406854
3.373114 0.449545 0.405337
3.365808 0.459086 0.404687
3.347646 0.467077 0.402845
3.343245 0.476924 0.402520
3.334880 0.486176 0.401762
3.329440 0.495820 0.401328
3.321023 0.504987 0.400570
3.317493 0.514868 0.400353
3.311970 0.524422 0.399920
3.306420 0.533947 0.399486
3.298881 0.543120 0.398836
3.294258 0.552746 0.398511
3.284707 0.561510 0.397645
3.276113 0.570392 0.396886
3.271411 0.579920 0.396561
3.267660 0.589601 0.396344
3.257036 0.598009 0.395369
3.253231 0.607634 0.395153
3.246469 0.616685 0.394611
3.238705 0.625511 0.393961
3.231893 0.634488 0.393419
3.224082 0.643234 0.392769
3.215273 0.651740 0.392011
3.208390 0.660600 0.391469
3.199536 0.669016 0.390710
3.189689 0.677178 0.389844
3.181765 0.685705 0.389194
3.174791 0.694402 0.388652
3.165852 0.702632 0.387893
3.156892 0.710813 0.387135
3.148881 0.719168 0.386485
3.140849 0.727480 0.385835
3.133764 0.735977 0.385293
3.124721 0.743976 0.384535
3.117592 0.752394 0.383993
3.109475 0.760539 0.383343
3.100372 0.768402 0.382584
3.090286 0.775974 0.381718
3.081147 0.783736 0.380959
3.072952 0.791698 0.380309
3.064737 0.799617 0.379659
3.055541 0.807239 0.378901
3.047288 0.815069 0.378251
3.040935 0.823375 0.377817
3.034559 0.831650 0.377384
3.030077 0.840425 0.377167
3.026527 0.849449 0.377059
3.021994 0.858187 0.376842
3.421779 0.389934 0.388628
3.417603 0.400083 0.388321
3.412409 0.410091 0.387912
3.406198 0.419949 0.387401
3.399959 0.429773 0.386889
3.382841 0.438155 0.385253
3.375564 0.447746 0.384640
3.367274 0.457163 0.383924
3.355018 0.465985 0.382799
3.349633 0.475715 0.382390
3.341267 0.484989 0.381674
3.343699 0.495821 0.382083
3.335278 0.505034 0.381367
3.323882 0.513744 0.380344
3.316394 0.523008 0.379730
3.308882 0.532232 0.379117
3.299380 0.541092 0.378299
3.291818 0.550227 0.377685
3.283250 0.559154 0.376969
3.277599 0.568544 0.376560
3.265064 0.576692 0.375435
3.256426 0.585473 0.374719
3.246786 0.594028 0.373901
3.240059 0.603075 0.373390
3.235261 0.612458 0.373083
3.225553 0.620875 0.372265
3.218751 0.629812 0.371753
3.210950 0.638520 0.371140
3.205076 0.647579 0.370731
3.195279 0.655808 0.369912
3.190331 0.664999 0.369606
3.181463 0.673341 0.368890
3.172575 0.681635 0.368174
3.163665 0.689880 0.367458
3.155706 0.698293 0.366844
3.147726 0.706663 0.366231
3.142633 0.715654 0.365924
3.133638 0.723724 0.365208
3.126560 0.732200 0.364697
3.121396 0.741099 0.364390
3.112338 0.749042 0.363674
3.105193 0.757408 0.363162
3.094164 0.764781 0.362242
3.086978 0.773062 0.361731
3.074950 0.780081 0.360708
3.067725 0.788273 0.360197
3.058554 0.795927 0.359481
3.051288 0.804038 0.358969
3.043041 0.811857 0.358356
3.036694 0.820151 0.357947
3.030326 0.828414 0.357538
3.024894 0.836910 0.357231
3.020396 0.845650 0.357026
3.014916 0.854099 0.356719
3.008457 0.862248 0.356310
3.418045 0.388578 0.366506
3.404974 0.397673 0.365353
3.397808 0.407404 0.364777
3.390615 0.417096 0.364201
3.384381 0.426871 0.363721
3.374172 0.436101 0.362857
3.365911 0.445534 0.362185
3.357624 0.454921 0.361513
3.350297 0.464398 0.360937
3.344914 0.474114 0.360552
3.341474 0.484088 0.360360
3.338004 0.494045 0.360168
3.330568 0.503389 0.359592
3.325073 0.512996 0.359208
3.318567 0.522419 0.358728
3.311053 0.531649 0.358152
3.300566 0.540354 0.357288
3.293002 0.549493 0.356712
3.285413 0.558590 0.356136
3.272896 0.566794 0.355079
3.264280 0.575620 0.354407
3.253682 0.584046 0.353543
3.245021 0.592771 0.352871
3.234380 0.601084 0.352007
3.225675 0.609708 0.351335
3.215970 0.618096 0.350566
3.207221 0.626621 0.349894
3.197473 0.634904 0.349126
3.193559 0.644316 0.348934
3.182792 0.652309 0.348070
3.178827 0.661664 0.347878
3.169965 0.669970 0.347206
3.165948 0.679274 0.347014
3.155097 0.687074 0.346150
3.149087 0.695890 0.345765
3.143052 0.704676 0.345381
3.136993 0.713431 0.344997
3.129941 0.721931 0.344517
3.120927 0.729941 0.343845
3.117705 0.739283 0.343749
3.108648 0.747213 0.343077
3.100539 0.755331 0.342501
3.089510 0.762690 0.341637
3.085225 0.771681 0.341445
3.075124 0.779184 0.340676
3.066935 0.787128 0.340100
3.058726 0.795029 0.339524
3.052423 0.803394 0.339140
3.046097 0.811729 0.338756
3.038787 0.819772 0.338276
3.032417 0.828041 0.337892
3.026026 0.836278 0.337508
3.019612 0.844484 0.337124
3.015091 0.853202 0.336932
3.009589 0.861625 0.336644
3.004063 0.870022 0.336356
3.419497 0.392137 0.346778
3.392560 0.399606 0.344430
3.383409 0.409059 0.343708
3.380161 0.419193 0.343527
3.375895 0.429185 0.343257
3.367649 0.438642 0.342625
3.358390 0.447921 0.341902
3.354039 0.457819 0.341631
3.347687 0.467420 0.341180
3.341307 0.476987 0.340729
3.337857 0.486949 0.340548
3.333392 0.496747 0.340277
3.325945 0.506075 0.339736
3.321424 0.515819 0.339465
3.315891 0.525384 0.339104
3.309347 0.534762 0.338652
3.300812 0.543782 0.338020
3.291270 0.552589 0.337298
3.282688 0.561511 0.336666
3.271137 0.569874 0.335763
3.262509 0.578692 0.335131
3.251897 0.587109 0.334318
3.242244 0.595646 0.333596
3.231590 0.603947 0.332784
3.221894 0.612373 0.332061
3.211199 0.620557 0.331249
3.200485 0.628682 0.330436
3.189750 0.636746 0.329624
3.182901 0.645541 0.329172
3.176028 0.654300 0.328721
3.169132 0.663023 0.328269
3.165134 0.672330 0.328089
3.157215 0.680780 0.327547
3.152192 0.689825 0.327276
3.144227 0.698199 0.326734
3.139155 0.707187 0.326464
3.131145 0.715485 0.325922
3.126024 0.724414 0.325651
3.117970 0.732637 0.325109
3.112801 0.741508 0.324838
3.103734 0.749420 0.324207
3.100453 0.758703 0.324116
3.092310 0.766775 0.323574
3.086079 0.775289 0.323213
3.077894 0.783282 0.322672
3.069690 0.791232 0.322130
3.063393 0.799641 0.321769
3.056111 0.807765 0.321317
3.047845 0.815595 0.320776
3.042445 0.824161 0.320505
3.035099 0.832177 0.320053
3.025813 0.839623 0.319421
3.020346 0.848095 0.319151
3.014856 0.856542 0.318880
3.008385 0.864688 0.318519
3.010500 0.875302 0.318970
3.398610 0.398190 0.323991
3.395394 0.408377 0.323822
3.390169 0.418304 0.323485
3.380961 0.427703 0.322812
3.376668 0.437690 0.322559
3.367407 0.446999 0.321886
3.360096 0.456524 0.321380
3.352757 0.466008 0.320875
3.344406 0.475312 0.320286
3.337015 0.484711 0.319781
3.329599 0.494070 0.319275
3.323141 0.503537 0.318854
3.317641 0.513121 0.318518
3.313099 0.522831 0.318265
3.305576 0.532044 0.317760
3.297045 0.541054 0.317170
3.288490 0.550017 0.316581
3.281876 0.559267 0.316160
3.274254 0.568311 0.315655
3.266607 0.577314 0.315150
3.258936 0.586275 0.314644
3.249281 0.594836 0.313971
3.243522 0.604072 0.313634
3.232842 0.612353 0.312876
3.223120 0.620761 0.312203
3.212399 0.628925 0.311445
3.204591 0.637611 0.310940
3.192852 0.645467 0.310098
3.185001 0.654057 0.309592
3.178102 0.662809 0.309171
3.172154 0.671731 0.308835
3.162284 0.679785 0.308161
3.156289 0.688635 0.307824
3.149297 0.697238 0.307403
3.141310 0.705587 0.306898
3.130386 0.713230 0.306140
3.121387 0.721261 0.305551
3.112368 0.729244 0.304961
3.106238 0.737868 0.304625
3.100085 0.746462 0.304288
3.093908 0.755025 0.303951
3.086740 0.763318 0.303530
3.080517 0.771816 0.303193
3.076203 0.780773 0.303025
3.068968 0.788967 0.302604
3.064604 0.797877 0.302435
3.058288 0.806260 0.302099
3.050023 0.814098 0.301593
3.041739 0.821892 0.301088
3.036320 0.830432 0.300836
3.027035 0.837884 0.300246
3.020612 0.846092 0.299909
3.015126 0.854540 0.299657
3.008659 0.862688 0.299320
3.003127 0.871082 0.299067
3.397136 0.408852 0.301834
3.392897 0.418906 0.301601
3.387640 0.428812 0.301289
3.377410 0.438048 0.300590
3.371109 0.447751 0.300201
3.360829 0.456881 0.299501
3.350524 0.465953 0.298801
3.343157 0.475387 0.298334
3.335763 0.484781 0.297868
3.326371 0.493840 0.297246
3.316954 0.502847 0.296624
3.313426 0.512716 0.296468
3.302974 0.521478 0.295768
3.296438 0.530816 0.295379
3.287907 0.539796 0.294835
3.280336 0.548892 0.294369
3.272740 0.557948 0.293902
3.265119 0.566962 0.293435
3.262383 0.576802 0.293358
3.252748 0.585395 0.292736
3.245053 0.594293 0.292269
3.239294 0.603515 0.291958
3.233509 0.612707 0.291647
3.219867 0.620360 0.290714
3.211100 0.628893 0.290169
3.206222 0.638158 0.289936
3.191546 0.645421 0.288925
3.183692 0.654005 0.288459
3.176790 0.662751 0.288070
3.168890 0.671253 0.287603
3.159019 0.679295 0.286981
3.150102 0.687494 0.286437
3.142137 0.695861 0.285970
3.134151 0.704186 0.285504
3.123228 0.711803 0.284804
3.115202 0.720034 0.284337
3.106184 0.727995 0.283793
3.099086 0.736368 0.283404
3.090997 0.744471 0.282937
3.085793 0.753241 0.282704
3.079596 0.761746 0.282393
3.074343 0.770463 0.282160
3.069067 0.779155 0.281926
3.063765 0.787822 0.281693
3.057474 0.796212 0.281382
3.052125 0.804826 0.281149
3.043863 0.812642 0.280682
3.036543 0.820676 0.280293
3.029203 0.828672 0.279905
3.019921 0.836098 0.279360
3.012542 0.844014 0.278971
3.004183 0.851620 0.278505
2.998682 0.860008 0.278272
2.993156 0.868370 0.278038
2.989522 0.877268 0.277961
2.987772 0.886720 0.278038
3.397159 0.396159 0.280809
3.389986 0.405866 0.280379
3.385755 0.415899 0.280164
3.379515 0.425659 0.279805
3.369290 0.434873 0.279160
3.362008 0.444422 0.278730
3.354698 0.453930 0.278300
3.345386 0.463123 0.277727
3.335062 0.472123 0.277082
3.324713 0.481064 0.276437
3.318289 0.490531 0.276079
3.308879 0.499515 0.275505
3.303388 0.509055 0.275218
3.295899 0.518256 0.274788
3.288384 0.527415 0.274358
3.280845 0.536533 0.273928
3.275249 0.545939 0.273642
3.265692 0.554646 0.273068
3.259061 0.563810 0.272710
3.254369 0.573286 0.272495
3.244741 0.581857 0.271922
3.233130 0.590014 0.271205
3.227382 0.599201 0.270918
3.225528 0.609100 0.270918
3.208952 0.616166 0.269843
3.201174 0.624860 0.269413
3.193372 0.633511 0.268983
3.189458 0.642910 0.268840
3.189424 0.653093 0.268983
3.178617 0.661044 0.268338
3.167792 0.668935 0.267693
3.151097 0.675509 0.266618
3.143162 0.683899 0.266188
3.137154 0.692677 0.265901
3.129174 0.700988 0.265471
3.117284 0.708372 0.264754
3.111208 0.717035 0.264468
3.102196 0.724985 0.263966
3.095104 0.733347 0.263608
3.085082 0.740973 0.263034
3.078918 0.749489 0.262748
3.070794 0.757497 0.262318
3.064585 0.765945 0.262031
3.057387 0.774118 0.261673
3.054998 0.783494 0.261673
3.049684 0.792110 0.261458
3.045310 0.800954 0.261314
3.038020 0.809008 0.260956
3.030709 0.817025 0.260597
3.024339 0.825267 0.260311
3.014102 0.832415 0.259737
3.007692 0.840583 0.259451
2.998381 0.847904 0.258949
2.992889 0.856275 0.258734
2.984500 0.863787 0.258304
2.981836 0.872939 0.258304
2.979144 0.882083 0.258304
3.364176 0.406147 0.259021
3.362914 0.416467 0.259021
3.360631 0.426656 0.258955
3.355348 0.436451 0.258692
3.349048 0.446086 0.258362
3.343708 0.455821 0.258098
3.336364 0.465252 0.257703
3.328994 0.474643 0.257307
3.323572 0.484280 0.257044
3.315162 0.493448 0.256582
3.308700 0.502869 0.256252
3.301225 0.512102 0.255857
3.293725 0.521293 0.255461
3.286199 0.530444 0.255066
3.279633 0.539715 0.254736
3.273041 0.548951 0.254407
3.263472 0.557648 0.253879
3.255847 0.566633 0.253484
3.249181 0.575750 0.253154
3.237579 0.583948 0.252495
3.227920 0.592440 0.251967
3.216278 0.600513 0.251308
3.206578 0.608891 0.250781
3.197836 0.617404 0.250319
3.189072 0.625869 0.249858
3.184201 0.635066 0.249660
3.178326 0.644040 0.249396
3.168515 0.652182 0.248869
3.160639 0.660677 0.248473
3.151764 0.668923 0.248012
3.143844 0.677330 0.247616
3.135902 0.685695 0.247221
3.126964 0.693802 0.246759
3.121900 0.702736 0.246561
3.113892 0.710980 0.246166
3.108780 0.719856 0.245968
3.100728 0.728024 0.245572
3.093626 0.736380 0.245243
3.085531 0.744465 0.244847
3.079355 0.752981 0.244584
3.071219 0.760987 0.244188
3.065966 0.769678 0.243990
3.060689 0.778344 0.243793
3.055387 0.786985 0.243595
3.050062 0.795601 0.243397
3.042783 0.803682 0.243067
3.037410 0.812241 0.242870
3.031051 0.820515 0.242606
3.021782 0.827967 0.242144
3.012497 0.835369 0.241683
3.004155 0.842992 0.241287
2.996754 0.850844 0.240958
2.990293 0.858934 0.240694
2.983811 0.866991 0.240430
2.978265 0.875298 0.240233
2.975565 0.884432 0.240233
3.358372 0.415569 0.237467
3.357082 0.425870 0.237467
3.352789 0.435782 0.237288
3.350447 0.445935 0.237228
3.347085 0.455942 0.237109
3.341716 0.465658 0.236870
3.335330 0.475205 0.236572
3.330893 0.485004 0.236393
3.323465 0.494341 0.236035
3.316011 0.503636 0.235677
3.307546 0.512737 0.235260
3.299055 0.521791 0.234842
3.290540 0.530798 0.234425
3.282001 0.539758 0.234007
3.272454 0.548505 0.233530
3.262884 0.557199 0.233052
3.254275 0.566010 0.232635
3.246625 0.574948 0.232277
3.237969 0.583667 0.231859
3.229290 0.592338 0.231442
3.220588 0.600962 0.231024
3.211864 0.609537 0.230607
3.199198 0.617309 0.229950
3.191411 0.625969 0.229593
3.183602 0.634587 0.229235
3.174791 0.642965 0.228817
3.164982 0.651094 0.228340
3.162969 0.660801 0.228340
3.152138 0.668639 0.227803
3.143241 0.676836 0.227385
3.135298 0.685198 0.227027
3.128309 0.693734 0.226729
3.120322 0.702014 0.226371
3.112314 0.710252 0.226013
3.107203 0.719122 0.225834
3.100123 0.727512 0.225536
3.093021 0.735865 0.225238
3.084926 0.743948 0.224880
3.077780 0.752224 0.224581
3.069644 0.760224 0.224224
3.064393 0.768909 0.224045
3.058150 0.777324 0.223806
3.052850 0.785956 0.223627
3.045595 0.794060 0.223329
3.041214 0.802891 0.223209
3.033914 0.810929 0.222911
3.027558 0.819191 0.222673
3.022142 0.827685 0.222494
3.015740 0.835887 0.222255
3.009317 0.844057 0.222016
3.002872 0.852196 0.221778
2.996406 0.860303 0.221539
2.989918 0.868379 0.221300
2.985324 0.876985 0.221181
2.979748 0.885287 0.221002
2.974150 0.893563 0.220823
3.332988 0.410914 0.214859
3.350534 0.423519 0.215873
3.348229 0.433668 0.215820
3.346883 0.443939 0.215820
3.343526 0.453936 0.215713
3.339151 0.463779 0.215553
3.333758 0.473459 0.215339
3.329325 0.483254 0.215179
3.324863 0.493026 0.215019
3.313462 0.501728 0.214485
3.304012 0.510670 0.214058
3.296512 0.519870 0.213738
3.286028 0.528553 0.213257
3.276508 0.537338 0.212830
3.264010 0.545576 0.212243
3.253462 0.554077 0.211763
3.243876 0.562690 0.211336
3.236234 0.571596 0.211015
3.228569 0.580461 0.210695
3.219897 0.589105 0.210321
3.213166 0.598067 0.210055
3.203467 0.606435 0.209627
3.194727 0.614938 0.209254
3.186946 0.623585 0.208934
3.174245 0.631216 0.208346
3.165442 0.639566 0.207973
3.156618 0.647869 0.207599
3.149728 0.656530 0.207332
3.139883 0.664536 0.206905
3.132948 0.673116 0.206638
3.125990 0.681660 0.206371
3.119009 0.690168 0.206104
3.114929 0.699296 0.205998
3.107901 0.707740 0.205731
3.102796 0.716597 0.205570
3.096694 0.725202 0.205357
3.089597 0.733545 0.205090
3.082478 0.741852 0.204823
3.075337 0.750121 0.204556
3.067204 0.758114 0.204236
3.060021 0.766307 0.203969
3.051848 0.774218 0.203649
3.045590 0.782582 0.203435
3.038343 0.790664 0.203168
3.033006 0.799219 0.203008
3.027646 0.807747 0.202848
3.021297 0.815990 0.202634
3.015890 0.824465 0.202474
3.010459 0.832915 0.202314
3.005967 0.841608 0.202207
3.000489 0.850010 0.202047
2.993067 0.857835 0.201780
2.988503 0.866457 0.201674
2.983914 0.875059 0.201567
2.977386 0.883073 0.201353
2.973707 0.891917 0.201300
2.974779 0.902195 0.201513
3.372848 0.414309 0.195692
3.347776 0.421651 0.194561
3.344486 0.431663 0.194467
3.339185 0.441397 0.194278
3.335835 0.451371 0.194184
3.330477 0.461054 0.193996
3.324102 0.470568 0.193760
3.314734 0.479616 0.193383
3.309295 0.489198 0.193195
3.297902 0.497854 0.192724
3.289449 0.506902 0.192394
3.282944 0.516214 0.192159
3.275428 0.525332 0.191876
3.265915 0.534086 0.191499
3.259335 0.543281 0.191264
3.250760 0.552104 0.190934
3.239208 0.560369 0.190463
3.227637 0.568567 0.189992
3.221945 0.577760 0.189803
3.212296 0.586205 0.189426
3.199681 0.594048 0.188908
3.193917 0.603119 0.188720
3.184204 0.611405 0.188343
3.179373 0.620596 0.188202
3.170596 0.628984 0.187872
3.160818 0.637127 0.187495
3.151020 0.645215 0.187118
3.145114 0.654064 0.186930
3.137229 0.662470 0.186647
3.129323 0.670833 0.186365
3.122370 0.679367 0.186129
3.117345 0.688296 0.185988
3.109371 0.696545 0.185705
3.102349 0.704972 0.185469
3.095305 0.713363 0.185234
3.091157 0.722401 0.185140
3.082123 0.730266 0.184810
3.075012 0.738551 0.184574
3.068850 0.747035 0.184386
3.059756 0.754769 0.184056
3.051611 0.762697 0.183774
3.044416 0.770828 0.183538
3.038167 0.779171 0.183350
3.030929 0.787231 0.183114
3.025601 0.795763 0.182973
3.020250 0.804269 0.182832
3.014875 0.812750 0.182690
3.009477 0.821206 0.182549
3.004055 0.829636 0.182408
2.998610 0.838041 0.182266
2.992180 0.846148 0.182078
2.982849 0.853398 0.181748
2.976379 0.861433 0.181560
2.970846 0.869717 0.181418
2.966249 0.878260 0.181324
2.965454 0.887930 0.181418
2.959848 0.896154 0.181277
3.379242 0.418483 0.176456
3.339284 0.423954 0.174843
3.334996 0.433811 0.174719
3.330678 0.443646 0.174595
3.326331 0.453458 0.174471
3.320965 0.463111 0.174305
3.315572 0.472734 0.174140
3.307185 0.481898 0.173851
3.302726 0.491602 0.173726
3.291324 0.500234 0.173313
3.282862 0.509260 0.173023
3.277336 0.518706 0.172858
3.272770 0.528281 0.172734
3.265218 0.537348 0.172486
3.259613 0.546703 0.172320
3.252995 0.555861 0.172114
3.242415 0.564300 0.171742
3.233782 0.573027 0.171452
3.224142 0.581530 0.171121
3.215463 0.590158 0.170832
3.202832 0.598007 0.170377
3.196074 0.606900 0.170170
3.184386 0.614812 0.169757
3.178563 0.623811 0.169591
3.170755 0.632389 0.169343
3.165862 0.641519 0.169219
3.155071 0.649419 0.168847
3.151107 0.658688 0.168764
3.143207 0.667110 0.168516
3.133331 0.675069 0.168185
3.124412 0.683187 0.167896
3.124252 0.693202 0.167978
3.111387 0.700374 0.167524
3.104353 0.708806 0.167317
3.100217 0.717877 0.167234
3.093136 0.726244 0.167027
3.083117 0.733882 0.166697
3.076966 0.742402 0.166531
3.071762 0.751128 0.166407
3.063623 0.759108 0.166159
3.052557 0.766318 0.165787
3.044382 0.774204 0.165539
3.036186 0.782047 0.165291
3.028938 0.790099 0.165084
3.022635 0.798369 0.164918
3.017276 0.806865 0.164794
3.010928 0.815075 0.164629
3.003595 0.822990 0.164422
3.001056 0.832201 0.164422
2.993678 0.840057 0.164215
2.984358 0.847329 0.163926
2.978863 0.855655 0.163802
2.973345 0.863955 0.163678
2.967804 0.872229 0.163554
2.964157 0.881045 0.163512
2.965268 0.891284 0.163678
2.965388 0.901248 0.163802
2.965474 0.911220 0.163926
3.336940 0.433135 0.153720
3.331633 0.442844 0.153579
3.327288 0.452659 0.153474
3.322914 0.462452 0.153369
3.318511 0.472223 0.153264
3.309135 0.481252 0.152983
3.304677 0.490961 0.152878
3.296239 0.500049 0.152632
3.285800 0.508784 0.152317
3.278301 0.517928 0.152106
3.272750 0.527347 0.151966
3.266186 0.536576 0.151790
3.258610 0.545605 0.151580
3.251995 0.554760 0.151405
3.242400 0.563366 0.151124
3.235736 0.572441 0.150949
3.231014 0.581834 0.150843
3.220366 0.590124 0.150528
3.210681 0.598537 0.150247
3.203920 0.607454 0.150072
3.194191 0.615768 0.149791
3.186402 0.624413 0.149581
3.180551 0.633405 0.149440
3.173695 0.642170 0.149265
3.164857 0.650496 0.149020
3.158933 0.659386 0.148879
3.151029 0.667832 0.148669
3.142126 0.676025 0.148423
3.134179 0.684384 0.148213
3.125234 0.692483 0.147967
3.117244 0.700754 0.147757
3.106310 0.708315 0.147441
3.100228 0.716942 0.147301
3.097040 0.726222 0.147266
3.086047 0.733641 0.146950
3.079895 0.742169 0.146810
3.075662 0.751141 0.146740
3.067522 0.759133 0.146529
3.056454 0.766354 0.146214
3.048277 0.774252 0.146003
3.040080 0.782107 0.145793
3.032830 0.790171 0.145617
3.025560 0.798198 0.145442
3.020200 0.806703 0.145337
3.012887 0.814662 0.145161
3.007482 0.823110 0.145056
3.000126 0.831000 0.144881
2.994676 0.839391 0.144776
2.987279 0.847212 0.144600
2.978902 0.854720 0.144390
2.972426 0.862741 0.144250
2.966889 0.871012 0.144144
2.962286 0.879542 0.144074
2.960531 0.888913 0.144109
2.965441 0.900313 0.144390
2.963620 0.909700 0.144425
3.330745 0.431990 0.131306
3.323458 0.441416 0.131135
3.320108 0.451341 0.131078
3.319697 0.461662 0.131107
3.316286 0.471563 0.131050
3.308889 0.480872 0.130879
3.303443 0.490434 0.130765
3.297970 0.499966 0.130651
3.286542 0.508552 0.130367
3.276080 0.517229 0.130111
3.269544 0.526482 0.129969
3.255090 0.534404 0.129599
3.245548 0.543067 0.129371
3.236969 0.551845 0.129172
3.229352 0.560747 0.129002
3.222695 0.569781 0.128859
3.216997 0.578956 0.128746
3.209306 0.587742 0.128575
3.201592 0.596486 0.128404
3.195818 0.605561 0.128291
3.187075 0.614038 0.128091
3.184195 0.623621 0.128063
3.173444 0.631630 0.127807
3.168552 0.640768 0.127722
3.161675 0.649480 0.127579
3.150862 0.657338 0.127323
3.144918 0.666173 0.127210
3.136997 0.674556 0.127039
3.126123 0.682258 0.126783
3.117184 0.690332 0.126584
3.112125 0.699234 0.126498
3.103143 0.707223 0.126299
3.099011 0.716290 0.126242
3.091933 0.724653 0.126100
3.086778 0.733442 0.126015
3.080626 0.741972 0.125901
3.073480 0.750234 0.125759
3.066312 0.758459 0.125617
3.057184 0.766161 0.125418
3.046099 0.773322 0.125162
3.039840 0.781667 0.125048
3.033559 0.789981 0.124934
3.027255 0.798264 0.124820
3.021894 0.806774 0.124735
3.017475 0.815520 0.124678
3.010138 0.823454 0.124536
3.003744 0.831618 0.124422
2.998291 0.840020 0.124337
2.988007 0.847032 0.124109
2.981551 0.855093 0.123995
2.975073 0.863122 0.123882
2.967616 0.870837 0.123739
2.963972 0.879653 0.123711
2.964131 0.889604 0.123796
2.955649 0.896952 0.123626
2.954795 0.906602 0.123682
2.960591 0.918329 0.123938
3.356251 0.433186 0.112618
3.317245 0.438489 0.111756
3.312912 0.448261 0.111688
3.309541 0.458148 0.111642
3.308120 0.468299 0.111642
3.301720 0.477729 0.111529
3.298261 0.487563 0.111484
3.290819 0.496782 0.111348
3.279399 0.505350 0.111121
3.266970 0.513697 0.110871
3.253534 0.521813 0.110599
3.244025 0.530499 0.110417
3.236466 0.539460 0.110281
3.224940 0.547710 0.110054
3.218319 0.556747 0.109941
3.214627 0.566271 0.109896
3.206970 0.575070 0.109759
3.200274 0.584007 0.109646
3.191587 0.592542 0.109487
3.184842 0.601402 0.109374
3.178074 0.610226 0.109260
3.169318 0.618630 0.109101
3.161522 0.627181 0.108965
3.154683 0.635888 0.108852
3.149780 0.644961 0.108784
3.140935 0.653194 0.108625
3.133048 0.661585 0.108489
3.125139 0.669935 0.108353
3.118184 0.678455 0.108239
3.110231 0.686723 0.108103
3.103232 0.695167 0.107990
3.097186 0.703797 0.107899
3.091115 0.712396 0.107808
3.085995 0.721193 0.107740
3.081823 0.730195 0.107695
3.074708 0.738477 0.107581
3.066600 0.746486 0.107445
3.060413 0.754932 0.107355
3.052264 0.762861 0.107218
3.045063 0.770993 0.107105
3.037842 0.779088 0.106992
3.031568 0.787397 0.106901
3.026237 0.795930 0.106833
3.020883 0.804438 0.106765
3.016471 0.813181 0.106719
3.009140 0.821114 0.106606
2.999861 0.828476 0.106447
2.993455 0.836598 0.106356
2.984141 0.843871 0.106198
2.979615 0.852472 0.106152
2.970264 0.859661 0.105993
2.963776 0.867644 0.105903
2.959183 0.876165 0.105857
2.956481 0.885239 0.105857
2.953751 0.894305 0.105857
2.950993 0.903363 0.105857
2.945343 0.911525 0.105789
2.944441 0.921154 0.105835
3.324415 0.433026 0.091510
3.313160 0.441904 0.091344
3.304854 0.451123 0.091228
3.303454 0.461260 0.091228
3.301033 0.471251 0.091212
3.298583 0.481233 0.091195
3.292146 0.490615 0.091112
3.282717 0.499512 0.090980
3.276229 0.508816 0.090897
3.267739 0.517772 0.090781
3.254290 0.525885 0.090582
3.244768 0.534569 0.090449
3.235224 0.543199 0.090316
3.228614 0.552281 0.090234
3.222964 0.561499 0.090167
3.216304 0.570513 0.090084
3.209618 0.579491 0.090001
3.201924 0.588253 0.089902
3.193224 0.596791 0.089786
3.184502 0.605280 0.089670
3.173794 0.613343 0.089521
3.167973 0.622307 0.089454
3.159184 0.630656 0.089338
3.151355 0.639155 0.089239
3.139585 0.646806 0.089073
3.138565 0.656640 0.089090
3.130667 0.665021 0.088990
3.124702 0.673781 0.088924
3.116759 0.682084 0.088824
3.108795 0.690344 0.088725
3.103736 0.699221 0.088675
3.095727 0.707405 0.088576
3.091594 0.716449 0.088542
3.086461 0.725245 0.088493
3.081303 0.734017 0.088443
3.075149 0.742529 0.088377
3.068000 0.750774 0.088294
3.057918 0.758260 0.088161
3.051698 0.766665 0.088095
3.043517 0.774547 0.087995
3.035316 0.782385 0.087896
3.030967 0.791189 0.087863
3.024658 0.799464 0.087796
3.016395 0.807191 0.087697
3.013905 0.816441 0.087697
3.003671 0.823572 0.087564
2.995348 0.831181 0.087465
2.990859 0.839827 0.087432
2.983459 0.847634 0.087349
2.975078 0.855128 0.087249
2.968600 0.863137 0.087183
2.961141 0.870831 0.087100
2.958455 0.879912 0.087100
2.952869 0.888121 0.087050
2.949174 0.896886 0.087034
2.945452 0.905636 0.087017
2.940750 0.914075 0.086984
2.930300 0.920699 0.086851
3.296231 0.427273 0.071400
3.317703 0.440407 0.071645
3.311382 0.449911 0.071592
3.302063 0.458968 0.071507
3.299649 0.468956 0.071496
3.296216 0.478790 0.071475
3.290775 0.488313 0.071432
3.283329 0.497509 0.071368
3.274870 0.506511 0.071294
3.269350 0.515932 0.071251
3.257879 0.524372 0.071145
3.248361 0.533070 0.071059
3.240792 0.542045 0.070995
3.235171 0.551313 0.070953
3.224597 0.559698 0.070857
3.217942 0.568719 0.070804
3.211261 0.577704 0.070751
3.204555 0.586654 0.070697
3.193893 0.594836 0.070602
3.187140 0.603702 0.070548
3.176436 0.611776 0.070453
3.166693 0.619982 0.070367
3.160853 0.628914 0.070325
3.154988 0.637817 0.070282
3.150078 0.646890 0.070250
3.144163 0.655735 0.070208
3.135288 0.663929 0.070133
3.127371 0.672284 0.070069
3.121386 0.681024 0.070027
3.113424 0.689301 0.069963
3.105441 0.697535 0.069899
3.097436 0.705727 0.069835
3.092333 0.714552 0.069803
3.087206 0.723351 0.069771
3.082053 0.732126 0.069739
3.073960 0.740175 0.069675
3.068760 0.748891 0.069643
3.064507 0.757823 0.069622
3.054407 0.765278 0.069537
3.046229 0.773170 0.069473
3.040938 0.781765 0.069441
3.030783 0.789076 0.069356
3.022546 0.796842 0.069292
3.014291 0.804565 0.069228
3.008912 0.813027 0.069196
2.997722 0.819881 0.069100
2.991338 0.828008 0.069058
2.983969 0.835833 0.069005
2.977542 0.843894 0.068962
2.971094 0.851923 0.068919
2.967506 0.860755 0.068909
2.962933 0.869293 0.068888
2.959293 0.878094 0.068877
2.954669 0.886595 0.068856
2.949065 0.894785 0.068824
2.945350 0.903535 0.068813
2.937788 0.911087 0.068760
2.933071 0.919497 0.068738
2.931190 0.928793 0.068749
3.312577 0.449730 0.050117
3.295334 0.457688 0.050050
3.292924 0.467655 0.050046
3.287516 0.477180 0.050029
3.283069 0.486824 0.050016
3.274639 0.495845 0.049987
3.269149 0.505278 0.049970
3.260669 0.514214 0.049941
3.252165 0.523102 0.049912
3.242651 0.531782 0.049878
3.237059 0.541068 0.049861
3.226512 0.549484 0.049824
3.213973 0.557499 0.049778
3.208308 0.566661 0.049761
3.201634 0.575616 0.049740
3.189033 0.583454 0.049694
3.178380 0.591588 0.049656
3.171638 0.600405 0.049635
3.168799 0.609944 0.049631
3.163968 0.619086 0.049618
3.160093 0.628400 0.049610
3.149328 0.636309 0.049572
3.147362 0.645968 0.049572
3.139491 0.654396 0.049547
3.136491 0.663817 0.049543
3.129551 0.672386 0.049522
3.117703 0.679852 0.049480
3.110721 0.688333 0.049459
3.102741 0.696558 0.049434
3.096689 0.705186 0.049417
3.088665 0.713332 0.049392
3.083541 0.722120 0.049380
3.076447 0.730421 0.049359
3.068358 0.738452 0.049334
3.062192 0.746913 0.049317
3.056974 0.755584 0.049304
3.049792 0.763744 0.049283
3.043557 0.772113 0.049267
3.036331 0.780202 0.049246
3.029085 0.788254 0.049225
3.022784 0.796524 0.049208
3.013563 0.803988 0.049179
3.004325 0.811404 0.049149
2.996999 0.819298 0.049128
2.988688 0.826889 0.049103
2.981323 0.834705 0.049082
2.975862 0.843030 0.049070
2.970378 0.851329 0.049057
2.965831 0.859881 0.049049
2.960300 0.868131 0.049036
2.956664 0.876924 0.049032
2.948213 0.884267 0.049007
2.942616 0.892437 0.048994
2.934128 0.899701 0.048969
2.928488 0.907809 0.048957
2.919964 0.914995 0.048931
2.911424 0.922136 0.048906
3.294454 0.456637 0.029247
3.288087 0.466039 0.029258
3.281694 0.475406 0.029268
3.280220 0.485472 0.029268
3.268828 0.494035 0.029289
3.262356 0.503298 0.029300
3.251906 0.511901 0.029318
3.243409 0.520763 0.029333
3.233902 0.529416 0.029350
3.228317 0.538676 0.029358
3.217777 0.547066 0.029377
3.207216 0.555396 0.029396
3.199589 0.564189 0.029408
3.188985 0.572410 0.029427
3.177377 0.580390 0.029448
3.167717 0.588671 0.029465
3.160983 0.597456 0.029475
3.152262 0.605828 0.029490
3.150388 0.615496 0.029490
3.141620 0.623792 0.029505
3.143612 0.634220 0.029496
3.140672 0.643661 0.029498
3.135745 0.652681 0.029505
3.127858 0.661055 0.029517
3.123860 0.670228 0.029522
3.117881 0.678956 0.029530
3.108949 0.687005 0.029545
3.099997 0.695006 0.029559
3.094925 0.703848 0.029565
3.086905 0.711989 0.029578
3.078864 0.720087 0.029591
3.070803 0.728143 0.029603
3.063694 0.736391 0.029614
3.054619 0.744127 0.029628
3.049410 0.752775 0.029635
3.044176 0.761398 0.029641
3.036010 0.769258 0.029653
3.029762 0.777573 0.029662
3.024458 0.786109 0.029668
3.018165 0.794364 0.029677
3.011849 0.802589 0.029685
3.002614 0.809999 0.029700
2.993363 0.817361 0.029714
2.985059 0.824940 0.029727
2.976736 0.832476 0.029739
2.968395 0.839969 0.029752
2.963882 0.848521 0.029756
2.959344 0.857053 0.029760
2.953822 0.865283 0.029767
2.950195 0.874057 0.029769
2.945584 0.882529 0.029773
2.937121 0.889820 0.029785
2.925773 0.896188 0.029804
2.917279 0.903383 0.029817
2.910676 0.911132 0.029825
2.905008 0.919152 0.029831
2.894555 0.925620 0.029848
3.300993 0.459748 0.010127
3.293627 0.469029 0.010174
3.276339 0.476833 0.010300
3.270904 0.486296 0.010331
3.263464 0.495430 0.010378
3.255012 0.504370 0.010433
3.246534 0.513264 0.010488
3.240995 0.522586 0.010520
3.230496 0.531070 0.010590
3.219975 0.539495 0.010661
3.213376 0.548531 0.010700
3.203796 0.557020 0.010763
3.195179 0.565629 0.010818
3.187523 0.574367 0.010865
3.177877 0.582703 0.010928
3.167227 0.590803 0.010999
3.160486 0.599587 0.011038
3.152740 0.608146 0.011085
3.148897 0.617432 0.011101
3.145027 0.626699 0.011117
3.137208 0.635157 0.011164
3.133286 0.644376 0.011180
3.134231 0.654598 0.011156
3.121447 0.661933 0.011242
3.115490 0.670666 0.011274
3.111464 0.679795 0.011289
3.101553 0.687609 0.011352
3.093575 0.695807 0.011399
3.089476 0.704850 0.011415
3.081453 0.712975 0.011462
3.073409 0.721057 0.011509
3.066318 0.729328 0.011549
3.059205 0.737561 0.011588
3.050128 0.745285 0.011643
3.042973 0.753439 0.011682
3.036767 0.761799 0.011714
3.030539 0.770129 0.011745
3.023319 0.778178 0.011784
3.018014 0.786694 0.011808
3.013653 0.795440 0.011824
3.005401 0.803135 0.011871
2.998096 0.811048 0.011910
2.990771 0.818924 0.011949
2.983426 0.826762 0.011988
2.975098 0.834293 0.012036
2.966751 0.841781 0.012083
2.961271 0.850052 0.012106
2.957689 0.858855 0.012114
2.953121 0.867362 0.012130
2.947570 0.875565 0.012153
2.941997 0.883742 0.012177
2.936401 0.891893 0.012201
2.925046 0.898259 0.012271
2.918456 0.906044 0.012303
2.908029 0.912601 0.012365
2.898543 0.919405 0.012420
2.893804 0.927683 0.012436
2.910923 0.943021 0.012271
3.280528 0.467403 -0.011021
3.273141 0.476602 -0.010935
3.268697 0.486200 -0.010892
3.262247 0.495476 -0.010821
3.252806 0.504258 -0.010706
3.244330 0.513142 -0.010606
3.233856 0.521661 -0.010477
3.226321 0.530607 -0.010391
3.216789 0.539182 -0.010277
3.208220 0.547871 -0.010177
3.198643 0.556341 -0.010062
3.192982 0.565455 -0.010005
3.186312 0.574362 -0.009933
3.181585 0.583593 -0.009891
3.171916 0.591885 -0.009776
3.169102 0.601427 -0.009762
3.160370 0.609822 -0.009662
3.155540 0.618938 -0.009619
3.148723 0.627639 -0.009547
3.140903 0.636106 -0.009461
3.132081 0.644330 -0.009361
3.125195 0.652914 -0.009289
3.116330 0.661048 -0.009189
3.109400 0.669553 -0.009118
3.102447 0.678023 -0.009046
3.094495 0.686240 -0.008960
3.087497 0.694634 -0.008889
3.083402 0.703658 -0.008860
3.075383 0.711762 -0.008774
3.067344 0.719824 -0.008688
3.061230 0.728306 -0.008631
3.055094 0.736757 -0.008574
3.046991 0.744703 -0.008488
3.040809 0.753086 -0.008431
3.034605 0.761439 -0.008374
3.028378 0.769761 -0.008316
3.022129 0.778051 -0.008259
3.015857 0.786311 -0.008202
3.008597 0.794284 -0.008130
3.002282 0.802478 -0.008073
2.994014 0.810119 -0.007987
2.988621 0.818509 -0.007944
2.980315 0.826072 -0.007858
2.974878 0.834402 -0.007815
2.966532 0.841888 -0.007730
2.961052 0.850157 -0.007687
2.955549 0.858401 -0.007644
2.949064 0.866338 -0.007586
2.943517 0.874528 -0.007544
2.939862 0.883267 -0.007529
2.930442 0.890248 -0.007429
2.925785 0.898647 -0.007400
2.918239 0.906137 -0.007329
2.910675 0.913590 -0.007257
2.904046 0.921306 -0.007200
2.896445 0.928685 -0.007129
2.890728 0.936643 -0.007086
3.268502 0.464184 -0.031494
3.265084 0.473922 -0.031453
3.258669 0.483203 -0.031350
3.253218 0.492599 -0.031267
3.244775 0.501507 -0.031123
3.236308 0.510369 -0.030979
3.224856 0.518706 -0.030773
3.215357 0.527302 -0.030608
3.206821 0.536010 -0.030464
3.199248 0.544838 -0.030341
3.191651 0.553625 -0.030217
3.185015 0.562544 -0.030114
3.177371 0.571250 -0.029991
3.171669 0.580275 -0.029908
3.166925 0.589454 -0.029847
3.163137 0.598795 -0.029805
3.157358 0.607740 -0.029723
3.151554 0.616656 -0.029641
3.149648 0.626322 -0.029641
3.133012 0.633010 -0.029332
3.123220 0.641010 -0.029167
3.113409 0.648956 -0.029002
3.104557 0.657054 -0.028858
3.095684 0.665105 -0.028714
3.088745 0.673534 -0.028611
3.082760 0.682142 -0.028529
3.079677 0.691378 -0.028508
3.074617 0.700156 -0.028446
3.068558 0.708686 -0.028364
3.064422 0.717640 -0.028323
3.056370 0.725652 -0.028199
3.049269 0.733855 -0.028096
3.044090 0.742495 -0.028034
3.036945 0.750631 -0.027931
3.028809 0.758487 -0.027808
3.023560 0.767038 -0.027746
3.015383 0.774817 -0.027622
3.008154 0.782804 -0.027519
3.000904 0.790755 -0.027417
2.995566 0.799185 -0.027355
2.986344 0.806545 -0.027211
2.981927 0.815176 -0.027169
2.975558 0.823254 -0.027087
2.970130 0.831570 -0.027025
2.962755 0.839315 -0.026922
2.959205 0.848125 -0.026902
2.950828 0.855529 -0.026778
2.944352 0.863452 -0.026696
2.937855 0.871343 -0.026613
2.933253 0.879778 -0.026572
2.924800 0.887031 -0.026449
2.920153 0.895413 -0.026407
2.912617 0.902887 -0.026304
2.907926 0.911221 -0.026263
2.901304 0.918930 -0.026181
2.895615 0.926912 -0.026119
2.890855 0.935175 -0.026078
2.883221 0.942486 -0.025975
3.258307 0.461230 -0.051296
3.264791 0.472372 -0.051509
3.259371 0.481800 -0.051402
3.252935 0.491050 -0.051269
3.247462 0.500417 -0.051162
3.239986 0.509444 -0.051002
3.228539 0.517795 -0.050735
3.218056 0.526243 -0.050495
3.209525 0.534960 -0.050308
3.199985 0.543462 -0.050094
3.191408 0.552082 -0.049907
3.183792 0.560828 -0.049747
3.176153 0.569532 -0.049587
3.168491 0.578195 -0.049427
3.161788 0.586999 -0.049293
3.153097 0.595396 -0.049106
3.146348 0.604122 -0.048973
3.140555 0.613005 -0.048866
3.133757 0.621663 -0.048732
3.124976 0.629889 -0.048545
3.117154 0.638268 -0.048385
3.110288 0.646809 -0.048252
3.101443 0.654900 -0.048065
3.093554 0.663152 -0.047905
3.085645 0.671363 -0.047744
3.081619 0.680394 -0.047691
3.078542 0.689627 -0.047664
3.072512 0.698181 -0.047558
3.069382 0.707379 -0.047531
3.060384 0.715197 -0.047344
3.053312 0.723429 -0.047210
3.048163 0.732092 -0.047130
3.042018 0.740493 -0.047024
3.032938 0.748144 -0.046837
3.024810 0.755988 -0.046676
3.018601 0.764282 -0.046570
3.012369 0.772545 -0.046463
3.004180 0.780273 -0.046303
2.997905 0.788467 -0.046196
2.992575 0.796888 -0.046116
2.982395 0.803981 -0.045902
2.977021 0.812337 -0.045822
2.969698 0.820134 -0.045688
2.965243 0.828702 -0.045635
2.957877 0.836434 -0.045502
2.954336 0.845229 -0.045475
2.946928 0.852897 -0.045341
2.942379 0.861372 -0.045288
2.933014 0.868406 -0.045101
2.930336 0.877400 -0.045101
2.921890 0.884646 -0.044941
2.916295 0.892727 -0.044861
2.909723 0.900486 -0.044754
2.904085 0.908513 -0.044674
2.898425 0.916513 -0.044594
2.892744 0.924487 -0.044514
2.887991 0.932742 -0.044460
2.885116 0.941598 -0.044460
3.249994 0.473008 -0.069962
3.258414 0.484443 -0.070287
3.251971 0.493689 -0.070124
3.245502 0.502900 -0.069962
3.239995 0.512232 -0.069832
3.231501 0.521059 -0.069605
3.221011 0.529514 -0.069313
3.211485 0.538075 -0.069053
3.203907 0.546918 -0.068859
3.193351 0.555208 -0.068566
3.182775 0.563437 -0.068274
3.175129 0.572138 -0.068080
3.168443 0.580977 -0.067917
3.159767 0.589414 -0.067690
3.154016 0.598362 -0.067560
3.149221 0.607469 -0.067463
3.139496 0.615592 -0.067203
3.131711 0.624051 -0.067008
3.125863 0.632864 -0.066879
3.116074 0.640843 -0.066619
3.106266 0.648768 -0.066359
3.100349 0.657467 -0.066229
3.090501 0.665296 -0.065970
3.083562 0.673710 -0.065808
3.077577 0.682303 -0.065678
3.071569 0.690866 -0.065548
3.067486 0.699842 -0.065483
3.061429 0.708350 -0.065353
3.055349 0.716827 -0.065223
3.048273 0.725043 -0.065061
3.040204 0.732988 -0.064866
3.035028 0.741601 -0.064769
3.028857 0.749949 -0.064639
3.022664 0.758267 -0.064509
3.016449 0.766554 -0.064379
3.010211 0.774809 -0.064250
3.002016 0.782530 -0.064055
2.994769 0.790463 -0.063893
2.989432 0.798874 -0.063795
2.981178 0.806478 -0.063600
2.973869 0.814302 -0.063438
2.968467 0.822623 -0.063341
2.963042 0.830917 -0.063243
2.957594 0.839187 -0.063146
2.954045 0.847981 -0.063114
2.948550 0.856205 -0.063016
2.942073 0.864122 -0.062886
2.935575 0.872007 -0.062757
2.929056 0.879860 -0.062627
2.923474 0.887972 -0.062529
2.916914 0.895765 -0.062399
2.905560 0.902046 -0.062107
2.900872 0.910358 -0.062042
2.893301 0.917744 -0.061880
2.890472 0.926616 -0.061880
2.884763 0.934557 -0.061783
2.881882 0.943403 -0.061783
2.885617 0.954434 -0.062010
3.267239 0.474584 -0.091194
3.248964 0.482114 -0.090535
3.245494 0.491780 -0.090458
3.241995 0.501430 -0.090380
3.236493 0.510751 -0.090225
3.233924 0.520520 -0.090186
3.227382 0.529630 -0.089993
3.219828 0.538541 -0.089760
3.212250 0.547410 -0.089528
3.204648 0.556238 -0.089295
3.190135 0.563808 -0.088792
3.186423 0.573239 -0.088714
3.176786 0.581573 -0.088404
3.166145 0.589671 -0.088056
3.162358 0.599010 -0.087978
3.152655 0.607199 -0.087668
3.143913 0.615525 -0.087397
3.136129 0.623998 -0.087165
3.128323 0.632429 -0.086932
3.119516 0.640618 -0.086661
3.107754 0.648146 -0.086274
3.099885 0.656436 -0.086042
3.091995 0.664684 -0.085809
3.084084 0.672890 -0.085577
3.077126 0.681269 -0.085383
3.071122 0.689831 -0.085228
3.064119 0.698140 -0.085034
3.058069 0.706638 -0.084879
3.051022 0.714878 -0.084686
3.044925 0.723312 -0.084531
3.039777 0.731948 -0.084415
3.034605 0.740561 -0.084298
3.029408 0.749148 -0.084182
3.023219 0.757468 -0.084027
3.017006 0.765756 -0.083872
3.010772 0.774014 -0.083717
3.005481 0.782492 -0.083601
3.000168 0.790945 -0.083485
2.994831 0.799373 -0.083369
2.987541 0.807255 -0.083175
2.980231 0.815099 -0.082981
2.974827 0.823439 -0.082865
2.968437 0.831485 -0.082710
2.962988 0.839771 -0.082594
2.955595 0.847480 -0.082400
2.949142 0.855431 -0.082245
2.942668 0.863350 -0.082090
2.935216 0.870953 -0.081897
2.929659 0.879093 -0.081781
2.923123 0.886917 -0.081626
2.917522 0.895002 -0.081509
2.911899 0.903061 -0.081393
2.903394 0.910198 -0.081161
2.897730 0.918196 -0.081045
2.892996 0.926472 -0.080967
2.890140 0.935344 -0.080967
2.881558 0.942343 -0.080735
2.874858 0.949926 -0.080580
3.273569 0.473993 -0.111002
3.226641 0.477304 -0.108947
3.236027 0.488844 -0.109438
3.226613 0.497551 -0.109081
3.230993 0.508380 -0.109349
3.226459 0.517815 -0.109215
3.223869 0.527549 -0.109170
3.216323 0.536451 -0.108902
3.208753 0.545311 -0.108634
3.200175 0.553959 -0.108322
3.193541 0.562907 -0.108098
3.182950 0.571113 -0.107696
3.172338 0.579259 -0.107294
3.161706 0.587346 -0.106892
3.155963 0.596301 -0.106714
3.150194 0.605226 -0.106535
3.137538 0.612780 -0.106044
3.130744 0.621430 -0.105820
3.123926 0.630044 -0.105597
3.114149 0.638020 -0.105240
3.104353 0.645942 -0.104883
3.098447 0.654636 -0.104704
3.091540 0.663091 -0.104481
3.084611 0.671509 -0.104257
3.076684 0.679676 -0.103989
3.070685 0.688238 -0.103811
3.062714 0.696325 -0.103543
3.057643 0.705045 -0.103409
3.051574 0.713512 -0.103230
3.044511 0.721718 -0.103007
3.038397 0.730121 -0.102828
3.031290 0.738256 -0.102605
3.023191 0.746116 -0.102337
3.017012 0.754418 -0.102158
3.009841 0.762443 -0.101935
3.003617 0.770680 -0.101756
2.996404 0.778634 -0.101533
2.992069 0.787315 -0.101443
2.988674 0.796233 -0.101399
2.984288 0.804878 -0.101309
2.976987 0.812714 -0.101086
2.970628 0.820779 -0.100907
2.964247 0.828812 -0.100729
2.956884 0.836542 -0.100505
2.950463 0.844509 -0.100327
2.943060 0.852168 -0.100103
2.937556 0.860350 -0.099969
2.932029 0.868507 -0.099835
2.927437 0.876924 -0.099746
2.922820 0.885322 -0.099657
2.919135 0.893992 -0.099612
3.223768 0.475952 -0.129803
3.234142 0.487631 -0.130417
3.234605 0.497856 -0.130519
3.231089 0.507467 -0.130417
3.224587 0.516585 -0.130161
3.222001 0.526315 -0.130110
3.214461 0.535211 -0.129803
3.204927 0.543731 -0.129394
3.194388 0.552027 -0.128934
3.183827 0.560264 -0.128474
3.175213 0.568794 -0.128116
3.167558 0.577456 -0.127810
3.158898 0.585894 -0.127452
3.147273 0.593727 -0.126941
3.136610 0.601684 -0.126481
3.128868 0.610155 -0.126174
3.121104 0.618584 -0.125867
3.115276 0.627367 -0.125663
3.108444 0.635919 -0.125407
3.102568 0.644638 -0.125203
3.098621 0.653741 -0.125100
3.092695 0.662406 -0.124896
3.086745 0.671041 -0.124692
3.084672 0.680508 -0.124692
3.075748 0.688439 -0.124334
3.067779 0.696543 -0.124027
3.061735 0.705054 -0.123823
3.054695 0.713306 -0.123567
3.049577 0.721983 -0.123414
3.042493 0.730169 -0.123158
3.034416 0.738081 -0.122851
3.025351 0.745712 -0.122494
3.017235 0.753536 -0.122187
3.012005 0.762053 -0.122034
3.000947 0.769055 -0.121573
2.992774 0.776751 -0.121267
2.988445 0.785421 -0.121165
2.982162 0.793557 -0.120960
2.976820 0.801922 -0.120807
2.973382 0.810788 -0.120756
2.966068 0.818576 -0.120500
2.958734 0.826327 -0.120244
2.950419 0.833768 -0.119938
2.945927 0.842266 -0.119836
2.939492 0.850189 -0.119631
2.933036 0.858080 -0.119427
3.232043 0.481106 -0.149615
3.238448 0.492217 -0.150071
3.237910 0.502302 -0.150128
3.233395 0.511767 -0.149957
3.224910 0.520573 -0.149558
3.218372 0.529656 -0.149272
3.210824 0.538538 -0.148930
3.200299 0.546876 -0.148417
3.189753 0.555154 -0.147903
3.182136 0.563895 -0.147561
3.174496 0.572593 -0.147219
3.160940 0.580171 -0.146534
3.154238 0.588952 -0.146249
3.145550 0.597325 -0.145850
3.137820 0.605839 -0.145508
3.130068 0.614311 -0.145165
3.123273 0.622937 -0.144880
3.117433 0.631724 -0.144652
3.110590 0.640281 -0.144367
3.104702 0.649005 -0.144139
3.096836 0.657286 -0.143796
3.091877 0.666154 -0.143625
3.082991 0.674146 -0.143226
3.075060 0.682306 -0.142884
3.068081 0.690642 -0.142598
3.061081 0.698942 -0.142313
3.055032 0.707431 -0.142085
3.048959 0.715889 -0.141857
3.044805 0.724778 -0.141743
3.037714 0.732947 -0.141458
3.031572 0.741316 -0.141229
3.026376 0.749894 -0.141058
3.018250 0.757719 -0.140716
3.012041 0.765992 -0.140488
3.002908 0.773489 -0.140089
2.995691 0.781439 -0.139803
2.988452 0.789353 -0.139518
2.992769 0.800321 -0.139918
2.972951 0.804810 -0.138891
2.969505 0.813663 -0.138834
3.245296 0.492327 -0.171056
3.236867 0.501213 -0.170613
3.230385 0.510363 -0.170296
3.221907 0.519161 -0.169853
3.214390 0.528073 -0.169473
3.206849 0.536944 -0.169093
3.195349 0.545103 -0.168460
3.186778 0.553709 -0.168017
3.178185 0.562267 -0.167574
3.168588 0.570601 -0.167067
3.159950 0.579060 -0.166624
3.152272 0.587656 -0.166244
3.144571 0.596209 -0.165864
3.138808 0.605099 -0.165611
3.129101 0.613191 -0.165105
3.124269 0.622204 -0.164915
3.119411 0.631193 -0.164725
3.111594 0.639555 -0.164345
3.102779 0.647672 -0.163902
3.095895 0.656154 -0.163585
3.085086 0.663760 -0.163015
3.077185 0.671946 -0.162635
3.070237 0.680304 -0.162319
3.061320 0.688189 -0.161876
3.055302 0.696691 -0.161622
3.049261 0.705162 -0.161369
3.047083 0.714514 -0.161369
3.044876 0.723859 -0.161369
3.038760 0.732262 -0.161116
3.036499 0.741581 -0.161116
3.031304 0.750175 -0.160926
3.027052 0.758986 -0.160799
3.023741 0.768024 -0.160736
3.017505 0.776303 -0.160483
3.224041 0.497154 -0.189688
3.223486 0.507198 -0.189757
3.215021 0.515977 -0.189271
3.207515 0.524871 -0.188855
3.200970 0.533888 -0.188508
3.192433 0.542535 -0.188022
3.183873 0.551135 -0.187536
3.174308 0.559514 -0.186981
3.166685 0.568192 -0.186565
