# This PCD file was generated using the MATLAB® pcwrite function
# from Computer Vision Toolbox®.
# .PCD v.7 - Point Cloud Data file format
VERSION .7
FIELDS x y z
SIZE 4 4 4
TYPE F F F
COUNT 1 1 1
WIDTH 1723
HEIGHT 1
VIEWPOINT 0 0 0 1 0 0 0
POINTS 1723
DATA ascii
2.352090 0.065543 0.564606
2.348953 0.072668 0.563944
2.349694 0.079907 0.564165
2.349437 0.087115 0.564165
2.349159 0.094323 0.564165
2.348859 0.101530 0.564165
2.349510 0.108781 0.564385
2.277875 -0.189442 0.535267
2.292628 -0.176505 0.538273
2.289263 -0.169184 0.537414
2.285874 -0.161886 0.536555
2.289283 -0.155069 0.537199
2.294621 -0.148357 0.538273
2.294091 -0.141257 0.538058
2.298414 -0.134445 0.538917
2.301741 -0.127553 0.539561
2.306023 -0.120693 0.540420
2.305407 -0.113570 0.540205
2.306720 -0.106541 0.540420
2.309963 -0.099589 0.541064
2.310258 -0.092501 0.541064
2.311507 -0.085449 0.541279
2.313710 -0.078422 0.541709
2.315892 -0.071382 0.542138
2.315124 -0.064250 0.541923
2.318240 -0.057218 0.542568
2.322310 -0.050188 0.543427
2.325383 -0.043116 0.544071
2.323551 -0.035952 0.543641
2.325603 -0.028847 0.544071
2.326658 -0.021721 0.544285
2.326713 -0.014582 0.544285
2.327724 -0.007447 0.544500
2.331642 -0.000304 0.545359
2.332609 0.006853 0.545574
2.332577 0.014009 0.545574
2.335453 0.021193 0.546218
2.340260 0.028420 0.547292
2.343091 0.035646 0.547936
2.342971 0.042834 0.547936
2.346734 0.050107 0.548795
2.350475 0.057404 0.549654
2.350288 0.064615 0.549654
2.349102 0.071795 0.549439
2.350823 0.079068 0.549869
2.351546 0.086316 0.550083
2.352246 0.093570 0.550298
2.350972 0.100744 0.550083
2.355530 0.108182 0.551157
2.356162 0.115457 0.551372
2.266953 -0.221363 0.520279
2.295852 -0.217091 0.526348
2.294560 -0.209867 0.525929
2.294219 -0.202740 0.525720
2.295804 -0.195784 0.525929
2.294445 -0.188579 0.525511
2.295988 -0.181616 0.525720
2.296534 -0.174571 0.525720
2.294133 -0.167310 0.525092
2.293660 -0.160202 0.524883
2.295117 -0.153230 0.525092
2.297528 -0.146313 0.525511
2.297966 -0.139264 0.525511
2.299358 -0.132270 0.525720
2.303659 -0.125430 0.526557
2.306962 -0.118513 0.527185
2.305362 -0.111340 0.526766
2.307646 -0.104356 0.527185
2.308933 -0.097317 0.527394
2.310197 -0.090272 0.527604
2.310463 -0.083184 0.527604
2.312662 -0.076160 0.528022
2.315817 -0.069154 0.528650
2.314064 -0.061995 0.528231
2.315220 -0.054919 0.528441
2.317333 -0.047858 0.528859
2.322358 -0.040836 0.529906
2.321494 -0.033696 0.529696
2.322565 -0.026586 0.529906
2.322635 -0.019460 0.529906
2.322684 -0.012334 0.529906
2.322711 -0.005208 0.529906
2.326627 0.001919 0.530743
2.329544 0.009067 0.531371
2.330483 0.016220 0.531580
2.335311 0.023416 0.532626
2.340117 0.030643 0.533673
2.342946 0.037868 0.534300
2.342818 0.045056 0.534300
2.346580 0.052328 0.535138
2.349341 0.059600 0.535765
2.348169 0.066780 0.535556
2.347954 0.073984 0.535556
2.348693 0.081221 0.535765
2.349410 0.088462 0.535975
2.350104 0.095709 0.536184
2.350776 0.102961 0.536393
2.354357 0.110354 0.537230
2.353030 0.117528 0.537021
2.296446 -0.267899 0.512958
2.284422 -0.252296 0.510112
2.283238 -0.245077 0.509705
2.285927 -0.238274 0.510112
2.288596 -0.231457 0.510518
2.290269 -0.224531 0.510722
2.291922 -0.217596 0.510925
2.293554 -0.210653 0.511128
2.296140 -0.203789 0.511535
2.297730 -0.196827 0.511738
2.299299 -0.189858 0.511941
2.298894 -0.182725 0.511738
2.299444 -0.175671 0.511738
2.298019 -0.168472 0.511331
2.299502 -0.161490 0.511535
2.298033 -0.154303 0.511128
2.301427 -0.147440 0.511738
2.300891 -0.140319 0.511535
2.304243 -0.133430 0.512145
2.305619 -0.126414 0.512348
2.310885 -0.119593 0.513364
2.312219 -0.112551 0.513568
2.314510 -0.105546 0.513974
2.315801 -0.098486 0.514178
2.316092 -0.091381 0.514178
2.317340 -0.084311 0.514381
2.317588 -0.077201 0.514381
2.319771 -0.070150 0.514788
2.319975 -0.063033 0.514788
2.321137 -0.055938 0.514991
2.324234 -0.048879 0.515601
2.328289 -0.041819 0.516414
2.327427 -0.034661 0.516211
2.329481 -0.027544 0.516617
2.329554 -0.020397 0.516617
2.332543 -0.013267 0.517227
2.330615 -0.006106 0.516821
2.331602 0.001045 0.517024
2.331587 0.008198 0.517024
2.330572 0.015345 0.516821
2.331493 0.022504 0.517024
2.335329 0.029706 0.517837
2.337185 0.036901 0.518244
2.338040 0.044090 0.518447
2.342788 0.051369 0.519464
2.346535 0.058654 0.520277
2.347322 0.065880 0.520480
2.351024 0.073202 0.521293
2.353724 0.080515 0.521903
2.351509 0.087663 0.521497
2.352207 0.094916 0.521700
2.353861 0.102217 0.522106
2.355493 0.109528 0.522513
2.355146 0.116754 0.522513
2.355754 0.124031 0.522716
2.238479 -0.303870 0.487675
2.263697 -0.300219 0.492608
2.260718 -0.292770 0.491819
2.262578 -0.285955 0.492016
2.264418 -0.279132 0.492214
2.265264 -0.272184 0.492214
2.266088 -0.265233 0.492214
2.266891 -0.258279 0.492214
2.274494 -0.252078 0.493595
2.272332 -0.244784 0.493003
2.275998 -0.238117 0.493595
2.278668 -0.231331 0.493989
2.280343 -0.224435 0.494187
2.281021 -0.217438 0.494187
2.284606 -0.210709 0.494779
2.286218 -0.203785 0.494976
2.287809 -0.196854 0.495173
2.291333 -0.190077 0.495765
2.290928 -0.182969 0.495568
2.291479 -0.175939 0.495568
2.291030 -0.168836 0.495371
2.294471 -0.162014 0.495963
2.291045 -0.154710 0.495173
2.292487 -0.147743 0.495371
2.294886 -0.140829 0.495765
2.296286 -0.133845 0.495963
2.298644 -0.126907 0.496357
2.302938 -0.120058 0.497146
2.304275 -0.113040 0.497344
2.308528 -0.106149 0.498133
2.309823 -0.099108 0.498330
2.313055 -0.092138 0.498922
2.313326 -0.085041 0.498922
2.312597 -0.077910 0.498725
2.316744 -0.070935 0.499514
2.317931 -0.063853 0.499712
2.320076 -0.056789 0.500106
2.323180 -0.049734 0.500698
2.325282 -0.042642 0.501093
2.326382 -0.035522 0.501290
2.326480 -0.028385 0.501290
2.329497 -0.021274 0.501882
2.329551 -0.014127 0.501882
2.327623 -0.006974 0.501487
2.326653 0.000167 0.501290
2.325661 0.007301 0.501093
2.323667 0.014424 0.500698
2.323612 0.021553 0.500698
2.326476 0.028718 0.501290
2.327357 0.035871 0.501487
2.331156 0.043084 0.502277
2.336894 0.050364 0.503461
2.337709 0.057557 0.503658
2.341441 0.064838 0.504447
2.344171 0.072112 0.505039
2.345898 0.079370 0.505434
2.345643 0.086567 0.505434
2.347326 0.093841 0.505828
2.348006 0.101085 0.506026
2.350623 0.108424 0.506618
2.348321 0.115538 0.506223
2.349913 0.122845 0.506618
2.352462 0.130217 0.507210
2.246584 -0.348078 0.476654
2.252494 -0.341918 0.477611
2.248677 -0.334287 0.476654
2.251635 -0.327668 0.477037
2.253602 -0.320897 0.477228
2.256520 -0.314251 0.477611
2.258446 -0.307459 0.477803
2.259379 -0.300528 0.477803
2.258343 -0.293343 0.477420
2.259233 -0.286414 0.477420
2.261075 -0.279601 0.477611
2.259973 -0.272429 0.477228
2.259823 -0.265380 0.477037
2.260627 -0.258446 0.477037
2.262385 -0.251617 0.477228
2.262170 -0.244570 0.477037
2.266814 -0.238037 0.477803
2.270463 -0.231378 0.478377
2.271163 -0.224411 0.478377
2.271841 -0.217442 0.478377
2.275429 -0.210741 0.478952
2.278998 -0.204021 0.479526
2.281569 -0.197196 0.479909
2.283141 -0.190276 0.480101
2.284693 -0.183349 0.480292
2.284266 -0.176263 0.480101
2.284796 -0.169255 0.480101
2.288241 -0.162451 0.480675
2.288729 -0.155430 0.480675
2.286257 -0.148219 0.480101
2.286700 -0.141204 0.480101
2.291042 -0.134416 0.480867
2.293404 -0.127494 0.481250
2.293784 -0.120458 0.481250
2.297084 -0.113564 0.481824
2.300363 -0.106651 0.482399
2.307544 -0.099886 0.483739
2.305878 -0.092729 0.483356
2.308113 -0.085726 0.483739
2.312289 -0.078776 0.484505
2.312520 -0.071681 0.484505
2.315672 -0.064667 0.485080
2.317822 -0.057610 0.485463
2.321913 -0.050582 0.486229
2.321076 -0.043441 0.486037
2.324142 -0.036364 0.486612
2.325224 -0.029246 0.486803
2.328248 -0.022138 0.487378
2.328305 -0.014995 0.487378
2.328340 -0.007852 0.487378
2.325408 -0.000709 0.486803
2.323436 0.006419 0.486420
2.321443 0.013534 0.486037
2.326298 0.020702 0.486995
2.323279 0.027803 0.486420
2.327108 0.034991 0.487186
2.327971 0.042149 0.487378
2.334700 0.049440 0.488718
2.335518 0.056626 0.488910
2.339258 0.063901 0.489676
2.341994 0.071168 0.490250
2.342746 0.078386 0.490442
2.342494 0.085573 0.490442
2.345163 0.092877 0.491016
2.344867 0.100072 0.491016
2.345529 0.107311 0.491208
2.343228 0.114409 0.490825
2.346787 0.121803 0.491590
2.346402 0.129002 0.491590
2.345995 0.136201 0.491590
2.242775 -0.386827 0.463644
2.245888 -0.380274 0.464015
2.253829 -0.374512 0.465316
2.252058 -0.367120 0.464759
2.251233 -0.359898 0.464387
2.252327 -0.352990 0.464387
2.253399 -0.346078 0.464387
2.259308 -0.339896 0.465316
2.255481 -0.332245 0.464387
2.257462 -0.325464 0.464573
2.260395 -0.318812 0.464945
2.257469 -0.311337 0.464201
2.258414 -0.304410 0.464201
2.259337 -0.297480 0.464201
2.258290 -0.290295 0.463830
2.258195 -0.283243 0.463644
2.257103 -0.276074 0.463272
2.259891 -0.269381 0.463644
2.260707 -0.262447 0.463644
2.261501 -0.255510 0.463644
2.262275 -0.248571 0.463644
2.266934 -0.242048 0.464387
2.267666 -0.235092 0.464387
2.273265 -0.228628 0.465316
2.274933 -0.221748 0.465502
2.278538 -0.215046 0.466060
2.284079 -0.208504 0.466989
2.284708 -0.201496 0.466989
2.285315 -0.194485 0.466989
2.283943 -0.187312 0.466617
2.286466 -0.180459 0.466989
2.287009 -0.173444 0.466989
2.291450 -0.166714 0.467732
2.290970 -0.159614 0.467546
2.293410 -0.152716 0.467918
2.299751 -0.146056 0.469033
2.295285 -0.138701 0.468104
2.297661 -0.131772 0.468475
2.299036 -0.124776 0.468661
2.299408 -0.117722 0.468661
2.294851 -0.110428 0.467732
2.303031 -0.103745 0.469219
2.302357 -0.096637 0.469033
2.303625 -0.089612 0.469219
2.305853 -0.082615 0.469591
2.310023 -0.075671 0.470334
2.309263 -0.068554 0.470148
2.311426 -0.061523 0.470520
2.318480 -0.054596 0.471821
2.324531 -0.047607 0.472936
2.319754 -0.040387 0.472006
2.321832 -0.033299 0.472378
2.325853 -0.026222 0.473121
2.325923 -0.019086 0.473121
2.323023 -0.011934 0.472564
2.325996 -0.004814 0.473121
2.324035 0.002321 0.472750
2.324017 0.009451 0.472750
2.322994 0.016574 0.472564
2.327845 0.023749 0.473493
2.327761 0.030891 0.473493
2.329621 0.038063 0.473865
2.334405 0.045303 0.474794
2.337202 0.052529 0.475352
2.336047 0.059675 0.475166
2.340764 0.066980 0.476095
2.342512 0.074222 0.476467
2.342273 0.081408 0.476467
2.341031 0.088557 0.476281
2.343693 0.095858 0.476838
2.342407 0.103005 0.476652
2.342079 0.110191 0.476652
2.340749 0.117327 0.476467
2.343322 0.124663 0.477024
2.342928 0.131852 0.477024
2.342513 0.139039 0.477024
2.343056 0.146286 0.477210
2.245527 -0.424167 0.451881
2.254554 -0.418713 0.453322
2.255828 -0.411795 0.453322
2.253208 -0.404177 0.452601
2.249594 -0.396408 0.451700
2.248861 -0.389168 0.451340
2.249075 -0.382102 0.451160
2.250237 -0.375200 0.451160
2.249436 -0.367977 0.450799
2.248612 -0.360762 0.450439
2.250679 -0.354015 0.450619
2.254672 -0.347558 0.451160
2.257672 -0.340933 0.451520
2.258708 -0.334005 0.451520
2.260695 -0.327215 0.451700
2.262662 -0.320416 0.451881
2.262661 -0.313338 0.451700
2.263611 -0.306394 0.451700
2.264540 -0.299448 0.451700
2.264473 -0.292373 0.451520
2.262432 -0.285055 0.450980
2.263295 -0.278113 0.450980
2.266091 -0.271402 0.451340
2.265936 -0.264334 0.451160
2.268691 -0.257604 0.451520
2.272404 -0.250967 0.452061
2.274141 -0.244099 0.452241
2.278793 -0.237529 0.452962
2.284404 -0.231033 0.453862
2.286081 -0.224119 0.454043
2.288716 -0.217291 0.454403
2.290351 -0.210358 0.454583
2.290006 -0.203244 0.454403
2.290619 -0.196217 0.454403
2.291210 -0.189189 0.454403
2.291780 -0.182158 0.454403
2.291347 -0.175051 0.454223
2.292854 -0.168093 0.454403
2.292378 -0.160989 0.454223
2.296787 -0.154219 0.454944
2.299212 -0.147298 0.455304
2.301617 -0.140364 0.455664
2.304001 -0.133416 0.456025
2.310292 -0.126671 0.457106
2.306741 -0.119378 0.456385
2.307096 -0.112301 0.456385
2.307430 -0.105222 0.456385
2.304794 -0.098017 0.455844
2.306066 -0.090984 0.456025
2.308300 -0.083981 0.456385
2.312480 -0.077030 0.457106
2.309756 -0.069845 0.456565
2.312909 -0.062839 0.457106
2.319974 -0.055910 0.458367
2.324068 -0.048876 0.459088
2.322240 -0.041710 0.458727
2.327275 -0.034659 0.459628
2.328354 -0.027531 0.459808
2.327444 -0.020379 0.459628
2.325528 -0.013226 0.459268
2.329492 -0.006103 0.459988
2.328516 0.001044 0.459808
2.327519 0.008184 0.459628
2.328466 0.015331 0.459808
2.334310 0.022531 0.460889
2.336197 0.029717 0.461250
2.338062 0.036915 0.461610
2.340888 0.044143 0.462151
2.342708 0.051367 0.462511
2.343523 0.058579 0.462691
2.345299 0.065823 0.463051
2.347052 0.073079 0.463412
2.345834 0.080246 0.463232
2.345577 0.087443 0.463232
2.347263 0.094717 0.463592
2.346961 0.101918 0.463592
2.346637 0.109118 0.463592
2.346292 0.116317 0.463592
2.348871 0.123669 0.464132
2.348480 0.130875 0.464132
2.348068 0.138079 0.464132
2.347633 0.145282 0.464132
2.347176 0.152484 0.464132
2.206713 -0.445833 0.431566
2.245738 -0.446544 0.438358
2.246131 -0.439463 0.438184
2.242634 -0.431640 0.437313
2.244915 -0.424941 0.437487
2.244272 -0.417692 0.437139
2.246511 -0.410982 0.437313
2.244854 -0.403565 0.436791
2.242203 -0.395992 0.436094
2.245347 -0.389447 0.436442
2.242649 -0.381896 0.435746
2.241867 -0.374690 0.435397
2.242034 -0.367651 0.435223
2.244124 -0.360927 0.435397
2.246193 -0.354193 0.435571
2.250189 -0.347751 0.436094
2.253193 -0.341141 0.436442
2.256177 -0.334515 0.436791
2.257192 -0.327591 0.436791
2.261112 -0.321080 0.437313
2.261111 -0.314006 0.437139
2.263039 -0.307200 0.437313
2.264947 -0.300385 0.437487
2.261952 -0.292929 0.436791
2.260886 -0.285742 0.436442
2.261752 -0.278804 0.436442
2.263574 -0.271981 0.436616
2.265376 -0.265150 0.436791
2.269114 -0.258532 0.437313
2.269897 -0.251569 0.437313
2.272616 -0.244815 0.437661
2.274336 -0.237944 0.437836
2.280933 -0.231561 0.438881
2.283593 -0.224755 0.439229
2.283292 -0.217654 0.439055
2.283948 -0.210648 0.439055
2.286546 -0.203815 0.439403
2.287160 -0.196799 0.439403
2.284809 -0.189537 0.438881
2.288325 -0.182761 0.439403
2.288875 -0.175740 0.439403
2.290385 -0.168789 0.439577
2.291874 -0.161831 0.439751
2.296290 -0.155063 0.440448
2.297738 -0.148081 0.440622
2.300147 -0.141151 0.440970
2.300569 -0.134094 0.440970
2.303919 -0.127197 0.441493
2.303315 -0.120077 0.441319
2.301706 -0.112914 0.440970
2.300074 -0.105762 0.440622
2.302355 -0.098789 0.440970
2.299696 -0.091608 0.440448
2.302918 -0.084660 0.440970
2.305135 -0.077660 0.441319
2.304379 -0.070558 0.441145
2.303600 -0.063461 0.440970
2.309690 -0.056537 0.442015
2.312806 -0.049513 0.442538
2.311963 -0.042400 0.442364
2.316020 -0.035366 0.443060
2.319072 -0.028296 0.443583
2.318163 -0.021172 0.443409
2.317233 -0.014054 0.443235
2.322188 -0.006959 0.444105
2.322199 0.000166 0.444105
2.323172 0.007293 0.444280
2.327077 0.014446 0.444976
2.330961 0.021622 0.445673
2.333838 0.028810 0.446195
2.333738 0.035970 0.446195
2.336571 0.043185 0.446718
2.337411 0.050375 0.446892
2.342168 0.057668 0.447763
2.338043 0.064743 0.447066
2.340786 0.072007 0.447589
2.341538 0.079222 0.447763
2.342268 0.086442 0.447937
2.343960 0.093706 0.448285
2.346612 0.101025 0.448808
2.348259 0.108314 0.449156
2.348899 0.115567 0.449330
2.348533 0.122773 0.449330
2.348146 0.129977 0.449330
2.347736 0.137181 0.449330
2.347304 0.144383 0.449330
2.346850 0.151584 0.449330
2.234351 -0.445575 0.421711
2.233171 -0.431112 0.421039
2.231577 -0.423708 0.420535
2.232867 -0.416860 0.420535
2.233166 -0.409830 0.420367
2.230531 -0.402279 0.419695
2.230784 -0.395263 0.419528
2.233929 -0.388754 0.419863
2.236083 -0.382064 0.420031
2.239189 -0.375527 0.420367
2.241303 -0.368815 0.420535
2.239505 -0.361467 0.420031
2.246446 -0.355516 0.421039
2.250448 -0.349075 0.421543
2.252483 -0.342316 0.421711
2.256448 -0.335838 0.422215
2.257468 -0.328914 0.422215
2.260419 -0.322264 0.422551
2.261397 -0.315327 0.422551
2.261377 -0.308255 0.422383
2.263289 -0.301446 0.422551
2.262248 -0.294247 0.422215
2.262162 -0.287182 0.422047
2.262054 -0.280120 0.421879
2.261924 -0.273061 0.421711
2.261772 -0.266005 0.421543
2.262577 -0.259065 0.421543
2.263361 -0.252122 0.421543
2.265105 -0.245283 0.421711
2.265846 -0.238332 0.421711
2.269509 -0.231679 0.422215
2.269228 -0.224618 0.422047
2.271869 -0.217842 0.422383
2.273509 -0.210962 0.422551
2.276109 -0.204161 0.422887
2.276725 -0.197177 0.422887
2.278301 -0.190273 0.423055
2.279857 -0.183361 0.423223
2.282374 -0.176516 0.423559
2.284871 -0.169658 0.423895
2.286365 -0.162717 0.424063
2.289804 -0.155901 0.424567
2.293222 -0.149066 0.425071
2.295637 -0.142151 0.425407
2.294094 -0.134992 0.425071
2.295481 -0.128008 0.425239
2.294879 -0.120913 0.425071
2.295239 -0.113872 0.425071
2.294593 -0.106785 0.424903
2.293925 -0.099702 0.424735
2.295205 -0.092703 0.424903
2.297449 -0.085734 0.425239
2.296716 -0.078652 0.425071
2.300888 -0.071726 0.425743
2.303068 -0.064721 0.426078
2.305226 -0.057703 0.426414
2.304407 -0.050610 0.426246
2.310465 -0.043648 0.427254
2.307631 -0.036514 0.426750
2.309704 -0.029459 0.427086
2.306826 -0.022345 0.426582
2.310827 -0.015292 0.427254
2.311849 -0.008205 0.427422
2.313834 -0.001113 0.427758
2.315799 0.005992 0.428094
2.318727 0.013115 0.428598
2.321633 0.020256 0.429102
2.324517 0.027415 0.429606
2.324422 0.034546 0.429606
2.326276 0.041714 0.429942
2.326137 0.048851 0.429942
2.327947 0.056035 0.430278
2.327765 0.063177 0.430278
2.330516 0.070409 0.430782
2.332259 0.077625 0.431118
2.335951 0.084925 0.431790
2.337649 0.092170 0.432126
2.343265 0.099596 0.433133
2.345902 0.106920 0.433637
2.346548 0.114165 0.433805
2.347171 0.121415 0.433973
2.347772 0.128670 0.434141
2.347366 0.135872 0.434141
2.346938 0.143073 0.434141
2.345504 0.150210 0.433973
2.346016 0.157471 0.434141
2.226883 -0.433520 0.406726
2.228203 -0.426686 0.406726
2.227562 -0.419482 0.406401
2.226898 -0.412285 0.406077
2.229124 -0.405629 0.406239
2.230358 -0.398788 0.406239
2.232542 -0.392114 0.406401
2.234707 -0.385431 0.406564
2.235879 -0.378574 0.406564
2.237030 -0.371712 0.406564
2.242055 -0.365484 0.407213
2.246089 -0.359073 0.407700
2.248155 -0.352334 0.407862
2.249225 -0.345435 0.407862
2.251250 -0.338680 0.408024
2.252278 -0.331772 0.408024
2.255239 -0.325143 0.408349
2.257203 -0.318361 0.408511
2.258169 -0.311434 0.408511
2.259114 -0.304505 0.408511
2.260037 -0.297572 0.408511
2.262897 -0.290890 0.408836
2.261820 -0.283699 0.408511
2.262680 -0.276759 0.408511
2.262539 -0.269698 0.408349
2.261395 -0.262527 0.408024
2.262190 -0.255588 0.408024
2.262964 -0.248647 0.408024
2.264697 -0.241808 0.408186
2.268373 -0.235166 0.408673
2.271047 -0.228404 0.408998
2.268791 -0.221147 0.408511
2.273388 -0.214558 0.409160
2.275018 -0.207672 0.409323
2.273679 -0.200517 0.408998
2.277232 -0.193793 0.409485
2.280766 -0.187049 0.409972
2.281330 -0.180051 0.409972
2.281871 -0.173051 0.409972
2.285344 -0.166266 0.410459
2.288796 -0.159461 0.410945
2.289274 -0.152439 0.410945
2.291701 -0.145541 0.411270
2.293122 -0.138569 0.411432
2.293536 -0.131533 0.411432
2.293929 -0.124496 0.411432
2.294300 -0.117458 0.411432
2.295635 -0.110466 0.411595
2.294977 -0.103378 0.411432
2.293312 -0.096253 0.411108
2.294582 -0.089256 0.411270
2.295832 -0.082251 0.411432
2.296073 -0.075207 0.411432
2.296293 -0.068163 0.411432
2.301423 -0.061251 0.412244
2.302587 -0.054214 0.412406
2.302742 -0.047150 0.412406
2.305836 -0.040138 0.412893
2.305948 -0.033063 0.412893
2.308999 -0.026023 0.413380
2.306108 -0.018914 0.412893
2.310102 -0.011861 0.413542
2.310127 -0.004773 0.413542
2.315065 0.002317 0.414354
2.316033 0.009423 0.414516
2.320927 0.016561 0.415327
2.319879 0.023672 0.415165
2.324728 0.030852 0.415976
2.321663 0.037937 0.415490
2.323509 0.045097 0.415814
2.323360 0.052225 0.415814
2.325161 0.059402 0.416139
2.323982 0.066508 0.415976
2.328698 0.073791 0.416788
2.329447 0.080969 0.416950
2.331160 0.088189 0.417275
2.332850 0.095420 0.417599
2.339447 0.102877 0.418735
2.340106 0.110099 0.418898
2.341728 0.117376 0.419222
2.341357 0.124560 0.419222
2.343920 0.131907 0.419709
2.342519 0.139040 0.419547
2.343066 0.146287 0.419709
2.343591 0.153538 0.419872
2.343109 0.160728 0.419872
2.342605 0.167916 0.419872
2.238476 -0.437479 0.394519
2.227531 -0.421164 0.392332
2.228813 -0.414328 0.392332
2.229102 -0.407311 0.392175
2.231313 -0.400645 0.392332
2.230587 -0.393454 0.392019
2.233730 -0.386946 0.392332
2.236854 -0.380423 0.392644
2.239959 -0.373884 0.392957
2.241095 -0.367010 0.392957
2.245136 -0.360603 0.393425
2.248183 -0.354021 0.393738
2.249259 -0.347122 0.393738
2.250313 -0.340220 0.393738
2.254277 -0.333749 0.394207
2.256268 -0.326973 0.394363
2.259217 -0.320327 0.394676
2.260189 -0.313394 0.394676
2.260161 -0.306326 0.394519
2.262069 -0.299520 0.394676
2.262977 -0.292579 0.394676
2.264844 -0.285758 0.394832
2.265710 -0.278809 0.394832
2.264594 -0.271621 0.394519
2.264435 -0.264557 0.394363
2.264255 -0.257497 0.394207
2.267979 -0.250875 0.394676
2.269720 -0.244022 0.394832
2.272423 -0.237263 0.395144
2.273140 -0.230290 0.395144
2.271870 -0.223121 0.394832
2.274511 -0.216338 0.395144
2.278114 -0.209631 0.395613
2.276779 -0.202465 0.395301
2.277389 -0.195479 0.395301
2.279947 -0.188655 0.395613
2.281500 -0.181737 0.395769
2.282047 -0.174737 0.395769
2.284542 -0.167880 0.396082
2.289973 -0.161218 0.396863
2.290457 -0.154192 0.396863
2.290919 -0.147164 0.396863
2.295303 -0.140377 0.397488
2.296709 -0.133392 0.397644
2.295135 -0.126236 0.397332
2.298470 -0.119348 0.397801
2.298826 -0.112296 0.397801
2.300146 -0.105288 0.397957
2.298485 -0.098146 0.397644
2.300749 -0.091173 0.397957
2.300031 -0.084077 0.397801
2.300278 -0.077021 0.397801
2.300503 -0.069963 0.397801
2.301694 -0.062932 0.397957
2.303852 -0.055919 0.398270
2.305000 -0.048871 0.398426
2.308101 -0.041854 0.398895
2.309207 -0.034787 0.399051
2.311278 -0.027727 0.399363
2.313327 -0.020654 0.399676
2.315355 -0.013568 0.399988
2.317361 -0.006471 0.400301
2.320333 0.000639 0.400770
2.319333 0.007755 0.400613
2.320286 0.014877 0.400770
2.321217 0.022004 0.400926
2.325089 0.029174 0.401551
2.323013 0.036277 0.401239
2.322891 0.043404 0.401239
2.325710 0.050594 0.401707
2.325543 0.057729 0.401707
2.325355 0.064863 0.401707
2.328107 0.072088 0.402176
2.330837 0.079331 0.402645
2.330582 0.086481 0.402645
2.334254 0.093789 0.403270
2.339875 0.101205 0.404207
2.341527 0.108474 0.404520
2.342170 0.115706 0.404676
2.343777 0.122995 0.404989
2.345361 0.130294 0.405301
2.344950 0.137489 0.405301
2.345503 0.144743 0.405458
2.347019 0.152066 0.405770
2.345556 0.159199 0.405614
2.344072 0.166324 0.405458
2.344535 0.173588 0.405614
2.219495 -0.427191 0.377221
2.243138 -0.424605 0.380676
2.227906 -0.414649 0.378123
2.228196 -0.407634 0.377972
2.233328 -0.401495 0.378573
2.231628 -0.394126 0.378123
2.232827 -0.387278 0.378123
2.233030 -0.380260 0.377972
2.237112 -0.373896 0.378423
2.235321 -0.366551 0.377972
2.240340 -0.360319 0.378573
2.240458 -0.353290 0.378423
2.240554 -0.346264 0.378273
2.240629 -0.339241 0.378123
2.241659 -0.332365 0.378123
2.243646 -0.325628 0.378273
2.246593 -0.319021 0.378573
2.247561 -0.312127 0.378573
2.248508 -0.305230 0.378573
2.250414 -0.298460 0.378723
2.252299 -0.291681 0.378874
2.253184 -0.284770 0.378874
2.256009 -0.278097 0.379174
2.257833 -0.271292 0.379324
2.256691 -0.264135 0.379024
2.260438 -0.257545 0.379475
2.263182 -0.250827 0.379775
2.264924 -0.243988 0.379925
2.265662 -0.237038 0.379925
2.267362 -0.230185 0.380076
2.267074 -0.223132 0.379925
2.267748 -0.216175 0.379925
2.268400 -0.209217 0.379925
2.270016 -0.202344 0.380076
2.269641 -0.195294 0.379925
2.271215 -0.188412 0.380076
2.273754 -0.181600 0.380376
2.277257 -0.174850 0.380827
2.279755 -0.168008 0.381127
2.284205 -0.161290 0.381728
2.284689 -0.154282 0.381728
2.288111 -0.147462 0.382179
2.290526 -0.140562 0.382479
2.294895 -0.133764 0.383080
2.292333 -0.126560 0.382629
2.295672 -0.119680 0.383080
2.296029 -0.112636 0.383080
2.298339 -0.105682 0.383380
2.295689 -0.098504 0.382930
2.297956 -0.091539 0.383230
2.295262 -0.084380 0.382780
2.291558 -0.077205 0.382179
2.291784 -0.070174 0.382179
2.291988 -0.063143 0.382179
2.289206 -0.056039 0.381728
2.291344 -0.049058 0.382028
2.300380 -0.042189 0.383380
2.298522 -0.035102 0.383080
2.301584 -0.028085 0.383531
2.307591 -0.021077 0.384432
2.311600 -0.014021 0.385033
2.310643 -0.006926 0.384883
2.313620 0.000164 0.385333
2.318552 0.007278 0.386085
2.313575 0.014360 0.385333
2.315497 0.021476 0.385634
2.316409 0.028592 0.385784
2.318288 0.035730 0.386085
2.318167 0.042842 0.386085
2.320002 0.049997 0.386385
2.321814 0.057163 0.386685
2.321628 0.064286 0.386685
2.325372 0.071531 0.387286
2.329094 0.078799 0.387887
2.329829 0.085981 0.388037
2.330543 0.093168 0.388188
2.333209 0.100445 0.388638
2.333877 0.107649 0.388789
2.331561 0.114711 0.388488
2.333173 0.121967 0.388789
2.334762 0.129234 0.389089
2.336329 0.136512 0.389390
2.335899 0.143679 0.389390
2.337420 0.150973 0.389690
2.338918 0.158277 0.389990
2.339408 0.165522 0.390141
2.342833 0.172990 0.390742
2.344263 0.180329 0.391042
2.361437 0.188943 0.393746
2.229278 -0.423273 0.364907
2.232512 -0.416794 0.365196
2.224046 -0.408161 0.363752
2.228210 -0.401862 0.364185
2.227483 -0.394679 0.363897
2.227709 -0.387675 0.363752
2.230839 -0.381171 0.364041
2.232973 -0.374488 0.364185
2.236065 -0.367956 0.364474
2.237183 -0.361094 0.364474
2.237303 -0.354074 0.364330
2.238379 -0.347209 0.364330
2.238455 -0.340192 0.364185
2.240467 -0.333468 0.364330
2.243438 -0.326877 0.364618
2.243451 -0.319853 0.364474
2.245402 -0.313105 0.364618
2.244390 -0.305949 0.364330
2.248261 -0.299452 0.364763
2.249170 -0.292553 0.364763
2.250057 -0.285651 0.364763
2.254851 -0.279231 0.365340
2.257662 -0.272548 0.365629
2.254556 -0.265160 0.365051
2.257325 -0.258466 0.365340
2.259091 -0.251649 0.365485
2.259852 -0.244717 0.365485
2.257640 -0.237474 0.365051
2.260327 -0.230746 0.365340
2.262009 -0.223907 0.365485
2.260715 -0.216779 0.365196
2.261369 -0.209842 0.365196
2.262003 -0.202903 0.365196
2.267544 -0.196387 0.365918
2.268136 -0.189429 0.365918
2.267720 -0.182391 0.365773
2.273202 -0.175812 0.366495
2.275704 -0.168982 0.366784
2.277199 -0.162070 0.366928
2.277685 -0.155082 0.366928
2.281113 -0.148285 0.367361
2.284520 -0.141468 0.367794
2.287907 -0.134631 0.368227
2.288309 -0.127611 0.368227
2.292643 -0.120797 0.368805
2.293003 -0.113762 0.368805
2.295318 -0.106818 0.369093
2.293657 -0.099691 0.368805
2.295930 -0.092732 0.369093
2.293237 -0.085579 0.368660
2.288544 -0.078376 0.367939
2.287785 -0.071324 0.367794
2.290960 -0.064387 0.368227
2.289168 -0.057309 0.367939
2.292301 -0.050350 0.368372
2.296402 -0.043390 0.368949
2.300483 -0.036405 0.369526
2.300583 -0.029347 0.369526
2.306599 -0.022343 0.370393
2.312594 -0.015303 0.371259
2.309662 -0.008199 0.370826
2.311655 -0.001113 0.371114
2.314616 0.005989 0.371547
2.312608 0.013077 0.371259
2.309588 0.020145 0.370826
2.315452 0.027304 0.371692
2.313379 0.034377 0.371403
2.315241 0.041510 0.371692
2.318071 0.048677 0.372125
2.320878 0.055862 0.372558
2.321685 0.063009 0.372702
2.323459 0.070192 0.372991
2.326200 0.077420 0.373424
2.325951 0.084557 0.373424
2.328647 0.091811 0.373857
2.329343 0.098997 0.374002
2.331005 0.106234 0.374290
2.329680 0.113336 0.374146
2.330310 0.120535 0.374290
2.329929 0.127683 0.374290
2.331502 0.134946 0.374579
2.334040 0.142281 0.375012
2.335567 0.149568 0.375301
2.337072 0.156866 0.375589
2.337567 0.164106 0.375734
2.339026 0.171422 0.376022
2.338489 0.178597 0.376022
2.343848 0.186244 0.376889
2.355099 0.194417 0.378621
2.210307 -0.416620 0.348483
2.208654 -0.409294 0.348068
2.227436 -0.405719 0.350560
2.228670 -0.398884 0.350560
2.229883 -0.392044 0.350560
2.230100 -0.385032 0.350422
2.233223 -0.378521 0.350699
2.235351 -0.371831 0.350837
2.233549 -0.364491 0.350422
2.232701 -0.357323 0.350145
2.236722 -0.350933 0.350560
2.234852 -0.343616 0.350145
2.235895 -0.336758 0.350145
2.233979 -0.329462 0.349730
2.237920 -0.323033 0.350145
2.238900 -0.316165 0.350145
2.238878 -0.309159 0.350006
2.242761 -0.302688 0.350422
2.247606 -0.296325 0.350976
2.245558 -0.289048 0.350560
2.249382 -0.282529 0.350976
2.256136 -0.276352 0.351807
2.258940 -0.269665 0.352084
2.256805 -0.262388 0.351668
2.259568 -0.255687 0.351945
2.262310 -0.248971 0.352222
2.260109 -0.241712 0.351807
2.254930 -0.234160 0.350976
2.256623 -0.227341 0.351114
2.257310 -0.220417 0.351114
2.258962 -0.213584 0.351253
2.257634 -0.206471 0.350976
2.262203 -0.199895 0.351530
2.266752 -0.193292 0.352084
2.267334 -0.186337 0.352084
2.265921 -0.179223 0.351807
2.271398 -0.172648 0.352499
2.272904 -0.165751 0.352638
2.271426 -0.158638 0.352361
2.271902 -0.151669 0.352361
2.275322 -0.144888 0.352776
2.277733 -0.138028 0.353053
2.278146 -0.131039 0.353053
2.279526 -0.124103 0.353192
2.279896 -0.117109 0.353192
2.282223 -0.110211 0.353469
2.285518 -0.103344 0.353884
2.285824 -0.096332 0.353884
2.286109 -0.089319 0.353884
2.288352 -0.082377 0.354161
2.287604 -0.075323 0.354022
2.286834 -0.068274 0.353884
2.290003 -0.061339 0.354299
2.293151 -0.054385 0.354715
2.293307 -0.047349 0.354715
2.299382 -0.040421 0.355546
2.301476 -0.033396 0.355823
2.308500 -0.026418 0.356792
2.308570 -0.019335 0.356792
2.308618 -0.012253 0.356792
2.311616 -0.005178 0.357208
2.314592 0.001915 0.357623
2.312595 0.009009 0.357346
2.311566 0.016098 0.357208
2.310515 0.023180 0.357069
2.312414 0.030294 0.357346
2.313300 0.037403 0.357484
2.314165 0.044519 0.357623
2.316988 0.051683 0.358038
2.317808 0.058816 0.358177
2.320587 0.066010 0.358592
2.322353 0.073190 0.358869
2.327067 0.080483 0.359562
2.327799 0.087659 0.359700
2.330487 0.094920 0.360116
2.330185 0.102069 0.360116
2.329861 0.109218 0.360116
2.329515 0.116365 0.360116
2.332114 0.123667 0.360531
2.330735 0.130766 0.360393
2.332300 0.138032 0.360670
2.333843 0.145309 0.360947
2.335362 0.152597 0.361223
2.335871 0.159828 0.361362
2.338334 0.167204 0.361777
2.342748 0.174743 0.362470
2.340226 0.181777 0.362193
2.342619 0.189194 0.362608
2.347949 0.196874 0.363439
2.222130 -0.412288 0.336026
2.223384 -0.405468 0.336026
2.232423 -0.400045 0.337085
2.231687 -0.392850 0.336820
2.231905 -0.385833 0.336688
2.234056 -0.379150 0.336820
2.235208 -0.372294 0.336820
2.236340 -0.365434 0.336820
2.237451 -0.358572 0.336820
2.238540 -0.351706 0.336820
2.238629 -0.344685 0.336688
2.236736 -0.337372 0.336291
2.241682 -0.331088 0.336820
2.240726 -0.323925 0.336556
2.243672 -0.317327 0.336820
2.243653 -0.310306 0.336688
2.246559 -0.303687 0.336953
2.249445 -0.297053 0.337218
2.253295 -0.290531 0.337615
2.254176 -0.283617 0.337615
2.260938 -0.277425 0.338410
2.261778 -0.270487 0.338410
2.261613 -0.263432 0.338277
2.261426 -0.256381 0.338145
2.261217 -0.249333 0.338012
2.260000 -0.242183 0.337747
2.256789 -0.234837 0.337218
2.259471 -0.228111 0.337483
2.261147 -0.221275 0.337615
2.260828 -0.214243 0.337483
2.261475 -0.207306 0.337483
2.267037 -0.200805 0.338145
2.271592 -0.194187 0.338674
2.273165 -0.187299 0.338807
2.273729 -0.180324 0.338807
2.277237 -0.173574 0.339204
2.277758 -0.166587 0.339204
2.277270 -0.159528 0.339072
2.278738 -0.152607 0.339204
2.277217 -0.145489 0.338939
2.280621 -0.138683 0.339337
2.280046 -0.131628 0.339204
2.278459 -0.124524 0.338939
2.280810 -0.117636 0.339204
2.282151 -0.110686 0.339337
2.283470 -0.103729 0.339469
2.284767 -0.096765 0.339601
2.285053 -0.089755 0.339601
2.288290 -0.082852 0.339999
2.291505 -0.075930 0.340396
2.293709 -0.068960 0.340661
2.295891 -0.061976 0.340926
2.299043 -0.055004 0.341323
2.302174 -0.048013 0.341720
2.302310 -0.040949 0.341720
2.304408 -0.033915 0.341985
2.309456 -0.026904 0.342647
2.306555 -0.019792 0.342250
2.309578 -0.012733 0.342647
2.312580 -0.005655 0.343045
2.314569 0.001441 0.343309
2.315544 0.008546 0.343442
2.315507 0.015650 0.343442
2.316440 0.022763 0.343574
2.319332 0.029907 0.343972
2.319230 0.037023 0.343972
2.322078 0.044194 0.344369
2.323913 0.051361 0.344634
2.324736 0.058516 0.344766
2.326527 0.065703 0.345031
2.327305 0.072871 0.345163
2.330042 0.080113 0.345561
2.329786 0.087261 0.345561
2.332478 0.094528 0.345958
2.332177 0.101684 0.345958
2.331854 0.108838 0.345958
2.332499 0.116041 0.346090
2.334112 0.123300 0.346355
2.333723 0.130461 0.346355
2.339248 0.137969 0.347150
2.337825 0.145084 0.347017
2.338358 0.152320 0.347150
2.340846 0.159695 0.347547
2.341334 0.166946 0.347680
2.339822 0.174055 0.347547
2.340266 0.181309 0.347680
2.339698 0.188488 0.347680
2.339109 0.195665 0.347680
2.227725 -0.407947 0.323083
2.206511 -0.397074 0.320172
2.225302 -0.393408 0.322450
2.225521 -0.386409 0.322323
2.225718 -0.379413 0.322197
2.227850 -0.372746 0.322323
2.227025 -0.365589 0.322070
2.231074 -0.359227 0.322450
2.231186 -0.352226 0.322323
2.232256 -0.345379 0.322323
2.233305 -0.338529 0.322323
2.237277 -0.332112 0.322703
2.235341 -0.324819 0.322323
2.236326 -0.317960 0.322323
2.239257 -0.311370 0.322576
2.240201 -0.304499 0.322576
2.239158 -0.297364 0.322323
2.243995 -0.291002 0.322830
2.246845 -0.284365 0.323083
2.247707 -0.277471 0.323083
2.250518 -0.270810 0.323336
2.249367 -0.263674 0.323083
2.249180 -0.256659 0.322956
2.250943 -0.249867 0.323083
2.250713 -0.242854 0.322956
2.250461 -0.235844 0.322830
2.251174 -0.228939 0.322830
2.253840 -0.222226 0.323083
2.254511 -0.215310 0.323083
2.252198 -0.208119 0.322703
2.258754 -0.201737 0.323462
2.260350 -0.194891 0.323589
2.261926 -0.188038 0.323715
2.263481 -0.181176 0.323842
2.266994 -0.174459 0.324222
2.264550 -0.167284 0.323842
2.274948 -0.161035 0.325107
2.273452 -0.153921 0.324854
2.274903 -0.147009 0.324981
2.275344 -0.140029 0.324981
2.272792 -0.132875 0.324601
2.270217 -0.125737 0.324222
2.270592 -0.118771 0.324222
2.271937 -0.111853 0.324348
2.271278 -0.104837 0.324222
2.271589 -0.097868 0.324222
2.273861 -0.090978 0.324475
2.277103 -0.084111 0.324854
2.282308 -0.077291 0.325487
2.284517 -0.070350 0.325740
2.287697 -0.063422 0.326120
2.288872 -0.056428 0.326246
2.291018 -0.049448 0.326499
2.290167 -0.042401 0.326373
2.293262 -0.035420 0.326752
2.294352 -0.028396 0.326879
2.293437 -0.021348 0.326752
2.294483 -0.014318 0.326879
2.295508 -0.007281 0.327006
2.299488 -0.000238 0.327512
2.299477 0.006816 0.327512
2.303413 0.013896 0.328018
2.303360 0.020962 0.328018
2.306261 0.028066 0.328398
2.307155 0.035156 0.328524
2.311004 0.042308 0.329030
2.311855 0.049419 0.329157
2.316651 0.056633 0.329789
2.317458 0.063768 0.329916
2.319234 0.070938 0.330169
2.320988 0.078120 0.330422
2.322720 0.085314 0.330675
2.324430 0.092519 0.330928
2.325126 0.099692 0.331055
2.324809 0.106825 0.331055
2.327443 0.114103 0.331435
2.325101 0.121140 0.331181
2.325709 0.128327 0.331308
2.329265 0.135693 0.331814
2.328838 0.142839 0.331814
2.329379 0.150047 0.331941
2.332866 0.157460 0.332447
2.333361 0.164687 0.332574
2.332845 0.171845 0.332574
2.330329 0.178849 0.332320
2.329769 0.185997 0.332320
2.331165 0.193308 0.332574
2.330561 0.200459 0.332574
2.201307 -0.396630 0.304949
2.219350 -0.385828 0.306872
2.219545 -0.378851 0.306751
2.220697 -0.372040 0.306751
2.224767 -0.365707 0.307112
2.226858 -0.359037 0.307232
2.229911 -0.352512 0.307472
2.230000 -0.345518 0.307352
2.233013 -0.338972 0.307592
2.236007 -0.332410 0.307833
2.237016 -0.325549 0.307833
2.238004 -0.318684 0.307833
2.241921 -0.312226 0.308193
2.242869 -0.305346 0.308193
2.239858 -0.297942 0.307713
2.240762 -0.291069 0.307713
2.242629 -0.284317 0.307833
2.242506 -0.277314 0.307713
2.241375 -0.270197 0.307472
2.241207 -0.263204 0.307352
2.242990 -0.256439 0.307472
2.243767 -0.249556 0.307472
2.245509 -0.242777 0.307592
2.246243 -0.235887 0.307592
2.250907 -0.229395 0.308073
2.249624 -0.222294 0.307833
2.250295 -0.215391 0.307833
2.248968 -0.208304 0.307592
2.255530 -0.201932 0.308313
2.255150 -0.194926 0.308193
2.257716 -0.188170 0.308433
2.259272 -0.181322 0.308554
2.264767 -0.174769 0.309154
2.262322 -0.167601 0.308794
2.268768 -0.161079 0.309515
2.270242 -0.154184 0.309635
2.273676 -0.147410 0.309995
2.269163 -0.140130 0.309394
2.271565 -0.133283 0.309635
2.270972 -0.126259 0.309515
2.272340 -0.119342 0.309635
2.272695 -0.112370 0.309635
2.272038 -0.105352 0.309515
2.273342 -0.098423 0.309635
2.273633 -0.091448 0.309635
2.273903 -0.084472 0.309635
2.277128 -0.077596 0.309995
2.281325 -0.070730 0.310476
2.280539 -0.063704 0.310356
2.280723 -0.056707 0.310356
2.282871 -0.049752 0.310596
2.281028 -0.042711 0.310356
2.284127 -0.035758 0.310716
2.287204 -0.028786 0.311076
2.287281 -0.021769 0.311076
2.287337 -0.014752 0.311076
2.289357 -0.007740 0.311317
2.293341 -0.000716 0.311797
2.298296 0.006337 0.312398
2.299259 0.013394 0.312518
2.301192 0.020466 0.312758
2.304097 0.027563 0.313119
2.306979 0.034678 0.313479
2.309840 0.041811 0.313840
2.310693 0.048919 0.313960
2.312517 0.056057 0.314200
2.313327 0.063179 0.314320
2.313122 0.070276 0.314320
2.312895 0.077372 0.314320
2.316615 0.084615 0.314801
2.315353 0.091682 0.314680
2.318036 0.098913 0.315041
2.317722 0.106025 0.315041
2.321352 0.113330 0.315521
2.320993 0.120452 0.315521
2.320613 0.127572 0.315521
2.322193 0.134807 0.315762
2.322759 0.141992 0.315882
2.324294 0.149245 0.316122
2.325806 0.156510 0.316362
2.329276 0.163925 0.316843
2.331732 0.171290 0.317203
2.331196 0.178443 0.317203
2.334596 0.185911 0.317684
2.337972 0.193402 0.318164
2.338356 0.200660 0.318285
2.337730 0.207833 0.318285
2.217271 -0.383207 0.293916
2.219416 -0.376569 0.294031
2.220561 -0.369758 0.294031
2.223645 -0.363265 0.294260
2.224749 -0.356441 0.294260
2.226814 -0.349769 0.294374
2.226894 -0.342784 0.294260
2.228918 -0.336099 0.294374
2.230921 -0.329405 0.294489
2.234870 -0.322987 0.294833
2.236835 -0.316268 0.294947
2.237794 -0.309404 0.294947
2.240702 -0.302804 0.295177
2.239650 -0.295667 0.294947
2.240547 -0.288795 0.294947
2.241423 -0.281920 0.294947
2.243263 -0.275163 0.295062
2.243110 -0.268161 0.294947
2.242936 -0.261163 0.294833
2.244713 -0.254393 0.294947
2.249433 -0.247942 0.295406
2.249195 -0.240934 0.295291
2.252888 -0.234342 0.295635
2.253596 -0.227429 0.295635
2.251318 -0.220222 0.295291
2.249016 -0.213032 0.294947
2.252626 -0.206404 0.295291
2.253249 -0.199492 0.295291
2.246922 -0.191983 0.294489
2.257401 -0.185909 0.295635
2.257960 -0.178983 0.295635
2.258499 -0.172054 0.295635
2.260007 -0.165198 0.295749
2.260503 -0.158263 0.295749
2.261969 -0.151394 0.295864
2.262423 -0.144454 0.295864
2.258889 -0.137269 0.295406
2.260291 -0.130396 0.295520
2.263657 -0.123625 0.295864
2.265017 -0.116731 0.295979
2.265365 -0.109782 0.295979
2.270653 -0.103059 0.296552
2.273936 -0.096220 0.296895
2.276206 -0.089322 0.297125
2.275476 -0.082302 0.297010
2.279689 -0.075454 0.297468
2.278917 -0.068429 0.297354
2.281102 -0.061492 0.297583
2.279294 -0.054445 0.297354
2.278457 -0.047430 0.297239
2.280578 -0.040476 0.297468
2.279699 -0.033464 0.297354
2.280784 -0.026482 0.297468
2.284828 -0.019521 0.297927
2.285870 -0.012517 0.298041
2.288878 -0.005512 0.298385
2.294845 0.001511 0.299073
2.296816 0.008558 0.299302
2.299759 0.015623 0.299646
2.303674 0.022716 0.300104
2.306574 0.029820 0.300448
2.306471 0.036896 0.300448
2.308334 0.044009 0.300677
2.308188 0.051091 0.300677
2.310006 0.058221 0.300906
2.308824 0.065280 0.300791
2.308613 0.072363 0.300791
2.310365 0.079513 0.301021
2.312096 0.086674 0.301250
2.311819 0.093767 0.301250
2.313506 0.100945 0.301479
2.315170 0.108134 0.301708
2.315820 0.115285 0.301823
2.316447 0.122441 0.301937
2.316061 0.129548 0.301937
2.316644 0.136711 0.302052
2.320180 0.144062 0.302510
2.319727 0.151179 0.302510
2.322225 0.158497 0.302854
2.326683 0.165971 0.303427
2.332107 0.173548 0.304115
2.331563 0.180702 0.304115
2.334959 0.188172 0.304573
2.341301 0.195911 0.305375
2.340689 0.203093 0.305375
2.342034 0.210450 0.305604
2.198077 -0.386928 0.277705
2.198274 -0.380013 0.277597
2.228832 -0.378262 0.280847
2.230962 -0.371586 0.280955
2.232092 -0.364740 0.280955
2.234182 -0.358047 0.281064
2.234288 -0.351037 0.280955
2.234372 -0.344029 0.280847
2.234434 -0.337024 0.280739
2.234474 -0.330022 0.280630
2.237443 -0.323450 0.280847
2.239410 -0.316723 0.280955
2.239386 -0.309715 0.280847
2.239341 -0.302710 0.280739
2.242230 -0.296099 0.280955
2.244114 -0.289346 0.281064
2.244004 -0.282335 0.280955
2.246833 -0.275692 0.281172
2.246682 -0.268679 0.281064
2.248483 -0.261900 0.281172
2.252239 -0.255337 0.281497
2.254000 -0.248536 0.281606
2.253763 -0.241513 0.281497
2.258449 -0.235010 0.281931
2.259159 -0.228080 0.281931
2.258859 -0.221051 0.281822
2.263485 -0.214495 0.282256
2.265122 -0.207641 0.282364
2.263768 -0.200515 0.282147
2.266354 -0.193739 0.282364
2.264956 -0.186621 0.282147
2.267500 -0.179829 0.282364
2.265067 -0.172644 0.282039
2.270543 -0.166058 0.282581
2.270051 -0.159021 0.282472
2.261601 -0.151457 0.281497
2.261063 -0.144454 0.281389
2.260503 -0.137456 0.281281
2.261907 -0.130578 0.281389
2.263289 -0.123692 0.281497
2.272593 -0.117210 0.282472
2.274928 -0.110334 0.282689
2.275256 -0.103354 0.282689
2.278542 -0.096500 0.283014
2.282800 -0.089666 0.283447
2.284058 -0.082698 0.283556
2.284301 -0.075690 0.283556
2.292472 -0.068922 0.284423
2.287704 -0.061754 0.283881
2.288876 -0.054759 0.283989
2.285058 -0.047653 0.283556
2.287181 -0.040678 0.283772
2.285307 -0.033631 0.283556
2.287388 -0.026643 0.283772
2.287459 -0.019625 0.283772
2.290491 -0.012624 0.284098
2.290519 -0.005597 0.284098
2.297484 0.001433 0.284856
2.299457 0.008489 0.285073
2.305384 0.015583 0.285723
2.308308 0.022684 0.286048
2.314192 0.029842 0.286698
2.314089 0.036942 0.286698
2.315953 0.044078 0.286915
2.316801 0.051205 0.287023
2.318620 0.058363 0.287240
2.316443 0.065420 0.287023
2.316231 0.072526 0.287023
2.315998 0.079632 0.287023
2.315742 0.086737 0.287023
2.315465 0.093841 0.287023
2.316160 0.100988 0.287131
2.313853 0.108001 0.286915
2.317482 0.115296 0.287348
2.315132 0.122301 0.287131
2.315739 0.129458 0.287240
2.321285 0.136913 0.287890
2.321846 0.144095 0.287998
2.324369 0.151411 0.288323
2.328853 0.158879 0.288865
2.335296 0.166517 0.289623
2.338740 0.173975 0.290057
2.340177 0.181302 0.290273
2.344564 0.188879 0.290815
2.346946 0.196320 0.291140
2.347323 0.203605 0.291248
2.347677 0.210894 0.291357
2.348999 0.218279 0.291573
2.223908 -0.386129 0.266618
2.212334 -0.377134 0.265288
2.227217 -0.372641 0.266720
2.228350 -0.365806 0.266720
2.227497 -0.358652 0.266516
2.228587 -0.351816 0.266516
2.227690 -0.344673 0.266311
2.228737 -0.337837 0.266311
2.228779 -0.330852 0.266209
2.228799 -0.323870 0.266107
2.228797 -0.316891 0.266004
2.229759 -0.310051 0.266004
2.232671 -0.303477 0.266209
2.233592 -0.296626 0.266209
2.237451 -0.290155 0.266516
2.241291 -0.283663 0.266823
2.242151 -0.276786 0.266823
2.242989 -0.269906 0.266823
2.244795 -0.263139 0.266925
2.245591 -0.256250 0.266925
2.245378 -0.249250 0.266823
2.248111 -0.242574 0.267027
2.252802 -0.236089 0.267436
2.254505 -0.229277 0.267538
2.258168 -0.222652 0.267845
2.257850 -0.215628 0.267743
2.260482 -0.208883 0.267947
2.262103 -0.202035 0.268050
2.265685 -0.195350 0.268357
2.265283 -0.188316 0.268254
2.263867 -0.181207 0.268050
2.262428 -0.174108 0.267845
2.261960 -0.167093 0.267743
2.252539 -0.159452 0.266720
2.256987 -0.152809 0.267129
2.257446 -0.145884 0.267129
2.257883 -0.138957 0.267129
2.250354 -0.131567 0.266311
2.257699 -0.125046 0.267027
2.260059 -0.118222 0.267232
2.265379 -0.111532 0.267743
2.265711 -0.104581 0.267743
2.268008 -0.097715 0.267947
2.275255 -0.091033 0.268663
2.276518 -0.084089 0.268766
2.274777 -0.077037 0.268561
2.278980 -0.070180 0.268970
2.285151 -0.063352 0.269584
2.282351 -0.056268 0.269277
2.282513 -0.049266 0.269277
2.283648 -0.042281 0.269379
2.281777 -0.035244 0.269175
2.282869 -0.028256 0.269277
2.280956 -0.021234 0.269073
2.283995 -0.014254 0.269379
2.285022 -0.007250 0.269482
2.289013 -0.000239 0.269891
2.291987 0.006793 0.270197
2.297924 0.013862 0.270811
2.301849 0.020948 0.271220
2.306748 0.028072 0.271732
2.307645 0.035164 0.271834
2.309516 0.042280 0.272038
2.308381 0.049344 0.271936
2.312196 0.056524 0.272345
2.311018 0.063590 0.272243
2.308823 0.070618 0.272038
2.308595 0.077701 0.272038
2.311328 0.084894 0.272345
2.309069 0.091905 0.272141
2.307783 0.098946 0.272038
2.310449 0.106163 0.272345
2.313093 0.113397 0.272652
2.310748 0.120389 0.272447
2.313347 0.127643 0.272754
2.316917 0.134972 0.273163
2.321456 0.142385 0.273675
2.322001 0.149570 0.273777
2.326494 0.157029 0.274288
2.329970 0.164447 0.274697
2.332431 0.171814 0.275004
2.332885 0.179045 0.275107
2.335299 0.186440 0.275413
2.337690 0.193850 0.275720
2.336093 0.200936 0.275618
2.333484 0.207925 0.275413
2.334817 0.215266 0.275618
2.332165 0.222239 0.275413
2.329492 0.229198 0.275209
2.204695 -0.376717 0.250418
2.196023 -0.368310 0.249458
2.218752 -0.365116 0.251570
2.222810 -0.358781 0.251858
2.224883 -0.352115 0.251954
2.224969 -0.345136 0.251858
2.225034 -0.338159 0.251762
2.226061 -0.331331 0.251762
2.228052 -0.324643 0.251858
2.229037 -0.317806 0.251858
2.230002 -0.310966 0.251858
2.232918 -0.304391 0.252050
2.231868 -0.297277 0.251858
2.232769 -0.290428 0.251858
2.235625 -0.283827 0.252050
2.237473 -0.277088 0.252146
2.236336 -0.269985 0.251954
2.238142 -0.263238 0.252050
2.238940 -0.256371 0.252050
2.239715 -0.249501 0.252050
2.240470 -0.242628 0.252050
2.245164 -0.236168 0.252434
2.246868 -0.229379 0.252531
2.251524 -0.222875 0.252915
2.253188 -0.216061 0.253011
2.253840 -0.209147 0.253011
2.255463 -0.202320 0.253107
2.259048 -0.195655 0.253395
2.254678 -0.188312 0.252915
2.254253 -0.181315 0.252819
2.257776 -0.174627 0.253107
2.257308 -0.167626 0.253011
2.253840 -0.160419 0.252627
2.259287 -0.153839 0.253107
2.257762 -0.146779 0.252915
2.256215 -0.139729 0.252723
2.257626 -0.132865 0.252819
2.259017 -0.125993 0.252915
2.260387 -0.119114 0.253011
2.261736 -0.112227 0.253107
2.264058 -0.105379 0.253299
2.264371 -0.098433 0.253299
2.268641 -0.091644 0.253683
2.273885 -0.084866 0.254163
2.272145 -0.077823 0.253971
2.274363 -0.070912 0.254163
2.277555 -0.064017 0.254451
2.279730 -0.057078 0.254643
2.279895 -0.050084 0.254643
2.284019 -0.043162 0.255027
2.287126 -0.036200 0.255315
2.285236 -0.029159 0.255123
2.285314 -0.022148 0.255123
2.286367 -0.015142 0.255219
2.284412 -0.008122 0.255027
2.288408 -0.001113 0.255411
2.290391 0.005914 0.255603
2.296334 0.012977 0.256179
2.296283 0.020022 0.256179
2.299197 0.027104 0.256467
2.302089 0.034203 0.256755
2.303964 0.041303 0.256947
2.304821 0.048392 0.257043
2.309637 0.055585 0.257524
2.309456 0.062671 0.257524
2.306268 0.069664 0.257235
2.307038 0.076773 0.257331
2.310771 0.083997 0.257716
2.310502 0.091086 0.257716
2.302256 0.097832 0.256947
2.308906 0.105216 0.257620
2.314537 0.112592 0.258196
2.311198 0.119537 0.257908
2.314796 0.126847 0.258292
2.319365 0.134238 0.258772
2.321923 0.141536 0.259060
2.323464 0.148787 0.259252
2.326969 0.156183 0.259636
2.329458 0.163532 0.259924
2.332916 0.170971 0.260308
2.331388 0.178051 0.260212
2.333807 0.185441 0.260500
2.333227 0.192600 0.260500
2.335600 0.200014 0.260788
2.334976 0.207178 0.260788
2.332347 0.214158 0.260596
2.333661 0.221502 0.260788
2.332970 0.228660 0.260788
2.220426 -0.362342 0.238707
2.220544 -0.355371 0.238616
2.222608 -0.348711 0.238707
2.226620 -0.342346 0.238978
2.225690 -0.335216 0.238797
2.228679 -0.328678 0.238978
2.229676 -0.321839 0.238978
2.232625 -0.315276 0.239158
2.234569 -0.308562 0.239248
2.238466 -0.302106 0.239519
2.241356 -0.295498 0.239700
2.240277 -0.288365 0.239519
2.241151 -0.281491 0.239519
2.242004 -0.274614 0.239519
2.239870 -0.267378 0.239248
2.240680 -0.260505 0.239248
2.241468 -0.253630 0.239248
2.242236 -0.246752 0.239248
2.241992 -0.239765 0.239158
2.244698 -0.233092 0.239339
2.246393 -0.226305 0.239429
2.252033 -0.219899 0.239880
2.249723 -0.212706 0.239609
2.252348 -0.205985 0.239790
2.254954 -0.199250 0.239971
2.256546 -0.192416 0.240061
2.257126 -0.185493 0.240061
2.259670 -0.178725 0.240241
2.261201 -0.171868 0.240332
2.257745 -0.164638 0.239971
2.261220 -0.157920 0.240241
2.261693 -0.150982 0.240241
2.262146 -0.144042 0.240241
2.260589 -0.136980 0.240061
2.262987 -0.130159 0.240241
2.262381 -0.123161 0.240151
2.262748 -0.116220 0.240151
2.265084 -0.109374 0.240332
2.270383 -0.102652 0.240783
2.269692 -0.095644 0.240693
2.271966 -0.088759 0.240873
2.275213 -0.081897 0.241144
2.276449 -0.074950 0.241235
2.278659 -0.068026 0.241415
2.280848 -0.061089 0.241596
2.282020 -0.054115 0.241686
2.283171 -0.047135 0.241776
2.284301 -0.040148 0.241867
