# .PCD v0.7 - Point Cloud Data file format
VERSION 0.7
FIELDS x y z intensity
SIZE 4 4 4 4
TYPE F F F F
COUNT 1 1 1 1
WIDTH 852
HEIGHT 1
VIEWPOINT 0 0 0 1 0 0 0
POINTS 852
DATA ascii
2.1446774 0.51726711 -0.59114271 0
2.1146049 0.50182045 -0.58234286 0
2.1126671 0.49318874 -0.58130759 0
2.1162586 0.48624322 -0.58182526 0
2.1159751 0.47879681 -0.58130759 0
2.1232908 0.4726676 -0.58286053 0
2.1117179 0.46236017 -0.57923704 0
2.1132395 0.4553543 -0.57923704 0
2.1071782 0.44674179 -0.5771665 0
2.1163669 0.44059104 -0.57923704 0
2.1273553 0.4351359 -0.58182526 0
2.111815 0.42428312 -0.5771665 0
2.1113882 0.41653451 -0.57664889 0
2.1204152 0.41063142 -0.57871938 0
2.1218359 0.4032267 -0.57871938 0
2.1251299 0.3961722 -0.57923704 0
2.1093292 0.38599253 -0.57457829 0
2.1087623 0.37828663 -0.57406068 0
2.1138752 0.37159172 -0.57509595 0
2.1208708 0.3651956 -0.57664889 0
2.1201653 0.35783842 -0.57613122 0
2.1137776 0.34917551 -0.57406068 0
2.1130764 0.34148613 -0.57354301 0
2.1199799 0.3350141 -0.57509595 0
2.1211364 0.32761139 -0.57509595 0
2.1204126 0.31954741 -0.57457829 0
2.1138699 0.31101847 -0.57250774 0
2.1130304 0.30336371 -0.57199007 0
2.117903 0.29652116 -0.57302535 0
2.1265817 0.29017165 -0.57509595 0
2.1294966 0.28300068 -0.57561362 0
2.122808 0.2745738 -0.57354301 0
2.1409571 0.26970634 -0.57820177 0
2.1416209 0.62625444 -0.51513791 1
2.1156023 0.61103845 -0.50838935 1
2.1046038 0.5999099 -0.50524008 1
2.1104369 0.59361553 -0.50613987 1
2.1049852 0.58416015 -0.50434029 1
2.1088912 0.57732278 -0.50479019 1
2.1108935 0.56995833 -0.50479019 1
2.1090057 0.56195211 -0.50389034 1
2.1014342 0.55247724 -0.50164086 1
2.1071231 0.54611582 -0.50254071 1
2.1109986 0.53887159 -0.50299054 1
2.1166465 0.53244978 -0.50389034 1
2.1069608 0.52298123 -0.50119096 1
2.1049874 0.51469809 -0.50029117 1
2.1105602 0.50826013 -0.50119096 1
2.1124091 0.50052059 -0.50119096 1
2.1142294 0.49277428 -0.50119096 1
2.1044559 0.48314464 -0.49849153 1
2.1023276 0.47493741 -0.49759173 1
2.1077774 0.46844101 -0.49849153 1
2.1093998 0.46108109 -0.49849153 1
2.1185379 0.45572326 -0.50029117 1
2.1124113 0.44708079 -0.49849153 1
2.1063278 0.43811646 -0.49669194 1
2.1098285 0.43078375 -0.49714181 1
2.1151407 0.42418224 -0.4980416 1
2.1204326 0.41754994 -0.49894145 1
2.1084838 0.40755725 -0.49579209 1
2.0984061 0.39801636 -0.49309272 1
2.1073775 0.39248219 -0.4948923 1
2.1125689 0.38582334 -0.49579209 1
2.1215756 0.37982088 -0.49759173 1
2.1094527 0.37005633 -0.49444243 1
2.1010656 0.36140674 -0.49219292 1
2.1100011 0.35536447 -0.49399251 1
2.1150134 0.34900042 -0.4948923 1
2.1162779 0.34124666 -0.4948923 1
2.1174564 0.33385783 -0.4948923 1
2.1051269 0.32438645 -0.491743 1
2.1139545 0.31819585 -0.49354258 1
2.1189628 0.31101218 -0.49444243 1
2.1258225 0.30444193 -0.49579209 1
2.1075721 0.29432473 -0.49129307 1
2.1008632 0.28591445 -0.48949349 1
2.1134393 0.28011706 -0.49219292 1
2.1162891 0.27335614 -0.49264279 1
2.1191642 0.2662096 -0.49309272 1
2.108474 0.2573953 -0.49039328 1
2.1035542 0.24934505 -0.48904356 1
2.1063478 0.24222285 -0.48949349 1
2.1129906 0.23551691 -0.49084321 1
2.1215498 0.22897561 -0.49264279 1
2.1087689 0.22015268 -0.48949349 1
2.1134021 0.21318093 -0.49039328 1
2.1091764 0.71268666 -0.43275481 2
2.0986166 0.70096558 -0.43008351 2
2.097322 0.69240516 -0.42932025 2
2.1034589 0.68629831 -0.43008351 2
2.1131968 0.68172967 -0.43160996 2
2.1118231 0.67315614 -0.43084675 2
2.099179 0.66106313 -0.4277938 2
2.1052229 0.65489733 -0.42855701 2
2.1036301 0.64675915 -0.4277938 2
2.1096318 0.64055336 -0.42855701 2
2.111855 0.63318485 -0.42855701 2
2.102757 0.62246716 -0.42626733 2
2.0973794 0.61292005 -0.42474085 2
2.1032789 0.60668272 -0.42550406 2
2.1090558 0.60077983 -0.42626733 2
2.1111398 0.59341466 -0.42626733 2
2.1056309 0.58394355 -0.42474085 2
2.1114433 0.57762653 -0.42550406 2
2.1058652 0.56820637 -0.42397761 2
2.1134298 0.5627349 -0.42512247 2
2.1114864 0.55472612 -0.42435926 2
2.1040018 0.54452431 -0.42245111 2
2.1039879 0.53669095 -0.42206952 2
2.1059406 0.52897632 -0.42206952 2
2.115123 0.52461535 -0.42359596 2
2.1169412 0.51722944 -0.42359596 2
2.1073699 0.50671363 -0.42130631 2
2.1073022 0.49853379 -0.42092466 2
2.1109416 0.49162066 -0.42130631 2
2.1164722 0.48512581 -0.42206952 2
2.1180696 0.47810408 -0.42206952 2
2.1082256 0.46815556 -0.41977981 2
2.102175 0.4591175 -0.41825336 2
2.1113636 0.45379344 -0.41977981 2
2.1090152 0.44597748 -0.41901657 2
2.1183245 0.43984154 -0.42054302 2
2.1083055 0.4300895 -0.41825336 2
2.1059437 0.42195657 -0.41749012 2
2.1112566 0.4153603 -0.41825336 2
2.1165488 0.40873197 -0.41901657 2
2.1179626 0.4013418 -0.41901657 2
2.1077693 0.391794 -0.41672686 2
2.1090572 0.38480166 -0.41672686 2
2.118118 0.37882039 -0.41825336 2
2.1155601 0.37074611 -0.41749012 2
2.1207108 0.36402491 -0.41825336 2
2.1102901 0.35503542 -0.41596362 2
2.1076424 0.34702852 -0.41520041 2
2.1127174 0.34029317 -0.41596362 2
2.1177709 0.33352864 -0.41672686 2
2.1228032 0.326731 -0.41749012 2
2.1123376 0.31719953 -0.41520041 2
2.1134319 0.3098236 -0.41520041 2
2.1145005 0.30244493 -0.41520041 2
2.1155434 0.29506153 -0.41520041 2
2.1243417 0.28873315 -0.41672686 2
2.1097667 0.27925459 -0.41367394 2
2.1107287 0.27188787 -0.41367394 2
2.1155145 0.26537612 -0.41443717 2
2.1125302 0.25751528 -0.41367394 2
2.1231647 0.25129285 -0.41558203 2
2.1064749 0.24186498 -0.41214746 2
2.1073062 0.23451096 -0.41214746 2
2.1159198 0.22799441 -0.41367394 2
2.1206081 0.22101456 -0.41443717 2
2.1213667 0.21361034 -0.41443717 2
2.1142831 0.20544501 -0.41291067 2
2.1110783 0.19769689 -0.41214746 2
2.1156325 0.19104876 -0.41291067 2
2.1241424 0.18397139 -0.41443717 2
2.1286848 0.17688021 -0.41520041 2
2.1117046 0.16767885 -0.41176581 2
2.1102636 0.16089506 -0.41138422 2
2.1206026 0.15423942 -0.41329232 2
2.1270039 0.1472434 -0.41443717 2
2.1259038 0.81733567 -0.36073789 3
2.119653 0.80602819 -0.35917357 3
2.1076636 0.79305857 -0.35667065 3
2.1065795 0.78468519 -0.35604486 3
2.113013 0.77869374 -0.35667065 3
2.1045825 0.76725405 -0.3547934 3
2.0960982 0.75588274 -0.35291618 3
2.1023142 0.75025493 -0.35354191 3
2.1047904 0.74327976 -0.35354191 3
2.1111026 0.73723018 -0.35416767 3
2.106194 0.72727799 -0.35291618 3
2.0975037 0.71609169 -0.35103899 3
2.0999908 0.70876515 -0.35103899 3
2.106199 0.7026822 -0.35166472 3
2.1123912 0.69656259 -0.35229045 3
2.1034212 0.68587881 -0.35041323 3
2.0945215 0.67489785 -0.34853604 3
2.1006291 0.66878039 -0.34916177 3
2.1104879 0.66381592 -0.35041323 3
2.1089053 0.65564024 -0.3497875 3
2.1036279 0.64595491 -0.34853604 3
2.0907469 0.63402128 -0.3460331 3
2.0967317 0.62785405 -0.34665883 3
2.0989108 0.62053078 -0.34665883 3
2.1086488 0.61541456 -0.34791031 3
2.0992897 0.6051352 -0.3460331 3
2.0937891 0.59564203 -0.34478158 3
2.1034632 0.59046465 -0.3460331 3
2.1055112 0.58311909 -0.3460331 3
2.1113453 0.57680655 -0.34665883 3
2.1019015 0.5663498 -0.34478158 3
2.0999498 0.55836183 -0.34415585 3
2.0979686 0.55039197 -0.34353012 3
2.1076217 0.5446763 -0.34478158 3
2.1056819 0.53634036 -0.34415585 3
2.1038013 0.52765834 -0.34353012 3
2.1015232 0.52046359 -0.34290439 3
2.103327 0.51312518 -0.34290439 3
2.1089466 0.50670344 -0.34353012 3
2.106945 0.49806097 -0.34290439 3
2.1010599 0.48854518 -0.3416529 3
2.0988176 0.48069358 -0.34102717 3
2.1004827 0.47336483 -0.34102717 3
2.1059792 0.4668844 -0.3416529 3
2.1114562 0.46037239 -0.34227866 3
2.1013827 0.45088199 -0.34040144 3
2.1067319 0.44472653 -0.34102717 3
2.1044791 0.43620059 -0.34040144 3
2.105989 0.42885134 -0.34040144 3
2.1152213 0.4230465 -0.3416529 3
2.1089318 0.41413832 -0.34040144 3
2.1064851 0.40602699 -0.33977571 3
2.1040077 0.39793774 -0.33914998 3
2.1092002 0.39167914 -0.33977571 3
2.122215 0.38643697 -0.3416529 3
2.1079938 0.37625042 -0.33914998 3
2.1034567 0.36786941 -0.33821136 3
2.1105061 0.36189303 -0.33914998 3
2.1137044 0.35485023 -0.33946282 3
2.1168189 0.34816003 -0.33977571 3
2.1063783 0.33851895 -0.33789849 3
2.1075473 0.33116367 -0.33789849 3
2.1125953 0.32440504 -0.33852422 3
2.1137702 0.31666028 -0.33852422 3
2.118772 0.30985105 -0.33914998 3
2.1120183 0.30133662 -0.33789849 3
2.105231 0.29287419 -0.33664703 3
2.1062407 0.28552318 -0.33664703 3
2.1111412 0.2786878 -0.33727276 3
2.1198907 0.27269298 -0.33852422 3
2.1071091 0.26357469 -0.33633414 3
2.1099772 0.25645566 -0.33664703 3
2.114783 0.24955335 -0.33727276 3
2.1097536 0.24149536 -0.33633414 3
2.1223638 0.23543669 -0.33821136 3
2.1054959 0.22612779 -0.33539551 3
2.1062725 0.2187763 -0.33539551 3
2.1070232 0.21142314 -0.33539551 3
2.1116805 0.20444812 -0.33602124 3
2.1202142 0.19817922 -0.33727276 3
2.1090887 0.18971568 -0.33539551 3
2.1018975 0.18130563 -0.33414406 3
2.1103923 0.17461853 -0.33539551 3
2.1169257 0.16734987 -0.33633414 3
2.1154711 0.16054843 -0.33602124 3
2.1101084 0.15273573 -0.33508268 3
2.1125991 0.1455043 -0.33539551 3
2.1170363 0.1383872 -0.33602124 3
2.115535 0.13087399 -0.33570841 3
2.123867 0.12394939 -0.33695987 3
2.1144247 0.11599439 -0.33539551 3
2.1088982 0.10830843 -0.33445692 3
2.1112368 0.10104124 -0.33476979 3
2.1079528 0.80115688 -0.27688718 4
2.1164496 0.7955212 -0.27761838 4
2.1023314 0.7822684 -0.27542472 4
2.1087749 0.77629715 -0.27591223 4
2.1114721 0.76893091 -0.27591223 4
2.1140106 0.76192415 -0.27591223 4
2.1090465 0.75224257 -0.27493724 4
2.0966833 0.73959261 -0.27298734 4
2.1067495 0.7348851 -0.27396232 4
2.109302 0.72752607 -0.27396232 4
2.1118281 0.72016031 -0.27396232 4
2.0992806 0.70771044 -0.27201241 4
2.0979719 0.69912261 -0.27152494 4
2.1079412 0.69427943 -0.27249986 4
2.114007 0.68851435 -0.27298734 4
2.1088388 0.67869878 -0.27201241 4
2.1036282 0.66892767 -0.27103746 4
2.0983751 0.65920019 -0.27006248 4
2.104341 0.65341479 -0.27054995 4
2.1104045 0.64723086 -0.27103746 4
2.1164508 0.64101052 -0.27152494 4
2.1072645 0.63020563 -0.27006248 4
2.1018362 0.62059796 -0.26908755 4
2.1039898 0.61325687 -0.26908755 4
2.1098268 0.60737514 -0.269575 4
2.1119339 0.60000718 -0.269575 4
2.1025472 0.58941597 -0.26811257 4
2.0969386 0.57995689 -0.26713762 4
2.1027808 0.57367808 -0.26762509 4
2.1123385 0.56876677 -0.26860005 4
2.1142135 0.56175822 -0.26860005 4
2.1046395 0.55135691 -0.26713762 4
2.1027071 0.54301476 -0.26665017 4
2.1046832 0.53530478 -0.26665017 4
2.106539 0.52795422 -0.26665017 4
2.1120412 0.52228719 -0.26713762 4
2.1022794 0.51209217 -0.26567519 4
2.0963328 0.50289893 -0.26470023 4
2.10589 0.4970355 -0.26567519 4
2.1076977 0.48931316 -0.26567519 4
2.1093085 0.48232153 -0.26567519 4
2.0993595 0.47234076 -0.26421279 4
2.0971189 0.46415219 -0.26372528 4
2.1025257 0.45804089 -0.26421279 4
2.1079154 0.45189777 -0.26470023 4
2.1133647 0.44535515 -0.26518771 4
2.0993552 0.43475643 -0.2632378 4
2.1009347 0.42705843 -0.2632378 4
2.1063058 0.42049992 -0.26372528 4
2.1116571 0.41390812 -0.26421279 4
2.1130891 0.40653497 -0.26421279 4
2.1027913 0.39694652 -0.26275033 4
2.1001923 0.38924813 -0.26226285 4
2.1034915 0.3822701 -0.26250657 4
2.1067674 0.37527275 -0.26275033 4
2.1080647 0.36791596 -0.26275033 4
2.1053596 0.36025515 -0.26226285 4
2.1026886 0.3522473 -0.26177537 4
2.1136396 0.34687948 -0.26299405 4
2.1090167 0.33818784 -0.26226285 4
2.1141067 0.33143827 -0.26275033 4
2.1093643 0.32315525 -0.2620191 4
2.1124425 0.31608444 -0.26226285 4
2.109658 0.30776617 -0.26177537 4
2.126442 0.30263725 -0.26372528 4
2.1353505 0.29630458 -0.26470023 4
2.1088312 0.28512579 -0.2612879 4
2.1019413 0.27672589 -0.26031294 4
2.1107233 0.27076378 -0.2612879 4
2.1155946 0.2638872 -0.26177537 4
2.1243858 0.25745553 -0.26275033 4
2.1094997 0.24818337 -0.26080042 4
2.1044362 0.24014255 -0.26006919 4
2.1151271 0.23388557 -0.2612879 4
2.1119831 0.22607885 -0.26080042 4
2.1206572 0.21952328 -0.26177537 4
2.1095593 0.21093492 -0.26031294 4
2.1063311 0.20318814 -0.25982547 4
2.1129227 0.19675371 -0.26055667 4
2.1195283 0.18990795 -0.2612879 4
2.1261113 0.18302047 -0.2620191 4
2.1089625 0.17376012 -0.25982547 4
2.1095564 0.16639684 -0.25982547 4
2.1100965 0.15939981 -0.25982547 4
2.1165798 0.15246049 -0.26055667 4
2.1190796 0.14520851 -0.26080042 4
2.1136308 0.13742368 -0.26006919 4
2.1061721 0.12955785 -0.25909427 4
2.1125572 0.12254947 -0.25982547 4
2.1169362 0.11539005 -0.26031294 4
2.1252561 0.10840479 -0.2612879 4
2.1097586 0.10023142 -0.25933796 4
2.1100957 0.092867821 -0.25933796 4
2.1143742 0.085661814 -0.25982547 4
2.1186278 0.078427047 -0.26031294 4
2.1228564 0.071164645 -0.26080042 4
2.1092024 0.06333641 -0.25909427 4
2.1133795 0.056079291 -0.25958171 4
2.1135623 0.048702322 -0.25958171 4
2.1276126 0.04159537 -0.2612879 4
2.115186 0.75360024 -0.19644904 5
2.1063991 0.74260759 -0.19540317 5
2.0976903 0.73131442 -0.19435729 5
2.0832777 0.71814424 -0.1927885 5
2.0876577 0.71151 -0.1929628 5
2.1014576 0.70803481 -0.19400868 5
2.0925736 0.69691908 -0.1929628 5
2.087424 0.68711805 -0.19226557 5
2.0841258 0.67797887 -0.19174263 5
2.0863626 0.6710633 -0.19174263 5
2.0924902 0.66498274 -0.19209124 5
2.1005013 0.65946537 -0.19261418 5
2.0913725 0.64858878 -0.19156833 5
2.0858924 0.639314 -0.19087107 5
2.0919251 0.63318282 -0.19121969 5
2.0979404 0.62701935 -0.19156833 5
2.0962944 0.61856401 -0.19121969 5
2.0850503 0.60734278 -0.18999951 5
2.0852432 0.59950989 -0.18982521 5
2.0872197 0.59259212 -0.18982521 5
2.095031 0.58691454 -0.19034813 5
2.0989873 0.58012915 -0.19052245 5
2.0894663 0.56965393 -0.18947658 5
2.0991383 0.56442666 -0.19017383 5
2.1087012 0.55950683 -0.19087107 5
2.1067865 0.55113363 -0.19052245 5
2.1086974 0.54377663 -0.19052245 5
2.0990899 0.53310108 -0.18947658 5
2.0970724 0.52480376 -0.18912795 5
2.1024888 0.51953453 -0.18947658 5
2.1042895 0.51219183 -0.18947658 5
2.1022775 0.50354803 -0.18912795 5
2.1002305 0.49492592 -0.18877934 5
2.0980635 0.48669067 -0.18843071 5
2.0978072 0.47892109 -0.1882564 5
2.1013277 0.47239929 -0.18843071 5
2.1068547 0.46592134 -0.18877934 5
2.1006804 0.45687091 -0.18808208 5
2.0943909 0.44823489 -0.18738484 5
2.1076412 0.44338176 -0.18843071 5
2.1013715 0.43440804 -0.18773346 5
2.1067801 0.42786375 -0.18808208 5
2.0965376 0.41816828 -0.18703623 5
2.0979843 0.41084787 -0.18703623 5
2.1072319 0.40502673 -0.18773346 5
2.0988436 0.39582193 -0.1868619 5
2.1041305 0.38921842 -0.18721053 5
2.0936477 0.38010275 -0.18616466 5
2.0910387 0.37209457 -0.18581605 5
2.1001759 0.36616248 -0.18651329 5
2.1014414 0.35882872 -0.18651329 5
2.1124451 0.35350174 -0.18738484 5
2.1018684 0.34419531 -0.18633896 5
2.0951881 0.33559534 -0.18564174 5
2.1042204 0.32951212 -0.18633896 5
2.101475 0.32119596 -0.18599035 5
2.1104658 0.31503558 -0.1866876 5
2.1016946 0.30622983 -0.18581605 5
2.0948606 0.29776958 -0.18511879 5
2.0998342 0.29100275 -0.18546741 5
2.1047864 0.28420389 -0.18581605 5
2.113667 0.27789539 -0.18651329 5
2.0988138 0.26849249 -0.18511879 5
2.0957384 0.26103801 -0.18477017 5
2.1085048 0.25515652 -0.18581605 5
2.1093824 0.24779634 -0.18581605 5
2.1102345 0.24043114 -0.18581605 5
2.1090806 0.2328454 -0.18564174 5
2.0960128 0.22399934 -0.18442155 5
2.1007457 0.21709056 -0.18477017 5
2.1094205 0.21054822 -0.18546741 5
2.1101427 0.20318414 -0.18546741 5
2.1029038 0.19508143 -0.18477017 5
2.0996032 0.18738496 -0.18442155 5
2.1042144 0.18039463 -0.18477017 5
2.1048615 0.17268157 -0.18477017 5
2.1094239 0.16564555 -0.18511879 5
2.1059604 0.15871772 -0.18477017 5
2.1025274 0.15108044 -0.18442155 5
2.1030419 0.14373977 -0.18442155 5
2.1114833 0.13691403 -0.18511879 5
2.1159258 0.12978613 -0.18546741 5
2.1024425 0.12159458 -0.18424724 5
2.1048436 0.11436348 -0.18442155 5
2.1052301 0.10701495 -0.18442155 5
2.1135514 0.10004291 -0.18511879 5
2.1178687 0.092838578 -0.18546741 5
2.1062355 0.084962882 -0.18442155 5
2.1105011 0.077758394 -0.18477017 5
2.1107597 0.070390336 -0.18477017 5
2.1109924 0.06302242 -0.18477017 5
2.1191661 0.055862743 -0.18546741 5
2.1034133 0.04810017 -0.18407291 5
2.1075528 0.040835239 -0.18442155 5
2.1076825 0.033478703 -0.18442155 5
2.1197395 0.026269892 -0.18546741 5
2.1198184 0.018869895 -0.18546741 5
2.111902 0.01142655 -0.18477017 5
2.1079438 0.0044142385 -0.18442155 5
2.115916 -0.0025850805 -0.18511879 5
2.1158957 -0.0096016964 -0.18511879 5
2.1277974 -0.017826209 -0.18616466 5
2.0931373 0.68050522 -0.11534845 6
2.0859919 0.67014068 -0.11482509 6
2.0902221 0.6634599 -0.11492977 6
2.0982428 0.65795177 -0.11524379 6
2.1080441 0.65335464 -0.11566247 6
2.0988529 0.64248604 -0.11503445 6
2.097259 0.63399929 -0.11482509 6
2.0918043 0.62438905 -0.11440641 6
2.0978024 0.61821306 -0.11461575 6
2.0999479 0.6108861 -0.11461575 6
2.1058011 0.60502249 -0.11482509 6
2.0963712 0.59439975 -0.11419707 6
2.0945866 0.58600169 -0.11398773 6
2.1004701 0.57974881 -0.11419707 6
2.1063352 0.57346302 -0.11440641 6
2.1044664 0.56507063 -0.11419707 6
2.0947444 0.55502003 -0.11356904 6
2.0927091 0.54705971 -0.1133597 6
2.1024365 0.5413785 -0.11377838 6
2.1120567 0.53600299 -0.11419707 6
2.1062567 0.52631998 -0.11377838 6
2.0961742 0.51719904 -0.11315035 6
2.0902038 0.50799155 -0.11273166 6
2.0998216 0.50218588 -0.11315035 6
2.1016481 0.49448574 -0.11315035 6
2.1072531 0.48804733 -0.1133597 6
2.0971763 0.47839203 -0.11273166 6
2.0949361 0.4701933 -0.11252232 6
2.1004648 0.46373934 -0.11273166 6
2.1059747 0.45725149 -0.112941 6
2.1113858 0.45110038 -0.11315035 6
2.0972338 0.44080913 -0.11231297 6
2.0949233 0.43231258 -0.11210363 6
2.1003342 0.42579138 -0.11231297 6
2.1057253 0.41923767 -0.11252232 6
2.1150165 0.41341677 -0.112941 6
2.0968316 0.40226889 -0.11189428 6
2.0942976 0.39420766 -0.11168494 6
2.0995212 0.38798684 -0.11189428 6
2.1047933 0.38136843 -0.11210363 6
2.1100447 0.37471688 -0.11231297 6
2.0995338 0.36529446 -0.11168494 6
2.1007338 0.35832956 -0.11168494 6
2.1019714 0.3509959 -0.11168494 6
2.1031239 0.34402299 -0.11168494 6
2.1122596 0.33757362 -0.11210363 6
2.0936921 0.32711476 -0.11105692 6
2.0908723 0.31920099 -0.11084756 6
2.1038811 0.31330097 -0.1114756 6
2.1049619 0.30595559 -0.1114756 6
2.1060171 0.29860547 -0.1114756 6
2.1050682 0.29097927 -0.11137092 6
2.0961738 0.28229699 -0.11084756 6
2.1011074 0.27549705 -0.11105692 6
2.1099341 0.26953977 -0.1114756 6
2.1108618 0.26217455 -0.1114756 6
2.1077983 0.2543256 -0.11126626 6
2.1047063 0.24650124 -0.11105692 6
2.1055536 0.2391534 -0.11105692 6
2.1063757 0.23180163 -0.11105692 6
2.1151161 0.22529419 -0.1114756 6
2.1039689 0.21668246 -0.11084756 6
2.0967629 0.20854567 -0.11042888 6
2.1054304 0.2019887 -0.11084756 6
2.1120551 0.19555759 -0.11116158 6
2.1087463 0.187829 -0.11095224 6
2.1054404 0.17975946 -0.1107429 6
2.106055 0.17241046 -0.1107429 6
2.1106553 0.16499999 -0.11095224 6
2.1071799 0.15806997 -0.1107429 6
2.1117032 0.15099791 -0.11095224 6
2.1042466 0.14308421 -0.11053354 6
2.0987537 0.13535298 -0.11021954 6
2.1111746 0.12875608 -0.11084756 6
2.1076233 0.1211561 -0.11063822 6
2.1120222 0.11401314 -0.11084756 6
2.1004391 0.10603637 -0.11021954 6
2.1027915 0.098797008 -0.1103242 6
2.1071141 0.091631278 -0.11053354 6
2.1114128 0.084434576 -0.1107429 6
2.1196783 0.077354647 -0.11116158 6
2.1079583 0.069560327 -0.11053354 6
2.1002028 0.061965588 -0.11011487 6
2.106396 0.054790378 -0.11042888 6
2.1105678 0.047527723 -0.11063822 6
2.1187086 0.040311594 -0.11105692 6
2.1028602 0.032667927 -0.11021954 6
2.1069555 0.025374923 -0.11042888 6
2.1170173 0.018105971 -0.11095224 6
2.1170676 0.010715527 -0.11095224 6
2.1190886 0.003698928 -0.11105692 6
2.1031113 -0.0033035618 -0.11021954 6
2.1010916 -0.010267952 -0.11011487 6
2.1130197 -0.018440044 -0.1107429 6
2.1129427 -0.025815748 -0.1107429 6
2.1168334 -0.033253875 -0.11095224 6
2.108717 -0.040489435 -0.11053354 6
2.1085627 -0.047849979 -0.11053354 6
2.1123762 -0.055314522 -0.1107429 6
2.116163 -0.062806249 -0.11095224 6
2.1199231 -0.070325099 -0.11116158 6
2.109905 0.62898999 -0.038430199 7
2.0871496 0.61428094 -0.037976436 7
2.0872545 0.60679942 -0.03794153 7
2.100893 0.60281855 -0.038150962 7
2.0952885 0.59330159 -0.038011342 7
2.108902 0.58921295 -0.038220771 7
2.0955234 0.57759744 -0.03794153 7
2.0936673 0.56923038 -0.037871722 7
2.0994062 0.56332028 -0.03794153 7
2.1012626 0.55635566 -0.03794153 7
2.1070621 0.55002719 -0.038011342 7
2.0973494 0.53967828 -0.037801914 7
2.0993133 0.53198797 -0.037801914 7
2.1011574 0.52465719 -0.037801914 7
2.0989122 0.5170964 -0.037732106 7
2.1084776 0.51165336 -0.037871722 7
2.0946913 0.50057143 -0.037592482 7
2.0887253 0.49106053 -0.037452865 7
2.1021161 0.48647106 -0.03766229 7
2.1077008 0.48001891 -0.037732106 7
2.1015584 0.47090918 -0.037592482 7
2.0953782 0.46184924 -0.037452865 7
2.0929897 0.45405075 -0.037383057 7
2.0944839 0.44710806 -0.037383057 7
2.1038601 0.4414362 -0.037522674 7
2.1034296 0.43368527 -0.037487768 7
2.0971651 0.42438689 -0.037348151 7
2.0966721 0.41667446 -0.037313245 7
2.1059649 0.41088435 -0.037452865 7
2.1034584 0.402778 -0.037383057 7
2.1165738 0.39801821 -0.037592482 7
2.098285 0.38700101 -0.037243433 7
2.1035585 0.38038534 -0.037313245 7
2.0930595 0.37094694 -0.037103817 7
2.1139796 0.36742881 -0.037452865 7
2.1073639 0.3587046 -0.037313245 7
2.0967076 0.34973973 -0.037103817 7
2.0979152 0.34242019 -0.037103817 7
2.1011312 0.33504197 -0.037138719 7
2.1082151 0.32863104 -0.037243433 7
2.1073725 0.32096836 -0.037208531 7
2.1045241 0.31302232 -0.037138719 7
2.0957625 0.30387151 -0.036964197 7
2.1007705 0.29711464 -0.037034009 7
2.1097186 0.29087165 -0.037173625 7
2.1107211 0.28350502 -0.037173625 7
2.0997527 0.2749477 -0.036964197 7
2.0967326 0.26711059 -0.036894388 7
2.1095595 0.26126409 -0.037103817 7
2.1104586 0.25389922 -0.037103817 7
2.1113319 0.24653023 -0.037103817 7
2.1082058 0.2387093 -0.037034009 7
2.1050503 0.23091315 -0.036964197 7
2.1058435 0.22356318 -0.036964197 7
2.1145682 0.21702819 -0.037103817 7
2.1113331 0.20925064 -0.037034009 7
2.104053 0.20148499 -0.036894388 7
2.1007609 0.19377334 -0.03682458 7
2.1014245 0.18643858 -0.03682458 7
2.1060476 0.17944108 -0.036894388 7
2.1146636 0.17237113 -0.037034009 7
2.1032903 0.16405596 -0.03682458 7
2.1038227 0.15708071 -0.03682458 7
2.1043582 0.14973547 -0.03682458 7
2.1128488 0.14292827 -0.036964197 7
2.117326 0.13580865 -0.037034009 7
2.1058109 0.1276902 -0.03682458 7
2.1062436 0.12033921 -0.03682458 7
2.1106448 0.11319995 -0.036894388 7
2.1150212 0.10603242 -0.036964197 7
2.1233687 0.099022038 -0.037103817 7
2.1117146 0.091091856 -0.036894388 7
2.104027 0.083403662 -0.036754768 7
2.112299 0.076347083 -0.036894388 7
2.1165497 0.069103263 -0.036964197 7
2.1127803 0.061599605 -0.036894388 7
2.1129825 0.05422369 -0.036894388 7
2.1051624 0.046670835 -0.036754768 7
2.1093109 0.039396282 -0.03682458 7
2.1174333 0.032154061 -0.036964197 7
2.1175327 0.024763089 -0.036964197 7
2.1136072 0.017338 -0.036894388 7
2.1056545 0.010290266 -0.036754768 7
2.1096761 0.0033133056 -0.03682458 7
2.1136749 -0.0036890621 -0.036894388 7
2.1256492 -0.010758969 -0.037103817 7
2.1135912 -0.01918287 -0.036894388 7
2.1095121 -0.026510306 -0.03682458 7
2.1174045 -0.034002144 -0.036964197 7
2.1172729 -0.041393064 -0.036964197 7
2.1291106 -0.04905986 -0.037173625 7
2.1169324 -0.056173284 -0.036964197 7
2.1087282 -0.063322328 -0.03682458 7
2.1164885 -0.070950769 -0.036964197 7
2.120225 -0.078486219 -0.037034009 7
2.1199381 -0.085886709 -0.037034009 7
2.1116505 -0.092565902 -0.036894388 7
2.1113143 -0.099936381 -0.036894388 7
2.1169441 -0.10761017 -0.036999103 7
2.0887678 0.56437534 0.037767008 8
2.0732384 0.55280828 0.037452865 8
2.0769935 0.5464403 0.037487768 8
2.0866311 0.5411945 0.037627388 8
2.0886006 0.53354347 0.037627388 8
2.0749369 0.5223437 0.037348151 8
2.0765674 0.51582295 0.037348151 8
2.0783556 0.50857067 0.037348151 8
2.0820622 0.5017817 0.037383057 8
2.0858331 0.49460807 0.037417959 8
2.0798423 0.48514324 0.037278343 8
2.0736439 0.47645178 0.037138719 8
2.0830963 0.47097492 0.037278343 8
2.0886316 0.46456847 0.037348151 8
2.0863338 0.45641971 0.037278343 8
2.0800161 0.44781554 0.037138719 8
2.0814893 0.4409169 0.037138719 8
2.0791004 0.43283278 0.037068911 8
2.0826318 0.42561045 0.037103817 8
2.0939081 0.42030531 0.037278343 8
2.081629 0.41028619 0.037034009 8
2.0830483 0.40301791 0.037034009 8
2.080513 0.39499766 0.036964197 8
2.0896749 0.38956261 0.037103817 8
2.092989 0.38262594 0.037138719 8
2.0864387 0.3739062 0.036999103 8
2.0818222 0.36558369 0.036894388 8
2.0810523 0.35833919 0.036859483 8
2.0882063 0.35206959 0.036964197 8
2.0933084 0.3457942 0.037034009 8
2.0846908 0.33652654 0.036859483 8
2.0819025 0.32862344 0.036789671 8
2.0869892 0.32196444 0.036859483 8
2.0940325 0.31557193 0.036964197 8
2.0991323 0.30847579 0.037034009 8
2.0883193 0.29944399 0.03682458 8
2.085391 0.29159918 0.036754768 8
2.0863965 0.28431749 0.036754768 8
2.0913405 0.27755848 0.03682458 8
2.1001823 0.27164727 0.036964197 8
2.0892134 0.26281855 0.036754768 8
2.0821784 0.25455302 0.036615148 8
2.0909972 0.24822669 0.036754768 8
2.0918512 0.24092568 0.036754768 8
2.0966539 0.23406543 0.03682458 8
2.0914938 0.226101 0.036719862 8
2.0882926 0.21838343 0.036650054 8
2.0890422 0.21109302 0.036650054 8
2.0977275 0.20457543 0.036789671 8
2.0964034 0.19742994 0.036754768 8
2.0911052 0.18956973 0.036650054 8
2.08777 0.18192251 0.036580246 8
2.0924082 0.17460227 0.036650054 8
2.1009781 0.1679341 0.036789671 8
2.1015236 0.1609655 0.036789671 8
2.0901062 0.15275472 0.036580246 8
2.0926216 0.14559719 0.036615148 8
2.0971076 0.13855478 0.036684956 8
2.095583 0.13110927 0.036650054 8
2.1060088 0.12438244 0.03682458 8
2.0964472 0.11647614 0.036650054 8
2.0948439 0.10905294 0.036615148 8
2.0972095 0.10183634 0.036650054 8
2.1015472 0.094696559 0.036719862 8
2.1038632 0.087442711 0.036754768 8
2.0961623 0.079794489 0.036615148 8
2.0904326 0.072269201 0.036510434 8
2.0926707 0.065033339 0.03654534 8
2.0968831 0.05783888 0.036615148 8
2.109067 0.050808437 0.03682458 8
2.0952365 0.043158285 0.036580246 8
2.0953743 0.035843723 0.036580246 8
2.0914876 0.028474281 0.036510434 8
2.1035719 0.02129535 0.036719862 8
2.0976343 0.013912037 0.036615148 8
2.0956695 0.0069497423 0.036580246 8
2.095681 -0 0.036580246 8
2.1016684 -0.0069694216 0.036684956 8
2.0936275 -0.01498194 0.03654534 8
2.0837612 0.50912261 0.11241764 9
2.0797005 0.50044346 0.11210363 9
2.0873508 0.4941985 0.11241764 9
2.0871184 0.48645535 0.11231297 9
2.0926969 0.48006058 0.11252232 9
2.0807226 0.46967387 0.11178961 9
2.0764997 0.46111041 0.1114756 9
2.0838711 0.45550093 0.11178961 9
2.0873225 0.44900844 0.11189428 9
2.0927854 0.4425455 0.11210363 9
2.0825844 0.43279973 0.1114756 9
2.0724151 0.42276794 0.11084756 9
2.085628 0.41788602 0.1114756 9
2.087074 0.41060272 0.1114756 9
2.0924168 0.40407178 0.11168494 9
2.0819716 0.39489916 0.11105692 9
2.0794101 0.38689804 0.11084756 9
2.0787835 0.37927815 0.1107429 9
2.0899248 0.3737781 0.11126626 9
2.0990217 0.36822644 0.11168494 9
2.0806103 0.35751432 0.11063822 9
2.0778453 0.34994882 0.11042888 9
2.0889075 0.34431925 0.11095224 9
2.08424 0.33570635 0.11063822 9
2.0952637 0.32998398 0.11116158 9
2.0885069 0.32145229 0.1107429 9
2.0896161 0.31416053 0.1107429 9
2.0868013 0.30591962 0.11053354 9
2.0918109 0.29919952 0.1107429 9
2.100755 0.29299894 0.11116158 9
2.0859323 0.28351268 0.1103242 9
2.0868609 0.27659431 0.1103242 9
2.0917754 0.2698186 0.11053354 9
2.0907228 0.26226616 0.11042888 9
2.0995557 0.2559337 0.11084756 9
2.0905194 0.24742903 0.1103242 9
2.0774808 0.23853588 0.10959151 9
2.0902109 0.23260851 0.11021954 9
2.0949817 0.22573827 0.11042888 9
2.0997298 0.21883856 0.11063822 9
2.0885575 0.21030661 0.11001018 9
2.0832801 0.20279947 0.10969618 9
2.0819867 0.19534008 0.10959151 9
2.09658 0.18932825 0.1103242 9
2.1012075 0.18235448 0.11053354 9
2.087929 0.17349367 0.10980085 9
2.088522 0.16620483 0.10980085 9
2.095036 0.15973407 0.11011487 9
2.0955811 0.15241949 0.11011487 9
2.1020775 0.14551786 0.11042888 9
2.0846362 0.13700001 0.10948683 9
2.0811148 0.12947385 0.10927749 9
2.0935173 0.12291141 0.10990552 9
2.0959275 0.11571245 0.11001018 9
2.1023026 0.10870645 0.1103242 9
2.0887046 0.10069361 0.10959151 9
2.0830576 0.093133874 0.10927749 9
2.0913525 0.086191498 0.10969618 9
2.0956321 0.079040781 0.10990552 9
2.0808954 0.45408845 0.18633896 10
2.0843379 0.44760427 0.18651329 10
2.0721653 0.43780631 0.18529311 10
2.0854607 0.43263716 0.18633896 10
2.0811014 0.42416269 0.18581605 10
2.0767086 0.41572189 0.18529311 10
2.0722823 0.40731698 0.18477017 10
2.0795603 0.40121362 0.18529311 10
2.0750754 0.39283979 0.18477017 10
2.0881872 0.38777706 0.18581605 10
2.0816212 0.37942159 0.18511879 10
2.0711648 0.37004989 0.18407291 10
2.0763695 0.36350462 0.18442155 10
2.0776255 0.35625494 0.18442155 10
2.0827253 0.35002416 0.18477017 10
2.0800025 0.34210473 0.18442155 10
2.0772493 0.33420947 0.18407291 10
2.0803719 0.32726559 0.18424724 10
2.0854399 0.32060766 0.18459585 10
2.0905418 0.31355253 0.1849445 10
2.0758526 0.30394453 0.18355 10
2.0749285 0.29641426 0.18337567 10
2.0798969 0.28971979 0.1837243 10
2.0868187 0.28326225 0.18424724 10
2.087795 0.27597561 0.18424724 10
2.0808408 0.2676698 0.18355 10
2.0718324 0.25953025 0.18267845 10
2.0826147 0.25349975 0.18355 10
2.0874441 0.24669662 0.18389861 10
2.0823541 0.23872724 0.18337567 10
2.0831749 0.23145646 0.18337567 10
2.0800083 0.22375765 0.18302706 10
2.0867217 0.2171147 0.18355 10
2.0815196 0.209232 0.18302706 10
2.0842202 0.20215665 0.18320136 10
2.0789623 0.19432333 0.18267845 10
2.0776107 0.18724972 0.18250412 10
2.0822532 0.17997624 0.18285275 10
2.0960014 0.41121924 0.26226285 11
2.0779314 0.4001461 0.25982547 11
2.0851669 0.39399639 0.26055667 11
2.0845103 0.38671792 0.26031294 11
2.0858476 0.3794387 0.26031294 11
2.0910678 0.3728528 0.26080042 11
2.0786684 0.3631593 0.25909427 11
2.0720346 0.35492396 0.25811929 11
2.0732608 0.34768951 0.25811929 11
2.0822377 0.34210014 0.25909427 11
2.0854378 0.33477917 0.25933796 11
2.0767879 0.32596004 0.25811929 11
2.0739889 0.31810623 0.25763181 11
2.0790129 0.31145334 0.25811929 11
2.0879979 0.30497843 0.25909427 11
2.0890496 0.29768854 0.25909427 11
2.0782785 0.28875488 0.25763181 11
2.0753396 0.2809664 0.25714433 11
2.0861483 0.27501711 0.25836304 11
