# .PCD v0.7 - Point Cloud Data file format
VERSION 0.7
FIELDS x y z intensity
SIZE 4 4 4 4
TYPE F F F F
COUNT 1 1 1 1
WIDTH 876
HEIGHT 1
VIEWPOINT 0 0 0 1 0 0 0
POINTS 876
DATA ascii
2.2528727 0.41510615 -0.28127447 4
2.2464941 0.40582857 -0.28029951 4
2.245873 0.39802963 -0.28005576 4
2.2276905 0.38679117 -0.27761838 4
2.229027 0.37901211 -0.27761838 4
2.2342527 0.37188244 -0.27810585 4
2.2355373 0.36408061 -0.27810585 4
2.2211113 0.35377738 -0.27615595 4
2.2313058 0.35500187 -0.19766922 5
2.2144871 0.34479988 -0.275181 4
2.2246563 0.34598562 -0.19697197 5
2.2196021 0.33766431 -0.27566847 4
2.2160015 0.33672196 -0.19610041 5
2.2312758 0.33227202 -0.35729638 3
2.2207673 0.32991484 -0.27566847 4
2.2092805 0.32781434 -0.19540317 5
2.2206929 0.32277706 -0.35541913 3
2.2219052 0.32216138 -0.27566847 4
2.2044957 0.3192443 -0.19488023 5
2.2120271 0.31363627 -0.35385481 3
2.2072921 0.3121801 -0.27371857 4
2.209542 0.31210396 -0.19522884 5
2.2033246 0.30456105 -0.35229045 3
2.2044356 0.30393049 -0.27323109 4
2.214566 0.30493337 -0.19557749 5
2.2082894 0.29739588 -0.35291618 3
2.205483 0.29623315 -0.27323109 4
2.2136421 0.29693684 -0.19540317 5
2.2290545 0.29821113 -0.11786059 6
2.1936452 0.28763059 -0.35041323 3
2.2025669 0.28801847 -0.27274361 4
2.2107136 0.28869134 -0.19505455 5
2.2320621 0.29068685 -0.11796526 6
2.1867979 0.27897218 -0.34916177 3
2.2074974 0.28082874 -0.27323109 4
2.2077551 0.28047106 -0.19470593 5
2.1954162 0.27812386 -0.11597649 6
2.1877584 0.27133656 -0.34916177 3
2.1927032 0.2711738 -0.27128118 4
2.2087207 0.27276227 -0.19470593 5
2.1963735 0.27046025 -0.11597649 6
2.1926148 0.2641702 -0.3497875 3
2.1975782 0.26399112 -0.27176866 4
2.2136157 0.26552472 -0.19505455 5
2.2032537 0.26350278 -0.11629051 6
2.1895993 0.25605756 -0.34916177 3
2.1945431 0.25585818 -0.27128118 4
2.1986969 0.25595459 -0.19366007 5
2.20416 0.25580978 -0.11629051 6
2.1787031 0.24707672 -0.34728456 3
2.1954226 0.24819671 -0.27128118 4
2.1956174 0.24783063 -0.19331144 5
2.2050395 0.24811472 -0.11629051 6
2.1795523 0.23947059 -0.34728456 3
2.2002225 0.24096337 -0.27176866 4
2.2004302 0.24059857 -0.19366007 5
2.1900082 0.23868443 -0.11545313 6
2.2166193 0.24080184 -0.038918864 7
2.1844835 0.23306853 -0.42703056 2
2.1764464 0.23144273 -0.34665883 3
2.1773617 0.2307715 -0.2688438 4
2.2012568 0.23291558 -0.19366007 5
2.182883 0.23020104 -0.11503445 6
2.2015362 0.23139119 -0.038639627 7
2.1618099 0.22340092 -0.42245111 2
2.1772017 0.22422454 -0.34665883 3
2.1781149 0.22355027 -0.2688438 4
2.2020168 0.22561511 -0.19366007 5
2.1876082 0.22336726 -0.11524379 6
2.1963234 0.22348149 -0.038534917 7
2.1645303 0.2160489 -0.42283276 2
2.1779714 0.21662274 -0.34665883 3
2.174931 0.21555373 -0.26835632 4
2.1869292 0.21635742 -0.19226557 5
2.1923499 0.216121 -0.11545313 6
2.1891294 0.21503203 -0.038395293 7
2.171134 0.20905694 -0.42397761 2
2.1669159 0.20788744 -0.34478158 3
2.1835747 0.20871648 -0.26933128 4
2.1797378 0.20796587 -0.19156833 5
2.1930909 0.20846638 -0.11545313 6
2.1898668 0.20738865 -0.038395293 7
2.1698954 0.20129609 -0.42359596 2
2.1676283 0.20032166 -0.34478158 3
2.1882434 0.2014565 -0.26981872 4
2.1804504 0.20035531 -0.19156833 5
2.1778936 0.19935378 -0.11461575 6
2.1905773 0.19974484 -0.038395293 7
2.1627634 0.19302188 -0.42206952 2
2.1683145 0.19275445 -0.34478158 3
2.165205 0.1917153 -0.26689389 4
2.189075 0.19344486 -0.19226557 5
2.1785765 0.19174972 -0.11461575 6
2.1992295 0.19279505 -0.038534917 7
2.1595116 0.18513528 -0.42130631 2
2.1650379 0.1848478 -0.34415585 3
2.1698167 0.184494 -0.26738134 4
2.1817963 0.185128 -0.19156833 5
2.1792324 0.18414541 -0.11461575 6
2.1799624 0.18343975 -0.038185868 7
2.1922054 0.18100274 0.038395293 8
2.1581881 0.17743562 -0.42092466 2
2.1774826 0.17825782 -0.3460331 3
2.1664906 0.17659567 -0.26689389 4
2.1705139 0.17654127 -0.19052245 5
2.1838431 0.1768592 -0.11482509 6
2.1766028 0.17550814 -0.038116053 7
2.1728892 0.17177397 0.038046245 8
2.1587944 0.16990048 -0.42092466 2
2.1583982 0.16911232 -0.34290439 3
2.171052 0.16934134 -0.26738134 4
2.1671441 0.16865601 -0.19017383 5
2.1804647 0.16892701 -0.11461575 6
2.1772025 0.16790873 -0.038116053 7
2.1635053 0.16343439 0.037871722 8
2.159374 0.16236533 -0.42092466 2
2.1510956 0.1609868 -0.3416529 3
2.1637113 0.16117151 -0.26640642 4
2.1637461 0.16079436 -0.18982521 5
2.1690905 0.16043025 -0.11398773 6
2.1897409 0.16118914 -0.038325485 7
2.1660573 0.15602444 0.037906628 8
2.1560111 0.15454541 -0.42016143 2
2.1555853 0.15375865 -0.34227866 3
2.1563408 0.15305501 -0.26543146 4
2.1682687 0.15352239 -0.19017383 5
2.1616678 0.15229568 -0.11356904 6
2.1902902 0.15354499 -0.038325485 7
2.1725738 0.14887415 0.038011342 8
2.1366806 0.14603893 -0.49444243 1
2.1447854 0.14621681 -0.41787171 2
2.1600509 0.14650007 -0.34290439 3
2.1449783 0.1447257 -0.26396903 4
2.1727672 0.14621975 -0.19052245 5
2.1661718 0.1450164 -0.11377838 6
2.1748507 0.14483492 -0.038046245 7
2.1730802 0.14128897 0.038011342 8
2.1313434 0.1382018 -0.49309272 1
2.1413643 0.1384763 -0.41710848 2
2.1605489 0.13895966 -0.34290439 3
2.1494324 0.13749133 -0.26445648 4
2.1573577 0.13761923 -0.18912795 5
2.1666648 0.13745463 -0.11377838 6
2.1673603 0.13673921 -0.037906628 7
2.1615844 0.13296643 0.037801914 8
2.1415384 0.13135715 -0.49534222 1
2.1457539 0.13123983 -0.41787171 2
2.1491904 0.13069707 -0.34102717 3
2.1578252 0.13046725 -0.26543146 4
2.1538475 0.12984845 -0.18877934 5
2.1671312 0.12989117 -0.11377838 6
2.1678245 0.12917231 -0.037906628 7
2.1560464 0.12507229 0.0376972 8
2.1342018 0.12343136 -0.49354258 1
2.1813784 0.12577786 0.11451109 9
2.1461987 0.12374941 -0.41787171 2
2.1417451 0.12274257 -0.33977571 3
2.1582675 0.12293367 -0.26543146 4
2.1582658 0.1225557 -0.18912795 5
2.1595953 0.12187497 -0.1133597 6
2.172255 0.1218288 -0.037976436 7
2.1544733 0.11743611 0.03766229 8
2.1248901 0.11545268 -0.49129307 1
2.1598458 0.11735193 0.1133597 9
2.1426969 0.1160441 -0.41710848 2
2.1500506 0.11569073 -0.34102717 3
2.1428254 0.11455084 -0.26348156 4
2.1586804 0.11502165 -0.18912795 5
2.1520295 0.11391296 -0.112941 6
2.176641 0.11483582 -0.038046245 7
2.1528537 0.11019022 0.037627388 8
2.129154 0.10860362 -0.49219292 1
2.1622372 0.10991278 0.11346437 9
2.1313245 0.10796849 -0.41481876 2
2.1464765 0.10836048 -0.34040144 3
2.1431932 0.10744478 -0.26348156 4
2.1590688 0.10748517 -0.18912795 5
2.1563854 0.1069743 -0.11315035 6
2.1570556 0.10625281 -0.0376972 7
2.1552227 0.10276935 0.03766229 8
2.1236804 0.10089282 -0.49084321 1
2.1586175 0.10217608 0.11325502 9
2.12971 0.10080776 -0.41443717 2
2.1507883 0.10105208 -0.34102717 3
2.1435554 0.099963434 -0.26348156 4
2.1395111 0.099399604 -0.18738484 5
2.1607358 0.099630907 -0.1133597 6
2.1574135 0.09872207 -0.0376972 7
2.1435816 0.094715387 0.037452865 8
2.1376476 0.094080418 -0.49399251 1
2.164947 0.094902299 0.11356904 9
2.1261261 0.093200549 -0.41367394 2
2.1353397 0.092858702 -0.33852422 3
2.1438913 0.092479847 -0.26348156 4
2.1438258 0.092103213 -0.18773346 5
2.1610706 0.092087351 -0.1133597 6
2.1577449 0.091191135 -0.0376972 7
2.1399033 0.087070175 0.037383057 8
2.1165442 0.085749738 -0.48904356 1
2.1612585 0.087561287 0.1133597 9
2.1362469 0.086173512 -0.41558203 2
2.1317031 0.085245982 -0.33789849 3
2.1521351 0.085310668 -0.26445648 4
2.1481159 0.084775865 -0.18808208 5
2.1494043 0.084075317 -0.11273166 6
2.1540394 0.083880112 -0.037627388 7
2.1401803 0.079973958 0.037383057 8
2.1187646 0.078802399 -0.48949349 1
2.1455839 0.07942491 0.11252232 9
2.1345725 0.078645274 -0.41520041 2
2.1398704 0.078465484 -0.33914998 3
2.1325684 0.077453397 -0.2620191 4
2.1483986 0.077276453 -0.18808208 5
2.1416874 0.076661818 -0.11231297 6
2.1583157 0.07650169 -0.0376972 7
2.1464419 0.072705351 0.037487768 8
2.1190267 0.071406491 -0.48949349 1
2.145848 0.071935393 0.11252232 9
2.1289351 0.071368419 -0.41405553 2
2.1724894 0.072448917 0.19017383 10
2.1322339 0.070732921 -0.33789849 3
2.1328256 0.0700083 -0.2620191 4
2.1446729 0.069647796 -0.18773346 5
2.141942 0.069184892 -0.11231297 6
2.1425803 0.068456881 -0.037417959 7
2.1446838 0.065152168 0.037452865 8
2.1192632 0.064009719 -0.48949349 1
2.1460862 0.064443976 0.11252232 9
2.1213331 0.063331135 -0.41252908 2
2.1528251 0.063895263 0.18843071 10
2.1443262 0.063267432 -0.33977571 3
2.1390097 0.062737964 -0.26275033 4
2.1329539 0.061814196 -0.1866876 5
2.1501667 0.061562937 -0.11273166 6
2.1468039 0.061090656 -0.037487768 7
2.1329145 0.05697016 0.037243433 8
2.1272755 0.056448031 -0.49129307 1
2.1522977 0.056736112 0.11283633 9
2.1215413 0.055925351 -0.41252908 2
2.1490514 0.056275226 0.18808208 10
2.1287363 0.055371482 -0.33727276 3
2.1511319 0.055202685 -0.26421279 4
2.1251988 0.053794913 -0.18599035 5
2.1543617 0.054156888 -0.112941 6
2.1510117 0.053321403 -0.03755758 7
2.1437776 0.049772903 -0.57457829 0
2.1251037 0.049339347 0.037103817 8
2.1138222 0.048708308 -0.48814377 1
2.1524827 0.049222276 0.11283633 9
2.1276202 0.048283231 -0.41367394 2
2.1472516 0.048353802 0.18790779 10
2.1249752 0.047480106 -0.33664703 3
2.1473422 0.04760595 -0.26372528 4
2.1313496 0.046506085 -0.18651329 5
2.1345778 0.045831114 -0.11189428 6
2.1511846 0.04581207 -0.03755758 7
2.1110885 0.042378049 -0.56577843 0
2.1292541 0.042370953 0.037173625 8
2.1022818 0.041467182 -0.48544434 1
2.1366591 0.041772228 0.11199896 9
2.1257982 0.041559897 -0.41329232 2
2.151377 0.041684359 0.1882564 10
2.1231389 0.040766556 -0.33633414 3
2.1296258 0.040147509 -0.26153165 4
2.1294997 0.039401583 -0.18633896 5
2.1307175 0.039052129 -0.11168494 6
2.1473258 0.03860677 -0.037487768 7
2.1112297 0.034640703 -0.56577843 0
2.129389 0.03493866 0.037173625 8
2.1043622 0.034160666 -0.48589426 1
2.1347945 0.034282021 0.11189428 9
2.1180842 0.033643927 -0.41176581 2
2.1554992 0.033860926 0.18860501 10
2.127224 0.033046421 -0.33695987 3
2.1575351 0.033517305 0.26494396 11
2.1237984 0.032621454 -0.26080042 4
2.1375933 0.032088075 -0.18703623 5
2.1308463 0.031241853 -0.11168494 6
2.1394498 0.030995551 -0.037348151 7
2.097816 0.027096717 -0.56215501 0
2.1335018 0.027184235 0.037243433 8
2.1122677 0.026544983 -0.48769391 1
2.1309118 0.026408348 0.11168494 9
2.1005211 0.026031716 -0.40833127 2
2.1277132 0.025996303 0.18616466 10
2.1312771 0.025667837 -0.3375856 3
2.1457338 0.025468437 0.26348156 11
2.1199338 0.02479117 -0.26031294 4
2.1217542 0.024442112 -0.18564174 5
2.1349366 0.023848688 -0.11189428 6
2.13555 0.023110045 -0.037278343 7
2.0901709 0.019700417 -0.5600844 0
2.1235857 0.019643705 0.037068911 8
2.1084502 0.019136699 -0.48679405 1
2.1409769 0.019058241 0.1122083 9
2.1064887 0.018751238 -0.40947613 2
2.1257985 0.018551085 0.18599035 10
2.1175265 0.018110326 -0.33539551 3
2.1517646 0.018027592 0.26421279 11
2.1239777 0.017423069 -0.26080042 4
2.1218264 0.017036106 -0.18564174 5
2.1390014 0.01642633 -0.11210363 6
2.1276188 0.015597257 -0.037138719 7
2.097954 0.012449539 -0.56215501 0
2.1176424 0.012197793 0.036964197 8
2.1007092 0.011732623 -0.48499447 1
2.1330416 0.011540927 0.11178961 9
2.1163573 0.011450656 -0.41138422 2
2.1238582 0.01112158 0.18581605 10
2.113626 0.010698107 -0.33476979 3
2.1478443 0.010496446 0.26372528 11
2.1319654 0.010047778 -0.26177537 4
2.1178882 0.0096107982 -0.18529311 5
2.1310568 0.0089277225 -0.11168494 6
2.1396585 0.0082158903 -0.037348151 7
2.0960529 0.005121958 -0.56163734 0
2.1196718 0.0048097414 0.036999103 8
2.089045 0.0043746629 -0.48229504 1
2.1290743 0.004087931 0.11158027 9
2.1144211 0.0040597958 -0.41100258 2
2.1298609 0.0037177315 0.18633896 10
2.1136506 0.0033195475 -0.33476979 3
2.1359572 0.0029828262 0.26226285 11
2.1200771 0.0025906481 -0.26031294 4
2.1218936 0.0022215375 -0.18564174 5
2.1190915 0.0014799559 -0.11105692 6
2.1356747 0.00074609119 -0.037278343 7
2.0921943 -0.0021909415 -0.56060207 0
2.1276743 -0.0025994459 0.037138719 8
2.0968428 -0.0029277464 -0.48409468 1
2.1250815 -0.0029671756 0.11137092 9
2.0967531 -0.0032935746 -0.40756804 2
2.133846 -0.0037242675 0.1866876 10
2.1136494 -0.0040579201 -0.33476979 3
2.1359546 -0.0044735391 0.26226285 11
2.1161039 -0.0044319639 -0.25982547 4
2.1298578 -0.0052042352 -0.18633896 5
2.1230793 -0.0055582202 -0.11126626 6
2.1256671 -0.0063069998 -0.037103817 7
2.08638 -0.0091036074 -0.55904913 0
2.1276541 -0.0096550537 0.037138719 8
2.0968213 -0.0098811118 -0.48409468 1
2.1310518 -0.010042419 0.11168494 9
2.0928042 -0.010227452 -0.40680483 2
2.1258523 -0.010759997 0.18599035 10
2.1215255 -0.011108383 -0.33602124 3
2.1438682 -0.011599557 0.2632378 11
2.1140924 -0.011438453 -0.25958171 4
2.1178751 -0.012198219 -0.18529311 5
2.1270413 -0.012993516 -0.1114756 6
2.1216352 -0.013330802 -0.037034009 7
2.0786114 -0.015962902 -0.55697864 0
2.1136131 -0.016600618 0.036894388 8
2.096777 -0.016834365 -0.48409468 1
2.1290069 -0.017464735 0.11158027 9
2.0966852 -0.017199593 -0.40756804 2
2.1178358 -0.017742755 0.18529311 10
2.1036992 -0.017991511 -0.33320546 3
2.1378629 -0.018656848 0.26250657 11
2.1180096 -0.018853281 -0.26006919 4
2.1118426 -0.019535616 -0.18477017 5
2.1309807 -0.020084614 -0.11168494 6
2.1295741 -0.020814786 -0.037173625 7
2.0804703 -0.023603201 -0.55749625 0
2.1095428 -0.023933033 0.03682458 8
2.0869625 -0.024041142 -0.48184517 1
2.1329269 -0.024942957 0.11178961 9
2.0985711 -0.024907514 -0.40794963 2
2.1257253 -0.025600864 0.18599035 10
2.0976934 -0.025629437 -0.33226684 3
2.1338151 -0.026070766 0.2620191 11
2.119916 -0.026270999 -0.26031294 4
2.1529908 -0.027056703 0.34102717 12
2.1077771 -0.026856437 -0.18442155 5
2.1189106 -0.027738059 -0.11105692 6
2.1254895 -0.028195212 -0.037103817 7
2.0842385 -0.030922569 -0.55853152 0
2.11344 -0.031724762 0.036894388 8
2.0829632 -0.0316309 -0.48094535 1
2.1188421 -0.032545637 0.11105692 9
2.0984714 -0.032232739 -0.40794963 2
2.1296072 -0.033082768 0.18633896 10
2.1094422 -0.033137765 -0.33414406 3
2.1217959 -0.033702251 0.26055667 11
2.1039267 -0.033785716 -0.25836304 4
2.1272006 -0.034530818 0.33695987 12
2.115633 -0.034712389 -0.18511879 5
2.1108127 -0.035001807 -0.11063822 6
2.1293705 -0.036053035 -0.037173625 7
2.0879743 -0.038632952 -0.5595668 0
2.1133165 -0.039101847 0.036894388 8
2.0789435 -0.038828824 -0.48004553 1
2.1147215 -0.039866284 0.11084756 9
2.0885248 -0.039737076 -0.40604156 2
2.1254878 -0.040811453 0.18599035 10
2.1053567 -0.040792499 -0.33351833 3
2.1236503 -0.041146953 0.26080042 11
2.0958569 -0.040974379 -0.25738806 4
2.1092923 -0.041605324 0.33414406 12
2.1075311 -0.041938558 -0.18442155 5
2.1146638 -0.042818949 -0.11084756 6
2.1152368 -0.043199882 -0.036929294 7
2.074307 -0.045623746 -0.55594331 0
2.121156 -0.047024567 0.037034009 8
2.0846319 -0.046578869 -0.48139524 1
2.1145613 -0.047616858 0.11084756 9
2.0864108 -0.046982948 -0.40565994 2
2.1133814 -0.047959331 0.1849445 10
2.1052015 -0.048141319 -0.33351833 3
2.1334081 -0.049158886 0.2620191 11
2.1056156 -0.04888618 -0.25860679 4
2.1130753 -0.049428366 0.33476979 12
2.0994041 -0.049108576 -0.1837243 5
2.1145015 -0.050200246 -0.11084756 6
2.1150641 -0.050952327 -0.036929294 7
2.0702727 -0.052765708 -0.55490804 0
2.1069856 -0.054069396 0.036789671 8
2.0844564 -0.053855311 -0.48139524 1
2.1223686 -0.055205502 0.11126626 9
2.0842712 -0.054214541 -0.40527833 2
2.1052341 -0.055127501 0.18424724 10
2.0971215 -0.05528133 -0.33226684 3
2.1332235 -0.056605574 0.2620191 11
2.109401 -0.056341857 -0.25909427 4
2.1148646 -0.056857172 0.33508268 12
2.1032031 -0.056543663 -0.18407291 5
2.1143134 -0.057580926 -0.11084756 6
2.1148734 -0.058334965 -0.036929294 7
2.0739379 -0.060103912 -0.55594331 0
2.1027861 -0.061307263 0.036719862 8
2.0764644 -0.060902566 -0.47959566 1
2.1221738 -0.062243223 0.11126626 9
2.0879941 -0.061605472 -0.40604156 2
2.1129951 -0.06271223 0.1849445 10
2.0870435 -0.062306583 -0.33070248 3
2.1191237 -0.063634485 0.26031294 11
2.1092024 -0.063336566 -0.25909427 4
2.1186132 -0.063989274 0.33570841 12
2.1010017 -0.063824371 -0.18389861 5
2.1101069 -0.064838223 -0.11063822 6
2.1186659 -0.065471351 -0.036999103 7
2.0775893 -0.06710574 -0.55697864 0
2.1045699 -0.068344928 0.036754768 8
2.0626168 -0.067342892 -0.47644633 1
2.1059861 -0.068758868 0.11042888 9
2.0897405 -0.068593584 -0.40642318 2
2.1167579 -0.069850244 0.18529311 10
2.0907738 -0.069358118 -0.33132821 3
2.1109648 -0.070396751 0.25933796 11
2.0931089 -0.069801286 -0.25714433 4
2.1164153 -0.07094831 0.33539551 12
2.1047611 -0.0709254 -0.18424724 5
2.0979035 -0.071427464 -0.11001018 6
2.1224339 -0.072633512 -0.037068911 7
2.0773551 -0.073994912 -0.55697864 0
2.1083286 -0.075466618 0.03682458 8
2.0740671 -0.074602708 -0.47914574 1
2.1017416 -0.075965434 0.11021954 9
2.0855646 -0.07574521 -0.40565994 2
2.1185057 -0.076941587 0.18546741 10
2.0905323 -0.076290987 -0.33132821 3
2.108736 -0.077323832 0.25909427 11
2.0888853 -0.076961018 -0.25665686 4
2.1102324 -0.078116313 0.33445692 12
2.0985274 -0.078049794 -0.1837243 5
2.1016333 -0.078899935 -0.11021954 6
2.110178 -0.079589538 -0.036859483 7
2.0674181 -0.081229083 -0.55439043 0
2.1040416 -0.083035812 0.036754768 8
2.0679381 -0.08197248 -0.47779605 1
2.1094315 -0.083986014 0.11063822 9
2.0735028 -0.082918003 -0.40337023 2
2.0963106 -0.083830073 0.18355 10
2.0922127 -0.08403194 -0.33164111 3
2.1223228 -0.085612297 0.26080042 11
2.0925558 -0.084777348 -0.25714433 4
2.1000631 -0.085448638 0.33289257 12
2.0882738 -0.085334025 -0.18285275 5
2.1053212 -0.086766765 -0.11042888 6
2.0998821 -0.086909726 -0.036684956 7
2.0593863 -0.088474318 -0.55231988 0
2.0977297 -0.090488419 0.036650054 8
2.0754116 -0.089888602 -0.47959566 1
2.1091256 -0.091348797 0.11063822 9
2.0751619 -0.090240657 -0.40375188 2
2.0999703 -0.091686681 0.18389861 10
2.0839965 -0.09135367 -0.33038962 3
2.1219947 -0.093390435 0.26080042 11
2.094214 -0.092534006 -0.25738806 4
2.1017256 -0.092865899 0.33320546 12
2.078011 -0.092181452 -0.18198119 5
2.1089959 -0.094293594 -0.11063822 6
2.1055591 -0.094508171 -0.036789671 7
2.0629241 -0.095841683 -0.5533551 0
2.0974181 -0.097444244 0.036650054 8
2.0712087 -0.09658885 -0.47869584 1
2.1048038 -0.098523676 0.11042888 9
2.0787566 -0.097668059 -0.40451509 2
2.0996375 -0.099016391 0.18389861 10
2.0797358 -0.098077856 -0.32976389 3
2.109776 -0.099863574 0.25933796 11
2.0958786 -0.099572368 -0.25763181 4
2.105335 -0.10038991 0.33383119 12
2.0916073 -0.10010121 -0.18320136 5
2.0927119 -0.10052016 -0.10980085 6
2.1052165 -0.10185736 -0.036789671 7
2.0683835 -0.10297023 -0.55490804 0
2.0930707 -0.10456544 0.036580246 8
2.057235 -0.10313512 -0.47554654 1
2.1004577 -0.10566952 0.11021954 9
2.0803821 -0.10465956 -0.40489674 2
2.1012871 -0.10607893 0.18407291 10
2.0793808 -0.10533689 -0.32976389 3
2.1014845 -0.10682433 0.25836304 11
2.0796583 -0.10607875 -0.2556819 4
2.0992043 -0.10781043 -0.18389861 5
2.0923483 -0.10782448 -0.10980085 6
2.1108391 -0.10951615 -0.036894388 7
2.0757089 -0.11096305 -0.55697864 0
2.1006801 -0.11229797 0.036719862 8
2.0627003 -0.11062869 -0.47689623 1
2.0940928 -0.11267891 0.10990552 9
2.0701823 -0.1117547 -0.40298861 2
2.0988951 -0.11367209 0.18389861 10
2.0789809 -0.11295749 -0.32976389 3
2.101099 -0.11415923 0.25836304 11
2.0753112 -0.11312138 -0.25519443 4
2.0948365 -0.1149191 -0.18355 5
2.091939 -0.11549259 -0.10980085 6
2.0924742 -0.11588845 -0.036580246 7
2.1002545 -0.11999659 0.036719862 8
2.0661719 -0.11841112 -0.47779605 1
2.0996478 -0.12069725 0.11021954 9
2.0580196 -0.11830427 -0.40069893 2
2.0885401 -0.12042446 0.18302706 10
2.0844901 -0.12055597 -0.33070248 3
2.1145387 -0.12266411 0.26006919 11
2.0808277 -0.12107293 -0.25592566 4
2.0824673 -0.12189773 -0.18250412 5
2.0955107 -0.12302823 -0.11001018 6
2.088043 -0.12332118 -0.036510434 7
2.0918388 -0.12684301 0.036580246 8
2.0657461 -0.12562267 -0.47779605 1
2.101207 -0.12814723 0.1103242 9
2.0614913 -0.12608622 -0.40146214 2
2.0880847 -0.12807854 0.18302706 10
2.0781193 -0.12783134 -0.32976389 3
2.1140976 -0.13004448 0.26006919 11
2.0823736 -0.12845787 -0.25616938 4
2.0720861 -0.12854931 -0.18163256 5
2.0950458 -0.13070783 -0.11001018 6
2.0995746 -0.13135825 -0.036719862 7
2.0834007 -0.13363208 0.036440626 8
2.0575161 -0.13233238 -0.47599643 1
2.1047568 -0.13537075 0.11053354 9
2.0688987 -0.13342707 -0.40298861 2
2.0896366 -0.13513072 0.18320136 10
2.0658567 -0.13395502 -0.3278867 3
2.0938215 -0.13613532 0.25763181 11
2.0858982 -0.13562018 -0.25665686 4
2.079601 -0.13593975 -0.1823298 5
2.0746713 -0.13634479 -0.10896347 6
2.0991273 -0.13831998 -0.036719862 7
2.0869365 -0.1408094 0.036510434 8
2.0473444 -0.13849699 -0.47374693 1
2.0903473 -0.14140601 0.10980085 9
2.0704036 -0.14041992 -0.40337023 2
2.0931528 -0.14232981 0.18355 10
2.0713131 -0.14120796 -0.32882527 3
2.0893977 -0.1428072 0.25714433 11
2.073554 -0.14172432 -0.25519443 4
2.0831144 -0.14310832 -0.18267845 5
2.0781929 -0.14349908 -0.10917282 6
2.096662 -0.14514205 -0.036684956 7
2.0904477 -0.14801161 0.036580246 8
2.0546494 -0.14583737 -0.47554654 1
2.0858567 -0.14841832 0.10959151 9
2.0562184 -0.14630944 -0.40069893 2
2.0946565 -0.14941193 0.1837243 10
2.0767448 -0.14849858 -0.32976389 3
2.0948529 -0.15016091 0.25787556 11
2.0651269 -0.14839242 -0.25421947 4
2.0826285 -0.1500154 -0.18267845 5
2.0737214 -0.15010144 -0.10896347 6
2.0861707 -0.15173458 -0.036510434 7
2.0919123 -0.15545593 0.036615148 8
2.0560713 -0.1531533 -0.47599643 1
2.0893092 -0.15599583 0.10980085 9
2.0498219 -0.15304756 -0.39955404 2
2.084188 -0.15597926 0.18285275 10
2.072274 -0.15545134 -0.32913816 3
2.0982749 -0.15777008 0.25836304 11
2.0705345 -0.1560477 -0.25495067 4
2.0741448 -0.15668385 -0.18198119 5
2.081151 -0.15794373 -0.10938216 6
2.0836344 -0.15886375 -0.036475532 7
2.0813885 -0.16198134 0.036440626 8
2.0613525 -0.16078404 -0.47734615 1
2.0927341 -0.16359925 0.11001018 9
2.0531893 -0.16050784 -0.40031728 2
2.0796585 -0.16294226 0.18250412 10
2.0638416 -0.16206542 -0.3278867 3
2.1036482 -0.16556072 0.25909427 11
2.069977 -0.16327424 -0.25495067 4
2.0715706 -0.16412757 -0.18180689 5
2.0885508 -0.1658397 -0.10980085 6
2.0790806 -0.16581807 -0.036405724 7
2.0728381 -0.16859733 0.036301006 8
2.0607789 -0.16797851 -0.47734615 1
2.0921504 -0.17090327 0.11001018 9
2.0545442 -0.16819227 -0.40069893 2
2.0750759 -0.17023769 0.1821555 10
2.0533903 -0.16881941 -0.32632235 3
2.0852518 -0.1714389 0.25690058 11
2.0733516 -0.17082486 -0.25543818 4
2.0670137 -0.17102912 -0.18145825 5
2.0759869 -0.17250119 -0.10917282 6
2.0884531 -0.17390409 -0.036580246 7
2.0761914 -0.17653236 0.036370814 8
2.079601 -0.17718786 0.10938216 9
2.059813 -0.17586401 -0.40184379 2
2.0863795 -0.178499 0.18320136 10
2.0665653 -0.17716715 -0.32851243 3
2.0766983 -0.17840095 0.25592566 11
2.0608757 -0.17704169 -0.25397575 4
2.0783145 -0.17927065 -0.18250412 5
2.0674126 -0.17905734 -0.10875413 6
2.0878332 -0.1811931 -0.036580246 7
2.0815701 -0.18394434 0.036475532 8
2.0750229 -0.1837308 0.10917282 9
2.0435741 -0.18130563 -0.39879084 2
2.0837917 -0.1852403 0.18302706 10
2.0620313 -0.18366863 -0.3278867 3
2.0859814 -0.18616886 0.25714433 11
2.0583 -0.18369837 -0.253732 4
2.0737398 -0.18580601 -0.1821555 5
2.0668075 -0.18591213 -0.10875413 6
2.0792542 -0.1873976 -0.036440626 7
2.0829401 -0.1910287 0.036510434 8
2.0783467 -0.19133903 0.10938216 9
2.0390515 -0.18772139 -0.3980276 2
2.0712619 -0.19105136 0.18198119 10
2.0594437 -0.19032376 -0.32757381 3
2.0873291 -0.19326822 0.25738806 11
2.0536931 -0.19051534 -0.25324452 4
2.0651431 -0.19230463 -0.18145825 5
2.0741343 -0.19350703 -0.10917282 6
2.0706236 -0.1939086 -0.036301006 7
2.0723071 -0.19735046 0.036335908 8
2.0776663 -0.19859265 0.10938216 9
2.0383499 -0.19519363 -0.3980276 2
2.0705478 -0.19864164 0.18198119 10
2.0489008 -0.1969258 -0.32600945 3
2.0905938 -0.20093304 0.25787556 11
2.0589433 -0.19825369 -0.25397575 4
2.0565269 -0.19874556 -0.18076101 5
2.0694349 -0.20072217 -0.10896347 6
2.0798857 -0.20210223 -0.036475532 7
2.06759 -0.20455079 0.0362661 8
2.0729494 -0.20581171 0.10917282 9
2.0454707 -0.2030835 -0.39955404 2
2.0698419 -0.20586799 0.18198119 10
2.0482011 -0.20407662 -0.32600945 3
2.0760164 -0.20721398 0.25616938 11
2.058203 -0.20579877 -0.25397575 4
2.0577669 -0.20648071 -0.18093532 5
2.0567985 -0.20674609 -0.10833544 6
2.0771413 -0.20952334 -0.036440626 7
2.0668635 -0.21176676 0.0362661 8
2.0662582 -0.21243362 0.1088588 9
2.0525241 -0.21138363 -0.40108052 2
2.0730374 -0.21386188 0.1823298 10
2.0454743 -0.2113792 -0.32569659 3
2.0515485 -0.2123688 -0.25324452 4
2.0629787 -0.21427986 -0.18145825 5
2.0480807 -0.2134551 -0.10791675 6
2.0803752 -0.21718793 -0.036510434 7
2.0720389 -0.21997412 0.036370814 8
2.0635178 -0.21943368 0.10875413 9
2.034204 -0.21667553 -0.39764598 2
2.0742593 -0.22130822 0.18250412 10
2.0506165 -0.21914768 -0.32663518 3
2.0468471 -0.21910617 -0.25275704 4
2.0641992 -0.22169247 -0.18163256 5
2.0552664 -0.22145882 -0.10833544 6
2.0716517 -0.22359017 -0.036370814 7
2.0712981 -0.22684404 0.036370814 8
2.0667493 -0.2267109 0.10896347 9
2.0490863 -0.22513531 -0.40069893 2
2.0636117 -0.22709577 0.18163256 10
2.0616596 -0.22724512 -0.32851243 3
2.0500555 -0.22632821 -0.25324452 4
2.0555317 -0.22765909 -0.18093532 5
2.0604758 -0.22893478 -0.10864946 6
2.070899 -0.23045878 -0.036370814 7
2.0605989 -0.23258999 0.036196291 8
2.077853 -0.23527212 0.10959151 9
2.0549288 -0.23303969 0.18093532 10
2.0412672 -0.23185124 -0.32538372 3
2.0531976 -0.2339323 -0.253732 4
2.0487862 -0.23415416 -0.1804124 5
2.0616896 -0.23599342 -0.10875413 6
2.0621355 -0.23677374 -0.036231197 7
2.0478568 -0.23839405 0.035986863 8
2.0730515 -0.24206045 0.10938216 9
2.0619762 -0.24149685 0.18163256 10
2.0443275 -0.23979157 -0.32600945 3
2.0543399 -0.24132948 -0.25397575 4
2.0519135 -0.24177061 -0.18076101 5
2.0489099 -0.24214186 -0.10812609 6
2.0672536 -0.24467561 -0.036335908 7
2.0449841 -0.24565971 0.035951961 8
2.0562871 -0.24774571 0.10854478 9
2.0670547 -0.24940903 0.1821555 10
2.0415168 -0.24668913 -0.32569659 3
2.0455589 -0.24790208 -0.2530008 4
2.053035 -0.2491717 -0.18093532 5
2.0440869 -0.24880977 -0.10791675 6
2.0703132 -0.25273547 -0.036405724 7
2.0540371 -0.2540237 0.036126483 8
2.0514457 -0.25443032 0.10833544 9
2.0641942 -0.25637728 0.18198119 10
2.0426035 -0.25405771 -0.32600945 3
2.0387716 -0.25430381 -0.25226957 4
2.0561068 -0.25683051 -0.18128395 5
2.0471694 -0.25643992 -0.10812609 6
2.049577 -0.25746819 -0.036056671 7
2.0571051 -0.26169679 0.036196291 8
2.0564888 -0.26234791 0.10864946 9
2.0573575 -0.26282367 0.18145825 10
2.0436637 -0.26143685 -0.32632235 3
2.0418096 -0.26192406 -0.25275704 4
2.0413647 -0.26222914 -0.18006375 5
2.0541856 -0.26460499 -0.10854478 6
2.0506492 -0.26487717 -0.036091577 7
2.044282 -0.26732013 0.035986863 8
2.0515997 -0.26900545 0.10844011 9
2.0505016 -0.26922554 0.18093532 10
2.0407803 -0.26831147 -0.32600945 3
2.0389147 -0.26879022 -0.25251329 4
2.0404367 -0.26935324 -0.18006375 5
2.0532494 -0.27177384 -0.10854478 6
2.0477295 -0.27177057 -0.036056671 7
2.035409 -0.27338958 0.035847243 8
2.0565863 -0.2769649 0.10875413 9
2.0554726 -0.27718019 0.18145825 10
2.0359159 -0.27490479 -0.32538372 3
2.0458326 -0.27697104 -0.25348827 4
2.043433 -0.27700934 -0.1804124 5
2.0364556 -0.27678743 -0.10770741 6
2.0586569 -0.28053689 -0.0362661 7
2.038404 -0.28103906 0.035917051 8
2.0457149 -0.28277472 0.10823077 9
2.0544927 -0.28435346 0.18145825 10
2.0291238 -0.28192517 -0.25153834 4
2.0424535 -0.28414053 -0.1804124 5
2.0236084 -0.28223896 -0.10707937 6
2.0636065 -0.28855199 -0.036370814 7
2.0492907 -0.28983295 0.036126483 8
2.0387826 -0.28907269 0.10791675 9
2.0574329 -0.29208338 0.18180689 10
2.0241969 -0.28844631 -0.25105089 4
2.0434215 -0.29154971 -0.1805867 5
2.0344737 -0.29099771 -0.10770741 6
2.05071 -0.29405054 -0.036161385 7
2.0462875 -0.29669756 0.036091577 8
2.0436909 -0.29704946 0.10823077 9
2.0445712 -0.29754183 0.18076101 10
2.0310347 -0.29665792 -0.25202581 4
2.0364773 -0.29781589 -0.18006375 5
2.0373979 -0.29867697 -0.10791675 6
2.0457141 -0.30062559 -0.036091577 7
2.0334241 -0.30172065 0.035882145 8
2.0426946 -0.30382496 0.10823077 9
2.0356905 -0.30314639 0.18006375 10
2.0339663 -0.30397826 -0.25251329 4
2.029567 -0.30368295 -0.17954083 5
2.0363963 -0.30543157 -0.10791675 6
2.048661 -0.30800238 -0.036161385 7
2.0303817 -0.30851638 0.035847243 8
2.0455704 -0.31155491 0.10844011 9
2.0270059 -0.31017545 -0.25178206 4
2.0245557 -0.31016216 -0.1791922 5
2.0195246 -0.31011295 -0.10707937 6
2.0515263 -0.31576011 -0.036231197 7
2.0391719 -0.3171384 0.036021769 8
2.0286829 -0.31623238 0.10760273 9
2.0239499 -0.31694207 -0.25153834 4
2.0273974 -0.31784448 -0.17954083 5
2.0223761 -0.31778058 -0.10728873 6
2.0543621 -0.32354152 -0.036301006 7
2.0380526 -0.32425448 0.036021769 8
2.0216498 -0.32236841 0.10728873 9
2.0208709 -0.32369104 -0.25129461 4
2.038079 -0.32681224 -0.1805867 5
2.0251985 -0.32547194 -0.10749806 6
2.0413747 -0.32880262 -0.036091577 7
2.0428295 -0.33232993 0.036126483 8
2.0343108 -0.33167306 0.10802142 9
2.0250711 -0.33234397 -0.17954083 5
2.0260208 -0.332863 -0.10760273 6
2.0402145 -0.33592635 -0.036091577 7
2.0337665 -0.33814675 0.035986863 8
2.037081 -0.33942863 0.10823077 9
2.0199687 -0.3387517 -0.1791922 5
2.0306959 -0.34127954 -0.10791675 6
2.0390296 -0.34304601 -0.036091577 7
2.0246279 -0.3442578 0.035847243 8
2.0358231 -0.34689265 0.10823077 9
2.0187738 -0.34580064 -0.1791922 5
2.0137446 -0.34566277 -0.10707937 6
2.0417001 -0.35119513 -0.036161385 7
2.0214436 -0.35098085 0.035812337 8
2.0247614 -0.35228506 0.10770741 9
2.0195172 -0.35318866 -0.17936651 5
2.0125256 -0.35268995 -0.10707937 6
2.0365224 -0.35762811 -0.036091577 7
2.026113 -0.35908177 0.035917051 8
2.0195863 -0.3586522 0.10749806 9
2.0202334 -0.36058602 -0.17954083 5
2.0112822 -0.35971278 -0.10707937 6
2.0313251 -0.36402923 -0.036021769 7
2.0209119 -0.3654404 0.035847243 8
2.0222526 -0.36641186 0.10770741 9
2.0072017 -0.36549419 -0.17849496 5
2.0198386 -0.36852378 -0.10760273 6
2.0300422 -0.37111765 -0.036021769 7
2.0117579 -0.37104163 0.035707623 8
2.0210264 -0.3731159 0.10770741 9
2.0039546 -0.37213457 -0.17832063 5
2.0303214 -0.37776414 -0.10823077 6
2.0288005 -0.37784749 -0.036021769 7
2.0105162 -0.37771082 0.035707623 8
2.0236373 -0.38090721 0.10791675 9
2.0241773 -0.38320407 -0.18023807 5
2.0212083 -0.38300744 -0.10781208 6
2.0274692 -0.384927 -0.036021769 7
2.013114 -0.38547876 0.035777435 8
2.0144494 -0.38646352 0.10749806 9
2.0159369 -0.389303 -0.10760273 6
2.0339661 -0.39352122 -0.036161385 7
2.0117559 -0.3925035 0.035777435 8
2.0072076 -0.39234346 0.10718405 9
2.0144963 -0.39668918 -0.10760273 6
2.0129604 -0.39675167 -0.035812337 7
2.0181487 -0.40143475 0.035917051 8
2.0170162 -0.40450418 -0.10781208 6
2.0114927 -0.40412688 -0.035812337 7
2.0108554 -0.40728605 0.035812337 8
2.0195055 -0.41234148 -0.10802142 6
2.0179064 -0.41274878 -0.035951961 7
2.0015876 -0.41268754 0.035672721 8
2.0102317 -0.41776282 -0.10760273 6
2.0204422 -0.42025262 -0.036021769 7
2.0060797 -0.42055374 0.035777435 8
2.001019 -0.42277521 -0.10718405 6
2.0130937 -0.4260605 -0.035917051 7
2.0045996 -0.42755368 0.035777435 8
2.0151525 -0.43311501 -0.10802142 6
2.0057294 -0.43182227 -0.035812337 7
2.0109115 -0.43624416 0.035917051 8
2.0003033 -0.43796557 -0.035742529 7
2.0054712 -0.44239941 0.035847243 8
2.0085218 -0.44711784 -0.035917051 7
1.9922072 -0.44677159 0.035637815 8
2.0108497 -0.45500883 -0.035986863 7
1.9984344 -0.4555006 0.035777435 8
2.0170445 -0.46381778 -0.036126483 7
2.0007284 -0.46337602 0.035847243 8
2.0037296 -0.46812609 -0.035917051 7
1.9990988 -0.47035706 0.035847243 8
2.0002205 -0.47430676 -0.035882145 7
1.985858 -0.474197 0.035637815 8
2.004385 -0.48269048 -0.035986863 7
1.9744736 -0.47876993 0.035463288 8
1.9650235 -0.48374718 0.035323672 8
