# .PCD v0.7 - Point Cloud Data file format
VERSION 0.7
FIELDS x y z intensity
SIZE 4 4 4 4
TYPE F F F F
COUNT 1 1 1 1
WIDTH 660
HEIGHT 1
VIEWPOINT 0 0 0 1 0 0 0
POINTS 660
DATA ascii
2.4540498 0.88399601 -0.32027265 4
2.4512057 0.87428188 -0.31954145 4
2.4467547 0.86307824 -0.31856647 4
2.4385064 0.8506099 -0.31710407 4
2.4302011 0.83820844 -0.31564164 4
2.4425058 0.83292556 -0.31686032 4
2.4452546 0.82482064 -0.31686032 4
2.4443529 0.81502366 -0.31637284 4
2.4421399 0.8138122 -0.22521043 5
2.4377561 0.80338019 -0.31515417 4
2.4317188 0.80092013 -0.22399026 5
2.4329958 0.79240626 -0.31417918 4
2.4382892 0.79365963 -0.22433887 5
2.4433053 0.78634191 -0.31515417 4
2.4277675 0.78087366 -0.22311871 5
2.4337935 0.77485043 -0.40453959 3
2.4460354 0.7778089 -0.31515417 4
2.4152882 0.76756632 -0.22172421 5
2.445771 0.76974106 -0.40610394 3
2.4486012 0.7696926 -0.31515417 4
2.4198537 0.75972801 -0.22189851 5
2.4295797 0.75533515 -0.40297523 3
2.4323151 0.75525337 -0.31271678 4
2.4280682 0.75347131 -0.22242144 5
2.4340899 0.74742889 -0.4032881 3
2.434936 0.74676007 -0.31271678 4
2.4306836 0.74499053 -0.22242144 5
2.4177866 0.74011582 -0.13251466 6
2.440465 0.74007362 -0.40391383 3
2.4375281 0.73825538 -0.31271678 4
2.4199207 0.73246032 -0.22120127 5
2.4299147 0.73456079 -0.13303801 6
2.4354637 0.72928536 -0.40266237 3
2.4400907 0.72974169 -0.31271678 4
2.4167354 0.7222988 -0.22067833 5
2.4458609 0.7300725 -0.13377072 6
2.434206 0.71965885 -0.40203664 3
2.4426229 0.72122025 -0.31271678 4
2.4268861 0.71611327 -0.22137558 5
2.4273205 0.71532059 -0.13261932 6
2.4327869 0.71047461 -0.40141091 3
2.4297552 0.70867014 -0.31076685 4
2.4293706 0.70763797 -0.22137558 5
2.4181731 0.70391852 -0.1319913 6
2.4466403 0.70526153 -0.4032881 3
2.4245839 0.69798714 -0.30979189 4
2.4278746 0.6984756 -0.22102696 5
2.4244549 0.69657558 -0.13220063 6
2.4414873 0.6945554 -0.40203664 3
2.4270055 0.68952 -0.30979189 4
2.4226315 0.68782037 -0.22032972 5
2.4268715 0.68810892 -0.13220063 6
2.4377687 0.69027829 -0.0442244 7
2.4362895 0.68389261 -0.40078515 3
2.436924 0.68361193 -0.31076685 4
2.4211807 0.67828411 -0.21998109 5
2.4369526 0.68178523 -0.13261932 6
2.4207859 0.67680675 -0.043875352 7
2.4309297 0.67370009 -0.39953369 3
2.4391775 0.67552757 -0.31076685 4
2.4234166 0.67025191 -0.21998109 5
2.4199481 0.66838342 -0.1315726 6
2.4326553 0.67143494 -0.044049874 7
2.4407713 0.66772062 -0.40078515 3
2.4337451 0.66534066 -0.30979189 4
2.4275477 0.66273707 -0.22015539 5
2.4144435 0.65825289 -0.13115391 6
2.4232917 0.66021198 -0.043840446 7
2.4391227 0.65949643 -0.49114239 2
2.4391582 0.65859246 -0.40015942 3
2.4321048 0.6562326 -0.30930442 4
2.4297323 0.6546827 -0.22015539 5
2.4243279 0.65231895 -0.1315726 6
2.4177437 0.65009487 -0.043700829 7
2.4416373 0.65012544 -0.49114239 2
2.441669 0.64922249 -0.40015942 3
2.4308825 0.64544487 -0.30881694 4
2.4225991 0.64279413 -0.21928383 5
2.430676 0.64402795 -0.13178195 6
2.420222 0.64080715 -0.043700829 7
2.4438913 0.64160019 -0.49114239 2
2.4399874 0.64011896 -0.39953369 3
2.4368501 0.63838679 -0.30930442 4
2.4209733 0.63332462 -0.21893522 5
2.4327986 0.63596326 -0.13178195 6
2.4147046 0.63033414 -0.043561205 7
2.4384036 0.63152295 -0.48961592 2
2.430732 0.62862957 -0.39765644 3
2.4467511 0.63186258 -0.31027937 4
2.4230604 0.62529224 -0.21893522 5
2.4233987 0.6244787 -0.13115391 6
2.4245281 0.62431723 -0.043700829 7
2.4080696 0.61604768 0.043386683 8
2.4348865 0.62155002 -0.48847106 2
2.4328032 0.62056601 -0.39765644 3
2.4257495 0.61786503 -0.30735451 4
2.4252279 0.61683208 -0.21893522 5
2.4138422 0.61348653 -0.13052589 6
2.4305682 0.61683565 -0.043770637 7
2.4063277 0.60665989 0.043316875 8
2.4255109 0.61059707 -0.48618135 2
2.4349544 0.61207068 -0.39765644 3
2.4317422 0.61035967 -0.30784199 4
2.4312315 0.60933071 -0.21928383 5
2.4198439 0.60602665 -0.13073523 6
2.4171872 0.60446596 -0.043491397 7
2.4123116 0.5992223 0.043386683 8
2.4296381 0.60217589 -0.48656297 2
2.4448519 0.6050396 -0.39890796 3
2.437712 0.60282242 -0.30832946 4
2.4217384 0.59797412 -0.21823798 5
2.4220488 0.5971539 -0.13073523 6
2.4192827 0.5960241 -0.043491397 7
2.4047792 0.58800125 0.043212157 8
2.4317255 0.59369057 -0.48656297 2
2.4354339 0.59369522 -0.39703071 3
2.4360478 0.59294295 -0.30784199 4
2.4160669 0.58763415 -0.21754073 5
2.4202371 0.58775246 -0.13052589 6
2.4213483 0.58757609 -0.043491397 7
2.3969958 0.57768142 0.043037634 8
2.4414182 0.587035 -0.48808944 2
2.4297063 0.58377039 -0.39577925 3
2.4418609 0.58578932 -0.30832946 4
2.425854 0.58105266 -0.21823798 5
2.4221723 0.57972509 -0.13052589 6
2.4194951 0.57819027 -0.043421589 7
2.3989978 0.56931025 0.043037634 8
2.445262 0.57938778 -0.48847106 2
2.4355738 0.57619441 -0.39640498 3
2.4284356 0.57361066 -0.30637956 4
2.4238889 0.57209015 -0.21788934 5
2.4202931 0.57034969 -0.13031654 6
2.4292843 0.57157356 -0.043561205 7
2.4087598 0.56275177 0.043177254 8
2.4118557 0.56258857 0.12979318 9
2.4357979 0.56817335 -0.48618135 2
2.4375701 0.56768966 -0.39640498 3
2.422689 0.56333137 -0.3054046 4
2.4336338 0.56542987 -0.21858659 5
2.4222693 0.56189716 -0.13031654 6
2.4156799 0.55948007 -0.043281965 7
2.4107094 0.55434072 0.043177254 8
2.4078686 0.55324513 0.12947917 9
2.4281993 0.5574702 -0.48427325 2
2.4472387 0.56094223 -0.39765644 3
2.4323809 0.55664301 -0.30637956 4
2.4239395 0.55426604 -0.21754073 5
2.4281106 0.55432802 -0.13052589 6
2.4077735 0.54924315 -0.043107443 7
2.3969316 0.54281062 0.042898018 8
2.4097853 0.54483724 0.12947917 9
2.432045 0.54942393 -0.4846549 2
2.4298167 0.54847366 -0.39452776 3
2.4342134 0.54857439 -0.30637956 4
2.4180844 0.54405153 -0.21684349 5
2.4299352 0.54627359 -0.13052589 6
2.4194322 0.54302412 -0.043281965 7
2.3890529 0.53226548 0.042723492 8
2.4058235 0.53512055 0.12916516 9
2.4319375 0.54092902 -0.48427325 2
2.420146 0.53742099 -0.39265057 3
2.4361136 0.54007339 -0.30637956 4
2.4198749 0.53603154 -0.21684349 5
2.4240267 0.53606248 -0.13010719 6
2.4213128 0.53457594 -0.043281965 7
2.4045694 0.52691966 0.042967826 8
2.3959701 0.5241577 0.12853712 9
2.4434004 0.53453386 -0.48618135 2
2.4297266 0.53065515 -0.39390203 3
2.4302256 0.52987546 -0.3054046 4
2.4217312 0.52758068 -0.21684349 5
2.4141734 0.52505159 -0.12947917 6
2.4212101 0.52569574 -0.043247063 7
2.406394 0.51852232 0.042967826 8
2.4442286 0.52622843 -0.57722443 1
2.3938797 0.51495266 0.12832777 9
2.4356544 0.52393889 -0.48427325 2
2.435427 0.52299941 -0.39452776 3
2.4204147 0.51889181 -0.30394217 4
2.4333901 0.5207864 -0.21771504 5
2.4198978 0.517456 -0.12968852 6
2.4171631 0.5159902 -0.043142349 7
2.4121017 0.51094979 0.043037634 8
2.4384243 0.51607972 -0.57542479 1
2.3956628 0.50659269 0.12832777 9
2.4260333 0.51257139 -0.48198354 2
2.3958464 0.50575793 0.21422882 10
2.4411931 0.51488549 -0.39515349 3
2.429981 0.51207656 -0.30491713 4
2.4273942 0.51064777 -0.21701778 5
2.4256871 0.5094046 -0.12989786 6
2.4072073 0.50508511 -0.04293292 7
2.4061275 0.50047487 0.042898018 8
2.4364834 0.50634652 -0.574525 1
2.3974164 0.49822769 0.12832777 9
2.4278076 0.50410151 -0.48198354 2
2.3858922 0.49496284 0.21318294 10
2.4352384 0.50475788 -0.39390203 3
2.4279535 0.50236291 -0.30442965 4
2.4213574 0.50055748 -0.21632054 5
2.4333186 0.50214458 -0.13021187 6
2.4167898 0.49829394 -0.04307254 7
2.3960192 0.49008924 0.042688586 8
2.4209652 0.49475288 -0.57047588 1
2.4069684 0.49145365 0.12874646 9
2.4410946 0.4979777 -0.48427325 2
2.3954141 0.4882248 0.2138802 10
2.4252851 0.49431297 -0.39202482 3
2.437387 0.49589226 -0.3054046 4
2.4191852 0.49130976 -0.21597193 5
2.4193113 0.49089581 -0.1293745 6
2.4224341 0.49064913 -0.043142349 7
2.4016359 0.48251083 0.042758394 8
2.4207673 0.48591501 -0.57002598 1
2.3987939 0.48150435 0.12822311 9
2.4388826 0.48910728 -0.48351002 2
2.3989735 0.48066935 0.2140545 10
2.4308701 0.48661903 -0.39265057 3
2.4274235 0.48504791 -0.30394217 4
2.428616 0.48484546 -0.21666917 5
2.4170926 0.4816677 -0.12916516 6
2.4279699 0.48339474 -0.043212157 7
2.4110701 0.47609413 0.042898018 8
2.4281013 0.47901562 -0.57137567 1
2.3926222 0.4715825 0.12780441 9
2.4347961 0.47945353 -0.48236516 2
2.4006369 0.47229183 0.2140545 10
2.4285936 0.47779194 -0.39202482 3
2.4270709 0.47661239 -0.30369842 4
2.4342041 0.47713086 -0.21701778 5
2.4265168 0.47518432 -0.12958384 6
2.4119799 0.47146347 -0.042898018 7
2.4146807 0.46805489 0.04293292 8
2.4316714 0.47090805 -0.57182556 1
2.4001362 0.46436647 0.12811844 9
2.4248075 0.46913975 -0.48007545 2
2.3943653 0.46281645 0.21335725 10
2.4380052 0.47080919 -0.3932763 3
2.4326181 0.46888939 -0.3041859 4
2.4240346 0.46679497 -0.21597193 5
2.4203153 0.46520385 -0.12916516 6
2.4155746 0.46341848 -0.04293292 7
2.4025483 0.457008 0.042688586 8
2.4371293 0.46314403 -0.57272536 1
2.3997805 0.45561245 0.12801376 9
2.4283595 0.46103832 -0.48045707 2
2.3881359 0.45297104 0.21266 10
2.4279888 0.46008995 -0.39139909 3
2.4322894 0.46002671 -0.30394217 4
2.4217339 0.45759135 -0.21562332 5
2.4258497 0.4574922 -0.1293745 6
2.4152126 0.45461318 -0.042898018 7
2.4021633 0.44825125 0.04265368 8
2.4253211 0.45213461 -0.56957608 1
2.4092102 0.44869614 0.12843245 9
2.4357438 0.45363781 -0.48160195 2
2.3975379 0.44608936 0.21335725 10
2.4256954 0.45089039 -0.39077336 3
2.3947673 0.44470903 0.29906741 11
2.4338803 0.45153299 -0.30394217 4
2.4311521 0.45058796 -0.21632054 5
2.4235039 0.44829556 -0.12916516 6
2.4266171 0.44799548 -0.04307254 7
2.3978124 0.43878296 0.042548969 8
2.4230504 0.44296554 -0.56867629 1
2.4009378 0.43848884 0.12790908 9
2.4411752 0.44583753 -0.48236516 2
2.3951604 0.43700176 0.21300863 10
2.4311414 0.44312936 -0.39139909 3
2.3884931 0.43492389 0.29809242 11
2.4334888 0.44267848 -0.30369842 4
2.4287896 0.44138697 -0.21597193 5
2.4132628 0.43769398 -0.12853712 6
2.4242306 0.43880925 -0.043002732 7
2.4013724 0.43034482 0.042583872 8
2.4304125 0.43511125 -0.57002598 1
2.3945897 0.42869797 0.1274904 9
2.43313 0.43515956 -0.48045707 2
2.4006686 0.42892155 0.21335725 10
2.4366384 0.43490934 -0.39202482 3
2.3900709 0.42616725 0.29809242 11
2.4214144 0.43131998 -0.30199227 4
2.4343143 0.4331795 -0.21632054 5
2.414851 0.42884651 -0.12853712 6
2.4119649 0.42789862 -0.042758394 7
2.4126341 0.42410961 0.042758394 8
2.4280033 0.42637572 -0.56912619 1
2.3980391 0.42068234 0.12759508 9
2.4268992 0.42530745 -0.47893062 2
2.3962636 0.41950762 0.21283433 10
2.4380674 0.42682609 -0.39202482 3
2.401248 0.4199495 0.29931113 11
2.4326091 0.42499548 -0.30321094 4
2.4240348 0.42262676 -0.21527468 5
2.4241304 0.4222064 -0.12895581 6
2.4114735 0.41913593 -0.042723492 7
2.398334 0.41297233 0.042479157 8
2.4390798 0.41954893 -0.57137567 1
2.399493 0.41230839 0.12759508 9
2.4282961 0.4172577 -0.47893062 2
2.3858593 0.40953824 0.21178845 10
2.4356484 0.4176459 -0.39139909 3
2.4046562 0.41189954 0.29955488 11
2.4399474 0.41750759 -0.30394217 4
2.4175673 0.41324261 -0.21457744 5
2.4295273 0.41441303 -0.12916516 6
2.4208074 0.41205731 -0.042863112 7
2.399761 0.40459743 0.042479157 8
2.4328425 0.40973714 -0.56957608 1
2.4127347 0.40591878 0.12822311 9
2.4374819 0.41008225 -0.48045707 2
2.395134 0.40252775 0.2124857 10
2.4254029 0.40717837 -0.38952184 3
2.3904171 0.40087715 0.29760498 11
2.4472632 0.4099713 -0.30467337 4
2.4268556 0.40611595 -0.21527468 5
2.4191387 0.40395778 -0.12853712 6
2.4182861 0.40294781 -0.0427933 7
2.4740155 0.4086833 -0.67189431 0
2.3972127 0.39556646 0.042409346 8
2.4265668 0.39997637 -0.5677765 1
2.400342 0.39522222 0.1274904 9
2.440836 0.40188965 -0.48083872 2
2.4004564 0.3948108 0.21283433 10
2.4307077 0.39935184 -0.39014763 3
2.3839662 0.39124405 0.29663 11
2.4290903 0.39821419 -0.30223599 4
2.4243255 0.39699984 -0.21492605 5
2.4126499 0.39422202 -0.12811844 6
2.419678 0.3945033 -0.0427933 7
2.443006 0.39480478 -0.6630944 0
2.4064755 0.38847151 0.042548969 8
2.4298718 0.39181319 -0.56822634 1
2.3938198 0.38557005 0.12707172 9
2.4247794 0.39055669 -0.47740412 2
2.4018197 0.38642973 0.21283433 10
2.4320869 0.39086401 -0.39014763 3
2.3931575 0.38417798 0.29760498 11
2.4206653 0.38816169 -0.30101728 4
2.4335661 0.38979483 -0.21562332 5
2.4218998 0.38705918 -0.12853712 6
2.4151161 0.38510936 -0.042688586 7
2.4348285 0.38476869 -0.66050619 0
2.4157181 0.38131544 0.042688586 8
2.4293001 0.383026 -0.5677765 1
2.4030426 0.37845618 0.1274904 9
2.4280672 0.38239735 -0.47778577 2
2.3874087 0.37556589 0.21143983 10
2.4334366 0.3823714 -0.39014763 3
2.3944838 0.37582365 0.29760498 11
2.4357336 0.38186121 -0.3027235 4
2.4290066 0.38037229 -0.21510038 5
2.4232364 0.37860215 -0.12853712 6
2.4144695 0.37637031 -0.04265368 7
2.4361567 0.37626657 -0.66050619 0
2.4012237 0.37044206 0.042409346 8
2.4402523 0.37602711 -0.57002598 1
2.4082968 0.37067273 0.12769975 9
2.4293873 0.37391886 -0.47778577 2
2.388705 0.3672305 0.21143983 10
2.4347565 0.37387535 -0.39014763 3
2.4036295 0.36866617 0.2985799 11
2.4350891 0.37305641 -0.30247974 4
2.4224417 0.37068614 -0.21440312 5
2.4245434 0.37014055 -0.12853712 6
2.4118147 0.36733711 -0.042583872 7
2.4005246 0.3617605 0.042374443 8
2.4242067 0.36489552 -0.56597686 1
2.4075382 0.36238658 0.12759508 9
2.4345603 0.36602065 -0.478549 2
2.3978534 0.36007407 0.21213706 10
2.4243257 0.36361548 -0.38827038 3
2.4166811 0.36203882 0.30004236 11
2.4324501 0.36396712 -0.30199227 4
2.4237208 0.36222738 -0.21440312 5
2.4198942 0.36079198 -0.12822311 6
2.4169755 0.35992563 -0.04265368 7
2.405668 0.35438031 0.042444255 8
2.4234755 0.35657144 -0.56552696 1
2.3910038 0.35136747 0.12665303 9
2.439708 0.35808977 -0.47931221 2
2.4030385 0.35227916 0.2124857 10
2.425518 0.35557461 -0.38827038 3
2.425787 0.3547492 -0.30101728 4
2.4328566 0.35491577 -0.21510038 5
2.4171245 0.3521899 -0.12801376 6
2.4201961 0.35177478 -0.042688586 7
2.4049108 0.34569561 0.042409346 8
2.4304924 0.34894109 -0.56687665 1
2.3961697 0.34358665 0.12686236 9
2.4331088 0.34888333 -0.47778577 2
2.400249 0.34374291 0.21213706 10
2.4345663 0.34822515 -0.38952184 3
2.4230802 0.34571806 -0.30052981 4
2.4301357 0.34585926 -0.21475175 5
2.4183393 0.34374979 -0.12801376 6
2.4134898 0.34220105 -0.042548969 7
2.4160044 0.33868733 0.042583872 8
2.4336255 0.34072447 -0.56732655 1
2.4013107 0.33577406 0.12707172 9
2.4265933 0.3388764 -0.47625926 2
2.3876798 0.33301726 0.21091689 10
2.4397392 0.33984411 -0.39014763 3
2.4282043 0.33780536 -0.30101728 4
2.427381 0.33682722 -0.21440312 5
2.4274967 0.33597964 -0.12843245 6
2.4047651 0.33240578 -0.042374443 7
2.4073229 0.32847875 0.042409346 8
2.4348578 0.33180302 -0.56732655 1
2.4064834 0.32750747 0.12728105 9
2.4297071 0.33066806 -0.47664091 2
2.3868535 0.32441285 0.21074259 10
2.4330809 0.33026347 -0.38889611 3
2.4372947 0.32996908 -0.30199227 4
2.4206445 0.32728472 -0.21370588 5
2.4246957 0.32696956 -0.12822311 6
2.4138949 0.32465518 -0.042514063 7
2.3985436 0.31875581 0.042234823 8
2.4321375 0.32278836 -0.56642675 1
2.4056318 0.3188445 0.12717639 9
2.4366851 0.32296032 -0.47778577 2
2.3958719 0.31712431 0.21143983 10
2.4185522 0.31969681 -0.38639316 3
2.4463038 0.32249647 -0.30296722 4
2.4217722 0.31883246 -0.21370588 5
2.4179015 0.31746432 -0.12780441 6
2.4150131 0.31622881 -0.042514063 7
2.3996418 0.31038073 0.042234823 8
2.429384 0.31379789 -0.56552696 1
2.3967719 0.30958545 0.12665303 9
2.4377978 0.31445211 -0.47778577 2
2.4009166 0.30926764 0.21178845 10
2.4274902 0.31226119 -0.38764465 3
2.4277256 0.31142887 -0.30052981 4
2.4307752 0.3113901 -0.21440312 5
2.4150326 0.30851552 -0.12759508 6
2.4200158 0.30872405 -0.042583872 7
2.4105778 0.30367172 0.042409346 8
2.3978381 0.30121663 0.12665303 9
2.4271924 0.30447385 -0.47549605 2
2.4000044 0.30063903 0.21161415 10
2.4285126 0.30421013 -0.38764465 3
2.4208655 0.30239287 -0.29955488 4
2.4318473 0.30290255 -0.21440312 5
2.4160423 0.30050576 -0.12759508 6
2.413141 0.29928961 -0.042444255 7
2.4016988 0.29404083 0.042234823 8
2.3988748 0.29284641 0.12665303 9
2.4281886 0.29642496 -0.47549605 2
2.3930771 0.29171365 0.21091689 10
2.4374032 0.29668528 -0.38889611 3
2.4297888 0.29489779 -0.30052981 4
2.424927 0.29387829 -0.21370588 5
2.4289734 0.29350844 -0.12822311 6
2.4102004 0.29038528 -0.042374443 7
2.4027107 0.2856549 0.042234823 8
2.3998823 0.28447035 0.12665303 9
2.4292085 0.28794652 -0.47549605 2
2.3841879 0.28218693 0.21004534 10
2.4266536 0.28678483 -0.38701892 3
2.4347463 0.28687838 -0.30101728 4
2.4219806 0.28494686 -0.21335725 5
2.4339507 0.28549269 -0.12843245 6
2.4111991 0.28197202 -0.042374443 7
2.39972 0.27680951 0.042165015 8
2.404829 0.27654719 0.12686236 9
2.4301989 0.27946463 -0.47549605 2
2.3851583 0.27386335 0.21004534 10
2.4237146 0.2778618 -0.38639316 3
2.4357328 0.27837828 -0.30101728 4
2.4269195 0.27694196 -0.21370588 5
2.4230256 0.27564088 -0.12780441 6
2.4201164 0.27445433 -0.042514063 7
2.4006715 0.26843059 0.042165015 8
2.3938701 0.2668241 0.12623434 9
2.4350619 0.27141541 -0.47625926 2
2.3860996 0.26553643 0.21004534 10
2.428597 0.26983544 -0.38701892 3
2.4268243 0.2687822 -0.29979861 4
2.4278715 0.26846808 -0.21370588 5
2.4160318 0.26630646 -0.12738572 6
2.4329863 0.26731575 -0.042723492 7
2.4135225 0.26134005 0.042374443 8
2.3928013 0.25825137 0.12612967 9
2.4359946 0.26291314 -0.47625926 2
2.387012 0.25720513 0.21004534 10
2.4334519 0.26177949 -0.38764465 3
2.4257743 0.26009712 -0.29955488 4
2.4327557 0.26041621 -0.2140545 5
2.4169466 0.25787067 -0.12738572 6
2.4179966 0.25712913 -0.042444255 7
2.4144199 0.25291419 0.042374443 8
2.405607 0.25114217 0.1267577 9
2.4290872 0.25359347 -0.47473282 2
2.3859138 0.24866532 0.20987104 10
2.4382806 0.25369292 -0.38827038 3
2.4227185 0.25121903 -0.29906741 4
2.4257228 0.25110266 -0.21335725 5
2.4218056 0.24984282 -0.12759508 6
2.4268363 0.24950455 -0.042583872 7
2.4053407 0.2434772 0.042199921 8
2.4064691 0.24274287 0.1267577 9
2.4436309 0.24649142 -0.47740412 2
2.3709085 0.23873785 0.20847654 10
2.4234271 0.24360017 -0.38576743 3
2.435432 0.24394706 -0.30052981 4
2.4226193 0.24223782 -0.21300863 5
2.4266379 0.24178301 -0.12780441 6
2.4316721 0.24142745 -0.04265368 7
2.3942342 0.23391333 0.041990492 8
2.4053137 0.23414822 0.12665303 9
2.3737104 0.23065357 0.20865084 10
2.4203305 0.23475727 -0.3851417 3
2.4382443 0.23563579 -0.30077356 4
2.4313831 0.23454443 -0.21370588 5
2.4155383 0.23216499 -0.12717639 6
2.428519 0.23255597 -0.042583872 7
2.4049907 0.22649132 0.042165015 8
2.3981624 0.22500491 0.12623434 9
2.4290023 0.22704203 -0.38639316 3
2.4252164 0.22583427 -0.29906741 4
2.4282196 0.22568648 -0.21335725 5
2.4083793 0.22299458 -0.1267577 6
2.4293158 0.22407912 -0.042583872 7
2.4097495 0.21845652 0.042234823 8
2.3949549 0.21627252 0.12602501 9
2.4337153 0.21891633 -0.38701892 3
2.4259901 0.21736668 -0.29906741 4
2.4329612 0.21756445 -0.21370588 5
2.4210792 0.21564893 -0.12738572 6
2.4260995 0.21524377 -0.042514063 7
2.4224505 0.21108566 0.042444255 8
2.4016643 0.2084298 0.126339 9
2.4384005 0.21075928 -0.38764465 3
2.4227781 0.20855822 -0.2985799 4
2.4217954 0.20804666 -0.21266 5
2.4178371 0.20685765 -0.12717639 6
2.4228513 0.20643364 -0.042444255 7
2.4032452 0.20096144 0.042095207 8
2.4083483 0.2005417 0.12665303 9
2.4273095 0.20126866 -0.38576743 3
2.4432752 0.20173268 -0.30101728 4
2.4264781 0.19992062 -0.21300863 5
2.426507 0.19906916 -0.12759508 6
2.431529 0.19862677 -0.042583872 7
2.4079187 0.1928912 0.042165015 8
2.4090338 0.19213313 0.12665303 9
2.4240589 0.19248118 -0.3851417 3
2.4360487 0.19257759 -0.30004236 4
2.4231887 0.19113542 -0.21266 5
2.41524 0.18966021 -0.12696704 6
2.4361951 0.190449 -0.04265368 7
2.4025958 0.18402602 0.042060301 8
2.3957493 0.18266167 0.12592033 9
2.438504 0.1850642 -0.38733178 3
2.4287884 0.18347426 -0.29906741 4
2.4317884 0.18327406 -0.21335725 5
2.4119043 0.18092884 -0.1267577 6
2.4328566 0.18164782 -0.042583872 7
2.395246 0.17505576 0.041920681 8
2.3923581 0.17442495 0.12571098 9
2.4274032 0.17527661 -0.29882365 4
2.4363878 0.17507052 -0.21370588 5
2.4204898 0.17307779 -0.12717639 6
2.4254673 0.17300941 -0.042444255 7
2.4117723 0.16822551 0.042199921 8
2.4048779 0.16732287 0.126339 9
2.4259908 0.167089 -0.2985799 4
2.429004 0.16644585 -0.21300863 5
2.4170651 0.16477899 -0.12696704 6
2.4220376 0.16469331 -0.042374443 7
2.3983493 0.15929846 0.041955583 8
2.4034545 0.15879495 0.12623434 9
2.4384446 0.15939713 -0.30004236 4
2.4216173 0.15744831 -0.21231139 5
2.4255702 0.15728024 -0.12738572 6
2.4265888 0.15649574 -0.042444255 7
2.3968954 0.15080066 0.041920681 8
2.3940275 0.14978132 0.12571098 9
2.4389861 0.15088375 -0.30004236 4
2.4261293 0.1492395 -0.21266 5
2.4141695 0.14765683 -0.1267577 6
2.4271202 0.14802492 -0.042444255 7
2.3954356 0.14189571 0.041885775 8
2.396554 0.14112253 0.12581564 9
2.4236689 0.14102148 -0.29809242 4
2.434592 0.14123072 -0.21335725 5
2.4066944 0.13876952 -0.126339 6
2.4316392 0.13935629 -0.042514063 7
2.3999095 0.13375513 0.041955583 8
2.3870609 0.13220443 0.12529229 9
2.420182 0.13234301 -0.29760498 4
2.4271121 0.13229713 -0.21266 5
2.4231188 0.13123119 -0.12717639 6
2.4241238 0.13043816 -0.042374443 7
2.4063528 0.12569165 0.042060301 8
2.397459 0.1248064 0.12581564 9
2.4265766 0.12420028 -0.29833618 4
2.4235797 0.12362164 -0.21231139 5
2.423562 0.12277263 -0.12717639 6
2.4205484 0.12219644 -0.042304631 7
2.4007642 0.11741748 0.041955583 8
2.3958855 0.11633946 0.12571098 9
2.4200161 0.11497127 -0.21196276 5
2.419966 0.11454675 -0.12696704 6
2.4289505 0.11412118 -0.042444255 7
2.3911715 0.10858234 0.04178106 8
2.4243836 0.10670001 -0.21231139 5
2.4163604 0.10592322 -0.1267577 6
2.4293339 0.10564353 -0.042444255 7
2.3995278 0.10056925 0.041920681 8
2.4287226 0.098397337 -0.21266 5
2.4127412 0.096906334 -0.12654836 6
2.43768 0.097481877 -0.042583872 7
2.4018781 0.091850802 0.041955583 8
2.4409978 0.0903605 -0.21370588 5
2.4130647 0.088483058 -0.12654836 6
2.422034 0.087966591 -0.042304631 7
2.402184 0.083467774 0.041955583 8
2.4293504 0.081439264 -0.21266 5
2.4213433 0.080323592 -0.12696704 6
2.4223263 0.079510935 -0.042304631 7
2.3964648 0.074894048 0.041850869 8
2.4216542 0.072718903 -0.21196276 5
2.4256017 0.071991198 -0.12717639 6
2.4265745 0.07159505 -0.042374443 7
2.3887043 0.066722669 0.041711252 8
2.4298596 0.064477213 -0.21266 5
2.4138479 0.06363076 -0.12654836 6
2.4348056 0.063332781 -0.042514063 7
2.396919 0.058578916 0.041850869 8
2.4100616 0.055112507 -0.126339 6
2.4350119 0.054833855 -0.042514063 7
2.4051061 0.050379772 0.041990492 8
2.4182351 0.046432726 -0.1267577 6
2.4191935 0.046028771 -0.042234823 7
2.4092736 0.041633919 0.042060301 8
2.4183824 0.037990581 -0.1267577 6
2.4113483 0.037038211 -0.042095207 7
2.3974068 0.033057656 0.041850869 8
2.4304879 0.029271357 -0.12738572 6
2.4274595 0.028812332 -0.042374443 7
2.3975034 0.025107868 0.041850869 8
2.4145908 0.021493858 -0.12654836 6
2.4355364 0.021254057 -0.042514063 7
2.4055719 0.017213894 0.041990492 8
2.4106541 0.013463688 -0.126339 6
2.427597 0.012712109 -0.042374443 7
2.4076173 0.0088257613 0.042025398 8
2.4226701 0.0050733057 -0.12696704 6
2.4236264 0.004653486 -0.042304631 7
2.3916357 0.00083551032 0.041746158 8
2.4196284 -0.0038007463 -0.042234823 7
2.4275949 -0.013134681 -0.042374443 7
2.4315336 -0.021644088 -0.042444255 7
2.4354475 -0.029756084 -0.042514063 7
2.427331 -0.038131557 -0.042374443 7
2.4271829 -0.046604298 -0.042374443 7
2.4210081 -0.054940354 -0.042269729 7
