# .PCD v0.7 - Point Cloud Data file format
VERSION 0.7
FIELDS x y z intensity
SIZE 4 4 4 4
TYPE F F F F
COUNT 1 1 1 1
WIDTH 982
HEIGHT 1
VIEWPOINT 0 0 0 1 0 0 0
POINTS 982
DATA ascii
2.1348538 0.37604874 -0.26616266 4
2.114001 0.35679802 -0.2632378 4
2.130095 0.35263482 -0.34196579 3
2.1034217 0.34784296 -0.26177537 4
2.1234529 0.34430602 -0.34071434 3
2.1046231 0.34049797 -0.26177537 4
2.1070826 0.33410686 -0.33789849 3
2.1097202 0.33377028 -0.26226285 4
2.10238 0.32584155 -0.33695987 3
2.1147962 0.32701004 -0.26275033 4
2.1186895 0.32723346 -0.18755916 5
2.1015515 0.31820562 -0.33664703 3
2.1002223 0.3172535 -0.26080042 4
2.1119382 0.3186473 -0.1868619 5
2.0987413 0.3102895 -0.33602124 3
2.0934618 0.30876228 -0.25982547 4
2.103236 0.30945387 -0.18599035 5
2.0998642 0.30259562 -0.33602124 3
2.0945265 0.30145332 -0.25982547 4
2.1023314 0.30182767 -0.18581605 5
2.0891712 0.29361382 -0.33414406 3
2.0995491 0.29432508 -0.26031294 4
2.085614 0.29200047 -0.18424724 5
2.0862191 0.28614783 -0.33351833 3
2.09658 0.28682342 -0.25982547 4
2.0905685 0.2852577 -0.18459585 5
2.0832891 0.27834103 -0.33289257 3
2.0778913 0.27688065 -0.25738806 4
2.0875533 0.27779835 -0.18424724 5
2.0842006 0.27143049 -0.33289257 3
2.0827355 0.27049941 -0.25787556 4
2.0964139 0.27153286 -0.1849445 5
2.0976233 0.27131629 -0.11084756 6
2.0851815 0.26379016 -0.33289257 3
2.0876517 0.26336133 -0.25836304 4
2.0854881 0.26271865 -0.18389861 5
2.0966222 0.26337788 -0.1107429 6
2.0907354 0.25782141 -0.40947613 2
2.0742812 0.25542587 -0.33101538 3
2.084573 0.25595358 -0.25787556 4
2.0824373 0.25495353 -0.18355 5
2.101449 0.25690892 -0.11095224 6
2.0759845 0.24901576 -0.40642318 2
2.0712376 0.24771401 -0.33038962 3
2.089396 0.24914601 -0.25836304 4
2.0793142 0.2475758 -0.18320136 5
2.0805161 0.24698244 -0.10980085 6
2.0729408 0.2413151 -0.40565994 2
2.0642409 0.23957106 -0.32913816 3
2.0705335 0.23956896 -0.25592566 4
2.0801659 0.24031557 -0.18320136 5
2.0773973 0.239261 -0.10959151 6
2.0581636 0.23231551 -0.40260699 2
2.0729165 0.233248 -0.33038962 3
2.0674119 0.23189689 -0.25543818 4
2.0849521 0.23349692 -0.18355 5
2.0742502 0.23156433 -0.10938216 6
2.053107 0.22449002 -0.40146214 2
2.0737181 0.2260102 -0.33038962 3
2.0721557 0.22510809 -0.25592566 4
2.0659468 0.22406879 -0.18180689 5
2.0750458 0.22432287 -0.10938216 6
2.0875964 0.22494251 -0.036650054 7
2.0519257 0.21711484 -0.40108052 2
2.0666363 0.21794197 -0.32913816 3
2.0768771 0.21828897 -0.25641313 4
2.0587902 0.2160247 -0.18110962 5
2.0758162 0.21707869 -0.10938216 6
2.0824018 0.21703261 -0.03654534 7
2.0604837 0.21074948 -0.40260699 2
2.0595238 0.20992495 -0.3278867 3
2.0697267 0.21023601 -0.25543818 4
2.0674608 0.20964031 -0.18180689 5
2.0646381 0.20862706 -0.10875413 6
2.0930951 0.21076353 -0.036719862 7
2.0612068 0.20355619 -0.40260699 2
2.0523803 0.2019612 -0.32663518 3
2.0585942 0.2018472 -0.25397575 4
2.0642138 0.2020345 -0.18145825 5
2.0613785 0.2010306 -0.10854478 6
2.0838664 0.20248941 -0.03654534 7
2.0501781 0.19524269 -0.40031728 2
2.0648723 0.19591582 -0.32851243 3
2.0553336 0.19428596 -0.25348827 4
2.0688739 0.19520257 -0.18180689 5
2.0620677 0.19383328 -0.10854478 6
2.0646508 0.19334908 -0.036196291 7
2.046937 0.18772787 -0.39955404 2
2.0655437 0.18870631 -0.32851243 3
2.0639071 0.1878304 -0.2544632 4
2.0616057 0.1872582 -0.18110962 5
2.0667098 0.18699451 -0.10875413 6
2.0573463 0.18542334 -0.036056671 7
2.0436685 0.18023609 -0.39879084 2
2.0465117 0.17976697 -0.32538372 3
2.060595 0.18027832 -0.25397575 4
2.0543075 0.17936796 -0.1804124 5
2.0633705 0.1794326 -0.10854478 6
2.0619657 0.17858629 -0.036126483 7
2.0702138 0.176025 0.0362661 8
2.048198 0.17343201 -0.39955404 2
2.0392532 0.17195773 -0.32413223 3
2.0651679 0.17341802 -0.2544632 4
2.0549212 0.17219543 -0.1804124 5
2.052042 0.17123389 -0.10791675 6
2.0665622 0.17171822 -0.036196291 7
2.0508845 0.16717236 0.035917051 8
2.0239038 0.16461657 -0.46879801 1
2.0448771 0.16596422 -0.39879084 2
2.0437791 0.16515607 -0.32475799 3
2.0499313 0.16493402 -0.25251329 4
2.0594816 0.16533971 -0.18076101 5
2.0446637 0.16343281 -0.10749806 6
2.0671489 0.16450396 -0.036196291 7
2.0574367 0.16047938 0.036021769 8
2.0322373 0.15815701 -0.47059759 1
2.0376143 0.15821673 -0.39726433 2
2.044343 0.15802234 -0.32475799 3
2.0425777 0.15716772 -0.25153834 4
2.0520999 0.15754114 -0.18006375 5
2.0492048 0.15659842 -0.10770741 6
2.051759 0.1560733 -0.035917051 7
2.067955 0.15403877 0.036196291 8
2.030834 0.15091726 -0.47014773 1
2.0303228 0.15052301 -0.39573789 2
2.0448821 0.15088473 -0.32475799 3
2.0470734 0.15032803 -0.25202581 4
2.0486631 0.15008532 -0.17971513 5
2.0497389 0.14944485 -0.10770741 6
2.0483027 0.14862043 -0.035847243 7
2.0405548 0.14483662 0.035707623 8
2.0371799 0.14424075 -0.47149745 1
2.0347526 0.143712 -0.39650109 2
2.0296323 0.1426384 -0.32225505 3
2.0475857 0.14318094 -0.25202581 4
2.0412245 0.14237913 -0.1790179 5
2.0582178 0.14284158 -0.10812609 6
2.0567884 0.14202201 -0.035986863 7
2.0350626 0.13730948 0.035602912 8
2.0260048 0.13634315 -0.46879801 1
2.0313241 0.13634501 -0.39573789 2
2.0340598 0.13581546 -0.32288077 3
2.0599573 0.13682245 -0.25348827 4
2.0377331 0.13498913 -0.17866927 5
2.0347886 0.13408074 -0.10687003 6
2.057272 0.13484107 -0.035986863 7
2.0395205 0.13046068 0.035672721 8
2.0167446 0.12864941 -0.4665485 1
2.0317876 0.12925397 -0.39573789 2
2.0305786 0.12846446 -0.32225505 3
2.036648 0.12813571 -0.25056338 4
2.0421689 0.12812425 -0.1790179 5
2.0392311 0.12722635 -0.10707937 6
2.0537159 0.12776925 -0.035917051 7
2.0419378 0.12381712 0.035707623 8
2.0171602 0.1219623 -0.4665485 1
2.0204682 0.12145356 -0.39344814 2
2.0309932 0.12173148 -0.32225505 3
2.0291355 0.12090837 -0.24958843 4
2.0426037 0.1209954 -0.1790179 5
2.0276792 0.11975624 -0.10645135 6
2.042172 0.1198969 -0.035707623 7
2.048347 0.1170313 0.035812337 8
2.0195189 0.11503063 -0.46699843 1
2.0558622 0.11674077 0.10791675 9
2.0169396 0.11453058 -0.39268494 2
2.0353503 0.11486332 -0.32288077 3
2.033509 0.11404738 -0.25007591 4
2.0350564 0.11342062 -0.17832063 5
2.0360615 0.11312118 -0.10687003 6
2.0385847 0.11254666 -0.035637815 7
2.0347652 0.10913032 0.035568006 8
2.0238004 0.10818803 -0.46789822 1
2.0442908 0.10892658 0.10728873 9
2.0173459 0.10713684 -0.39268494 2
2.0199766 0.10657047 -0.32037783 3
2.0398419 0.10726057 -0.25080714 4
2.0314605 0.10610981 -0.17797202 5
2.0404515 0.10586432 -0.10707937 6
2.034971 0.10522486 -0.035568006 7
2.0251658 0.10117336 0.03539348 8
2.0047197 0.099801183 -0.4633992 1
2.0446763 0.10143262 0.10728873 9
2.0216293 0.10028931 -0.39344814 2
2.0124445 0.099129513 -0.31912637 3
2.0441866 0.099977851 -0.25129461 4
2.0318358 0.098661929 -0.17797202 5
2.0288393 0.09816248 -0.10645135 6
2.0433326 0.098147877 -0.035707623 7
2.0314991 0.094381481 0.035498194 8
2.0070026 0.092892371 -0.46384907 1
2.033047 0.093743213 0.10666069 9
2.0200222 0.092788398 -0.39306656 2
2.0167408 0.091933213 -0.3197521 3
2.030642 0.092210814 -0.24958843 4
2.0361483 0.091749661 -0.17832063 5
2.0212042 0.090368398 -0.10603265 6
2.0436625 0.091016121 -0.035707623 7
2.031801 0.087644674 0.035498194 8
2.0053525 0.086154111 -0.4633992 1
2.021374 0.086488031 0.10603265 9
2.0065734 0.085854761 -0.39039519 2
2.020967 0.085764892 -0.32037783 3
2.0289531 0.085393377 -0.24934469 4
2.0364416 0.084996484 -0.17832063 5
2.0214782 0.084018551 -0.10603265 6
2.0319655 0.083743967 -0.035498194 7
2.0380888 0.080789872 0.035602912 8
2.0173244 0.079614155 -0.46609858 1
2.0296466 0.079744712 0.10645135 9
2.0088365 0.078576915 -0.39077684 2
2.0212677 0.078355625 -0.32037783 3
2.0312226 0.078387477 -0.24958843 4
2.0247803 0.077430107 -0.17727478 5
2.0297558 0.076911852 -0.10645135 6
2.0282488 0.076499291 -0.035428386 7
2.0271206 0.073268391 -0.54352003 0
2.0263808 0.072887555 0.03539348 8
2.0098128 0.071941361 -0.46429899 1
2.0259206 0.072517939 0.10624201 9
2.0090985 0.071563751 -0.39077684 2
2.0349443 0.07212878 0.17814633 10
2.0096841 0.070883214 -0.31850061 3
2.0275288 0.070803069 -0.24910097 4
2.0170732 0.070086472 -0.17657752 5
2.0300121 0.069825672 -0.10645135 6
2.0285034 0.069419347 -0.035428386 7
2.0080559 0.065561049 -0.53834367 0
2.0126212 0.065710098 0.03514915 8
1.998354 0.064896114 -0.46159956 1
2.0341463 0.065703079 0.10666069 9
2.0132604 0.064675778 -0.39154008 2
2.0252266 0.064707354 0.17727478 10
1.9980618 0.063839421 -0.31662342 3
2.0237842 0.063953198 -0.24861349 4
2.0173056 0.063044608 -0.17657752 5
2.0102694 0.062472578 -0.10540463 6
2.0327311 0.062461387 -0.035498194 7
2.0140553 0.059073005 -0.53989661 0
2.0168357 0.058802273 0.035218958 8
1.9907768 0.057693824 -0.45979998 1
2.0143991 0.058026556 0.10561397 9
2.0115016 0.057943091 -0.39115849 2
2.0274215 0.058048531 0.17744908 10
2.0022216 0.056976344 -0.31724915 3
2.0101047 0.056499451 -0.24690731 4
2.0175133 0.056001976 -0.17657752 5
2.0144682 0.055565611 -0.10561397 6
2.0329368 0.055364911 -0.035498194 7
2.0046022 0.051442415 -0.53730839 0
2.0210266 0.051863901 0.035288766 8
1.992914 0.050794434 -0.46024984 1
2.0145893 0.050995063 0.10561397 9
1.9999244 0.050274603 -0.38886875 2
2.0276208 0.050616752 0.17744908 10
2.0063665 0.049735796 -0.31787488 3
2.0083053 0.049433149 -0.24666359 4
2.0216804 0.049056292 -0.17692617 5
2.0066714 0.047990318 -0.10519528 6
2.0171244 0.047889028 -0.035218958 7
1.9989755 0.044316705 -0.53575546 0
2.017205 0.044368625 0.035218958 8
2.0028281 0.043701746 -0.46249935 1
2.0067675 0.043787707 0.10519528 9
1.998125 0.04325119 -0.38848713 2
2.0158336 0.043281581 0.17640322 10
2.0065279 0.04273143 -0.31787488 3
2.0104575 0.042113066 -0.24690731 4
2.0098877 0.041750204 -0.17588028 5
2.0148144 0.041148987 -0.10561397 6
2.0212777 0.040928088 -0.035288766 7
1.9913917 0.037193868 -0.53368485 0
2.0113428 0.037566502 0.035114244 8
1.997117 0.036952142 -0.46114969 1
2.0188899 0.037002534 0.10582332 9
1.9982637 0.03627564 -0.38848713 2
2.0060122 0.036066093 0.17553167 10
1.9948081 0.035864651 -0.31599763 3
2.02051 0.035621278 -0.248126 4
2.0100212 0.034734558 -0.17588028 5
2.0149398 0.034467798 -0.10561397 6
2.0174096 0.03380568 -0.035218958 7
1.9934359 0.030619092 -0.53420252 0
2.0014644 0.030393027 0.034939718 8
1.9874913 0.029834846 -0.45890018 1
2.0170097 0.029924903 0.10571864 9
2.0022993 0.029706655 -0.3892504 2
2.000144 0.029325534 0.17500873 10
1.9870206 0.028787216 -0.31474617 3
2.0245869 0.02897709 0.24861349 11
2.0166523 0.028511502 -0.24763852 4
2.0061409 0.028013662 -0.17553167 5
2.0030651 0.027270466 -0.10498594 6
2.0215142 0.02681591 -0.035288766 7
1.9993258 0.023730671 -0.53575546 0
2.0055575 0.023453616 0.035009526 8
1.9914805 0.02294139 -0.45979998 1
2.0031219 0.022725862 0.10498594 9
2.0063169 0.02276211 -0.39001361 2
2.0101957 0.022455247 0.17588028 10
1.9831585 0.021807075 -0.31412044 3
1.9988711 0.021630963 0.24544489 11
2.0127695 0.021430053 -0.24715105 4
2.010211 0.021051945 -0.17588028 5
1.9991539 0.020238284 -0.10477659 6
2.0175965 0.019720683 -0.035218958 7
2.0032599 0.016783413 -0.53679073 0
2.0096264 0.016485041 0.035079334 8
1.9895996 0.01597446 -0.45935005 1
2.0071836 0.015765319 0.10519528 9
1.9867523 0.015604843 -0.38619745 2
2.0062773 0.015407083 0.17553167 10
1.9911237 0.014944146 -0.3153719 3
2.0128295 0.014755754 0.24715105 11
2.0009217 0.014318281 -0.2456886 4
2.0142567 0.014062154 -0.17622891 5
2.0032067 0.013285769 -0.10498594 6
2.0096543 0.012628 -0.035079334 7
1.9878517 0.009714568 -0.53264964 0
2.0096717 0.0094714183 0.035079334 8
1.991592 0.0090376763 -0.45979998 1
1.9992373 0.0087234518 0.10477659 9
1.9867946 0.0086691594 -0.38619745 2
1.9943644 0.0083550727 0.17448579 10
1.9951143 0.0080090649 -0.31599763 3
2.0148542 0.0077366647 0.2473948 11
2.0128701 0.0073787104 -0.24715105 4
1.9983544 0.006975784 -0.17483442 5
2.0072353 0.00630712 -0.10519528 6
2.0016873 0.0055900472 -0.034939718 7
1.982078 0.0027679363 -0.5310967 0
1.9936949 0.0024362141 0.034800097 8
1.9877141 0.0020810568 -0.45890018 1
2.0092421 0.0017538959 0.10529996 9
1.9868128 0.001734317 -0.38619745 2
1.9983661 0.0013956423 0.17483442 10
1.9911796 0.0010421682 -0.3153719 3
2.0148687 0.00070388801 0.2473948 11
2.0049431 0.00035051297 -0.24617608 4
1.9903972 -0 -0.17413718 5
2.0032506 -0.00069926644 -0.10498594 6
2.0056942 -0.0014002388 -0.035009526 7
1.9840074 -0.004155301 -0.53161436 0
1.9916916 -0.0045190123 0.034765195 8
1.9740679 -0.0048235678 -0.45575082 1
2.0092359 -0.0052601788 0.10529996 9
1.9946597 -0.0052220179 -0.38772389 2
1.9963666 -0.0055749211 0.17466012 10
1.979319 -0.0058727749 -0.31349471 3
2.0069184 -0.0063049411 0.24641983 11
2.0128727 -0.006674963 -0.24715105 4
1.9943697 -0.0069616917 -0.17448579 5
1.9912527 -0.0076458985 -0.10435791 6
2.005677 -0.0084014097 -0.035009526 7
1.9878445 -0.011102334 -0.53264964 0
1.983665 -0.011425216 0.034625575 8
1.9720905 -0.011702758 -0.45530096 1
1.9972239 -0.011851904 0.10467192 9
1.9946293 -0.012184648 -0.38772389 2
1.9943426 -0.012530988 0.17448579 10
1.9792864 -0.012781852 -0.31349471 3
1.9949739 -0.013231362 0.24495739 11
1.9969591 -0.013244528 -0.24520114 4
1.9903487 -0.01389548 -0.17413718 5
1.9872195 -0.01456734 -0.10414857 6
2.0176361 -0.015142472 -0.035218958 7
1.9839331 -0.017659811 -0.53161436 0
1.9916147 -0.018075816 0.034765195 8
1.9778868 -0.018296458 -0.45665067 1
1.989185 -0.018400971 0.10425323 9
1.9827988 -0.018687991 -0.38543418 2
1.9962823 -0.019163525 0.17466012 10
1.9871342 -0.019422557 -0.31474617 3
1.9988892 -0.01988636 0.24544489 11
1.9969041 -0.01986661 -0.24520114 4
1.9831767 -0.020076204 0.31412044 12
2.0022452 -0.020618733 -0.17518303 5
1.9911544 -0.021199645 -0.10435791 6
1.9935797 -0.02157345 -0.034800097 7
1.9780686 -0.024167869 -0.53006142 0
1.9955429 -0.024729706 0.034835003 8
1.9836608 -0.024928728 -0.45800033 1
1.9911057 -0.025369857 0.10435791 9
1.9787997 -0.025213059 -0.38467094 2
1.98027 -0.025577473 0.17326561 10
1.9831085 -0.025960313 -0.31412044 3
2.0027821 -0.026567465 0.24593236 11
1.9968226 -0.026836986 -0.24520114 4
1.9949455 -0.027160004 0.31599763 12
1.9862283 -0.027041323 -0.17378855 5
1.9950675 -0.027858205 -0.10456725 6
1.9854943 -0.028417738 -0.034660477 7
1.9663824 -0.0308904 -0.5269556 0
1.97545 -0.031377718 0.034485955 8
1.9718709 -0.031665109 -0.45530096 1
1.9949991 -0.032384794 0.10456725 9
1.9747739 -0.032056481 -0.38390771 2
1.9761845 -0.032424379 0.17291699 10
1.9751052 -0.032751486 -0.31286895 3
1.992753 -0.03339202 0.24471366 11
2.0006862 -0.033874243 -0.2456886 4
1.9869385 -0.033988357 0.31474617 12
1.9721771 -0.033735849 -0.17256837 5
1.9909641 -0.034752406 -0.10435791 6
1.9893819 -0.035419427 -0.034730289 7
1.9739887 -0.037902519 -0.52902615 0
1.9753284 -0.03827313 0.034485955 8
1.9678515 -0.038471848 -0.45440111 1
1.9988675 -0.039427217 0.10477659 9
1.9825013 -0.039104398 -0.38543418 2
1.9780512 -0.039361991 0.17309129 10
1.9710289 -0.039566401 -0.31224322 3
1.9846855 -0.040187072 0.2437387 11
1.9965866 -0.04077667 -0.24520114 4
1.9907576 -0.041005217 0.3153719 12
1.9820071 -0.04082498 -0.17343993 5
1.9868369 -0.041618299 -0.10414857 6
1.9892461 -0.042363454 -0.034730289 7
1.9757756 -0.044836618 -0.52954376 0
1.9711845 -0.04507665 0.034416147 8
1.9560161 -0.045071345 -0.45170173 1
1.9807472 -0.045987107 0.10383455 9
1.9784273 -0.045933243 -0.38467094 2
1.9798936 -0.046313025 0.17326561 10
1.9708788 -0.046446335 -0.31224322 3
1.9666723 -0.046690643 0.24154507 11
1.9805558 -0.04736612 -0.24325122 4
1.9945518 -0.048049156 0.31599763 12
1.9818527 -0.047743231 -0.17343993 5
1.9746996 -0.048260618 -0.10352053 6
1.9930842 -0.049406067 -0.034800097 7
1.973676 -0.051682524 -0.52902615 0
1.9790112 -0.05216787 0.034555767 8
1.9597429 -0.052002225 -0.45260152 1
1.9805747 -0.052900922 0.10383455 9
1.9664797 -0.052524444 -0.38238126 2
1.9797198 -0.053223867 0.17326561 10
1.9707047 -0.053325698 -0.31224322 3
1.9803879 -0.053933617 0.24325122 11
1.9843471 -0.054388035 -0.2437387 4
1.9785751 -0.054575421 0.31349471 12
1.9876487 -0.054825701 -0.17396286 5
1.9785122 -0.055264845 -0.10372987 6
1.9809061 -0.056023732 -0.034590669 7
1.9618974 -0.058227755 -0.52592033 0
1.9848133 -0.059254605 0.034660477 8
1.9692887 -0.059135143 -0.45485103 1
1.9743888 -0.05963321 0.10352053 9
1.9662843 -0.059388425 -0.38238126 2
1.9775305 -0.060073558 0.17309129 10
1.9705065 -0.06020442 -0.31224322 3
1.9841558 -0.060968067 0.2437387 11
1.9841452 -0.061314367 -0.2437387 4
1.9724493 -0.061297528 0.31255612 12
1.967531 -0.061144684 -0.17221974 5
1.9783071 -0.062170804 -0.10372987 6
1.9806985 -0.062938042 -0.034590669 7
1.9597516 -0.065011658 -0.52540272 0
1.9686058 -0.065649346 0.034381241 8
1.971018 -0.066074178 -0.45530096 1
1.9841493 -0.066861071 0.10404389 9
1.9699893 -0.066383913 -0.3831445 2
1.9633702 -0.06650392 0.17187113 10
1.9663359 -0.066947967 -0.31161749 3
1.9779791 -0.067690007 0.2430075 11
1.987887 -0.068376437 -0.2442262 4
1.978146 -0.068387039 0.31349471 12
1.9633232 -0.067874603 -0.17187113 5
1.9860623 -0.069354817 -0.10414857 6
1.9844637 -0.069992565 -0.034660477 7
1.9575821 -0.07178127 -0.52488506 0
1.9623696 -0.072299786 0.034276526 8
1.9571433 -0.072449282 -0.4521516 1
1.9878956 -0.073935099 0.10425323 9
1.9697455 -0.073260054 -0.3831445 2
1.965117 -0.073431358 0.17204544 10
1.9621421 -0.07366313 -0.31099173 3
1.9717797 -0.07436958 0.24227627 11
1.9916036 -0.075465366 -0.24471366 4
1.985791 -0.075592205 0.31474617 12
1.9730291 -0.075106412 -0.17274268 5
1.9698417 -0.075673684 -0.10331119 6
1.9842073 -0.076919205 -0.034660477 7
1.9631106 -0.078846663 -0.526438 0
1.9621052 -0.079149291 0.034276526 8
1.9510373 -0.079043895 -0.45080194 1
1.9736561 -0.080305308 0.10352053 9
1.9655546 -0.079975665 -0.38238126 2
1.9728117 -0.080615848 0.17274268 10
1.9618731 -0.080511838 -0.31099173 3
1.9655579 -0.081006691 0.24154507 11
1.9754608 -0.08176019 -0.24276376 4
1.9776204 -0.082195327 0.31349471 12
1.9767362 -0.08215858 -0.17309129 5
1.9695656 -0.082549252 -0.10331119 6
1.9799309 -0.083676033 -0.034590669 7
1.9628234 -0.085698716 -0.526438 0
1.9718059 -0.086435705 0.034451049 8
1.9585367 -0.086196534 -0.45260152 1
1.9633873 -0.086753346 0.10299717 9
1.9613405 -0.086662918 -0.38161799 2
1.9764991 -0.087678336 0.17309129 10
1.9615802 -0.087359563 -0.31099173 3
1.9712125 -0.088133276 0.24227627 11
1.9672309 -0.088299297 -0.24178879 4
1.965481 -0.088564485 0.31161749 12
1.9724567 -0.08887881 -0.17274268 5
1.965275 -0.089242615 -0.10310185 6
1.9716363 -0.090221144 -0.034451049 7
1.9470745 -0.091821708 -0.52229685 0
1.9674972 -0.093128979 0.034381241 8
1.9484912 -0.092570193 -0.45035201 1
1.9690574 -0.09389171 0.10331119 9
1.9531822 -0.093134716 -0.38009155 2
1.9702106 -0.094291344 0.17256837 10
1.9652095 -0.094395787 -0.31161749 3
1.9629618 -0.094631217 0.24130133 11
1.9788073 -0.095741272 -0.24325122 4
1.9572675 -0.095041513 0.310366 12
1.956214 -0.09499035 -0.17134818 5
1.9689412 -0.096297294 -0.10331119 6
1.9713093 -0.09710288 -0.034451049 7
1.9467421 -0.098617703 -0.52229685 0
1.9591718 -0.099590175 0.034241624 8
1.9578873 -0.099867485 -0.45260152 1
1.9687178 -0.10076442 0.10331119 9
1.9587272 -0.10025308 -0.3812364 2
1.9579308 -0.10055494 0.1715225 10
1.9569769 -0.10084842 -0.310366 3
1.9705491 -0.10189267 0.24227627 11
1.9784611 -0.10264801 -0.24325122 4
1.9588966 -0.10197577 0.31067887 12
1.9558705 -0.10181823 -0.17134818 5
1.9725821 -0.10337865 -0.10352053 6
1.9709584 -0.10398345 -0.034451049 7
1.9502441 -0.10562143 -0.52333212 0
1.9548187 -0.10621137 0.034171812 8
1.9536351 -0.10648905 -0.45170173 1
1.9703482 -0.10774497 0.10341586 9
1.9603256 -0.1071969 -0.38161799 2
1.9575678 -0.10738878 0.1715225 10
1.9526683 -0.10746184 -0.30974028 3
1.9582891 -0.108114 0.24081384 11
1.9741266 -0.10933396 -0.24276376 4
1.9703629 -0.10947046 0.31255612 12
1.9614712 -0.10897645 -0.17187113 5
1.9602444 -0.10959467 -0.1028925 6
1.9745764 -0.11108739 -0.034520861 7
1.9537207 -0.11265082 -0.52436739 0
1.9544359 -0.11303432 0.034171812 8
1.9415786 -0.11263072 -0.4490023 1
1.9599907 -0.11404204 0.1028925 9
1.9560195 -0.11381098 -0.38085476 2
1.9671261 -0.1148017 0.17239405 10
1.9562252 -0.11450812 -0.310366 3
1.9499731 -0.11448366 0.23983888 11
1.9658064 -0.11575752 -0.24178879 4
1.9739125 -0.11658056 0.31318185 12
1.9571009 -0.11558765 -0.1715225 5
1.9558625 -0.11619964 -0.10268316 6
1.9741766 -0.11797927 -0.034520861 7
1.9513875 -0.11935198 -0.52384979 0
1.9580215 -0.12010075 0.034241624 8
1.9450637 -0.1196467 -0.44990209 1
1.9555939 -0.12063705 0.10268316 9
1.9477723 -0.12015455 -0.37932828 2
1.9667134 -0.12166756 0.17239405 10
1.9558136 -0.12133592 -0.310366 3
1.9594679 -0.12190595 0.24105757 11
1.9515216 -0.12175351 -0.24008264 4
1.9537784 -0.12223662 0.31005314 12
1.9686166 -0.12316497 -0.17256837 5
1.9554451 -0.12302615 -0.10268316 6
1.9617785 -0.12411215 -0.034311432 7
1.9413198 -0.12553951 -0.52126157 0
1.9595858 -0.12706417 0.034276526 8
1.946579 -0.12656195 -0.45035201 1
1.9551609 -0.12746261 0.10268316 9
1.9434229 -0.12669738 -0.37856507 2
1.9503716 -0.12749225 0.17099957 10
1.9553782 -0.12816226 -0.310366 3
1.9550688 -0.12848467 0.2405701 11
1.9649503 -0.12947851 -0.24178879 4
1.9474266 -0.12866516 0.30911455 12
1.948294 -0.12872247 -0.17082524 5
1.9629751 -0.13038068 -0.10310185 6
1.9533525 -0.13042639 -0.034171812 7
1.9331602 -0.13178964 -0.51919103 0
1.9491551 -0.13322183 0.034102004 8
1.9461253 -0.133356 -0.45035201 1
1.9586891 -0.13456039 0.1028925 9
1.9429688 -0.13348043 -0.37856507 2
1.9459393 -0.13402574 0.17065094 10
1.9470361 -0.13444272 -0.30911455 3
1.9625298 -0.1358567 0.24154507 11
1.9625061 -0.13619924 -0.24154507 4
1.9509069 -0.13573639 0.30974028 12
1.9438578 -0.13524593 -0.17047663 5
1.9625081 -0.13723193 -0.10310185 6
1.9568748 -0.13752447 -0.034241624 7
1.9365422 -0.13881306 -0.5202263 0
1.9406999 -0.13945156 0.033962384 8
1.9378731 -0.13958842 -0.4485524 1
1.9661757 -0.14197205 0.10331119 9
1.9424911 -0.14026184 -0.37856507 2
1.949434 -0.14110519 0.17099957 10
1.9386742 -0.1406665 -0.30786306 3
1.9501646 -0.14184237 0.24008264 11
1.9659783 -0.14333752 -0.24203253 4
1.9513221 -0.14261132 -0.17117387 5
1.9460819 -0.14291131 -0.10226447 6
1.9603713 -0.14464869 -0.034311432 7
1.9398987 -0.14586172 -0.52126157 0
1.9461836 -0.14667587 0.034067098 8
1.927658 -0.14561802 -0.44630289 1
1.9477441 -0.14747727 0.10236914 9
1.9459047 -0.147338 -0.37932828 2
1.9529029 -0.14821066 0.17134818 10
1.9440805 -0.14788236 -0.30880168 3
1.9437194 -0.14819613 0.23935141 11
1.9516108 -0.1491404 -0.24032637 4
1.9428662 -0.14881323 -0.17047663 5
1.9535366 -0.15031646 -0.10268316 6
1.963842 -0.15179899 -0.034381241 7
1.9470813 -0.15323864 -0.52333212 0
1.9496466 -0.15378289 0.034136906 8
1.9310232 -0.15265307 -0.44720268 1
1.9452266 -0.15411751 0.10226447 9
1.933636 -0.15319921 -0.3770386 2
1.9484015 -0.15471125 0.17099957 10
1.9435524 -0.15466757 -0.30880168 3
1.9471478 -0.15529571 0.23983888 11
1.9471208 -0.15563554 -0.23983888 4
1.950279 -0.15623055 -0.17117387 5
1.9450368 -0.15649395 -0.10226447 6
1.951341 -0.15768674 -0.034171812 7
1.9388332 -0.15940112 -0.52126157 0
1.949098 -0.1605875 0.034136906 8
1.9363052 -0.15987372 -0.4485524 1
1.9447048 -0.16056725 0.10226447 9
1.9330895 -0.15994793 -0.3770386 2
1.9438784 -0.16118222 0.17065094 10
1.9469378 -0.16177805 -0.30942741 3
1.9505504 -0.16242103 0.24032637 11
1.9485439 -0.1625964 -0.24008264 4
1.937809 -0.1620412 -0.17012802 5
1.9484591 -0.16361667 -0.10247381 6
1.9468222 -0.1638214 -0.034102004 7
1.934608 -0.16585441 0.033892576 8
1.9377059 -0.16646066 -0.4490023 1
1.9481121 -0.16769716 0.10247381 9
1.9344754 -0.16686341 -0.37742022 2
1.9353639 -0.16728036 0.16995369 10
1.9306465 -0.16687262 -0.30692446 3
1.9519788 -0.16905969 0.2405701 11
1.947994 -0.16905712 -0.24008264 4
1.9332618 -0.16845852 -0.16977938 5
1.9518853 -0.17042454 -0.10268316 6
1.9502225 -0.17096533 -0.034171812 7
1.9340173 -0.17260644 0.033892576 8
1.9293491 -0.17252922 -0.44720268 1
1.9495041 -0.17467456 0.10257848 9
1.928045 -0.17275183 -0.37627536 2
1.9407519 -0.17423181 0.17047663 10
1.9300523 -0.17361082 -0.30692446 3
1.9414914 -0.1749814 0.23935141 11
1.951346 -0.17621291 -0.2405701 4
1.9406298 -0.17558667 -0.17047663 5
1.9433222 -0.17651419 -0.10226447 6
1.9575795 -0.17849819 -0.034311432 7
1.9353942 -0.17954108 0.033927478 8
1.9170928 -0.1781808 -0.44450328 1
1.934962 -0.18018226 0.10184578 9
1.9274303 -0.17948091 -0.37627536 2
1.9421157 -0.18119031 0.17065094 10
1.9314011 -0.18053073 -0.30723733 3
1.9349394 -0.18120211 0.23862019 11
1.9408369 -0.18209612 -0.23935141 4
1.9400051 -0.18235964 -0.17047663 5
1.9347404 -0.18254612 -0.10184578 6
1.9609261 -0.18570741 -0.034381241 7
1.9387366 -0.1866791 0.033997286 8
1.9203386 -0.18524586 -0.4454031 1
1.9343213 -0.18693545 0.10184578 9
1.9189755 -0.18545242 -0.37474889 2
1.9414713 -0.18796845 0.17065094 10
1.9287931 -0.1870808 -0.30692446 3
1.9342951 -0.1879552 0.23862019 11
1.9401896 -0.1888698 -0.23935141 4
1.9393567 -0.18913043 -0.17047663 5
1.9420426 -0.19007672 -0.10226447 6
1.9483252 -0.19137827 -0.034171812 7
1.9400629 -0.19364402 0.034032192 8
1.9216194 -0.19214185 -0.44585299 1
1.9336571 -0.19368634 0.10184578 9
1.9105026 -0.19136705 -0.37322241 2
1.9289087 -0.1935508 0.16960508 10
1.9418867 -0.19519533 -0.30911455 3
1.9356023 -0.19490489 0.23886393 11
1.9355682 -0.19524272 -0.23886393 4
1.93472 -0.19549827 -0.17012802 5
1.9453412 -0.19725753 -0.10247381 6
1.9357088 -0.19696346 -0.033962384 7
1.9294297 -0.19938716 0.03385767 8
1.9267521 -0.19945033 -0.44720268 1
1.9349557 -0.20064087 0.10195045 9
1.917634 -0.19884475 -0.37474889 2
1.9262397 -0.20007689 0.16943076 10
1.92744 -0.20054165 -0.30692446 3
1.9408334 -0.20227756 0.23959514 11
1.9368494 -0.20220406 -0.23910768 4
1.9260995 -0.20142162 -0.16943076 5
1.9446409 -0.20404683 -0.10247381 6
1.9389868 -0.20413788 -0.034032192 7
1.9167917 -0.20484594 0.033648241 8
1.9163557 -0.20513763 -0.44495317 1
1.9382154 -0.20781977 0.1021598 9
1.9266886 -0.20658384 -0.37665698 2
1.9294915 -0.20722501 0.16977938 10
1.9267284 -0.20726842 -0.30692446 3
1.9322207 -0.20820044 0.23862019 11
1.9420525 -0.20960271 -0.23983888 4
1.9293463 -0.20857202 -0.16977938 5
1.9280319 -0.20911083 -0.10163644 6
1.9382625 -0.21090497 -0.034032192 7
1.9279908 -0.21285214 0.03385767 8
1.8962587 -0.2096839 -0.44045416 1
1.9275526 -0.21348484 0.10163644 9
1.9161991 -0.21222739 -0.37474889 2
1.934697 -0.21461795 0.17030232 10
1.9240296 -0.21377453 -0.30661157 3
1.9216176 -0.21384609 0.2374015 11
1.9274991 -0.21484117 -0.23813272 4
1.938507 -0.2164107 -0.17065094 5
1.9233205 -0.21539505 -0.10142709 6
1.9454632 -0.21856248 -0.034171812 7
1.9292228 -0.21980718 0.033892576 8
1.9228269 -0.21975838 0.10142709 9
1.9076444 -0.21802318 -0.37322241 2
1.9339361 -0.22137 0.17030232 10
1.9252344 -0.22071438 -0.30692446 3
1.9287481 -0.22145824 0.23837645 11
1.9247652 -0.22134133 -0.23788899 4
1.9318018 -0.22249211 -0.17012802 5
1.9285091 -0.22279502 -0.10174111 6
1.9327701 -0.22397096 -0.033962384 7
1.9264578 -0.22630677 0.03385767 8
1.9260151 -0.22693639 0.10163644 9
1.9029722 -0.22422132 -0.3724592 2
1.9153436 -0.22601795 0.16873352 10
1.9244522 -0.22743335 -0.30692446 3
1.925992 -0.22795618 0.23813272 11
1.9279234 -0.22852597 -0.23837645 4
1.9191424 -0.22782478 -0.16908213 5
1.9336693 -0.23023383 -0.10205512 6
1.9260197 -0.23000489 -0.03385767 7
1.9157299 -0.23182878 0.033683144 8
1.9291767 -0.23413932 0.10184578 9
1.9099737 -0.23180871 -0.37398565 2
1.9145432 -0.23270237 0.16873352 10
1.9177637 -0.2334335 -0.30598584 3
1.9251845 -0.23467773 0.23813272 11
1.927114 -0.23525429 -0.23837645 4
1.9143801 -0.2340389 -0.16873352 5
1.9348365 -0.23722526 -0.1021598 6
1.9271898 -0.2369706 -0.033892576 7
1.9089561 -0.23777303 0.033578429 8
1.9303293 -0.24111953 0.10195045 9
1.9013605 -0.237501 -0.3724592 2
1.915696 -0.23963122 0.16890782 10
1.9090971 -0.23914419 -0.30473438 3
1.9341596 -0.24296942 -0.23935141 4
1.9155283 -0.24096861 -0.16890782 5
1.9260703 -0.24297777 -0.10174111 6
1.9283348 -0.24394728 -0.033927478 7
1.9140648 -0.24519734 0.033683144 8
1.9215521 -0.2468383 0.10153177 9
1.9083089 -0.2451371 -0.37398565 2
1.914848 -0.24631682 0.16890782 10
1.9121691 -0.24631146 -0.30536011 3
1.9136124 -0.24717647 -0.23691402 4
1.9166514 -0.24790913 -0.16908213 5
1.9133264 -0.24815814 -0.10111307 6
1.9254886 -0.25041902 -0.033892576 7
1.9211277 -0.25292125 0.033822764 8
1.9068182 -0.25171456 0.10079906 9
1.9035487 -0.25128296 -0.37322241 2
1.9258277 -0.25456595 0.16995369 10
1.9191308 -0.25402153 -0.30661157 3
1.9107701 -0.25359356 -0.23667029 4
1.9197246 -0.25512293 -0.16943076 5
1.9203675 -0.25589061 -0.10153177 6
1.9166744 -0.25607944 -0.033752955 7
1.9241964 -0.26016158 0.033892576 8
1.9178029 -0.25997883 0.10142709 9
1.9007148 -0.25766233 -0.37284079 2
1.9111074 -0.25941089 0.16873352 10
1.9182323 -0.26071894 -0.30661157 3
1.9197077 -0.26160201 -0.23788899 4
1.9109259 -0.26074502 -0.16873352 5
1.9155051 -0.26205096 -0.10132242 6
1.9157687 -0.26276833 -0.033752955 7
1.9094114 -0.26495272 0.033648241 8
1.9129273 -0.26612121 0.10121775 9
1.9173043 -0.26673013 -0.37627536 2
1.9042702 -0.26525566 0.16821058 10
1.9055719 -0.26577604 -0.30473438 3
1.9207487 -0.26857632 -0.23813272 4
1.8981652 -0.26575628 -0.16768765 5
1.9185344 -0.26929092 -0.10153177 6
1.9227607 -0.27056864 -0.033892576 7
1.9025358 -0.27077091 0.033543523 8
1.9198958 -0.27392536 0.10163644 9
1.9131945 -0.27331001 0.16908213 10
1.9046326 -0.2724261 -0.30473438 3
1.9158695 -0.27471584 -0.23764524 4
1.9011703 -0.27294675 -0.16803627 5
1.9057213 -0.27427912 -0.10090373 6
1.9257629 -0.27784976 -0.033962384 7
1.8996003 -0.27712169 0.033508621 8
1.9050941 -0.27860233 0.10090373 9
1.9102576 -0.27969798 0.16890782 10
1.9036701 -0.27907285 -0.30473438 3
1.9129349 -0.28111318 -0.2374015 4
1.9080907 -0.28074151 -0.16873352 5
1.9047523 -0.28092963 -0.10090373 6
1.9287376 -0.28515518 -0.034032192 7
1.9104878 -0.28552428 0.03371805 8
1.9080603 -0.28584245 0.10111307 9
1.9092695 -0.28636432 0.16890782 10
1.9104981 -0.28688958 -0.30598584 3
1.9040902 -0.28660697 -0.23642655 4
1.907099 -0.28740028 -0.16873352 5
1.9037601 -0.28757679 -0.10090373 6
1.909936 -0.28919166 -0.03371805 7
1.9134328 -0.29279634 0.033787858 8
1.907051 -0.29250112 0.10111307 9
1.8984116 -0.29151517 0.16803627 10
1.9094852 -0.29355672 -0.30598584 3
1.9030781 -0.29325175 -0.23642655 4
1.8982078 -0.29284042 -0.16803627 5
1.9106399 -0.29544124 -0.10132242 6
1.9069388 -0.29555053 -0.033683144 7
1.8965942 -0.29699871 0.033508621 8
1.9060183 -0.29915619 0.10111307 9
1.8914779 -0.29721224 0.16751333 10
1.8967407 -0.29837844 -0.30410865 3
1.9079254 -0.30082047 -0.23715776 4
1.897174 -0.29946467 -0.16803627 5
1.9095969 -0.30210882 -0.10132242 6
1.9078705 -0.30251837 -0.03371805 7
1.8975204 -0.3039335 0.033543523 8
1.9128505 -0.30707389 0.10153177 9
1.8982974 -0.30507752 0.16821058 10
1.8937372 -0.30468369 -0.30379578 3
1.9127431 -0.30842656 -0.23788899 4
1.8882495 -0.30481517 -0.16733903 5
1.896701 -0.30685884 -0.1006944 6
1.9107509 -0.30981636 -0.033787858 7
1.8944745 -0.3102321 0.033508621 8
1.8999417 -0.31180838 0.10090373 9
1.9011532 -0.31234801 0.16855921 10
1.8940269 -0.31219575 -0.23569533 4
1.8989688 -0.31335077 -0.16838489 5
1.8956183 -0.31347767 -0.1006944 6
1.9136033 -0.31713811 -0.03385767 7
1.8973247 -0.31750324 0.033578429 8
1.8929324 -0.31744751 0.10058971 9
1.9000512 -0.31898236 0.16855921 10
1.8948832 -0.31913492 -0.23593907 4
1.893934 -0.31931505 -0.16803627 5
1.8945127 -0.32009274 -0.1006944 6
1.9026264 -0.32214671 -0.033683144 7
1.900147 -0.32479808 0.033648241 8
1.8937814 -0.32439038 0.1006944 9
1.8910713 -0.32426593 0.16786195 10
1.8878884 -0.32473782 -0.23520786 4
1.888881 -0.32524797 -0.16768765 5
1.9012562 -0.32806227 -0.10111307 6
1.8955791 -0.32776406 -0.033578429 7
1.8871821 -0.329366 0.033438813 8
1.8985397 -0.33203116 0.10100841 9
1.8965193 -0.33304253 -0.23642655 4
1.879885 -0.33045956 -0.1669904 5
1.9000996 -0.33469686 -0.10111307 6
1.900331 -0.33542162 -0.033683144 7
1.886021 -0.33595148 0.033438813 8
1.8954029 -0.33830535 0.10090373 9
1.8894833 -0.33861005 -0.23569533 4
1.8826421 -0.3377232 -0.16733903 5
1.8871253 -0.33920735 -0.10048504 6
1.9030848 -0.3427619 -0.033752955 7
1.8828692 -0.34217533 0.033403907 8
1.8843858 -0.34313047 0.10038038 9
1.8843843 -0.34448954 -0.23520786 4
1.8853716 -0.34501007 -0.16768765 5
1.8820006 -0.34507218 -0.1002757 6
1.9018767 -0.34940282 -0.033752955 7
1.8895283 -0.35020337 0.033543523 8
1.8812128 -0.34934142 0.1002757 9
1.8812189 -0.35070136 -0.23496412 4
1.8880727 -0.35232008 -0.16803627 5
1.884711 -0.35237363 -0.10048504 6
1.8888525 -0.35383031 -0.033543523 7
1.8863293 -0.35642564 0.033508621 8
1.8819443 -0.35627747 0.10038038 9
1.8731303 -0.35630235 -0.16681609 5
1.8834696 -0.35895038 -0.10048504 6
1.8954625 -0.3619217 -0.033683144 7
1.8811464 -0.36225167 0.033438813 8
1.8885336 -0.36435795 0.10079906 9
1.8718752 -0.36283863 -0.16681609 5
1.8939689 -0.36780721 -0.10111307 6
1.890262 -0.36777213 -0.033613335 7
1.8759458 -0.3680459 0.033369001 8
1.8892101 -0.37133312 0.10090373 9
1.8803706 -0.37130034 -0.16768765 5
1.8730806 -0.3705402 -0.10006636 6
1.8889668 -0.3743681 -0.033613335 7
1.8785716 -0.37537566 0.033438813 8
1.8781103 -0.37596527 0.10038038 9
1.8810163 -0.37825459 -0.16786195 5
1.8756917 -0.37786508 -0.1002757 6
1.8954891 -0.38254192 -0.033752955 7
1.8850881 -0.38352549 0.033578429 8
1.8689584 -0.3809233 0.099961683 9
1.8777326 -0.38441864 -0.16768765 5
1.8743613 -0.38441023 -0.1002757 6
1.8823895 -0.38674146 -0.033543523 7
1.8817798 -0.38969785 0.033543523 8
1.8754398 -0.38906765 0.10038038 9
1.8685774 -0.38934514 -0.1669904 5
1.8769182 -0.39176679 -0.10048504 6
1.8731986 -0.39167279 -0.033403907 7
1.8725811 -0.3946147 0.033403907 8
1.8760245 -0.39602435 0.10048504 9
1.8613597 -0.39462566 -0.16646746 5
1.8872613 -0.40080553 -0.10111307 6
1.8835557 -0.4007057 -0.033613335 7
1.8614159 -0.39905298 0.033229381 8
1.8804889 -0.40382853 0.10079906 9
1.8794469 -0.40532085 -0.16821058 5
1.8702329 -0.40401703 -0.1002757 6
1.8821455 -0.40727812 -0.033613335 7
1.8717344 -0.40810406 0.033438813 8
1.8634577 -0.40698093 0.099961683 9
1.8610083 -0.40882871 -0.099857017 6
1.8846182 -0.41470501 -0.033683144 7
1.874203 -0.41550079 0.033508621 8
1.8639754 -0.41391608 0.10006636 9
1.8634684 -0.41619304 -0.10006636 6
1.8675474 -0.41778854 -0.033403907 7
1.8766428 -0.42291972 0.033578429 8
1.8736905 -0.42534813 -0.1006944 6
1.8660777 -0.42430493 -0.033403907 7
1.8712565 -0.42857495 0.033508621 8
1.868302 -0.43098801 -0.10048504 6
1.868482 -0.43171653 -0.033473715 7
1.8541679 -0.43147838 0.033229381 8
1.8551188 -0.43477258 -0.099857017 6
1.8670402 -0.43791029 -0.033473715 7
1.8585653 -0.43900374 0.033334095 8
1.8497807 -0.43999764 -0.099647671 6
1.8693906 -0.44535163 -0.033543523 7
1.8609105 -0.44642162 0.033403907 8
1.863765 -0.45020357 -0.10048504 6
1.8600501 -0.44999343 -0.033403907 7
1.8632269 -0.45386121 0.033473715 8
1.8584681 -0.45648351 -0.033403907 7
1.8538662 -0.45844212 0.033334095 8
1.8607439 -0.46393558 -0.033473715 7
1.8483757 -0.46393692 0.033264287 8
1.8668675 -0.47239012 -0.033613335 7
1.8506205 -0.47137329 0.033334095 8
1.8710177 -0.48039567 -0.03371805 7
1.8547722 -0.47933134 0.033438813 8
1.8499782 -0.4818832 -0.033369001 7
1.8530877 -0.4858028 0.033438813 8
1.8444183 -0.48731631 -0.033299193 7
1.8397853 -0.48918518 0.033229381 8
1.8342052 -0.49456307 0.033159573 8
1.824752 -0.4988533 0.033019952 8
