# .PCD v0.7 - Point Cloud Data file format
VERSION 0.7
FIELDS x y z intensity
SIZE 4 4 4 4
TYPE F F F F
COUNT 1 1 1 1
WIDTH 496
HEIGHT 1
VIEWPOINT 0 0 0 1 0 0 0
POINTS 496
DATA ascii
2.6762159 0.50277442 -0.52930421 2
2.6721621 0.49236289 -0.52815932 2
2.6622725 0.48093882 -0.52586961 2
2.6736014 0.47335345 -0.52777767 2
2.6733031 0.46368176 -0.52739608 2
2.6729698 0.45401913 -0.52701449 2
2.6745381 0.44468525 -0.52701449 2
2.683749 0.43707657 -0.52854097 2
2.687197 0.42801526 -0.52892256 2
2.6886749 0.41863185 -0.52892256 2
2.6804152 0.40776703 -0.52701449 2
2.6779385 0.39783171 -0.52625126 2
2.6831965 0.38904554 -0.52701449 2
2.6864822 0.37995258 -0.52739608 2
2.692843 0.61229366 -0.43739083 3
2.6796467 0.59897178 -0.43488789 3
2.6720748 0.58749408 -0.43332353 3
2.672178 0.57774633 -0.43301064 3
2.6703141 0.56759304 -0.43238491 3
2.676049 0.55954266 -0.43301064 3
2.6856294 0.55225754 -0.4342621 3
2.6837626 0.54162949 -0.43363637 3
2.6817615 0.53149068 -0.43301064 3
2.6796312 0.52183878 -0.43238491 3
2.6891975 0.51396579 -0.43363637 3
2.6947701 0.50577331 -0.4342621 3
2.6985488 0.49625099 -0.43457499 3
2.6886001 0.48472458 -0.43269777 3
2.6941667 0.47602466 -0.43332353 3
2.6997044 0.46729046 -0.43394926 3
2.6974244 0.45720297 -0.43332353 3
2.7028227 0.44890329 -0.43394926 3
2.7004738 0.43883285 -0.43332353 3
2.6941855 0.42816284 -0.43207204 3
2.7034717 0.41996926 -0.43332353 3
2.7107799 0.4114196 -0.4342621 3
2.7180617 0.40282279 -0.43520072 3
2.7038107 0.3910709 -0.43269777 3
2.7051594 0.38162977 -0.43269777 3
2.7182822 0.37332556 -0.43457499 3
2.7234845 0.36435783 -0.43520072 3
2.7285953 0.35583454 -0.43582645 3
2.7219822 0.34531528 -0.43457499 3
2.71925 0.33532742 -0.43394926 3
2.7282493 0.32677367 -0.43520072 3
2.7391844 0.31838796 -0.43676507 3
2.740279 0.30882373 -0.43676507 3
2.7412879 0.29973683 -0.43676507 3
2.6572144 0.69017124 -0.33709061 4
2.6692226 0.68335515 -0.33830932 4
2.677248 0.67595702 -0.33904055 4
2.6834443 0.66756535 -0.33952799 4
2.6780457 0.6563049 -0.33855307 4
2.6687422 0.64415866 -0.33709061 4
2.6767685 0.63621551 -0.33782184 4
2.6827295 0.62824005 -0.33830932 4
2.6847978 0.61934215 -0.33830932 4
2.6830716 0.60908705 -0.33782184 4
2.6774323 0.59798616 -0.33684689 4
2.6931784 0.59114861 -0.33855307 4
2.6952255 0.58174336 -0.33855307 4
2.6990814 0.57321668 -0.33879682 4
2.695138 0.56304443 -0.33806559 4
2.6873646 0.55163676 -0.33684689 4
2.7028952 0.54499859 -0.33855307 4
2.7087691 0.53585935 -0.33904055 4
2.7183259 0.52838945 -0.3400155 4
2.7084537 0.51666623 -0.33855307 4
2.7003965 0.50585365 -0.33733436 4
2.7119949 0.49774382 -0.33855307 4
2.7176232 0.48897773 -0.33904055 4
2.7232234 0.48017719 -0.33952799 4
2.7248828 0.47067031 -0.33952799 4
2.7265091 0.46115509 -0.33952799 4
2.72019 0.45081216 -0.33855307 4
2.7374229 0.44385785 -0.34050298 4
2.7311132 0.43305546 -0.33952799 4
2.7208385 0.42169455 -0.33806559 4
2.7144427 0.4110063 -0.33709061 4
2.7237163 0.40268925 -0.33806559 4
2.732964 0.39431372 -0.33904055 4
2.734324 0.38477078 -0.33904055 4
2.7277834 0.37414545 -0.33806559 4
2.7252014 0.36361933 -0.33757812 4
2.7421401 0.35662887 -0.33952799 4
2.7433681 0.34705541 -0.33952799 4
2.7563846 0.33893004 -0.34099045 4
2.7417822 0.32742256 -0.33904055 4
2.7350209 0.3169378 -0.33806559 4
2.7478926 0.30919746 -0.33952799 4
2.7489028 0.30008394 -0.33952799 4
2.7577791 0.29180139 -0.34050298 4
2.7508326 0.28184587 -0.33952799 4
2.7518945 0.27128071 -0.33952799 4
2.7607296 0.26242381 -0.34050298 4
2.7655823 0.25314796 -0.34099045 4
2.7664492 0.24349199 -0.34099045 4
2.7633262 0.2335014 -0.34050298 4
2.7641244 0.22385344 -0.34050298 4
2.7708263 0.21466406 -0.34123421 4
2.7913558 0.20645423 -0.34367159 4
2.6477733 0.80496025 -0.24211864 5
2.6512804 0.78635341 -0.24194433 5
2.6444488 0.7742939 -0.24107277 5
2.6527438 0.76718014 -0.24159572 5
2.6591051 0.75947404 -0.24194433 5
2.6636574 0.75072843 -0.24211864 5
2.6758597 0.74409413 -0.24299021 5
2.6611483 0.73000473 -0.24142142 5
2.6656032 0.72123206 -0.24159572 5
2.6719549 0.71294957 -0.24194433 5
2.670573 0.70260626 -0.24159572 5
2.6807239 0.69528013 -0.24229297 5
2.6675732 0.68243557 -0.24089848 5
2.6699393 0.67311907 -0.24089848 5
2.6798904 0.66618592 -0.24159572 5
2.6821995 0.65682662 -0.24159572 5
2.699971 0.65119642 -0.24299021 5
2.6828427 0.63716459 -0.24124709 5
2.6850505 0.62779635 -0.24124709 5
2.6871178 0.6188882 -0.24124709 5
2.6931479 0.61038601 -0.24159572 5
2.7030411 0.60271525 -0.24229297 5
2.6973436 0.59156811 -0.24159572 5
2.6916015 0.58047086 -0.24089848 5
2.6975095 0.57189757 -0.24124709 5
2.7149949 0.56620246 -0.24264158 5
2.7208579 0.55752367 -0.24299021 5
2.7032554 0.54409069 -0.24124709 5
2.7051382 0.5346505 -0.24124709 5
2.7108998 0.52596408 -0.24159572 5
2.7126291 0.51697075 -0.24159572 5
2.7340016 0.51116097 -0.24333882 5
2.7200913 0.4987404 -0.24194433 5
2.7139721 0.48783183 -0.24124709 5
2.7195826 0.47904715 -0.24159572 5
2.7290921 0.47090557 -0.24229297 5
2.7346482 0.4620395 -0.24264158 5
2.7205186 0.44989231 -0.24124709 5
2.7298627 0.44214171 -0.24194433 5
2.7353256 0.43323269 -0.24229297 5
2.7446966 0.42490175 -0.24299021 5
2.7501028 0.41591483 -0.24333882 5
2.73577 0.40398347 -0.24194433 5
2.7292752 0.39329529 -0.24124709 5
2.7464828 0.3855055 -0.24264158 5
2.7557077 0.37699559 -0.24333882 5
2.7649069 0.36842602 -0.24403608 5
2.7503693 0.35672292 -0.24264158 5
2.7475839 0.34710151 -0.24229297 5
2.7566886 0.33847904 -0.24299021 5
2.7657669 0.32979855 -0.24368747 5
2.7708597 0.3205995 -0.24403608 5
2.7640419 0.3100363 -0.24333882 5
2.7650547 0.3008706 -0.24333882 5
2.7660372 0.29169893 -0.24333882 5
2.7749181 0.28333491 -0.24403608 5
2.7799034 0.27355194 -0.24438471 5
2.7768743 0.26347083 -0.24403608 5
2.773809 0.25341281 -0.24368747 5
2.7786462 0.24407816 -0.24403608 5
2.791393 0.23538108 -0.24508193 5
2.7921977 0.22563514 -0.24508193 5
2.7810497 0.21496783 -0.24403608 5
2.7817831 0.20525809 -0.24403608 5
2.7904665 0.1956189 -0.24473332 5
2.8070364 0.18693554 -0.24612781 5
2.803695 0.17688569 -0.24577919 5
2.8002884 0.16734886 -0.24543057 5
2.7928984 0.15712593 -0.24473332 5
2.8093469 0.14821629 -0.24612781 5
2.8118374 0.13850622 -0.24630213 5
2.8282261 0.12941809 -0.24769662 5
2.671556 0.85208929 -0.14695938 6
2.6554646 0.83675671 -0.14591266 6
2.6774397 0.83341765 -0.14695938 6
2.663151 0.81878328 -0.14601734 6
2.6620295 0.8087855 -0.14580798 6
2.6667492 0.80006421 -0.14591266 6
2.6695259 0.79074991 -0.14591266 6
2.6837716 0.78479064 -0.1465407 6
2.6825216 0.77477878 -0.14633135 6
2.6697111 0.76149553 -0.14549398 6
2.672353 0.7521711 -0.14549398 6
2.6865087 0.74604529 -0.14612199 6
2.6852441 0.73560703 -0.14591266 6
2.6916516 0.7272718 -0.14612199 6
2.6941738 0.71787226 -0.14612199 6
2.6850734 0.70541787 -0.14549398 6
2.6951313 0.69851345 -0.14591266 6
2.6975527 0.68910331 -0.14591266 6
2.7036965 0.68112922 -0.14612199 6
2.6983044 0.66976213 -0.14570332 6
2.6928651 0.6584422 -0.14528462 6
2.702914 0.65090936 -0.14570332 6
2.71683 0.64423472 -0.14633135 6
2.7112823 0.63293165 -0.14591266 6
2.7055807 0.62214619 -0.14549398 6
2.7037327 0.61228895 -0.14528462 6
2.7098577 0.60324383 -0.14549398 6
2.7197514 0.59548891 -0.14591266 6
2.7218134 0.58599085 -0.14591266 6
2.7121184 0.57400566 -0.14528462 6
2.7218282 0.56663764 -0.14570332 6
2.7236927 0.55760789 -0.14570332 6
2.7257178 0.54762185 -0.14570332 6
2.7393701 0.54042268 -0.14633135 6
2.7254608 0.52829564 -0.14549398 6
2.7233639 0.51803291 -0.14528462 6
2.7368467 0.51119858 -0.14591266 6
2.7387021 0.50116342 -0.14591266 6
2.7482982 0.49301171 -0.14633135 6
2.7381999 0.48133987 -0.14570332 6
2.7398632 0.47178072 -0.14570332 6
2.7454324 0.4628773 -0.14591266 6
2.7430112 0.4531188 -0.14570332 6
2.7524629 0.44481492 -0.14612199 6
2.7500532 0.43458271 -0.14591266 6
2.7436581 0.42376041 -0.14549398 6
2.7569697 0.41596907 -0.14612199 6
2.758405 0.40634221 -0.14612199 6
2.7716684 0.39841542 -0.14675003 6
2.7611747 0.38707498 -0.14612199 6
2.7625747 0.3769528 -0.14612199 6
2.7678337 0.36783284 -0.14633135 6
2.7769608 0.35967904 -0.14675003 6
2.7781997 0.34998274 -0.14675003 6
2.7714746 0.33931261 -0.14633135 6
2.7607424 0.32822081 -0.14570332 6
2.7777441 0.32041484 -0.1465407 6
2.7867849 0.31160378 -0.14695938 6
2.791774 0.3027907 -0.14716873 6
2.7768724 0.29186159 -0.14633135 6
2.7817993 0.28305513 -0.1465407 6
2.7867932 0.27324781 -0.14675003 6
2.7996604 0.26464546 -0.14737807 6
2.8005674 0.25487179 -0.14737807 6
2.7934811 0.24439739 -0.14695938 6
2.7903366 0.2343125 -0.14675003 6
2.7991009 0.22521095 -0.14716873 6
2.8078356 0.21605107 -0.14758742 6
2.8085725 0.20624918 -0.14758742 6
2.8052907 0.19616477 -0.14737807 6
2.8099766 0.1861462 -0.14758742 6
2.8106093 0.17633568 -0.14758742 6
2.8191533 0.16748875 -0.1480061 6
2.8276699 0.1585871 -0.14842479 6
2.8162649 0.14759421 -0.14779675 6
2.8127732 0.13756818 -0.14758742 6
2.8291755 0.12896809 -0.14842479 6
2.8375905 0.11942682 -0.14884347 6
2.83799 0.10952166 -0.14884347 6
2.8263786 0.099193491 -0.14821544 6
2.8307004 0.089452401 -0.14842479 6
2.8349884 0.07968504 -0.14863414 6
2.8472292 0.070082724 -0.14926216 6
2.8474565 0.060144212 -0.14926216 6
2.8436549 0.050133195 -0.14905281 6
2.8438127 0.040205926 -0.14905281 6
2.7035353 0.74975729 -0.048971456 7
2.6907053 0.73609489 -0.048692215 7
2.706773 0.73034382 -0.04893655 7
2.7093062 0.72089028 -0.04893655 7
2.7116811 0.71190375 -0.04893655 7
2.710278 0.7014311 -0.048866738 7
2.700964 0.68947124 -0.048657309 7
2.7111118 0.68198961 -0.048796929 7
2.7173569 0.67348588 -0.048866738 7
2.7274621 0.66589278 -0.049006358 7
2.7103271 0.6516937 -0.048657309 7
2.7125854 0.64222825 -0.048657309 7
2.718595 0.63413852 -0.048727117 7
2.7284787 0.62691027 -0.048866738 7
2.7306504 0.61738282 -0.048866738 7
2.721077 0.60524154 -0.048657309 7
2.7232769 0.59526479 -0.048657309 7
2.7253382 0.58575445 -0.048657309 7
2.7390041 0.57919651 -0.048866738 7
2.7448256 0.57092416 -0.04893655 7
2.7389646 0.55973977 -0.048796929 7
2.7330596 0.54860067 -0.048657309 7
2.7545774 0.54292339 -0.049006358 7
2.7525294 0.53254575 -0.04893655 7
2.7542801 0.52341431 -0.04893655 7
2.7403638 0.51086569 -0.048657309 7
2.7422178 0.5008176 -0.048657309 7
2.7478859 0.4919478 -0.048727117 7
2.7614043 0.48442665 -0.04893655 7
2.7709618 0.47613844 -0.049076166 7
2.7606938 0.46495357 -0.048866738 7
2.7544076 0.45401511 -0.048727117 7
2.7638724 0.44567025 -0.048866738 7
2.769362 0.43664333 -0.04893655 7
2.7708693 0.42697304 -0.04893655 7
2.7723429 0.41729754 -0.04893655 7
2.7658687 0.40645537 -0.048796929 7
2.7672706 0.39679879 -0.048796929 7
2.784482 0.38935274 -0.049076166 7
2.7818615 0.37908992 -0.049006358 7
2.7792034 0.36885023 -0.04893655 7
2.7804739 0.35914734 -0.04893655 7
2.7896471 0.3504357 -0.049076166 7
2.790853 0.3406978 -0.049076166 7
2.7959971 0.33142385 -0.049145978 7
2.7852173 0.32029054 -0.04893655 7
2.7862642 0.31105188 -0.04893655 7
2.7992089 0.30310279 -0.049145978 7
2.8041761 0.29423654 -0.049215786 7
2.8051364 0.28493652 -0.049215786 7
2.8062098 0.27416277 -0.049215786 7
2.7991862 0.26361486 -0.049076166 7
2.8160214 0.25528723 -0.049355406 7
2.8129113 0.24510932 -0.049285594 7
2.8217206 0.23595472 -0.049425215 7
2.8105674 0.22514617 -0.049215786 7
2.8113363 0.21533336 -0.049215786 7
2.8200481 0.20610227 -0.049355406 7
2.8327196 0.19709057 -0.049564835 7
2.8333902 0.18720058 -0.049564835 7
2.8260431 0.17681019 -0.049425215 7
2.8226218 0.16720046 -0.049355406 7
2.8391609 0.1582361 -0.049634643 7
2.8436897 0.14853521 -0.049704451 7
2.8481858 0.13880189 -0.049774267 7
2.8366671 0.12831607 -0.049564835 7
2.8370976 0.11841407 -0.049564835 7
2.84149 0.1086621 -0.049634643 7
2.8498459 0.099022515 -0.049774267 7
2.8541718 0.089198261 -0.049844075 7
2.8504679 0.079123057 -0.049774267 7
2.8507266 0.069173187 -0.049774267 7
2.8549495 0.059304174 -0.049844075 7
2.8631365 0.049476985 -0.049983691 7
2.87129 0.039591994 -0.050123312 7
2.8594129 0.029446132 -0.049913883 7
2.8594983 0.019465342 -0.049913883 7
2.8675475 0.009509475 -0.0500535 7
2.8755622 -0 -0.050193124 7
2.8835433 -0.010065505 -0.05033274 7
2.8754921 -0.020075046 -0.050193124 7
2.8714056 -0.030070383 -0.050123312 7
2.887279 -0.040316638 -0.050402552 7
2.8891199 -0.050429773 -0.050437454 7
2.7106447 0.66730481 0.048727117 8
2.7226746 0.66019428 0.048901644 8
2.7385778 0.65393674 0.049145978 8
2.733057 0.64254332 0.049006358 8
2.719588 0.6298663 0.048727117 8
2.72946 0.62262386 0.048866738 8
2.731617 0.61309171 0.048866738 8
2.7416565 0.60479939 0.049006358 8
2.7320256 0.59268248 0.048796929 8
2.7340779 0.58314157 0.048796929 8
2.7399106 0.57489359 0.048866738 8
2.7418022 0.56580383 0.048866738 8
2.7555192 0.55861413 0.049076166 8
2.7457807 0.54616946 0.048866738 8
2.7397265 0.53552723 0.048727117 8
2.7455068 0.52671468 0.048796929 8
2.7550991 0.51908755 0.04893655 8
2.7589495 0.50934982 0.048971456 8
2.7528398 0.49829069 0.048831832 8
2.7585001 0.48937631 0.048901644 8
2.7621615 0.48008871 0.04893655 8
2.7638209 0.47044331 0.04893655 8
2.7712831 0.46226183 0.049041264 8
2.7630115 0.4509767 0.048866738 8
2.764569 0.4413285 0.048866738 8
2.7680686 0.43198329 0.048901644 8
2.77549 0.42322317 0.049006358 8
2.7828844 0.41441524 0.049111072 8
2.7704613 0.40268576 0.048866738 8
2.7758102 0.39357331 0.04893655 8
2.7771671 0.38388214 0.04893655 8
2.7904468 0.37529927 0.049145978 8
2.7956412 0.36656427 0.049215786 8
2.7830186 0.35503268 0.048971456 8
2.7882097 0.34580746 0.049041264 8
2.7933707 0.33655033 0.049111072 8
2.8004866 0.32749635 0.049215786 8
2.8016129 0.31771806 0.049215786 8
2.7986755 0.30798757 0.049145978 8
2.7917278 0.29785708 0.049006358 8
2.8026457 0.28962475 0.04918088 8
2.8096581 0.279946 0.049285594 8
2.8106179 0.27013734 0.049285594 8
2.8055704 0.25977096 0.04918088 8
2.8104436 0.25033018 0.049250688 8
2.8152852 0.24086125 0.049320504 8
2.8220875 0.23152237 0.049425215 8
2.830853 0.2222968 0.049564835 8
2.8216412 0.21166524 0.049390312 8
2.8163791 0.20138597 0.049285594 8
2.8270404 0.19223264 0.04946012 8
2.8337128 0.18225542 0.049564835 8
2.8422852 0.17334495 0.049704451 8
2.8348591 0.16345742 0.049564835 8
2.8334155 0.15345201 0.049529929 8
2.8399503 0.14336909 0.049634643 8
2.8484001 0.13432807 0.049774267 8
2.854845 0.12464538 0.049878977 8
2.8412762 0.11411819 0.049634643 8
2.8456538 0.10434539 0.049704451 8
2.8460009 0.094410814 0.049704451 8
2.8663011 0.085071035 0.0500535 8
2.8665807 0.075064495 0.0500535 8
2.8548303 0.064786203 0.049844075 8
2.857038 0.054858215 0.049878977 8
2.8652101 0.045009833 0.050018597 8
2.8713486 0.035082009 0.050123312 8
2.875457 0.02459259 0.050193124 8
2.8635247 0.014994844 0.049983691 8
2.8635595 0.0049984227 0.049983691 8
2.8755586 -0.0045169201 0.050193124 8
2.783587 0.58354938 0.14905281 9
2.7621326 0.56899554 0.14779675 9
2.77389 0.56133038 0.14832011 9
2.7601607 0.54853046 0.14748274 9
2.7699001 0.54042149 0.14790143 9
2.7677536 0.53048176 0.14769208 9
2.7695885 0.52081656 0.14769208 9
2.7714787 0.51066262 0.14769208 9
2.7811062 0.50240606 0.14811078 9
2.7828431 0.49269441 0.14811078 9
2.7766745 0.4816114 0.14769208 9
2.7782562 0.47240019 0.14769208 9
2.7798882 0.46270129 0.14769208 9
2.7893717 0.45427832 0.14811078 9
2.7948849 0.44516775 0.14832011 9
2.7845812 0.43356463 0.14769208 9
2.7781796 0.42263976 0.14727339 9
2.7914915 0.41470104 0.14790143 9
2.8008282 0.40610132 0.14832011 9
2.8101389 0.39744151 0.1487388 9
2.7917237 0.38490126 0.14769208 9
2.7970095 0.37568501 0.14790143 9
2.7983038 0.36591992 0.14790143 9
2.8114517 0.35766134 0.14852946 9
2.8166473 0.34833756 0.1487388 9
2.805948 0.33707348 0.14811078 9
2.7991722 0.3263509 0.14769208 9
2.8121464 0.31841555 0.14832011 9
2.8211284 0.3099615 0.1487388 9
2.8221409 0.30060381 0.1487388 9
2.8191483 0.29083422 0.14852946 9
2.8162694 0.279612 0.14832011 9
2.8251812 0.27054051 0.1487388 9
2.8380411 0.26177976 0.14936683 9
2.8349586 0.25151777 0.14915749 9
2.8278592 0.24094142 0.1487388 9
2.8247015 0.23074426 0.14852946 9
2.8414195 0.22212733 0.14936683 9
2.8421774 0.21220952 0.14936683 9
2.8468854 0.20256993 0.14957617 9
2.8396044 0.19209126 0.14915749 9
2.8402574 0.18217862 0.14915749 9
2.8488207 0.17324314 0.14957617 9
2.8533959 0.163527 0.14978553 9
2.8579381 0.15378101 0.14999487 9
2.8544681 0.14360256 0.14978553 9
2.8549521 0.13363834 0.14978553 9
2.8593917 0.12384395 0.14999487 9
2.8637979 0.11402021 0.15020421 9
2.8681705 0.10416995 0.15041354 9
2.8585355 0.093829148 0.14989018 9
2.7957635 0.49447739 0.24839386 10
2.7915826 0.48369673 0.24787092 10
2.8089688 0.47661504 0.24926542 10
2.8027537 0.46550053 0.24856818 10
2.7964153 0.45492589 0.24787092 10
2.8019216 0.4457871 0.24821955 10
2.811336 0.4372279 0.2489168 10
2.8207238 0.42860964 0.24961405 10
2.8103783 0.41700557 0.24856818 10
2.8059011 0.40633687 0.24804525 10
2.8151937 0.39765394 0.24874248 10
2.8205798 0.38787654 0.2490911 10
2.8298156 0.37908593 0.24978836 10
2.8153164 0.36714381 0.24839386 10
2.8165183 0.35780776 0.24839386 10
2.8276372 0.34919432 0.24926542 10
2.8248825 0.33884656 0.2489168 10
2.8359427 0.33013764 0.24978836 10
2.8311386 0.31956518 0.24926542 10
2.8302023 0.30995733 0.2490911 10
2.8351772 0.30099159 0.24943975 10
2.8480513 0.29280996 0.2504856 10
2.8471227 0.28217348 0.25031129 10
2.8480902 0.27223405 0.25031129 10
2.8430712 0.261742 0.24978836 10
2.8479369 0.2521669 0.25013697 10
2.8567405 0.24290137 0.25083423 10
2.8635283 0.23341285 0.25135714 10
2.8623395 0.22326154 0.25118285 10
2.8611145 0.21311998 0.25100854 10
2.861841 0.20313075 0.25100854 10
