# .PCD v0.7 - Point Cloud Data file format
VERSION 0.7
FIELDS x y z intensity
SIZE 4 4 4 4
TYPE F F F F
COUNT 1 1 1 1
WIDTH 1332
HEIGHT 1
VIEWPOINT 0 0 0 1 0 0 0
POINTS 1332
DATA ascii
1.4187006 0.22241625 -0.075259112 6
1.4442167 0.22590077 -0.025515417 7
1.434689 0.22210175 0.025340894 8
1.4646002 0.22620879 0.077666566 9
1.396979 0.21576463 -0.27476496 2
1.4173943 0.21841131 -0.22714287 3
1.4107078 0.21687689 -0.17524813 4
1.425778 0.21893904 -0.12620151 5
1.4234166 0.21806788 -0.075468451 6
1.4370898 0.21964926 -0.0253758 7
1.4433645 0.21828882 0.025480513 8
1.4515563 0.2190095 0.076933861 9
1.3899584 0.20971565 -0.27323848 2
1.422055 0.21405002 -0.22776861 3
1.4134194 0.21224636 -0.17549187 4
1.422593 0.21336938 -0.1258529 5
1.4320703 0.21428044 -0.075887144 6
1.433892 0.21404138 -0.025305988 7
1.4322482 0.21149608 0.025271084 8
1.4325528 0.21103016 0.075887144 9
1.3984512 0.20600663 -0.27476496 2
1.4149759 0.2079363 -0.22651713 3
1.4259362 0.20903853 -0.1769543 4
1.4233291 0.2084026 -0.1258529 5
1.4446672 0.21101187 -0.076515175 6
1.4425455 0.21018775 -0.025445608 7
1.4290192 0.2059252 0.025201276 8
1.4431654 0.20744883 0.076410502 9
1.406935 0.20224085 -0.27629143 2
1.4039607 0.20131385 -0.22463992 3
1.4305874 0.20462228 -0.17744178 4
1.4279926 0.20399612 -0.12620151 5
1.4256221 0.20315045 -0.075468451 6
1.4551493 0.20683916 -0.025655037 7
1.4336898 0.20149195 0.025271084 8
1.4498144 0.20324209 0.076724522 9
1.4076322 0.19732879 -0.27629143 2
1.4144367 0.19777997 -0.22620426 3
1.4194967 0.1979817 -0.17597936 4
1.4326426 0.19956031 -0.12655014 5
1.4263226 0.19817246 -0.075468451 6
1.4558624 0.20175879 -0.025655037 7
1.4383467 0.19702929 0.025340894 8
1.4036598 0.19202819 -0.32707885 1
1.4425997 0.19709821 0.076305829 9
1.4005319 0.19135061 -0.27476496 2
1.4268621 0.19444141 -0.22808148 3
1.4123111 0.19195642 -0.17500439 4
1.4372791 0.19509453 -0.12689877 5
1.4270056 0.19319277 -0.075468451 6
1.4407043 0.1945346 -0.0253758 7
1.4489363 0.1933293 0.025515417 8
1.4023899 0.18686956 -0.32662892 1
1.4393193 0.19153549 0.07609649 9
1.3972989 0.18594369 -0.27400175 2
1.4275322 0.18945917 -0.22808148 3
1.4208442 0.1880669 -0.17597936 4
1.4261003 0.18850936 -0.1258529 5
1.4355918 0.18925421 -0.075887144 6
1.4413744 0.1895054 -0.0253758 7
1.4357213 0.18646716 0.025271084 8
1.4011011 0.18172282 -0.32617903 1
1.4557917 0.18881619 0.076933861 9
1.4018334 0.18156904 -0.27476496 2
1.4203484 0.18346311 -0.22683001 3
1.4254297 0.18361291 -0.17646682 4
1.4307016 0.18403888 -0.12620151 5
1.444168 0.18525802 -0.076305829 6
1.4459618 0.18523234 -0.025445608 7
1.4363316 0.18170607 0.025271084 8
1.401696 0.17707588 -0.32617903 1
1.4465343 0.18248312 0.076410502 9
1.4024588 0.17667426 -0.27476496 2
1.4170293 0.17825922 -0.22620426 3
1.4299699 0.17937946 -0.1769543 4
1.4313353 0.17904329 -0.12620151 5
1.4328831 0.17898293 -0.075677805 6
1.4604903 0.18191366 -0.025689943 7
1.4409267 0.17717893 0.025340894 8
1.4003714 0.17194411 -0.32572913 1
1.4431667 0.17719872 0.076201163 9
1.4108316 0.17297921 -0.27629143 2
1.4215643 0.17379083 -0.22683001 3
1.4187644 0.17294593 -0.17549187 4
1.4358767 0.1747776 -0.12655014 5
1.4295336 0.17349917 -0.075468451 6
1.4551299 0.17634803 -0.025585229 7
1.4494485 0.17334984 0.025480513 8
1.393194 0.16637468 -0.32392952 1
1.4417932 0.17192386 0.07609649 9
1.4036288 0.16712458 -0.27476496 2
1.4339023 0.17047463 -0.22870721 3
1.4232727 0.1687078 -0.17597936 4
1.4325207 0.16929701 -0.12620151 5
1.4420022 0.17016236 -0.07609649 6
1.4557365 0.17126791 -0.025585229 7
1.4500448 0.16828887 0.025480513 8
1.3937662 0.16151145 -0.32392952 1
1.4523047 0.16803743 0.076619849 9
1.4002748 0.16201736 -0.27400175 2
1.4325261 0.16524297 -0.22839434 3
1.443574 0.1660061 -0.17841674 4
1.4251854 0.16338746 -0.12550427 5
1.4425875 0.16512743 -0.07609649 6
1.4404312 0.16437127 -0.025305988 7
1.4426746 0.16233216 0.025340894 8
1.4020677 0.15751521 -0.32572913 1
1.4508976 0.16274388 0.076515175 9
1.4067123 0.15753983 -0.27514657 2
1.4493967 0.162064 0.12759601 10
1.4213431 0.15867534 -0.22651713 3
1.4342802 0.15986687 -0.17719805 4
1.4297076 0.1588513 -0.1258529 5
1.4471531 0.16027899 -0.076305829 6
1.4529215 0.16066051 -0.025515417 7
1.4353081 0.15617847 0.025201276 8
1.3910116 0.15111218 -0.32302973 1
1.4514568 0.15767863 0.076515175 9
1.4092056 0.15283985 -0.27552822 2
1.445992 0.15657431 0.12724738 10
1.4179605 0.15328866 -0.2258914 3
1.4407775 0.15524653 -0.17792925 4
1.4302534 0.15386003 -0.1258529 5
1.4357886 0.15394855 -0.075677805 6
1.4574503 0.15601389 -0.025585229 7
1.4477502 0.15267588 0.025410704 8
1.3973191 0.14711097 -0.32437941 1
1.4420667 0.15156759 0.075991817 9
1.4136356 0.14832993 -0.27629143 2
1.4524744 0.15214892 0.12777032 10
1.4263194 0.14940915 -0.22714287 3
1.4373357 0.15005594 -0.17744178 4
1.4426718 0.15010399 -0.12689877 5
1.428345 0.14836068 -0.075259112 6
1.461964 0.15133759 -0.025655037 7
1.4221759 0.14521226 -0.3830522 0
1.4482744 0.14762098 0.025410704 8
1.3958855 0.14203489 -0.32392952 1
1.4445741 0.14673507 0.07609649 9
1.4082599 0.14304639 -0.27514657 2
1.462882 0.1483361 0.12864187 10
1.4346937 0.14522484 -0.22839434 3
1.4299505 0.14424048 -0.17646682 4
1.4511166 0.14586461 -0.12759601 5
1.4447523 0.14496949 -0.07609649 6
1.4545242 0.14543794 -0.025515417 7
1.4150084 0.13924165 -0.38098165 0
1.4567412 0.14334829 0.025550324 8
1.4080091 0.13830477 -0.32662892 1
1.4490529 0.14208107 0.076305829 9
1.4048671 0.13750108 -0.27438337 2
1.4515183 0.1418113 0.12759601 10
1.4312843 0.13958229 -0.22776861 3
1.4422997 0.14040244 -0.17792925 4
1.4357522 0.13925919 -0.12620151 5
1.4452739 0.13967356 -0.07609649 6
1.4510423 0.13997541 -0.025445608 7
1.3847144 0.1313822 -0.37269944 0
1.4492937 0.13725358 0.025410704 8
1.4143268 0.13369305 -0.32797864 1
1.449564 0.1367694 0.076305829 9
1.4131567 0.13333429 -0.27590984 2
1.4520044 0.13674331 0.12759601 10
1.4278294 0.13421521 -0.22714287 3
1.4348989 0.13437448 -0.1769543 4
1.4263341 0.1330709 -0.12532996 5
1.4537072 0.13536809 -0.076515175 6
1.4634924 0.13576473 -0.025655037 7
1.3986537 0.12753436 -0.37632293 0
1.4457809 0.13183159 0.025340894 8
1.4011999 0.12751928 -0.32482934 1
1.4679343 0.13333428 0.07724788 9
1.413636 0.12815356 -0.27590984 2
1.4564643 0.13177991 0.12794463 10
1.424377 0.12862605 -0.22651713 3
1.4432675 0.13007799 -0.17792925 4
1.4287744 0.12826903 -0.12550427 5
1.4422578 0.12897205 -0.075887144 6
1.467941 0.13101052 -0.025724847 7
1.4221623 0.1249237 -0.38253456 0
1.4502165 0.12713295 0.025410704 8
1.4055191 0.12296671 -0.32572913 1
1.4445143 0.12612502 0.075991817 9
1.4238322 0.1243192 -0.2778179 2
1.4608631 0.12729558 0.12829326 10
1.4247956 0.12390154 -0.22651713 3
1.4377798 0.1245257 -0.17719805 4
1.4371318 0.1242162 -0.12620151 5
1.4426774 0.12418894 -0.075887144 6
1.466397 0.12571445 -0.025689943 7
1.4187397 0.11963363 -0.38149929 0
1.4586221 0.12274031 0.025550324 8
1.4098234 0.11838689 -0.32662892 1
1.452907 0.12174868 0.076410502 9
1.416432 0.1186922 -0.27629143 2
1.4692404 0.12285916 0.12899049 10
1.4330935 0.11958537 -0.22776861 3
1.4322708 0.11901262 -0.17646682 4
1.4494699 0.12018775 -0.12724738 5
1.4431022 0.11915191 -0.075887144 6
1.460848 0.12010375 -0.025585229 7
1.4056696 0.11359098 -0.3778758 0
1.4630281 0.11796977 0.025620133 8
1.4082857 0.1133083 -0.32617903 1
1.4533026 0.11693029 0.076410502 9
1.4168376 0.11374684 -0.27629143 2
1.4617162 0.11709373 0.12829326 10
1.4413787 0.1152114 -0.22902009 3
1.4425716 0.11480002 -0.17768551 4
1.4459084 0.11481164 -0.12689877 5
1.4554555 0.1150585 -0.076515175 6
1.4612381 0.11525903 -0.025585229 7
1.3983531 0.10808901 -0.37580526 0
1.4474611 0.11188494 0.025340894 8
1.4183687 0.10938647 -0.32842854 1
1.469633 0.11308205 0.07724788 9
1.417226 0.10880142 -0.27629143 2
1.4561564 0.11153381 0.12777032 10
1.4299351 0.1095254 -0.22714287 3
1.4785531 0.11298972 0.18207282 11
1.4548205 0.11092143 -0.17914794 4
1.442327 0.10946184 -0.12655014 5
1.4598123 0.1105333 -0.076724522 6
1.4656197 0.11045782 -0.025655037 7
1.3987039 0.10345092 -0.37580526 0
1.4478428 0.10683128 0.025340894 8
1.4070809 0.1035767 -0.32572913 1
1.466035 0.10765915 0.077038541 9
1.4175791 0.10410075 -0.27629143 2
1.4565182 0.1067047 0.12777032 10
1.4263685 0.10424566 -0.22651713 3
1.4690392 0.10710649 0.18085413 11
1.4492593 0.10541009 -0.17841674 4
1.4367207 0.10424536 -0.12602721 5
1.4442526 0.1042858 -0.075887144 6
1.4699855 0.10562815 -0.025724847 7
1.4183273 0.099925213 -0.38098165 0
1.4561862 0.10233779 0.025480513 8
1.4074339 0.098664746 -0.32572913 1
1.4584324 0.10198339 0.076619849 9
1.4218507 0.099425353 -0.27705467 2
1.4668195 0.10231335 0.12864187 10
1.4346062 0.09981481 -0.22776861 3
1.4654434 0.10170267 0.18036664 11
1.4377362 0.099528335 -0.1769543 4
1.4430387 0.099642366 -0.12655014 5
1.448593 0.09951786 -0.07609649 6
1.4703453 0.1004959 -0.025724847 7
1.4225224 0.095232099 -0.38201693 0
1.4645156 0.097786628 0.025620133 8
1.4116585 0.094009876 -0.32662892 1
1.4567865 0.096759826 0.076515175 9
1.4182713 0.094201639 -0.27629143 2
1.4751198 0.097718947 0.12933911 10
1.438888 0.095066555 -0.22839434 3
1.4697511 0.096848048 0.18085413 11
1.4459982 0.095029421 -0.17792925 4
1.4533184 0.095255755 -0.12742169 5
1.4529176 0.0947202 -0.076305829 6
1.462705 0.094845563 -0.025585229 7
1.4151342 0.089777038 -0.37994638 0
1.4688394 0.092926055 0.025689943 8
1.4197576 0.089572802 -0.32842854 1
1.4591088 0.091799825 0.076619849 9
1.4185915 0.089250676 -0.27629143 2
1.4635212 0.0918203 0.12829326 10
1.4431541 0.09029033 -0.22902009 3
1.4780053 0.09221182 0.18182908 11
1.4423586 0.089734457 -0.17744178 4
1.4397221 0.089318879 -0.12620151 5
1.4612134 0.090139501 -0.076724522 6
1.4590352 0.089493945 -0.025515417 7
1.4096537 0.084490299 -0.37839344 0
1.459174 0.087202124 0.025515417 8
1.4239522 0.08484783 -0.32932836 1
1.4673953 0.087179437 0.077038541 9
1.4228138 0.084530808 -0.27705467 2
1.459855 0.086475782 0.12794463 10
1.4355727 0.08478599 -0.22776861 3
1.4882264 0.087635122 0.18304777 11
1.4545531 0.085397519 -0.17890421 4
1.4380361 0.084175967 -0.12602721 5
1.4655067 0.085270695 -0.076933861 6
1.4653279 0.084747106 -0.025620133 7
1.4157264 0.079895355 -0.37994638 0
1.45348 0.081771471 0.025410704 8
1.4106199 0.079113238 -0.32617903 1
1.4676907 0.082057051 0.077038541 9
1.430941 0.080002412 -0.27858114 2
1.4641266 0.081600763 0.12829326 10
1.4358599 0.079774693 -0.22776861 3
1.4786129 0.081891149 0.18182908 11
1.4548423 0.08031927 -0.17890421 4
1.4442893 0.079483829 -0.12655014 5
1.4538299 0.079499893 -0.076305829 6
1.4775951 0.080282882 -0.025829561 7
1.4198551 0.07515692 -0.38098165 0
1.4537565 0.076697685 0.025410704 8
1.4089415 0.07408607 -0.32572913 1
1.4540064 0.07620126 0.076305829 9
1.4351327 0.075212136 -0.27934438 2
1.4743508 0.077010155 0.12916481 10
1.4361297 0.074761733 -0.22776861 3
1.4749249 0.076523222 0.18134159 11
1.4432192 0.074626386 -0.17744178 4
1.4505272 0.074749745 -0.12707306 5
1.4540985 0.0744256 -0.076305829 6
1.4758694 0.075022712 -0.025794657 7
1.4220383 0.070295922 -0.38149929 0
1.4620045 0.0720158 0.025550324 8
1.4208698 0.069740325 -0.32842854 1
1.4562584 0.071223237 0.076410502 9
1.4236209 0.069626987 -0.27705467 2
1.4766006 0.071959823 0.12933911 10
1.4442742 0.070131101 -0.22902009 3
1.4791486 0.071566492 0.18182908 11
1.4474365 0.069778942 -0.17792925 4
1.4567497 0.069972403 -0.12759601 5
1.4583393 0.069539264 -0.076515175 6
1.466135 0.069398083 -0.025620133 7
1.4164855 0.065065332 -0.37994638 0
1.4762301 0.067551494 0.025794657 8
1.419158 0.064692378 -0.32797864 1
1.4644674 0.066757813 0.076829188 9
1.4238554 0.064656824 -0.27705467 2
1.4688815 0.066444568 0.12864187 10
1.4524037 0.065445893 -0.23027156 3
1.4893049 0.066847526 0.18304777 11
1.4516262 0.065156311 -0.17841674 4
1.4820274 0.066261709 0.23496459 12
1.453004 0.064710677 -0.12724738 5
1.4665544 0.064800553 -0.076933861 6
1.4603636 0.064272344 -0.025515417 7
1.4089731 0.060039043 -0.3778758 0
1.4644587 0.062148046 0.025585229 8
1.4232585 0.060150098 -0.32887843 1
1.4726626 0.062238023 0.07724788 9
1.4260236 0.060017638 -0.27743632 2
1.4651124 0.061405938 0.12829326 10
1.438797 0.060052149 -0.22808148 3
1.4915018 0.061991181 0.18329151 11
1.4518342 0.060342479 -0.17841674 4
1.4782915 0.061182979 0.23433885 12
1.4532107 0.059891582 -0.12724738 5
1.4707526 0.060099617 -0.077143207 6
1.4725572 0.059916638 -0.025724847 7
1.4188163 0.055745222 -0.38046399 0
1.4586623 0.057056502 0.025480513 8
1.4195558 0.0552787 -0.32797864 1
1.4768624 0.057251435 0.077457219 9
1.4379854 0.055744343 -0.279726 2
1.4692899 0.056701772 0.12864187 10
1.4449102 0.055508379 -0.22902009 3
1.4837645 0.056740995 0.18231656 11
1.4599706 0.055576619 -0.1793917 4
1.482444 0.056173023 0.23496459 12
1.4534109 0.054818176 -0.12724738 5
1.4629602 0.05492267 -0.076724522 6
1.4727573 0.0547757 -0.025724847 7
1.4267336 0.050820012 -0.38253456 0
1.4628495 0.052106451 0.025550324 8
1.4158452 0.050184753 -0.32707885 1
1.4710653 0.051885687 0.077143207 9
1.4421041 0.050611526 -0.28048924 2
1.4774525 0.05159393 0.12933911 10
1.4451038 0.050212473 -0.22902009 3
1.4839535 0.051562369 0.18231656 11
1.4482522 0.050068118 -0.17792925 4
1.4826312 0.050997589 0.23496459 12
1.4555845 0.049812939 -0.12742169 5
1.4511752 0.04915493 -0.07609649 6
1.484931 0.050038874 -0.025934275 7
1.4249716 0.045777064 -0.38201693 0
1.4750226 0.047127962 0.025759753 8
1.4257582 0.045304857 -0.32932836 1
1.467253 0.046366367 0.076933861 9
1.4285362 0.045142889 -0.2778179 2
1.4816064 0.046561822 0.12968774 10
1.4492191 0.045290831 -0.22964582 3
1.4881009 0.046245292 0.18280403 11
1.4543785 0.04494394 -0.17866047 4
1.4729359 0.045260109 0.23340026 12
1.4657069 0.045037974 -0.12829326 5
1.4553305 0.04421068 -0.076305829 6
1.4731116 0.04423549 -0.025724847 7
1.4212605 0.040693108 -0.38098165 0
1.4831736 0.042206023 0.025899371 8
1.4298036 0.040437561 -0.33022815 1
1.4773883 0.041526005 0.077457219 9
1.4286851 0.040157072 -0.2778179 2
1.4777766 0.041278113 0.12933911 10
1.4533176 0.040341076 -0.23027156 3
1.4981749 0.041324556 0.18402272 11
1.4565109 0.039920937 -0.17890421 4
1.4770342 0.040225487 0.23402599 12
1.4499221 0.039487112 -0.12689877 5
1.4634621 0.03934468 -0.076724522 6
1.46726 0.038934279 -0.025620133 7
1.4175313 0.035634261 -0.37994638 0
1.4713176 0.036729414 0.025689943 8
1.4338324 0.035543256 -0.33112797 1
1.4835078 0.036774658 0.077771239 9
1.4386297 0.035410952 -0.279726 2
1.4699446 0.035924353 0.12864187 10
1.4416007 0.034980595 -0.22839434 3
1.4983101 0.036095012 0.18402272 11
1.4645793 0.035025977 -0.17987917 4
1.483084 0.035468519 0.23496459 12
1.4420836 0.034236848 -0.12620151 5
1.4715774 0.034422439 -0.077143207 6
1.479376 0.034347236 -0.025829561 7
1.42151 0.030769847 -0.38098165 0
1.4674329 0.031763889 0.025620133 8
1.4242008 0.030578746 -0.32887843 1
1.4796336 0.03151058 0.0775619 9
1.4367819 0.030347824 -0.27934438 2
1.4820126 0.031043731 0.12968774 10
1.4357841 0.030075379 -0.22745575 3
1.4924676 0.031002143 0.18329151 11
1.4587334 0.030047411 -0.17914794 4
1.4891236 0.030412691 0.23590319 12
1.4521543 0.029404122 -0.12707306 5
1.4676898 0.029462444 -0.076933861 6
1.4834855 0.029261522 -0.025899371 7
1.4331933 0.026267795 -0.38408747 0
1.4735328 0.026749894 0.025724847 8
1.4223505 0.025572438 -0.32842854 1
1.4757406 0.026274705 0.077352546 9
1.4486521 0.025792412 -0.28163409 2
1.4821075 0.026129324 0.12968774 10
1.455631 0.025408428 -0.23058443 3
1.4866122 0.025689691 0.18256028 11
1.4627991 0.025022814 -0.17963544 4
1.4911958 0.02524825 0.23621608 12
1.4701729 0.024892299 -0.12864187 5
1.4637897 0.02427315 -0.076724522 6
1.4895771 0.024180697 -0.026004087 7
1.4332763 0.021264475 -0.38408747 0
1.4756167 0.021635065 0.025759753 8
1.4263283 0.020664113 -0.32932836 1
1.4718293 0.021065693 0.077143207 9
1.4369552 0.020566555 -0.27934438 2
1.484182 0.020983417 0.12986206 10
1.4517604 0.020272316 -0.22995868 3
1.4886779 0.020527262 0.18280403 11
1.4549379 0.01980806 -0.17866047 4
1.4873244 0.01999007 0.23559032 12
1.4662663 0.019707045 -0.12829326 5
1.4678596 0.019215319 -0.076933861 6
1.4776551 0.018827694 -0.025794657 7
1.4217514 0.016130084 -0.38098165 0
1.4836814 0.016573727 0.025899371 8
1.4322375 0.015749073 -0.33067805 1
1.475888 0.015971454 0.077352546 9
1.4389812 0.015572064 -0.279726 2
1.4782692 0.015739202 0.12933911 10
1.4597234 0.015286963 -0.23121016 3
1.4986652 0.015433202 0.18402272 11
1.4629381 0.014809943 -0.17963544 4
1.4814594 0.014738867 0.23465173 12
1.4583571 0.014509025 -0.12759601 5
1.5175233 0.014832795 0.29499072 13
1.4719121 0.014130071 -0.077143207 6
1.4737126 0.013632215 -0.025724847 7
1.4217991 0.011167448 -0.38098165 0
1.4717326 0.01130208 0.025689943 8
1.4381298 0.010793715 -0.33202776 1
1.4839236 0.010878423 0.077771239 9
1.44099 0.010563683 -0.28010762 2
1.4763229 0.010564334 0.12916481 10
1.4518665 0.010135933 -0.22995868 3
1.496725 0.010188593 0.18377897 11
1.4669509 0.0097291861 -0.1801229 4
1.4854524 0.0095926365 0.23527746 12
1.4544139 0.0093921991 -0.12724738 5
1.5136392 0.0095112063 0.29422748 13
1.4839358 0.0090648625 -0.077771239 6
1.4857491 0.0085580368 -0.025934275 7
1.4372934 -0.0035119776 -0.38512275 0
1.4837691 -0.0038845066 0.025899371 8
1.4284211 -0.0039889142 -0.32977825 1
1.4799625 -0.0043911501 0.0775619 9
1.4390583 -0.0045209499 -0.279726 2
1.4883076 -0.0046756715 0.13021068 10
1.4578201 -0.004834332 -0.23089729 3
1.4947655 -0.0052177366 0.18353525 11
1.4570481 -0.0053403839 -0.17890421 4
1.4933738 -0.0057341717 0.23652895 12
1.4783411 -0.0059344731 -0.12933911 5
1.5175824 -0.0063568717 0.29499072 13
1.4759604 -0.0064401329 -0.077352546 6
1.4857584 -0.0067422045 -0.025934275 7
1.42568 -0.0087090917 -0.38201693 0
1.4897438 -0.0093604596 0.026004087 8
1.440089 -0.0092998184 -0.33247766 1
1.4839308 -0.0098419469 0.077771239 9
1.4390321 -0.0097953314 -0.279726 2
1.4882805 -0.01013056 0.13021068 10
1.4676692 -0.01024643 -0.23246165 3
1.4987063 -0.010724701 0.18402272 11
1.4709139 -0.010782556 -0.18061039 4
1.4854416 -0.011148322 0.23527746 12
1.4663554 -0.011261023 -0.12829326 5
1.5254017 -0.011980722 0.29651719 13
1.4799213 -0.011881824 -0.0775619 6
1.4857239 -0.012187736 -0.025934275 7
1.4256386 -0.013934412 -0.38201693 0
1.4757023 -0.014681326 0.025759753 8
1.4439425 -0.014617398 -0.33337748 1
1.4878793 -0.015321892 0.077980585 9
1.4468418 -0.014899297 -0.28125247 2
1.4802642 -0.015501855 0.12951343 10
1.4597207 -0.015541517 -0.23121016 3
1.5046118 -0.016282102 0.18475394 11
1.4748344 -0.016217304 -0.18109787 4
1.4913164 -0.016658857 0.23621608 12
1.4643148 -0.016357236 -0.12811893 5
1.5214242 -0.017260751 0.29575396 13
1.4758766 -0.017001627 -0.077352546 6
1.4856691 -0.017633105 -0.025934275 7
1.4294444 -0.018961981 -0.3830522 0
1.475642 -0.019832399 0.025759753 8
1.4282942 -0.019445382 -0.32977825 1
1.4938078 -0.020598076 0.078294598 9
1.4546332 -0.0200579 -0.28277895 2
1.4861778 -0.020752303 0.13003637 10
1.4557072 -0.020580947 -0.23058443 3
1.4985913 -0.021448852 0.18402272 11
1.472784 -0.021336583 -0.18085413 4
1.4991499 -0.021980261 0.23746756 12
1.4642489 -0.021468548 -0.12811893 5
1.5135026 -0.02245491 0.29422748 13
1.4758081 -0.022153296 -0.077352546 6
1.4955958 -0.022972509 -0.0261088 7
1.4448222 -0.024210494 -0.38719329 0
1.4835615 -0.025118642 0.025899371 8
1.4282176 -0.024430938 -0.32977825 1
1.4857434 -0.025414966 0.077875912 9
1.4624063 -0.025271079 -0.28430542 2
1.4980488 -0.026148537 0.13108224 10
1.4536515 -0.025627371 -0.23027156 3
1.4945377 -0.026609106 0.18353525 11
1.4687356 -0.026149716 -0.18036664 4
1.5148691 -0.027235571 0.23997049 12
1.4741253 -0.026760412 -0.12899049 5
1.5212667 -0.027881788 0.29575396 13
1.4757218 -0.027304688 -0.077352546 6
1.493512 -0.027894612 -0.026073895 7
1.4408711 -0.028924022 -0.38615805 0
1.4874686 -0.030119132 0.025969181 8
1.4320254 -0.029246528 -0.33067805 1
1.4876479 -0.030382516 0.077980585 9
1.4466116 -0.02979701 -0.28125247 2
1.4979539 -0.031116102 0.13108224 10
1.4634333 -0.030654553 -0.23183592 3
1.5003952 -0.03169078 0.18426646 11
1.4706255 -0.031061996 -0.18061039 4
1.500946 -0.031964503 0.23778042 12
1.4780123 -0.03173418 -0.12933911 5
1.5290171 -0.03309628 0.29728043 13
1.4836103 -0.032372493 -0.077771239 6
1.4934113 -0.032847125 -0.026073895 7
1.4291793 -0.033430897 -0.3830522 0
1.4933579 -0.035192929 0.026073895 8
1.4416615 -0.034226395 -0.33292755 1
1.485536 -0.035527438 0.077875912 9
1.4425734 -0.034751888 -0.28048924 2
1.4878833 -0.03584341 0.13021068 10
1.4712228 -0.03569898 -0.23308739 3
1.5042508 -0.036763098 0.18475394 11
1.4724926 -0.036244091 -0.18085413 4
1.4909515 -0.036958825 0.23621608 12
1.4619584 -0.036495443 -0.12794463 5
1.5367428 -0.03863069 0.29880691 13
1.4874816 -0.037652142 -0.077980585 6
1.4852914 -0.037856102 -0.025934275 7
1.4290471 -0.038668878 -0.3830522 0
1.4812253 -0.040339489 0.025864467 8
1.4493184 -0.039723687 -0.33472717 1
1.4913852 -0.04113717 0.078189924 9
1.4581363 -0.040474746 -0.28354219 2
1.4897335 -0.041351814 0.13038498 10
1.4631836 -0.040870417 -0.23183592 3
1.5080746 -0.042387754 0.18524142 11
1.4763184 -0.041753046 -0.18134159 4
1.5006789 -0.042704135 0.23778042 12
1.4677896 -0.042024609 -0.12846756 5
1.5248162 -0.043923695 0.29651719 13
1.4873337 -0.043103784 -0.077980585 6
1.5232754 -0.044145398 0.35182345 14
1.4931381 -0.043532819 -0.026073895 7
1.4366196 -0.044143673 -0.38512275 0
1.4790685 -0.04570641 0.025829561 8
1.439424 -0.044732779 -0.33247766 1
1.4992096 -0.046852641 0.078608617 9
1.4579862 -0.045564346 -0.28354219 2
1.4975376 -0.047062013 0.13108224 10
1.4649982 -0.046295371 -0.23214878 3
1.4999727 -0.047662653 0.18426646 11
1.4900441 -0.047607489 -0.18304777 4
1.5064354 -0.048394386 0.23871902 12
1.4696254 -0.047211859 -0.12864187 5
1.5207291 -0.049119268 0.29575396 13
1.4831816 -0.048165631 -0.077771239 6
1.5425804 -0.050364092 0.35632247 14
1.500963 -0.049267568 -0.026213516 7
1.4441797 -0.049422428 -0.38719329 0
1.4888928 -0.051212762 0.026004087 8
1.4295213 -0.049420383 -0.33022815 1
1.4890567 -0.051738802 0.078085259 9
1.4578183 -0.050653391 -0.28354219 2
1.5053289 -0.05256724 0.13177948 10
1.4707503 -0.051616747 -0.23308739 3
1.4978133 -0.052828278 0.18402272 11
1.4720142 -0.052175559 -0.18085413 4
1.5121796 -0.053863492 0.23965763 12
1.4734339 -0.052483372 -0.12899049 5
1.5283964 -0.05470822 0.29728043 13
1.4790125 -0.053199023 -0.0775619 6
1.5307102 -0.055326056 0.35362303 14
1.5127721 -0.054942071 -0.026422944 7
1.4517202 -0.054754503 -0.38926387 0
1.4946996 -0.056636799 0.0261088 8
1.4410241 -0.054854814 -0.33292755 1
1.4848754 -0.05678362 0.077875912 9
1.4497854 -0.05544173 -0.28201571 2
1.5091181 -0.057974469 0.1321281 10
1.4705613 -0.056750309 -0.23308739 3
1.5055543 -0.058363881 0.18499769 11
1.4698395 -0.057236291 -0.18061039 4
1.5100085 -0.059064448 0.23934476 12
1.4851869 -0.05809354 -0.13003637 5
1.5321195 -0.060197145 0.29804367 13
1.4868007 -0.058676455 -0.077980585 6
1.5344023 -0.060823269 0.35452285 14
1.4885938 -0.059267659 -0.026004087 7
1.4360787 -0.059185222 -0.38512275 0
1.4964907 -0.061936621 0.026143704 8
1.4486121 -0.060208291 -0.33472717 1
1.4946457 -0.062382892 0.078399271 9
1.4495829 -0.060502082 -0.28201571 2
1.4969628 -0.062741317 0.13108224 10
1.4743013 -0.062049296 -0.23371312 3
1.509308 -0.063786522 0.18548515 11
1.477564 -0.062703304 -0.18158534 4
1.495978 -0.063746311 0.23715468 12
1.4750222 -0.062853344 -0.12916481 5
1.5436689 -0.066048414 0.30033338 13
1.4905776 -0.06403745 -0.078189924 6
1.5302868 -0.066010997 0.35362303 14
1.496369 -0.064809561 -0.026143704 7
1.4281435 -0.063852556 -0.3830522 0
1.4882748 -0.066801317 0.026004087 8
1.4561802 -0.065615416 -0.33652678 1
1.5024116 -0.067698598 0.078817956 9
1.4532855 -0.065739132 -0.28277895 2
1.4927539 -0.067785554 0.13073361 10
1.4701293 -0.06701529 -0.23308739 3
1.5110592 -0.069145352 0.18572889 11
1.481302 -0.068042755 -0.18207282 4
1.5016783 -0.068978727 0.23809329 12
1.4747938 -0.068001747 -0.12916481 5
1.531662 -0.070891798 0.29804367 13
1.4943352 -0.069425523 -0.078399271 6
1.5417268 -0.071896963 0.35632247 14
1.500141 -0.069957651 -0.026213516 7
1.4433488 -0.069581516 -0.38719329 0
1.4840503 -0.071543664 0.025934275 8
1.4442757 -0.069878861 -0.33382738 1
1.506156 -0.073136315 0.079027303 9
1.4608908 -0.071193896 -0.28430542 2
1.4964882 -0.07319048 0.13108224 10
1.4639797 -0.071600549 -0.23214878 3
1.5108216 -0.074155822 0.18572889 11
1.4889991 -0.073345207 -0.18304777 4
1.5211581 -0.075195439 0.24122196 12
1.4805171 -0.073445469 -0.12968774 5
1.5314184 -0.075970583 0.29804367 13
1.482128 -0.073784702 -0.077771239 6
1.5492651 -0.077398054 0.35812208 14
1.5038821 -0.075393945 -0.026283324 7
1.4431101 -0.074367449 -0.38719329 0
1.4937766 -0.077239834 0.0261088 8
1.4440231 -0.074919894 -0.33382738 1
1.4939376 -0.077509604 0.078399271 9
1.4606467 -0.076037996 -0.28430542 2
1.5081753 -0.078776173 0.1321281 10
1.4735842 -0.07722728 -0.23371312 3
1.4986594 -0.078803688 0.18426646 11
1.4808047 -0.078124009 -0.18207282 4
1.522873 -0.08034344 0.24153483 12
1.4802655 -0.078354642 -0.12968774 5
1.5350649 -0.081524007 0.29880691 13
1.4858503 -0.079170391 -0.077980585 6
1.5412017 -0.082389422 0.35632247 14
1.5076175 -0.080594078 -0.026353134 7
1.4466996 -0.079616696 -0.3882286 0
1.5014989 -0.08263249 0.02624842 8
1.4515498 -0.08013773 -0.33562699 1
1.4936579 -0.082723945 0.078399271 9
1.4603723 -0.081136137 -0.28430542 2
1.5118698 -0.084261946 0.13247673 10
1.47332 -0.082113422 -0.23371312 3
1.5102818 -0.084437855 0.18572889 11
1.4765736 -0.082811795 -0.18158534 4
1.5166665 -0.085325904 0.24059623 12
1.4839615 -0.083745785 -0.13003637 5
1.5387065 -0.086835258 0.29957014 13
1.4815915 -0.083871439 -0.077771239 6
1.5389743 -0.08738929 0.35587254 14
1.4953481 -0.085173845 -0.026143704 7
1.4387134 -0.083963484 -0.38615805 0
1.5091865 -0.088340603 0.02638804 8
1.4532067 -0.085318312 -0.33607689 1
1.4993416 -0.088289499 0.078713283 9
1.4561756 -0.085747652 -0.28354219 2
1.5016375 -0.088687688 0.13160518 10
1.4848559 -0.087956622 -0.23559032 3
1.5159227 -0.090062402 0.18646011 11
1.4842017 -0.088437781 -0.18256028 4
1.5143875 -0.090501696 0.24028336 12
1.4757202 -0.088190883 -0.12933911 5
1.5423135 -0.092440724 0.30033338 13
1.4972389 -0.090001382 -0.078608617 6
1.5386599 -0.092760779 0.35587254 14
1.4990338 -0.09063445 -0.026213516 7
1.4461242 -0.089462146 -0.3882286 0
1.4948978 -0.092741363 0.026143704 8
1.4587349 -0.090753444 -0.3374266 1
1.5109845 -0.094268829 0.079341315 9
1.4597863 -0.091074623 -0.28430542 2
1.4973416 -0.093680017 0.13125655 10
1.4805969 -0.09289182 -0.23496459 3
1.5215425 -0.095727332 0.18719132 11
1.4878464 -0.093868062 -0.18304777 4
1.5120909 -0.095662609 0.23997049 12
1.4734149 -0.093215771 -0.12916481 5
1.5380627 -0.097575247 0.29957014 13
1.5009021 -0.09548077 -0.078817956 6
1.5461059 -0.098627381 0.35767215 14
1.5026996 -0.096121795 -0.026283324 7
1.5635189 -0.10028617 0.41980451 15
1.4496586 -0.094761543 -0.38926387 0
1.4925697 -0.097828194 0.0261088 8
1.4447974 -0.094950266 -0.33427727 1
1.5146322 -0.099805236 0.079550661 9
1.4712136 -0.096944205 -0.28659514 2
1.5049578 -0.099431552 0.13195379 10
1.4684374 -0.097276084 -0.23308739 3
1.5073341 -0.10011703 0.18548515 11
1.4954323 -0.099588662 -0.18402272 4
1.5255448 -0.10186144 0.24216059 12
1.4830031 -0.099280916 -0.13003637 5
1.5377127 -0.10294349 0.29957014 13
1.488603 -0.099916771 -0.078189924 6
1.5574183 -0.1048088 0.36037159 14
1.5103356 -0.10190509 -0.026422944 7
1.5419573 -0.104309 0.41411048 15
1.453156 -0.10034033 -0.39029911 0
1.496209 -0.10331313 0.026178611 8
1.4464012 -0.10012755 -0.33472717 1
1.5043123 -0.10440028 0.079027303 9
1.4728068 -0.10247208 -0.28697675 2
1.5125334 -0.10550137 0.13265103 10
1.4759531 -0.10320868 -0.23433885 3
1.5089557 -0.10551646 0.18572889 11
1.4812139 -0.10383635 -0.18231656 4
1.5232095 -0.1070475 0.24184772 12
1.4925848 -0.10515706 -0.13090792 5
1.5490752 -0.1094087 0.30185983 13
1.4882269 -0.10537209 -0.078189924 6
1.5492483 -0.10996442 0.35857198 14
1.5139601 -0.10745968 -0.026492754 7
1.5550725 -0.11065059 0.41773397 15
1.4643577 -0.10625101 -0.39340496 0
1.4978147 -0.10894137 0.026213516 8
1.4537988 -0.10599502 -0.33652678 1
1.4959517 -0.10933083 0.078608617 9
1.4606919 -0.10675389 -0.28468704 2
1.5181173 -0.11121718 0.13317397 10
1.4814941 -0.10879412 -0.23527746 3
1.5125184 -0.11133782 0.18621638 11
1.4808234 -0.10926458 -0.18231656 4
1.5188668 -0.11233821 0.24122196 12
1.4941764 -0.11077425 -0.13108224 5
1.5525999 -0.11510561 0.30262309 13
1.4998006 -0.11145443 -0.078817956 6
1.5488551 -0.11537162 0.35857198 14
1.5095677 -0.11271011 -0.026422944 7
1.560436 -0.11678201 0.41928688 15
1.4485483 -0.11044251 -0.38926387 0
1.5073948 -0.11492918 0.02638804 8
1.4592493 -0.11151455 -0.3378765 1
1.5035267 -0.11516216 0.079027303 9
1.456376 -0.11180633 -0.2839238 2
1.5018071 -0.11555777 0.13177948 10
1.4850243 -0.11452713 -0.23590319 3
1.5239958 -0.11753265 0.1876788 11
1.4883498 -0.1150449 -0.18329151 4
1.5105875 -0.11702903 0.23997049 12
1.4838485 -0.11521802 -0.13021068 5
1.559997 -0.12140471 0.30414957 13
1.4993819 -0.11695072 -0.078817956 6
1.556193 -0.12165521 0.36037159 14
1.5051779 -0.1176671 -0.026353134 7
1.5677227 -0.12283184 0.42135742 15
1.4443226 -0.11493895 -0.3882286 0
1.4970176 -0.11939536 0.026213516 8
1.4646786 -0.11707339 -0.33922619 1
1.5111002 -0.12078393 0.079445995 9
1.469696 -0.11773261 -0.28659514 2
1.5053877 -0.12085618 0.1321281 10
1.4728224 -0.11850048 -0.23402599 3
1.5196187 -0.12253258 0.18719132 11
1.4919174 -0.12029891 -0.18377897 4
1.518067 -0.12267411 0.24122196 12
1.4814724 -0.11997719 -0.13003637 5
1.5478446 -0.12562427 0.30185983 13
1.5029674 -0.12224605 -0.079027303 6
1.5596877 -0.12685949 0.36127138 14
1.5087655 -0.12298273 -0.026422944 7
1.5634558 -0.12771535 0.42032215 15
1.4516344 -0.12036642 -0.39029911 0
1.4966135 -0.12435899 0.026213516 8
1.4565144 -0.12128298 -0.3374266 1
1.5186527 -0.1264572 0.079864673 9
1.4692975 -0.12260565 -0.28659514 2
1.5129205 -0.12651166 0.13282534 10
1.4763584 -0.12371379 -0.23465173 3
1.5112916 -0.12690669 0.18621638 11
1.4954666 -0.12557782 -0.18426646 4
1.527494 -0.12853572 0.24278632 12
1.4870223 -0.12539148 -0.1305593 5
1.5395945 -0.13009521 0.30033338 13
1.4985733 -0.12689236 -0.078817956 6
1.5592586 -0.1320309 0.36127138 14
1.5163195 -0.12866157 -0.026562562 7
1.5707234 -0.13355392 0.4223927 15
1.4512273 -0.12517954 -0.39029911 0
1.5061542 -0.13018225 0.02638804 8
1.4522212 -0.12577598 -0.33652678 1
1.500294 -0.13020337 0.078922629 9
1.4727947 -0.12781683 -0.28735834 2
1.5184474 -0.13204582 0.13334829 10
1.4818436 -0.12912332 -0.23559032 3
1.5069073 -0.13157228 0.18572889 11
1.4851315 -0.12993217 -0.18304777 4
1.5388429 -0.13490194 0.24466354 12
1.4925299 -0.13110444 -0.13108224 5
1.5548004 -0.1365743 0.3033863 13
1.4941652 -0.13151087 -0.078608617 6
1.5510234 -0.13678813 0.35947177 14
1.5158612 -0.13395374 -0.026562562 7
1.5740962 -0.13937673 0.42342797 15
1.4584551 -0.13119002 -0.39236969 0
1.5096738 -0.13579722 0.026457848 8
1.4517733 -0.13084443 -0.33652678 1
1.5018196 -0.13561921 0.079027303 9
1.46254 -0.13232948 -0.28545028 2
1.5239059 -0.13814995 0.13387121 10
1.4852951 -0.13491106 -0.23621608 3
1.5242316 -0.1384477 0.18792254 11
1.4866458 -0.13529535 -0.18329151 4
1.5226249 -0.13883768 0.24216059 12
1.4980155 -0.13685735 -0.13160518 5
1.5621097 -0.14298786 0.30491278 13
1.4936732 -0.13698639 -0.078608617 6
1.5505115 -0.142472 0.35947177 14
1.5074191 -0.13851237 -0.026422944 7
1.5736002 -0.14487049 0.42342797 15
1.4541413 -0.1359206 -0.39133441 0
1.5131481 -0.14170244 0.026527658 8
1.4648656 -0.13743882 -0.33967611 1
1.507278 -0.14168347 0.079341315 9
1.4640237 -0.1376176 -0.28583187 2
1.51548 -0.14272133 0.13317397 10
1.4966149 -0.14120822 -0.23809329 3
1.5197613 -0.14365974 0.18743508 11
1.4940448 -0.1414919 -0.18426646 4
1.5221058 -0.14441743 0.24216059 12
1.4895948 -0.14133279 -0.13090792 5
1.56551 -0.14881134 0.30567604 13
1.5051154 -0.14333552 -0.079236642 6
1.5577645 -0.14862376 0.36127138 14
1.5148638 -0.14479749 -0.026562562 7
1.5730586 -0.15063706 0.42342797 15
1.453658 -0.14099568 -0.39133441 0
1.5007023 -0.14582305 0.026318228 8
1.468256 -0.14292893 -0.3405759 1
1.5167133 -0.14791329 0.079864673 9
1.4635344 -0.14272717 -0.28583187 2
1.5110067 -0.147623 0.13282534 10
1.4882489 -0.14566185 -0.23684181 3
1.5271529 -0.14973865 0.18841003 11
1.4935418 -0.14670624 -0.18426646 4
1.529456 -0.15050352 0.24341206 12
1.493058 -0.14692181 -0.13125655 5
1.5532583 -0.15311943 0.3033863 13
1.5085812 -0.14898106 -0.079445995 6
1.5611148 -0.15444419 0.3621712 14
1.5143491 -0.15008447 -0.026562562 7
1.5686784 -0.15574543 0.4223927 15
1.4570013 -0.14645544 -0.39236969 0
1.5001842 -0.1510606 0.026318228 8
1.4599925 -0.14727092 -0.33877629 1
1.5161877 -0.15320671 0.079864673 9
1.4747473 -0.14901926 -0.28812161 2
1.5184112 -0.1536991 0.1335226 10
1.4838009 -0.15045735 -0.23621608 3
1.5206963 -0.15446669 0.1876788 11
1.5127696 -0.15392829 -0.18670385 4
1.5367821 -0.15664262 0.24466354 12
1.4925359 -0.15213266 -0.13125655 5
1.544902 -0.15774271 0.30185983 13
1.5040781 -0.15383962 -0.079236642 6
1.5644433 -0.16028979 0.36307099 14
1.521773 -0.15618627 -0.026702182 7
1.5719687 -0.16161533 0.42342797 15
1.4564812 -0.15154044 -0.39236969 0
1.5076033 -0.15712544 0.026457848 8
1.4555932 -0.15196165 -0.3378765 1
1.5116709 -0.1580828 0.079655334 9
1.4859338 -0.15539134 -0.29041129 2
1.5218284 -0.15941355 0.13387121 10
1.491125 -0.15646043 -0.23746756 3
1.5240963 -0.16018896 0.18816628 11
1.4964296 -0.15754515 -0.18475394 4
1.5264034 -0.1609702 0.24309918 12
1.4979399 -0.15796852 -0.13177948 5
1.559961 -0.16478436 0.30491278 13
1.4995596 -0.15866861 -0.079027303 6
1.5599986 -0.16533896 0.3621712 14
1.5291727 -0.16234174 -0.026841803 7
1.579079 -0.16791865 0.42549852 15
1.4674681 -0.15786335 -0.39547554 0
1.5130103 -0.16302972 0.026562562 8
1.4666787 -0.15829636 -0.3405759 1
1.5130955 -0.16357322 0.079760008 9
1.4756229 -0.15952224 -0.28850323 2
1.529186 -0.16558269 0.13456847 10
1.4944974 -0.16209048 -0.23809329 3
1.5255011 -0.16572244 0.18841003 11
1.4958705 -0.16276771 -0.18475394 4
1.5238686 -0.16608332 0.24278632 12
1.5033215 -0.16384394 -0.13230242 5
1.5671829 -0.17108086 0.30643925 13
1.5069383 -0.16477042 -0.079445995 6
1.5555376 -0.17035908 0.36127138 14
1.5126945 -0.16593418 -0.026562562 7
1.5746427 -0.1730077 0.42446327 15
1.4630679 -0.16255814 -0.39444023 0
1.5144194 -0.16853127 0.026597466 8
1.4699908 -0.16384681 -0.34147573 1
1.5184702 -0.16951869 0.08007402 9
1.4711547 -0.1642365 -0.28773996 2
1.5206785 -0.17003393 0.13387121 10
1.4978487 -0.16774593 -0.23871902 3
1.5229408 -0.17082517 0.18816628 11
1.4992386 -0.16843152 -0.18524142 4
1.5213165 -0.17118074 0.24247345 12
1.4928409 -0.16797662 -0.13143085 5
1.5704782 -0.17699005 0.30720252 13
1.5142925 -0.17092569 -0.079864673 6
1.5568699 -0.17600678 0.36172128 14
1.51608 -0.17166343 -0.026632372 7
1.5701901 -0.17806779 0.42342797 15
1.4624916 -0.16766421 -0.39444023 0
1.5078621 -0.17313224 0.026492754 8
1.4752178 -0.16964492 -0.34282541 1
1.529774 -0.17618921 0.080702052 9
1.4725229 -0.16959541 -0.28812161 2
1.5200757 -0.17534105 0.13387121 10
1.4894049 -0.17206658 -0.23746756 3
1.5341667 -0.17750914 0.18962872 11
1.5025854 -0.17412081 -0.18572889 4
1.532483 -0.17785645 0.24435066 12
1.4922454 -0.17318657 -0.13143085 5
1.5620503 -0.18156426 0.30567604 13
1.5216221 -0.17713429 -0.080283366 6
1.5639884 -0.18234289 0.36352089 14
1.5234163 -0.17788215 -0.026771991 7
1.5791528 -0.18466961 0.42601615 15
1.4714899 -0.17390189 -0.39702842 0
1.5032767 -0.17792453 0.026422944 8
1.4668759 -0.17387579 -0.3410258 1
1.5291497 -0.18152806 0.080702052 9
1.4777706 -0.17542875 -0.28926644 2
1.5194544 -0.18064605 0.13387121 10
1.4887952 -0.17726454 -0.23746756 3
1.5256532 -0.18192312 0.18865377 11
1.5098528 -0.18030632 -0.18670385 4
1.5357755 -0.18367387 0.2449764 12
1.4975667 -0.17910422 -0.13195379 5
1.5575081 -0.18654875 0.30491278 13
1.5090964 -0.18101746 -0.079655334 6
1.5672121 -0.18826596 0.36442071 14
1.522786 -0.18319878 -0.026771991 7
1.5861704 -0.19110508 0.4280867 15
1.5105865 -0.18413873 0.026562562 8
1.4623913 -0.17852283 -0.34012601 1
1.5245743 -0.18611386 0.080492713 9
1.4849441 -0.18153901 -0.29079291 2
1.5287027 -0.18715946 0.13474278 10
1.4979708 -0.1836623 -0.2390319 3
1.5210683 -0.18676372 0.18816628 11
1.5013331 -0.18460652 -0.18572889 4
1.5430006 -0.18973002 0.24622789 12
1.5048422 -0.18530463 -0.13265103 5
1.5704871 -0.19366631 0.30758414 13
1.504491 -0.1857945 -0.079445995 6
1.5588094 -0.19277869 0.3626211 14
1.5340779 -0.18972012 -0.026981421 7
1.5159203 -0.18989266 0.026667278 8
1.4714592 -0.18458407 -0.34237552 1
1.5159886 -0.19043872 0.08007402 9
1.4765097 -0.18574119 -0.28926644 2
1.5418775 -0.19423763 0.13596295 10
1.4993134 -0.18887562 -0.23934476 3
1.5322576 -0.19329748 0.18962872 11
1.5046518 -0.19008169 -0.18621638 4
1.5364496 -0.19437116 0.24528927 12
1.5160458 -0.19205879 -0.1336969 5
1.5678886 -0.19862644 0.30720252 13
1.5157547 -0.19229072 -0.08007402 6
1.5581616 -0.19794683 0.3626211 14
1.5175364 -0.19305502 -0.026702182 7
1.5211979 -0.19594947 0.026771991 8
1.4766041 -0.19046722 -0.34372523 1
1.5271994 -0.19726448 0.080702052 9
1.4739387 -0.19038494 -0.28888482 2
1.5234414 -0.19704942 0.13439415 10
1.5064809 -0.195123 -0.24059623 3
1.5355107 -0.19915551 0.1901162 11
1.5079161 -0.19584408 -0.18670385 4
1.5338029 -0.19947843 0.2449764 12
1.4995606 -0.19529122 -0.13230242 5
1.5691324 -0.20435172 0.30758414 13
1.5190352 -0.19809708 -0.080283366 6
1.5651904 -0.204394 0.36442071 14
1.5168533 -0.19835103 -0.026702182 7
1.5165399 -0.20073347 0.026702182 8
1.4875213 -0.19715664 -0.34642464 1
1.5284812 -0.20285699 0.080806725 9
1.4790695 -0.19656183 -0.2900297 2
1.5246841 -0.20289461 0.13456847 10
1.4979234 -0.19959956 -0.23934476 3
1.5407093 -0.20530082 0.19084741 11
1.5052556 -0.20084399 -0.18646011 4
1.5389712 -0.20561597 0.245915 12
1.4988698 -0.20052446 -0.13230242 5
1.5722646 -0.21062283 0.30834734 13
1.522258 -0.20419435 -0.080492713 6
1.5721563 -0.21116696 0.3662203 14
1.5240794 -0.20470943 -0.026841803 7
1.5138127 -0.20602085 0.026667278 8
1.4713415 -0.20050234 -0.34282541 1
1.5356432 -0.20953788 0.08122541 9
1.4861553 -0.20278527 -0.29155618 2
1.5338367 -0.20956405 0.13544002 10
1.4933033 -0.20429157 -0.23871902 3
1.5261793 -0.20906056 0.18914123 11
1.5123762 -0.20743868 -0.18743508 4
1.5440782 -0.21206152 0.24685362 12
1.5060561 -0.20683962 -0.13299966 5
1.561795 -0.21477248 0.30643925 13
1.5175788 -0.20896186 -0.080283366 6
1.5752705 -0.21718587 0.36712012 14
1.5391661 -0.21248181 -0.027121039 7
1.5150647 -0.21158035 0.026702182 8
1.4609828 -0.20428774 -0.3405759 1
1.5230347 -0.21323541 0.080597378 9
1.4893268 -0.20851608 -0.29231939 2
1.5390152 -0.21574669 0.13596295 10
1.4964935 -0.21005207 -0.23934476 3
1.5254402 -0.21438666 0.18914123 11
1.50378 -0.21161015 -0.18646011 4
1.5511528 -0.21855247 0.24810509 12
1.5132164 -0.21320735 -0.1336969 5
1.574644 -0.22214261 0.30911061 13
1.5089296 -0.21314056 -0.079864673 6
1.5667847 -0.2215917 0.3653205 14
1.5344552 -0.21729247 -0.027051231 7
1.5242145 -0.21828507 0.026876707 8
1.479551 -0.21215227 -0.34507492 1
1.5223192 -0.2182848 0.080597378 9
1.4788734 -0.21231854 -0.29041129 2
1.5421971 -0.22168449 0.13631159 10
1.503572 -0.21640016 -0.24059623 3
1.5325419 -0.22084266 0.1901162 11
1.5030321 -0.21685803 -0.18646011 4
1.5465093 -0.22313093 0.24747935 12
1.5164068 -0.2190579 -0.13404553 5
1.577745 -0.22819984 0.30987382 13
1.516083 -0.2195514 -0.080283366 6
1.5698588 -0.22761869 0.3662203 14
1.5297681 -0.22180583 -0.026981421 7
1.5313964 -0.22449854 0.027016325 8
1.4865516 -0.21818943 -0.34687454 1
1.5334042 -0.22533967 0.08122541 9
1.4839503 -0.21833682 -0.29155618 2
1.5335293 -0.22590496 0.13561434 10
1.5106633 -0.22253655 -0.24184772 3
1.5455481 -0.22795105 0.19182236 11
1.51016 -0.22300102 -0.18743508 4
1.5418128 -0.22795007 0.24685362 12
1.5116911 -0.22376634 -0.1336969 5
1.5808637 -0.23400554 0.31063706 13
1.5232493 -0.2257489 -0.080702052 6
1.5729507 -0.23339534 0.36712012 14
1.5289847 -0.22714438 -0.026981421 7
1.5226933 -0.22865494 0.026876707 8
1.4934893 -0.22453606 -0.34867415 1
1.5365584 -0.23128545 0.081434757 9
1.4871007 -0.223841 -0.29231939 2
1.5288315 -0.23039527 0.13526571 10
1.5020642 -0.22662956 -0.24059623 3
1.5467058 -0.23364115 0.1920661 11
1.5152606 -0.22916162 -0.18816628 4
1.5410075 -0.23333061 0.24685362 12
1.5030611 -0.22758496 -0.13299966 5
1.5742141 -0.23863961 0.3094922 13
1.5264014 -0.23166408 -0.080911398 6
1.5836861 -0.24064101 0.36981952 14
1.5360901 -0.23368311 -0.027121039 7
1.5179329 -0.23336102 0.026806895 8
1.5377156 -0.23695181 0.08153943 9
1.4940717 -0.23022659 -0.29384586 2
1.5339252 -0.23664181 0.13578865 10
1.501264 -0.23187137 -0.24059623 3
1.5399954 -0.23812868 0.19133489 11
1.5222982 -0.23566423 -0.18914123 4
1.5616565 -0.24203628 0.25029516 12
1.5101329 -0.23405081 -0.1336969 5
1.5694914 -0.24353112 0.30872896 13
1.5176891 -0.23576446 -0.080492713 6
1.5431687 -0.24027424 -0.027260659 7
1.52106 -0.23927967 0.026876707 8
1.5329332 -0.24169587 0.081330083 9
1.493259 -0.23544048 -0.29384586 2
1.54293 -0.24354804 0.1366602 10
1.5082501 -0.23834369 -0.24184772 3
1.5450369 -0.24443342 0.1920661 11
1.5155845 -0.24004501 -0.18841003 4
1.5627531 -0.24779539 0.25060806 12
1.5211136 -0.24119289 -0.13474278 5
1.5705707 -0.24931598 0.30911061 13
1.5168568 -0.24106073 -0.080492713 6
1.5423205 -0.24565947 -0.027260659 7
1.5300869 -0.24617593 0.027051231 8
1.5340521 -0.24736328 0.081434757 9
1.4924281 -0.24065147 -0.29384586 2
1.5499382 -0.25020245 0.13735744 10
1.5113091 -0.2442373 -0.24247345 3
1.5520127 -0.25109324 0.19304106 11
1.5068991 -0.24406441 -0.18743508 4
1.5482292 -0.25103575 0.24841796 12
1.5202625 -0.2465011 -0.13474278 5
1.585194 -0.25731331 0.31216353 13
1.5238918 -0.2476355 -0.080911398 6
1.5375062 -0.25039878 -0.027190849 7
1.5291743 -0.25178233 0.027051231 8
1.5331793 -0.2527166 0.081434757 9
1.4857248 -0.24516097 -0.29270101 2
1.5411477 -0.25458267 0.1366602 10
1.5104038 -0.24977489 -0.24247345 3
1.5471652 -0.25613153 0.19255358 11
1.5138279 -0.25088403 -0.18841003 4
1.5512412 -0.25708446 0.2490437 12
1.5036247 -0.24946272 -0.13334829 5
1.5842402 -0.26312158 0.31216353 13
1.5347952 -0.25518465 -0.08153943 6
1.5366229 -0.25576416 -0.027190849 7
1.5263588 -0.25652045 0.027016325 8
1.5401659 -0.25939369 0.081853449 9
1.4945396 -0.25197762 -0.2946091 2
1.5363204 -0.25929758 0.13631159 10
1.5017759 -0.25346717 -0.24122196 3
1.5560939 -0.26291427 0.19377227 11
1.5188595 -0.25689581 -0.18914123 4
1.5542296 -0.26315728 0.24966943 12
1.5066733 -0.25537571 -0.1336969 5
1.5794877 -0.26771748 0.31140029 13
1.5378786 -0.26094103 -0.081748769 6
1.5436063 -0.26246724 -0.027330469 7
1.5254543 -0.26184687 0.027016325 8
1.5510613 -0.26679981 0.082481474 9
1.4936959 -0.25693232 -0.2946091 2
1.539379 -0.26506695 0.1366602 10
1.5047753 -0.25937891 -0.24184772 3
1.5434297 -0.26631919 0.19230984 11
1.5296904 -0.2642234 -0.19060367 4
1.5610876 -0.26992723 0.25092092 12
1.517552 -0.26267228 -0.13474278 5
1.5824125 -0.27389896 0.31216353 13
1.5251509 -0.26426175 -0.081120737 6
1.5505615 -0.26922217 -0.027470089 7
1.5265006 -0.2675153 0.027051231 8
1.5402846 -0.27048513 0.081958115 9
1.5101466 -0.26546434 -0.29804367 2
1.5501705 -0.27277899 0.13770607 10
1.5154872 -0.26694852 -0.24372493 3
1.5503106 -0.27308258 0.19328479 11
1.5189838 -0.26783785 -0.18938497 4
1.5640265 -0.27606151 0.25154665 12
1.5244738 -0.26935455 -0.13544002 5
1.581398 -0.27969697 0.31216353 13
1.5241719 -0.26984993 -0.081120737 6
1.5535504 -0.27533093 -0.027539898 7
1.5373203 -0.27522278 0.027260659 8
1.5353512 -0.27542341 0.081748769 9
1.4956839 -0.2683076 -0.29537234 2
1.5531311 -0.2788927 0.1380547 10
1.514546 -0.27223694 -0.24372493 3
1.5551605 -0.27981752 0.19401602 11
1.5179921 -0.27340341 -0.18938497 4
1.559116 -0.28109112 0.25092092 12
1.5274458 -0.27538133 -0.13578865 5
1.5842761 -0.28591272 0.31292677 13
1.5310826 -0.27658889 -0.08153943 6
1.5485954 -0.28031078 -0.027470089 7
1.5422517 -0.28166515 0.027365373 8
1.5461683 -0.28293821 0.082376808 9
1.5521481 -0.28431246 0.1380547 10
1.5252444 -0.27965954 -0.24560213 3
1.5522217 -0.28488597 0.19377227 11
1.5248381 -0.28013527 -0.19035992 4
1.5561825 -0.28617451 0.25060806 12
1.5147182 -0.2785494 -0.13474278 5
1.5967841 -0.29392901 0.3155981 13
1.5379646 -0.28337935 -0.081958115 6
1.5476074 -0.28571469 -0.027470089 7
1.5333955 -0.28558236 0.027225753 8
1.5452216 -0.28806394 0.082376808 9
1.5452707 -0.28863126 0.13753176 10
1.5126085 -0.28280377 -0.24372493 3
1.560974 -0.29212829 0.19499096 11
1.5297046 -0.28655276 -0.19109115 4
1.555225 -0.29133338 0.25060806 12
1.5215696 -0.28530377 -0.13544002 5
1.5976781 -0.29986325 0.31597972 13
1.5487436 -0.29095873 -0.082586147 6
1.5505819 -0.29158428 -0.027539898 7
1.5304754 -0.2902931 0.027190849 8
1.5540173 -0.29532042 0.082900167 9
1.5481682 -0.29476881 0.13788037 10
1.5116625 -0.28781819 -0.24372493 3
1.5521967 -0.2958166 0.19401602 11
1.5306958 -0.29199582 -0.19133489 4
1.5639002 -0.29861283 0.25217238 12
1.5205644 -0.29061329 -0.13544002 5
1.5320766 -0.2930907 -0.081748769 6
1.5613384 -0.29925355 -0.027749326 7
1.5392696 -0.29753119 0.027365373 8
1.5490552 -0.29998368 0.08269082 9
1.555006 -0.30141768 0.13857763 10
1.5184053 -0.29459807 -0.2449764 3
1.5511547 -0.30123296 0.19401602 11
1.5257699 -0.29657966 -0.19084741 4
1.5686653 -0.3052018 0.25311098 12
1.5313268 -0.29793715 -0.13648589 5
1.5310442 -0.29843688 -0.081748769 6
1.5485085 -0.3024022 -0.027539898 7
1.5421456 -0.30367514 0.027435182 8
1.5440798 -0.30461594 0.082481474 9
1.5676271 -0.30954561 0.13979781 10
1.5289952 -0.30219457 -0.24685362 3
1.5656725 -0.30972752 0.19596592 11
1.5266727 -0.30228934 -0.19109115 4
1.5675905 -0.31067559 0.25311098 12
1.5283232 -0.30289334 -0.13631159 5
1.5417475 -0.30611321 -0.082376808 6
1.5395983 -0.30624518 -0.027400278 7
1.5469581 -0.31023601 0.027539898 8
1.5527977 -0.31197095 0.083004832 9
1.5548173 -0.31265905 0.13875194 10
1.527931 -0.30752993 -0.24685362 3
1.5743119 -0.31715101 0.19718461 11
1.5275542 -0.30800894 -0.19133489 4
1.5568148 -0.3141917 0.25154665 12
1.5291556 -0.30888736 -0.13648589 5
1.5445848 -0.31228462 -0.082586147 6
1.53852 -0.31161749 -0.027400278 7
1.5380286 -0.31403381 0.027400278 8
1.561483 -0.31939051 0.083528191 9
1.5497571 -0.31755573 0.13840331 10
1.5248585 -0.31273118 -0.24654076 3
1.5654168 -0.32104921 0.19620967 11
1.5381368 -0.31573415 -0.1927973 4
1.5692533 -0.32240689 0.25373673 12
1.5202618 -0.31261799 -0.13578865 5
1.5473421 -0.31874961 -0.082795486 6
1.54134 -0.31779364 -0.027470089 7
1.5368673 -0.31966886 0.027400278 8
1.5603585 -0.32483914 0.083528191 9
1.5583913 -0.32499722 0.13927487 10
1.5160227 -0.31643754 -0.24528927 3
1.5564569 -0.3251608 0.19523472 11
1.5486279 -0.3238073 -0.19425975 4
1.5758526 -0.32949981 0.25498822 12
1.5308621 -0.32037148 -0.13683452 5
1.5423106 -0.32332936 -0.082586147 6
1.5519637 -0.32563579 -0.027679518 7
1.545581 -0.32683212 0.027574802 8
1.5553074 -0.32945609 0.083318852 9
1.5669924 -0.33250284 0.14014643 10
1.5650791 -0.33238235 0.19645341 11
1.5320119 -0.32563919 -0.19230984 4
1.5824214 -0.33664268 0.25623968 12
1.5433755 -0.32861766 -0.1380547 5
1.5373231 -0.32760951 -0.082376808 6
1.5586401 -0.33272108 -0.027819136 7
1.5463856 -0.33264571 0.027609706 8
1.5521954 -0.3344624 0.083214179 9
1.5736717 -0.33937746 0.14084367 10
1.5677899 -0.33868179 0.19694087 11
1.5347463 -0.33182389 -0.1927973 4
1.5696524 -0.33965763 0.25436246 12
1.5383825 -0.33289114 -0.13770607 5
1.5439779 -0.33466613 -0.082795486 6
1.5457442 -0.33561394 -0.027609706 7
1.5588896 -0.34103313 0.02785404 8
1.5646752 -0.34287116 0.083946884 9
1.5588546 -0.34188083 0.13962351 10
1.5782312 -0.34670785 0.1984033 11
1.5413338 -0.33888417 -0.19377227 4
1.5645989 -0.34428564 0.25373673 12
1.5411029 -0.33911541 -0.1380547 5
1.5467012 -0.34091339 -0.083004832 6
1.5445633 -0.34100756 -0.027609706 7
1.5459777 -0.34386754 0.027644612 8
1.5635296 -0.34805796 0.083946884 9
1.5537622 -0.34645289 0.13927487 10
