# .PCD v0.7 - Point Cloud Data file format
VERSION 0.7
FIELDS x y z intensity
SIZE 4 4 4 4
TYPE F F F F
COUNT 1 1 1 1
WIDTH 834
HEIGHT 1
VIEWPOINT 0 0 0 1 0 0 0
POINTS 834
DATA ascii
2.0247583 0.67983288 -0.1868619 5
2.0213287 0.67123139 -0.18633896 5
2.0235438 0.6645242 -0.18633896 5
2.0334315 0.65991724 -0.18703623 5
2.0338252 0.65220726 -0.1868619 5
2.0208945 0.64029008 -0.18546741 5
2.0231175 0.6332314 -0.18546741 5
2.0253158 0.62616503 -0.18546741 5
2.0589986 0.63618612 -0.112941 6
2.0311916 0.62061113 -0.18581605 5
2.0612068 0.62899441 -0.112941 6
2.0371606 0.61466765 -0.18616466 5
2.0537207 0.61927223 -0.11241764 6
2.0145979 0.60057771 -0.25811929 4
2.0240183 0.60300148 -0.18477017 5
2.071291 0.61629802 -0.11325502 6
2.0109692 0.59185988 -0.25738806 4
2.0261106 0.59593308 -0.18477017 5
2.075346 0.60962641 -0.1133597 6
2.0187414 0.58649951 -0.25811929 4
2.0281789 0.58885646 -0.18477017 5
2.0659513 0.59904253 -0.11273166 6
2.0035026 0.57487386 -0.25592566 4
2.0378828 0.58396894 -0.18546741 5
2.0602465 0.58998835 -0.11231297 6
2.0016773 0.56679463 -0.25543818 4
2.0436423 0.57829332 -0.18581605 5
2.0661376 0.58387887 -0.11252232 6
2.007467 0.56087279 -0.25592566 4
2.0302968 0.56686926 -0.18442155 5
2.0681629 0.57666361 -0.11252232 6
2.0055852 0.55280745 -0.25543818 4
2.0303426 0.5592491 -0.18424724 5
2.0740149 0.57049972 -0.11273166 6
2.0151646 0.54788691 -0.25641313 4
2.0284367 0.55111408 -0.18389861 5
2.0682833 0.56116503 -0.11231297 6
2.1289055 0.57681537 -0.038500007 7
2.0073843 0.53862864 -0.25519443 4
2.0418954 0.54712373 -0.1849445 5
2.0625117 0.55187738 -0.11189428 6
2.1211474 0.56716907 -0.038325485 7
2.0034022 0.53044498 -0.2544632 4
2.0436983 0.5403499 -0.1849445 5
2.068193 0.54605401 -0.11210363 6
2.0940135 0.55248034 -0.037801914 7
2.0090833 0.52445078 -0.25495067 4
2.0339117 0.53055185 -0.18389861 5
2.0699923 0.53919297 -0.11210363 6
2.0978646 0.54567134 -0.03783682 7
1.997054 0.51461512 -0.32663518 3
2.0128243 0.51792878 -0.25519443 4
2.0357509 0.52345031 -0.18389861 5
2.0795999 0.53395033 -0.11252232 6
2.109442 0.54082775 -0.038011342 7
1.9892656 0.50520927 -0.32507086 3
2.0165441 0.51138794 -0.25543818 4
2.0375657 0.51634049 -0.18389861 5
2.0698335 0.5237487 -0.11189428 6
2.1151009 0.53481042 -0.038081151 7
1.981349 0.4962098 -0.3235065 3
2.0124514 0.5032537 -0.25470695 4
2.043222 0.51019078 -0.18424724 5
2.0638075 0.51494837 -0.1114756 6
2.1169548 0.52742451 -0.038081151 7
1.9792331 0.48834559 -0.32288077 3
2.0103412 0.49527565 -0.25421947 4
2.041033 0.50246018 -0.18389861 5
2.0733507 0.50964761 -0.11189428 6
2.1071308 0.51717126 -0.037871722 7
1.9847647 0.48236623 -0.3235065 3
2.0062702 0.48685125 -0.25348827 4
2.038902 0.49439308 -0.18355 5
2.0789993 0.50334764 -0.11210363 6
2.1128106 0.51075196 -0.03794153 7
1.9768306 0.47313657 -0.32194218 3
2.0156803 0.48169008 -0.2544632 4
2.0289881 0.48449597 -0.18250412 5
2.0846293 0.4970133 -0.11231297 6
2.1106899 0.50244808 -0.037871722 7
1.974625 0.46532658 -0.32131645 3
2.021214 0.47556078 -0.25495067 4
2.042304 0.48014683 -0.18355 5
2.0707963 0.48608267 -0.1114756 6
2.1241126 0.49781555 -0.038081151 7
2.1326823 0.49629149 0.038220771 8
1.9781615 0.45887685 -0.32162929 3
2.0035229 0.46402305 -0.25251329 4
2.0439677 0.47301435 -0.18355 5
2.0646966 0.47705224 -0.11105692 6
2.121855 0.48986879 -0.038011342 7
2.1284692 0.48787564 0.038116053 8
1.9835238 0.45319489 -0.32225505 3
2.0089214 0.45825997 -0.2530008 4
2.0494914 0.46676198 -0.18389861 5
2.0779517 0.47286224 -0.11168494 6
2.1118517 0.47980136 -0.037801914 7
2.1477153 0.48440307 0.038430199 8
1.9850937 0.44626877 -0.32225505 3
2.0105088 0.45124421 -0.2530008 4
2.0432515 0.45821953 -0.18320136 5
2.0795898 0.46560544 -0.11168494 6
2.1057079 0.47068128 -0.03766229 7
2.1376798 0.47430369 0.038220771 8
1.9781289 0.43817946 -0.39382979 2
1.9847105 0.43890968 -0.32194218 3
2.0198252 0.44593573 -0.25397575 4
2.0331652 0.4485088 -0.1821555 5
2.0851033 0.459203 -0.11189428 6
2.119056 0.46590498 -0.037871722 7
2.123693 0.46342763 0.03794153 8
1.9604638 0.42709231 -0.39001361 2
1.9727187 0.42904088 -0.3197521 3
2.0233097 0.43930319 -0.25421947 4
2.0464005 0.44394377 -0.18320136 5
2.0710778 0.44853932 -0.11105692 6
2.1206694 0.45850569 -0.037871722 7
2.1389837 0.45894983 0.038185868 8
1.9657822 0.42106828 -0.39077684 2
1.9799998 0.4233909 -0.32069072 3
2.0228889 0.43182477 -0.25397575 4
2.0479379 0.43679726 -0.18320136 5
2.0726306 0.44130862 -0.11105692 6
2.126169 0.45193133 -0.03794153 7
2.1386163 0.45106736 0.038150962 8
1.9422652 0.4089458 -0.3858158 2
1.9872649 0.41769522 -0.32162929 3
2.0127275 0.42231458 -0.25251329 4
2.0533504 0.43046302 -0.18355 5
2.0839331 0.4361161 -0.11158027 6
2.1120741 0.44123587 -0.03766229 7
2.1401777 0.44359991 0.038150962 8
1.9513711 0.40375417 -0.3873423 2
1.9964489 0.41235551 -0.32288077 3
2.0180779 0.41608745 -0.2530008 4
2.0470345 0.42168632 -0.18285275 5
2.085443 0.42883864 -0.11158027 6
2.1136017 0.43386012 -0.03766229 7
2.129956 0.43373185 0.03794153 8
1.9489206 0.3961584 -0.38657904 2
1.9881965 0.40341946 -0.32131645 3
2.0253546 0.41022313 -0.253732 4
2.040683 0.41295707 -0.1821555 5
2.0908425 0.42234778 -0.11178961 6
2.1189492 0.42764041 -0.037732106 7
2.1313825 0.42666671 0.03794153 8
1.954142 0.39012215 -0.3873423 2
1.9875861 0.3964372 -0.32100356 3
2.036438 0.40544301 -0.25495067 4
2.0460203 0.40660834 -0.18250412 5
2.0804772 0.41307861 -0.11116158 6
2.1243517 0.42101923 -0.037801914 7
2.132859 0.41922364 0.03794153 8
1.9592782 0.38439524 -0.38810554 2
1.9908963 0.38987687 -0.32131645 3
2.0183589 0.39452338 -0.25251329 4
2.0512683 0.40058443 -0.18285275 5
2.0819066 0.40581334 -0.11116158 6
2.1297343 0.41436455 -0.037871722 7
2.1480539 0.41442823 0.038185868 8
2.1887283 0.42148218 0.11681387 9
1.9451854 0.37458327 -0.38505259 2
1.9980648 0.38404396 -0.32225505 3
2.0197237 0.38747603 -0.25251329 4
2.0565674 0.39417222 -0.18320136 5
2.0833104 0.39854407 -0.11116158 6
2.1193826 0.404677 -0.03766229 7
2.1475229 0.40655506 0.038150962 8
2.1744859 0.41087338 0.11597649 9
1.9503392 0.36852041 -0.3858158 2
1.9993932 0.37706655 -0.32225505 3
2.0132608 0.37895417 -0.25153834 4
2.0461829 0.3847813 -0.1821555 5
2.0886149 0.39200583 -0.11137092 6
2.1129203 0.39580423 -0.037522674 7
2.1351664 0.39650106 0.037906628 8
2.1837621 0.40473688 0.11639518 9
1.9516135 0.36171064 -0.3858158 2
1.9948698 0.36900756 -0.32131645 3
2.0223796 0.37336624 -0.25251329 4
2.0396757 0.37619132 -0.18145825 5
2.0978279 0.38615859 -0.11178961 6
2.1182225 0.38914838 -0.037592482 7
2.1385045 0.38940316 0.03794153 8
2.1851616 0.39711213 0.11639518 9
1.9644542 0.35700268 -0.38810554 2
1.978653 0.35886869 -0.31850061 3
2.0314839 0.36771828 -0.25348827 4
2.0566614 0.37190497 -0.18285275 5
2.0795078 0.37528676 -0.1107429 6
2.1313758 0.38388026 -0.037801914 7
2.1398506 0.38193646 0.03794153 8
1.9357475 0.34515804 -0.45395124 1
2.1786692 0.38808042 0.11597649 9
1.9618227 0.34945416 -0.3873423 2
1.9876729 0.35334307 -0.3197521 3
2.0268915 0.35958406 -0.25275704 4
2.0579469 0.36472404 -0.18285275 5
2.0847385 0.36872077 -0.11095224 6
2.124826 0.37504712 -0.03766229 7
2.1411707 0.37446514 0.03794153 8
1.9292619 0.33705685 -0.4521516 1
2.1760757 0.37978578 0.11576715 9
1.9514265 0.34057826 -0.38505259 2
1.9966786 0.34775788 -0.32100356 3
2.0144439 0.35012859 -0.25105089 4
2.0631337 0.35821936 -0.18320136 5
2.0860126 0.36144283 -0.11095224 6
2.1261225 0.36762723 -0.03766229 7
2.1503491 0.36833867 0.038081151 8
1.9323474 0.33065045 -0.45260152 1
2.1813254 0.37286103 0.11597649 9
1.9487331 0.33310324 -0.38428935 2
1.9978805 0.34078553 -0.32100356 3
2.0234816 0.3444266 -0.25202581 4
2.0525866 0.34901109 -0.1821555 5
2.0951383 0.35549501 -0.11137092 6
2.1155627 0.35820091 -0.037452865 7
2.1397886 0.35884634 0.037871722 8
1.9392558 0.32486868 -0.45395124 1
2.1865535 0.3659032 0.11618583 9
1.9537567 0.32694641 -0.38505259 2
1.9873674 0.33185884 -0.31912637 3
2.0325038 0.33866671 -0.2530008 4
2.0498614 0.34119123 -0.18180689 5
2.0963664 0.34817886 -0.11137092 6
2.1286371 0.35277516 -0.03766229 7
2.1370816 0.35072666 0.037801914 8
1.9326856 0.31683585 -0.4521516 1
2.1838751 0.35762444 0.11597649 9
1.9626355 0.32139495 -0.38657904 2
1.9807155 0.32364485 -0.31787488 3
2.0356328 0.33188877 -0.25324452 4
2.0549731 0.33467382 -0.1821555 5
2.0896835 0.33957809 -0.11095224 6
2.1298552 0.34534413 -0.03766229 7
2.1481652 0.3448489 0.037976436 8
1.9260833 0.30885383 -0.45035201 1
2.177161 0.34911498 0.1155578 9
1.9637455 0.31454161 -0.38657904 2
1.9896357 0.3179763 -0.31912637 3
2.0308416 0.32419816 -0.25251329 4
2.0620313 0.32843924 -0.18267845 5
2.0829661 0.33102721 -0.11053354 6
2.1309888 0.33827877 -0.03766229 7
2.1512725 0.3380343 0.038011342 8
1.9290221 0.3027676 -0.45080194 1
2.1743603 0.34127438 0.11534845 9
1.9570197 0.30681103 -0.38505259 2
2.2321668 0.34954798 0.19766922 10
1.9945824 0.31198758 -0.3197521 3
2.0201378 0.31562275 -0.25105089 4
2.0631092 0.32159987 -0.18267845 5
2.0958936 0.32596001 -0.11116158 6
2.1241951 0.32998189 -0.037522674 7
2.1563344 0.3315067 0.038081151 8
1.9319416 0.2966643 -0.4512518 1
2.1834352 0.33489299 0.11576715 9
1.9541451 0.29972473 -0.38428935 2
2.2234664 0.34063575 0.19679767 10
1.9995115 0.30596864 -0.32037783 3
2.0290766 0.30976701 -0.25202581 4
2.0524008 0.31259575 -0.18163256 5
2.0989375 0.3193078 -0.11126626 6
2.1213799 0.32196537 -0.037452865 7
2.1456132 0.32219639 0.037871722 8
1.9445286 0.29165253 -0.45395124 1
2.1924915 0.32845339 0.11618583 9
1.9591138 0.2931419 -0.38505259 2
2.2168179 0.33130553 0.19610041 10
2.0006194 0.29863849 -0.32037783 3
2.0340722 0.30326819 -0.25251329 4
2.0534797 0.30543005 -0.18163256 5
2.0961425 0.31102684 -0.11105692 6
2.130403 0.31573048 -0.037592482 7
2.1368866 0.31288108 0.0376972 8
1.9282303 0.28198609 -0.44990209 1
2.1857758 0.31926012 0.11576715 9
1.9620677 0.28658476 -0.38543418 2
2.221904 0.32414109 0.19644904 10
1.9899213 0.28994375 -0.31850061 3
2.0312412 0.29524031 -0.25202581 4
2.0624726 0.2990447 -0.1823298 5
2.0893085 0.30256346 -0.11063822 6
2.1355042 0.30849233 -0.03766229 7
2.1439047 0.30626786 0.037801914 8
1.9292029 0.27525306 -0.44990209 1
2.1789675 0.31050181 0.11534845 9
1.963105 0.27939099 -0.38543418 2
2.2230771 0.31599465 0.19644904 10
1.9948821 0.28320414 -0.31912637 3
2.0283287 0.28759027 -0.25153834 4
2.0635037 0.29184395 -0.1823298 5
2.0864484 0.29434523 -0.11042888 6
2.1326077 0.30047858 -0.037592482 7
2.152935 0.29951063 0.03794153 8
1.932129 0.26844895 -0.45035201 1
2.1800382 0.30289328 0.11534845 9
1.9621238 0.27226737 -0.38505259 2
2.2320604 0.30932719 0.19714628 10
2.0036855 0.2773217 -0.32037783 3
2.0214543 0.27942151 -0.25056338 4
2.0645099 0.28463864 -0.1823298 5
2.0874631 0.2870608 -0.11042888 6
2.1296816 0.29248786 -0.037522674 7
1.9085085 0.25939786 -0.51608521 0
2.1539164 0.29237002 0.03794153 8
1.9368708 0.26256329 -0.4512518 1
2.1849892 0.29619837 0.1155578 9
1.9591247 0.26523283 -0.38428935 2
2.2172787 0.29978853 0.19575179 10
2.0104671 0.27146819 -0.32131645 3
2.0302391 0.27377719 -0.25153834 4
2.0614932 0.27725917 -0.18198119 5
2.1002805 0.28173059 -0.11105692 6
2.1266758 0.28489235 -0.037452865 7
1.9016979 0.25205266 -0.51401466 0
2.1469448 0.28417557 0.037801914 8
1.9396628 0.25639474 -0.45170173 1
2.1899195 0.28947496 0.11576715 9
1.9658325 0.25950587 -0.38543418 2
2.2182608 0.29243353 0.19575179 10
2.0035222 0.26376876 -0.32006493 3
2.0390081 0.26807961 -0.25251329 4
2.0584505 0.26990387 -0.18163256 5
2.1012034 0.27476367 -0.11105692 6
2.1315746 0.27835676 -0.037522674 7
1.9063551 0.24623945 -0.51504993 0
2.1439087 0.27654329 0.037732106 8
1.9327713 0.24896476 -0.44990209 1
2.2027528 0.28374171 0.11639518 9
1.9647352 0.25273448 -0.38505259 2
2.2231705 0.28558403 0.19610041 10
1.9945894 0.25586614 -0.31850061 3
2.0438242 0.26182044 -0.2530008 4
2.0672395 0.26408565 -0.1823298 5
2.0902154 0.26628032 -0.11042888 6
2.1404209 0.27229553 -0.03766229 7
1.9129953 0.23997152 -0.51660281 0
2.1528447 0.26967829 0.037871722 8
1.9278697 0.24115394 -0.4485524 1
2.1840072 0.27280661 0.11534845 9
1.9734406 0.24650453 -0.38657904 2
2.2281563 0.27792752 0.19644904 10
1.9994342 0.24904266 -0.31912637 3
2.2791898 0.28348413 0.2820057 11
2.0329947 0.25250325 -0.25153834 4
2.0721481 0.256998 -0.18267845 5
2.0911772 0.25861797 -0.11042888 6
2.149389 0.26505437 -0.037801914 7
1.9176567 0.23376037 -0.51763809 0
2.1597281 0.26288614 0.037976436 8
1.9325689 0.23489268 -0.44945222 1
2.1849461 0.26518181 0.11534845 9
1.9625955 0.23819563 -0.38428935 2
2.2271352 0.26990777 0.19627473 10
2.0042133 0.2425359 -0.3197521 3
2.2742529 0.27481258 0.28127447 11
2.0259805 0.24445347 -0.25056338 4
2.0730326 0.24976271 -0.18267845 5
2.0999992 0.25226912 -0.11084756 6
2.1344173 0.25564796 -0.037522674 7
1.9031132 0.22524807 -0.51349699 0
2.1646042 0.25581551 0.038046245 8
1.9411181 0.22906016 -0.4512518 1
2.1937926 0.25848758 0.11576715 9
1.9595153 0.23088342 -0.38352609 2
2.2320211 0.26259804 0.19662334 10
2.0089715 0.23600073 -0.32037783 3
2.2771702 0.26710296 0.28151822 11
2.0425944 0.23922677 -0.25251329 4
2.0580604 0.24067503 -0.18128395 5
2.1048348 0.24539925 -0.11105692 6
2.1352968 0.24819534 -0.037522674 7
1.903888 0.21860398 -0.51349699 0
2.147604 0.24620767 0.037732106 8
1.945778 0.2227257 -0.4521516 1
2.1907129 0.25037512 0.1155578 9
1.9681116 0.22493418 -0.38505259 2
2.2250061 0.25390109 0.19592611 10
2.0078201 0.22876249 -0.32006493 3
2.2840059 0.25982612 0.28224945 11
2.0394721 0.23164771 -0.25202581 4
2.058888 0.23348905 -0.18128395 5
2.1096478 0.23849967 -0.11126626 6
2.1401241 0.24118754 -0.037592482 7
1.9103993 0.21259823 -0.51504993 0
2.1504378 0.23892987 0.037767008 8
1.9368594 0.21485844 -0.44990209 1
2.2014565 0.24421056 0.11608116 9
1.9688848 0.21806322 -0.38505259 2
2.2357805 0.24722712 0.19679767 10
2.0046797 0.22131941 -0.3194392 3
2.2710867 0.25032991 0.28054324 11
2.048161 0.22539525 -0.2530008 4
2.0636513 0.22673638 -0.18163256 5
2.0985551 0.229829 -0.11063822 6
2.1369367 0.23365606 -0.037522674 7
1.9092091 0.20572093 -0.51453227 0
2.1551948 0.23222634 0.03783682 8
1.9336861 0.20801699 -0.4490023 1
2.1923666 0.23545758 0.1155578 9
1.9774423 0.2120259 -0.38657904 2
2.2346487 0.23920968 0.19662334 10
2.0073669 0.21488012 -0.3197521 3
2.2699306 0.24258578 0.28029951 11
2.0291584 0.21649645 -0.25056338 4
2.0683925 0.21995232 -0.18198119 5
2.0953336 0.22244741 -0.11042888 6
2.1456935 0.22703642 -0.03766229 7
1.9194881 0.20039201 -0.51712048 0
2.1639478 0.2255315 0.037976436 8
1.9344004 0.20126632 -0.4490023 1
2.1892018 0.22739008 0.11534845 9
1.9683707 0.2044526 -0.38467094 2
2.2413747 0.23241495 0.19714628 10
2.0179291 0.20888922 -0.32131645 3
2.2747126 0.23506826 0.28078699 11
2.0259523 0.20900506 -0.25007591 4
2.0691478 0.21273038 -0.18198119 5
2.1040444 0.21594808 -0.11084756 6
2.1424942 0.21913765 -0.037592482 7
2.1627321 0.2177756 0.03794153 8
1.944786 0.19548769 -0.4512518 1
2.1939569 0.22014625 0.1155578 9
1.9652001 0.19684589 -0.38390771 2
2.2322991 0.22320767 0.19627473 10
2.0127842 0.20090263 -0.32037783 3
2.2834203 0.2279157 0.28176194 11
2.0424724 0.20350589 -0.25202581 4
2.0659125 0.20511317 -0.18163256 5
2.1048219 0.20823437 -0.11084756 6
2.1352861 0.21087196 -0.037452865 7
2.1515739 0.20868953 0.037732106 8
1.9454894 0.18835787 -0.4512518 1
2.2026637 0.2132569 0.11597649 9
1.9736916 0.19074067 -0.38543418 2
2.2310815 0.21522224 0.19610041 10
2.0095408 0.19349724 -0.3197521 3
2.2842402 0.21954553 0.28176194 11
2.0471563 0.19639806 -0.25251329 4
2.0666161 0.1979 -0.18163256 5
2.1095123 0.20126575 -0.11105692 6
2.1399908 0.20379575 -0.037522674 7
2.1502631 0.20136644 0.0376972 8
1.9402825 0.18136075 -0.44990209 1
2.2073717 0.2059384 0.11618583 9
1.9743453 0.18384951 -0.38543418 2
2.2357872 0.20780118 0.19644904 10
2.0101714 0.18683174 -0.3197521 3
2.2770495 0.21123651 0.28078699 11
2.0477965 0.18960781 -0.25251329 4
2.0712619 0.19105236 -0.18198119 5
2.1022129 0.19353627 -0.11063822 6
2.1446714 0.19669124 -0.037592482 7
2.1629026 0.19493686 0.037906628 8
1.9370221 0.17423803 -0.4490023 1
2.196142 0.19715989 0.1155578 9
1.9710335 0.17695065 -0.38467094 2
2.2364638 0.20038529 0.19644904 10
2.0147464 0.18016613 -0.32037783 3
2.2738185 0.20293331 0.28029951 11
2.0405369 0.1817535 -0.25153834 4
2.0718842 0.18418218 -0.18198119 5
2.094918 0.18549182 -0.11021954 6
2.1493289 0.18955453 -0.03766229 7
2.1675541 0.18773128 0.037976436 8
1.9395601 0.16764279 -0.44945222 1
2.1928368 0.18914987 0.11534845 9
1.9677272 0.16973235 -0.38390771 2
2.2470746 0.19343327 0.19732061 10
2.0173314 0.17330079 -0.32069072 3
2.2784686 0.19533348 0.28078699 11
2.0332472 0.17395413 -0.25056338 4
2.3441455 0.20013975 0.37262696 12
2.0844257 0.17796524 -0.18302706 5
2.1035128 0.17885633 -0.11063822 6
2.1420074 0.18137537 -0.037522674 7
2.1662035 0.17999777 0.03794153 8
1.9537277 0.16200002 -0.45260152 1
2.1974649 0.1818231 0.1155578 9
1.9605098 0.16187243 -0.38238126 2
2.2378082 0.18476801 0.19644904 10
2.0218611 0.16658372 -0.32131645 3
2.2830935 0.18770473 0.28127447 11
2.0457127 0.16782904 -0.25202581 4
2.3212042 0.19002347 0.36887249 12
2.0691776 0.169027 -0.18163256 5
2.1081355 0.17146766 -0.11084756 6
2.134655 0.17325068 -0.037383057 7
2.158875 0.17142437 0.037801914 8
1.9445952 0.15406716 -0.45035201 1
2.2100625 0.17471264 0.11618583 9
1.9689184 0.15530366 -0.38390771 2
2.2325118 0.17609528 0.19592611 10
2.0086734 0.15808572 -0.31912637 3
2.287724 0.17964682 0.28176194 11
2.042356 0.16002034 -0.25153834 4
2.3179464 0.18120494 0.36824676 12
2.0658104 0.16113254 -0.18128395 5
2.1127324 0.16404952 -0.11105692 6
2.1432505 0.16604391 -0.037522674 7
2.1555009 0.16320908 0.037732106 8
1.9490331 0.14723285 -0.4512518 1
2.2026927 0.16639465 0.11576715 9
1.9772793 0.14901954 -0.38543418 2
2.2410891 0.16850956 0.19662334 10
2.0092392 0.15072295 -0.31912637 3
2.2784693 0.17051937 0.28054324 11
2.0429289 0.15253411 -0.25153834 4
2.0743077 0.15451197 -0.18198119 5
2.105325 0.15608348 -0.11063822 6
2.1557825 0.15944597 -0.037732106 7
2.1600192 0.15634841 0.037801914 8
1.9475672 0.14062886 -0.45080194 1
2.1972837 0.15827373 0.11545313 9
1.981704 0.14239851 -0.38619745 2
2.2436509 0.16082753 0.19679767 10
2.0136683 0.14434211 -0.3197521 3
2.2691221 0.1622542 0.27932456 11
2.0394635 0.14547563 -0.25105089 4
2.0827844 0.14783405 -0.18267845 5
2.1018465 0.14881942 -0.11042888 6
2.1483469 0.15135717 -0.037592482 7
2.1705267 0.14949402 0.037976436 8
2.1978228 0.15060432 0.11545313 9
1.9684546 0.13488702 -0.38352609 2
2.2481475 0.15365753 0.19714628 10
2.0181017 0.13758039 -0.32037783 3
2.2835383 0.15527567 0.28103071 11
2.0359976 0.13808647 -0.25056338 4
2.0832632 0.1409269 -0.18267845 5
2.1103241 0.14201754 -0.11084756 6
2.1448717 0.14359045 -0.037522674 7
2.1750262 0.14217789 0.038046245 8
2.2023211 0.14319015 0.11566247 9
1.9669545 0.12788711 -0.3831445 2
2.238729 0.14516497 0.19627473 10
2.0244834 0.13091792 -0.32131645 3
2.2840664 0.14730418 0.28103071 11
2.0443914 0.13148877 -0.25153834 4
2.0757887 0.13314439 -0.18198119 5
2.1147935 0.13490403 -0.11105692 6
2.1413684 0.13584982 -0.037452865 7
2.1615379 0.13371988 0.037801914 8
2.210758 0.1363775 0.11608116 9
1.9752269 0.12150295 -0.38467094 2
2.2332563 0.13698292 0.19575179 10
2.0170412 0.12336744 -0.32006493 3
2.2924924 0.13981426 0.2820057 11
2.0527637 0.12483314 -0.25251329 4
2.0682862 0.12541482 -0.18128395 5
2.1152515 0.12752163 -0.11105692 6
2.1497915 0.12922738 -0.037592482 7
2.1579771 0.12631796 0.037732106 8
2.2072325 0.1284281 0.11587181 9
1.9775991 0.11472055 -0.38505259 2
2.241677 0.1296472 0.19644904 10
2.0134952 0.11645031 -0.3194392 3
2.2830343 0.13163932 0.28078699 11
2.0571299 0.1182535 -0.2530008 4
2.0806463 0.1188767 -0.1823298 5
2.1076865 0.12005261 -0.11063822 6
2.1622083 0.122401 -0.037801914 7
2.1703846 0.11944316 0.03794153 8
2.2036788 0.12050395 0.11566247 9
1.974048 0.10794703 -0.38428935 2
2.2500525 0.12264594 0.19714628 10
2.0198066 0.10974313 -0.32037783 3
2.2755511 0.12323921 0.27981204 11
2.0436547 0.11032246 -0.25129461 4
2.0810485 0.11161262 -0.1823298 5
2.1080928 0.11269411 -0.11063822 6
2.1586289 0.11464006 -0.037732106 7
2.1727855 0.11196975 0.037976436 8
2.2000968 0.11260828 0.11545313 9
1.9665874 0.10031144 -0.38276285 2
2.2524767 0.11449991 0.19732061 10
2.0201955 0.10233891 -0.32037783 3
2.2858803 0.11579796 0.28103071 11
2.0420449 0.10308846 -0.25105089 4
2.0854053 0.10454769 -0.18267845 5
2.1045022 0.10476866 -0.11042888 6
2.1510267 0.10670848 -0.037592482 7
2.1731813 0.10400584 0.037976436 8
2.2084746 0.10492126 0.11587181 9
1.9649646 0.093352474 -0.38238126 2
2.2468922 0.10635447 0.19679767 10
2.0244865 0.095473014 -0.32100356 3
2.2902553 0.10760476 0.28151822 11
2.0463748 0.095789388 -0.25153834 4
2.0778134 0.096533187 -0.18198119 5
2.1128354 0.097790748 -0.11084756 6
2.1474085 0.098639801 -0.037522674 7
2.1655405 0.096064322 0.03783682 8
2.2128184 0.097388767 0.11608116 9
1.9790233 0.086752176 -0.38505259 2
2.2432859 0.097944103 0.19644904 10
2.0169289 0.087709419 -0.3197521 3
2.2945833 0.099783681 0.2820057 11
2.050663 0.088816866 -0.25202581 4
2.0781376 0.089281105 -0.18198119 5
2.1251523 0.090556815 -0.1114756 6
2.1477396 0.091144815 -0.037522674 7
2.1658626 0.088504016 0.03783682 8
2.213129 0.090049647 0.11608116 9
1.9734151 0.079950996 -0.38390771 2
2.2475798 0.090664543 0.19679767 10
2.0191824 0.081099279 -0.32006493 3
2.2869835 0.091455586 0.28103071 11
2.0549133 0.082175188 -0.25251329 4
2.0824039 0.082546525 -0.1823298 5
2.1094751 0.082881175 -0.11063822 6
2.1600192 0.084490523 -0.037732106 7
2.1701407 0.081471741 0.037906628 8
2.2094235 0.082561426 0.11587181 9
2.2558324 0.08350607 0.19749491 10
2.0194402 0.07440339 -0.32006493 3
2.2872741 0.083870538 0.28103071 11
2.043272 0.074923381 -0.25105089 4
2.0866487 0.075785622 -0.18267845 5
2.1057465 0.075742282 -0.11042888 6
2.1562905 0.077184536 -0.03766229 7
2.1763945 0.074480459 0.038011342 8
2.2057061 0.074712783 0.11566247 9
2.2600796 0.076159656 0.19784354 10
2.0255988 0.067904264 -0.32100356 3
2.2875397 0.07628566 0.28103071 11
2.0455048 0.067855842 -0.25129461 4
2.0869005 0.068500847 -0.18267845 5
2.1179633 0.06914942 -0.11105692 6
2.1485522 0.069398411 -0.037522674 7
2.1786399 0.066944852 0.038046245 8
2.2179317 0.067377314 0.11629051 9
2.2503855 0.067575946 0.19697197 10
2.029783 0.06059796 -0.32162929 3
2.2937446 0.068478383 0.28176194 11
2.0576346 0.06107004 -0.25275704 4
2.0831435 0.061099391 -0.1823298 5
2.1221955 0.061502412 -0.11126626 6
2.1527791 0.062012717 -0.037592482 7
2.1728735 0.05879645 0.03794153 8
2.2181532 0.059634291 0.11629051 9
2.2406495 0.059456449 0.19610041 10
2.0299821 0.053511787 -0.32162929 3
2.0558603 0.053475875 -0.25251329 4
2.0793605 0.053724013 -0.18198119 5
2.1223972 0.054094642 -0.11126626 6
2.1609788 0.054700606 -0.037732106 7
2.16506 0.051401205 0.037801914 8
2.2243383 0.05203066 0.11660452 9
2.2527945 0.051910616 0.19714628 10
2.0202742 0.046552703 -0.32006493 3
2.0599957 0.04674859 -0.2530008 4
2.0835195 0.046553828 -0.1823298 5
2.1185715 0.046968114 -0.11105692 6
2.1571579 0.047069225 -0.03766229 7
2.1772223 0.044085748 0.038011342 8
2.2125251 0.044027999 0.11597649 9
2.2609224 0.044596348 0.19784354 10
2.0223994 0.039538424 -0.32037783 3
2.0482378 0.039328378 -0.25153834 4
2.0876534 0.03935625 -0.18267845 5
2.1147285 0.039497469 -0.11084756 6
2.1653066 0.03968608 -0.037801914 7
2.1873598 0.03665353 0.038185868 8
2.2106681 0.036272272 0.11587181 9
2.2650549 0.036373831 0.19819216 10
2.0304313 0.032251634 -0.32162929 3
2.0483627 0.032177906 -0.25153834 4
2.0917623 0.032129381 -0.18302706 5
2.1188533 0.031806763 -0.11105692 6
2.157434 0.032008275 -0.03766229 7
2.1834805 0.028583301 0.038116053 8
2.2147756 0.028607441 0.11608116 9
2.2532146 0.028316267 0.19714628 10
2.0364571 0.025237773 -0.32256791 3
2.0524368 0.024718331 -0.25202581 4
2.0838926 0.024734423 -0.1823298 5
2.1269398 0.024501851 -0.1114756 6
2.1615317 0.024523057 -0.037732106 7
2.1735651 0.021245172 0.03794153 8
2.2228506 0.02095096 0.11649985 9
2.249315 0.020415217 0.19679767 10
2.0325789 0.018448077 -0.32194218 3
2.0564773 0.017946145 -0.25251329 4
2.0839663 0.017459573 -0.1823298 5
2.1270094 0.017447939 -0.1114756 6
2.1576049 0.016946796 -0.03766229 7
2.1736259 0.013658344 0.03794153 8
2.2269022 0.013603393 0.11670919 9
2.253355 0.012979509 0.19714628 10
2.0644677 0.010810583 -0.25348827 4
2.0919824 0.010588557 -0.18302706 5
2.1230628 0.010005822 -0.11126626 6
2.1696472 0.0098456759 -0.037871722 7
2.1756592 0.006455597 0.037976436 8
2.210958 0.0057875523 0.11587181 9
2.2573717 0.0051221955 0.19749491 10
2.0565519 0.0039486843 -0.25251329 4
2.0959911 0.003291813 -0.18337567 5
2.1150954 0.0029536926 -0.11084756 6
2.1696684 0.0022715558 -0.037871722 7
2.1836669 -0.0015244873 0.038116053 8
2.2189536 -0.0023236834 0.11629051 9
2.2653453 -0.0027676427 0.19819216 10
2.0486124 -0.0035755064 -0.25153834 4
2.0959899 -0.0040240167 -0.18337567 5
2.123081 -0.0048171259 -0.11126626 6
2.1616635 -0.0056592342 -0.037732106 7
2.1936467 -0.0091887796 0.038290579 8
2.2189319 -0.010069262 0.11629051 9
2.2573524 -0.010637601 0.19749491 10
2.0604978 -0.010788838 -0.2530008 4
2.0919783 -0.011318803 -0.18302706 5
2.1270456 -0.012251038 -0.1114756 6
2.1616306 -0.013204814 -0.037732106 7
2.1796038 -0.016738486 0.038046245 8
2.2228775 -0.017846785 0.11649985 9
2.2533166 -0.018484477 0.19714628 10
2.0604475 -0.017981252 -0.2530008 4
2.0859492 -0.018567899 -0.18250412 5
2.1309841 -0.019712687 -0.11168494 6
2.1615713 -0.020750234 -0.037732106 7
2.1695342 -0.024234939 0.037871722 8
2.2287934 -0.025674989 0.11681387 9
2.265192 -0.026489696 0.19819216 10
2.064342 -0.025221949 -0.25348827 4
2.0938406 -0.025947858 -0.18320136 5
2.1269083 -0.027100198 -0.1114756 6
2.1654847 -0.028347747 -0.037801914 7
2.1894312 -0.032101035 0.038220771 8
2.2286959 -0.033065796 0.11681387 9
2.2690701 -0.034457035 0.19854078 10
2.0602717 -0.03236533 -0.2530008 4
2.0977216 -0.033319857 -0.18355 5
2.1168158 -0.034362245 -0.11095224 6
2.1733763 -0.035659816 -0.03794153 7
2.1973104 -0.039505064 0.038360391 8
2.2205794 -0.040698797 0.11639518 9
2.2649519 -0.042302944 0.19819216 10
2.0621378 -0.039235026 -0.25324452 4
2.1015766 -0.04071926 -0.18389861 5
2.1326654 -0.041693989 -0.11178961 6
2.1652415 -0.043086961 -0.037801914 7
2.1991582 -0.047217794 0.038395293 8
2.2244172 -0.048536956 0.11660452 9
2.0894704 -0.047781587 -0.18285275 5
2.1365001 -0.04923014 -0.11199896 6
2.1610799 -0.050551273 -0.037732106 7
2.1829875 -0.054494768 0.038116053 8
2.2282276 -0.056402404 0.11681387 9
2.0892909 -0.055074904 -0.18285275 5
2.1402986 -0.057167128 -0.1122083 6
2.1728837 -0.058416992 -0.03794153 7
2.1827729 -0.062495451 0.038116053 8
2.2419806 -0.064973883 0.11754657 9
2.0890858 -0.062367555 -0.18285275 5
2.1321006 -0.064396635 -0.11178961 6
2.1726551 -0.06638062 -0.03794153 7
2.1925349 -0.070435397 0.038290579 8
2.2257702 -0.072280854 0.11670919 9
2.1008031 -0.070057876 -0.18389861 5
2.1238782 -0.071569592 -0.11137092 6
2.1844015 -0.074372463 -0.038150962 7
2.1962726 -0.078230724 0.038360391 8
2.2215126 -0.079906218 0.11649985 9
2.10851 -0.077684052 -0.18459585 5
2.1315989 -0.07927981 -0.11178961 6
2.1641455 -0.081246786 -0.037801914 7
2.1999824 -0.086052984 0.038430199 8
2.2331946 -0.088132821 0.11712788 9
2.0922997 -0.084401198 -0.18320136 5
2.1353004 -0.08688239 -0.11199896 6
2.1678448 -0.088964567 -0.037871722 7
2.1916771 -0.093391307 0.038290579 8
2.2328732 -0.095927581 0.11712788 9
2.0880115 -0.091529667 -0.18285275 5
2.1469562 -0.094864443 -0.11262699 6
2.1715164 -0.09670914 -0.03794153 7
2.1873426 -0.10085689 0.038220771 8
2.2405052 -0.10409194 0.11754657 9
2.0956399 -0.099194452 -0.18355 5
2.130652 -0.10159711 -0.11178961 6
2.1791553 -0.10467234 -0.038081151 7
2.1929688 -0.10878876 0.038325485 8
2.2321687 -0.11112393 0.11712788 9
2.1092098 -0.10721701 -0.18477017 5
2.1302843 -0.10903385 -0.11178961 6
2.1867845 -0.11230835 -0.038220771 7
2.2005835 -0.11648311 0.038465101 8
2.2237892 -0.1184899 0.11670919 9
2.1338997 -0.11631494 -0.11199896 6
2.1783924 -0.11950283 -0.038081151 7
2.2041569 -0.12438925 0.038534917 8
2.2313385 -0.12670457 0.11712788 9
2.1414561 -0.12422559 -0.11241764 6
2.1699767 -0.12664008 -0.03794153 7
2.1997168 -0.13184312 0.038465101 8
2.2428443 -0.13521375 0.1177559 9
2.1449966 -0.13194518 -0.11262699 6
2.1735134 -0.13446091 -0.038011342 7
2.1952519 -0.13926756 0.038395293 8
2.1405368 -0.13917264 -0.11241764 6
2.1810126 -0.14256883 -0.038150962 7
2.1927571 -0.146796 0.038360391 8
2.1360526 -0.14637056 -0.1122083 6
2.1964612 -0.15128031 -0.038430199 7
2.2022052 -0.15515195 0.038534917 8
2.139513 -0.15411288 -0.11241764 6
2.1799641 -0.15779157 -0.038150962 7
2.2096272 -0.16342813 0.038674533 8
2.1429453 -0.16188113 -0.11262699 6
2.1833878 -0.16570273 -0.038220771 7
2.2010684 -0.17052233 0.038534917 8
2.1523223 -0.1701474 -0.11315035 6
2.182796 -0.17332317 -0.038220771 7
2.20046 -0.17820446 0.038534917 8
2.1901493 -0.18160248 -0.038360391 7
2.2077947 -0.1865579 0.038674533 8
2.1934865 -0.18959081 -0.038430199 7
2.2131062 -0.19478938 0.038779248 8
2.1848447 -0.19652975 -0.038290579 7
2.2183867 -0.20306024 0.038883962 8
2.1841455 -0.20415507 -0.038290579 7
2.2057199 -0.20966724 0.038674533 8
2.1874001 -0.21216406 -0.038360391 7
2.2009947 -0.21697296 0.038604725 8
2.1986227 -0.22061446 -0.038569819 7
2.2062311 -0.22487886 0.038709439 8
2.1978393 -0.22828771 -0.038569819 7
2.2133873 -0.23341756 0.038849056 8
2.2010055 -0.2363853 -0.038639627 7
2.2026196 -0.240059 0.038674533 8
