# .PCD v0.7 - Point Cloud Data file format
VERSION 0.7
FIELDS x y z intensity
SIZE 4 4 4 4
TYPE F F F F
COUNT 1 1 1 1
WIDTH 745
HEIGHT 1
VIEWPOINT 0 0 0 1 0 0 0
POINTS 745
DATA ascii
1.8678956 0.49596125 -0.16908213 5
1.8676879 0.48893389 -0.16890782 5
1.8615825 0.48074538 -0.16821058 5
1.8613186 0.47375238 -0.16803627 5
1.8687586 0.46870682 -0.16855921 5
1.8864956 0.46686044 -0.23862019 4
1.8781202 0.46409205 -0.16925645 5
1.8861048 0.46013191 -0.23837645 4
1.8873918 0.45974794 -0.16995369 5
1.8876995 0.45354578 -0.23837645 4
1.8812355 0.45129824 -0.16925645 5
1.8815441 0.44512516 -0.2374015 4
1.8827994 0.44472826 -0.16925645 5
1.9147717 0.45157471 -0.10310185 6
1.8986304 0.44182581 -0.23935141 4
1.8921028 0.4399578 -0.16995369 5
1.8949356 0.43991935 -0.10195045 6
1.8807361 0.4310917 -0.23691402 4
1.9013957 0.43512869 -0.17065094 5
1.902225 0.43496913 -0.10226447 6
1.8861021 0.42539793 -0.2374015 4
1.9067155 0.42969748 -0.17099957 5
1.907629 0.42920277 -0.10247381 6
1.9030794 0.42225105 -0.23935141 4
1.9043136 0.42217618 -0.17065094 5
1.924716 0.42599452 -0.10331119 6
1.9084208 0.41645142 -0.23983888 4
1.9057755 0.41552672 -0.17065094 5
1.9300945 0.4201225 -0.10352053 6
1.9137444 0.41062149 -0.24032637 4
1.915007 0.41054183 -0.17134818 5
1.9237369 0.41171205 -0.10310185 6
1.9112815 0.40311891 -0.23983888 4
1.9203278 0.40467593 -0.17169681 5
1.9290714 0.40581626 -0.10331119 6
1.9087204 0.39597166 -0.23935141 4
1.9295321 0.39958766 -0.17239405 5
1.9304066 0.39941645 -0.10331119 6
1.9407341 0.40084794 -0.034590669 7
1.9412514 0.39636377 -0.31380758 3
1.9217614 0.39168656 -0.24081384 4
1.9191328 0.39080101 -0.17134818 5
1.939618 0.39426744 -0.10372987 6
1.938202 0.39327523 -0.034520861 7
1.9174447 0.38453516 -0.30974028 3
1.9309027 0.38653404 -0.24178879 4
1.9243928 0.3848806 -0.17169681 5
1.9527339 0.38984102 -0.10435791 6
1.9552522 0.38963413 -0.034800097 7
1.9110227 0.37631348 -0.30848882 3
1.9439273 0.38208821 -0.24325122 4
1.9374548 0.38046479 -0.17274268 5
1.9423231 0.38071677 -0.10372987 6
1.9683753 0.38510987 -0.035009526 7
1.9220219 0.3715153 -0.31005314 3
1.9296561 0.37229231 -0.24130133 4
1.9544221 0.37671667 -0.17413718 5
1.9397175 0.37318018 -0.10352053 6
1.9775631 0.37974453 -0.03514915 7
1.9310701 0.36627683 -0.31130463 3
1.9347808 0.3666299 -0.24178879 4
1.9635557 0.37137362 -0.17483442 5
1.9527841 0.36862946 -0.10414857 6
1.9748809 0.3724438 -0.035079334 7
1.9852918 0.3711789 0.03525386 8
1.9361581 0.36059394 -0.31193036 3
1.9398891 0.36093855 -0.24227627 4
1.9530232 0.36267704 -0.17378855 5
1.9579233 0.36288005 -0.10435791 6
1.9761052 0.36589316 -0.035079334 7
1.9707773 0.36170501 0.034974623 8
1.9334568 0.35346138 -0.31130463 3
1.9489487 0.35558954 -0.24325122 4
1.9542774 0.35585698 -0.17378855 5
1.9709685 0.35818654 -0.10498594 6
1.9813057 0.359707 -0.03514915 7
1.9602807 0.35235709 0.034765195 8
1.9308504 0.34567577 -0.31067887 3
1.9678262 0.35158664 -0.24544489 4
1.9634142 0.35009122 -0.17448579 5
1.9644027 0.34956005 -0.10456725 6
1.9904858 0.35384309 -0.035288766 7
1.9891309 0.35002217 0.03525386 8
1.943779 0.34064195 -0.31255612 3
1.9632354 0.34334636 -0.24471366 4
1.9685496 0.34392071 -0.17483442 5
1.9616756 0.34201518 -0.10435791 6
1.9957097 0.34723026 -0.035358574 7
1.9883702 0.34273645 0.035218958 8
1.9449559 0.33385617 -0.31255612 3
1.964422 0.33649075 -0.24471366 4
1.9815212 0.33906475 -0.17588028 5
1.9786077 0.33785442 -0.10519528 6
1.9929669 0.33959046 -0.035288766 7
1.9895543 0.33579409 0.035218958 8
1.9577978 0.32902876 -0.31443331 3
1.9734154 0.33094525 -0.2456886 4
1.9748324 0.33082855 -0.17518303 5
1.9837149 0.33160478 -0.10540463 6
1.9901955 0.33197308 -0.035218958 7
1.9946603 0.32949847 0.035288766 8
1.9589344 0.32219225 -0.31443331 3
1.9745586 0.32405421 -0.2456886 4
1.979908 0.32457727 -0.17553167 5
1.9966866 0.32661226 -0.10603265 6
2.0031834 0.32695812 -0.035428386 7
1.989876 0.32157621 0.035184052 8
1.9653534 0.31691027 -0.38696066 2
1.9561465 0.31472516 -0.31380758 3
1.9795978 0.31778848 -0.24617608 4
1.9928322 0.31955725 -0.17657752 5
1.989926 0.31837788 -0.10561397 6
2.0121553 0.32157528 -0.035568006 7
1.9968567 0.31591457 0.035288766 8
2.030045 0.32043788 0.10770741 9
1.9489938 0.30729648 -0.38352609 2
1.961082 0.30885163 -0.31443331 3
1.9806406 0.31122255 -0.24617608 4
1.9978724 0.3132157 -0.17692617 5
1.9870244 0.3111597 -0.10540463 6
2.02512 0.31640118 -0.035777435 7
2.0098047 0.31077528 0.035498194 8
2.0133862 0.31060952 0.10676537 9
1.9500021 0.30083111 -0.38352609 2
1.9660531 0.30260482 -0.31505907 3
1.9738667 0.30310223 -0.24520114 4
2.0028386 0.30719328 -0.17727478 5
1.9999439 0.30603483 -0.10603265 6
2.0064442 0.30631188 -0.035428386 7
2.0187864 0.30495203 0.035637815 8
2.0361824 0.30685389 0.10791675 9
1.960747 0.29548573 -0.38543418 2
1.9788177 0.29750267 -0.31693625 3
1.9866916 0.2979764 -0.24666359 4
1.9999579 0.29961026 -0.17692617 5
2.0089016 0.30023223 -0.10645135 6
2.0193682 0.30107591 -0.035637815 7
2.0119255 0.2967366 0.035498194 8
2.0273614 0.29829025 0.10739339 9
1.9656513 0.28921074 -0.38619745 2
1.9759355 0.29001924 -0.31631052 3
1.9995043 0.29276568 -0.248126 4
2.0009916 0.29262677 -0.17692617 5
2.0138898 0.29379508 -0.10666069 6
2.0204067 0.2940256 -0.035637815 7
2.012949 0.28971231 0.035498194 8
2.0442061 0.29348272 0.10823077 9
1.9724789 0.28318498 -0.3873423 2
1.9730251 0.2825596 -0.3156848 3
2.0005143 0.2857838 -0.248126 4
2.0098906 0.28676534 -0.17762341 5
2.0149031 0.28676295 -0.10666069 6
2.0372593 0.28922024 -0.035917051 7
2.0218689 0.28379628 0.035637815 8
2.0293944 0.28412935 0.10739339 9
1.9792882 0.27711412 -0.38848713 2
1.9818248 0.27676398 -0.31693625 3
1.9936352 0.27770391 -0.24715105 4
2.0187728 0.28084633 -0.17832063 5
2.0198483 0.28027731 -0.10687003 6
2.0422182 0.28265488 -0.035986863 7
2.0287912 0.27754951 0.035742529 8
2.0343316 0.27758417 0.10760273 9
1.9821886 0.27046925 -0.38886875 2
1.9945229 0.2714422 -0.31881347 3
1.9985263 0.27127755 -0.24763852 4
2.0197408 0.27379721 -0.17832063 5
2.0247729 0.27376065 -0.10707937 6
2.0392289 0.27498946 -0.035917051 7
2.0436227 0.27231434 0.035986863 8
2.0451872 0.27179632 0.10812609 9
1.9792285 0.26303071 -0.38810554 2
2.0856748 0.2768065 0.18407291 10
1.9993746 0.26499882 -0.3194392 3
2.013237 0.26612014 -0.24934469 4
2.020684 0.26674673 -0.17832063 5
2.0375974 0.26825485 -0.10770741 6
2.0362113 0.26734936 -0.035847243 7
2.0366287 0.26415074 0.035847243 8
2.0520661 0.26542369 0.10844011 9
1.9898698 0.25737897 -0.39001361 2
2.0530367 0.26518598 0.18110962 10
1.9963691 0.25751212 -0.31881347 3
2.0200603 0.25985128 -0.25007591 4
2.0176508 0.25918338 -0.17797202 5
2.0424833 0.26164865 -0.10791675 6
2.0490334 0.26175985 -0.036056671 7
2.041461 0.25789723 0.035917051 8
2.0648246 0.26011556 0.10906815 9
1.9946082 0.25127006 -0.39077684 2
2.0637889 0.25962019 0.18198119 10
2.0011322 0.25138241 -0.3194392 3
2.0287898 0.25413844 -0.25105089 4
2.0304053 0.25362006 -0.1790179 5
2.0354121 0.25388569 -0.10749806 6
2.0578277 0.25595126 -0.036196291 7
2.0463185 0.2512565 0.035986863 8
2.0538251 0.25145054 0.10844011 9
2.0033104 0.24491115 -0.39230329 2
2.0805483 0.25398621 0.18337567 10
2.0059617 0.24452467 -0.32006493 3
2.0217824 0.24609511 -0.25007591 4
2.035234 0.24701159 -0.17936651 5
2.0402946 0.2469022 -0.10770741 6
2.0666494 0.24972653 -0.036335908 7
2.0571542 0.24493727 0.036161385 8
2.0546904 0.24427927 0.10844011 9
2.0002539 0.23745434 -0.39154008 2
2.0834007 0.24695617 0.18355 10
2.0264199 0.23984234 -0.32319364 3
2.022629 0.23903669 -0.25007591 4
2.0439987 0.24083783 -0.18006375 5
2.0490785 0.24071223 -0.10812609 6
2.0595646 0.24157867 -0.036196291 7
2.0678871 0.23926276 0.036335908 8
1.9978124 0.23080151 -0.46429899 1
2.0673935 0.23884003 0.10906815 9
2.0010302 0.23082036 -0.39154008 2
2.0762911 0.23913357 0.18285275 10
2.027204 0.23312157 -0.32319364 3
2.0312994 0.23323333 -0.25105089 4
2.040827 0.23360559 -0.17971513 5
2.0578032 0.23482113 -0.10854478 6
2.0603542 0.23474799 -0.036196291 7
2.0607204 0.23151152 0.036196291 8
2.0063131 0.22504358 -0.46609858 1
2.076154 0.23251159 0.10948683 9
2.0134914 0.22549392 -0.39382979 2
2.0711324 0.23158325 0.1823298 10
2.0201132 0.22552063 -0.32194218 3
2.0439384 0.22745909 -0.25251329 4
2.0356894 0.22582178 -0.1791922 5
2.0665107 0.22887576 -0.10896347 6
2.0691113 0.22843276 -0.036335908 7
2.0615158 0.22431727 0.036196291 8
2.0012743 0.21740791 -0.46474886 1
2.0848954 0.22612394 0.10990552 9
2.0143044 0.21811208 -0.39382979 2
2.0818715 0.22506078 0.18320136 10
2.0287821 0.21896333 -0.32319364 3
2.1216528 0.22898674 0.2620191 11
2.0447199 0.22032247 -0.25251329 4
2.0542943 0.2206288 -0.18076101 5
2.063364 0.22087438 -0.10875413 6
2.0778499 0.22205827 -0.036475532 7
2.072268 0.21780455 0.036370814 8
2.0001197 0.20986851 -0.46429899 1
2.0817375 0.2180652 0.10969618 9
2.024816 0.21210259 -0.39573789 2
2.0945342 0.21903612 0.18424724 10
2.0295341 0.21188067 -0.32319364 3
2.1086574 0.21976902 0.26031294 11
2.0455136 0.21282718 -0.25251329 4
2.055052 0.21345609 -0.18076101 5
2.0561759 0.2128484 -0.10833544 6
2.0866063 0.21526235 -0.036615148 7
2.0769944 0.21097425 0.036440626 8
2.0163505 0.20445773 -0.46789822 1
2.0824862 0.2107967 0.10969618 9
2.0255442 0.20503284 -0.39573789 2
2.103215 0.21252516 0.1849445 10
2.0459845 0.20638046 -0.32569659 3
2.1153369 0.21300316 0.26104417 11
2.0501943 0.20608322 -0.2530008 4
2.0696614 0.20767418 -0.18198119 5
2.0688303 0.20686242 -0.10896347 6
2.0873451 0.20797688 -0.036615148 7
2.0876691 0.20469801 0.036615148 8
2.0228701 0.19798799 -0.46924794 1
2.0950999 0.20505749 0.1103242 9
2.0282016 0.19815245 -0.39611951 2
2.0979953 0.20460157 0.18442155 10
2.0545571 0.20000339 -0.32694808 3
2.1259463 0.20657833 0.26226285 11
2.0548527 0.19930817 -0.25348827 4
2.0564921 0.19910489 -0.18076101 5
2.077492 0.20040616 -0.10938216 6
2.0880232 0.20105428 -0.036615148 7
2.0863459 0.19758484 0.036580246 8
2.0215757 0.19109489 -0.46879801 1
2.1077337 0.19886908 0.11095224 9
2.0327902 0.19143912 -0.39688274 2
2.0967131 0.19708993 0.18424724 10
2.0473421 0.19244908 -0.32569659 3
2.1305726 0.1998986 0.26275033 11
2.0673611 0.1936029 -0.25495067 4
2.0651095 0.19266592 -0.18145825 5
2.0900769 0.19462635 -0.11001018 6
2.0966771 0.19450378 -0.036754768 7
2.0870225 0.19030236 0.036580246 8
2.0241709 0.18421413 -0.46924794 1
2.1084151 0.19150995 0.11095224 9
2.037324 0.18505266 -0.39764598 2
2.1092606 0.1912156 0.18529311 10
2.0519361 0.1856578 -0.32632235 3
2.1213722 0.19156708 0.26153165 11
2.0719786 0.18674211 -0.25543818 4
2.0736749 0.18653016 -0.1821555 5
2.0827866 0.18661594 -0.10959151 6
2.1013267 0.18753879 -0.03682458 7
2.0976348 0.18388875 0.036754768 8
2.0209191 0.17680712 -0.46834809 1
2.1090708 0.18414949 0.11095224 9
2.0496926 0.17896502 -0.39993569 2
2.121824 0.1848899 0.18633896 10
2.0525718 0.17849354 -0.32632235 3
2.1200502 0.18398975 0.2612879 11
2.0686622 0.17916627 -0.25495067 4
2.0822532 0.17997624 -0.18285275 5
2.0834253 0.17934595 -0.10959151 6
2.1139231 0.18122695 -0.037034009 7
2.1022489 0.1769003 0.03682458 8
2.0273495 0.17024231 -0.4696978 1
2.1097007 0.17678577 0.11095224 9
2.0503049 0.1718086 -0.39993569 2
2.1284132 0.17797975 0.1868619 10
2.0689301 0.17264314 -0.32882527 3
2.1305707 0.17741133 0.26250657 11
2.0692751 0.17194365 -0.25495067 4
2.08687 0.17267224 -0.18320136 5
2.0880196 0.17240047 -0.10980085 6
2.1065707 0.17319191 -0.036894388 7
2.1148131 0.17052579 0.037034009 8
2.0512409 0.16503941 -0.47509661 1
2.1182683 0.17005922 0.11137092 9
2.050921 0.16429317 -0.39993569 2
2.1250792 0.16986053 0.18651329 10
2.0813642 0.16599976 -0.33070248 3
2.1371136 0.17044605 0.2632378 11
2.0777781 0.16534983 -0.25592566 4
2.162158 0.17168507 0.34353012 12
2.0795155 0.16475667 -0.18250412 5
2.1005838 0.16568913 -0.11042888 6
2.1111493 0.16615075 -0.036964197 7
2.1014671 0.16169903 0.036789671 8
2.051832 0.15752056 -0.47509661 1
2.1327887 0.16373567 0.11210363 9
2.0632267 0.15803216 -0.40222538 2
2.1336052 0.16304825 0.18721053 10
2.0740523 0.15813418 -0.32945102 3
2.143662 0.1630642 0.26396903 11
2.0942056 0.15893453 -0.25787556 4
2.1666837 0.16443509 0.34415585 12
2.0880244 0.15809993 -0.18320136 5
2.1091158 0.15895553 -0.11084756 6
2.1236808 0.15968151 -0.037173625 7
2.0576503 0.15146582 -0.55283749 0
2.1059804 0.15502343 0.036859483 8
2.0465128 0.15028687 -0.47374693 1
2.139323 0.15672706 0.11241764 9
2.0637658 0.15082964 -0.40222538 2
2.1421099 0.15617956 0.18790779 10
2.0745652 0.15125492 -0.32945102 3
2.1501305 0.15638709 0.26470023 11
2.098681 0.15227576 -0.25836304 4
2.1613338 0.15644358 0.34321725 12
2.0885637 0.15080985 -0.18320136 5
2.1096313 0.15195999 -0.11084756 6
2.1282146 0.15255292 -0.037243433 7
2.0446517 0.14369395 -0.54921407 0
2.1144881 0.14823106 0.036999103 8
2.041193 0.14273393 -0.47239724 1
2.1279027 0.1484251 0.11178961 9
2.0720885 0.14453197 -0.40375188 2
2.1465912 0.14935219 0.1882564 10
2.0829632 0.14455892 -0.33070248 3
2.1427417 0.14833286 0.26372528 11
2.087317 0.14413004 -0.25690058 4
2.1559546 0.14849038 0.34227866 12
2.1009786 0.14470392 -0.18424724 5
2.1101489 0.14459653 -0.11084756 6
2.1407046 0.14593861 -0.037452865 7
2.0547788 0.13719888 -0.55180228 0
2.1269641 0.14164589 0.037208531 8
2.0514011 0.13625415 -0.47464675 1
2.1323936 0.14125988 0.11199896 9
2.0725806 0.13729759 -0.40375188 2
2.1510756 0.14212041 0.18860501 10
2.0952816 0.13806687 -0.33257973 3
2.1551316 0.1416329 0.26518771 11
2.0917692 0.13710216 -0.25738806 4
2.1525176 0.14070654 0.3416529 12
2.1173759 0.13840939 -0.18564174 5
2.1146271 0.13748847 -0.11105692 6
2.1292276 0.13769145 -0.037243433 7
2.0456052 0.12941511 -0.54921407 0
2.1354287 0.13472463 0.037348151 8
2.0635335 0.12982722 -0.47734615 1
2.1448338 0.13456538 0.11262699 9
2.0730472 0.13006154 -0.40375188 2
2.14957 0.13448694 0.18843071 10
2.103637 0.13124458 -0.33383119 3
2.1774068 0.13546452 0.26786885 11
2.1041229 0.13053763 -0.25885051 4
2.160882 0.13367932 0.34290439 12
2.1098919 0.13052489 -0.1849445 5
2.1270549 0.1308424 -0.11168494 6
2.1416712 0.13099013 -0.037452865 7
2.044116 0.12215901 -0.5486964 0
2.1318936 0.12703133 0.037278343 8
2.0737007 0.12320065 -0.47959566 1
2.157253 0.12778676 0.11325502 9
2.0852475 0.12352145 -0.40604156 2
2.1559935 0.12733456 0.18895365 10
2.1001382 0.12366792 -0.33320546 3
2.167958 0.12728186 0.26665017 11
2.1124926 0.12365552 -0.25982547 4
2.1672516 0.12648132 0.34384301 12
2.1143126 0.1233918 -0.18529311 5
2.1394622 0.12411024 -0.11231297 6
2.1421154 0.12351394 -0.037452865 7
2.0580313 0.11578298 -0.55231988 0
2.132324 0.11958931 0.037278343 8
2.0702267 0.1157442 -0.47869584 1
2.1656628 0.12069976 0.11367371 9
2.0935068 0.11667827 -0.40756804 2
2.1584139 0.11991894 0.18912795 10
2.1005571 0.11633676 -0.33320546 3
2.1723533 0.11993178 0.26713762 11
2.1287677 0.11715285 -0.26177537 4
2.1795142 0.11956511 0.3457202 12
2.1187091 0.11622943 -0.18564174 5
2.1319051 0.11620597 -0.11189428 6
2.1625011 0.11711665 -0.037801914 7
2.0738561 0.10941307 -0.55646098 0
2.1447098 0.11277483 0.037487768 8
2.066726 0.10831253 -0.47779605 1
2.1620817 0.11293259 0.11346437 9
2.0939014 0.1093713 -0.40756804 2
2.1767266 0.11331557 0.19069678 10
2.1088412 0.10941257 -0.33445692 3
2.1747408 0.1124521 0.26738134 11
2.1212342 0.10931317 -0.26080042 4
2.1878095 0.11236115 0.34697169 12
2.1270609 0.10924123 -0.18633896 5
2.1322978 0.10876397 -0.11189428 6
2.1668911 0.10977021 -0.037871722 7
2.0780847 0.10236284 -0.55749625 0
2.1530797 0.10567927 0.037627388 8
2.0826628 0.10185965 -0.48139524 1
2.1664524 0.10557868 0.11367371 9
2.102114 0.10244325 -0.40909451 2
2.1790991 0.10581274 0.19087107 10
2.1171026 0.10243299 -0.33570841 3
2.1889999 0.10552871 0.26908755 11
2.1176372 0.10171697 -0.26031294 4
2.1881883 0.10472405 0.34697169 12
2.1433501 0.10257815 -0.18773346 5
2.1446345 0.10188831 -0.11252232 6
2.1672609 0.10220613 -0.037871722 7
2.0764997 0.095019497 -0.55697864 0
2.1654212 0.098710828 0.03783682 8
2.0830057 0.09458863 -0.48139524 1
2.1747887 0.098376133 0.11409239 9
2.102459 0.095104314 -0.40909451 2
2.1854262 0.098476179 0.191394 10
2.1253409 0.095396034 -0.33695987 3
2.1933212 0.098063782 0.269575 11
2.1298778 0.094855778 -0.26177537 4
2.1924875 0.097259715 0.34759742 12
2.1277716 0.094388887 -0.18633896 5
2.1489677 0.094578631 -0.11273166 6
2.163609 0.094465323 -0.037801914 7
2.151767 0.090562299 0.037592482 8
2.1027935 0.088132486 -0.48589426 1
2.1791098 0.090951137 0.11430173 9
2.1106243 0.088092707 -0.41062099 2
2.1797848 0.090598233 0.19087107 10
2.1217136 0.087812692 -0.33633414 3
2.2015834 0.090734482 0.27054995 11
2.1460633 0.088071145 -0.26372528 4
2.1967609 0.089766629 0.34822315 12
2.1360514 0.087285839 -0.18703623 5
2.1612585 0.087561287 -0.1133597 6
2.1799102 0.08755482 -0.038081151 7
2.1620612 0.083436705 0.037767008 8
2.0933518 0.080419235 -0.48364475 1
2.1913888 0.083801426 0.11492977 9
2.1266134 0.081324339 -0.41367394 2
2.1940241 0.083519787 0.19209124 10
2.1259551 0.080557048 -0.33695987 3
2.2018867 0.083048381 0.27054995 11
2.1503253 0.080727831 -0.26421279 4
2.212853 0.082689576 0.3507261 12
2.1443069 0.080128156 -0.18773346 5
2.1575594 0.079868212 -0.11315035 6
2.1881959 0.080237493 -0.038220771 7
2.1703331 0.076169178 0.037906628 8
2.0955675 0.073179036 -0.48409468 1
2.1876626 0.076395087 0.11472043 9
2.1229599 0.07376568 -0.41291067 2
2.210232 0.07641083 0.19348574 10
2.1380687 0.073542461 -0.33883709 3
2.2021632 0.075362317 0.27054995 11
2.150594 0.073221758 -0.26421279 4
2.2269347 0.075820938 0.35291618 12
2.1605036 0.073181659 -0.18912795 5
2.1658094 0.072604559 -0.11356904 6
2.2004416 0.073381074 -0.038430199 7
2.1845646 0.069416672 0.038150962 8
2.1035895 0.066475108 -0.48589426 1
2.1919084 0.068884186 0.11492977 9
2.1212425 0.066292837 -0.41252908 2
2.2104852 0.068694629 0.19348574 10
2.1422496 0.066574089 -0.33946282 3
2.2222426 0.068672858 0.27298734 11
2.1468565 0.065968215 -0.26372528 4
2.223237 0.067925788 0.35229045 12
2.1687119 0.065882094 -0.18982521 5
2.1660383 0.065422505 -0.11356904 6
2.1966867 0.06558077 -0.038360391 7
2.1907904 0.06195971 0.038255677 8
2.1174445 0.059516523 -0.48904356 1
2.1961284 0.061343528 0.11513911 9
2.1234128 0.059312396 -0.41291067 2
2.2067177 0.061253894 0.19313712 10
2.1582661 0.059532024 -0.34196579 3
2.234375 0.061241109 0.2744498 11
2.1609647 0.058851615 -0.26543146 4
2.2155619 0.05995157 0.35103899 12
2.1689286 0.058310904 -0.18982521 5
2.1782329 0.058180615 -0.11419707 6
2.1929042 0.057806529 -0.038290579 7
2.186995 0.054213397 0.038185868 8
2.1332245 0.052507956 -0.49264279 1
2.2003224 0.053774245 0.11534845 9
2.1353924 0.051815525 -0.41520041 2
2.210911 0.05326191 0.19348574 10
2.15452 0.05152617 -0.34134007 3
2.2325904 0.053393256 0.27420604 11
2.1750484 0.051638339 -0.26713762 4
2.1611514 0.050552625 -0.18912795 5
2.1944053 0.050565168 -0.11503445 6
2.2050877 0.050425228 -0.038500007 7
2.1831806 0.04611332 0.038116053 8
2.2204652 0.046512097 0.11639518 9
2.1434114 0.044523813 -0.41672686 2
2.2150674 0.045626596 0.19383438 10
2.150737 0.043924965 -0.34071434 3
2.234756 0.045250725 0.2744498 11
2.1811771 0.04378501 -0.26786885 4
2.1772506 0.043326057 -0.19052245 5
2.1865809 0.042748213 -0.11461575 6
2.2172463 0.042960625 -0.038709439 7
2.1993165 0.039157558 0.038395293 8
2.212626 0.038621981 0.11597649 9
2.1553316 0.037245624 -0.41901657 2
2.2271655 0.038098156 0.19488023 10
2.158771 0.036928196 -0.34196579 3
2.2388632 0.037907418 0.27493724 11
2.1713862 0.036385864 -0.26665017 4
2.1893415 0.035922352 -0.19156833 5
2.1867106 0.035497449 -0.11461575 6
2.2253804 0.035348233 -0.038849056 7
2.2114367 0.031651393 0.038604725 8
2.2127473 0.030898705 0.11597649 9
2.1436648 0.029934037 -0.41672686 2
2.2372408 0.030849138 0.19575179 10
2.170738 0.029553225 -0.34384301 3
2.2568462 0.030332668 0.27713093 11
2.1754699 0.028858174 -0.26713762 4
2.1974175 0.028765745 -0.19226557 5
2.1988037 0.028016286 -0.11524379 6
2.2214913 0.027530897 -0.038779248 7
2.219532 0.024018865 0.038744342 8
2.2208304 0.02325766 0.11639518 9
2.155535 0.022573853 -0.41901657 2
2.2413192 0.023081027 0.19610041 10
2.1747782 0.022016203 -0.34446874 3
2.2668636 0.02255276 0.27834961 11
2.1914375 0.021419864 -0.26908755 4
2.1935198 0.021057364 -0.19191694 5
2.2148654 0.020488068 -0.11608116 6
2.2175744 0.019740086 -0.038709439 7
2.2116039 0.016212938 0.038604725 8
2.2308841 0.015574496 0.11691854 9
2.1634536 0.015103743 -0.42054302 2
2.2393939 0.015244133 0.19592611 10
2.1748419 0.014424097 -0.34446874 3
2.2669284 0.014639189 0.27834961 11
2.203409 0.013845489 -0.27054995 4
2.2015493 0.01344852 -0.19261418 5
2.2189181 0.012781149 -0.11629051 6
2.2336273 0.012085151 -0.03898868 7
2.2136464 0.0084999902 0.038639627 8
2.2489002 0.0078503797 0.11786059 9
2.169383 0.0075728046 -0.4216879 2
2.2434182 0.007439713 0.19627473 10
2.1788299 0.0068463027 -0.34509447 3
2.2669656 0.0067265211 0.27834961 11
2.2074142 0.0061645736 -0.27103746 4
2.2135372 0.0057943035 -0.19366007 5
2.2229435 0.0050440747 -0.11649985 6
2.2496533 0.0043194485 -0.039267913 7
2.2296603 0.00077892473 0.038918864 8
2.2369301 -0 0.11723255 9
2.2613623 -0.00039468217 0.19784354 10
2.1867418 -0.00076331699 -0.34634593 3
2.2610199 -0.0011838673 0.27761838 11
2.2034519 -0.0015382997 -0.27054995 4
2.2215135 -0.0019386365 -0.19435729 5
2.2229476 -0.0027158442 -0.11649985 6
2.2496545 -0.0035337517 -0.039267913 7
2.2436473 -0.0070486492 0.039163202 8
2.2409112 -0.0078222873 0.1174419 9
2.267324 -0.0083102137 0.19836646 10
2.1985781 -0.0084419753 -0.34822315 3
2.2768826 -0.0091400407 0.27956831 11
2.203433 -0.0092297727 -0.27054995 4
2.2135236 -0.0096583804 -0.19366007 5
2.2309136 -0.010513011 -0.11691854 6
2.2456291 -0.011366247 -0.039198104 7
2.2456086 -0.014893658 0.039198104 8
2.2568505 -0.01536213 0.11827926 9
2.2732582 -0.016267372 0.1988894 10
2.2064366 -0.016174315 -0.34947464 3
2.2907321 -0.017192073 0.28127447 11
2.2093456 -0.016581263 -0.27128118 4
2.209492 -0.017353665 -0.19331144 5
2.238852 -0.018365821 -0.11733723 6
2.2495785 -0.018846465 -0.039267913 7
2.2455468 -0.022340283 0.039198104 8
2.26877 -0.022967337 0.1189073 9
2.2711997 -0.023784813 0.19871511 10
2.2024202 -0.023448974 -0.34884888 3
2.2271433 -0.02410095 -0.27347484 4
2.2173913 -0.024769528 -0.19400868 5
2.254756 -0.025974069 -0.11817461 6
2.2575021 -0.026399765 -0.039407536 7
2.2494595 -0.029839709 0.039267913 8
2.27267 -0.03094106 0.11911664 9
2.281069 -0.031453602 0.19958666 10
2.2023306 -0.030752331 -0.34884888 3
2.2310154 -0.031931803 -0.27396232 4
2.2252657 -0.032237973 -0.19470593 5
2.2506633 -0.03339171 -0.11796526 6
2.2733917 -0.03452266 -0.039686773 7
2.265337 -0.037959635 0.039547153 8
2.2725484 -0.038873967 0.11911664 9
2.2869217 -0.039519101 0.20010957 10
2.2289057 -0.039683964 -0.27371857 4
2.2331078 -0.040148661 -0.19540317 5
2.2505331 -0.041247789 -0.11796526 6
2.2732573 -0.042458065 -0.039686773 7
2.26719 -0.045907386 0.039582059 8
2.2723987 -0.046806406 0.11911664 9
2.3007138 -0.047791351 0.20132977 10
2.2307382 -0.047506325 -0.27396232 4
2.2488894 -0.048285566 -0.19679767 5
2.2663496 -0.049451925 -0.11880264 6
2.2730954 -0.050392956 -0.039686773 7
2.279011 -0.054105856 0.039791487 8
2.2842016 -0.055026881 0.11974468 9
2.2965491 -0.055725385 0.20098113 10
2.2384965 -0.055489529 -0.27493724 4
2.2367566 -0.055837031 -0.19575179 5
2.2741497 -0.057564817 -0.11922132 6
2.2769036 -0.058429834 -0.039756581 7
2.2748098 -0.061951868 0.039721675 8
2.2999678 -0.063440457 0.12058206 9
2.304307 -0.063962631 0.20167838 10
2.250195 -0.06363973 -0.2763997 4
2.2445145 -0.063871123 -0.19644904 5
2.2759316 -0.065560244 -0.119326 6
2.2806833 -0.066493899 -0.039826389 7
2.2745798 -0.069892056 0.039721675 8
2.3077173 -0.071716607 0.12100074 9
2.3060613 -0.072068013 0.20185271 10
2.2578955 -0.071746163 -0.27737463 4
2.252243 -0.071960047 -0.19714628 5
2.2657075 -0.073181935 -0.11880264 6
2.2964265 -0.074976601 -0.04010563 7
2.2863133 -0.078241758 0.039931107 8
2.3034608 -0.079633594 0.1207914 9
2.3197341 -0.080601536 0.20307288 10
2.2516797 -0.079417348 -0.27664346 4
2.2718897 -0.080527157 -0.1988894 5
2.273422 -0.081376061 -0.11922132 6
2.3041441 -0.083281085 -0.040245246 7
2.3020124 -0.086824954 0.040210344 8
2.3071606 -0.087825634 0.12100074 9
2.3214293 -0.088774562 0.20324717 10
2.2755764 -0.088612095 -0.19923802 5
2.2811072 -0.089624949 -0.11964 6
2.3038394 -0.09132354 -0.040245246 7
2.3076892 -0.095106982 0.040315062 8
2.3188131 -0.096376233 0.12162878 9
2.2672911 -0.096216902 -0.19854078 5
2.2987394 -0.098355345 -0.12058206 6
2.3075025 -0.099537253 -0.040315062 7
2.3013501 -0.10289379 0.040210344 8
2.3264434 -0.10482944 0.12204745 9
2.2749023 -0.10449632 -0.19923802 5
2.3043675 -0.10665588 -0.12089607 6
2.3231213 -0.10833655 -0.040594298 7
2.3109639 -0.11140783 0.04038487 8
2.334043 -0.11333708 0.12246615 9
2.282464 -0.11322844 -0.19993527 5
2.3039813 -0.11469898 -0.12089607 6
2.3267233 -0.11664535 -0.040664107 7
2.3205462 -0.11999023 0.040559392 8
2.3336332 -0.12148372 0.12246615 9
2.2979715 -0.12204034 -0.20132977 5
2.3035455 -0.12314272 -0.12089607 6
2.3462701 -0.12583737 -0.041013155 7
2.3300738 -0.12904754 0.040733919 8
2.3491256 -0.13092522 0.12330353 9
2.3054883 -0.13051143 -0.20202701 5
2.3210473 -0.13220502 -0.12183812 6
2.3298218 -0.13352074 -0.040733919 7
2.3395905 -0.13776799 0.040908441 8
2.3446667 -0.1388882 0.12309418 9
2.3185785 -0.14018568 -0.12173345 6
2.3333337 -0.14189528 -0.040803727 7
2.3351035 -0.14568481 0.040838633 8
2.3601401 -0.14766033 0.12393155 9
2.3340204 -0.14929812 -0.12257081 6
2.3448238 -0.1504001 -0.041013155 7
2.3405938 -0.15382089 0.040943347 8
2.3696022 -0.15614267 0.12445491 9
2.3335123 -0.1570372 -0.12257081 6
2.3602736 -0.15925194 -0.041292395 7
2.3500457 -0.16227049 0.041117873 8
2.3630655 -0.16399832 0.1241409 9
2.3429112 -0.16588698 -0.12309418 6
2.3796499 -0.16890566 -0.041641444 7
2.3633959 -0.17189816 0.041362204 8
2.3783839 -0.17382291 0.12497827 9
2.3442795 -0.17462145 -0.12319885 6
2.3710382 -0.1770308 -0.04150182 7
2.3727195 -0.18132116 0.041536726 8
2.3516204 -0.18342473 -0.12361754 6
2.3783803 -0.18592961 -0.041641444 7
2.3661251 -0.18871145 0.041432012 8
2.3896749 -0.19520742 -0.041850869 7
2.3674448 -0.19713554 0.041466918 8
2.3969848 -0.20380846 -0.041990492 7
2.3906848 -0.20705575 0.041885775 8
2.4161775 -0.21393797 -0.042339537 7
2.3919394 -0.21557906 0.041920681 8
2.4074514 -0.22163741 -0.042199921 7
2.4071002 -0.22541878 0.042199921 8
2.4086533 -0.23022988 -0.042234823 7
2.3983371 -0.23304611 0.042060301 8
2.4134262 -0.24301922 0.042339537 8
