# .PCD v0.7 - Point Cloud Data file format
VERSION 0.7
FIELDS x y z intensity
SIZE 4 4 4 4
TYPE F F F F
COUNT 1 1 1 1
WIDTH 819
HEIGHT 1
VIEWPOINT 0 0 0 1 0 0 0
POINTS 819
DATA ascii
2.0667536 0.73715776 -0.50658977 1
2.0673492 0.72965091 -0.50613987 1
2.0568788 0.71829438 -0.50299054 1
2.0648994 0.71301877 -0.50434029 1
2.0693436 0.70607454 -0.50479019 1
2.0716739 0.69920796 -0.50479019 1
2.0685556 0.69012338 -0.5034405 1
2.0745342 0.68448061 -0.50434029 1
2.076911 0.67723441 -0.50434029 1
2.0829718 0.67117625 -0.50524008 1
2.0890157 0.66508299 -0.50613987 1
2.0800567 0.65464228 -0.5034405 1
2.0747731 0.64542496 -0.50164086 1
2.0769019 0.63854158 -0.50164086 1
2.0941465 0.63545233 -0.50524008 1
2.1000855 0.62925667 -0.50613987 1
2.0947945 0.6197114 -0.50434029 1
2.093097 0.61166853 -0.5034405 1
2.0989642 0.60543817 -0.50434029 1
2.0991902 0.59757459 -0.50389034 1
2.108768 0.59235084 -0.50568998 1
2.0975757 0.58170968 -0.50254071 1
2.0901949 0.57181358 -0.50029117 1
2.1053486 0.56806695 -0.5034405 1
2.1280341 0.56622583 -0.50838935 1
2.0604317 0.83288687 -0.43199161 2
2.0378084 0.81547731 -0.42664891 2
2.040642 0.8083604 -0.42664891 2
2.0489349 0.8033818 -0.4277938 2
2.0517266 0.79622525 -0.4277938 2
2.0506909 0.78800815 -0.42703056 2
2.0459526 0.77841127 -0.42550406 2
2.0560071 0.77403122 -0.42703056 2
2.062376 0.76821977 -0.4277938 2
2.0650451 0.76101643 -0.4277938 2
2.0603106 0.75111419 -0.42626733 2
2.0593557 0.74222571 -0.42550406 2
2.0693316 0.73766917 -0.42703056 2
2.0717664 0.73080331 -0.42703056 2
2.0778852 0.72522444 -0.4277938 2
2.0693939 0.71376121 -0.42550406 2
2.068156 0.70526755 -0.42474085 2
2.078047 0.70055217 -0.42626733 2
2.0840838 0.69489866 -0.42703056 2
2.0864966 0.68762004 -0.42703056 2
2.0775654 0.67704773 -0.42474085 2
2.0836535 0.67099458 -0.42550406 2
2.0859833 0.66371661 -0.42550406 2
2.0881722 0.65679699 -0.42550406 2
2.0959632 0.65161675 -0.42664891 2
2.0887294 0.64178002 -0.42474085 2
2.0873106 0.63297915 -0.42397761 2
2.0970294 0.62794328 -0.42550406 2
2.10674 0.62284541 -0.42703056 2
2.1013622 0.61328799 -0.42550406 2
2.099612 0.60522813 -0.42474085 2
2.1017118 0.59789592 -0.42474085 2
2.1000056 0.58949411 -0.42397761 2
2.1096184 0.58425653 -0.42550406 2
2.1115446 0.57725704 -0.42550406 2
2.1135466 0.56988329 -0.42550406 2
2.1117282 0.56149364 -0.42474085 2
2.1174736 0.55511403 -0.42550406 2
2.1155968 0.54673731 -0.42474085 2
2.1251025 0.541287 -0.42626733 2
2.1192694 0.53232425 -0.42474085 2
2.1211147 0.52492279 -0.42474085 2
2.1229341 0.51751596 -0.42474085 2
2.1323638 0.51193506 -0.42626733 2
2.137959 0.50539237 -0.42703056 2
2.132061 0.49614689 -0.42550406 2
2.1509175 0.49302113 -0.42893866 2
2.0431204 0.90880221 -0.35416767 3
2.0480881 0.90246081 -0.35448053 3
2.0439839 0.89214575 -0.35322908 3
2.0271406 0.87638217 -0.3497875 3
2.0338194 0.87085533 -0.35041323 3
2.0403328 0.86565065 -0.35103899 3
2.0433424 0.85852277 -0.35103899 3
2.0428269 0.84951115 -0.35041323 3
2.0348208 0.83786201 -0.34853604 3
2.0375881 0.83110905 -0.34853604 3
2.051466 0.82843089 -0.35041323 3
2.0542023 0.82162279 -0.35041323 3
2.042506 0.80827296 -0.34791031 3
2.0471537 0.8018592 -0.34822315 3
2.0554662 0.79684991 -0.34916177 3
2.0580971 0.79002976 -0.34916177 3
2.0643988 0.78460354 -0.3497875 3
2.0560312 0.77322102 -0.34791031 3
2.0587175 0.76603991 -0.34791031 3
2.0575395 0.75784266 -0.34728456 3
2.0713081 0.75471389 -0.34916177 3
2.0740607 0.74711657 -0.34916177 3
2.0618975 0.73420906 -0.34665883 3
2.0605948 0.72605407 -0.3460331 3
2.0667217 0.72051787 -0.34665883 3
2.0768189 0.71551239 -0.34791031 3
2.0793042 0.70825797 -0.34791031 3
2.0704098 0.69757402 -0.3460331 3
2.0653348 0.68784732 -0.34478158 3
2.0751097 0.68346596 -0.3460331 3
2.0906315 0.68049759 -0.34822315 3
2.1080379 0.67803502 -0.3507261 3
2.0821533 0.66169775 -0.3460331 3
2.088105 0.65597391 -0.34665883 3
2.0864959 0.6478737 -0.3460331 3
2.0924098 0.64211059 -0.34665883 3
2.1023111 0.63672805 -0.34791031 3
2.0950582 0.6265552 -0.34634593 3
2.0915492 0.61756063 -0.34540737 3
2.1011708 0.61283416 -0.34665883 3
2.1070938 0.60658836 -0.34728456 3
2.1205993 0.60246903 -0.34916177 3
2.1150815 0.59292972 -0.34791031 3
2.1170361 0.585913 -0.34791031 3
2.1228795 0.57956058 -0.34853604 3
2.1363342 0.57522774 -0.35041323 3
2.134511 0.56675261 -0.3497875 3
2.1288323 0.55729771 -0.34853604 3
2.1307647 0.5498628 -0.34853604 3
2.1325765 0.54279435 -0.34853604 3
2.1382899 0.53630847 -0.34916177 3
2.1439846 0.52978837 -0.3497875 3
2.134305 0.51949763 -0.34791031 3
2.1322629 0.51112485 -0.34728456 3
2.1378794 0.50458574 -0.34791031 3
2.1414649 0.49794027 -0.34822315 3
2.1470413 0.49134392 -0.34884888 3
2.1467319 0.48378757 -0.34853604 3
2.1406932 0.47458032 -0.34728456 3
2.1480453 0.46874174 -0.34822315 3
2.1498291 0.46049091 -0.34822315 3
2.1610885 0.45501927 -0.3497875 3
2.1510572 0.44507083 -0.34791031 3
2.1564693 0.43834698 -0.34853604 3
2.1618602 0.43159074 -0.34916177 3
2.1807256 0.42784148 -0.35197759 3
2.0152059 0.98070604 -0.275181 4
2.0132535 0.97107792 -0.2744498 4
2.0327494 0.97175044 -0.27664346 4
2.0343349 0.96379942 -0.2763997 4
2.0161242 0.94656813 -0.27347484 4
2.0230155 0.9411999 -0.27396232 4
2.0298944 0.93579412 -0.2744498 4
2.0331483 0.92870319 -0.2744498 4
2.0345695 0.92078149 -0.27420604 4
2.0321779 0.9115926 -0.27347484 4
2.0353475 0.90449381 -0.27347484 4
2.0384924 0.89738309 -0.27347484 4
2.0488911 0.89343524 -0.2744498 4
2.0556414 0.88785344 -0.27493724 4
2.0404773 0.87286454 -0.27249986 4
2.0433607 0.86609274 -0.27249986 4
2.0555234 0.86279672 -0.27371857 4
2.05669 0.85485393 -0.27347484 4
2.0634806 0.84882081 -0.27396232 4
2.0552537 0.83747929 -0.27249986 4
2.0618467 0.83178473 -0.27298734 4
2.0664375 0.82567888 -0.27323109 4
2.0676033 0.81737012 -0.27298734 4
2.0704441 0.81014729 -0.27298734 4
2.0657153 0.8004086 -0.27201241 4
2.0646513 0.79213232 -0.27152494 4
2.0711153 0.7863301 -0.27201241 4
2.0738478 0.77909517 -0.27201241 4
2.0802758 0.77323502 -0.27249986 4
2.0791028 0.76496094 -0.27201241 4
2.0817602 0.75769925 -0.27201241 4
2.0807879 0.74871939 -0.27152494 4
2.0871291 0.74278218 -0.27201241 4
2.0895808 0.73585731 -0.27201241 4
2.0902617 0.72790641 -0.27176866 4
2.0871594 0.71866626 -0.27103746 4
2.0897791 0.71101207 -0.27103746 4
2.0996509 0.70661122 -0.27201241 4
2.1021049 0.69927722 -0.27201241 4
2.0968692 0.68982166 -0.27103746 4
2.0879378 0.67881489 -0.269575 4
2.1054139 0.67638022 -0.27152494 4
2.1000776 0.66699052 -0.27054995 4
2.1136415 0.66359085 -0.27201241 4
2.1044548 0.65304852 -0.27054995 4
2.1028132 0.64490271 -0.27006248 4
2.1128743 0.63912225 -0.27103746 4
2.1150925 0.63174248 -0.27103746 4
2.117285 0.62435496 -0.27103746 4
2.1117198 0.61511123 -0.27006248 4
2.1081307 0.60609013 -0.26933128 4
2.1197822 0.60143626 -0.27054995 4
2.1256919 0.59510398 -0.27103746 4
2.1314802 0.58910972 -0.27152494 4
2.1182024 0.57748824 -0.269575 4
2.114454 0.56854486 -0.2688438 4
2.1298573 0.56472129 -0.27054995 4
2.1394982 0.55929095 -0.27152494 4
2.1414371 0.55182076 -0.27152494 4
2.1297877 0.54129303 -0.26981872 4
2.1278131 0.53289032 -0.26933128 4
2.1412239 0.52831429 -0.27079371 4
2.1469131 0.52177382 -0.27128118 4
2.1506517 0.51473904 -0.27152494 4
2.1408424 0.50449628 -0.27006248 4
2.1405699 0.49694464 -0.26981872 4
2.146162 0.49035445 -0.27030623 4
2.1613331 0.48628438 -0.27201241 4
2.1668935 0.47959533 -0.27249986 4
2.1510158 0.46860456 -0.27030623 4
2.1527994 0.4603413 -0.27030623 4
2.1582785 0.45363989 -0.27079371 4
2.1637366 0.44690788 -0.27128118 4
2.1750107 0.44132543 -0.27249986 4
2.172569 0.43333325 -0.27201241 4
2.1642537 0.42421764 -0.27079371 4
2.16962 0.41741088 -0.27128118 4
2.1769156 0.41093907 -0.27201241 4
2.1822407 0.40406096 -0.27249986 4
2.1758254 0.39502212 -0.27152494 4
2.1733496 0.38635027 -0.27103746 4
2.1825075 0.38012338 -0.27201241 4
2.1857784 0.37283593 -0.27225614 4
2.1928759 0.36656889 -0.27298734 4
2.1902242 0.35827059 -0.27249986 4
2.0071194 1.0546558 -0.19836646 5
1.9964718 1.0406262 -0.19697197 5
2.0054018 1.0363957 -0.19749491 5
2.0143273 1.0321143 -0.19801784 5
2.014365 1.0232724 -0.19766922 5
2.0070708 1.0112084 -0.19662334 5
2.0141535 1.0059762 -0.19697197 5
2.017653 0.99893886 -0.19697197 5
2.0247042 0.9936468 -0.19732061 5
2.0281606 0.98657268 -0.19732061 5
2.0172343 0.97256541 -0.19592611 5
2.0206172 0.96551746 -0.19592611 5
2.0239754 0.95845777 -0.19592611 5
2.030916 0.95308024 -0.19627473 5
2.0378432 0.94766575 -0.19662334 5
2.0339007 0.93721187 -0.19592611 5
2.0299101 0.9267959 -0.19522884 5
2.033133 0.91970396 -0.19522884 5
2.0436039 0.91586125 -0.19592611 5
2.0466294 0.90907979 -0.19592611 5
2.0424957 0.89871979 -0.19522884 5
2.0419672 0.88999301 -0.19488023 5
2.0450616 0.88285929 -0.19488023 5
2.051795 0.87728125 -0.19522884 5
2.0621836 0.87322199 -0.19592611 5
2.0505199 0.85985482 -0.19453162 5
2.0498285 0.85116428 -0.19418299 5
2.0601583 0.84703374 -0.19488023 5
2.059412 0.83833438 -0.19453162 5
2.0658755 0.83299208 -0.19488023 5
2.0613694 0.82282078 -0.19418299 5
2.0605235 0.81415546 -0.19383438 5
2.0670636 0.80840963 -0.19418299 5
2.0698731 0.80118877 -0.19418299 5
2.0762391 0.79574686 -0.19453162 5
2.0676901 0.7846157 -0.19348574 5
2.0629551 0.77459234 -0.1927885 5
2.073117 0.7701624 -0.19348574 5
2.0832732 0.76566988 -0.19418299 5
2.0859332 0.7583937 -0.19418299 5
2.0849488 0.74939597 -0.19383438 5
2.0800428 0.73944348 -0.19313712 5
2.0824838 0.7325412 -0.19313712 5
2.0887918 0.72657603 -0.19348574 5
2.095083 0.72057784 -0.19383438 5
2.0843813 0.70876968 -0.19261418 5
2.081177 0.69958544 -0.19209124 5
2.0853763 0.69330817 -0.19226557 5
2.0991406 0.68975693 -0.19331144 5
2.0976264 0.68156004 -0.1929628 5
2.0924048 0.67179811 -0.19226557 5
2.0966363 0.66509205 -0.19243988 5
2.1026325 0.65932828 -0.1927885 5
2.1029043 0.65176165 -0.19261418 5
2.1050539 0.64478505 -0.19261418 5
2.0997744 0.63475972 -0.19191694 5
2.0962501 0.62571609 -0.191394 5
2.1060658 0.62064821 -0.19209124 5
2.1235244 0.61774457 -0.19348574 5
2.1217313 0.60959941 -0.19313712 5
2.1161788 0.60001594 -0.19243988 5
2.122098 0.59369844 -0.1927885 5
2.1279988 0.58734697 -0.19313712 5
2.1260896 0.57924098 -0.1927885 5
2.1280987 0.57181549 -0.1927885 5
2.1223781 0.56234181 -0.19209124 5
2.1166174 0.55291611 -0.191394 5
2.1358995 0.54999524 -0.1929628 5
2.1416686 0.54351795 -0.19331144 5
2.1511903 0.53834707 -0.19400868 5
2.1453187 0.52892643 -0.19331144 5
2.1471522 0.52143407 -0.19331144 5
2.1567097 0.51579106 -0.19400868 5
2.1488004 0.50597578 -0.19313712 5
2.1544354 0.49937218 -0.19348574 5
2.1560795 0.49222445 -0.19348574 5
2.1538968 0.48382148 -0.19313712 5
2.1593802 0.47753707 -0.19348574 5
2.1688213 0.47169068 -0.19418299 5
2.1607938 0.46165645 -0.19331144 5
2.1545923 0.45247355 -0.19261418 5
2.1561587 0.44494927 -0.19261418 5
2.1576986 0.43742061 -0.19261418 5
2.1709366 0.43222091 -0.19366007 5
2.1684477 0.42425373 -0.19331144 5
2.1678858 0.41668493 -0.19313712 5
2.1693273 0.40911448 -0.19313712 5
2.1727712 0.40152329 -0.19331144 5
2.1820014 0.39535776 -0.19400868 5
2.1931765 0.38947999 -0.19488023 5
2.1827457 0.37977234 -0.19383438 5
2.1801295 0.37148193 -0.19348574 5
2.1892743 0.36518025 -0.19418299 5
2.1885066 0.35759747 -0.19400868 5
2.1936762 0.35058531 -0.19435729 5
2.1928585 0.34300143 -0.19418299 5
2.1901035 0.33474222 -0.19383438 5
2.1952567 0.32729986 -0.19418299 5
2.2082155 0.32135698 -0.19522884 5
2.2093236 0.31364739 -0.19522884 5
2.1985638 0.30429402 -0.19418299 5
2.2035615 0.29714969 -0.19453162 5
2.2164383 0.2910127 -0.19557749 5
2.2193673 0.28391439 -0.19575179 5
2.0230343 1.0183649 -0.11869796 6
2.028187 1.0125431 -0.11880264 6
2.0157726 0.99713308 -0.11786059 6
2.0156546 0.98833156 -0.11765125 6
2.0226846 0.98303604 -0.11786059 6
2.026104 0.97596902 -0.11786059 6
2.033103 0.97061205 -0.11806992 6
2.0292571 0.96009308 -0.11765125 6
2.0253627 0.94961166 -0.11723255 6
2.0286651 0.94253653 -0.11723255 6
2.0355716 0.93711942 -0.1174419 6
2.0424643 0.93166637 -0.11765125 6
2.038424 0.92124045 -0.11723255 6
2.0305314 0.90957719 -0.11660452 6
2.0373454 0.90410346 -0.11681387 6
2.047802 0.90020174 -0.11723255 6
2.0582571 0.89623702 -0.11765125 6
2.0430331 0.88113767 -0.11660452 6
2.0497696 0.8755703 -0.11681387 6
2.0489836 0.86721075 -0.11660452 6
2.0556819 0.86159766 -0.11681387 6
2.0588262 0.85405689 -0.11681387 6
2.054405 0.84383011 -0.11639518 6
2.0608916 0.83851868 -0.11660452 6
2.0563958 0.82833409 -0.11618583 6
2.0628419 0.82299 -0.11639518 6
2.0695598 0.81689078 -0.11660452 6
2.0649574 0.80675393 -0.11618583 6
2.0565834 0.79522061 -0.1155578 6
2.0741313 0.79410875 -0.11639518 6
2.0767529 0.78722674 -0.11639518 6
2.0757482 0.77856928 -0.11618583 6
2.0672183 0.76715004 -0.1155578 6
2.0697513 0.76029015 -0.1155578 6
2.0725238 0.75269943 -0.1155578 6
2.0865471 0.74914706 -0.11618583 6
2.0853851 0.74052286 -0.11597649 6
2.0802922 0.73095548 -0.1155578 6
2.0789316 0.72274065 -0.11534845 6
2.0815666 0.71511662 -0.11534845 6
2.0878327 0.70913035 -0.1155578 6
2.0920656 0.70283931 -0.11566247 6
2.1020885 0.6980496 -0.11608116 6
2.0930066 0.68733549 -0.11545313 6
2.0915935 0.67879277 -0.11524379 6
2.1015575 0.67392761 -0.11566247 6
2.1115129 0.66900116 -0.11608116 6
2.0965662 0.65662247 -0.11513911 6
2.1159034 0.65498227 -0.11608116 6
2.114244 0.64679289 -0.11587181 6
2.1318965 0.6436581 -0.11670919 6
2.1341305 0.63621193 -0.11670919 6
2.1210103 0.62424672 -0.11587181 6
2.1230686 0.61721116 -0.11587181 6
2.12521 0.60979599 -0.11587181 6
2.1311696 0.60346168 -0.11608116 6
2.1448042 0.59924382 -0.11670919 6
2.1390781 0.59000438 -0.11629051 6
2.1334159 0.58043605 -0.11587181 6
2.1431451 0.57505643 -0.11629051 6
2.1528625 0.56961477 -0.11670919 6
2.1471078 0.56007934 -0.11629051 6
2.1451807 0.55158788 -0.11608116 6
2.1469982 0.54447061 -0.11608116 6
2.152761 0.53794068 -0.11629051 6
2.1623826 0.53233403 -0.11670919 6
2.1584051 0.52337021 -0.11639518 6
2.1505055 0.51351273 -0.11587181 6
2.1483963 0.50508922 -0.11566247 6
2.1617343 0.50066537 -0.11629051 6
2.1634686 0.49311692 -0.11629051 6
2.1728871 0.48768881 -0.11670919 6
2.1589737 0.47665685 -0.11587181 6
2.1566391 0.468647 -0.11566247 6
2.1623292 0.46119538 -0.11587181 6
2.1756546 0.45610282 -0.11649985 6
2.1850581 0.45011902 -0.11691854 6
2.1748707 0.44011155 -0.11629051 6
2.1724756 0.43173903 -0.11608116 6
2.1778159 0.42529744 -0.11629051 6
2.1870601 0.41957885 -0.11670919 6
2.1963627 0.41341931 -0.11712788 6
2.18208 0.40284967 -0.11629051 6
2.1874726 0.39555946 -0.11649985 6
2.1927731 0.38861889 -0.11670919 6
2.2019877 0.38232842 -0.11712788 6
2.2111847 0.37597832 -0.11754657 6
2.182868 0.36372119 -0.11597649 6
2.1841245 0.35609877 -0.11597649 6
2.1931825 0.35011384 -0.11639518 6
2.2022848 0.34368736 -0.11681387 6
2.2034709 0.3359983 -0.11681387 6
2.2006795 0.32771575 -0.11660452 6
2.1979127 0.3190743 -0.11639518 6
2.2029681 0.31195968 -0.11660452 6
2.2159145 0.30590722 -0.11723255 6
2.220928 0.29870224 -0.1174419 6
2.2100747 0.28939357 -0.11681387 6
2.2070601 0.28155705 -0.11660452 6
2.2199218 0.2753256 -0.11723255 6
2.2248354 0.26805216 -0.1174419 6
2.2297702 0.2603597 -0.11765125 6
2.2187579 0.25122696 -0.11702321 6
2.2275202 0.2447409 -0.1174419 6
2.2243886 0.2365409 -0.11723255 6
2.2331481 0.22959135 -0.11765125 6
2.2379107 0.22218993 -0.11786059 6
2.2545404 0.21629387 -0.11869796 6
2.0532353 0.9530797 -0.039512251 7
2.0456491 0.94089353 -0.039302818 7
2.0416424 0.93042964 -0.039163202 7
2.0538285 0.92777056 -0.039337724 7
2.049753 0.91732866 -0.039198104 7
2.0492868 0.90854675 -0.039128296 7
2.0451217 0.89817291 -0.03898868 7
2.0519118 0.89262342 -0.039058488 7
2.0550153 0.88545489 -0.039058488 7
2.0671363 0.88256079 -0.03923301 7
2.0646787 0.8730039 -0.039128296 7
2.0529568 0.85961318 -0.038849056 7
2.0596395 0.85397404 -0.038918864 7
2.0644577 0.84753823 -0.03895377 7
2.0729613 0.84258515 -0.039058488 7
2.0627592 0.83047891 -0.038814154 7
2.0600724 0.82105291 -0.038709439 7
2.0649281 0.81423074 -0.038744342 7
2.0789349 0.81137955 -0.03895377 7
2.0909405 0.80808491 -0.039128296 7
2.0824029 0.79685903 -0.038918864 7
2.0814312 0.78816938 -0.038849056 7
2.0879152 0.78230166 -0.038918864 7
2.0867479 0.77398318 -0.038849056 7
2.0969465 0.76944929 -0.03898868 7
2.09586 0.76076066 -0.038918864 7
2.0911055 0.75037271 -0.038779248 7
2.0937121 0.74306834 -0.038779248 7
2.0999384 0.73744571 -0.038849056 7
2.1062779 0.73142254 -0.038918864 7
2.09747 0.72017092 -0.038709439 7
2.0923967 0.71027327 -0.038569819 7
2.0967591 0.70360172 -0.038604725 7
2.1180601 0.70294297 -0.03895377 7
2.1205006 0.69554573 -0.03895377 7
2.1153066 0.68567353 -0.038814154 7
2.1138785 0.67706507 -0.038744342 7
2.1275506 0.6736728 -0.03895377 7
2.1202309 0.66362774 -0.038779248 7
2.1185994 0.65541053 -0.038709439 7
2.1341472 0.6524744 -0.03895377 7
2.111748 0.63676953 -0.038500007 7
2.1216235 0.63167822 -0.038639627 7
2.1275434 0.62576717 -0.038709439 7
2.1373966 0.62056655 -0.038849056 7
2.124171 0.60869533 -0.038569819 7
2.1224341 0.60018915 -0.038500007 7
2.1398215 0.59744912 -0.038779248 7
2.1418941 0.58997554 -0.038779248 7
2.1555188 0.58564156 -0.03898868 7
2.1498237 0.57604301 -0.038849056 7
2.1440876 0.56649339 -0.038709439 7
2.1537924 0.56102133 -0.038849056 7
2.1595149 0.55487078 -0.038918864 7
2.1653154 0.54831254 -0.03898868 7
2.1516945 0.53687733 -0.038709439 7
2.1535556 0.52936268 -0.038709439 7
2.1592772 0.52278376 -0.038779248 7
2.1727602 0.51802528 -0.03898868 7
2.1744659 0.51081771 -0.03898868 7
2.164546 0.50052172 -0.038779248 7
2.1700933 0.49422851 -0.038849056 7
2.1796107 0.48839888 -0.03898868 7
2.1734071 0.4794457 -0.038849056 7
2.1750674 0.47185662 -0.038849056 7
2.1612163 0.46017045 -0.038569819 7
2.1667242 0.45344222 -0.038639627 7
2.1702528 0.44627845 -0.038674533 7
2.1757174 0.4394924 -0.038744342 7
2.1791241 0.43266496 -0.038779248 7
2.1707335 0.42352107 -0.038604725 7
2.1741626 0.41631672 -0.038639627 7
2.1795332 0.40946382 -0.038709439 7
2.1809492 0.4018538 -0.038709439 7
2.1941457 0.39637184 -0.038918864 7
2.1916456 0.38762906 -0.038849056 7
2.1851039 0.37861234 -0.038709439 7
2.1902905 0.37203333 -0.038779248 7
2.2034116 0.3663528 -0.03898868 7
2.2065878 0.35936588 -0.039023582 7
2.1979547 0.35008901 -0.038849056 7
2.1952119 0.34179869 -0.038779248 7
2.2082534 0.33593783 -0.03898868 7
2.2133684 0.32881567 -0.039058488 7
2.2224185 0.32223579 -0.039198104 7
2.2156644 0.31296876 -0.039058488 7
2.2127817 0.30468765 -0.03898868 7
2.2217593 0.29802567 -0.039128296 7
2.2307174 0.29130358 -0.039267913 7
2.2356389 0.28440878 -0.039337724 7
2.220741 0.27464125 -0.039058488 7
2.2216861 0.26688716 -0.039058488 7
2.2325356 0.26028767 -0.03923301 7
2.2354176 0.25271818 -0.039267913 7
2.2402618 0.24534841 -0.039337724 7
2.2291734 0.23626284 -0.039128296 7
2.2339628 0.22888823 -0.039198104 7
2.2426696 0.22226715 -0.039337724 7
2.2494032 0.21500871 -0.039442439 7
2.2521317 0.20733824 -0.039477345 7
2.2408903 0.19841675 -0.039267913 7
2.2455876 0.19054078 -0.039337724 7
2.2502253 0.18302469 -0.039407536 7
2.2628124 0.1761013 -0.039616965 7
2.2713902 0.16879371 -0.039756581 7
2.2559798 0.1601273 -0.039477345 7
2.2645059 0.15279044 -0.039616965 7
2.2690163 0.14514069 -0.039686773 7
2.0453775 0.87749553 0.038849056 8
2.0482762 0.87070745 0.038849056 8
2.0605183 0.86743218 0.039023582 8
2.0561509 0.8571561 0.038883962 8
2.0574298 0.84885186 0.038849056 8
2.0694888 0.84580761 0.039023582 8
2.0631602 0.83482772 0.038849056 8
2.0659173 0.82798082 0.038849056 8
2.0615025 0.81745535 0.038709439 8
2.0643437 0.8102538 0.038709439 8
2.0615671 0.80087209 0.038604725 8
2.0772762 0.79905617 0.038849056 8
2.0780458 0.79145199 0.038814154 8
2.0751822 0.78207725 0.038709439 8
2.0666575 0.77063715 0.038500007 8
2.0785818 0.76724136 0.038674533 8
2.0868821 0.76203924 0.038779248 8
2.0971849 0.75710082 0.038918864 8
2.0867622 0.74470478 0.038674533 8
2.079792 0.73445189 0.038500007 8
2.0841043 0.72821003 0.038534917 8
2.0923038 0.72288918 0.038639627 8
2.1006162 0.71715432 0.038744342 8
2.0991938 0.70890534 0.038674533 8
2.0940683 0.69904125 0.038534917 8
2.092577 0.69083869 0.038465101 8
2.1025801 0.68601155 0.038604725 8
2.1125748 0.68112195 0.038744342 8
2.1016021 0.66949517 0.038500007 8
2.0980885 0.66071975 0.038395293 8
2.1040866 0.6549477 0.038465101 8
2.1138923 0.65031803 0.038604725 8
2.1220019 0.64430934 0.038709439 8
2.1089144 0.63230324 0.038430199 8
2.1091909 0.62437177 0.038395293 8
2.117008 0.61905718 0.038500007 8
2.1229985 0.61277211 0.038569819 8
2.1366642 0.60864425 0.038779248 8
2.1233747 0.59685367 0.038500007 8
2.1176348 0.58767056 0.038360391 8
2.1216021 0.58080244 0.038395293 8
2.1332688 0.57599986 0.038569819 8
2.1391315 0.56957841 0.038639627 8
2.1314354 0.55957049 0.038465101 8
2.1353118 0.5526275 0.038500007 8
2.1371331 0.5455429 0.038500007 8
2.1351459 0.53710335 0.038430199 8
2.148653 0.5325349 0.038639627 8
2.1369007 0.52171093 0.038395293 8
2.13482 0.51331401 0.038325485 8
2.1404908 0.50677979 0.038395293 8
2.1518965 0.50195056 0.038569819 8
2.1555848 0.49488291 0.038604725 8
2.1474614 0.48552749 0.038430199 8
2.1491432 0.47802791 0.038430199 8
2.1526699 0.47132659 0.038465101 8
2.1603291 0.46431753 0.038569819 8
2.1678064 0.45801333 0.038674533 8
2.1596019 0.44841224 0.038500007 8
2.1552763 0.43967143 0.038395293 8
2.1646407 0.43371737 0.038534917 8
2.1739151 0.42808157 0.038674533 8
2.171396 0.42011097 0.038604725 8
2.1767788 0.41327426 0.038674533 8
2.1664124 0.40347698 0.038465101 8
2.1855123 0.39914519 0.038779248 8
2.1968026 0.39289296 0.03895377 8
2.2001307 0.38556689 0.03898868 8
2.1916084 0.37619466 0.038814154 8
2.1948159 0.36925608 0.038849056 8
2.1960917 0.36159191 0.038849056 8
2.2032011 0.35526288 0.03895377 8
2.2103536 0.3485049 0.039058488 8
2.2036512 0.33956844 0.038918864 8
2.2048233 0.3318736 0.038918864 8
2.2079465 0.3244665 0.03895377 8
2.2170391 0.31750515 0.03909339 8
2.2240751 0.3105945 0.039198104 8
2.2112761 0.30094096 0.03895377 8
2.2103305 0.29295909 0.038918864 8
2.2212057 0.286908 0.03909339 8
2.2321146 0.2803984 0.039267913 8
2.2330794 0.2726067 0.039267913 8
2.2280605 0.26410341 0.039163202 8
2.2230532 0.25525048 0.039058488 8
2.2358117 0.24920671 0.039267913 8
2.2366681 0.24140015 0.039267913 8
2.2394862 0.2337994 0.039302818 8
2.2363093 0.2255787 0.03923301 8
2.2350547 0.21796793 0.039198104 8
2.241775 0.21072567 0.039302818 8
2.2424967 0.20289959 0.039302818 8
2.251194 0.19537114 0.039442439 8
2.2458842 0.1870134 0.039337724 8
2.2425363 0.17885409 0.039267913 8
2.0748844 0.79772049 0.11649985 9
2.0813897 0.79189384 0.11670919 9
2.0878799 0.78603047 0.11691854 9
2.0923462 0.77980036 0.11702321 9
2.083812 0.76834673 0.11639518 9
2.0883574 0.76175201 0.11649985 9
2.0986509 0.75680321 0.11691854 9
2.0993989 0.74880147 0.11681387 9
2.1056373 0.74316436 0.11702321 9
2.0950181 0.73120415 0.11629051 9
2.0937819 0.72258306 0.11608116 9
2.1000721 0.71655935 0.11629051 9
2.108238 0.71113998 0.11660452 9
2.1086898 0.70351321 0.11649985 9
2.1035457 0.69364578 0.11608116 9
2.1097519 0.6875369 0.11629051 9
2.1140406 0.68078005 0.11639518 9
2.1181896 0.67437106 0.11649985 9
2.120414 0.66734368 0.11649985 9
2.1111729 0.65674824 0.11587181 9
2.1133389 0.64974409 0.11587181 9
2.1234636 0.64394265 0.11629051 9
2.1314383 0.63824672 0.11660452 9
2.1239672 0.62834167 0.11608116 9
2.1184788 0.61868358 0.11566247 9
2.1206253 0.61128539 0.11566247 9
2.1227462 0.60387975 0.11566247 9
2.124737 0.59683657 0.11566247 9
2.1345065 0.59155029 0.11608116 9
2.1269257 0.58146197 0.1155578 9
2.1308706 0.57455438 0.11566247 9
2.1444442 0.57019258 0.11629051 9
2.1483538 0.56320953 0.11639518 9
2.1502099 0.55608165 0.11639518 9
2.1443958 0.54660076 0.11597649 9
2.1482279 0.53959811 0.11608116 9
2.1500986 0.53209555 0.11608116 9
2.1635852 0.52742565 0.11670919 9
2.1692975 0.52080208 0.11691854 9
2.1612947 0.511307 0.11639518 9
2.1591754 0.50285387 0.11618583 9
2.1608312 0.49569046 0.11618583 9
2.1703417 0.48990327 0.11660452 9
2.1758535 0.48357049 0.11681387 9
2.1658208 0.47341385 0.11618583 9
2.163717 0.46425673 0.11597649 9
2.1692331 0.4575249 0.11618583 9
2.1845067 0.45278808 0.11691854 9
2.186074 0.44515938 0.11691854 9
2.1797042 0.43633988 0.11649985 9
2.1811395 0.42910874 0.11649985 9
2.1806633 0.42111328 0.11639518 9
2.1899691 0.41498661 0.11681387 9
2.1953316 0.40807012 0.11702321 9
2.1888831 0.39897242 0.11660452 9
2.184432 0.38989368 0.11629051 9
2.1995516 0.3846752 0.11702321 9
2.2027836 0.37771603 0.11712788 9
2.2060585 0.37035468 0.11723255 9
2.1993914 0.36174101 0.11681387 9
2.2006407 0.35406193 0.11681387 9
2.2117281 0.34792936 0.11733723 9
2.2109549 0.33990386 0.11723255 9
2.2160783 0.3327778 0.1174419 9
2.2093217 0.32388079 0.11702321 9
2.2124712 0.31606296 0.11712788 9
2.2214735 0.30944073 0.11754657 9
2.2245195 0.30195358 0.11765125 9
2.2255599 0.29418612 0.11765125 9
2.2166188 0.28552783 0.11712788 9
2.2195835 0.27803841 0.11723255 9
2.2245061 0.27077103 0.1174419 9
2.2333713 0.26394248 0.11786059 9
2.2342792 0.25614434 0.11786059 9
2.1069686 0.73496157 0.19522884 10
2.105881 0.72593606 0.19488023 10
2.1046307 0.71729475 0.19453162 10
2.0995698 0.70739871 0.19383438 10
2.105684 0.70169258 0.19418299 10
2.1175823 0.69745487 0.19505455 10
2.1160948 0.68919432 0.19470593 10
2.1109011 0.67936248 0.19400868 10
2.1170571 0.67319787 0.19435729 10
2.119278 0.66617316 0.19435729 10
2.123378 0.6597333 0.19453162 10
2.131268 0.65444231 0.19505455 10
2.1203051 0.64258188 0.19383438 10
2.1263528 0.6363185 0.19418299 10
2.1323822 0.63002276 0.19453162 10
2.136481 0.62313288 0.19470593 10
2.1404505 0.61659551 0.19488023 10
2.1406736 0.60857487 0.19470593 10
2.1274381 0.59679419 0.19331144 10
2.1352689 0.59095913 0.19383438 10
2.1410608 0.58492464 0.19418299 10
2.1507843 0.57952118 0.19488023 10
2.1373899 0.56791633 0.19348574 10
2.139359 0.56045246 0.19348574 10
2.1413021 0.55298173 0.19348574 10
2.1567354 0.5489434 0.19470593 10
2.1508141 0.53984761 0.19400868 10
2.1546192 0.53281635 0.19418299 10
2.1409798 0.52151918 0.1927885 10
2.1524744 0.51636702 0.19366007 10
2.1581419 0.50976574 0.19400868 10
2.1715519 0.50493616 0.19505455 10
2.1576777 0.49417433 0.19366007 10
2.1555021 0.48576403 0.19331144 10
2.1609914 0.47947598 0.19366007 10
2.1704383 0.47362828 0.19435729 10
2.1819 0.46775872 0.19522884 10
2.1698728 0.45726323 0.19400868 10
2.1656024 0.44847554 0.19348574 10
2.1769166 0.44289896 0.19435729 10
2.1882181 0.43724987 0.19522884 10
2.1916115 0.43037441 0.19540317 10
2.1832447 0.42121765 0.19453162 10
2.1788292 0.41248176 0.19400868 10
2.1880913 0.40632924 0.19470593 10
2.1915259 0.39866275 0.19488023 10
2.2066343 0.39345914 0.19610041 10
2.1942558 0.38335329 0.19488023 10
2.1936166 0.37535709 0.19470593 10
2.1929483 0.36736786 0.19453162 10
2.2079175 0.36235183 0.19575179 10
2.2170377 0.35590515 0.19644904 10
2.2063963 0.34669602 0.19540317 10
2.207593 0.33899266 0.19540317 10
2.198911 0.32980639 0.19453162 10
2.1398089 0.67960924 0.27566847 11
2.136369 0.67072624 0.27493724 11
2.1177266 0.65716696 0.27225614 11
2.1293831 0.65305132 0.27347484 11
2.1374626 0.64696604 0.27420604 11
2.1359036 0.63836557 0.27371857 11
2.1362152 0.63034362 0.27347484 11
2.1306705 0.62103355 0.27249986 11
2.1385486 0.61523938 0.27323109 11
2.1464119 0.60939765 0.27396232 11
2.156172 0.60404295 0.27493724 11
2.1485968 0.59424412 0.27371857 11
2.142998 0.58465004 0.27274361 11
2.1507761 0.57871383 0.27347484 11
2.1585391 0.57273048 0.27420604 11
2.1624458 0.56569403 0.2744498 11
2.1528738 0.55516857 0.27298734 11
2.1489317 0.54655892 0.27225614 11
2.160454 0.54146677 0.27347484 11
2.1700399 0.53582495 0.2744498 11
2.1757545 0.52918553 0.27493724 11
2.1660058 0.5188126 0.27347484 11
2.1600752 0.50942641 0.27249986 11
2.1675534 0.50360876 0.27323109 11
2.1770387 0.49780893 0.27420604 11
2.1806142 0.49102235 0.2744498 11
2.1784384 0.48255047 0.27396232 11
2.1722686 0.47363165 0.27298734 11
2.1779535 0.46611869 0.27347484 11
2.1931653 0.46137339 0.275181 11
2.1928186 0.45331255 0.27493724 11
2.1924424 0.44526082 0.27469352 11
2.1803558 0.4348864 0.27298734 11
2.1915262 0.42956331 0.27420604 11
2.2026849 0.42416981 0.27542472 11
2.2041521 0.41647887 0.27542472 11
2.1919296 0.4062506 0.27371857 11
2.1516156 0.59427071 0.35354191 12
2.1574891 0.58779556 0.35416767 12
2.1461737 0.5766722 0.35197759 12
2.1405358 0.56715286 0.3507261 12
2.1558812 0.56317282 0.35291618 12
2.1558237 0.55552804 0.35260335 12
2.1692376 0.55091631 0.35448053 12
2.1596496 0.54046404 0.35260335 12
2.1538513 0.53103006 0.35135183 12
2.1556919 0.52350795 0.35135183 12
2.1671119 0.51827878 0.35291618 12
2.1784325 0.51335442 0.35448053 12
2.1725142 0.50396109 0.35322908 12
2.1645446 0.49455443 0.35166472 12
2.1681848 0.48742944 0.35197759 12
