# .PCD v0.7 - Point Cloud Data file format
VERSION 0.7
FIELDS x y z intensity
SIZE 4 4 4 4
TYPE F F F F
COUNT 1 1 1 1
WIDTH 828
HEIGHT 1
VIEWPOINT 0 0 0 1 0 0 0
POINTS 828
DATA ascii
1.999567 0.71004874 -0.18564174 5
1.9926345 0.6997633 -0.18477017 5
1.9968261 0.69380605 -0.1849445 5
2.012305 0.69171363 -0.18616466 5
2.0147069 0.68468648 -0.18616466 5
2.0019755 0.67257315 -0.18477017 5
2.0260386 0.67987037 -0.11199896 6
2.0043113 0.66558033 -0.18477017 5
2.0397742 0.67656618 -0.11262699 6
2.0067372 0.65823013 -0.18477017 5
2.0193486 0.66197544 -0.11137092 6
2.0166035 0.65367907 -0.18546741 5
2.0312619 0.65764612 -0.11189428 6
2.0188732 0.64663529 -0.18546741 5
2.033545 0.65055215 -0.11189428 6
2.0267398 0.64214206 -0.26104417 4
2.0173192 0.63838148 -0.18511879 5
2.0394998 0.64501005 -0.11210363 6
2.032758 0.63624889 -0.26153165 4
2.0118189 0.62930954 -0.18442155 5
2.0531771 0.64145988 -0.11273166 6
2.0386498 0.63067728 -0.2620191 4
2.0273283 0.62640065 -0.18564174 5
2.0362098 0.62875456 -0.11168494 6
2.0161583 0.61601788 -0.25885051 4
2.0313001 0.62025565 -0.18581605 5
2.0345709 0.62047923 -0.1114756 6
2.0163963 0.60840249 -0.25860679 4
2.033453 0.61316079 -0.18581605 5
2.0405493 0.61452478 -0.11168494 6
2.0777225 0.62492877 -0.037871722 7
2.0204101 0.60192651 -0.25885051 4
2.0298519 0.6043548 -0.18529311 5
2.0465109 0.60853612 -0.11189428 6
2.0606148 0.61233962 -0.037522674 7
2.0300128 0.59746468 -0.25982547 4
2.0262146 0.59557945 -0.18477017 5
2.0600157 0.60512316 -0.11252232 6
2.0493081 0.60120201 -0.037278343 7
2.035898 0.59148401 -0.26031294 4
2.0377457 0.59163409 -0.18564174 5
2.0467689 0.59348041 -0.11168494 6
2.0666559 0.59885478 -0.03755758 7
2.0263996 0.58144385 -0.25885051 4
2.0397983 0.58451778 -0.18564174 5
2.0487261 0.58668923 -0.11168494 6
2.0687337 0.59163755 -0.03755758 7
2.0322371 0.57544798 -0.25933796 4
2.0513108 0.58046329 -0.18651329 5
2.0584495 0.58170629 -0.11210363 6
2.070786 0.58441317 -0.03755758 7
2.0380571 0.56941944 -0.25982547 4
2.0379727 0.5690124 -0.18511879 5
2.0604675 0.57451791 -0.11210363 6
2.0651081 0.5750351 -0.037417959 7
2.0374694 0.56235999 -0.33476979 3
2.0438597 0.56335723 -0.26031294 4
2.0380259 0.56136549 -0.1849445 5
2.0701635 0.56944031 -0.11252232 6
2.0748158 0.56994212 -0.03755758 7
2.0413258 0.55576384 -0.33508268 3
2.0496447 0.55726147 -0.26080042 4
2.0457408 0.55581552 -0.18546741 5
2.0605729 0.55907309 -0.11189428 6
2.080653 0.56374156 -0.037627388 7
2.0375302 0.54709762 -0.33414406 3
2.0438128 0.5484032 -0.25982547 4
2.0476685 0.54867065 -0.18546741 5
2.0625117 0.55187738 -0.11189428 6
2.0825109 0.55683821 -0.037627388 7
2.0853157 0.55408001 0.03766229 8
2.0431519 0.54135019 -0.33476979 3
2.0360248 0.53908253 -0.25860679 4
2.0591075 0.54442412 -0.18633896 5
2.068193 0.54605401 -0.11210363 6
2.0766118 0.54788911 -0.037487768 7
2.0813384 0.54564089 0.03755758 8
2.0430248 0.53407162 -0.33445692 3
2.0513396 0.53548139 -0.26031294 4
2.0512624 0.53507787 -0.18546741 5
2.0738578 0.54019988 -0.11231297 6
2.074641 0.53963071 -0.037417959 7
2.0851665 0.53887314 0.037592482 8
2.0295734 0.522995 -0.331954 3
2.0570412 0.52930641 -0.26080042 4
2.0453992 0.52593118 -0.18477017 5
2.0757308 0.53295696 -0.11231297 6
2.0803862 0.53337824 -0.037487768 7
2.0754082 0.52862924 0.037383057 8
2.0352159 0.51687914 -0.33257973 3
2.0627246 0.52309912 -0.2612879 4
2.0549479 0.52074528 -0.18546741 5
2.0737062 0.5247286 -0.11210363 6
2.0898981 0.52843779 -0.037627388 7
2.0868466 0.52418023 0.03755758 8
2.040751 0.51108646 -0.33320546 3
2.0471156 0.51192218 -0.25909427 4
2.0664179 0.51598281 -0.18633896 5
2.0754347 0.5178495 -0.11210363 6
2.0994914 0.52307361 -0.037767008 7
2.0906048 0.51737237 0.037592482 8
2.0425224 0.50396127 -0.33320546 3
2.0450354 0.50382304 -0.25860679 4
2.0661831 0.50865167 -0.18616466 5
2.0811088 0.51155466 -0.11231297 6
2.0935364 0.51383466 -0.037627388 7
2.0904553 0.50959849 0.03755758 8
2.0519471 0.49869388 -0.33445692 3
2.0602853 0.49995881 -0.26031294 4
2.0621374 0.50002718 -0.18564174 5
2.0867641 0.50522751 -0.11252232 6
2.0875425 0.50464362 -0.037487768 7
2.0941658 0.50276458 0.037592482 8
2.0421488 0.48876989 -0.33257973 3
2.0658796 0.49368623 -0.26080042 4
2.0599947 0.49189991 -0.18529311 5
2.0924006 0.49886608 -0.11273166 6
2.1009631 0.50013262 -0.0376972 7
2.092016 0.49453193 0.037522674 8
2.0399973 0.48073179 -0.331954 3
2.0695224 0.48692703 -0.26104417 4
2.065578 0.48561856 -0.18564174 5
2.0824628 0.48882118 -0.11210363 6
2.0988023 0.49188375 -0.037627388 7
2.0956771 0.48768008 0.03755758 8
2.1204438 0.49305239 0.11409239 9
2.0442674 0.47496456 -0.40794963 2
2.0455115 0.47450009 -0.33257973 3
2.0634739 0.4779079 -0.26006919 4
2.0672607 0.47840482 -0.18564174 5
2.0802643 0.4806492 -0.11189428 6
2.1082158 0.48671991 -0.037767008 7
2.1050794 0.48251438 0.0376972 8
2.1046295 0.48163813 0.11315035 9
2.0267744 0.463449 -0.40413347 2
2.050925 0.4685947 -0.33320546 3
2.0592411 0.46973854 -0.25933796 4
2.0825164 0.47428328 -0.1868619 5
2.0935316 0.47640762 -0.11252232 6
2.0982018 0.47670016 -0.03755758 7
2.1087015 0.47560376 0.037732106 8
2.1295958 0.47992578 0.11440641 9
2.0263851 0.45629361 -0.40375188 2
2.0602572 0.46316627 -0.33445692 3
2.07249 0.46515542 -0.26080042 4
2.074357 0.46519527 -0.18599035 5
2.0951819 0.46909639 -0.11252232 6
2.099771 0.46974006 -0.03755758 7
2.1024582 0.46687487 0.037592482 8
2.1215088 0.47032723 0.11388306 9
2.041383 0.45219103 -0.40642318 2
2.0579245 0.45547739 -0.33383119 3
2.0817738 0.45999476 -0.26177537 4
2.0701315 0.45666346 -0.18546741 5
2.0967259 0.46214631 -0.11252232 6
2.105304 0.46326661 -0.037627388 7
2.1002486 0.45831165 0.037522674 8
2.1310241 0.46424934 0.11430173 9
2.0467854 0.4458977 -0.40718642 2
2.0518591 0.44625291 -0.33257973 3
2.0795665 0.45151773 -0.2612879 4
2.0756071 0.45027983 -0.18581605 5
2.094502 0.45361233 -0.11231297 6
2.1108966 0.45639277 -0.0376972 7
2.1096559 0.4526571 0.03766229 8
2.1209142 0.45429736 0.11367371 9
2.0425704 0.43751624 -0.40604156 2
2.0611312 0.44073957 -0.33383119 3
2.0753055 0.44301406 -0.26055667 4
2.0908065 0.44594052 -0.18703623 5
2.0960722 0.44629982 -0.11231297 6
2.1203012 0.4506841 -0.03783682 7
2.1151366 0.44611511 0.037732106 8
2.1224871 0.4468917 0.11367371 9
2.0440853 0.43038413 -0.40604156 2
2.0665233 0.43435425 -0.33445692 3
2.0710113 0.43454379 -0.25982547 4
2.0982003 0.43986535 -0.18755916 5
2.0976174 0.43897986 -0.11231297 6
2.1140316 0.44164479 -0.0376972 7
2.1245129 0.44035304 0.037871722 8
2.1259897 0.43988416 0.11377838 9
2.0455751 0.42324576 -0.40604156 2
2.0757649 0.42873782 -0.33570841 3
2.0861247 0.4301174 -0.26153165 4
2.0880144 0.4301281 -0.18651329 5
2.1069622 0.43326375 -0.11273166 6
2.1155603 0.43426222 -0.0376972 7
2.1103613 0.42974168 0.037592482 8
2.1412132 0.43524581 0.11451109 9
2.0566595 0.41805854 -0.40794963 2
2.0695052 0.41991758 -0.33445692 3
2.0915046 0.42362139 -0.2620191 4
2.0777862 0.42046532 -0.18546741 5
2.1162927 0.42748871 -0.11315035 6
2.1209841 0.42766482 -0.037767008 7
2.1216531 0.42433286 0.037767008 8
2.142719 0.42776942 0.11451109 9
2.0542555 0.41010866 -0.40718642 2
2.1532006 0.42947009 0.19209124 10
2.0612719 0.4107613 -0.33289257 3
2.1007583 0.41786662 -0.26299405 4
2.1007371 0.41748229 -0.18738484 5
2.1020994 0.41698936 -0.11231297 6
2.1224635 0.42026007 -0.037767008 7
2.1211591 0.41653946 0.037732106 8
2.1382463 0.41950738 0.11419707 9
2.0576015 0.40331259 -0.40756804 2
2.1488209 0.42080319 0.19156833 10
2.0723863 0.40545949 -0.33445692 3
2.0866179 0.40748772 -0.26104417 4
2.0982707 0.40938321 -0.18703623 5
2.1035421 0.40964955 -0.11231297 6
2.1316974 0.41474649 -0.037906628 7
2.1264555 0.41026118 0.037801914 8
2.0321562 0.3917 -0.47779605 1
2.1377363 0.4116627 0.11409239 9
2.0474293 0.39390272 -0.40527833 2
2.1717989 0.41743705 0.19348574 10
2.0775995 0.39933115 -0.33508268 3
2.0918567 0.40131447 -0.26153165 4
2.1036005 0.40280521 -0.18738484 5
2.1088121 0.40342265 -0.11252232 6
2.1252754 0.40580213 -0.037767008 7
2.1357338 0.40432325 0.03794153 8
2.052659 0.388226 -0.48229504 1
2.1430852 0.40494019 0.11430173 9
2.0545118 0.38820404 -0.40642318 2
2.155551 0.40690601 0.19191694 10
2.0848041 0.39317423 -0.33602124 3
2.0971465 0.39474392 -0.2620191 4
2.0970926 0.39435482 -0.1866876 5
2.1141336 0.39679536 -0.11273166 6
2.1227477 0.39764515 -0.0376972 7
2.1332002 0.39613593 0.037871722 8
2.0540016 0.38105798 -0.48229504 1
2.150377 0.39854929 0.11461575 9
2.0597148 0.38174602 -0.40718642 2
2.1510811 0.39829147 0.191394 10
2.0764515 0.38409838 -0.33445692 3
2.1063199 0.38886309 -0.26299405 4
2.0984564 0.38703263 -0.1866876 5
2.123363 0.39085901 -0.11315035 6
2.1319902 0.39167771 -0.03783682 7
2.1306353 0.38797024 0.037801914 8
2.0476503 0.3724902 -0.48049545 1
2.1537204 0.39139828 0.11472043 9
2.0668297 0.37560752 -0.40833127 2
2.1602993 0.39220339 0.19209124 10
2.0738926 0.37614229 -0.33383119 3
2.1076646 0.38150772 -0.26299405 4
2.1037157 0.38041377 -0.18703623 5
2.116852 0.38202626 -0.11273166 6
2.141216 0.38565257 -0.037976436 7
2.1339452 0.38088241 0.03783682 8
2.0451012 0.3646566 -0.47959566 1
2.1511409 0.38317692 0.11451109 9
2.0739269 0.36942297 -0.40947613 2
2.1695015 0.38605684 0.1927885 10
2.0829725 0.3702842 -0.33508268 3
2.0972562 0.37206721 -0.26153165 4
2.1109161 0.37411162 -0.18755916 5
2.1221063 0.37532988 -0.112941 6
2.1425493 0.37817541 -0.037976436 7
2.1431408 0.37480965 0.037976436 8
2.0540404 0.35885659 -0.48139524 1
2.1485302 0.37497833 0.11430173 9
2.0635996 0.36015555 -0.40718642 2
2.1767244 0.37950861 0.19331144 10
2.0900905 0.36402726 -0.33602124 3
2.0965862 0.36440566 -0.2612879 4
2.1161354 0.36742195 -0.18790779 5
2.1234033 0.36792147 -0.112941 6
2.1359749 0.36933079 -0.03783682 7
2.1523199 0.36867628 0.038116053 8
2.0610428 0.35267192 -0.48274496 1
2.1596694 0.36915931 0.11482509 9
2.0590386 0.35195816 -0.40604156 2
2.1701798 0.37056607 0.19261418 10
2.0971904 0.35772514 -0.33695987 3
2.1037164 0.35808372 -0.2620191 4
2.1095481 0.35869655 -0.18721053 5
2.1286132 0.36117491 -0.11315035 6
2.1333075 0.3612054 -0.037767008 7
2.1397886 0.35884634 0.037871722 8
2.0737929 0.34740663 -0.48544434 1
2.1589754 0.36128822 0.11472043 9
2.0699363 0.34638819 -0.40794963 2
2.1616347 0.36134648 0.19174263 10
2.0867357 0.34845176 -0.33508268 3
2.1988783 0.36678225 0.27371857 11
2.1147437 0.35236999 -0.2632378 4
2.1048913 0.35035077 -0.1866876 5
2.1298609 0.35374188 -0.11315035 6
2.1463921 0.35571769 -0.037976436 7
2.1370816 0.35072666 0.037801914 8
2.0615315 0.33795828 -0.48229504 1
2.170078 0.3553651 0.11524379 9
2.07307 0.33947939 -0.40833127 2
2.170748 0.35508472 0.19243988 10
2.0879395 0.34116501 -0.33508268 3
2.1864307 0.35686758 0.27201241 11
2.1159611 0.34498543 -0.2632378 4
2.1159339 0.34460193 -0.18755916 5
2.1310828 0.34630558 -0.11315035 6
2.1555161 0.34950489 -0.038116053 7
2.1442165 0.34421501 0.037906628 8
2.0550022 0.32952642 -0.48049545 1
2.1634166 0.34652382 0.11482509 9
2.0781198 0.33286142 -0.40909451 2
2.1798437 0.34876373 0.19313712 10
2.0930188 0.33449858 -0.33570841 3
2.1915836 0.34985861 0.27249986 11
2.1151922 0.33728412 -0.26299405 4
2.1230264 0.33815446 -0.18808208 5
2.1283336 0.33823705 -0.112941 6
2.1527731 0.34135172 -0.038046245 7
2.1513312 0.3376599 0.038011342 8
2.0619156 0.32325605 -0.48184517 1
2.1586938 0.33804244 0.11451109 9
2.0734501 0.32469359 -0.40794963 2
2.1908898 0.34269351 0.19400868 10
2.1039321 0.32871464 -0.33727276 3
2.1967142 0.34281805 0.27298734 11
2.1124337 0.32928863 -0.26250657 4
2.1300998 0.33166066 -0.18860501 5
2.1334486 0.33141935 -0.11315035 6
2.1499994 0.33322194 -0.037976436 7
2.1564498 0.33075401 0.038081151 8
2.0707364 0.31723747 -0.48364475 1
2.1677577 0.33171397 0.11492977 9
2.0784523 0.31804833 -0.40871289 2
2.1861644 0.33414015 0.19348574 10
2.1109252 0.32226235 -0.33821136 3
2.2018225 0.33574694 0.27347484 11
2.1174951 0.32251006 -0.26299405 4
2.1174567 0.32212511 -0.18738484 5
2.1424909 0.32516941 -0.11356904 6
2.1471953 0.32511675 -0.037906628 7
2.1575913 0.32322502 0.038081151 8
2.0853219 0.31202641 -0.48679405 1
2.1807544 0.32591581 0.1155578 9
2.07955 0.31079069 -0.40871289 2
2.179435 0.32533082 0.1927885 10
2.1120372 0.31489229 -0.33821136 3
2.2127984 0.32952046 0.27469352 11
2.130389 0.31686941 -0.26445648 4
2.1146269 0.31414673 -0.18703623 5
2.1515157 0.31885943 -0.11398773 6
2.15623 0.31878895 -0.038046245 7
2.0815918 0.30478486 -0.56370795 0
2.1527705 0.31482303 0.037976436 8
2.0748291 0.30305496 -0.48409468 1
2.1739733 0.31714875 0.11513911 9
2.0825646 0.30381367 -0.40909451 2
2.1825287 0.31800786 0.1929628 10
2.1013947 0.30581158 -0.33633414 3
2.2021482 0.32008159 0.27323109 11
2.1373756 0.31028602 -0.26518771 4
2.1314845 0.30905098 -0.18843071 5
2.1407554 0.3096323 -0.1133597 6
2.165246 0.31240305 -0.038185868 7
2.0673435 0.2953307 -0.5595668 0
2.1597953 0.30815333 0.038081151 8
2.068157 0.29471135 -0.48229504 1
2.1750672 0.30955765 0.11513911 9
2.0991619 0.29875472 -0.41214746 2
2.1974337 0.31234965 0.19418299 10
2.1063607 0.29903024 -0.33695987 3
2.1914594 0.31072009 0.27176866 11
2.1345148 0.30226609 -0.26470023 4
2.1305773 0.30133024 -0.1882564 5
2.1339123 0.30104122 -0.112941 6
2.1742442 0.30595702 -0.038325485 7
2.0683618 0.28811297 -0.5595668 0
2.174722 0.30254155 0.038325485 8
2.0749638 0.28829432 -0.48364475 1
2.1721778 0.30141482 0.11492977 9
2.0885239 0.28980684 -0.40985772 2
2.200484 0.30495119 0.19435729 10
2.1113052 0.2922169 -0.3375856 3
2.2043293 0.30469993 0.27323109 11
2.1237581 0.29318503 -0.2632378 4
2.1355636 0.29443499 -0.18860501 5
2.1428649 0.29467946 -0.1133597 6
2.1673744 0.29727918 -0.038185868 7
2.0616975 0.27985233 -0.55749625 0
2.1777468 0.29521656 0.038360391 8
2.085613 0.28235725 -0.48589426 1
2.1771753 0.2943663 0.11513911 9
2.0953596 0.28330436 -0.41100258 2
2.1956122 0.29646784 0.19383438 10
2.1201429 0.28590071 -0.33883709 3
2.2230852 0.29938844 0.27542472 11
2.1365731 0.28735697 -0.26470023 4
2.2162247 0.29767591 0.35416767 12
2.1365786 0.28697813 -0.18860501 5
2.1517987 0.28825784 -0.11377838 6
2.1604705 0.28865299 -0.038046245 7
2.0626621 0.2726534 -0.55749625 0
2.1688511 0.28630599 0.038185868 8
2.0943143 0.27609363 -0.48769391 1
2.1939805 0.28923264 0.11597649 9
2.0943894 0.27573168 -0.41062099 2
2.1907072 0.28802428 0.19331144 10
2.1113353 0.27721298 -0.33727276 3
2.2280536 0.29214221 0.27591223 11
2.1414506 0.28078684 -0.26518771 4
2.2171993 0.29032651 0.35416767 12
2.1296651 0.27848545 -0.18790779 5
2.1607139 0.28177744 -0.11419707 6
2.1653817 0.2820029 -0.038116053 7
2.0807991 0.26803255 -0.56215501 0
2.1697886 0.27911165 0.038185868 8
2.0855539 0.26790607 -0.48544434 1
2.1909657 0.28144705 0.11576715 9
2.1089234 0.27053291 -0.41329232 2
2.2035077 0.28227639 0.19435729 10
2.1142023 0.27046108 -0.3375856 3
2.2191646 0.28349379 0.27469352 11
2.1463082 0.27418652 -0.26567519 4
2.2338262 0.28497162 0.35667065 12
2.1365061 0.27217746 -0.18843071 5
2.1537108 0.27360532 -0.11377838 6
2.1742404 0.2758278 -0.038255677 7
2.1707025 0.27191526 0.038185868 8
2.0902982 0.26147184 -0.48634419 1
2.1859889 0.27305415 0.11545313 9
2.1059127 0.26305175 -0.41252908 2
2.2083857 0.27546141 0.19470593 10
2.1170478 0.2636922 -0.33789849 3
2.2122128 0.27515355 0.27371857 11
2.1393721 0.2657156 -0.26470023 4
2.2387278 0.27765802 0.35729638 12
2.1492603 0.26656184 -0.18947658 5
2.1506419 0.26597202 -0.11356904 6
2.1870975 0.26970443 -0.038465101 7
2.1835487 0.2657856 0.038395293 8
2.0873291 0.25370291 -0.48544434 1
2.1849461 0.26518181 0.11534845 9
2.0970731 0.25451687 -0.41062099 2
2.2093339 0.26775044 0.19470593 10
2.1277609 0.25748676 -0.33946282 3
2.2210429 0.26838288 0.27469352 11
2.1324034 0.25729442 -0.26372528 4
2.2337999 0.26913223 0.35635775 12
2.1620462 0.26048723 -0.19052245 5
2.1594894 0.25941557 -0.11398773 6
2.1721418 0.26016638 -0.038185868 7
2.1904206 0.25886652 0.038500007 8
2.0998139 0.24778692 -0.48814377 1
2.1878419 0.25778642 0.11545313 9
2.0979488 0.2471946 -0.41062099 2
2.2062974 0.25957164 0.19435729 10
2.1325703 0.25052029 -0.34008855 3
2.2318239 0.26178402 0.27591223 11
2.1451185 0.25123429 -0.26518771 4
2.2268775 0.26041695 0.35510629 12
2.1431532 0.25062603 -0.18877934 5
2.1643496 0.25233796 -0.11419707 6
2.1730368 0.25258204 -0.038185868 7
2.1793909 0.24985181 0.038290579 8
2.1084106 0.24134162 -0.48994341 1
2.1986501 0.25128227 0.11597649 9
2.1046505 0.2405391 -0.41176581 2
2.2052107 0.2516422 0.19418299 10
2.1236184 0.24195604 -0.33852422 3
2.2366688 0.25444114 0.2763997 11
2.1617615 0.24553762 -0.26713762 4
2.227773 0.25264153 0.35510629 12
2.1479745 0.24359193 -0.18912795 5
2.1731553 0.24567933 -0.11461575 6
2.1818535 0.24589036 -0.038325485 7
2.1762748 0.24180056 0.038220771 8
2.0956819 0.23247685 -0.48679405 1
2.2114246 0.24492566 0.11660452 9
2.1074288 0.23340762 -0.41214746 2
2.2120166 0.24459939 0.19470593 10
2.1224866 0.23432545 -0.33821136 3
2.2316236 0.24598013 0.27566847 11
2.1626055 0.23798959 -0.26713762 4
2.2404225 0.2461585 0.35698348 12
2.1488116 0.23609309 -0.18912795 5
2.1660583 0.23722181 -0.11419707 6
2.19065 0.2391423 -0.038465101 7
2.1870468 0.23527235 0.038395293 8
2.0964808 0.22515957 -0.48679405 1
2.2043226 0.23635253 0.11618583 9
2.117991 0.22709586 -0.41405553 2
2.216819 0.2373011 0.19505455 10
2.1311483 0.22775424 -0.33946282 3
2.230495 0.23797761 0.27542472 11
2.1515796 0.22917813 -0.26567519 4
2.2432325 0.23854476 0.35729638 12
2.1654723 0.23027577 -0.19052245 5
2.1668732 0.22965987 -0.11419707 6
2.1994262 0.23233375 -0.038604725 7
2.1938214 0.228258 0.038500007 8
2.0972538 0.21783955 -0.48679405 1
2.1991742 0.22803904 0.11587181 9
2.1011958 0.21787935 -0.41062099 2
2.2255609 0.23038258 0.19575179 10
2.1397903 0.22112542 -0.34071434 3
2.2372358 0.23080187 0.27615595 11
2.1523662 0.22166678 -0.26567519 4
2.2361915 0.22990425 0.35604486 12
2.1702271 0.2231224 -0.19087107 5
2.1716354 0.22250226 -0.11440641 6
2.1843088 0.22303036 -0.038325485 7
2.2045534 0.22159921 0.038674533 8
2.1096356 0.21168527 -0.48949349 1
2.2098939 0.22135584 0.11639518 9
2.1058505 0.21093427 -0.41138422 2
2.216439 0.22162181 0.19488023 10
2.1484115 0.21444002 -0.34196579 3
2.2459292 0.22377774 0.27713093 11
2.1570778 0.21454464 -0.26616266 4
2.2389462 0.22229274 0.35635775 12
2.1590967 0.21436493 -0.18982521 5
2.1843243 0.21609969 -0.11503445 6
2.1850741 0.21540375 -0.038325485 7
2.1913807 0.21255055 0.038430199 8
2.2186048 0.21440947 0.11681387 9
2.1143901 0.20433801 -0.41291067 2
2.2112496 0.21330914 0.19435729 10
2.1412818 0.20618251 -0.34071434 3
2.2546005 0.21669675 0.27810585 11
2.1657176 0.20777248 -0.26713762 4
2.2495406 0.21541692 0.35792211 12
2.1618152 0.20701632 -0.18999951 5
2.185065 0.20847413 -0.11503445 6
2.1977572 0.20890993 -0.038534917 7
2.1960914 0.20527156 0.038500007 8
2.2213285 0.20684838 0.11691854 9
2.1268196 0.1980478 -0.41520041 2
2.2219 0.20651047 0.19522884 10
2.1419885 0.19870722 -0.34071434 3
2.2474368 0.20809273 0.27713093 11
2.1743362 0.20094158 -0.26811257 4
2.2561798 0.20810911 0.3588607 12
2.1645086 0.1996534 -0.19017383 5
2.1738462 0.19974846 -0.11440641 6
2.2064385 0.20196664 -0.038674533 7
2.2027698 0.19814242 0.038604725 8
2.2120907 0.19820148 0.11639518 9
2.1294537 0.19079727 -0.41558203 2
2.2325296 0.19964111 0.19610041 10
2.1426692 0.19122851 -0.34071434 3
2.2362859 0.19918914 0.27566847 11
2.1493196 0.19106589 -0.26494396 4
2.2647629 0.20092997 0.36011216 12
2.1691613 0.1924482 -0.19052245 5
2.1705513 0.19180796 -0.11419707 6
2.2071302 0.19426291 -0.038674533 7
2.2074325 0.19079593 0.038674533 8
2.2107787 0.19030884 0.11629051 9
2.1242385 0.18285924 -0.41443717 2
2.2312281 0.19167578 0.19592611 10
2.1551323 0.18475983 -0.34259152 3
2.2488348 0.19239868 0.27713093 11
2.1519516 0.1837305 -0.26518771 4
2.2575777 0.19235186 0.3588607 12
2.1777608 0.18555124 -0.19121969 5
2.1871285 0.18558046 -0.11503445 6
2.1958389 0.18554865 -0.038465101 7
2.218049 0.18391712 0.038849056 8
2.2213824 0.18341176 0.11681387 9
2.1170373 0.17479637 -0.41291067 2
2.2279122 0.18356052 0.19557749 10
2.1597016 0.17756006 -0.34321725 3
2.2613633 0.18552087 0.27859333 11
2.1565366 0.17654309 -0.26567519 4
2.2464223 0.18350576 0.35698348 12
2.1744547 0.17724486 -0.19087107 5
2.187763 0.17794426 -0.11503445 6
2.2044458 0.17852771 -0.038604725 7
2.2087107 0.17538156 0.038674533 8
2.227982 0.17612924 0.11712788 9
2.1254926 0.16765386 -0.41443717 2
2.2285702 0.17539194 0.19557749 10
2.156399 0.16933435 -0.34259152 3
2.2679338 0.17809278 0.27932456 11
2.17693 0.17056429 -0.26811257 4
2.2687123 0.17735608 0.36042506 12
2.1830056 0.17027372 -0.19156833 5
2.1923831 0.17023422 -0.11524379 6
2.2050557 0.17083214 -0.038604725 7
2.2073445 0.16713454 0.038639627 8
2.2286124 0.16796151 0.11712788 9
2.1378107 0.16111816 -0.41672686 2
2.2371156 0.16821079 0.19627473 10
2.1490979 0.16121444 -0.34134007 3
2.2646127 0.16948234 0.27883708 11
2.1814995 0.16288041 -0.26860005 4
2.1875603 0.16294798 -0.19191694 5
2.1889803 0.16228548 -0.11503445 6
2.2176328 0.16363139 -0.038814154 7
2.2158926 0.16000396 0.038779248 8
2.2271931 0.16003852 0.11702321 9
2.1383603 0.15365529 -0.41672686 2
2.2416637 0.16068508 0.19662334 10
2.1575289 0.1542747 -0.34259152 3
2.25331 0.16072936 0.27737463 11
2.1741345 0.1547004 -0.26762509 4
2.1841412 0.15502827 -0.19156833 5
2.1895335 0.15464397 -0.11503445 6
2.2181904 0.15588988 -0.038814154 7
2.2244174 0.15281674 0.038918864 8
2.2257457 0.1521264 0.11691854 9
2.1584704 0.14752823 -0.42054302 2
2.2441988 0.15299414 0.19679767 10
2.1580544 0.14674301 -0.34259152 3
2.2558379 0.15299658 0.27761838 11
2.1746614 0.14710973 -0.26762509 4
2.1926203 0.1479402 -0.19226557 5
2.1980309 0.14753458 -0.11545313 6
2.2107401 0.14761251 -0.038674533 7
2.2269328 0.14518064 0.03895377 8
2.2382214 0.14513205 0.11754657 9
2.2407427 0.14490284 0.19644904 10
2.1703808 0.13997236 -0.34446874 3
2.2662632 0.14575887 0.27883708 11
2.1830857 0.14002657 -0.26860005 4
2.1931233 0.14028609 -0.19226557 5
2.1985326 0.13986158 -0.11545313 6
2.2152331 0.14014663 -0.038744342 7
2.2174468 0.13679011 0.038779248 8
2.2386904 0.13770948 0.11754657 9
2.2432234 0.13720132 0.19662334 10
2.1629696 0.13191493 -0.34321725 3
2.2727025 0.13820812 0.27956831 11
2.1954267 0.1335088 -0.27006248 4
2.1856449 0.13214929 -0.19156833 5
2.2189438 0.13338424 -0.11649985 6
2.2196779 0.13304065 -0.038814154 7
2.2178881 0.12943649 0.038779248 8
2.2491043 0.13086441 0.11806992 9
2.2496331 0.13010734 0.19714628 10
2.1633952 0.12474094 -0.34321725 3
2.2652209 0.13021556 0.27859333 11
2.1879301 0.12577252 -0.26908755 4
2.1940274 0.12535469 -0.19226557 5
2.2034216 0.12511984 -0.11566247 6
2.2280929 0.12613067 -0.03895377 7
2.2282882 0.12262979 0.03895377 8
2.2375605 0.12274945 0.1174419 9
2.2580104 0.12307972 0.19784354 10
2.1716866 0.11799528 -0.34446874 3
2.2696047 0.12291718 0.27908084 11
2.1804063 0.11808637 -0.26811257 4
2.202389 0.11850698 -0.1929628 5
2.1998358 0.1175985 -0.11545313 6
2.2364862 0.11916739 -0.03909339 7
2.2366707 0.11565439 0.03909339 8
2.2399495 0.11543091 0.11754657 9
2.2584059 0.11559274 0.19784354 10
2.1760118 0.11099373 -0.34509447 3
2.2759473 0.11569299 0.27981204 11
2.1728559 0.11045256 -0.26713762 4
2.2107296 0.11160416 -0.19366007 5
2.2081923 0.11070338 -0.11587181 6
2.2248862 0.11115102 -0.038883962 7
2.2411122 0.1068649 0.039163202 8
2.2463801 0.10672209 0.11786059 9
2.258852 0.10652548 0.19784354 10
2.1803861 0.10244269 -0.3457202 3
2.2843251 0.10692769 0.28078699 11
2.1911278 0.10256518 -0.26933128 4
2.199218 0.10217354 -0.19261418 5
2.2205899 0.10239077 -0.11649985 6
2.2293096 0.10240187 -0.03895377 7
2.2414541 0.099431895 0.039163202 8
2.2566979 0.099713497 0.11838394 9
2.2552116 0.098859131 0.19749491 10
2.1826873 0.095298313 -0.3460331 3
2.2846673 0.099352457 0.28078699 11
2.199389 0.09564399 -0.27030623 4
2.2075074 0.095224015 -0.19331144 5
2.2209172 0.095025845 -0.11649985 6
2.2296369 0.095009096 -0.03895377 7
2.2397735 0.091916859 0.039128296 8
2.2610235 0.091998413 0.11859328 9
2.2634902 0.091703102 0.19819216 10
2.2810171 0.091615714 0.28029951 11
2.1957421 0.08780688 -0.26981872 4
2.2118077 0.087676093 -0.19366007 5
2.2212355 0.087272227 -0.11649985 6
2.2459402 0.087851383 -0.03923301 7
2.2420938 0.083782241 0.039163202 8
2.255358 0.083488509 0.11827926 9
2.271775 0.083700307 0.1988894 10
2.2020006 0.079975128 -0.27054995 4
2.2160964 0.079711489 -0.19400868 5
2.2175484 0.078988709 -0.11629051 6
2.2502441 0.079760104 -0.039302818 7
2.2483814 0.075765453 0.039267913 8
2.2536395 0.075548895 0.11817461 9
2.2740579 0.075437665 0.19906372 10
2.1903625 0.071896903 -0.26908755 4
2.216361 0.071975857 -0.19400868 5
2.2257955 0.071503453 -0.11670919 6
2.2425141 0.071649835 -0.039163202 7
2.2546165 0.068491742 0.039372627 8
2.259867 0.068256482 0.11848862 9
2.2663295 0.067659914 0.19836646 10
2.2064626 0.065100737 -0.27103746 4
2.2126048 0.064510047 -0.19366007 5
2.2379992 0.064467557 -0.11733723 6
2.2427394 0.064213455 -0.039163202 7
2.2448361 0.060743712 0.039198104 8
2.2660809 0.060527038 0.11880264 9
2.2745082 0.060354903 0.19906372 10
2.2185826 0.057708517 -0.27249986 4
2.2128162 0.056785639 -0.19366007 5
2.2422037 0.056756642 -0.11754657 6
2.2469478 0.056484342 -0.03923301 7
2.2470431 0.05256176 0.03923301 8
2.2822614 0.052589614 0.11964 9
2.2786977 0.052108523 0.19941233 10
2.2148104 0.049487367 -0.27201241 4
2.2209771 0.048850611 -0.19435729 5
2.2304161 0.048279338 -0.11691854 6
2.259135 0.048505459 -0.039442439 7
2.2552178 0.044483822 0.039372627 8
2.2664561 0.044309791 0.11880264 9
2.2828577 0.04383333 0.19976096 10
2.2110002 0.041681569 -0.27152494 4
2.2251184 0.041170791 -0.19470593 5
2.2265768 0.040420339 -0.11670919 6
2.2632897 0.040691681 -0.039512251 7
2.2653501 0.037169486 0.039547153 8
2.2725813 0.036891412 0.11911664 9
2.2909591 0.036389895 0.20045821 10
2.2111261 0.03434984 -0.27152494 4
2.2371955 0.033972699 -0.19575179 5
2.2426751 0.033272933 -0.11754657 6
2.2514153 0.0330096 -0.039302818 7
2.2694602 0.029708836 0.039616965 8
2.2766907 0.02900869 0.119326 9
2.2870824 0.028741889 0.20010957 10
2.225347 0.026023904 -0.19470593 5
2.2467673 0.025882235 -0.1177559 6
2.2515168 0.025150968 -0.039302818 7
2.2635512 0.021729652 0.039512251 8
2.2807724 0.021097722 0.11953534 9
2.2851803 0.02034189 0.19993527 10
2.2254243 0.018255241 -0.19470593 5
2.2548361 0.017710494 -0.11817461 6
2.259589 0.017352374 -0.039442439 7
2.2616158 0.01342073 0.039477345 8
2.2848287 0.012760945 0.11974468 9
2.2912145 0.01239673 0.20045821 10
2.2374303 0.01015327 -0.19575179 5
2.2429004 0.0097866487 -0.11754657 6
2.2676363 0.0091030598 -0.039582059 7
2.2716475 0.0055510444 0.039651867 8
2.2848594 0.0047847172 0.11974468 9
2.2872596 0.0039924751 0.20010957 10
2.241437 0.0023466945 -0.19610041 5
2.2429214 0.0015664375 -0.11754657 6
2.2796528 0.001193153 -0.039791487 7
2.2736533 -0.0015873096 0.039686773 8
2.2848632 -0.0023927037 0.11974468 9
2.2454181 -0.004702799 -0.19644904 5
2.2509053 -0.0051071504 -0.11796526 6
2.267647 -0.0059366985 -0.039582059 7
2.2816308 -0.0099555552 0.039826389 8
2.2848392 -0.01076713 0.11974468 9
2.2374163 -0.012886735 -0.19575179 5
2.2668469 -0.01384755 -0.11880264 6
2.2676098 -0.014248 -0.039582059 7
2.2735803 -0.018253863 0.039686773 8
2.2927728 -0.019208338 0.12016336 9
2.245327 -0.020770414 -0.19644904 5
2.2627902 -0.021721894 -0.11859328 6
2.2715418 -0.022598898 -0.039651867 7
2.2695038 -0.026143963 0.039616965 8
2.3086689 -0.027401121 0.12100074 9
2.2452407 -0.028607942 -0.19644904 5
2.2587063 -0.029568087 -0.11838394 6
2.2794473 -0.030635417 -0.039791487 7
2.2813954 -0.034245931 0.039826389 8
2.2925889 -0.034814183 0.12016336 9
2.2545955 -0.037386034 -0.11817461 6
2.2953279 -0.038462188 -0.040070724 7
2.2892671 -0.041957702 0.039966013 8
2.3004489 -0.04256428 0.12058206 9
2.2704341 -0.045180228 -0.11901198 6
2.2791939 -0.045752499 -0.039791487 7
2.297112 -0.049722053 0.04010563 8
2.3002861 -0.050594091 0.12058206 9
2.2702718 -0.052709009 -0.11901198 6
2.2750218 -0.05361386 -0.039721675 7
2.2889283 -0.057539158 0.039966013 8
2.3060856 -0.058775946 0.12089607 9
2.2860467 -0.061060041 -0.11984935 6
2.2908125 -0.061987564 -0.040000916 7
2.2847157 -0.065414198 0.039896201 8
2.3118556 -0.066998899 0.12121009 9
2.2738411 -0.068677679 -0.11922132 6
2.2985773 -0.070227891 -0.040140536 7
2.2924681 -0.073645771 0.040035821 8
2.3036225 -0.074809067 0.1207914 9
2.2735875 -0.076614439 -0.11922132 6
2.3063123 -0.078523166 -0.040280156 7
2.3021748 -0.082405254 0.040210344 8
2.3133128 -0.083612479 0.12131476 9
2.281275 -0.085245363 -0.11964 6
2.2980158 -0.086674221 -0.040140536 7
2.3058696 -0.090597868 0.040280156 8
2.2889462 -0.093534186 -0.1200587 6
2.2976995 -0.09469527 -0.040140536 7
2.2975478 -0.098304369 0.040140536 8
2.3013501 -0.10289379 -0.040210344 7
2.3051808 -0.10669352 0.040280156 8
2.3089664 -0.11131154 -0.040349964 7
2.3027971 -0.11464002 0.040245246 8
2.3165729 -0.11937939 -0.040489584 7
2.3103919 -0.12269995 0.04038487 8
2.3081553 -0.12702546 -0.040349964 7
2.3179355 -0.13121605 0.040524486 8
2.3116906 -0.13531537 -0.040419776 7
2.309479 -0.1388264 0.04038487 8
2.3151958 -0.14363149 -0.040489584 7
2.3029933 -0.14650628 0.040280156 8
2.3266525 -0.15249687 -0.040699009 7
2.3144391 -0.15534785 0.040489584 8
2.3218329 -0.16439456 0.040629201 8
