# .PCD v0.7 - Point Cloud Data file format
VERSION 0.7
FIELDS x y z intensity
SIZE 4 4 4 4
TYPE F F F F
COUNT 1 1 1 1
WIDTH 908
HEIGHT 1
VIEWPOINT 0 0 0 1 0 0 0
POINTS 908
DATA ascii
1.6113625 1.1062164 -0.17099957 5
1.6102738 1.0972204 -0.17047663 5
1.5957515 1.0795933 -0.16855921 5
1.6094352 1.0806801 -0.16960508 5
1.6270145 1.0916613 -0.10268316 6
1.6214877 1.0805795 -0.17047663 5
1.6191787 1.0782259 -0.10195045 6
1.625249 1.074914 -0.17047663 5
1.6294098 1.0772561 -0.10236914 6
1.6188122 1.0629567 -0.16943076 5
1.6348293 1.0726585 -0.10247381 6
1.6225132 1.0572991 -0.16943076 5
1.6419114 1.0691247 -0.10268316 6
1.6328853 1.0559577 -0.17012802 5
1.6422786 1.0612184 -0.10247381 6
1.641592 1.0534793 -0.17065094 5
1.6424267 1.0536093 -0.10226447 6
1.6556095 1.0551457 -0.24105757 4
1.6435786 1.0466728 -0.17047663 5
1.6494639 1.0500151 -0.10247381 6
1.6576047 1.0482996 -0.24081384 4
1.6404852 1.0366714 -0.16977938 5
1.6566788 1.0460956 -0.10268316 6
1.6530279 1.0369421 -0.23959514 4
1.6440942 1.0309384 -0.16977938 5
1.6670904 1.0445477 -0.10310185 6
1.6811696 1.0529608 -0.034625575 7
1.6497169 1.027258 -0.23862019 4
1.6510661 1.0272986 -0.17012802 5
1.6603689 1.0326849 -0.10247381 6
1.6814378 1.0449753 -0.034555767 7
1.6465372 1.0173199 -0.23764524 4
1.6629391 1.0270529 -0.17099957 5
1.6605645 1.0247847 -0.10226447 6
1.6799692 1.0359503 -0.034451049 7
1.6500787 1.0115657 -0.23764524 4
1.6665143 1.0212414 -0.17099957 5
1.6709447 1.0231541 -0.10268316 6
1.6801629 1.0279938 -0.034381241 7
1.6620799 1.0109572 -0.23886393 4
1.6666639 1.0133481 -0.17065094 5
1.681334 1.0214629 -0.10310185 6
1.6769038 1.0179715 -0.034241624 7
1.6689972 1.0072019 -0.23935141 4
1.6650732 1.0044364 -0.17012802 5
1.6814675 1.0135268 -0.1028925 6
1.6941512 1.0203649 -0.034520861 7
1.6725031 1.0013695 -0.23935141 4
1.6771175 1.0037335 -0.17099957 5
1.6849953 1.0076507 -0.1028925 6
1.6977024 1.0144454 -0.034520861 7
1.6828151 0.99958062 -0.24032637 4
1.6874629 1.0019431 -0.17169681 5
1.6867851 1.0007434 -0.10278783 6
1.708114 1.0125916 -0.034660477 7
1.6828736 0.99168438 -0.23983888 4
1.6943836 0.99806863 -0.17204544 5
1.6954316 0.99788892 -0.10310185 6
1.6978483 0.99851358 -0.034381241 7
1.7132174 1.0039328 0.034660477 8
1.694779 0.99154043 -0.31099173 3
1.6880391 0.98680538 -0.24008264 4
1.6858156 0.98511183 -0.17082524 5
1.6989048 0.99196422 -0.10310185 6
1.7013233 0.99258131 -0.034381241 7
1.6976943 0.98689198 0.034276526 8
1.6948131 0.98363495 -0.310366 3
1.7034937 0.9878782 -0.24178879 4
1.6857967 0.97722238 -0.17047663 5
1.7092698 0.99003232 -0.10352053 6
1.7149891 0.99294537 -0.034590669 7
1.7061539 0.98425496 0.034381241 8
1.687795 0.9720943 -0.30848882 3
1.70676 0.98222417 -0.24178879 4
1.6961066 0.97530419 -0.17117387 5
1.7021538 0.9783873 -0.1028925 6
1.721913 0.98894423 -0.034660477 7
1.7130505 0.98027927 0.034451049 8
1.6860322 0.96325743 -0.30755019 3
1.6998348 0.97035527 -0.24032637 4
1.7149053 0.97856259 -0.17274268 5
1.7020888 0.97046077 -0.10268316 6
1.7323045 0.9868874 -0.034800097 7
1.7286352 0.98120379 0.034695383 8
1.696259 0.96126145 -0.30880168 3
1.6963018 0.96050376 -0.23935141 4
1.7183108 0.97257 -0.17274268 5
1.7124199 0.96844661 -0.10310185 6
1.7287751 0.97689885 -0.034660477 7
1.7337925 0.97614443 0.034730289 8
1.7030481 0.95726997 -0.30942741 3
1.713491 0.96235281 -0.24130133 4
1.7077969 0.95876276 -0.17134818 5
1.7262416 0.9683255 -0.10372987 6
1.7251965 0.96694875 -0.034520861 7
1.7302055 0.96618694 0.034590669 8
1.6994778 0.94747216 -0.30817595 3
1.7237766 0.96022934 -0.24227627 4
1.7059108 0.94988817 -0.17082524 5
1.7296114 0.96229339 -0.10372987 6
1.7355527 0.9648068 -0.034660477 7
1.7283193 0.95723528 0.034485955 8
1.7027749 0.94153368 -0.30817595 3
1.7271173 0.95420754 -0.24227627 4
1.719681 0.94970638 -0.17187113 5
1.7294618 0.95432138 -0.10352053 6
1.7494172 0.9645353 -0.034869909 7
1.7421664 0.95697242 0.034695383 8
1.7060505 0.93558526 -0.30817595 3
1.7234744 0.94435704 -0.24130133 4
1.7264798 0.94561315 -0.17221974 5
1.7292787 0.94636053 -0.10331119 6
1.7597913 0.96226072 -0.035009526 7
1.745496 0.95088571 0.034695383 8
1.755981 0.95580173 0.10477659 9
1.7127769 0.93151146 -0.30880168 3
1.7302485 0.94023114 -0.24178879 4
1.7385242 0.94433528 -0.17309129 5
1.7360822 0.9422242 -0.10352053 6
1.7525926 0.95039201 -0.034800097 7
1.7558424 0.94858849 0.034835003 8
1.7522757 0.94587272 0.10435791 9
1.7229728 0.92927748 -0.31005314 3
1.7405102 0.93795216 -0.24276376 4
1.7312858 0.93259132 -0.17204544 5
1.7499131 0.94183743 -0.10414857 6
1.7523768 0.94237477 -0.034730289 7
1.7556179 0.94056457 0.034765195 8
1.7765313 0.95137089 0.10561397 9
1.7100996 0.91541123 -0.3770386 2
1.7157546 0.91766804 -0.30817595 3
1.7471119 0.93404746 -0.24325122 4
1.7275008 0.92278767 -0.17134818 5
1.7496662 0.933842 -0.10393922 6
1.7607849 0.93938249 -0.034835003 7
1.7516634 0.9309848 0.034625575 8
1.7743849 0.94266373 0.10529996 9
1.7200617 0.91341799 -0.37856507 2
1.718788 0.91197371 -0.30817595 3
1.7537075 0.93010837 -0.2437387 4
1.7446356 0.92451692 -0.17274268 5
1.7421626 0.92242765 -0.10331119 6
1.7709605 0.93727958 -0.034974623 7
1.7688924 0.93263149 0.034904812 8
1.7758975 0.93553281 0.10519528 9
1.7178701 0.90496427 -0.37742022 2
1.7322912 0.91178888 -0.31005314 3
1.7534293 0.92213351 -0.24325122 4
1.758273 0.92428911 -0.17378855 5
1.7522844 0.92036057 -0.10372987 6
1.7706796 0.92923391 -0.034904812 7
1.7721369 0.92645156 0.034904812 8
1.7738415 0.92655444 0.10488127 9
1.7279789 0.9025985 -0.37894669 2
1.731961 0.90390813 -0.30942741 3
1.7495972 0.91233546 -0.24227627 4
1.7579553 0.91630363 -0.17343993 5
1.7554866 0.91423792 -0.10372987 6
1.7703644 0.92120171 -0.034835003 7
1.7789112 0.92210019 0.034974623 8
1.7806122 0.92219353 0.10509061 9
1.7276328 0.89475507 -0.37818345 2
1.7421231 0.90148872 -0.31067887 3
1.7633511 0.91169322 -0.2437387 4
1.7542211 0.90619701 -0.17274268 5
1.7693149 0.91360301 -0.10435791 6
1.7700154 0.91318226 -0.034765195 7
1.7750045 0.91222906 0.034835003 8
1.7927041 0.92053348 0.10561397 9
1.7343937 0.89021027 -0.37894669 2
1.7454158 0.89509702 -0.31067887 3
1.7665225 0.90553278 -0.2437387 4
1.7538271 0.89825106 -0.17239405 5
1.7762078 0.90893126 -0.10456725 6
1.7838744 0.91246164 -0.034974623 7
1.774772 0.90390253 0.034765195 8
1.7996259 0.91576868 0.10582332 9
1.7462394 0.88860214 -0.38085476 2
1.8167075 0.92406285 0.17832063 10
1.7379644 0.88362765 -0.30880168 3
1.7769094 0.90264785 -0.24471366 4
1.7676107 0.89753628 -0.17343993 5
1.7686826 0.89730412 -0.10393922 6
1.7979081 0.9113422 -0.035184052 7
1.783272 0.90040541 0.034869909 8
1.7974619 0.90678293 0.1055093 9
1.752836 0.88427013 -0.38161799 2
1.8039111 0.90964156 0.17675185 10
1.7516223 0.88288993 -0.31067887 3
1.7658653 0.88929719 -0.24276376 4
1.7742926 0.89315194 -0.17378855 5
1.7753724 0.89292008 -0.10414857 6
1.8010786 0.90506023 -0.035184052 7
1.802498 0.9022302 0.035184052 8
1.7968864 0.89903039 0.10529996 9
1.7453767 0.87287676 -0.37932828 2
1.812422 0.90601128 0.17727478 10
1.7546929 0.87677139 -0.31067887 3
1.768959 0.88312727 -0.24276376 4
1.7809643 0.88873357 -0.17413718 5
1.7856284 0.89028162 -0.10456725 6
1.7897513 0.8919484 -0.034904812 7
1.8054801 0.89624745 0.035184052 8
1.8035924 0.89452696 0.1055093 9
1.7536904 0.8693946 -0.38047317 2
1.8084323 0.89614105 0.17657752 10
1.7646708 0.87445569 -0.31193036 3
1.7861102 0.88430214 -0.24471366 4
1.7840559 0.8825109 -0.17413718 5
1.7849903 0.88258439 -0.10435791 6
1.7964401 0.88746649 -0.034974623 7
1.8050088 0.88817525 0.035114244 8
1.8102889 0.88998765 0.10571864 9
1.7583252 0.86444086 -0.38085476 2
1.8131822 0.89101827 0.17675185 10
1.7570746 0.86306459 -0.31005314 3
1.7927495 0.87981236 -0.24520114 4
1.7762402 0.8713246 -0.17309129 5
1.7988203 0.88162333 -0.10498594 6
1.8031188 0.8829487 -0.035044432 7
1.7991116 0.87748557 0.034939718 8
1.8277477 0.89066285 0.10655601 9
1.7613318 0.85829824 -0.38085476 2
1.819864 0.88642806 0.17710046 10
1.7636285 0.85865575 -0.31067887 3
1.79581 0.87354869 -0.24520114 4
1.790022 0.87034595 -0.17413718 5
1.794701 0.87184757 -0.10456725 6
1.8097879 0.87839603 -0.035114244 7
1.8093648 0.87468183 0.035079334 8
1.8146596 0.87645906 0.10561397 9
1.7749245 0.8572675 -0.3831445 2
1.8265353 0.88180286 0.17744908 10
1.7701731 0.85421181 -0.31130463 3
1.7881193 0.86210257 -0.2437387 4
1.8002279 0.86755323 -0.17483442 5
1.7977333 0.865578 -0.10456725 6
1.8200513 0.87554026 -0.03525386 7
1.8178174 0.87095231 0.035184052 8
1.7716448 0.84844995 -0.45350131 1
1.8123033 0.86753279 0.10529996 9
1.7672809 0.84598094 -0.38085476 2
1.8385888 0.87972099 0.17832063 10
1.7731442 0.84802705 -0.31130463 3
1.7947003 0.85756689 -0.2442262 4
1.8104371 0.86469841 -0.17553167 5
1.8043489 0.86101729 -0.10477659 6
1.8230962 0.86918217 -0.03525386 7
1.8226533 0.86545897 0.035218958 8
1.7675536 0.83891875 -0.45170173 1
1.8259962 0.86665684 0.10592799 9
1.7684493 0.83896571 -0.38047317 2
1.8326473 0.86902893 0.17744908 10
1.7868034 0.84690917 -0.31318185 3
1.8048594 0.8546949 -0.24520114 4
1.8062407 0.8549642 -0.17483442 5
1.8145658 0.85812855 -0.10519528 6
1.8151211 0.85800463 -0.035044432 7
1.8218944 0.85770786 0.03514915 8
1.7791424 0.83720082 -0.45395124 1
1.832625 0.86197734 0.10613733 9
1.7766973 0.83529294 -0.38161799 2
1.8392763 0.86432177 0.17779772 10
1.7788755 0.83593792 -0.31130463 3
1.8076835 0.84870547 -0.24520114 4
1.8019992 0.84526914 -0.17413718 5
1.8246349 0.85549843 -0.10561397 6
1.8289704 0.85675257 -0.03525386 7
1.8266892 0.85218781 0.035184052 8
1.7714567 0.82604426 -0.4512518 1
1.8428636 0.85895038 0.10655601 9
1.7865752 0.83271462 -0.3831445 2
1.8385198 0.85653526 0.17744908 10
1.7817824 0.82972378 -0.31130463 3
1.8590794 0.8653239 0.25178206 11
1.8106349 0.84239066 -0.24520114 4
1.8156315 0.84432983 -0.17518303 5
1.8131194 0.84239203 -0.10477659 6
1.8373915 0.85288841 -0.035358574 7
1.8332834 0.84748411 0.03525386 8
1.7707912 0.81822127 -0.45035201 1
1.8385981 0.84916216 0.10613733 9
1.793036 0.82811916 -0.38390771 2
1.8505436 0.85428733 0.17832063 10
1.7882549 0.82515484 -0.31193036 3
1.8566812 0.85633475 0.25105089 11
1.8135645 0.83606476 -0.24520114 4
1.8221868 0.83965516 -0.17553167 5
1.8160491 0.83605748 -0.10477659 6
1.8439908 0.84814113 -0.035428386 7
1.8435026 0.84441102 0.03539348 8
1.780724 0.81527948 -0.4521516 1
1.8397346 0.84190828 0.10603265 9
1.7887747 0.81858778 -0.38238126 2
1.8607614 0.851138 0.1790179 10
1.7983105 0.82219255 -0.31318185 3
1.8614646 0.85067296 0.25129461 11
1.8164718 0.8297295 -0.24520114 4
1.8323565 0.83659887 -0.17622891 5
1.8225905 0.83137131 -0.10498594 6
1.8433009 0.84004021 -0.035358574 7
1.850081 0.83962309 0.035463288 8
1.7942075 0.81388837 -0.45485103 1
1.8517572 0.83960551 0.10655601 9
1.7880448 0.8107177 -0.38161799 2
1.8564624 0.84134728 0.17832063 10
1.8047686 0.81753999 -0.31380758 3
1.8770807 0.84990293 0.2530008 11
1.826591 0.82665712 -0.24617608 4
1.8280047 0.82691258 -0.17553167 5
1.8327618 0.82829392 -0.10540463 6
1.8425763 0.83195615 -0.035288766 7
1.8457048 0.82988107 0.035323672 8
1.8005923 0.80921853 -0.45575082 1
1.8601426 0.8355912 0.10687003 9
1.8016095 0.80929768 -0.38390771 2
1.8557531 0.8332293 0.17797202 10
1.8004024 0.80800045 -0.31255612 3
1.8818474 0.84415746 0.25324452 11
1.8330886 0.82189995 -0.24666359 4
1.83088 0.82052702 -0.17553167 5
1.8392878 0.82352316 -0.10561397 6
1.8527712 0.82878506 -0.035428386 7
1.8485906 0.82343286 0.035323672 8
1.7909446 0.79737949 -0.45260152 1
1.8703468 0.83234167 0.10728873 9
1.8080105 0.80460078 -0.38467094 2
1.8622905 0.82836711 0.17832063 10
1.799602 0.80010539 -0.31193036 3
1.8811544 0.83597153 0.25275704 11
1.8359458 0.81549758 -0.24666359 4
1.8373752 0.81574744 -0.17588028 5
1.8384993 0.81547952 -0.10540463 6
1.8629658 0.8255527 -0.035568006 7
1.8606014 0.82101101 0.035498194 8
1.7972823 0.79269707 -0.45350131 1
1.8659307 0.82258463 0.10687003 9
1.8179941 0.80145204 -0.38619745 2
1.8779336 0.82748467 0.17954083 10
1.8132302 0.79859716 -0.31380758 3
1.8840612 0.82939947 0.25275704 11
1.8351474 0.80748439 -0.24617608 4
1.8511536 0.81414276 -0.17692617 5
1.8376776 0.80744952 -0.10519528 6
1.8694983 0.82065272 -0.035637815 7
1.865288 0.81531256 0.035533097 8
1.8089675 0.79031897 -0.45575082 1
1.8632998 0.81366795 0.10655601 9
1.813584 0.79195797 -0.38467094 2
1.8808105 0.82092482 0.17954083 10
1.8268704 0.7970019 -0.3156848 3
1.8869451 0.82281739 0.25275704 11
1.8306758 0.79790151 -0.24520114 4
1.8503312 0.80608404 -0.17657752 5
1.8478103 0.80421853 -0.10561397 6
1.8686839 0.81252664 -0.035568006 7
1.8046061 0.7816717 -0.5269556 0
1.8754632 0.81197399 0.035672721 8
1.8152925 0.7855472 -0.45665067 1
1.8769858 0.81224424 0.10718405 9
1.8091292 0.78250635 -0.3831445 2
1.880007 0.81277269 0.1791922 10
1.8332683 0.79218668 -0.31631052 3
1.9043844 0.82252389 0.25470695 11
1.8425627 0.79543984 -0.24641983 4
1.9151564 0.82677877 0.33038962 12
1.8458165 0.79646242 -0.17588028 5
1.861611 0.80250704 -0.10624201 6
1.8713679 0.80632579 -0.035568006 7
1.8108748 0.77689064 -0.52799088 0
1.8689568 0.80180866 0.035498194 8
1.8125142 0.77721947 -0.45530096 1
1.8834809 0.80726135 0.10739339 9
1.8226776 0.78082454 -0.38543418 2
1.8736753 0.80228364 0.17832063 10
1.8286219 0.7829923 -0.31505907 3
1.9071016 0.81620359 0.25470695 11
1.8543156 0.79322934 -0.24763852 4
1.9053167 0.81465191 0.32819954 12
1.8485852 0.7900148 -0.17588028 5
1.8679353 0.79789877 -0.10645135 6
1.874171 0.79978895 -0.035568006 7
1.8098854 0.76936918 -0.5269556 0
1.8662227 0.79293436 0.03539348 8
1.8188033 0.7724117 -0.45620075 1
1.8918028 0.8030225 0.10770741 9
1.8324859 0.77784401 -0.38696066 2
1.8873297 0.80073613 0.17936651 10
1.8313437 0.77660483 -0.31505907 3
1.906284 0.8079918 0.25421947 11
1.8607287 0.78830087 -0.248126 4
1.9117866 0.80953699 0.32882527 12
1.8622032 0.7885412 -0.17692617 5
1.8707093 0.79137307 -0.10645135 6
1.8843193 0.79635531 -0.035707623 7
1.8214623 0.76679498 -0.52954376 0
1.8800385 0.79106802 0.035602912 8
1.8160995 0.76379126 -0.45485103 1
1.8853884 0.7925446 0.10718405 9
1.8388094 0.7729646 -0.38772389 2
1.899298 0.79800159 0.18023807 10
1.8449709 0.77479696 -0.31693625 3
1.9017709 0.79825985 0.25324452 11
1.857978 0.77949655 -0.2473948 4
1.9218875 0.80591476 0.33007675 12
1.8722936 0.78511834 -0.17762341 5
1.8660914 0.78175175 -0.10603265 6
1.8944663 0.79286146 -0.035847243 7
1.8294774 0.76266176 -0.5310967 0
1.8938637 0.78911471 0.035812337 8
1.8241514 0.75969523 -0.45620075 1
1.8916934 0.78782415 0.10739339 9
1.8342466 0.76352298 -0.38619745 2
1.9020721 0.79136646 0.18023807 10
1.8403682 0.76531857 -0.3156848 3
1.9118785 0.79466373 0.25421947 11
1.855188 0.77072096 -0.24666359 4
1.9172525 0.79650509 0.32882527 12
1.8676625 0.77552223 -0.17692617 5
1.8761885 0.77829379 -0.10645135 6
1.889696 0.78351158 -0.035707623 7
1.8249855 0.75332302 -0.52902615 0
1.8964698 0.78283054 0.035812337 8
1.835668 0.75735766 -0.45845026 1
1.901818 0.78426135 0.10781208 9
1.8332702 0.75561965 -0.38543418 2
1.8992959 0.78244573 0.17971513 10
1.8575079 0.76523048 -0.31818774 3
1.9255164 0.79285461 0.2556819 11
1.8614049 0.76607609 -0.24715105 4
1.9145406 0.78755379 0.3278867 12
1.8666729 0.76748228 -0.17657752 5
1.8861482 0.77510482 -0.10687003 6
1.8924196 0.77691001 -0.035707623 7
1.8256853 0.7465362 -0.52850848 0
1.8917866 0.77318013 0.035672721 8
1.8455167 0.7538926 -0.46024984 1
1.9082419 0.77912831 0.10802142 9
1.8430361 0.752505 -0.38696066 2
1.90188 0.77614349 0.17971513 10
1.8491935 0.75426501 -0.31631052 3
1.9319488 0.78762674 0.25616938 11
1.8677442 0.7610724 -0.24763852 4
1.9264257 0.78459108 0.32945102 12
1.8802791 0.76579654 -0.17762341 5
1.8925421 0.77002203 -0.10707937 6
1.9025303 0.77331096 -0.035847243 7
1.835443 0.74305809 -0.53057909 0
1.8981816 0.76807153 0.035742529 8
1.8391037 0.74379402 -0.45800033 1
1.9220604 0.7769531 0.10864946 9
1.849292 0.74753803 -0.38772389 2
1.9082727 0.77099228 0.18006375 10
1.8481512 0.74632752 -0.3156848 3
1.9273229 0.77790666 0.25519443 11
1.883276 0.75974625 -0.24934469 4
1.9328161 0.77934051 0.33007675 12
1.8829403 0.75922978 -0.17762341 5
1.8878083 0.76042569 -0.10666069 6
1.9126384 0.76965165 -0.035986863 7
1.8434051 0.73880213 -0.53213197 0
1.9027075 0.76218498 0.035777435 8
1.8380708 0.73592067 -0.45710054 1
1.9136351 0.76578635 0.10802142 9
1.8591814 0.74399543 -0.3892504 2
1.9202018 0.76802641 0.18093532 10
1.8580823 0.74280429 -0.31693625 3
1.9281832 0.77043712 0.25495067 11
1.8785424 0.75022322 -0.24836974 4
1.9428633 0.77551764 0.33132821 12
1.8892802 0.75412929 -0.17797202 5
1.8867407 0.75235218 -0.10645135 6
1.9153135 0.76297009 -0.035986863 7
1.8531554 0.73521399 -0.53420252 0
1.9090741 0.75701231 0.035847243 8
1.8514985 0.73380774 -0.45979998 1
1.9125823 0.75763208 0.10781208 9
1.8508151 0.73316413 -0.38696066 2
1.9284284 0.76351881 0.18145825 10
1.8716848 0.74067456 -0.31881347 3
1.9400902 0.76735383 0.25616938 11
1.8793039 0.74293107 -0.248126 4
1.9382102 0.765827 0.33007675 12
1.8993133 0.750458 -0.17866927 5
1.9005022 0.75016087 -0.10707937 6
1.9216851 0.75774807 -0.036056671 7
1.8359306 0.72097266 -0.52850848 0
1.9228736 0.75472689 0.036056671 8
1.8576769 0.72876406 -0.46069977 1
1.9226532 0.75386703 0.10823077 9
1.8606743 0.72956526 -0.38848713 2
1.927372 0.75532818 0.18110962 10
1.876098 0.7348575 -0.31912637 3
1.9483025 0.76274747 0.25690058 11
1.8892804 0.73925948 -0.24910097 4
1.9408715 0.7590571 0.33007675 12
1.8944989 0.7409212 -0.17797202 5
1.9068302 0.74497551 -0.10728873 6
1.9168673 0.74812686 -0.035917051 7
1.91804 0.7451151 0.035917051 8
1.8638427 0.72368526 -0.46159956 1
1.9289966 0.74859667 0.10844011 9
1.8632094 0.72306627 -0.38848713 2
1.928139 0.74787676 0.18093532 10
1.87681 0.72758967 -0.31881347 3
1.9583575 0.75881034 0.25787556 11
1.8955512 0.73409522 -0.24958843 4
1.9435095 0.75227702 0.33007675 12
1.897074 0.73430318 -0.17797202 5
1.9756572 0.76432413 0.41176581 13
1.9168698 0.74119741 -0.10770741 6
1.9194673 0.74143064 -0.035917051 7
1.918763 0.7376973 0.035882145 8
1.8590811 0.71437931 -0.45979998 1
1.9427851 0.74615467 0.10906815 9
1.8730532 0.71937311 -0.39001361 2
1.9381781 0.74399716 0.18163256 10
1.8793381 0.72103435 -0.31881347 3
1.949873 0.74770564 0.25641313 11
1.9055166 0.73031515 -0.25056338 4
1.9571917 0.74972856 0.331954 12
1.9070677 0.73052794 -0.17866927 5
1.9691455 0.75391358 0.40985772 13
1.9119842 0.73164606 -0.10728873 6
1.933251 0.73901057 -0.036126483 7
1.9269333 0.73312873 0.035986863 8
1.8560989 0.70580798 -0.45845026 1
1.9379102 0.73652977 0.10864946 9
1.8828936 0.71561992 -0.39154008 2
1.9463509 0.73935014 0.1821555 10
1.8892304 0.71727479 -0.32006493 3
1.9524714 0.74089426 0.25641313 11
1.9043421 0.72225177 -0.25007591 4
1.9597965 0.74289256 0.331954 12
1.9133319 0.72527939 -0.1790179 5
1.9882888 0.75329506 0.41329232 13
1.9145263 0.72496796 -0.10728873 6
1.9433004 0.73508722 -0.0362661 7
1.9348408 0.72918653 0.036091577 8
1.8692492 0.70409441 -0.46114969 1
1.9402145 0.73043841 0.10864946 9
1.8777832 0.70693469 -0.39001361 2
1.9579879 0.73673958 0.18302706 10
1.8951728 0.71272629 -0.32069072 3
1.9622217 0.7375508 0.25738806 11
1.9028854 0.71486872 -0.24958843 4
1.9639701 0.73742568 0.33226684 12
1.923062 0.72206569 -0.17971513 5
1.9979976 0.7498045 0.41481876 13
1.9242748 0.72175479 -0.10770741 6
1.9381098 0.72617245 -0.036126483 7
1.9392481 0.72312737 0.036126483 8
1.8826517 0.70164889 -0.46384907 1
1.9464957 0.72505516 0.1088588 9
1.8783996 0.69968987 -0.38963199 2
1.9474772 0.72503477 0.18180689 10
1.908757 0.71024024 -0.32256791 3
1.9703661 0.73277217 0.25811929 11
1.9165334 0.71237224 -0.25105089 4
1.9646806 0.72987831 0.331954 12
1.9181001 0.71257365 -0.1790179 5
2.0079648 0.74555856 0.41634527 13
1.9305271 0.71642357 -0.10791675 6
1.9406331 0.71940225 -0.036126483 7
1.9436365 0.71704531 0.036161385 8
1.8869177 0.69574755 -0.46429899 1
1.9565108 0.72101909 0.10927749 9
1.8845147 0.69448686 -0.39039519 2
1.9537357 0.7196092 0.1821555 10
1.9075168 0.70220858 -0.32194218 3
1.9785011 0.7279467 0.25885051 11
1.926461 0.70841795 -0.25202581 4
1.9727787 0.72505957 0.33289257 12
1.9169588 0.70416427 -0.17866927 5
2.0031836 0.73583758 0.41481876 13
1.9442657 0.71380997 -0.10854478 6
1.9506419 0.71537828 -0.0362661 7
1.9386137 0.70751452 0.036021769 8
1.8875042 0.68848848 -0.46384907 1
1.9683976 0.71760601 0.10980085 9
1.8907366 0.68891978 -0.39115849 2
1.9619763 0.71448928 0.18267845 10
1.9063656 0.69386083 -0.32131645 3
1.9754336 0.71899956 0.25811929 11
1.9326528 0.70304668 -0.25251329 4
1.9752975 0.71816933 0.33289257 12
1.9268955 0.70018977 -0.17936651 5
1.9984857 0.72581029 0.41329232 13
1.9393591 0.70395356 -0.10812609 6
1.964406 0.7126562 -0.036475532 7
1.9487178 0.70311862 0.036161385 8
1.9558598 0.70531076 0.10896347 9
1.9042118 0.68630922 -0.39344814 2
1.9719563 0.71033669 0.18337567 10
1.9162101 0.689879 -0.32256791 3
1.9761882 0.71108186 0.25787556 11
1.927624 0.69360727 -0.25153834 4
1.994522 0.71728569 0.33570841 12
1.9405774 0.69750434 -0.1804124 5
2.0305698 0.72944915 0.41939822 13
1.9342858 0.69447958 -0.10770741 6
1.9706455 0.70714688 -0.03654534 7
1.9623381 0.70068765 0.036370814 8
1.9657125 0.70150572 0.10938216 9
1.8990805 0.67735308 -0.3919217 2
1.9818079 0.70646894 0.18407291 10
1.922209 0.68484622 -0.32319364 3
1.9822752 0.70585686 0.25836304 11
1.9224329 0.6845479 -0.25056338 4
1.9931679 0.70934254 0.33508268 12
1.9428798 0.69106472 -0.1804124 5
1.9441061 0.69073558 -0.10812609 6
1.9616734 0.69659263 -0.036335908 7
1.9721925 0.69684154 0.036510434 8
1.9775665 0.697963 0.10990552 9
1.905019 0.6723581 -0.39268494 2
1.9803818 0.69856799 0.1837243 10
1.9319214 0.68109584 -0.32444513 3
1.9995835 0.70455658 0.26031294 11
1.9323006 0.68047023 -0.25153834 4
1.9900413 0.70041472 0.33414406 12
1.9377621 0.68163347 -0.17971513 5
1.9614595 0.68958467 -0.10896347 6
1.967867 0.69106555 -0.036405724 7
1.967062 0.68731415 0.036370814 8
1.9837615 0.69237339 0.11011487 9
1.9111779 0.66666502 -0.39344814 2
1.9772848 0.68933761 0.18320136 10
1.9306741 0.67271096 -0.3238194 3
1.9982811 0.69626755 0.25982547 11
1.9421626 0.67633283 -0.25251329 4
1.9924742 0.69346333 0.33414406 12
1.9476573 0.67748308 -0.1804124 5
1.9639738 0.68239141 -0.10896347 6
1.9778233 0.68681556 -0.03654534 7
1.9657874 0.67879498 0.036301006 8
1.9918305 0.68739867 0.11042888 9
1.9209173 0.66254973 -0.39497465 2
1.9947479 0.68762636 0.18459585 10
1.929275 0.66468006 -0.32319364 3
2.0008202 0.68893731 0.25982547 11
1.9521364 0.67179412 -0.25348827 4
2.0098255 0.69164681 0.33664703 12
1.9500098 0.67068172 -0.1804124 5
1.9625659 0.67423427 -0.10875413 6
1.9877734 0.68250638 -0.036684956 7
1.9774892 0.67550492 0.036475532 8
1.984767 0.67721635 0.10990552 9
1.9343667 0.65964371 -0.39726433 2
1.9971362 0.6806587 0.18459585 10
1.9426876 0.66210169 -0.32507086 3
2.0068517 0.68357909 0.26031294 11
1.9505949 0.66403788 -0.2530008 4
2.0047474 0.6820814 0.33539551 12
1.9598844 0.66643596 -0.18110962 5
1.9647908 0.66772276 -0.10875413 6
1.9977183 0.6781342 -0.03682458 7
1.9874135 0.67115676 0.036615148 8
1.9852258 0.66964608 0.10980085 9
1.9253823 0.64946002 -0.39497465 2
2.0050461 0.67594206 0.18511879 10
1.9487309 0.65657729 -0.32569659 3
2.007344 0.67593652 0.26006919 11
1.9453757 0.65469182 -0.25202581 4
2.0071161 0.67507887 0.33539551 12
1.9696375 0.6624732 -0.18180689 5
1.9708962 0.66213191 -0.10896347 6
1.9886982 0.66734016 -0.036615148 7
1.9935374 0.66548204 0.036684956 8
1.9970251 0.66587055 0.1103242 9
1.9332253 0.64459771 -0.39611951 2
2.0073936 0.66893852 0.18511879 10
1.9547591 0.65102077 -0.32632235 3
2.0209925 0.67268652 0.26153165 11
1.9589508 0.65165615 -0.25348827 4
2.0132091 0.6693154 0.33602124 12
1.9643754 0.65307999 -0.18110962 5
1.9807777 0.65776545 -0.10938216 6
1.9910158 0.66039371 -0.036615148 7
1.9920505 0.6572656 0.036615148 8
2.0069249 0.66139662 0.1107429 9
2.0078239 0.66130447 0.1849445 10
1.9532669 0.64295751 -0.32569659 3
2.0308707 0.6681096 0.26250657 11
1.9687564 0.6472947 -0.2544632 4
2.0249164 0.6653676 0.3375856 12
1.9704283 0.64746338 -0.18145825 5
1.9944475 0.65458453 -0.11001018 6
1.9971093 0.65468502 -0.036684956 7
1.9905305 0.64906764 0.03654534 8
2.0130196 0.65562356 0.11095224 9
2.0120146 0.65490794 0.18511879 10
1.9554992 0.63613588 -0.32569659 3
2.0256395 0.65856087 0.26153165 11
1.978556 0.64287168 -0.25543818 4
2.0309842 0.65951592 0.33821136 12
1.9764664 0.6418125 -0.18180689 5
1.9853215 0.64392102 -0.10938216 6
2.0146012 0.65264046 -0.036964197 7
2.0003972 0.64456904 0.036684956 8
2.0113804 0.64772058 0.1107429 9
2.0218751 0.65032136 0.18581605 10
1.957708 0.62930548 -0.32569659 3
2.0279257 0.65148652 0.26153165 11
1.9732275 0.63353443 -0.2544632 4
2.0331602 0.65277672 0.33821136 12
1.9900775 0.63856131 -0.18285275 5
1.9875571 0.63698739 -0.10938216 6
2.0167542 0.64595664 -0.036964197 7
2.0101452 0.6403603 0.03682458 8
2.0174356 0.64190614 0.11095224 9
2.0374248 0.64748329 0.18703623 10
1.9823756 0.62998891 -0.32945102 3
2.0300753 0.64475757 0.26153165 11
1.9828857 0.62939018 -0.25543818 4
1.9884962 0.63040602 -0.18250412 5
1.9972742 0.6328063 -0.10980085 6
2.0151842 0.63770586 -0.036894388 7
2.0199978 0.6357404 0.036964197 8
2.0176473 0.63461465 0.11084756 9
2.035759 0.63952953 0.1866876 10
1.9807929 0.6218822 -0.32882527 3
2.0493596 0.64301628 0.26372528 11
1.9849621 0.62281066 -0.25543818 4
1.9867734 0.62261724 -0.1821555 5
2.0070953 0.62821656 -0.11021954 6
2.0211043 0.63221407 -0.036964197 7
2.0144577 0.62666184 0.03682458 8
2.0349987 0.63266331 0.11168494 9
2.0397716 0.63336539 0.1868619 10
1.979071 0.6141398 -0.32819954 3
2.0571687 0.6379813 0.26445648 11
1.9946004 0.61857724 -0.25641313 4
1.9964396 0.61838382 -0.18285275 5
2.0091679 0.62155676 -0.11021954 6
2.0193691 0.62432653 -0.036894388 7
2.0165246 0.61997861 0.03682458 8
2.0486505 0.62907314 0.11231297 9
2.0437653 0.62718272 0.18703623 10
1.9810965 0.60757393 -0.32819954 3
2.0535791 0.62941021 0.26372528 11
2.0005438 0.61277318 -0.25690058 4
2.0022893 0.61292672 -0.18320136 5
2.0150378 0.61605895 -0.11042888 6
2.0291862 0.61961019 -0.037034009 7
2.0244164 0.61467922 0.036929294 8
2.0374551 0.61786044 0.11158027 9
2.0478485 0.62062305 0.18721053 10
2.0538642 0.6216625 0.26348156 11
2.0026705 0.60578668 -0.25690058 4
2.0158598 0.6093924 -0.18424724 5
2.0133519 0.6078673 -0.11021954 6
2.042824 0.61598653 -0.037243433 7
2.0342119 0.60990554 0.037068911 8
2.041512 0.61131889 0.11168494 9
2.0595462 0.61632639 0.18808208 10
2.0598252 0.61562771 0.26396903 11
2.0009689 0.59765559 -0.25641313 4
2.0141566 0.60121167 -0.18389861 5
2.0231175 0.60311753 -0.11063822 6
2.0411282 0.60771215 -0.037173625 7
2.0382454 0.60337019 0.037103817 8
2.0493798 0.60588723 0.11199896 9
2.0616848 0.60913491 0.18808208 10
2.0733855 0.61180413 0.26543146 11
2.0144675 0.59403563 -0.25787556 4
2.0200651 0.59530419 -0.18424724 5
2.0367067 0.59943479 -0.11126626 6
2.0432372 0.60058302 -0.037173625 7
2.0403395 0.59625113 0.037103817 8
2.0572338 0.60040897 0.11231297 9
2.0657113 0.60249192 0.1882564 10
2.0869431 0.60789418 0.26689389 11
2.024152 0.58922088 -0.25885051 4
2.0183046 0.58713561 -0.18389861 5
2.0426221 0.59343755 -0.1114756 6
2.0568445 0.59679002 -0.037383057 7
2.0385659 0.58801651 0.037034009 8
2.0689135 0.59598804 0.11283633 9
2.0716312 0.5963794 0.18860501 10
2.0833292 0.59895962 0.26616266 11
2.0261967 0.58215111 -0.25885051 4
2.0203416 0.58008724 -0.18389861 5
2.0446813 0.58630329 -0.1114756 6
2.0627599 0.59070808 -0.037452865 7
2.0501206 0.58399171 0.037208531 8
2.0670364 0.58803141 0.11262699 9
2.0793471 0.59114027 0.18912795 10
2.0738463 0.58879524 0.26470023 11
2.0242968 0.57434458 -0.25836304 4
2.0337553 0.57664579 -0.1849445 5
2.0427711 0.57843077 -0.11126626 6
2.0685556 0.58495319 -0.037522674 7
2.0598466 0.57899678 0.037348151 8
2.0613847 0.57865274 0.1122083 9
2.094826 0.58764577 0.19034813 10
2.0301123 0.56834573 -0.25885051 4
2.0472679 0.57276332 -0.18599035 5
2.0524719 0.57344681 -0.11168494 6
2.0667329 0.57665354 -0.037452865 7
2.0657091 0.57287228 0.037417959 8
2.0748405 0.57501465 0.11283633 9
2.0891838 0.57820457 0.18965089 10
2.0397377 0.56337023 -0.25982547 4
2.0415728 0.5634926 -0.18529311 5
2.0621631 0.56840217 -0.11210363 6
2.0647783 0.56873429 -0.037383057 7
2.0695264 0.56654638 0.037452865 8
2.0845413 0.56987482 0.11325502 9
2.0873451 0.56985945 0.18930228 10
2.0492554 0.5586912 -0.26080042 4
2.0435271 0.55636317 -0.18529311 5
2.0678911 0.56260878 -0.11231297 6
2.0783288 0.56466955 -0.037592482 7
2.0656993 0.55775559 0.037348151 8
2.0903747 0.56363535 0.11346437 9
2.0930712 0.56397051 0.18965089 10
2.0569055 0.55268598 -0.18633896 5
2.0621259 0.55331707 -0.11189428 6
2.0957401 0.56155139 -0.037871722 7
2.0792282 0.55362815 0.03755758 8
2.0961895 0.55736196 0.11367371 9
2.1065805 0.55973017 0.19069678 10
2.0626745 0.54652286 -0.1866876 5
2.0717683 0.54815847 -0.11231297 6
2.097687 0.55423385 -0.037871722 7
2.0908184 0.54890722 0.037732106 8
2.0942585 0.54902804 0.11346437 9
2.1181583 0.55489844 0.19156833 10
2.0722802 0.54133403 -0.18738484 5
2.0736694 0.54092276 -0.11231297 6
2.0879984 0.54388326 -0.03766229 7
2.0965936 0.54260707 0.037801914 8
2.1000297 0.54271424 0.11367371 9
2.1181531 0.54700357 0.191394 10
2.0702984 0.53310293 -0.18703623 5
2.0871503 0.53666663 -0.112941 6
2.0937581 0.53758556 -0.037732106 7
2.0907245 0.53330767 0.03766229 8
2.1134298 0.53870761 0.11430173 9
2.1161883 0.53862309 0.19104539 10
2.0760086 0.52685463 -0.18738484 5
2.1006277 0.53232104 -0.11356904 6
2.111037 0.53456789 -0.038011342 7
2.0924816 0.52637106 0.03766229 8
2.1191719 0.5322997 0.11451109 9
2.1219203 0.53220278 0.191394 10
2.0778351 0.51960421 -0.18738484 5
2.0946307 0.52341485 -0.11315035 6
2.120651 0.52913159 -0.038150962 7
2.1059518 0.52195156 0.037871722 8
2.121017 0.52489865 0.11451109 9
2.1256075 0.52564204 0.19156833 10
2.0950229 0.51652598 -0.18877934 5
2.0964448 0.51610142 -0.11315035 6
2.1302528 0.52363467 -0.038290579 7
2.113589 0.51601952 0.037976436 8
2.1228364 0.51749212 0.11451109 9
2.1059976 0.51066238 -0.11356904 6
2.1242936 0.51431382 -0.038150962 7
2.127043 0.51144403 0.038185868 8
2.1285138 0.51101083 0.11472043 9
2.1155381 0.50516295 -0.11398773 6
2.126076 0.50689489 -0.038150962 7
2.1210318 0.50217277 0.038046245 8
2.1438904 0.50679451 0.11545313 9
2.1172886 0.49777573 -0.11398773 6
2.1356194 0.50129873 -0.038290579 7
2.122772 0.49476531 0.038046245 8
2.1475043 0.50013578 0.1155578 9
2.1190133 0.49038142 -0.11398773 6
2.1489596 0.49691758 -0.038500007 7
2.1399927 0.49130327 0.038325485 8
2.1413643 0.4912248 0.11513911 9
2.1167328 0.48246449 -0.11377838 6
2.1583948 0.49156421 -0.038639627 7
2.1494119 0.48596844 0.038465101 8
2.1469626 0.484626 0.11534845 9
2.1300139 0.4780663 -0.11440641 6
2.1522925 0.48227748 -0.038500007 7
2.1510952 0.47846207 0.038465101 8
2.15644 0.47886211 0.11576715 9
2.1433716 0.47321221 -0.11503445 6
2.1539626 0.47476208 -0.038500007 7
2.1527524 0.47094986 0.038465101 8
2.1698062 0.47388822 0.11639518 9
2.1528175 0.46742207 -0.11545313 6
2.163424 0.46893537 -0.038639627 7
2.1543827 0.46343395 0.038465101 8
2.1792581 0.46798807 0.11681387 9
2.1806941 0.46471444 -0.038918864 7
2.1638935 0.45718658 0.038604725 8
2.1653244 0.45670053 0.11597649 9
2.1823826 0.45671916 -0.038918864 7
2.1791813 0.4524776 0.038849056 8
2.1800461 0.44829232 -0.038849056 7
2.1866257 0.44606662 0.03895377 8
2.1815975 0.44068021 -0.038849056 7
2.1803265 0.4368602 0.038814154 8
2.1909688 0.43461818 -0.03898868 7
2.1856873 0.43039972 0.038883962 8
2.204174 0.42964619 -0.039198104 7
2.1950297 0.42428607 0.039023582 8
2.2194088 0.42458016 -0.039442439 7
2.2103231 0.4188436 0.039267913 8
2.213666 0.41187787 0.039302818 8
2.2130525 0.40417489 0.039267913 8
2.2026393 0.39433351 0.039058488 8
