# .PCD v0.7 - Point Cloud Data file format
VERSION 0.7
FIELDS x y z intensity
SIZE 4 4 4 4
TYPE F F F F
COUNT 1 1 1 1
WIDTH 1258
HEIGHT 1
VIEWPOINT 0 0 0 1 0 0 0
POINTS 1258
DATA ascii
1.7680336 0.73668528 -0.10038038 6
1.7724404 0.73127127 -0.10048504 6
1.7786804 0.72659004 -0.1006944 6
1.7452164 0.70653087 -0.16472435 5
1.7589866 0.71139205 -0.099438325 6
1.7402747 0.69746935 -0.16402711 5
1.7502121 0.7010985 -0.0988103 6
1.7499852 0.69463521 -0.16472435 5
1.756362 0.69645679 -0.099019639 6
1.7394184 0.68342257 -0.16350417 5
1.7550642 0.68886179 -0.0988103 6
1.7399366 0.67662406 -0.16332985 5
1.761181 0.68417895 -0.099019639 6
1.7422874 0.67054766 -0.16332985 5
1.7523735 0.67372632 -0.098391607 6
1.7446177 0.66446137 -0.16332985 5
1.7509809 0.6661852 -0.098182261 6
1.7963424 0.68272495 -0.033543523 7
1.743198 0.6569618 -0.16298124 5
1.7570342 0.66147596 -0.098391607 6
1.7781256 0.66870779 -0.033159573 7
1.7166559 0.64046615 -0.22497083 4
1.7342794 0.64669651 -0.16193536 5
1.7593325 0.65533829 -0.098391607 6
1.7729523 0.65970784 -0.033019952 7
1.7505399 0.6461553 -0.22911438 4
1.7290494 0.63787997 -0.16123812 5
1.7653574 0.65057468 -0.098600946 6
1.7677377 0.65075213 -0.032880332 7
1.7433503 0.63694108 -0.22789569 4
1.738752 0.63457322 -0.16193536 5
1.7526058 0.63893616 -0.097763576 6
1.7698863 0.64488608 -0.032880332 7
1.7305186 0.62575567 -0.22594579 4
1.7370987 0.62745041 -0.16158675 5
1.7434428 0.62905312 -0.097135544 6
1.7757772 0.64037043 -0.032950144 7
1.7233465 0.61636895 -0.22472709 4
1.7392784 0.62138247 -0.16158675 5
1.749281 0.62461191 -0.09734489 6
1.7667009 0.63013667 -0.032740716 7
1.7311019 0.61233598 -0.22545831 4
1.7376797 0.61398035 -0.16123812 5
1.7553257 0.61952525 -0.097554229 6
1.7651184 0.62263507 -0.032670904 7
1.7314605 0.60533226 -0.22521456 4
1.7322891 0.60528177 -0.16054088 5
1.7612484 0.6147117 -0.097763576 6
1.7711648 0.61747831 -0.032740716 7
1.7589077 0.61010832 0.032496382 8
1.7354393 0.59993279 -0.22545831 4
1.7381577 0.60053205 -0.16088949 5
1.7482797 0.60334706 -0.096926205 6
1.7695284 0.60998905 -0.032670904 7
1.7610267 0.60396445 0.032496382 8
1.7243743 0.58937669 -0.22375213 4
1.7440139 0.59575039 -0.16123812 5
1.7428142 0.5946604 -0.096507512 6
1.7715412 0.60411811 -0.032670904 7
1.7687008 0.60004902 0.032601096 8
1.7288938 0.58519852 -0.28909093 3
1.7187973 0.58111161 -0.22277717 4
1.7423077 0.58838362 -0.16088949 5
1.7485615 0.59015471 -0.096716851 6
1.76227 0.59409726 -0.032461476 7
1.7783681 0.59641516 0.032740716 8
1.730926 0.57915956 -0.28909093 3
1.7245804 0.57636797 -0.22326466 4
1.7366902 0.58007735 -0.16019225 5
1.7506104 0.58404869 -0.096716851 6
1.7566423 0.58571947 -0.032321859 7
1.7651523 0.58547777 0.032461476 8
1.7103326 0.56596982 -0.28533649 3
1.7302519 0.57189137 -0.22375213 4
1.7311367 0.57151359 -0.159495 5
1.7563311 0.57949132 -0.096926205 6
1.766273 0.58208805 -0.032461476 7
1.7633849 0.57806635 0.032391667 8
1.6878899 0.55201417 -0.28126919 3
1.7284639 0.56461495 -0.22326466 4
1.7293327 0.56423163 -0.15914638 5
1.7431525 0.56840318 -0.096088827 6
1.7682943 0.57591861 -0.032461476 7
1.771099 0.57375669 0.032496382 8
1.6899021 0.54582357 -0.28126919 3
1.7190894 0.55491954 -0.22180222 4
1.7388769 0.56063688 -0.15984364 5
1.7376195 0.55956197 -0.095670134 6
1.7702937 0.56974298 -0.032461476 7
1.7674761 0.56543392 0.032391667 8
1.6955606 0.54112291 -0.28189492 3
1.7173293 0.54740888 -0.22131474 4
1.7466155 0.55607253 -0.16036656 5
1.7433689 0.55470377 -0.09587948 6
1.7609354 0.55961633 -0.032252047 7
1.7808796 0.56287628 0.032601096 8
1.6975323 0.53490514 -0.28189492 3
1.7230163 0.54260385 -0.22180222 4
1.7295398 0.54399556 -0.15862344 5
1.7492009 0.54950786 -0.096088827 6
1.7590623 0.55226851 -0.032182239 7
1.7635528 0.55131245 0.032252047 8
1.7806611 0.5559786 0.097763576 9
1.6877973 0.52633703 -0.28001773 3
1.728503 0.53836912 -0.22228971 4
1.7274357 0.53737444 -0.15827483 5
1.7451019 0.54253697 -0.095774807 6
1.7607888 0.54673904 -0.032182239 7
1.7616454 0.54397273 0.032182239 8
1.7844996 0.55034852 0.097868249 9
1.6821631 0.5178231 -0.27876624 3
1.726577 0.53116435 -0.22180222 4
1.7331097 0.53251284 -0.15862344 5
1.7432601 0.53496486 -0.095565468 6
1.7665097 0.54176325 -0.032252047 7
1.7674527 0.53867865 0.032252047 8
1.7806782 0.54236978 0.097554229 9
1.6809618 0.51167619 -0.34154812 2
1.6877406 0.51309681 -0.279392 3
1.7171153 0.5213725 -0.22033979 4
1.7387712 0.5276165 -0.15897207 5
1.7374711 0.52655977 -0.095146775 6
1.7664764 0.53501362 -0.032217141 7
1.7653998 0.53166169 0.032182239 8
1.7806479 0.53557593 0.097449563 9
1.6808572 0.50524139 -0.3411665 2
1.6932167 0.50863338 -0.28001773 3
1.7093281 0.5128237 -0.2191211 4
1.7406024 0.52154338 -0.15897207 5
1.7430342 0.52194142 -0.095356122 6
1.7606698 0.52655184 -0.032077521 7
1.7710785 0.52663547 0.032252047 8
1.7729334 0.52651352 0.096926205 9
1.6712314 0.49631077 -0.33887681 2
1.6911938 0.50159764 -0.279392 3
1.7149143 0.507981 -0.21960858 4
1.7308593 0.51237643 -0.1579262 5
1.7410151 0.51472098 -0.095146775 6
1.7586614 0.5192706 -0.032007713 7
1.7633123 0.51763415 0.032077521 8
1.7843436 0.52313071 0.097449563 9
1.6899092 0.49544463 -0.34231135 2
1.6891429 0.4945806 -0.27876624 3
1.7262036 0.50477785 -0.22082727 4
1.721163 0.50297779 -0.15688033 5
1.7389665 0.50752181 -0.094937436 6
1.764303 0.51424724 -0.032077521 7
1.7555051 0.50869262 0.031902999 8
1.780313 0.51554441 0.097135544 9
1.6878564 0.4884524 -0.34154812 2
1.6870638 0.48758402 -0.27814052 3
1.7241408 0.49764773 -0.22033979 4
1.7229084 0.49696633 -0.15688033 5
1.7407277 0.50144815 -0.094937436 6
1.7659985 0.50839412 -0.032077521 7
1.7648724 0.50506943 0.032042619 8
1.7763407 0.50768071 0.096821532 9
1.691439 0.48309639 -0.34192973 2
1.6886716 0.48198634 -0.27814052 3
1.7181451 0.48975119 -0.21936484 4
1.7284652 0.4920406 -0.15722896 5
1.7308546 0.49239427 -0.094309397 6
1.7677623 0.50222689 -0.032077521 7
1.7666246 0.4989062 0.032042619 8
1.7781022 0.50147653 0.096821532 9
1.6892529 0.47641847 -0.3411665 2
1.6941463 0.47716025 -0.27876624 3
1.7160225 0.48267618 -0.21887736 4
1.7339234 0.4873839 -0.15757757 5
1.7364088 0.48742858 -0.094518751 6
1.757952 0.49281409 -0.031868093 7
1.7702817 0.49327275 0.032077521 8
1.7779174 0.49473166 0.096716851 9
1.673883 0.46578252 -0.33773196 2
1.7871057 0.49695241 0.16228399 10
1.6958015 0.47124401 -0.27876624 3
1.717697 0.47668272 -0.21887736 4
1.7279344 0.47919896 -0.15688033 5
1.7380996 0.48136479 -0.094518751 6
1.7519521 0.48454285 -0.031728476 7
1.7584958 0.48337972 0.03183319 8
1.7891778 0.49147871 0.097240217 9
1.6717123 0.45889691 -0.33696869 2
1.7792226 0.48807538 0.16141243 10
1.6936259 0.46427763 -0.27814052 3
1.7192683 0.47098359 -0.21887736 4
1.7219094 0.47106189 -0.15618308 5
1.7359161 0.47424158 -0.094309397 6
1.7612655 0.48083746 -0.031868093 7
1.7600889 0.47754601 0.03183319 8
1.6476103 0.44671974 -0.39411426 1
1.7811595 0.48292917 0.096716851 9
1.6751196 0.45386457 -0.33735034 2
1.7808312 0.48217291 0.16141243 10
1.6875291 0.45659462 -0.27688903 3
1.7284857 0.46735251 -0.21985231 4
1.7273092 0.46638748 -0.15653172 5
1.7336223 0.46744293 -0.094100058 6
1.7667121 0.47603425 -0.031937905 7
1.7577994 0.47067264 0.031763379 8
1.6509651 0.44175762 -0.39456415 1
1.7712576 0.47361282 0.096088827 9
1.6766156 0.44830668 -0.33735034 2
1.7804954 0.47575083 0.16123812 10
1.6890339 0.4509964 -0.27688903 3
1.7185982 0.45824704 -0.21838988 4
1.7289269 0.46035475 -0.15653172 5
1.7274426 0.45963672 -0.093681373 6
1.7567674 0.46678287 -0.031728476 7
1.7652321 0.46606484 0.031868093 8
1.6543814 0.43648869 -0.39501405 1
1.7690372 0.46640995 0.09587948 9
1.6687552 0.43965808 -0.33544225 2
1.7860806 0.47023588 0.16158675 10
1.6944962 0.44580829 -0.27751476 3
1.7125077 0.4502266 -0.21741492 4
1.7305229 0.45431805 -0.15653172 5
1.7368433 0.45532855 -0.094100058 6
1.7545172 0.4596346 -0.031658668 7
1.7746695 0.46160576 0.032007713 8
1.6710585 0.43434438 -0.39861327 1
1.7745208 0.46123645 0.096088827 9
1.6683794 0.43333632 -0.3350606 2
1.7761403 0.46099561 0.16054088 10
1.6960419 0.43989024 -0.27751476 3
1.7217555 0.44623777 -0.21838988 4
1.7224541 0.44577822 -0.15566015 5
1.7384222 0.44926342 -0.094100058 6
1.7522384 0.45250776 -0.031588856 7
1.752947 0.44975495 0.031588856 8
1.678153 0.43025199 -0.39996299 1
1.774106 0.45485285 0.095984153 9
1.6717092 0.42828903 -0.33544225 2
1.7718687 0.45362109 0.16001794 10
1.6898365 0.43230474 -0.2762633 3
1.7232257 0.44052616 -0.21838988 4
1.7123401 0.43710664 -0.15461428 5
1.7399023 0.44349647 -0.094100058 6
1.7537295 0.44669417 -0.031588856 7
1.7466744 0.44197685 0.031449236 8
1.6606776 0.41990793 -0.39546397 1
1.775683 0.44865683 0.095984153 9
1.6731204 0.42274261 -0.33544225 2
1.7810905 0.44969332 0.16071519 10
1.6835995 0.42476603 -0.27501184 3
1.7286028 0.43547854 -0.21887736 4
1.71772 0.43209845 -0.15496291 5
1.7316786 0.43528932 -0.093576699 6
1.7669153 0.44349021 -0.031798285 7
1.7443262 0.43490911 0.031379428 8
1.6488966 0.41081104 -0.39231464 1
1.7694856 0.44052699 0.095565468 9
1.6746584 0.41660786 -0.33544225 2
1.7846601 0.44364333 0.16088949 10
1.6813105 0.41764042 -0.27438608 3
1.7146994 0.4256157 -0.21692745 4
1.7211514 0.42658037 -0.15513723 5
1.7255074 0.42701986 -0.093158014 6
1.7645699 0.43636096 -0.031728476 7
1.7497925 0.42946663 0.031449236 8
1.6560693 0.4061569 -0.39366436 1
1.7574341 0.43101701 0.094832763 9
1.6646613 0.40795615 -0.33315253 2
1.7881331 0.43788442 0.16106381 10
1.6923519 0.41411614 -0.27595043 3
1.7990909 0.43990222 0.22740822 11
1.712391 0.41838622 -0.21643998 4
1.7245656 0.42104191 -0.15531152 5
1.7347491 0.42288658 -0.093576699 6
1.7544252 0.42735872 -0.031519048 7
1.7492632 0.42319185 0.03141433 8
1.6611955 0.40157828 -0.39456415 1
1.7666936 0.42675602 0.095251448 9
1.6756173 0.40444648 -0.3350606 2
1.7780297 0.42883667 0.16001794 10
1.6956364 0.40896451 -0.2762633 3
1.7947502 0.43253887 0.226677 11
1.7099091 0.41177624 -0.2159525 4
1.7144017 0.4122251 -0.15426566 5
1.7400258 0.41806513 -0.093786038 6
1.7559061 0.42123243 -0.031519048 7
1.7448941 0.41569248 0.031309616 8
1.6663786 0.39668012 -0.39546397 1
1.779757 0.42366979 0.09587948 9
1.6712197 0.39752433 -0.33391577 2
1.7755653 0.4220171 0.15966932 10
1.687444 0.40076128 -0.27469894 3
1.8020436 0.42764598 0.22740822 11
1.7190622 0.40763667 -0.21692745 4
1.7060658 0.40424037 -0.1533941 5
1.7337002 0.4101491 -0.093367353 6
1.7534013 0.41448674 -0.031449236 7
1.6494027 0.38716802 -0.45396861 0
1.7443163 0.40944728 0.031274714 8
1.6525068 0.38759238 -0.39186475 1
1.7734467 0.4156321 0.095460795 9
1.6745087 0.39213544 -0.33429739 2
1.7770275 0.41581702 0.15966932 10
1.6829933 0.39381343 -0.27376035 3
1.7879879 0.41805261 0.22545831 11
1.7165387 0.40103012 -0.21643998 4
1.717168 0.40054598 -0.15426566 5
1.7233801 0.40167701 -0.092739321 6
1.7587327 0.40927055 -0.031519048 7
1.6469133 0.38082621 -0.45293337 0
1.7418382 0.40245518 0.031204903 8
1.6462545 0.38006777 -0.39006513 1
1.765085 0.40750194 0.094937436 9
1.6757995 0.38658157 -0.33429739 2
1.7803382 0.41036889 0.15984364 10
1.6882079 0.38882253 -0.27438608 3
1.7913707 0.41225439 0.22570205 11
1.7101895 0.39325675 -0.21546502 4
1.7165451 0.3944028 -0.15409136 5
1.728665 0.39655238 -0.092948668 6
1.7600803 0.40343565 -0.031519048 7
1.6482326 0.37507463 -0.45293337 0
1.7509626 0.39845204 0.031344522 8
1.6513063 0.37547097 -0.39096493 1
1.7528633 0.3982411 0.094204731 9
1.6656517 0.37812141 -0.33200768 2
1.7856456 0.40503368 0.16019225 10
1.685635 0.38234851 -0.27376035 3
1.7985361 0.40762755 0.22643325 11
1.705676 0.38626841 -0.21473379 4
1.7256845 0.3901664 -0.1547886 5
1.7299705 0.39081809 -0.092948668 6
1.7497735 0.39464992 -0.031309616 7
1.6326289 0.36523563 -0.44827461 0
1.7524798 0.39172551 0.031344522 8
1.6603433 0.37082633 -0.39276454 1
1.7621081 0.39355478 0.094623417 9
1.6631939 0.37115908 -0.33124444 2
1.7735059 0.39545056 0.15897207 10
1.7025156 0.37930945 -0.2762633 3
1.8000878 0.40071914 0.22643325 11
1.7129598 0.38100886 -0.21546502 4
1.7115436 0.38038036 -0.1533941 5
1.7353581 0.38503742 -0.093158014 6
1.7473037 0.38736796 -0.031239808 7
1.6301204 0.3587037 -0.44723931 0
1.7400981 0.38290399 0.031100187 8
1.6615639 0.36531872 -0.39276454 1
1.7673725 0.38825893 0.094832763 9
1.6721499 0.36703441 -0.33277091 2
1.7748756 0.38925695 0.15897207 10
1.688328 0.37027577 -0.27376035 3
1.8072242 0.39602184 0.22716448 11
1.7180921 0.37617588 -0.2159525 4
1.705075 0.37270218 -0.15269686 5
1.7444304 0.38098565 -0.093576699 6
1.7486452 0.38126671 -0.031239808 7
1.6388534 0.35493124 -0.44930989 0
1.7355607 0.37555918 0.030995475 8
1.6533052 0.35745782 -0.39051503 1
1.7745739 0.38335201 0.095146775 9
1.673358 0.36148685 -0.33277091 2
1.770314 0.38210842 0.15844914 10
1.6780241 0.36188272 -0.27188313 3
1.7930712 0.38636538 0.22521456 11
1.7155136 0.36934024 -0.21546502 4
1.7101972 0.36788422 -0.15304548 5
1.7301278 0.37153891 -0.092739321 6
1.7538761 0.37599838 -0.031309616 7
1.6381927 0.34880722 -0.44879225 0
1.7388171 0.36991432 0.031030379 8
1.6469183 0.35006341 -0.38871542 1
1.7680861 0.37549683 0.09472809 9
1.6707686 0.35482904 -0.33200768 2
1.78528 0.37882185 0.15966932 10
1.6831421 0.35684207 -0.27250886 3
1.7885827 0.3788712 0.22448336 11
1.7012558 0.36006185 -0.2135151 4
1.8244113 0.38579446 0.29534832 12
1.7153697 0.36273625 -0.1533941 5
1.7235973 0.36384761 -0.092320636 6
1.7590915 0.37069815 -0.031379428 7
1.6431822 0.34387773 -0.44982749 0
1.7459699 0.36506978 0.031135093 8
1.6462227 0.3439143 -0.38826552 1
1.7615657 0.36768991 0.094309397 9
1.6643097 0.34738976 -0.3304812 2
1.7807401 0.37136698 0.15914638 10
1.6882449 0.35177085 -0.27313459 3
1.7937813 0.37343428 0.22497083 11
1.6986153 0.35331222 -0.21302763 4
1.7948018 0.3729932 0.29034239 12
1.7166253 0.35674664 -0.1533941 5
1.724857 0.35782844 -0.092320636 6
1.7486255 0.36212364 -0.031169999 7
1.6349112 0.33619386 -0.44723931 0
1.7472334 0.35897419 0.031135093 8
1.6588669 0.34051648 -0.39096493 1
1.760882 0.36113694 0.094204731 9
1.6655123 0.34157771 -0.3304812 2
1.7683624 0.3623504 0.1579262 10
1.6933333 0.34666759 -0.27376035 3
1.8047981 0.36915904 0.22618952 11
1.7076175 0.34897181 -0.21400258 4
1.796093 0.36672541 0.29034239 12
1.7061474 0.34836036 -0.15234824 5
1.7300094 0.35260436 -0.092529982 6
1.7420409 0.35442242 -0.031030379 7
1.6285003 0.3289552 -0.44516876 0
1.7406353 0.35129017 0.030995475 8
1.6543146 0.33356792 -0.38961524 1
1.7719214 0.35696065 0.09472809 9
1.6666944 0.33576223 -0.3304812 2
1.7598505 0.35420933 0.15705465 10
1.6867867 0.33919644 -0.27250886 3
1.8021832 0.36207524 0.22570205 11
1.7107718 0.34339926 -0.21424633 4
1.7973622 0.36045316 0.29034239 12
1.7034463 0.34161872 -0.15199961 5
1.7351465 0.34734696 -0.092739321 6
1.7432674 0.3483398 -0.031030379 7
1.6334286 0.32402003 -0.44620407 0
1.7340046 0.34365743 0.030855855 8
1.6535571 0.32741386 -0.38916534 1
1.7711974 0.35038525 0.094623417 9
1.6678563 0.3299419 -0.3304812 2
1.7610763 0.34806365 0.15705465 10
1.6802083 0.33177689 -0.2712574 3
1.7878559 0.35270807 0.22375213 11
1.7139077 0.33780885 -0.21449007 4
1.8005476 0.354559 0.29065526 12
1.7046283 0.33567086 -0.15199961 5
1.7245899 0.33897641 -0.092111297 6
1.7523218 0.34379199 -0.031169999 7
1.6402383 0.31942451 -0.44775698 0
1.7371566 0.337984 0.030890759 8
1.6432123 0.31940839 -0.38646591 1
1.760646 0.34191635 0.093995392 9
1.6689979 0.32411835 -0.3304812 2
1.7701042 0.34343258 0.15775189 10
1.6774778 0.32515758 -0.27063167 3
1.7910247 0.34684291 0.22399586 11
1.6994847 0.32880789 -0.21254015 4
1.8075927 0.34939682 0.29159388 12
1.7097019 0.33047512 -0.15234824 5
1.7238016 0.33257639 -0.092006624 6
1.7535113 0.33767268 -0.031169999 7
1.6375483 0.3129721 -0.44672167 0
1.7442186 0.3330428 0.030995475 8
1.6481457 0.31440124 -0.38736573 1
1.7480952 0.33315063 0.09326268 9
1.662405 0.31681988 -0.32895473 2
1.777164 0.33836913 0.15827483 10
1.6863648 0.320777 -0.27188313 3
1.7941748 0.34095907 0.2242396 11
1.7006222 0.32287312 -0.21254015 4
1.793275 0.34014046 0.28909093 12
1.7186749 0.32599065 -0.15304548 5
1.7229897 0.3261852 -0.091901943 6
1.7507493 0.33080754 -0.031100187 7
1.6348333 0.30654159 -0.44568643 0
1.7453704 0.3269527 0.030995475 8
1.6492331 0.30864578 -0.38736573 1
1.7609693 0.32955664 0.093890712 9
1.6615709 0.31065458 -0.32857311 2
1.7646246 0.32960325 0.15705465 10
1.6913581 0.31561279 -0.27250886 3
1.795354 0.33469453 0.2242396 11
1.7056419 0.31766215 -0.21302763 4
1.7905092 0.33346802 0.2884652 12
1.7060912 0.31743777 -0.15182531 5
1.7280451 0.32089853 -0.092111297 6
1.7361075 0.32208231 -0.030820949 7
1.6301934 0.29978526 -0.44413349 0
1.7346445 0.31899333 0.030786045 8
1.6617477 0.3052873 -0.39006513 1
1.7660379 0.32412836 0.094100058 9
1.6684381 0.30591527 -0.32971796 2
1.7579254 0.32200518 0.15635739 10
1.676851 0.30715451 -0.27000591 3
1.7964542 0.3287386 0.2242396 11
1.7027804 0.31129068 -0.21254015 4
1.7936057 0.32757038 0.28877807 12
1.6973888 0.30969194 -0.15095374 5
1.7369592 0.31659931 -0.092529982 6
1.7490258 0.31816712 -0.031030379 7
1.6368821 0.29540652 -0.44568643 0
1.7318118 0.31222633 0.030716237 8
1.6436242 0.29603171 -0.38556612 1
1.7710899 0.31866947 0.094309397 9
1.6655792 0.29968509 -0.32895473 2
1.7687883 0.31793666 0.15722896 10
1.6779128 0.30129969 -0.27000591 3
1.7917291 0.32141468 0.2235084 11
1.7077645 0.30604485 -0.21302763 4
1.7947381 0.3213079 0.28877807 12
1.7003675 0.30441293 -0.15112805 5
1.7282232 0.30877736 -0.092006624 6
1.7501258 0.31206033 -0.031030379 7
1.6398056 0.29002693 -0.44620407 0
1.7328911 0.30617961 0.030716237 8
1.6427286 0.28995341 -0.38511622 1
1.7564563 0.30971026 0.093472026 9
1.6666152 0.29386887 -0.32895473 2
1.7757738 0.31279776 0.15775189 10
1.6789542 0.29544121 -0.27000591 3
1.7791543 0.31275213 0.22180222 11
1.693181 0.29733536 -0.21107772 4
1.805577 0.31674814 0.29034239 12
1.7112318 0.30019736 -0.15199961 5
1.8312936 0.3209292 0.36139226 13
1.7214212 0.30136475 -0.091587931 6
1.7512045 0.30594885 -0.031030379 7
1.6389043 0.2839725 -0.44568643 0
1.7418307 0.30149257 0.030855855 8
1.645651 0.28454906 -0.38556612 1
1.7535902 0.3028985 0.09326268 9
1.6598922 0.28671399 -0.32742825 2
1.7690012 0.30524164 0.15705465 10
1.6838689 0.29024941 -0.27063167 3
1.7900165 0.30822536 0.22302091 11
1.6922524 0.29108629 -0.21083398 4
1.793044 0.30810139 0.28815234 12
1.7122693 0.29422176 -0.15199961 5
1.8246627 0.31320754 0.35986578 13
1.7303368 0.29670459 -0.092006624 6
1.7404351 0.29781172 -0.030820949 7
1.6284579 0.27631047 -0.44258058 0
1.7468158 0.2960785 0.030925665 8
1.6504768 0.2794539 -0.38646591 1
1.7546369 0.29677498 0.09326268 9
1.6647544 0.28157249 -0.32819149 2
1.7563043 0.29674089 0.15583447 10
1.6946108 0.28601393 -0.27219599 3
1.7949966 0.30263475 0.2235084 11
1.6971731 0.28583637 -0.21132146 4
1.7843684 0.30020234 0.28658798 12
1.6975676 0.28559896 -0.15060511 5
1.8296171 0.30748665 0.36062902 13
1.7234832 0.2893396 -0.091587931 6
1.7335753 0.2904126 -0.030681333 7
1.6313182 0.27094048 -0.44309825 0
1.7360022 0.28801665 0.030716237 8
1.661055 0.2752836 -0.38871542 1
1.7556115 0.29095429 0.09326268 9
1.6637903 0.27543861 -0.32780987 2
1.7592949 0.29093471 0.15600878 10
1.6761093 0.27687696 -0.26906732 3
1.7980007 0.2966899 0.22375213 11
1.7020289 0.28085348 -0.21180893 4
1.7892522 0.2949264 0.28721371 12
1.6965883 0.27934745 -0.15043081 5
1.8190562 0.29918602 0.35833931 13
1.7323658 0.28461814 -0.092006624 6
1.734529 0.2846618 -0.030681333 7
1.6303008 0.26522025 -0.44258058 0
1.7310263 0.28129554 0.030611521 8
1.6427231 0.26665178 -0.3842164 1
1.7644525 0.28641129 0.093681373 9
1.6646944 0.26992092 -0.32780987 2
1.7681172 0.28637278 0.15670602 10
1.6770182 0.2713176 -0.26906732 3
1.791136 0.2894586 0.22277717 11
1.7049106 0.27552405 -0.21205269 4
1.7999711 0.29056495 0.28877807 12
1.7014393 0.27435455 -0.15077944 5
1.8181 0.29283947 0.35795769 13
1.7175251 0.27633327 -0.091169246 6
1.7433606 0.28017789 -0.030820949 7
1.6349871 0.26041985 -0.44361585 0
1.7358992 0.27618244 0.030681333 8
1.6378245 0.26028481 -0.38286668 1
1.7457159 0.27711952 0.092634656 9
1.6675655 0.26441538 -0.32819149 2
1.7651213 0.27988422 0.15635739 10
1.6857129 0.26699051 -0.27031878 3
1.7881645 0.28289822 0.22228971 11
1.696058 0.26802301 -0.21083398 4
1.7990232 0.28397161 0.2884652 12
1.7063227 0.26903468 -0.15112805 5
1.8191109 0.28649256 0.35795769 13
1.7145332 0.2697151 -0.090959899 6
1.7403773 0.27346942 -0.030751141 7
1.6397483 0.25501886 -0.44465113 0
1.740852 0.27043167 0.030751141 8
1.6387675 0.25428051 -0.38286668 1
1.74672 0.27071884 0.092634656 9
1.660763 0.25709987 -0.32666501 2
1.7681044 0.27371719 0.15653172 10
1.6866801 0.26081064 -0.27031878 3
1.7852658 0.27573586 0.22180222 11
1.6911435 0.26089644 -0.21010277 4
1.7863854 0.27527046 0.28627509 12
1.7092665 0.26308155 -0.15130237 5
1.8220893 0.28012115 0.35833931 13
1.7194585 0.26403588 -0.091169246 6
1.7295084 0.26527017 -0.030541712 7
1.6292121 0.24726826 -0.44154531 0
1.7418314 0.26404887 0.030751141 8
1.6531758 0.25031498 -0.38601601 1
1.7535784 0.26551741 0.092948668 9
1.6538856 0.25012723 -0.32513854 2
1.7572755 0.26544893 0.15548584 10
1.6915312 0.25521669 -0.27094454 3
1.7803756 0.26830366 0.22107102 11
1.690081 0.25469619 -0.20985903 4
1.7814755 0.2681506 0.28533649 12
1.7022934 0.25592899 -0.15060511 5
1.823056 0.27375951 0.35833931 13
1.7282704 0.25921679 -0.091587931 6
1.7304238 0.25923181 -0.030541712 7
1.6300232 0.24186379 -0.44154531 0
1.7288508 0.25621954 0.030506806 8
1.6501415 0.24426033 -0.38511622 1
1.7524735 0.25940791 0.092843994 9
1.654706 0.24464089 -0.32513854 2
1.7561752 0.25932947 0.15531152 10
1.6786886 0.24758789 -0.26875445 3
1.7832195 0.26268706 0.22131474 11
1.6987718 0.25024703 -0.21083398 4
1.7901722 0.26339209 0.28658798 12
1.6932766 0.24883372 -0.14973356 5
1.812299 0.2660014 0.3560496 13
1.7291205 0.25348455 -0.091587931 6
1.7391884 0.25465044 -0.030681333 7
1.6441994 0.23839788 -0.44516876 0
1.7217747 0.24933901 0.030367188 8
1.6412989 0.23739246 -0.38286668 1
1.7612308 0.25473905 0.09326268 9
1.6671667 0.24083686 -0.32742825 2
1.7530814 0.25293568 0.15496291 10
1.6716796 0.24089316 -0.26750296 3
1.7860454 0.25705537 0.22155848 11
1.6995922 0.24461265 -0.21083398 4
1.7929912 0.25773478 0.28690085 12
1.7000091 0.24406701 -0.1502565 5
1.8053975 0.25887585 0.35452312 13
1.7220433 0.24661614 -0.091169246 6
1.7400233 0.24888204 -0.030681333 7
1.7305119 0.2447485 0.030506806 8
1.6343589 0.23085773 -0.3810671 1
1.7442673 0.24638259 0.092320636 9
1.6640682 0.23475805 -0.32666501 2
1.7657479 0.24878904 0.15600878 10
1.6724694 0.23534788 -0.26750296 3
1.7790251 0.25002566 0.22058353 11
1.6905652 0.23759344 -0.20961528 4
1.7977481 0.25233793 0.28752658 12
1.7027822 0.23870434 -0.15043081 5
1.8159677 0.25424811 0.35643122 13
1.7109833 0.23924594 -0.090541214 6
1.740839 0.24311006 -0.030681333 7
1.7333785 0.23867653 0.030541712 8
1.6448469 0.22619374 -0.38331661 1
1.7372856 0.23859669 0.091901943 9
1.6493573 0.22652072 -0.32361206 2
1.7627002 0.24177366 0.15566015 10
1.6831062 0.2305572 -0.26906732 3
1.7838631 0.24404204 0.22107102 11
1.6855648 0.23029384 -0.20888408 4
1.7869605 0.24383041 0.28564936 12
1.7096087 0.23297185 -0.15095374 5
1.820778 0.24812113 0.35719445 13
1.7197648 0.23404934 -0.090959899 6
1.8247818 0.24801801 0.42515749 14
1.7338334 0.23534846 -0.030541712 7
1.7381649 0.23315656 0.030611521 8
1.6475579 0.22070909 -0.3837665 1
1.7499858 0.23411956 0.092529982 9
1.6560144 0.22125433 -0.32475692 2
1.7576499 0.23452047 0.15513723 10
1.6858981 0.22464725 -0.26938018 3
1.7906071 0.23859982 0.22180222 11
1.6942292 0.2254573 -0.20985903 4
1.7838844 0.23707034 0.28502363 12
1.6965859 0.22516744 -0.14973356 5
1.8177825 0.24093045 0.35643122 13
1.7245711 0.22826904 -0.091169246 6
1.8334064 0.24234921 0.4269571 14
1.7227498 0.22772205 -0.030332282 7
1.7290934 0.22549006 0.030436996 8
1.6464233 0.2144177 -0.38331661 1
1.7547933 0.22821952 0.092739321 9
1.6587236 0.21572518 -0.32513854 2
1.7545062 0.22786999 0.1547886 10
1.6729591 0.21698281 -0.2671901 3
1.789501 0.23178072 0.22155848 11
1.6989816 0.21975413 -0.21034651 4
1.7847413 0.23053087 0.28502363 12
1.6874816 0.21796808 -0.148862 5
1.8088769 0.23332745 0.35452312 13
1.7213957 0.22173697 -0.090959899 6
1.8226441 0.23445655 0.42425767 14
1.7295231 0.22217107 -0.030436996 7
1.7259023 0.21895088 0.030367188 8
1.6394287 0.20768918 -0.38151699 1
1.7555791 0.22209314 0.092739321 9
1.655571 0.20944139 -0.3243753 2
1.7552909 0.22174542 0.1547886 10
1.6678269 0.21039961 -0.26625147 3
1.7784821 0.22404367 0.22009605 11
1.6957992 0.2133279 -0.20985903 4
1.793375 0.22528392 0.28627509 12
1.6961398 0.21306922 -0.14955924 5
1.8057845 0.2265227 0.35375988 13
1.7142321 0.21473505 -0.090541214 6
1.8311862 0.22905995 0.42605728 14
1.7342565 0.21662781 -0.030506806 7
1.7345947 0.21390353 0.030506806 8
1.6324069 0.2010137 -0.37971738 1
1.7444122 0.21480598 0.092111297 9
1.6640863 0.20461906 -0.32590178 2
1.7619869 0.21634494 0.15531152 10
1.6724725 0.20505849 -0.26687723 3
1.777283 0.21759337 0.21985231 11
1.6905862 0.20697907 -0.20912781 4
1.7941122 0.219336 0.28627509 12
1.7028061 0.20787275 -0.15008219 5
1.8124107 0.22093101 0.35490477 13
1.7110059 0.20826684 -0.090331867 6
1.8241979 0.22204477 0.42425767 14
1.7389357 0.21135768 -0.030576617 7
1.7392656 0.20862608 0.030576617 8
1.6349995 0.19583064 -0.38016728 1
1.7371827 0.20806955 0.091692604 9
1.6530595 0.19770113 -0.32361206 2
1.7646729 0.21073656 0.15548584 10
1.6829507 0.20068023 -0.26844159 3
1.7661676 0.21029066 0.21838988 11
1.6853497 0.20066798 -0.20839658 4
1.7869836 0.21245198 0.28502363 12
1.7074431 0.20269415 -0.15043081 5
1.8209317 0.21584435 0.35643122 13
1.7116872 0.20259131 -0.090331867 6
1.8210537 0.21553569 0.42335787 14
1.7277117 0.20418301 -0.030367188 7
1.7320027 0.20193137 0.030436996 8
1.6414469 0.19108404 -0.38151699 1
1.7418662 0.2024651 0.091901943 9
1.6459389 0.1910239 -0.32208559 2
1.7554665 0.20373543 0.15461428 10
1.6777201 0.19441642 -0.26750296 3
1.774743 0.20534481 0.21936484 11
1.6919559 0.19546679 -0.20912781 4
1.7739775 0.20462964 0.28283355 12
1.7002231 0.19582054 -0.14973356 5
1.821674 0.20948632 0.35643122 13
1.7163525 0.19707119 -0.090541214 6
1.825667 0.20962268 0.42425767 14
1.7244405 0.19769494 -0.030297378 7
1.7247828 0.19468512 0.030297378 8
1.6537553 0.18637477 -0.3842164 1
1.7564898 0.19764315 0.092634656 9
1.6544318 0.18586704 -0.32361206 2
1.7482817 0.1964106 0.15391703 10
1.6764585 0.18804455 -0.2671901 3
1.7715383 0.19839723 0.21887736 11
1.690688 0.18904394 -0.20888408 4
1.7825685 0.19900168 0.28408504 12
1.6930088 0.18870513 -0.14903632 5
1.8126734 0.20172285 0.35452312 13
1.7210333 0.19121979 -0.09075056 6
1.8225495 0.202499 0.42335787 14
1.7251534 0.19137362 -0.030297378 7
1.723497 0.18814555 0.030262474 8
1.6563644 0.18052371 -0.38466629 1
1.7531979 0.19107738 0.092425302 9
1.6609257 0.18072833 -0.32475692 2
1.7529514 0.19043142 0.15426566 10
1.6732087 0.18147315 -0.26656437 3
1.7663329 0.19126132 0.21814615 11
1.6972584 0.18378183 -0.20961528 4
1.7950358 0.1940524 0.28596222 12
1.6896955 0.18236624 -0.14868769 5
1.8055589 0.19455242 0.35299668 13
1.7097754 0.18392973 -0.090122528 6
1.8271203 0.19655313 0.42425767 14
1.7337642 0.18620422 -0.030436996 7
1.7241114 0.18242872 0.030262474 8
1.7379323 0.18358441 0.091587931 9
1.6634684 0.17542495 -0.32513854 2
1.7555546 0.18482633 0.15443997 10
1.6738012 0.17592393 -0.26656437 3
1.7649831 0.1851961 0.21790241 11
1.6860129 0.17690992 -0.20815286 4
1.7897755 0.18748173 0.28502363 12
1.6982173 0.17759125 -0.14938495 5
1.8120521 0.18917583 0.3541415 13
1.7103759 0.17825924 -0.090122528 6
1.8200091 0.18968545 0.42245808 14
1.7383499 0.18086807 -0.030506806 7
1.7346532 0.17772979 0.030436996 8
1.7365755 0.17731424 0.091483258 9
1.6523519 0.16842236 -0.32284883 2
1.7621043 0.1796093 0.15496291 10
1.6822366 0.17117184 -0.26781586 3
1.7695373 0.17974377 0.21838988 11
1.6787202 0.17022206 -0.20717789 4
1.7864884 0.18083476 0.2843979 12
1.706756 0.17246386 -0.15008219 5
1.8185614 0.18344006 0.35528636 13
1.7109878 0.17228736 -0.090122528 6
1.8167822 0.1829403 0.42155826 14
1.7270325 0.17359936 -0.030297378 7
1.7313131 0.17097728 0.030367188 8
1.7431767 0.17153452 0.091797277 9
1.652958 0.16236542 -0.32284883 2
1.758785 0.1727605 0.15461428 10
1.6828525 0.16500534 -0.26781586 3
1.7721598 0.17344978 0.21863361 11
1.691187 0.16522661 -0.20864034 4
1.7812411 0.17371093 0.28345928 12
1.6835805 0.16389021 -0.14799045 5
1.8172674 0.17658399 0.35490477 13
1.7155836 0.16640113 -0.090331867 6
1.8135613 0.17590438 0.42065847 14
1.7236766 0.16688246 -0.030227568 7
1.717993 0.16330549 0.030122854 8
1.7537065 0.1663923 0.092320636 9
1.6496058 0.15622389 -0.32208559 2
1.739571 0.16443764 0.15287116 10
1.671646 0.15772329 -0.26593861 3
1.780689 0.16769736 0.21960858 11
1.6937299 0.15950793 -0.20888408 4
1.7838035 0.16767658 0.28377217 12
1.6762077 0.15726832 -0.1472932 5
1.8041899 0.16895762 0.35223341 13
1.7201312 0.16078292 -0.090541214 6
1.8219254 0.17029776 0.42245808 14
1.7242485 0.16086505 -0.030227568 7
1.7264905 0.1583392 0.030262474 8
1.748282 0.16002922 0.092006624 9
1.654025 0.15111031 -0.32284883 2
1.7500273 0.15957388 0.15374273 10
1.6682254 0.15182053 -0.26531288 3
1.7634429 0.1601757 0.21741492 11
1.6962265 0.15407035 -0.20912781 4
1.7863169 0.16193905 0.28408504 12
1.6925942 0.15314478 -0.14868769 5
1.8008296 0.16262101 0.3514702 13
1.7126981 0.15436108 -0.090122528 6
1.8185983 0.16390559 0.42155826 14
1.7247726 0.15514588 -0.030227568 7
1.7250141 0.15243658 0.030227568 8
1.7349029 0.15269934 0.091273919 9
1.6623652 0.14602329 -0.3243753 2
1.7465775 0.15342055 0.1533941 10
1.6805266 0.14732306 -0.2671901 3
1.7639643 0.15432654 0.21741492 11
1.6908212 0.14763083 -0.20839658 4
1.7849034 0.15553156 0.28377217 12
1.6931185 0.14723514 -0.14868769 5
1.807254 0.15684356 0.35261503 13
1.7052672 0.14769273 -0.089703836 6
1.8152765 0.1572206 0.42065847 14
1.7292881 0.14946827 -0.030297378 7
1.7255613 0.14611262 0.030227568 8
1.7394313 0.14667559 0.091483258 9
1.6511512 0.13894127 -0.32208559 2
1.7630111 0.14835407 0.1547886 10
1.6771184 0.14083239 -0.26656437 3
1.7763872 0.14885522 0.21887736 11
1.6834381 0.14077055 -0.20742163 4
1.7795557 0.14849611 0.28283355 12
1.6976178 0.1413596 -0.14903632 5
1.8156428 0.15086842 0.3541415 13
1.7097778 0.14177208 -0.089913182 6
1.8158405 0.15056662 0.42065847 14
1.7298244 0.1431295 -0.030297378 7
1.7340579 0.14043319 0.030367188 8
1.7379419 0.14044163 0.091378585 9
1.6477123 0.1328616 -0.32132238 2
1.7496411 0.14077318 0.15356842 10
1.6815615 0.13499944 -0.2671901 3
1.7828569 0.14281936 0.21960858 11
1.6839427 0.13459988 -0.20742163 4
1.7702178 0.14149596 0.28126919 12
1.6861844 0.13448209 -0.14799045 5
1.8161583 0.1445301 0.3541415 13
1.7182263 0.1364349 -0.090331867 6
1.7143658 0.13582645 -0.030018138 7
1.7225518 0.13375275 0.030157758 8
1.7384216 0.13437541 0.091378585 9
1.6618682 0.12816547 -0.32399368 2
1.7401892 0.13390021 0.15269686 10
1.6623044 0.12790729 -0.26406142 3
1.7872792 0.13721067 0.22009605 11
1.6843799 0.12901451 -0.20742163 4
1.7687314 0.1351649 0.28095633 12
1.6866434 0.12859654 -0.14799045 5
1.8068397 0.1377608 0.35223341 13
1.7107033 0.13012986 -0.089913182 6
1.7267934 0.13074844 -0.030227568 7
1.721014 0.12759164 0.030122854 8
1.7468473 0.12889378 0.091797277 9
1.7485718 0.12871422 0.1533941 10
1.6627407 0.12210434 -0.26406142 3
1.7600304 0.12894003 0.21668372 11
1.6927391 0.12371328 -0.20839658 4
1.7849534 0.13013954 0.28345928 12
1.693022 0.12343691 -0.14851339 5
1.7994773 0.13088275 0.35070693 13
1.7071632 0.12386809 -0.089703836 6
1.7332228 0.1251516 -0.030332282 7
1.7254385 0.12186553 0.030192664 8
1.7313479 0.12167559 0.090959899 9
1.7549731 0.12302813 0.15391703 10
1.6749802 0.11712586 -0.26593861 3
1.7525486 0.12224346 0.21570876 11
1.6832592 0.1171152 -0.20717789 4
1.7834263 0.12377088 0.28314641 12
1.6974177 0.11780183 -0.148862 5
1.8038403 0.12487216 0.3514702 13
1.7075851 0.11790939 -0.089703836 6
1.733649 0.11910112 -0.030332282 7
1.7298437 0.11610927 0.030262474 8
1.7317621 0.11563085 0.090959899 9
1.7593677 0.11716568 0.15426566 10
1.6753788 0.11127873 -0.26593861 3
1.7509838 0.11599349 0.21546502 11
1.6757346 0.11071489 -0.20620294 4
1.7739918 0.11689574 0.28158206 12
1.6998066 0.11200737 -0.14903632 5
1.8140604 0.11921807 0.3533783 13
1.7079864 0.11194763 -0.089703836 6
1.7260725 0.11252802 -0.030192664 7
1.732234 0.1101976 0.030297378 8
1.7321551 0.10958471 0.090959899 9
1.74187 0.10989494 0.15269686 10
1.6718141 0.10518218 -0.26531288 3
1.7652465 0.11075034 0.21717119 11
1.6800733 0.10511307 -0.20669043 4
1.7724177 0.11058003 0.28126919 12
1.6882561 0.10532925 -0.14799045 5
1.8085871 0.11251888 0.35223341 13
1.7123535 0.10623266 -0.089913182 6
1.7144793 0.105763 -0.029983234 7
1.7186356 0.10330992 0.030053046 8
1.7365146 0.10377636 0.091169246 9
1.7422429 0.10381355 0.15269686 10
1.6682271 0.099111058 -0.26468715 3
1.7755305 0.10517509 0.21838988 11
1.6883566 0.09971559 -0.20766538 4
1.7787087 0.10474034 0.28220782 12
1.6846358 0.099200808 -0.14764182 5
1.8011293 0.10574517 0.35070693 13
1.7167016 0.10048775 -0.090122528 6
1.7188307 0.10001039 -0.030053046 7
1.7129962 0.096971437 0.02994833 8
1.7428484 0.098051079 0.091483258 9
1.7485626 0.098066427 0.1532198 10
1.6606739 0.092846543 -0.26343569 3
1.7540846 0.097761109 0.21570876 11
1.6906765 0.093931995 -0.20790912 4
1.7810359 0.098640472 0.28252068 12
1.6889503 0.09354043 -0.14799045 5
1.8014874 0.099456936 0.35070693 13
1.7050763 0.093835771 -0.089494489 6
1.7231628 0.09422785 -0.030122854 7
1.719299 0.09160994 0.030053046 8
1.7292027 0.091531552 0.09075056 9
1.7508677 0.09237276 0.1533941 10
1.6649179 0.087546028 -0.26406142 3
1.7563814 0.092048064 0.2159525 11
1.6850314 0.088014692 -0.20717789 4
1.7892441 0.093144089 0.28377217 12
1.6892667 0.087643869 -0.14799045 5
1.8018074 0.0934828 0.35070693 13
1.7053782 0.088182174 -0.089494489 6
1.7354482 0.089128852 -0.030332282 7
1.7236028 0.085806303 0.030122854 8
1.7295119 0.085495323 0.09075056 9
1.7551745 0.086148947 0.15374273 10
1.6691735 0.081636563 -0.26468715 3
1.7547094 0.085819982 0.21570876 11
1.665501 0.081165589 -0.20474051 4
1.7678547 0.085843526 0.2803306 12
1.6895622 0.081747055 -0.14799045 5
1.8099818 0.087256767 0.35223341 13
1.7056899 0.08192981 -0.089494489 6
1.7237642 0.082497276 -0.030122854 7
1.7279007 0.079673015 0.030192664 8
1.7337899 0.079640508 0.090959899 9
1.7475033 0.079660013 0.15304548 10
1.6832619 0.076436393 -0.26687723 3
1.7688936 0.080015548 0.21741492 11
1.6856048 0.076248005 -0.20717789 4
1.7760369 0.080028936 0.28158206 12
1.6898373 0.07584843 -0.14799045 5
1.8063527 0.080762357 0.3514702 13
1.709956 0.076154239 -0.089703836 6
1.7120553 0.075947531 -0.029913425 7
1.7141705 0.073343791 0.02994833 8
1.7340446 0.073890954 0.090959899 9
1.7437766 0.073695906 0.15269686 10
1.7691492 0.074148759 0.21741492 11
1.6818818 0.070491195 -0.20669043 4
1.7723454 0.073973708 0.28095633 12
1.682117 0.0699137 -0.1472932 5
1.7987643 0.074446589 0.34994373 13
1.7101994 0.070482925 -0.089703836 6
1.7202898 0.070598051 -0.030053046 7
1.7084097 0.067422763 0.029843615 8
1.7422748 0.068150185 0.091378585 9
1.7460023 0.06799081 0.15287116 10
1.7495492 0.067517333 0.21497753 11
1.6860847 0.064773463 -0.20717789 4
1.7785145 0.068012603 0.28189492 12
1.6863214 0.064487025 -0.14764182 5
1.7990012 0.068482473 0.34994373 13
1.7024403 0.064509153 -0.08928515 6
1.7325155 0.065042354 -0.030262474 7
1.7126315 0.061602198 0.029913425 8
1.7265342 0.061498862 0.090541214 9
1.7522025 0.062106971 0.1533941 10
1.7477903 0.061339773 0.21473379 11
1.6704297 0.05833286 -0.205228 4
1.7807152 0.061873835 0.28220782 12
1.6905185 0.0587398 -0.14799045 5
1.6986629 0.058428362 -0.089075804 6
1.7327321 0.058994714 -0.030262474 7
1.7208307 0.055883609 0.030053046 8
1.7267385 0.055471294 0.090541214 9
1.7524085 0.055990633 0.1533941 10
1.7499778 0.055300701 0.21497753 11
1.6745913 0.052626681 -0.20571546 4
1.7670995 0.055225194 0.28001773 12
1.698679 0.053086925 -0.14868769 5
1.7028491 0.052622303 -0.08928515 6
1.7209349 0.052579127 -0.030053046 7
1.7210153 0.049875986 0.030053046 8
1.7289178 0.049501866 0.090645887 9
1.7486101 0.049759433 0.15304548 10
1.7521445 0.049248777 0.21522127 11
1.6827021 0.047002204 -0.20669043 4
1.7653069 0.04900125 0.27970487 12
1.6829209 0.046714384 -0.1472932 5
1.7070155 0.046786919 -0.089494489 6
1.713112 0.046355624 -0.029913425 7
1.7131827 0.04366478 0.029913425 8
1.7330734 0.043566436 0.090855226 9
1.7368226 0.04335738 0.15199961 10
1.7761197 0.043718051 0.21814615 11
1.6848403 0.041176245 -0.20693417 4
1.7654673 0.042839251 0.27970487 12
1.6751065 0.040646639 -0.14659595 5
1.7071683 0.040827584 -0.089494489 6
1.7172616 0.040470049 -0.029983234 7
1.7133247 0.037684746 0.029913425 8
1.7332149 0.037516978 0.090855226 9
1.746923 0.037507851 0.15287116 10
1.7524456 0.0370153 0.21522127 11
1.6869583 0.035336729 -0.20717789 4
1.7735059 0.036839988 0.28095633 12
1.6832061 0.034964241 -0.1472932 5
1.7073004 0.034868564 -0.089494489 6
1.7253896 0.034635518 -0.030122854 7
1.7214432 0.031851418 0.030053046 8
1.7293415 0.031393737 0.090645887 9
1.7450511 0.031374272 0.15269686 10
1.7466099 0.030792462 0.21449007 11
1.6751629 0.029240415 -0.20571546 4
1.7775737 0.030717706 0.28158206 12
1.6833229 0.028795121 -0.1472932 5
1.7034179 0.028841499 -0.08928515 6
1.7255 0.028612936 -0.030122854 7
1.7255428 0.025902657 0.030122854 8
1.7174582 0.025180874 0.090017848 9
1.7471467 0.025006199 0.15287116 10
1.7506765 0.024751125 0.21497753 11
1.6772397 0.023420898 -0.2059592 4
1.7618686 0.024294268 0.27907911 12
1.6913819 0.023027096 -0.14799045 5
1.7035122 0.022597531 -0.08928515 6
1.7215904 0.022536835 -0.030053046 7
1.721627 0.019532241 0.030053046 8
1.7275248 0.018996092 0.090541214 9
1.745231 0.018886173 0.15269686 10
1.7527404 0.018355584 0.21522127 11
1.6812841 0.017313804 -0.20644669 4
1.7678716 0.017896915 0.28001773 12
1.6834829 0.017042613 -0.1472932 5
1.7115693 0.016729468 -0.089703836 6
1.7096636 0.016114036 -0.029843615 7
1.7096869 0.013428648 0.029843615 8
1.7315748 0.012996132 0.09075056 9
1.737317 0.012736012 0.15199961 10
1.7785994 0.012416957 0.21838988 11
1.7659481 0.01171221 0.27970487 12
1.6795474 0.01113918 -0.14694458 5
1.7076228 0.010730134 -0.089494489 6
1.7137089 0.010169377 -0.029913425 7
1.7057241 0.0074427389 0.029773805 8
1.7336069 0.0069592851 0.090855226 9
1.7413355 0.0066864043 0.15234824 10
1.7448857 0.0060909847 0.21424633 11
1.7738796 0.0055738715 0.28095633 12
1.6835608 0.0052900724 -0.1472932 5
1.6996609 0.0047465875 -0.089075804 6
1.7217327 0.0042072614 -0.030053046 7
1.7137384 0.0014959465 0.029913425 8
1.7236344 0.00090213714 0.090331867 9
1.7453331 0.00060972653 0.15269686 10
1.7548217 -0 0.21546502 11
1.7719128 -0.00061851426 0.28064346 12
1.6795843 -0.00058628555 -0.14694458 5
1.6956726 -0.001183803 -0.088866465 6
1.7257363 -0.0018071873 -0.030122854 7
1.7177333 -0.0041972226 0.029983234 8
1.7156389 -0.0047909799 0.089913182 9
1.7433331 -0.0051725889 0.15252255 10
1.7607672 -0.0058389464 0.21619622 11
1.7600489 -0.0064509446 0.27876624 12
1.6795731 -0.0061559845 -0.14694458 5
1.6996537 -0.0068228836 -0.089075804 6
1.7137227 -0.0074775731 -0.029913425 7
1.7177082 -0.010193205 0.029983234 8
1.7275951 -0.010854942 0.090541214 9
1.7433045 -0.011257926 0.15252255 10
1.754781 -0.011944599 0.21546502 11
1.683526 -0.012047266 -0.1472932 5
1.7036141 -0.01278572 -0.08928515 6
1.7096869 -0.013428124 -0.029843615 7
1.7056646 -0.016075986 0.029773805 8
1.7275496 -0.016583797 0.090541214 9
1.7332932 -0.017244022 0.151651 10
1.7586986 -0.018110737 0.2159525 11
1.6794891 -0.017881373 -0.14694458 5
1.7075533 -0.018776285 -0.089494489 6
1.7136321 -0.019142251 -0.029913425 7
1.7056018 -0.021732084 0.029773805 8
1.7274812 -0.022613969 0.090541214 9
1.7352146 -0.023321016 0.15182531 10
1.7427496 -0.023726504 0.21400258 11
1.6834009 -0.023800105 -0.1472932 5
1.6994934 -0.0243243 -0.089075804 6
1.7215528 -0.02524109 -0.030053046 7
1.7095144 -0.027750526 0.029843615 8
1.7194037 -0.028511407 0.090122528 9
1.7470804 -0.02927535 0.15287116 10
1.7426561 -0.029809689 0.21400258 11
1.6793234 -0.029605888 -0.14694458 5
1.6954043 -0.030185383 -0.088866465 6
1.7254529 -0.031322867 -0.030122854 7
1.7134057 -0.033796549 0.029913425 8
1.7093096 -0.034312651 0.08959917 9
1.7409853 -0.035556477 0.15234824 10
1.7484956 -0.036015153 0.21473379 11
1.6871777 -0.03563593 -0.14764182 5
1.6992759 -0.036484893 -0.089075804 6
1.7133377 -0.037085988 -0.029913425 7
1.721267 -0.040263318 0.030053046 8
1.7231491 -0.040909175 0.090331867 9
1.726908 -0.041299988 0.15112805 10
1.7523206 -0.042519774 0.21522127 11
1.7031314 -0.042515937 -0.08928515 6
1.7131903 -0.043365434 -0.029913425 7
1.7071232 -0.04589523 0.029808709 8
1.7289854 -0.047086954 0.090645887 9
1.7287365 -0.047684073 0.15130237 10
1.7600989 -0.048856579 0.21619622 11
1.706957 -0.048872262 -0.089494489 6
1.7130286 -0.049345318 -0.029913425 7
1.7009652 -0.05137489 0.029703995 8
1.7288197 -0.052820221 0.090645887 9
1.7405269 -0.05348197 0.15234824 10
1.7420701 -0.054138068 0.21400258 11
1.69881 -0.053980842 -0.089075804 6
1.7248473 -0.055410892 -0.030122854 7
1.7087697 -0.057581436 0.029843615 8
1.7206403 -0.058582757 0.090227202 9
1.7383384 -0.059489071 0.15217392 10
1.7418705 -0.060218696 0.21400258 11
1.6946192 -0.059769675 -0.088866465 6
1.7206466 -0.061289039 -0.030053046 7
1.7085582 -0.063545801 0.029843615 8
1.7164335 -0.064438693 0.090017848 9
1.7361292 -0.065481551 0.15199961 10
1.7396661 -0.066223085 0.21375884 11
1.6944003 -0.065684631 -0.088866465 6
1.7124295 -0.06698221 -0.029913425 7
1.7163182 -0.06983459 0.029983234 8
1.7161982 -0.070429772 0.090017848 9
1.7299179 -0.071295239 0.15147668 10
1.7572746 -0.073037155 0.2159525 11
1.7021426 -0.071936123 -0.08928515 6
1.7081895 -0.072789028 -0.029843615 7
1.7040776 -0.075295612 0.029773805 8
1.7199326 -0.076597713 0.090227202 9
1.7336394 -0.07751134 0.15182531 10
1.755026 -0.079081394 0.21570876 11
1.7058715 -0.078059867 -0.089494489 6
1.707925 -0.078751266 -0.029843615 7
1.7038044 -0.081243493 0.029773805 8
1.7256396 -0.082888417 0.090541214 9
1.7333583 -0.083562404 0.15182531 10
1.6976092 -0.083620936 -0.089075804 6
1.7156286 -0.085108876 -0.029983234 7
1.7075045 -0.087394804 0.029843615 8
1.7173613 -0.088500366 0.090122528 9
1.741015 -0.090023972 0.15252255 10
1.697307 -0.089546196 -0.089075804 6
1.7233087 -0.091521226 -0.030122854 7
1.707189 -0.093354575 0.029843615 8
1.7110591 -0.09416528 0.089808509 9
1.7406901 -0.096100703 0.15252255 10
1.7149926 -0.097084053 -0.029983234 7
1.7168344 -0.099893987 0.030018138 8
1.7107201 -0.10013742 0.089808509 9
1.736366 -0.10194271 0.15217392 10
1.7026669 -0.10234997 -0.029773805 7
1.7064958 -0.10527063 0.029843615 8
1.7183338 -0.10660301 0.090227202 9
1.7240684 -0.10726085 0.15112805 10
1.7062904 -0.10854667 -0.029843615 7
1.7001315 -0.11083651 0.029738901 8
1.7239302 -0.11299236 0.090541214 9
1.7296478 -0.11367028 0.151651 10
1.7178725 -0.1153056 -0.030053046 7
1.7057192 -0.11718156 0.029843615 8
1.7155552 -0.11845897 0.090122528 9
1.7312282 -0.11984478 0.15182531 10
1.7174594 -0.12130141 -0.030053046 7
1.7092888 -0.12342297 0.029913425 8
1.7091551 -0.12401304 0.089808509 9
1.7407348 -0.12660982 0.15269686 10
1.7090487 -0.12670432 -0.029913425 7
1.7128354 -0.12969071 0.029983234 8
1.7126948 -0.13028131 0.090017848 9
1.7263759 -0.13162509 0.15147668 10
1.7046086 -0.13235962 -0.029843615 7
1.7024052 -0.13487911 0.029808709 8
1.7182025 -0.13673428 0.090331867 9
1.7199478 -0.13717526 0.15095374 10
1.7081225 -0.13863255 -0.029913425 7
1.701924 -0.14082082 0.029808709 8
1.7256764 -0.14339264 0.09075056 9
1.7194585 -0.14317816 0.15095374 10
1.7116133 -0.1449316 -0.029983234 7
1.6994299 -0.14658892 0.029773805 8
1.7092468 -0.14803682 0.089913182 9
1.7189482 -0.14917932 0.15095374 10
1.7068745 -0.15323536 0.029913425 8
1.7067305 -0.15382303 0.089808509 9
1.7243699 -0.15571623 0.15147668 10
1.7142935 -0.15993556 0.030053046 8
1.7121768 -0.16003953 0.090122528 9
1.6978303 -0.16408063 0.029773805 8
1.7215766 -0.16667879 0.090645887 9
1.695287 -0.16951098 0.029738901 8
1.7269459 -0.17328542 0.090959899 9
1.7006521 -0.1760453 0.029843615 8
1.7124246 -0.17786811 0.090227202 9
1.7039721 -0.18270369 0.029913425 8
1.7077895 -0.18371601 0.090017848 9
1.7092866 -0.18931094 0.030018138 8
1.713093 -0.19033785 0.090331867 9
1.6947418 -0.19339107 0.029773805 8
1.7184054 -0.19669904 0.090645887 9
1.6861125 -0.19837105 0.029634187 8
1.7177082 -0.20269622 0.090645887 9
1.7090596 -0.20772697 0.090227202 9
1.7083241 -0.21369141 0.090227202 9
