# .PCD v0.7 - Point Cloud Data file format
VERSION 0.7
FIELDS x y z intensity
SIZE 4 4 4 4
TYPE F F F F
COUNT 1 1 1 1
WIDTH 323
HEIGHT 1
VIEWPOINT 0 0 0 1 0 0 0
POINTS 323
DATA ascii
3.2554204 0.88325822 -0.29510933 5
3.2487085 0.86988205 -0.29423779 5
3.2478728 0.85751855 -0.29388916 5
3.2661228 0.85076189 -0.29528365 5
3.2729323 0.84034592 -0.29563227 5
3.2642565 0.82598436 -0.29458639 5
3.2632537 0.81362003 -0.29423779 5
3.273813 0.80412591 -0.29493502 5
3.2820957 0.80494571 -0.17710489 6
3.2842073 0.79514116 -0.29563227 5
3.2808647 0.79311794 -0.17689554 6
3.2907023 0.78516984 -0.2959809 5
3.2912481 0.78408599 -0.17731424 6
3.2934227 0.77367902 -0.2959809 5
3.3017428 0.77441758 -0.17773293 6
3.2993708 0.76353937 -0.41581824 4
3.2844563 0.75948566 -0.29493502 5
3.304426 0.76288676 -0.17773293 6
3.3000803 0.75157768 -0.41557449 4
3.2987437 0.75066775 -0.2959809 5
3.3070688 0.7513482 -0.17773293 6
3.2968724 0.73875058 -0.41484326 4
3.3052325 0.74001819 -0.29632953 5
3.3018749 0.73805624 -0.17731424 6
3.2954271 0.72695917 -0.41435578 4
3.311687 0.72933394 -0.29667813 5
3.3082051 0.72796184 -0.17752358 6
3.3134642 0.71881908 -0.41630572 4
3.3062987 0.71666044 -0.2959809 5
3.3185341 0.71809989 -0.17794226 6
3.3267429 0.71865904 -0.05940799 7
3.3237193 0.70890403 -0.41728067 4
3.304883 0.70428354 -0.29563227 5
3.3249278 0.70734197 -0.17815161 6
3.3311865 0.70745987 -0.059442896 7
3.3261738 0.69729686 -0.41728067 4
3.3151212 0.69437754 -0.29632953 5
3.3234668 0.69491309 -0.17794226 6
3.3473384 0.69868672 -0.059687231 7
3.3246982 0.6848833 -0.41679317 4
3.3370399 0.68681693 -0.29807264 5
3.3258719 0.68331009 -0.17794226 6
3.3575928 0.68860424 -0.059826851 7
3.327069 0.67327291 -0.41679317 4
3.3394175 0.67516345 -0.29807264 5
3.3360684 0.67327607 -0.17836095 6
3.3560555 0.67609078 -0.059757043 7
3.3332927 0.66242975 -0.41728067 4
3.3339365 0.66195285 -0.29737538 5
3.338398 0.66162759 -0.17836095 6
3.3505483 0.66281867 -0.059617419 7
3.3394818 0.65154976 -0.41776815 4
3.3362269 0.65031034 -0.29737538 5
3.3563714 0.65302104 -0.17919834 6
3.3605797 0.65323114 -0.059757043 7
3.3328063 0.63998717 -0.5375089 3
3.3494222 0.64196736 -0.4187431 4
3.3384764 0.63866144 -0.29737538 5
3.3428242 0.63888848 -0.17836095 6
3.3746247 0.64374542 -0.059966467 7
3.3583148 0.63273925 -0.54126334 3
3.3399374 0.62806976 -0.41728067 4
3.352325 0.62979347 -0.29842126 5
3.3489602 0.6279512 -0.1785703 6
3.3807826 0.63269669 -0.060036276 7
3.3778398 0.62665617 0.059966467 8
3.3371928 0.61670578 -0.5375089 3
3.3460138 0.61712813 -0.41776815 4
3.3584216 0.61881053 -0.29876989 5
3.3629177 0.61842549 -0.17919834 6
3.3751035 0.61944687 -0.059896659 7
3.3859091 0.61593425 0.060071182 8
3.3607061 0.60892779 -0.54095048 3
3.3559613 0.60685664 -0.4187431 4
3.3487971 0.60495931 -0.29772401 5
3.365056 0.606682 -0.17919834 6
3.3772452 0.6076625 -0.059896659 7
3.3801641 0.60270816 0.059931565 8
3.3550313 0.59581047 -0.53969896 3
3.3658776 0.59652483 -0.41971806 4
3.3508887 0.59326524 -0.29772401 5
3.3710868 0.59562778 -0.17940767 6
3.387223 0.59725809 -0.060036276 7
3.3861873 0.59159291 0.060001373 8
3.3531988 0.58341753 -0.53907323 3
3.3718512 0.58545041 -0.42020553 4
3.3647177 0.5836069 -0.29876989 5
3.3731453 0.58385599 -0.17940767 6
3.3971691 0.58679467 -0.060175899 7
3.3921731 0.58044612 0.060071182 8
3.3591089 0.57237345 -0.53969896 3
3.3699603 0.57301044 -0.41971806 4
3.3706629 0.57252628 -0.29911849 5
3.3712249 0.57140952 -0.17919834 6
3.3991969 0.5749318 -0.060175899 7
3.4020674 0.56992233 0.060210802 8
3.3688807 0.56194365 -0.54095048 3
3.3680234 0.56059402 -0.41923055 4
3.3844333 0.56271678 -0.30016437 5
3.3731985 0.55964059 -0.17919834 6
3.3972373 0.5624088 -0.060106091 7
3.4079833 0.55868959 0.060280614 8
3.3786197 0.5514558 -0.54220194 3
3.3738785 0.54947138 -0.41971806 4
3.3785105 0.54962218 -0.29946712 5
3.3869603 0.54978162 -0.17982636 6
3.3991797 0.55054748 -0.060106091 7
3.4000404 0.54520774 0.060106091 8
3.3746724 0.53872377 -0.54126334 3
3.3875377 0.53956515 -0.42118049 4
3.3764732 0.5371986 -0.29911849 5
3.396749 0.53920883 -0.18024506 6
3.4168816 0.54118049 -0.060385328 7
3.4038982 0.53364486 0.060140993 8
3.4334824 0.53705668 0.18212914 9
3.3765326 0.52693981 -0.54126334 3
3.3933239 0.52834707 -0.42166796 4
3.3901403 0.5272454 -0.30016437 5
3.3907158 0.52612281 -0.17982636 6
3.4187498 0.52925074 -0.060385328 7
3.4136469 0.52297181 0.060280614 8
3.4274387 0.52386039 0.18171045 9
3.386162 0.5163421 -0.5425148 3
3.3912222 0.51590091 -0.42118049 4
3.3958995 0.51600772 -0.300513 5
3.3925316 0.51428288 -0.17982636 6
3.4245305 0.51791263 -0.060455136 7
3.4213846 0.51194125 0.060385328 8
3.433197 0.51248366 0.1819198 9
3.3957593 0.50568193 -0.54376626 3
3.3930025 0.50406086 -0.42118049 4
3.4055636 0.50531948 -0.30121022 5
3.4101121 0.50477797 -0.18066373 6
3.4223614 0.5053705 -0.060385328 7
3.4290867 0.50086141 0.060490038 8
3.4310124 0.49991956 0.18171045 9
3.3706543 0.49112505 -0.66210729 2
3.4053233 0.49496272 -0.54501772 3
3.3986704 0.49278444 -0.42166796 4
3.3994191 0.49228728 -0.300513 5
3.4118533 0.49287215 -0.18066373 6
3.4241045 0.49342188 -0.060385328 7
3.4268548 0.48832515 0.06042023 8
3.4446011 0.4896256 0.18233849 9
3.3762357 0.47990799 -0.66287047 2
3.3992069 0.48196274 -0.54376626 3
3.4082317 0.48203054 -0.42264292 4
3.4011168 0.48041722 -0.300513 5
3.4254191 0.48263219 -0.18129177 6
3.4376872 0.4831354 -0.060594756 7
3.4225962 0.47553363 0.060315516 8
3.4561808 0.47897029 0.18286185 9
3.385669 0.4691985 -0.66439694 2
3.4008684 0.4700951 -0.54376626 3
3.4177597 0.47121423 -0.42361787 4
3.4106684 0.46962997 -0.30121022 5
3.4191682 0.46958438 -0.18087308 6
3.4393525 0.47113338 -0.060594756 7
3.4400883 0.46573061 0.060594756 8
3.4439769 0.46503133 0.18212914 9
3.4261982 0.46263069 -0.67202932 2
3.406404 0.45874897 -0.54439199 3
3.4115143 0.45822322 -0.42264292 4
3.4201856 0.45878196 -0.30190748 5
3.4128683 0.45658612 -0.1804544 6
3.4528692 0.46071091 -0.060804185 7
3.443676 0.45398012 0.060629662 8
3.4454999 0.45360878 0.18212914 9
3.4158192 0.44788194 -0.54564345 3
3.4130929 0.44631276 -0.42264292 4
3.4257174 0.44735551 -0.30225611 5
3.4263246 0.44621852 -0.18108243 6
3.4424798 0.4477115 -0.060594756 7
3.4550796 0.44383261 0.060804185 8
3.4569676 0.44284862 0.1826525 9
3.4290426 0.43805322 -0.5475207 3
3.4263692 0.43649793 -0.42410538 4
3.427258 0.43539554 -0.30225611 5
3.4396734 0.43636277 -0.18171045 6
3.4479895 0.43619496 -0.060664564 7
3.4506545 0.43102488 0.06069947 8
3.464438 0.4315185 0.18296652 9
3.4600208 0.4303551 0.3050451 10
3.422709 0.42510939 -0.54626918 3
3.431812 0.42502204 -0.42459282 4
3.4247284 0.42353955 -0.30190748 5
3.4491048 0.42533031 -0.18212914 6
3.4494913 0.42415565 -0.060664564 7
3.448168 0.4184961 0.060629662 8
3.4738545 0.42038161 0.18338521 9
3.4832597 0.42090464 0.30696252 10
3.4163277 0.41221189 -0.54501772 3
3.4450998 0.41446358 -0.42605525 4
3.4340985 0.41253206 -0.30260473 5
3.442636 0.41233873 -0.18171045 6
3.4628644 0.4135339 -0.060873993 7
3.4535797 0.40692425 0.06069947 8
3.4693499 0.40755635 0.1830712 9
3.4886656 0.40920651 0.30731115 10
3.4295175 0.40166193 -0.54689491 3
3.4346957 0.40105313 -0.42459282 4
3.4473917 0.40192577 -0.30365062 5
3.4400868 0.39985707 -0.18150112 6
3.4762049 0.4028272 -0.061083425 7
3.4668999 0.39622968 0.060908899 8
3.4707513 0.39544263 0.1830712 9
3.4387498 0.39058074 -0.54814643 3
3.4360745 0.38906211 -0.42459282 4
3.444814 0.38944274 -0.30330199 5
3.4533699 0.38918757 -0.18212914 6
3.4736154 0.39024311 -0.061013613 7
3.4742241 0.38478661 0.061013613 8
3.478066 0.38398328 0.18338521 9
3.4479463 0.37943828 -0.54939789 3
3.4413581 0.37749919 -0.4250803 4
3.4421914 0.37698099 -0.30295336 5
3.4626489 0.37800002 -0.18254784 6
3.4709804 0.37768364 -0.060943801 7
3.4775348 0.37286925 0.061048519 8
3.4853432 0.37247604 0.18369922 9
3.4544992 0.36674082 -0.42654276 4
3.4553742 0.3662239 -0.30399922 5
3.4679196 0.36632955 -0.18275717 6
3.4802327 0.36640194 -0.061083425 7
3.4728477 0.3601101 0.060943801 8
3.4965556 0.36133322 0.18422259 9
3.4676063 0.35589692 -0.42800516 4
3.4605954 0.35456702 -0.30434784 5
3.4691772 0.35422274 -0.18275717 6
3.4894483 0.35506022 -0.061223041 7
3.4780633 0.34838307 0.061013613 8
3.4918334 0.3485314 0.18390857 9
3.4609261 0.34300649 -0.42703021 4
3.469743 0.34326881 -0.3050451 5
3.4664173 0.34171808 -0.18254784 6
3.4986269 0.3436603 -0.061362665 7
3.4872198 0.33701041 0.061153233 8
3.4910405 0.33614981 0.18380389 9
3.4621022 0.33092424 -0.42703021 4
3.4788535 0.33191276 -0.30574232 5
3.4795189 0.33074903 -0.18317586 6
3.4958236 0.33106771 -0.061292849 7
3.5003214 0.32594723 0.061362665 8
3.5061138 0.32525393 0.18453661 9
3.4711432 0.31956425 -0.42800516 4
3.4760227 0.31940168 -0.30539373 5
3.4965639 0.32005844 -0.18401325 6
3.4929748 0.31850222 -0.061223041 7
3.4894879 0.31265518 0.061153233 8
3.509217 0.31318992 0.18464127 9
3.4801474 0.30814517 -0.42898014 4
3.4731472 0.30691615 -0.3050451 5
3.5016389 0.30820048 -0.18422259 6
3.5060179 0.30735442 -0.061432473 7
3.4945421 0.30081809 0.061223041 8
3.5182488 0.30162004 0.18505996 9
3.4930687 0.29700676 -0.43044254 4
3.4821386 0.29546359 -0.30574232 5
3.4947324 0.29530534 -0.18380389 6
3.5150399 0.295784 -0.06157209 7
3.5055358 0.28943983 0.061397567 8
3.5172391 0.28978983 0.18495528 9
3.4821639 0.28445104 -0.42898014 4
3.4950638 0.28427508 -0.30678821 5
3.4917605 0.28278127 -0.18359455 6
3.5319471 0.28541368 -0.06185133 7
3.510463 0.27812836 0.061467376 8
3.487046 0.273213 -0.42946759 4
3.4999597 0.27299571 -0.30713683 5
3.5086093 0.27243659 -0.18443193 6
3.5169241 0.27246645 -0.06157209 7
3.5153542 0.26678908 0.061537188 8
3.5008457 0.26138863 -0.30713683 5
3.5174606 0.26139289 -0.1848506 6
3.517854 0.26018748 -0.06157209 7
3.5142694 0.25437295 0.061502282 8
3.4977622 0.24888302 -0.30678821 5
3.5263205 0.24967806 -0.18526931 6
3.534699 0.24902965 -0.06185133 7
3.515136 0.24210337 0.061502282 8
3.506561 0.23720899 -0.30748546 5
3.515214 0.23656181 -0.18464127 6
3.5435276 0.23722477 -0.06199095 7
3.5279322 0.23061515 0.06171171 8
3.515321 0.22547826 -0.30818272 5
3.5239916 0.22479765 -0.18505996 6
3.5523167 0.22536129 -0.062130567 7
3.5307117 0.21842149 0.061746612 8
3.5320339 0.21355517 -0.3095772 5
3.5327291 0.21297674 -0.18547864 6
3.5450971 0.2124822 -0.06199095 7
3.5474229 0.20702846 0.062025853 8
3.5168445 0.20031743 -0.30818272 5
3.5414622 0.20047952 -0.18589734 6
3.5418241 0.19987993 -0.061921138 7
3.5441644 0.19380583 0.061956044 8
3.5215013 0.18825191 -0.30853131 5
3.5501182 0.18853903 -0.18631603 6
3.5624692 0.1885715 -0.062270187 7
3.5447876 0.1820526 0.061956044 8
3.5467346 0.17656747 -0.18610668 6
3.5710952 0.17653069 -0.062409807 7
3.5573862 0.1702522 0.062165473 8
3.5513194 0.16436973 -0.18631603 6
3.5796797 0.16443025 -0.062549427 7
3.5659497 0.15818711 0.062305093 8
3.5558622 0.15214381 -0.18652536 6
3.5722404 0.15159714 -0.062409807 7
3.568346 0.14020014 -0.1871534 6
3.5727479 0.13912582 -0.062409807 7
3.5808117 0.12754792 -0.18778142 6
3.5812054 0.12693614 -0.062549427 7
3.569258 0.11466204 -0.1871534 6
3.5936387 0.11419137 -0.062758856 7
3.5696542 0.10158008 -0.1871534 6
3.6060088 0.10198478 -0.062968284 7
3.5819509 0.090043992 -0.18778142 6
3.5983465 0.089199372 -0.06282866 7
3.6026344 0.076722443 -0.062898472 7
3.6148653 0.06499166 -0.0631079 7
3.6310568 0.053237505 -0.063387141 7
3.6272216 0.040518522 -0.063317336 7
3.6393433 0.027314665 -0.063526757 7
