# .PCD v0.7 - Point Cloud Data file format
VERSION 0.7
FIELDS x y z intensity
SIZE 4 4 4 4
TYPE F F F F
COUNT 1 1 1 1
WIDTH 505
HEIGHT 1
VIEWPOINT 0 0 0 1 0 0 0
POINTS 505
DATA ascii
2.5966482 0.57804215 -0.51709241 2
2.5968323 0.56809962 -0.51671082 2
2.586894 0.55836082 -0.51442105 2
2.588923 0.54887623 -0.51442105 2
2.585057 0.53863496 -0.51327622 2
2.5869217 0.52960747 -0.51327622 2
2.5772066 0.51825124 -0.51098651 2
2.5751472 0.50849307 -0.51022327 2
2.5806742 0.50069797 -0.51098651 2
2.5746918 0.49021712 -0.50946003 2
2.5801628 0.48239857 -0.51022327 2
2.570327 0.47081557 -0.50793356 2
2.5603607 0.45975918 -0.50564384 2
2.5928864 0.45626348 -0.51174974 2
2.6522176 0.68739128 -0.43394926 3
2.662256 0.68008661 -0.43520072 3
2.6512048 0.66741318 -0.43301064 3
2.6361489 0.65433413 -0.43019485 3
2.6229539 0.64183313 -0.42769188 3
2.6368115 0.63499063 -0.42956907 3
2.6313236 0.62395883 -0.42831761 3
2.6372256 0.61612767 -0.42894334 3
2.6238534 0.60383654 -0.42644039 3
2.6144891 0.59159911 -0.4245632 3
2.6166401 0.58201194 -0.4245632 3
2.6187556 0.57241815 -0.4245632 3
2.6204426 0.56464481 -0.4245632 3
2.610899 0.5525831 -0.42268598 3
2.612812 0.54346532 -0.42268598 3
2.6108222 0.53355235 -0.42206025 3
2.6087954 0.52365744 -0.42143452 3
2.6105177 0.51500273 -0.42143452 3
2.6006632 0.50363439 -0.4195573 3
2.5945566 0.49353144 -0.41830578 3
2.5962636 0.48447102 -0.41830578 3
2.6019082 0.47566307 -0.41893157 3
2.6035528 0.46657711 -0.41893157 3
2.5895216 0.45520413 -0.4164286 3
2.5833075 0.44482318 -0.41517711 3
2.5810246 0.43469384 -0.41455138 3
2.5864244 0.42632607 -0.41517711 3
2.5917244 0.41837576 -0.41580287 3
2.5775592 0.40686172 -0.41329992 3
2.5711546 0.39665768 -0.41204843 3
2.5783834 0.3885639 -0.41298702 3
2.5875416 0.38071084 -0.41423854 3
2.6980453 0.7884534 -0.34513399 4
2.6950595 0.77737957 -0.34440279 4
2.6939375 0.76688081 -0.34391531 4
2.6927762 0.75639814 -0.34342784 4
2.6839223 0.74381363 -0.34196541 4
2.6748853 0.731767 -0.34050298 4
2.6811302 0.7239269 -0.34099045 4
2.6798048 0.71354139 -0.34050298 4
2.6784384 0.70317644 -0.3400155 4
2.6655025 0.68984306 -0.33806559 4
2.6621242 0.67906183 -0.33733436 4
2.6662867 0.67071372 -0.33757812 4
2.6684961 0.66186881 -0.33757812 4
2.67079 0.65255058 -0.33757812 4
2.6537519 0.63857895 -0.33514073 4
2.6405118 0.62565082 -0.33319083 4
2.6522372 0.61914796 -0.33440951 4
2.6524479 0.60944098 -0.33416575 4
2.6565998 0.60015315 -0.33440951 4
2.6471541 0.58783078 -0.33294708 4
2.6298971 0.57389039 -0.33050969 4
2.6432321 0.56859136 -0.33197212 4
2.645201 0.55936062 -0.33197212 4
2.6394584 0.54804796 -0.33099717 4
2.6257954 0.53565621 -0.32904723 4
2.6276488 0.52648783 -0.32904723 4
2.633276 0.5185377 -0.32953474 4
2.6311717 0.50858974 -0.32904723 4
2.6250432 0.49837986 -0.32807231 4
2.6189604 0.48776039 -0.32709733 4
2.6128359 0.47718829 -0.3261224 4
2.6184754 0.46830812 -0.32660985 4
2.620014 0.45962289 -0.32660985 4
2.6216025 0.45047382 -0.32660985 4
2.6074982 0.43868577 -0.32465994 4
2.5934188 0.42654794 -0.32271007 4
2.6065779 0.41983876 -0.32417247 4
2.611949 0.41135696 -0.32465994 4
2.6094451 0.40163243 -0.32417247 4
2.5951269 0.39016083 -0.32222256 4
2.5886171 0.37994599 -0.32124761 4
2.6017179 0.37259555 -0.32271007 4
2.5990703 0.36296299 -0.32222256 4
2.5963879 0.35335228 -0.32173508 4
2.5857978 0.34272385 -0.32027265 4
2.5829825 0.33363786 -0.31978518 4
2.5880709 0.32511368 -0.32027265 4
2.5891898 0.31607944 -0.32027265 4
2.5902774 0.30703884 -0.32027265 4
2.5933053 0.29822132 -0.32051641 4
2.7486827 0.89575499 -0.25292596 5
2.7309318 0.87943619 -0.25100854 5
2.7224419 0.86674786 -0.24996266 5
2.7254505 0.85724133 -0.24996266 5
2.7320836 0.84938097 -0.25031129 5
2.7159863 0.83398998 -0.24856818 5
2.7152104 0.82287449 -0.24821955 5
2.7102897 0.81158048 -0.24752231 5
2.7206085 0.80484843 -0.24821955 5
2.7157516 0.79311204 -0.24752231 5
2.7070167 0.78031689 -0.24647643 5
2.7020586 0.76868284 -0.24577919 5
2.6970525 0.75709152 -0.24508193 5
2.7035189 0.74873662 -0.24543057 5
2.7061162 0.73929429 -0.24543057 5
2.689316 0.72513008 -0.24368747 5
2.687855 0.71518254 -0.24333882 5
2.690335 0.70579642 -0.24333882 5
2.6889246 0.69540268 -0.24299021 5
2.687474 0.68502998 -0.24264158 5
2.6782546 0.67273176 -0.24159572 5
2.6688673 0.66097218 -0.24054985 5
2.6750293 0.65259701 -0.24089848 5
2.6772909 0.64325601 -0.24089848 5
2.6795201 0.63390589 -0.24089848 5
2.658323 0.61958897 -0.23880674 5
2.6604695 0.61030656 -0.23880674 5
2.6665757 0.60142857 -0.23915535 5
2.6648719 0.59078795 -0.23880674 5
2.6709125 0.58186549 -0.23915535 5
2.6511998 0.56933588 -0.23723793 5
2.6473224 0.55884397 -0.23671499 5
2.6531587 0.55040836 -0.2370636 5
2.6472547 0.53955406 -0.23636638 5
2.6569364 0.5318737 -0.2370636 5
2.6470473 0.52028978 -0.23601775 5
2.6409333 0.50999713 -0.23532049 5
2.638782 0.50003409 -0.23497188 5
2.6483469 0.49227703 -0.23566914 5
2.6461287 0.48231557 -0.23532049 5
2.6262217 0.46922055 -0.23340309 5
2.6258812 0.45970619 -0.23322876 5
2.6294334 0.45087463 -0.23340309 5
2.6290267 0.44136286 -0.23322876 5
2.6344829 0.43283096 -0.23357739 5
2.6163061 0.42047015 -0.23183426 5
2.61375 0.41117188 -0.23148565 5
2.6230462 0.40325722 -0.23218289 5
2.6165566 0.3929157 -0.23148565 5
2.615941 0.38349012 -0.23131134 5
2.6074018 0.37294644 -0.23043977 5
2.6027679 0.36301631 -0.22991684 5
2.6059935 0.35419759 -0.23009115 5
2.6111646 0.34562102 -0.23043977 5
2.6103203 0.33670583 -0.23026547 5
2.5936878 0.32535949 -0.22869666 5
2.5948076 0.31630439 -0.22869666 5
2.5919387 0.30677584 -0.22834805 5
2.6009114 0.29863605 -0.22904527 5
2.5959976 0.28889483 -0.22852236 5
2.5831234 0.2783365 -0.22730216 5
2.580116 0.26890552 -0.22695355 5
2.5810392 0.25989687 -0.22695355 5
2.5858526 0.25172302 -0.22730216 5
2.5867155 0.24269572 -0.22730216 5
2.5756414 0.23258913 -0.22625631 5
2.5645278 0.22256398 -0.22521043 5
2.6069851 0.21708205 -0.22887097 5
2.7582574 0.90847003 -0.15219298 6
2.7766054 0.90378112 -0.15303035 6
2.771982 0.89212167 -0.15261166 6
2.7560458 0.87638837 -0.15156494 6
2.7475049 0.86364985 -0.1509369 6
2.7428734 0.85168415 -0.15051822 6
2.7456825 0.84258431 -0.15051822 6
2.7488978 0.83203489 -0.15051822 6
2.7363334 0.81833708 -0.14968085 6
2.7275391 0.80586481 -0.14905281 6
2.7265007 0.7952199 -0.14884347 6
2.733099 0.78680217 -0.14905281 6
2.7358284 0.77725756 -0.14905281 6
2.7231402 0.76338941 -0.14821544 6
2.7180884 0.75175017 -0.14779675 6
2.7168424 0.74120563 -0.14758742 6
2.7192852 0.73219275 -0.14758742 6
2.7216988 0.72317046 -0.14758742 6
2.7087498 0.70961696 -0.14675003 6
2.7034748 0.69816035 -0.14633135 6
2.7097666 0.68970376 -0.1465407 6
2.7044084 0.6782977 -0.14612199 6
2.7105205 0.67028534 -0.14633135 6
2.701086 0.6584543 -0.14570332 6
2.6937702 0.64622092 -0.14517996 6
2.6979535 0.63727236 -0.14528462 6
2.701997 0.62877536 -0.1453893 6
2.6983349 0.61800146 -0.14507528 6
2.6888914 0.60547423 -0.14444725 6
2.6832919 0.593889 -0.14402856 6
2.6874022 0.58447534 -0.14413324 6
2.6831653 0.57571185 -0.14381923 6
2.6911209 0.56710726 -0.14413324 6
2.6754818 0.55406672 -0.14319119 6
2.6695712 0.5431307 -0.14277251 6
2.673409 0.53420073 -0.14287716 6
2.6771259 0.5257166 -0.14298184 6
2.6750224 0.51561302 -0.14277251 6
2.6688678 0.50525272 -0.1423538 6
2.6647241 0.49484012 -0.14203981 6
2.660625 0.48399705 -0.14172579 6
2.6701629 0.47610974 -0.14214447 6
2.6677923 0.46656495 -0.14193512 6
2.6516876 0.45421419 -0.14099309 6
2.6553042 0.44482279 -0.14109775 6
2.6568408 0.43555063 -0.14109775 6
2.6484106 0.42515424 -0.1405744 6
2.6557977 0.4168379 -0.14088841 6
2.6394689 0.40483895 -0.13994636 6
2.6290147 0.39384818 -0.13931833 6
2.640255 0.38611317 -0.13984169 6
2.6415868 0.37689391 -0.13984169 6
2.6409078 0.36739609 -0.13973701 6
2.6362367 0.35736975 -0.139423 6
2.6295476 0.34712169 -0.13900432 6
2.638608 0.33941841 -0.139423 6
2.6397769 0.33020517 -0.139423 6
2.6409135 0.32098791 -0.139423 6
2.6261499 0.30989683 -0.13858563 6
2.6192784 0.29981869 -0.13816693 6
2.6282494 0.29155529 -0.13858563 6
2.6252794 0.28195193 -0.13837628 6
2.6262476 0.27278557 -0.13837628 6
2.6232092 0.26321834 -0.13816693 6
2.6041884 0.25259036 -0.13712022 6
2.6089888 0.24432491 -0.13732956 6
2.6138451 0.23511928 -0.1375389 6
2.6066906 0.22530517 -0.13712022 6
2.6034803 0.21587647 -0.13691087 6
2.5962539 0.20615424 -0.13649218 6
2.5969234 0.19754289 -0.13649218 6
2.6055655 0.18905421 -0.13691087 6
2.6022243 0.17968456 -0.13670154 6
2.5948637 0.17007679 -0.13628285 6
2.587496 0.16007106 -0.13586415 6
2.5880389 0.15103859 -0.13586415 6
2.5965023 0.14289378 -0.13628285 6
2.7877128 0.83317417 -0.050786503 7
2.7771788 0.81947589 -0.050542168 7
2.762743 0.80474412 -0.050228026 7
2.757848 0.79288459 -0.050088406 7
2.7529044 0.7810691 -0.049948789 7
2.7517622 0.77037722 -0.049878977 7
2.7544343 0.76076764 -0.049878977 7
2.7453666 0.74847287 -0.049669549 7
2.7401092 0.73728693 -0.049529929 7
2.746532 0.72874403 -0.049599741 7
2.7413208 0.71712726 -0.04946012 7
2.7399342 0.70655578 -0.049390312 7
2.7346318 0.69501626 -0.049250688 7
2.7291627 0.68400013 -0.049111072 7
2.719768 0.67206711 -0.048901644 7
2.7298698 0.6644603 -0.049041264 7
2.732172 0.65492904 -0.049041264 7
2.7266567 0.64354986 -0.048901644 7
2.7209849 0.6326921 -0.048762023 7
2.7192783 0.62229866 -0.048692215 7
2.7254429 0.61320502 -0.048762023 7
2.7159567 0.60062146 -0.048552595 7
2.702507 0.58726645 -0.048273355 7
2.6964164 0.57756931 -0.048133738 7
2.698416 0.5681541 -0.048133738 7
2.7083135 0.55987871 -0.048273355 7
2.7024126 0.54883015 -0.048133738 7
2.6963735 0.53830022 -0.047994118 7
2.690387 0.52734554 -0.047854498 7
2.692121 0.51842022 -0.047854498 7
2.6939142 0.50902039 -0.047854498 7
2.6956744 0.49961433 -0.047854498 7
2.6777272 0.48662668 -0.04750545 7
2.6754723 0.47657463 -0.047435641 7
2.6771195 0.4672319 -0.047435641 7
2.6787343 0.45788473 -0.047435641 7
2.6763716 0.44787058 -0.047365833 7
2.6739714 0.43788108 -0.047296021 7
2.6675858 0.42727876 -0.047156405 7
2.6651101 0.41734508 -0.047086593 7
2.6744573 0.40925002 -0.047226213 7
2.6719141 0.39932007 -0.047156405 7
2.6574616 0.38768214 -0.046877164 7
2.6548393 0.37783927 -0.046807356 7
2.6521804 0.36802071 -0.046737548 7
2.6534488 0.35876119 -0.046737548 7
2.6546853 0.34949604 -0.046737548 7
2.6478961 0.33967236 -0.046597924 7
2.6490653 0.33042926 -0.046597924 7
2.6462321 0.32069838 -0.046528116 7
2.6473353 0.31145993 -0.046528116 7
2.6484065 0.30221641 -0.046528116 7
2.6375198 0.2916505 -0.046318687 7
2.6345451 0.2820169 -0.046248876 7
2.6355133 0.27281946 -0.046248876 7
2.6364038 0.26407757 -0.046248876 7
2.6372647 0.25533399 -0.046248876 7
2.6301758 0.24538422 -0.046109259 7
2.6190665 0.23512816 -0.045899831 7
2.6278796 0.22621383 -0.046039447 7
2.6246679 0.21670964 -0.045969639 7
2.6253719 0.208004 -0.045969639 7
2.6141181 0.1979344 -0.045760211 7
2.6147931 0.18880755 -0.045760211 7
2.6154361 0.1796796 -0.045760211 7
2.6200385 0.17080842 -0.045830019 7
2.616627 0.16141479 -0.045760211 7
2.6051965 0.15158369 -0.045550782 7
2.6016915 0.14272515 -0.045480974 7
2.6021502 0.13409613 -0.045480974 7
2.6065755 0.12565947 -0.045550782 7
2.607059 0.1151944 -0.045550782 7
2.5994346 0.10622115 -0.045411162 7
2.5877998 0.096700534 -0.045201734 7
2.5921185 0.087801531 -0.045271542 7
2.5964067 0.078874804 -0.04534135 7
2.6006644 0.069917969 -0.045411162 7
2.5948951 0.060698546 -0.045306448 7
2.7542593 0.74625158 0.049809169 8
2.7528555 0.73608017 0.049739357 8
2.7534738 0.72595847 0.049704451 8
2.7521205 0.71533585 0.049634643 8
2.7546008 0.705724 0.049634643 8
2.7531698 0.69512594 0.049564835 8
2.7457573 0.6835773 0.049390312 8
2.7344148 0.67113101 0.049145978 8
2.7328537 0.66064149 0.049076166 8
2.7333112 0.65015852 0.049041264 8
2.7451868 0.64337301 0.049215786 8
2.7239239 0.62886733 0.048796929 8
2.7203603 0.61755198 0.048692215 8
2.7206535 0.60714221 0.048657309 8
2.7287207 0.59844959 0.048762023 8
2.7226655 0.58866209 0.048622403 8
2.7031882 0.57458061 0.048238453 8
2.7013609 0.56385249 0.048168644 8
2.7033129 0.55441886 0.048168644 8
2.7111123 0.54616439 0.048273355 8
2.7129085 0.53717154 0.048273355 8
2.6951377 0.52388215 0.047924306 8
2.690968 0.51381606 0.047819596 8
2.692745 0.50442028 0.047819596 8
2.6944895 0.49501702 0.047819596 8
2.6962855 0.48513848 0.047819596 8
2.6840944 0.47376201 0.047575258 8
2.6739092 0.46234491 0.047365833 8
2.6833932 0.4543443 0.04750545 8
2.6850405 0.44450542 0.04750545 8
2.6825519 0.43496078 0.047435641 8
2.6741786 0.42402771 0.047261119 8
2.6716907 0.41407728 0.047191311 8
2.6731198 0.40474939 0.047191311 8
2.6705596 0.39483029 0.047121495 8
2.6758802 0.38607764 0.047191311 8
2.6653304 0.37506208 0.046981879 8
2.6606796 0.36494142 0.046877164 8
2.6599553 0.35538742 0.046842258 8
2.6571534 0.34604749 0.04677245 8
2.6662807 0.33777478 0.04691207 8
2.6515656 0.32651234 0.04663283 8
2.6387906 0.31559169 0.046388499 8
2.6537805 0.30799171 0.04663283 8
2.6528523 0.29850337 0.046597924 8
2.6479142 0.28859067 0.04649321 8
2.6389623 0.27829793 0.046318687 8
2.6299706 0.26806995 0.046144161 8
2.6368151 0.25993621 0.046248876 8
2.6396537 0.25137967 0.046283782 8
2.6365323 0.24180061 0.046213973 8
2.6314249 0.23160766 0.046109259 8
2.6202614 0.22141242 0.045899831 8
2.6349704 0.21339388 0.046144161 8
2.6336703 0.2044993 0.046109259 8
2.6343679 0.19530539 0.046109259 8
2.6230652 0.18526377 0.045899831 8
2.6177104 0.17570399 0.045795113 8
2.6183076 0.16656595 0.045795113 8
2.6268852 0.1574474 0.045934737 8
2.6194067 0.14828266 0.045795113 8
2.603909 0.13874489 0.045515876 8
2.6043549 0.13010854 0.045515876 8
2.6148441 0.12011116 0.045690399 8
2.6152282 0.11143988 0.045690399 8
2.6175814 0.10284464 0.045725305 8
2.6039355 0.093208015 0.045480974 8
2.5942519 0.083794542 0.045306448 8
2.5945287 0.074737713 0.045306448 8
2.604769 0.065934211 0.045480974 8
2.602984 0.056797158 0.045446068 8
2.5831726 0.0473448 0.04509702 8
2.5833223 0.038326867 0.04509702 8
2.5854449 0.028881172 0.045131925 8
2.5855267 0.020307885 0.045131925 8
2.5915785 0.011760364 0.045236636 8
2.5756061 0.0031472859 0.044957399 8
2.7475822 0.65304655 0.1480061 9
2.7614009 0.64666325 0.14863414 9
2.7616947 0.63657212 0.14852946 9
2.7542703 0.62423903 0.1480061 9
2.7409441 0.61066461 0.14716873 9
2.7431636 0.60061508 0.14716873 9
2.7429817 0.59205109 0.14706406 9
2.7430778 0.58205873 0.14695938 9
2.7393265 0.57077926 0.14664535 9
2.7334757 0.55961072 0.14622667 9
2.7255266 0.54857326 0.14570332 9
2.7293839 0.53944248 0.14580798 9
2.7311578 0.53038913 0.14580798 9
2.7310309 0.52047777 0.14570332 9
2.7230148 0.50910681 0.14517996 9
2.7129879 0.49743795 0.14455192 9
2.7127423 0.48761082 0.14444725 9
2.7183619 0.47883213 0.1446566 9
2.714112 0.46832079 0.14434259 9
2.7039142 0.45684674 0.14371455 9
2.6956398 0.44577813 0.14319119 9
2.701123 0.43700317 0.14340053 9
2.7065773 0.42819658 0.14360988 9
2.7021339 0.41782987 0.14329587 9
2.6897523 0.40630618 0.14256316 9
2.6872022 0.39633241 0.1423538 9
2.6964769 0.38808861 0.14277251 9
2.6978152 0.37867433 0.14277251 9
2.6971416 0.36898345 0.14266783 9
2.6865349 0.35798287 0.14203981 9
2.6797848 0.34804234 0.14162111 9
2.6829648 0.33893821 0.14172579 9
2.6821489 0.32932672 0.14162111 9
2.6872485 0.32043579 0.14183044 9
2.6804147 0.31013465 0.14141177 9
2.6695721 0.29943985 0.14078373 9
2.6686158 0.28990439 0.14067906 9
2.673584 0.2810055 0.14088841 9
2.6705272 0.27173293 0.14067906 9
2.6594875 0.26170263 0.14005104 9
2.6524315 0.25166366 0.13963234 9
2.6572719 0.2427661 0.13984169 9
2.6581438 0.23302568 0.13984169 9
2.658941 0.22374488 0.13984169 9
2.6477237 0.21396032 0.13921365 9
2.6444719 0.20441072 0.13900432 9
2.6451693 0.19517782 0.13900432 9
2.6458344 0.18594383 0.13900432 9
2.6464674 0.1767063 0.13900432 9
2.6351082 0.16671 0.13837628 9
2.6316869 0.15727301 0.13816693 9
2.6401703 0.14899583 0.13858563 9
2.64065 0.14023915 0.13858563 9
2.6411006 0.1314822 0.13858563 9
2.6296358 0.12033071 0.1379576 9
2.6220384 0.1112729 0.1375389 9
2.7620056 0.57500184 0.24682505 10
2.7581406 0.56415868 0.24630213 10
2.7639992 0.55531299 0.24665076 10
2.7620118 0.54488951 0.24630213 10
2.7383757 0.53079903 0.24403608 10
2.7362969 0.52049303 0.24368747 10
2.7438836 0.51251298 0.24421038 10
2.7496636 0.50316924 0.24455902 10
2.729831 0.48969889 0.24264158 10
2.725637 0.47913146 0.24211864 10
2.7468452 0.47347522 0.24386176 10
2.7289155 0.46009257 0.24211864 10
2.7540944 0.45445585 0.24421038 10
2.7359946 0.44166496 0.24246727 10
2.7256362 0.4307242 0.24142142 10
2.7153091 0.41938189 0.24037553 10
2.7246366 0.41109067 0.24107277 10
2.7181709 0.40041527 0.24037553 10
2.7096915 0.38950652 0.23950398 10
2.7070882 0.37949288 0.23915535 10
2.7044485 0.36950096 0.23880674 10
2.7057216 0.3600603 0.23880674 10
2.7148042 0.35211012 0.23950398 10
2.7002029 0.34063587 0.23810948 10
2.6934652 0.33024034 0.23741224 10
2.6985583 0.32130677 0.23776087 10
2.6937261 0.31119841 0.23723793 10
2.6967759 0.30201599 0.23741224 10
2.6879096 0.29152575 0.23654069 10
2.6809847 0.28131032 0.23584343 10
2.6819503 0.2719495 0.23584343 10
2.6868031 0.26344371 0.23619205 10
2.6896458 0.25471961 0.23636638 10
2.6826246 0.24413817 0.23566914 10
2.6755209 0.23407723 0.23497188 10
2.6743362 0.22457163 0.23479758 10
2.6751039 0.21523437 0.23479758 10
2.7629914 0.49465209 0.34464651 11
2.7743924 0.48720422 0.34586522 11
2.7643385 0.47549707 0.34440279 11
2.7620661 0.46518469 0.34391531 11
2.7578764 0.45409116 0.34318411 11
2.7534876 0.44399574 0.34245288 11
2.7471771 0.43314549 0.34147793 11
2.7369008 0.42173874 0.3400155 11
2.7285416 0.41070452 0.33879682 11
2.7338865 0.40175545 0.33928427 11
2.739202 0.39277405 0.33977175 11
2.7425225 0.38348553 0.3400155 11
2.7300761 0.372033 0.33830932 11
2.7234867 0.36145562 0.33733436 11
2.7246704 0.35242146 0.33733436 11
2.7239141 0.34266254 0.33709061 11
