# .PCD v0.7 - Point Cloud Data file format
VERSION 0.7
FIELDS x y z intensity
SIZE 4 4 4 4
TYPE F F F F
COUNT 1 1 1 1
WIDTH 627
HEIGHT 1
VIEWPOINT 0 0 0 1 0 0 0
POINTS 627
DATA ascii
2.240746 1.4707758 -0.14046971 6
2.2341514 1.4553148 -0.13973701 6
2.2210183 1.4351923 -0.13858563 6
2.2243328 1.426353 -0.13848096 6
2.2189417 1.412533 -0.13785292 6
2.2541997 1.4338737 -0.04663283 7
2.2238586 1.4047794 -0.13785292 6
2.2422814 1.4153221 -0.046283782 7
2.2321329 1.3991301 -0.13806225 6
2.2217877 1.3915641 -0.045760211 7
2.2370036 1.3913293 -0.13806225 6
2.2402186 1.3922447 -0.046039447 7
2.2248504 1.3730226 -0.13701554 6
2.2450652 1.3844157 -0.046039447 7
2.1999347 1.3481219 -0.22573337 5
2.2262228 1.3631625 -0.1368062 6
2.2496433 1.3769637 -0.046039447 7
2.2163091 1.3480663 -0.22695355 5
2.2341442 1.3578477 -0.13701554 6
2.2473617 1.3653424 -0.045899831 7
2.224412 1.3423821 -0.22730216 5
2.2386351 1.350431 -0.13701554 6
2.2349865 1.3471677 -0.045550782 7
2.2102811 1.3233505 -0.22538476 5
2.2469974 1.3442682 -0.1372249 6
2.2534058 1.347568 -0.045830019 7
2.2471647 1.3385156 0.045655496 8
2.2200255 1.3186799 -0.22590767 5
2.2310658 1.3241832 -0.13596882 6
2.2445695 1.3311402 -0.045550782 7
2.2483799 1.3286291 0.045585688 8
2.2280486 1.3129452 -0.22625631 5
2.2373955 1.3174013 -0.1360735 6
2.2492027 1.3232963 -0.045550782 7
2.2581787 1.3238071 0.045690399 8
2.229178 1.303148 -0.22590767 5
2.2368064 1.3065616 -0.13575949 6
2.2397637 1.3077635 -0.045271542 7
2.2573717 1.3132942 0.045585688 8
2.2199249 1.2873634 -0.2245132 5
2.2428551 1.3001379 -0.13586415 6
2.240854 1.2979332 -0.045201734 7
2.2463539 1.2964109 0.045271542 8
2.2207277 1.2780076 -0.22416456 5
2.2421858 1.2893136 -0.13555014 6
2.2451458 1.2904956 -0.045201734 7
2.2367582 1.2810047 0.044992302 8
2.2286363 1.2722231 -0.2245132 5
2.2360399 1.2759334 -0.1349221 6
2.2461627 1.2806691 -0.045131925 7
2.2499101 1.2781272 0.045166828 8
2.2296259 1.2635179 -0.31466666 4
2.2293754 1.262862 -0.22416456 5
2.2387424 1.2671361 -0.13481744 6
2.2506189 1.2728213 -0.045131925 7
2.2526162 1.2692835 0.045131925 8
2.292083 1.2904681 0.13785292 9
2.2253709 1.2508634 -0.31344795 4
2.2302957 1.2531208 -0.22381593 5
2.2344444 1.2544245 -0.13429408 6
2.2445843 1.259087 -0.044922493 7
2.2535417 1.259462 0.045062114 8
2.2651851 1.264932 0.13596882 9
2.2245219 1.2401884 -0.31271678 4
2.2279124 1.2410581 -0.22311871 5
2.2388093 1.2466176 -0.13429408 6
2.245471 1.2492992 -0.044852685 7
2.2439327 1.2438318 0.044782877 8
2.2678394 1.2560502 0.13586415 9
2.2288377 1.2324152 -0.31271678 4
2.2217665 1.2274942 -0.22207282 5
2.2538545 1.2441944 -0.1349221 6
2.246316 1.2395228 -0.044782877 7
2.2379613 1.2298211 0.044573449 8
2.2704597 1.247164 0.13575949 9
2.2315989 1.2232841 -0.31247303 4
2.2295325 1.2216455 -0.22242144 5
2.2459204 1.2296059 -0.13418941 6
2.2541375 1.2335935 -0.044852685 7
2.2525611 1.2281369 0.044782877 8
2.2642756 1.2334988 0.13513145 9
2.2286675 1.2120839 -0.31149808 4
2.2302821 1.2119534 -0.22207282 5
2.2341897 1.2135719 -0.13324735 6
2.2549148 1.2238103 -0.044782877 7
2.2497985 1.2164614 0.044643257 8
2.2597818 1.2208402 0.13460809 9
2.2189078 1.1967578 -0.30954817 4
2.2380071 1.2060506 -0.22242144 5
2.2419295 1.2076597 -0.13345671 6
2.2486081 1.2102448 -0.044573449 7
2.2575555 1.2104912 0.044713065 8
2.2622695 1.212001 0.13450342 9
2.2230716 1.1890055 -0.30954817 4
2.2281456 1.1907182 -0.22102696 5
2.2463405 1.199435 -0.13345671 6
2.2492907 1.2005045 -0.044503637 7
2.2425532 1.1918858 0.044329114 8
2.2596402 1.1999546 0.13408473 9
2.2309225 1.1827086 -0.31003565 4
2.2252467 1.1792022 -0.22032972 5
2.2487488 1.1906512 -0.13335203 6
2.2466052 1.1885123 -0.044364017 7
2.244931 1.1831176 0.044294208 8
2.2673495 1.1939214 0.13429408 9
2.216697 1.1662612 -0.39671785 3
2.2385511 1.1767617 -0.31052312 4
2.2293489 1.1714278 -0.22032972 5
2.2422805 1.1772244 -0.13272399 6
2.2578239 1.1843783 -0.044503637 7
2.2490475 1.1752735 0.044294208 8
2.2642145 1.1826977 0.13387538 9
2.2750032 1.1873211 0.2245132 10
2.219003 1.1576033 -0.39640498 3
2.2285631 1.1615998 -0.30857319 4
2.2334242 1.1636393 -0.22032972 5
2.2392905 1.1657007 -0.13230531 6
2.2617383 1.176886 -0.044503637 7
2.2564828 1.1696498 0.044364017 8
2.2612355 1.1711123 0.13345671 9
2.2702861 1.1747948 0.22364163 10
2.2280934 1.1529615 -0.39734361 3
2.2235858 1.1496452 -0.30735451 4
2.2410128 1.1576643 -0.22067833 5
2.2449183 1.1591854 -0.13240999 6
2.2516158 1.1616485 -0.0442244 7
2.2587733 1.1608527 0.044329114 8
2.2651069 1.1636066 0.13345671 9
2.2759416 1.1681699 0.22381593 10
2.2250743 1.1415694 -0.39609212 3
2.2293515 1.1427824 -0.30759826 4
2.2306545 1.1429573 -0.21928383 5
2.2507281 1.1522526 -0.13251466 6
2.2518957 1.152353 -0.044154592 7
2.2608292 1.1524471 0.044294208 8
2.2727134 1.1575072 0.13366605 9
2.2693517 1.1547962 0.22277008 10
2.2235658 1.1314974 -0.39515349 3
2.2313597 1.134483 -0.30735451 4
2.227525 1.1315551 -0.21858659 5
2.2563181 1.1456863 -0.13261932 6
2.2559042 1.1444858 -0.044154592 7
2.2523456 1.1382343 0.044049874 8
2.2803061 1.1513667 0.13387538 9
2.2731688 1.1472638 0.22277008 10
2.2169197 1.1183909 -0.3932763 3
2.2317612 1.1248997 -0.30686703 4
2.2348235 1.1259555 -0.21893522 5
2.2442479 1.1297203 -0.13167727 6
2.2598851 1.1366048 -0.044154592 7
2.2580919 1.1312624 0.044084776 8
2.2753816 1.1389294 0.13335203 9
2.277159 1.1393236 0.22277008 10
2.2208104 1.1106449 -0.3932763 3
2.2250187 1.1117802 -0.3054046 4
2.2405231 1.1190373 -0.21910954 5
2.2446027 1.1200975 -0.13146794 6
2.2674184 1.1304933 -0.0442244 7
2.2656093 1.1251516 0.044154592 8
2.2650299 1.1238785 0.13251466 9
2.2775524 1.1295967 0.22242144 10
2.224674 1.1028855 -0.3932763 3
2.2235498 1.1013628 -0.30467337 4
2.2392521 1.1081673 -0.21858659 5
2.2484992 1.112255 -0.13146794 6
2.2570088 1.115484 -0.04394516 7
2.2623463 1.113704 0.044014968 8
2.2725239 1.1177275 0.13272399 9
2.2745245 1.117727 0.22172421 10
2.2287011 1.0947248 -0.3932763 3
2.2309451 1.0953438 -0.30516088 4
2.2359519 1.0968336 -0.21788934 5
2.2561474 1.1057647 -0.13167727 6
2.2572978 1.1058387 -0.043875352 7
2.2664132 1.1054039 0.044014968 8
2.2766051 1.1093913 0.13272399 9
2.2712476 1.1062901 0.22102696 10
2.2200761 1.0808859 -0.39108619 3
2.3007977 1.1196901 0.31417918 11
2.2349446 1.0871601 -0.30516088 4
2.2290163 1.0837941 -0.21684349 5
2.2564006 1.0961366 -0.13146794 6
2.2649333 1.0993048 -0.04394516 7
2.2522542 1.0887831 0.043665919 8
2.2804639 1.1014371 0.13272399 9
2.2115841 1.068169 -0.47740412 2
2.2715068 1.0966233 0.22067833 10
2.2167192 1.0696963 -0.38983473 3
2.2975407 1.1082017 0.31320426 11
2.2351491 1.0776283 -0.30467337 4
2.2363749 1.0777382 -0.2171921 5
2.253015 1.0847884 -0.13104925 6
2.2651532 1.0896575 -0.043875352 7
2.2560415 1.0809141 0.043665919 8
2.2768984 1.0904186 0.13230531 9
2.2117574 1.0587478 -0.47664091 2
2.2825103 1.0921267 0.22137558 10
2.2204399 1.0619514 -0.38983473 3
2.2834849 1.0916139 0.31076685 11
2.2351289 1.0684974 -0.3041859 4
2.2401235 1.0699246 -0.2171921 5
2.2495778 1.0734761 -0.13063055 6
2.2723637 1.0838623 -0.04394516 7
2.2650321 1.0760015 0.043770637 8
2.2732856 1.0794348 0.13188663 9
2.2099349 1.0488825 -0.47549605 2
2.2825186 1.0828441 0.22102696 10
2.2239494 1.0545818 -0.38983473 3
2.296061 1.0882872 0.31198555 11
2.2278969 1.0559787 -0.3027235 4
2.247261 1.064195 -0.21754073 5
2.2567358 1.0677191 -0.1308399 6
2.2614837 1.069481 -0.043665919 7
2.2703972 1.0693359 0.043805543 8
2.271431 1.0693398 0.1315726 9
2.2080724 1.03904 -0.47435117 2
2.2788858 1.0718765 0.22032972 10
2.2274339 1.0472014 -0.38983473 3
2.2960646 1.0789779 0.31149808 11
2.2349799 1.0502727 -0.30321094 4
2.2399564 1.0516571 -0.21649487 5
2.2566478 1.0585326 -0.13063055 6
2.2613964 1.0602784 -0.043596111 7
2.2612472 1.0558791 0.043561205 8
2.2749646 1.061801 0.1315726 9
2.2115054 1.0317124 -0.47435117 2
2.2752049 1.060946 0.21963248 10
2.2201517 1.0348026 -0.38795751 3
2.2978301 1.0705202 0.31125432 11
2.2456477 1.0462092 -0.3041859 4
2.2398186 1.0425421 -0.21614623 5
2.2637675 1.0527282 -0.1308399 6
2.2612736 1.0510873 -0.043526303 7
2.2562094 1.0429928 0.043386683 8
2.2900879 1.0576842 0.13220063 9
2.215451 1.0232128 -0.47435117 2
2.2810709 1.0530366 0.21980678 10
2.220521 1.0246154 -0.38733178 3
2.2947135 1.0583631 0.31027937 11
2.2390132 1.0321993 -0.3027235 4
2.2365668 1.0305995 -0.21544899 5
2.2532797 1.037346 -0.13000253 6
2.2691078 1.0436732 -0.043596111 7
2.259836 1.0351113 0.043386683 8
2.2719724 1.0397111 0.13094458 9
2.222579 1.0171075 -0.47511441 2
2.2847323 1.0450681 0.21980678 10
2.2240844 1.0168575 -0.38733178 3
2.2857559 1.0445702 0.30857319 11
2.2317686 1.0194291 -0.30126104 4
2.2419634 1.0236131 -0.21562332 5
2.2496181 1.0261592 -0.12958384 6
2.2690983 1.0340871 -0.043526303 7
2.2670777 1.0288689 0.043456491 8
2.2644947 1.02722 0.13031654 9
2.2118115 1.0028578 -0.47206149 2
2.2865522 1.0362636 0.21963248 10
2.2240219 1.007457 -0.38670605 3
2.2893872 1.0365868 0.30857319 11
2.2316966 1.009995 -0.30077356 4
2.2963595 1.0392594 0.39922079 12
2.2455232 1.0157803 -0.21562332 5
2.2604668 1.0215899 -0.13000253 6
2.2615805 1.0216179 -0.043316875 7
2.2704768 1.0213457 0.043456491 8
2.2808185 1.0250409 0.13104925 9
2.2063448 0.99110812 -0.47015342 2
2.2828851 1.0250107 0.21893522 10
2.2345591 1.0033123 -0.38795751 3
2.2964346 1.0306141 0.30906066 11
2.2314112 1.0009644 -0.30028611 4
2.2927637 1.0280039 0.39796934 12
2.2363279 1.0022324 -0.21440312 5
2.2601962 1.0124557 -0.12979318 6
2.2541809 1.0088165 -0.043107443 7
2.266722 1.0101587 0.043316875 8
2.2789094 1.0146353 0.13073523 9
2.2221742 0.98937523 -0.47282472 2
2.2808101 1.0150061 0.21841228 10
2.223608 0.98908502 -0.3854546 3
2.3054602 1.0250106 0.30979189 11
2.2457755 0.99800646 -0.30174851 4
2.3017533 1.0224017 0.39890796 12
2.2323556 0.99157637 -0.21370588 5
2.2637169 1.0045594 -0.12979318 6
2.2613451 1.0025623 -0.043177254 7
2.2665758 1.0006243 0.043247063 8
2.2824364 1.0066758 0.13073523 9
2.2770474 1.003823 0.21771504 10
2.2198164 0.97813046 -0.38420308 3
2.2981234 1.0121577 0.30832946 11
2.2456119 0.98856097 -0.30126104 4
2.3071165 1.0151558 0.39922079 12
2.2358036 0.98377728 -0.21370588 5
2.2598958 0.99343693 -0.1293745 6
2.268492 0.99627233 -0.043247063 7
2.2645586 0.99030215 0.043142349 8
2.2712951 0.9923051 0.12989786 9
2.2878413 0.99905717 0.21841228 10
2.2195964 0.96879601 -0.38357735 3
2.2925451 1.00016 0.30711079 11
2.2381315 0.97595501 -0.29979861 4
2.307024 1.0055182 0.39859506 12
2.2428765 0.97755945 -0.2140545 5
2.2487006 0.97916275 -0.12853712 6
2.2756236 0.98994255 -0.043316875 7
2.2661657 0.98159796 0.043107443 8
2.2674136 0.98119742 0.12947917 9
2.2913139 0.99106663 0.21841228 10
2.2302175 0.96417719 -0.38482881 3
2.2887335 0.9890011 0.3061358 11
2.2397017 0.96735102 -0.29955488 4
2.303266 0.99432683 0.39734361 12
2.2499337 0.97130316 -0.21440312 5
2.2594404 0.97447181 -0.12895581 6
2.2717197 0.97882736 -0.043177254 7
2.2769296 0.97683465 0.043247063 8
2.2855103 0.97957146 0.13031654 9
2.2837715 0.97835451 0.21736643 10
2.2335699 0.95638579 -0.38482881 3
2.3067715 0.98725486 0.30808574 11
2.2412398 0.95874566 -0.29931113 4
2.2994576 0.98317379 0.39609212 12
2.2349911 0.95560998 -0.21266 5
2.2628281 0.96657938 -0.12895581 6
2.2604084 0.96461308 -0.042898018 7
2.2656016 0.96262532 0.042967826 8
2.2778852 0.9669047 0.12968852 9
2.2816699 0.96804255 0.21684349 10
2.2223454 0.9424141 -0.38232586 3
2.3047209 0.97687209 0.30735451 11
2.2445726 0.95091695 -0.29931113 4
2.3065133 0.97668219 0.39671785 12
2.2309744 0.94469565 -0.21196276 5
2.2661886 0.95867419 -0.12895581 6
2.2674458 0.95827311 -0.042967826 7
2.2634187 0.95238376 0.042863112 8
2.2884429 0.96244323 0.13010719 9
2.2831984 0.95929974 0.21666917 10
2.2219787 0.93312168 -0.38170013 3
2.3007951 0.96574849 0.30637956 11
2.2477138 0.9434678 -0.29931113 4
2.302453 0.96597171 0.39546639 12
2.2416077 0.93998462 -0.21266 5
2.2621522 0.94767141 -0.12853712 6
2.2706108 0.95074916 -0.042967826 7
2.2628734 0.94333333 0.0427933 8
2.2805607 0.95023954 0.12947917 9
2.2918854 0.95401955 0.2171921 10
2.2214136 0.92423004 -0.3810744 3
2.2911541 0.95277828 0.30467337 11
2.2398322 0.931436 -0.2978487 4
2.3111162 0.96060508 0.39640498 12
2.2483926 0.93407422 -0.21300863 5
2.3244634 0.96520275 0.4892343 13
2.2505252 0.93403918 -0.12769975 6
2.2737515 0.9432137 -0.042967826 7
2.2715337 0.93811458 0.042898018 8
2.2764781 0.93922657 0.12906048 9
2.2913525 0.94489545 0.21684349 10
2.235424 0.92137551 -0.38295162 3
2.2979724 0.94668698 0.30516088 11
2.2375638 0.92134392 -0.2971175 4
2.3016679 0.94726986 0.39421493 12
2.2459502 0.92433876 -0.2124857 5
2.3276515 0.9574886 0.4892343 13
2.2573044 0.92809039 -0.12790908 6
2.2696314 0.93223262 -0.04282821 7
2.2840493 0.93396455 0.04307254 8
2.2871389 0.93429512 0.12947917 9
2.276191 0.92936057 0.21510038 10
2.2459421 0.91655272 -0.38420308 3
2.3067775 0.94090837 0.30589208 11
2.2462809 0.91577524 -0.2978487 4
2.2994723 0.93699396 0.3932763 12
2.2399375 0.91273463 -0.21161415 5
2.2642305 0.92171079 -0.12811844 6
2.2617574 0.91978395 -0.042618778 7
2.2743206 0.92073274 0.04282821 8
2.2828186 0.92370933 0.12906048 9
2.2812686 0.92215562 0.21527468 10
2.3082066 0.93210882 0.30564833 11
2.2531452 0.90941525 -0.29833618 4
2.3007352 0.92862344 0.39296341 12
2.2283285 0.8989464 -0.21021965 5
2.2711387 0.91529518 -0.12832777 6
2.2722142 0.91526765 -0.042758394 7
2.2643688 0.90797633 0.042583872 8
2.289737 0.91722095 0.12926982 9
2.2863238 0.91492659 0.21544899 10
2.3002262 0.92002547 0.3041859 11
2.2561486 0.90193897 -0.29833618 4
2.3076317 0.92205203 0.39358914 12
2.2425544 0.89559668 -0.2112655 5
2.2593217 0.90183586 -0.1274904 6
2.2716801 0.90584975 -0.042688586 7
2.2712419 0.90154165 0.04265368 8
2.2854984 0.9062773 0.12885113 9
2.2949016 0.9095425 0.21597193 10
2.3015783 0.91125923 0.30394217 11
2.2482085 0.88967484 -0.29687375 4
2.3126726 0.91471946 0.39390203 12
2.2455118 0.88815564 -0.2112655 5
2.2568836 0.89174145 -0.12717639 6
2.282269 0.90085077 -0.04282821 7
2.2799585 0.89580232 0.042758394 8
2.2737749 0.89245546 0.12801376 9
2.2962077 0.9007991 0.21579762 10
2.2973523 0.90032172 0.30296722 11
2.2402098 0.87747818 -0.29541129 4
2.3084941 0.90376008 0.39265057 12
2.2467434 0.87958509 -0.21109121 5
2.2637026 0.88531333 -0.12738572 6
2.2667735 0.88560104 -0.042479157 7
2.281208 0.88711292 0.042723492 8
2.2805991 0.88596112 0.12822311 9
2.2881944 0.88845086 0.21475175 10
2.3115849 0.89660579 0.30442965 11
2.2506633 0.87252265 -0.29638627 4
2.3024249 0.89212722 0.39108619 12
2.2405112 0.86813724 -0.21021965 5
2.2667794 0.87740558 -0.12738572 6
2.2698505 0.87768471 -0.042479157 7
2.2674937 0.87268192 0.042409346 8
2.2874067 0.87942785 0.12843245 9
2.2931411 0.88117331 0.21492605 10
2.3128476 0.88781935 0.3041859 11
2.2499883 0.86323941 -0.2958988 4
2.3073695 0.88479257 0.39139909 12
2.2398071 0.85888487 -0.20987104 5
2.2698281 0.86948812 -0.12738572 6
2.2803712 0.8726142 -0.042618778 7
2.266789 0.8633374 0.042339537 8
2.2941957 0.87285888 0.1286418 9
2.288754 0.87033123 0.21422882 10
2.3029423 0.87480664 0.30247974 11
2.2566993 0.85678989 -0.29638627 4
2.3141377 0.87813395 0.39202482 12
2.2392139 0.84925723 -0.2095224 5
2.2653787 0.85872847 -0.12696704 6
2.2796631 0.86323321 -0.042548969 7
2.269789 0.85541898 0.042339537 8
2.2860136 0.86062247 0.12801376 9
2.2956583 0.86333871 0.21457744 10
2.2966914 0.86326975 0.30126104 11
2.2485268 0.84471792 -0.29492384 4
2.3134902 0.86866254 0.39139909 12
2.2533572 0.84563529 -0.21056828 5
2.2572904 0.84621251 -0.126339 6
2.2789171 0.85386646 -0.042479157 7
2.2822778 0.8505863 0.042514063 8
2.285409 0.85084486 0.12780441 9
2.2949233 0.85393101 0.21422882 10
2.3017006 0.85553825 0.30150479 11
2.2534683 0.83716285 -0.2951676 4
2.3073995 0.85673875 0.38983473 12
2.2527053 0.83598477 -0.21021965 5
2.2677207 0.84110671 -0.1267577 6
2.2745309 0.84272957 -0.042339537 7
2.2871091 0.84330684 0.042548969 8
2.2883651 0.84286153 0.12780441 9
2.2942984 0.84413749 0.2138802 10
2.3158517 0.85160875 0.30296722 11
2.2992504 0.84459299 0.38795751 12
2.2406476 0.82262242 -0.20882516 5
2.2745388 0.8341642 -0.12696704 6
2.2661936 0.83065504 -0.042130109 7
2.2787673 0.83120608 0.042339537 8
2.2911475 0.83526886 0.12780441 9
2.2952125 0.83584338 0.21370588 10
2.3150792 0.84216297 0.30247974 11
2.3020384 0.83696419 0.38795751 12
2.2396183 0.81382602 -0.20847654 5
2.2772923 0.82661742 -0.12696704 6
2.2689359 0.82313496 -0.042130109 7
2.273988 0.82092822 0.042199921 8
2.2976623 0.82902157 0.12801376 9
2.2960975 0.82755131 0.21353155 10
2.3029172 0.82910234 0.30052981 11
2.2441792 0.80706942 -0.20865084 5
2.2649839 0.81365854 -0.12612967 6
2.2754173 0.81695837 -0.042199921 7
2.2766976 0.81338328 0.042199921 8
2.2892556 0.81696886 0.12738572 9
2.3007057 0.82060248 0.21370588 10
2.2981744 0.81879556 0.29955488 11
2.2487206 0.80029047 -0.20882516 5
2.2639058 0.80480564 -0.12592033 6
2.2857924 0.81168771 -0.042339537 7
2.2851791 0.80743021 0.042304631 8
2.2883267 0.80764288 0.12717639 9
2.3073142 0.81389141 0.2140545 10
2.3047633 0.81208724 0.30004236 11
2.2590172 0.79508346 -0.2095224 5
2.262933 0.79557276 -0.12571098 6
2.2697446 0.79707748 -0.041990492 7
2.2860961 0.79878837 0.042269729 8
2.2911315 0.79965174 0.12717639 9
2.2969723 0.80123943 0.21283433 10
2.3132071 0.80599821 0.30077356 11
2.2542524 0.78457302 -0.20882516 5
2.273242 0.79029262 -0.12612967 6
2.2725134 0.78914917 -0.041990492 7
2.2756402 0.78623182 0.042025398 8
2.2976851 0.79295182 0.12738572 9
2.2941048 0.79126704 0.21231139 10
2.3141298 0.79727143 0.30052981 11
2.2475574 0.77345818 -0.2079536 5
2.2759871 0.78235215 -0.12612967 6
2.2790363 0.78251213 -0.042060301 7
2.2689085 0.77505291 0.041850869 8
2.3004391 0.78492594 0.12738572 9
2.2968524 0.78325588 0.21231139 10
2.3131409 0.78790808 0.30004236 11
2.2559025 0.76753271 -0.20847654 5
2.2673573 0.77054822 -0.12550163 6
2.277967 0.77326584 -0.041990492 7
2.2772839 0.76904702 0.041955583 8
2.2937021 0.77369976 0.12686236 9
2.3109007 0.7790519 0.21335725 10
2.3064704 0.77666181 0.29882365 11
2.2736757 0.76473421 -0.20987104 5
2.2700334 0.76262838 -0.12550163 6
2.2844436 0.76658237 -0.042060301 7
2.2875416 0.76362652 0.042095207 8
2.2907054 0.76379275 0.12654836 9
2.3022649 0.76720065 0.21231139 10
2.3110511 0.76923239 0.29906741 11
2.2764728 0.7559582 -0.12571098 6
2.2795141 0.75608474 -0.041920681 7
2.2901936 0.75563616 0.042095207 8
2.2933574 0.7557925 0.12654836 9
2.2954669 0.75604361 0.21143983 10
2.3212645 0.76364249 0.30004236 11
2.2753022 0.74676198 -0.12550163 6
2.2707381 0.744385 -0.041711252 7
2.2852125 0.74515694 0.041955583 8
2.2996488 0.74942148 0.1267577 9
2.2943032 0.74679244 0.21109121 10
2.3125892 0.75185186 0.2985799 11
2.2816949 0.74004704 -0.12571098 6
2.2769983 0.73808563 -0.04178106 7
2.2762518 0.73389363 0.041746158 8
2.3022509 0.74138904 0.1267577 9
2.300689 0.73999983 0.21143983 10
2.31129 0.74296445 0.29809242 11
2.2727251 0.7288177 -0.12508295 6
2.2833695 0.73135221 -0.041850869 7
2.2845154 0.7277649 0.041850869 8
2.2970843 0.7313261 0.126339 9
2.3088264 0.73417819 0.21196276 10
2.300626 0.73068517 0.29638627 11
2.2676394 0.71846747 -0.12466426 6
2.2895956 0.7249831 -0.041920681 7
2.2945459 0.72258717 0.041990492 8
2.2880661 0.72010767 0.12571098 9
2.3074472 0.72532225 0.21161415 10
2.2738216 0.71213692 -0.12487361 6
2.2805364 0.71380293 -0.041711252 7
2.2912014 0.71319169 0.041885775 8
2.2943802 0.71330273 0.12592033 9
2.3022289 0.71530229 0.21091689 10
2.2799864 0.70577443 -0.12508295 6
2.2753725 0.70347482 -0.041571636 7
2.2841201 0.7022506 0.041711252 8
2.3064024 0.7082203 0.12644368 9
2.3047118 0.70726103 0.21091689 10
2.2824361 0.69781089 -0.12508295 6
2.285464 0.69786435 -0.041711252 7
2.2750766 0.69078785 0.04150182 8
2.3068271 0.6999886 0.126339 9
2.3033528 0.69805646 0.21056828 10
2.281034 0.68868542 -0.12487361 6
2.2839367 0.68912691 -0.041641444 7
2.2792702 0.68381476 0.041536726 8
2.2939508 0.68734527 0.12550163 9
2.3095934 0.69115388 0.21091689 10
2.2939942 0.68343347 -0.04178106 7
2.2893128 0.67812562 0.041676346 8
2.2963359 0.67933422 0.12550163 9
2.3080511 0.6823619 0.21056828 10
2.2810183 0.67090815 -0.04150182 7
2.2955046 0.67125326 0.041746158 8
2.3025279 0.67243356 0.12571098 9
2.3027685 0.67206889 0.20987104 10
2.2795057 0.66182613 -0.041432012 7
2.2901487 0.66101754 0.041606538 8
2.3086991 0.66549903 0.12592033 9
2.2993569 0.66237146 0.2093481 10
2.2894912 0.65606898 -0.041571636 7
2.2828264 0.6502797 0.041432012 8
2.3071661 0.65634358 0.12571098 9
2.3074048 0.65597504 0.20987104 10
2.2956157 0.64916199 -0.041641444 7
2.2908576 0.64393103 0.041536726 8
2.3017514 0.64612627 0.12529229 9
2.3096802 0.64791715 0.20987104 10
2.297868 0.64114416 -0.041641444 7
2.2911642 0.63539654 0.04150182 8
2.298218 0.63648897 0.12497827 9
2.315768 0.64091426 0.21021965 10
2.2923796 0.63099694 -0.04150182 7
2.3029025 0.63043463 0.041676346 8
2.302243 0.62939042 0.12508295 9
2.2948172 0.62692994 0.2081279 10
2.2867408 0.62129384 -0.041362204 7
2.291575 0.61874384 0.041432012 8
2.3063543 0.6218707 0.12518762 9
2.2821269 0.60765326 0.041222587 8
2.3181617 0.61638284 0.12571098 9
2.290036 0.60120821 0.041327298 8
2.3029113 0.60372818 0.12476893 9
2.2998645 0.59521443 0.041466918 8
2.2952328 0.59358716 0.12424557 9
2.301826 0.58758384 0.041466918 8
2.3089027 0.58853316 0.12487361 9
2.2922275 0.57661778 0.041257489 8
2.3070691 0.57949632 0.12466426 9
2.2825799 0.56572813 0.041048057 8
2.316833 0.57335818 0.12508295 9
2.2961969 0.56060207 0.041257489 8
2.3071775 0.56242973 0.12445491 9
2.3000841 0.55305147 0.041292395 8
2.3071847 0.55390584 0.12435025 9
2.3078382 0.54640079 0.04139711 8
2.3070652 0.54579258 0.12424557 9
2.3166432 0.53995192 0.12466426 9
