# .PCD v0.7 - Point Cloud Data file format
VERSION 0.7
FIELDS x y z intensity
SIZE 4 4 4 4
TYPE F F F F
COUNT 1 1 1 1
WIDTH 895
HEIGHT 1
VIEWPOINT 0 0 0 1 0 0 0
POINTS 895
DATA ascii
2.072897 0.14095251 0.0362661 8
2.0454388 0.13191459 0.035777435 8
2.0698383 0.12623505 0.036196291 8
2.072263 0.11912342 0.036231197 8
2.0764809 0.11536684 -0.036301006 7
2.0806534 0.11231976 0.036370814 8
2.0828624 0.1084292 -0.036405724 7
2.0590639 0.10394763 0.035986863 8
2.0732412 0.1006725 -0.036231197 7
2.0554192 0.096571282 0.035917051 8
2.0635912 0.092986256 -0.036056671 7
2.0617373 0.089657992 0.036021769 8
2.0738935 0.086197086 -0.036231197 7
2.07003 0.082779706 0.036161385 8
2.0775149 0.082352728 0.10896347 9
2.0741818 0.078957759 -0.036231197 7
2.0683081 0.075479969 0.036126483 8
2.0598266 0.074450515 0.10802142 9
2.0624537 0.07130193 -0.036021769 7
2.0625632 0.068062343 0.036021769 8
2.0760434 0.067780778 0.1088588 9
2.0666873 0.06422586 -0.036091577 7
2.0567915 0.060684759 0.035917051 8
2.0822566 0.060709659 0.10917282 9
2.0708969 0.057122096 -0.036161385 7
2.0569909 0.053505279 0.035917051 8
2.0744691 0.053235352 0.10875413 9
2.0710838 0.049893405 -0.036161385 7
2.0611634 0.046415191 0.035986863 8
2.0646586 0.04577288 0.10823077 9
2.0672467 0.042581741 -0.036091577 7
2.0713098 0.03940976 0.036161385 8
2.0687995 0.038639639 0.10844011 9
2.0593851 0.035228085 -0.035951961 7
2.055439 0.03193124 0.035882145 8
2.074913 0.031508371 0.10875413 9
2.07495 0.028974507 -0.10875413 6
2.0714927 0.028202061 -0.036161385 7
2.0495393 0.024683438 0.035777435 8
2.0869932 0.024405949 0.10938216 9
2.0799165 0.023960155 0.18198119 10
2.0570643 0.021542618 -0.10781208 6
2.067579 0.020930981 -0.036091577 7
2.0596111 0.017614998 0.035951961 8
2.0670938 0.016956449 0.10833544 9
2.0700259 0.016620202 0.18110962 10
2.0591238 0.014375385 -0.10791675 6
2.0756385 0.013766154 -0.036231197 7
2.0636594 0.010445202 0.036021769 8
2.0651431 0.0097328508 0.10823077 9
2.0680792 0.0093847681 0.18093532 10
2.0371921 0.0071113575 -0.10676537 6
2.0676749 0.0064970325 -0.036091577 7
2.0676825 0.0032473535 0.036091577 8
2.0691588 0.0025284281 0.10844011 9
2.0641143 0.0021610449 0.1805867 10
2.0471907 -0 -0.10728873 6
2.0636857 -0.00072036224 -0.036021769 7
2.0556839 -0.0035878483 0.035882145 8
2.0751476 -0.0043461849 0.10875413 9
2.0621181 -0.0046788054 0.1804124 10
2.0551684 -0.0068152212 -0.10770741 6
2.0636721 -0.007563787 -0.036021769 7
2.0456603 -0.010711149 0.035707623 8
2.0751197 -0.011589776 0.10875413 9
2.0640814 -0.011888386 0.1805867 10
2.0511377 -0.013961866 -0.10749806 6
2.0716314 -0.014824538 -0.036161385 7
2.0556087 -0.017939026 0.035882145 8
2.0750668 -0.018833224 0.10875413 9
2.0660195 -0.01911173 0.18076101 10
2.0430877 -0.02103932 -0.10707937 6
2.0755665 -0.022098372 -0.036231197 7
2.0615323 -0.025187621 0.035986863 8
2.0669999 -0.025976054 0.10833544 9
2.0719168 -0.026399521 0.18128395 10
2.0390077 -0.028115824 -0.10687003 6
2.0674784 -0.029230235 -0.036091577 7
2.06743 -0.032477785 0.036091577 8
2.0708907 -0.033255208 0.10854478 9
2.0638437 -0.033502348 0.1805867 10
2.0548728 -0.035509184 -0.10770741 6
2.0593665 -0.036305916 -0.035951961 7
2.0473108 -0.039310381 0.035742529 8
2.0787494 -0.040639922 0.10896347 9
2.0617223 -0.040667012 0.1804124 10
2.0740039 -0.041633517 0.25470695 11
2.0627236 -0.042847726 -0.10812609 6
2.0632257 -0.043578673 -0.036021769 7
2.0511594 -0.046547316 0.035812337 8
2.0746014 -0.047803842 0.10875413 9
2.0595758 -0.047817271 0.18023807 10
2.0738459 -0.048872888 0.25470695 11
2.0545747 -0.049853921 -0.10770741 6
2.0750556 -0.051075645 -0.036231197 7
2.0629787 -0.054021001 0.036021769 8
2.0744221 -0.055045262 0.10875413 9
2.0713465 -0.055325426 0.18128395 10
2.0637407 -0.055843178 0.25348827 11
2.0553744 -0.056334786 -0.17988946 5
2.0503953 -0.056914587 -0.10749806 6
2.0788624 -0.058431 -0.036301006 7
2.0567811 -0.061043829 0.035917051 8
2.0622389 -0.061926316 0.10812609 9
2.073132 -0.062615588 0.18145825 10
2.075438 -0.063410372 0.25495067 11
2.0710964 -0.064001352 -0.18128395 5
2.0541768 -0.064196229 -0.10770741 6
2.0586588 -0.065055616 -0.035951961 7
2.0645497 -0.068488166 0.036056671 8
2.0759835 -0.069592923 0.1088588 9
2.0629447 -0.069516279 0.1805867 10
2.0851238 -0.070992351 0.25616938 11
2.056922 -0.070750996 -0.18006375 5
2.0619242 -0.071643673 -0.10812609 6
2.0504251 -0.071960732 -0.035812337 7
2.0563045 -0.075401261 0.035917051 8
2.0777235 -0.076912902 0.10896347 9
2.0587075 -0.076568775 0.18023807 10
2.0848634 -0.078270353 0.25616938 11
2.040735 -0.077327035 -0.17866927 5
2.0656533 -0.07899335 -0.10833544 6
2.0581543 -0.079426073 -0.035951961 7
2.0520329 -0.082418151 0.035847243 8
2.0814338 -0.084326752 0.10917282 9
2.0663905 -0.084078543 0.18093532 10
2.0726769 -0.085059039 0.25470695 11
2.0404525 -0.084450066 -0.17866927 5
2.0573828 -0.085870177 -0.10791675 6
2.0658562 -0.086946219 -0.036091577 7
2.0497348 -0.089493349 0.035812337 8
2.0691547 -0.091064908 0.10854478 9
2.0660846 -0.091291085 0.18093532 10
2.0624518 -0.091851912 0.25348827 11
2.0481067 -0.091929406 -0.17936651 5
2.0530803 -0.092870757 -0.10770741 6
2.0655403 -0.094156876 -0.036091577 7
2.0554023 -0.096930318 0.035917051 8
2.0608439 -0.097907931 0.10812609 9
2.0757039 -0.098976985 0.18180689 10
2.0700498 -0.099431619 0.2544632 11
2.0776415 -0.1005232 0.32945102 12
2.0557337 -0.099463224 -0.18006375 5
2.0607228 -0.10042565 -0.10812609 6
2.0552125 -0.10087622 -0.035917051 7
2.0570486 -0.10420559 0.035951961 8
2.0684686 -0.10550799 0.10854478 9
2.0673866 -0.10581457 0.18110962 10
2.0835674 -0.10737197 0.25616938 11
2.0654414 -0.10716079 0.32757381 12
2.047415 -0.10622553 -0.17936651 5
2.0563707 -0.10740995 -0.10791675 6
2.052851 -0.10794463 -0.035882145 7
2.0546753 -0.11127724 0.035917051 8
2.0760648 -0.11316247 0.10896347 9
2.0630257 -0.11281288 0.18076101 10
2.0792158 -0.11442616 0.2556819 11
2.0729439 -0.11480681 0.32882527 12
2.0390744 -0.112931 -0.17866927 5
2.0599716 -0.11480963 -0.10812609 6
2.0604479 -0.11555767 -0.036021769 7
2.0462892 -0.1179883 0.035777435 8
2.0796452 -0.12063994 0.10917282 9
2.0665975 -0.12024495 0.18110962 10
2.082767 -0.12191527 0.25616938 11
2.0843627 -0.12273877 0.33070248 12
2.0506012 -0.12075072 -0.17971513 5
2.0555708 -0.12176338 -0.10791675 6
2.0640242 -0.12298714 -0.036091577 7
2.0578406 -0.12586293 0.035986863 8
2.0712373 -0.12740801 0.10875413 9
2.0701423 -0.12770332 0.18145825 10
2.064497 -0.12807851 0.25397575 11
2.0799785 -0.12976781 0.33007675 12
2.0541444 -0.12815605 -0.18006375 5
2.0511467 -0.1286878 -0.10770741 6
2.0755568 -0.13094665 -0.036301006 7
2.0553932 -0.1329163 0.035951961 8
2.0687871 -0.13450764 0.10864946 9
2.0736604 -0.13518794 0.18180689 10
2.0679991 -0.13554382 0.2544632 11
2.0775418 -0.13689762 0.32976389 12
2.0536847 -0.13532558 -0.18006375 5
2.0546708 -0.13611089 -0.10791675 6
2.0551343 -0.13686214 -0.035951961 7
2.0569117 -0.14022619 0.035986863 8
2.0663121 -0.14159167 0.10854478 9
2.0652249 -0.14187932 0.18110962 10
2.0813761 -0.14371888 0.25616938 11
2.0575869 -0.14243706 -0.25324452 4
2.0750806 -0.14401199 0.32945102 12
2.0492244 -0.14221755 -0.17971513 5
2.0661378 -0.14411606 -0.10854478 6
2.0486596 -0.14361554 -0.035847243 7
2.0464368 -0.1466904 0.035812337 8
2.0737736 -0.14937757 0.10896347 9
2.0607426 -0.14880046 0.18076101 10
2.0808618 -0.15098336 0.25616938 11
2.0531173 -0.1493305 -0.25275704 4
2.0706246 -0.15096718 0.32882527 12
2.0407672 -0.1487903 -0.1790179 5
2.0696058 -0.1516192 -0.10875413 6
2.0581174 -0.15149985 -0.036021769 7
2.0499005 -0.15413278 0.035882145 8
2.0792143 -0.15706682 0.10927749 9
2.064184 -0.15629375 0.18110962 10
2.074384 -0.1577943 0.25543818 11
2.0525835 -0.15649632 -0.25275704 4
2.0799334 -0.15894669 0.33038962 12
2.0382488 -0.15576118 -0.17884357 5
2.1121647 -0.1617806 0.41176581 13
2.0571156 -0.15792525 -0.10812609 6
2.065551 -0.15929814 -0.036161385 7
2.0513434 -0.16144423 0.035917051 8
2.0706894 -0.1636941 0.1088588 9
2.0675981 -0.16381283 0.18145825 10
2.0718417 -0.16487682 0.25519443 11
2.0559824 -0.16397585 -0.25324452 4
2.0852733 -0.16667821 0.33132821 12
2.0416646 -0.16319253 -0.1791922 5
2.0939744 -0.16774154 0.40833127 13
2.0565517 -0.16510496 -0.10812609 6
2.068969 -0.16682875 -0.036231197 7
2.0607324 -0.16942304 0.036091577 8
2.0661244 -0.17059246 0.10864946 9
2.0650284 -0.17086484 0.18128395 10
2.0732319 -0.17227226 0.25543818 11
2.0474846 -0.17049266 -0.25226957 4
2.0748363 -0.17313486 0.32976389 12
2.0450537 -0.17064966 -0.17954083 5
2.0933762 -0.17504984 0.40833127 13
2.0599437 -0.17261624 -0.10833544 6
2.0604033 -0.17337905 -0.036091577 7
2.0601282 -0.1766153 0.036091577 8
2.0655475 -0.17744303 0.10864946 9
2.0604494 -0.17772965 0.18093532 10
2.0805285 -0.18019331 0.25641313 11
2.0389662 -0.17695215 -0.25129461 4
2.0703144 -0.17967273 0.32913816 12
2.0365059 -0.17709674 -0.17884357 5
2.1103549 -0.18388987 0.41176581 13
2.0553489 -0.17945825 -0.10812609 6
2.0478644 -0.17916492 -0.035882145 7
2.053556 -0.18291371 0.035986863 8
2.074862 -0.1855415 0.10917282 9
2.0538633 -0.18438643 0.1804124 10
2.0858507 -0.18762511 0.25714433 11
2.0403454 -0.18389085 -0.25153834 4
2.0736096 -0.1872537 0.32976389 12
2.0319068 -0.18384534 -0.17849496 5
2.1019125 -0.19017939 0.41023937 13
2.0746336 -0.18807629 -0.10917282 6
2.0591755 -0.18739963 -0.036091577 7
2.0389669 -0.18879031 0.035742529 8
2.0702577 -0.19205199 0.10896347 9
2.0651431 -0.19230463 0.18145825 10
2.0733244 -0.19379649 0.2556819 11
2.0574789 -0.19267763 -0.253732 4
2.0710106 -0.19394484 0.32945102 12
2.0392203 -0.1913268 -0.1791922 5
2.095372 -0.19696406 0.40909451 13
2.0620337 -0.19419338 -0.10854478 6
2.0605335 -0.19441493 -0.036126483 7
2.044301 -0.19612361 0.035847243 8
2.0695746 -0.19927737 0.10896347 9
2.0644593 -0.19951215 0.18145825 10
2.0706944 -0.20047952 0.25543818 11
2.0390465 -0.19777468 -0.25153834 4
2.0821173 -0.20231907 0.33132821 12
2.0464725 -0.19921604 -0.17988946 5
2.1005692 -0.20448212 0.41023937 13
2.053427 -0.20025481 -0.10812609 6
2.0658131 -0.20219071 -0.036231197 7
2.0574975 -0.20500287 0.036091577 8
2.0648556 -0.20646399 0.10875413 9
2.0657327 -0.20691581 0.18163256 10
2.0738962 -0.20846471 0.25592566 11
2.0383079 -0.20524681 -0.25153834 4
2.0735004 -0.20915607 0.33007675 12
2.0497293 -0.20675826 -0.18023807 5
2.1037121 -0.21257448 0.41100258 13
2.0526791 -0.20777965 -0.10812609 6
2.061079 -0.20935677 -0.036161385 7
2.0607476 -0.21259405 0.036161385 8
2.0641224 -0.21367042 0.10875413 9
2.0590527 -0.21350883 0.18110962 10
2.0810535 -0.21652442 0.25690058 11
2.0415277 -0.21277213 -0.25202581 4
2.0688283 -0.21598245 0.32945102 12
2.0371051 -0.21267061 -0.1791922 5
2.1146731 -0.22114167 0.41329232 13
2.0638599 -0.21619205 -0.10875413 6
2.0484033 -0.21529587 -0.035951961 7
2.0500507 -0.21872535 0.035986863 8
2.0713079 -0.22172458 0.10917282 9
2.056314 -0.22048256 0.18093532 10
2.0842323 -0.22421196 0.25738806 11
2.0407727 -0.21989711 -0.25202581 4
2.0719895 -0.22362663 0.33007675 12
2.0323887 -0.21935256 -0.17884357 5
2.0963211 -0.22662283 0.40985772 13
2.0630927 -0.22339495 -0.10875413 6
2.1136801 -0.22924592 0.49084321 14
2.0595672 -0.22374058 -0.036161385 7
2.0413244 -0.22500367 0.035847243 8
2.0764766 -0.22961198 0.10948683 9
2.0575118 -0.22787841 0.18110962 10
2.0735722 -0.23038988 0.25616938 11
2.0518301 -0.22833669 -0.25348827 4
2.0810127 -0.23195197 0.33164111 12
2.0395312 -0.2273284 -0.17954083 5
2.0935664 -0.2337212 0.40947613 13
2.0583305 -0.23015124 -0.10854478 6
2.1109304 -0.23640572 0.49039328 14
2.0667226 -0.23182006 -0.036301006 7
2.0544345 -0.23371002 0.036091577 8
2.0657406 -0.23572661 0.10896347 9
2.0646219 -0.23596403 0.18180689 10
2.0528393 -0.23498036 -0.32726091 3
2.066839 -0.23694834 0.25543818 11
2.0431321 -0.23459177 -0.25251329 4
2.0801902 -0.23921466 0.33164111 12
2.0466428 -0.23535681 -0.18023807 5
2.1005392 -0.24192615 0.41100258 13
2.0535464 -0.23687702 -0.10833544 6
2.0926697 -0.24176002 0.48634419 14
2.0738463 -0.23995222 -0.036440626 7
2.0536063 -0.24087994 0.036091577 8
2.0589547 -0.24223591 0.10864946 9
2.0677433 -0.24363577 0.1821555 10
2.040236 -0.24075572 -0.32538372 3
2.0738847 -0.24509341 0.25641313 11
2.0363865 -0.24102223 -0.25178206 4
2.0734577 -0.24577683 0.33070248 12
2.0477874 -0.242734 -0.1804124 5
2.103581 -0.24971981 0.41176581 13
2.0427907 -0.24286486 -0.10781208 6
2.0937481 -0.24929373 0.48679405 14
2.0610826 -0.24576922 -0.036231197 7
2.0587087 -0.24876656 0.036196291 8
2.0680101 -0.25062296 0.10917282 9
2.0589685 -0.24989183 0.18145825 10
2.0393832 -0.247876 -0.32538372 3
2.0808985 -0.25329056 0.25738806 11
2.0355327 -0.24812905 -0.25178206 4
2.0686655 -0.2525343 0.33007675 12
2.0409944 -0.24915636 -0.17988946 5
2.1026964 -0.25706115 0.41176581 13
2.0498602 -0.25096491 -0.10823077 6
2.0986679 -0.25731221 0.48814377 14
2.0483034 -0.25150004 -0.036021769 7
2.0479059 -0.2547172 0.036021769 8
2.0691047 -0.25808734 0.10927749 9
2.0541296 -0.25658354 0.18110962 10
2.0267448 -0.25352213 -0.3235065 3
2.0800018 -0.26055267 0.25738806 11
2.0445025 -0.2564683 -0.2530008 4
2.0697312 -0.25999996 0.33038962 12
2.0361583 -0.25578254 -0.17954083 5
2.0978906 -0.26390931 0.41100258 13
2.0568984 -0.25911725 -0.10864946 6
2.1054907 -0.26561201 0.48994341 14
2.0593166 -0.26015216 -0.036231197 7
2.0410535 -0.26110291 0.035917051 8
2.0721531 -0.26581654 0.10948683 9
2.05915 -0.26451382 0.18163256 10
2.0258474 -0.26059526 -0.3235065 3
2.0712044 -0.26679721 0.25641313 11
2.0495012 -0.26436523 -0.253732 4
2.0766475 -0.26823533 0.33164111 12
2.0411811 -0.2636542 -0.18006375 5
2.0911152 -0.27047515 0.40985772 13
2.0401356 -0.26424322 -0.10781208 6
2.1161458 -0.2744638 0.49264279 14
2.0583961 -0.26733893 -0.036231197 7
2.0460777 -0.26900795 0.036021769 8
2.0632923 -0.27200392 0.10906815 9
2.0641401 -0.27248225 0.1821555 10
2.0268841 -0.2679241 -0.3238194 3
2.0702605 -0.2740255 0.25641313 11
2.0269194 -0.26864868 -0.25105089 4
2.0815732 -0.27626222 0.33257973 12
2.0441985 -0.27130193 -0.1804124 5
2.0921047 -0.2780315 0.41023937 13
2.0352409 -0.27083609 -0.10760273 6
2.103585 -0.28030449 0.48994341 14
2.0693429 -0.27610928 -0.036440626 7
2.0609798 -0.27828911 0.036301006 8
2.0643094 -0.27947247 0.10917282 9
2.0671248 -0.28022102 0.18250412 10
2.0357234 -0.27632609 -0.32538372 3
2.0732253 -0.28178501 0.25690058 11
2.035804 -0.27706075 -0.25226957 4
2.0805962 -0.28352657 0.33257973 12
2.0511355 -0.2795119 -0.18110962 5
2.0989022 -0.28639436 0.41176581 13
2.0461564 -0.27956095 -0.10823077 6
2.1025939 -0.28764567 0.48994341 14
2.0564795 -0.28170267 -0.036231197 7
2.0580151 -0.28520709 0.0362661 8
2.0633211 -0.28667656 0.10917282 9
2.0542936 -0.2857877 0.18145825 10
2.0386596 -0.28397545 -0.32600945 3
2.0761611 -0.28956866 0.25738806 11
2.0367906 -0.28443989 -0.25251329 4
2.0619867 -0.28832549 0.32976389 12
2.0383081 -0.28501454 -0.18006375 5
2.1056671 -0.29480797 0.41329232 13
2.049124 -0.28725621 -0.10844011 6
2.1092961 -0.29606682 0.491743 14
2.0554836 -0.28887939 -0.036231197 7
2.0471079 -0.2909821 0.036091577 8
2.0642853 -0.29415885 0.10927749 9
2.0572286 -0.29351965 0.18180689 10
2.0298338 -0.28997257 -0.32475799 3
2.0790682 -0.29737622 0.25787556 11
2.0397153 -0.29211074 -0.2530008 4
2.0727 -0.29720369 0.33164111 12
2.0373008 -0.29212782 -0.18006375 5
2.0929651 -0.30048233 0.41100258 13
2.0560167 -0.29554394 -0.1088588 6
2.1159651 -0.30453825 0.49354258 14
2.0584211 -0.29662302 -0.036301006 7
2.1242907 -0.30649343 0.57509595 15
2.0460799 -0.29812607 0.036091577 8
2.0770798 -0.30338338 0.11001018 9
2.0561914 -0.30069891 0.18180689 10
2.0229456 -0.29619768 -0.3238194 3
2.0701609 -0.30347994 0.25690058 11
2.0426111 -0.2998054 -0.25348827 4
2.0755584 -0.30501133 0.33226684 12
2.0402114 -0.29981694 -0.1804124 5
2.0919037 -0.30778632 0.41100258 13
2.039165 -0.30039039 -0.10802142 6
2.1148891 -0.31192249 0.49354258 14
2.0613298 -0.3043907 -0.036370814 7
2.0964527 -0.3099511 0.56784898 15
2.0509601 -0.30615208 0.036196291 8
2.0641565 -0.30885857 0.10938216 9
2.0590701 -0.30846491 0.1821555 10
2.0238528 -0.30355027 -0.32413223 3
2.0651627 -0.31011474 0.25641313 11
2.0337002 -0.30575314 -0.25251329 4
2.078388 -0.31284261 0.33289257 12
2.0371821 -0.30664021 -0.18023807 5
2.0946991 -0.31567165 0.41176581 13
2.0381041 -0.30750656 -0.10802142 6
2.1060801 -0.31813869 0.491743 14
2.0681634 -0.31278032 -0.036510434 7
2.118279 -0.32073778 0.57406068 15
2.0577857 -0.31451789 0.036335908 8
2.072937 -0.3175742 0.10990552 9
2.063889 -0.31655672 0.18267845 10
2.0403533 -0.31331137 -0.32694808 3
2.0679917 -0.31792489 0.25690058 11
2.0326207 -0.31285024 -0.25251329 4
2.0733786 -0.31949395 0.33226684 12
2.0439761 -0.31496319 -0.18093532 5
2.1013458 -0.32417893 0.41329232 13
2.0409658 -0.31522873 -0.10823077 6
2.1088085 -0.32608393 0.49264279 14
2.0591545 -0.31877396 -0.036370814 7
2.1286008 -0.32990524 0.5771665 15
2.0586512 -0.32200804 0.036370814 8
2.071816 -0.32480815 0.10990552 9
2.0568666 -0.32283235 0.1821555 10
2.0411987 -0.32073823 -0.32726091 3
2.0786355 -0.32699251 0.25836304 11
2.0315161 -0.31994349 -0.25251329 4
2.066397 -0.32580647 0.33132821 12
2.0349917 -0.32085487 -0.18023807 5
2.1118369 -0.33334875 0.41558203 13
2.0477443 -0.32359812 -0.10864946 6
2.1076572 -0.33344308 0.49264279 14
2.0501289 -0.32470855 -0.036231197 7
2.1159883 -0.33551821 0.57406068 15
2.0515909 -0.32824439 0.0362661 8
2.0746136 -0.33267063 0.11011487 9
2.0517924 -0.32937855 0.18180689 10
2.0361657 -0.32723451 -0.32663518 3
2.0814011 -0.33487695 0.25885051 11
2.0441058 -0.32924253 -0.25421947 4
2.0710976 -0.33396095 0.33226684 12
2.0358264 -0.32827353 -0.1804124 5
2.0990312 -0.33884111 0.41329232 13
2.0544889 -0.33201864 -0.10906815 6
2.1141756 -0.34204307 0.49444243 14
2.0529308 -0.33250225 -0.036301006 7
2.1071763 -0.34166551 0.57199007 15
2.0464854 -0.33475813 0.036196291 8
2.0734396 -0.33991036 0.11011487 9
2.0584948 -0.33782929 0.18250412 10
2.0272143 -0.33305907 -0.32538372 3
2.0684667 -0.34020734 0.25738806 11
2.04882 -0.33734328 -0.25495067 4
2.0777156 -0.34247348 0.33351833 12
2.0366337 -0.33570188 -0.1805867 5
2.0862134 -0.34424821 0.41100258 13
2.0454352 -0.33788612 -0.10864946 6
2.1129687 -0.34942082 0.49444243 14
2.0635946 -0.3416259 -0.036510434 7
2.1135945 -0.35028225 0.57406068 15
2.0472772 -0.34222937 0.036231197 8
2.068301 -0.346486 0.10990552 9
2.0671275 -0.34666032 0.18337567 10
2.0338316 -0.34144154 -0.32663518 3
2.0692241 -0.34775457 0.25763181 11
2.0319695 -0.34185824 -0.2530008 4
2.0823512 -0.35070816 0.33445692 12
2.0433085 -0.3441326 -0.18128395 5
2.0927429 -0.35283399 0.41252908 13
2.0403044 -0.3443591 -0.10844011 6
2.107893 -0.35614502 0.49354258 14
2.0702767 -0.35016105 -0.036650054 7
2.1123588 -0.35765797 0.57406068 15
2.0539546 -0.35071993 0.036370814 8
2.0670788 -0.35370359 0.10990552 9
2.0659049 -0.35387382 0.18337567 10
2.0699544 -0.35531127 0.25787556 11
2.0307639 -0.34894904 -0.2530008 4
2.0713806 -0.3563005 0.33289257 12
2.0420947 -0.35126305 -0.18128395 5
2.103107 -0.36213571 0.41481876 13
2.0430264 -0.35215753 -0.10864946 6
2.106637 -0.36350074 0.49354258 14
2.0532775 -0.3546626 -0.036370814 7
2.1263263 -0.36766249 0.57820177 15
2.0527179 -0.35788745 0.036370814 8
2.0677989 -0.36126059 0.11001018 9
2.0607319 -0.36039659 0.18302706 10
2.072612 -0.36321992 0.25836304 11
2.0393095 -0.35775065 -0.25421947 4
2.0642874 -0.36250386 0.331954 12
2.0369315 -0.35769993 -0.18093532 5
2.1018302 -0.36947471 0.41481876 13
2.053587 -0.36136368 -0.10927749 6
2.1053553 -0.37085205 0.49354258 14
2.052027 -0.36182773 -0.036370814 7
2.1136153 -0.37306774 0.57509595 15
2.051456 -0.36505061 0.036370814 8
2.0724242 -0.36952817 0.1103242 9
2.0496545 -0.36583731 0.1821555 10
2.0811017 -0.37219983 0.25958171 11
2.0380485 -0.36486694 -0.25421947 4
2.0688424 -0.37075263 0.33289257 12
2.0376315 -0.36515936 -0.18110962 5
2.1005278 -0.37680924 0.41481876 13
2.0562446 -0.36923581 -0.10948683 6
2.115556 -0.38026741 0.49624202 14
2.0507514 -0.36898839 -0.036370814 7
2.1123002 -0.38044336 0.57509595 15
2.0422993 -0.3707805 0.036231197 8
2.0691566 -0.37640256 0.11021954 9
2.0542455 -0.37406048 0.18267845 10
2.0700257 -0.37768051 0.25836304 11
2.040668 -0.37269211 -0.25470695 4
2.0733652 -0.37903768 0.33383119 12
2.0383043 -0.37262809 -0.18128395 5
2.0914748 -0.38272557 0.41329232 13
2.047085 -0.37497181 -0.10906815 6
2.1142156 -0.38764974 0.49624202 14
2.0651858 -0.37903249 -0.036650054 7
2.1147594 -0.38851252 0.57613122 15
2.046891 -0.37899932 0.036335908 8
2.0658665 -0.38325867 0.11011487 9
2.0588038 -0.38232005 0.18320136 10
2.0647917 -0.38417771 0.25787556 11
2.0393546 -0.37981313 -0.25470695 4
2.0778553 -0.38735881 0.33476979 12
2.0448258 -0.38120136 -0.18198119 5
2.095916 -0.39110425 0.41443717 13
2.041837 -0.38138175 -0.1088588 6
2.1051877 -0.39359486 0.49444243 14
2.0677812 -0.38697469 -0.036719862 7
2.117188 -0.39660341 0.5771665 15
2.0553808 -0.38799667 0.036510434 8
2.0547035 -0.3886117 0.10959151 9
2.0652871 -0.39098674 0.18389861 10
2.069289 -0.39249259 0.25860679 11
2.0321655 -0.38581866 -0.25397575 4
2.068728 -0.39313439 0.33351833 12
2.0473976 -0.38908079 -0.1823298 5
2.1003242 -0.39951861 0.41558203 13
2.0483413 -0.390001 -0.10927749 6
2.0999722 -0.40021127 0.49354258 14
2.0546319 -0.39194202 -0.036510434 7
2.127176 -0.40616533 0.58027232 15
2.0579414 -0.39592451 0.036580246 8
2.0611789 -0.3972936 0.11001018 9
2.0599973 -0.39743873 0.18355 10
2.0718043 -0.40046683 0.25909427 11
2.0327556 -0.393287 -0.25421947 4
2.0673432 -0.40035319 0.33351833 12
2.0362465 -0.39433116 -0.18145825 5
2.1104808 -0.40908921 0.41787171 13
2.0548103 -0.39867035 -0.10969618 6
2.1100404 -0.40976813 0.49624202 14
2.0571773 -0.39987478 -0.036580246 7
2.1143675 -0.41137442 0.5771665 15
2.0545843 -0.40272102 0.03654534 8
2.0676191 -0.4060255 0.11042888 9
2.0507774 -0.40308997 0.18285275 10
2.076237 -0.40884697 0.25982547 11
2.0430558 -0.40268347 -0.2556819 4
2.0678711 -0.40794945 0.33383119 12
2.0368125 -0.40182221 -0.18163256 5
2.0974839 -0.41417181 0.41558203 13
2.0494874 -0.40506598 -0.10948683 6
2.1124206 -0.41788739 0.49714181 14
2.0557692 -0.40705323 -0.036580246 7
2.1129186 -0.4187524 0.5771665 15
2.0433609 -0.40793297 0.036370814 8
2.074023 -0.41480714 0.11084756 9
2.0532649 -0.41102821 0.18320136 10
2.0670116 -0.41453058 0.25885051 11
2.0683713 -0.41555429 0.33414406 12
2.0412576 -0.41010693 -0.1821555 5
2.0921757 -0.42071673 0.41481876 13
2.0402291 -0.41064128 -0.10906815 6
2.1185906 -0.42679799 0.49894145 14
2.0621765 -0.41580769 -0.036719862 7
2.119019 -0.42765406 0.57923704 15
2.0556419 -0.41785145 0.036615148 8
2.0686483 -0.42124724 0.11063822 9
2.067436 -0.42137614 0.18459585 10
2.0577724 -0.42015475 0.25787556 11
2.0727141 -0.42395929 0.33508268 12
2.0417655 -0.41762897 -0.1823298 5
2.0926178 -0.42841098 0.41520041 13
2.0387831 -0.41776049 -0.10906815 6
2.1132696 -0.43340763 0.4980416 14
2.0763836 -0.4262203 -0.036999103 7
2.0541708 -0.42502445 0.036615148 8
2.0593426 -0.42684421 0.11021954 9
2.0698543 -0.42939973 0.1849445 10
2.0698979 -0.43016252 0.25958171 11
2.0712216 -0.43119183 0.33508268 12
2.0461471 -0.42597175 -0.18285275 5
2.1084073 -0.43931723 0.41863495 13
2.0373125 -0.4248746 -0.10906815 6
2.1002984 -0.43839264 0.49534222 14
2.0553088 -0.42937636 -0.036650054 7
2.0644155 -0.43466428 0.03682458 8
2.0617487 -0.43485439 0.11042888 9
2.0546966 -0.4337416 0.1837243 10
2.0742104 -0.43861729 0.26031294 11
2.0619736 -0.43678167 0.33383119 12
2.0349019 -0.43104714 -0.18198119 5
2.110702 -0.44748861 0.41939822 13
2.0475397 -0.43447101 -0.10969618 6
2.1101925 -0.44815034 0.4980416 14
2.0498853 -0.4357166 -0.036580246 7
2.0511537 -0.43935481 0.036615148 8
2.0680294 -0.4437246 0.11084756 9
2.049274 -0.44007456 0.18337567 10
2.0765481 -0.4466899 0.26080042 11
2.0681608 -0.44564107 0.33508268 12
2.0314372 -0.43772799 -0.18180689 5
2.0976124 -0.45237035 0.41710848 13
2.0499151 -0.44245836 -0.10990552 6
2.1124251 -0.45633656 0.49894145 14
2.05617 -0.44455966 -0.036719862 7
2.0437458 -0.44523501 0.036510434 8
2.0762246 -0.45306975 0.11137092 9
2.0594046 -0.44977593 0.18442155 10
2.0672193 -0.45223874 0.25982547 11
2.0743108 -0.4545489 0.33633414 12
2.0376818 -0.44652227 -0.18250412 5
2.0921853 -0.45884848 0.41634527 13
2.0444565 -0.44875488 -0.10969618 6
2.1184325 -0.46537998 0.50074106 14
2.0604649 -0.45302254 -0.03682458 7
2.0460842 -0.45323128 0.036580246 8
2.0590317 -0.45685336 0.11053354 9
2.057822 -0.45696187 0.18442155 10
2.0656283 -0.45945194 0.25982547 11
2.0727115 -0.46178684 0.33633414 12
2.0458341 -0.45579872 -0.18337567 5
2.0924869 -0.46657598 0.41672686 13
2.0350804 -0.4541485 -0.10927749 6
2.1091878 -0.47107282 0.49894145 14
2.0647254 -0.46152079 -0.036929294 7
2.0561945 -0.46300638 0.036789671 8
2.0535278 -0.46315911 0.1103242 9
2.0659318 -0.46633565 0.18529311 10
2.0620754 -0.46622172 0.25958171 11
2.0653071 -0.46771023 0.33539551 12
2.05006 -0.46425736 -0.18389861 5
2.100419 -0.47604707 0.41863495 13
2.0412738 -0.46301678 -0.10969618 6
2.1037297 -0.47756952 0.4980416 14
2.0592017 -0.46783915 -0.036859483 7
2.0662618 -0.47285756 0.036999103 8
2.0635793 -0.47300184 0.11095224 9
2.0584657 -0.47220784 0.18477017 10
2.0720437 -0.47608399 0.26104417 11
2.065587 -0.47535968 0.33570841 12
2.1102235 -0.48601979 0.42092466 13
2.04743 -0.47193372 -0.11011487 6
2.1096454 -0.48666218 0.49984124 14
2.0536594 -0.47412461 -0.036789671 7
2.0529122 -0.47734994 0.036789671 8
2.0658059 -0.48110819 0.11116158 9
2.0529242 -0.47848588 0.18442155 10
2.0761683 -0.48466763 0.26177537 11
2.0658386 -0.4830167 0.33602124 12
2.1027792 -0.49204096 0.41977981 13
2.0496595 -0.47998849 -0.1103242 6
2.1117284 -0.49491256 0.50074106 14
2.0597794 -0.48311687 -0.036929294 7
2.0473411 -0.48359364 0.036719862 8
2.0699446 -0.4896957 0.1114756 9
2.0551188 -0.48656702 0.18477017 10
2.0667379 -0.49007988 0.26080042 11
2.0699055 -0.49159425 0.33695987 12
2.0895889 -0.49665421 0.41749012 13
2.0440855 -0.48621589 -0.11011487 6
2.1175711 -0.50408602 0.50254071 14
2.0658612 -0.49215758 -0.037068911 7
2.0456405 -0.49073723 0.036719862 8
2.0623968 -0.49551839 0.11116158 9
2.0630937 -0.49606666 0.18564174 10
2.0669446 -0.49775589 0.26104417 11
2.0739381 -0.50020599 0.33789849 12
2.099293 -0.50670904 0.41977981 13
2.0423758 -0.49334809 -0.11011487 6
2.1082218 -0.50964308 0.50074106 14
2.0641308 -0.49936575 -0.037068911 7
2.0497437 -0.49929464 0.03682458 8
2.0606546 -0.50271451 0.11116158 9
2.0690916 -0.50515532 0.18633896 10
2.0709789 -0.50638223 0.26177537 11
2.0625861 -0.5050931 0.33633414 12
2.105139 -0.51590312 0.42130631 13
2.0445209 -0.5014258 -0.1103242 6
2.1045375 -0.51653451 0.50029117 14
2.0584912 -0.50561392 -0.036999103 7
2.0557532 -0.5083667 0.036964197 8
2.0627646 -0.51086473 0.11137092 9
2.0557125 -0.50949901 0.18529311 10
2.0769055 -0.51552111 0.26275033 11
2.0569763 -0.51133674 0.33570841 12
2.0543866 -0.51145446 -0.11095224 6
2.0528331 -0.51182878 -0.036929294 7
2.053966 -0.51553953 0.036964197 8
2.0629058 -0.51854891 0.1114756 9
2.048125 -0.51521355 0.18477017 10
2.0750933 -0.52276772 0.26275033 11
2.0685861 -0.52189648 0.33789849 12
2.0976787 -0.52962577 0.42054302 13
2.0525889 -0.51862252 -0.11095224 6
2.0607271 -0.52144414 -0.037103817 7
2.0444028 -0.52073175 0.03682458 8
2.0765655 -0.52969587 0.11231297 9
2.0617578 -0.52630198 0.18616466 10
2.0617166 -0.52705812 0.2612879 11
2.0744066 -0.53107369 0.33914998 12
2.0958171 -0.53694481 0.42054302 13
2.0546353 -0.52677631 -0.11116158 6
2.0569572 -0.52813685 -0.037068911 7
2.0541894 -0.53086704 0.037034009 8
2.0553684 -0.53193712 0.11126626 9
2.0676231 -0.53549379 0.1868619 10
2.0579429 -0.53375328 0.26104417 11
2.0744522 -0.53880805 0.33946282 12
2.1129315 -0.54919618 0.42435926 13
2.0667124 -0.53833818 -0.037278343 7
2.0581267 -0.53955549 0.037138719 8
2.0612261 -0.5411371 0.11168494 9
2.0657413 -0.54270786 0.1868619 10
2.061826 -0.5424487 0.26177537 11
2.066828 -0.54453617 0.33852422 12
2.1072047 -0.5555672 0.42359596 13
2.0570869 -0.54350579 -0.037138719 7
2.0620284 -0.54827791 0.037243433 8
2.0612547 -0.54884273 0.11178961 9
2.0580585 -0.54837638 0.18633896 10
2.0714281 -0.55271316 0.2632378 11
2.0610979 -0.55072749 0.33789849 12
2.0551772 -0.55068308 -0.037138719 7
2.044656 -0.55130762 0.036964197 8
2.0631828 -0.55707574 0.11199896 9
2.0542085 -0.55503738 0.18616466 10
2.0771511 -0.56201434 0.26421279 11
2.068696 -0.56050175 0.33946282 12
2.0994849 -0.56923723 0.42283276 13
2.0609615 -0.55995089 -0.037278343 7
2.0447457 -0.55861199 0.036999103 8
2.065177 -0.56496847 0.1122083 9
2.0638866 -0.56500268 0.18721053 10
2.0714467 -0.56784964 0.26372528 11
2.0706358 -0.5684045 0.34008855 12
2.101372 -0.57723624 0.42359596 13
2.0590932 -0.56678218 -0.037278343 7
2.0504918 -0.56788093 0.037138719 8
2.0554938 -0.57003891 0.11178961 9
2.0695815 -0.57433462 0.18790779 10
2.069452 -0.57507682 0.26372528 11
2.0743484 -0.57721764 0.34102717 12
2.0993443 -0.5845679 0.42359596 13
2.0648069 -0.57611597 -0.037417959 7
2.0561984 -0.57719684 0.037278343 8
2.0515687 -0.57666993 0.11168494 9
2.0771539 -0.58425283 0.18877934 10
2.0616996 -0.58068258 0.26299405 11
2.0685184 -0.58338249 0.34040144 12
2.1048491 -0.59402543 0.42512247 13
2.0550864 -0.58114344 -0.037278343 7
2.0618644 -0.58655947 0.037417959 8
2.0629892 -0.58765787 0.11241764 9
2.0597732 -0.58713049 0.18738484 10
2.0730224 -0.59168959 0.26470023 11
2.06457 -0.5900566 0.34008855 12
2.0530453 -0.58831352 -0.037278343 7
2.0501969 -0.59098375 0.037243433 8
2.0647633 -0.59596336 0.11262699 9
2.0577111 -0.59431678 0.18738484 10
2.0728512 -0.59947371 0.26494396 11
2.0624976 -0.59725964 0.34008855 12
2.0500412 -0.59869725 0.037278343 8
2.0684211 -0.60484862 0.112941 9
2.0632727 -0.60373408 0.18808208 10
2.068841 -0.60614753 0.26470023 11
2.0698779 -0.60723597 0.3416529 12
2.0517738 -0.60698414 0.037348151 8
2.0567224 -0.60922891 0.11241764 9
2.068794 -0.61319751 0.18877934 10
2.0667126 -0.61336535 0.26470023 11
2.0677457 -0.61445737 0.3416529 12
2.0534737 -0.61529046 0.037417959 8
2.0507572 -0.61525655 0.1122083 9
2.0647323 -0.61984217 0.18860501 10
2.0626578 -0.62000448 0.26445648 11
2.065588 -0.6216715 0.3416529 12
2.0608811 -0.62535781 0.037592482 8
2.056241 -0.62473381 0.11262699 9
2.0606501 -0.62646621 0.18843071 10
2.0718753 -0.63066906 0.26591894 11
2.0577371 -0.6271503 0.34071434 12
2.0529511 -0.63078582 0.037487768 8
2.0635927 -0.63484395 0.11315035 9
2.0641637 -0.635414 0.18895365 10
2.0696614 -0.63789731 0.26591894 11
2.0630856 -0.6366592 0.34196579 12
2.0411894 -0.63497812 0.037313245 8
2.0633831 -0.64227718 0.11325502 9
2.0600307 -0.64202255 0.18877934 10
2.0617373 -0.64334404 0.26518771 11
2.0722764 -0.64702964 0.34384301 12
2.0562398 -0.64714646 0.037627388 8
2.0612419 -0.6491161 0.11325502 9
2.065491 -0.65124679 0.18947658 10
2.0633783 -0.65137273 0.26567519 11
2.0833049 -0.65806288 0.3460331 12
2.0551577 -0.65509409 0.11304568 9
2.0785055 -0.66293603 0.19087107 10
2.0687714 -0.66062695 0.26665017 11
2.0640609 -0.65991688 0.34321725 12
2.0604618 -0.66471678 0.11346437 9
2.0627902 -0.66626304 0.18965089 10
2.072119 -0.66967559 0.26738134 11
2.0598657 -0.66650975 0.34290439 12
2.0657232 -0.67438442 0.11388306 9
2.0623457 -0.67407846 0.18982521 10
2.0715375 -0.67788321 0.26762509 11
2.0650356 -0.67615461 0.34415585 12
2.0709424 -0.68409681 0.11430173 9
2.0637634 -0.68252444 0.19017383 10
2.0692782 -0.68474895 0.26762509 11
2.0570374 -0.68149513 0.34321725 12
2.0571764 -0.68752319 0.11367371 9
2.0709364 -0.69252378 0.19104539 10
2.0631106 -0.69070756 0.26713762 11
2.058548 -0.6959793 0.11388306 9
2.0683842 -0.70010942 0.19104539 10
2.0700879 -0.70108873 0.26835632 11
2.0561061 -0.70316064 0.11388306 9
2.0621576 -0.70603442 0.19069678 10
2.0693822 -0.70931494 0.26860005 11
2.0616882 -0.71352053 0.19087107 10
2.0782731 -0.72007275 0.27006248 11
2.0574298 -0.71969551 0.19069678 10
2.0721266 -0.72564834 0.269575 11
2.069804 -0.73254949 0.19209124 10
2.0657108 -0.73191237 0.26908755 11
2.0746083 -0.74281722 0.1927885 10
2.0686202 -0.74148798 0.26981872 11
2.0681252 -0.7490592 0.19243988 10
2.067755 -0.74974161 0.27006248 11
2.0602798 -0.75313997 0.19191694 10
2.0711138 -0.75792003 0.27079371 11
2.0651138 -0.76308936 0.19261418 10
2.070451 -0.76547223 0.27103746 11
2.0532391 -0.76644951 0.19174263 10
2.0584688 -0.76922047 0.26981872 11
