# .PCD v0.7 - Point Cloud Data file format
VERSION 0.7
FIELDS x y z intensity
SIZE 4 4 4 4
TYPE F F F F
COUNT 1 1 1 1
WIDTH 703
HEIGHT 1
VIEWPOINT 0 0 0 1 0 0 0
POINTS 703
DATA ascii
2.4211159 0.22587982 -0.042444255 7
2.4158766 0.21731171 -0.042339537 7
2.3986902 0.20732698 -0.042025398 7
2.4242713 0.2018676 -0.1274904 6
2.399399 0.19895439 -0.042025398 7
2.3990791 0.19133921 -0.12612967 6
2.4080527 0.19121021 -0.042165015 7
2.3937578 0.18250982 -0.12581564 6
2.4126933 0.18310536 -0.042234823 7
2.3963726 0.1742972 -0.12592033 6
2.3973618 0.17352797 -0.041955583 7
2.4095998 0.17060962 0.042165015 8
2.4069576 0.16620132 -0.12644368 6
2.397953 0.1651579 -0.041955583 7
2.3942473 0.16070487 0.041885775 8
2.4035373 0.15753657 -0.12623434 6
2.4025061 0.15704788 -0.042025398 7
2.3967628 0.15289102 0.041920681 8
2.4000597 0.14931658 -0.12602501 6
2.4070053 0.14932814 -0.042095207 7
2.4032447 0.1453059 0.042025398 8
2.3925664 0.14088772 -0.12560631 6
2.4035194 0.14069088 -0.042025398 7
2.4077301 0.13714291 0.042095207 8
2.3890781 0.13189678 -0.12539697 6
2.4000022 0.13207975 -0.041955583 7
2.4122105 0.12853056 0.042165015 8
2.4014916 0.12417701 -0.12602501 6
2.4004703 0.12328294 -0.041955583 7
2.3946693 0.11921408 0.041850869 8
2.4019308 0.11537251 -0.12602501 6
2.3968911 0.11471231 -0.041885775 7
2.3970876 0.11052903 0.041885775 8
2.4161332 0.1109835 0.1267577 9
2.3943374 0.1066337 -0.12560631 6
2.4012723 0.1065215 -0.041955583 7
2.395443 0.10249323 0.041850869 8
2.4005423 0.10187314 0.12592033 9
2.390687 0.098528057 -0.12539697 6
2.4096217 0.098464794 -0.042095207 7
2.3977845 0.094208829 0.041885775 8
2.4048584 0.094067559 0.12612967 9
2.3950078 0.090332314 -0.12560631 6
2.3899522 0.089723937 -0.041746158 7
2.4000823 0.086329341 0.041920681 8
2.4111598 0.085885108 0.12644368 9
2.3774927 0.08219327 -0.2081279 5
2.3952944 0.082390167 -0.12560631 6
2.3862536 0.081245311 -0.041676346 7
2.3943732 0.077756755 0.041815966 8
2.401464 0.077146783 0.12592033 9
2.3936834 0.07480713 -0.2095224 5
2.4035528 0.074275799 -0.12602501 6
2.3905203 0.073036745 -0.041746158 7
2.3886333 0.069223925 0.041711252 8
2.4097042 0.068993933 0.126339 9
2.3839719 0.066174105 -0.20865084 5
2.3878253 0.065446965 -0.12518762 6
2.3947587 0.064800516 -0.041815966 7
2.3908594 0.060937081 0.041746158 8
2.3999472 0.060330477 0.12581564 9
2.3782129 0.057707593 -0.2081279 5
2.3840456 0.057015363 -0.12497827 6
2.4029667 0.056629799 -0.041955583 7
2.395056 0.052679498 0.041815966 8
2.3921561 0.051780347 0.12539697 9
2.4002762 0.051535871 0.21004534 10
2.3823841 0.049487848 -0.20847654 5
2.3922176 0.048856772 -0.12539697 6
2.3871555 0.047919825 -0.041676346 7
2.4032226 0.044466205 0.041955583 8
2.3963161 0.043501712 0.12560631 9
2.388489 0.042942643 0.20899945 10
2.372582 0.04099986 -0.20760499 5
2.3923736 0.040506583 -0.12539697 6
2.3873084 0.039587308 -0.041676346 7
2.3893669 0.035867523 0.041711252 8
2.4044416 0.035253227 0.12602501 9
2.4005775 0.034778673 0.21004534 10
2.3806791 0.032826997 -0.20830221 5
2.3964944 0.032209579 -0.12560631 6
2.3874319 0.03125317 -0.041676346 7
2.3854833 0.027063837 0.041641444 8
2.4105413 0.02692738 0.126339 9
2.3986967 0.025957711 0.20987104 10
2.3807833 0.02410168 -0.20830221 5
2.3846133 0.023308031 -0.12497827 6
2.3915257 0.022958182 -0.041746158 7
2.389559 0.019185727 0.041711252 8
2.3946431 0.018389514 0.12550163 9
2.3967803 0.01757044 0.20969671 10
2.3888226 0.015843268 -0.20899945 5
2.3766887 0.015347992 -0.12455959 6
2.3915913 0.014609423 -0.041746158 7
2.3996098 0.010889227 0.041885775 8
2.3847046 0.010405395 0.12497827 9
2.4107721 0.0096776551 0.21091689 10
2.3968315 0.0079484675 -0.20969671 5
2.3847167 0.0070759109 -0.12497827 6
2.3836277 0.0066566798 -0.041606538 7
2.4036319 0.0029371406 0.041955583 8
2.3927155 0.0020886352 0.12539697 9
2.3928597 0.0012524045 0.2093481 10
2.3769207 -0.00041485092 -0.2079536 5
2.3887217 -0.00083382125 -0.12518762 6
2.3776374 -0.0016599041 -0.04150182 7
2.3956282 -0.0058536362 0.041815966 8
2.4026947 -0.0062902533 0.12592033 9
2.3868723 -0.0070820134 0.20882516 10
2.3769047 -0.0087118503 -0.2079536 5
2.3966916 -0.0096209878 -0.12560631 6
2.3776171 -0.0099593969 -0.04150182 7
2.3795984 -0.013705653 0.041536726 8
2.3986635 -0.014652784 0.12571098 9
2.3928101 -0.015452308 0.2093481 10
2.3899989 -0.015851306 0.29346141 11
2.3768597 -0.017008742 -0.2079536 5
2.3846631 -0.017480807 -0.12497827 6
2.3795676 -0.018274127 -0.041536726 7
2.3895338 -0.022104401 0.041711252 8
2.3886118 -0.022929734 0.12518762 9
2.3987226 -0.023445487 0.20987104 10
2.3938987 -0.024234047 0.29394889 11
2.3938947 -0.024651863 -0.29394889 4
2.3887441 -0.025015781 -0.20899945 5
2.3765993 -0.025718281 -0.12455959 6
2.4034839 -0.02684829 -0.041955583 7
2.3874426 -0.030419821 0.041676346 8
2.3845229 -0.031215116 0.12497827 9
2.4046025 -0.031897724 0.21039395 10
2.4096789 -0.032806356 0.2958988 11
2.3846579 -0.033298265 -0.20865084 5
2.3844831 -0.034128334 -0.12497827 6
2.3873799 -0.035003323 -0.041676346 7
2.3933203 -0.03885074 0.04178106 8
2.3923876 -0.039670922 0.12539697 9
2.3885398 -0.040024109 0.20899945 10
2.4035952 -0.041115642 0.2951676 11
2.3758011 -0.041054975 -0.29175523 4
2.3705826 -0.041378669 -0.20743066 5
2.3883436 -0.042522635 -0.12518762 6
2.3792458 -0.04319144 -0.041536726 7
2.3831735 -0.047007564 0.041606538 8
2.4002218 -0.048182011 0.12581564 9
2.3943615 -0.048482429 0.2095224 10
2.4054217 -0.049546383 0.29541129 11
2.3756433 -0.049347818 -0.29175523 4
2.3704236 -0.049653292 -0.20743066 5
2.3881805 -0.050859254 -0.12518762 6
2.3870773 -0.051669393 -0.041676346 7
2.3789966 -0.055233281 0.041536726 8
2.400039 -0.056560054 0.12581564 9
2.3901939 -0.056745443 0.20917378 10
2.3913424 -0.057607923 0.29370514 11
2.3794253 -0.057736367 -0.29224271 4
2.3662524 -0.057829961 -0.20708205 5
2.3819985 -0.059046768 -0.12487361 6
2.3828843 -0.059901021 -0.041606538 7
2.3747914 -0.063430406 0.041466918 8
2.3838546 -0.064505212 0.12497827 9
2.397948 -0.065305389 0.20987104 10
2.3851738 -0.065790713 0.29297391 11
2.3712721 -0.065821439 -0.29126775 4
2.3740022 -0.066311888 -0.20777929 5
2.3737919 -0.067135274 -0.12445491 6
2.3826606 -0.068218477 -0.041606538 7
2.3885469 -0.072142176 0.041711252 8
2.3796225 -0.07270404 0.12476893 9
2.3937223 -0.073553011 0.2095224 10
2.3928664 -0.07436277 0.29394889 11
2.3670597 -0.073974311 -0.29078028 4
2.3949497 -0.07526432 0.37951005 12
2.3797305 -0.074786045 -0.20830221 5
2.3775358 -0.075547814 -0.12466426 6
2.3784106 -0.07640668 -0.041536726 7
2.3902793 -0.08054667 0.041746158 8
2.3913307 -0.081417799 0.12539697 9
2.3854864 -0.081635639 0.20882516 10
2.3985438 -0.08292073 0.29468012 11
2.370755 -0.082374305 -0.29126775 4
2.3926983 -0.083554864 0.37919718 12
2.3694992 -0.082744732 -0.20743066 5
2.3812494 -0.083987311 -0.12487361 6
2.3641407 -0.084210142 -0.041292395 7
2.3779936 -0.088443875 0.041536726 8
2.3950236 -0.089914456 0.12560631 9
2.3851867 -0.089962043 0.20882516 10
2.3962562 -0.091217205 0.29443637 11
2.3744202 -0.090801001 -0.29175523 4
2.4002879 -0.092209756 0.38044867 12
2.371171 -0.091505669 -0.20760499 5
2.3849335 -0.092453636 -0.12508295 6
2.3997993 -0.093868889 -0.041920681 7
2.3776703 -0.096744075 0.041536726 8
2.3907042 -0.098110318 0.12539697 9
2.384841 -0.098703586 0.20882516 10
2.3919563 -0.099416271 0.29394889 11
2.3740888 -0.099088714 -0.29175523 4
2.3881092 -0.10009142 0.37857145 12
2.3728278 -0.099865802 -0.20777929 5
2.3726056 -0.10068613 -0.12445491 6
2.3954608 -0.1020749 -0.041850869 7
2.3753018 -0.1053694 0.04150182 8
2.3863566 -0.10627711 0.12518762 9
2.3964243 -0.10756367 0.20987104 10
2.3856266 -0.10791343 0.29321766 11
2.3618114 -0.10724922 -0.2902928 4
2.3956389 -0.10878532 0.37982294 12
2.374455 -0.10823864 -0.2079536 5
2.3642592 -0.10860088 -0.12403623 6
2.3990855 -0.11062022 -0.041920681 7
2.3849266 -0.11372183 0.041676346 8
2.3819809 -0.11441475 0.12497827 9
2.3980241 -0.11602437 0.21004534 10
2.3951695 -0.11630527 0.29443637 11
2.3614428 -0.11508068 -0.2902928 4
2.3774874 -0.11627853 0.3770071 12
2.3780425 -0.11672173 -0.20830221 5
2.3758552 -0.11703002 -0.12466426 6
2.39469 -0.11879574 -0.041850869 7
2.3845153 -0.12204609 0.041676346 8
2.3855565 -0.1229343 0.12518762 9
2.3876777 -0.12346145 0.20917378 10
2.3947489 -0.12466527 0.29443637 11
2.3649912 -0.12353005 -0.29078028 4
2.38693 -0.12509371 0.37857145 12
2.3676941 -0.12408561 -0.20743066 5
2.3794212 -0.12553304 -0.12487361 6
2.3862731 -0.12672985 -0.041711252 7
2.3780844 -0.1300413 0.041571636 8
2.3891013 -0.13148019 0.12539697 9
2.3792746 -0.13135593 0.20847654 10
2.3903351 -0.1328035 0.29394889 11
2.3645458 -0.13178465 -0.29078028 4
2.3845067 -0.13331461 0.37825859 12
2.3592896 -0.13190477 -0.20673342 5
2.4286559 -0.13620815 0.47282472 13
2.3849506 -0.13417457 -0.12518762 6
2.371841 -0.13426758 -0.041466918 7
2.365638 -0.13764463 0.041362204 8
2.3886278 -0.13981891 0.12539697 9
2.3788016 -0.13966034 0.20847654 10
2.3900166 -0.14073735 -0.37919718 3
2.3819304 -0.14067836 0.29297391 11
2.3719978 -0.14050718 -0.29175523 4
2.3938863 -0.14222306 0.37982294 12
2.3667703 -0.14061207 -0.20743066 5
2.4105272 -0.14363392 0.46939012 13
2.3744993 -0.14190306 -0.12466426 6
2.3793421 -0.14302598 -0.041606538 7
2.3751228 -0.14651704 0.041536726 8
2.3881252 -0.14815593 0.12539697 9
2.3902309 -0.14870535 0.2095224 10
2.3678238 -0.14772619 -0.37575564 3
2.3774624 -0.14874409 0.29248646 11
2.3596058 -0.14804034 -0.2902928 4
2.3894324 -0.15033032 0.37919718 12
2.3702419 -0.14912297 -0.20777929 5
2.4100113 -0.15204735 0.46939012 13
2.3700027 -0.14993851 -0.12445491 6
2.386811 -0.15183839 -0.041746158 7
2.3785877 -0.15506704 0.041606538 8
2.3736427 -0.15557678 0.12466426 9
2.3956616 -0.15743986 0.21004534 10
2.3613806 -0.15560091 -0.37481701 3
2.3868325 -0.15769641 0.29370514 11
2.355113 -0.15601356 -0.28980532 4
2.3888931 -0.15867011 0.37919718 12
2.365731 -0.15713169 -0.20743066 5
2.4094658 -0.16045894 0.46939012 13
2.373451 -0.15847659 -0.12466426 6
2.3782854 -0.15963329 -0.041606538 7
2.378032 -0.16336891 0.041606538 8
2.38504 -0.16468686 0.12529229 9
2.3831716 -0.16497576 0.20899945 10
2.3687053 -0.16438973 -0.3760685 3
2.390228 -0.16630262 0.29419261 11
2.3585148 -0.16450977 -0.2902928 4
2.3705897 -0.16576776 0.37638137 12
2.357218 -0.16483274 -0.20673342 5
2.4167252 -0.16941774 0.47091663 13
2.3768678 -0.16704056 -0.12487361 6
2.3737245 -0.16765235 -0.041536726 7
2.3714635 -0.17123675 0.04150182 8
2.3884346 -0.17330027 0.12550163 9
2.378607 -0.17300451 0.20865084 10
2.3562963 -0.17179522 -0.37419128 3
2.391613 -0.17478976 0.29443637 11
2.3638651 -0.17317662 -0.291024 4
2.3798468 -0.17476502 0.37794572 12
2.3606024 -0.17335179 -0.20708205 5
2.4043713 -0.1769879 0.46862692 13
2.3762703 -0.17533636 -0.12487361 6
2.3731251 -0.17593716 -0.041536726 7
2.3688574 -0.1793627 0.041466918 8
2.3858237 -0.18148491 0.12539697 9
2.3819618 -0.1816093 0.20899945 10
2.3556824 -0.18001918 -0.37419128 3
2.3810916 -0.18237898 0.29321766 11
2.3810599 -0.18279454 -0.29321766 4
2.3831613 -0.18337427 0.37857145 12
2.3599827 -0.1815908 -0.20708205 5
2.3998237 -0.18507771 0.46786368 13
2.3676784 -0.18301432 -0.12445491 6
2.3844585 -0.18514869 -0.041746158 7
2.3722041 -0.18794632 0.041536726 8
2.3752539 -0.18860513 0.12487361 9
2.3872716 -0.19039798 0.2095224 10
2.3550396 -0.18824095 -0.37419128 3
2.3745043 -0.19021389 0.29248646 11
2.3646107 -0.18942133 -0.29126775 4
2.3845093 -0.1914342 0.37888432 12
2.3633065 -0.19014713 -0.20743066 5
2.4069905 -0.1940847 0.46939012 13
2.3670251 -0.19127792 -0.12445491 6
2.391804 -0.19370049 -0.041885775 7
2.3795393 -0.19646998 0.041676346 8
2.3726249 -0.19631602 0.12476893 9
2.3925836 -0.19880836 0.21004534 10
2.3622766 -0.19670519 -0.37544277 3
2.3817735 -0.19874728 0.29346141 11
2.3679259 -0.19759177 -0.29175523 4
2.3818927 -0.19917585 0.37857145 12
2.3666337 -0.19831583 -0.20777929 5
2.4102466 -0.20239405 0.47015342 13
2.3703585 -0.19946119 -0.12466426 6
2.4215212 -0.20376642 0.56102794 14
2.3791928 -0.20062275 -0.041676346 7
2.3828595 -0.20470205 0.041746158 8
2.3759048 -0.20494011 0.12497827 9
2.3819864 -0.20588353 0.20917378 10
2.3655472 -0.20487858 -0.3760685 3
2.3850565 -0.20698769 0.29394889 11
2.3672218 -0.20585616 -0.29175523 4
2.3733113 -0.2068031 0.37731999 12
2.3560388 -0.20529801 -0.20690772 5
2.4134741 -0.21072714 0.47091663 13
2.369684 -0.20732047 -0.12466426 6
2.4091473 -0.21119675 0.55832851 14
2.3705099 -0.20822656 -0.041536726 7
2.3701799 -0.21194988 0.041536726 8
2.3831322 -0.21394669 0.12539697 9
2.3772845 -0.21383996 0.20882516 10
2.3530133 -0.21207076 -0.37419128 3
2.3882737 -0.21566889 0.29443637 11
2.3743968 -0.21483357 -0.29273018 4
2.3765097 -0.21544291 0.37794572 12
2.3513393 -0.21316108 -0.20655911 5
2.4009924 -0.21808492 0.46862692 13
2.3808799 -0.21667702 -0.12529229 6
2.4200394 -0.22066674 0.56102794 14
2.3777342 -0.21722764 -0.041676346 7
2.3554881 -0.21892665 0.041292395 8
2.3823707 -0.22226407 0.12539697 9
2.380491 -0.22250777 0.20917378 10
2.3483253 -0.21991464 -0.37356552 3
2.3796005 -0.22326246 0.29346141 11
2.3775852 -0.22349198 -0.29321766 4
2.3796763 -0.22410759 0.37857145 12
2.3585153 -0.22211473 -0.20725635 5
2.4002163 -0.2264646 0.46862692 13
2.3681788 -0.22385882 -0.12466426 6
2.411494 -0.22837795 0.5592283 14
2.3769615 -0.22552617 -0.041676346 7
2.3706329 -0.22868358 0.041571636 8
2.3736284 -0.22980884 0.12497827 9
2.385649 -0.23139295 0.20969671 10
2.3514755 -0.22849257 -0.37419128 3
2.374855 -0.23118278 0.29297391 11
2.3688877 -0.23101924 -0.29224271 4
2.3769138 -0.23222078 0.37825859 12
2.3656576 -0.23112106 -0.2079536 5
2.4013653 -0.23503277 0.46900854 13
2.359432 -0.23134433 -0.12424557 6
2.4106822 -0.23679425 0.5592283 14
2.3881004 -0.23499693 -0.041885775 7
2.3737998 -0.23735517 0.041641444 8
2.3767865 -0.2384918 0.12518762 9
2.3868093 -0.23991825 0.20987104 10
2.3585253 -0.23749101 -0.37544277 3
2.3760087 -0.2396704 0.29321766 11
2.3601668 -0.23848853 -0.29126775 4
2.3760886 -0.24051632 0.37825859 12
2.3688006 -0.23977862 -0.20830221 5
2.4142029 -0.24480009 0.47167987 13
2.3625841 -0.23998253 -0.12445491 6
2.375329 -0.24211484 -0.041676346 7
2.3729568 -0.24563983 0.041641444 8
2.3679931 -0.24596146 0.12476893 9
2.3760488 -0.24721739 0.20899945 10
2.3537526 -0.24531282 -0.37481701 3
2.3810809 -0.24858114 0.29394889 11
2.3672171 -0.24755144 -0.29224271 4
2.37327 -0.24860318 0.37794572 12
2.3600233 -0.24721557 -0.20760499 5
2.4211435 -0.25404522 0.47320631 13
2.3696775 -0.24906313 -0.12487361 6
2.3744693 -0.25040483 -0.041676346 7
2.3641315 -0.25307009 0.04150182 8
2.3750637 -0.25507891 0.12518762 9
2.3692284 -0.2548705 0.20847654 10
2.3528819 -0.25352746 -0.37481701 3
2.3900666 -0.25795621 0.2951676 11
2.3702857 -0.25623977 -0.29273018 4
2.3743515 -0.25709856 0.37825859 12
2.3551841 -0.25502309 -0.20725635 5
2.4163384 -0.26207167 0.4724431 13
2.3767357 -0.25819612 -0.12529229 6
2.3735809 -0.25869173 -0.041676346 7
2.3592587 -0.26088136 0.041432012 8
2.3801138 -0.26402852 0.12550163 9
2.376245 -0.26401916 0.20917378 10
2.3480561 -0.26130205 -0.37419128 3
2.3733687 -0.26453832 0.29321766 11
2.3713496 -0.2647323 -0.29297391 4
2.3773661 -0.26582405 0.37888432 12
2.3582399 -0.26368546 -0.20760499 5
2.4076049 -0.26963067 0.47091663 13
2.3639114 -0.26515514 -0.12466426 6
2.3806121 -0.26786992 -0.041815966 7
2.3603203 -0.26934183 0.041466918 8
2.373225 -0.27165365 0.12518762 9
2.3792679 -0.27276608 0.2095224 10
2.3667543 -0.27175 -0.37731999 3
2.376375 -0.27327487 0.29370514 11
2.3625231 -0.2720997 -0.29199898 4
2.3881977 -0.27547911 0.3807615 12
2.3612635 -0.27237225 -0.2079536 5
2.4066491 -0.27803314 0.47091663 13
2.3550351 -0.27248687 -0.12424557 6
2.3915808 -0.27756137 -0.042025398 7
2.3732677 -0.27921483 0.041711252 8
2.368295 -0.27946797 0.12497827 9
2.3862157 -0.28200495 0.21021965 10
2.3754067 -0.28156829 0.29370514 11
2.3595877 -0.28011081 -0.29175523 4
2.3715291 -0.28194818 0.37825859 12
2.3642552 -0.28108338 -0.20830221 5
2.4134617 -0.28736067 0.4724431 13
2.358036 -0.28117874 -0.12445491 6
2.378684 -0.28448305 -0.041815966 7
2.3702934 -0.28725678 0.041676346 8
2.3712707 -0.28821513 0.12518762 9
2.3713722 -0.2886475 0.20899945 10
2.3842618 -0.29106104 0.29492384 11
2.3585954 -0.28834561 -0.29175523 4
2.3626876 -0.28926444 0.3770071 12
2.3513939 -0.28788173 -0.20725635 5
2.4065981 -0.29506671 0.47129822 13
2.3649697 -0.29038179 -0.12487361 6
2.3697376 -0.29180691 -0.041676346 7
2.3593547 -0.29429135 0.04150182 8
2.3742137 -0.29698643 0.12539697 9
2.3723273 -0.297171 0.20917378 10
2.379292 -0.29888704 0.29443637 11
2.3634832 -0.29732022 -0.29248646 4
2.3714628 -0.29874444 0.37857145 12
2.3464212 -0.29558983 -0.20690772 5
2.4036057 -0.30321983 0.47091663 13
2.3718677 -0.29963654 -0.12529229 6
2.3766401 -0.30108234 -0.041815966 7
2.3563297 -0.3022708 0.041466918 8
2.3771245 -0.30578184 0.12560631 9
2.3752275 -0.30595922 0.2095224 10
2.3762653 -0.30693617 0.29419261 11
2.3683369 -0.30633235 -0.29321766 4
2.3704057 -0.30702057 0.37857145 12
2.3572304 -0.30531409 -0.2079536 5
2.3908508 -0.31009302 0.46862692 13
2.3628848 -0.30688512 -0.12487361 6
2.3795404 -0.30989301 -0.041885775 7
2.3631902 -0.31153947 0.041606538 8
2.3701026 -0.3132925 0.12529229 9
2.3820457 -0.31529427 0.21021965 10
2.3673081 -0.3141844 0.29321766 11
2.3574145 -0.31329 -0.29199898 4
2.3751938 -0.3160747 0.37951005 12
2.3640504 -0.3145918 -0.20865084 5
2.3936458 -0.31895533 0.46939012 13
2.3578398 -0.314603 -0.12466426 6
2.3863726 -0.31925794 -0.042025398 7
2.3640702 -0.32005501 0.041641444 8
2.3709736 -0.32183245 0.12539697 9
2.3809307 -0.32360718 0.21021965 10
2.3760316 -0.32378611 0.29443637 11
2.3582733 -0.32178539 -0.29224271 4
2.3740759 -0.32436371 0.37951005 12
2.3668857 -0.32338133 -0.20899945 5
2.4002986 -0.32837322 0.47091663 13
2.3527696 -0.32228935 -0.12445491 6
2.3733571 -0.32595351 -0.041815966 7
2.3728418 -0.32968116 0.041815966 8
2.3658795 -0.32955563 0.12518762 9
2.3718934 -0.33081535 0.2095224 10
2.3807847 -0.3329027 0.2951676 11
2.3610675 -0.33056581 -0.29273018 4
2.3631482 -0.33127767 0.37794572 12
2.353904 -0.32998177 -0.2079536 5
2.4030261 -0.33729559 0.47167987 13
2.3595417 -0.33161196 -0.12487361 6
2.3682444 -0.33367807 -0.041746158 7
2.3578186 -0.33598712 0.041571636 8
2.3687282 -0.33796352 0.12539697 9
2.3628349 -0.33796436 0.20882516 10
2.3796082 -0.34121117 0.2951676 11
2.365947 -0.33967373 0.37857145 12
2.3527379 -0.3381964 -0.2079536 5
2.3979475 -0.34512231 0.47091663 13
2.366277 -0.34098575 -0.12529229 6
2.3750415 -0.34267187 -0.041885775 7
2.3606491 -0.34438145 0.041641444 8
2.3754387 -0.34738585 0.12581564 9
2.3655834 -0.34678811 0.20917378 10
2.3725715 -0.34823552 0.29443637 11
2.3725646 -0.34908056 0.37982294 12
2.3476007 -0.34582621 -0.20760499 5
2.3929055 -0.35250005 0.47015342 13
2.3532782 -0.34708217 -0.12466426 6
2.3817439 -0.35213009 -0.042025398 7
2.3614104 -0.35291511 0.041676346 8
2.3624222 -0.35348788 0.12518762 9
2.3742721 -0.35610837 0.21004534 10
2.3634894 -0.35533476 0.29346141 11
2.3753006 -0.35753441 0.38044867 12
2.3582621 -0.35539064 -0.20865084 5
2.4071903 -0.36319387 0.47320631 13
2.3520522 -0.35529459 -0.12466426 6
2.3884718 -0.36122239 -0.042165015 7
2.3701105 -0.36225453 0.041850869 8
2.3670964 -0.36263946 0.12550163 9
2.3789225 -0.36530116 0.21056828 10
2.3740704 -0.36498022 0.29492384 11
2.3720858 -0.36552274 0.38013577 12
2.3609452 -0.36422786 -0.20899945 5
2.3508611 -0.36309227 -0.12466426 6
2.371387 -0.3671101 -0.041885775 7
2.3648157 -0.37032026 0.04178106 8
2.3657515 -0.37131289 0.12550163 9
2.3618872 -0.37112874 0.20917378 10
2.3805606 -0.3749145 0.2958988 11
2.3609741 -0.37267444 0.37857145 12
2.3595943 -0.37287873 -0.20899945 5
2.3613505 -0.37357876 -0.12529229 6
2.3660755 -0.37517291 -0.041815966 7
2.3654835 -0.37888902 0.041815966 8
2.3683851 -0.38020182 0.12571098 9
2.3565769 -0.37915003 0.20882516 10
2.3851166 -0.38416886 0.29663 11
2.361609 -0.38122836 0.37888432 12
2.3504109 -0.37984154 -0.20830221 5
2.3639085 -0.38286966 -0.12550163 6
2.3608038 -0.38278964 -0.041746158 7
2.3561852 -0.38626239 0.041676346 8
2.3788006 -0.39082259 0.126339 9
2.3709667 -0.38996053 0.21021965 10
2.369982 -0.39064825 0.29492384 11
2.3699408 -0.39149126 0.38044867 12
2.3431733 -0.38706955 -0.20777929 5
2.3527055 -0.38948789 -0.12497827 6
2.3751669 -0.39405817 -0.042025398 7
2.3607392 -0.39547586 0.04178106 8
2.3695431 -0.3978011 0.12592033 9
2.369591 -0.39823437 0.21021965 10
2.3627312 -0.39792955 0.29419261 11
2.3744032 -0.40074775 0.38138729 12
2.3811002 -0.40187803 -0.2112655 5
2.347393 -0.39703178 -0.12476893 6
2.3777199 -0.40301496 -0.042095207 7
2.3672287 -0.40506306 0.041920681 8
2.360266 -0.40471971 0.12550163 9
2.3701501 -0.40684038 0.21039395 10
2.3613276 -0.40617466 0.29419261 11
2.3652031 -0.40769127 0.38013577 12
2.3538654 -0.40658316 -0.12518762 6
2.3684168 -0.40994802 -0.041955583 7
2.36974 -0.41401204 0.041990492 8
2.3627737 -0.41364497 0.12571098 9
2.3687155 -0.41511127 0.21039395 10
2.3716266 -0.41647482 0.29565504 11
2.36182 -0.41560256 0.37982294 12
2.3602993 -0.41618448 -0.12560631 6
2.3669713 -0.41821286 -0.041955583 7
2.3564684 -0.42017531 0.04178106 8
2.36918 -0.4232952 0.12612967 9
2.3554847 -0.42127252 0.2093481 10
2.3818824 -0.42685178 0.2971175 11
2.3720205 -0.42593905 0.38170013 12
2.3666952 -0.42583567 -0.12602501 6
2.3694334 -0.42718223 -0.042025398 7
2.3471179 -0.42696679 0.041641444 8
2.3657229 -0.43120444 0.12602501 9
2.3618398 -0.4309226 0.21004534 10
2.3745196 -0.43409255 0.29638627 11
2.3627472 -0.43279278 0.38044867 12
2.3534076 -0.43193111 -0.12539697 6
2.3718612 -0.43617386 -0.042095207 7
2.3574097 -0.43734568 0.041850869 8
2.3623164 -0.43868238 0.12592033 9
2.3642385 -0.43989319 0.21039395 10
2.3612809 -0.44019571 0.29492384 11
2.3787756 -0.4438867 0.38326448 12
2.3440328 -0.43867376 -0.12497827 6
2.3821948 -0.44624594 -0.042304631 7
2.3520169 -0.44441822 0.04178106 8
2.3568459 -0.44618276 0.12571098 9
2.3685613 -0.44925714 0.21091689 10
2.37151 -0.45024523 0.29638627 11
2.3616869 -0.4492344 0.3807615 12
2.3504131 -0.44794014 -0.12539697 6
2.3688371 -0.45230836 -0.042095207 7
2.3622329 -0.4548943 0.041990492 8
2.3611572 -0.45554203 0.12602501 9
2.3572772 -0.45522019 0.21004534 10
2.3777194 -0.46002883 0.29736122 11
2.3542867 -0.45634782 0.37982294 12
2.3566775 -0.45766485 -0.12581564 6
2.3593922 -0.45904678 -0.041955583 7
2.3567064 -0.46236733 0.041920681 8
2.365432 -0.46493679 0.126339 9
2.3576288 -0.46383047 0.21021965 10
2.3799944 -0.46909356 0.2978487 11
2.3546174 -0.46494573 0.38013577 12
2.369545 -0.46961233 -0.042165015 7
2.3452733 -0.46863183 0.041746158 8
2.3716283 -0.47475907 0.1267577 9
2.3599024 -0.47284013 0.21056828 10
2.3705575 -0.4758358 0.29687375 11
2.3587899 -0.47433034 0.3810744 12
2.3718114 -0.47867188 -0.042234823 7
2.353421 -0.47880888 0.041920681 8
2.3582146 -0.48064142 0.12612967 9
2.3660464 -0.48266783 0.2112655 10
2.3630474 -0.48291531 0.29614252 11
2.3740439 -0.48775303 -0.042304631 7
2.3517354 -0.48702097 0.041920681 8
2.3545668 -0.4884645 0.12602501 9
2.3623965 -0.49051893 0.21109121 10
2.3652341 -0.49196944 0.29663 11
2.3605826 -0.49358138 -0.042095207 7
2.3656747 -0.49852583 0.042199921 8
2.3548014 -0.49709308 0.12612967 9
2.3587205 -0.49835035 0.21091689 10
2.3615606 -0.49981165 0.29638627 11
2.3627572 -0.50265056 -0.042165015 7
2.3521883 -0.50426543 0.041990492 8
2.3647685 -0.50782591 0.1267577 9
2.3511226 -0.50532478 0.21039395 10
2.3733859 -0.51097661 0.29809242 11
2.3688061 -0.51258677 -0.042304631 7
2.3425984 -0.51076907 0.041850869 8
2.3629816 -0.5160774 0.1267577 9
2.3610232 -0.51608145 0.21143983 10
2.361892 -0.51713526 0.29687375 11
2.3486106 -0.52067447 0.041990492 8
2.3514166 -0.52215773 0.12623434 9
2.3553174 -0.52345532 0.21109121 10
2.3620102 -0.52580804 0.2971175 11
2.3564401 -0.53147888 0.042165015 8
2.3533833 -0.53165281 0.12644368 9
2.3630998 -0.53428131 0.21196276 10
2.3581309 -0.53402323 0.29687375 11
2.3603234 -0.54145342 0.042269729 8
2.3592997 -0.54165202 0.12686236 9
2.3533587 -0.54115295 0.2112655 10
2.3638954 -0.54444468 0.2978487 11
2.3507245 -0.54746324 0.042130109 8
2.3574905 -0.54947275 0.12686236 9
2.3457308 -0.5475952 0.21074259 10
2.3640101 -0.55273265 0.29809242 11
2.3411119 -0.55341536 0.041990492 8
2.3634298 -0.55912673 0.12728105 9
2.3535955 -0.55766773 0.21161415 10
2.3563697 -0.55919379 0.29736122 11
2.3450973 -0.56257522 0.042095207 8
2.3518524 -0.56462985 0.1267577 9
2.3652933 -0.56872994 0.21283433 10
2.3545024 -0.5670048 0.29736122 11
2.3449624 -0.57164019 0.042130109 8
2.3477268 -0.57318234 0.12665303 9
2.363193 -0.57739532 0.21283433 10
2.3562648 -0.57657433 0.2978487 11
2.3573434 -0.58425683 0.12728105 9
2.3534279 -0.58372235 0.21213706 10
2.3638709 -0.58718854 0.29906741 11
2.3591633 -0.59345639 0.1274904 9
2.3475118 -0.59096104 0.21178845 10
2.3648181 -0.60366374 0.12790908 9
2.3570168 -0.60211056 0.21283433 10
2.347229 -0.6079089 0.12707172 9
2.352972 -0.60983455 0.21266 10
2.3431611 -0.61559105 0.12696704 9
2.3623908 -0.6210838 0.21370588 10
2.3526869 -0.6264413 0.12759508 9
2.3467324 -0.62573314 0.2124857 10
2.3601267 -0.63725293 0.12811844 9
2.346457 -0.6344409 0.21266 10
2.3501053 -0.64379781 0.21318294 10
2.3593621 -0.65519601 0.21422882 10
2.3628142 -0.66504711 0.21475175 10
2.3470664 -0.6694653 0.21353155 10
2.3447154 -0.67765403 0.21353155 10
2.3538082 -0.68919367 0.21457744 10
2.3380172 -0.69344014 0.21335725 10
