# .PCD v0.7 - Point Cloud Data file format
VERSION 0.7
FIELDS x y z intensity
SIZE 4 4 4 4
TYPE F F F F
COUNT 1 1 1 1
WIDTH 954
HEIGHT 1
VIEWPOINT 0 0 0 1 0 0 0
POINTS 954
DATA ascii
1.76696 1.3223366 -0.11566247 6
1.7827876 1.3244988 -0.11639518 6
1.772934 1.3075976 -0.11545313 6
1.7694299 1.2955021 -0.11492977 6
1.7755572 1.2904915 -0.11503445 6
1.7751923 1.2807795 -0.11472043 6
1.7796514 1.2745763 -0.11472043 6
1.7757634 1.270853 -0.038116053 7
1.7840898 1.268356 -0.11472043 6
1.7897483 1.2719073 -0.038325485 7
1.7752333 1.2532175 -0.11388306 6
1.7827381 1.2575847 -0.038081151 7
1.786461 1.2522883 -0.19087107 5
1.773271 1.2421196 -0.11346437 6
1.7920315 1.2547945 -0.038185868 7
1.7877679 1.2434565 -0.19052245 5
1.7778114 1.2356122 -0.11346437 6
1.785123 1.2402306 -0.03794153 7
1.775701 1.2258896 -0.18877934 5
1.7821139 1.2293985 -0.11346437 6
1.7861488 1.2317219 -0.037871722 7
1.77154 1.2143613 -0.18790779 5
1.7894769 1.2257388 -0.11367371 6
1.790224 1.2257915 -0.037871722 7
1.7739093 1.20736 -0.18773346 5
1.7869253 1.2153054 -0.11325502 6
1.7977992 1.2217833 -0.03794153 7
1.8113059 1.2268077 0.038185868 8
1.7797643 1.2022754 -0.18790779 5
1.7779131 1.2001213 -0.11241764 6
1.8020533 1.2154998 -0.03794153 7
1.7940031 1.2059743 0.037732106 8
1.7856052 1.1971645 -0.18808208 5
1.7903881 1.1994658 -0.112941 6
1.7929908 1.2003042 -0.03766229 7
1.798201 1.199706 0.037732106 8
1.7765034 1.1820952 -0.1866876 5
1.7929015 1.1921026 -0.11283633 6
1.7938389 1.1918243 -0.037592482 7
1.7890394 1.1845893 0.037452865 8
1.7772938 1.1736901 -0.18633896 5
1.7903827 1.181438 -0.11241764 6
1.7946497 1.1833534 -0.037522674 7
1.7898216 1.1761403 0.037383057 8
1.7813797 1.1674795 -0.18633896 5
1.7878129 1.1708038 -0.11199896 6
1.8021157 1.1792719 -0.037592482 7
1.793916 1.169886 0.037383057 8
1.7787027 1.1573119 -0.26055667 4
1.7887845 1.1634274 -0.1866876 5
1.7885394 1.1623797 -0.11178961 6
1.8062214 1.1729736 -0.037592482 7
1.7963101 1.1625298 0.037348151 8
1.7827319 1.1510956 -0.26055667 4
1.7894868 1.1550146 -0.18633896 5
1.795943 1.1582941 -0.11199896 6
1.8002195 1.1601626 -0.037383057 7
1.8068846 1.1608907 0.037487768 8
1.7865391 1.1451778 -0.26055667 4
1.7849196 1.1436992 -0.18546741 5
1.7997739 1.1523324 -0.11199896 6
1.7973187 1.1498761 -0.037243433 7
1.794064 1.1438265 0.037138719 8
1.8175445 1.1579033 0.112941 9
1.7871754 1.1368042 -0.26006919 4
1.7771319 1.1299788 -0.18424724 5
1.8004143 1.1439005 -0.11178961 6
1.8013217 1.1435949 -0.037243433 7
1.7963564 1.1364875 0.037103817 8
1.8148222 1.1472833 0.11252232 9
1.7844185 1.1263201 -0.25909427 4
1.7844352 1.1258953 -0.18459585 5
1.7942588 1.1312182 -0.11116158 6
1.8053026 1.1373005 -0.037243433 7
1.8020064 1.1312728 0.037138719 8
1.8103566 1.1356343 0.11199896 9
1.7782453 1.1137619 -0.25763181 4
1.7866656 1.1186028 -0.18442155 5
1.7981969 1.1249477 -0.11116158 6
1.8160444 1.1352313 -0.037383057 7
1.811036 1.1281482 0.037243433 8
1.8075271 1.1250869 0.11158027 9
1.7787499 1.1054525 -0.25714433 4
1.7939444 1.1144615 -0.18477017 5
1.795325 1.1144509 -0.1107429 6
1.8030031 1.1183443 -0.037034009 7
1.8132622 1.1207677 0.037208531 8
1.8131423 1.1198202 0.11168494 9
1.7825981 1.0992362 -0.25714433 4
1.7910395 1.1040102 -0.18407291 5
1.8060068 1.1123664 -0.11116158 6
1.8000829 1.1078525 -0.036894388 7
1.8001159 1.1039782 0.036859483 8
1.8102287 1.1093097 0.11126626 9
1.7924631 1.0975624 -0.33289257 3
1.7898102 1.0950805 -0.25763181 4
1.7846841 1.0915149 -0.18302706 5
1.8132873 1.108138 -0.11137092 6
1.8073525 1.103646 -0.036964197 7
1.8005425 1.0956086 0.036789671 8
1.8175027 1.1050596 0.1114756 9
1.7861543 1.0851445 -0.33101538 3
1.7902284 1.0867655 -0.25714433 4
1.7918901 1.0873452 -0.18337567 5
1.8034807 1.0935187 -0.11053354 6
1.818035 1.1014758 -0.037103817 7
1.8043561 1.0893164 0.036789671 8
1.8145088 1.0945816 0.11105692 9
1.7933141 1.0809438 -0.33164111 3
1.7872094 1.0764127 -0.25616938 4
1.795674 1.081085 -0.18337567 5
1.7935959 1.07898 -0.10969618 6
1.8150134 1.0910015 -0.036964197 7
1.8081473 1.0830117 0.036789671 8
1.8166051 1.0872151 0.11095224 9
1.7818183 1.0655522 -0.32882527 3
1.7875476 1.0681316 -0.2556819 4
1.7960161 1.0727665 -0.18302706 5
1.804211 1.0768071 -0.11011487 6
1.8085063 1.0785135 -0.036754768 7
1.8187933 1.0807792 0.036929294 8
1.8184823 1.080166 0.11084756 9
1.8178519 1.0789323 0.1849445 10
1.790624 1.0623494 -0.32976389 3
1.7912655 1.0618848 -0.2556819 4
1.7877518 1.0593802 -0.18180689 5
1.8028032 1.0674493 -0.10980085 6
1.8086306 1.0704734 -0.036684956 7
1.8051425 1.064584 0.036580246 8
1.822242 1.0738114 0.11084756 9
1.8095884 1.0655041 0.1837243 10
1.7839235 1.0503923 -0.3278867 3
1.7913549 1.0539261 -0.25519443 4
1.7862859 1.0501046 -0.18128395 5
1.808055 1.0624775 -0.10990552 6
1.812356 1.064154 -0.036684956 7
1.8071213 1.0572668 0.03654534 8
1.8257926 1.0677631 0.11084756 9
1.814832 1.060503 0.18389861 10
1.7807561 1.0401738 -0.32663518 3
1.8018802 1.0516696 -0.25616938 4
1.7931998 1.0461837 -0.18163256 5
1.8013996 1.0501249 -0.10927749 6
1.819331 1.0601515 -0.036754768 7
1.8088883 1.0502639 0.036510434 8
1.8191437 1.0553694 0.11021954 9
1.8271416 1.0591573 0.18477017 10
1.7807779 1.032281 -0.32600945 3
1.7916162 1.0377284 -0.25421947 4
1.7933923 1.0379214 -0.18128395 5
1.8014147 1.0421447 -0.10906815 6
1.8195575 1.0517931 -0.036684956 7
1.816009 1.0459398 0.036580246 8
1.8124297 1.043036 0.10959151 9
1.8237355 1.0491186 0.18407291 10
1.7843707 1.0260583 -0.32600945 3
1.7883431 1.027512 -0.25324452 4
1.8020077 1.0349449 -0.18180689 5
1.8015773 1.0338616 -0.1088588 6
1.8128093 1.0394675 -0.036475532 7
1.8231214 1.0415788 0.036650054 8
1.8212637 1.0396732 0.10990552 9
1.8004853 1.0278119 -0.40298861 2
1.8239253 1.0407718 0.1837243 10
1.7948047 1.0237386 -0.32726091 3
1.7953678 1.0232295 -0.253732 4
1.7934909 1.0217451 -0.1805867 5
1.8121178 1.0315192 -0.10927749 6
1.809474 1.0291781 -0.036335908 7
1.807609 1.0243629 0.0362661 8
1.8266191 1.0342939 0.11001018 9
1.7733109 1.0041089 -0.39611951 2
1.8223456 1.0314541 0.18320136 10
1.7880518 1.0116305 -0.32538372 3
1.8023847 1.0189104 -0.25421947 4
1.7901087 1.0115572 -0.17988946 5
1.8122289 1.0232239 -0.10906815 6
1.8130558 1.0228552 -0.036335908 7
1.8094307 1.0170667 0.036231197 8
1.8319603 1.0288891 0.11011487 9
1.7750936 0.99695081 -0.39573789 2
1.8259354 1.0250862 0.18320136 10
1.784681 1.0015173 -0.32413223 3
1.8024676 1.0106704 -0.253732 4
1.7936281 1.0053037 -0.17988946 5
1.8053342 1.0110358 -0.10844011 6
1.8235953 1.0204266 -0.036475532 7
1.8129697 1.0107448 0.036231197 8
1.8250719 1.0166559 0.10948683 9
1.7837085 0.99361432 -0.39688274 2
1.8295022 1.0187066 0.18320136 10
1.7847142 0.99335963 -0.3235065 3
1.8491768 1.0288153 0.25982547 11
1.7921054 0.99665433 -0.25178206 4
1.8006092 1.0009723 -0.18023807 5
1.8088522 1.0047282 -0.10844011 6
1.8271465 1.0140543 -0.036475532 7
1.8199869 1.0063449 0.036301006 8
1.8198678 1.005451 0.10896347 9
1.7802912 0.98358542 -0.39535624 2
1.8330473 1.0123137 0.18320136 10
1.7847124 0.98521405 -0.32288077 3
1.8458037 1.0185192 0.25885051 11
1.7955737 0.99039215 -0.25178206 4
1.807582 0.99660426 -0.1805867 5
1.8123486 0.9984076 -0.10844011 6
1.8096521 0.99610001 -0.036056671 7
1.823488 0.99998713 0.036301006 8
1.8266952 1.0013301 0.10917282 9
1.7768272 0.97359109 -0.39382979 2
1.8225895 0.99825358 0.18180689 10
1.7950711 0.98277307 -0.32413223 3
1.8388996 1.0063515 0.25738806 11
1.7955371 0.98221266 -0.25129461 4
1.7970645 0.98264188 -0.1791922 5
1.8158228 0.99207473 -0.10844011 6
1.8164558 0.99201006 -0.036126483 7
1.8162552 0.98819995 0.036091577 8
1.8301797 0.99494725 0.10917282 9
1.7836646 0.96925789 -0.39459303 2
1.8243124 0.9909339 0.18163256 10
1.7844332 0.96927226 -0.32162929 3
1.8369938 0.99740589 0.25665686 11
1.802273 0.97814798 -0.25178206 4
1.80749 0.98016173 -0.17988946 5
1.8191022 0.986049 -0.10844011 6
1.8234243 0.98756748 -0.036196291 7
1.8108944 0.97710568 0.035917051 8
1.8369845 0.99076921 0.10938216 9
1.7868688 0.96333808 -0.39459303 2
1.8240809 0.982988 0.18128395 10
1.7843279 0.96116346 -0.32100356 3
1.842211 0.99192977 0.25690058 11
1.8091729 0.97373217 -0.25226957 4
1.8107301 0.97416282 -0.17988946 5
1.8119781 0.97401887 -0.10781208 6
1.8231661 0.97962284 -0.036126483 7
1.8229395 0.97581416 0.036091577 8
1.8263421 0.97681564 0.10854478 9
1.7936835 0.95894569 -0.39535624 2
1.8310157 0.97849238 0.18163256 10
1.7875055 0.95524061 -0.32100356 3
1.834985 0.98020297 0.25543818 11
1.8001339 0.96118265 -0.25056338 4
1.8176351 0.96971226 -0.18023807 5
1.8116732 0.96612537 -0.10760273 6
1.8336337 0.97701454 -0.0362661 7
1.8233087 0.96661496 0.036021769 8
1.8230203 0.9660545 0.10812609 9
1.7869433 0.9465372 -0.39306656 2
1.8312377 0.96959049 0.18128395 10
1.7948176 0.94990593 -0.32162929 3
1.8424145 0.97468513 0.25592566 11
1.795038 0.94962168 -0.24934469 4
1.8125379 0.95807004 -0.17936651 5
1.815537 0.95884466 -0.10760273 6
1.8196875 0.96063066 -0.035917051 7
1.8300436 0.96242517 0.036091577 8
1.7784002 0.93486959 -0.46384907 1
1.8332852 0.96372157 0.10854478 9
1.7831203 0.93695372 -0.39154008 2
1.830915 0.96166003 0.18093532 10
1.7979574 0.94394928 -0.32162929 3
1.8526673 0.97226024 0.25690058 11
1.798177 0.94366431 -0.24934469 4
1.8174694 0.9529798 -0.17954083 5
1.818707 0.95281839 -0.10760273 6
1.8193201 0.95273608 -0.035847243 7
1.82436 0.95172703 0.035917051 8
1.778035 0.92716455 -0.46294928 1
1.8348674 0.95639271 0.10844011 9
1.7896998 0.93284988 -0.39230329 2
1.8270258 0.95190114 0.18023807 10
1.7905658 0.93250674 -0.3197521 3
1.8488384 0.96244425 0.25592566 11
1.8085039 0.94104737 -0.25031966 4
1.8453815 0.95982623 0.32945102 12
1.8101788 0.94111502 -0.17849496 5
1.8218559 0.94678336 -0.10760273 6
1.8261842 0.9482221 -0.035917051 7
1.8223429 0.94259638 0.035812337 8
1.769143 0.91468775 -0.45979998 1
1.8364201 0.94906545 0.10833544 9
1.789618 0.92448235 -0.39154008 2
1.8269621 0.94336969 0.17988946 10
1.7834394 0.92050213 -0.31787488 3
1.8486586 0.95416427 0.25543818 11
1.8153062 0.93654865 -0.25080714 4
1.8504761 0.95428449 0.32976389 12
1.8169944 0.93661666 -0.17884357 5
1.8111095 0.93278325 -0.10676537 6
1.825927 0.94001162 -0.035847243 7
1.8222264 0.93408698 0.035742529 8
1.7828898 0.9135288 -0.46249935 1
1.8272794 0.93627346 0.10760273 9
1.7928344 0.91822928 -0.39154008 2
1.8373375 0.94061869 0.1805867 10
1.790159 0.9160704 -0.31850061 3
1.8362378 0.93924576 0.25324452 11
1.8045865 0.92265981 -0.24885722 4
1.8467604 0.94422275 0.32851243 12
1.8167048 0.9284547 -0.17849496 5
1.8143543 0.92645597 -0.10676537 6
1.8327595 0.93544984 -0.035917051 7
1.8288791 0.92985106 0.035812337 8
1.77896 0.90408027 -0.46069977 1
1.8287556 0.92898518 0.10749806 9
1.7855256 0.90663284 -0.3892504 2
1.8370568 0.93239552 0.18023807 10
1.7931868 0.91012931 -0.31850061 3
1.8411124 0.93404984 0.25348827 11
1.8094071 0.91756797 -0.24910097 4
1.8447593 0.93509066 0.32757381 12
1.8199348 0.92210704 -0.17849496 5
1.8174168 0.92043376 -0.10676537 6
1.8253084 0.92362899 -0.035707623 7
1.8356854 0.92526114 0.035882145 8
1.7838453 0.89874226 -0.46114969 1
1.8284193 0.92079967 0.10728873 9
1.788522 0.90070719 -0.3892504 2
1.8365797 0.92450637 0.17988946 10
1.7963525 0.9038648 -0.31850061 3
1.8408146 0.92583406 0.2530008 11
1.8055048 0.90767926 -0.248126 4
1.8409525 0.92509735 0.32632235 12
1.8158616 0.91248888 -0.17779772 5
1.8277586 0.91766828 -0.10718405 6
1.824946 0.91545987 -0.035637815 7
1.8245929 0.91169846 0.035602912 8
1.7852284 0.89163876 -0.46069977 1
1.8423443 0.9197638 0.10791675 9
1.7951685 0.89621198 -0.39001361 2
1.8290983 0.91275328 0.17884357 10
1.7959615 0.89582491 -0.31787488 3
1.8582475 0.92648816 0.25495067 11
1.8086616 0.90137261 -0.248126 4
1.8494745 0.92130828 0.32726091 12
1.8154685 0.90436828 -0.17744908 5
1.827374 0.90950406 -0.10697471 6
1.8317115 0.91086429 -0.035707623 7
1.8205966 0.9017731 0.035463288 8
1.7813445 0.88194269 -0.45890018 1
1.8453845 0.91364878 0.10791675 9
1.7982857 0.88994062 -0.39001361 2
1.839417 0.90989608 0.17954083 10
1.7990777 0.88954991 -0.31787488 3
1.8472332 0.91296017 0.2530008 11
1.8189164 0.89857012 -0.24910097 4
1.8525194 0.91517043 0.32726091 12
1.8186145 0.89802516 -0.17744908 5
1.819791 0.89781725 -0.10634667 6
1.8311355 0.90301573 -0.035637815 7
1.8253722 0.89661199 0.035498194 8
1.770265 0.86916023 -0.45530096 1
1.8288393 0.89752382 0.10676537 9
1.7960936 0.88106358 -0.38886875 2
1.8443708 0.90434641 0.17971513 10
1.7984704 0.88184017 -0.31724915 3
1.844903 0.90420902 0.25226957 11
1.8111904 0.88729298 -0.24763852 4
1.8521545 0.90696037 0.32663518 12
1.8217374 0.89167273 -0.17744908 5
1.8155824 0.88826627 -0.10592799 6
1.8414621 0.90013248 -0.035777435 7
1.8356824 0.89373654 0.035637815 8
1.7820493 0.86723959 -0.45755047 1
1.830165 0.89026028 0.10666069 9
1.7990053 0.875103 -0.38886875 2
1.8455682 0.89735365 0.17954083 10
1.7944306 0.87210333 -0.31599763 3
1.8462626 0.89689571 0.25202581 11
1.807134 0.87749654 -0.24666359 4
1.8482006 0.89703995 0.32538372 12
1.8284247 0.88704723 -0.17779772 5
1.8186722 0.88192278 -0.10592799 6
1.8265971 0.88497949 -0.035428386 7
1.8423924 0.88906187 0.035707623 8
1.786821 0.86185992 -0.45800033 1
1.8422568 0.8882038 0.10718405 9
1.7898203 0.86253768 -0.38619745 2
1.8398697 0.88626045 0.17866927 10
1.8047343 0.86894888 -0.31724915 3
1.849382 0.89044595 0.25202581 11
1.8101854 0.87118435 -0.24666359 4
1.8424203 0.88630092 0.3238194 12
1.8207363 0.87547857 -0.17675185 5
1.8933529 0.9099896 0.40833127 13
1.8254926 0.87698126 -0.10613733 6
1.8332807 0.88032883 -0.035498194 7
1.8294019 0.87454063 0.03539348 8
1.791726 0.85614574 -0.45845026 1
1.8418956 0.87972361 0.10697471 9
1.7928205 0.85628438 -0.38619745 2
1.8321638 0.87468284 0.17762341 10
1.8006252 0.85924035 -0.31599763 3
1.8580085 0.88622493 0.25275704 11
1.8169502 0.86625201 -0.24715105 4
1.8420894 0.87784284 0.32319364 12
1.8165865 0.86568952 -0.17605458 5
1.8663865 0.88902187 0.40184379 13
1.8285427 0.8706041 -0.10613733 6
1.8364947 0.873604 -0.035498194 7
1.8288288 0.86643755 0.035323672 8
1.7841364 0.84488147 -0.45575082 1
1.8485656 0.87499815 0.10718405 9
1.7922493 0.84834146 -0.38543418 2
1.8424096 0.87169081 0.17832063 10
1.7928995 0.84788233 -0.31412044 3
1.8539116 0.87634087 0.25178206 11
1.8235525 0.86160076 -0.24763852 4
1.8522877 0.87478131 0.32444513 12
1.8268039 0.86274606 -0.17675185 5
1.8677026 0.8816638 0.40146214 13
1.8207328 0.85910177 -0.1055093 6
1.8359152 0.86548311 -0.035428386 7
1.830032 0.85919803 0.035288766 8
1.7835463 0.83699316 -0.45485103 1
1.8460329 0.86631721 0.10687003 9
1.8058643 0.84708214 -0.38772389 2
1.8454415 0.86525381 0.17832063 10
1.8030027 0.84497219 -0.3153719 3
1.8515669 0.86733758 0.25105089 11
1.8157622 0.85017908 -0.24617608 4
1.8569672 0.86947215 0.32475799 12
1.8261952 0.85467541 -0.17640322 5
1.8743258 0.87680221 0.40222538 13
1.8164836 0.84935755 -0.10509061 6
1.8423986 0.86108315 -0.035498194 7
1.8419358 0.85734427 0.035463288 8
1.7863119 0.83107442 -0.45485103 1
1.8418014 0.85649973 0.10645135 9
1.7999088 0.83663523 -0.3858158 2
1.8520643 0.86048621 0.17866927 10
1.8057948 0.83898896 -0.3153719 3
1.8436304 0.85617554 0.24958843 11
1.8113697 0.84080946 -0.24520114 4
1.8510311 0.85882807 0.32319364 12
1.8400122 0.85332441 -0.17744908 5
1.8825665 0.87305939 0.40337023 13
1.8265384 0.84668851 -0.1055093 6
1.8345059 0.84960395 -0.035288766 7
1.8431016 0.85007161 0.035428386 8
1.8263668 0.84196663 -0.46429899 1
1.8447797 0.85006589 0.10645135 9
1.8026726 0.83066314 -0.3858158 2
1.8440496 0.84933817 0.17762341 10
1.8087126 0.83267999 -0.3153719 3
1.8592304 0.85554481 0.25129461 11
1.8142935 0.83448189 -0.24520114 4
1.8486338 0.84988582 0.32225505 12
1.8248758 0.83857763 -0.17570597 5
1.890954 0.86894226 0.40451509 13
1.8258528 0.83864063 -0.10529996 6
1.8301905 0.8398596 -0.03514915 7
1.8369641 0.83947641 0.03525386 8
1.8495529 0.84445024 0.10655601 9
1.8021338 0.82241899 -0.38505259 2
1.8453373 0.84174722 0.17744908 10
1.7973731 0.81948954 -0.31286895 3
1.8622057 0.84904921 0.25129461 11
1.8190019 0.8289665 -0.24544489 4
1.851589 0.84342802 0.32225505 12
1.8205384 0.82890046 -0.17500873 5
1.8762573 0.85387313 0.40069893 13
1.8361861 0.83525121 -0.10571864 6
1.8331109 0.83346629 -0.03514915 7
1.8327411 0.82944041 0.035114244 8
1.8506697 0.8371653 0.10645135 9
1.804993 0.81612462 -0.38505259 2
1.8518959 0.83694136 0.17779772 10
1.800223 0.81321007 -0.31286895 3
1.8508312 0.83568341 0.24934469 11
1.8274556 0.82474399 -0.24617608 4
1.8635246 0.84102213 0.3238194 12
1.8197888 0.82090157 -0.17466012 5
1.8792257 0.84731984 0.40069893 13
1.8281655 0.82391244 -0.10509061 6
1.8396556 0.82870454 -0.035218958 7
1.8373061 0.82417715 0.03514915 8
1.8462901 0.82743323 0.10603265 9
1.8114144 0.81142366 -0.3858158 2
1.8529876 0.82965714 0.17762341 10
1.8065159 0.80884993 -0.31349471 3
1.8535925 0.82954067 0.24934469 11
1.8193083 0.81381637 -0.24471366 4
1.8628422 0.83289891 0.32319364 12
1.8299189 0.81779629 -0.17535736 5
1.8784409 0.83948094 0.39993569 13
1.8235928 0.81458741 -0.10467192 6
1.8498414 0.82553804 -0.035358574 7
1.8419987 0.81857103 0.035184052 8
1.8417226 0.8180635 0.10561397 9
1.806918 0.80222529 -0.38428935 2
1.8557285 0.8235082 0.17762341 10
1.8057163 0.80093837 -0.31286895 3
1.8546625 0.82226044 0.24910097 11
1.8185084 0.80585188 -0.2442262 4
1.8511461 0.82031494 0.32069072 12
1.8399073 0.81495154 -0.17605458 5
1.8813601 0.83291835 0.39993569 13
1.8337313 0.81144941 -0.10509061 6
1.8855613 0.83399242 0.47599643 14
1.8379382 0.8129285 -0.035079334 7
1.8465332 0.81326473 0.035218958 8
1.8445672 0.81162918 0.10561397 9
1.7953298 0.78959125 -0.3812364 2
1.847648 0.81221515 0.17657752 10
1.8119794 0.79653549 -0.31349471 3
1.8664657 0.82009864 0.25031966 11
1.8211702 0.79981834 -0.2442262 4
1.8539982 0.81384861 0.32069072 12
1.8244962 0.80051839 -0.17431147 5
1.8913027 0.82983053 0.40146214 13
1.8400705 0.80696785 -0.10529996 6
1.8793927 0.82382274 0.47374693 14
1.8371018 0.80490249 -0.035009526 7
1.8383638 0.80201602 0.035009526 8
1.8527411 0.80790246 0.10592799 9
1.8087368 0.78833938 -0.38352609 2
1.8485047 0.80528837 0.17640322 10
1.8111266 0.78862774 -0.31286895 3
1.8693169 0.81357884 0.25031966 11
1.8239512 0.7934559 -0.2442262 4
1.8548751 0.80690843 0.32037783 12
1.8198324 0.7912854 -0.17361423 5
1.8797832 0.81696367 0.39840919 13
1.8428756 0.80054116 -0.10529996 6
1.8947698 0.82268977 0.47689623 14
1.839761 0.79880553 -0.035009526 7
1.8281648 0.79036009 0.034765195 8
1.8592165 0.80301541 0.10613733 9
1.8150828 0.78357673 -0.38428935 2
1.8549632 0.80040914 0.17675185 10
1.8064767 0.77948743 -0.31161749 3
1.8537771 0.79951358 0.24788228 11
1.8338642 0.79054588 -0.24520114 4
1.8649371 0.80355489 0.32162929 12
1.8299029 0.78808087 -0.17431147 5
1.8788759 0.80917203 0.39764598 13
1.8345132 0.78968686 -0.10467192 6
1.8992774 0.81717259 0.47734615 14
1.8462119 0.79395908 -0.035079334 7
1.8385401 0.7864809 0.034904812 8
1.8492926 0.79069781 0.10540463 9
1.810721 0.7738331 -0.38276285 2
1.8487232 0.78969222 0.17588028 10
1.8167236 0.77564746 -0.31286895 3
1.8568331 0.79239017 0.24788228 11
1.8222785 0.77726835 -0.24325122 4
1.8696866 0.79748958 0.32194218 12
1.8291137 0.77980548 -0.17396286 5
1.885581 0.80349135 0.39840919 13
1.8301815 0.77950692 -0.10425323 6
1.88985 0.80453014 0.47419682 14
1.8527898 0.78875321 -0.03514915 7
1.8503438 0.78428119 0.035079334 8
1.8483628 0.78268051 0.10519528 9
1.8152195 0.76827258 -0.3831445 2
1.8551384 0.78478611 0.17622891 10
1.8192855 0.76961911 -0.31286895 3
1.8631073 0.78777391 0.24836974 11
1.8138752 0.76658404 -0.24178879 4
1.8579017 0.78480852 0.3194392 12
1.8318244 0.77341634 -0.17396286 5
1.8882353 0.79723364 0.39840919 13
1.8327566 0.77343309 -0.10425323 6
1.8853253 0.79522973 0.47239724 14
1.8407905 0.77606654 -0.034869909 7
1.8493825 0.77627003 0.035009526 8
1.8510835 0.77622414 0.10519528 9
1.841193 0.77169889 0.17466012 10
1.8183168 0.76173776 -0.31224322 3
1.8713388 0.78356618 0.24910097 11
1.8202022 0.76178086 -0.24227627 4
1.8588074 0.7775566 0.31912637 12
1.8307028 0.76580012 -0.17361423 5
1.8946291 0.79215258 0.39917243 13
1.8317597 0.76549011 -0.10404389 6
1.8880895 0.78864425 0.47239724 14
1.8397974 0.76809579 -0.034800097 7
1.8446951 0.76673925 0.034869909 8
1.8574708 0.77129024 0.10540463 9
1.8420354 0.764503 0.17448579 10
1.8136665 0.75235796 -0.31099173 3
1.87773 0.77855021 0.24958843 11
1.8265182 0.75694209 -0.24276376 4
1.8596854 0.77030689 0.31881347 12
1.8223207 0.75482988 -0.17256837 5
1.8864992 0.78102887 0.39688274 13
1.8418025 0.76214641 -0.10446258 6
1.8980342 0.78502744 0.47419682 14
1.8350751 0.75861353 -0.034660477 7
1.8362647 0.75572944 0.034660477 8
1.8638464 0.76632017 0.10561397 9
1.8446926 0.7580688 0.17448579 10
1.812627 0.7445218 -0.310366 3
1.8657453 0.7659592 0.24763852 11
1.836495 0.7535764 -0.2437387 4
1.8696733 0.76680928 0.32006493 12
1.828631 0.74997663 -0.17291699 5
1.8819478 0.77145976 0.39535624 13
1.8370589 0.75268418 -0.10404389 6
1.9133866 0.78356743 0.47734615 14
1.8414135 0.7537179 -0.034730289 7
1.8462988 0.75233382 0.034800097 8
1.8498614 0.75303167 0.10467192 9
1.8565546 0.75537974 0.17535736 10
1.815215 0.73818958 -0.310366 3
1.8647299 0.75794649 0.24715105 11
1.8280796 0.74267864 -0.24227627 4
1.8686783 0.75879145 0.3194392 12
1.8312379 0.74358845 -0.17291699 5
1.8882679 0.76636201 0.39611951 13
1.8359734 0.74476594 -0.10383455 6
1.8551532 0.75179124 -0.034939718 7
1.852623 0.74738026 0.034869909 8
1.8486431 0.74540067 0.10446258 9
1.8591803 0.74889404 0.17535736 10
1.8177805 0.73184913 -0.310366 3
1.8673642 0.75143313 0.24715105 11
1.8196108 0.73184806 -0.24081384 4
1.8565226 0.74669397 0.31693625 12
1.8412169 0.7401638 -0.17361423 5
1.8945746 0.76123041 0.39688274 13
1.8348554 0.73686361 -0.10362521 6
1.8427901 0.73967564 -0.034660477 7
1.8550913 0.7412321 0.034869909 8
1.8567988 0.74116397 0.10477659 9
1.8525296 0.73871028 0.17448579 10
1.823867 0.7272808 -0.31099173 3
1.8772217 0.74817675 0.248126 11
1.8257163 0.72727877 -0.24130133 4
1.8646233 0.74240148 0.31787488 12
1.8326819 0.72931337 -0.17256837 5
1.9007366 0.7563957 0.39764598 13
1.8410007 0.73225069 -0.10383455 6
1.8416435 0.73176306 -0.034590669 7
1.8483691 0.73107588 0.034695383 8
1.8612326 0.73541152 0.10488127 9
1.8494097 0.7303679 0.17396286 10
1.8227201 0.71945894 -0.310366 3
1.8724358 0.73870492 0.24715105 11
1.8319366 0.72235894 -0.24178879 4
1.8708793 0.73733628 0.31850061 12
1.8313832 0.72177041 -0.17221974 5
1.896059 0.74687773 0.39611951 13
1.8509786 0.7287479 -0.10425323 6
1.8479086 0.72679335 -0.034660477 7
1.8434619 0.72170305 0.034555767 8
1.8675083 0.7303654 0.10509061 9
1.8500924 0.72318196 0.17378855 10
1.814181 0.70877856 -0.30848882 3
1.8713045 0.7307207 0.24666359 11
1.8381456 0.71740288 -0.24227627 4
1.8660806 0.72792929 0.31724915 12
1.8376039 0.71682096 -0.17256837 5
1.8913376 0.73740238 0.39459303 13
1.8386238 0.71648043 -0.10341586 6
1.8578882 0.72324061 -0.034800097 7
1.8534282 0.71815318 0.034695383 8
1.8568825 0.71911985 0.10435791 9
1.8563221 0.71815681 0.17413718 10
1.8405952 0.71170425 -0.31255612 3
1.864586 0.72060573 0.24544489 11
1.825825 0.70525956 -0.24032637 4
1.8703268 0.72244918 0.31756201 12
1.8475292 0.7132737 -0.17326561 5
1.8975636 0.73220891 0.39535624 13
1.8373868 0.70862025 -0.10320652 6
1.8602762 0.71707606 -0.034800097 7
1.8520654 0.71057075 0.034625575 8
1.8519216 0.70977408 0.10393922 9
1.860678 0.71238536 0.17431147 10
1.8762351 0.7179662 0.24666359 11
1.8244455 0.69778222 -0.23983888 4
1.8580759 0.71027386 0.31505907 12
1.8425633 0.70397544 -0.17256837 5
1.899981 0.72591269 0.39535624 13
1.8434584 0.70394778 -0.10341586 6
1.8515579 0.70630127 -0.034590669 7
1.8657514 0.70836061 0.034835003 8
1.8654693 0.70788008 0.10456725 9
1.8555779 0.70338678 0.17361423 10
1.880586 0.71211594 0.24690731 11
1.8305829 0.69281608 -0.24032637 4
1.8678107 0.7069056 0.31631052 12
1.8374337 0.6950413 -0.17187113 5
1.9025033 0.71927649 0.39535624 13
1.8459039 0.69750994 -0.10341586 6
1.8464071 0.69733083 -0.034451049 7
1.8549876 0.69724411 0.034590669 8
1.8623194 0.69925821 0.10425323 9
1.8486948 0.69340634 0.17274268 10
1.87922 0.7044816 0.24641983 11
1.8365881 0.68813425 -0.24081384 4
1.8628675 0.69760984 0.31505907 12
1.8361164 0.68722677 -0.1715225 5
1.8975236 0.71021044 0.39382979 13
1.8519484 0.69278389 -0.10362521 6
1.8525763 0.69228172 -0.034520861 7
1.8442901 0.68588501 0.034346335 8
1.8741099 0.69623131 0.10477659 9
1.8584553 0.69004554 0.17343993 10
1.8760837 0.69584697 0.2456886 11
1.8464245 0.68447864 -0.24178879 4
1.8782574 0.69590747 0.31724915 12
1.8421218 0.68251902 -0.17187113 5
1.8926269 0.70085484 0.39230329 13
1.843117 0.68215519 -0.10299717 6
1.8587328 0.68719727 -0.034590669 7
1.846673 0.67944348 0.034346335 8
1.8577825 0.68279475 0.10372987 9
1.8664632 0.68561554 0.17396286 10
1.8729106 0.68724203 0.24495739 11
1.8301653 0.67119473 -0.23935141 4
1.8769659 0.68798673 0.31662342 12
1.8444933 0.67608416 -0.17187113 5
1.9024357 0.69694591 0.39382979 13
1.8417358 0.67434436 -0.10278783 6
1.8573641 0.67933142 -0.034520861 7
1.8584288 0.67641324 0.034520861 8
1.8582774 0.67562371 0.10362521 9
1.8651 0.67773473 0.17361423 10
1.8622363 0.67595935 0.24325122 11
1.8343632 0.66547871 -0.23959514 4
1.8756417 0.68008339 0.31599763 12
1.8543344 0.67235762 -0.17256837 5
1.910394 0.69230795 0.39497465 13
1.8478343 0.66927117 -0.10299717 6
1.8597239 0.67284435 -0.034520861 7
1.8683044 0.67263186 0.034660477 8
1.8662628 0.6711601 0.10393922 9
1.8599542 0.66852582 0.17291699 10
1.872058 0.67213756 0.2442262 11
1.8348062 0.65840226 -0.23935141 4
1.8687071 0.67019814 0.31443331 12
1.8397911 0.65982765 -0.17099957 5
1.8501588 0.66281819 -0.10299717 6
1.8545305 0.66365308 -0.034381241 7
1.8536866 0.66006845 0.034346335 8
1.8685941 0.66464192 0.10393922 9
1.8585221 0.66069406 0.17256837 10
1.8762631 0.6662634 0.24446991 11
1.8370935 0.6519931 -0.23935141 4
1.8728973 0.66433102 0.31474617 12
1.8384413 0.65174901 -0.17065094 5
1.8562267 0.65768951 -0.10320652 6
1.8568355 0.65717584 -0.034381241 7
1.8522074 0.65226495 0.034276526 8
1.8709029 0.65811485 0.10393922 9
1.8571715 0.65255725 0.17221974 10
1.8804507 0.66036719 0.24471366 11
1.8807963 0.65975219 0.3156848 12
1.8407052 0.64532715 -0.17065094 5
1.8510845 0.64824158 -0.10278783 6
1.8628932 0.65201098 -0.034451049 7
1.8508081 0.64415771 0.034206714 8
1.8600968 0.64666271 0.10320652 9
1.8707303 0.64999354 0.17326561 10
1.8697308 0.64891493 0.2430075 11
1.8925344 0.65608811 0.31724915 12
1.8485942 0.64085531 -0.17117387 5
1.8457869 0.63916153 -0.10236914 6
1.8690499 0.64648652 -0.034520861 7
1.8624997 0.64094722 0.034381241 8
1.8585653 0.63886684 0.10299717 9
1.8729876 0.64345992 0.17326561 10
1.8701071 0.64173955 0.24276376 11
1.8761261 0.64307415 0.31412044 12
1.8527042 0.63504589 -0.17134818 5
1.848007 0.63271415 -0.10236914 6
1.8599428 0.63607538 -0.034311432 7
1.866619 0.63508558 0.034416147 8
1.8626747 0.63301921 0.10310185 9
1.8639033 0.63307291 0.17221974 10
1.8873745 0.64031023 0.24471366 11
1.8746178 0.63525283 0.31349471 12
1.8417009 0.6240983 -0.17012802 5
1.8577715 0.62882125 -0.10278783 6
1.8583634 0.62829781 -0.034241624 7
1.8593479 0.62537807 0.034241624 8
1.8667663 0.62714899 0.10320652 9
1.8604357 0.6246599 0.17169681 10
1.8877158 0.6330874 0.24446991 11
1.8824427 0.63058805 0.31443331 12
1.8438681 0.61766618 -0.17012802 5
1.8675314 0.62486708 -0.10320652 6
1.8643378 0.62307596 -0.034311432 7
1.855719 0.61731553 0.034136906 8
1.878204 0.62443131 0.10372987 9
1.8662784 0.61974317 0.17204544 10
1.8841525 0.62494856 0.2437387 11
1.8881649 0.62591368 0.31505907 12
1.844015 0.61092114 -0.16995369 5
1.8582163 0.61490631 -0.10257848 6
1.8662863 0.61721539 -0.034311432 7
1.8558562 0.61053383 0.034102004 8
1.8670897 0.61350733 0.10299717 9
1.8722163 0.6144678 0.17239405 10
1.8748971 0.61498529 0.24227627 11
1.8828292 0.61685926 0.31380758 12
1.8518167 0.606341 -0.17047663 5
1.8526527 0.60625571 -0.1021598 6
1.8798336 0.614425 -0.034520861 7
1.8636812 0.60590625 0.034206714 8
1.8673203 0.60636973 0.1028925 9
1.8780341 0.60948557 0.17274268 10
1.8789208 0.60904944 0.24252002 11
1.8793331 0.60845727 0.31286895 12
1.8613994 0.60265106 -0.17117387 5
1.8547575 0.59978545 -0.1021598 6
1.866744 0.60294205 -0.034241624 7
1.8695925 0.60062075 0.034276526 8
1.8713274 0.60045761 0.10299717 9
1.8706639 0.59988469 0.17187113 10
1.8904878 0.60551411 0.2437387 11
1.8701568 0.59828252 0.31099173 12
1.8483104 0.59129363 -0.16977938 5
1.8644496 0.59573942 -0.10257848 6
1.8650271 0.59520662 -0.034171812 7
1.8621477 0.59106654 0.034102004 8
1.8809235 0.59666389 0.10341586 9
1.8594511 0.5891391 0.17065094 10
1.9001606 0.60130662 0.24471366 11
1.8740139 0.59267366 0.31130463 12
1.8465639 0.58363688 -0.16943076 5
1.8665177 0.58922809 -0.10257848 6
1.8708049 0.59022146 -0.034241624 7
1.8583735 0.58309168 0.033997286 8
1.8849006 0.59069222 0.10352053 9
1.8729049 0.5862152 0.17169681 10
1.8869873 0.5902614 0.24276376 11
1.879019 0.586689 -0.17221974 5
1.8608352 0.58065504 -0.1021598 6
1.872854 0.58368707 -0.034241624 7
1.8661282 0.57837665 0.034102004 8
1.8716875 0.57938468 0.10268316 9
1.8824521 0.58235592 0.17239405 10
1.8890362 0.58367139 0.24276376 11
1.8609421 0.57356715 -0.10205512 6
1.8787018 0.57832396 -0.034311432 7
1.8700473 0.57244575 0.034136906 8
1.8698785 0.57167935 0.10247381 9
1.8825678 0.57520056 0.17221974 10
1.8815689 0.57417637 0.24154507 11
1.8591117 0.56590408 -0.10184578 6
1.8654034 0.56710881 -0.034032192 7
1.8796909 0.56822866 0.034276526 8
1.8736762 0.56605256 0.10257848 9
1.8693045 0.56402093 0.17082524 10
1.8968662 0.57161474 0.24325122 11
1.8649008 0.56056225 -0.10205512 6
1.8634436 0.55976868 -0.033962384 7
1.8681526 0.55798566 0.034032192 8
1.881382 0.56122285 0.1028925 9
1.8712621 0.5574919 0.17082524 10
1.9063617 0.56758761 0.2442262 11
1.8705789 0.55551159 -0.10226447 6
1.8768888 0.55667359 -0.034171812 7
1.8643352 0.54976392 0.033927478 8
1.8870645 0.55610955 0.10310185 9
1.8731006 0.551283 0.17082524 10
1.8949996 0.55701053 0.24252002 11
1.8571739 0.54448295 -0.10142709 6
1.8748866 0.54932159 -0.034102004 7
1.8642277 0.54302055 0.033892576 8
1.8813233 0.54728705 0.10268316 9
1.8711869 0.5436309 0.17047663 10
1.8911173 0.54906237 0.24178879 11
1.8628061 0.53943282 -0.10163644 6
1.8844767 0.54499537 -0.034241624 7
1.8757211 0.53927201 0.034067098 8
1.87161 0.53773654 0.10205512 9
1.8844699 0.54071933 0.1715225 10
1.8968388 0.5435518 0.24227627 11
1.8646777 0.53292757 -0.10163644 6
1.8728137 0.53489929 -0.033997286 7
1.8832699 0.53468782 0.034171812 8
1.8830832 0.53392458 0.10257848 9
1.8748441 0.53088057 0.17047663 10
1.8986307 0.5372591 0.24227627 11
1.8664345 0.52674145 -0.10163644 6
1.8688953 0.52673173 -0.033892576 7
1.8697206 0.52379471 0.033892576 8
1.8849356 0.52734768 0.10257848 9
1.8765941 0.52466083 0.17047663 10
1.9043187 0.53169554 0.24276376 11
1.8855785 0.5250445 -0.10257848 6
1.8784291 0.52234727 -0.034032192 7
1.8734649 0.51779813 0.033927478 8
1.8925409 0.52235848 0.1028925 9
1.8765836 0.51725018 0.17030232 10
1.8851113 0.5192458 0.24008264 11
1.8840979 0.51684475 -0.034102004 7
1.8734206 0.5104028 0.033892576 8
1.8789357 0.5115521 0.10205512 9
1.8879906 0.51331055 0.17117387 10
1.8850858 0.51181328 0.23983888 11
1.8820299 0.50922072 -0.034032192 7
1.8808962 0.5057447 0.033997286 8
1.8807101 0.5049898 0.10205512 9
1.8916954 0.50723261 0.17134818 10
1.8760678 0.50058544 -0.033892576 7
1.8865162 0.50020057 0.034067098 8
1.8881661 0.50028539 0.10236914 9
1.8779582 0.49687925 0.16995369 10
1.8777173 0.49436179 -0.033892576 7
1.8765569 0.49090573 0.03385767 8
1.8918333 0.49419656 0.10247381 9
1.8796813 0.49032041 0.16995369 10
1.8871737 0.48981422 -0.034032192 7
1.8763225 0.4838534 0.033822764 8
1.8974154 0.48858544 0.10268316 9
1.8832264 0.48458138 0.17012802 10
1.888872 0.48322326 -0.034032192 7
1.8818765 0.47828552 0.033892576 8
1.8874934 0.47901279 0.10205512 9
1.8946465 0.48012328 0.17099957 10
1.8983036 0.47858179 -0.034171812 7
1.8836167 0.47138533 0.033892576 8
1.8892368 0.47209015 0.10205512 9
1.9001769 0.47447255 0.17134818 10
1.8825775 0.46728575 -0.03385767 7
1.8930169 0.46672162 0.034032192 8
1.890873 0.46549389 0.10205512 9
1.8883598 0.46417525 0.17012802 10
1.8828155 0.45793709 0.033822764 8
1.9000897 0.46143517 0.10247381 9
1.8858562 0.45763099 0.16977938 10
1.8805133 0.45042995 0.033752955 8
1.8997461 0.45433655 0.10236914 9
1.8894588 0.45117816 0.16995369 10
1.8840978 0.4439936 0.033787858 8
1.8916 0.44541308 0.10184578 9
1.8987802 0.44640431 0.17065094 10
1.8894557 0.43864715 0.03385767 8
1.8970345 0.43970978 0.10205512 9
1.8945037 0.43842548 0.17012802 10
1.8948743 0.43294027 0.033927478 8
1.898558 0.43308473 0.10205512 9
1.8924718 0.42544645 0.03385767 8
1.9078535 0.42820394 0.10247381 9
1.8841828 0.41667846 0.033683144 8
1.9092625 0.42187619 0.10247381 9
1.8875083 0.41085279 0.03371805 8
1.8989415 0.41299528 0.10184578 9
1.892771 0.40542936 0.033787858 8
1.8964655 0.40552846 0.10163644 9
1.9056877 0.40054882 0.10205512 9
1.9109859 0.39470363 0.10226447 9
1.9162669 0.38882443 0.10247381 9
1.9057938 0.38012317 0.10184578 9
1.8992689 0.37193346 0.10142709 9
1.9162464 0.36831781 0.10226447 9
