# .PCD v0.7 - Point Cloud Data file format
VERSION 0.7
FIELDS x y z intensity
SIZE 4 4 4 4
TYPE F F F F
COUNT 1 1 1 1
WIDTH 471
HEIGHT 1
VIEWPOINT 0 0 0 1 0 0 0
POINTS 471
DATA ascii
2.6278477 1.0145304 -0.44615117 3
2.6424448 1.0095807 -0.44802836 3
2.6237798 0.99196839 -0.44427395 3
2.643878 0.98903191 -0.44708973 3
2.636029 0.97614259 -0.44521254 3
2.6208718 0.96014076 -0.44208387 3
2.6388984 0.95683038 -0.44458681 3
2.6385028 0.94627982 -0.44396105 3
2.6343434 0.93442184 -0.44270959 3
2.6264043 0.92129916 -0.44083238 3
2.6258719 0.91083032 -0.44020665 3
2.6327724 0.90293968 -0.44083238 3
2.6320112 0.89293545 -0.44020665 3
2.6416717 1.1480844 -0.35366488 4
2.6511333 1.1412102 -0.3543961 4
2.6607764 1.1338208 -0.35512727 4
2.639308 1.1132594 -0.35171497 4
2.6378746 1.1012846 -0.35098374 4
2.6392963 1.0926942 -0.35073999 4
2.6467686 1.0849799 -0.35122749 4
2.6487002 1.0749869 -0.35098374 4
2.639358 1.0610142 -0.34927759 4
2.6393561 1.0503284 -0.34879011 4
2.6448536 1.0418358 -0.34903383 4
2.6429253 1.0304344 -0.3483026 4
2.6502106 1.0226312 -0.34879011 4
2.6391037 1.0072488 -0.3468402 4
2.6426039 0.99802971 -0.3468402 4
2.6442118 0.98810488 -0.34659645 4
2.6493356 0.98002017 -0.3468402 4
2.6527405 0.97076559 -0.3468402 4
2.644747 0.95790666 -0.34537774 4
2.6405988 0.94599283 -0.34440279 4
2.6513696 0.93942076 -0.34537774 4
2.6471391 0.92753369 -0.34440279 4
2.6541119 0.91958803 -0.34489027 4
2.6422822 0.9051705 -0.34294036 4
2.6415091 0.89512968 -0.34245288 4
2.6446173 0.88590425 -0.34245288 4
2.6514628 0.87791461 -0.34294036 4
2.6582844 0.86988795 -0.34342784 4
2.6443055 0.85510695 -0.34123421 4
2.6452355 0.84572941 -0.34099045 4
2.6442404 0.83575565 -0.34050298 4
2.6566155 0.82947916 -0.34172165 4
2.6538041 0.81844634 -0.34099045 4
2.6633184 1.2794794 -0.25850391 5
2.6443825 1.2590411 -0.25623786 5
2.6505635 1.2506523 -0.25641218 5
2.6458886 1.2371736 -0.25554064 5
2.6501908 1.2279307 -0.25554064 5
2.6544611 1.2186716 -0.25554064 5
2.6478171 1.2044491 -0.25449476 5
2.6411073 1.1902866 -0.2534489 5
2.6450396 1.1815225 -0.2534489 5
2.652792 1.1738942 -0.25379753 5
2.6566703 1.16509 -0.25379753 5
2.646101 1.1494604 -0.25240302 5
2.6429753 1.1366053 -0.2517058 5
2.6471236 1.12691 -0.2517058 5
2.6512361 1.1172007 -0.2517058 5
2.6589904 1.1090105 -0.25205442 5
2.6436675 1.0939618 -0.25031129 5
2.640095 1.081706 -0.24961405 5
2.647547 1.0739822 -0.24996266 5
2.654978 1.0662184 -0.25031129 5
2.6547966 1.0559348 -0.24996266 5
2.6473424 1.042284 -0.2489168 5
2.6400061 1.0282334 -0.24787092 5
2.6435785 1.0190136 -0.24787092 5
2.6545663 1.0126195 -0.24856818 5
2.6543567 1.0019391 -0.24821955 5
2.6466391 0.98848557 -0.24717368 5
2.6425982 0.97647804 -0.24647643 5
2.6495638 0.96907872 -0.24682505 5
2.645436 0.95711344 -0.24612781 5
2.6598504 0.95236456 -0.24717368 5
2.6406214 0.93509245 -0.24508193 5
2.6401081 0.92455411 -0.24473332 5
2.6433194 0.91533208 -0.24473332 5
2.6502686 0.90738964 -0.24508193 5
2.6534197 0.89813346 -0.24508193 5
2.6450474 0.88553494 -0.24403608 5
2.6443396 0.87504405 -0.24368747 5
2.6473777 0.86580884 -0.24368747 5
2.6503839 0.85656172 -0.24368747 5
2.6532099 0.84776855 -0.24368747 5
2.644753 0.83490384 -0.24264158 5
2.6398995 0.82375425 -0.24194433 5
2.6503751 0.81688088 -0.24264158 5
2.6493986 0.80646336 -0.24229297 5
2.656013 0.79835922 -0.24264158 5
2.6511436 0.78681487 -0.24194433 5
2.6404896 0.77363503 -0.24072415 5
2.6450882 0.76496613 -0.24089848 5
2.655406 0.7579149 -0.24159572 5
2.661871 0.74972212 -0.24194433 5
2.6603429 1.4163164 -0.15794992 6
2.6476078 1.3976977 -0.15690321 6
2.6577787 1.3912266 -0.15721723 6
2.6626191 1.3819401 -0.15721723 6
2.6674266 1.3726379 -0.15721723 6
2.6615274 1.3578718 -0.1565892 6
2.6519928 1.3413619 -0.15575182 6
2.656426 1.3325608 -0.15575182 6
2.6608307 1.3237437 -0.15575182 6
2.6620815 1.3122168 -0.15554248 6
2.6594682 1.2994086 -0.1551238 6
2.6532025 1.2848935 -0.15449576 6
2.6576712 1.2756249 -0.15449576 6
2.6691003 1.2702383 -0.15491444 6
2.6662927 1.2575051 -0.15449576 6
2.6636455 1.2443434 -0.15407708 6
2.6570981 1.2300031 -0.15344904 6
2.6577444 1.2190559 -0.1532397 6
2.6656203 1.2114232 -0.15344904 6
2.6659806 1.2009368 -0.1532397 6
2.6592128 1.1867404 -0.15261166 6
2.652174 1.1730688 -0.15198363 6
2.6562529 1.163803 -0.15198363 6
2.6639633 1.1561147 -0.15219298 6
2.6645129 1.1447655 -0.15198363 6
2.6576629 1.1303025 -0.15135561 6
2.6507432 1.1159037 -0.15072757 6
2.6548159 1.1061801 -0.15072757 6
2.6578939 1.0987638 -0.15072757 6
2.6617131 1.0894787 -0.15072757 6
2.6543939 1.0756794 -0.15009953 6
2.6468258 1.0624068 -0.14947151 6
2.6542296 1.0546379 -0.14968085 6
2.6578951 1.0453658 -0.14968085 6
2.6615276 1.0360821 -0.14968085 6
2.6503966 1.0205779 -0.14884347 6
2.6520765 1.0106095 -0.1487388 6
2.6555884 1.0013452 -0.1487388 6
2.6590672 0.99206984 -0.1487388 6
2.6623421 0.98324716 -0.1487388 6
2.6545026 0.96983469 -0.14811078 6
2.6501913 0.95830929 -0.14769208 6
2.6572814 0.95039839 -0.14790143 6
2.6568165 0.93978542 -0.14769208 6
2.6676221 0.93314284 -0.14811078 6
2.6557627 0.91860294 -0.14727339 6
2.6589532 0.90932626 -0.14727339 6
2.6619539 0.90050441 -0.14727339 6
2.6612926 0.88994074 -0.14706406 6
2.6719685 0.88315207 -0.14748274 6
2.6617455 0.86947793 -0.14675003 6
2.6590619 0.85834134 -0.14643602 6
2.6637964 0.85012662 -0.1465407 6
2.6646962 0.8406868 -0.14643602 6
2.6714284 0.83256793 -0.14664535 6
2.6666825 0.82088935 -0.14622667 6
2.6618879 0.80925131 -0.14580798 6
2.6645572 0.80041903 -0.14580798 6
2.6673343 0.79111487 -0.14580798 6
2.6740503 0.78245324 -0.14601734 6
2.665252 0.76979089 -0.1453893 6
2.6640816 0.75938702 -0.14517996 6
2.6667159 0.75008357 -0.14517996 6
2.6768863 0.74337322 -0.14559864 6
2.6794651 0.73402393 -0.14559864 6
2.6703165 0.72200716 -0.14497061 6
2.6612415 0.70959347 -0.14434259 6
2.663702 0.70030022 -0.14434259 6
2.6777308 0.6940037 -0.14497061 6
2.6761472 0.68413138 -0.14476126 6
2.6707718 0.67283463 -0.14434259 6
2.6786616 1.3542639 -0.052392125 7
2.6777756 1.342684 -0.052287407 7
2.6627491 1.3235372 -0.05190346 7
2.6709394 1.3160039 -0.051973268 7
2.6793385 1.3079605 -0.052043077 7
2.6802881 1.2968575 -0.051973268 7
2.6773624 1.2845013 -0.051833645 7
2.6709948 1.2699951 -0.05162422 7
2.6754115 1.2606643 -0.05162422 7
2.6797955 1.2513183 -0.05162422 7
2.6843641 1.2414874 -0.05162422 7
2.6741376 1.2254456 -0.05134498 7
2.6672628 1.2116079 -0.051135551 7
2.6714756 1.2022907 -0.051135551 7
2.6791005 1.195055 -0.051205363 7
2.6795976 1.1840786 -0.051135551 7
2.6727231 1.1699075 -0.050926123 7
2.669452 1.1573882 -0.050786503 7
2.6734755 1.1480635 -0.050786503 7
2.6850271 1.1413857 -0.050926123 7
2.6855059 1.1299863 -0.050856311 7
2.6785531 1.1155236 -0.050646886 7
2.6633687 1.0999374 -0.050297838 7
2.6745954 1.0936618 -0.050437454 7
2.6819139 1.0862885 -0.050507262 7
2.6856897 1.0769194 -0.050507262 7
2.6745639 1.0616354 -0.050228026 7
2.6708086 1.0493685 -0.050088406 7
2.6744554 1.0400385 -0.050088406 7
2.6780689 1.0306984 -0.050088406 7
2.6780915 1.019451 -0.050018597 7
2.6741481 1.0072775 -0.049878977 7
2.6699791 0.99561012 -0.049739357 7
2.6696861 0.9848991 -0.049669549 7
2.6766939 0.97741312 -0.049739357 7
2.6838508 0.96942288 -0.049809169 7
2.6721535 0.95466566 -0.049529929 7
2.6716986 0.94400048 -0.04946012 7
2.6712022 0.93334883 -0.049390312 7
2.6820045 0.92663026 -0.049529929 7
2.6888471 0.91902542 -0.049599741 7
2.6768827 0.90451342 -0.049320504 7
2.6686437 0.89136207 -0.049111072 7
2.6755364 0.8832956 -0.04918088 7
2.6900096 0.87767297 -0.049390312 7
2.6854439 0.86582255 -0.049250688 7
2.6690993 0.85130578 -0.048901644 7
2.6720545 0.84198433 -0.048901644 7
2.682615 0.83502865 -0.049041264 7
2.6816912 0.82448345 -0.048971456 7
2.6805837 0.81442267 -0.048901644 7
2.6719177 0.80161482 -0.048692215 7
2.6708648 0.79114652 -0.048622403 7
2.677449 0.78294176 -0.048692215 7
2.6879861 0.77533931 -0.048831832 7
2.6829829 0.76376235 -0.048692215 7
2.6778007 0.7526958 -0.048552595 7
2.6727037 0.74120688 -0.048412975 7
2.6751473 0.73233908 -0.048412975 7
2.6776872 0.72299719 -0.048412975 7
2.6879241 0.71570331 -0.048552595 7
2.6826689 0.70428705 -0.048412975 7
2.6695032 0.69137549 -0.048133738 7
2.6835263 0.68501991 -0.048343167 7
2.6820223 0.67467207 -0.048273355 7
2.6843605 0.66530782 -0.048273355 7
2.6769538 0.65356147 -0.048098832 7
2.6733859 0.64281124 -0.047994118 7
2.6775591 0.63393545 -0.048029024 7
2.6855984 0.62594616 -0.048133738 7
2.6915574 0.61793244 -0.048203547 7
2.6839449 0.60633069 -0.048029024 7
2.6956153 1.2880539 0.052147791 8
2.6820226 1.2700773 0.051798742 8
2.6755779 1.2556111 0.051589314 8
2.6729088 1.2424239 0.051449694 8
2.6772292 1.2330867 0.051449694 8
2.6815176 1.2237332 0.051449694 8
2.6691625 1.207417 0.051135551 8
2.6715364 1.1972754 0.051100649 8
2.6754916 1.1884103 0.051100649 8
2.6851151 1.1814792 0.051205363 8
2.6837232 1.1697029 0.051100649 8
2.6859541 1.1595345 0.051065743 8
2.6754751 1.1433959 0.050786503 8
2.6796482 1.1335815 0.050786503 8
2.6837847 1.1237531 0.050786503 8
2.6889539 1.1165526 0.050821409 8
2.6835878 1.1033567 0.050646886 8
2.6800146 1.090966 0.050507262 8
2.6854715 1.0828224 0.050542168 8
2.6725204 1.0667692 0.050228026 8
2.687387 1.0618422 0.050437454 8
2.676178 1.0466287 0.050158214 8
2.6686265 1.0329491 0.049948789 8
2.6779964 1.0253066 0.0500535 8
2.6815596 1.0159518 0.0500535 8
2.6869619 1.0072877 0.050088406 8
2.6809132 0.99489373 0.049913883 8
2.6749842 0.98208302 0.049739357 8
2.6725879 0.97115737 0.049634643 8
2.6816068 0.96385348 0.049739357 8
2.6849551 0.95448631 0.049739357 8
2.6750653 0.94046491 0.049495026 8
2.6707761 0.92849541 0.049355406 8
2.6702189 0.91786623 0.049285594 8
2.6770344 0.91029453 0.049355406 8
2.6839862 0.90221912 0.049425215 8
2.6757336 0.88906097 0.049215786 8
2.6750212 0.8784669 0.049145978 8
2.6799729 0.8697418 0.04918088 8
2.68665 0.86207235 0.049250688 8
2.6856823 0.85194838 0.04918088 8
2.6790988 0.83957893 0.049006358 8
2.6705515 0.8266747 0.048796929 8
2.6772456 0.81851625 0.048866738 8
2.683774 0.81078959 0.04893655 8
2.6865873 0.80141836 0.04893655 8
2.6778591 0.78864521 0.048727117 8
2.6730504 0.77659416 0.048587501 8
2.6795893 0.76836038 0.048657309 8
2.6841793 0.75954723 0.048692215 8
2.6847575 0.75010312 0.048657309 8
2.6757925 0.73753935 0.048447877 8
2.6743646 0.72761136 0.048378069 8
2.6807508 0.71930873 0.048447877 8
2.679379 0.70892304 0.048378069 8
2.6895773 0.70158416 0.048517693 8
2.686079 0.691167 0.048412975 8
2.6690919 0.6768716 0.04806393 8
2.6791987 0.66948903 0.048203547 8
2.6854022 0.66109061 0.048273355 8
2.6876936 0.65171212 0.048273355 8
2.6821723 0.64046788 0.048133738 8
2.6804986 0.63018674 0.04806393 8
2.6865783 0.62172717 0.048133738 8
2.6886251 0.61281526 0.048133738 8
2.6946504 0.60430223 0.048203547 8
2.6850269 0.59230715 0.047994118 8
2.673398 0.57996392 0.047749784 8
2.6811738 0.57234836 0.047854498 8
2.6869709 0.56427532 0.047924306 8
2.6928413 0.55570018 0.047994118 8
2.6830056 0.54391378 0.04778469 8
2.6809657 0.53376472 0.047714882 8
2.7031219 1.2108644 0.15522847 9
2.6927278 1.1949396 0.15439108 9
2.6913972 1.1831223 0.15407708 9
2.6918485 1.1721249 0.15386772 9
2.7014253 1.165095 0.15418173 9
2.703841 1.1544009 0.15407708 9
2.6951756 1.1390412 0.15334436 9
2.695647 1.1276144 0.15313502 9
2.6934464 1.1173146 0.152821 9
2.701025 1.109424 0.15303035 9
2.708389 1.1019671 0.1532397 9
2.6973984 1.0865356 0.15240233 9
2.6937535 1.0741547 0.15198363 9
2.6974871 1.0647445 0.15198363 9
2.7086289 1.0582286 0.15240233 9
2.70858 1.0473286 0.15219298 9
2.6974773 1.0316843 0.15135561 9
2.6973255 1.0208499 0.15114626 9
2.6969554 1.0104973 0.1509369 9
2.7042124 1.0024649 0.15114626 9
2.7037714 0.99211633 0.1509369 9
2.7034631 0.98131001 0.15072757 9
2.6899545 0.96579236 0.14978553 9
2.6895447 0.95506066 0.14957617 9
2.6928625 0.94566578 0.14957617 9
2.7093544 0.94084585 0.15030889 9
2.6973476 0.92666656 0.14947151 9
2.6930013 0.9146753 0.14905281 9
2.6923912 0.90399724 0.14884347 9
2.7125907 0.90025616 0.14978553 9
2.7005341 0.88580257 0.14894815 9
2.6960096 0.87390757 0.14852946 9
2.700644 0.86604279 0.14863414 9
2.6960344 0.85419804 0.14821544 9
2.6989999 0.84478116 0.14821544 9
2.705749 0.83653396 0.14842479 9
2.6932271 0.82288969 0.14758742 9
2.6922591 0.81232899 0.14737807 9
2.6989064 0.80406612 0.14758742 9
2.7055287 0.79576796 0.14779675 9
2.7065091 0.78528911 0.14769208 9
2.6996334 0.77308816 0.14716873 9
2.6944945 0.7619583 0.14675003 9
2.6932905 0.75147378 0.1465407 9
2.70347 0.74465919 0.14695938 9
2.7060528 0.73521835 0.14695938 9
2.6970277 0.72266579 0.14633135 9
2.6918092 0.71120799 0.14591266 9
2.6999512 0.70378828 0.14622667 9
2.7062602 0.69535279 0.14643602 9
2.7086706 0.68590379 0.14643602 9
2.6994214 0.67354274 0.14580798 9
2.6978772 0.6631617 0.14559864 9
2.7001755 0.65374088 0.14559864 9
2.714098 0.64709002 0.14622667 9
2.7202289 0.63852549 0.14643602 9
2.702872 0.62500226 0.1453893 9
2.6933525 0.61290395 0.14476126 9
2.7071698 0.60611618 0.1453893 9
2.709269 0.59666324 0.1453893 9
2.7034249 0.58598387 0.14497061 9
2.69754 0.57534856 0.14455192 9
2.699532 0.5659281 0.14455192 9
2.7014909 0.55650342 0.14455192 9
2.7112474 0.54865396 0.14497061 9
2.7092278 0.53840852 0.14476126 9
2.6993294 0.52665275 0.14413324 9
2.6972282 0.5164752 0.14392389 9
2.7029402 0.50779504 0.14413324 9
2.7086246 0.49908131 0.14434259 9
2.7142811 0.49033412 0.14455192 9
2.7081096 0.47946304 0.14413324 9
2.6959102 0.46808755 0.14340053 9
2.7058146 1.1313127 0.25658652 10
2.6962759 1.1179382 0.25536633 10
2.7001619 1.108519 0.25536633 10
2.7040153 1.0990862 0.25536633 10
2.7115319 1.0911289 0.25571495 10
2.7095828 1.0799187 0.25519201 10
2.7022159 1.066066 0.25414613 10
2.6966407 1.053004 0.25327459 10
2.6986239 1.0423946 0.25310028 10
2.704107 1.0336804 0.25327459 10
2.7058353 1.0235294 0.25310028 10
2.7037935 1.0119834 0.25257733 10
2.697968 0.99907911 0.2517058 10
2.7031364 0.99081296 0.25188008 10
2.710325 0.98272872 0.25222871 10
2.7098176 0.97239155 0.25188008 10
2.7094405 0.96159321 0.25153148 10
2.7015009 0.94816995 0.2504856 10
2.7085586 0.94004124 0.25083423 10
2.7118237 0.93058014 0.25083423 10
2.7207158 0.92302936 0.25135714 10
2.7086501 0.90893173 0.24996266 10
2.6966784 0.89445269 0.24856818 10
2.697891 0.88441271 0.24839386 10
2.7047524 0.8762185 0.24874248 10
2.707643 0.86724496 0.24874248 10
2.6954575 0.85297865 0.24734798 10
2.698271 0.84403598 0.24734798 10
2.705008 0.83578908 0.24769662 10
2.7002866 0.8240149 0.24699937 10
2.7069614 0.81573445 0.24734798 10
2.703923 0.80504829 0.24682505 10
2.6934745 0.79119974 0.24560487 10
2.7000465 0.78290451 0.24595349 10
2.7065945 0.77457052 0.24630213 10
2.7054465 0.76403552 0.24595349 10
2.7023396 0.75298214 0.24543057 10
2.6932957 0.74084544 0.24438471 10
2.697788 0.73196185 0.24455902 10
2.7098234 0.72558886 0.24543057 10
2.7084868 0.71510738 0.24508193 10
2.6974699 0.70213479 0.24386176 10
2.697974 0.69222128 0.24368747 10
2.7041178 0.68424743 0.24403608 10
2.7064903 0.67480338 0.24403608 10
2.7126987 0.66630292 0.24438471 10
2.7033885 0.65401936 0.24333882 10
2.7017789 0.64365458 0.24299021 10
2.69819 0.63285542 0.24246727 10
2.7139719 0.62656975 0.24368747 10
2.7200284 0.61797583 0.24403608 10
2.708452 0.60590816 0.24281588 10
2.7008214 0.59430867 0.24194433 10
2.6989846 0.58403516 0.24159572 10
2.7259674 1.0633578 0.35927087 11
2.7131076 1.0360342 0.35658973 11
2.7204206 1.0279627 0.35707721 11
2.7221336 1.0177646 0.35683349 11
2.7273552 1.0094202 0.35707721 11
2.7178135 0.99511683 0.35537103 11
2.7080343 0.98136497 0.35366488 11
2.7133119 0.97257519 0.3539086 11
2.7204325 0.96442527 0.3543961 11
2.727529 0.95623606 0.35488355 11
2.7158458 0.94150692 0.35293365 11
2.7078481 0.92816103 0.35147122 11
2.7203112 0.92236274 0.35268989 11
2.7178681 0.91096818 0.35195872 11
2.7285686 0.90397322 0.35293365 11
2.716615 0.88950217 0.35098374 11
2.7064829 0.87573546 0.34927759 11
2.7112625 0.86736101 0.34952128 11
2.7254796 0.86195737 0.35098374 11
2.7189984 0.84947783 0.34976503 11
2.7162569 0.83822483 0.34903383 11
2.707773 0.82526648 0.3475714 11
2.7142961 0.81742805 0.34805888 11
2.7152302 0.80738181 0.34781513 11
2.7161274 0.79734045 0.3475714 11
2.7133112 0.78572273 0.3468402 11
2.7103114 0.77461088 0.34610897 11
2.7129989 0.76514465 0.34610897 11
2.7231705 0.75827432 0.3470839 11
2.7200582 0.74718714 0.34635273 11
2.7071939 0.73400664 0.34440279 11
