# .PCD v0.7 - Point Cloud Data file format
VERSION 0.7
FIELDS x y z intensity
SIZE 4 4 4 4
TYPE F F F F
COUNT 1 1 1 1
WIDTH 1354
HEIGHT 1
VIEWPOINT 0 0 0 1 0 0 0
POINTS 1354
DATA ascii
1.5792459 0.51709306 0.0290059 8
1.5737054 0.51467079 0.086773023 9
1.5738356 0.51410449 0.14485285 10
1.5512652 0.50613338 -0.20035322 4
1.5571449 0.5074504 -0.14328404 5
1.5534434 0.50594348 -0.085621633 6
1.5688261 0.51034874 -0.028796472 7
1.5658208 0.50665194 0.02872666 8
1.5716915 0.50794554 0.086563677 9
1.5641561 0.50520873 0.14380698 10
1.5586907 0.50254244 -0.20108443 4
1.5512336 0.49983931 -0.14258678 5
1.5590023 0.50174195 -0.085830979 6
1.5782132 0.50731683 -0.02893609 7
1.5599608 0.49874756 0.028587043 8
1.5810653 0.50488681 0.086982369 9
1.567808 0.50035179 0.14398128 10
1.5604353 0.49709886 -0.20108443 4
1.5567662 0.49562991 -0.14293543 5
1.549324 0.49266583 -0.08520294 6
1.5837864 0.50301492 -0.0290059 7
1.5616925 0.49329883 0.028587043 8
1.57139 0.49575886 0.086354338 9
1.5809461 0.49847037 0.14502715 10
1.5507998 0.48807281 -0.19962201 4
1.5565858 0.48959601 -0.14276111 5
1.5434127 0.48485991 -0.084784262 6
1.5893484 0.4986811 -0.02907571 7
1.5672226 0.48903614 0.028656852 8
1.5654838 0.48789316 0.085935652 9
1.5750674 0.49057928 0.14432991 10
1.5505984 0.4820675 -0.19937825 4
1.5639935 0.48593262 -0.14328404 5
1.5565408 0.48302141 -0.085412286 6
1.5757991 0.48839378 -0.028796472 7
1.5803862 0.48709604 0.02886628 8
1.5671771 0.48242676 0.085935652 9
1.5748661 0.48449194 0.14415559 10
1.5977294 0.4909161 0.205228 11
1.5522718 0.47665158 -0.19937825 4
1.5618709 0.47930086 -0.14293543 5
1.5582175 0.47758469 -0.085412286 6
1.5736697 0.48172069 -0.02872666 7
1.5667727 0.47691759 0.028587043 8
1.5764952 0.47927669 0.086354338 9
1.5689224 0.47667453 0.14345835 10
1.5782899 0.47922057 -0.26124558 3
1.5994334 0.48533556 0.205228 11
1.5634246 0.47411019 -0.20059694 4
1.5559072 0.47153488 -0.14223817 5
1.5598752 0.47214219 -0.085412286 6
1.5753417 0.47622421 -0.02872666 7
1.5531073 0.46684164 0.028307803 8
1.5838145 0.47576958 0.086668357 9
1.5724847 0.47176868 0.14363267 10
1.5704924 0.47087133 -0.25968125 3
1.5840038 0.47462115 0.20303436 11
1.563168 0.46808156 -0.20035322 4
1.5613613 0.46724284 -0.14258678 5
1.5576862 0.46555156 -0.08520294 6
1.5807445 0.47214171 -0.028796472 7
1.5642316 0.46453473 0.028482327 8
1.5720615 0.46626374 0.085935652 9
1.5779428 0.46740815 0.14398128 10
1.5512108 0.45948973 -0.25623968 3
1.5779549 0.46711299 0.20205939 11
1.5590013 0.46120554 -0.19962201 4
1.5668042 0.46291998 -0.14293543 5
1.5515597 0.45812076 -0.084784262 6
1.5900553 0.46888301 -0.02893609 7
1.5716004 0.46075904 0.028587043 8
1.5697659 0.45992452 0.085726306 9
1.5756598 0.4610534 0.14363267 10
1.5547011 0.45462695 -0.25655255 3
1.5852921 0.46327206 0.2027906 11
1.5472631 0.45186496 -0.19791584 4
1.5683306 0.45772132 -0.14293543 5
1.5569843 0.45381936 -0.084993601 6
1.5800816 0.46025324 -0.02872666 7
1.5788821 0.45721388 0.028691756 8
1.5751991 0.45555151 0.085935652 9
1.5810876 0.45665735 0.14398128 10
1.5599957 0.45056546 -0.25717828 3
1.588727 0.45856258 0.20303436 11
1.5582898 0.44948271 -0.19913453 4
1.5584317 0.4489345 -0.14188954 5
1.5623192 0.4497591 -0.08520294 6
1.5816786 0.4547345 -0.02872666 7
1.5669312 0.448127 0.028447423 8
1.5805418 0.45142278 0.086144991 9
1.5691036 0.44785884 0.14276111 10
1.5462843 0.4410547 -0.25467533 3
1.5883298 0.45274776 0.2027906 11
1.5597719 0.44431233 -0.19913453 4
1.5521693 0.44185466 -0.1411923 5
1.5638022 0.44457534 -0.08520294 6
1.5793306 0.44839498 -0.028656852 7
1.5607877 0.44048241 0.028307803 8
1.587875 0.44752863 0.086459011 9
1.5725751 0.44291943 0.14293543 10
1.5440117 0.43458363 -0.2540496 3
1.5822567 0.44505107 0.20181565 11
1.5670463 0.44047683 -0.19986574 4
1.5556204 0.43697223 -0.14136662 5
1.5538063 0.43587756 -0.084574915 6
1.5847373 0.44395781 -0.02872666 7
1.5623159 0.43503118 0.028307803 8
1.5836549 0.44037747 0.086144991 9
1.5837097 0.44009498 0.14380698 10
1.5493258 0.43024886 -0.25467533 3
1.5704111 0.43580902 0.20010948 11
1.5647483 0.43394345 -0.19937825 4
1.6218888 0.44948509 0.26656437 12
1.5705763 0.43526453 -0.14258678 5
1.5553182 0.43045142 -0.084574915 6
1.5901322 0.43948913 -0.028796472 7
1.5753945 0.43275344 0.028517231 8
1.5774783 0.43273297 0.085726306 9
1.5833147 0.43403774 0.14363267 10
1.5565339 0.42640346 -0.25561395 3
1.5776669 0.43189663 0.2008407 11
1.5566797 0.42586011 -0.19815956 4
1.5929606 0.43548581 0.26155844 12
1.5682425 0.42872837 -0.14223817 5
1.5568112 0.42502007 -0.084574915 6
1.5839396 0.43183148 -0.028656852 7
1.5807557 0.42829716 0.028587043 8
1.5828348 0.42826751 0.085935652 9
1.577127 0.42642775 0.14293543 10
1.5637338 0.42251363 -0.25655255 3
1.5868305 0.42845708 0.20181565 11
1.5600735 0.42094034 -0.1984033 4
1.5696765 0.42323762 0.25749114 12
1.5620347 0.42117712 -0.14154093 5
1.5621426 0.42062137 -0.084784262 6
1.5777129 0.42422321 -0.028517231 7
1.5764452 0.42122835 0.028482327 8
1.5843203 0.42273933 0.085935652 9
1.5516554 0.41402349 -0.31216353 2
1.578606 0.42091951 0.14293543 10
1.5537463 0.41400129 -0.25467533 3
1.5979079 0.42546883 0.20303436 11
1.5672885 0.41702303 -0.19913453 4
1.5864166 0.42181697 0.25999412 12
1.5596443 0.41469842 -0.1411923 5
1.5597407 0.41414037 -0.084574915 6
1.5791842 0.41871297 -0.028517231 7
1.5605028 0.4111374 0.028168185 8
1.5895761 0.41850054 0.086144991 9
1.5511923 0.40810621 -0.31178191 2
1.5781386 0.4149003 0.14276111 10
1.5475399 0.40656707 -0.25342387 3
1.5782627 0.41434482 0.20035322 11
1.5687346 0.41154999 -0.19913453 4
1.5973605 0.41905984 0.26155844 12
1.5591551 0.40874603 -0.14101799 5
1.5611767 0.40869364 -0.084574915 6
1.5844331 0.41448638 -0.028587043 7
1.569599 0.40797284 0.028307803 8
1.5813612 0.41044089 0.085621633 9
1.5526074 0.40268865 -0.31178191 2
1.5834347 0.41038835 0.14310972 10
1.5527041 0.40242371 -0.2540496 3
1.5738631 0.40761533 0.19962201 11
1.5604817 0.40385908 -0.19791584 4
1.5930763 0.41199726 0.26061985 12
1.5644305 0.40429845 -0.14136662 5
1.554788 0.40151709 -0.084156223 6
1.5936154 0.41095081 -0.02872666 7
1.5806993 0.40497246 0.028482327 8
1.5750446 0.40293792 0.08520294 9
1.5482285 0.39607763 -0.31063706 2
1.586717 0.40562904 0.14328404 10
1.5579269 0.39798021 -0.25467533 3
1.5848936 0.40457356 0.2008407 11
1.5599586 0.39791846 -0.1976721 4
1.5868478 0.40448329 0.25936839 12
1.5696237 0.4000929 -0.14171523 5
1.5677936 0.3990429 -0.084784262 6
1.5834119 0.40242973 -0.028517231 7
1.5840421 0.39994216 0.028517231 8
1.5861251 0.39987841 0.085726306 9
1.5457944 0.38971061 -0.30987382 2
1.5823271 0.39862803 0.14276111 10
1.5650537 0.39398596 -0.25561395 3
1.5805209 0.39758554 0.20010948 11
1.5613381 0.39247108 -0.1976721 4
1.574839 0.39557263 0.25717828 12
1.555552 0.39072809 -0.14032075 5
1.5691769 0.39356819 -0.084784262 6
1.5809276 0.39592814 -0.028447423 7
1.5699041 0.39054793 0.028237993 8
1.5816272 0.393172 0.085412286 9
1.5547664 0.38620666 -0.31140029 2
1.5721068 0.39022195 0.14171523 10
1.5549159 0.38566679 -0.25373673 3
1.5915327 0.39445493 0.20132817 11
1.5722648 0.38967943 -0.19889079 4
1.5838121 0.39224717 0.25842977 12
1.5530385 0.38433814 -0.13997212 5
1.5666633 0.38712963 -0.084574915 6
1.5822318 0.39068371 -0.028447423 7
1.5692484 0.38486379 0.028203089 8
1.5926217 0.39030153 0.085935652 9
1.5560386 0.38104829 -0.31140029 2
1.5830685 0.38737464 0.14258678 10
1.5523484 0.37957031 -0.25311098 3
1.5889755 0.38823226 0.2008407 11
1.5774052 0.3854053 -0.19937825 4
1.6004561 0.39074135 0.26093271 12
1.5620469 0.38107511 -0.14066936 5
1.5640574 0.38098723 -0.084365569 6
1.5912906 0.38732597 -0.028587043 7
1.5802348 0.38200679 0.028377613 8
1.5862083 0.3828657 0.085516959 9
1.5534767 0.37496519 -0.31063706 2
1.5882183 0.38305676 0.14293543 10
1.5555189 0.37488359 -0.25342387 3
1.5767447 0.3797079 0.19913453 11
1.569091 0.37757427 -0.19815956 4
1.6056515 0.38607627 0.26155844 12
1.5672419 0.37655145 -0.14101799 5
1.6321347 0.3921428 0.3262834 13
1.5633702 0.37533185 -0.084260903 6
1.5926327 0.38177004 -0.028587043 7
1.5776678 0.37556258 0.028307803 8
1.5758765 0.37455499 0.084888928 9
1.5472003 0.36745396 -0.30911061 2
1.5876731 0.37677336 0.14276111 10
1.5607266 0.37009096 -0.2540496 3
1.5857866 0.3760334 0.20010948 11
1.5607414 0.36980677 -0.19694087 4
1.5916115 0.3768279 0.25905553 12
1.5685469 0.37107804 -0.14101799 5
1.6106339 0.38073793 0.321704 13
1.5627915 0.36914051 -0.084156223 6
1.5822784 0.37345186 -0.028377613 7
1.590716 0.37251294 0.028517231 8
1.583073 0.37014109 0.08520294 9
1.54465 0.36115733 -0.30834734 2
1.5850983 0.37032208 0.14241248 10
1.5600853 0.36419204 -0.25373673 3
1.5890874 0.37066996 0.20035322 11
1.5659529 0.36498466 -0.19742836 4
1.591058 0.37054411 0.25874263 12
1.5678921 0.36514896 -0.14084367 5
1.6253381 0.3782286 0.3243753 13
1.5679613 0.36458737 -0.084365569 6
1.5758449 0.36584073 -0.028237993 7
1.5764176 0.36336511 0.028237993 8
1.5863018 0.36506116 0.08530762 9
1.5516409 0.35708451 -0.3094922 2
1.5766726 0.36255464 0.14154093 10
1.5574967 0.35785899 -0.25311098 3
1.5942413 0.3660087 0.2008407 11
1.5710869 0.36040428 -0.19791584 4
1.5904166 0.36454627 0.25842977 12
1.5555632 0.3565574 -0.13962351 5
1.6113391 0.36904603 0.32132238 13
1.5770121 0.36089447 -0.084784262 6
1.5888093 0.36301062 -0.028447423 7
1.5757263 0.35741818 0.028203089 8
1.5934101 0.36084464 0.085621633 9
1.5547926 0.3520993 -0.30987382 2
1.5837584 0.35836831 0.14206386 10
1.5548829 0.35154921 -0.25248525 3
1.5858275 0.3582547 0.19962201 11
1.5762082 0.35579172 -0.1984033 4
1.6013141 0.36116585 0.25999412 12
1.5606853 0.35200229 -0.13997212 5
1.6087868 0.36255625 0.32055911 13
1.5724169 0.35407078 -0.084470242 6
1.5939686 0.35833997 -0.028517231 7
1.5789158 0.35235155 0.028237993 8
1.546351 0.34480026 -0.3657704 1
1.581014 0.3522397 0.084888928 9
1.5636775 0.34837723 -0.31140029 2
1.588889 0.35370398 0.14241248 10
1.5580289 0.34654799 -0.25279811 3
1.5831928 0.35185519 0.19913453 11
1.5716268 0.34899765 -0.1976721 4
1.6006366 0.35514569 0.25968125 12
1.5657948 0.34741509 -0.14032075 5
1.6177095 0.3586376 0.32208559 13
1.5638931 0.34642124 -0.083946884 6
1.5952097 0.35277337 -0.028517231 7
1.5840427 0.34769502 0.028307803 8
1.5361241 0.33689517 -0.36307099 1
1.5783318 0.34586406 0.084679581 9
1.549542 0.33955523 -0.30834734 2
1.5959531 0.34943357 0.14293543 10
1.5708076 0.34363988 -0.25467533 3
1.58829 0.34717482 0.19962201 11
1.5689567 0.34266198 -0.19718461 4
1.5960767 0.34829241 0.25874263 12
1.5786775 0.34449556 -0.14136662 5
1.6227878 0.35382536 0.32284883 13
1.5650928 0.3409597 -0.083946884 6
1.5886153 0.34550333 -0.028377613 7
1.5852469 0.34216312 0.028307803 8
1.5506251 0.33440787 -0.3662203 1
1.585387 0.34161428 0.084993601 9
1.5468795 0.3333168 -0.30758414 2
1.5835288 0.34092468 0.14171523 10
1.5662037 0.33690947 -0.25373673 3
1.591433 0.34204525 0.19986574 11
1.5701433 0.33718279 -0.19718461 4
1.5934198 0.3418912 0.2581169 12
1.5681819 0.33647606 -0.14032075 5
1.6240132 0.34815818 0.32284883 13
1.5721325 0.33674899 -0.084260903 6
1.5819898 0.33828291 -0.028237993 7
1.5805631 0.33538258 0.028203089 8
1.5632213 0.33141774 -0.36891973 1
1.5923725 0.33759809 0.08530762 9
1.5576365 0.32995042 -0.3094922 2
1.5808108 0.33457032 0.14136662 10
1.5615724 0.3302139 -0.25279811 3
1.598444 0.33771864 0.20059694 11
1.5790218 0.33361512 -0.19815956 4
1.5829481 0.33415687 0.25623968 12
1.5576499 0.32853252 -0.13927487 5
1.6098503 0.33924815 0.31979591 13
1.5752528 0.331671 -0.084365569 6
1.6266112 0.34248456 0.3837665 14
1.5909302 0.33468196 -0.028377613 7
1.5777515 0.32932255 0.028133281 8
1.5585887 0.32503811 -0.36757001 1
1.5954386 0.33272302 0.085412286 9
1.5606441 0.32518333 -0.30987382 2
1.5858126 0.33013877 0.14171523 10
1.5510551 0.32261968 -0.25092092 3
1.589837 0.33039767 0.19937825 11
1.5781755 0.32797423 -0.19791584 4
1.5898498 0.33011088 0.25717828 12
1.5665343 0.32498378 -0.13997212 5
1.6109661 0.33390892 0.31979591 13
1.566565 0.32442066 -0.08384221 6
1.6315544 0.3378793 0.38466629 14
1.5920314 0.32940397 -0.028377613 7
1.5847114 0.32529455 0.028237993 8
1.5482039 0.3175191 -0.36487061 1
1.5867505 0.32542455 0.084888928 9
1.5597905 0.31961247 -0.3094922 2
1.6005622 0.32767504 0.14293543 10
1.5637282 0.31984985 -0.25279811 3
1.5889789 0.32472661 0.19913453 11
1.56953 0.32075202 -0.19669713 4
1.587065 0.32404616 0.25655255 12
1.5715077 0.320584 -0.14032075 5
1.6159118 0.3293494 0.32055911 13
1.5715466 0.32002059 -0.084051557 6
1.6212087 0.3301335 0.38196689 14
1.5970341 0.32492045 -0.028447423 7
1.5897018 0.32082921 0.028307803 8
1.5568897 0.3139236 -0.36667022 1
1.5858631 0.31976569 0.084784262 9
1.5569928 0.31366241 -0.30872896 2
1.5918738 0.32040024 0.14206386 10
1.5647802 0.31466213 -0.25279811 3
1.5919933 0.31984615 0.19937825 11
1.5628003 0.31398103 -0.19572218 4
1.5997512 0.32111436 0.25842977 12
1.5706086 0.31497869 -0.14014643 5
1.6208452 0.32475999 0.32132238 13
1.5765159 0.31559178 -0.084260903 6
1.6184728 0.32399085 0.3810671 14
1.5863376 0.31726921 -0.028237993 7
1.5987687 0.31627473 0.028447423 8
1.5638187 0.30907714 -0.36801991 1
1.5831604 0.31289992 0.084574915 9
1.5485553 0.30578044 -0.30682087 2
1.5911376 0.31389952 0.14188954 10
1.5698531 0.30941585 -0.25342387 3
1.5932099 0.3137306 0.19937825 11
1.5698377 0.30912822 -0.19645341 4
1.5893432 0.31268111 0.25655255 12
1.5620315 0.30702475 -0.13927487 5
1.6220804 0.3185336 0.32132238 13
1.5777161 0.30953571 -0.084260903 6
1.6216173 0.31814876 0.38151699 14
1.5757699 0.30886832 -0.028028565 7
1.586068 0.30830067 0.028203089 8
1.5514439 0.30128944 -0.36487061 1
1.595953 0.30993307 0.08520294 9
1.5534155 0.30139101 -0.30758414 2
1.5863018 0.30748427 0.14136662 10
1.5592343 0.30195528 -0.25154665 3
1.6059352 0.3107084 0.2008407 11
1.5786498 0.30542934 -0.19742836 4
1.5961896 0.30853388 0.25749114 12
1.5591288 0.3010872 -0.13892625 5
1.6154169 0.31166551 0.31979591 13
1.5865784 0.30581447 -0.084679581 6
1.6188363 0.31203219 0.38061717 14
1.5846401 0.30515325 -0.028168185 7
1.5752965 0.30078864 0.02799366 8
1.5447776 0.29468268 -0.36307099 1
1.5989872 0.30473378 0.08530762 9
1.5640491 0.29807529 -0.3094922 2
1.5912272 0.30296707 0.14171523 10
1.5563459 0.29604506 -0.25092092 3
1.5913551 0.30241588 0.19889079 11
1.5797064 0.29991657 -0.19742836 4
1.5972568 0.3029606 0.25749114 12
1.558161 0.29554507 -0.13875194 5
1.6125836 0.30557537 0.31903264 13
1.5758095 0.29832202 -0.084051557 6
1.6275747 0.30782846 0.38241678 14
1.5896254 0.30036286 -0.028237993 7
1.5841988 0.29676113 0.028133281 8
1.534304 0.28713739 -0.36037159 1
1.5921882 0.29768252 0.084888928 9
1.5689397 0.29333586 -0.31025544 2
1.5942336 0.297777 0.14188954 10
1.5612535 0.29133487 -0.25154665 3
1.5806922 0.29467672 0.19742836 11
1.5748891 0.29331049 -0.19669713 4
1.6060729 0.29882821 0.25874263 12
1.5650594 0.29119718 -0.13927487 5
1.6213611 0.30138001 0.32055911 13
1.5729139 0.29209059 -0.08384221 6
1.6209751 0.30072296 0.38061717 14
1.5906641 0.29481253 -0.028237993 7
1.5911254 0.29231295 0.028237993 8
1.5372137 0.28213128 -0.36082149 1
1.5814306 0.28996205 0.084260903 9
1.5506433 0.28431711 -0.30643925 2
1.5972233 0.29256883 0.14206386 10
1.5661473 0.28659406 -0.25217238 3
1.5875692 0.29022858 0.19815956 11
1.5661395 0.28602767 -0.19547844 4
1.5973899 0.29144695 0.25717828 12
1.5739566 0.28688845 -0.13997212 5
1.6262662 0.29642305 0.32132238 13
1.5739239 0.28659791 -0.08384221 6
1.614346 0.29366738 0.37881759 14
1.5877486 0.28854352 -0.028168185 7
1.5921358 0.28675821 0.028237993 8
1.5650403 0.28159529 -0.36712012 1
1.5863645 0.28514633 0.084470242 9
1.5555398 0.2793254 -0.30720252 2
1.5845571 0.2842505 0.14084367 10
1.5710759 0.28154916 -0.25279811 3
1.6022506 0.2871359 0.19986574 11
1.5788523 0.28265837 -0.19694087 4
1.6003418 0.28621736 0.25749114 12
1.5631804 0.27928957 -0.13892625 5
1.6273417 0.29046008 0.32132238 13
1.5828286 0.28223002 -0.084260903 6
1.6192485 0.28843236 0.37971738 14
1.576934 0.28089496 -0.027958756 7
1.5600041 0.27535194 -0.42446327 0
1.5892378 0.28022516 0.028168185 8
1.5545467 0.27382922 -0.36442071 1
1.5972341 0.28106111 0.084993601 9
1.5603724 0.27457464 -0.30796573 2
1.5835774 0.27837229 0.14066936 10
1.5642666 0.27469704 -0.25154665 3
1.5974264 0.28023276 0.19913453 11
1.5798779 0.27686927 -0.19694087 4
1.5877599 0.27796498 0.25530109 12
1.5641459 0.27383095 -0.13892625 5
1.6206101 0.2834253 0.31979591 13
1.5877392 0.27739021 -0.084470242 6
1.6279244 0.28411815 0.38151699 14
1.5897727 0.27717444 -0.028168185 7
1.6424625 0.28606468 0.44672167 15
1.5533413 0.26858783 -0.4223927 0
1.578383 0.27263486 0.027958756 8
1.5401303 0.2657499 -0.36082149 1
1.6001738 0.27582285 0.085098274 9
1.5593867 0.26879236 -0.30758414 2
1.5923933 0.27419633 0.14136662 10
1.5613226 0.26856491 -0.25092092 3
1.6003513 0.27499074 0.19937825 11
1.5847474 0.27202556 -0.19742836 4
1.5906674 0.27275515 0.25561395 12
1.5690196 0.26904318 -0.13927487 5
1.609979 0.27577734 0.31750616 13
1.5808231 0.27049994 -0.084051557 6
1.6289062 0.27843422 0.38151699 14
1.5867883 0.27094984 -0.028098376 7
1.6358336 0.27902991 0.44465113 15
1.5637931 0.26477686 -0.42498088 0
1.587212 0.26845714 0.028098376 8
1.5602636 0.26361832 -0.3653205 1
1.5932491 0.26890627 0.084679581 9
1.564187 0.26400122 -0.30834734 2
1.6011995 0.26996073 0.14206386 10
1.5661464 0.26376897 -0.25154665 3
1.5856408 0.2667684 0.19742836 11
1.5758992 0.26484665 -0.19620967 4
1.5916098 0.26720059 0.25561395 12
1.5679843 0.26323435 -0.13910057 5
1.6225493 0.27210438 0.31979591 13
1.5738784 0.26365981 -0.083632864 6
1.6221802 0.27145961 0.37971738 14
1.5956136 0.2667284 -0.028237993 7
1.6463248 0.27491012 0.44723931 15
1.5589902 0.25836861 -0.42342797 0
1.5901122 0.26324129 0.028133281 8
1.5650194 0.25880736 -0.3662203 1
1.5882666 0.26236621 0.084365569 9
1.5631622 0.25821921 -0.30796573 2
1.6001662 0.26404503 0.14188954 10
1.5709556 0.25894409 -0.25217238 3
1.5943972 0.26252145 0.1984033 11
1.5748553 0.25902155 -0.19596592 4
1.6022788 0.26324555 0.25717828 12
1.5747917 0.25872958 -0.13962351 5
1.6273639 0.26707444 0.32055911 13
1.5747893 0.25816393 -0.083632864 6
1.6154252 0.26453692 0.37791777 14
1.5807472 0.25857413 -0.027958756 7
1.6396483 0.26791516 0.44516876 15
1.5522547 0.25168943 -0.42135742 0
1.5969433 0.2586486 0.028237993 8
1.5447524 0.24991888 -0.36127138 1
1.5911444 0.25713873 0.084470242 9
1.562116 0.25244755 -0.30758414 2
1.5932105 0.25718808 0.1411923 10
1.5757504 0.25408736 -0.25279811 3
1.6051033 0.25853232 0.19962201 11
1.5835894 0.25478432 -0.19694087 4
1.603188 0.25765052 0.25717828 12
1.5658495 0.25164983 -0.13875194 5
1.6282862 0.26139179 0.32055911 13
1.5776528 0.25298187 -0.083737537 6
1.6201874 0.25951242 0.37881759 14
1.5816404 0.25305426 -0.027958756 7
1.6310351 0.26066607 0.44258058 15
1.5531238 0.24626909 -0.42135742 0
1.5938863 0.25244662 0.028168185 8
1.5456152 0.24452549 -0.36127138 1
1.6038688 0.25345463 0.085098274 9
1.5629877 0.24699429 -0.30758414 2
1.5862265 0.25038216 0.14049506 10
1.5649201 0.24673983 -0.25092092 3
1.6118785 0.25385544 0.20035322 11
1.5825082 0.24894612 -0.19669713 4
1.5943207 0.25051919 0.25561395 12
1.5667186 0.24618202 -0.13875194 5
1.6214306 0.2544899 0.31903264 13
1.5883923 0.24901959 -0.084260903 6
1.6287844 0.25506082 0.38061717 14
1.5904167 0.24876899 -0.028098376 7
1.6281178 0.25437424 0.44154531 15
1.5539742 0.24084575 -0.42135742 0
1.5789486 0.2444343 0.027888944 8
1.5426078 0.2385328 -0.36037159 1
1.6007962 0.24724439 0.084888928 9
1.5599598 0.24093716 -0.30682087 2
1.5890598 0.24514776 0.14066936 10
1.561867 0.24067362 -0.25029516 3
1.599021 0.24611312 0.19864705 11
1.5774814 0.24251604 -0.19596592 4
1.5990902 0.24555244 0.25623968 12
1.5833226 0.24313119 -0.14014643 5
1.6106658 0.24704222 0.31674296 13
1.5892518 0.24347387 -0.084260903 6
1.6296648 0.24937409 0.38061717 14
1.5991822 0.24442399 -0.028237993 7
1.6366348 0.24985528 0.44361585 15
1.5548053 0.23542024 -0.42135742 0
1.5936327 0.24101479 0.028133281 8
1.5549923 0.23489262 -0.36307099 1
1.5957246 0.24076147 0.084574915 9
1.5607911 0.23549074 -0.30682087 2
1.6036968 0.24167806 0.14188954 10
1.5666045 0.23580787 -0.25092092 3
1.593981 0.23964491 0.19791584 11
1.5743922 0.23641887 -0.19547844 4
1.5940771 0.23908962 0.25530109 12
1.5841616 0.23760246 -0.14014643 5
1.627051 0.24374571 0.31979591 13
1.5782402 0.23615183 -0.083632864 6
1.6266707 0.24310748 0.37971738 14
1.5921146 0.23765974 -0.028098376 7
1.6374969 0.24414116 0.44361585 15
1.563262 0.23112129 -0.42342797 0
1.5984207 0.2360343 0.028203089 8
1.5654422 0.2308853 -0.3653205 1
1.5926036 0.23460734 0.084365569 9
1.5616038 0.23004073 -0.30682087 2
1.6005883 0.23549818 0.14154093 10
1.5713267 0.23091269 -0.25154665 3
1.6026642 0.2352321 0.19889079 11
1.5732437 0.23063342 -0.19523472 4
1.5909928 0.23295178 0.25467533 12
1.5849813 0.23207158 -0.14014643 5
1.627892 0.23806435 0.31979591 13
1.5869602 0.23179555 -0.084051557 6
1.6236528 0.23686558 0.37881759 14
1.5929345 0.23210034 -0.028098376 7
1.6440743 0.23925869 0.44516876 15
1.5564109 0.22455992 -0.42135742 0
1.6012141 0.23073889 0.028237993 8
1.5469499 0.2226437 -0.36082149 1
1.5993435 0.22989877 0.084679581 9
1.5507375 0.22291186 -0.30453119 2
1.5974563 0.22934373 0.1411923 10
1.5799447 0.22654819 -0.25279811 3
1.6054406 0.22991733 0.19913453 11
1.5779694 0.22570287 -0.19572218 4
1.5839742 0.22627892 0.25342387 12
1.5778923 0.22541007 -0.13944918 5
1.6326002 0.23293465 0.32055911 13
1.5818276 0.22540966 -0.083737537 6
1.6244698 0.23119611 0.37881759 14
1.5858158 0.22541247 -0.027958756 7
1.6334233 0.23188952 0.44206294 15
1.5495334 0.21804847 -0.41928688 0
1.6000296 0.22486947 0.028203089 8
1.5573666 0.21859719 -0.36307099 1
1.6000971 0.22459497 0.084679581 9
1.565116 0.21940564 -0.30720252 2
1.5903546 0.22266071 0.14049506 10
1.5689878 0.21939078 -0.25092092 3
1.6101655 0.22486134 0.19962201 11
1.5826799 0.22074138 -0.19620967 4
1.5905852 0.22184396 0.25436246 12
1.5707763 0.21880169 -0.13875194 5
1.6256251 0.22615266 0.31903264 13
1.5924963 0.22126055 -0.084260903 6
1.6291273 0.22606026 0.37971738 14
1.590516 0.22070248 -0.028028565 7
1.6284426 0.2256756 0.44051 15
1.5579407 0.21368866 -0.42135742 0
1.5849172 0.21738878 0.02792385 8
1.5484295 0.21210878 -0.36082149 1
1.6127443 0.22063209 0.08530762 9
1.5658724 0.21394062 -0.30720252 2
1.5970443 0.2179164 0.14101799 10
1.5657922 0.21365206 -0.25029516 3
1.5971338 0.21764466 0.19791584 11
1.591271 0.21656212 -0.19718461 4
1.597222 0.21708886 0.25530109 12
1.5715305 0.21331765 -0.13875194 5
1.6263661 0.22076097 0.31903264 13
1.589263 0.21544138 -0.084051557 6
1.6375924 0.22170272 0.38151699 14
1.5992033 0.21622127 -0.028168185 7
1.638793 0.22128199 0.44309825 15
1.5662999 0.20954539 -0.42342797 0
1.5896306 0.21238503 0.02799366 8
1.5588186 0.20799072 -0.36307099 1
1.5996091 0.21343333 0.084574915 9
1.5743573 0.20978436 -0.30872896 2
1.6076331 0.21393363 0.14188954 10
1.5684868 0.20844494 -0.25060806 3
1.5900124 0.21102323 0.19694087 11
1.5880814 0.21048565 -0.19669713 4
1.6057661 0.21282962 0.25655255 12
1.5781547 0.20888895 -0.13927487 5
1.6310197 0.21559668 0.31979591 13
1.586045 0.20937084 -0.08384221 6
1.6306283 0.21496588 0.37971738 14
1.6038766 0.21143921 -0.028237993 7
1.6433485 0.21635097 0.44413349 15
1.6042068 0.20891972 0.028237993 8
1.5672297 0.20382595 -0.36487061 1
1.5904413 0.20656173 0.084051557 9
1.5595045 0.20226774 -0.30567604 2
1.6044183 0.20780835 0.14154093 10
1.5770054 0.20425776 -0.25185952 3
1.6064531 0.20778605 0.19889079 11
1.5730207 0.20318343 -0.19474722 4
1.5927852 0.20545374 0.25436246 12
1.5887547 0.20465116 -0.14014643 5
1.6317257 0.21018638 0.31979591 13
1.5867306 0.20410973 -0.08384221 6
1.6274666 0.20906109 0.37881759 14
1.6006382 0.20533003 -0.028168185 7
1.6498421 0.21135007 0.44568643 15
1.6069102 0.20356961 0.028272899 8
1.5756649 0.19933271 -0.36667022 1
1.5990787 0.20201117 0.084470242 9
1.5640621 0.19758753 -0.30643925 2
1.6011454 0.20198761 0.1411923 10
1.5816286 0.19924511 -0.25248525 3
1.6071686 0.20217834 0.19889079 11
1.5894774 0.19967028 -0.19669713 4
1.6072129 0.20161331 0.25655255 12
1.5815513 0.19811466 -0.13944918 5
1.6363453 0.20497848 0.32055911 13
1.5993243 0.20005675 -0.084470242 6
1.6359211 0.20434462 0.38061717 14
1.5973763 0.1992476 -0.028098376 7
1.6409847 0.20439541 0.44309825 15
1.5917332 0.19600517 0.02799366 8
1.5724827 0.19335532 -0.3657704 1
1.5997741 0.1964277 0.084470242 9
1.5686733 0.19233185 -0.30720252 2
1.5979196 0.19563386 0.14084367 10
1.574505 0.19248831 -0.25123379 3
1.6078645 0.19656663 0.19889079 11
1.5941054 0.19460294 -0.19718461 4
1.6059459 0.19576317 0.25623968 12
1.5743223 0.19162945 -0.13875194 5
1.6331879 0.19850464 0.31979591 13
1.6040121 0.19467521 -0.084679581 6
1.63279 0.19787875 0.37971738 14
1.6020325 0.19415124 -0.028168185 7
1.6378524 0.19820146 0.44206294 15
1.5904554 0.18993157 0.027958756 8
1.5654407 0.18666796 -0.36397079 1
1.6143659 0.19221623 0.08520294 9
1.573234 0.1873188 -0.30796573 2
1.5966144 0.18981925 0.14066936 10
1.5673209 0.18605997 -0.2499823 3
1.6046314 0.19020519 0.1984033 11
1.5987507 0.18922442 -0.1976721 4
1.6144994 0.19080347 0.25749114 12
1.5750141 0.18585832 -0.13875194 5
1.6260719 0.19188337 0.31826943 13
1.5967479 0.18813969 -0.084260903 6
1.6373414 0.19263378 0.38061717 14
1.6027334 0.18827854 -0.028168185 7
1.6385679 0.19219746 0.44206294 15
1.5990543 0.18530053 0.028098376 8
1.5622112 0.18075405 -0.36307099 1
1.6011388 0.18497495 0.084470242 9
1.5739099 0.18155169 -0.30796573 2
1.6052165 0.18487829 0.14136662 10
1.5719172 0.18076515 -0.25060806 3
1.6013415 0.18414883 0.19791584 11
1.5954573 0.18319005 -0.19718461 4
1.6151557 0.18516621 0.25749114 12
1.5776327 0.18058553 -0.13892625 5
1.6306652 0.18636765 0.31903264 13
1.5855204 0.18092775 -0.083632864 6
1.6264192 0.18530729 0.37791777 14
1.6073544 0.18313512 -0.028237993 7
1.6430677 0.18691368 0.44309825 15
1.6036657 0.18016373 0.028168185 8
1.5647691 0.17551661 -0.36352089 1
1.597805 0.17894058 0.084260903 9
1.5706013 0.17589399 -0.30720252 2
1.6137409 0.18044011 0.14206386 10
1.5803609 0.17642771 -0.25185952 3
1.6059202 0.17899811 0.1984033 11
1.5842495 0.17630275 -0.19572218 4
1.6177558 0.17974487 0.25780404 12
1.5821832 0.1757925 -0.13927487 5
1.635177 0.1813924 0.31979591 13
1.592067 0.17632888 -0.083946884 6
1.6270249 0.17991242 0.37791777 14
1.6079838 0.17752363 -0.028237993 7
1.6494707 0.18181247 0.44465113 15
1.6042849 0.17456514 0.028168185 8
1.5614977 0.1696329 -0.3626211 1
1.602391 0.17379239 0.084470242 9
1.5633985 0.16956332 -0.30567604 2
1.6044569 0.17373314 0.1411923 10
1.5848949 0.1713351 -0.25248525 3
1.6183772 0.17466897 0.19986574 11
1.59275 0.17162186 -0.19669713 4
1.612481 0.17346324 0.25686541 12
1.5689205 0.1687772 -0.1380547 5
1.6397042 0.17610231 0.32055911 13
1.604588 0.17204762 -0.084574915 6
1.6315184 0.17464714 0.37881759 14
1.5926868 0.17020926 -0.027958756 7
1.6404907 0.17502844 0.44206294 15
1.6068732 0.16917302 0.028203089 8
1.5601422 0.16397785 -0.3621712 1
1.6069607 0.16861513 0.084679581 9
1.5756959 0.16533458 -0.30796573 2
1.5971273 0.16730154 0.14049506 10
1.5736953 0.16456935 -0.25060806 3
1.6110796 0.16819458 0.19889079 11
1.597288 0.16647296 -0.19718461 4
1.5934291 0.16578965 0.25373673 12
1.5932803 0.16577418 -0.14014643 5
1.6285926 0.1691602 0.31826943 13
1.6091522 0.16685785 -0.084784262 6
1.6359947 0.16935265 0.37971738 14
1.6012278 0.1654705 -0.028098376 7
1.6372483 0.16890484 0.44102767 15
1.5955175 0.16234796 0.02799366 8
1.5645826 0.15892513 -0.36307099 1
1.6135007 0.1636088 0.084993601 9
1.5801699 0.16022907 -0.30872896 2
1.6016661 0.16212639 0.14084367 10
1.5742601 0.15907545 -0.25060806 3
1.6077067 0.16217093 0.1984033 11
1.5939094 0.16049819 -0.19669713 4
1.6018599 0.16101715 0.25498822 12
1.5898845 0.1598134 -0.13979781 5
1.6252661 0.16308261 0.31750616 13
1.6017755 0.16044317 -0.084365569 6
1.6404539 0.16402906 0.38061717 14
1.6097547 0.16067491 -0.028237993 7
1.6359056 0.16299678 0.44051 15
1.6000546 0.15716887 0.028063469 8
1.602108 0.15708826 0.084365569 9
1.5768118 0.15433012 -0.30796573 2
1.6141199 0.15769726 0.14188954 10
1.578738 0.15396233 -0.25123379 3
1.6043115 0.15617368 0.19791584 11
1.5905082 0.15454978 -0.19620967 4
1.6122156 0.15665908 0.25655255 12
1.5904328 0.15426226 -0.13979781 5
1.6336418 0.1581655 0.31903264 13
1.5903977 0.15369855 -0.083737537 6
1.6293782 0.15717867 0.37791777 14
1.6142597 0.15572026 -0.028307803 7
1.6460519 0.15849717 0.44309825 15
1.6065391 0.152429 0.028168185 8
1.5966814 0.15093061 0.084051557 9
1.5695226 0.14808774 -0.30643925 2
1.6146606 0.15206154 0.14188954 10
1.5831733 0.14909621 -0.25185952 3
1.6127261 0.15159541 0.19889079 11
1.5831064 0.1485332 -0.19523472 4
1.5970185 0.14955656 0.2540496 12
1.6028639 0.14982179 -0.14084367 5
1.638067 0.15311228 0.31979591 13
1.6068076 0.14990832 -0.084574915 6
1.6260098 0.15141277 0.37701797 14
1.5988644 0.14860356 -0.028028565 7
1.6504422 0.15310764 0.44413349 15
1.6130358 0.14736557 0.028272899 8
1.6051548 0.14608064 0.084470242 9
1.5621843 0.14217003 -0.30491278 2
1.6072192 0.14598571 0.1411923 10
1.583684 0.14356932 -0.25185952 3
1.6132454 0.14596535 0.19889079 11
1.5855923 0.14318433 -0.19547844 4
1.593596 0.1436267 0.25342387 12
1.5874771 0.14307523 -0.13944918 5
1.6385915 0.14739376 0.31979591 13
1.6073211 0.14429817 -0.084574915 6
1.6342924 0.14643122 0.37881759 14
1.603357 0.14337815 -0.028098376 7
1.6413456 0.14648649 0.44154531 15
1.6015881 0.14068459 0.028063469 8
1.6136135 0.14117257 0.084888928 9
1.5783174 0.13808458 -0.30796573 2
1.6017644 0.13985501 0.14066936 10
1.5802397 0.13769771 -0.25123379 3
1.6157228 0.14050473 0.19913453 11
1.6019036 0.13902211 -0.19742836 4
1.6039277 0.13891573 0.25498822 12
1.583997 0.13718954 -0.13910057 5
1.635184 0.14133453 0.31903264 13
1.6117948 0.13903032 -0.084784262 6
1.6425595 0.14139524 0.38061717 14
1.6078324 0.13812239 -0.028168185 7
1.6360725 0.14026076 0.4399924 15
1.5940989 0.1344206 0.02792385 8
1.620067 0.13604164 0.08520294 9
1.5787897 0.13257547 -0.30796573 2
1.6081992 0.13476165 0.1411923 10
1.5767736 0.13185118 -0.25060806 3
1.614225 0.13469999 0.19889079 11
1.6004009 0.13326441 -0.19718461 4
1.6063714 0.13347928 0.25530109 12
1.5924314 0.1320419 -0.13979781 5
1.6317543 0.13530248 0.31826943 13
1.6003276 0.13241465 -0.084156223 6
1.6430433 0.13566034 0.38061717 14
1.6162765 0.13316709 -0.028307803 7
1.6519551 0.13581564 0.44413349 15
1.6065178 0.12982135 0.028133281 8
1.6065964 0.12926404 0.084470242 9
1.5792651 0.12678687 -0.30796573 2
1.6186124 0.12966222 0.14206386 10
1.5831536 0.12654366 -0.25154665 3
1.5988553 0.12779872 0.19694087 11
1.5889835 0.1267298 -0.19572218 4
1.6107658 0.12818493 0.25592682 12
1.5988411 0.12695518 -0.14032075 5
1.6322393 0.1293197 0.31826943 13
1.6008022 0.12654862 -0.084156223 6
1.6318731 0.12871832 0.37791777 14
1.6286925 0.12846744 -0.028517231 7
1.654345 0.13019954 0.44465113 15
1.612964 0.12439392 0.028237993 8
1.6050464 0.12350154 0.084365569 9
1.575783 0.12097396 -0.30720252 2
1.6170685 0.12385882 0.14188954 10
1.5855554 0.12116675 -0.25185952 3
1.6052508 0.12239084 0.1976721 11
1.5953754 0.1213571 -0.19645341 4
1.601355 0.12181196 0.25436246 12
1.6052346 0.12182529 -0.14084367 5
1.636596 0.12391891 0.31903264 13
1.5892847 0.1200569 -0.083528191 6
1.6323125 0.1230208 0.37791777 14
1.6091906 0.12127819 -0.028168185 7
1.6567159 0.12456999 0.44516876 15
1.6133676 0.11904478 0.028237993 8
1.6034759 0.11775219 0.084260903 9
1.5742376 0.11532884 -0.30682087 2
1.6055685 0.11734244 0.14084367 10
1.5859485 0.11590851 -0.25185952 3
1.6135674 0.11764392 0.19864705 11
1.5997288 0.1163543 -0.19694087 4
1.5957141 0.11550239 -0.13997212 5
1.6487468 0.11934105 0.32132238 13
1.6016264 0.11564936 -0.084156223 6
1.6365991 0.11788674 0.37881759 14
1.6096041 0.11566067 -0.028168185 7
1.6436522 0.11781891 0.44154531 15
1.6037996 0.11271175 0.028063469 8
1.6158315 0.1129898 0.084888928 9
1.6039612 0.11187923 0.14066936 10
1.5824021 0.11009792 -0.25123379 3
1.619909 0.11242268 0.19937825 11
1.6040858 0.11104401 -0.19742836 4
1.6001956 0.11049411 0.2540496 12
1.5960883 0.11021049 -0.13997212 5
1.6374016 0.11277528 0.31903264 13
1.6060054 0.11033205 -0.084365569 6
1.6447772 0.11270724 0.38061717 14
1.6060081 0.10976826 -0.028098376 7
1.6440535 0.11208034 0.44154531 15
1.5981975 0.10671265 0.027958756 8
1.6082447 0.10681967 0.084470242 9
1.60633 0.10641094 0.14084367 10
1.5788347 0.10431276 -0.25060806 3
1.6084068 0.10598466 0.19791584 11
1.6064446 0.10557378 -0.1976721 4
1.6163409 0.10594085 0.25655255 12
1.5964633 0.104638 -0.13997212 5
1.6358262 0.10693128 0.31865105 13
1.5944226 0.10394535 -0.083737537 6
1.6529391 0.10747052 0.38241678 14
1.6183544 0.10493828 -0.028307803 7
1.6502182 0.10671519 0.44309825 15
1.6045473 0.10151161 0.028063469 8
1.6086076 0.10120554 0.084470242 9
1.6086801 0.10092748 0.14101799 10
1.5791891 0.0988013 -0.25060806 3
1.6127294 0.10061719 0.1984033 11
1.5988783 0.099472128 -0.19669713 4
1.6265588 0.10091004 0.2581169 12
1.6047732 0.09955848 -0.14066936 5
1.638149 0.10134131 0.31903264 13
1.590789 0.098132774 -0.083528191 6
1.6377437 0.1007432 0.37881759 14
1.6227027 0.099532939 -0.028377613 7
1.6621501 0.10166138 0.44620407 15
1.6128764 0.09638758 0.028203089 8
1.6089511 0.095589407 0.084470242 9
1.6209562 0.096018754 0.14206386 10
1.5814964 0.093404345 -0.25092092 3
1.6130708 0.094986662 0.1984033 11
1.5952525 0.093658045 -0.19620967 4
1.622957 0.095000371 0.25749114 12
1.6070999 0.094072171 -0.14084367 5
1.6424127 0.095851608 0.31979591 13
1.603085 0.093275703 -0.084156223 6
1.6380855 0.095025361 0.37881759 14
1.6070694 0.092944719 -0.028098376 7
1.6567088 0.095525503 0.44465113 15
1.6171961 0.09098199 0.028272899 8
1.609275 0.089972876 0.084470242 9
1.6093456 0.089694314 0.14101799 10
1.5818127 0.087883651 -0.25092092 3
1.6193388 0.089685075 0.19913453 11
1.5995338 0.088307433 -0.19669713 4
1.6114445 0.088682912 0.25561395 12
1.6034396 0.088242382 -0.14049506 5
1.6505785 0.090548433 0.32132238 13
1.6034008 0.087678894 -0.084156223 6
1.6422988 0.089518487 0.37971738 14
1.6113775 0.087551743 -0.028168185 7
1.6435291 0.089010194 0.44102767 15
1.6055223 0.084704585 0.028063469 8
1.6175573 0.084772602 0.084888928 9
1.6056695 0.08386936 0.14066936 10
1.5801371 0.082258441 -0.25060806 3
1.6295542 0.084545821 0.20035322 11
1.6037971 0.082929589 -0.19718461 4
1.6196351 0.083464362 0.25686541 12
1.5878199 0.081824832 -0.13910057 5
1.6391205 0.084181666 0.31903264 13
1.6116756 0.082490928 -0.084574915 6
1.6426013 0.083785601 0.37971738 14
1.6156676 0.082129061 -0.028237993 7
1.6457591 0.083370745 0.44154531 15
1.5938246 0.078509025 0.02785404 8
1.6178296 0.07940767 0.084888928 9
1.6079425 0.078360565 0.14084367 10
1.5784416 0.076646 -0.25029516 3
1.6119944 0.077994041 0.19815956 11
1.6060461 0.07770624 -0.19742836 4
1.6297685 0.078568928 0.25842977 12
1.5960563 0.076663747 -0.13979781 5
1.6354823 0.078272209 0.31826943 13
1.6039739 0.076483682 -0.084156223 6
1.6506562 0.078709677 0.38151699 14
1.619926 0.076960213 -0.028307803 7
1.6498859 0.078095756 0.44258058 15
1.610057 0.073956914 0.028133281 8
1.6101032 0.07367745 0.084470242 9
1.6181451 0.073479459 0.14171523 10
1.582634 0.071590133 -0.25092092 3
1.6062949 0.072380289 0.19742836 11
1.5963795 0.071933508 -0.19620967 4
1.6319934 0.073252104 0.25874263 12
1.6122249 0.072082862 -0.1411923 5
1.6435781 0.073198043 0.31979591 13
1.6002282 0.07098683 -0.083946884 6
1.6431209 0.072889566 0.37971738 14
1.6281633 0.071941331 -0.028447423 7
1.6578557 0.072964206 0.44465113 15
1.614289 0.068787947 0.028203089 8
1.6103506 0.06805703 0.084470242 9
1.6243519 0.068364762 0.14223817 10
1.6124762 0.067301124 0.19815956 11
1.5926542 0.066195369 -0.19572218 4
1.6065812 0.06649258 0.25467533 12
1.6084853 0.06629096 -0.14084367 5
1.6438236 0.067460001 0.31979591 13
1.6084486 0.065726317 -0.084365569 6
1.6394711 0.066993997 0.37881759 14
1.6164161 0.06577009 -0.028237993 7
1.6638912 0.067410931 0.44620407 15
1.6185267 0.063026793 0.028272899 8
1.6105893 0.062154699 0.084470242 9
1.6166278 0.062105171 0.14154093 10
1.6265976 0.0619196 0.19986574 11
1.6047881 0.060808901 -0.19718461 4
1.6008923 0.060380723 0.25373673 12
1.6047355 0.060245216 -0.14049506 5
1.6479836 0.061581612 0.32055911 13
1.6086787 0.059830971 -0.084365569 6
1.6474952 0.061274655 0.38061717 14
1.6166464 0.059844777 -0.028237993 7
1.6544744 0.060956746 0.44361585 15
1.6107531 0.056812592 0.028133281 8
1.6227826 0.056668982 0.085098274 9
1.610871 0.055972319 0.14101799 10
1.6268137 0.05595699 0.19986574 11
1.6010324 0.054790448 -0.19669713 4
1.6011028 0.054513108 0.25373673 12
1.5969806 0.054093722 -0.13979781 5
1.644274 0.055408381 0.31979591 13
1.6168717 0.05420249 -0.084784262 6
1.6477087 0.055236235 0.38061717 14
1.6208521 0.054052729 -0.028307803 7
1.6469635 0.054634966 0.44154531 15
1.6009569 0.050591521 0.027958756 8
1.6229793 0.050721169 0.085098274 9
1.6210225 0.050376058 0.14188954 10
1.6151028 0.049628586 0.1984033 11
1.609159 0.049164079 -0.1976721 4
1.6190622 0.049184591 0.25655255 12
1.601151 0.048360787 -0.14014643 5
1.6366166 0.049145315 0.31826943 13
1.6050812 0.047918741 -0.084156223 6
1.6556915 0.049429681 0.38241678 14
1.6290345 0.048349302 -0.028447423 7
1.6587387 0.048940379 0.44465113 15
1.6110944 0.046128377 0.028133281 8
1.6151367 0.045679137 0.084679581 9
1.6211648 0.045567237 0.14188954 10
1.615243 0.044835784 0.1984033 11
1.6053292 0.04428022 -0.19718461 4
1.6192009 0.044380046 0.25655255 12
1.6132375 0.043934837 -0.1411923 5
1.6446053 0.044501878 0.31979591 13
1.6012233 0.043048341 -0.083946884 6
1.6441426 0.044202212 0.37971738 14
1.6251729 0.043408379 -0.028377613 7
1.6666013 0.044223875 0.44672167 15
1.6192489 0.040422313 0.028272899 8
1.6073068 0.039562833 0.084260903 9
1.6253046 0.039721236 0.14223817 10
1.6153965 0.038915679 0.1984033 11
1.6015116 0.038300764 -0.19669713 4
1.6154031 0.038351666 0.25592682 12
1.6173712 0.038115971 -0.14154093 5
1.6526083 0.038657025 0.32132238 13
1.6053637 0.037272342 -0.084156223 6
1.6403973 0.038085729 0.37881759 14
1.6173244 0.037267625 -0.028237993 7
1.6193862 0.034486782 0.028272899 8
1.6154224 0.034121085 0.084679581 9
1.6214553 0.033681531 0.14188954 10
1.6314057 0.033318549 0.20035322 11
1.6075896 0.032832146 -0.19742836 4
1.6076272 0.032552231 0.25467533 12
1.6055425 0.032229707 -0.14049506 5
1.6566588 0.032966573 0.32208559 13
1.6174654 0.031904254 -0.084784262 6
1.6522104 0.032589592 0.38151699 14
1.613446 0.031543281 -0.028168185 7
1.6074954 0.028901158 0.028063469 8
1.6215174 0.028870178 0.084993601 9
1.6115977 0.028130867 0.14101799 10
1.6295224 0.027874805 0.20010948 11
1.6037201 0.027433425 -0.19694087 4
1.6097015 0.027254734 0.25498822 12
1.6056405 0.026905676 -0.14049506 5
1.6489071 0.027342839 0.32055911 13
1.6215562 0.026606224 -0.084993601 6
1.6523093 0.027110817 0.38151699 14
1.6215395 0.026322877 -0.028307803 7
1.6075824 0.023569908 0.028063469 8
1.6275996 0.02329517 0.08530762 9
1.6216431 0.022926847 0.14188954 10
1.6216663 0.022361031 0.19913453 11
1.6176875 0.021742189 0.25623968 12
1.6097054 0.021634907 -0.14084367 5
1.6411363 0.021770099 0.31903264 13
1.609653 0.021071495 -0.084365569 6
1.656291 0.021393701 0.38241678 14
1.6336186 0.020814922 -0.028517231 7
1.6156532 0.01804794 0.028203089 8
1.6196824 0.017527537 0.084888928 9
1.6256977 0.017308882 0.14223817 10
1.6157794 0.01663924 0.1984033 11
1.6276301 0.016193101 0.25780404 12
1.6097711 0.016015425 -0.14084367 5
1.6529814 0.016156809 0.32132238 13
1.6057223 0.015414623 -0.084156223 6
1.648561 0.015538127 0.38061717 14
1.6296822 0.015074973 -0.028447423 7
1.6257045 0.012484497 0.028377613 8
1.6157371 0.012126725 0.084679581 9
1.6297328 0.011662112 0.14258678 10
1.6197978 0.011026382 0.19889079 11
1.6118721 0.010690339 0.25530109 12
1.6257559 0.010498677 -0.14223817 5
1.6569541 0.010411749 0.32208559 13
1.6097609 0.0098334849 -0.084365569 6
1.6408105 0.0097367885 0.37881759 14
1.6257238 0.0096472623 -0.028377613 7
1.6277366 0.007102449 0.028412517 8
1.6237586 0.0065183169 0.085098274 9
1.6217941 0.0059451177 0.14188954 10
1.6337211 0.0057029352 0.20059694 11
1.6099242 0.0050586918 0.25498822 12
1.6138284 0.004788538 -0.1411923 5
1.6569794 0.0049165753 0.32208559 13
1.6257626 0.0045402143 -0.08520294 6
1.6486286 0.0043155607 0.38061717 14
1.6177489 0.003953164 -0.028237993 7
1.6137537 0.0014086685 0.028168185 8
1.6277659 0.0011368182 0.08530762 9
1.6138355 0.00056378829 0.1411923 10
1.6277758 -0 0.19986574 11
1.6316613 -0.00028477862 0.25842977 12
1.6098506 -0.00056194392 -0.14084367 5
1.6510967 -0.00086451229 0.32094073 13
1.6197768 -0.0011308177 -0.084888928 6
1.6564286 -0.0014455068 0.38241678 14
1.6257519 -0.0014187364 -0.028377613 7
1.6077504 -0.0039284835 0.028063469 8
1.6317544 -0.0045567295 0.085516959 9
1.6217971 -0.0050950423 0.14188954 10
1.6297519 -0.0054044817 0.20010948 11
1.635601 -0.0059948177 0.25905553 12
1.6178083 -0.0062119681 -0.14154093 5
1.6491215 -0.0063322028 0.32055911 13
1.6117752 -0.0064701145 -0.084470242 6
1.6603122 -0.0069547398 0.38331661 14
1.6297364 -0.0071111117 -0.028447423 7
1.6217228 -0.0099066636 0.028307803 8
1.6237378 -0.010485787 0.085098274 9
1.6217694 -0.01075614 0.14188954 10
1.6197959 -0.011308491 0.19889079 11
1.6474199 -0.012076436 0.26093271 12
1.6217594 -0.012171396 -0.14188954 5
1.6471218 -0.012649236 0.32017753 13
1.6037496 -0.012596078 -0.084051557 6
1.6563781 -0.013009429 0.38241678 14
1.6376978 -0.013148561 -0.028587043 7
1.6276743 -0.015909141 0.028412517 8
1.6236885 -0.016437013 0.085098274 9
1.6257037 -0.016741181 0.14223817 10
1.6197436 -0.017245267 0.19889079 11
1.6355132 -0.017984131 0.25905553 12
1.6256884 -0.01815987 -0.14223817 5
1.6608063 -0.018842058 0.32284883 13
1.6116812 -0.018566053 -0.084470242 6
1.6524221 -0.019035377 0.38151699 14
1.6336396 -0.01910417 -0.028517231 7
1.6276051 -0.021874759 0.028412517 8
1.6236173 -0.022388017 0.085098274 9
1.6196548 -0.022616114 0.14171523 10
1.6216544 -0.023210214 0.19913453 11
1.633461 -0.023949504 0.25874263 12
1.6136621 -0.023659216 -0.1411923 5
1.6607305 -0.02463924 0.32284883 13
1.6156006 -0.024251712 -0.084679581 6
1.6601353 -0.025210036 0.38331661 14
1.6255606 -0.024968782 -0.028377613 7
1.613523 -0.027319061 0.028168185 8
1.6275233 -0.028124379 0.08530762 9
1.6175739 -0.028234856 0.14154093 10
1.6414113 -0.029224077 0.20157191 11
1.6392926 -0.029758763 0.25968125 12
1.6075935 -0.029183315 -0.14066936 5
1.6527828 -0.030292215 0.32132238 13
1.6274877 -0.030112751 -0.08530762 6
1.6374598 -0.030869044 -0.028587043 7
1.6094193 -0.032869477 0.028098376 8
1.6354026 -0.033971243 0.085726306 9
1.6234413 -0.034006245 0.14206386 10
1.6234374 -0.034573108 0.19937825 11
1.6253543 -0.035181548 0.25749114 12
1.6526669 -0.03606132 0.32132238 13
1.6113983 -0.035442214 -0.084470242 6
1.6333437 -0.036495317 -0.028517231 7
1.6232885 -0.038821869 0.028342709 8
1.6232939 -0.039388958 0.085098274 9
1.6312799 -0.039867625 0.14276111 10
1.6213224 -0.040190555 0.19913453 11
1.639045 -0.041202366 0.25968125 12
1.6564561 -0.041929342 0.32208559 13
1.6112648 -0.041066829 -0.084470242 6
1.6452003 -0.042506415 -0.02872666 7
1.6211443 -0.04443318 0.028307803 8
1.6191614 -0.044661641 0.084888928 9
1.6351141 -0.045672871 0.14310972 10
1.6310937 -0.046130382 0.20035322 11
1.6191536 -0.046075515 0.25655255 12
1.6641495 -0.047937315 0.32361206 13
1.6151046 -0.046806656 -0.084679581 6
1.6330574 -0.047612201 -0.028517231 7
1.6329805 -0.050177343 0.028517231 8
1.6289859 -0.050339177 0.085412286 9
1.6249965 -0.050783679 0.14223817 10
1.6388682 -0.051789831 0.20132817 11
1.6170174 -0.05138183 0.25623968 12
1.6639813 -0.053455565 0.32361206 13
1.6229253 -0.052420184 -0.085098274 6
1.6288931 -0.052897546 -0.028447423 7
1.6228124 -0.055252001 0.028342709 8
1.6407766 -0.056437042 0.086040318 9
1.6208367 -0.056034405 0.14188954 10
1.6327358 -0.057016388 0.20059694 11
1.6188024 -0.057095595 0.25655255 12
1.6559469 -0.058695056 0.32208559 13
1.6307266 -0.058086101 -0.085516959 6
1.6326954 -0.058726884 -0.028517231 7
1.6146165 -0.060616259 0.028203089 8
1.6365781 -0.062012825 0.085830979 9
1.6246133 -0.061843418 0.14223817 10
1.6305432 -0.062639154 0.20035322 11
1.6304367 -0.063205034 0.25842977 12
1.6557318 -0.064475037 0.32208559 13
1.6185395 -0.063309669 -0.084888928 6
1.640473 -0.06474112 -0.028656852 7
1.6243851 -0.066661924 0.028377613 8
1.6303649 -0.067477398 0.085516959 9
1.6343409 -0.067927688 0.14310972 10
1.6203979 -0.067914784 0.19913453 11
1.6400741 -0.069312975 0.25999412 12
1.6633426 -0.070587181 0.32361206 13
1.6183087 -0.068959042 -0.084888928 6
1.6442327 -0.070638701 -0.02872666 7
1.6281381 -0.072509624 0.028447423 8
1.626129 -0.072988912 0.08530762 9
1.6380744 -0.073811561 0.14345835 10
1.6300662 -0.07402087 0.20035322 11
1.6299556 -0.074585997 0.25842977 12
1.6630861 -0.076392896 0.32361206 13
1.6340193 -0.075343519 -0.085726306 6
1.6319909 -0.075820893 -0.028517231 7
1.6278751 -0.07819245 0.028447423 8
1.6258643 -0.07866472 0.08530762 9
1.6318368 -0.07923916 0.14293543 10
1.6436769 -0.080389209 0.20205939 11
1.6257395 -0.080080777 0.25780404 12
1.6667311 -0.08239156 0.3243753 13
1.6317164 -0.081517145 -0.028517231 7
1.625595 -0.083771393 0.028412517 8
1.6335582 -0.084753498 0.085726306 9
1.6275707 -0.084727682 0.14258678 10
1.6414039 -0.08602234 0.20181565 11
1.6333405 -0.086171463 0.25905553 12
1.6605518 -0.087897703 0.32323048 13
1.6354156 -0.087425895 -0.028587043 7
1.6232648 -0.089902014 0.028377613 8
1.6411973 -0.091469832 0.086144991 9
1.6272334 -0.090976462 0.14258678 10
1.6370976 -0.092101224 0.20132817 11
1.6389142 -0.092777327 0.25999412 12
1.6641222 -0.094495706 0.32399368 13
1.6470462 -0.094391264 -0.028796472 7
1.6209449 -0.09545017 0.028342709 8
1.6328931 -0.096725717 0.085726306 9
1.6388392 -0.097364992 0.14363267 10
1.62884 -0.097341508 0.20035322 11
1.6523831 -0.099327341 0.2621842 12
1.6546909 -0.10062548 -0.02893609 7
1.6305809 -0.10173033 0.028517231 8
1.6265832 -0.10176591 0.085412286 9
1.6404778 -0.10321011 0.14380698 10
1.6383959 -0.1036533 0.20157191 11
1.644159 -0.10430603 0.26093271 12
1.6383832 -0.10508806 -0.028656852 7
1.6362208 -0.10753038 0.028621947 8
1.6322156 -0.10755328 0.085726306 9
1.6341625 -0.10825448 0.14328404 10
1.6499274 -0.1098773 0.20303436 11
1.6339492 -0.10909966 0.25936839 12
1.6340353 -0.11025134 -0.028587043 7
1.6298703 -0.11254244 0.028517231 8
1.6398 -0.11380322 0.086144991 9
1.6298194 -0.11339639 0.14293543 10
1.6515342 -0.11548652 0.20327808 11
1.6493224 -0.11591041 0.26187131 12
1.649598 -0.11708716 -0.02886628 7
1.6254787 -0.11794164 0.028447423 8
1.6433767 -0.11981696 0.086354338 9
1.6373411 -0.11995151 0.14363267 10
1.6451817 -0.12081458 0.20254686 11
1.6528478 -0.12195764 0.26249707 12
1.6290233 -0.12420257 0.028517231 8
1.6389655 -0.12524831 0.086144991 9
1.6329392 -0.12536114 0.14328404 10
1.6328526 -0.12592784 0.20108443 11
1.6484729 -0.12742193 0.26187131 12
1.6345826 -0.13007982 0.028621947 8
1.6345366 -0.13065033 0.085935652 9
1.6444077 -0.13201705 0.14432991 10
1.6442982 -0.1322971 0.20254686 11
1.6519562 -0.13349362 0.26249707 12
1.640097 -0.13628155 0.02872666 8
1.6380512 -0.13668731 0.086144991 9
1.6320481 -0.13647322 0.14328404 10
1.6537169 -0.13886648 0.20376556 11
1.6396699 -0.13826331 0.26061985 12
1.627658 -0.14097045 0.028517231 8
1.6375641 -0.14240433 0.086144991 9
1.6335218 -0.14262734 0.14345835 10
1.6492672 -0.14429216 0.20327808 11
1.6470482 -0.14467739 0.26187131 12
1.6271304 -0.14693518 0.028517231 8
1.6509548 -0.14966761 0.086877696 9
1.6409509 -0.14904946 0.14415559 10
1.6487272 -0.15033607 0.20327808 11
1.6484742 -0.15089324 0.2621842 12
1.6325804 -0.15317442 0.028621947 8
1.6365031 -0.15411876 0.086144991 9
1.638437 -0.15458938 0.14398128 10
1.6442398 -0.15571596 0.2027906 11
1.6518705 -0.15702042 0.26280993 12
1.6280551 -0.15848476 0.028552137 8
1.6439065 -0.1606071 0.086563677 9
1.647802 -0.16127804 0.14485285 10
1.6515886 -0.1622307 0.20376556 11
1.6314713 -0.16456816 0.028621947 8
1.6413486 -0.16614328 0.086459011 9
1.6412823 -0.16642597 0.14432991 10
1.6589118 -0.16879866 0.20474051 11
