# .PCD v0.7 - Point Cloud Data file format
VERSION 0.7
FIELDS x y z intensity
SIZE 4 4 4 4
TYPE F F F F
COUNT 1 1 1 1
WIDTH 398
HEIGHT 1
VIEWPOINT 0 0 0 1 0 0 0
POINTS 398
DATA ascii
3.1865113 0.36643797 -0.055987321 7
3.165134 0.34160805 -0.055568464 7
3.1484072 0.32868955 -0.055254318 7
3.1694312 0.31970361 -0.055603366 7
3.142071 0.31195906 0.055114701 8
3.1664934 0.30880409 -0.055533558 7
3.1530406 0.3024933 0.055289224 8
3.1675 0.29830104 -0.055533558 7
3.1619914 0.29277238 0.055428844 8
3.1605561 0.28652111 -0.055393942 7
3.1670268 0.28153598 0.055498652 8
3.1576006 0.27458784 -0.055324126 7
3.1580749 0.2690767 0.055324126 8
3.1625717 0.26334542 -0.055393942 7
3.1530159 0.25756359 0.055219412 8
3.1674583 0.25262147 -0.05546375 7
3.1598766 0.24702264 0.055324126 8
3.1723082 0.24186967 -0.055533558 7
3.1587253 0.2358444 0.055289224 8
3.1652029 0.23132779 -0.16632369 6
3.1591723 0.2297785 -0.055289224 7
3.1674292 0.2264879 0.055428844 8
3.1698987 0.22166061 -0.16653302 6
3.1558888 0.21957554 -0.055219412 7
3.1662056 0.21529514 0.055393942 8
3.1823497 0.21527703 0.16716106 9
3.1746387 0.21085964 -0.16674237 6
3.1586316 0.20868909 -0.055254318 7
3.1509733 0.2032128 0.055114701 8
3.1810887 0.20404007 0.16705638 9
3.1633956 0.19902503 -0.16611435 6
3.1713154 0.19841202 -0.05546375 7
3.1596472 0.19270019 0.055254318 8
3.1678262 0.1920877 0.16632369 9
3.1600835 0.18774375 -0.165905 6
3.1879585 0.18828319 -0.055742987 7
3.1722791 0.18235753 0.05546375 8
3.1664834 0.18091549 0.16621901 9
3.1647079 0.17693551 -0.16611435 6
3.1726234 0.17626722 -0.05546375 7
3.1708996 0.17117444 0.055428844 8
3.1631069 0.16964653 0.16600966 9
3.1692953 0.16609575 -0.16632369 6
3.1692257 0.16498287 -0.055393942 7
3.1594946 0.15950063 0.055219412 8
3.1756485 0.15920489 0.1666377 9
3.1658661 0.15483737 -0.16611435 6
3.1777713 0.15430629 -0.055533558 7
3.1600323 0.14847013 0.055219412 8
3.1941404 0.14895684 0.16757976 9
3.1663873 0.14378466 -0.16611435 6
3.1822858 0.14339508 -0.055603366 7
3.1645269 0.13761458 0.055289224 8
3.1786778 0.13711685 0.16674237 9
3.1588879 0.13239563 -0.16569565 6
3.1827672 0.13228512 -0.055603366 7
3.1729803 0.12688625 0.055428844 8
3.1711543 0.1257046 0.16632369 9
3.1673141 0.1216771 -0.16611435 6
3.1832094 0.12117504 -0.055603366 7
3.1694074 0.11566302 0.055359036 8
3.1755457 0.1153336 0.16653302 9
3.1817806 0.11444651 0.27854973 10
3.1500013 0.11110315 -0.27576074 5
3.1737075 0.11082864 -0.16642836 6
3.1676056 0.11006359 -0.055324126 7
3.1677747 0.10508507 0.055324126 8
3.187906 0.10464047 0.16716106 9
3.1662302 0.10282265 0.27715525 10
3.16431 0.10054903 -0.27698094 5
3.1780503 0.10042893 -0.1666377 6
3.1799629 0.099379845 -0.055533558 7
3.1581283 0.093732387 0.055149604 8
3.1822627 0.09333697 0.16684705 9
3.1844776 0.092845693 0.27872407 10
3.1586666 0.089333095 -0.27645802 5
3.1624098 0.088888109 -0.16580033 6
3.1782916 0.088222764 -0.055498652 7
3.1704304 0.083021127 0.055359036 8
3.1765792 0.082072623 0.16653302 9
3.1788213 0.081020273 0.27820113 10
3.1669266 0.078504905 -0.27715525 5
3.1667075 0.077391975 -0.16600966 6
3.1825786 0.077225611 -0.055568464 7
3.1667149 0.071311019 0.055289224 8
3.1648657 0.070715256 0.165905 9
3.1770928 0.069880471 0.27802682 10
3.1691732 0.067491367 -0.27732956 5
3.1629646 0.066254646 -0.16580033 6
3.1788301 0.066031955 -0.055498652 7
3.1729321 0.060923722 0.055393942 8
3.1690874 0.059743341 0.16611435 9
3.1733334 0.05871537 0.27767819 10
3.1594288 0.056251805 -0.27645802 5
3.1751485 0.055977374 -0.16642836 6
3.1710439 0.054797836 -0.055359036 7
3.1691263 0.049784079 0.055324126 8
3.1812584 0.048863996 0.16674237 9
3.1675341 0.048100259 0.27715525 10
3.1556139 0.045717362 -0.2761094 5
3.1793191 0.044949323 -0.1666377 6
3.1752145 0.043782786 -0.055428844 7
3.1632822 0.038648836 0.055219412 8
3.1874011 0.037832335 0.16705638 9
3.1676829 0.037043873 0.27715525 10
3.1677079 0.034832537 -0.27715525 5
3.1674736 0.033724241 -0.16600966 6
3.1873457 0.032823175 -0.055638272 7
3.167397 0.027640743 0.055289224 8
3.1755304 0.026604753 0.16642836 9
3.1797469 0.026083585 0.27820113 10
3.16781 0.023775628 -0.27715525 5
3.1635776 0.022638062 -0.16580033 6
3.1874409 0.021697732 -0.055638272 7
3.1774726 0.01663883 0.05546375 8
3.1676154 0.015480035 0.16600966 9
3.1857955 0.015014394 0.27872407 10
3.1721473 0.013841315 0.38949445 11
3.1877973 0.012796898 -0.27889836 5
3.1676319 0.011611796 -0.16600966 6
3.1834979 0.010557242 -0.055568464 7
3.1815104 0.005553415 0.055533558 8
3.1796336 0.0044403016 0.1666377 9
3.1758666 0.00388078 0.27785251 10
3.203938 0.0027967629 0.39339426 11
3.1678989 0.0016580543 -0.27715525 5
3.1716475 0.00055448135 -0.16621901 6
3.1795158 -0.00055493019 -0.055498652 7
3.1715121 -0.0055353381 0.055359036 8
3.1836243 -0.006667776 0.16684705 9
3.1678913 -0.0071877292 0.27715525 10
3.1880476 -0.0083463071 0.39144436 11
3.1599159 -0.0093756868 -0.27645802 5
3.1876082 -0.010570548 -0.16705638 6
3.1874933 -0.011682826 -0.055638272 7
3.1694739 -0.016595477 0.055324126 8
3.1915703 -0.017825278 0.16726573 9
3.1678469 -0.01824569 0.27715525 10
3.187999 -0.019474618 0.39144436 11
3.1721151 -0.019931247 -0.38949445 4
3.171818 -0.020482993 -0.27750388 5
3.1675797 -0.021561364 -0.16600966 6
3.1914322 -0.022837801 -0.055708081 7
3.1633978 -0.027606552 0.055219412 8
3.1795058 -0.028857069 0.1666377 9
3.1737406 -0.029358713 0.27767819 10
3.1819563 -0.030545529 0.39071316 11
3.1779811 -0.03106208 -0.39022568 4
3.1757119 -0.031594221 -0.27785251 5
3.1674852 -0.032618146 -0.16600966 6
3.1993313 -0.034062997 -0.055847701 7
3.1792786 -0.03884415 0.055498652 8
3.171397 -0.039855048 0.16621901 9
3.1815879 -0.040538494 0.27837545 10
3.1917551 -0.041782364 0.39193183 11
3.1718984 -0.042076122 -0.38949445 4
3.1795666 -0.04273288 -0.27820113 5
3.1773372 -0.043812219 -0.16653302 6
3.191195 -0.04511746 -0.055708081 7
3.1831226 -0.050004482 0.055568464 8
3.1852174 -0.051149525 0.16695172 9
3.1754506 -0.05154705 0.27785251 10
3.1836505 -0.052791763 0.39095688 11
3.1757019 -0.053214371 -0.38998193 4
3.1654534 -0.053595278 -0.27698094 5
3.177165 -0.054902926 -0.16653302 6
3.1710243 -0.055904057 -0.055359036 7
3.174931 -0.060961798 0.055428844 8
3.1890244 -0.061789189 0.16716106 9
3.1732593 -0.062591836 0.27767819 10
3.1834469 -0.063904457 0.39095688 11
3.1854203 -0.06450025 -0.3912006 4
3.167239 -0.064685121 -0.27715525 5
3.1849413 -0.066158883 -0.16695172 6
3.182817 -0.066670507 -0.055568464 7
3.1707134 -0.071399875 0.055359036 8
3.1927826 -0.073011912 0.16737041 9
3.1770051 -0.073760681 0.27802682 10
3.1812327 -0.074414358 0.39071316 11
3.1851888 -0.075063139 -0.3912006 4
3.1749611 -0.075931005 -0.27785251 5
3.1727242 -0.076431572 -0.16632369 6
3.182565 -0.077780217 -0.055568464 7
3.1704447 -0.082467295 0.055359036 8
3.1805289 -0.083840564 0.16674237 9
3.18471 -0.084507003 0.27872407 10
3.1730163 -0.085305102 0.3897382 11
3.1749854 -0.085912585 -0.38998193 4
3.1811526 -0.086635083 0.5040319 12
3.1786599 -0.087122396 -0.27820113 5
3.1724381 -0.087505974 -0.16632369 6
3.1942677 -0.089223966 -0.055777889 7
3.1861281 -0.094005503 0.055638272 8
3.1782207 -0.094882578 0.1666377 9
3.1803958 -0.096058689 0.27837545 10
3.1667466 -0.096199639 0.38900697 11
3.1786349 -0.097116083 -0.39046943 4
3.1946518 -0.098163538 0.50622195 12
3.194268 -0.098709777 -0.27959561 5
3.1800811 -0.099382505 -0.16674237 6
3.1779468 -0.099871002 -0.055498652 7
3.1857624 -0.10568263 0.055638272 8
3.1858361 -0.10679837 0.16705638 9
3.1740675 -0.10695845 0.27785251 10
3.1842279 -0.10841362 0.3912006 11
3.1863737 -0.10960024 0.50497049 12
3.1700096 -0.10903736 -0.27750388 5
3.1876993 -0.11075988 -0.16716106 6
3.1775594 -0.1115181 -0.055498652 7
3.1793787 -0.11658252 0.055533558 8
3.1874397 -0.11799224 0.16716106 9
3.1716835 -0.11796331 0.27767819 10
3.18383 -0.11952799 0.3912006 11
3.1879461 -0.12079689 0.50528342 12
3.1735916 -0.12025297 -0.27785251 5
3.1912847 -0.122039 -0.16737041 6
3.1811473 -0.1227634 -0.055568464 7
3.1729581 -0.12743917 0.055428844 8
3.1949909 -0.12944116 0.16757976 9
3.1831968 -0.12951984 0.27872407 10
3.1754599 -0.13031532 0.39022568 11
3.1953995 -0.13225091 0.50653487 12
3.1731524 -0.13133015 -0.27785251 5
3.182857 -0.13284475 -0.16695172 6
3.1846955 -0.1340351 -0.055638272 7
3.1764896 -0.13868853 0.055498652 8
3.1805522 -0.13997827 0.16684705 9
3.1807349 -0.14054252 0.27854973 10
3.1749856 -0.14139895 0.39022568 11
3.2067587 -0.14393559 0.50841206 12
3.1925786 -0.1432991 -0.27959561 5
3.1743932 -0.14359318 -0.16653302 6
3.1921985 -0.14551517 -0.055777889 7
3.1839762 -0.15015252 0.055638272 8
3.1840608 -0.15071346 0.16705638 9
3.1941559 -0.15230878 0.27976993 10
3.1784384 -0.15267135 0.39071316 11
3.1944251 -0.15399808 0.50653487 12
3.1840982 -0.15405725 -0.27889836 5
3.1778624 -0.15486744 -0.16674237 6
3.1837094 -0.15570936 -0.055638272 7
3.1854577 -0.16081092 0.055673175 8
3.1954834 -0.16243534 0.16768442 9
3.1776867 -0.16264281 0.27837545 10
3.1917922 -0.16392331 0.39241934 11
3.1938682 -0.16514775 0.50653487 12
3.1835413 -0.16517089 -0.27889836 5
3.1892989 -0.16602775 -0.16737041 6
3.1791523 -0.16661233 -0.055568464 7
3.1808834 -0.17171369 0.055603366 8
3.1929026 -0.17348032 0.16757976 9
3.169172 -0.17274573 0.27767819 10
3.1912007 -0.17506374 0.39241934 11
3.1932724 -0.17629543 0.50653487 12
3.1789973 -0.17550732 -0.27854973 5
3.1886997 -0.17715946 -0.16737041 6
3.1865375 -0.17815511 -0.055708081 7
3.1762719 -0.18258648 0.055533558 8
3.204241 -0.18531649 0.16820778 9
3.1824727 -0.18461484 0.27889836 10
3.1925516 -0.18631768 0.39266306 11
3.1965814 -0.1876725 0.5071606 12
3.1863215 -0.18707015 -0.27924702 5
3.1840746 -0.18805352 -0.16716106 6
3.1898887 -0.18951431 -0.055777889 7
3.1816034 -0.19403782 0.055638272 8
3.1995873 -0.19625568 0.16799843 9
3.1857867 -0.19596729 0.27924702 10
3.1899006 -0.19733807 0.39241934 11
3.2057645 -0.1994428 0.50872493 12
3.2015572 -0.19918105 -0.2806415 5
3.1794116 -0.19891742 -0.16695172 6
3.1971908 -0.20115018 -0.055917513 7
3.1908844 -0.20578599 0.055812798 8
3.1809456 -0.20626001 0.16705638 9
3.195024 -0.20773292 0.28011855 10
3.1911731 -0.20860118 0.39266306 11
3.2011065 -0.2103727 0.5080992 12
3.1906555 -0.21080448 -0.16757976 6
3.1844974 -0.2115141 -0.055708081 7
3.1901464 -0.21692298 0.055812798 8
3.1841912 -0.21763469 0.16726573 9
3.1863284 -0.2183395 0.2794213 10
3.1983473 -0.22028479 0.39363801 11
3.1688223 -0.21936266 0.5030933 12
3.1938851 -0.2222179 -0.16778909 6
3.1837397 -0.22262876 -0.055708081 7
3.1813912 -0.22748683 0.055673175 8
3.1993492 -0.22989348 0.16810311 9
3.1736236 -0.22860169 0.27837545 10
3.2074583 -0.23216431 0.39485672 11
3.2090254 -0.23452991 -0.16862647 6
3.1949091 -0.23461945 -0.055917513 7
3.1785841 -0.23844104 0.055638272 8
3.2104771 -0.2419605 0.16873114 9
3.180753 -0.2402786 0.27907267 10
3.1828754 -0.24155635 0.39193183 11
3.1842904 -0.24389972 -0.16737041 6
3.1940706 -0.24577035 -0.055917513 7
3.1877 -0.25031763 0.055812798 8
3.1956749 -0.25206628 0.16799843 9
3.189826 -0.25216514 0.27994424 10
3.1919072 -0.25345081 0.39315054 11
3.1794379 -0.25469452 -0.16716106 6
3.19718 -0.25723901 -0.055987321 7
3.1828208 -0.26111627 0.055742987 8
3.1848233 -0.26239976 0.16747507 9
3.190912 -0.2634621 0.28011855 10
3.196938 -0.26508325 0.39388174 11
3.1825099 -0.26612413 -0.16737041 6
3.1882915 -0.2677283 -0.055847701 7
3.2018142 -0.27392939 0.056092035 8
3.1918478 -0.27419904 0.16789377 9
3.1879878 -0.27442798 0.27994424 10
3.2078595 -0.27726668 0.3953442 11
3.1895204 -0.27792504 -0.16778909 6
3.1833537 -0.27850732 -0.055777889 7
3.1849039 -0.28368479 0.055812798 8
3.1968391 -0.28587267 0.16820778 9
3.1830416 -0.28519887 0.27959561 10
3.2029181 -0.2881068 0.39485672 11
3.2004654 -0.29013875 -0.16841713 6
3.1903279 -0.29034254 -0.055917513 7
3.1819034 -0.2946161 0.055777889 8
3.2057652 -0.29795417 0.16873114 9
3.1840103 -0.29649273 0.27976993 10
3.1920104 -0.29836163 0.39363801 11
3.189491 -0.30037242 -0.16789377 6
3.2012398 -0.30260625 -0.056126937 7
3.1947889 -0.30706042 0.056022223 8
3.1987414 -0.30856723 0.16841713 9
3.1908886 -0.30837184 0.28046718 10
3.1790943 -0.30835214 0.39217559 11
3.2081249 -0.31455937 -0.056266561 7
3.189718 -0.31781393 0.055952415 8
3.2016194 -0.32012847 0.16862647 9
3.1937578 -0.31990537 0.28081581 10
3.1938 -0.32103565 0.39412549 11
3.1990492 -0.32494757 -0.056126937 7
3.1945565 -0.3295618 0.056057129 8
3.1984961 -0.33109665 0.16852181 9
3.1965849 -0.33146268 0.28116441 10
3.2005575 -0.33300388 0.39510044 11
3.1978955 -0.33611235 -0.056126937 7
3.2013404 -0.34155947 0.056196753 8
3.2072504 -0.34332234 0.16904517 9
3.1874845 -0.34176919 0.28046718 10
3.197402 -0.34396154 0.39485672 11
3.1967027 -0.34727302 -0.056126937 7
3.192178 -0.35185578 0.056057129 8
3.2180052 -0.35527107 0.16967319 9
3.1902325 -0.35333216 0.28081581 10
3.2074571 -0.35920709 -0.056336369 7
3.1969547 -0.36311656 0.056161843 8
3.2048392 -0.3651453 0.16904517 9
3.2008569 -0.36582345 0.28186166 10
3.2101569 -0.37086004 -0.056406178 7
3.1916952 -0.37380856 0.056092035 8
3.1956105 -0.37539792 0.16862647 9
3.2055626 -0.37713426 0.2823846 10
3.1969287 -0.3806448 -0.056196753 7
3.2002976 -0.38614511 0.056266561 8
3.2061772 -0.38799009 0.1692545 9
3.2042265 -0.38832146 0.2823846 10
3.2035198 -0.39277524 -0.056336369 7
3.2009141 -0.39756033 0.056301463 8
3.2107494 -0.39991999 0.16956852 9
3.190989 -0.39802429 0.28133872 10
3.1975236 -0.40847781 0.056266561 8
3.2113147 -0.41137889 0.16967319 9
3.2013657 -0.41124031 0.2823846 10
3.1999702 -0.42071593 0.056336369 8
3.2039189 -0.42180392 0.16935916 9
3.193985 -0.42163038 0.28186166 10
3.210448 -0.43292847 0.056545798 8
3.1984684 -0.43244991 0.16914983 9
3.2003911 -0.43384743 0.28255892 10
3.2148597 -0.44495487 0.056650508 8
3.2028742 -0.44443551 0.16946384 9
3.191041 -0.44336122 0.28186166 10
3.1934884 -0.45336348 0.056301463 8
3.2151449 -0.45758277 0.17019655 9
3.1934187 -0.45505941 0.28221029 10
3.1879287 -0.4639321 0.056231655 8
3.2174804 -0.4693796 0.17040588 9
3.1937826 -0.46649176 0.2823846 10
3.1942015 -0.47623673 0.056371275 8
3.2138472 -0.48031265 0.17030121 9
3.20438 -0.48919433 0.0565807 8
3.2082024 -0.49092391 0.17009188 9
3.2183084 -0.50397366 0.17071991 9
3.2165296 -0.51520449 0.17071991 9
3.2265377 -0.52836585 0.17134793 9
3.2108848 -0.53731781 0.17061524 9
3.2089896 -0.54852265 0.17061524 9
3.2149255 -0.56109428 0.17103392 9
3.2247453 -0.57441455 0.17166196 9
3.2266505 -0.58638179 0.1718713 9
