# .PCD v0.7 - Point Cloud Data file format
VERSION 0.7
FIELDS x y z intensity
SIZE 4 4 4 4
TYPE F F F F
COUNT 1 1 1 1
WIDTH 392
HEIGHT 1
VIEWPOINT 0 0 0 1 0 0 0
POINTS 392
DATA ascii
3.1744385 0.854747 -0.057383511 7
3.1677394 0.84109414 -0.057208989 7
3.1687214 0.82952577 -0.057174087 7
3.1754706 0.81945837 -0.057243895 7
3.1670685 0.81198651 0.057069372 8
3.1744351 0.80738527 -0.057174087 7
3.1660063 0.79994589 0.05699956 8
3.1694753 0.79435414 -0.057034463 7
3.1687787 0.78889173 0.05699956 8
3.1683462 0.78232616 -0.056964654 7
3.1598606 0.77496713 0.056790132 8
3.1670377 0.77086854 -0.056894846 7
3.1604695 0.76401359 0.056755226 8
3.181376 0.76260775 -0.057104275 7
3.1670074 0.75390363 0.056825034 8
3.1801267 0.75057852 -0.057034463 7
3.1696196 0.74284476 0.056825034 8
3.184427 0.74104053 -0.17134793 6
3.1749358 0.73766375 -0.056894846 7
3.166348 0.73042846 0.056720324 8
3.181154 0.72858179 -0.17103392 6
3.1695673 0.72534591 -0.056755226 7
3.1590028 0.71770841 0.056545798 8
3.1651428 0.7179417 0.17009188 9
3.1777074 0.71671098 -0.17071991 6
3.1720803 0.71427685 -0.056755226 7
3.1536829 0.70493138 0.056406178 8
3.1754265 0.70862961 0.17051056 9
3.1606915 0.70128727 -0.16967319 6
3.1784582 0.70406693 -0.056825034 7
3.1561241 0.6939193 0.056406178 8
3.1798322 0.69796836 0.17061524 9
3.1631205 0.69024926 -0.16967319 6
3.1848047 0.69381827 -0.056894846 7
3.1702542 0.68543434 0.056615606 8
3.1724877 0.68475664 0.17009188 9
3.1616046 0.67836791 -0.16946384 6
3.1715646 0.67934549 -0.056615606 7
3.1687157 0.67353153 0.056545798 8
3.1748583 0.67367905 0.17009188 9
3.1678619 0.6681512 -0.16967319 6
3.17783 0.66909522 -0.056685418 7
3.1632178 0.66083151 0.056406178 8
3.1869669 0.66463059 0.17061524 9
3.1779976 0.65871137 -0.17009188 6
3.17623 0.65718722 -0.056615606 7
3.15767 0.64817661 0.056266561 8
3.1814404 0.65190041 0.17019655 9
3.168535 0.64522201 -0.16946384 6
3.1824238 0.64689344 -0.056685418 7
3.1677544 0.63873047 0.056406178 8
3.1719491 0.63842577 0.16956852 9
3.170768 0.634157 -0.16946384 6
3.1925061 0.6373474 -0.056825034 7
3.1680026 0.62728286 0.056371275 8
3.1741583 0.62734884 0.16956852 9
3.1690428 0.62231606 -0.1692545 6
3.1829376 0.62389094 -0.056615606 7
3.1739912 0.61753684 0.056441084 8
3.1722996 0.61605865 0.16935916 9
3.1685843 0.61476332 0.2823846 10
3.1750109 0.61256105 -0.16946384 6
3.1732075 0.61106282 -0.056406178 7
3.1721992 0.60570282 0.056371275 8
3.178355 0.60572851 0.16956852 9
3.1687539 0.60332561 0.28221029 10
3.1828761 0.60371387 -0.28343046 5
3.1810548 0.6022166 -0.16967319 6
3.1831808 0.60146827 -0.056545798 7
3.1683977 0.59352225 0.056266561 8
3.18045 0.5946309 0.16956852 9
3.1806331 0.5940907 0.28308186 10
3.1888821 0.59332794 -0.28377908 5
3.1713555 0.58892173 -0.16904517 6
3.1852608 0.59035391 -0.056545798 7
3.1684835 0.58209664 0.056231655 8
3.1746478 0.58208531 0.16914983 9
3.1728888 0.58118886 0.28221029 10
3.1870136 0.58147693 -0.28343046 5
3.169462 0.57713157 -0.1688358 6
3.1951718 0.58066255 -0.056685418 7
3.1744316 0.57174408 0.056301463 8
3.1765609 0.57155371 0.16914983 9
3.1748979 0.5701105 0.28221029 10
3.1929464 0.57105094 -0.28377908 5
3.1753898 0.56676716 -0.16904517 6
3.1892054 0.56865883 -0.056545798 7
3.1822181 0.56225711 0.056406178 8
3.1785369 0.5604611 0.16914983 9
3.1749063 0.55867994 0.28203598 10
3.1831458 0.55783761 -0.28273323 5
3.1811864 0.55692202 -0.1692545 6
3.179352 0.55545717 -0.056336369 7
3.1703687 0.54875743 0.056161843 8
3.1844096 0.55004466 0.16935916 9
3.1649613 0.54611492 0.28099012 10
3.1810508 0.54660463 -0.2823846 5
3.1791739 0.54513979 -0.16904517 6
3.1812711 0.54435802 -0.056336369 7
3.1683218 0.53701824 0.056092035 8
3.1902492 0.53959095 0.16956852 9
3.1648839 0.53473103 0.28081581 10
3.1868689 0.53615916 -0.28273323 5
3.1810577 0.53403825 -0.16904517 6
3.1949852 0.53523141 -0.056545798 7
3.1741223 0.52661228 0.056161843 8
3.1842315 0.52714592 0.16914983 9
3.1765594 0.52530783 0.28168735 10
3.165108 0.52227759 0.39388174 11
3.1926527 0.52567816 -0.28308186 5
3.1750185 0.52163798 -0.16862647 6
3.1928875 0.52342772 -0.056475986 7
3.1838365 0.51681 0.056301463 8
3.1742229 0.51411241 0.16852181 9
3.1823075 0.51485193 0.28203598 10
3.1669116 0.51122683 0.39388174 11
3.1944685 0.51452971 -0.28308186 5
3.180764 0.51118493 -0.1688358 6
3.1907463 0.51164675 -0.056406178 7
3.1895711 0.50632089 0.056371275 8
3.1759982 0.50302833 0.16852181 9
3.1703095 0.50156176 0.28081581 10
3.1941676 0.50419194 0.39705035 11
3.1883724 0.50213814 -0.2823846 5
3.1825292 0.50007802 -0.1688358 6
3.1846108 0.49926615 -0.056266561 7
3.1735344 0.49242374 0.056057129 8
3.1876032 0.49346736 0.16904517 9
3.1720412 0.49049139 0.28081581 10
3.1939459 0.49273705 0.3968066 11
3.182229 0.48979241 -0.28168735 5
3.1882038 0.48957288 -0.16904517 6
3.1902871 0.48875299 -0.056336369 7
3.1732571 0.48104247 0.056022223 8
3.1952307 0.48323423 0.16935916 9
3.1737342 0.47941506 0.28081581 10
3.1701286 0.47774026 0.39363801 11
3.1918001 0.47986686 -0.2823846 5
3.1780422 0.47666261 -0.16841713 6
3.1959291 0.47820637 -0.056406178 7
3.1788733 0.47054911 0.056092035 8
3.1850433 0.47032639 0.16873114 9
3.1872149 0.47007871 0.28186166 10
3.1678488 0.46609277 0.39315054 11
3.2131021 0.47217807 -0.3987565 4
3.1934559 0.46872163 -0.2823846 5
3.1796865 0.46556693 -0.16841713 6
3.1975791 0.46704677 -0.056406178 7
3.1824753 0.4597365 0.056126937 8
3.1767812 0.457782 0.16820778 9
3.1868639 0.45866722 0.28168735 10
3.1694565 0.45503274 0.39315054 11
3.1931159 0.45786071 -0.3960754 4
3.1990173 0.45813558 -0.28273323 5
3.1852469 0.45502898 -0.16862647 6
3.1873114 0.45419034 -0.056196753 7
3.1919813 0.44974145 0.056266561 8
3.1922047 0.44863507 0.16894048 9
3.17858 0.44615611 0.28081581 10
3.188719 0.44644284 0.3953442 11
3.1986265 0.44726235 -0.39656287 4
3.1927037 0.44586453 -0.28203598 5
3.1868157 0.4439083 -0.16862647 6
3.1849163 0.44251049 -0.056126937 7
3.1875885 0.43777952 0.056161843 8
3.1956534 0.43831894 0.16904517 9
3.1781445 0.43478721 0.2806415 10
3.1843572 0.43450493 0.39461297 11
3.2080359 0.43716559 -0.39753783 4
3.1902926 0.43417904 -0.28168735 5
3.1962624 0.43385679 -0.16904517 6
3.1942928 0.43302011 -0.056266561 7
3.1830766 0.42640924 0.056057129 8
3.1991436 0.42742649 0.16914983 9
3.1776679 0.42342675 0.28046718 10
3.173974 0.42237234 0.39315054 11
3.2094681 0.4265241 -0.39753783 4
3.1703358 0.42076051 0.50653487 12
3.1957386 0.42356592 -0.28203598 5
3.1897635 0.42220598 -0.16862647 6
3.1957846 0.42186955 -0.056266561 7
3.1885116 0.41581196 0.056126937 8
3.1907132 0.41496801 0.16862647 9
3.1869576 0.41391245 0.28116441 10
3.1714916 0.41077968 0.39266306 11
3.2030628 0.41429892 -0.39656287 4
3.1874578 0.41171649 0.50903779 12
3.2010777 0.41347575 -0.2823846 5
3.1832945 0.41004756 -0.16820778 6
3.1972377 0.41071075 -0.056266561 7
3.185976 0.40417829 0.056057129 8
3.1881793 0.40332717 0.16841713 9
3.1844296 0.40228814 0.28081581 10
3.1807847 0.40069824 0.39363801 11
3.179076 0.39935577 0.50747347 12
3.2025018 0.40229854 -0.2823846 5
3.1886697 0.399432 -0.16841713 6
3.1867459 0.39805979 -0.056057129 7
3.1972907 0.39427757 0.056231655 8
3.1894991 0.39275318 0.16841713 9
3.1858146 0.39116913 0.28081581 10
3.1880751 0.39031717 0.39436921 11
3.1784217 0.38857231 0.5071606 12
3.1999307 0.39063659 -0.28203598 5
3.1940098 0.38878083 -0.16862647 6
3.1801083 0.38652396 -0.055917513 7
3.1926243 0.38295746 0.056126937 8
3.2007666 0.38280243 0.16894048 9
3.1713336 0.37815958 0.2794213 10
3.1972365 0.38068241 0.3953442 11
3.1856434 0.37817442 0.5080992 12
3.1894035 0.37805635 -0.28099012 5
3.1992483 0.37865558 -0.1688358 6
3.1933537 0.37682924 -0.056126937 7
3.178051 0.36996314 0.055847701 8
3.1980507 0.37172413 0.16873114 9
3.1884031 0.36947638 0.28081581 10
3.1847422 0.36792409 0.39363801 11
3.1927671 0.3682881 0.50903779 12
3.1985571 0.3683888 -0.28168735 5
3.1926138 0.36657521 -0.16841713 6
3.2025325 0.36714777 -0.056266561 7
3.1891959 0.36054462 0.056022223 8
3.19139 0.35966301 0.16831245 9
3.1896734 0.35834369 0.28081581 10
3.1741083 0.35603252 0.39217559 11
3.1979597 0.3575792 0.50966352 12
3.2037838 0.35766274 -0.28203598 5
3.189842 0.35554424 -0.16820778 6
3.1978323 0.35530332 -0.056161843 7
3.2004962 0.34938213 0.056196753 8
3.1907012 0.34774789 0.16820778 9
3.1870043 0.34621936 0.28046718 10
3.1872933 0.3451252 0.39363801 11
3.1874652 0.34458101 0.50778633 12
3.2050729 0.3459186 -0.28203598 5
3.1951551 0.34371999 -0.16841713 6
3.1891718 0.34251329 -0.055987321 7
3.2076027 0.33939734 0.056301463 8
3.1899092 0.33639935 0.16810311 9
3.1881931 0.33509323 0.28046718 10
3.1982913 0.33559024 0.39485672 11
3.1886485 0.33345324 0.50778633 12
3.1983347 0.33390191 -0.28133872 5
3.2002501 0.33353731 -0.16862647 6
3.202282 0.33261764 -0.056196753 7
3.2047896 0.32779089 0.056231655 8
3.200999 0.32627422 0.16862647 9
3.1773942 0.32330793 0.2794213 10
3.1915436 0.3236222 0.39388174 11
3.1897929 0.32232141 0.50778633 12
3.1955159 0.3223348 -0.28099012 5
3.1974208 0.32196325 -0.16841713 6
3.2113819 0.32223684 -0.056336369 7
3.1899941 0.31503052 0.055952415 8
3.2080812 0.31568614 0.16894048 9
3.1924379 0.31302169 0.2806415 10
3.1827753 0.31151348 0.39266306 11
3.1948309 0.31156763 0.50841206 12
3.2045538 0.31195122 -0.28168735 5
3.1985793 0.31024265 -0.16841713 6
3.2124872 0.31102574 -0.056336369 7
3.1931181 0.30352494 0.055987321 8
3.2012105 0.30373198 0.16852181 9
3.189544 0.30150023 0.28029287 10
3.1720376 0.29872838 0.3912006 11
3.1919656 0.30004311 0.50778633 12
3.1976542 0.29888892 -0.16831245 6
3.2175355 0.30018237 -0.056406178 7
3.1941068 0.29293665 0.055987321 8
3.1982222 0.2927497 0.16831245 9
3.2004466 0.29182842 0.28116441 10
3.1828959 0.28910637 0.39241934 11
3.1929429 0.28945714 0.50778633 12
3.2085736 0.28918052 -0.1688358 6
3.2065635 0.28843519 -0.056196753 7
3.2090044 0.28357428 0.056231655 8
3.1952455 0.28123295 0.16810311 9
3.1934581 0.28051552 0.28046718 10
3.1976798 0.27976012 0.39412549 11
3.2095149 0.27853957 -0.1688358 6
3.2035661 0.27689517 -0.056126937 7
3.1980195 0.27135578 0.056022223 8
3.2081487 0.27108896 0.16873114 9
3.1805208 0.26819384 0.27924702 10
3.1966586 0.2684325 0.39388174 11
3.2184293 0.26799664 -0.1692545 6
3.2084987 0.26604363 -0.056196753 7
3.2029335 0.26051432 0.056092035 8
3.2090755 0.25988793 0.16873114 9
3.1953387 0.25821263 0.28046718 10
3.1876826 0.2564756 0.39266306 11
3.207444 0.25524879 -0.16862647 6
3.2173815 0.25547457 -0.056336369 7
3.2058606 0.24892876 0.056126937 8
3.1980586 0.2472015 0.16810311 9
3.2002366 0.24680647 0.28081581 10
3.1826634 0.24433528 0.39193183 11
3.208358 0.24349037 -0.16862647 6
3.2242782 0.2441342 -0.056441084 7
3.2107399 0.23747271 0.056196753 8
3.1989429 0.23547757 0.16810311 9
3.2050936 0.23536792 0.28116441 10
3.1973965 0.23368065 0.39363801 11
3.2171569 0.23286709 -0.16904517 6
3.2211626 0.2320253 -0.056371275 7
3.205565 0.22584122 0.056092035 8
3.1997457 0.22431041 0.16810311 9
3.1979458 0.22362185 0.28046718 10
3.2061138 0.22307001 0.39461297 11
3.2179501 0.22163482 -0.16904517 6
3.2179625 0.22050871 -0.056301463 7
3.2063336 0.21465102 0.056092035 8
3.2164516 0.21420069 0.16894048 9
3.194731 0.21219416 0.28011855 10
3.1969693 0.21122204 0.39339426 11
3.2386341 0.21170421 -0.17009188 6
3.2266948 0.20979269 -0.056441084 7
3.2030721 0.20320499 0.056022223 8
3.2211666 0.20322406 0.16914983 9
3.1974404 0.20116696 0.28029287 10
3.1957054 0.19993795 0.39315054 11
3.2234156 0.1982833 -0.056371275 7
3.1997695 0.19178432 0.055952415 8
3.205873 0.19158712 0.16831245 9
3.2080674 0.19059452 0.28116441 10
3.1884575 0.18831266 0.39217559 11
3.2400258 0.18852131 -0.056650508 7
3.204381 0.1813976 0.056022223 8
3.2025025 0.18073058 0.16810311 9
3.216639 0.18040207 0.28186166 10
3.1969926 0.17817928 0.39315054 11
3.2286532 0.1771194 -0.056441084 7
3.2169459 0.17140953 0.056231655 8
3.2190697 0.17039439 0.16894048 9
3.2013025 0.16889518 0.28046718 10
3.2054954 0.16799292 0.39412549 11
3.2252576 0.16564223 -0.056371275 7
3.2095361 0.15978068 0.056092035 8
3.219645 0.15915738 0.16894048 9
3.1999102 0.15706067 0.28029287 10
3.200114 0.15651238 0.39339426 11
3.2318082 0.15467043 -0.056475986 7
3.2061048 0.14783257 0.056022223 8
3.2201807 0.1479169 0.16894048 9
3.2024293 0.14598288 0.28046718 10
3.2323284 0.14338751 -0.056475986 7
3.2125711 0.13745549 0.056126937 8
3.2166867 0.13650832 0.16873114 9
3.2069006 0.13497013 0.28081581 10
3.2328093 0.13210285 -0.056475986 7
3.223022 0.12663236 0.056301463 8
3.2131302 0.12568364 0.16852181 9
3.219276 0.12479711 0.28186166 10
3.229233 0.12123235 -0.056406178 7
3.223424 0.11594439 0.056301463 8
3.219537 0.11467937 0.1688358 9
3.2097361 0.11321004 0.28099012 10
3.2198119 0.10456271 0.056231655 8
3.2298808 0.10432541 0.16935916 9
3.2021282 0.10231015 0.28029287 10
3.2121458 0.093652382 0.056092035 8
3.2302253 0.093049519 0.16935916 9
3.2064493 0.091244519 0.2806415 10
3.2104967 0.080706276 0.056057129 8
3.2205756 0.080397218 0.1688358 9
3.2107594 0.079030789 0.28099012 10
3.2227421 0.070320293 0.056266561 8
3.2208364 0.069153965 0.1688358 9
3.2229674 0.068075784 0.28203598 10
3.2229681 0.059071068 0.056266561 8
3.2210481 0.058473554 0.1688358 9
3.2112229 0.057173964 0.28099012 10
3.2191472 0.048323613 0.056196753 8
3.2352123 0.047433745 0.16956852 9
3.2074187 0.04590648 0.2806415 10
3.2112978 0.036993403 0.056057129 8
3.2393522 0.03618576 0.16977786 9
3.2035687 0.035226867 0.28029287 10
3.2214055 0.025864609 0.056231655 8
3.2254784 0.024769863 0.16904517 9
3.2176228 0.023587914 0.28151307 10
3.2094808 0.014004216 0.056022223 8
3.2255476 0.01294844 0.16904517 9
3.233562 0.0016924219 0.16946384 9
3.2335498 -0.0090297973 0.16946384 9
3.245482 -0.020392232 0.17009188 9
3.2334025 -0.032168169 0.16946384 9
3.2292764 -0.043400973 0.1692545 9
3.2331085 -0.054176319 0.16946384 9
3.2348969 -0.065502085 0.16956852 9
3.2386417 -0.07688839 0.16977786 9
