# .PCD v0.7 - Point Cloud Data file format
VERSION 0.7
FIELDS x y z intensity
SIZE 4 4 4 4
TYPE F F F F
COUNT 1 1 1 1
WIDTH 439
HEIGHT 1
VIEWPOINT 0 0 0 1 0 0 0
POINTS 439
DATA ascii
2.7399676 0.99780899 -0.152821 6
2.735918 0.98553044 -0.15240233 6
2.7393413 0.97597486 -0.15240233 6
2.7463298 0.96821421 -0.15261166 6
2.7496929 0.95862103 -0.15261166 6
2.7454696 0.94641399 -0.15219298 6
2.7449756 0.93553537 -0.15198363 6
2.7600796 0.93101579 -0.25484338 5
2.7595811 0.92977345 -0.15261166 6
2.7557528 0.91885412 -0.25414613 5
2.7665989 0.92139906 -0.152821 6
2.774091 0.92281717 -0.051030833 7
2.7665122 0.91172409 -0.25484338 5
2.7735927 0.91298443 -0.15303035 6
2.7791948 0.91375345 -0.051065743 7
2.7658894 0.90082693 -0.25449476 5
2.7691655 0.90082651 -0.15261166 6
2.7784066 0.90329498 -0.050995931 7
2.7784996 0.89421928 -0.25536633 5
2.7683351 0.89041477 -0.15240233 6
2.7872541 0.89542651 -0.051100649 7
2.7833488 0.88560385 -0.25554064 5
2.7752335 0.88195515 -0.15261166 6
2.7789264 0.88206238 -0.050891217 7
2.773118 0.87170112 -0.25432047 5
2.7897284 0.87585253 -0.1532397 6
2.7800808 0.87175769 -0.050856311 7
2.7875607 0.86555994 -0.25536633 5
2.7927685 0.86610985 -0.1532397 6
2.790597 0.86490107 -0.050995931 7
2.7867548 0.85465789 -0.2550177 5
2.7918062 0.85567248 -0.15303035 6
2.7955103 0.85574192 -0.051030833 7
2.7933874 0.84656686 -0.25536633 5
2.7909532 0.84476417 -0.152821 6
2.8098173 0.84994018 -0.051240265 7
2.8001435 0.83795267 -0.25571495 5
2.8052201 0.83893853 -0.15344904 6
2.8012707 0.83669227 -0.051030833 7
2.8027267 0.83180219 0.051030833 8
2.8326173 0.83744681 -0.36268318 4
2.8030508 0.82817519 -0.25571495 5
2.8044448 0.82752144 -0.1532397 6
2.8003385 0.82577699 -0.050961025 7
2.7997131 0.82081497 0.050926123 8
2.8182297 0.82303983 -0.36048955 4
2.7982738 0.81615347 -0.2550177 5
2.8148434 0.82045174 -0.15365838 6
2.8108838 0.81823462 -0.051100649 7
2.7910357 0.80770379 0.050716694 8
2.8287148 0.8153972 -0.3614645 4
2.8086236 0.80907488 -0.25571495 5
2.8138514 0.80951732 -0.15344904 6
2.8174253 0.81001312 -0.051170457 7
2.807158 0.80228972 0.050961025 8
2.8199477 0.80275196 -0.36000207 4
2.8171799 0.80089974 -0.25623786 5
2.8126779 0.79909068 -0.1532397 6
2.8279309 0.80235606 -0.051310074 7
2.8137906 0.79357082 0.051030833 8
2.8189104 0.79182911 -0.35951459 4
2.8255749 0.79316914 -0.25676081 5
2.8231425 0.7914235 -0.15365838 6
2.8268628 0.79140228 -0.051240265 7
2.8203967 0.78481686 0.051100649 8
2.8254833 0.78304541 -0.36000207 4
2.8187256 0.78064299 -0.25588927 5
2.8335879 0.78369427 -0.15407708 6
2.829608 0.78153044 -0.051240265 7
2.8231192 0.7749663 0.051100649 8
2.8396885 0.77631801 -0.3614645 4
2.8273339 0.7718814 -0.25641218 5
2.8401601 0.774849 -0.15428641 6
2.82846 0.77059782 -0.051170457 7
2.8180859 0.76301712 0.050961025 8
2.8500476 0.76846874 -0.36243945 4
2.8338587 0.76304275 -0.25676081 5
2.8314083 0.76132303 -0.15365838 6
2.8388574 0.76279479 -0.051310074 7
2.8285923 0.75474465 0.051100649 8
2.8412018 0.75545549 -0.36097702 4
2.8403568 0.75416791 -0.25710943 5
2.8398404 0.75296986 -0.1539724 6
2.853101 0.75595295 -0.051519506 7
2.8349469 0.74637938 0.051170457 8
2.8374174 0.74650168 0.15376306 9
2.8475318 0.74703628 -0.3614645 4
2.8447695 0.74525028 -0.25728375 5
2.844254 0.7440545 -0.15407708 6
2.8401151 0.74244076 -0.051240265 7
2.8393424 0.73747617 0.051205363 8
2.8438725 0.73759478 0.1539724 9
2.8578098 0.73907936 -0.36243945 4
2.8414378 0.7343176 -0.25676081 5
2.8505735 0.73561585 -0.15428641 6
2.8426888 0.73252434 -0.051240265 7
2.8399615 0.72706652 0.051170457 8
2.8522351 0.7291466 0.15428641 9
2.8603718 0.72910118 -0.36243945 4
2.8439839 0.7243939 -0.25676081 5
2.8686087 0.72960144 -0.1551238 6
2.8529816 0.72456527 -0.051379886 7
2.8424823 0.71714801 0.051170457 8
2.8605733 0.72065037 0.15460044 9
2.8582168 0.71899438 -0.46680051 3
2.86675 0.72007865 -0.36292693 4
2.8542254 0.71640164 -0.25745806 5
2.8517647 0.71472746 -0.15407708 6
2.8632524 0.71654451 -0.051519506 7
2.8527305 0.7091518 0.051310074 8
2.8591945 0.7096976 0.15439108 9
2.8798819 0.71376699 -0.46992919 3
2.8692462 0.71006662 -0.36292693 4
2.8644445 0.70834923 -0.25815532 5
2.8619983 0.70668292 -0.15449576 6
2.8773859 0.70941693 -0.051728934 7
2.8571312 0.69966447 0.05134498 8
2.8635943 0.7001878 0.15449576 9
2.8689232 0.70042962 -0.46773914 3
2.8697786 0.69957715 -0.36268318 4
2.8707714 0.69928843 -0.25850391 5
2.8644476 0.69668895 -0.15449576 6
2.8681855 0.69653636 -0.051519506 7
2.8712199 0.69249934 0.051554412 8
2.8679628 0.69065601 0.15460044 9
2.8751919 0.6913352 -0.46836486 3
2.8799243 0.6914084 -0.36365816 4
2.8654451 0.68740487 -0.25780669 5
2.8707469 0.68761563 -0.15470509 6
2.8744886 0.6874525 -0.051589314 7
2.8600004 0.6792388 0.051310074 8
2.8702376 0.6811409 0.15460044 9
2.8795097 0.68174899 -0.4686777 3
2.8881156 0.68272197 -0.36438939 4
2.8639493 0.6764816 -0.25745806 5
2.884793 0.68034196 -0.15533313 6
2.8806453 0.67883313 -0.051659122 7
2.8641841 0.67020714 0.05134498 8
2.8862119 0.67429757 0.15533313 9
2.8779073 0.67129958 -0.46805197 3
2.9038973 0.67629331 -0.36609554 4
2.8740559 0.6682846 -0.25815532 5
2.8792512 0.66896445 -0.15491444 6
2.8868937 0.66967666 -0.051728934 7
2.8704038 0.66110206 0.051414788 8
2.876869 0.66153377 0.15470509 9
2.8932717 0.664774 0.25972411 10
2.8840835 0.66213292 -0.4686777 3
2.8946307 0.66349089 -0.36463311 4
2.8840241 0.66052997 -0.25885254 5
2.8815689 0.65890914 -0.15491444 6
2.9009106 0.66226643 -0.051938362 7
2.8785446 0.65240508 0.051519506 8
2.8830564 0.6523698 0.15491444 9
2.8878009 0.65291357 0.25902686 10
2.8979383 0.65467393 -0.47055492 3
2.8911195 0.65207297 -0.36390188 4
2.8979743 0.65308762 -0.25989842 5
2.887749 0.6497227 -0.1551238 6
2.8914986 0.64950603 -0.051728934 7
2.8905632 0.64452833 0.051694028 8
2.8852043 0.64280486 0.15491444 9
2.8803382 0.64066559 0.25815532 10
2.9040623 0.6454106 -0.47118065 3
2.9011302 0.64369637 -0.36487687 4
2.8924558 0.64124209 -0.25920117 5
2.8938992 0.64050239 -0.15533313 6
2.8975413 0.64077806 -0.051798742 7
2.8809655 0.63236761 0.051484596 8
2.8952341 0.63444036 0.15533313 9
2.8747721 0.62890351 0.25745806 10
2.9023278 0.63493174 -0.47055492 3
2.9071274 0.63492006 -0.36536431 4
2.8868897 0.62944442 -0.25850391 5
2.9038129 0.63260347 -0.15575182 6
2.9036684 0.63151044 -0.05186855 7
2.8812008 0.62188464 0.051449694 8
2.9031792 0.62609977 0.15564716 9
2.8904757 0.62230289 0.25867823 10
2.896801 0.62313718 -0.46930346 3
2.9229121 0.62768513 -0.3670705 4
2.9006495 0.6223762 -0.2595498 5
2.9020977 0.62162602 -0.15554248 6
2.9135683 0.62355262 -0.052008174 7
2.8949828 0.61482126 0.051659122 8
2.9014394 0.61513269 0.1554378 9
2.8984778 0.61344767 0.25920117 10
2.9104469 0.61598086 -0.47118065 3
2.9133246 0.61552608 -0.36560807 4
2.9067035 0.61306882 -0.25989842 5
2.9041436 0.61199808 -0.15554248 6
2.9196408 0.61420113 -0.052077983 7
2.9050479 0.60583735 0.051798742 8
2.8978086 0.60327369 0.1551238 9
2.9045031 0.60413706 0.2595498 10
2.916553 0.60611391 -0.47180638 3
2.9116733 0.60403824 -0.36512056 4
2.920531 0.60534567 -0.26094431 5
2.9102783 0.60215974 -0.15575182 6
2.9140387 0.60187864 -0.051938362 7
2.9188986 0.5981037 0.052008174 8
2.9077239 0.59475493 0.15554248 9
2.9007373 0.59279996 0.25902686 10
2.926393 0.5975095 -0.4730579 3
2.9215441 0.59545875 -0.36609554 4
2.9109125 0.59276128 -0.25989842 5
2.9162772 0.59279364 -0.15596117 6
2.9200418 0.59249765 -0.052008174 7
2.9131272 0.58633208 0.05186855 8
2.9234889 0.58735591 0.15627518 9
2.9066963 0.58345437 0.25937548 10
2.9245875 0.58651322 -0.47243217 3
2.9429667 0.58966631 0.36853293 11
2.9313908 0.58681482 -0.3670705 4
2.9090567 0.58181447 -0.2595498 5
2.9261627 0.58417499 -0.15637985 6
2.9220922 0.5823018 -0.052008174 7
2.9112327 0.57538354 0.051798742 8
2.9314001 0.57830638 0.1565892 9
2.9087152 0.57330376 0.25937548 10
2.9227405 0.57553822 -0.47180638 3
2.9333208 0.57708997 0.3670705 11
2.9412127 0.57810944 -0.36804545 4
2.9228003 0.57396054 -0.26059568 5
2.9281843 0.57395643 -0.15637985 6
2.9358819 0.57440114 -0.052217599 7
2.9171495 0.56598032 0.05186855 8
2.9215372 0.56630254 0.15596117 9
2.9263475 0.56617522 0.26076996 10
2.9324894 0.5668326 -0.4730579 3
2.9158268 0.56308252 0.36463311 11
2.9392157 0.56759918 -0.36755794 4
2.9286985 0.56450933 -0.26094431 5
2.9301698 0.56373227 -0.15637985 6
2.9456255 0.56617266 -0.052357223 7
2.9307966 0.55854899 0.052077983 8
2.9253609 0.55698401 0.15606584 9
2.9360385 0.55795509 0.26146722 10
2.942116 0.55857801 -0.47430936 3
2.9235284 0.55452192 0.36536431 11
2.9371808 0.55711144 -0.3670705 4
2.938385 0.55627596 -0.26164153 5
2.9359484 0.55475318 -0.1565892 6
2.9356966 0.55417508 -0.052147791 7
2.9444256 0.55103469 0.052287407 8
2.9351406 0.54823667 0.15648453 9
2.9241624 0.54565799 0.26024702 10
2.9517198 0.55026722 -0.47556084 3
2.9331574 0.54627711 0.36633927 11
2.9566722 0.55012268 -0.36926416 4
2.9363909 0.54528874 -0.2612929 5
2.9496496 0.54668593 -0.15721723 6
2.9415457 0.54465294 -0.052217599 7
2.9424918 0.53951848 0.052217599 8
2.9489181 0.53963149 0.15711255 9
2.9241827 0.53457916 0.26007274 10
2.9537168 0.53944415 -0.47556084 3
2.9409988 0.53659105 0.3670705 11
2.9469509 0.5371471 -0.3678017 4
2.9383698 0.53452188 -0.2612929 5
2.955564 0.53658402 -0.15742657 6
2.9513929 0.53529471 -0.052357223 7
2.9365768 0.52731562 0.052077983 8
2.9586473 0.5307458 0.15753125 9
2.9359286 0.52561265 0.26094431 10
2.9556739 0.5286153 -0.47556084 3
2.937083 0.52476138 0.36633927 11
2.9703963 0.53017843 -0.37048283 4
2.9480634 0.52566141 -0.26199016 5
2.9534862 0.52556473 -0.15721723 6
2.9611187 0.52638978 -0.052496839 7
2.9461868 0.51896286 0.052217599 8
2.9526136 0.51903099 0.15711255 9
2.9475577 0.51708311 0.26181585 10
2.9368522 0.51467532 0.36609554 11
2.9604061 0.51827055 -0.3690204 4
2.9538062 0.5160526 -0.26233879 5
2.951278 0.51508015 -0.15700789 6
2.9747584 0.51810825 -0.052706268 7
2.9519212 0.50935483 0.052287407 8
2.954407 0.50872332 0.15711255 9
2.9472926 0.50696725 0.26164153 10
2.9503694 0.50643766 0.36755794 11
2.9621968 0.50793427 -0.3690204 4
2.9672835 0.50827342 -0.26338464 5
2.9569952 0.50544876 -0.15721723 6
2.9607792 0.50503057 -0.052427031 7
2.9674838 0.50137883 0.052531745 8
2.9640429 0.49973485 0.15753125 9
2.9588678 0.49832985 0.2625131 10
2.954077 0.49646407 0.3678017 11
2.9678674 0.49824771 -0.36950788 4
2.95332 0.49527699 -0.26199016 5
2.9705608 0.49710089 -0.15784526 6
2.9625235 0.49469444 -0.052427031 7
2.9593513 0.48938811 0.052357223 8
2.9697106 0.49003488 0.15774059 9
2.9507599 0.48638028 0.26164153 10
2.955792 0.48614863 0.3678017 11
2.9774237 0.48917425 -0.37048283 4
2.9550309 0.48496419 -0.26199016 5
2.9762197 0.48737627 -0.15805461 6
2.9681797 0.48499444 -0.052496839 7
2.9689376 0.48033175 0.052496839 8
2.9832335 0.48157611 0.15836863 9
2.9583406 0.47702798 0.26216447 10
2.9633505 0.4767746 0.36853293 11
2.9830329 0.47940731 -0.37097031 4
2.9685092 0.47654024 -0.26303601 5
2.9779029 0.47698358 -0.15805461 6
2.9856513 0.47715586 -0.05277608 7
2.9705961 0.46996593 0.052496839 8
2.9749496 0.47012246 0.15784526 9
2.9698281 0.46825069 0.26303601 10
2.9571528 0.46519297 0.36755794 11
2.9846885 0.46899083 -0.37097031 4
2.9780276 0.46741313 -0.2637333 5
2.9756033 0.46596703 -0.15784526 6
2.9990714 0.46910724 -0.052985508 7
2.9839954 0.46194717 0.052706268 8
2.9785469 0.46003917 0.15794992 9
2.9812903 0.45939758 0.26390758 10
2.986227 0.45909131 -0.37097031 4
2.991457 0.45882654 -0.26477915 5
2.9929259 0.45851719 -0.15868263 6
2.9927838 0.45742634 -0.052845888 7
2.9974527 0.45332307 0.052915696 8
2.9919837 0.45142779 0.15857796 9
2.9827974 0.44950932 0.26390758 10
2.9956636 0.44984436 -0.37194526 4
2.9812181 0.44661117 -0.2637333 5
3.0063598 0.44984114 -0.15931067 6
2.9904063 0.44638696 -0.05277608 7
2.9871478 0.44110373 0.052706268 8
2.9974933 0.44156241 0.15878731 9
2.9745686 0.43712464 0.26303601 10
2.9867017 0.43677789 -0.2640819 5
3.0198467 0.44054845 -0.15993871 6
2.9998615 0.43709826 -0.052915696 7
2.9887443 0.43015298 0.052706268 8
3.0089765 0.43199292 0.15931067 9
2.9898818 0.42871898 0.26425621 10
2.9960978 0.42747456 -0.26477915 5
3.0055473 0.42775238 -0.15910132 6
3.0093629 0.42722526 -0.053055316 7
2.9981484 0.42083013 0.052845888 8
3.0025544 0.42037848 0.15889199 9
2.9992528 0.41938403 0.26495346 10
3.0015185 0.41756329 -0.26512775 5
2.9951522 0.41561201 -0.15847328 6
3.0187593 0.41781381 -0.053194933 7
3.0134678 0.4122586 0.053090218 8
3.003932 0.41041851 0.15889199 9
3.0125437 0.41052544 0.26599932 10
3.0108552 0.40815324 -0.265825 5
2.9965847 0.40515506 -0.15847328 6
3.0122015 0.40672979 -0.053055316 7
3.0247293 0.40358487 0.053264745 8
3.0151751 0.40177447 0.15941535 9
3.0059884 0.39948252 0.26530206 10
3.012192 0.39816725 -0.265825 5
3.0097926 0.39678124 -0.15910132 6
3.0135336 0.39673933 -0.053055316 7
3.0181191 0.39252129 0.053125124 8
3.0263941 0.39305893 0.15993871 9
3.0072963 0.38951269 0.26530206 10
3.0055916 0.38715723 -0.26512775 5
3.0229776 0.38832566 -0.15972935 6
3.0227666 0.38776079 -0.053194933 7
3.0194042 0.38250983 0.053125124 8
3.0395691 0.38452694 0.16056673 9
3.0105486 0.37978655 0.26547641 10
3.0226741 0.37917277 -0.26652226 5
3.0202851 0.37780231 -0.15952002 6
3.0399098 0.3797183 -0.053474173 7
3.0287247 0.37241745 0.053264745 8
3.0330937 0.37188148 0.16014804 9
3.0297186 0.37092954 0.2670452 10
3.0280633 0.36804378 -0.26687086 5
3.0216494 0.36673054 -0.15952002 6
3.0453157 0.36852282 -0.053543981 7
3.0379486 0.36279064 0.053404365 8
3.0363567 0.36152709 0.16025271 9
3.0550523 0.3605091 -0.26913694 5
3.0309076 0.35658735 -0.15993871 6
3.0386393 0.35695931 -0.053404365 7
3.0472035 0.35257357 0.053543981 8
3.0415685 0.35138366 0.16046207 9
3.0400715 0.34691027 -0.16035739 6
3.0438406 0.34680226 -0.053474173 7
3.0443816 0.34202087 0.053474173 8
3.0507157 0.34165424 0.16088074 9
3.0531158 0.3381469 -0.16098543 6
3.0490077 0.33661464 -0.053543981 7
3.0455568 0.33139256 0.053474173 8
3.0657887 0.33250985 0.16161345 9
3.0423625 0.3262091 -0.16035739 6
3.0581179 0.32681876 -0.053683605 7
3.0526614 0.32138684 0.053578887 8
3.0530264 0.32034791 0.16088074 9
3.0475106 0.31546804 -0.16056673 6
3.0711746 0.31737447 -0.05389303 7
3.059787 0.31080309 0.053683605 8
3.0640614 0.31069553 0.1614041 9
3.052568 0.30522639 -0.16077606 6
3.068284 0.30625555 -0.053823221 7
3.0707517 0.3016313 0.053858127 8
3.0631397 0.29980415 0.16129944 9
3.0694673 0.29663816 -0.16161345 6
3.0733156 0.29592735 -0.05389303 7
3.0638227 0.29015559 0.053718507 8
3.0800748 0.29061151 0.16213681 9
3.078439 0.28666183 -0.16203214 6
3.0743296 0.28519833 -0.05389303 7
3.0648165 0.27946118 0.053718507 8
3.0850489 0.28021881 0.16234615 9
3.079421 0.27591354 -0.16203214 6
3.0872571 0.27553093 -0.054102462 7
3.0777259 0.26980826 0.053927936 8
3.0860081 0.26944894 0.16234615 9
3.0961697 0.2654351 -0.054242078 7
3.0866196 0.25973323 0.054067552 8
3.0610561 0.25650612 0.16098543 9
3.0851195 0.25364336 -0.05403265 7
3.10146 0.25008303 0.05431189 8
3.0899308 0.24372648 -0.054102462 7
3.0942972 0.23918103 0.05417227 8
3.106715 0.23414055 -0.054381698 7
3.095113 0.22837763 0.05417227 8
3.1154916 0.22386861 -0.054521319 7
3.0938971 0.21743275 0.054137368 8
3.1242342 0.21353674 -0.054660939 7
3.1145897 0.20796312 0.054486416 8
3.1129873 0.20185414 -0.054451507 7
3.1172922 0.19721535 0.054521319 8
3.1179941 0.18578926 0.054521319 8
3.1186235 0.17490496 0.054521319 8
3.121212 0.16412203 0.054556224 8
3.1317255 0.15426335 0.054730747 8
