# .PCD v0.7 - Point Cloud Data file format
VERSION 0.7
FIELDS x y z intensity
SIZE 4 4 4 4
TYPE F F F F
COUNT 1 1 1 1
WIDTH 718
HEIGHT 1
VIEWPOINT 0 0 0 1 0 0 0
POINTS 718
DATA ascii
2.2790086 -0.52028835 -0.040803727 7
2.2654908 -0.52552921 -0.040594298 7
2.2494054 -0.52925032 -0.12110542 6
2.2715213 -0.53487229 -0.040733919 7
2.2456951 -0.53624272 -0.12100074 6
2.2540815 -0.5390771 -0.040454678 7
2.2593377 -0.54784369 -0.12183812 6
2.2503386 -0.54607743 -0.040419776 7
2.2575085 -0.5553329 -0.12183812 6
2.2484186 -0.55392927 -0.040419776 7
2.2381167 -0.55885506 -0.12089607 6
2.254231 -0.5637148 -0.040559392 7
2.276613 -0.57311302 0.040978249 8
2.2361522 -0.5666641 -0.12089607 6
2.2522497 -0.57158011 -0.040559392 7
2.2494113 -0.57462221 0.040524486 8
2.2302918 -0.57347149 -0.12068672 6
2.2424946 -0.57744384 -0.040419776 7
2.2473917 -0.58247066 0.040524486 8
2.2359049 -0.58366001 -0.12110542 6
2.2404654 -0.58526808 -0.040419776 7
2.241374 -0.58968621 0.040454678 8
2.2377155 -0.59248358 -0.12131476 6
2.2422745 -0.59410948 -0.040489584 7
2.2413385 -0.59763092 0.040489584 8
2.2280226 -0.59783047 -0.12089607 6
2.2440495 -0.60297072 -0.040559392 7
2.2373083 -0.60492903 0.040454678 8
2.2220676 -0.60455531 -0.12068672 6
2.2457898 -0.61185151 -0.040629201 7
2.2428975 -0.61484969 0.040594298 8
2.2236874 -0.61375844 -0.12089607 6
2.2359304 -0.61755753 -0.040489584 7
2.2425554 -0.62360197 0.040629201 8
2.2253783 -0.62259299 -0.12110542 6
2.2260582 -0.62320215 -0.040349964 7
2.2308509 -0.62832445 0.040454678 8
2.2548258 -0.63592666 0.12278017 9
2.2348311 -0.63323617 -0.12173345 6
2.2277172 -0.63206047 -0.040419776 7
2.2267215 -0.63555896 0.040419776 8
2.2449107 -0.64159817 0.12236147 9
2.2101498 -0.6337502 -0.20115545 5
2.2172496 -0.6366238 -0.12089607 6
2.2370281 -0.64314795 -0.040629201 7
2.2264102 -0.64388329 0.040454678 8
2.2407389 -0.64887488 0.12225681 9
2.1983578 -0.63868189 -0.20028389 5
2.2111781 -0.64324361 -0.12068672 6
2.2309299 -0.64983428 -0.040559392 7
2.2356634 -0.65502459 0.040664107 8
2.2365439 -0.65613043 0.12215213 9
2.201849 -0.64803934 -0.20080683 5
2.2127509 -0.65208745 -0.12089607 6
2.2209761 -0.65535408 -0.040419776 7
2.227612 -0.66111761 0.040559392 8
2.2361546 -0.66450226 0.12225681 9
2.2053015 -0.65742892 -0.20132977 5
2.2142889 -0.66094989 -0.12110542 6
2.2148428 -0.66195726 -0.040349964 7
2.2195454 -0.66716248 0.040454678 8
2.2338212 -0.67230397 0.12225681 9
2.1972711 -0.66339523 -0.20080683 5
2.2138801 -0.66925311 -0.12121009 6
2.2125187 -0.66968453 -0.040349964 7
2.2095509 -0.67257684 0.040315062 8
2.2391028 -0.68242633 0.12267549 9
2.1911316 -0.66989607 -0.20045821 5
2.2000716 -0.67346931 -0.12058206 6
2.2216392 -0.68091953 -0.040559392 7
2.2112496 -0.68069166 0.04038487 8
2.2235875 -0.68533939 0.1219428 9
2.2408934 -0.69110161 0.20516461 10
2.1928229 -0.67795342 -0.20080683 5
2.1941292 -0.67919642 -0.12037271 6
2.2156689 -0.68671173 -0.040489584 7
2.2145875 -0.69019121 0.040489584 8
2.2173684 -0.69190723 0.12173345 9
2.23086 -0.69654441 0.20446737 10
2.1942461 -0.68679386 -0.20115545 5
2.1955566 -0.68804568 -0.12058206 6
2.2056262 -0.69204694 -0.040349964 7
2.2197928 -0.700324 0.040629201 8
2.2206531 -0.70144767 0.12204745 9
2.228415 -0.70432734 0.20446737 10
2.1804392 -0.69083846 -0.20010957 5
2.2007565 -0.69812113 -0.12100074 6
2.203197 -0.69974178 -0.040349964 7
2.2078099 -0.70502663 0.040454678 8
2.2200935 -0.70980322 0.12215213 9
2.2145569 -0.70845908 0.2034215 10
2.1704254 -0.69601172 -0.19941233 5
2.2021098 -0.7070201 -0.12121009 6
2.2045488 -0.70865214 -0.040419776 7
2.2015302 -0.71149915 0.04038487 8
2.2271035 -0.72062278 0.12267549 9
2.2196524 -0.71863991 0.20411874 10
2.1755631 -0.70604384 -0.20010957 5
2.1882312 -0.71099949 -0.12058206 6
2.2058649 -0.71758038 -0.040489584 7
2.1971323 -0.71855795 0.040349964 8
2.2093894 -0.72342044 0.12183812 9
2.2114503 -0.72452253 0.20359582 10
2.1806569 -0.71612018 -0.20080683 5
2.1857359 -0.71863341 -0.12058206 6
2.2033465 -0.72527581 -0.040489584 7
2.2003062 -0.72810769 0.040454678 8
2.2107704 -0.73199862 0.12204745 9
2.218364 -0.73537225 0.20446737 10
2.1819255 -0.72498417 -0.20115545 5
2.1832142 -0.7262587 -0.12058206 6
2.1971347 -0.73131543 -0.040419776 7
2.2054651 -0.73793823 0.040594298 8
2.2082019 -0.73971117 0.12204745 9
2.2120054 -0.74184412 0.20411874 10
2.1772997 -0.73105055 -0.2820057 4
2.1756046 -0.73132646 -0.20080683 5
2.1883659 -0.73604137 -0.12100074 6
2.190778 -0.73770392 -0.040349964 7
2.1952989 -0.74306768 0.040454678 8
2.2150645 -0.75061983 0.12257081 9
2.2057593 -0.74789572 0.20377012 10
2.2368951 -0.75932348 0.29004908 11
2.1766143 -0.73928475 -0.28224945 4
2.1693947 -0.73725486 -0.20045821 5
2.193347 -0.74624896 -0.12141944 6
2.1938684 -0.74728101 -0.040454678 7
2.1851244 -0.74813533 0.040315062 8
2.2143202 -0.75899482 0.12267549 9
2.20502 -0.75623721 0.20394444 10
2.2098234 -0.7587468 0.28688046 11
2.1721432 -0.74623299 -0.2820057 4
2.1611555 -0.74287993 -0.19993527 5
2.1831741 -0.75130099 -0.12100074 6
2.1950278 -0.75623727 -0.040524486 7
2.1862788 -0.75706697 0.04038487 8
2.2022221 -0.76344872 0.12215213 9
2.2023666 -0.76392949 0.20394444 10
2.2090368 -0.76710713 0.28712422 11
2.1714001 -0.75446224 -0.28224945 4
2.1698403 -0.75434464 -0.20098113 5
2.1692209 -0.75497806 -0.12037271 6
2.2055933 -0.76850051 -0.040768825 7
2.1911721 -0.7673375 0.040524486 8
2.1938891 -0.76914883 0.12183812 9
2.207207 -0.77425057 0.20464167 10
2.2100914 -0.77612895 0.28761166 11
2.1612618 -0.75940484 -0.28127447 4
2.1671939 -0.76191413 -0.20098113 5
2.1703403 -0.76387161 -0.12058206 6
2.1821508 -0.76888466 -0.04038487 7
2.1903653 -0.77564913 0.040559392 8
2.1988568 -0.77908802 0.12225681 9
2.1932244 -0.77795404 0.20359582 10
2.2092395 -0.78450304 0.28785542 11
2.1604686 -0.76760906 -0.28151822 4
2.1570122 -0.76680505 -0.20028389 5
2.1751869 -0.77412152 -0.12100074 6
2.181473 -0.77678764 -0.040419776 7
2.1858983 -0.78223449 0.040524486 8
2.1961238 -0.78675866 0.12225681 9
2.1886199 -0.78493249 0.2034215 10
2.2084942 -0.79249525 0.28809914 11
2.1672528 -0.77812332 -0.2827369 4
2.1543224 -0.77432978 -0.20028389 5
2.1801257 -0.78403401 -0.12141944 6
2.1843925 -0.78642964 -0.040524486 7
2.1737525 -0.78645825 0.040349964 8
2.2027538 -0.79782063 0.12278017 9
2.1972444 -0.79625899 0.20446737 10
2.2057142 -0.80019945 0.28809914 11
2.1645236 -0.78568363 -0.2827369 4
2.1573608 -0.78350985 -0.20080683 5
2.1698673 -0.78890944 -0.12100074 6
2.1816339 -0.7940498 -0.040524486 7
2.1803839 -0.79747576 0.040524486 8
2.1924534 -0.80275786 0.12236147 9
2.1944516 -0.80392385 0.20446737 10
2.1917255 -0.80379301 0.28663671 11
2.1524498 -0.78981531 -0.28151822 4
2.2196608 -0.81491721 0.37450415 12
2.1564829 -0.79172236 -0.20098113 5
2.1633511 -0.79510099 -0.1207914 6
2.1882324 -0.80511272 -0.040699009 7
2.1757116 -0.8043884 0.040489584 8
2.1858916 -0.80901963 0.12215213 9
2.1953685 -0.81296277 0.204816 10
2.1926291 -0.81281877 0.28712422 11
2.1422348 -0.7945627 -0.28054324 4
2.198283 -0.81578755 0.37137547 12
2.1574421 -0.8006314 -0.20132977 5
2.1605625 -0.80264759 -0.1207914 6
2.1779118 -0.80995816 -0.040559392 7
2.17851 -0.81407815 0.040594298 8
2.190537 -0.819444 0.12257081 9
2.1850536 -0.81782746 0.20411874 10
2.2009315 -0.82464629 0.28858662 11
2.1468835 -0.80482286 -0.28151822 4
2.1917226 -0.82206857 0.37074974 12
2.1527686 -0.80745775 -0.20115545 5
2.1652269 -0.81299281 -0.12121009 6
2.1675839 -0.81474131 -0.040419776 7
2.1719134 -0.82026446 0.040524486 8
2.1859393 -0.82599759 0.12246615 9
2.1821854 -0.82544971 0.20411874 10
2.2017527 -0.83372998 0.28907412 11
2.1477735 -0.81371868 -0.2820057 4
2.1963735 -0.83213151 0.3720012 12
2.1406219 -0.81143636 -0.20028389 5
2.1661105 -0.82196307 -0.12141944 6
2.1704786 -0.82405394 -0.040524486 7
2.1654446 -0.82603693 0.040454678 8
2.1849084 -0.83433545 0.12257081 9
2.1811519 -0.83377337 0.20429306 10
2.1897054 -0.83748114 0.28785542 11
2.1506252 -0.82296479 -0.2827369 4
2.1934555 -0.83979315 0.3720012 12
2.143358 -0.8210417 -0.20080683 5
2.1559129 -0.82628244 -0.12100074 6
2.169456 -0.83234173 -0.040559392 7
2.1662798 -0.83502918 0.040524486 8
2.178256 -0.84051907 0.12236147 9
2.1802337 -0.84171933 0.20446737 10
2.1793621 -0.84225708 0.28688046 11
2.1366305 -0.82617128 -0.28127447 4
2.19788 -0.85029566 0.37325269 12
2.1424816 -0.82886362 -0.20098113 5
2.1492906 -0.83236051 -0.1207914 6
2.168402 -0.84063226 -0.040594298 7
2.168942 -0.84476304 0.040629201 8
2.1715872 -0.84666646 0.12215213 9
2.1828506 -0.85149676 0.2049903 10
2.1856542 -0.85346961 0.28809914 11
2.1300356 -0.83217973 -0.28078699 4
2.1838598 -0.85364759 0.37137547 12
2.1525652 -0.84141487 -0.20220132 5
2.1538119 -0.84276891 -0.12121009 6
2.1635923 -0.84746695 -0.040559392 7
2.1697013 -0.85379326 0.040699009 8
2.1741934 -0.85643756 0.12246615 9
2.1743042 -0.85691965 0.20446737 10
2.1863549 -0.86255074 0.28858662 11
2.1289642 -0.84033865 -0.28103071 4
2.1808667 -0.86126542 0.37137547 12
2.1422024 -0.84599614 -0.20150407 5
2.150857 -0.85028201 -0.12121009 6
2.1550426 -0.85280663 -0.040454678 7
2.1555586 -0.85692954 0.040489584 8
2.174902 -0.8654986 0.12267549 9
2.1675975 -0.86303008 0.20411874 10
2.1305881 -0.84872556 -0.36324087 3
2.1814868 -0.8694424 0.28834289 11
2.1352375 -0.8514415 -0.28224945 4
2.1833513 -0.87106878 0.37231407 12
2.1318343 -0.85051554 -0.20080683 5
2.2026219 -0.87920272 0.46099457 13
2.1552949 -0.86074769 -0.12162878 6
2.1613369 -0.86403549 -0.040629201 7
2.1544099 -0.86519372 0.040524486 8
2.1794329 -0.87568456 0.12309418 9
2.1664205 -0.87133467 0.20429306 10
2.116617 -0.85173297 -0.36136368 3
2.1784387 -0.87705201 0.28834289 11
2.1304111 -0.85814786 -0.2820057 4
2.1841152 -0.87978029 0.3729398 12
2.1270041 -0.85720712 -0.20063251 5
2.2086434 -0.89055669 0.46290264 13
2.1448684 -0.86527699 -0.12121009 6
2.1621683 -0.87269485 -0.040699009 7
2.1515291 -0.87233329 0.040524486 8
2.1652591 -0.87878036 0.12246615 9
2.1762867 -0.88414085 0.20551322 10
2.1174412 -0.86023426 -0.36198941 3
2.1681621 -0.88128114 0.28736794 11
2.1220369 -0.86296439 -0.28127447 4
2.1901796 -0.89112133 0.37450415 12
2.138762 -0.87063611 -0.20202701 5
2.2093148 -0.89935642 0.46366587 13
2.1382875 -0.8708781 -0.12100074 6
2.1665156 -0.88325661 -0.040838633 7
2.1577234 -0.8836273 0.040699009 8
2.1584826 -0.88481808 0.12225681 9
2.1770296 -0.89286488 0.20586187 10
2.1180804 -0.86912 -0.36261514 3
2.176091 -0.89336747 0.28883037 11
2.1190119 -0.87036651 -0.28127447 4
2.1742659 -0.89350516 0.37231407 12
2.1284916 -0.87469447 -0.20132977 5
2.2097936 -0.90855598 0.46442911 13
2.1389291 -0.87985641 -0.12121009 6
2.1523249 -0.88624549 -0.040629201 7
2.1527781 -0.89038956 0.040664107 8
2.1627622 -0.89540315 0.12267549 9
2.1628554 -0.8958841 0.204816 10
2.1186836 -0.87802076 -0.36324087 3
2.1802943 -0.90399909 0.28980532 11
2.119628 -0.87927914 -0.28176194 4
2.1656604 -0.89881754 0.37137547 12
2.1235852 -0.88135511 -0.20115545 5
2.2102351 -0.91776991 0.46519238 13
2.1432223 -0.89038229 -0.12162878 6
2.1455257 -0.89221752 -0.040559392 7
2.1478117 -0.89712799 0.040629201 8
2.1596234 -0.90294719 0.12267549 9
2.1542008 -0.90112168 0.20429306 10
2.1137838 -0.88464838 -0.362928 3
2.1734633 -0.9100709 0.28931785 11
2.1275313 -0.89127481 -0.28322437 4
2.1625094 -0.90637177 0.37137547 12
2.1204958 -0.88876253 -0.20115545 5
2.2070181 -0.92547947 0.46519238 13
2.1437845 -0.89940351 -0.12183812 6
2.1460855 -0.90124983 -0.040629201 7
2.1465096 -0.90539694 0.040664107 8
2.1601384 -0.91203386 0.12288483 9
2.1602187 -0.91251218 0.20516461 10
2.1052241 -0.88971454 -0.36198941 3
2.1611314 -0.91378671 0.28809914 11
2.1280637 -0.90024269 -0.28371185 4
2.1702476 -0.91853434 0.37325269 12
2.1247199 -0.89926523 -0.20185271 5
2.1965425 -0.93011558 0.46366587 13
2.1295981 -0.9022066 -0.12121009 6
2.1466081 -0.91029692 -0.040699009 7
2.1359768 -0.90974981 0.040524486 8
2.1571021 -0.91919214 0.12288483 9
2.1606858 -0.92161053 0.20551322 10
2.1021056 -0.89705765 -0.36198941 3
2.1579285 -0.92132485 0.28809914 11
2.112287 -0.90183836 -0.2820057 4
2.1708226 -0.92727798 0.37387842 12
2.1215677 -0.90667647 -0.20185271 5
2.1932824 -0.93777728 0.46366587 13
2.1301084 -0.91120589 -0.12141944 6
2.2109475 -0.94578677 0.55517924 14
2.1472549 -0.91898406 -0.040768825 7
2.1384597 -0.91919708 0.040629201 8
2.1503725 -0.92476219 0.12267549 9
2.1594477 -0.92955828 0.20568755 10
2.1136336 -0.91027439 -0.36449236 3
2.1621537 -0.93161786 0.28907412 11
2.1074617 -0.90805244 -0.28176194 4
2.1604798 -0.93134373 0.37262696 12
2.1258676 -0.91686302 -0.20254995 5
2.1973712 -0.94815665 0.46519238 13
2.1307423 -0.91984779 -0.12162878 6
2.2006423 -0.95002383 0.5533796 14
2.1368523 -0.92292786 -0.040629201 7
2.1427381 -0.92946649 0.040768825 8
2.1434674 -0.93067187 0.12246615 9
2.1490436 -0.93353885 0.2049903 10
2.1106033 -0.91727847 -0.36449236 3
2.1663342 -0.94194895 0.29004908 11
2.1115606 -0.91857088 -0.2827369 4
2.1626494 -0.94124442 0.37356552 12
2.1118541 -0.91913688 -0.20150407 5
2.1942148 -0.95543814 0.46519238 13
2.1276803 -0.92690843 -0.12162878 6
2.1937399 -0.95614243 0.5524798 14
2.1372836 -0.93197984 -0.040699009 7
2.1358168 -0.93533593 0.040699009 8
2.1548395 -0.94456303 0.12330353 9
2.1384735 -0.93783402 0.20429306 10
2.100153 -0.92146546 -0.36324087 3
2.1666682 -0.95110083 0.29053652 11
2.1119764 -0.92753243 -0.28322437 4
2.1575422 -0.94799316 0.37325269 12
2.1086328 -0.92650306 -0.20150407 5
2.1872716 -0.96151143 0.46442911 13
2.1354015 -0.93915421 -0.12225681 6
2.1975238 -0.96693367 0.55427945 14
2.130357 -0.93782336 -0.040629201 7
2.1270525 -0.94036007 0.040594298 8
2.1533556 -0.95288718 0.12340819 9
2.1461177 -0.95013231 0.20533893 10
2.0933111 -0.92719072 -0.36261514 3
2.1542609 -0.95463699 0.28931785 11
2.1123552 -0.936508 -0.28371185 4
2.159637 -0.9579215 0.37419128 12
2.1126711 -0.93708944 -0.20220132 5
2.183902 -0.96914047 0.46442911 13
2.1211574 -0.94173974 -0.12162878 6
2.1416895 -0.95175058 -0.040908441 7
2.129235 -0.95022386 0.040699009 8
2.1408982 -0.95632511 0.12288483 9
2.150064 -0.96086955 0.20603617 10
2.0900619 -0.93449217 -0.36261514 3
2.1491034 -0.96134043 0.28907412 11
2.1018257 -0.94063234 -0.2827369 4
2.1634917 -0.96868306 0.37544277 12
2.1093872 -0.94445825 -0.20220132 5
2.1840894 -0.97836316 0.46519238 13
2.1178572 -0.94913822 -0.12162878 6
2.1347051 -0.95758373 -0.040838633 7
2.1331983 -0.96093571 0.040838633 8
2.1377153 -0.96341932 0.12288483 9
2.1539617 -0.97164595 0.20673342 10
2.0975904 -0.94665766 -0.36449236 3
2.1457345 -0.96883625 0.28907412 11
2.0949113 -0.94632888 -0.28224945 4
2.1548669 -0.97341245 0.37450415 12
2.1133399 -0.95509773 -0.20289856 5
2.1842387 -0.98759866 0.46595559 13
2.1145313 -0.95652527 -0.12162878 6
2.1278744 -0.96300852 -0.040768825 7
2.1300001 -0.96800435 0.040838633 8
2.1397934 -0.97335643 0.12319885 9
2.139677 -0.97420508 0.20568755 10
2.0980353 -0.95524538 -0.36511809 3
2.1497359 -0.97923803 0.29004908 11
2.0989871 -0.95656347 -0.28322437 4
2.1406717 -0.97601151 0.37262696 12
2.1027422 -0.95916146 -0.20220132 5
2.1845241 -0.99646598 0.46671882 13
2.1186156 -0.96684867 -0.12204745 6
2.1172242 -0.96710688 -0.040629201 7
2.1193376 -0.97209871 0.040699009 8
2.140013 -0.98248649 0.12340819 9
2.134624 -0.98046356 0.20551322 10
2.0875082 -0.95926392 -0.36386663 3
2.1553228 -0.99088198 0.29126775 11
2.102849 -0.96720248 -0.28419933 4
2.1480188 -0.98843247 0.37450415 12
2.0957618 -0.96482915 -0.20185271 5
2.1737244 -1.0011809 0.46519238 13
2.1259413 -0.97962248 -0.12267549 6
2.1283636 -0.98118907 -0.040908441 7
2.1157603 -0.97986001 0.040699009 8
2.1382096 -0.99116331 0.12351287 9
2.1328237 -0.98911899 0.20568755 10
2.0839784 -0.96690845 -0.36386663 3
2.1426737 -0.99459594 0.29004908 11
2.0992899 -0.97490335 -0.28419933 4
2.1515477 -0.99962813 0.37575564 12
2.0994384 -0.97586334 -0.20254995 5
2.1736004 -1.0107967 0.46595559 13
2.1042278 -0.97898287 -0.12162878 6
2.124753 -0.98898327 -0.040908441 7
2.115778 -0.98930222 0.040768825 8
2.1293094 -0.99608219 0.12319885 9
2.1364017 -1.000309 0.20638479 10
2.0875757 -0.97789198 -0.36511809 3
2.139014 -1.0024426 0.29004908 11
2.0886843 -0.97885573 -0.28322437 4
2.1480451 -1.0071323 0.37575564 12
2.1032343 -0.98657006 -0.20324717 5
2.170059 -1.0183779 0.46595559 13
2.1044135 -0.9880197 -0.12183812 6
2.1249077 -0.99809426 -0.040978249 7
2.1161027 -0.99801886 0.040838633 8
2.1205757 -1.0005809 0.12288483 9
2.1366761 -1.0090898 0.20673342 10
2.0843215 -0.98480922 -0.36511809 3
2.1392672 -1.011227 0.29053652 11
2.0800426 -0.98323166 -0.28249314 4
2.1411219 -1.0125608 0.37512988 12
2.099951 -0.99353927 -0.20324717 5
2.1702189 -1.0272484 0.46671882 13
2.108346 -0.99841201 -0.12225681 6
2.1143577 -1.0017108 -0.040838633 7
2.1200049 -1.0084666 0.040978249 8
2.1242833 -1.0114113 0.12330353 9
2.1315193 -1.0153128 0.20655911 10
2.1077931 -1.0044627 -0.36981112 3
2.1448617 -1.0225871 0.29175523 11
2.0819731 -0.99305022 -0.28322437 4
2.1375742 -1.0200286 0.37512988 12
2.0894523 -0.99706537 -0.20254995 5
2.1774309 -1.0395143 0.46900854 13
2.1122324 -1.008841 -0.12267549 6
2.1036315 -1.0056351 -0.040699009 7
2.1092606 -1.0123994 0.040838633 8
2.1297414 -1.0231447 0.12382689 9
2.1225746 -1.0201578 0.20603617 10
2.1430681 -1.0309283 0.29199898 11
2.0928037 -1.0071985 -0.28517428 4
2.1304412 -1.0257699 0.37450415 12
2.0787787 -1.0008954 -0.20185271 5
2.1631765 -1.0419966 0.46671882 13
2.1086981 -1.0162081 -0.12267549 6
2.1145175 -1.019922 -0.040978249 7
2.1021144 -1.0180129 0.040768825 8
2.127954 -1.0314437 0.12393155 9
2.1261718 -1.0310382 0.20673342 10
2.128741 -1.0332019 0.29053652 11
2.0999894 -1.0197001 -0.28663671 4
2.1392853 -1.0392426 0.37669426 12
2.0858479 -1.0137333 -0.20289856 5
2.1595261 -1.0495412 0.46671882 13
2.1015458 -1.0218159 -0.12246615 6
2.1109443 -1.0272969 -0.040978249 7
2.1021414 -1.0271001 0.040838633 8
2.1171639 -1.0353557 0.12351287 9
2.1259577 -1.0405759 0.20708205 10
2.1162074 -1.0362614 0.28931785 11
2.0732427 -1.015671 -0.28346813 4
2.1391921 -1.0484424 0.37731999 12
2.0894523 -1.0245167 -0.20359582 5
2.1556649 -1.0574492 0.46671882 13
2.0870285 -1.024232 -0.12183812 6
2.1145258 -1.0381845 -0.041117873 7
2.1073301 -1.0392202 0.041013155 8
2.1133549 -1.0431086 0.12351287 9
2.1223125 -1.0479904 0.20708205 10
2.1230729 -1.0492879 0.29078028 11
2.0712855 -1.0241429 -0.28371185 4
2.1264822 -1.0518967 0.37575564 12
2.0892546 -1.0339354 -0.20394444 5
2.158999 -1.0684507 0.46824533 13
2.0941801 -1.036828 -0.12246615 6
2.1071229 -1.0441519 -0.041048057 7
2.1072702 -1.048351 0.041082963 8
2.1132767 -1.0522596 0.12372221 9
2.1148908 -1.0539848 0.20673342 10
2.1282799 -1.0611211 0.29199898 11
2.0783563 -1.0366831 -0.28517428 4
2.1174948 -1.056667 0.37481701 12
2.0749373 -1.0358824 -0.20289856 5
2.1656065 -1.0816199 0.47053501 13
2.0975122 -1.0480675 -0.12288483 6
2.0891562 -1.0443478 -0.040768825 7
2.0966327 -1.0517467 0.040943347 8
2.1153159 -1.0615811 0.12403623 9
2.1080081 -1.058835 0.20638479 10
2.13007 -1.0708477 0.29273018 11
2.0855474 -1.048921 -0.28663671 4
2.1176941 -1.0650891 0.37544277 12
2.0716727 -1.0423958 -0.20289856 5
2.1551833 -1.084887 0.46900854 13
2.0977769 -1.0564485 -0.12309418 6
2.1001513 -1.0581038 -0.041048057 7
2.0895646 -1.0568887 0.040873535 8
2.120507 -1.0734687 0.12455959 9
2.1167402 -1.0724905 0.20760499 10
2.1247368 -1.077008 0.29248646 11
2.1315796 -1.0814121 0.37857145 12
2.0715747 -1.0514244 -0.20324717 5
2.0871389 -1.0597821 -0.12267549 6
2.1000106 -1.0672402 -0.041117873 7
2.0894253 -1.0659937 0.040943347 8
2.1042955 -1.0745063 0.12382689 9
2.1149464 -1.0804102 0.20777929 10
2.1103594 -1.0789961 0.291024 11
2.1260335 -1.0879462 0.37825859 12
2.0787187 -1.0637341 -0.20429306 5
2.0763164 -1.0634193 -0.12225681 6
2.1069493 -1.0800372 -0.041327298 7
2.0892477 -1.0751107 0.041013155 8
2.0987563 -1.0809305 0.12372221 9
2.1111622 -1.0877862 0.20777929 10
2.1118731 -1.0890856 0.29175523 11
2.1204674 -1.0944549 0.37794572 12
2.0820746 -1.0746388 -0.2049903 5
2.0832381 -1.0761606 -0.12288483 6
2.0925086 -1.081875 -0.041117873 7
2.0908067 -1.0851606 0.041117873 8
2.1056049 -1.0937741 0.12435025 9
2.1055844 -1.0942302 0.20760499 10
2.1168642 -1.1010307 0.29297391 11
2.1078732 -1.0972893 0.37638137 12
2.0641725 -1.0745403 -0.20359582 5
2.0865543 -1.0871172 -0.12330353 6
2.0851734 -1.0873233 -0.041048057 7
2.0852344 -1.0915247 0.041082963 8
2.101774 -1.1011174 0.12435025 9
2.0982225 -1.0997235 0.20725635 10
2.1253133 -1.1148683 0.29468012 11
2.1162729 -1.1110682 0.37857145 12
2.0639372 -1.0835913 -0.20394444 5
2.0862827 -1.0962521 -0.12351287 6
2.0849049 -1.096457 -0.041117873 7
2.079643 -1.0978634 0.041048057 8
2.1014493 -1.1103132 0.12455959 9
2.1014168 -1.1107652 0.2079536 10
2.1091259 -1.1157823 0.29297391 11
2.1141276 -1.119373 0.37888432 12
2.0671856 -1.0945184 -0.20464167 5
2.0753844 -1.0997871 -0.12309418 6
2.0863647 -1.1065388 -0.041222587 7
2.0775633 -1.1060556 0.041082963 8
2.0940356 -1.1157635 0.12435025 9
2.101043 -1.1199682 0.20830221 10
2.0982125 -1.1194001 0.29199898 11
2.1154351 -1.1295371 0.37982294 12
2.0633523 -1.1017275 -0.20464167 5
2.0715327 -1.1070248 -0.12309418 6
2.0913062 -1.1185304 -0.04139711 7
2.0789754 -1.1161388 0.041187681 8
2.0901279 -1.1230663 0.12435025 9
2.1006308 -1.1291821 0.20865084 10
2.0977886 -1.1285985 0.29248646 11
2.1010437 -1.1312954 0.37794572 12
2.0682652 -1.113646 -0.20551322 5
2.0746887 -1.1180391 -0.12351287 6
2.0803487 -1.1220264 -0.041257489 7
2.0803423 -1.126245 0.041292395 8
2.0861952 -1.1303554 0.12435025 9
2.098428 -1.1374574 0.20882516 10
2.1095402 -1.1444336 0.29468012 11
2.0936098 -1.1367375 0.37731999 12
2.0742834 -1.1271814 -0.12372221 6
2.0729063 -1.1273707 -0.041187681 7
2.0746431 -1.1325417 0.041257489 8
2.0927529 -1.1433762 0.12497827 9
2.0891998 -1.1419084 0.20830221 10
2.1072741 -1.1527431 0.29492384 11
2.1034908 -1.1516274 0.37982294 12
2.0703359 -1.1344153 -0.12372221 6
2.0724649 -1.1365225 -0.041257489 7
2.0654216 -1.1368837 0.041152775 8
2.092248 -1.1526018 0.12518762 9
2.090436 -1.1520792 0.20882516 10
2.099761 -1.1581743 0.29443637 11
2.0977287 -1.1580083 0.37951005 12
2.0593708 -1.1377718 -0.12330353 6
2.075485 -1.1476206 -0.04139711 7
2.0666859 -1.1469976 0.041257489 8
2.0847197 -1.1579584 0.12497827 9
2.0898848 -1.1613047 0.20917378 10
2.0922358 -1.1635671 0.29394889 11
2.0971258 -1.1672451 0.38013577 12
2.0553865 -1.1449534 -0.12330353 6
2.0784531 -1.1587533 -0.041536726 7
2.0679047 -1.1571343 0.041362204 8
2.0736947 -1.1613249 0.12455959 9
2.091033 -1.1715142 0.20969671 10
2.0846987 -1.1689216 0.29346141 11
2.0930386 -1.1745584 0.38013577 12
2.0583432 -1.1560333 -0.12372221 6
2.063936 -1.1601223 -0.041327298 7
2.069078 -1.1672932 0.041466918 8
2.0767896 -1.1721216 0.12497827 9
2.0799918 -1.1748865 0.20899945 10
2.1013424 -1.1879143 0.29638627 11
2.0856931 -1.1795479 0.37951005 12
2.0612473 -1.1671476 -0.1241409 6
2.0600777 -1.1669601 -0.041327298 7
2.0634575 -1.1731598 0.041432012 8
2.083101 -1.1852903 0.12560631 9
2.0724154 -1.1801682 0.20865084 10
2.0991163 -1.1958585 0.29663 11
2.0594649 -1.1761276 -0.04139711 7
2.0489402 -1.174389 0.041222587 8
2.0858808 -1.1965299 0.12602501 9
2.0754027 -1.1910007 0.2093481 10
2.0863223 -1.1982353 0.29541129 11
2.0692108 -1.191291 -0.041676346 7
2.0534856 -1.1865363 0.04139711 8
2.0713177 -1.1978045 0.12539697 9
2.0815799 -1.204224 0.21039395 10
2.0786912 -1.2035214 0.29492384 11
2.0615807 -1.1964991 -0.041606538 7
2.0562429 -1.197723 0.041536726 8
2.0602217 -1.2010039 0.12497827 9
2.0808063 -1.2134904 0.21074259 10
2.0779064 -1.2127713 0.29541129 11
2.0573914 -1.2036881 -0.041606538 7
2.0589473 -1.2089434 0.041676346 8
2.0715148 -1.2172952 0.12592033 9
2.0696871 -1.2167072 0.21004534 10
2.0907695 -1.2300832 0.2978487 11
2.0462875 -1.206799 -0.041466918 7
2.0512729 -1.2140859 0.041606538 8
2.072408 -1.2275723 0.12623434 9
2.0619996 -1.221893 0.20969671 10
2.086463 -1.2373739 0.2978487 11
2.052376 -1.2200656 -0.041676346 7
2.0435879 -1.2191899 0.041536726 8
2.0715401 -1.2368468 0.12644368 9
2.0645635 -1.2331699 0.21039395 10
2.0770197 -1.2415941 0.2971175 11
2.047888 -1.2314684 0.041711252 8
2.0569425 -1.2378911 0.12581564 9
2.0653672 -1.2434522 0.21091689 10
2.0641716 -1.2437142 0.2958988 11
2.0504174 -1.2427554 0.041850869 8
2.0526087 -1.2450635 0.12581564 9
2.0695307 -1.2558221 0.21178845 10
2.063211 -1.2529727 0.29638627 11
2.0460668 -1.249905 0.041850869 8
2.0516584 -1.2543044 0.12602501 9
2.0583358 -1.2588803 0.21109121 10
2.0706763 -1.2674212 0.29809242 11
2.0433943 -1.258088 0.041885775 8
2.0574698 -1.2677448 0.12665303 9
2.0573211 -1.2681485 0.21143983 10
2.0729978 -1.2788105 0.29906741 11
2.0270963 -1.2578328 0.041641444 8
2.0600421 -1.2787741 0.12707172 9
2.0562665 -1.2774248 0.21178845 10
2.0600917 -1.280798 0.2978487 11
2.0313923 -1.2698479 0.041815966 8
2.04563 -1.2792445 0.12644368 9
2.0553968 -1.2863506 0.21213706 10
2.0507865 -1.2844615 0.2971175 11
2.0339384 -1.2808396 0.041955583 8
2.0377727 -1.2842475 0.12623434 9
2.0528054 -1.294222 0.21231139 10
2.0431578 -1.2891365 0.29663 11
2.0364234 -1.2938499 0.12644368 9
2.0463665 -1.3006684 0.21213706 10
2.0383949 -1.3056139 0.12686236 9
2.0399082 -1.3070852 0.21196276 10
2.0405374 -1.3170538 0.12728105 9
2.0386806 -1.3163594 0.21231139 10
2.0361588 -1.3238132 0.12728105 9
2.0374131 -1.3256408 0.21266 10
2.0248427 -1.3265346 0.12686236 9
2.0427709 -1.3392992 0.21370588 10
2.0285339 -1.3390961 0.12738572 9
2.0383184 -1.3460659 0.21370588 10
2.0302896 -1.3509654 0.21335725 10
2.0288713 -1.3602632 0.21370588 10
2.0307145 -1.3717979 0.21440312 10
2.0310962 -1.3818867 0.21492605 10
2.024617 -1.3878417 0.21475175 10
2.0115631 -1.3892395 0.2138802 10
2.0132432 -1.4008043 0.21457744 10
