# .PCD v0.7 - Point Cloud Data file format
VERSION 0.7
FIELDS x y z intensity
SIZE 4 4 4 4
TYPE F F F F
COUNT 1 1 1 1
WIDTH 1315
HEIGHT 1
VIEWPOINT 0 0 0 1 0 0 0
POINTS 1315
DATA ascii
1.6594986 0.90328521 -0.099019639 6
1.6538531 0.89274448 -0.098496281 6
1.6395046 0.87725294 -0.097449563 6
1.6213846 0.86029232 -0.096193492 6
1.6475073 0.86642885 -0.097554229 6
1.6502213 0.86124831 -0.097554229 6
1.6543084 0.8626467 -0.03256619 7
1.6427228 0.84968895 -0.096926205 6
1.6555332 0.85594887 -0.032531288 7
1.6456789 0.8439492 -0.096926205 6
1.6513926 0.84651631 -0.032391667 7
1.6413472 0.83486634 -0.096507512 6
1.6595385 0.84375381 -0.032496382 7
1.6476732 0.83121759 -0.096716851 6
1.6553311 0.83435518 -0.032356761 7
1.6505649 0.82546061 -0.096716851 6
1.6475 0.82321006 -0.032147333 7
1.6526889 0.82004279 -0.16141243 5
1.6534364 0.81969362 -0.096716851 6
1.6539476 0.81922895 -0.032217141 7
1.650178 0.81163037 -0.16088949 5
1.649117 0.81039476 -0.096298166 6
1.6532073 0.81168753 -0.032147333 7
1.6652585 0.8143608 0.032356761 8
1.6513504 0.80470431 -0.16071519 5
1.6447538 0.80113447 -0.09587948 6
1.6596265 0.80766225 -0.032217141 7
1.6590936 0.80418223 0.032182239 8
1.6541495 0.79893464 -0.16071519 5
1.6476789 0.79510117 -0.09587948 6
1.6516292 0.79665112 -0.032007713 7
1.6476091 0.79117066 0.031902999 8
1.6533338 0.79143554 -0.16036656 5
1.6504444 0.78934443 -0.09587948 6
1.6543999 0.7908814 -0.032007713 7
1.6574455 0.78914148 0.032042619 8
1.6451494 0.78082311 -0.1593207 5
1.6602715 0.7872895 -0.096298166 6
1.6533991 0.78367817 -0.031937905 7
1.6473947 0.77766567 0.031798285 8
1.651471 0.77677131 -0.15966932 5
1.6520282 0.7766813 -0.095670134 6
1.6633648 0.78130221 -0.032077521 7
1.653722 0.77360463 0.031868093 8
1.657784 0.77268559 -0.16001794 5
1.6440003 0.76556265 -0.095042109 6
1.6660817 0.77549154 -0.032077521 7
1.6565462 0.76753861 0.031868093 8
1.6604712 0.76689368 -0.16001794 5
1.6502893 0.76149333 -0.095251448 6
1.6580169 0.76435632 -0.031868093 7
1.6664848 0.7650885 0.032007713 8
1.6522678 0.75611883 -0.15897207 5
1.6529377 0.75572765 -0.095251448 6
1.6533992 0.7552411 -0.031728476 7
1.6509429 0.75098717 0.031658668 8
1.6758225 0.76018655 -0.22594579 4
1.6548969 0.75034708 -0.15897207 5
1.6592044 0.75160104 -0.095460795 6
1.6558944 0.74975437 -0.031728476 7
1.6497781 0.74386472 0.031588856 8
1.6753429 0.75468701 0.096298166 9
1.6692811 0.75055605 -0.22472709 4
1.6647761 0.74783105 -0.15966932 5
1.6507556 0.74118584 -0.094832763 6
1.6657997 0.74724299 -0.031868093 7
1.6487132 0.73646981 0.031519048 8
1.648785 0.73581159 0.094623417 9
1.6573845 0.73826236 -0.22277717 4
1.6563261 0.73744357 -0.15862344 5
1.6460329 0.73217332 -0.094414078 6
1.6683978 0.74142402 -0.031868093 7
1.6622461 0.73556501 0.031728476 8
1.6641306 0.73570442 0.095356122 9
1.6472386 0.72686231 -0.22107102 4
1.6625355 0.73326659 -0.15897207 5
1.6558895 0.72964412 -0.094832763 6
1.6563343 0.72914976 -0.031588856 7
1.6648034 0.72975856 0.031728476 8
1.6557115 0.72508341 0.09472809 9
1.6570414 0.72428852 -0.22204597 4
1.6577822 0.72426772 -0.15827483 5
1.6584262 0.72385985 -0.094832763 6
1.6552036 0.72176468 -0.031519048 7
1.6526666 0.71757102 0.031449236 8
1.6655611 0.72247982 0.095146775 9
1.6595598 0.71849954 -0.22204597 4
1.6493294 0.71372855 -0.15722896 5
1.660943 0.71806604 -0.094832763 6
1.6650556 0.71915525 -0.031658668 7
1.6514872 0.71021813 0.031379428 8
1.6680732 0.71666104 0.095146775 9
1.6693552 0.71583188 -0.22302091 4
1.6627982 0.71267658 -0.15827483 5
1.6524235 0.70754647 -0.094204731 6
1.667556 0.71333826 -0.031658668 7
1.6557958 0.70523292 0.03141433 8
1.655862 0.7045784 0.094309397 9
1.6572264 0.70379305 -0.22107102 4
1.6652758 0.70686752 -0.15827483 5
1.6512055 0.70021498 -0.093995392 6
1.6700357 0.70751345 -0.031658668 7
1.6637752 0.70177996 0.031519048 8
1.6526685 0.69675535 0.093995392 9
1.6598985 0.6991213 0.15757757 10
1.6595514 0.69829315 -0.22107102 4
1.6640595 0.69950652 -0.1579262 5
1.6573225 0.6959939 -0.094204731 6
1.6686851 0.70042312 -0.031588856 7
1.6697836 0.69780046 0.031588856 8
1.6660274 0.69589019 0.094623417 9
1.662208 0.69361258 0.15757757 10
1.661858 0.69278562 -0.22107102 4
1.6516559 0.68785691 -0.15653172 5
1.6669977 0.69356263 -0.094623417 6
1.65992 0.69027907 -0.031379428 7
1.6610023 0.68767095 0.031379428 8
1.6647553 0.68854326 0.094414078 9
1.6442447 0.67972493 0.15566015 10
1.6704872 0.69023126 -0.28627509 3
1.6679357 0.68849558 -0.22155848 4
1.653928 0.68237555 -0.15653172 5
1.6692883 0.6880312 -0.094623417 6
1.6567725 0.68219608 -0.031274714 7
1.6467403 0.67504209 0.031065283 8
1.6726933 0.68499905 0.09472809 9
1.6668904 0.68228298 0.15757757 10
1.674715 0.68514353 -0.28658798 3
1.674004 0.68417156 -0.22204597 4
1.6599889 0.67810458 -0.15688033 5
1.6605846 0.67767256 -0.093995392 6
1.6776611 0.6839574 -0.031623758 7
1.6639102 0.67530543 0.031344522 8
1.660267 0.67315203 0.093890712 9
1.6692621 0.67645985 0.15757757 10
1.6642796 0.67410356 -0.2843979 3
1.6690215 0.67534524 -0.22107102 4
1.6660396 0.67380124 -0.15722896 5
1.6555328 0.66887873 -0.093576699 6
1.6726208 0.67510372 -0.031484142 7
1.666257 0.66949356 0.031344522 8
1.6607534 0.6666081 0.093786038 9
1.6697639 0.66988748 0.15740328 10
1.6537884 0.66314322 -0.28220782 3
1.6603121 0.66508645 -0.21960858 4
1.6646821 0.66649991 -0.15688033 5
1.6652751 0.66606295 -0.093995392 6
1.6638255 0.66480875 -0.031274714 7
1.6704421 0.66441172 0.031379428 8
1.6649257 0.66154557 0.093890712 9
1.6535752 0.65670043 0.15566015 10
1.6597654 0.65882355 -0.28283355 3
1.6700048 0.66221333 -0.22058353 4
1.6632943 0.6592164 -0.15653172 5
1.6638761 0.65877509 -0.093786038 6
1.6586975 0.65605605 -0.031135093 7
1.6615866 0.65418249 0.031169999 8
1.6653664 0.65499842 0.093786038 9
1.6465857 0.64728093 0.1547886 10
1.6547006 0.65013671 -0.28158206 3
1.6723065 0.6563794 -0.22058353 4
1.6581661 0.6504963 -0.15583447 5
1.6698848 0.65442014 -0.093995392 6
1.6684259 0.65317768 -0.031274714 7
1.6545441 0.64474773 0.030995475 8
1.6749737 0.65237123 0.094204731 9
1.6562624 0.64441866 0.15548584 10
1.6495959 0.64149249 -0.2803306 3
1.6745871 0.65053916 -0.22058353 4
1.6641414 0.64614606 -0.15618308 5
1.6572617 0.64281029 -0.093158014 6
1.670583 0.64764088 -0.031274714 7
1.6641357 0.64213657 0.031135093 8
1.6641952 0.6414932 0.093472026 9
1.6510646 0.63576907 0.1547886 10
1.6590875 0.63885838 -0.28158206 3
1.6747698 0.64456242 0.22033979 11
1.6693243 0.64213121 -0.21960858 4
1.6663866 0.64033359 -0.15618308 5
1.6593845 0.63731056 -0.093158014 6
1.6690995 0.64037329 -0.031204903 7
1.6719716 0.63846338 0.031239808 8
1.6608262 0.63354415 0.093158014 9
1.6661958 0.6352585 0.15600878 10
1.6557697 0.63095337 -0.28064346 3
1.6547486 0.63023347 0.21741492 11
1.6641349 0.63347501 -0.21863361 4
1.6685008 0.63480449 -0.15618308 5
1.665333 0.63293302 -0.093367353 6
1.6675854 0.63312393 -0.031135093 7
1.6798015 0.63474494 0.031344522 8
1.6630278 0.62774247 0.093158014 9
1.6572181 0.62521911 0.15496291 10
1.661659 0.62656331 -0.28126919 3
1.6810868 0.6335538 0.22058353 11
1.6663358 0.62766254 -0.21863361 4
1.6632481 0.62616801 -0.15548584 5
1.6712711 0.62852252 -0.093576699 6
1.6622977 0.62448567 -0.030995475 7
1.6595303 0.62047333 0.030925665 8
1.6726927 0.62472916 0.093576699 9
1.6500576 0.61594707 0.15409136 10
1.6564327 0.61799753 -0.28001773 3
1.681428 0.62698865 0.22033979 11
1.6796771 0.62600195 -0.22009605 4
1.6635567 0.61966252 -0.15531152 5
1.6734548 0.62268525 -0.093576699 6
1.6719648 0.62146652 -0.031135093 7
1.6541839 0.61190194 0.030786045 8
1.6748633 0.61888611 0.093576699 9
1.6573969 0.61243206 -0.34345621 2
1.6578043 0.61225462 0.15461428 10
1.6548737 0.61084324 -0.279392 3
1.6575329 0.61149609 0.21692745 11
1.6855769 0.62150884 -0.22058353 4
1.6619706 0.61247426 -0.15496291 5
1.6643722 0.61270046 -0.092948668 6
1.6703705 0.61424577 -0.031065283 7
1.6600658 0.60749805 0.030855855 8
1.6657584 0.608922 0.092948668 9
1.6705881 0.61068749 -0.34574592 2
1.6692885 0.60988224 0.15548584 10
1.6607068 0.60641843 -0.28001773 3
1.6596572 0.60570687 0.21692745 11
1.6672225 0.6081382 -0.21790241 4
1.667842 0.60803437 -0.15531152 5
1.6665009 0.60688663 -0.092948668 6
1.6800212 0.61114615 -0.031204903 7
1.6696976 0.60442185 0.030995475 8
1.6603609 0.60038662 0.092529982 9
1.6542472 0.59817588 -0.34192973 2
1.66766 0.60269684 0.15513723 10
1.6590977 0.59927595 -0.279392 3
1.6580273 0.59856135 0.21643998 11
1.6618662 0.59961945 -0.21692745 4
1.6755769 0.60423678 -0.15583447 5
1.6648512 0.59971148 -0.092739321 6
1.674618 0.6025694 -0.031065283 7
1.671797 0.59859014 0.030995475 8
1.6698645 0.59756947 0.092948668 9
1.6581736 0.5930593 -0.34231135 2
1.6547443 0.59150714 0.15374273 10
1.6648999 0.59480965 -0.28001773 3
1.6657147 0.59477305 0.21717119 11
1.6770363 0.59848553 -0.21863361 4
1.6781307 0.59887612 0.28220782 12
1.6664165 0.59436786 -0.1547886 5
1.6782228 0.59791863 -0.093367353 6
1.6653038 0.59298837 -0.030855855 7
1.6662333 0.59037191 0.030855855 8
1.6700572 0.59107083 0.092843994 9
1.6583825 0.5866133 -0.34192973 2
1.6567991 0.58572698 0.15374273 10
1.6631386 0.58796817 -0.279392 3
1.6676779 0.58924639 0.21717119 11
1.6790116 0.59292138 -0.21863361 4
1.6764855 0.59169936 0.28158206 12
1.6572076 0.58457017 -0.15374273 5
1.6745454 0.59035832 -0.093053341 6
1.6749085 0.58982819 -0.030995475 7
1.6626225 0.58256787 0.030751141 8
1.6815361 0.58853614 0.093367353 9
1.667731 0.58370441 -0.34345621 2
1.6624937 0.58154565 0.15409136 10
1.6577218 0.57955259 -0.27814052 3
1.6659768 0.58211148 0.21668372 11
1.6848195 0.58836538 -0.2191211 4
1.6748103 0.58454305 0.28095633 12
1.666661 0.58169883 -0.15443997 5
1.6709383 0.58253652 -0.092739321 6
1.6788456 0.58463609 -0.031030379 7
1.6703142 0.57872504 0.030855855 8
1.6665936 0.5767836 0.092425302 9
1.6734692 0.57916313 -0.34421945 2
1.6645133 0.57573926 0.15409136 10
1.6672026 0.57634372 -0.279392 3
1.6642462 0.57499564 0.21619622 11
1.6699754 0.57664979 -0.21692745 4
1.6899118 0.58320379 0.28314641 12
1.6667982 0.57522714 -0.15426566 5
1.6654085 0.57409704 -0.092320636 6
1.6884391 0.58137596 -0.031169999 7
1.6723243 0.57289064 0.030855855 8
1.6610377 0.56837726 0.092006624 9
1.6643351 0.56950557 -0.34192973 2
1.6740539 0.57250392 0.1547886 10
1.665466 0.5692423 -0.27876624 3
1.6662427 0.56918395 0.21619622 11
1.6663424 0.56889236 -0.21619622 4
1.6657637 0.56837028 0.27876624 12
1.6763388 0.57197851 -0.15496291 5
1.6749644 0.57085699 -0.092739321 6
1.6790998 0.57161325 -0.030960569 7
1.6762079 0.56769145 0.030890759 8
1.6686875 0.56449527 0.092320636 9
1.6625937 0.56243384 -0.3411665 2
1.6647176 0.56282771 0.15374273 10
1.6749284 0.56595504 -0.28001773 3
1.6719811 0.56463408 0.21668372 11
1.6796033 0.56688076 -0.21765867 4
1.6677374 0.56255257 0.27876624 12
1.6707734 0.56357664 -0.15426566 5
1.676947 0.56500638 -0.092739321 6
1.6772946 0.5644725 -0.030890759 7
1.6686978 0.55866307 0.030716237 8
1.6706477 0.55866742 0.092320636 9
1.6701324 0.5584951 -0.34231135 2
1.6628925 0.55575138 0.1533941 10
1.6619049 0.55509812 -0.27751476 3
1.6777076 0.56005186 0.21717119 11
1.6853375 0.56227201 -0.21814615 4
1.6678172 0.5561024 0.27845338 12
1.6689504 0.55648023 -0.15391703 5
1.6789087 0.5591504 -0.092739321 6
1.6830498 0.55987614 -0.030960569 7
1.6611457 0.54969323 0.030541712 8
1.6801732 0.5553391 0.092739321 9
1.6720718 0.55266136 -0.34231135 2
1.6704978 0.55181777 0.15391703 10
1.6638324 0.54929394 -0.27751476 3
1.6702268 0.55108172 0.2159525 11
1.6835197 0.55514187 -0.21765867 4
1.6810048 0.55398732 0.2803306 12
1.6765594 0.5525223 -0.15443997 5
1.6770562 0.55203712 -0.092529982 6
1.6849937 0.55399817 -0.030960569 7
1.6781636 0.54915655 0.030820949 8
1.657721 0.54214764 -0.4026624 1
1.6706148 0.54604167 0.092111297 9
1.6776276 0.54833376 -0.34307459 2
1.6742127 0.54689342 0.15409136 10
1.6656446 0.54377377 -0.27751476 3
1.6663834 0.54369313 0.21522127 11
1.6740277 0.54586315 -0.21619622 4
1.686589 0.54963434 0.28095633 12
1.676488 0.54634261 -0.15426566 5
1.6693819 0.54338139 -0.092006624 6
1.6906253 0.54964358 -0.031030379 7
1.676265 0.54206514 0.030751141 8
1.6466235 0.53216237 -0.3995131 1
1.6668092 0.53836483 0.091797277 9
1.6589811 0.5358364 -0.33887681 2
1.6761113 0.54104632 0.15409136 10
1.6712928 0.53916883 -0.27814052 3
1.6701605 0.53848183 0.21546502 11
1.6721439 0.53879911 -0.21570876 4
1.6715748 0.53829372 0.27814052 12
1.6783851 0.54048681 -0.15426566 5
1.6750709 0.53877431 -0.092215963 6
1.6849179 0.54129267 -0.030890759 7
1.6819564 0.5374282 0.030820949 8
1.657753 0.52937573 -0.4017626 1
1.6743863 0.5343653 0.092111297 9
1.65336 0.52765495 -0.33735034 2
1.6722951 0.53337634 0.15356842 10
1.6750468 0.53393108 -0.27845338 3
1.6758128 0.53385401 0.2159525 11
1.6740147 0.53295845 -0.21570876 4
1.6696789 0.53125721 0.27751476 12
1.6764644 0.53341621 -0.15391703 5
1.7081689 0.54317653 0.34841725 13
1.6807483 0.53413332 -0.092425302 6
1.679173 0.53298837 -0.030751141 7
1.6704736 0.52734029 0.030576617 8
1.6856091 0.53179389 -0.40806124 1
1.6743367 0.52791631 0.092006624 9
1.6626815 0.52424145 -0.33887681 2
1.6684457 0.52573973 0.15304548 10
1.6731319 0.52689451 -0.27782765 3
1.6814533 0.52919251 0.21643998 11
1.6777581 0.52770859 -0.2159525 4
1.6696386 0.52483368 0.27720189 12
1.6631106 0.52278167 -0.15252255 5
1.6838325 0.52897251 0.34307459 13
1.6826025 0.52826351 -0.092425302 6
1.6848396 0.52831984 -0.030820949 7
1.6684861 0.52031487 0.030506806 8
1.6707109 0.52068788 -0.40401211 1
1.678076 0.52266288 0.092111297 9
1.6645012 0.51843476 -0.33887681 2
1.6664662 0.51872778 0.15269686 10
1.6693025 0.51929021 -0.27688903 3
1.6700211 0.51919496 0.21473379 11
1.6890686 0.52479345 -0.21717119 4
1.6752337 0.52017349 0.27782765 12
1.676342 0.52051765 -0.15356842 5
1.6762935 0.52018273 0.3411665 13
1.6768057 0.52002084 -0.092006624 6
1.6866734 0.52243584 -0.030820949 7
1.6702923 0.51448715 0.030506806 8
1.6594805 0.51084065 -0.40086278 1
1.6722544 0.51445252 0.091692604 9
1.6719302 0.5143528 -0.34002164 2
1.677789 0.51583469 0.15356842 10
1.6729928 0.51404142 -0.27720189 3
1.6737208 0.51394463 0.21497753 11
1.6757083 0.51423484 -0.21522127 4
1.6864816 0.51721978 0.279392 12
1.681958 0.51583242 -0.15391703 5
1.6968699 0.5200808 0.34498268 13
1.6747915 0.51299417 -0.091797277 6
1.6923114 0.51771456 -0.030890759 7
1.6835569 0.51214594 0.030716237 8
1.6649826 0.50617808 -0.4017626 1
1.6682185 0.50716186 0.091378585 9
1.6605663 0.50451803 -0.33735034 2
1.6757663 0.50881761 0.1532198 10
1.674777 0.50819796 -0.27720189 3
1.6717056 0.5069465 0.21449007 11
1.669806 0.50637048 -0.21424633 4
1.6787354 0.50875926 0.27782765 12
1.6837485 0.50995773 -0.15391703 5
1.698675 0.51415408 0.34498268 13
1.6727484 0.50598878 -0.091587931 6
1.6863621 0.50978559 -0.030751141 7
1.6833308 0.50598496 0.030681333 8
1.6722511 0.50233549 -0.40311229 1
1.6756297 0.50335038 0.091692604 9
1.6565888 0.4973163 -0.33620548 2
1.6679025 0.50039542 0.15234824 10
1.6802377 0.5037756 -0.27782765 3
1.6809835 0.50367957 0.21546502 11
1.6771804 0.50253999 -0.21497753 4
1.6728437 0.50092328 0.27657616 12
1.673978 0.50094378 -0.15287116 5
1.7078943 0.51076865 0.34650916 13
1.6820716 0.50272703 -0.092006624 6
1.6727151 0.49961177 -0.0304719 7
1.6792487 0.49869171 0.030576617 8
1.6757758 0.49734211 -0.40356219 1
1.6773762 0.49749944 0.091692604 9
1.6657577 0.49405342 -0.33773196 2
1.6657324 0.49372885 0.15199961 10
1.6781107 0.49707925 -0.27720189 3
1.6807407 0.49754009 0.21522127 11
1.684635 0.49837229 -0.21570876 4
1.6726878 0.49452043 0.2762633 12
1.6718086 0.49426049 -0.15252255 5
1.7058128 0.50399077 0.34574592 13
1.6875604 0.49827698 -0.092215963 6
1.6859573 0.49716303 -0.030681333 7
1.6656278 0.48832583 0.030297378 8
1.6681509 0.48875028 -0.40131268 1
1.6810195 0.49220207 0.091797277 9
1.6693563 0.48878711 -0.33811355 2
1.6750946 0.49014899 0.15269686 10
1.6646677 0.48678347 -0.27469894 3
1.680562 0.49111292 0.21497753 11
1.6939865 0.49471426 -0.21668372 4
1.6838851 0.49144617 0.27782765 12
1.6735235 0.48842213 -0.15252255 5
1.6924839 0.49363524 0.34269297 13
1.6816198 0.49014726 -0.091797277 6
1.6876822 0.49127612 -0.030681333 7
1.6750054 0.48473343 0.030436996 8
1.6623589 0.48075834 -0.3995131 1
1.6769712 0.48466712 0.091483258 9
1.6767106 0.48459181 -0.33925843 2
1.6787093 0.48485288 0.15287116 10
1.6663569 0.48096928 -0.27469894 3
1.674637 0.48304263 0.21400258 11
1.6861658 0.48604932 -0.21546502 4
1.6855905 0.48556486 0.27782765 12
1.6791319 0.48338705 -0.15287116 5
1.6941969 0.48772395 0.34269297 13
1.6756427 0.48206589 -0.091378585 6
1.6930779 0.48676193 0.40671152 14
1.6970745 0.48759031 -0.030820949 7
1.6848174 0.4812052 -0.46949777 0
1.6805331 0.47998151 0.030506806 8
1.6696488 0.47655678 -0.40086278 1
1.6709702 0.47661951 0.091064572 9
1.665259 0.47467619 -0.33658707 2
1.6785592 0.47814974 0.15269686 10
1.6833075 0.47918564 -0.27720189 3
1.6782221 0.47773796 0.21424633 11
1.6744868 0.47635874 -0.21375884 4
1.6796749 0.47751695 0.27657616 12
1.684642 0.47861215 -0.1532198 5
1.7035275 0.48365632 0.34421945 13
1.6773984 0.47592068 -0.091378585 6
1.6910708 0.47948191 -0.030681333 7
1.6734709 0.47165304 -0.46587428 0
1.6899804 0.4759869 0.030646425 8
1.6695083 0.46990639 -0.40041289 1
1.676469 0.47186556 0.091273919 9
1.663126 0.46779767 -0.33582386 2
1.6763817 0.47120965 0.15234824 10
1.6830684 0.47277224 -0.27688903 3
1.689518 0.47426581 0.21546502 11
1.6819556 0.47182631 -0.21449007 4
1.6718216 0.4689835 0.27501184 12
1.6786288 0.47057709 -0.15252255 5
1.7052056 0.47770649 0.34421945 13
1.6790494 0.47006294 -0.091378585 6
1.683381 0.47095883 0.40356219 14
1.6850313 0.47142053 -0.030541712 7
1.665801 0.46322039 -0.4632861 0
1.683843 0.46823746 0.030506806 8
1.6785676 0.46645492 -0.4022125 1
1.6819545 0.46707994 0.091483258 9
1.6685324 0.46303892 -0.33658707 2
1.6703366 0.46322566 0.151651 10
1.6789161 0.46560499 -0.27595043 3
1.6891682 0.46813071 0.21522127 11
1.6892499 0.46783593 -0.21522127 4
1.6753523 0.46367216 0.2753247 12
1.6764205 0.46365282 -0.15217392 5
1.6992112 0.46995619 0.34269297 13
1.6882992 0.46662101 -0.091797277 6
1.705596 0.47108117 0.40851113 14
1.6866667 0.46553531 -0.030541712 7
1.6785057 0.46076173 -0.46639192 0
1.6738966 0.45918241 0.030297378 8
1.6764266 0.45956275 -0.40131268 1
1.6873465 0.46255624 0.091692604 9
1.6700587 0.4575029 -0.33658707 2
1.6776288 0.45926183 0.15217392 10
1.6748151 0.45817834 -0.27501184 3
1.6812181 0.45961377 0.21400258 11
1.6908728 0.46193606 -0.21522127 4
1.688314 0.46123698 0.27720189 12
1.6779487 0.45809141 -0.15217392 5
1.6970533 0.46298802 0.34192973 13
1.6822101 0.45862311 -0.091378585 6
1.7147506 0.46717405 0.41031075 14
1.6920595 0.46099198 -0.030611521 7
1.6763743 0.45389047 -0.46535668 0
1.6792704 0.4546746 0.030367188 8
1.6666549 0.45094672 -0.39861327 1
1.6773829 0.4535352 0.091064572 9
1.6754361 0.45269507 -0.33735034 2
1.6830685 0.45444211 0.15252255 10
1.6744182 0.45210651 -0.27469894 3
1.6827328 0.45403641 0.21400258 11
1.6828121 0.45374277 -0.21400258 4
1.6899136 0.45534116 0.27720189 12
1.6853092 0.45378509 -0.15269686 5
1.7023708 0.45837912 0.34269297 13
1.6798643 0.45200461 -0.091169246 6
1.7049992 0.45844859 0.40761131 14
1.6936586 0.45508236 -0.030611521 7
1.6778702 0.44832924 -0.46535668 0
1.6808473 0.44881046 0.030367188 8
1.6701019 0.44562817 -0.39906317 1
1.6788777 0.44796982 0.091064572 9
1.6674434 0.44460714 -0.33544225 2
1.6826409 0.44834572 0.15234824 10
1.6778953 0.44676676 -0.27501184 3
1.6785527 0.44662812 0.21327138 11
1.6786304 0.44633594 -0.21327138 4
1.6818689 0.44719708 0.27563757 12
1.6887306 0.44870511 -0.15287116 5
1.7039607 0.45243347 0.34269297 13
1.6814318 0.44613838 -0.091169246 6
1.6990546 0.45049605 0.40581173 14
1.6874268 0.44741297 -0.0304719 7
1.6700846 0.44000831 -0.46276847 0
1.6861938 0.44425255 0.030436996 8
1.680993 0.44256857 -0.40131268 1
1.680431 0.44210786 0.091064572 9
1.6651875 0.43778589 -0.33467901 2
1.6764879 0.44044402 0.151651 10
1.6889201 0.44371024 -0.27657616 3
1.6896243 0.44358087 0.21449007 11
1.6877819 0.44278148 -0.21424633 4
1.671955 0.43831748 0.27376035 12
1.682577 0.44078827 -0.15217392 5
1.7092497 0.44777581 0.34345621 13
1.6867663 0.44157124 -0.091378585 6
1.7005391 0.44485962 0.40581173 14
1.6889784 0.44151956 -0.0304719 7
1.6734041 0.43495402 -0.4632861 0
1.6780571 0.43584991 0.030262474 8
1.6825274 0.4366985 -0.40131268 1
1.6858306 0.43724176 0.091273919 9
1.6780323 0.43521917 -0.33696869 2
1.6817967 0.43588141 0.15199961 10
1.6828096 0.4358314 -0.2753247 3
1.6873189 0.43668509 0.21400258 11
1.6854736 0.43589276 -0.21375884 4
1.6811249 0.43445602 0.27501184 12
1.6801714 0.43420959 -0.15182531 5
1.7031987 0.43984348 0.34192973 13
1.6921655 0.43667832 -0.091587931 6
1.7058555 0.4398945 0.40671152 14
1.6866362 0.43462446 -0.030402092 7
1.7024491 0.43838152 0.47105068 15
1.6749122 0.42910963 -0.4632861 0
1.6737561 0.42850304 0.030157758 8
1.6802659 0.4298563 -0.40041289 1
1.6912167 0.43234336 0.091483258 9
1.6795413 0.42935869 -0.33696869 2
1.6833076 0.43000934 0.15199961 10
1.6766647 0.42799982 -0.27407321 3
1.6849862 0.42981082 0.2135151 11
1.6946789 0.43196914 -0.21473379 4
1.6902883 0.43053499 0.2762633 12
1.6816769 0.4283416 -0.15182531 5
1.6971134 0.43195802 0.34040326 13
1.6898079 0.42978546 -0.091378585 6
1.7224903 0.43777698 0.41031075 14
1.7036486 0.43267176 -0.030681333 7
1.7020962 0.43196219 0.47053304 15
1.6763998 0.42326081 -0.4632861 0
1.6849366 0.42510343 0.030332282 8
1.6704186 0.42112967 -0.39771348 1
1.682958 0.42429096 0.090959899 9
1.6905487 0.42589176 -0.33887681 2
1.6886626 0.42510322 0.15234824 10
1.68198 0.42310792 -0.27469894 3
1.6787753 0.42199111 0.21254015 11
1.6826994 0.42266533 -0.21302763 4
1.6917065 0.42492777 0.2762633 12
1.6908916 0.42440853 -0.15252255 5
1.7062279 0.42794219 0.34192973 13
1.6796739 0.42097056 -0.09075056 6
1.7013236 0.42608017 0.40491191 14
1.7050741 0.42701942 -0.030681333 7
1.7072676 0.42725301 0.47156835 15
1.6882777 0.41999593 0.030367188 8
1.675588 0.41652942 -0.39861327 1
1.6883053 0.41937792 0.091169246 9
1.6710654 0.41478506 -0.33467901 2
1.6940039 0.42016491 0.15269686 10
1.6872084 0.41847938 -0.2753247 3
1.6859457 0.41785479 0.21327138 11
1.682165 0.41660526 -0.21278389 4
1.6893446 0.41807052 0.27563757 12
1.6962308 0.41946137 -0.15287116 5
1.7190727 0.42510992 0.34421945 13
1.6888165 0.41731426 -0.091169246 6
1.7027272 0.42043635 0.40491191 14
1.6910223 0.41723394 -0.030402092 7
1.7068729 0.42082798 0.47105068 15
1.69556 0.41552845 0.0304719 8
1.6827103 0.4120681 -0.39996299 1
1.6858069 0.41282639 0.090959899 9
1.6724316 0.40924165 -0.33467901 2
1.6837757 0.41170606 0.151651 10
1.6924964 0.4135254 -0.27595043 3
1.691251 0.41290838 0.21375884 11
1.6893946 0.41214272 -0.2135151 4
1.6753688 0.40872103 0.27313459 12
1.6898698 0.41194618 -0.15217392 5
1.7167312 0.41817689 0.34345621 13
1.690263 0.4114162 -0.091169246 6
1.7003974 0.41356948 0.40401211 14
1.6923966 0.41162357 -0.030402092 7
1.7045047 0.41425338 0.47001541 15
1.6872096 0.40755615 0.030297378 8
1.6935391 0.40877229 -0.4022125 1
1.695004 0.40881199 0.091378585 9
1.6833929 0.40570152 -0.33658707 2
1.6793915 0.40442705 0.15112805 10
1.6784947 0.4042111 -0.27344745 3
1.6964712 0.40822607 0.21424633 11
1.6907519 0.40653855 -0.2135151 4
1.6844682 0.40471667 0.27438608 12
1.6796734 0.40325379 -0.15112805 5
1.7047455 0.40927306 0.34078491 13
1.695502 0.4067418 -0.091378585 6
1.7093396 0.40974584 0.40581173 14
1.701602 0.4075762 -0.030541712 7
1.6984249 0.40650269 0.46794486 15
1.6848011 0.40044427 0.030227568 8
1.676066 0.39805907 -0.39771348 1
1.6984342 0.40305829 0.091483258 9
1.684799 0.39982247 -0.33658707 2
1.6904861 0.40086049 0.15199961 10
1.679965 0.39805597 -0.27344745 3
1.6863656 0.39926174 0.21278389 11
1.6999578 0.40216652 -0.21449007 4
1.69363 0.4003574 0.27563757 12
1.6888267 0.39922196 -0.15182531 5
1.7024127 0.40211985 0.34002164 13
1.6892061 0.39868912 -0.090959899 6
1.7184167 0.40526685 0.40761131 14
1.6991915 0.4004198 -0.0304719 7
1.6999035 0.40027449 0.46794486 15
1.6900828 0.39547232 0.030297378 8
1.669855 0.39043173 -0.39591387 1
1.6862167 0.39394608 0.09075056 9
1.6823608 0.39304525 -0.33582386 2
1.6879945 0.39405164 0.151651 10
1.6774967 0.39129227 -0.27282172 3
1.6780827 0.39111933 0.2115652 11
1.6858844 0.39262834 -0.21254015 4
1.6950171 0.39444342 0.27563757 12
1.6902099 0.39332476 -0.15182531 5
1.6999817 0.39528516 0.33925843 13
1.6789148 0.39007863 -0.090331867 6
1.704635 0.39574003 0.40401211 14
1.7083708 0.3962931 -0.030611521 7
1.7088183 0.3960835 0.47001541 15
1.6895045 0.38912117 0.030262474 8
1.678804 0.38634902 -0.39771348 1
1.6836209 0.38745755 0.090541214 9
1.6798958 0.38629073 -0.3350606 2
1.6893599 0.38815659 0.151651 10
1.6865537 0.38720194 -0.27407321 3
1.6833074 0.38614744 0.21205269 11
1.6833749 0.38585365 -0.21205269 4
1.688614 0.38705456 0.27438608 12
1.6915727 0.387422 -0.15182531 5
1.7128336 0.39197683 0.34154812 13
1.6880543 0.38599613 -0.09075056 6
1.6984068 0.38805145 0.4022125 14
1.697979 0.38795367 -0.030402092 7
1.7101225 0.39041421 0.47001541 15
1.6985861 0.38528618 0.030402092 8
1.6857777 0.38207152 -0.39906317 1
1.688859 0.38246003 0.09075056 9
1.6774042 0.37955824 -0.33429739 2
1.6868178 0.38137886 0.15130237 10
1.6955353 0.38334984 -0.2753247 3
1.6884512 0.38143846 0.21254015 11
1.6904544 0.38158005 -0.21278389 4
1.6822468 0.37941971 0.27313459 12
1.6890272 0.38063923 -0.15147668 5
1.7141241 0.38629505 0.34154812 13
1.693222 0.38127324 -0.090959899 6
1.7034868 0.38327223 0.40311229 14
1.6954206 0.38114738 -0.030332282 7
1.707705 0.38359514 0.4689801 15
1.6882105 0.3767418 0.030192664 8
1.6985134 0.37872896 -0.4017626 1
1.6979817 0.37829936 0.091169246 9
1.6863189 0.37570095 -0.33582386 2
1.6802939 0.37405172 0.15060511 10
1.6852936 0.37485513 -0.27344745 3
1.7033373 0.37855658 0.21424633 11
1.6995274 0.37739944 -0.21375884 4
1.691275 0.37525636 0.27438608 12
1.6863902 0.37417251 -0.15112805 5
1.7116287 0.37945899 0.34078491 13
1.7023424 0.37708944 -0.091378585 6
1.7086196 0.37816623 0.40401211 14
1.6967409 0.3752265 -0.030332282 7
1.6996015 0.3755489 0.46639192 15
1.6836557 0.36955991 0.03008795 8
1.7093426 0.37488461 -0.40401211 1
1.6992918 0.37237033 0.091169246 9
1.6837844 0.36897215 -0.3350606 2
1.6874284 0.36946207 0.15112805 10
1.6827325 0.36812529 -0.27282172 3
1.6910731 0.36964154 0.21254015 11
1.7008344 0.37146422 -0.21375884 4
1.6964347 0.37019229 0.27501184 12
1.6876861 0.36828318 -0.15112805 5
1.7014337 0.37097293 0.33849517 13
1.6958424 0.36944383 -0.090959899 6
1.7213542 0.37468612 0.40671152 14
1.7058562 0.37100172 -0.0304719 7
1.7103412 0.37166455 0.4689801 15
1.6849357 0.36368015 0.03008795 8
1.6985649 0.36631256 0.091064572 9
1.6889006 0.36391905 -0.33582386 2
1.6926033 0.36440781 0.15147668 10
1.6917318 0.36391208 -0.27407321 3
1.6865307 0.36248451 0.21180893 11
1.6962982 0.36427411 -0.21302763 4
1.6995842 0.36497977 0.2753247 12
1.6928571 0.36322692 -0.15147668 5
1.7027183 0.36503109 0.33849517 13
1.6893101 0.36184826 -0.090541214 6
1.7074068 0.36541376 0.40311229 14
1.7148987 0.36701718 -0.030611521 7
1.7077862 0.36518243 0.46794486 15
1.6939563 0.35975352 0.030227568 8
1.6978793 0.35996652 0.090959899 9
1.6824778 0.35639527 -0.33429739 2
1.6938649 0.35849765 0.15147668 10
1.6967945 0.35911766 -0.27469894 3
1.6838392 0.35606873 0.21132146 11
1.6936126 0.35782582 -0.21254015 4
1.6931167 0.35741323 0.27407321 12
1.7019129 0.35895982 -0.15217392 5
1.7116033 0.3610037 0.34002164 13
1.6944095 0.35706753 -0.09075056 6
1.7047954 0.35894632 0.4022125 14
1.7044284 0.35855842 -0.030402092 7
1.7090505 0.35921848 0.46794486 15
1.7030319 0.35547221 0.030367188 8
1.6971703 0.35363057 0.090855226 9
1.6798066 0.3500126 -0.33353412 2
1.6891928 0.35166076 0.15095374 10
1.6903018 0.35158303 -0.27344745 3
1.6928461 0.35180488 0.21229641 11
1.694851 0.35191298 -0.21254015 4
1.6846831 0.34949422 0.27250886 12
1.689438 0.35048065 -0.15095374 5
1.7166977 0.35582417 0.34078491 13
1.7034683 0.352772 -0.091169246 6
1.7136712 0.35457221 0.40401211 14
1.6978365 0.3509869 -0.030262474 7
1.7065101 0.35247025 0.46690959 15
1.6925088 0.34711438 0.030157758 8
1.7003511 0.34810433 0.090959899 9
1.6771716 0.34335887 -0.33277091 2
1.6884582 0.34536251 0.15077944 10
1.6876477 0.34489077 -0.27282172 3
1.7037888 0.34787875 0.2135151 11
1.6960692 0.34599426 -0.21254015 4
1.6936349 0.34519064 0.27376035 12
1.6906509 0.34458247 -0.15095374 5
1.7102343 0.34826216 0.33925843 13
1.7046894 0.34682319 -0.091169246 6
1.7187178 0.34936494 0.40491191 14
1.7029706 0.34585452 -0.030332282 7
1.7058367 0.34612662 0.46639192 15
1.6937101 0.34120464 0.030157758 8
1.705412 0.34325236 0.091169246 9
1.6879835 0.33943713 -0.33467901 2
1.6896533 0.33946696 0.15077944 10
1.684968 0.33821973 -0.27219599 3
1.6972073 0.34036753 0.21254015 11
1.7011594 0.34085211 -0.21302763 4
1.7025179 0.3411243 0.27501184 12
1.6918435 0.33867842 -0.15095374 5
1.703739 0.34074962 0.33773196 13
1.7019725 0.34008825 -0.090959899 6
1.7199267 0.34336373 0.40491191 14
1.702147 0.33981422 -0.030297378 7
1.7107644 0.34122327 0.46742722 15
1.6909091 0.33480978 0.03008795 8
1.6987624 0.33574781 0.09075056 9
1.6891578 0.33354408 -0.33467901 2
1.6966922 0.33472329 0.15130237 10
1.6899565 0.3333945 -0.27282172 3
1.6885885 0.33281848 0.21132146 11
1.6944897 0.33367437 -0.21205269 4
1.7036984 0.33517888 0.27501184 12
1.7027904 0.33469158 -0.15182531 5
1.7125652 0.33661288 0.33925843 13
1.6874125 0.33136308 -0.090122528 6
1.7134069 0.33615717 0.40311229 14
1.7131346 0.33579332 -0.0304719 7
1.7100492 0.33487862 0.46690959 15
1.6959934 0.32966802 0.030157758 8
1.6979634 0.32943594 0.090645887 9
1.6826025 0.32615092 -0.33315253 2
1.7017047 0.32985365 0.151651 10
1.6949885 0.32824489 -0.27344745 3
1.6994847 0.32880789 0.21254015 11
1.691746 0.32700434 -0.2115652 4
1.6951603 0.32735658 0.27344745 12
1.7019919 0.3283686 -0.151651 5
1.717643 0.33107728 0.34002164 13
1.6964606 0.32668647 -0.090541214 6
1.7107428 0.32943678 0.4022125 14
1.7064416 0.32830048 -0.030332282 7
1.7225904 0.33109561 0.47001541 15
1.7011191 0.32419798 0.030227568 8
1.6971973 0.32283753 0.090541214 9
1.6837866 0.31998125 -0.33315253 2
1.6931156 0.3217541 0.15077944 10
1.7000618 0.32276672 -0.27407321 3
1.7026286 0.32294706 0.21278389 11
1.7007347 0.32227951 -0.21254015 4
1.6866442 0.3193045 0.27188313 12
1.6914378 0.3199071 -0.15060511 5
1.7227032 0.32550815 0.34078491 13
1.7015716 0.32120776 -0.09075056 6
1.7195983 0.32461071 0.40401211 14
1.6997733 0.32056111 -0.030192664 7
1.7161986 0.32334855 0.46794486 15
1.6924675 0.31612548 0.030053046 8
1.7022406 0.31764349 0.09075056 9
1.6984034 0.31662074 -0.33582386 2
1.6884073 0.31445235 0.1502565 10
1.6934651 0.31508854 -0.27282172 3
1.7077043 0.31742957 0.21327138 11
1.7058079 0.31676906 -0.21302763 4
1.6896906 0.31377611 0.27219599 12
1.6945033 0.3143639 -0.15077944 5
1.7122465 0.31734651 0.33849517 13
1.710538 0.31672108 -0.091169246 6
1.7246089 0.31901515 0.40491191 14
1.7048146 0.31535363 -0.030262474 7
1.7135175 0.31665421 0.46690959 15
1.6876056 0.30942971 0.02994833 8
1.709233 0.31277773 0.091064572 9
1.6934147 0.30927226 0.15060511 10
1.6906142 0.30876082 -0.27219599 3
1.7009362 0.31033918 0.21229641 11
1.7029432 0.31039912 -0.21254015 4
1.7004927 0.309645 0.27376035 12
1.6936301 0.30809003 -0.15060511 5
1.7094265 0.31096354 0.33773196 13
1.6997885 0.30890465 -0.090541214 6
1.7294923 0.31399015 0.40581173 14
1.7098402 0.31011406 -0.030332282 7
1.7146124 0.31067133 0.46690959 15
1.69458 0.30459785 0.030053046 8
1.7024508 0.30539924 0.090645887 9
1.6963921 0.30400679 0.15077944 10
1.6975149 0.30390224 -0.27313459 3
1.6941926 0.30300236 0.21132146 11
1.6961997 0.30305579 -0.2115652 4
1.7073971 0.30474895 0.27469894 12
1.702541 0.30357561 -0.15130237 5
1.7182325 0.30637354 0.33925843 13
1.6929911 0.30156791 -0.090122528 6
1.7267405 0.30726871 0.40491191 14
1.7109122 0.30414408 -0.030332282 7
1.7347072 0.30806175 0.47208595 15
1.6995716 0.29937497 0.030122854 8
1.6976053 0.29841688 0.090331867 9
1.703382 0.29882032 0.15130237 10
1.7005633 0.29801905 -0.27344745 3
1.7011061 0.29811418 0.21205269 11
1.6972473 0.29713267 -0.2115652 4
1.700667 0.29742631 0.27344745 12
1.7035904 0.29763031 -0.15130237 5
1.723212 0.30074847 0.34002164 13
1.7058904 0.2974194 -0.09075056 6
1.7086568 0.29759362 0.40041289 14
1.7040834 0.29679713 -0.030192664 7
1.7105106 0.29484168 0.030297378 8
1.7025731 0.29316834 0.090541214 9
1.7004877 0.29219732 0.15095374 10
1.7054869 0.29275075 -0.27407321 3
1.7061002 0.29254869 0.21254015 11
1.7022382 0.29158062 -0.21205269 4
1.6939069 0.29015356 0.27219599 12
1.7046187 0.29168302 -0.15130237 5
1.7242514 0.29473186 0.34002164 13
1.7029809 0.29079014 -0.090541214 6
1.7173692 0.29293773 0.4022125 14
1.7090516 0.29151896 -0.030262474 7
1.7035919 0.28783473 0.030157758 8
1.7055556 0.28755507 0.090645887 9
1.693638 0.28493786 0.1502565 10
1.6986563 0.28578213 -0.27282172 3
1.7109762 0.2875478 0.21302763 11
1.7071111 0.28659105 -0.21254015 4
1.6968576 0.28456602 0.27250886 12
1.6899065 0.28309709 -0.14990787 5
1.7136015 0.28706655 0.33773196 13
1.7118152 0.28645936 -0.090959899 6
1.7260193 0.28852749 0.40401211 14
1.7140033 0.28621137 -0.030332282 7
1.6927489 0.27993 0.02994833 8
1.7124114 0.28287372 0.090959899 9
1.7004713 0.28029245 0.15077944 10
1.6957453 0.27920866 -0.27219599 3
1.7041346 0.28028452 0.21205269 11
1.7120185 0.28127518 -0.21302763 4
1.7036395 0.27989855 0.27344745 12
1.6987004 0.27878183 -0.15060511 5
1.7107184 0.28044754 0.33696869 13
1.7049205 0.27919239 -0.090541214 6
1.727016 0.28250033 0.40401211 14
1.7129695 0.28020266 -0.030297378 7
1.7035377 0.27591318 0.030122854 8
1.7074734 0.27593821 0.090645887 9
1.6994723 0.27403736 0.15060511 10
1.7005622 0.27421311 -0.27282172 3
1.6972154 0.27336872 0.21107772 11
1.7011827 0.27370393 -0.2115652 4
1.7065566 0.27426305 0.27376035 12
1.7035978 0.2734817 -0.15095374 5
1.715516 0.27539492 0.33773196 13
1.701893 0.27290419 -0.090331867 6
1.7125496 0.27430645 0.40041289 14
1.7218356 0.2754848 -0.030436996 7
1.7123909 0.27121589 0.030262474 8
1.7044334 0.26965147 0.090436541 9
1.7082438 0.26964229 0.15130237 10
1.7054116 0.26889104 -0.27344745 3
1.7040418 0.26837027 0.21180893 11
1.7021277 0.26776358 -0.2115652 4
1.7035539 0.26798794 0.27313459 12
1.7123681 0.26906827 -0.151651 5
1.7203456 0.270015 0.33849517 13
1.7028353 0.26696137 -0.090331867 6
1.7173471 0.26892939 0.40131268 14
1.710886 0.26791757 -0.030227568 7
1.7132809 0.26553622 0.030262474 8
1.7112858 0.26461542 0.09075056 9
1.699329 0.26215923 0.15043081 10
1.7127701 0.2639268 0.21278389 11
1.7069303 0.26272199 -0.21205269 4
1.7005742 0.26143986 0.27250886 12
1.7014811 0.26127532 -0.15060511 5
1.7251127 0.26490414 0.33925843 13
1.7116078 0.2625246 -0.09075056 6
1.7220821 0.26382351 0.4022125 14
1.7078573 0.26133922 -0.030157758 7
1.7024242 0.25716326 0.030053046 8
1.714219 0.25863978 0.090855226 9
1.6963383 0.2553356 0.15008219 10
1.711808 0.25705394 0.21254015 11
1.7078818 0.25646436 -0.21205269 4
1.701521 0.25520474 0.27250886 12
1.6984863 0.25444731 -0.1502565 5
1.7222338 0.25769758 0.33849517 13
1.7086527 0.25535977 -0.090541214 6
1.7268921 0.25808567 0.40311229 14
1.7127591 0.25566873 -0.030227568 7
1.6993111 0.25093251 0.029983234 8
1.7190192 0.25353619 0.091064572 9
1.7070315 0.2511594 0.15095374 10
1.7067587 0.25051063 0.21180893 11
1.716579 0.25195202 -0.21302763 4
1.7101759 0.25070733 0.27376035 12
1.6993208 0.24881308 -0.1502565 5
1.7114234 0.25028005 0.33620548 13
1.7055374 0.24911526 -0.090331867 6
1.7315952 0.25292131 0.40401211 14
1.7215128 0.25114182 -0.030367188 7
1.7080506 0.24643859 0.030122854 8
1.7100092 0.2461119 0.090541214 9
1.7039107 0.24492985 0.15060511 10
1.69972 0.24372277 0.21083398 11
1.7056578 0.24426956 -0.2115652 4
1.7149515 0.24529593 0.27438608 12
1.7120132 0.24456994 -0.15130237 5
1.7200609 0.2454133 0.33773196 13
1.7044193 0.24287891 -0.090227202 6
1.7208917 0.24522623 0.40131268 14
1.7263384 0.24569415 -0.030436996 7
1.704982 0.23961958 0.030053046 8
1.7089218 0.23956503 0.090436541 9
1.7126895 0.23978846 0.15130237 10
1.7064999 0.23831457 0.2115652 11
1.7026095 0.23746835 -0.21107772 4
1.7021437 0.23710054 0.27219599 12
1.7089515 0.23774479 -0.15095374 5
1.7209488 0.23910767 0.33773196 13
1.711233 0.23745339 -0.090541214 6
1.7179186 0.23838109 0.40041289 14
1.7153426 0.23771852 -0.030227568 7
1.7137737 0.23445345 0.030192664 8
1.7157252 0.23411037 0.09075056 9
1.7036861 0.23216477 0.15043081 10
1.71523 0.23312812 0.21254015 11
1.7113366 0.23229477 -0.21205269 4
1.6951715 0.22979839 0.27094454 12
1.7018735 0.23070695 -0.1502565 5
1.729555 0.23415291 0.33925843 13
1.71601 0.23201416 -0.09075056 6
1.7265058 0.23312563 0.4022125 14
1.7142208 0.23116221 -0.030192664 7
1.7086352 0.227677 0.03008795 8
1.7125723 0.22759327 0.090541214 9
1.698561 0.22542956 0.14990787 10
1.7140656 0.22687849 0.21229641 11
1.7121372 0.22631921 -0.21205269 4
1.7018383 0.22465649 0.27188313 12
1.6987178 0.22424458 -0.14990787 5
1.7186834 0.22657418 0.33696869 13
1.7207696 0.22654369 -0.090959899 6
1.7331051 0.22786082 0.40356219 14
1.7209651 0.22595835 -0.030297378 7
1.6955378 0.21991126 0.029843615 8
1.7232211 0.223196 0.091064572 9
1.7052654 0.22026516 0.15043081 10
1.7089406 0.2201326 0.2115652 11
1.7207921 0.22135478 -0.21302763 4
1.7084516 0.21976736 0.27282172 12
1.707395 0.21932854 -0.15060511 5
1.7155693 0.2200734 0.33620548 13
1.7096635 0.21901338 -0.090331867 6
1.721705 0.22025053 -0.030297378 7
1.7022096 0.21503969 0.02994833 8
1.7140819 0.21593086 0.090541214 9
1.7159083 0.21555254 0.15130237 10
1.7076914 0.21421763 0.21132146 11
1.7215166 0.21564755 -0.21302763 4
1.7150887 0.21453752 0.27376035 12
1.7041961 0.21287292 -0.1502565 5
1.7260301 0.21560022 0.33811355 13
1.7064166 0.21284866 -0.090122528 6
1.730401 0.21522613 -0.030436996 7
1.7148585 0.2105583 0.030157758 8
1.7108234 0.20976061 0.090331867 9
1.7166135 0.20986155 0.15130237 10
1.7084289 0.20825572 0.21132146 11
1.709908 0.20813319 0.27282172 12
1.7167597 0.20866232 -0.15130237 5
1.7267721 0.2095743 0.33811355 13
1.7150803 0.20785156 -0.090541214 6
1.7191939 0.20804484 -0.030227568 7
1.7195187 0.20534424 0.030227568 8
1.7155118 0.20425928 0.090541214 9
1.7015076 0.20198955 0.14990787 10
1.7189665 0.2037579 0.21254015 11
1.7047389 0.20146807 0.27188313 12
1.7056056 0.20126867 -0.1502565 5
1.7313571 0.20430747 0.33887681 13
1.7276613 0.20356481 -0.091169246 6
1.7119656 0.20111042 -0.03008795 7
1.7122793 0.19842118 0.03008795 8
1.7162144 0.19826931 0.090541214 9
1.7061267 0.19680299 0.1502565 10
1.7176951 0.19752911 0.21229641 11
1.7034692 0.19529074 0.27157027 12
1.7023388 0.19486016 -0.14990787 5
1.7320597 0.1982622 0.33887681 13
1.73233 0.19798684 -0.091378585 6
1.724578 0.19649109 -0.030297378 7
1.7010384 0.19110306 0.029878521 8
1.7248353 0.1931669 0.090959899 9
1.7068366 0.19054715 0.1502565 10
1.7183741 0.19153239 0.21229641 11
1.7198471 0.19108799 0.27407321 12
1.7109296 0.18979575 -0.15060511 5
1.7249694 0.19104844 0.33735034 13
1.7151775 0.18966013 -0.090436541 6
1.7332039 0.19134811 -0.030436996 7
1.7116674 0.18594654 0.030053046 8
1.7175893 0.18598329 0.090541214 9
1.7193763 0.18587323 0.15130237 10
1.7052488 0.18374383 0.21059024 11
1.7185718 0.18457258 0.27376035 12
1.7155439 0.18424739 -0.15095374 5
1.72953 0.18544418 0.33811355 13
1.7118574 0.18324709 -0.090227202 6
1.7239516 0.18393312 -0.030262474 7
1.7162833 0.18038899 0.030122854 8
1.7142551 0.17957085 0.090331867 9
1.7120883 0.17904182 0.15060511 10
1.7118031 0.17840798 0.21132146 11
1.7172407 0.17836799 0.27344745 12
1.7161765 0.17825745 -0.15095374 5
1.7340723 0.17981121 0.33887681 13
1.7144731 0.17747648 -0.090331867 6
1.7245831 0.17791465 -0.030262474 7
1.7268499 0.17540771 0.030297378 8
1.7128541 0.17368324 0.090227202 9
1.7127029 0.17306478 0.15060511 10
1.7222911 0.17342554 0.21254015 11
1.7001334 0.1708955 0.27063167 12
1.7088584 0.17147045 -0.1502565 5
1.7464104 0.17493063 0.3411665 13
1.7270062 0.17268343 -0.090959899 6
1.7132248 0.17100261 -0.030053046 7
1.7154815 0.16850692 0.03008795 8
1.7273642 0.16906542 0.090959899 9
1.6994157 0.16573112 0.14938495 10
1.7248324 0.16790593 0.21278389 11
1.7066181 0.16553153 0.27157027 12
1.7094465 0.16550474 -0.1502565 5
1.7274395 0.16724677 0.33735034 13
1.7275695 0.16695504 -0.090959899 6
1.7297353 0.16655497 -0.030332282 7
1.7140685 0.16232876 0.030053046 8
1.7279438 0.16303511 0.090959899 9
1.709874 0.16102831 0.1502565 10
1.7175022 0.16114275 0.21180893 11
1.7248867 0.16122742 0.27438608 12
1.7219164 0.16064748 -0.15130237 5
1.7299676 0.16139862 0.33773196 13
1.7241645 0.16055286 -0.09075056 6
1.730306 0.16051641 -0.030332282 7
1.7186073 0.1567089 0.030122854 8
1.7165681 0.155918 0.090331867 9
1.7223583 0.15583782 0.15130237 10
1.7160773 0.15496758 0.2115652 11
1.7313415 0.15573676 0.2753247 12
1.7481464 0.15663245 0.3411665 13
1.716784 0.15352122 -0.090331867 6
1.7388228 0.15518612 -0.0304719 7
1.7231545 0.15075615 0.030192664 8
1.717128 0.14962579 0.090331867 9
1.7268617 0.15016949 0.151651 10
1.7146561 0.1485059 0.21132146 11
1.7161559 0.14803231 0.27282172 12
1.7212894 0.14786902 -0.090541214 6
1.7314104 0.14813052 -0.030332282 7
1.7336335 0.14557815 0.030367188 8
1.7216206 0.1439634 0.090541214 9
1.7194334 0.14347917 0.15095374 10
1.7270337 0.14350556 0.21278389 11
1.7087877 0.14138888 0.27157027 12
1.729757 0.14251688 -0.090959899 6
1.7279309 0.1417584 -0.030262474 7
1.7181852 0.13824229 0.03008795 8
1.7300518 0.13889235 0.090959899 9
1.7119795 0.13684089 0.1502565 10
1.7354394 0.13810648 0.21375884 11
1.7151546 0.136191 0.27250886 12
1.7342261 0.13679168 -0.091169246 6
1.7283915 0.13602711 -0.030262474 7
1.7106591 0.13192829 0.02994833 8
1.7344856 0.13346134 0.091169246 9
1.7183838 0.13161904 0.15077944 10
1.7220324 0.13129474 0.21205269 11
1.7234756 0.13110143 0.27376035 12
1.7187376 0.12983596 -0.090331867 6
1.7328211 0.13059571 -0.030332282 7
1.7190642 0.12684377 0.03008795 8
1.7209754 0.12668282 0.090436541 9
1.7188107 0.12592028 0.15077944 10
1.7184986 0.12529439 0.2115652 11
1.7239008 0.12538581 0.27376035 12
1.7191586 0.12413606 -0.090331867 6
1.7372339 0.12513562 -0.030402092 7
1.7274544 0.12170411 0.030227568 8
1.7213862 0.1209755 0.090436541 9
1.719219 0.12021933 0.15077944 10
1.7228653 0.11987086 0.21205269 11
1.7183952 0.11925768 0.27282172 12
1.7195609 0.11843396 -0.090331867 6
1.7256691 0.1185529 -0.030192664 7
1.73589 0.11560219 0.030367188 8
1.7238508 0.11419607 0.090541214 9
1.7137035 0.11322348 0.1502565 10
1.7252938 0.11338442 0.21229641 11
1.7109754 0.11184366 0.27157027 12
1.7279751 0.1123492 -0.09075056 6
1.7261313 0.11162429 -0.030192664 7
1.7243086 0.10878699 0.030157758 8
1.7322123 0.1086778 0.090959899 9
1.7140883 0.10724121 0.1502565 10
1.7355853 0.10797717 0.2135151 11
1.7172704 0.10623603 0.27250886 12
1.7403177 0.10705288 -0.091378585 6
1.7265104 0.10559782 -0.030192664 7
1.7226816 0.10264797 0.030122854 8
1.7345569 0.10305178 0.091064572 9
1.720419 0.10160922 0.15077944 10
1.7300066 0.10156953 0.21278389 11
1.7333891 0.10146456 0.27501184 12
1.7428217 0.10079594 -0.0304719 7
1.7230126 0.096935131 0.030122854 8
1.7249354 0.096439332 0.090541214 9
1.7227526 0.095714107 0.15095374 10
1.7243878 0.095503084 0.21205269 11
1.7337328 0.095412828 0.27501184 12
1.7471565 0.094929092 -0.030541712 7
1.7273344 0.091131181 0.030192664 8
1.7252614 0.090417139 0.090541214 9
1.7310191 0.090416782 0.151651 10
1.7346228 0.089997075 0.21327138 11
1.7182732 0.088547453 0.27250886 12
1.7354946 0.088220216 -0.030332282 7
1.7336338 0.085395783 0.030297378 8
1.7295563 0.084589787 0.09075056 9
1.7253542 0.08408244 0.15112805 10
1.7329435 0.083845988 0.21302763 11
1.7317971 0.081972942 -0.030262474 7
1.7259307 0.078977652 0.030157758 8
1.7418122 0.079095148 0.091378585 9
1.7156854 0.07760869 0.1502565 10
1.7312425 0.077706911 0.21278389 11
1.7360682 0.076102033 -0.030332282 7
1.728194 0.073037349 0.030192664 8
1.7420778 0.073014133 0.091378585 9
1.7199272 0.07178589 0.15060511 10
1.7295198 0.071580723 0.21254015 11
1.7403195 0.070202298 -0.030402092 7
1.7344329 0.067236304 0.030297378 8
1.7303473 0.066473879 0.09075056 9
1.7321129 0.066238143 0.151651 10
1.7297591 0.065544322 0.21254015 11
1.7405539 0.06412822 -0.030402092 7
1.7326586 0.061112303 0.030262474 8
1.7225846 0.060154159 0.090331867 9
1.7343247 0.06026192 0.15182531 10
1.7279936 0.059437241 0.21229641 11
1.7367699 0.0579184 -0.030332282 7
1.7368587 0.055190377 0.030332282 8
1.7327654 0.054454893 0.090855226 9
1.7265588 0.053958222 0.15112805 10
1.7460479 0.053957254 0.21449007 11
1.7330431 0.049013749 0.030262474 8
1.732945 0.048405621 0.090855226 9
1.7207618 0.047764767 0.15060511 10
1.7343194 0.047535282 0.21302763 11
1.7232083 0.042716589 0.03008795 8
1.7510734 0.042794928 0.091797277 9
1.7288852 0.041951586 0.15130237 10
1.7384439 0.041575551 0.2135151 11
1.733343 0.03691363 0.030262474 8
1.7392311 0.036431685 0.091169246 9
1.736989 0.036081444 0.15199961 10
1.734609 0.035426293 0.21302763 11
1.7354605 0.030898871 0.030297378 8
1.7353485 0.030593922 0.090959899 9
1.7410885 0.030087216 0.15234824 10
1.7386918 0.02943874 0.2135151 11
1.7375531 0.025173023 0.030332282 8
1.7394346 0.024895819 0.091169246 9
1.7292255 0.024146827 0.15130237 10
1.7367949 0.023645364 0.21327138 11
1.7376269 0.019410471 0.030332282 8
1.7435051 0.018867496 0.091378585 9
1.7312883 0.018433109 0.15147668 10
1.7428186 0.017947486 0.21400258 11
1.7276858 0.013267657 0.030157758 8
1.7475548 0.012811064 0.091587931 9
1.7253652 0.012346442 0.15095374 10
1.7377201 0.0072799018 0.030332282 8
1.7316109 0.0066490634 0.09075056 9
1.737352 0.0063687256 0.15199961 10
1.735618 0.00060633261 0.090959899 9
1.7413484 0.00030443017 0.15234824 10
1.747593 -0.0054902434 0.091587931 9
1.7393465 -0.0057679126 0.15217392 10
1.7475634 -0.011590449 0.091587931 9
1.7213826 -0.012017712 0.15060511 10
1.759492 -0.018118907 0.092215963 9
1.7292992 -0.018109839 0.15130237 10
1.7434413 -0.024040269 0.091378585 9
1.73719 -0.024560582 0.15199961 10
1.745349 -0.029855754 0.091483258 9
1.7450674 -0.030460263 0.15269686 10
1.7512248 -0.036071368 0.091797277 9
1.7389746 -0.036426321 0.15217392 10
1.7530849 -0.042232171 0.091901943 9
1.7288852 -0.041951116 0.15130237 10
1.7247367 -0.048176255 0.15095374 10
