# .PCD v0.7 - Point Cloud Data file format
VERSION 0.7
FIELDS x y z intensity
SIZE 4 4 4 4
TYPE F F F F
COUNT 1 1 1 1
WIDTH 1328
HEIGHT 1
VIEWPOINT 0 0 0 1 0 0 0
POINTS 1328
DATA ascii
1.1389698 -0.52603668 -0.15404287 4
1.1371267 -0.53000921 -0.15404287 4
1.1389557 -0.53546631 -0.15453033 4
1.1407611 -0.54094142 -0.15501782 4
1.1352845 -0.54320651 -0.15453033 4
1.126231 -0.54371393 -0.15355539 4
1.1207567 -0.54590338 -0.1530679 4
1.1313157 -0.55594075 -0.15477408 4
1.1258111 -0.55812293 -0.15428659 4
1.1309577 -0.56560099 -0.15526156 4
1.1112533 -0.56060427 -0.15282416 4
1.1092896 -0.56447989 -0.15282416 4
1.1143767 -0.5719744 -0.15379913 4
1.1124737 -0.57566667 -0.15379913 4
1.117497 -0.58322024 -0.15477408 4
1.1049144 -0.58156991 -0.15331164 4
1.0993711 -0.58356178 -0.15282416 4
1.1008275 -0.58926934 -0.15331164 4
1.1057513 -0.59688014 -0.15428659 4
1.1036609 -0.60073632 -0.15428659 4
1.0911161 -0.59885454 -0.15282416 4
1.0890191 -0.60265958 -0.15282416 4
1.0938427 -0.61032623 -0.15379913 4
1.0986261 -0.61803383 -0.15477408 4
1.0981888 -0.62284434 -0.15501782 4
1.0891148 -0.62273264 -0.15404287 4
1.0886542 -0.62752187 -0.15428659 4
1.0847408 -0.63032085 -0.15404287 4
1.0842468 -0.63510668 -0.15428659 4
1.0872633 -0.64172572 -0.15501782 4
1.0747807 -0.63942736 -0.15355539 4
1.075947 -0.64521694 -0.15404287 4
1.077086 -0.65102237 -0.15453033 4
1.0748069 -0.65477818 -0.15453033 4
1.0792814 -0.66268069 -0.15550528 4
1.0668335 -0.66017663 -0.15404287 4
1.057785 -0.65969461 -0.1530679 4
1.06556 -0.66972095 -0.15453033 4
1.0716009 -0.67874753 -0.15574904 4
1.0675516 -0.68141586 -0.15550528 4
1.0551493 -0.67869484 -0.15404287 4
1.0494423 -0.68021452 -0.15355539 4
1.0570335 -0.69038665 -0.15501782 4
1.0547383 -0.69388813 -0.15501782 4
1.0506551 -0.69646883 -0.15477408 4
1.440004 -0.037707835 -0.12602721 5
1.4199412 -0.042390916 -0.12428409 5
1.4158019 -0.047214359 -0.12393546 5
1.4136374 -0.052082792 -0.12376115 5
1.3895577 -0.056053314 -0.12166941 5
1.3833823 -0.060641684 -0.12114649 5
1.393113 -0.065941229 -0.12201804 5
1.4008336 -0.071208283 -0.12271529 5
1.4045554 -0.076313861 -0.12306391 5
1.3883818 -0.08005359 -0.12166941 5
1.3880939 -0.084899463 -0.12166941 5
1.3838127 -0.089487143 -0.12132079 5
1.383492 -0.094317019 -0.12132079 5
1.3911034 -0.099715531 -0.12201804 5
1.3748525 -0.10337568 -0.12062354 5
1.3744833 -0.10817419 -0.12062354 5
1.3740973 -0.11297137 -0.12062354 5
1.3677393 -0.11725662 -0.12010061 5
1.3752596 -0.12273865 -0.12079786 5
1.3589519 -0.12606616 -0.11940337 5
1.3545372 -0.13042709 -0.11905474 5
1.3560561 -0.1353524 -0.11922905 5
1.3674666 -0.14131393 -0.12027492 5
1.3570594 -0.1450278 -0.11940337 5
1.346643 -0.14867075 -0.1185318 5
1.3441362 -0.15314497 -0.11835749 5
1.3475512 -0.15830088 -0.11870612 5
1.3430343 -0.16252501 -0.11835749 5
1.3464131 -0.16770463 -0.11870612 5
1.3339621 -0.17088448 -0.11766025 5
1.3294373 -0.17478769 -0.11731163 5
1.3288504 -0.17919528 -0.11731163 5
1.3282487 -0.18360095 -0.11731163 5
1.3393694 -0.190382 -0.11835749 5
1.3189811 -0.19218343 -0.11661438 5
1.314361 -0.19619805 -0.11626577 5
1.3176072 -0.20138687 -0.11661438 5
1.3208331 -0.20660074 -0.116963 5
1.3240386 -0.21183962 -0.11731163 5
1.3075609 -0.21388701 -0.11591713 5
1.2989459 -0.21713594 -0.11521988 5
1.3099638 -0.22368091 -0.11626577 5
1.3091751 -0.22825219 -0.11626577 5
1.3083704 -0.23282067 -0.11626577 5
1.2997084 -0.23596273 -0.11556852 5
1.2910404 -0.23904712 -0.11487127 5
1.2941136 -0.24429138 -0.11521988 5
1.3049922 -0.25106567 -0.11626577 5
1.3001974 -0.25485295 -0.11591713 5
1.2875769 -0.25704956 -0.11487127 5
1.2827668 -0.26074871 -0.11452264 5
1.2779467 -0.26441744 -0.11417402 5
1.2809153 -0.2696977 -0.11452264 5
1.2838625 -0.27500188 -0.11487127 5
1.2712144 -0.27693713 -0.1138254 5
1.2663494 -0.28051102 -0.11347678 5
1.2789686 -0.28799346 -0.11469696 5
1.2701868 -0.29067829 -0.11399971 5
1.2711049 -0.29556155 -0.11417402 5
1.2623094 -0.2981647 -0.11347678 5
1.2535112 -0.30071005 -0.11277953 5
1.2543896 -0.30555528 -0.11295383 5
1.2591178 -0.31136695 -0.11347678 5
1.2599558 -0.31624523 -0.11365108 5
1.2530521 -0.31916606 -0.11312816 5
1.2403562 -0.32054698 -0.11208228 5
1.2469387 -0.32689565 -0.11277953 5
1.253492 -0.33329418 -0.11347678 5
1.252321 -0.33766764 -0.11347678 5
1.2415253 -0.33940998 -0.11260521 5
1.234573 -0.34214532 -0.11208228 5
1.2333711 -0.34645271 -0.11208228 5
1.237903 -0.35239235 -0.11260521 5
1.2405564 -0.35759917 -0.11295383 5
1.2278256 -0.35857612 -0.11190797 5
1.2227455 -0.3617295 -0.11155935 5
1.2252924 -0.36713919 -0.11190797 5
1.2278817 -0.3723568 -0.1122566 5
1.2303835 -0.3778103 -0.11260521 5
1.2139025 -0.37715906 -0.11121072 5
1.2125787 -0.38139406 -0.11121072 5
1.2187661 -0.38825485 -0.11190797 5
1.2249886 -0.3949523 -0.11260521 5
1.2198143 -0.39798996 -0.1122566 5
1.2032819 -0.39724863 -0.11086211 5
1.1999981 -0.40081525 -0.11068779 5
1.2005501 -0.40542981 -0.11086211 5
1.2048557 -0.41133997 -0.11138504 5
1.207179 -0.41684374 -0.11173366 5
1.1944306 -0.41711384 -0.11068779 5
1.1854526 -0.41862687 -0.10999054 5
1.1914896 -0.42544231 -0.11068779 5
1.1862491 -0.42824572 -0.11033916 5
1.1978486 -0.43716538 -0.11155935 5
1.1889148 -0.4383781 -0.11086211 5
1.1799864 -0.43953642 -0.11016486 5
1.1859033 -0.44646052 -0.11086211 5
1.1842589 -0.45080411 -0.11086211 5
1.1863973 -0.45636579 -0.11121072 5
1.1773688 -0.45761713 -0.11051348 5
1.1721356 -0.46006304 -0.11016486 5
1.1743079 -0.4654156 -0.11051348 5
1.1800748 -0.47247413 -0.11121072 5
1.1728772 -0.4743495 -0.11068779 5
1.1638366 -0.47542688 -0.10999054 5
1.1603283 -0.47872669 -0.10981624 5
1.1623282 -0.48430663 -0.11016486 5
1.1606307 -0.488361 -0.11016486 5
1.1662538 -0.49552584 -0.11086211 5
1.1608549 -0.49802279 -0.11051348 5
1.1372564 -0.49237052 -0.10842174 5
1.1428334 -0.49952912 -0.10911899 5
1.1501968 -0.50753701 -0.10999054 5
1.152058 -0.51317024 -0.11033916 5
1.1448084 -0.51473743 -0.10981624 5
1.1357474 -0.51543689 -0.10911899 5
1.141187 -0.52271706 -0.10981624 5
1.1466818 -0.5298413 -0.11051348 5
1.1412139 -0.53215677 -0.11016486 5
1.1285328 -0.53104717 -0.10911899 5
1.1249655 -0.53393233 -0.10894467 5
1.1321745 -0.54196125 -0.10981624 5
1.1338638 -0.54764295 -0.11016486 5
1.1355273 -0.55334306 -0.11051348 5
1.117497 -0.54939222 -0.10894467 5
1.1084328 -0.5497486 -0.10824744 5
1.1118525 -0.5562889 -0.10877036 5
1.1099039 -0.5601666 -0.10877036 5
1.1185951 -0.56946093 -0.10981624 5
1.1041938 -0.56699133 -0.10859605 5
1.0951312 -0.56717712 -0.10789881 5
1.112672 -0.58094925 -0.10981624 5
1.1000597 -0.57925975 -0.10877036 5
1.1050696 -0.58683389 -0.10946761 5
1.0959889 -0.58692551 -0.10877036 5
1.0921804 -0.58980083 -0.10859605 5
1.0883652 -0.59265691 -0.10842174 5
1.1002614 -0.60412389 -0.10981624 5
1.1016321 -0.60989076 -0.11016486 5
1.0890582 -0.60790592 -0.10911899 5
1.0938749 -0.61561239 -0.10981624 5
1.0882534 -0.61746049 -0.10946761 5
1.0895505 -0.62323403 -0.10981624 5
1.0873684 -0.62703347 -0.10981624 5
1.0817279 -0.62882262 -0.10946761 5
1.0760884 -0.63058013 -0.10911899 5
1.0738807 -0.6343326 -0.10911899 5
1.0786197 -0.64196616 -0.10981624 5
1.0832062 -0.64982706 -0.11051348 5
1.0741116 -0.64948064 -0.10981624 5
1.0582272 -0.64493102 -0.10842174 5
1.0661558 -0.65487778 -0.10946761 5
1.0672516 -0.66069293 -0.10981624 5
1.0683194 -0.66652352 -0.11016486 5
1.0592395 -0.66600645 -0.10946761 5
1.0535424 -0.66756713 -0.10911899 5
1.0579227 -0.67552954 -0.10981624 5
1.0555583 -0.67921835 -0.10981624 5
1.0598676 -0.68723458 -0.11051348 5
1.0507907 -0.686571 -0.10981624 5
1.0450594 -0.68804342 -0.10946761 5
1.049414 -0.69590968 -0.11016486 5
1.0436652 -0.69735485 -0.10981624 5
1.0511409 -0.70766973 -0.11086211 5
1.0420691 -0.70686072 -0.11016486 5
1.0297257 -0.70374876 -0.10911899 5
1.0338269 -0.71185869 -0.10981624 5
1.0346098 -0.71773434 -0.11016486 5
1.0451627 -0.73047233 -0.11155935 5
1.4264195 -0.06801679 -0.074840426 6
1.3962538 -0.071464136 -0.073270351 6
1.4059671 -0.076882802 -0.073793709 6
1.3937411 -0.080850743 -0.073165677 6
1.3934504 -0.085715309 -0.073165677 6
1.3851705 -0.09006051 -0.072746992 6
1.3808624 -0.094622016 -0.072537638 6
1.3805237 -0.099441551 -0.072537638 6
1.3841515 -0.10456076 -0.072746992 6
1.38776 -0.10970651 -0.072956331 6
1.3714447 -0.11323524 -0.072118953 6
1.3670614 -0.11767922 -0.071909614 6
1.3726101 -0.12298515 -0.072223626 6
1.3761498 -0.12814607 -0.072432972 6
1.3697301 -0.13237259 -0.072118953 6
1.3632978 -0.13655584 -0.071804941 6
1.3628128 -0.14131381 -0.071804941 6
1.3543677 -0.14521833 -0.071386255 6
1.357849 -0.1501478 -0.071595594 6
1.3573166 -0.15488666 -0.071595594 6
1.3448385 -0.15845816 -0.070967562 6
1.3403119 -0.16267028 -0.070758224 6
1.3397359 -0.16734786 -0.070758224 6
1.3391435 -0.1720234 -0.070758224 6
1.342526 -0.17698526 -0.070967562 6
1.3340147 -0.18036586 -0.070548877 6
1.3254957 -0.18369193 -0.070130184 6
1.3287354 -0.18934363 -0.070339531 6
1.3320189 -0.19455796 -0.070548877 6
1.3352822 -0.19979751 -0.070758224 6
1.3227311 -0.20264257 -0.070130184 6
1.3180696 -0.20663986 -0.069920845 6
1.3173401 -0.21123953 -0.069920845 6
1.3244786 -0.21712905 -0.070339531 6
1.3237126 -0.22175105 -0.070339531 6
1.3071812 -0.22367541 -0.06950216 6
1.2985227 -0.22686204 -0.069083467 6
1.3016555 -0.23209456 -0.069292814 6
1.3086973 -0.23806657 -0.069711499 6
1.3078583 -0.24263334 -0.069711499 6
1.3030785 -0.24645482 -0.06950216 6
1.2904433 -0.2487338 -0.068874128 6
1.2935312 -0.25378069 -0.069083467 6
1.2965546 -0.25907716 -0.069292814 6
1.291682 -0.26303044 -0.069083467 6
1.2868447 -0.26672697 -0.068874128 6
1.2780888 -0.26956853 -0.068455435 6
1.2888569 -0.27654228 -0.069083467 6
1.2839811 -0.2801879 -0.068874128 6
1.2907946 -0.28639862 -0.069292814 6
1.2703037 -0.28650829 -0.068246089 6
1.2654024 -0.2900483 -0.06803675 6
1.2643822 -0.2944636 -0.06803675 6
1.2711211 -0.30071455 -0.068455435 6
1.2739476 -0.3060829 -0.068664782 6
1.2612294 -0.30768779 -0.06803675 6
1.2562702 -0.31112814 -0.067827404 6
1.2590506 -0.31648526 -0.06803675 6
1.2579381 -0.32087824 -0.06803675 6
1.2645447 -0.32726893 -0.068455435 6
1.2518038 -0.32863811 -0.067827404 6
1.242929 -0.33095011 -0.067408718 6
1.2494789 -0.3373692 -0.067827404 6
1.2482936 -0.34172866 -0.067827404 6
1.2547914 -0.34822023 -0.068246089 6
1.2381871 -0.34827188 -0.067408718 6
1.2293419 -0.35018718 -0.066990033 6
1.2357877 -0.35669181 -0.067408718 6
1.2345352 -0.36100331 -0.067408718 6
1.2370975 -0.36644498 -0.067618065 6
1.2282228 -0.36825088 -0.067199372 6
1.2192855 -0.37021482 -0.066780686 6
1.2218696 -0.3754293 -0.066990033 6
1.2281802 -0.38206524 -0.067408718 6
1.2269064 -0.38613597 -0.067408718 6
1.2139976 -0.38720265 -0.066780686 6
1.2164401 -0.39266497 -0.066990033 6
1.2112648 -0.39566845 -0.066780686 6
1.2098764 -0.39989406 -0.066780686 6
1.2122616 -0.4053818 -0.066990033 6
1.2071264 -0.40812016 -0.066780686 6
1.1982067 -0.40953702 -0.066361994 6
1.2005452 -0.41502219 -0.06657134 6
1.2028599 -0.42052862 -0.066780686 6
1.2013847 -0.42472479 -0.066780686 6
1.1923718 -0.42622674 -0.066361994 6
1.1871202 -0.42902857 -0.066152655 6
1.1931193 -0.43591139 -0.06657134 6
1.1879197 -0.43848228 -0.066361994 6
1.1939447 -0.44521046 -0.066780686 6
1.1811697 -0.44514927 -0.066152655 6
1.1684098 -0.44500446 -0.065524623 6
1.1779541 -0.45359007 -0.066152655 6
1.1800863 -0.45914757 -0.066361994 6
1.1785572 -0.46305832 -0.066361994 6
1.1733022 -0.46549094 -0.066152655 6
1.1716702 -0.46958372 -0.066152655 6
1.1663213 -0.47217181 -0.065943316 6
1.1720606 -0.47926384 -0.066361994 6
1.1703805 -0.48335218 -0.066361994 6
1.1577103 -0.48261964 -0.065733969 6
1.1560186 -0.48665789 -0.065733969 6
1.1579032 -0.49245498 -0.065943316 6
1.1598474 -0.49807 -0.066152655 6
1.1581894 -0.50191349 -0.066152655 6
1.1491989 -0.50255042 -0.065733969 6
1.1400412 -0.50353134 -0.065315276 6
1.1492218 -0.51238763 -0.065943316 6
1.1510687 -0.51803535 -0.066152655 6
1.1492534 -0.5220502 -0.066152655 6
1.1402532 -0.52253014 -0.065733969 6
1.1311711 -0.52315366 -0.065315276 6
1.1329578 -0.52878845 -0.065524623 6
1.1347188 -0.53444201 -0.065733969 6
1.1329403 -0.53820187 -0.065733969 6
1.1275469 -0.54022998 -0.065524623 6
1.1220579 -0.54242396 -0.065315276 6
1.1237479 -0.54808855 -0.065524623 6
1.1289963 -0.55553502 -0.065943316 6
1.1234722 -0.5576964 -0.065733969 6
1.1143751 -0.55803746 -0.065315276 6
1.1124204 -0.56192398 -0.065315276 6
1.1140114 -0.56761718 -0.065524623 6
1.115576 -0.57332814 -0.065733969 6
1.1136687 -0.5770244 -0.065733969 6
1.1045671 -0.57720828 -0.065315276 6
1.1025455 -0.58106041 -0.065315276 6
1.0934559 -0.58115602 -0.064896591 6
1.1019828 -0.59063041 -0.065524623 6
1.0999146 -0.59447348 -0.065524623 6
1.0873102 -0.59257466 -0.064896591 6
1.0834848 -0.59540457 -0.064791918 6
1.086641 -0.60208696 -0.065105937 6
1.0845326 -0.60587639 -0.065105937 6
1.0998132 -0.61945999 -0.066152655 6
1.0941707 -0.62132287 -0.065943316 6
1.0885284 -0.62315387 -0.065733969 6
1.0863466 -0.62694979 -0.065733969 6
1.0910569 -0.63475537 -0.066152655 6
1.0888346 -0.63856 -0.066152655 6
1.0763942 -0.63607073 -0.065524623 6
1.0673038 -0.63573581 -0.065105937 6
1.0787768 -0.64768213 -0.065943316 6
1.0765095 -0.65144378 -0.065943316 6
1.0810493 -0.65935749 -0.066361994 6
1.0719353 -0.6589433 -0.065943316 6
1.0662329 -0.66057724 -0.065733969 6
1.0673089 -0.66641074 -0.065943316 6
1.0717379 -0.67438698 -0.066361994 6
1.0693773 -0.67812401 -0.066361994 6
1.0602719 -0.67755073 -0.065943316 6
1.0579004 -0.68124765 -0.065943316 6
1.0588667 -0.68711066 -0.066152655 6
1.0598049 -0.69298875 -0.066361994 6
1.0474932 -0.68990785 -0.065733969 6
1.0384221 -0.68914258 -0.065315276 6
1.0326897 -0.6905427 -0.065105937 6
1.0368985 -0.69860715 -0.065524623 6
1.0377585 -0.70446587 -0.065733969 6
1.0451844 -0.71484917 -0.066361994 6
1.0361044 -0.71396017 -0.065943316 6
1.0270433 -0.71301651 -0.065524623 6
1.0278215 -0.71888655 -0.065733969 6
1.0318364 -0.72707176 -0.066152655 6
1.0292922 -0.73066902 -0.066152655 6
1.0234864 -0.73193395 -0.065943316 6
1.017812 -0.73298955 -0.065733969 6
1.0218431 -0.7410509 -0.066152655 6
1.0223452 -0.74714804 -0.066361994 6
1.0293814 -0.75781673 -0.066990033 6
1.0233889 -0.75920457 -0.066780686 6
1.3818152 -0.1048694 -0.024189034 7
1.3794473 -0.10953391 -0.02415413 7
1.3690925 -0.1135222 -0.023979606 7
1.3846259 -0.11967813 -0.024258846 7
1.3602998 -0.12236082 -0.023839988 7
1.3638465 -0.12748061 -0.023909798 7
1.3673739 -0.13262667 -0.023979606 7
1.3669027 -0.13739887 -0.023979606 7
1.3664147 -0.14216942 -0.023979606 7
1.3579826 -0.14584568 -0.023839988 7
1.3534904 -0.15014409 -0.023770178 7
1.3569314 -0.15532255 -0.023839988 7
1.3524091 -0.1595895 -0.023770178 7
1.3557851 -0.1650285 -0.023839988 7
1.3472642 -0.16876584 -0.023700368 7
1.3347969 -0.17170185 -0.023490939 7
1.3421502 -0.17717406 -0.023630559 7
1.3455185 -0.18216038 -0.023700368 7
1.344907 -0.18662126 -0.023700368 7
1.3322694 -0.19032179 -0.023490939 7
1.3276398 -0.1943917 -0.023421129 7
1.3309083 -0.19961806 -0.023490939 7
1.3341564 -0.2048696 -0.023560748 7
1.3373842 -0.21014623 -0.023630559 7
1.3208476 -0.21227491 -0.023351319 7
1.3200986 -0.21688424 -0.023351319 7
1.3193334 -0.22149092 -0.023351319 7
1.3185523 -0.2260949 -0.023351319 7
1.317755 -0.23069613 -0.023351319 7
1.3090676 -0.2338877 -0.023211701 7
1.3043087 -0.23773862 -0.023141891 7
1.3034708 -0.24229003 -0.023141891 7
1.3065466 -0.24758312 -0.023211701 7
1.3135724 -0.25342971 -0.023351319 7
1.3009069 -0.25569937 -0.023141891 7
1.2921631 -0.25866875 -0.023002272 7
1.2951711 -0.26397637 -0.023072081 7
1.2981108 -0.26953474 -0.023141891 7
1.3089011 -0.27654457 -0.023351319 7
1.2883773 -0.27690983 -0.023002272 7
1.2834957 -0.28055137 -0.022932461 7
1.2786044 -0.28416222 -0.022862652 7
1.2776047 -0.28862366 -0.022862652 7
1.2843854 -0.29487139 -0.023002272 7
1.2716639 -0.29662746 -0.022792844 7
1.2706207 -0.30106458 -0.022792844 7
1.2656736 -0.30456233 -0.022723034 7
1.268488 -0.30992776 -0.022792844 7
1.2751617 -0.31627926 -0.022932461 7
1.2624149 -0.31779951 -0.022723034 7
1.2574229 -0.32121435 -0.022653224 7
1.2601655 -0.32660499 -0.022723034 7
1.2628858 -0.3320187 -0.022792844 7
1.2617191 -0.33642501 -0.022792844 7
1.2489547 -0.33769551 -0.022583414 7
1.2439113 -0.34099576 -0.022513606 7
1.2427135 -0.34533572 -0.022513606 7
1.249261 -0.35162199 -0.022653224 7
1.248026 -0.3559806 -0.022653224 7
1.2390915 -0.35811397 -0.022513606 7
1.2301574 -0.36018935 -0.022373985 7
1.2366252 -0.36653987 -0.022513606 7
1.2353382 -0.37085426 -0.022513606 7
1.2379283 -0.37611136 -0.022583414 7
1.2251401 -0.37690228 -0.022373985 7
1.2162461 -0.37858561 -0.022234365 7
1.2263607 -0.38643473 -0.022443794 7
1.2248678 -0.39114073 -0.022443794 7
1.2349119 -0.3991037 -0.022653224 7
1.2107035 -0.39595279 -0.022234365 7
1.2093141 -0.40017653 -0.022234365 7
1.2117732 -0.40545359 -0.022304177 7
1.2179989 -0.41203293 -0.022443794 7
1.2127693 -0.41498724 -0.022373985 7
1.2037543 -0.41660202 -0.022234365 7
1.198518 -0.4194802 -0.022164557 7
1.2008165 -0.4249956 -0.022234365 7
1.2030914 -0.43053219 -0.022304177 7
1.2091027 -0.43745038 -0.022443794 7
1.1963767 -0.4373382 -0.022234365 7
1.1836648 -0.43714643 -0.022024937 7
1.1821316 -0.44127557 -0.022024937 7
1.188068 -0.44822273 -0.022164557 7
1.1977071 -0.45664138 -0.022373985 7
1.1811777 -0.4550682 -0.022094747 7
1.1721282 -0.45628679 -0.021955127 7
1.1817752 -0.46456078 -0.022164557 7
1.1838632 -0.47015926 -0.022234365 7
1.1859267 -0.47577795 -0.022304177 7
1.1657256 -0.47240433 -0.021955127 7
1.1603682 -0.47495559 -0.021885319 7
1.1680275 -0.48261908 -0.022059841 7
1.1718723 -0.48900366 -0.022164557 7
1.1738436 -0.49464422 -0.022234365 7
1.1610696 -0.49404106 -0.022024937 7
1.1556634 -0.49651217 -0.021955127 7
1.1576799 -0.50193268 -0.022024937 7
1.1650802 -0.50997996 -0.022199461 7
1.1669511 -0.51566023 -0.022269269 7
1.1449661 -0.51096946 -0.021885319 7
1.1431756 -0.51496303 -0.021885319 7
1.1505641 -0.52288783 -0.022059841 7
1.1432791 -0.52439976 -0.021955127 7
1.1523298 -0.53342772 -0.022164557 7
1.1504608 -0.5374468 -0.022164557 7
1.1269649 -0.53103036 -0.021745699 7
1.1432588 -0.54334831 -0.022094747 7
1.1449615 -0.54906505 -0.022164557 7
1.1466379 -0.55480027 -0.022234365 7
1.1339123 -0.553536 -0.022024937 7
1.1247975 -0.55395675 -0.021885319 7
1.1264385 -0.55965912 -0.021955127 7
1.1316291 -0.56717175 -0.022094747 7
1.1260732 -0.56931394 -0.022024937 7
1.1205162 -0.57142419 -0.021955127 7
1.1115015 -0.57147938 -0.021815507 7
1.1130503 -0.57719696 -0.021885319 7
1.1181166 -0.5847857 -0.022024937 7
1.1178372 -0.58961809 -0.022059841 7
1.0998831 -0.58506447 -0.021745699 7
1.0978341 -0.58890021 -0.021745699 7
1.1098428 -0.60034007 -0.022024937 7
1.1077404 -0.60421056 -0.022024937 7
1.110881 -0.61096454 -0.022129651 7
1.0947514 -0.60708034 -0.021850415 7
1.0873891 -0.60797036 -0.021745699 7
1.0922284 -0.61569023 -0.021885319 7
1.0970268 -0.62345117 -0.022024937 7
1.1017842 -0.63125318 -0.022164557 7
1.0891843 -0.62909436 -0.021955127 7
1.0835255 -0.63088012 -0.021885319 7
1.0866017 -0.63750547 -0.021990033 7
1.0860912 -0.64231241 -0.022024937 7
1.0907131 -0.65019548 -0.022164557 7
1.0747242 -0.6457594 -0.021885319 7
1.0758843 -0.65157872 -0.021955127 7
1.0770172 -0.65741408 -0.022024937 7
1.0747159 -0.66116959 -0.022024937 7
1.0758004 -0.66702443 -0.022094747 7
1.0649862 -0.66547722 -0.021920223 7
1.0575804 -0.66599393 -0.021815507 7
1.0636913 -0.67503893 -0.021990033 7
1.0663824 -0.68197989 -0.022094747 7
1.0673572 -0.68786466 -0.022164557 7
1.0515327 -0.68287337 -0.021885319 7
1.0526094 -0.68854594 -0.021955127 7
1.0501995 -0.69221598 -0.021955127 7
1.0444453 -0.69366503 -0.021885319 7
1.0553129 -0.70620382 -0.022164557 7
1.0462093 -0.70541143 -0.022024937 7
1.0371242 -0.70456421 -0.021885319 7
1.0412592 -0.7126981 -0.022024937 7
1.04535 -0.72086942 -0.022164557 7
1.0461116 -0.72679585 -0.022234365 7
1.0337389 -0.72356278 -0.022024937 7
1.0312068 -0.72716683 -0.022024937 7
1.0319227 -0.73307818 -0.022094747 7
1.0262333 -0.73416919 -0.022024937 7
1.0335279 -0.74458152 -0.022234365 7
1.0212123 -0.74113739 -0.022024937 7
1.0250762 -0.74941838 -0.022164557 7
1.0191026 -0.75079829 -0.022094747 7
1.0228988 -0.75911778 -0.022234365 7
1.0202427 -0.76268375 -0.022234365 7
1.0175742 -0.76624042 -0.022234365 7
1.008654 -0.7647779 -0.022094747 7
1.0123351 -0.77314907 -0.022234365 7
1.0128001 -0.77911663 -0.022304177 7
1.0163971 -0.7875464 -0.022443794 7
1.01378 -0.79091251 -0.022443794 7
1.3492535 -0.13300875 0.023665464 8
1.3547491 -0.13832709 0.023770178 8
1.3562465 -0.14326525 0.023805084 8
1.3577518 -0.1479786 0.023839988 8
1.343317 -0.15115198 0.023595655 8
1.330863 -0.15445688 0.023386225 8
1.334259 -0.15980935 0.023456035 8
1.3416317 -0.16544476 0.023595655 8
1.341046 -0.17012694 0.023595655 8
1.3285767 -0.1730236 0.023386225 8
1.3220495 -0.17663389 0.023281511 8
1.3234376 -0.18128841 0.023316415 8
1.3247119 -0.18664767 0.023351319 8
1.3280106 -0.19184247 0.023421129 8
1.3194203 -0.19530569 0.023281511 8
1.308845 -0.19841157 0.023106987 8
1.3160485 -0.2042055 0.023246605 8
1.3153276 -0.20879811 0.023246605 8
1.3126171 -0.21306781 0.023211701 8
1.3059473 -0.21666655 0.023106987 8
1.3012397 -0.22055545 0.023037177 8
1.3044028 -0.2257784 0.023106987 8
1.3036067 -0.23033024 0.023106987 8
1.2988588 -0.23416965 0.023037177 8
1.2941 -0.23797879 0.022967368 8
1.2853997 -0.24102044 0.022827748 8
1.2924072 -0.24700743 0.022967368 8
1.2896179 -0.25090992 0.022932461 8
1.294619 -0.25657627 0.023037177 8
1.2839144 -0.25911579 0.022862652 8
1.2790389 -0.26301429 0.022792844 8
1.2820275 -0.26829657 0.022862652 8
1.2810831 -0.27277002 0.022862652 8
1.2840319 -0.27808669 0.022932461 8
1.2771947 -0.28127688 0.022827748 8
1.2625455 -0.28267509 0.022583414 8
1.2693504 -0.28885534 0.022723034 8
1.2722311 -0.29418546 0.022792844 8
1.2731431 -0.29908189 0.022827748 8
1.2623658 -0.30120367 0.022653224 8
1.2574198 -0.30466652 0.022583414 8
1.2563486 -0.30905384 0.022583414 8
1.2591425 -0.31440637 0.022653224 8
1.2638525 -0.32027328 0.022757938 8
1.2511067 -0.32169515 0.02254851 8
1.2461064 -0.32505092 0.0224787 8
1.2430308 -0.32888713 0.022443794 8
1.2438067 -0.33374238 0.0224787 8
1.2503523 -0.34018189 0.022618318 8
1.2414465 -0.34241763 0.0224787 8
1.2286885 -0.34351838 0.022269269 8
1.2352388 -0.34977022 0.02240889 8
1.2378547 -0.35518298 0.0224787 8
1.2404475 -0.36061808 0.02254851 8
1.227672 -0.36155632 0.022339081 8
1.2226335 -0.36448285 0.022269269 8
1.2251824 -0.36990437 0.022339081 8
1.2296861 -0.37571815 0.022443794 8
1.2302778 -0.38059929 0.0224787 8
1.2213752 -0.38228762 0.022339081 8
1.212274 -0.38455597 0.022199461 8
1.2147322 -0.39000779 0.022269269 8
1.2171671 -0.39548156 0.022339081 8
1.2119797 -0.39847866 0.022269269 8
1.2105814 -0.40270683 0.022269269 8
1.1978672 -0.40289411 0.022059841 8
1.2022043 -0.40879554 0.022164557 8
1.202661 -0.41363984 0.022199461 8
1.2068758 -0.41980636 0.022304177 8
1.1921984 -0.41937158 0.022059841 8
1.1869591 -0.42219034 0.021990033 8
1.1911234 -0.42836115 0.022094747 8
1.1971381 -0.43524942 0.022234365 8
1.1994424 -0.44059595 0.022304177 8
1.1829766 -0.43900517 0.022024937 8
1.1776923 -0.44172731 0.021955127 8
1.1854925 -0.44937953 0.022129651 8
1.1913861 -0.45637622 0.022269269 8
1.1841112 -0.4585734 0.022164557 8
1.17141 -0.45812741 0.021955127 8
1.1661646 -0.46054041 0.021885319 8
1.1719793 -0.4675723 0.022024937 8
1.1703399 -0.47166044 0.022024937 8
1.1742427 -0.4780046 0.022129651 8
1.1540723 -0.47449648 0.021780603 8
1.1543394 -0.47908738 0.021815507 8
1.15266 -0.48311391 0.021815507 8
1.1546497 -0.48869333 0.021885319 8
1.1510123 -0.49213594 0.021850415 8
1.15121 -0.49674234 0.021885319 8
1.1422226 -0.49736381 0.021745699 8
1.1404796 -0.5013479 0.021745699 8
1.145945 -0.50877035 0.021885319 8
1.1496366 -0.51522076 0.021990033 8
1.1387212 -0.51510972 0.021815507 8
1.1351877 -0.51805282 0.021780603 8
1.1333724 -0.52201223 0.021780603 8
1.1369835 -0.52849394 0.021885319 8
1.140563 -0.53500712 0.021990033 8
1.136975 -0.53793126 0.021955127 8
1.1279658 -0.53825378 0.021815507 8
1.1260802 -0.54218781 0.021815507 8
1.1277782 -0.54786289 0.021885319 8
1.1276544 -0.5526762 0.021920223 8
1.1257184 -0.55660915 0.021920223 8
1.1201898 -0.55875015 0.021850415 8
1.1182326 -0.56265694 0.021850415 8
1.1269606 -0.57198709 0.022059841 8
1.1089371 -0.56771606 0.021745699 8
1.0928328 -0.56405306 0.02146646 8
1.1032735 -0.57432783 0.021710794 8
1.1030325 -0.57910502 0.021745699 8
1.1027716 -0.58388752 0.021780603 8
1.1042547 -0.58961713 0.021850415 8
1.0933864 -0.58872789 0.02167589 8
1.0842953 -0.58872432 0.02153627 8
1.0874957 -0.59538639 0.021640982 8
1.0889121 -0.60111177 0.021710794 8
1.0955436 -0.60977167 0.021885319 8
1.0829452 -0.60772043 0.02167589 8
1.068634 -0.60460407 0.021431556 8
1.0856241 -0.61922896 0.021815507 8
1.0886565 -0.62600523 0.021920223 8
1.0847348 -0.62879872 0.021885319 8
1.0756271 -0.6285457 0.021745699 8
1.0666441 -0.62805057 0.021606078 8
1.0678846 -0.63381141 0.02167589 8
1.0708138 -0.64061499 0.021780603 8
1.0788459 -0.65054464 0.021990033 8
1.0663154 -0.64807504 0.021780603 8
1.0521103 -0.64448148 0.02153627 8
1.0634665 -0.65655386 0.021815507 8
1.0611683 -0.66026211 0.021815507 8
1.0639396 -0.66714931 0.021920223 8
1.056533 -0.66765428 0.021815507 8
1.0440757 -0.66489333 0.021606078 8
1.0484803 -0.67285395 0.021745699 8
1.0511627 -0.67976749 0.021850415 8
1.0521342 -0.68561596 0.021920223 8
1.041496 -0.68361467 0.021745699 8
1.030764 -0.68173051 0.021571174 8
1.0383623 -0.69197804 0.021780603 8
1.040921 -0.6989426 0.021885319 8
1.0401311 -0.70369226 0.021920223 8
1.0310591 -0.70281351 0.021780603 8
1.0220059 -0.7018801 0.021640982 8
1.0261275 -0.70999455 0.021780603 8
1.0236429 -0.71357203 0.021780603 8
1.0276915 -0.72173786 0.021920223 8
1.0170038 -0.71954602 0.021745699 8
1.0177428 -0.72541291 0.021815507 8
1.0250789 -0.73578024 0.022024937 8
1.0226332 -0.7391755 0.022024937 8
1.0265131 -0.74744904 0.022164557 8
1.0173177 -0.74647439 0.022024937 8
1.0114896 -0.74764359 0.021955127 8
1.0104775 -0.75236404 0.021990033 8
1.0126445 -0.7594862 0.022094747 8
1.0147738 -0.76663256 0.022199461 8
1.0026768 -0.76272929 0.021990033 8
1.0000082 -0.76622468 0.021990033 8
1.0004936 -0.77215415 0.022059841 8
1.0025287 -0.77932382 0.022164557 8
1.0015135 -0.78387648 0.022199461 8
0.9956302 -0.78489161 0.022129651 8
0.98961508 -0.78604794 0.022059841 8
0.98985004 -0.79216868 0.022129651 8
0.98877484 -0.79670161 0.022164557 8
0.99389219 -0.80627513 0.022339081 8
0.986426 -0.80594385 0.022234365 8
1.3538145 -0.16742685 0.071490921 9
1.3453264 -0.17090853 0.071072236 9
1.3407913 -0.17485233 0.070862897 9
1.3362448 -0.17876789 0.070653543 9
1.3217936 -0.18129823 0.069920845 9
1.3210552 -0.18660277 0.069920845 9
1.3203957 -0.19121298 0.069920845 9
1.3236715 -0.19640714 0.070130184 9
1.3269271 -0.20162649 0.070339531 9
1.3143739 -0.20441553 0.069711499 9
1.3097074 -0.20837466 0.06950216 9
1.3070009 -0.21262443 0.069397487 9
1.3180718 -0.21915089 0.070025519 9
1.3074536 -0.2220782 0.06950216 9
1.3047026 -0.22629941 0.069397487 9
1.2999712 -0.2301559 0.06918814 9
1.29916 -0.23469223 0.06918814 9
1.3061897 -0.24067339 0.069606826 9
1.3033787 -0.2448626 0.06950216 9
1.2907895 -0.24693178 0.068874128 9
1.2879592 -0.25105384 0.068769448 9
1.283157 -0.25477019 0.068560109 9
1.2900904 -0.26083088 0.068978801 9
1.2930381 -0.26636347 0.06918814 9
1.2823266 -0.26882643 0.068664782 9
1.2774738 -0.27246773 0.068455435 9
1.2784668 -0.2773487 0.068560109 9
1.2735902 -0.28094923 0.06835077 9
1.2784482 -0.28670427 0.068664782 9
1.2715977 -0.28983364 0.06835077 9
1.2666868 -0.29336929 0.068141423 9
1.2675991 -0.2982465 0.068246089 9
1.2723781 -0.30406207 0.068560109 9
1.271309 -0.30850163 0.068560109 9
1.2527709 -0.30863756 0.067618065 9
1.2439353 -0.3110705 0.067199372 9
1.2525215 -0.31786725 0.06772273 9
1.2572069 -0.3237316 0.06803675 9
1.2599339 -0.32912767 0.068246089 9
1.2433324 -0.32943135 0.067408718 9
1.2402459 -0.33325109 0.067304045 9
1.2410022 -0.33810335 0.067408718 9
1.24559 -0.34402838 0.06772273 9
1.2463657 -0.3486951 0.067827404 9
1.2393764 -0.35140917 0.067513391 9
1.2304637 -0.35352707 0.067094706 9
1.2368929 -0.360053 0.067513391 9
1.2356921 -0.36415273 0.067513391 9
1.2382411 -0.36960635 0.06772273 9
1.2255371 -0.3702448 0.067094706 9
1.2185074 -0.37276769 0.066780686 9
1.2229885 -0.37857816 0.067094706 9
1.2197537 -0.3822476 0.066990033 9
1.2239877 -0.38874203 0.067304045 9
1.2112145 -0.38934487 0.066676013 9
1.2098482 -0.39357045 0.066676013 9
1.210364 -0.39841563 0.066780686 9
1.2128264 -0.40368876 0.066990033 9
1.2133739 -0.40834546 0.067094706 9
1.2024876 -0.40936017 0.06657134 9
1.1916091 -0.41030392 0.066047981 9
1.193942 -0.41577455 0.066257328 9
1.2000188 -0.42259333 0.066676013 9
1.1985363 -0.4267796 0.066676013 9
1.1895226 -0.42825446 0.066257328 9
1.1899728 -0.43287948 0.066361994 9
1.1904055 -0.43751222 0.066466674 9
1.1944877 -0.44375142 0.066780686 9
1.1891919 -0.44651416 0.06657134 9
1.1801567 -0.44782811 0.066152655 9
1.1748565 -0.45051473 0.065943316 9
1.1807262 -0.45749938 0.066361994 9
1.1792026 -0.46141228 0.066361994 9
1.1850142 -0.46846274 0.066780686 9
1.1703881 -0.46741119 0.066047981 9
1.1650449 -0.46999928 0.065838635 9
1.1670965 -0.47557059 0.066047981 9
1.1673601 -0.48019794 0.066152655 9
1.1730546 -0.48733488 0.06657134 9
1.1547706 -0.48447251 0.065629296 9
1.1512334 -0.48772132 0.065524623 9
1.1568692 -0.49487904 0.065943316 9
1.1588891 -0.50029588 0.066152655 9
1.1607974 -0.505934 0.066361994 9
1.1480557 -0.50515658 0.065733969 9
1.1480216 -0.51017207 0.065838635 9
1.1334777 -0.5084542 0.065105937 9
1.1354245 -0.51385713 0.065315276 9
1.1445242 -0.52279639 0.065943316 9
1.1281818 -0.52009898 0.065105937 9
1.1263595 -0.52403384 0.065105937 9
1.1300397 -0.53031164 0.06541995 9
1.1300802 -0.53491062 0.065524623 9
1.1390195 -0.54401666 0.066152655 9
1.1209205 -0.54018569 0.065210611 9
1.117232 -0.54322177 0.065105937 9
1.1225015 -0.55063677 0.065524623 9
1.1205726 -0.55455172 0.065524623 9
1.1186301 -0.55845982 0.065524623 9
1.1131061 -0.56056446 0.065315276 9
1.1004585 -0.55901921 0.064687252 9
1.1092647 -0.56812811 0.065315276 9
1.1072748 -0.57199675 0.065315276 9
1.1158991 -0.58139545 0.065943316 9
1.1032546 -0.57971293 0.065315276 9
1.0976948 -0.58169013 0.065105937 9
1.0921346 -0.58363551 0.064896591 9
1.1006399 -0.59312922 0.065524623 9
1.1090922 -0.60268921 0.066152655 9
1.0964723 -0.60079861 0.065524623 9
1.090872 -0.60269064 0.065315276 9
1.0922513 -0.60843873 0.065524623 9
1.1023105 -0.61909389 0.066257328 9
1.091453 -0.61801738 0.065733969 9
1.0788817 -0.61588258 0.065105937 9
1.0784564 -0.62064093 0.065210611 9
1.0849212 -0.62941295 0.065733969 9
1.0845524 -0.6340152 0.065838635 9
1.0874949 -0.6408391 0.066152655 9
1.073231 -0.63749129 0.06541995 9
1.0641448 -0.6371299 0.065001264 9
1.0704645 -0.64600027 0.065524623 9
1.0767349 -0.65492254 0.066047981 9
1.0727396 -0.65763313 0.065943316 9
1.0670391 -0.65927416 0.065733969 9
1.0579497 -0.65877181 0.065315276 9
1.0607189 -0.66564572 0.065629296 9
1.061765 -0.67147923 0.065838635 9
1.0627831 -0.67732835 0.066047981 9
1.0536902 -0.6767168 0.065629296 9
1.0462914 -0.67713529 0.065315276 9
1.0524058 -0.68605471 0.065838635 9
1.0500047 -0.68972409 0.065838635 9
1.0509217 -0.6955899 0.066047981 9
1.0418407 -0.69482136 0.065629296 9
1.0360935 -0.69622588 0.06541995 9
1.0386184 -0.70319748 0.065733969 9
1.0411073 -0.71019524 0.066047981 9
1.0419139 -0.71608758 0.066257328 9
1.0295557 -0.71289819 0.065629296 9
1.030337 -0.71877307 0.065838635 9
1.0261878 -0.7212168 0.065733969 9
1.0285541 -0.72825688 0.066047981 9
1.0326383 -0.73630178 0.066466674 9
1.0172122 -0.73040277 0.065629296 9
1.0114198 -0.73160797 0.06541995 9
1.0169308 -0.74101508 0.065943316 9
1.0190375 -0.74828368 0.066257328 9
1.0228422 -0.75658715 0.066676013 9
1.0121871 -0.75418627 0.066152655 9
1.0063536 -0.75531709 0.065943316 9
1.0086236 -0.76226264 0.066257328 9
1.0091351 -0.76819837 0.066466674 9
1.0143721 -0.77779269 0.066990033 9
1.000586 -0.77278298 0.066257328 9
0.99486464 -0.77364469 0.066047981 9
0.99844748 -0.78203893 0.066466674 9
0.99571151 -0.78551948 0.066466674 9
0.99751621 -0.79289186 0.066780686 9
0.98850578 -0.79137611 0.066361994 9
0.98432106 -0.79339641 0.066257328 9
0.98309624 -0.79808629 0.066361994 9
0.98648924 -0.80656999 0.066780686 9
0.98829329 -0.81381726 0.067094706 9
1.3184392 -0.19586597 0.11661438 10
1.3177475 -0.20046698 0.11661438 10
1.3111336 -0.20414594 0.11609145 10
1.3163159 -0.20966163 0.11661438 10
1.3018106 -0.21201333 0.1153942 10
1.2951665 -0.2155748 0.11487127 10
1.302263 -0.22143042 0.11556852 10
1.3014821 -0.2259748 0.11556852 10
1.3046089 -0.23121181 0.11591713 10
1.2920303 -0.23363715 0.11487127 10
1.2833695 -0.23670024 0.11417402 10
1.2864516 -0.24191502 0.11452264 10
1.289513 -0.24715419 0.11487127 10
1.2945088 -0.2527996 0.1153942 10
1.2760758 -0.25359574 0.1138254 10
1.2712321 -0.25748006 0.11347678 10
1.272277 -0.26231819 0.11365108 10
1.2811033 -0.26880336 0.11452264 10
1.2723632 -0.27160987 0.1138254 10
1.2694602 -0.27562684 0.11365108 10
1.2645994 -0.27919734 0.11330246 10
1.2655611 -0.28404623 0.11347678 10
1.2665043 -0.28890523 0.11365108 10
1.2693701 -0.29422417 0.11399971 10
1.2586386 -0.29637006 0.11312816 10
1.2498454 -0.29890803 0.11243091 10
1.256539 -0.3051497 0.11312816 10
1.2554661 -0.30953401 0.11312816 10
1.254378 -0.31391451 0.11312816 10
1.2455502 -0.31632945 0.11243091 10
1.2405797 -0.31968093 0.11208228 10
1.2433114 -0.32501724 0.11243091 10
1.2421694 -0.32935524 0.11243091 10
1.2448602 -0.33472386 0.11277953 10
1.2359953 -0.33697098 0.11208228 10
1.2252096 -0.33862954 0.11121072 10
1.22402 -0.34290421 0.11121072 10
1.2304821 -0.34935138 0.11190797 10
1.2331467 -0.35453096 0.1122566 10
1.2223371 -0.35604733 0.11138504 10
1.217265 -0.35918421 0.11103641 10
1.2179127 -0.36400151 0.11121072 10
1.2243271 -0.37034571 0.11190797 10
1.224932 -0.37520069 0.11208228 10
1.2103595 -0.37513185 0.11086211 10
1.2033396 -0.37756509 0.11033916 10
1.2038463 -0.38257644 0.11051348 10
1.2081938 -0.38860652 0.11103641 10
1.2163026 -0.39590487 0.11190797 10
1.2035589 -0.39640847 0.11086211 10
1.1983874 -0.39934748 0.11051348 10
1.1951685 -0.40268311 0.11033916 10
1.1957124 -0.40728661 0.11051348 10
1.198051 -0.41275597 0.11086211 10
1.1947215 -0.41627988 0.11068779 10
1.1819861 -0.41647491 0.10964192 10
1.1880326 -0.423273 0.11033916 10
1.1902969 -0.42876789 0.11068779 10
1.1850486 -0.43155667 0.11033916 10
1.1761316 -0.43273216 0.10964192 10
1.1765579 -0.43732423 0.10981624 10
1.1768892 -0.44212914 0.10999054 10
1.1753387 -0.44623455 0.10999054 10
1.1736953 -0.45053941 0.10999054 10
1.170258 -0.45391312 0.10981624 10
1.1650358 -0.45633799 0.10946761 10
1.1635162 -0.46019888 0.10946761 10
1.1637528 -0.46499673 0.10964192 10
1.1658179 -0.47054771 0.10999054 10
1.1604781 -0.4731099 0.10964192 10
1.1496081 -0.47336489 0.10877036 10
1.1534678 -0.47966996 0.1092933 10
1.1573822 -0.48580572 0.10981624 10
1.1610966 -0.492378 0.11033916 10
1.1483815 -0.49172255 0.1092933 10
1.1412578 -0.49315706 0.10877036 10
1.1469214 -0.50012439 0.10946761 10
1.1487275 -0.50593084 0.10981624 10
1.1505954 -0.51155639 0.11016486 10
1.1378965 -0.51067501 0.10911899 10
1.1324772 -0.51299959 0.10877036 10
1.1343036 -0.51860648 0.10911899 10
1.1398146 -0.52570295 0.10981624 10
1.1343598 -0.52799684 0.10946761 10
1.1252965 -0.52856505 0.10877036 10
1.1199363 -0.53058773 0.10842174 10
1.1217662 -0.53601664 0.10877036 10
1.1306566 -0.54512078 0.10981624 10
1.126955 -0.5481925 0.10964192 10
1.1160916 -0.54773414 0.10877036 10
1.1141728 -0.55162668 0.10877036 10
1.1158055 -0.557293 0.10911899 10
1.1156327 -0.56208098 0.1092933 10
1.1189924 -0.56867987 0.10981624 10
1.1099085 -0.56894696 0.10911899 10
1.0972966 -0.5673275 0.10807312 10
1.1024765 -0.57464677 0.10877036 10
1.103991 -0.58034581 0.10911899 10
1.105479 -0.58606231 0.10946761 10
1.0963984 -0.58616018 0.10877036 10
1.0873306 -0.58620179 0.10807312 10
1.0870283 -0.5909453 0.10824744 10
1.0954415 -0.6004824 0.1092933 10
1.0915951 -0.60333878 0.10911899 10
1.0860015 -0.60520566 0.10877036 10
1.0821453 -0.60801691 0.10859605 10
1.08175 -0.61277258 0.10877036 10
1.0847948 -0.61950904 0.1092933 10
1.0826257 -0.62329185 0.1092933 10
1.076997 -0.625067 0.10894467 10
1.0696495 -0.62580431 0.10842174 10
1.0691746 -0.63054621 0.10859605 10
1.0705035 -0.63612384 0.10894467 10
1.071695 -0.64190435 0.1092933 10
1.0626251 -0.64152241 0.10859605 10
1.0569752 -0.64315647 0.10824744 10
1.0581205 -0.64892524 0.10859605 10
1.0643228 -0.65785247 0.10946761 10
1.063711 -0.66261715 0.10964192 10
1.054642 -0.66208875 0.10894467 10
1.048957 -0.66363573 0.10859605 10
1.0483141 -0.66836429 0.10877036 10
1.0543559 -0.67740422 0.10964192 10
1.0519848 -0.68108046 0.10964192 10
1.0429263 -0.68039399 0.10894467 10
1.0372152 -0.68184137 0.10859605 10
1.0415934 -0.689677 0.1092933 10
1.0391796 -0.69330871 0.1092933 10
1.0466743 -0.70360112 0.11033916 10
1.034314 -0.70054668 0.1092933 10
1.0252796 -0.69966042 0.10859605 10
1.0261147 -0.70549268 0.10894467 10
1.0334728 -0.71587741 0.10999054 10
1.0309676 -0.71948051 0.10999054 10
1.0219303 -0.7184912 0.1092933 10
1.0194162 -0.72205395 0.1092933 10
1.0152676 -0.72445083 0.10911899 10
1.0209496 -0.73362678 0.10999054 10
1.0233535 -0.74051225 0.11051348 10
1.0141934 -0.73956245 0.10981624 10
1.0051827 -0.73838007 0.10911899 10
1.0024697 -0.74205923 0.10911899 10
1.0143803 -0.75609583 0.11068779 10
1.011735 -0.75963199 0.11068779 10
0.99954247 -0.75594807 0.10964192 10
0.9968977 -0.75943249 0.10964192 10
1.0006974 -0.76758456 0.11033916 10
0.99958855 -0.77229112 0.11051348 10
0.99688667 -0.77577567 0.11051348 10
0.99103642 -0.77679259 0.11016486 10
0.98532718 -0.77760613 0.10981624 10
0.9887082 -0.78617227 0.11051348 10
0.98582006 -0.78979087 0.11051348 10
0.98784804 -0.7968083 0.11103641 10
0.98056036 -0.79631162 0.11051348 10
0.97777474 -0.79972953 0.11051348 10
0.97497725 -0.80313772 0.11051348 10
1.3279281 -0.23104413 0.16549858 11
1.3075683 -0.23220709 0.1630612 11
1.2989366 -0.23535427 0.16208623 11
1.3098195 -0.24205136 0.16354866 11
1.2953112 -0.24404922 0.1618425 11
1.280805 -0.24594876 0.16013633 11
1.2877754 -0.25171795 0.16111128 11
1.2888359 -0.25659922 0.16135503 11
1.2898778 -0.26149097 0.16159877 11
1.2830784 -0.26501223 0.16086754 11
1.2763176 -0.26826441 0.16013633 11
1.2811971 -0.27396327 0.16086754 11
1.2821727 -0.27885565 0.16111128 11
1.2811915 -0.28332958 0.16111128 11
1.2685741 -0.28518766 0.15964885 11
1.2637005 -0.28872976 0.15916139 11
1.2684859 -0.29448587 0.15989259 11
1.2674502 -0.2989119 0.15989259 11
1.2702602 -0.30425912 0.16038008 11
1.261475 -0.30681476 0.15940511 11
1.2526873 -0.30931279 0.15843016 11
1.2573767 -0.31513137 0.15916139 11
1.2581929 -0.32000783 0.15940511 11
1.2493795 -0.32241368 0.15843016 11
1.2482466 -0.32677287 0.15843016 11
1.2394239 -0.32909036 0.15745521 11
1.2382675 -0.33341476 0.15745521 11
1.2485862 -0.34087193 0.15891764 11
1.2512152 -0.34628722 0.15940511 11
1.2347082 -0.34636334 0.15745521 11
1.2259148 -0.34828588 0.15648025 11
1.2285069 -0.35366139 0.15696773 11
1.2367933 -0.36072657 0.15818642 11
1.2336228 -0.36447906 0.15794268 11
1.222898 -0.36572409 0.15672398 11
1.2102147 -0.36653808 0.15526156 11
1.2184824 -0.37345779 0.15648025 11
1.2247549 -0.38006216 0.15745521 11
1.2272757 -0.38531074 0.15794268 11
1.2144374 -0.38640898 0.15648025 11
1.2036335 -0.38760343 0.15526156 11
1.2022731 -0.39180249 0.15526156 11
1.2103244 -0.39910516 0.15648025 11
1.2126901 -0.40458399 0.15696773 11
1.203818 -0.40606529 0.15599278 11
1.1930704 -0.40685153 0.15477408 11
1.1953962 -0.41230813 0.15526156 11
1.1976984 -0.417786 0.15574904 11
1.1999768 -0.42328489 0.15623651 11
1.1872735 -0.42346969 0.15477408 11
1.1820533 -0.42626464 0.15428659 11
1.1842883 -0.43174803 0.15477408 11
1.1921638 -0.43910342 0.15599278 11
1.1981431 -0.44582349 0.15696773 11
1.1798571 -0.44371417 0.15477408 11
1.1708786 -0.44500896 0.15379913 11
1.1748775 -0.4512285 0.15453033 11
1.1843189 -0.45984268 0.15599278 11
1.1827875 -0.46376753 0.15599278 11
1.1720146 -0.4640334 0.15477408 11
1.1519563 -0.46074963 0.15233669 11
1.1669059 -0.47146055 0.15453033 11
1.168929 -0.47703105 0.15501782 11
1.1672567 -0.48110849 0.15501782 11
1.1564909 -0.48116392 0.15379913 11
1.151144 -0.48365995 0.15331164 11
1.1476213 -0.48689994 0.1530679 11
1.1476536 -0.49188495 0.15331164 11
1.156948 -0.5004164 0.15477408 11
1.1461854 -0.50027972 0.15355539 11
1.1426156 -0.5034771 0.15331164 11
1.1425762 -0.50846881 0.15355539 11
1.1498482 -0.5165211 0.15477408 11
1.1480383 -0.52053171 0.15477408 11
1.1390851 -0.52103293 0.15379913 11
1.1372594 -0.52500588 0.15379913 11
1.1318209 -0.52729583 0.15331164 11
1.1353629 -0.53377718 0.15404287 11
1.1335865 -0.53753924 0.15404287 11
1.1264251 -0.53872591 0.15331164 11
1.1173866 -0.53920376 0.15233669 11
1.1226368 -0.54657668 0.15331164 11
1.1242856 -0.55224252 0.15379913 11
1.1294658 -0.55968922 0.15477408 11
1.1133006 -0.55652755 0.15282416 11
1.1007161 -0.55504757 0.15136175 11
1.1076188 -0.56338626 0.15258044 11
1.1091777 -0.5690614 0.1530679 11
1.1161005 -0.57729644 0.15428659 11
1.1052786 -0.57659811 0.1530679 11
1.0962322 -0.57675564 0.15209295 11
1.0994729 -0.58336991 0.15282416 11
1.1061811 -0.59188682 0.15404287 11
1.1023613 -0.59480184 0.15379913 11
1.0933037 -0.59485137 0.15282416 11
1.0825186 -0.59389007 0.15160547 11
1.0856501 -0.60054773 0.15233669 11
1.0974165 -0.61206919 0.15428659 11
1.0900825 -0.61297721 0.15355539 11
1.0775748 -0.61090451 0.15209295 11
1.0702655 -0.61170709 0.15136175 11
1.0732837 -0.61841244 0.15209295 11
1.0814177 -0.62813735 0.15355539 11
1.0826446 -0.63391441 0.15404287 11
1.0736977 -0.63346624 0.1530679 11
1.0646552 -0.63315177 0.15209295 11
1.0658439 -0.63890547 0.15258044 11
1.0653063 -0.64364862 0.15282416 11
1.0715302 -0.65252566 0.15404287 11
1.0607868 -0.65107012 0.15282416 11
1.0635723 -0.65790176 0.15355539 11
1.0579001 -0.65951002 0.1530679 11
1.0555916 -0.66319871 0.1530679 11
1.0633333 -0.67325085 0.15453033 11
1.0526093 -0.67161971 0.15331164 11
1.0469192 -0.67314279 0.15282416 11
1.051227 -0.68111074 0.15379913 11
1.0505052 -0.68586123 0.15404287 11
1.0498836 -0.69043177 0.15428659 11
1.0441576 -0.69189936 0.15379913 11
1.0351324 -0.69113082 0.15282416 11
1.0343606 -0.69584787 0.1530679 11
1.036855 -0.70279568 0.15379913 11
1.0409527 -0.71088874 0.15477408 11
1.0286525 -0.70776647 0.15331164 11
1.01965 -0.70682925 0.15233669 11
1.018804 -0.71152085 0.15258044 11
1.0276785 -0.72306883 0.15428659 11
1.0283874 -0.72894752 0.15477408 11
1.0242211 -0.73137921 0.15453033 11
1.0137318 -0.72897685 0.15331164 11
1.0145245 -0.73466313 0.15379913 11
1.0231799 -0.74638927 0.15550528 11
1.0220369 -0.75131017 0.15574904 11
1.0098362 -0.74778515 0.15428659 11
0.9976728 -0.7441842 0.15282416 11
1.0077653 -0.75720173 0.15477408 11
1.0082817 -0.76311082 0.15526156 11
1.0136399 -0.7724663 0.15648025 11
0.99991471 -0.76753885 0.15477408 11
0.99251801 -0.76738185 0.15404287 11
0.99766427 -0.77694011 0.15526156 11
0.9966445 -0.78146911 0.15550528 11
0.99858421 -0.78863424 0.15623651 11
0.99568695 -0.79228896 0.15623651 11
0.98038608 -0.78599924 0.15428659 11
0.98704219 -0.79672712 0.15574904 11
0.99209738 -0.8062557 0.15696773 11
0.98774076 -0.80845648 0.15672398 11
0.98184925 -0.80937409 0.15623651 11
1.2843759 -0.2561774 0.20743214 12
1.2718586 -0.25830022 0.2055549 12
1.2747722 -0.2637606 0.20618065 12
1.2777096 -0.26902276 0.20680638 12
1.2632419 -0.270585 0.20461631 12
1.2603596 -0.27457243 0.20430344 12
1.2593936 -0.27897024 0.20430344 12
1.2641934 -0.28466642 0.20524204 12
1.2689688 -0.29039955 0.20618065 12
1.2564032 -0.29214305 0.20430344 12
1.2496083 -0.29516461 0.20336483 12
1.2504913 -0.29998556 0.2036777 12
1.2532752 -0.30528378 0.20430344 12
1.2522018 -0.30965668 0.20430344 12
1.2434494 -0.3121022 0.20305197 12
1.2385238 -0.31546557 0.20242621 12
1.2431527 -0.32126969 0.20336483 12
1.2458453 -0.32660902 0.20399056 12
1.2446977 -0.3309558 0.20399056 12
1.2320913 -0.33221301 0.20211335 12
1.2194915 -0.33338633 0.20023614 12
1.2278384 -0.34027892 0.20180048 12
1.2324086 -0.34595028 0.20273907 12
1.2368937 -0.3518717 0.2036777 12
1.2299634 -0.35454568 0.20273907 12
1.2192377 -0.35606807 0.20117474 12
1.2218388 -0.36122936 0.20180048 12
1.2205704 -0.36549219 0.20180048 12
1.2174613 -0.36896479 0.20148762 12
1.216166 -0.37321228 0.20148762 12
1.2036024 -0.37372848 0.1996104 12
1.2060596 -0.37911233 0.20023614 12
1.206477 -0.38434002 0.20054901 12
1.2070082 -0.38915521 0.20086187 12
1.1981307 -0.39091522 0.1996104 12
1.1892556 -0.39261803 0.19835892 12
1.2010633 -0.40093794 0.20054901 12
1.1941122 -0.40302354 0.1996104 12
1.1945676 -0.40782759 0.19992328 12
1.1912695 -0.41135013 0.1996104 12
1.1823665 -0.41290087 0.19835892 12
1.1846434 -0.41834113 0.19898467 12
1.1850362 -0.42313805 0.19929753 12
1.1854099 -0.42794278 0.1996104 12
1.1765612 -0.42916369 0.19835892 12
1.165864 -0.42964762 0.19679457 12
1.1717618 -0.4364728 0.19804606 12
1.1794745 -0.44404024 0.1996104 12
1.18161 -0.44955963 0.20023614 12
1.1671268 -0.44871929 0.19804606 12
1.1600294 -0.4506447 0.19710746 12
1.1585287 -0.45448899 0.19710746 12
1.1587715 -0.45925805 0.19742033 12
1.1626629 -0.4655028 0.19835892 12
1.1537058 -0.46659595 0.19710746 12
1.1392692 -0.46539113 0.19491737 12
1.1523293 -0.47519118 0.19742033 12
1.152487 -0.47997007 0.19773319 12
1.145342 -0.48169264 0.19679457 12
1.1436535 -0.48568773 0.19679457 12
1.1292428 -0.48422736 0.1946045 12
1.1403211 -0.49346101 0.19679457 12
1.1476424 -0.50139266 0.19835892 12
1.1458852 -0.50539559 0.19835892 12
1.1386119 -0.50718087 0.19742033 12
1.1296281 -0.50791192 0.19616884 12
1.1333343 -0.51410329 0.19710746 12
1.1297368 -0.51723391 0.19679457 12
1.1350973 -0.52448857 0.19804606 12
1.1207274 -0.52260381 0.19585598 12
1.1154132 -0.52463585 0.19523023 12
1.1118826 -0.52748507 0.19491737 12
1.1225069 -0.53733349 0.19710746 12
1.1170669 -0.53953022 0.1964817 12
1.1045222 -0.53823423 0.1946045 12
1.1132729 -0.5473156 0.1964817 12
1.1007377 -0.54593211 0.1946045 12
1.1094248 -0.55507427 0.1964817 12
1.1145346 -0.5625037 0.19773319 12
1.0967208 -0.55832499 0.19491737 12
1.0948633 -0.56195879 0.19491737 12
1.092895 -0.56577718 0.19491737 12
1.1049221 -0.57690287 0.19742033 12
1.1046493 -0.58167654 0.19773319 12
1.0903997 -0.57904363 0.1955431 12
1.0883718 -0.58284634 0.1955431 12
1.091545 -0.58945775 0.1964817 12
1.0860112 -0.59137511 0.19585598 12
1.0874032 -0.59706378 0.1964817 12
1.0818563 -0.59894234 0.19585598 12
1.0745842 -0.59982663 0.19491737 12
1.0724839 -0.60357398 0.19491737 12
1.0720886 -0.60828882 0.19523023 12
1.0802468 -0.61791229 0.19710746 12
1.0729496 -0.61871892 0.19616884 12
1.06566 -0.61948216 0.19523023 12
1.0635999 -0.6230126 0.19523023 12
1.0648208 -0.62873024 0.19585598 12
1.0660144 -0.63446385 0.1964817 12
1.0570174 -0.63411623 0.19523023 12
1.048036 -0.63371354 0.19397876 12
1.0475044 -0.63839602 0.19429164 12
1.0587353 -0.65031976 0.19679457 12
1.0581384 -0.65505135 0.19710746 12
1.0508175 -0.65560406 0.19616884 12
1.0351442 -0.65085632 0.19366589 12
1.0462149 -0.66292411 0.19616884 12
1.0472243 -0.66869813 0.19679457 12
1.0448837 -0.67234963 0.19679457 12
1.0475028 -0.67921698 0.19773319 12
1.0353215 -0.67620575 0.19585598 12
1.037905 -0.6830734 0.19679457 12
1.0404532 -0.68996739 0.19773319 12
1.0380384 -0.69359505 0.19773319 12
1.0274178 -0.69169837 0.19616884 12
1.0266318 -0.69638932 0.1964817 12
1.0225639 -0.69885415 0.19616884 12
1.0282531 -0.70802075 0.19773319 12
1.0338906 -0.71723545 0.19929753 12
1.0151895 -0.70952392 0.19616884 12
1.0078613 -0.70965147 0.19523023 12
1.0134338 -0.71887964 0.19679457 12
1.0158665 -0.72568107 0.19773319 12
1.0214722 -0.73481357 0.19929753 12
1.0125029 -0.73373824 0.19804606 12
0.99876732 -0.72911501 0.19585598 12
0.99767935 -0.73394126 0.19616884 12
1.0078082 -0.74682832 0.1986718 12
1.0036122 -0.74915987 0.19835892 12
1.0057275 -0.7562201 0.19929753 12
0.99218994 -0.75120437 0.19710746 12
0.9911325 -0.7558611 0.19742033 12
